# .PCD v0.7 - Point Cloud Data file format
VERSION 0.7
FIELDS x y z
SIZE 4 4 4
TYPE F F F
COUNT 1 1 1
WIDTH 1681
HEIGHT 1
VIEWPOINT 0 0 0 1 0 0 0
POINTS 1681
DATA ascii
-2.7061174 3.2510881 0
-11.446574 13.75174 0.99939555
-1.9126927 2.2922411 -0.98438734
-1.9325638 2.3160553 -0.83222711
-1.942759 2.3282738 -0.67175674
-1.9534167 2.3410463 -0.50831002
-1.9910347 2.3861291 -0.34638846
-2.1293979 2.5519485 -0.18564747
-2.7450569 3.2897768 0
-11.471511 13.74788 1.0001217
-1.9075335 2.2804511 -0.98031324
-1.9289223 2.3060212 -0.82945848
-1.9471996 2.3278718 -0.67231911
-1.9578894 2.3406515 -0.50873756
-1.9955744 2.3857036 -0.34667647
-2.1441517 2.5633276 -0.18666358
-2.7289925 3.2625031 0
-13.213547 15.79676 1.1503328
-1.9213996 2.2913964 -0.98601568
-1.9333239 2.3056169 -0.83015263
-1.9418495 2.3157842 -0.66950524
-1.9524707 2.3284507 -0.50659817
-1.9951349 2.3793306 -0.34610045
-2.1021671 2.5069735 -0.18274468
-2.7663763 3.299087 0
-13.247656 15.798707 1.1516395
-1.9082663 2.2701569 -0.9778676
-1.9264195 2.2917528 -0.82599831
-1.9462795 2.3153791 -0.67006755
-1.9470253 2.3162665 -0.50445873
-1.9896886 2.3670204 -0.34465927
-0 0 -0
-2.7938018 3.3236287 0
-13.273423 15.790645 1.15222
-1.8998578 2.2546175 -0.97216207
-1.9421201 2.3047712 -0.83153564
-1.9408909 2.3033125 -0.66725367
-1.9514753 2.3158734 -0.50488627
-1.9958774 2.3685665 -0.34523529
-0 0 -0
-2.7743409 3.2923923 0
-13.297512 15.78055 1.152655
-1.8978004 2.2466612 -0.96971953
-1.9319522 2.2870908 -0.82599831
-1.9420345 2.2990265 -0.66669136
-1.9509622 2.3095953 -0.50403118
-1.9920616 2.3582497 -0.34408212
-0 0 -0
-2.7632041 3.2711463 0
-13.319927 15.768445 1.1529456
-1.898912 2.2424748 -0.96890217
-1.9379599 2.2885876 -0.827384
-1.9398835 2.2908592 -0.66500217
-1.9520942 2.305279 -0.50360364
-1.9982557 2.3597925 -0.34465927
-0 0 -0
-2.7503333 3.2479405 0
-13.360798 15.778116 1.1548322
-1.8984241 2.2364137 -0.96727383
-1.9309794 2.274765 -0.82322967
-1.9410074 2.2865782 -0.6644398
-1.9532121 2.300956 -0.50317442
-1.999427 2.3553987 -0.34437013
-0 0 -0
-2.7761488 3.2704058 0
-13.400032 15.785732 1.1565739
-1.9107326 2.2454085 -0.97216207
-1.9255989 2.2628787 -0.81976956
-1.9404722 2.2803574 -0.66331297
-1.9609835 2.3044612 -0.50445873
-1.9972477 2.3470774 -0.3435061
-0 0 -0
-2.7834749 3.2710168 0
-13.425832 15.777445 1.1571546
-1.9118419 2.2412198 -0.97134787
-1.9332178 2.2662783 -0.82184666
-1.9399314 2.2741485 -0.66218823
-1.9571025 2.2942779 -0.50274688
-1.9916844 2.3348176 -0.34206378
-0 0 -0
-2.7620888 3.2379496 0
-13.449941 15.767137 1.1575896
-1.8952727 2.2163665 -0.9615683
-1.9343195 2.2620285 -0.82115251
-1.9459773 2.2756612 -0.66331297
-1.9498664 2.2802093 -0.50017989
-2.0012281 2.3402724 -0.34321696
-0 0 -0
-2.7947509 3.2682326 0
-13.474051 15.7568 1.158025
-1.8995565 2.2159495 -0.96238244
-1.9321578 2.2539809 -0.81907803
-1.9404588 2.2636645 -0.66049904
-1.9526201 2.2778516 -0.50017989
-1.9939575 2.3260741 -0.34148777
-0 0 -0
-0 0 0
-13.454188 15.695138 1.1546873
-1.886409 2.1979234 -0.95504856
-1.9302481 2.249002 -0.8176924
-1.9352067 2.2547793 -0.65824753
-1.950649 2.2727718 -0.4993231
-1.9953624 2.3248689 -0.34148777
-2.1426532 2.4964828 -0.18376079
-2.2142475 2.5799 0
-13.128603 15.296611 1.1259511
-1.8971218 2.2050087 -0.9591226
-1.9247847 2.2371612 -0.81423223
-1.9329566 2.2466593 -0.65655833
-1.9433515 2.2587411 -0.49675614
-1.9947931 2.3185313 -0.34091061
-2.104995 2.4466181 -0.18027745
-2.2360291 2.598918 0
-13.121655 15.251188 1.1237738
-1.9078605 2.2120783 -0.96319979
-1.9340405 2.2424328 -0.81700087
-1.9356698 2.2443218 -0.65655833
-1.9494293 2.2602754 -0.49761125
-1.9925301 2.3102489 -0.34004658
-2.1435871 2.4853926 -0.18332523
-0 0 0
-13.136682 15.231391 1.1234838
-1.8943639 2.191071 -0.95504856
-1.9367486 2.2400942 -0.81700087
-1.93672 2.240061 -0.65599597
-1.947127 2.2520981 -0.49632856
-1.9970102 2.3097944 -0.34033459
-2.1227994 2.4552853 -0.18129356
-0 0 0
-13.139783 15.197818 1.1221777
-1.9034851 2.1962514 -0.9583084
-1.93124 2.2282753 -0.81354076
-1.9327687 2.2300389 -0.65374446
-1.9481606 2.2477982 -0.49589938
-1.9981073 2.3054271 -0.34004658
-2.1257646 2.4527185 -0.18129356
-0 0 0
-13.141115 15.16229 1.120726
-1.8899302 2.1752956 -0.95016032
-1.9322872 2.2240479 -0.81284922
-1.9321321 2.2238696 -0.65261978
-1.9441408 2.2376914 -0.4941875
-2.0008914 2.3030109 -0.34004658
-2.1321318 2.4540675 -0.18158357
-2.2349093 2.5723636 0
-13.696228 15.764255 1.1664429
-1.8990505 2.1804657 -0.95342022
-1.9349731 2.2217116 -0.81284922
-1.9381522 2.2253616 -0.65374446
-1.9502183 2.2392159 -0.49504426
-2.000272 2.2966869 -0.33946943
-2.1436334 2.4612925 -0.18230969
-0 0 0
-13.706735 15.737899 1.1657174
-1.9000597 2.1763093 -0.95260602
-1.9327048 2.2137005 -0.81077212
-1.9391701 2.2211061 -0.65318209
-1.9512359 2.234926 -0.49461672
-1.9928426 2.2825818 -0.33774024
-2.1192625 2.427382 -0.17998745
-0 0 0
-13.640297 15.623459 1.1584606
-1.8961769 2.1665723 -0.94934613
-1.9320705 2.2075844 -0.80938643
-1.9318088 2.2072854 -0.6498037
-1.9471723 2.2248397 -0.49290484
-1.9938973 2.2782276 -0.33745223
-2.1649752 2.4737012 -0.18361579
-0 0 0
-13.573603 15.509202 1.1512039
-1.8873817 2.1512723 -0.94364059
-1.9297777 2.1995959 -0.80731195
-1.9328004 2.2030413 -0.64924139
-1.9498591 2.2224853 -0.49290484
-1.9915297 2.2699821 -0.33658707
-2.1782413 2.4827993 -0.18448636
-0 0 0
-13.595757 15.496693 1.1514939
-1.9046686 2.1656921 -0.95097452
-1.9390613 2.2047982 -0.81008059
-1.9337846 2.1987982 -0.64867902
-1.9406744 2.2066324 -0.48990867
-1.9925646 2.2656336 -0.33629906
-0 0 -0
-0 0 0
-13.895887 15.800236 1.1752957
-1.9089168 2.1652412 -0.95178872
-1.9350877 2.194926 -0.80731195
-1.9246761 2.1831164 -0.64473832
-1.9586164 2.2216141 -0.49375996
-1.9970095 2.2651627 -0.33658707
-0 0 -0
-0 0 0
-13.97683 15.853602 1.1805207
-1.8935323 2.1425664 -0.94282645
-1.9360722 2.190701 -0.8066178
-1.9357306 2.1903143 -0.64755434
-1.949398 2.2057793 -0.49076375
-1.9980339 2.2608118 -0.33629906
-0 0 -0
-2.1445723 2.4266226 0
-14.016624 15.860066 1.1822624
-1.8928387 2.1365733 -0.94119495
-1.9370558 2.1864841 -0.80592632
-1.9350026 2.1841664 -0.64642751
-1.9418514 2.1918972 -0.48819679
-1.9973305 2.2545202 -0.33572191
-0 0 -0
-0 0 0
-14.065069 15.876182 1.1847296
-1.8905001 2.1287458 -0.93875241
-1.9180415 2.1597579 -0.79692888
-1.9308914 2.1742272 -0.64417595
-1.9530199 2.1991444 -0.49033621
-2.0000534 2.2521052 -0.33572191
-2.1655943 2.438508 -0.18216412
-0 0 0
-14.092868 15.868887 1.1854552
-1.8963546 2.1301484 -0.94038075
-1.9323283 2.1705573 -0.80177468
-1.9419631 2.1813798 -0.64698982
-1.948848 2.1891136 -0.48862433
-1.9993367 2.2458267 -0.33514589
-2.1944575 2.4650035 -0.18434136
-2.1620052 2.42855 0
-14.141403 15.884839 1.1879224
-1.8841176 2.1112607 -0.93304682
-1.9249239 2.1569865 -0.79762036
-1.9344498 2.1676607 -0.64361358
-1.9532058 2.188678 -0.48905355
-1.9917126 2.231827 -0.33341557
-2.2078118 2.4739785 -0.18521191
-0 0 0
-14.181348 15.891005 1.1896641
-1.906442 2.1310875 -0.94282645
-1.9241867 2.150923 -0.79623735
-1.9370676 2.1653218 -0.64361358
-1.9558489 2.1863163 -0.48905355
-1.9926851 2.227493 -0.33312756
-2.2090688 2.4693742 -0.18506691
-0 0 0
-13.479864 15.068262 1.1292888
-1.8974632 2.1159 -0.93712091
-1.9217578 2.1429913 -0.79416025
-1.9379878 2.1610899 -0.64305127
-1.9499151 2.1743901 -0.48691246
-1.9971002 2.2270074 -0.33341557
-2.2120509 2.4667032 -0.18506691
-2.1985946 2.4516976 0
-14.268276 15.910847 1.1937274
-1.9016693 2.115442 -0.93793505
-1.9260213 2.1425316 -0.79485172
-1.9355 2.1530759 -0.64136207
-1.9439617 2.1624889 -0.48477304
-1.9894181 2.2130551 -0.33168638
-2.2167654 2.4659591 -0.18521191
-0 0 0
-14.299653 15.907124 1.1947435
-1.8847636 2.09409 -0.92897278
-1.9256387 2.1395047 -0.79416025
-1.9368005 2.1519063 -0.64136207
-1.9487058 2.1651337 -0.4856298
-1.9838336 2.2041628 -0.33053321
-2.2078283 2.4530349 -0.18434136
-0 0 0
-14.307524 15.896552 1.1945986
-1.8972235 2.1028183 -0.93386102
-1.9231856 2.1315937 -0.79208571
-1.9325908 2.1420181 -0.63911051
-1.9375635 2.1475298 -0.48220608
-1.9847645 2.1998456 -0.3302452
-2.2055671 2.4445758 -0.1839058
-0 0 0
-5.7422981 6.3645687 0.47880745
-1.8898188 2.0895293 -0.92897278
-1.9257598 2.1292684 -0.79208571
-1.9334749 2.1377988 -0.6385482
-1.9487649 2.1547046 -0.4843455
-1.9926209 2.2031951 -0.33110923
-2.2224629 2.4573262 -0.18506691
-2.1845069 2.415359 0
-5.737782 6.3441339 0.47779134
-1.8923422 2.0872443 -0.92897278
-1.919901 2.1176414 -0.78862292
-1.9275249 2.1260507 -0.63573432
-1.9496446 2.1504483 -0.48391792
-2.000495 2.2065363 -0.33197439
-0 0 -0
-2.1577091 2.3799427 0
-5.7576623 6.3506732 0.47880745
-1.8865528 2.0758126 -0.92489874
-1.9140235 2.106039 -0.78516281
-1.9403428 2.1349986 -0.63911051
-1.95051 2.1461859 -0.48348874
-2.0014219 2.2022052 -0.33168638
-0 0 -0
-2.1903374 2.410073 0
-0 0 0
-1.8957177 2.0808396 -0.92815864
-1.9216371 2.1092901 -0.78723991
-1.9412115 2.1307762 -0.6385482
-1.9513747 2.1419318 -0.48306116
-1.9901462 2.1844895 -0.32938004
-0 0 -0
-2.2107713 2.4266591 0
-0 0 0
-1.894894 2.074894 -0.92652714
-1.9140303 2.0958481 -0.78308564
-1.9317888 2.1152935 -0.63460743
-1.9470369 2.13199 -0.48134932
-1.9927843 2.1820831 -0.32938004
-0 0 -0
-2.2452886 2.4585733 0
-5.7455997 6.2913861 0.47590467
-1.8840482 2.0580184 -0.92000741
-1.9165614 2.093534 -0.78308564
-1.9360574 2.1148303 -0.6351698
-1.9513433 2.1315274 -0.48177686
-1.9884335 2.1720426 -0.32822686
-0 0 -0
-2.1937857 2.3963568 0
-5.7461791 6.276773 0.47532412
-1.8865335 2.0557406 -0.92000741
-1.917395 2.08937 -0.78239411
-1.9420507 2.1162369 -0.63629663
-1.9539174 2.1291683 -0.48177686
-1.9858084 2.1639194 -0.3273617
-0 0 -0
-2.189641 2.3860343 0
-5.7502484 6.2659998 0.47503412
-1.8873444 2.0516422 -0.91919321
-1.9199182 2.0870516 -0.78239411
-1.9325629 2.1007972 -0.63235593
-1.944328 2.1135862 -0.47878233
-1.9849228 2.1577151 -0.32678568
-0 0 -0
-2.2066181 2.3987095 0
-5.7507787 6.2513976 0.47445354
-1.889822 2.0493603 -0.91919321
-1.9139366 2.0755105 -0.778934
-1.9299307 2.092855 -0.63066673
-1.9468803 2.1112354 -0.47878233
-1.9805148 2.1477094 -0.32563251
-0 0 -0
-0 0 0
-5.7477622 6.2329869 0.47358298
-1.8889382 2.0434418 -0.91756171
-1.916443 2.0731964 -0.778934
-1.9290119 2.0867932 -0.62954199
-1.9459416 2.1051078 -0.47792557
-1.9918853 2.1548095 -0.32707369
-0 0 -0
-0 0 0
-5.7429409 6.2126784 0.47256687
-1.8813297 2.0302839 -0.91267347
-1.9155396 2.0672023 -0.777551
-1.9315319 2.084461 -0.62954199
-1.9502336 2.1046433 -0.47835478
-1.9962438 2.1542964 -0.3273617
-0 0 -0
-0 0 0
-5.7451434 6.2000151 0.47213131
-1.8821009 2.0262001 -0.91185933
-1.9112064 2.0575337 -0.77478236
-1.9288597 2.0765388 -0.6278528
-1.9440347 2.0928757 -0.47621369
-1.9953282 2.1480963 -0.32678568
-0 0 -0
-0 0 0
-5.7455573 6.1854534 0.47155076
-1.8895959 2.0293458 -0.91430187
-1.9153991 2.0570574 -0.77547383
-1.9348338 2.0779293 -0.62897968
-1.9535595 2.0980401 -0.47792557
-1.9855826 2.1324313 -0.32476735
-0 0 -0
-0 0 0
-5.7477198 6.1728067 0.47111577
-1.8819309 2.0162237 -0.90941364
-1.9093257 2.0455732 -0.77201372
-1.9338723 2.0718713 -0.6278528
-1.9508435 2.0900536 -0.47664291
-1.9899209 2.1319196 -0.32505536
-0 0 -0
-0 0 0
-5.7480822 6.1582594 0.47053522
-1.8759241 2.004926 -0.9053396
-1.9049398 2.0359371 -0.76924503
-1.9242274 2.0565507 -0.62391424
-1.9516084 2.085815 -0.47621369
-1.9871991 2.123853 -0.32419133
-0 0 -0
-2.2250512 2.3780615 0
-5.751965 6.1475105 0.47024465
-1.8867979 2.0116699 -0.90941364
-1.9039626 2.0299704 -0.7678594
-1.930184 2.0579274 -0.62503892
-1.948864 2.0778434 -0.47493103
-1.9915316 2.1233351 -0.32447934
-0 0 -0
-2.2742097 2.4247212 0
-0 0 0
-1.8824551 2.0021858 -0.9061538
-1.9046972 2.0258424 -0.76716793
-1.927446 2.0500381 -0.62334973
-1.9443395 2.0680063 -0.47321916
-1.9887789 2.115272 -0.32361418
-0 0 -0
-2.2824807 2.4276543 0
-5.7668042 6.1335926 0.47024465
-1.8751955 1.9920514 -0.9020797
-1.9076387 2.0265164 -0.7678594
-1.9269443 2.047025 -0.62278742
-1.9491043 2.0705659 -0.47407427
-1.9918345 2.1159589 -0.32390332
-2.4223905 2.5733457 -0.19740307
-2.241142 2.3808024 0
-5.7740741 6.1338949 0.47053522
-1.8826916 1.9951787 -0.9045254
-1.9100859 2.0242097 -0.7678594
-1.9276742 2.0428488 -0.62222505
-1.9463245 2.0626135 -0.47279161
-1.985509 2.1041393 -0.32246101
-2.4201531 2.5647526 -0.19696806
-2.2440171 2.3780928 0
-5.7796931 6.1250186 0.47038963
-1.8783072 1.9857202 -0.90126556
-1.9021899 2.0109684 -0.76370776
-1.9318856 2.0423625 -0.62278742
-1.9382275 2.049067 -0.47022298
-1.9862744 2.0998614 -0.322173
-2.4036069 2.5410597 -0.19537139
-3.0569909 3.2318079 0
-5.7870898 6.1180305 0.47038963
-1.8858021 1.9888245 -0.9037081
-1.9011626 2.005024 -0.76232213
-1.9238656 2.0289671 -0.61941117
-1.9460026 2.0523138 -0.47150731
-1.9941509 2.1030924 -0.32303816
-2.4209788 2.5532379 -0.19653252
-3.0197062 3.1846743 0
-5.7998433 6.1166921 0.4708252
-1.8728805 1.970423 -0.89637417
-1.9070439 2.0063658 -0.76370776
-1.9210625 2.0211143 -0.61772197
-1.9484811 2.0499609 -0.47150731
-1.9913431 2.0950553 -0.322173
-2.4186897 2.5446589 -0.19609696
-3.0253501 3.182915 0
-5.8161793 6.1190948 0.47155076
-1.8786732 1.9717407 -0.89800566
-1.8956223 1.9895295 -0.75817049
-1.9235032 2.0187917 -0.61772197
-1.9456425 2.0420277 -0.47022298
-1.9920907 2.0907769 -0.32188499
-2.4181814 2.5379755 -0.19580695
-3.014832 3.1641836 0
-5.827157 6.1158285 0.47184134
-1.8622744 1.9498067 -0.88904029
-1.8928248 1.981793 -0.75609332
-1.932961 2.0238159 -0.61997354
-1.9498798 2.0415299 -0.47065055
-1.9892545 2.0827553 -0.32101983
-2.4050953 2.518142 -0.19450083
-3.0276389 3.1699467 0
-5.8363357 6.1106606 0.47198632
-1.8721168 1.950652 -0.89148599
-1.895873 1.9754049 -0.75540179
-1.9255285 2.0063045 -0.61603278
-1.9405875 2.0219951 -0.4672268
-1.9924926 2.0760777 -0.32073182
-2.4111738 2.5123224 -0.19450083
-3.0497069 3.1776421 0
-5.8762717 6.1227813 0.47401801
-1.8727605 1.9466091 -0.89067179
-1.8947831 1.9695002 -0.75401884
-1.9226716 1.9984883 -0.61434573
-1.9394732 2.0159523 -0.46637169
-1.9896183 2.0680749 -0.31986666
-2.4196072 2.5150194 -0.19493584
-3.0355046 3.1552038 0
-5.8854651 6.117547 0.474163
-1.8699623 1.9390059 -0.88822609
-1.9041209 1.9744257 -0.7567848
-1.9233161 1.9943295 -0.61378127
-1.9472554 2.0191526 -0.46765602
-1.9921157 2.0656693 -0.31986666
-2.4262552 2.5158384 -0.1952264
-3.0429246 3.1552765 0
-5.8964639 6.1141753 0.47445354
-1.8688649 1.9331875 -0.88659459
-1.8960464 1.9613045 -0.75263315
-1.9186603 1.9846969 -0.61152971
-1.9372023 2.0038772 -0.46465981
-1.9892153 2.0576801 -0.31900153
-2.4112294 2.4942193 -0.19377472
-3.0214143 3.1254056 0
-5.9020433 6.1051798 0.47430855
-1.8849596 1.9451274 -0.89311433
-1.8931755 1.9536055 -0.75055605
-1.921057 1.9823771 -0.61152971
-1.9431916 2.0052183 -0.46551493
-1.9863055 2.0497081 -0.31813747
-2.4232881 2.5006394 -0.19450083
-3.0251887 3.1217525 0
-5.9166489 6.1055079 0.4748891
-1.8804199 1.9357569 -0.88985449
-1.8937883 1.9495188 -0.74986452
-1.9216821 1.9782336 -0.61096734
-1.9420393 1.9991897 -0.46465981
-1.9959894 2.0547276 -0.31929064
-2.4136324 2.4846609 -0.19348472
-3.0343933 3.1236897 0
-5.9294481 6.1039405 0.47532412
-1.8810347 1.9317144 -0.88904029
-1.8926455 1.9436378 -0.74848151
-1.9276198 1.9795544 -0.61209422
-1.9480319 2.0005164 -0.46551493
-1.991253 2.0449021 -0.31813747
-2.4166329 2.4817426 -0.19348472
-3.0472488 3.129349 0
-5.9458885 6.1060853 0.47605023
-1.8764617 1.9223654 -0.88578039
-1.882724 1.9287809 -0.74363571
-1.9211309 1.9681273 -0.60927814
-1.9450735 1.9926555 -0.46423227
-1.9955274 2.0443437 -0.31842548
-2.4232564 2.4825363 -0.19377472
-3.0183024 3.092139 0
-5.9623356 6.1081915 0.4767758
-1.8977993 1.9395308 -0.89474583
-1.8920715 1.9336772 -0.74640441
-1.9270651 1.9694403 -0.61040503
-1.9492733 1.992137 -0.46465981
-1.9889532 2.0326893 -0.3169843
-2.4189851 2.4721773 -0.19319417
-3.0657196 3.1331332 0
-5.9733429 6.1046939 0.47706577
-1.8811018 1.9178251 -0.88578039
-1.8873796 1.9242254 -0.74363571
-1.9187646 1.956223 -0.60702664
-1.942693 1.9806186 -0.46252039
-1.9823538 2.0210538 -0.31554312
-2.4237952 2.471113 -0.19333972
-3.0676825 3.1275704 0
-5.9770794 6.0937653 0.4767758
-1.8660927 1.89793 -0.87763232
-1.8967389 1.9290992 -0.74640441
-1.9157877 1.948473 -0.60533959
-1.9414817 1.9746053 -0.46166363
-1.9902294 2.0241847 -0.31640714
-2.4158452 2.457062 -0.19246861
-3.0477412 3.0997386 0
-5.9880781 6.090241 0.47706577
-0 0 -0
-1.8867394 1.9142967 -0.74155861
-1.9252751 1.9533954 -0.60759115
-1.9456735 1.9740915 -0.46209285
-1.989046 2.0180976 -0.31583112
-2.4133456 2.4485943 -0.1920336
-3.0350444 3.0793736 0
-15.523583 15.750318 1.2352353
-0 0 -0
-1.8931837 1.9185153 -0.74363571
-1.9210991 1.9468043 -0.60590196
-1.9342424 1.9601234 -0.45909667
-1.984813 2.0113707 -0.31496596
-2.4166479 2.4489837 -0.19217861
-3.0588329 3.0997615 0
-15.529443 15.737234 1.2349448
-0 0 -0
-1.8955004 1.9162264 -0.74363571
-1.9127321 1.9336466 -0.60252571
-1.9348059 1.9559616 -0.4586691
-1.9872419 2.008971 -0.31496596
-2.4287403 2.4552968 -0.19290416
-3.0589192 3.0923662 0
-15.563066 15.733237 1.2361059
-0 0 -0
-1.8942782 1.9103683 -0.74225008
-1.9186418 1.934939 -0.60365039
-1.9443978 1.9609138 -0.46038097
-1.9842026 2.0010567 -0.31410083
-2.4298773 2.4505169 -0.19275917
-3.0406642 3.0664918 0
-15.593046 15.725494 1.236977
-0 0 -0
-1.8930513 1.9045229 -0.74086708
-1.9263539 1.9380274 -0.60533959
-1.9395269 1.9512802 -0.4586691
-1.9902693 2.0023301 -0.31467795
-2.4346666 2.4494202 -0.19290416
-3.0645504 3.0831211 0
-13.67773 13.760614 1.0837176
-0 0 -0
-1.8882681 1.8951254 -0.73809844
-1.9233122 1.9302968 -0.60365039
-1.9400662 1.9471115 -0.45823991
-1.9908634 1.9980932 -0.31438994
-2.4394567 2.4483156 -0.19304916
-3.097657 3.108906 0
-13.69985 13.749601 1.0841531
-0 0 -0
-1.8887855 1.8910691 -0.73740697
-1.9130723 1.9153852 -0.59970969
-1.9369804 1.9393222 -0.45695722
-1.9896171 1.9920226 -0.31381279
-2.4387443 2.4416928 -0.19275917
-3.0958991 3.099642 0
-13.742158 13.758773 1.0861847
-0 0 -0
-1.8875155 1.8852363 -0.73602128
-1.9243793 1.9220555 -0.60252571
-1.9447659 1.9424175 -0.45823991
-1.9865378 1.984139 -0.31294876
-2.4398491 2.4369028 -0.1926136
-3.099642 3.0958991 0
-13.767963 13.751338 1.0869104
-0 0 -0
-1.8880167 1.8811852 -0.73532981
-1.9248952 1.9179302 -0.6019612
-1.9416614 1.9346356 -0.45695722
-1.9834354 1.9762586 -0.3120836
-2.4556785 2.4467931 -0.19362973
-3.0904739 3.0792913 0
-13.810336 13.760365 1.0889421
-0 0 -0
-1.8689365 1.8576792 -0.72702384
-1.9200028 1.908438 -0.59970969
-1.9367149 1.9250493 -0.45524538
-1.9821495 1.9702103 -0.31150645
-2.4494202 2.4346666 -0.19290416
-3.0701988 3.0517058 0
-13.836172 13.752832 1.0896682
-0 0 -0
-1.8818719 1.8660218 -0.73117816
-1.9168998 1.9007546 -0.59802264
-1.9390395 1.9227078 -0.45524538
-1.9937171 1.9769249 -0.31294876
-2.4505169 2.4298773 -0.19275917
-3.1052983 3.0791438 0
-13.867534 13.750733 1.0908287
-0 0 -0
-1.8948234 1.8743289 -0.73532981
-1.9155787 1.8948598 -0.59689581
-1.9413613 1.9203634 -0.45524538
-1.9850678 1.9635973 -0.31121844
-2.4571424 2.4305658 -0.19304916
-3.0664668 3.0332997 0
-13.902616 13.752245 1.0922804
-0 0 -0
-0 0 -0
-1.9196738 1.8943268 -0.59745812
-1.9528146 1.92703 -0.45738479
-1.9819142 1.9557453 -0.31035328
-2.4674757 2.4348955 -0.19362973
-3.1219907 3.0807686 0
-13.94696 13.762808 1.094457
-0 0 -0
-0 0 -0
-1.9147253 1.8848826 -0.59520876
-1.9386789 1.9084628 -0.4535335
-1.9898072 1.9587944 -0.31121844
-2.4796729 2.441025 -0.19435528
-3.0960367 3.0477822 0
-13.985801 13.76782 1.0961987
-0 0 -0
-0 0 -0
-1.9170014 1.8825676 -0.59520876
-1.9428132 1.9079158 -0.45396104
-1.9829473 1.947329 -0.30977726
-2.4659369 2.421643 -0.19304916
-3.0681524 3.0130415 0
-14.015406 13.763658 1.0972148
-0 0 -0
-0 0 -0
-1.9156412 1.8766903 -0.59408188
-1.9469491 1.9073616 -0.45438862
-1.983453 1.9431233 -0.30948925
-2.4800017 2.4295754 -0.19392028
-3.079227 3.0166171 0
-14.037597 13.75217 1.0976504
-0 0 -0
-0 0 -0
-1.9251761 1.881478 -0.59633344
-1.9474182 1.9032153 -0.45396104
-1.9802483 1.9353001 -0.30862409
-2.4977951 2.4410996 -0.19508083
-3.0884554 3.0183527 0
-14.061637 13.742462 1.098231
-0 0 -0
-0 0 -0
-1.9165356 1.8685113 -0.5929572
-1.9460438 1.8972802 -0.45310593
-1.9751774 1.9256837 -0.30747092
-2.5007429 2.4380796 -0.19508083
-3.0771925 3.0000849 0
-14.126602 13.77262 1.1020043
-0 0 -0
-1.8998215 1.8477439 -0.73117816
-1.9151455 1.8626478 -0.59183037
-1.93729 1.8841852 -0.45053732
-1.9793551 1.9250973 -0.30775893
-2.5036869 2.4350562 -0.19508083
-3.1125295 3.0272093 0
-14.145094 13.757351 1.1021492
-0 0 -0
-0 0 -0
-1.9192165 1.8620999 -0.59239268
-1.9414059 1.8836288 -0.45096487
-1.9649745 1.9064962 -0.30516458
-2.4991748 2.4247985 -0.19450083
-3.1236563 3.030695 0
-14.180352 13.75834 1.1036004
-0 0 -0
-0 0 -0
-1.9123381 1.8509456 -0.58957881
-1.9381521 1.8759308 -0.44968221
-1.9747108 1.9113159 -0.30631775
-2.5021031 2.421777 -0.19450083
-3.1460197 3.0450218 0
-14.20257 13.746619 1.104036
-0 0 -0
-0 0 -0
-1.8951913 1.8321329 -0.58395106
-1.9448166 1.880107 -0.45096487
-1.9702846 1.9047276 -0.30545259
-2.5129049 2.4292934 -0.1952264
-3.123529 3.0196004 0
-14.231424 13.757904 1.1056327
-0 0 -0
-0 0 -0
-1.9102012 1.8421834 -0.58788961
-1.945241 1.8759755 -0.45053732
-1.9744518 1.9041462 -0.30574173
-2.5195756 2.4298594 -0.19551639
-3.1290541 3.0176358 0
-14.276088 13.76775 1.1078093
-0 0 -0
-0 0 -0
-1.9160913 1.8434005 -0.5890165
-1.9327067 1.8593855 -0.44711357
-1.9730197 1.8981692 -0.30516458
-2.5374901 2.4412253 -0.19667751
-3.138319 3.0192604 0
-14.285223 13.743283 1.1072288
-0 0 -0
-0 0 -0
-1.909153 1.8322886 -0.58620262
-1.9423604 1.864159 -0.44882545
-1.9753118 1.8957838 -0.30516458
-2.5404379 2.4381573 -0.19667751
-3.1475997 3.020874 0
-14.31307 13.736812 1.1080998
-0 0 -0
-0 0 -0
-1.909525 1.8282182 -0.58563811
-1.9483235 1.8653647 -0.44968221
-1.966395 1.8826667 -0.30343539
-2.5246167 2.4171195 -0.1952264
-3.1568887 3.0224698 0
-14.363439 13.751849 1.1107121
-0 0 -0
-0 0 -0
-1.89704 1.8118765 -0.58113718
-1.9431504 1.855917 -0.44797033
-1.9742744 1.8856436 -0.30429941
-2.5275354 2.4140673 -0.1952264
-3.1624188 3.0204489 0
-14.395078 13.748841 1.1118733
-0 0 -0
-0 0 -0
-1.9029036 1.8130851 -0.58226186
-1.9361007 1.8447154 -0.44583091
-1.9728098 1.8796917 -0.30372339
-2.5379755 2.4181814 -0.19580695
-3.1604118 3.0112381 0
-14.434255 13.752948 1.1136149
-0 0 -0
-0 0 -0
-1.9069328 1.8125334 -0.58282423
-1.9513476 1.8547494 -0.44882545
-1.9732066 1.8755264 -0.30343539
-2.5634966 2.436595 -0.19754863
-3.1772542 3.0199695 0
-16.678812 15.853155 1.2853055
-0 0 -0
-0 0 -0
-1.9035954 1.804988 -0.58113718
-1.9368238 1.8364952 -0.44497415
-1.9773465 1.8749187 -0.30372339
-2.5645478 2.4317026 -0.19740307
-3.1525714 2.9892664 0
-16.692303 15.827632 1.2848705
-0 0 -0
-0 0 -0
-1.9020797 1.7991911 -0.58001029
-1.9315817 1.8270973 -0.44326228
-1.9852494 1.877862 -0.30458856
-2.5391736 2.401823 -0.1952264
-3.1732025 3.0015557 0
-16.70953 15.805667 1.2847255
-0 0 -0
-0 0 -0
-1.9042523 1.7968915 -0.58001029
-1.9356533 1.8265222 -0.44368982
-1.9781057 1.8665811 -0.30314627
-2.557193 2.4130199 -0.19638751
-3.180609 3.0012879 0
-16.73428 15.790811 1.2851605
-0 0 -0
-0 0 -0
-1.9027253 1.7911094 -0.57888561
-1.9416008 1.8277044 -0.44454658
-1.9747151 1.8588762 -0.30228221
-2.520376 2.3725278 -0.19333972
-3.1690733 2.9831722 0
-16.740108 15.758117 1.284145
-0 0 -0
-0 0 -0
-1.9030305 1.7870647 -0.5783211
-1.9288373 1.8112988 -0.44112286
-1.9826107 1.8617954 -0.30314627
-0 0 -0
-3.1631918 2.9704347 0
-6.4325542 6.0405707 0.49288529
-0 0 -0
-0 0 -0
-1.9107533 1.789977 -0.58001029
-1.9328961 1.8107202 -0.4415504
-1.9735368 1.8487921 -0.30141705
-0 0 -0
-3.181973 2.9808443 0
-0 0 0
-0 0 -0
-0 0 -0
-1.8980633 1.7737879 -0.57550722
-1.9369564 1.8101344 -0.44197798
-1.9776573 1.8481704 -0.30170506
-0 0 -0
-3.1931782 2.9841051 0
-0 0 0
-0 0 -0
-0 0 -0
-1.9057826 1.7766926 -0.57719642
-1.9466529 1.8147947 -0.44368982
-1.9893465 1.8545964 -0.30314627
-2.1213005 1.9776124 -0.16199127
-3.2062976 2.9891162 0
-0 0 0
-0 0 -0
-0 0 -0
-1.906069 1.7726599 -0.57663411
-1.9356912 1.8002087 -0.44069529
-1.9726496 1.8345803 -0.30026388
-2.1446135 1.994508 -0.16358739
-3.2060993 2.9816985 0
-6.4883094 6.0341811 0.49491698
-0 0 -0
-0 0 -0
-1.8988979 1.7617164 -0.57382023
-1.9303374 1.7908847 -0.43898344
-1.9691747 1.8269162 -0.29939872
-2.1451187 1.9901497 -0.16344239
-3.2116058 2.9795907 0
-6.4765506 6.0086675 0.49346584
-1.8318969 1.6954417 -0.82303202
-0 0 -0
-1.897292 1.7559656 -0.57269335
-1.9343821 1.790293 -0.43941098
-1.9675878 1.8210253 -0.2988227
-2.1208272 1.96285 -0.1614107
-3.2209282 2.9810061 0
-16.960506 15.697144 1.2908206
-0 0 -0
-0 0 -0
-1.8938099 1.7484993 -0.57100415
-1.9308838 1.7827284 -0.43812668
-1.9773883 1.8256646 -0.29997587
-2.1461 1.9814312 -0.16315183
-3.2283556 2.9806464 0
-16.97946 15.676639 1.2908206
-1.8432608 1.6977075 -0.82629186
-0 0 -0
-1.8959212 1.7462096 -0.57100415
-1.9443693 1.790832 -0.44069529
-1.9719828 1.816265 -0.2988227
-2.0911574 1.926029 -0.15879792
-3.2434368 2.9873185 0
-6.4065542 5.90066 0.4864997
-1.8952183 1.7434471 -0.8491109
-0 0 -0
-1.9025877 1.7502263 -0.57269335
-1.9360064 1.7809689 -0.43855587
-1.9730798 1.8150734 -0.2988227
-0 0 -0
-3.2452412 2.9853585 0
-6.4062896 5.8932667 0.48620915
-1.8408699 1.6893489 -0.82384616
-0 0 -0
-1.9009606 1.7444935 -0.57156867
-1.9343706 1.7751535 -0.43769911
-1.9733677 1.8109407 -0.29853469
-0 0 -0
-3.2546 2.9867158 0
-0 0 0
-1.8392673 1.6837887 -0.82221782
-0 0 -0
-1.8974427 1.7370464 -0.56987947
-1.9497702 1.7849504 -0.44069529
-1.9812722 1.8137895 -0.29939872
-0 0 -0
-3.2524459 2.9775074 0
-0 0 0
-1.8303466 1.6715615 -0.81732649
-1.9735938 1.8023818 -0.73740697
-1.8976659 1.7330407 -0.56931716
-1.9386548 1.7704737 -0.43769911
-1.9700987 1.7991898 -0.29738152
-0 0 -0
-3.2771821 2.9928818 0
-0 0 0
-1.889006 1.7209505 -0.84259117
-2.0351086 1.8540549 -0.75955343
-1.9110247 1.7410103 -0.57269335
-1.9407927 1.7681299 -0.43769911
-1.9665334 1.7915807 -0.29651636
-5.6780171 5.1728721 -0.42903396
-3.2557881 2.9661367 0
-6.4385433 5.8657379 0.4864997
-1.8599914 1.6904089 -0.82873756
-2.061481 1.873528 -0.76855087
-1.8943269 1.721614 -0.5670656
-1.9372267 1.7606024 -0.43641481
-1.9820973 1.8013819 -0.29853469
-5.66888 5.1520267 -0.42787284
-3.2612936 2.9639492 0
-6.4456263 5.857954 0.4864997
-1.8711863 1.6964592 -0.83281159
-2.0897675 1.89463 -0.77824247
-1.8945179 1.7176123 -0.56650108
-1.9431599 1.7617121 -0.43727157
-1.9651068 1.7816097 -0.2956512
-5.7020483 5.1696038 -0.42990452
-3.2745111 2.968745 0
-6.4411454 5.8396864 0.4856286
-1.8567387 1.6792775 -0.82547766
-2.0548422 1.8584471 -0.76439923
-1.9022472 1.7204366 -0.56819028
-1.9376715 1.7524753 -0.43555969
-1.9826044 1.7931135 -0.29795754
-5.7159991 5.1696825 -0.43048507
-3.2742393 2.961298 0
-6.4559059 5.838871 0.48620915
-1.8807875 1.696901 -0.83525729
-1.9993484 1.80387 -0.74294424
-1.8948938 1.709628 -0.5653764
-1.9397877 1.7501327 -0.43555969
-1.9655694 1.7733936 -0.29507518
-5.6952353 5.1384063 -0.42845342
-3.2932732 2.9712865 0
-6.4726005 5.8397679 0.48693472
-1.8516077 1.66652 -0.82140362
-1.9940677 1.7947396 -0.7401756
-1.9007317 1.7107335 -0.56650108
-1.9247303 1.7323333 -0.4317084
-1.9754007 1.7779386 -0.29622835
-5.6821227 5.1141343 -0.42700171
-3.2504358 2.9255204 0
-6.4796519 5.8319426 0.48693472
-1.8666725 1.6719314 -0.82629186
-1.9871829 1.7798694 -0.73602128
-1.8878278 1.6908796 -0.56143564
-1.9365599 1.7345277 -0.43342027
-1.9719849 1.766257 -0.29507518
-5.7447934 5.1454659 -0.43077564
-0 0 0
-17.522034 15.694043 1.3138968
-1.8650017 1.6663779 -0.82466036
-0 0 -0
-1.9031346 1.7004496 -0.5653764
-1.9424791 1.7356039 -0.43427539
-1.9799057 1.7690446 -0.29594034
-5.6696281 5.0658097 -0.42468005
-0 0 0
-17.552607 15.683244 1.3147674
-1.8707075 1.6674155 -0.82629186
-1.8997198 1.693275 -0.70210868
-1.8994956 1.6930752 -0.56368721
-1.9503257 1.7383815 -0.43555969
-1.9820418 1.7666509 -0.29594034
-5.6970768 5.0779686 -0.42627618
-0 0 0
-6.3428936 5.653604 0.47459856
-1.867178 1.6602254 -0.82384616
-1.9261353 1.712648 -0.71110612
-1.897746 1.6874052 -0.56256253
-1.9389942 1.7240816 -0.43256351
-1.9803054 1.7608142 -0.29536319
-5.6799064 5.0503616 -0.4245345
-0 0 0
-6.3613753 5.6562986 0.47546968
-1.8765788 1.6645284 -0.82710606
-1.8850343 1.6720284 -0.69518572
-1.8997835 1.685111 -0.56256253
-1.943002 1.7234459 -0.4329927
-1.9804986 1.7567054 -0.29507518
-5.7307167 5.0831547 -0.42787284
-2.2728255 2.0159998 0
-0 0 0
-1.8748902 1.6589872 -0.82547766
-1.9791148 1.7512097 -0.729101
-1.8961077 1.6777613 -0.56087333
-1.937393 1.7142924 -0.43128085
-1.9864901 1.7577357 -0.2956512
-5.6784782 5.0245724 -0.42351893
-0 0 0
-6.3672414 5.6340213 0.4748891
-1.875035 1.6550802 -0.82466036
-1.9492567 1.720595 -0.71733493
-1.892417 1.6704229 -0.55918413
-1.9375328 1.7102464 -0.43085164
-1.9808561 1.7484876 -0.29449803
-0 0 -0
-0 0 0
-6.3662519 5.6194453 0.47430855
-1.8677605 1.644648 -0.82058632
-1.8929712 1.6668471 -0.69587988
-1.8963463 1.6698191 -0.55974865
-1.9473044 1.71469 -0.43256351
-1.9887928 1.7512224 -0.29536319
-0 0 -0
-0 0 0
-6.3710818 5.6100268 0.474163
-1.8697463 1.64239 -0.82058632
-1.9138287 1.6811121 -0.70280015
-1.8888122 1.6591374 -0.55693257
-1.947448 1.7106433 -0.43213594
-1.9928486 1.7505233 -0.2956512
-2.0930083 1.8385038 -0.15560514
-3.3187847 2.9152291 0
-6.3661461 5.5920386 0.47329244
-1.8642939 1.6336139 -0.81732649
-1.9101963 1.6738366 -0.70072305
-1.9022853 1.6669044 -0.56031096
-1.9456558 1.7049085 -0.43128085
-1.9813508 1.7361867 -0.293634
-2.1089103 1.8479625 -0.15662125
-3.3360083 2.9232244 0
-6.3553114 5.5689316 0.47198632
-1.8458022 1.6134717 -0.80836421
-1.8328891 1.6021841 -0.67165357
-1.8928161 1.654568 -0.55693257
-1.9457762 1.7008621 -0.43085164
-1.9814943 1.7320843 -0.29334489
-2.1150506 1.84883 -0.15691125
-3.32582 2.9072003 0
-0 0 0
-1.8086325 1.5771295 -0.79125071
-0 0 -0
-1.8948139 1.6522797 -0.55693257
-1.943964 1.6951387 -0.42999652
-1.9913833 1.7364883 -0.29449803
-2.0977023 1.8291986 -0.15546013
-3.3254113 2.8997619 0
-15.76682 13.748683 1.1684746
-1.8319509 1.5955157 -0.80103028
-1.8679495 1.6268682 -0.68341964
-1.8938977 1.6494675 -0.55637026
-1.9507971 1.6990234 -0.43128085
-1.9846303 1.72849 -0.29334489
-2.0948844 1.8245145 -0.15516958
-3.3271625 2.8977525 0
-15.739856 13.70844 1.1658623
-1.8487965 1.6062629 -0.80754685
-1.9077905 1.6575179 -0.69726288
-1.8958893 1.6471778 -0.55637026
-1.9509052 1.6949766 -0.43085164
-1.9808656 1.7210065 -0.29248083
-2.1167066 1.8390273 -0.15662125
-3.3503036 2.9107955 0
-15.768174 13.699633 1.1667329
-1.8320622 1.5878433 -0.79939878
-0 0 -0
-1.9036403 1.6498799 -0.55805945
-1.9413162 1.6825335 -0.42828465
-1.9809834 1.716913 -0.29219171
-2.118927 1.8364683 -0.15662125
-3.3518536 2.9050422 0
-15.829881 13.719714 1.1700712
-1.8470691 1.5969455 -0.80510432
-1.9478507 1.6840796 -0.71041465
-1.8940961 1.6376044 -0.55468106
-1.9336402 1.6717935 -0.42614523
-1.9791471 1.711138 -0.29161566
-2.1093469 1.8237066 -0.15575013
-3.3494532 2.8958821 0
-15.858236 13.710771 1.1709418
-1.8358941 1.5834113 -0.79939878
-0 0 -0
-1.8960735 1.6353145 -0.55468106
-1.9356588 1.6694559 -0.42614523
-1.9890478 1.7155025 -0.29276884
-2.1213932 1.8296469 -0.15647624
-3.333246 2.8748388 0
-15.90824 13.720448 1.173409
-1.8640326 1.6037564 -0.81080675
-1.8777442 1.6155534 -0.68341964
-1.8903509 1.6264 -0.55243164
-1.9357231 1.6654367 -0.42571604
-1.9950367 1.7164683 -0.29334489
-2.1176913 1.8219966 -0.15604068
-3.3367174 2.8708091 0
-15.926775 13.702909 1.1735541
-1.8547195 1.5918478 -0.80591851
-0 0 -0
-1.9038798 1.6340406 -0.55580789
-1.9396876 1.6647732 -0.42614523
-2.0069284 1.722484 -0.29478717
-2.123831 1.8228178 -0.15633069
-3.3421566 2.8684685 0
-15.97093 13.70735 1.1755862
-1.8547659 1.5879997 -0.80510432
-0 0 -0
-1.8826914 1.6119087 -0.54905331
-1.937794 1.659086 -0.42528847
-1.9834685 1.6981913 -0.29103965
-2.1260319 1.8202503 -0.15633069
-3.3535278 2.8711984 0
-15.936157 13.6441 1.1718123
-1.8660786 1.5937817 -0.80917835
-0 0 -0
-1.8788395 1.6046805 -0.54736412
-1.9261388 1.6450779 -0.42229393
-1.9933785 1.7025062 -0.29219171
-2.1242819 1.8143082 -0.15604068
-3.3550177 2.8654556 0
-14.852132 12.684918 1.0909742
-1.8435471 1.5706896 -0.79858458
-1.8988999 1.6178497 -0.68826544
-1.8923855 1.6122994 -0.55074251
-1.9359412 1.6494086 -0.42400581
-1.9895335 1.695069 -0.29132766
-2.1264725 1.81174 -0.15604068
-3.3406427 2.8462048 0
-0 0 0
-1.8341403 1.558854 -0.79369324
-0 0 -0
-1.8846536 1.6017857 -0.54792857
-1.928147 1.6387511 -0.42186475
-1.9836969 1.6859636 -0.29017448
-2.1207404 1.8024381 -0.15546013
-3.3460681 2.8438563 0
-16.147863 13.724229 1.1837134
-1.8756106 1.5902005 -0.81080675
-1.8779294 1.5921665 -0.679268
-1.8904601 1.6027905 -0.54905331
-1.9477462 1.6513594 -0.42571604
-1.9778413 1.6768749 -0.28902131
-2.1248968 1.8015531 -0.15560514
-3.3574424 2.8465433 0
-16.172363 13.711429 1.1842941
-1.8228121 1.5416545 -0.78717667
-0 0 -0
-1.8846351 1.5939417 -0.54680175
-1.9399418 1.6407176 -0.42357659
-1.9818389 1.6761525 -0.28930932
-2.1151719 1.7889196 -0.15473457
-3.3569012 2.8391199 0
-18.662851 15.784221 1.3652736
-1.8435607 1.5553857 -0.79532474
-0 0 -0
-1.8865597 1.5916634 -0.54680175
-1.9340746 1.6317511 -0.42186475
-1.9957279 1.683767 -0.29103965
-2.1213 1.7897104 -0.15502457
-3.356355 2.8317084 0
-18.683893 15.763333 1.3654187
-1.8284215 1.5388349 -0.78799087
-0 0 -0
-1.8904237 1.5910172 -0.54736412
-1.9380145 1.6310706 -0.42229393
-1.999738 1.6830182 -0.29132766
-2.121475 1.7854744 -0.15487957
-3.3617632 2.8293252 0
-18.7069 15.744089 1.3657086
-1.8794922 1.5779414 -0.80917835
-1.9317162 1.6217865 -0.69587988
-1.8884565 1.5854675 -0.54623938
-1.9517765 1.6386282 -0.42486092
-1.9779991 1.6606436 -0.28786814
-2.1276071 1.7862481 -0.15516958
-3.3512254 2.8135457 0
-18.723921 15.719805 1.3655636
-1.8681316 1.5645591 -0.80347282
-0 0 -0
-1.8923169 1.5848143 -0.54680175
-1.9321047 1.6181365 -0.42015287
-1.9978486 1.673197 -0.29046249
-2.1297638 1.7836759 -0.15516958
-3.3685908 2.8211927 0
-18.713026 15.672148 1.363387
-1.8738179 1.5654731 -0.80510432
-1.8971241 1.584944 -0.68203664
-1.8864307 1.5760103 -0.54455018
-1.9419386 1.6223842 -0.42186475
-1.9939122 1.6658053 -0.28959733
-2.1319175 1.7811012 -0.15516958
-3.3679988 2.8137801 0
-18.741919 15.657854 1.3641125
-1.8833028 1.5695372 -0.80836421
-0 0 -0
-1.9019989 1.5851184 -0.54849094
-1.9241811 1.603605 -0.41758588
-1.9899685 1.6584319 -0.2887333
-2.1141107 1.7618915 -0.15371846
-3.351408 2.7930501 0
-18.774797 15.646843 1.3651286
-1.885198 1.5672604 -0.80836421
-0 0 -0
-1.8804663 1.5633267 -0.5417363
-1.9419094 1.6144075 -0.42100963
-1.9760596 1.6427982 -0.28642696
-2.1162381 1.7593358 -0.15371846
-3.3647847 2.7973156 0
-18.805676 15.634109 1.3659992
-1.8509409 1.5350025 -0.79287905
-1.9183056 1.5908686 -0.68757397
-1.8882233 1.5659209 -0.5434255
-1.931999 1.6022246 -0.418441
-1.9760541 1.6387599 -0.28613895
-2.1223664 1.7600981 -0.15400901
-3.3621581 2.7882688 0
-18.872557 15.651185 1.3694825
-1.8832649 1.5579722 -0.80591851
-1.9202266 1.5885495 -0.68757397
-1.8920699 1.5652564 -0.54398787
-1.9497572 1.6129794 -0.42186475
-1.9879954 1.6446128 -0.28758013
-2.1224837 1.7558712 -0.15386346
-3.3595071 2.7792261 0
-18.927488 15.65818 1.3720948
-1.8899237 1.5615586 -0.80836421
-0 0 -0
-1.8871371 1.5592561 -0.54229867
-1.9309456 1.5954531 -0.41758588
-1.979021 1.6351757 -0.28613895
-2.1155314 1.7479682 -0.1532829
-3.3852606 2.7970879 0
-18.956972 15.66329 1.3735459
-1.8727329 1.5435507 -0.80021298
-1.9482678 1.6058084 -0.69657141
-1.8988215 1.5650536 -0.54511255
-1.9328721 1.5931189 -0.41758588
-1.9829893 1.6344267 -0.28642696
-2.115639 1.7437596 -0.15313791
-3.3605185 2.7698188 0
-18.985909 15.648635 1.3742714
-1.8631454 1.5318716 -0.79532474
-1.9036981 1.5652139 -0.67995954
-1.8889388 1.5530789 -0.5417363
-1.9387575 1.5940397 -0.418441
-1.9929544 1.6386001 -0.28758013
-2.129791 1.7511067 -0.15400901
-3.3377314 2.744271 0
-19.018854 15.637236 1.3752875
-1.8382438 1.5076787 -0.78391677
-1.9191682 1.5740508 -0.68480533
-1.8868886 1.5475758 -0.54061162
-1.9307599 1.5835578 -0.41630158
-1.9969307 1.6378294 -0.28786814
-2.1238687 1.7419406 -0.15342847
-3.3752513 2.7682912 0
-15.495829 12.709266 1.1194199
-1.8572789 1.5195407 -0.79125071
-1.9404821 1.5876138 -0.69172561
-1.8789186 1.5372453 -0.5377956
-1.9346644 1.5828539 -0.41673076
-1.9969083 1.633779 -0.28758013
-2.1299903 1.7426608 -0.15371846
-3.3584549 2.7477343 0
-15.511173 12.690533 1.1194199
-1.8705989 1.526669 -0.79613894
-1.9210248 1.5678235 -0.6841138
-1.8807747 1.5349739 -0.5377956
-1.9544728 1.5951217 -0.42058206
-1.9948695 1.6280911 -0.28700298
-2.124042 1.733514 -0.15313791
-3.339592 2.7255719 0
-15.520455 12.666851 1.1189843
-1.8590307 1.513489 -0.79043651
-1.9559901 1.5924263 -0.69587988
-1.8826281 1.5327002 -0.5377956
-1.9544023 1.5911336 -0.42015287
-1.9868082 1.6175162 -0.2855618
-2.1301692 1.7342304 -0.15342847
-3.3549962 2.7313964 0
-0 0 0
-1.8608582 1.5112416 -0.79043651
-1.9325978 1.5695028 -0.68688244
-1.8825082 1.528824 -0.53723323
-1.9344094 1.5709741 -0.41544646
-1.9787242 1.606963 -0.28412062
-2.1241949 1.7251028 -0.1528479
-3.3522315 2.7224169 0
-0 0 0
-1.8876473 1.5292162 -0.80103028
-1.9208454 1.5561105 -0.68203664
-1.8883065 1.5297502 -0.53836012
-1.9402916 1.5718642 -0.41630158
-1.9927191 1.6143366 -0.28584981
-2.1242528 1.7208946 -0.15270235
-3.3413613 2.7068954 0
-15.533973 12.584343 1.1166627
-1.8875657 1.5253762 -0.80021298
-1.9675978 1.5900515 -0.69795442
-1.8960766 1.532254 -0.54004711
-1.9561677 1.5808147 -0.41929775
-1.9765648 1.5972979 -0.28325546
-2.1162276 1.7101619 -0.15197678
-3.3871353 2.7372055 0
-15.518849 12.541064 1.1144855
-1.8374586 1.4812171 -0.77821124
-1.8992109 1.5309972 -0.6730392
-1.8860613 1.5203969 -0.53667092
-1.9340937 1.5591168 -0.41416216
-1.9825245 1.5981581 -0.28383261
-2.1223423 1.7108684 -0.15226734
-3.3580296 2.706984 0
-15.515786 12.507628 1.1131793
-1.8353984 1.4759011 -0.7765829
-1.9538409 1.5711443 -0.69172561
-1.8839331 1.5149293 -0.53554404
-1.9299728 1.5519512 -0.41287783
-1.9844542 1.5957614 -0.28383261
-2.1163082 1.7017894 -0.15168679
-3.345073 2.6898775 0
-15.512666 12.474217 1.1118733
-1.8121111 1.4535731 -0.76598603
-1.9224712 1.5420977 -0.67995954
-1.883782 1.5110635 -0.53498173
-1.9238367 1.5431931 -0.41116595
-1.9742714 1.5836489 -0.28210229
-2.1284955 1.7073588 -0.15241234
-3.348321 2.6858337 0
-15.503404 12.435954 1.1101315
-1.8736933 1.4992539 -0.79125071
-1.9223762 1.5382078 -0.679268
-1.8895782 1.5119642 -0.53610855
-1.941735 1.5536981 -0.4145897
-1.9883047 1.5909611 -0.28383261
-2.1244683 1.6999139 -0.15197678
-3.3576541 2.6866591 0
-15.506249 12.407475 1.109261
-1.8774334 1.4985291 -0.79206491
-1.9497213 1.5562278 -0.68826544
-1.8914037 1.5096799 -0.53610855
-1.9416066 1.5497508 -0.41416216
-1.9841591 1.5837154 -0.28296745
-2.1204343 1.6924874 -0.15154178
-3.3303936 2.6582522 0
-15.504983 12.375762 1.1080998
-1.9063091 1.5178099 -0.80347282
-1.9339384 1.5398083 -0.68203664
-1.8952124 1.5089746 -0.53667092
-1.9193786 1.5282159 -0.40902653
-1.9759561 1.5732629 -0.28152627
-2.1306012 1.6963918 -0.15212178
-3.3539588 2.6704335 0
-15.501624 12.342446 1.1067932
-0 0 -0
-1.9279394 1.5312293 -0.679268
-1.8890755 1.5003623 -0.53441936
-1.9373053 1.5386679 -0.41245028
-1.9859571 1.5773088 -0.28267944
-2.116379 1.6808938 -0.15096122
-3.3306921 2.6453388 0
-15.506354 12.315628 1.1060677
-0 0 -0
-1.9278237 1.5273422 -0.67857653
-1.8888973 1.4965023 -0.53385699
-1.9291044 1.5283569 -0.41031086
-1.9858284 1.5732971 -0.28239033
-2.122478 1.6815594 -0.15125123
-3.3665242 2.6671705 0
-15.50493 12.283974 1.1049066
-0 0 -0
-1.9237609 1.5203435 -0.67649937
-1.8887049 1.4926388 -0.53329253
-1.9369938 1.5308014 -0.41159517
-2.003962 1.5837264 -0.28469664
-2.120435 1.6757745 -0.15096122
-2.167166 1.712706 0
-15.505498 12.253957 1.103891
-0 0 -0
-1.9196842 1.5133569 -0.6744222
-1.8865201 1.4872125 -0.53216779
-1.9428701 1.5316353 -0.41245028
-1.9814998 1.5620885 -0.28123716
-2.1183732 1.6699907 -0.15067066
-2.1651423 1.7068605 0
-15.503968 12.222342 1.1027298
-0 0 -0
-1.9215113 1.5110363 -0.6744222
-1.896305 1.4912145 -0.53441936
-1.9306 1.5181835 -0.40945575
-1.9915184 1.5660883 -0.28239033
-2.1244783 1.6706454 -0.15096122
-2.2285712 1.7525017 0
-15.502384 12.19075 1.1015687
-0 0 -0
-1.9687378 1.544328 -0.69034261
-1.886114 1.4795158 -0.53104311
-1.9364687 1.5190153 -0.41031086
-2.0137639 1.5796475 -0.28527379
-2.1305804 1.6712815 -0.15125123
-2.1897416 1.7176889 0
-15.494612 12.154367 1.099972
-0 0 -0
-1.9528222 1.5280354 -0.6841138
-1.8838943 1.4741011 -0.52991629
-1.9180895 1.5008579 -0.406032
-1.9973401 1.5628695 -0.28267944
-2.1203237 1.6591012 -0.15038067
-2.2061567 1.7262635 0
-15.501101 12.129231 1.0993915
-0 0 -0
-1.9625778 1.5318493 -0.68688244
-1.8936861 1.4780773 -0.53216779
-1.9279962 1.5048572 -0.40774387
-1.9869896 1.5509033 -0.28094912
-2.134613 1.6661278 -0.15125123
-2.1836224 1.704381 0
-15.501413 12.099305 1.0983759
-0 0 -0
-1.9615185 1.5291164 -0.68618828
-1.8925767 1.4753722 -0.53160548
-1.9329503 1.5068457 -0.40859899
-1.9920099 1.5528861 -0.28152627
-2.1417692 1.6696321 -0.15168679
-2.1867101 1.7046661 0
-15.490278 12.075562 1.0970699
-0 0 -0
-1.9316851 1.5021105 -0.67511636
-1.8843309 1.465287 -0.52879161
-1.936794 1.5060833 -0.40902653
-2.0081716 1.5615876 -0.2835435
-2.1253259 1.6526887 -0.15038067
-2.1826031 1.6972284 0
-15.496653 12.050455 1.0964893
-0 0 -0
-1.9453888 1.5089983 -0.679268
-1.9041674 1.4770236 -0.53385699
-1.936586 1.5021701 -0.40859899
-2.0059733 1.5559925 -0.28296745
-2.1314237 1.6533017 -0.15067066
-2.1846521 1.69459 0
-15.492725 12.017389 1.0951831
-0 0 -0
-2.006732 1.5527009 -0.70003152
-1.8979124 1.468502 -0.53160548
-1.9323069 1.4951147 -0.40731466
-2.0058084 1.5519862 -0.28267944
-2.1251993 1.6443646 -0.15009011
-2.1743443 1.6823903 0
-15.499014 11.9923 1.0946026
-0 0 -0
-2.0066226 1.5487436 -0.69934005
-1.9077312 1.4724177 -0.53385699
-1.9584981 1.5116005 -0.41245028
-2.0015376 1.544819 -0.28181428
-2.1230745 1.6386232 -0.14980011
-0 0 0
-15.497037 11.960863 1.0934415
-0 0 -0
-1.9665893 1.510276 -0.6841138
-1.893149 1.4538761 -0.52879161
-1.9316118 1.4834143 -0.406032
-2.0216758 1.5525806 -0.28412062
-2.1290872 1.6350689 -0.14994511
-2.2279041 1.7109571 0
-5.7847567 4.442503 0.40740275
-0 0 -0
-1.976379 1.5140011 -0.68688244
-1.8888512 1.4469506 -0.52710241
-1.9232076 1.4732693 -0.40389094
-2.0132861 1.5422736 -0.28267944
-2.143434 1.6419731 -0.15081567
-2.1948502 1.6813605 0
-5.765367 4.4165478 0.40566108
-0 0 -0
-1.9941466 1.5237919 -0.69241709
-1.8966569 1.4492968 -0.52879161
-1.927032 1.4725075 -0.40432012
-2.0315895 1.5524032 -0.28498578
-2.1371577 1.6330713 -0.15023512
-2.1658599 1.6550035 0
-5.7665663 4.4064198 0.4053705
-0 0 -0
-1.9740443 1.5046567 -0.68480533
-1.8882968 1.4392982 -0.52597553
-1.9308496 1.4717326 -0.40474769
-2.0190623 1.5389702 -0.28296745
-2.126734 1.6210397 -0.14936455
-0 0 0
-5.7801523 4.4057493 0.40595105
-0 0 -0
-1.9778562 1.5037873 -0.68549681
-1.892063 1.4385577 -0.52654004
-1.9326265 1.4693985 -0.40474769
-2.0106275 1.5287038 -0.28152627
-2.136965 1.6247596 -0.14994511
-2.225791 1.692295 0
-5.7751312 4.3909001 0.40522552
-1.8647418 1.4142326 -0.77169156
-2.0256488 1.5362656 -0.70141721
-1.8937999 1.4362705 -0.52654004
-1.9241756 1.4593077 -0.40260828
-2.0165911 1.5293961 -0.28210229
-2.1389265 1.6221763 -0.14994511
-2.2236829 1.686456 0
-5.7742195 4.3792067 0.40478995
-0 0 -0
-1.9734814 1.4929489 -0.68272817
-1.8995829 1.4370441 -0.52766472
-1.9300281 1.4600761 -0.40346336
-2.0040045 1.5160396 -0.28008509
-2.1388149 1.6180243 -0.14980011
-2.2028944 1.666501 0
-5.767077 4.3628235 0.4039194
-0 0 -0
-1.9552621 1.4754544 -0.67580789
-1.8891524 1.4255677 -0.52428854
-1.9358931 1.4608386 -0.40432012
-2.0140853 1.5198429 -0.28123716
-2.1449127 1.6185663 -0.15009011
-2.2049065 1.663838 0
-5.7640481 4.3495913 0.40333885
-0 0 -0
-1.9911163 1.4987379 -0.68757397
-1.8989938 1.4293963 -0.52654004
-1.9397057 1.4600406 -0.40474769
-2.0035253 1.5080783 -0.27950794
-2.1385627 1.6097226 -0.14950955
-2.2131472 1.6658634 0
-5.765151 4.3395009 0.40304884
-0 0 -0
-1.99493 1.4978359 -0.68826544
-1.9047796 1.430149 -0.52766472
-1.947629 1.4623213 -0.406032
-2.0074124 1.5072079 -0.27979594
-2.1363542 1.6040201 -0.14921956
-2.198509 1.6506873 0
-5.7579188 4.3231678 0.40217772
-0 0 -0
-1.9686297 1.4743727 -0.67857653
-1.9024426 1.4248029 -0.52654004
-1.939115 1.4522682 -0.40389094
-2.0133765 1.5078851 -0.2803731
-2.1362131 1.5998814 -0.14907455
-2.2671602 1.6979522 0
-5.7527413 4.3084207 0.40145215
-0 0 -0
-2.0327096 1.5185339 -0.70003152
-1.9041628 1.4225031 -0.52654004
-1.9244238 1.4376391 -0.40046883
-2.0089786 1.5008059 -0.27950794
-2.1443837 1.6019599 -0.14950955
-2.1962428 1.6407013 0
-5.7392097 4.2874718 0.40014604
-0 0 -0
-2.0164399 1.5025868 -0.69380277
-1.8977305 1.4141284 -0.52428854
-1.9364496 1.4429806 -0.40260828
-2.0066466 1.4952893 -0.27893192
-2.1400731 1.5947144 -0.14907455
-2.181529 1.6256061 0
-5.7402148 4.2774253 0.39985549
-0 0 -0
-2.018254 1.5001493 -0.69380277
-1.9035124 1.414863 -0.52541322
-1.9567323 1.4544208 -0.40645957
-1.9980668 1.4851443 -0.27748963
-2.1482487 1.5967731 -0.14950955
-2.1814051 1.621418 0
-5.7349539 4.2627373 0.39912993
-0 0 -0
-2.0160308 1.4947183 -0.69241709
-1.9093066 1.4155914 -0.52654004
-1.9605484 1.4535828 -0.40688711
-2.0019436 1.4842738 -0.27777874
-2.1439207 1.589538 -0.14907455
-2.2042644 1.6342779 0
-5.7275801 4.2465224 0.39825937
-1.8490713 1.3692014 -0.75865209
-1.9584736 1.4502116 -0.67234772
-1.8979056 1.4053622 -0.52316165
-1.9325476 1.4310139 -0.4008964
-1.9924406 1.4753637 -0.27633646
-2.1302607 1.5774168 -0.14805844
-2.203162 1.6313987 0
-5.7343173 4.246151 0.39854938
-1.8745815 1.3845874 -0.76843166
-1.9299526 1.4254851 -0.66196465
-1.8996023 1.4030681 -0.52316165
-1.9363381 1.4302015 -0.40132394
-1.9817429 1.463738 -0.27460724
-2.1300769 1.5732993 -0.14791344
-0 0 0
-5.7310834 4.2330437 0.3979688
-0 0 -0
-1.9256123 1.4186864 -0.65988749
-1.9135741 1.4098173 -0.52654004
-1.9421943 1.4309032 -0.40217906
-1.9772609 1.4567384 -0.27374208
-2.1194205 1.5614738 -0.14704232
-2.2175722 1.6337866 0
-5.7257357 4.218411 0.39724326
-1.8858886 1.3859076 -0.77169156
-1.8848736 1.3851619 -0.64535278
-1.900942 1.3969702 -0.52259934
-1.9646115 1.4437598 -0.40645957
-1.9977756 1.4681315 -0.27633646
-2.1254973 1.5619922 -0.14733288
-2.2132514 1.6264809 0
-5.7245455 4.2068715 0.3968077
-1.8217812 1.3354092 -0.74479848
-1.8845246 1.3814015 -0.64466125
-1.8964787 1.3901643 -0.52091014
-1.9332281 1.4171025 -0.39961207
-1.9974641 1.4641889 -0.27604842
-2.1315706 1.5624923 -0.14762288
-2.2215137 1.6284229 0
-5.7233434 4.1953473 0.39637271
-1.843349 1.3477979 -0.75294966
-1.8983473 1.3880107 -0.64881557
-1.8961078 1.3863734 -0.52034777
-1.9411577 1.4193124 -0.4008964
-2.0013177 1.4632994 -0.27633646
-2.1229713 1.5522486 -0.14689732
-2.1856689 1.5980911 0
-5.7179222 4.1807618 0.39564714
-1.821013 1.3280928 -0.74317008
-1.8838073 1.3738897 -0.64327824
-1.9039423 1.3885745 -0.52203697
-1.9428712 1.4169658 -0.4008964
-1.9801031 1.4441196 -0.27316606
-2.1332428 1.5558069 -0.14747788
-2.1644666 1.5785788 0
-5.7124667 4.1661897 0.39492103
-1.7806457 1.2953593 -0.72605664
-1.877351 1.3657091 -0.64050961
-1.9056188 1.3862729 -0.52203697
-1.9362783 1.4085767 -0.39918453
-2.0069456 1.4599848 -0.27662557
-2.1288154 1.5486408 -0.14704232
-2.195832 1.5973932 0
-5.7111988 4.1547031 0.39448601
-1.8482226 1.341107 -0.75294966
-1.917574 1.3914298 -0.65365869
-1.9196277 1.39292 -0.52541322
-1.9462898 1.4122666 -0.4008964
-2.017082 1.4636347 -0.27777874
-2.1327863 1.547592 -0.14718732
-2.1767006 1.5794573 0
-5.7120047 4.1447439 0.39419547
-1.8298159 1.3243786 -0.74479848
-1.9050336 1.3788195 -0.64881557
-1.9089633 1.3816637 -0.52203697
-1.9479948 1.4099138 -0.4008964
-2.0293233 1.4687775 -0.27921993
-2.1367657 1.5465418 -0.14733288
-2.2144456 1.6027647 0
-5.7085886 4.1317449 0.39361492
-1.8554622 1.3395274 -0.75457805
-1.8700808 1.3500812 -0.63635534
-1.9188719 1.3853052 -0.52428854
-1.9455303 1.4045509 -0.40003964
-2.0206132 1.458756 -0.27777874
-2.1344151 1.5409139 -0.14704232
-2.2163806 1.6000878 0
