# .PCD v0.7 - Point Cloud Data file format
VERSION 0.7
FIELDS x y z
SIZE 4 4 4
TYPE F F F
COUNT 1 1 1
WIDTH 1860
HEIGHT 1
VIEWPOINT 0 0 0 1 0 0 0
POINTS 1860
DATA ascii
3.7249553 3.9379706 0
0 0 0
3.6869102 3.9071958 -0.59878087
3.7157133 3.9377198 -0.30240932
3.7255545 3.948149 0
0 0 0
3.6750951 3.9041147 -0.5976277
3.7073872 3.9384191 -0.30211875
3.7243521 3.9564412 0
0 0 0
3.6756885 3.9142106 -0.59849286
3.7008486 3.9410033 -0.30197376
3.7142224 3.9552453 0
0 0 0
3.6656497 3.9129844 -0.5976277
3.6978586 3.9473667 -0.30211875
3.7094407 3.9597304 0
0 0 0
3.660919 3.9174109 -0.5976277
3.687762 3.9461348 -0.30168322
3.6993208 3.9585035 0
0 0 0
3.6561828 3.9218314 -0.5976277
3.681221 3.948689 -0.3015382
3.694535 3.9629705 0
0 0 0
3.6514413 3.9262464 -0.5976277
3.6746793 3.9512334 -0.30139321
3.6844251 3.9617126 0
0 0 0
3.644937 3.9287612 -0.59733969
3.6769714 3.9632902 -0.30197376
3.6778672 3.9642556 0
0 0 0
3.6419425 3.9350591 -0.5976277
3.6651201 3.9601021 -0.30139321
3.6766133 3.9725204 0
3.7162213 4.015316 0.30559543
3.6371851 3.9394567 -0.5976277
3.6568036 3.9607058 -0.30110264
3.6665127 3.9712217 0
0 0 0
3.6271639 3.9381394 -0.59676254
3.6484978 3.9613025 -0.30081263
3.6581819 3.9718168 0
0 0 0
3.6206546 3.9406164 -0.59647453
3.6419523 3.9637964 -0.30066764
0 0 0
0 0 0
3.6176364 3.9468932 -0.59676254
3.6459372 3.9777701 -0.30139321
3.6415458 3.9729788 0
0 0 0
3.6128647 3.9512618 -0.59676254
3.6393764 3.9802568 -0.30124819
3.6420059 3.9831326 0
0 0 0
3.6080878 3.9556241 -0.59676254
3.6363139 3.9865692 -0.30139321
3.6336861 3.9836884 0
0 0 0
3.6004765 3.9520729 -0.59589851
3.626905 3.981082 -0.30081263
3.6277699 3.9820316 0
3.7090669 4.0712671 0.30762708
3.6043949 3.9659891 -0.59733969
3.6273365 3.9912322 -0.30124819
3.6247113 3.9883437 0
3.7163799 4.0892086 0.30864319
3.5996001 3.9703414 -0.59733969
3.6172736 3.9898353 -0.30081263
3.61639 3.9888606 0
3.7079422 4.0898423 0.30835265
3.5774539 3.9555087 -0.59445727
3.6159327 3.9980538 -0.30110264
3.6185505 4.000948 0
3.6873126 4.0769768 0.30704653
3.5778649 3.965584 -0.59532136
3.6076212 3.998565 -0.30081263
3.6171968 4.0091782 0
3.7067561 4.1084428 0.30907875
3.5644207 3.9602938 -0.59388018
3.5993071 3.9990547 -0.30052209
3.6210599 4.0232234 0
3.6722395 4.0800872 0.30661154
3.5613592 3.9665205 -0.59416819
3.5962133 4.0053401 -0.30066764
3.6370537 4.0508265 0
3.6898727 4.1096549 0.3084982
3.5565639 3.9708209 -0.59416819
3.5879004 4.0058074 -0.3003771
3.637367 4.0610356 0
3.709172 4.1412044 0.31052989
3.5500414 3.9731884 -0.59388018
3.5899827 4.0178905 -0.30095765
0 0 0
3.6470342 4.0817423 0.30574042
3.5469575 3.979404 -0.59416819
3.5833981 4.0202875 -0.30081263
0 0 0
3.6369112 4.0803246 0.30530486
3.5438702 3.9856255 -0.59445727
3.5888941 4.0362616 -0.30168322
3.5949533 4.0430765 0
3.6406162 4.0944309 0.30603096
3.5356157 3.9860308 -0.59388018
0 0 -0
3.6021559 4.0610476 0
3.6477311 4.1124291 0.30704653
3.5325091 3.9922352 -0.59416819
3.5584731 4.0215783 -0.29994208
3.611043 4.0809894 0
3.7271316 4.2121863 0.31415823
3.5328193 4.0023198 -0.59503335
3.560483 4.0336599 -0.30052209
3.6112776 4.0912051 0
3.6687376 4.1563015 0.30965933
3.5228512 4.0007601 -0.59416819
3.5470221 4.0282102 -0.29979652
0 0 0
3.6362376 4.1295285 0.30733708
3.5128987 3.9991899 -0.59330416
3.5352929 4.024684 -0.29921597
0 0 0
3.6175265 4.1183014 0.30617598
3.5165851 4.0131564 -0.59474534
3.5407054 4.0406823 -0.30008709
0 0 0
0 0 0
3.5032239 4.0076675 -0.59330416
3.542661 4.0527835 -0.30066764
0 0 0
3.5938826 4.1113806 0.30501485
3.5034735 4.0177402 -0.59416819
3.5462985 4.0668511 -0.30139321
0 0 0
0 0 0
3.5003188 4.0239277 -0.59445727
3.5430856 4.073092 -0.3015382
3.567858 4.1015701 0
0 0 0
3.4988413 4.0320573 -0.59503335
3.5398629 4.0793309 -0.30168322
3.5526621 4.0940804 0
3.5619287 4.1047592 0.30356374
3.4973557 4.0401969 -0.59561044
3.5298343 4.0777168 -0.30124819
3.546011 4.0964046 0
0 0 0
3.4890871 4.0405011 -0.59503335
3.5333943 4.0918102 -0.30197376
3.5529668 4.1144762 0
3.6216199 4.1939793 0.30951378
3.4875817 4.0486369 -0.59561044
3.5250525 4.0921354 -0.30168322
3.5479927 4.1187663 0
3.5995939 4.1786685 0.30806264
3.4834435 4.0487771 -0.59532136
3.5175004 4.0883608 -0.30124819
3.5302291 4.1031556 0
0 0 0
3.4684448 4.0412107 -0.59359217
3.5040913 4.0827436 -0.30052209
0 0 0
0 0 0
3.473649 4.0571833 -0.59532136
3.4974673 4.0850029 -0.3003771
0 0 0
0 0 0
3.478826 4.0731821 -0.59705168
3.4925287 4.0892258 -0.3003771
0 0 0
0 0 0
3.468868 4.0714741 -0.59618652
3.4943259 4.1013546 -0.30095765
0 0 0
0 0 0
3.4656193 4.0776315 -0.59647453
3.4893675 4.1055737 -0.30095765
0 0 0
0 0 0
3.4640384 4.0857658 -0.59705168
3.4793615 4.1038389 -0.30052209
3.5104842 4.1405478 0
0 0 0
3.4540865 4.0840216 -0.59618652
3.4878242 4.1239123 -0.30168322
3.4987562 4.136838 0
0 0 0
3.4574871 4.0980749 -0.5976277
3.4727883 4.1162109 -0.30081263
3.4836891 4.1291318 0
0 0 0
3.4475348 4.0963111 -0.59676254
3.4728334 4.1263704 -0.30124819
3.5138874 4.1751504 0
0 0 0
3.4409211 4.0984945 -0.59647453
3.4578171 4.1186194 -0.3003771
3.5038183 4.1734118 0
0 0 0
3.4343073 4.1006684 -0.59618652
3.4595115 4.1307631 -0.30095765
3.4987729 4.1776423 0
0 0 0
3.4409597 4.1187115 -0.59820485
3.462846 4.1449084 -0.30168322
3.4903822 4.1778684 0
0 0 0
3.4326653 4.1188884 -0.5976277
3.4511809 4.1411052 -0.30110264
3.4803379 4.1760912 0
0 0 0
3.4392622 4.1369576 -0.59964603
3.4528191 4.153265 -0.30168322
3.4819443 4.1882982 0
0 0 0
3.4326115 4.1391211 -0.59935796
3.4477983 4.157434 -0.30168322
3.4718955 4.186491 0
0 0 0
3.4342024 4.1512375 -0.60051113
3.4560227 4.1776137 -0.30284432
3.470149 4.1946893 0
0 0 0
3.4176583 4.141418 -0.59849286
3.4658558 4.1998219 -0.30415043
3.468394 4.202898 0
0 0 0
3.4307358 4.1675119 -0.6016643
3.4558291 4.1979942 -0.30371544
3.4633131 4.2070856 0
4.9700742 6.0374346 0.43679482
3.4224117 4.1676531 -0.60108721
3.4589977 4.2122054 -0.304441
3.4615273 4.2152858 0
5.0155387 6.107688 0.4414387
3.4239295 4.1797886 -0.60224038
3.4423776 4.2023091 -0.30342487
3.459733 4.223496 0
4.9916921 6.0936465 0.4399876
3.4286931 4.1959357 -0.60396957
3.4586704 4.2326212 -0.30531156
3.459569 4.2337208 0
4.9925447 6.1097322 0.44071317
3.4178197 4.1981354 -0.60339355
3.4444311 4.2308226 -0.30473098
3.4666762 4.2581463 0
4.981463 6.1187711 0.44071317
3.4192669 4.2102933 -0.60454673
3.445869 4.2430496 -0.30531156
3.4664457 4.2683868 0
4.9707928 6.1207552 0.44042316
3.4337146 4.2385387 -0.60800624
3.4374712 4.243176 -0.30502155
3.4629285 4.2746 0
4.9633932 6.1267571 0.44042316
3.4204638 4.2326279 -0.606565
3.4323418 4.2473264 -0.30502155
3.4512179 4.2706847 0
4.954349 6.130723 0.44027761
3.4218338 4.2448049 -0.6077171
3.4369886 4.2636046 -0.30589211
3.4411535 4.2687712 0
4.9583545 6.1508679 0.44129372
3.4231856 4.256999 -0.60887027
3.4383478 4.2758546 -0.30647266
3.4539342 4.2952375 0
4.9623184 6.1710315 0.44230983
3.4212792 4.2651711 -0.60944742
3.4413066 4.2901387 -0.30719823
3.4536223 4.3054919 0
4.953228 6.1749902 0.44216427
3.4177375 4.2713194 -0.60973543
3.4426141 4.3024092 -0.30777878
3.456552 4.319828 0
4.9571285 6.1951747 0.44318038
3.4174161 4.2815127 -0.61060059
3.4471419 4.3187547 -0.3086499
3.4578176 4.33213 0
4.9658461 6.2214646 0.44463152
3.4025707 4.2734942 -0.60887027
3.4370639 4.3168163 -0.30821434
3.4558258 4.3403807 0
4.9599481 6.2294989 0.44477707
3.5350885 4.4509578 -0.94760424
3.4022319 4.2836804 -0.60973543
3.4415386 4.3331709 -0.30908489
3.4619105 4.3588204 0
4.942718 6.2232752 0.44390595
3.5344918 4.4612641 -0.94888854
3.3970535 4.2877884 -0.60973543
3.429846 4.3291793 -0.30850434
3.4485559 4.3527951 0
4.9416494 6.2373896 0.4444865
3.5338693 4.4715681 -0.95017123
3.3886657 4.2878351 -0.60915935
3.4342825 4.3455563 -0.30937546
3.4432938 4.3569589 0
4.9453883 6.2576284 0.44550261
3.5157557 4.4597149 -0.94674915
3.3930867 4.3041101 -0.6108886
3.4322433 4.3537803 -0.30966544
3.4460874 4.3713412 0
4.9378238 6.2635994 0.44550261
3.5056024 4.4579039 -0.94546479
3.3846891 4.3041444 -0.61031252
3.4414346 4.3763051 -0.31097156
3.4391897 4.3734503 0
4.9157972 6.2511806 0.44419649
3.5049679 4.4681978 -0.94674915
3.3826754 4.3122973 -0.6108886
3.4120927 4.3497987 -0.30879489
3.445148 4.3919382 0
4.8970127 6.2428021 0.44318038
3.4932387 4.4643431 -0.94503725
3.3726792 4.3102684 -0.61002344
3.414839 4.3641486 -0.30952045
3.4398386 4.3960977 0
4.8926716 6.2528114 0.44347095
3.481524 4.4604659 -0.9433254
3.3626988 4.3082294 -0.60915935
3.4127641 4.3723722 -0.30981103
3.4425292 4.4105067 0
4.8803148 6.2525721 0.44303539
3.4777074 4.4666929 -0.94375294
3.374965 4.334733 -0.61232978
3.4138637 4.3846936 -0.31039158
3.4403982 4.4187741 0
4.8775468 6.264617 0.44347095
3.4675822 4.464808 -0.94246864
3.3681397 4.3367672 -0.61204177
3.4149325 4.3970165 -0.31097156
3.4398408 4.4290881 0
4.8747506 6.2766566 0.44390595
3.4543257 4.4588499 -0.94032919
3.373987 4.3551483 -0.6140601
3.423944 4.4196329 -0.31227824
3.4408619 4.4414706 0
4.8544321 6.266109 0.44274482
3.4426568 4.4548955 -0.93861735
3.3687222 4.3592219 -0.6140601
3.4122458 4.4155426 -0.31169769
3.4402685 4.4518051 0
4.8420949 6.2658081 0.44230983
3.4404089 4.4631219 -0.93947411
3.357136 4.3550954 -0.61290693
3.4148383 4.4299502 -0.31242326
3.4317122 4.4518399 0
4.8345203 6.2716541 0.44230983
3.4350135 4.4672761 -0.93947411
3.3581779 4.3673501 -0.6140601
3.4063122 4.4299493 -0.31213269
3.4406064 4.4745493 0
4.8269386 6.2774911 0.44230983
3.432735 4.475493 -0.94032919
3.3639128 4.3857651 -0.6160773
3.4088686 4.4443769 -0.31285879
3.4383619 4.4828296 0
4.8193502 6.283319 0.44230983
3.4320056 4.4857559 -0.9416135
3.3523242 4.3816094 -0.61492413
3.4003351 4.4443612 -0.31256825
3.4329429 4.4869809 0
4.8085938 6.285006 0.44201928
3.4152689 4.4694729 -0.9377622
3.3496766 4.3836341 -0.61492413
3.402384 4.452611 -0.31300381
3.4239109 4.4807825 0
4.8016434 6.2837849 0.44172928
3.4067504 4.4695091 -0.93690544
3.3490827 4.3938513 -0.61578929
3.4001486 4.4608479 -0.31329381
3.439002 4.5118217 0
4.78932 6.2833805 0.44129372
3.3966849 4.4674897 -0.93562114
3.345335 4.3999519 -0.6160773
3.3931851 4.4628868 -0.3131488
3.4398484 4.5242605 0
4.7895861 6.2995033 0.44201928
3.3819799 4.4593225 -0.93305415
3.3697138 4.4431486 -0.62155515
3.3956394 4.4773331 -0.31387436
3.4343791 4.5284138 0
4.772553 6.2928677 0.44114873
3.3951743 4.4879727 -0.9381898
3.3737023 4.4595895 -0.62328434
3.3933654 4.4855814 -0.31416491
3.4241991 4.5263395 0
3.6864333 4.8729787 0.34129778
3.383564 4.4838753 -0.9364779
3.3807752 4.4801798 -0.62559068
3.3848095 4.4855261 -0.31387436
3.4234257 4.5366998 0
3.6868033 4.885726 0.34187832
3.3827765 4.4941154 -0.9377622
3.3846951 4.4966645 -0.62732095
3.3840768 4.4958429 -0.31430992
3.4398561 4.5699472 0
3.696521 4.910934 0.34332946
3.3727183 4.4920387 -0.9364779
3.3761504 4.4966102 -0.62674385
3.3879998 4.512392 -0.31518048
3.4312034 4.5699339 0
3.6656277 4.8821578 0.34100777
3.3749807 4.5063825 -0.93861735
3.3738186 4.5048308 -0.62732095
3.3778765 4.5102491 -0.31474549
3.4366012 4.5886598 0
3.6488209 4.8720226 0.33999166
3.3679984 4.5084028 -0.9381898
3.3730123 4.5151143 -0.62818503
3.3864191 4.5330606 -0.3160516
3.4326103 4.594892 0
3.6522591 4.8889141 0.34086221
3.373287 4.5268798 -0.94118595
3.3613722 4.510891 -0.62703186
3.3809392 4.5371494 -0.3160516
3.4286091 4.6011209 0
3.6463492 4.8933239 0.34086221
3.3555636 4.5144701 -0.9377622
3.3620913 4.5232525 -0.62818503
3.3739059 4.5391479 -0.31590658
3.4214962 4.6031737 0
3.6497376 4.9102426 0.34173334
3.3562219 4.5267701 -0.93947411
3.3566232 4.5273113 -0.62818503
3.3761554 4.5536556 -0.31663215
3.4221315 4.6156669 0
3.646894 4.9188199 0.34202334
3.3492188 4.5287523 -0.93904489
3.3573022 4.5396824 -0.6293382
3.3629267 4.5472879 -0.31590658
3.4165518 4.6197987 0
0 0 0
3.3589861 4.5534577 -0.9433254
3.3671718 4.5645542 -0.63222164
3.3635941 4.5597043 -0.3164866
3.4186904 4.6343932 0
0 0 0
3.3580418 4.5637102 -0.94460803
3.3723798 4.5831962 -0.6342389
3.361165 4.567955 -0.31677714
3.4146292 4.640615 0
3.6506028 4.9613123 0.34405556
3.3586004 4.5760422 -0.94631994
3.3897967 4.618547 -0.63856357
3.3664069 4.5866785 -0.31779328
3.4198 4.6594257 0
3.6215417 4.9342957 0.34187832
3.366715 4.5987372 -0.95017123
3.381155 4.6184611 -0.63798642
3.380815 4.6179972 -0.31967995
3.4110956 4.6593585 0
0 0 0
3.3656991 4.6090231 -0.95145553
3.4167578 4.6789436 -0.64577055
3.4074118 4.6661448 -0.32272774
3.4162025 4.6781831 0
3.640255 4.985003 0.34478113
3.381284 4.6421323 -0.95744628
3.4476438 4.7332368 -0.6526885
3.4981484 4.8025742 -0.33187109
3.4197438 4.6949334 0
0 0 0
3.3817079 4.6545219 -0.95915812
3.4236844 4.7122974 -0.64923006
3.5824451 4.9308128 -0.34043336
3.424772 4.7137942 0
0 0 0
3.3851225 4.6710801 -0.96172673
3.411917 4.7080531 -0.64807689
3.6222312 4.9982629 -0.34478781
3.426708 4.7284636 0
0 0 0
3.3884964 4.6876459 -0.96429372
3.3971312 4.6995912 -0.64634663
3.6161892 5.002636 -0.34478781
3.4133706 4.7220569 0
3.6085093 4.9920115 0.34405556
3.3993461 4.7146435 -0.96900177
3.3914504 4.7036929 -0.64634663
3.6162207 5.0154328 -0.34536839
3.4076624 4.7261777 0
0 0 0
3.4056375 4.7354202 -0.97242552
3.3842556 4.7056894 -0.64605862
3.6177421 5.030344 -0.34609392
3.4125872 4.7450838 0
3.6237407 5.0386853 0.3466678
3.4087663 4.7458167 -0.97413737
3.3829195 4.7098317 -0.64634663
3.6162167 5.0346375 -0.34623894
3.4188263 4.7598228 0
0 0 0
0 0 -0
3.3983121 4.7433481 -0.65038216
3.6040773 5.0305538 -0.34565836
3.4191353 4.7724128 0
0 0 0
3.4047487 4.7644815 -0.97627681
3.4196498 4.7853336 -0.65557194
3.5949779 5.0306811 -0.34536839
3.4269831 4.7955952 0
3.6402283 5.0940032 0.34971559
3.3975008 4.7665033 -0.97584927
3.4123654 4.7873578 -0.65528393
3.5843704 5.0286713 -0.34493282
3.4272282 4.8082094 0
0 0 0
3.3961968 4.776876 -0.9771319
3.4080756 4.7935834 -0.65557194
3.5752773 5.028759 -0.34464225
3.4229283 4.8144746 0
4.4966254 6.3246689 0.43345645
3.4097254 4.8081956 -0.9826951
3.4007864 4.7955904 -0.65528393
3.5722077 5.0373187 -0.34493282
3.4216204 4.8249693 0
4.5025063 6.3491716 0.43476257
3.4157724 4.8290787 -0.98611885
3.390507 4.7933588 -0.65441883
3.5631144 5.0373845 -0.34464225
3.423301 4.8397217 0
4.4708285 6.320673 0.43244091
3.4114192 4.8353057 -0.98654801
3.3996205 4.8185825 -0.65730119
3.5555286 5.0395651 -0.34449726
3.421953 4.8502364 0
4.4556937 6.3154483 0.43171477
3.410002 4.8457165 -0.9878307
3.4042168 4.8374953 -0.65931952
3.5419612 5.0332341 -0.3437717
3.4220808 4.8628807 0
4.4435778 6.3144588 0.43127978
3.4056234 4.8519402 -0.98825991
3.4072821 4.8543034 -0.66104871
3.5493109 5.0566497 -0.34507781
3.4206893 4.8734045 0
4.4210134 6.2985511 0.42982811
3.4085891 4.8686652 -0.9908269
3.4058657 4.8647752 -0.66191387
3.5372374 5.0524201 -0.34449726
3.4177806 4.881794 0
4.4119105 6.3017616 0.42968312
3.3997614 4.868567 -0.98997015
3.4014645 4.8710055 -0.66220188
3.5236928 5.0460405 -0.3437717
3.4237995 4.9029903 0
4.4176807 6.3262601 0.43098924
3.4011722 4.8957491 -0.99382305
3.4073918 4.9047017 -0.66566139
3.5144506 5.058805 -0.3440617
3.4208529 4.924078 0
4.3979363 6.3305216 0.43055424
3.4069452 4.9167271 -0.99724513
3.4176691 4.9322028 -0.66883284
3.5024154 5.0545049 -0.34348115
3.4297204 4.949595 0
4.3769603 6.3166022 0.42924756
3.3820293 4.8933887 -0.99168199
3.4249406 4.9554768 -0.67142719
3.4918776 5.0523262 -0.34304613
3.4326127 4.9665771 0
4.4077392 6.3774681 0.43302146
3.3848588 4.9101572 -0.9942506
3.4233503 4.9659939 -0.67229128
3.4901905 5.0629539 -0.34348115
3.426609 4.9707208 0
4.3720078 6.3421392 0.43026367
3.3745587 4.9078956 -0.99296629
3.4217451 4.9765224 -0.67315644
3.4737692 5.0521855 -0.34246558
3.4132292 4.9641376 0
4.334897 6.304594 0.42736089
3.3773398 4.9246759 -0.99553496
3.4157293 4.9806533 -0.67315644
3.4661939 5.0542383 -0.34232059
3.401341 4.9596729 0
4.3287497 6.3119764 0.42750645
3.3771787 4.9372201 -0.99724513
3.4111676 4.9869099 -0.67344445
3.454216 5.0498443 -0.34174001
3.4085679 4.9831095 0
4.3211198 6.3172021 0.42750645
3.4036832 4.9888935 -0.67315644
3.4276068 5.0239592 -0.33970779
3.4304135 5.0280733 0
4.3266621 6.3417349 0.42881256
3.4034729 5.0015559 -0.67430961
3.4113052 5.0130658 -0.33869225
3.4287293 5.038671 0
4.3204565 6.3491044 0.42895755
3.3679121 4.9621782 -0.9998138
3.3945248 5.0013885 -0.67373353
3.39065 4.9956799 -0.33724055
3.4255588 5.0471129 0
4.3171611 6.3607726 0.42939311
3.3929524 5.0055776 -0.6740216
3.3949196 5.0084796 -0.33796611
3.4254322 5.0534945 0
4.314774 6.3655281 0.4295381
3.3869016 5.0096736 -0.6740216
3.4019678 5.0319581 -0.3392728
3.4441016 5.0942798 0
4.3085332 6.3728876 0.42968312
3.3909698 5.0287757 -0.67603987
3.3886173 5.0252867 -0.33854666
3.4379437 5.0984373 0
4.3066406 6.3867068 0.43026367
3.3906593 5.0414457 -0.67719197
3.405745 5.0638762 -0.34086892
3.4680839 5.1565657 0
4.3105216 6.4091554 0.4314248
3.3874497 5.0498395 -0.67776912
3.4039679 5.0744634 -0.34130448
3.4734488 5.1780424 0
4.2969842 6.4057274 0.43084422
3.4259279 5.1205635 -0.68670535
3.3978338 5.0785728 -0.34130448
3.468641 5.1844049 0
4.3008003 6.4281921 0.43200535
3.4384005 5.1526661 -0.69045287
3.4090025 5.1086116 -0.34304613
3.4623742 5.1885924 0
4.2973585 6.4398704 0.43244091
3.4608333 5.1998806 -0.69621873
3.4028273 5.1127272 -0.34304613
3.4460073 5.1776047 0
4.2881298 6.4428887 0.43229535
3.4745717 5.2342234 -0.70025426
3.3995185 5.1211605 -0.34333614
3.4656537 5.220789 0
4.2889671 6.4610586 0.43316647
3.4625332 5.2297912 -0.69910109
3.4076757 5.146935 -0.34478781
3.475148 5.2488446 0
4.2854619 6.4727383 0.43360201
0 0 -0
3.4143393 5.1705618 -0.34609392
3.4774051 5.2660661 0
4.2876568 6.493084 0.43461758
3.4441996 5.2295117 -0.69794899
3.4209509 5.194212 -0.34740004
3.4610233 5.2550559 0
4.2755189 6.4917479 0.43418202
3.4336166 5.2271819 -0.69708383
3.4332168 5.226573 -0.34928671
3.4746721 5.2896829 0
4.2719526 6.5034266 0.43461758
3.4145427 5.2118573 -0.69448948
3.4425642 5.2546287 -0.35088339
3.4540186 5.2721124 0
4.2826018 6.5368376 0.43650424
3.4054103 5.2116446 -0.69391239
3.4291017 5.2479019 -0.35015729
3.4633009 5.3002405 0
3.7488289 5.7372127 0.38280571
3.4033487 5.2222586 -0.69477755
3.4355252 5.2716322 -0.35146341
3.4654226 5.3175077 0
3.7560782 5.7635036 0.38425684
3.4069045 5.2415495 -0.69679582
3.4433167 5.2975702 -0.35291508
3.4632456 5.3282313 0
3.754776 5.7767529 0.38483739
3.4146354 5.2673616 -0.69967824
3.4397373 5.3060837 -0.35320505
3.4851184 5.3760877 0
3.739315 5.7682076 0.38396683
3.4138856 5.2801719 -0.70083135
3.4417911 5.3233328 -0.35407618
3.4644923 5.3584442 0
3.7379858 5.7814498 0.38454738
3.4243236 5.3103781 -0.70429087
3.43817 5.331851 -0.35436618
3.4678838 5.3779302 0
3.7253647 5.7772269 0.38396683
3.4318924 5.3362617 -0.70717329
3.4457831 5.3578606 -0.35581785
3.4656076 5.3886857 0
3.7183812 5.781724 0.38396683
3.4198563 5.331696 -0.70602012
3.4421098 5.3663902 -0.35610786
3.4787626 5.4235334 0
3.6861374 5.746839 0.38135403
3.4236088 5.3446488 -0.7074613
3.447274 5.3815928 -0.35697842
3.4993479 5.4628863 0
3.7149026 5.7993922 0.3846924
3.4547472 5.4076343 -0.71524543
3.4407687 5.3857541 -0.35697842
3.4857404 5.4561472 0
3.7008991 5.7929301 0.38396683
3.4523761 5.4183426 -0.71610951
3.4552045 5.422781 -0.35915565
3.4735513 5.4515758 0
3.6771412 5.7711005 0.38222516
3.4707994 5.4618082 -0.72129929
3.4542241 5.4357247 -0.3597362
3.4725449 5.4645548 0
3.6687729 5.7733483 0.38208017
3.4586589 5.4572592 -0.72014612
3.4546072 5.4508662 -0.36046177
3.4951944 5.5149069 0
3.6979575 5.8348374 0.3858535
3.4548237 5.4658027 -0.7207222
3.4549587 5.4660168 -0.36118731
3.5024307 5.541121 0
0 0 0
3.4495947 5.4721594 -0.72101021
3.4469674 5.4679914 -0.36104232
3.4818568 5.5233374 0
0 0 0
3.455374 5.496037 -0.72360563
3.4458899 5.4809513 -0.36162287
3.4862618 5.5451665 0
3.6767826 5.8482041 0.3858535
3.4542267 5.5089736 -0.7247588
3.4530656 5.5071216 -0.363074
3.4989119 5.5802393 0
0 0 0
3.4612787 5.535069 -0.72764117
3.4505434 5.5179019 -0.36350957
3.4949291 5.5888805 0
0 0 0
3.4669051 5.5589972 -0.73023558
3.448 5.5286837 -0.3639451
3.4950581 5.6041384 0
3.9731748 6.3707733 0.41937864
3.4615505 5.5653763 -0.73052359
3.4591568 5.5615277 -0.36583179
3.5034049 5.6326685 0
3.9380317 6.3314481 0.4164764
3.4534612 5.567359 -0.73023558
3.4524343 5.5657034 -0.36583179
3.497967 5.6391072 0
3.9632463 6.3891888 0.41995919
3.4562581 5.5869269 -0.73225385
3.4566429 5.5875492 -0.36699289
3.4938862 5.6477518 0
3.9418554 6.3718791 0.41850808
3.4698722 5.6241117 -0.73657745
3.4594357 5.6071954 -0.36800846
3.5075583 5.6851945 0
3.9532521 6.4075933 0.42053974
3.4834068 5.6613455 -0.74090207
3.4594703 5.6224432 -0.36873457
3.5102291 5.7049379 0
3.9414258 6.4057326 0.42010474
3.4562709 5.6324806 -0.73657745
3.4608257 5.6399031 -0.36960512
3.5169473 5.7313614 0
3.9499857 6.4370584 0.42184585
3.4737618 5.6763592 -0.74176615
3.4540086 5.6440806 -0.36960512
3.5168107 5.7467036 0
0 0 0
3.4682519 5.6827664 -0.74205524
3.4634302 5.6748662 -0.3713468
3.5125785 5.7553959 0
3.8843391 6.3645296 0.4164764
3.480207 5.7178807 -0.74609083
3.464674 5.6923604 -0.37221736
3.5069733 5.761857 0
3.8590846 6.3403654 0.41458973
3.4692678 5.7154465 -0.74522567
3.4604926 5.7009892 -0.37250793
3.5135102 5.7883334 0
3.8123212 6.2806091 0.41038081
3.4744129 5.7395458 -0.74782002
3.4616728 5.7184997 -0.37337849
3.5132508 5.8037043 0
3.8168387 6.3052149 0.41168693
3.4768338 5.7592416 -0.74983835
3.4681923 5.7449279 -0.37483016
3.5089283 5.8124051 0
3.7984738 6.292026 0.41052583
3.4685395 5.7612247 -0.74955028
3.465265 5.7557859 -0.37526515
3.5314312 5.8656878 0
3.8015904 6.3144207 0.41168693
3.482878 5.8008919 -0.75416297
3.4703445 5.7800169 -0.37657127
3.5283613 5.8766465 0
3.7886076 6.3100982 0.41110638
3.4793727 5.8029947 -0.75416297
3.4721968 5.7910266 -0.37715182
3.5569241 5.9323373 0
3.7914743 6.3235269 0.41183195
3.4869556 5.8316073 -0.7573334
3.4758649 5.8130593 -0.37831295
3.5390687 5.9187617 0
3.7464926 6.2656584 0.40776804
3.4931562 5.8580356 -0.76021683
3.4701681 5.8194847 -0.37845793
3.5305829 5.9208007 0
3.778846 6.3371387 0.41212249
3.4900374 5.8689151 -0.76108092
3.4711051 5.8370781 -0.37932906
3.5367308 5.9474354 0
0 0 0
3.4987752 5.8998241 -0.76454043
3.4680271 5.8479748 -0.37976462
3.5321941 5.9561768 0
0 0 0
3.4969106 5.9129529 -0.7656936
3.4675708 5.8633418 -0.38049018
3.5422156 5.9895597 0
3.7439413 6.3306594 0.41081581
3.5049009 5.9592848 -0.7705943
3.4626086 5.8873768 -0.38150573
3.5369678 6.0138073 0
3.7483926 6.3732872 0.41299304
3.5029318 5.9724398 -0.77174741
3.4699543 5.9162135 -0.38310242
3.5533957 6.0584798 0
3.7577777 6.4069476 0.41487971
3.5113831 6.0034595 -0.77520692
3.4824827 5.9540486 -0.38527963
3.5592096 6.0852294 0
3.729043 6.375596 0.41255748
3.5132496 6.0233397 -0.77722526
3.4792097 5.9649792 -0.38571465
3.5413694 6.0715499 0
3.7619226 6.4496803 0.41705695
3.5072684 6.0298138 -0.77751327
3.4719996 5.9691787 -0.38571465
3.5418789 6.0893178 0
3.7671888 6.4766779 0.41850808
3.5116584 6.0541816 -0.78010762
3.471302 5.9846058 -0.38644019
3.5554113 6.1296124 0
4.9079061 8.4613457 0.54636914
3.5095208 6.0673757 -0.78126079
3.4783809 6.0135403 -0.38803688
3.5623322 6.1586781 0
4.8911748 8.4560251 0.54564357
3.5125258 6.0895357 -0.78356713
3.4750085 6.0244937 -0.38847244
3.5535889 6.1607256 0
0 0 0
3.5193474 6.1184316 -0.78673756
3.4819744 6.0534582 -0.39006853
3.5746875 6.2146411 0
0 0 0
3.5080948 6.1159554 -0.78587347
3.4746573 6.0576611 -0.39006853
3.5814207 6.2437901 0
0 0 0
3.5109758 6.1381507 -0.78817981
3.4750786 6.0753922 -0.39093965
3.5803332 6.2594066 0
0 0 0
3.5048368 6.1446333 -0.78846782
3.4793208 6.0998988 -0.39224577
3.5714791 6.2614694 0
0 0 0
3.5204253 6.1893277 -0.79365653
3.4886475 6.1334586 -0.39413244
3.5883543 6.3087549 0
4.8528643 8.5319138 0.5482558
3.5193233 6.204824 -0.79509777
3.4761059 6.1286287 -0.39355189
3.5884352 6.326673 0
4.857935 8.5648937 0.54999745
3.5054579 6.1978173 -0.79365653
3.4827709 6.1577058 -0.39514858
3.6115324 6.3853621 0
4.8885179 8.6431332 0.5546419
3.5144832 6.2313333 -0.79740405
3.4817095 6.173224 -0.39587411
3.6140423 6.407856 0
4.9406133 8.7599249 0.56175303
3.5170946 6.2536106 -0.79971039
3.4716978 6.1728921 -0.39558357
3.66243 6.5120258 0
4.9669628 8.8315659 0.56596196
3.5272489 6.2805433 -0.8028819
3.4857838 6.2067113 -0.39761579
3.6763339 6.546001 0
4.9705343 8.8504267 0.5669781
3.5297632 6.3028455 -0.80518717
3.4871655 6.2267823 -0.39863136
3.6684217 6.5504384 0
4.9560266 8.8496218 0.56654251
3.5284538 6.3184037 -0.80662942
3.4847069 6.2400656 -0.39921191
3.6617718 6.5571361 0
4.9364605 8.8397217 0.56552643
3.5296216 6.3384743 -0.80864668
3.4898086 6.2669783 -0.40066358
3.6361225 6.5297279 0
4.8018937 8.6232128 0.55130357
3.5294964 6.3563066 -0.81037694
3.4935853 6.2916336 -0.4019697
0 0 0
4.7902107 8.6267395 0.55115861
3.5343399 6.3831897 -0.8132593
3.4922726 6.3072143 -0.40269527
0 0 0
4.8666267 8.7893648 0.56117249
3.5403774 6.412365 -0.81643081
3.4896729 6.3205285 -0.40327582
0 0 0
4.8924236 8.8612041 0.56538141
3.527637 6.4075751 -0.81527764
3.4857941 6.3315716 -0.40371138
0 0 0
4.8716874 8.8488989 0.56422031
3.5298495 6.4299712 -0.81758398
3.4918921 6.3608279 -0.4053075
0 0 0
4.8634953 8.8593388 0.56451088
3.5282862 6.4455738 -0.81902516
3.4904411 6.3764372 -0.40603304
0 0 0
4.847796 8.8560925 0.56393027
3.5415604 6.4884253 -0.82392585
3.4939418 6.4011836 -0.40733972
0 0 0
4.8495388 8.8847466 0.56538141
3.5436096 6.5108743 -0.82623219
3.4911685 6.4145212 -0.40791973
3.6002023 6.6148553 0
4.8673706 8.9430952 0.56871974
3.5493071 6.5401506 -0.82940263
3.4982882 6.4461408 -0.40966138
3.5884817 6.6123362 0
9.3578768 17.243345 1.095839
3.5389423 6.5398893 -0.82882655
3.4917369 6.4526548 -0.40980697
3.5693433 6.5960698 0
9.3246651 17.231781 1.0943873
3.5433173 6.5669193 -0.83170897
3.486403 6.4614387 -0.41009694
3.5700226 6.6164126 0
4.6350379 8.5902319 0.54520798
3.5500853 6.5985289 -0.83516842
3.4909019 6.4885249 -0.41154808
3.552161 6.6023865 0
4.6308141 8.6072741 0.54593414
3.5518913 6.6210475 -0.83747476
3.4965725 6.5179281 -0.41314474
3.5417225 6.6020918 0
4.6216373 8.6151514 0.5460791
3.5426698 6.6230559 -0.83718675
3.5034015 6.5496435 -0.41488642
3.5361953 6.6109514 0
4.6050978 8.6092749 0.54535353
3.551703 6.6592779 -0.84122229
3.5015979 6.5653334 -0.41561198
3.5306563 6.6198168 0
9.1959381 17.241957 1.0914851
3.5533693 6.6818337 -0.84352863
3.4985425 6.5787363 -0.41619253
3.523876 6.6263733 0
9.1665564 17.236994 1.090469
3.5574074 6.7089691 -0.84641105
3.4991131 6.599031 -0.41720864
3.5146487 6.6283293 0
9.1420689 17.241167 1.0900334
3.5529263 6.7201242 -0.84727615
3.5020661 6.6239262 -0.41851476
3.521229 6.6601715 0
9.11759 17.245316 1.0895984
3.5641022 6.7610211 -0.85188884
3.5001175 6.6396437 -0.41924033
3.5095417 6.6575212 0
9.0858364 17.235626 1.0882918
3.5655572 6.7836385 -0.85419518
3.4957201 6.6507707 -0.41967589
3.5051239 6.6686616 0
9.0613804 17.239698 1.0878568
3.5561538 6.7856445 -0.8539061
3.4961212 6.6710939 -0.42069143
3.5212245 6.7189941 0
9.0369234 17.243729 1.0874212
3.5683143 6.8289046 -0.85880679
3.5049076 6.7075596 -0.42272368
3.515516 6.7278619 0
9.0076561 17.238512 1.086405
3.5701737 6.8425317 -0.86024904
3.5104659 6.728097 -0.42388421
3.5126536 6.7322893 0
8.9948378 17.239347 1.0861151
3.566678 6.8560185 -0.86140221
3.5119276 6.7507749 -0.42504534
3.498512 6.7249875 0
4.5251541 8.6984425 0.54767525
3.559581 6.862617 -0.86169022
3.5133393 6.7734666 -0.42620647
3.4963739 6.7407584 0
4.5230165 8.7200518 0.54869133
3.5584128 6.8806934 -0.86341941
3.5087345 6.7846332 -0.42664203
3.5001793 6.7680907 0
4.5220261 8.7439756 0.54985249
3.5607634 6.9056754 -0.86601382
3.5112505 6.8096514 -0.42794812
3.5432816 6.8717718 0
4.5257473 8.7771473 0.55159414
3.5654261 6.9352784 -0.86918527
3.5172765 6.8416204 -0.42968979
3.5932801 6.9894586 0
4.5163255 8.7849178 0.55173916
3.5523245 6.9303746 -0.8680321
3.5161164 6.859735 -0.43056035
3.6287541 7.0794845 0
4.50808 8.7949982 0.55202967
3.559248 6.9646006 -0.87177962
3.5161035 6.8801775 -0.43157649
3.6616447 7.1649671 0
4.4891715 8.7842398 0.55101359
3.5531807 6.9735098 -0.87235677
3.519582 6.9075689 -0.4330276
3.6565304 7.1763449 0
4.4785542 8.7896576 0.55101359
3.5470927 6.9824057 -0.87293279
3.5194724 6.9280353 -0.43404371
3.6596413 7.2039561 0
9.2269564 18.163143 1.1379269
3.5433278 6.9959164 -0.87408596
3.5251875 6.9600997 -0.43578538
3.6944413 7.2942729 0
9.2038298 18.171963 1.137782
3.5430343 7.0163565 -0.8761043
3.5249751 6.9805932 -0.43680149
3.703218 7.3335719 0
9.173666 18.166832 1.1367658
3.5333874 7.0183153 -0.87581521
3.5188725 6.9894843 -0.4370915
3.6861653 7.3217759 0
9.6155663 19.099258 1.1943833
3.5237455 7.0202703 -0.87552714
3.5150871 7.0030208 -0.43767205
3.7216778 7.4146061 0
9.5901527 19.106222 1.1940932
3.5152602 7.0245228 -0.87552714
3.520577 7.0351477 -0.43941373
3.69874 7.3911691 0
9.5786858 19.141029 1.1955444
3.5067699 7.0287652 -0.87552714
3.5213542 7.0579972 -0.44057485
6.252727 12.532602 0
9.5857096 19.213037 1.1993177
3.502882 7.0422606 -0.87668031
3.5209208 7.078526 -0.4415904
6.2120781 12.48888 0
9.6029921 19.306038 1.2043978
3.4955184 7.0488033 -0.87696838
3.5158296 7.0897613 -0.44202596
3.6834834 7.4278393 0
9.5992813 19.357199 1.206865
3.4961691 7.0715704 -0.87927467
3.5084109 7.0963311 -0.44217098
0 0 0
9.6000681 19.417698 1.2099128
3.5036333 7.108274 -0.88331133
3.4986861 7.098237 -0.44202596
0 0 0
9.5880842 19.452585 1.2113639
3.5023735 7.1492338 -0.88734686
3.4918096 7.1276703 -0.44333208
0 0 0
9.6130629 19.622702 1.2205073
3.4994068 7.1650786 -0.88878804
3.4866168 7.1388912 -0.44376764
0 0 0
9.6053076 19.666986 1.2225389
3.4907467 7.169302 -0.88878804
3.4882247 7.1641226 -0.44507375
0 0 0
9.5815372 19.678577 1.2225389
3.480953 7.1711898 -0.88850003
3.5249493 7.2618275 -0.45087877
0 0 0
9.5475416 19.669106 1.2212328
3.4677789 7.1660781 -0.88734686
3.5637085 7.3643141 -0.45697436
0 0 0
9.5203714 19.673609 1.2207973
3.4679499 7.1774874 -0.88850003
3.5739534 7.3968792 -0.45886102
0 0 0
9.510747 19.68404 1.2210878
3.4626431 7.1886654 -0.8893652
3.5785446 7.4292841 -0.4606027
0 0 0
9.483572 19.688492 1.2206522
3.4561915 7.1975026 -0.88994122
3.5740645 7.4429722 -0.46118325
0 0 0
9.4541521 19.688227 1.2199267
3.4463766 7.1993427 -0.88965321
3.5617058 7.4402609 -0.46074826
5.9440937 12.416974 0
9.425868 19.690262 1.2193462
3.4454696 7.2198353 -0.89167047
3.5694969 7.4797292 -0.46292493
5.9279661 12.421801 0
9.3987103 19.694599 1.2189106
3.4534118 7.2590299 -0.89599508
3.5727367 7.5098495 -0.46452162
5.9129524 12.428954 0
9.3682108 19.691866 1.21804
0 0 -0
3.5959494 7.5822449 -0.46873051
7.3877587 15.577471 0
9.3377323 19.689089 1.2171695
3.5077124 7.4193339 -0.91473269
3.6523089 7.7251768 -0.47729331
7.3622546 15.572265 0
9.3106012 19.693308 1.2167339
3.5130789 7.45398 -0.91848028
3.6817412 7.8118443 -0.48237279
7.319026 15.529363 0
9.2856922 19.702196 1.2165889
3.5381663 7.5307922 -0.92741758
3.6844506 7.8421502 -0.48396891
9.9018974 21.075644 0
9.8938742 21.058567 1.2996042
3.5586808 7.5982976 -0.93520063
3.6760774 7.8489566 -0.48411447
9.8808393 21.097021 0
9.867321 21.068155 1.2994592
3.5735674 7.6541476 -0.94154251
3.6654885 7.8510313 -0.48396891
9.8696527 21.139597 0
9.841857 21.080063 1.2994592
3.5785029 7.688942 -0.94529003
3.6494229 7.8413243 -0.48309836
7.9642143 17.112291 0
8.610383 18.500681 1.1398137
3.5724761 7.7003016 -0.94615519
3.6366639 7.8386545 -0.4826628
7.9533877 17.143147 0
8.5880222 18.511072 1.1398137
3.567512 7.7140026 -0.94730836
3.6239207 7.8359747 -0.48222777
7.9293938 17.145664 0
8.5732851 18.537947 1.1408297
3.6144497 7.8403478 -0.48222777
7.9108477 17.159956 0
9.9041138 21.483685 1.3213737
0 0 -0
7.8911934 17.171864 0
9.8900843 21.52161 1.3229704
3.5933259 7.8443303 -0.48193723
9.8722019 21.551291 0
9.8586626 21.521734 1.3222449
3.5719714 7.8226633 -0.48034054
9.8396702 21.549004 0
9.8326511 21.533632 1.3222449
3.5528297 7.8056912 -0.47903442
9.8050003 21.541927 0
9.8023186 21.536037 1.3216643
3.5380285 7.7981491 -0.47830889
9.7703619 21.5348 0
9.7687731 21.5313 1.3206482
3.526464 7.7976875 -0.47801888
9.7421913 21.541851 0
9.7395363 21.535982 1.3202126
7.1433315 15.846245 -0.97088689
9.7075987 21.534626 0
9.7124405 21.545368 1.3200676
7.1476197 15.881359 -0.97277355
7.3053684 16.231863 0
7.3139262 16.250877 0.99540752
7.1316166 15.897099 -0.97320908
7.2942719 16.259674 0
7.3027935 16.278669 0.99656862
7.1219482 15.927051 -0.9745152
9.6286936 21.53297 0
9.6239796 21.522427 1.3168749
7.1122179 15.957003 -0.97582132
9.6058435 21.551712 0
9.5926781 21.522175 1.3161492
7.1045375 15.991709 -0.97741801
9.5713425 21.544277 0
9.5635004 21.526625 1.3157138
7.1030941 16.04067 -0.97988522
9.5410891 21.546309 0
9.5364313 21.535789 1.3155687
7.0910482 16.065874 -0.98090082
9.5097942 21.545919 0
9.5072536 21.540163 1.3151332
7.0747709 16.081568 -0.98133636
9.4806118 21.550255 0
9.4759893 21.539745 1.3144076
7.0542917 16.087727 -0.98119134
9.449337 21.54977 0
9.4468241 21.544039 1.3139721
7.0400496 16.108143 -0.9819169
9.4180813 21.54925 0
9.4145441 21.541157 1.3131015
7.0371847 16.154753 -0.98423916
9.3899603 21.555847 0
9.3874722 21.550137 1.3129565
7.0269723 16.184692 -0.98554528
10.052082 23.152199 0
9.3634939 21.566225 1.3132465
7.0105081 16.200329 -0.98598081
10.015832 23.145222 0
10.011271 23.134684 1.408018
6.999157 16.227865 -0.98714137
9.9827051 23.145361 0
9.9761057 23.130058 1.4070019
7.0010929 16.286442 -0.99018919
9.9485626 23.143055 0
9.9419909 23.127768 1.4061308
7.0018749 16.342657 -0.99309194
9.9154682 23.143101 0
9.9130163 23.137377 1.4059857
7.0066133 16.408459 -0.9965753
9.8793201 23.135918 0
9.8799505 23.137392 1.4052602
6.9898353 16.424088 -0.99701089
9.8493214 23.143053 0
9.8509693 23.146925 1.4051152
6.979116 16.45405 -0.998317
7.8367472 18.476011 0
9.8189354 23.149242 1.4045346
6.9612508 16.467253 -0.99860698
7.8387332 18.542988 0
9.7838736 23.144333 1.4035186
7.8415818 18.612402 0
9.7649803 23.177689 1.4048246
7.8825588 18.773029 0
9.7349567 23.184683 1.4045346
9.694253 23.166121 0
9.68186 23.136505 1.4009063
9.657239 23.156202 0
9.6698999 23.18656 1.4032285
6.1037397 14.685517 -0.88830656
7.6506548 18.407375 0
7.2535033 17.451834 1.0556371
6.0918818 14.682009 -0.88787156
7.6056237 18.330269 0
7.2359905 17.439419 1.0546216
6.0721493 14.684552 -0.88758099
7.5765109 18.322617 0
0 0 0
6.0435138 14.665459 -0.8859849
7.5355253 18.286039 0
0 0 0
6.0218406 14.663136 -0.88540435
7.5055151 18.275871 0
0 0 0
6.0001822 14.660782 -0.8848238
7.4765296 18.268074 0
7.7431045 18.91942 1.1418458
5.9785376 14.658397 -0.88424319
7.4357758 18.231306 0
7.7388806 18.97447 1.1446031
5.9588628 14.66079 -0.88395268
7.4127622 18.237869 0
9.4104633 23.152882 1.3959718
5.9372416 14.658347 -0.88337213
7.3770437 18.213047 0
9.3776045 23.152195 1.3952463
5.9175825 14.660695 -0.88308209
7.3764596 18.275036 0
9.3457327 23.153872 1.3946657
5.8969536 14.660601 -0.88264656
7.5116954 18.675062 0
7.4483113 18.517479 1.1148514
5.8605442 14.672398 -0.88250154
7.5630746 18.934834 0
7.4218502 18.581266 1.1176085
5.8380075 14.667399 -0.88177598
7.2639871 18.250027 0
7.4224553 18.648163 1.1210918
5.8202806 14.674442 -0.88177598
7.2294574 18.227345 0
7.4458981 18.773048 1.128058
5.8015876 14.679041 -0.88163042
7.2083836 18.238483 0
7.439445 18.823111 1.1305252
5.7924185 14.707807 -0.88293707
7.1834788 18.239914 0
7.4157443 18.82967 1.1303803
5.7793884 14.726887 -0.88366264
7.1500292 18.219519 0
7.3768506 18.797499 1.127913
5.7852468 14.794357 -0.88729101
7.4407673 19.027948 0
11.161011 28.541563 1.7117791
5.791893 14.864282 -0.89106435
7.4092641 19.015093 0
11.119911 28.538078 1.710763
5.7936773 14.922135 -0.89411217
7.3778057 19.002199 0
7.2973771 18.795048 1.1261714
5.7887664 14.963048 -0.89614379
7.3435721 18.981974 0
7.2877855 18.837774 1.128203
5.781898 14.999126 -0.8978855
7.304718 18.949554 0
7.2799726 18.885361 1.1305252
5.7758813 15.037633 -0.89977217
11.03472 28.729136 0
7.2608747 18.903845 1.1311058
5.7716393 15.081005 -0.90194941
10.996279 28.732727 0
7.2426705 18.924736 1.1318314
10.961553 28.745993 0
10.884952 28.545113 1.7064091
10.939555 28.74045 0
10.861233 28.534681 1.705393
7.2781696 19.190956 0
10.826746 28.547783 1.705393
7.2669339 19.231382 0
10.78857 28.551123 1.7048124
7.2647824 19.296169 0
10.746739 28.544683 1.7036513
7.2624817 19.360971 0
10.707679 28.545485 1.7029258
7.2317939 19.350229 0
10.672271 28.555971 1.7027807
7.2456403 19.458946 0
10.629599 28.546932 1.7014747
7.2610435 19.572601 0
10.593288 28.554876 1.7011842
7.2608452 19.644825 0
10.556977 28.562786 1.7008941
10.597592 28.779564 0
10.515274 28.556015 1.699733
10.550262 28.758146 0
10.477182 28.558941 1.6991525
10.507467 28.748877 0
10.43999 28.564257 1.6987169
10.468267 28.749317 0
10.393023 28.542671 1.6966852
10.436185 28.769287 0
10.357642 28.552769 1.6965402
10.394339 28.762295 0
10.318719 28.553047 1.6958146
7.2478127 20.131575 0
10.278049 28.548378 1.6947985
7.220849 20.132975 0
10.247055 28.57056 1.6953791
7.2271619 20.227455 0
10.208155 28.570688 1.6946535
7.2062068 20.245979 0
10.169266 28.570755 1.6939274
7.1895647 20.276747 0
10.136475 28.587923 1.6942179
7.1771917 20.319769 0
10.085481 28.553596 1.6914601
7.170773 20.379978 0
10.077709 28.64175 1.6959597
10.101195 28.819677 0
10.028483 28.612221 1.6934924
10.05264 28.792549 0
0 0 0
10.02925 28.78142 0
0 0 0
7.2458062 20.874775 0
0 0 0
7.2418375 20.945004 0
0 0 0
10.056201 29.198961 0
0 0 0
10.027669 29.230785 0
0 0 0
9.9847689 29.220718 0
0 0 0
9.9586792 29.259865 0
0 0 0
9.91329 29.2423 0
0 0 0
7.2313304 21.416105 0
0 0 0
6.9955711 20.800776 0
0 0 0
6.9547291 20.762333 0
0 0 0
6.9296365 20.770721 0
7.8609562 23.562235 1.387409
6.9078169 20.788958 0
7.2458425 21.80624 1.2834947
6.4894161 19.608934 0
7.2292819 21.844572 1.2852359
6.4738631 19.641474 0
7.1980028 21.83849 1.2843653
6.4444461 19.631979 0
7.1910605 21.906422 1.2878486
6.4093966 19.605116 0
7.1783113 21.957079 1.2903159
6.7450333 20.716482 0
7.1509686 21.963259 1.2901703
6.7175875 20.717188 0
7.1228237 21.966946 1.2898803
6.2983027 19.504396 0
7.0763144 21.913719 1.2862519
6.277122 19.519428 0
7.0394897 21.890099 1.2843653
6.252739 19.524523 0
6.9995632 21.856522 1.281898
6.2251897 19.519669 0
6.9739375 21.867437 1.2820431
6.1945105 19.504854 0
6.9443636 21.865942 1.2814626
6.1819367 19.506105 0
6.9162388 21.823076 1.2787052
6.1230788 19.483753 0
6.8486781 21.792625 1.2759475
6.0940905 19.473749 0
6.8207908 21.795929 1.2756574
6.0697823 19.478617 0
6.792902 21.799189 1.2753669
6.0462418 19.485935 0
9.3160553 30.023951 1.7558987
6.0211573 19.488258 0
9.2828388 30.045115 1.7564793
5.9991341 19.50049 0
9.2419453 30.041412 1.7556088
5.9740443 19.502752 0
9.2079229 30.060015 1.7560443
5.9504747 19.509958 0
9.1859961 30.118334 1.7588016
5.9367266 19.549503 0
9.1820612 30.236317 1.7650421
6.0426435 19.985107 0
9.2086878 30.456308 1.7772332
6.0522494 20.104532 0
9.212327 30.601768 1.7850705
6.0421467 20.159189 0
9.2081661 30.722385 1.7914561
6.022994 20.183935 0
9.216361 30.885374 1.8003095
6.0015659 20.201176 0
9.215292 31.018528 1.8074206
5.9845324 20.233364 0
9.2006531 31.106886 1.81192
5.965961 20.260553 0
9.2092991 31.275009 1.8210634
5.9444041 20.277737 0
9.2285137 31.480595 1.8323835
5.915525 20.26992 0
9.2261381 31.613945 1.8394952
5.8932071 20.284552 0
9.2191029 31.732359 1.8457358
5.8556767 20.246653 0
9.1959133 31.795893 1.8487836
5.8477697 20.311237 0
9.5679646 33.232704 1.9316539
7.0700388 24.668655 0
9.5206451 33.219269 1.9302027
7.0609312 24.749754 0
9.4726572 33.203259 1.928606
0 0 0
9.4554405 33.218971 1.9291867
7.0529504 24.892706 0
9.4117546 33.217876 1.9284611
7.0454731 24.981363 0
9.3701982 33.224216 1.9281706
7.472465 26.618433 0
9.3293447 33.233013 1.9280255
7.4381971 26.61993 0
9.2856865 33.231754 1.9273
7.4018416 26.61385 0
9.2531824 33.270477 1.9288961
7.3578758 26.580137 0
9.2268391 33.331722 1.9317988
7.3250628 26.586502 0
5.4196281 19.670679 1.1396686
7.2839866 26.562708 0
5.388299 19.649654 1.1380725
7.2354403 26.511234 0
10.045239 36.806564 2.1310651
7.1747513 26.414478 0
10.018466 36.883869 2.1348386
7.147584 26.440718 0
10.022035 37.074036 2.145143
7.1440253 26.554882 0
10.00423 37.186478 2.150948
5.8627801 21.897831 0
5.9468503 22.21184 1.2843653
5.8289452 21.877234 0
5.9193392 22.216501 1.2842203
5.7971735 21.864147 0
5.8891611 22.211081 1.2834947
5.765439 21.851004 0
5.855689 22.19305 1.2820431
5.7324219 21.832777 0
5.8381081 22.2353 1.2840753
5.7027483 21.827101 0
5.811893 22.24485 1.2842203
5.6691689 21.806276 0
5.8183527 22.380106 1.2916219
5.6408601 21.80555 0
5.8075752 22.45001 1.2952503
5.6171031 21.822432 0
5.7875676 22.484684 1.2968464
5.5881481 21.819118 0
5.7404113 22.413635 1.2923476
5.5669212 21.846029 0
5.6132331 22.027769 1.2697068
5.5405207 21.852739 0
5.575757 21.991718 1.2672397
5.5160193 21.866982 0
5.5625262 22.051348 1.2702874
5.5129681 21.910692 0
5.685514 22.596457 1.3014909
5.4909134 21.935011 0
5.6575761 22.600792 1.3013459
5.4675493 21.954254 0
5.6409378 22.650475 1.3038131
5.4422708 21.965902 0
5.613565 22.657274 1.3038131
5.4138565 21.964878 0
5.5836968 22.653948 1.3032326
5.3910294 21.986565 0
4.9313631 20.111879 1.1566492
7.1090431 29.145462 0
0 0 0
7.0989809 29.257721 0
4.9097028 20.234837 1.1630348
7.0978146 29.40794 0
4.8870788 20.248333 1.1634704
7.1108766 29.618933 0
4.8516912 20.20875 1.1608582
7.0877762 29.680658 0
4.8375292 20.257561 1.1633254
7.0765657 29.793013 0
5.2069478 21.921745 1.2585318
7.0441504 29.816732 0
5.1768727 21.912853 1.2576613
7.0301433 29.918961 0
5.1492014 21.914028 1.2573707
7.0762401 30.44536 0
5.0932879 21.913755 1.2566452
7.0611315 30.547695 0
5.0703158 21.935078 1.2575158
4.713119 20.502651 0
5.0385695 21.9184 1.2562096
4.6958814 20.541311 0
5.0051327 21.894075 1.254468
4.6629801 20.511436 0
4.9717617 21.869701 1.2527263
4.6439323 20.542444 0
4.9407516 21.855425 1.2515657
4.6116877 20.515034 0
4.9080706 21.83349 1.249969
4.5897336 20.533289 0
4.8822517 21.841938 1.2501141
7.0825582 31.86636 0
4.8569851 21.8529 1.2504046
7.0965266 32.020535 0
4.8398457 21.83807 1.2493885
7.1155114 32.290848 0
4.8134546 21.843901 1.2493885
7.1104617 32.454483 0
4.7903929 21.864925 1.250259
7.0823197 32.513908 0
4.7656293 21.878317 1.2506946
7.0578985 32.59111 0
4.7408409 21.891682 1.2511301
7.021801 32.614883 0
4.7165732 21.907555 1.2517107
7.0706196 33.035587 0
4.6917305 21.920862 1.2521462
7.1162677 33.446285 0
4.6728096 21.962093 1.2541779
7.0925417 33.533783 0
4.1709776 19.720526 1.1258813
7.0894961 33.720592 0
4.150353 19.740805 1.1267519
7.0806885 33.881981 0
4.127028 19.748346 1.1268969
7.0831428 34.099442 0
4.0994649 19.735516 1.1258813
7.0708752 34.24815 0
4.0792918 19.758261 1.1268969
7.060874 34.409622 0
4.048625 19.730087 1.1250103
7.0536141 34.586426 0
4.0201097 19.712053 1.1237041
7.1095209 35.076969 0
3.9962885 19.716896 1.1237041
7.0953946 35.225845 0
3.9714363 19.716621 1.1234142
7.0518031 35.229286 0
3.9460793 19.71376 1.1229786
7.0224304 35.304142 0
3.9187071 19.70067 1.1219624
6.1779385 31.255924 0
3.8954053 19.707949 1.122108
6.1341505 31.232733 0
4.5470958 23.15206 1.317891
6.0889301 31.201803 0
4.5230989 23.17794 1.3190521
6.0467663 31.186146 0
4.4896488 23.155325 1.3174554
6.0012026 31.152542 0
4.4587183 23.14543 1.3165848
5.9872875 31.181715 0
4.4417934 23.132803 1.3157138
5.9437561 31.15826 0
3.7706766 19.766579 1.1239947
5.9104638 31.188429 0
3.74824 19.778772 1.1244297
5.8790331 31.228794 0
3.719532 19.757757 1.1229786
5.8436861 31.248663 0
3.5026963 18.7304 1.064345
7.0682511 38.051334 0
3.4776895 18.721848 1.0636194
7.019908 38.04705 0
3.4522374 18.710709 1.0627489
0 0 -0
6.9683008 38.024788 0
3.427753 18.704643 1.0621684
0 0 -0
5.1366539 28.222101 0
3.4079404 18.724104 1.0630388
0 0 -0
5.0983834 28.205242 0
3.43523 19.004356 1.0787134
0 0 -0
5.0615392 28.196007 0
3.4278736 19.095446 1.0836478
5.018333 28.150869 0
3.4002385 19.073997 1.0821967
4.9802308 28.133842 0
3.3712995 19.044823 1.0803095
4.9417281 28.114212 0
3.3505354 19.061686 1.0810356
0 0 -0
4.9023848 28.089397 0
3.3163323 19.001728 1.0774072
4.8791051 28.156843 0
3.2938135 19.00828 1.0775523
4.8314018 28.083216 0
3.2734857 19.027605 1.0784228
4.8066659 28.142904 0
3.2588046 19.080215 1.0811806
4.7639561 28.097374 0
3.2439992 19.132807 1.0839379
5.0496278 30.00215 0
3.2243288 19.157211 1.085099
5.0133724 30.008228 0
3.2011786 19.161095 1.085099
4.9681692 29.96035 0
3.1720736 19.129065 1.0830673
4.9336553 29.976604 0
3.1354539 19.050837 1.0784228
4.8923965 29.951721 0
3.107826 19.026411 1.0768267
0 0 -0
4.8632808 30.001282 0
3.0711133 18.945511 1.0720372
4.8253732 29.996859 0
3.0246964 18.802979 1.0637645
0 0 -0
4.806427 29.994633 0
3.0375919 18.956171 1.0723273
0 0 -0
4.7701807 30.00042 0
3.04039 19.121492 1.0814706
4.4346337 28.109076 0
3.0197136 19.140556 1.0823417
0 0 -0
4.4014716 28.11956 0
3.0014057 19.174997 1.0840834
4.3287501 28.099249 0
2.9210353 18.961338 1.0716016
0 0 -0
4.292829 28.091599 0
2.8769264 18.826153 1.0637645
4.2577124 28.089043 0
2.8456099 18.7731 1.0605717
4.2276373 28.119898 0
2.8179026 18.743124 1.0586849
0 0 -0
4.1959605 28.140434 0
2.795253 18.746515 1.0586849
2.7420185 18.543072 0
2.7718401 18.744741 1.058395
2.7177231 18.533499 0
2.7495654 18.750647 1.05854
2.6882131 18.487843 0
2.7325156 18.792528 1.0607172
0 0 -0
2.6643867 18.480774 0
2.7142544 18.82667 1.0624583
2.6380031 18.455639 0
2.6940782 18.847944 1.0634744
2.6135111 18.443357 0
2.6683857 18.830603 1.0623133
2.5933955 18.46196 0
3.4382753 24.476521 1.3805878
2.5746744 18.49085 0
3.4051135 24.454916 1.3791362
2.5516188 18.488798 0
3.3780489 24.477034 1.3801523
2.5278661 18.481554 0
2.5847368 18.897341 1.0653611
2.5044839 18.476854 0
2.5660894 18.931349 1.0671028
2.4807708 18.469551 0
2.54598 18.95504 1.0682639
2.4581091 18.469957 0
2.5227323 18.955528 1.0681189
2.4459243 18.463696 0
2.5116208 18.959621 1.0682639
2.4209049 18.446005 0
2.4887099 18.962643 1.0682639
2.3976078 18.441172 0
2.470485 19.001707 1.0702956
2.3746579 18.438889 0
2.4511745 19.03303 1.0718923
2.3527067 18.444334 0
2.4317908 19.064323 1.0734884
2.3313961 18.454901 0
2.4094055 19.072409 1.0737789
2.3120027 18.480944 0
2.3866806 19.077881 1.0739239
2.2915905 18.499226 0
2.3652239 19.093641 1.0746495
2.2682853 18.494228 0
2.3449979 19.119696 1.0759556
2.2440555 18.481461 0
2.3319163 19.205059 1.0806
2.2195482 18.466068 0
2.355531 19.597408 1.1025151
2.1956971 18.455818 0
2.3450484 19.711184 1.1087557
2.1718738 18.445536 0
2.3218367 19.719158 1.1090457
0 0 -0
0 0 0
2.3016171 19.752922 1.1107874
0 0 -0
0 0 0
2.273582 19.719555 1.1087557
0 0 -0
0 0 0
2.2506368 19.730034 1.1091913
0 0 -0
0 0 0
2.2314563 19.774042 1.1115129
0 0 -0
0 0 0
2.2072735 19.774145 1.1113679
0 0 -0
8.2866201 75.059273 0
2.1739695 19.691568 1.1065785
0 0 -0
8.1925306 75.038185 0
2.1434071 19.632196 1.1030957
8.0862141 74.903137 0
2.1082494 19.528854 1.0971451
0 0 -0
7.9973593 74.928375 0
2.079411 19.482292 1.0943873
0 0 -0
7.900537 74.878464 0
2.0525982 19.453793 1.0926462
0 0 -0
7.8024964 74.815483 0
2.0269344 19.435581 1.0914851
0 0 -0
7.7200952 74.902512 0
2.002383 19.427677 1.0909046
0 0 -0
7.6179829 74.797874 0
1.9765378 19.40682 1.0895984
7.5733161 74.80764 0
1.9669055 19.428682 1.090759
0 0 -0
7.4870639 74.85817 0
1.9452387 19.449146 1.0917751
7.3917465 74.817955 0
1.9189273 19.423046 1.090179
0 0 -0
7.2977991 74.790565 0
1.8974749 19.44603 1.0913396
0 0 -0
7.2104192 74.830414 0
1.8739767 19.448309 1.0913396
6.2891483 66.105934 0
1.8487539 19.432459 1.0903239
6.2241106 66.27153 0
1.8213847 19.393286 1.0880017
0 0 -0
6.1399465 66.234955 0
1.7991493 19.408405 1.0887274
6.0620446 66.265656 0
1.7749864 19.4028 1.0882918
0 0 -0
5.9772916 66.221092 0
6.007391 66.554558 3.7325964
0 0 -0
5.8981953 66.23864 0
5.930656 66.60318 3.7349186
0 0 -0
6.1309886 69.807655 0
5.8490372 66.597343 3.7341924
0 0 -0
6.0443892 69.789078 0
0 0 0
0 0 -0
5.948545 69.661499 0
0 0 0
0 0 -0
0 0 0
0 0 0
0 0 -0
0 0 0
0 0 0
0 0 -0
0 0 0
6.4963303 79.473679 4.4539018
0 0 -0
0 0 0
6.3952923 79.419319 4.4504189
0 0 -0
6.1886411 78.031395 0
6.3042545 79.489143 4.4539018
0 0 -0
0 0 0
0 0 0
0 0 -0
0 0 0
0 0 0
0 0 0
0 0 0
0 0 -0
0 0 0
0 0 0
0 0 -0
0 0 0
0 0 0
0 0 -0
0 0 0
0 0 0
0 0 -0
0 0 0
0 0 0
0 0 -0
0 0 0
0 0 0
0 0 -0
0 0 0
0 0 0
0 0 -0
0 0 0
0 0 0
0 0 -0
0 0 0
0 0 0
0 0 0
0 0 0
0 0 -0
0 0 0
0 0 0
