# .PCD v0.7 - Point Cloud Data file format
VERSION 0.7
FIELDS x y z
SIZE 4 4 4
TYPE F F F
COUNT 1 1 1
WIDTH 1539
HEIGHT 1
VIEWPOINT 0 0 0 1 0 0 0
POINTS 1539
DATA ascii
4.0572505 -1.4441082 -0.95403832
5.2436686 -1.8663931 -0.92791855
5.8846445 -2.0945375 -0.69621873
7.3502069 -2.6161792 -0.43578538
7.3255439 -2.6074007 0
7.3305101 -2.6091683 0.43461758
2.7637477 -0.97994727 -0.96688241
3.3123975 -1.1744832 -0.96962756
4.0566001 -1.4383565 -0.95347601
5.2580147 -1.8643444 -0.930058
5.8896065 -2.088289 -0.69650674
7.3558097 -2.6081634 -0.43593037
7.3188777 -2.5950685 0
7.3214145 -2.595968 0.43389201
2.7759869 -0.9823994 -0.97095644
3.2941864 -1.165786 -0.96409023
4.0550752 -1.4350585 -0.95291364
5.2567225 -1.8603117 -0.92963046
5.873806 -2.0786927 -0.69448948
7.3475857 -2.6002514 -0.43534982
7.3179932 -2.5897789 0
7.3229814 -2.5915442 0.43389201
2.7445424 -0.96754152 -0.95954847
3.2979653 -1.1626413 -0.96478438
4.0568066 -1.4301577 -0.95291364
5.2541289 -1.8522534 -0.92877531
5.8958282 -2.0784733 -0.69679582
7.3531704 -2.5922344 -0.43549484
7.318665 -2.5800703 0
7.3163052 -2.5792382 0.43331146
2.7923403 -0.98060012 -0.97584468
3.2993677 -1.1586555 -0.96478438
4.0633216 -1.426937 -0.95403832
5.2515144 -1.8442006 -0.92791855
5.8885736 -2.06792 -0.69564265
7.3440413 -2.5790436 -0.43476927
7.3217769 -2.5712252 0
7.319416 -2.5703959 0.43331146
2.7748682 -0.97069961 -0.96932805
3.3031311 -1.1554956 -0.96547592
4.0602508 -1.4203498 -0.95291364
5.2610106 -1.8403976 -0.92920285
5.9105992 -2.0676355 -0.69794899
7.3520622 -2.5718856 -0.43505982
7.3224244 -2.5615177 0
7.3102555 -2.557261 0.4325859
2.7760391 -0.96734601 -0.96932805
3.2997823 -1.149851 -0.96409023
4.061964 -1.4154428 -0.95291364
5.2705054 -1.8365743 -0.93048722
5.9179735 -2.0621929 -0.69852507
7.3502522 -2.5612886 -0.43476927
7.3156838 -2.5492427 0
7.3133402 -2.5484259 0.4325859
2.7631919 -0.95912659 -0.96443671
3.3059139 -1.1475098 -0.96547592
4.0636711 -1.4105337 -0.95291364
5.2678657 -1.8285195 -0.92963046
5.925343 -2.0567353 -0.69910109
7.3508892 -2.551554 -0.43462425
7.3261371 -2.5429623 0
7.3139615 -2.5387361 0.43244091
2.7830362 -0.96224833 -0.97095644
3.3167822 -1.1467936 -0.96824455
4.0845838 -1.4122648 -0.95741671
5.2749281 -1.8238323 -0.93048722
5.927824 -2.0495741 -0.69910109
7.3441439 -2.5392737 -0.43404371
7.3193655 -2.5307064 0
7.3121076 -2.5281971 0.43215033
2.8145742 -0.96934694 -0.98155022
3.3181653 -1.1427852 -0.96824455
4.0742774 -1.4031923 -0.95460284
5.2722692 -1.8157837 -0.92963046
5.9351921 -2.0440962 -0.69967824
7.3447523 -2.5295525 -0.43389872
7.3273349 -2.5235538 0
7.3028755 -2.51513 0.4314248
2.7713306 -0.95070952 -0.96606821
3.317173 -1.1379616 -0.96755308
4.0831733 -1.4007393 -0.95628989
5.2841721 -1.8127438 -0.9313423
5.952332 -2.0419571 -0.70140743
7.3379722 -2.5173032 -0.43331814
7.3279195 -2.5138547 0
7.2862463 -2.4995587 0.43026367
2.8005345 -0.95694733 -0.97584468
3.3209174 -1.1347631 -0.96824455
4.0680389 -1.3900559 -0.95235133
5.2790685 -1.8038666 -0.930058
5.9743752 -2.0414541 -0.70371377
7.338552 -2.5075955 -0.43317315
7.3137102 -2.4991071 0
7.2499194 -2.4773097 0.42794144
2.7502177 -0.93604445 -0.95791698
3.3080316 -1.125898 -0.96409023
4.074522 -1.3867751 -0.95347601
5.2788167 -1.7966603 -0.92963046
5.9841857 -2.0367348 -0.70457894
7.3292699 -2.4945381 -0.43244705
7.2871599 -2.4802058 0
7.211092 -2.4543157 0.4254742
2.7958233 -0.94779849 -0.97340208
3.3402748 -1.1323704 -0.97308767
4.0689731 -1.3794028 -0.95178682
5.2858505 -1.7919306 -0.93048722
5.9792914 -2.0270104 -0.70371377
7.3052158 -2.4765058 -0.43085092
7.2531881 -2.458868 0
7.194365 -2.4389267 0.4243131
2.7993059 -0.9452095 -0.97421628
3.3155012 -1.1195073 -0.96547592
4.0706367 -1.3744853 -0.95178682
5.2855725 -1.7847188 -0.930058
5.9768395 -2.0181308 -0.7031377
7.2835793 -2.4593627 -0.42939925
7.2191653 -2.4376128 0
7.1997757 -2.4310656 0.42445865
2.7934158 -0.93946207 -0.97177064
3.3168516 -1.1155003 -0.96547592
4.0891557 -1.3752362 -0.95572752
5.2852945 -1.7775133 -0.92963046
5.9988861 -2.0175035 -0.70544404
7.244679 -2.4364798 -0.42693201
7.2122383 -2.4255695 0
7.1977773 -2.4207063 0.42416808
2.7945487 -0.93608606 -0.97177064
3.3205736 -1.1122878 -0.96616739
4.088407 -1.3694879 -0.95516521
5.2947431 -1.7735726 -0.93091476
6.0037699 -2.0110743 -0.70573205
7.2402329 -2.4252505 -0.42649701
7.2003622 -2.4118953 0
7.2056298 -2.4136596 0.42445865
2.7792728 -0.92723548 -0.96606821
3.3052542 -1.1027162 -0.96132159
4.0924668 -1.3653502 -0.95572752
5.2920074 -1.7655473 -0.930058
6.0086465 -2.0046363 -0.70602012
7.2308359 -2.4123895 -0.42577145
7.2032714 -2.4031932 0
7.2085409 -2.4049511 0.42445865
2.7780387 -0.92309499 -0.96525091
3.3113503 -1.1003053 -0.96270728
4.0820599 -1.3563989 -0.95291364
5.294137 -1.7591516 -0.930058
6.0257964 -2.0022695 -0.70775038
7.2337456 -2.4036505 -0.42577145
7.2135816 -2.3969505 0
7.2015781 -2.3929617 0.4238781
2.7955794 -0.92517412 -0.97095644
3.3150568 -1.0970908 -0.96339875
4.0909348 -1.3538613 -0.95460284
5.3060069 -1.7559795 -0.93176985
6.0404863 -1.9990495 -0.70919156
7.2341709 -2.3940895 -0.42562589
7.2065897 -2.3849618 0
7.2069287 -2.3850739 0.42402309
2.8055255 -0.9265855 -0.97421628
3.318099 -1.095874 -0.96409023
4.0941625 -1.3521856 -0.95516521
5.2997613 -1.7503607 -0.93048722
6.0466003 -1.9970205 -0.70976764
7.2380905 -2.3905358 -0.42577145
7.2104979 -2.3814228 0
7.2034287 -2.3790882 0.42373255
2.7995973 -0.92087728 -0.97177064
3.3361051 -1.0973518 -0.96893603
4.0861382 -1.3440619 -0.95291364
5.2994266 -1.7431513 -0.930058
6.0662103 -1.995371 -0.71178591
7.2311001 -2.3785405 -0.4251909
7.2158403 -2.3735211 0
7.2062984 -2.3703823 0.42373255
2.7631276 -0.90518272 -0.95873117
3.3422012 -1.0948836 -0.97032171
4.0877595 -1.3391236 -0.95291364
5.3161707 -1.7415432 -0.93262661
6.0931916 -1.9960902 -0.71466833
7.2364359 -2.3706098 -0.42533591
7.2088099 -2.3615596 0
7.1968126 -2.3576293 0.42300698
2.8065186 -0.91564375 -0.97340208
3.3196669 -1.0830615 -0.96339875
4.0942011 -1.3357581 -0.95403832
5.3060713 -1.7311381 -0.93048722
6.1177268 -1.9959457 -0.71726269
7.239295 -2.3618641 -0.42533591
7.2091866 -2.352041 0
7.1996565 -2.3489318 0.42300698
2.7817636 -0.90384978 -0.96443671
3.311429 -1.0759486 -0.96063012
4.0982356 -1.3315974 -0.95460284
5.3154764 -1.727103 -0.93176985
6.1348982 -1.9933493 -0.71899295
7.2297897 -2.3491011 -0.42461035
7.2021227 -2.3401115 0
7.1975517 -2.3386261 0.42271698
2.7710981 -0.89668399 -0.96036267
3.3270528 -1.0765822 -0.96478438
4.0998416 -1.3266445 -0.95460284
5.3102393 -1.7183104 -0.93048722
6.1717496 -1.9970816 -0.72302854
7.2350926 -2.3411627 -0.42475533
7.2074189 -2.3322079 0
7.2003722 -2.3299277 0.42271698
2.7909994 -0.8993997 -0.96688241
3.3402882 -1.076408 -0.96824455
4.0990162 -1.3209082 -0.95403832
5.3269668 -1.7166153 -0.93305415
6.1766176 -1.9904153 -0.72331655
7.237916 -2.3324189 -0.42475533
7.207757 -2.3227 0
7.2007113 -2.3204296 0.42257199
2.8062 -0.90055668 -0.97177064
3.3224761 -1.0662384 -0.96270728
4.1127129 -1.3198386 -0.9568544
5.321702 -1.7078235 -0.93176985
6.2085714 -1.9924347 -0.72677606
7.2333045 -2.3212888 -0.42431977
7.2031217 -2.3116026 0
7.196085 -2.3093445 0.42213643
2.7908127 -0.89190066 -0.96606821
3.3237622 -1.0622231 -0.96270728
4.1191406 -1.3164138 -0.95797908
5.3286572 -1.7029564 -0.93262661
6.2306843 -1.9912305 -0.72908241
7.2262034 -2.3093829 -0.42373922
7.2059097 -2.3028975 0
7.1988702 -2.3006477 0.42213643
2.7989471 -0.89077431 -0.96851075
3.3322175 -1.0604893 -0.96478438
4.1134624 -1.3091232 -0.95628989
5.3258138 -1.6949581 -0.93176985
6.2503409 -1.9891919 -0.73110068
7.2339454 -2.3022275 -0.4240298
7.2111645 -2.2949772 0
7.2016444 -2.2919476 0.42213643
2.8023844 -0.88814056 -0.96932805
3.3430624 -1.059494 -0.96755308
4.1174703 -1.3049217 -0.9568544
5.3229685 -1.686972 -0.93091476
6.2749281 -1.9886701 -0.73369503
7.236722 -2.2934849 -0.4240298
7.2114539 -2.2854769 0
7.2068834 -2.2840283 0.42228141
2.7916636 -0.88103235 -0.96525091
3.3515108 -1.0577167 -0.96962756
4.1093516 -1.2968868 -0.95460284
5.3298941 -1.6820828 -0.93176985
6.2921209 -1.9857557 -0.73542428
7.2345271 -2.2831736 -0.42373922
7.2166896 -2.277544 0
7.2046866 -2.273756 0.42199141
2.7950909 -0.8784017 -0.96606821
3.3527863 -1.0536664 -0.96962756
4.1133375 -1.2926816 -0.95516521
5.3196802 -1.6717939 -0.92963046
6.3117905 -1.9835804 -0.73744255
7.227365 -2.2713141 -0.42315868
7.2144752 -2.2672634 0
7.1950274 -2.2611516 0.4212653
2.7985067 -0.87576115 -0.96688241
3.3444798 -1.0466173 -0.96685892
4.1051965 -1.284675 -0.95291364
5.3168011 -1.663833 -0.92877531
6.351202 -1.9875371 -0.74176615
7.2400236 -2.2656839 -0.42373922
7.202312 -2.2538824 0
7.1977539 -2.2524559 0.4212653
2.8349514 -0.88340658 -0.97910452
3.3553228 -1.0455608 -0.96962756
4.1140256 -1.2819823 -0.95460284
5.31635 -1.6566416 -0.9283461
6.3832316 -1.9890954 -0.74522567
7.2353206 -2.2546172 -0.42330423
7.2000561 -2.2436283 0
7.1905475 -2.2406652 0.42068475
2.8006148 -0.86899573 -0.96688241
3.3422117 -1.0370464 -0.96547592
4.1179962 -1.2777627 -0.95516521
5.3330631 -1.6547825 -0.93091476
6.4078608 -1.9882789 -0.74782002
7.2330713 -2.2443314 -0.42301366
7.2102208 -2.2372413 0
7.1932492 -2.2319751 0.42068475
2.792217 -0.86269265 -0.96362251
3.3266814 -1.0278225 -0.96063012
4.1195374 -1.2727859 -0.95516521
5.3375087 -1.6490945 -0.9313423
6.4250903 -1.9851173 -0.74955028
7.2382584 -2.2363563 -0.42315868
7.2079411 -2.2269895 0
7.2033916 -2.2255838 0.42112032
2.7738426 -0.85518014 -0.95710278
3.3321011 -1.0272923 -0.96201575
4.1130185 -1.2680503 -0.95347601
5.3385043 -1.6458695 -0.9313423
6.4460621 -1.9873314 -0.75185663
7.2346468 -2.2304533 -0.42286867
7.2068005 -2.2218683 0
7.1923213 -2.2174044 0.42039475
2.8433921 -0.87286156 -0.98073602
3.3525264 -1.0291551 -0.96755308
4.1291265 -1.267555 -0.9568544
5.3478537 -1.6416785 -0.93262661
6.4756503 -1.9878883 -0.75502706
7.2249184 -2.2178979 -0.4221431
7.2094803 -2.2131586 0
7.190032 -2.2071886 0.42010474
2.8194811 -0.85807127 -0.97177064
3.3382008 -1.0159366 -0.96270728
4.1297398 -1.2568309 -0.95628989
5.3370652 -1.6242641 -0.930058
6.5175538 -1.98353 -0.75935167
7.2277641 -2.1996729 -0.42199755
7.2073359 -2.1934559 0
7.1978288 -2.1905625 0.42024973
2.8867471 -0.87473297 -0.99458963
3.3682375 -1.0206327 -0.97101319
4.1288261 -1.2511039 -0.95572752
5.3390241 -1.6178142 -0.930058
6.5570688 -1.9869024 -0.76367527
7.2329106 -2.1916938 -0.4221431
7.2149668 -2.1862564 0
7.1954918 -2.1803553 0.41995919
2.8144546 -0.84911555 -0.96932805
3.3670688 -1.0158381 -0.97032171
4.123035 -1.2439116 -0.95403832
5.3434396 -1.6121055 -0.93048722
6.5644221 -1.9804735 -0.76425236
7.2330589 -2.1822 -0.42199755
7.2076368 -2.1745303 0
7.1931505 -2.1701596 0.41966918
2.8225732 -0.84784526 -0.97177064
3.3538728 -1.0074372 -0.96616739
4.1269751 -1.2396619 -0.95460284
5.3453836 -1.6056478 -0.93048722
6.6188278 -1.9881653 -0.77030623
7.2332044 -2.1727118 -0.42185256
7.2077694 -2.1650717 0
7.1907854 -2.15997 0.41937864
2.8235955 -0.84443408 -0.97177064
3.3623009 -1.0055412 -0.96824455
4.1284699 -1.2346743 -0.95460284
5.337482 -1.5962456 -0.92877531
6.6608739 -1.9920237 -0.77491891
7.2358241 -2.1639702 -0.42185256
7.2028975 -2.1541231 0
7.1933904 -2.1512799 0.41937864
2.8269894 -0.84172904 -0.97258794
3.3322577 -0.99217147 -0.95924711
4.1299591 -1.2296851 -0.95460284
5.3418651 -1.5905271 -0.92920285
6.7054157 -1.9965209 -0.77981961
7.2334576 -2.153744 -0.42156255
7.2054949 -2.1454182 0
7.1885204 -2.1403642 0.41894361
2.8043029 -0.83128673 -0.96443671
3.3599057 -0.99598545 -0.96685892
4.1338754 -1.2254153 -0.95516521
5.346242 -1.5848001 -0.92963046
6.7177424 -1.9913576 -0.78097278
7.2385435 -2.14574 -0.42170754
7.2080822 -2.1367102 0
7.1960793 -2.1331522 0.41923362
2.810051 -0.8292982 -0.96606821
3.3514819 -0.98908454 -0.96409023
4.1304746 -1.2189797 -0.95403832
5.3506126 -1.579065 -0.930058
6.7375016 -1.9883617 -0.78299004
7.2261825 -2.1325805 -0.42083699
7.2031679 -2.1257885 0
7.1911721 -2.1222484 0.41879806
2.8252747 -0.83008116 -0.97095644
3.3430467 -0.98220539 -0.96132159
4.1392603 -1.2161374 -0.95572752
5.3426647 -1.5697042 -0.9283461
6.76472 -1.9875118 -0.78587347
7.231245 -2.1245794 -0.420982
7.2132244 -2.1192849 0
7.1937313 -2.1135576 0.41879806
2.8262756 -0.82666677 -0.97095644
3.3683145 -0.98520952 -0.96824455
4.1431632 -1.2118477 -0.95628989
5.3470283 -1.5639702 -0.92877531
6.7770462 -1.9822409 -0.78702664
7.2213392 -2.1121936 -0.42025644
7.2157803 -2.1105676 0
7.1912971 -2.1034064 0.41850808
2.8557491 -0.83154309 -0.98073602
3.357461 -0.97763264 -0.96478438
4.1421871 -1.2061309 -0.95572752
5.3439803 -1.5560714 -0.92791855
6.8117175 -1.9834504 -0.79077417
7.221384 -2.1027379 -0.42011088
7.2058339 -2.0982099 0
7.1963258 -2.0954413 0.41865307
2.8045309 -0.81295449 -0.96280837
3.3682783 -0.97636896 -0.96755308
4.1387653 -1.1997114 -0.95460284
5.3433933 -1.5488992 -0.92749101
6.8439198 -1.9838595 -0.79423368
7.2314091 -2.0961819 -0.42054644
7.2008624 -2.0873272 0
7.1838827 -2.0824053 0.41778252
2.8031294 -0.80887794 -0.96199101
3.367038 -0.97160077 -0.96685892
4.1402121 -1.1947097 -0.95460284
5.3477249 -1.5431526 -0.92791855
6.8686752 -1.9820418 -0.79682803
7.2314425 -2.0867229 -0.42040142
7.2008815 -2.077904 0
7.1888881 -2.0744431 0.4179275
2.8207359 -0.81026763 -0.96769655
3.3899086 -0.97376478 -0.97308767
4.148972 -1.1918087 -0.95628989
5.344656 -1.5352737 -0.92706347
6.8959198 -1.9808805 -0.79971039
7.2314634 -2.0772667 -0.42025644
7.2033868 -2.0692017 0
7.1838946 -2.0636024 0.41749194
2.8335924 -0.81025565 -0.97177064
3.3597279 -0.96070218 -0.96409023
4.1430869 -1.184701 -0.95460284
5.3539042 -1.5309298 -0.9283461
6.923172 -1.9796563 -0.80259281
7.2289667 -2.0670972 -0.41996589
7.2008724 -2.0590639 0
7.1913843 -2.0563507 0.41778252
2.8340814 -0.80854356 -0.97177064
3.3723772 -0.96211559 -0.96755308
4.1560168 -1.1856824 -0.95741671
5.3474298 -1.5255842 -0.92706347
6.9641623 -1.9868268 -0.8072055
7.2352166 -2.0641565 -0.42025644
7.2046251 -2.055429 0
7.192625 -2.0520055 0.41778252
2.8160355 -0.79971695 -0.96525091
3.3518102 -0.95186985 -0.96132159
4.1525531 -1.1792703 -0.95628989
5.3566704 -1.5212235 -0.9283461
6.9889483 -1.9847691 -0.80979985
7.2302046 -2.0532825 -0.41982087
7.2096047 -2.0474324 0
7.1975965 -2.0440223 0.4179275
2.8360271 -0.80169237 -0.97177064
3.3626146 -0.95054889 -0.96409023
4.1588697 -1.1756356 -0.95741671
5.370863 -1.5182436 -0.93048722
7.0112534 -1.9819515 -0.81210619
7.22018 -2.0410113 -0.41909531
7.2045579 -2.0365951 0
7.1850634 -2.0310843 0.41705695
2.827477 -0.79558718 -0.96851075
3.3734207 -0.94920319 -0.96685892
4.1578441 -1.1699219 -0.9568544
5.3726935 -1.5117527 -0.93048722
7.0509925 -1.9839876 -0.81643081
7.222641 -2.0322857 -0.41909531
7.1994953 -2.0257728 0
7.1950088 -2.0245106 0.41749194
2.8379562 -0.79483646 -0.97177064
3.3745651 -0.94512641 -0.96685892
4.154356 -1.1635252 -0.95572752
5.3844042 -1.5080291 -0.93219906
7.075798 -1.9817438 -0.81902516
7.2250915 -2.0235569 -0.41909531
7.2019377 -2.0170722 0
7.1899505 -2.013715 0.41705695
2.8460593 -0.7933985 -0.97421628
3.3781283 -0.94172382 -0.96755308
4.1533136 -1.1578231 -0.95516521
5.4109454 -1.5084141 -0.9364779
7.1105742 -1.9822211 -0.82277268
7.230032 -2.0155225 -0.41924033
7.2118931 -2.0104659 0
7.1898685 -2.0043261 0.41691139
2.8565423 -0.79260236 -0.97747618
3.3695939 -0.93495828 -0.96478438
4.1596017 -1.1541611 -0.95628989
5.4251299 -1.505306 -0.93861735
7.1353927 -1.9798511 -0.82536703
7.2274494 -2.005394 -0.41894975
7.2042861 -1.9989669 0
7.1872821 -1.9942489 0.41662139
2.8193793 -0.77862298 -0.96443671
3.385226 -0.93489188 -0.96893603
4.1487498 -1.1457529 -0.95347601
5.4393144 -1.5021659 -0.94075674
7.1751795 -1.9815567 -0.82969171
7.2298675 -1.9966596 -0.41894975
7.2041898 -1.9895684 0
7.1972027 -1.9876388 0.41705695
2.8417647 -0.78111076 -0.97177064
3.3936126 -0.93279624 -0.97101319
4.1623788 -1.1441057 -0.95628989
5.4510264 -1.4983139 -0.94246864
7.2199636 -1.9845384 -0.8345924
7.2372904 -1.9893011 -0.41924033
7.2116027 -1.9822403 0
7.2196336 -1.9844478 0.41821751
2.8689327 -0.78485119 -0.98073602
3.3850579 -0.92604703 -0.96824455
4.1588612 -1.1377357 -0.95516521
5.4751153 -1.497822 -0.94631994
7.2448072 -1.9819551 -0.83718675
7.24721 -1.9826124 -0.41967589
7.2265511 -1.9769607 0
7.2621279 -1.9866934 0.42053974
2.8174181 -0.76710051 -0.96280837
3.3813283 -0.92063677 -0.96685892
4.1675901 -1.1347129 -0.9568544
5.4917874 -1.495253 -0.94888854
7.2696552 -1.9793143 -0.83978111
7.2646389 -1.9779485 -0.42054644
7.259058 -1.9764291 0
7.2971144 -1.9867907 0.42242643
2.8374276 -0.76886708 -0.96932805
3.3800192 -0.91589493 -0.96616739
4.1689582 -1.1296763 -0.9568544
5.5010161 -1.4906285 -0.95017123
7.2820272 -1.9732349 -0.84093428
7.2946138 -1.9766455 -0.4221431
7.2966123 -1.977187 0
7.337132 -1.9881667 0.42460364
2.8502841 -0.76865512 -0.97340208
3.3690145 -0.90854466 -0.96270728
4.1703205 -1.1246382 -0.9568544
5.5028133 -1.4839804 -0.95017123
7.306879 -1.970495 -0.84352863
7.3270931 -1.9759462 -0.42388421
7.3316593 -1.9771775 0
7.3721414 -1.9880946 0.42649034
2.8273349 -0.75880271 -0.96525091
3.3773813 -0.9064247 -0.96478438
4.1667633 -1.1182798 -0.95572752
5.5021253 -1.4766655 -0.94974369
7.3292394 -1.967028 -0.84583497
7.359591 -1.9751738 -0.42562589
7.3415861 -1.9703416 0
7.392108 -1.9839008 0.42750645
2.8449671 -0.75985092 -0.97095644
3.3905907 -0.90557933 -0.96824455
4.1582923 -1.1106217 -0.95347601
5.5336671 -1.4779651 -0.95487928
7.3665905 -1.9675132 -0.8498705
7.3895898 -1.9736561 -0.42722258
7.3816695 -1.9715407 0
7.439683 -1.9870352 0.43011868
2.8506653 -0.75768381 -0.97258794
3.3916824 -0.90148181 -0.96824455
4.1620846 -1.1062484 -0.95403832
5.5751438 -1.4818282 -0.96172673
7.4039536 -1.967911 -0.8539061
7.4271221 -1.974069 -0.42925423
7.4091935 -1.9693037 0
7.4671865 -1.9847178 0.43156978
2.8539658 -0.75487018 -0.97340208
3.3879139 -0.89609873 -0.96685892
4.1707897 -1.1031684 -0.95572752
5.5794096 -1.4757465 -0.96215433
7.4338336 -1.9662391 -0.85707754
7.4696946 -1.9757243 -0.43157649
7.4467959 -1.9696677 0
7.4896755 -1.9810092 0.43273091
2.8644366 -0.7539376 -0.97666198
3.4035556 -0.89583713 -0.97101319
4.1745744 -1.0987741 -0.95628989
5.5762286 -1.4676982 -0.96129918
7.4587135 -1.9631799 -0.85967189
7.4997206 -1.9739733 -0.43317315
7.5020204 -1.9745786 0
7.5046253 -1.9752643 0.43345645
2.8481553 -0.74781263 -0.97095644
3.3725538 -0.88549888 -0.96201575
4.1703272 -1.0949625 -0.95516521
5.557251 -1.4591137 -0.95787543
7.459898 -1.9586734 -0.85967189
7.5260396 -1.9760395 -0.43462425
7.5057268 -1.9707062 0
7.508338 -1.9713918 0.43360201
2.8586221 -0.74686974 -0.97421628
3.4051738 -0.88966686 -0.97101319
4.176559 -1.0912061 -0.95628989
5.5142984 -1.4407161 -0.95017123
7.4822793 -1.9548887 -0.86197823
7.5636139 -1.9761389 -0.43665594
7.52069 -1.9649243 0
7.5081935 -1.9616593 0.43345645
2.8523438 -0.74154884 -0.97177064
3.3795352 -0.87860745 -0.96339875
4.1877112 -1.088716 -0.95854139
5.5259733 -1.4366357 -0.95188308
5.5747447 -1.4493153 -0.64202303
7.5659962 -1.9669983 -0.43665594
7.5255752 -1.9564898 0
7.3370457 -1.9074761 0.42344254
2.8436666 -0.7356258 -0.96851075
3.4073138 -0.88143528 -0.97101319
4.1841083 -1.0823836 -0.95741671
5.5252223 -1.4293153 -0.95145553
5.5814953 -1.4438726 -0.64259911
7.568367 -1.9578549 -0.43665594
7.5455728 -1.9519583 0
8.4210167 -2.178426 0.48584944
2.8708849 -0.73896706 -0.97747618
3.3840759 -0.87106264 -0.96409023
4.1854134 -1.0773273 -0.95741671
5.5095501 -1.4181607 -0.948461
5.5606947 -1.4313252 -0.64000475
7.990953 -2.0568748 -0.46089327
7.497519 -1.9298648 0
8.4286709 -2.1695435 0.48613945
2.8526211 -0.73059189 -0.97095644
3.407006 -0.87257671 -0.97032171
4.174407 -1.0691178 -0.95460284
5.5211973 -1.4140476 -0.95017123
5.5649233 -1.4252462 -0.64029276
8.0865669 -2.0710707 -0.46626329
7.4822049 -1.916286 0
8.421217 -2.1567788 0.4855589
2.8630822 -0.72958583 -0.97421628
3.4056196 -0.86783808 -0.96962756
4.1830754 -1.0659535 -0.95628989
5.5477824 -1.4137155 -0.95445174
5.5516076 -1.4146901 -0.63856357
8.0940943 -2.0625801 -0.46655327
7.4265084 -1.8924624 0
8.4137449 -2.1440353 0.48497832
2.8615682 -0.72551894 -0.97340208
3.3993773 -0.86187452 -0.96755308
4.1868305 -1.0615245 -0.9568544
5.5843186 -1.4158423 -0.96044242
5.5558176 -1.4086162 -0.63885158
8.0814734 -2.0489681 -0.46568272
7.4388804 -1.8860459 0
11.264899 -2.8560905 0.64912283
2.8552508 -0.72024661 -0.97095644
3.4028466 -0.85837948 -0.96824455
4.1930327 -1.0577066 -0.95797908
5.6457639 -1.4241629 -0.97071368
5.5499897 -1.4000036 -0.63798642
8.0814161 -2.0385644 -0.46553716
7.3679762 -1.8585968 0
11.275893 -2.8443818 0.64955783
2.863313 -0.71860152 -0.97340208
3.3990099 -0.85304463 -0.96685892
4.2017035 -1.0544955 -0.95966828
5.6798463 -1.4254628 -0.97627681
5.5516772 -1.3932965 -0.63798642
8.0788374 -2.0275342 -0.46524715
7.3954639 -1.8560289 0
11.274286 -2.8294914 0.64926785
2.8497868 -0.71154767 -0.96851075
3.4122155 -0.85197741 -0.97032171
4.1832528 -1.0444936 -0.95516521
5.694015 -1.4217075 -0.97841626
5.5533566 -1.3865873 -0.63798642
8.0762348 -2.016511 -0.46495661
7.3977008 -1.8470916 0
11.280215 -2.8164954 0.64941287
2.8890238 -0.71763724 -0.98155022
3.398629 -0.84422386 -0.96616739
4.1943755 -1.0418884 -0.95741671
5.7106819 -1.4185407 -0.98098487
5.555028 -1.3798761 -0.63798642
8.0585003 -2.0017419 -0.46379605
7.4024506 -1.8387784 0
11.328998 -2.8141377 0.6520251
2.8610957 -0.70703053 -0.97177064
3.4166975 -0.84433025 -0.97101319
4.2030339 -1.0386487 -0.95910591
5.7074027 -1.4104066 -0.98012811
5.5592093 -1.3737853 -0.6382755
8.0482931 -1.9888847 -0.46306995
7.4425573 -1.839196 0
11.350051 -2.804811 0.65304118
2.8907495 -0.71065348 -0.98155022
3.3982253 -0.83540988 -0.96547592
4.194416 -1.0311431 -0.9568544
5.7140932 -1.404736 -0.98098487
5.5683932 -1.3689177 -0.63913959
8.0380764 -1.9760574 -0.46234438
7.3992887 -1.8190197 0
11.416512 -2.8066022 0.65666956
2.8243823 -0.69072002 -0.95873117
3.3821714 -0.82713079 -0.96063012
4.2030563 -1.0278833 -0.95854139
5.7157865 -1.3978307 -0.98098487
5.5599933 -1.3597306 -0.63798642
8.0202656 -1.9614054 -0.46118325
7.4242306 -1.8156413 0
11.520858 -2.8174965 0.66247511
2.856442 -0.69490367 -0.96932805
3.4099851 -0.82956737 -0.96824455
4.201829 -1.0222039 -0.95797908
5.7099857 -1.3891022 -0.97970057
5.5767164 -1.356681 -0.63971668
7.9746656 -1.9400445 -0.45842603
7.4314814 -1.8079008 0
11.562119 -2.8127854 0.66465181
2.8548703 -0.69086868 -0.96851075
3.4109848 -0.82544649 -0.96824455
4.2030606 -1.0171261 -0.95797908
5.6991873 -1.3791834 -0.97756112
5.5833745 -1.3511572 -0.64029276
7.7194123 -1.868071 -0.44362265
7.408361 -1.7927976 0
11.568031 -2.7994235 0.66479677
2.8436906 -0.68452698 -0.96443671
3.4070969 -0.82014894 -0.96685892
4.1968732 -1.0102623 -0.95628989
5.6983466 -1.3716936 -0.9771319
5.6554132 -1.3613588 -0.64836496
7.4867315 -1.8021897 -0.43012536
7.3902898 -1.7789744 0
8.120677 -1.9547917 0.4665466
2.8349009 -0.6787883 -0.96117687
3.4178445 -0.81836832 -0.96962756
4.1956224 -1.0045993 -0.95572752
5.6875196 -1.361819 -0.97499251
5.6947775 -1.3635569 -0.6526885
5.7453423 -1.375664 -0.32998386
7.405086 -1.773073 0
8.1078758 -1.9413487 0.46567604
2.8641586 -0.68396443 -0.97095644
3.4085777 -0.81397241 -0.96685892
4.2036452 -1.0038354 -0.95741671
5.6858468 -1.3577869 -0.97456497
5.5522151 -1.3258755 -0.63625723
5.6829996 -1.357107 -0.32635608
7.3909631 -1.7649707 0
8.0837679 -1.9304134 0.46422437
2.8914371 -0.68678665 -0.97992182
3.4022434 -0.8081156 -0.96478438
4.2023854 -0.99816877 -0.9568544
5.6899786 -1.3515084 -0.97499251
0 -0 -0
5.6770487 -1.3484372 -0.32592052
7.3601761 -1.7482209 0
8.0431194 -1.9104366 0.46175712
2.8658032 -0.67704093 -0.97095644
3.4032173 -0.80400407 -0.96478438
4.2109995 -0.99484122 -0.95854139
5.6816144 -1.3422713 -0.97328061
5.4924755 -1.2975876 -0.6290502
5.658443 -1.3367971 -0.32475939
7.4002771 -1.7483023 0
8.0327797 -1.8977301 0.46103156
2.8666191 -0.67357767 -0.97095644
3.4188352 -0.8033334 -0.96893603
4.2097273 -0.98917162 -0.95797908
5.6707392 -1.3324698 -0.97114122
5.4890084 -1.289768 -0.62847412
5.6372905 -1.3246102 -0.32345328
7.3998532 -1.7387646 0
8.0198946 -1.8844576 0.460161
2.8914938 -0.6757369 -0.97910452
3.4271345 -0.80091512 -0.97101319
4.2282414 -0.98813242 -0.96191978
5.6898456 -1.3297067 -0.97413737
5.4855208 -1.2819563 -0.62789702
5.6211729 -1.3136579 -0.32243717
7.4450278 -1.7398896 0
8.0499916 -1.8812685 0.46175712
2.8706436 -0.66720718 -0.97177064
3.4109919 -0.79279727 -0.96616739
4.2121058 -0.9789955 -0.95797908
5.7314548 -1.3321291 -0.98098487
5.484549 -1.2747421 -0.62760901
5.6025081 -1.3021587 -0.32127607
7.4217706 -1.7249995 0
8.123127 -1.8880116 0.46582103
2.8786743 -0.66540855 -0.97421628
3.4315019 -0.79319519 -0.97170472
4.2157588 -0.97447699 -0.95854139
5.7180486 -1.3217329 -0.97841626
0 -0 -0
5.6015482 -1.2948036 -0.32113105
7.4162502 -1.7142738 0
8.1405869 -1.8817052 0.46669158
2.8337071 -0.65140843 -0.95873117
3.4055605 -0.78286523 -0.96409023
4.2095113 -0.96767622 -0.9568544
5.7321482 -1.3176978 -0.98055565
5.4951782 -1.2632234 -0.62847412
5.5955091 -1.2862873 -0.32069549
7.4005589 -1.7012296 0
8.1327257 -1.8695389 0.46611103
2.8561842 -0.6529429 -0.96606821
3.4236259 -0.78266388 -0.96893603
4.2057185 -0.96145552 -0.95572752
5.7387462 -1.3119159 -0.98141241
5.4916525 -1.2554287 -0.62789702
5.6097317 -1.2824224 -0.32142162
7.3924613 -1.6899663 0
8.1223154 -1.8568158 0.46538547
2.8593788 -0.65003866 -0.96688241
3.4343545 -0.78075111 -0.97170472
4.2093525 -0.95693576 -0.95628989
5.7403274 -1.3049809 -0.98141241
5.4982147 -1.24994 -0.62847412
5.6163402 -1.2767941 -0.3217116
7.3741956 -1.6764174 0
8.1068239 -1.8429698 0.46436992
2.8842652 -0.65203202 -0.97503048
3.41083 -0.77107 -0.96478438
4.2154675 -0.9529705 -0.95741671
5.7544169 -1.3008735 -0.98355186
0 -0 -0
5.5621247 -1.2574029 -0.31851882
7.4142952 -1.6761142 0
8.0786304 -1.8262974 0.46262825
2.8568876 -0.63859004 -0.96525091
3.4175754 -0.76391858 -0.96616739
4.2276769 -0.94499773 -0.95966828
5.7575436 -1.2869635 -0.98355186
0 -0 -0
5.5803576 -1.2473577 -0.31938937
7.387846 -1.6513792 0
8.0576572 -1.8010998 0.46117657
2.8359449 -0.63031185 -0.95791698
3.4356413 -0.76359928 -0.97101319
4.2238503 -0.93878508 -0.95854139
5.7540779 -1.2788907 -0.9826951
0 -0 -0
5.5615683 -1.2361038 -0.31822827
7.3999982 -1.6447098 0
13.787078 -3.0642905 0.78888506
2.8970366 -0.64021754 -0.97829032
3.4243155 -0.75674117 -0.96755308
4.229948 -0.93477833 -0.95966828
5.7581329 -1.2724926 -0.98312432
0 -0 -0
5.5630574 -1.2293829 -0.31822827
7.4070573 -1.6368893 0
13.808524 -3.0515525 0.7899006
2.8591835 -0.62822986 -0.96525091
3.4374766 -0.75529444 -0.97101319
4.2261066 -0.92857498 -0.95854139
5.752142 -1.2638808 -0.98183995
0 -0 -0
5.5823069 -1.226564 -0.31924438
7.3912344 -1.624028 0
13.776675 -3.0270596 0.78786892
2.8623621 -0.62530369 -0.96606821
3.4285829 -0.74899864 -0.96824455
4.2272253 -0.92346787 -0.95854139
5.7561703 -1.2574769 -0.98226756
0 -0 -0
5.5660124 -1.2159356 -0.31822827
7.3982811 -1.616208 0
7.3859673 -1.6135179 0.42228141
2.884851 -0.62656534 -0.97340208
3.4466395 -0.74858111 -0.97308767
4.2283382 -0.9183594 -0.95854139
5.765214 -1.2521559 -0.98355186
0 -0 -0
5.5624037 -1.2081072 -0.31793827
7.4434609 -1.616657 0
7.3980684 -1.6067982 0.42286196
2.8127654 -0.60912967 -0.9489547
3.4323843 -0.74331373 -0.96893603
4.2239304 -0.91473013 -0.95741671
5.75844 -1.2470421 -0.98226756
0 -0 -0
5.5605955 -1.204197 -0.31779328
7.8234015 -1.6942281 0
7.3863425 -1.599579 0.42213643
2.9004748 -0.62445587 -0.97829032
3.44064 -0.74075043 -0.97101319
4.2225509 -0.90909141 -0.9568544
5.7649665 -1.2411648 -0.98312432
0 -0 -0
5.5620465 -1.1974773 -0.31779328
10.509443 -2.262624 0
7.3984308 -1.5928406 0.42271698
2.920562 -0.62508905 -0.98481005
3.4169958 -0.73134094 -0.96409023
4.2360668 -0.90664703 -0.95966828
5.7639446 -1.2336593 -0.9826951
0 -0 -0
5.5584025 -1.1896671 -0.31750271
10.499448 -2.247201 0
7.3978119 -1.5833565 0.42257199
2.9213152 -0.62155962 -0.98481005
3.4129741 -0.72616845 -0.96270728
4.229701 -0.89994103 -0.95797908
5.7654309 -1.2266937 -0.9826951
0 -0 -0
5.5496697 -1.180787 -0.31692216
10.484335 -2.230721 0
7.3488884 -1.5636013 0.41966918
2.9003036 -0.61342686 -0.97747618
3.4383891 -0.7272343 -0.96962756
4.2382455 -0.89640749 -0.95966828
5.7593818 -1.2181344 -0.98141241
0 -0 -0
5.5561819 -1.1751568 -0.3172127
10.451381 -2.2105129 0
7.3990669 -1.564935 0.42242643
2.8816926 -0.6058538 -0.97095644
3.4368124 -0.72256351 -0.96893603
4.2318635 -0.88971692 -0.95797908
5.7633591 -1.2117021 -0.98183995
0 -0 -0
5.542336 -1.1652336 -0.31634158
10.446402 -2.1962759 0
7.4162145 -1.5592023 0.42329752
2.9598417 -0.61855048 -0.99703532
3.4352295 -0.71789753 -0.96824455
4.2428842 -0.88668197 -0.96023059
5.7648191 -1.2047373 -0.98183995
0 -0 -0
5.5590057 -1.1617262 -0.3172127
10.484707 -2.1911039 0
7.4206343 -1.5507711 0.42344254
2.885566 -0.59939033 -0.97177064
3.4360945 -0.71374619 -0.96824455
4.2364869 -0.88000381 -0.95854139
5.7612486 -1.1967276 -0.98098487
0 -0 -0
5.5553122 -1.1539505 -0.31692216
0 -0 0
7.4072423 -1.5386338 0.42257199
2.8475592 -0.58790725 -0.95873117
3.4271266 -0.70756477 -0.96547592
4.2325749 -0.87385768 -0.95741671
5.772737 -1.1918396 -0.9826951
0 -0 -0
5.5516176 -1.1461873 -0.31663215
0 -0 0
7.3963652 -1.527054 0.42184585
2.8845873 -0.59191895 -0.97095644
3.4304342 -0.70392704 -0.96616739
4.2336278 -0.86874282 -0.95741671
5.7666359 -1.1833169 -0.98141241
0 -0 -0
5.5580845 -1.1405221 -0.31692216
10.441593 -2.1426208 0
7.3422108 -1.5066258 0.41865307
2.9216292 -0.595842 -0.98318172
3.4607804 -0.70579743 -0.97447336
4.2421455 -0.86515039 -0.95910591
5.7680616 -1.1763483 -0.98141241
0 -0 -0
5.5670991 -1.1353636 -0.31735772
10.426332 -2.1263638 0
7.3669376 -1.5024257 0.41995919
2.9150774 -0.59083796 -0.98073602
3.4714658 -0.70360863 -0.97724199
4.2307296 -0.85749882 -0.95628989
5.7669654 -1.1688684 -0.98098487
0 -0 -0
5.5531821 -1.125538 -0.3164866
6.6719947 -1.3523028 0
7.3687477 -1.4935231 0.41995919
2.8939853 -0.58292329 -0.97340208
3.437887 -0.69247913 -0.96755308
4.2367492 -0.85339057 -0.95741671
5.7759156 -1.1634185 -0.98226756
0 -0 -0
5.5418038 -1.1162623 -0.31576103
6.6634188 -1.3421844 0
7.4062138 -1.4918026 0.42199141
2.8874145 -0.57797027 -0.97095644
3.4337964 -0.68733889 -0.96616739
4.2427554 -0.84926718 -0.95854139
5.7722878 -1.1554319 -0.98141241
0 -0 -0
5.5941067 -1.1197655 -0.31866384
6.6344228 -1.3280044 0
7.4105563 -1.4833621 0.42213643
2.9293184 -0.58267766 -0.98481005
3.4420085 -0.68465805 -0.96824455
4.2412887 -0.84364474 -0.95797908
5.7711644 -1.147956 -0.98098487
0 -0 -0
5.5852618 -1.1109776 -0.31808326
6.6207027 -1.3169397 0
7.3741131 -1.4668022 0.41995919
2.9130452 -0.57578248 -0.97910452
3.4280617 -0.67757887 -0.96409023
4.2447953 -0.83901161 -0.95854139
5.7700219 -1.1404827 -0.98055565
5.6634202 -1.1194122 -0.64346427
5.5789504 -1.1027161 -0.3176477
6.6222892 -1.3089389 0
7.3631368 -1.4553722 0.41923362
2.9040375 -0.57035691 -0.97584468
3.4658062 -0.68068904 -0.97447336
4.2507973 -0.83486229 -0.95966828
5.7663627 -1.1325214 -0.97970057
5.7789664 -1.1349968 -0.65643603
5.5802784 -1.0959742 -0.3176477
6.6238661 -1.3009362 0
7.4082332 -1.4549869 0.42170087
2.9095809 -0.56779522 -0.97747618
3.4296892 -0.66929263 -0.96409023
4.2542944 -0.83021164 -0.96023059
5.7652097 -1.1250618 -0.97927302
5.8133426 -1.1344548 -0.66018462
5.589252 -1.0907242 -0.31808326
6.6203294 -1.2919356 0
7.3411341 -1.4325982 0.41778252
2.854455 -0.55345798 -0.95873117
3.440347 -0.66705817 -0.96685892
4.2478085 -0.82361913 -0.95854139
5.7690825 -1.118583 -0.97970057
5.8274026 -1.1298909 -0.6616258
5.6160707 -1.0889151 -0.31953439
6.6014462 -1.2799722 0
7.42448 -1.4395524 0.42242643
2.9154541 -0.56345791 -0.97910452
3.4604547 -0.66878796 -0.97239619
4.2383265 -0.81912404 -0.95628989
5.7672396 -1.1146108 -0.97927302
5.8382425 -1.1283332 -0.66277897
5.6447935 -1.0909462 -0.32113105
6.6175447 -1.2789458 0
7.3794308 -1.4261924 0.4198142
2.8991489 -0.55667359 -0.97340208
3.4489439 -0.66224128 -0.96893603
4.2443085 -0.81496143 -0.95741671
5.7761378 -1.1090922 -0.98055565
5.8878555 -1.1305435 -0.66825575
5.651216 -1.0851057 -0.32142162
6.6114249 -1.2694781 0
7.368392 -1.4148253 0.41908863
2.8658252 -0.5466854 -0.96199101
3.4448178 -0.65713412 -0.96755308
4.2452903 -0.80983245 -0.95741671
5.7774734 -1.1021121 -0.98055565
5.9349446 -1.1321512 -0.67344445
5.6780424 -1.0831445 -0.32287273
6.6129541 -1.2614884 0
7.3547769 -1.4029987 0.41821751
2.8373523 -0.53770161 -0.9522146
3.4579313 -0.6553064 -0.97101319
4.2537575 -0.806122 -0.95910591
5.7737617 -1.0941752 -0.97970057
6.0735312 -1.150984 -0.68901169
5.7150846 -1.0830555 -0.32490441
6.6247015 -1.2554353 0
7.3539162 -1.3936275 0.41807252
2.9060009 -0.54707444 -0.97503048
3.4463956 -0.64880741 -0.96755308
4.267211 -0.80333155 -0.96191978
5.7902112 -1.0900466 -0.98226756
6.0418758 -1.1374242 -0.68526417
5.7342663 -1.0795146 -0.32592052
6.6287689 -1.2479109 0
7.3887887 -1.3909898 0.41995919
2.877506 -0.53811073 -0.96525091
3.43484 -0.64233553 -0.96409023
4.2656741 -0.79770643 -0.96135533
5.7915239 -1.0830495 -0.98226756
5.9212198 -1.1073034 -0.67142719
5.7227983 -1.0701973 -0.32519495
6.6430602 -1.2422918 0
7.3802476 -1.3801502 0.41937864
2.8514307 -0.52966946 -0.95628864
3.4676766 -0.6441406 -0.97308767
4.2516503 -0.78976822 -0.95797908
5.7953501 -1.0765191 -0.9826951
5.8945785 -1.0949514 -0.66825575
5.7189727 -1.0623317 -0.32490441
6.6394339 -1.2333126 0
7.3640337 -1.3679111 0.41836306
2.9371319 -0.54191834 -0.98481005
3.4462507 -0.63585377 -0.96685892
4.2576041 -0.78555334 -0.95910591
5.7916021 -1.0685852 -0.98183995
5.9111633 -1.0906448 -0.66998601
5.6844826 -1.048821 -0.32287273
6.6485996 -1.2267063 0
7.3988981 -1.3651408 0.42024973
2.8843045 -0.52856845 -0.96688241
3.4494913 -0.63214272 -0.96755308
4.2460465 -0.77811688 -0.95628989
5.7802668 -1.0592731 -0.97970057
5.973526 -1.0946892 -0.67690396
5.6678519 -1.0386724 -0.32185662
6.6372805 -1.2163267 0
7.3545313 -1.3477678 0.41763696
2.8873703 -0.52552509 -0.96769655
3.4625912 -0.63022 -0.97101319
4.2619872 -0.7757166 -0.95966828
5.7865887 -1.0532066 -0.98055565
5.8934245 -1.0726515 -0.66767967
5.7074523 -1.0388031 -0.32403386
6.6438608 -1.2092371 0
7.3689442 -1.3412082 0.41836306
2.8904333 -0.52247512 -0.96851075
3.4510088 -0.62380481 -0.96755308
4.257916 -0.76966149 -0.95854139
5.7903905 -1.0466717 -0.98098487
5.8412685 -1.0558685 -0.6616258
0 -0 -0
6.6427588 -1.2007459 0
7.3501029 -1.3286057 0.41720197
2.8618698 -0.51374173 -0.95873117
3.469038 -0.6227361 -0.97239619
4.2638493 -0.76541477 -0.95966828
5.7891169 -1.0392196 -0.98055565
0 -0 -0
0 -0 -0
6.6365275 -1.1913404 0
7.3593683 -1.3210995 0.41763696
2.8916874 -0.51548851 -0.96851075
3.4475617 -0.61458182 -0.96616739
4.2597632 -0.75936949 -0.95854139
5.7878437 -1.0317737 -0.98012811
5.8387055 -1.0408406 -0.66104871
5.7725654 -1.0290501 -0.32751665
6.632833 -1.1824063 0
7.3839898 -1.3163117 0.41894361
2.9166505 -0.51630318 -0.97666198
3.4384205 -0.60866648 -0.96339875
4.2606778 -0.75422186 -0.95854139
5.7966719 -1.0261223 -0.98141241
5.8552451 -1.0364909 -0.66277897
5.7584577 -1.0193576 -0.32664609
6.6470675 -1.1766587 0
7.3344016 -1.2983299 0.41604084
2.8831875 -0.50678742 -0.96525091
3.4638669 -0.60885537 -0.97032171
4.2665958 -0.74995369 -0.95966828
5.7953815 -1.0186734 -0.98098487
5.9201765 -1.040609 -0.66998601
5.759685 -1.012399 -0.32664609
6.6382318 -1.166824 0
7.3769126 -1.2966644 0.41836306
2.9227545 -0.51010233 -0.97829032
3.4497669 -0.6020807 -0.96616739
4.267499 -0.74479783 -0.95966828
5.7890191 -1.0103456 -0.97970057
7.4195566 -1.29492 -0.8394931
5.7864966 -1.0099053 -0.32809719
6.6498919 -1.160592 0
7.3733492 -1.2868555 0.41807252
2.9671998 -0.51416558 -0.99295813
3.4579101 -0.59919733 -0.96824455
4.2633839 -0.73877233 -0.95854139
5.7826452 -1.0020347 -0.97841626
7.4032741 -1.2828622 -0.83747476
7.3903737 -1.2806268 -0.41894975
6.6512895 -1.1525559 0
11.647812 -2.018369 0.66029787
2.9239788 -0.50303769 -0.97829032
3.4660513 -0.59629518 -0.97032171
4.2592702 -0.73275954 -0.95741671
5.7737322 -0.99330574 -0.97670436
7.4124684 -1.2752318 -0.83833992
7.4380155 -1.279627 -0.42156255
6.6783304 -1.1489317 0
11.660486 -2.0060556 0.66087842
2.9462044 -0.50502896 -0.98562425
3.45157 -0.59165704 -0.96616739
4.2747335 -0.73276109 -0.96079296
5.7793965 -0.99068564 -0.97756112
7.4157844 -1.2711899 -0.83862793
11.190592 -1.9182554 -0.63418061
7.3972082 -1.2680057 0
11.674499 -2.0012052 0.66160399
2.9395099 -0.5002259 -0.98318172
3.4967954 -0.595061 -0.978625
4.2731133 -0.72716951 -0.96023059
5.7780514 -0.98326975 -0.9771319
7.4173145 -1.2622285 -0.83862793
11.231329 -1.9112716 -0.63635784
7.3653841 -1.2533914 0
0 -0 0
2.8864918 -0.48761564 -0.96525091
3.4480469 -0.5824793 -0.96478438
4.2714858 -0.72158295 -0.95966828
5.7792354 -0.97628736 -0.9771319
7.406085 -1.2511115 -0.83718675
11.251557 -1.9007279 -0.63737339
7.3848491 -1.247524 0
0 -0 0
2.8285866 -0.47431907 -0.94569486
3.4413233 -0.57706749 -0.96270728
4.2773614 -0.71726078 -0.96079296
5.7728229 -0.96803117 -0.97584927
7.41014 -1.2425891 -0.83747476
11.264096 -1.8888501 -0.63795394
7.3786583 -1.2373101 0
0 -0 0
2.9461753 -0.49037802 -0.98481005
3.4568615 -0.57537955 -0.96685892
4.2681994 -0.71042317 -0.95854139
5.75879 -0.95852548 -0.97328061
7.4167337 -1.234483 -0.83805084
0 -0 -0
7.3801479 -1.2283934 0
0 -0 0
2.9004402 -0.47916463 -0.96932805
3.4649823 -0.5724293 -0.96893603
4.2765779 -0.70650822 -0.96023059
5.7371516 -0.94780099 -0.96942931
7.4131212 -1.224678 -0.83747476
0 -0 -0
7.3482494 -1.213961 0
11.668427 -1.9276721 0.66058791
2.8668659 -0.47006011 -0.95791698
3.448339 -0.56540024 -0.96409023
4.2724185 -0.70051885 -0.95910591
5.7154961 -0.93713027 -0.96557802
7.4196954 -1.2165561 -0.83805084
11.414465 -1.8715508 -0.64608175
7.3497109 -1.2050811 0
11.663063 -1.9123117 0.66015291
2.9259801 -0.47612289 -0.97747618
3.4465458 -0.56083065 -0.96339875
4.2732615 -0.69535595 -0.95910591
5.6963544 -0.92692512 -0.96215433
7.4058475 -1.2050983 -0.83632159
11.468002 -1.8661023 -0.64898396
7.3562942 -1.1970347 0
7.400456 -1.2042209 0.41879806
0 -0 -0
3.4794157 -0.56186461 -0.97239619
4.2791109 -0.69100136 -0.96023059
5.679728 -0.91717649 -0.95915812
7.4098492 -1.1965607 -0.83660966
11.524117 -1.8609428 -0.65203178
7.3731456 -1.1906338 0
7.4070411 -1.1961073 0.41908863
2.9515224 -0.47296047 -0.98562425
3.4652338 -0.55527908 -0.96824455
4.2674007 -0.68382061 -0.95741671
5.6833739 -0.91072035 -0.95958734
7.4087381 -1.1871977 -0.83632159
11.559709 -1.8523612 -0.65391845
7.3874345 -1.183784 0
7.3956547 -1.1851012 0.41836306
2.988708 -0.47521597 -0.99784952
3.4708526 -0.55187881 -0.96962756
4.2832751 -0.68105704 -0.96079296
5.7427731 -0.91312277 -0.96942931
7.4101672 -1.1782448 -0.83632159
11.605561 -1.8453285 -0.65638566
7.386282 -1.1744469 0
7.3945079 -1.1757549 0.41821751
2.8965113 -0.45696864 -0.96688241
3.4591289 -0.54573011 -0.96616739
4.2790799 -0.6750899 -0.95966828
5.7311959 -0.90418327 -0.96728992
7.4192524 -1.1704998 -0.83718675
11.648849 -1.837783 -0.65870792
7.3928423 -1.1663332 0
7.3882303 -1.1656055 0.41778252
2.9092684 -0.45537916 -0.97095644
3.4870524 -0.54581803 -0.97378182
4.2899342 -0.67149067 -0.96191978
5.6840944 -0.88971454 -0.95915812
7.3976655 -1.1579348 -0.8345924
10.855277 -1.6991445 -0.6137172
7.3942461 -1.1573995 0
7.3921981 -1.157079 0.4179275
2.9366844 -0.45603588 -0.97992182
3.4629142 -0.53775376 -0.96685892
4.2756724 -0.66396648 -0.95854139
5.6318979 -0.87457389 -0.95017123
7.4041662 -1.1497883 -0.83516842
10.818805 -1.6800454 -0.61153996
7.3493538 -1.1412766 0
7.3935909 -1.148146 0.4179275
2.9152505 -0.44910064 -0.97258794
3.5131516 -0.54120862 -0.98070216
4.284008 -0.65996069 -0.96023059
5.6050491 -0.86346996 -0.94546479
7.4106674 -1.1416293 -0.83574557
11.776131 -1.8141384 -0.66552907
7.3532972 -1.1327913 0
7.4026794 -1.1403987 0.41836306
0 -0 -0
3.4642036 -0.52938366 -0.96685892
4.2697368 -0.65248156 -0.9568544
5.5959382 -0.85514557 -0.94375294
7.4069233 -1.131892 -0.83516842
11.762907 -1.7975535 -0.66465849
7.3417997 -1.1219401 0
7.3937778 -1.1298832 0.41778252
2.9138765 -0.44168285 -0.97177064
3.4970839 -0.53008491 -0.97585636
4.2780514 -0.64846325 -0.95854139
5.591886 -0.84761316 -0.94289619
7.4031758 -1.1221669 -0.8345924
7.402956 -1.1221335 -0.41822422
7.3688765 -1.1169678 0
7.3951373 -1.1209484 0.41778252
2.9217429 -0.43926439 -0.97421628
3.4977219 -0.52585894 -0.97585636
4.2888823 -0.6448046 -0.96079296
5.5979881 -0.84161985 -0.94375294
7.3891749 -1.1109128 -0.83286208
7.4197288 -1.1155063 -0.41909531
7.3496318 -1.1049677 0
7.3990536 -1.1123979 0.4179275
2.9687116 -0.44265828 -0.98969829
3.4685884 -0.51719385 -0.96755308
4.2896581 -0.63962185 -0.96079296
5.6167765 -0.83750564 -0.94674915
7.3828349 -1.1008389 -0.83199698
7.4056458 -1.1042402 -0.41822422
6.5684924 -0.97941399 0
7.4055276 -1.1042225 0.41821751
2.8760808 -0.42707023 -0.95873117
3.4986694 -0.51951861 -0.97585636
4.2799907 -0.63553733 -0.95854139
5.6121979 -0.83335727 -0.94589239
7.4065318 -1.0997986 -0.8345924
7.4191608 -1.1016737 -0.41894975
6.5639391 -0.97468162 0
7.4036255 -1.0993669 0.41807252
2.8599918 -0.41761982 -0.95302874
3.4850247 -0.50888795 -0.97170472
4.2915707 -0.62666094 -0.96079296
5.5761008 -0.81422973 -0.93947411
7.3938069 -1.0796536 -0.83286208
10.854155 -1.5849382 -0.61270106
6.5405188 -0.9550553 0
7.3934073 -1.0795952 0.41734695
2.9143038 -0.42195472 -0.97095644
3.5228825 -0.51006931 -0.98208779
4.2873006 -0.62074745 -0.95966828
5.5872431 -0.80896288 -0.94118595
7.3976636 -1.0710891 -0.83315015
10.804629 -1.5643752 -0.60979825
6.546824 -0.94789821 0
7.3895679 -1.069917 0.41705695
2.9735281 -0.42686206 -0.99051559
3.4514828 -0.49547437 -0.96201575
4.2905602 -0.61592734 -0.96023059
5.5882163 -0.80221123 -0.94118595
7.3938365 -1.0614153 -0.83257407
11.827577 -1.6978967 -0.66741574
6.5402336 -0.93887717 0
7.3857064 -1.0602481 0.41676641
2.932446 -0.41734886 -0.97666198
3.5141699 -0.50014043 -0.97931916
4.2963276 -0.61145794 -0.96135533
5.584094 -0.79473424 -0.94032919
7.3951139 -1.0524806 -0.83257407
11.811619 -1.6810423 -0.66640013
6.5465217 -0.93170798 0
7.3921318 -1.0520562 0.41705695
2.9916754 -0.42209104 -0.99621803
3.4526699 -0.48713204 -0.96201575
4.2895222 -0.60520232 -0.95966828
5.5647149 -0.78511733 -0.93690544
7.4040661 -1.0446286 -0.83343923
11.813642 -1.666769 -0.66640013
6.5089855 -0.91834301 0
7.3908172 -1.0427594 0.41691139
2.9089634 -0.40683702 -0.96851075
3.4607027 -0.48400128 -0.96409023
4.3003163 -0.60142654 -0.96191978
5.55549 -0.77697062 -0.9351936
7.4053226 -1.0356815 -0.83343923
11.79763 -1.6499736 -0.66538405
6.5307097 -0.91336125 0
7.38693 -1.0331092 0.41662139
2.8727369 -0.3982321 -0.95628864
3.4637771 -0.48016483 -0.96478438
4.3085828 -0.59727573 -0.96360683
5.5462537 -0.76884741 -0.93348175
7.3886323 -1.0242465 -0.8314209
11.794473 -1.6350044 -0.66509402
6.5343838 -0.90582651 0
7.3984685 -1.02561 0.41720197
2.9564638 -0.40619835 -0.98399585
3.5165462 -0.48314992 -0.97931916
4.2992325 -0.59068578 -0.96135533
5.5420976 -0.76144713 -0.93262661
7.4001141 -1.0167261 -0.83257407
11.765549 -1.6165076 -0.66335237
6.5303221 -0.89722252 0
7.3868332 -1.0149015 0.4164764
2.9202151 -0.39762348 -0.97177064
3.4848139 -0.47450063 -0.97032171
4.2974277 -0.5851481 -0.96079296
5.5430136 -0.75475001 -0.93262661
7.4013371 -1.0077839 -0.83257407
7.4010439 -1.0077438 -0.41720864
6.5442924 -0.89108658 0
7.3854723 -1.0056236 0.41633084
2.901098 -0.39145067 -0.96525091
3.45555 -0.46626389 -0.96201575
4.2981319 -0.57995504 -0.96079296
5.546463 -0.74839473 -0.93305415
7.3769221 -0.99538207 -0.82969171
7.3945284 -0.99775773 -0.41677308
6.470572 -0.87308657 0
7.384109 -0.99635184 0.41618583
2.9456701 -0.39384139 -0.97992182
3.5058341 -0.46873629 -0.97585636
4.2862391 -0.57307786 -0.95797908
5.5371857 -0.74033159 -0.9313423
7.3883739 -0.98783886 -0.83084488
7.3931556 -0.98847812 -0.41662809
7.3692546 -0.98528254 0
7.3775787 -0.98639548 0.41575029
2.9534874 -0.39125463 -0.98236436
3.4889958 -0.46219453 -0.97101319
4.2919712 -0.56856638 -0.95910591
5.55334 -0.73566252 -0.9339093
7.3921237 -0.97925007 -0.83113289
7.3943443 -0.97954422 -0.41662809
7.3265829 -0.9705677 0
7.3761916 -0.97713947 0.41560528
2.9490616 -0.387043 -0.98073602
3.5019865 -0.4596104 -0.97447336
4.2951722 -0.56371027 -0.95966828
5.5618629 -0.7299543 -0.9351936
7.3881679 -0.96964359 -0.8305558
7.4006705 -0.97128451 -0.4169181
7.3277502 -0.96171427 0
7.3722191 -0.96755046 0.41531527
2.9397233 -0.38220471 -0.97747618
3.492588 -0.45408478 -0.97170472
4.3008847 -0.55917454 -0.96079296
5.5576549 -0.72257209 -0.93433851
7.3995938 -0.96204966 -0.83170897
7.3863831 -0.9603321 -0.41604754
7.3727779 -0.95856321 0
7.3785315 -0.95931125 0.41560528
2.9328265 -0.37770495 -0.97503048
3.4831812 -0.44858256 -0.96893603
4.3015571 -0.55397737 -0.96079296
5.5534267 -0.71519977 -0.93348175
7.3956251 -0.95244783 -0.83113289
7.4029961 -0.95339715 -0.4169181
7.3145709 -0.94200927 0
7.4003024 -0.95305026 0.41676641
2.9578028 -0.37728891 -0.98318172
3.4638119 -0.44183397 -0.96339875
4.2971873 -0.54813695 -0.95966828
5.5670166 -0.71011281 -0.93562114
7.389071 -0.94252884 -0.83026773
7.3525915 -0.93787563 -0.41401529
7.3776617 -0.94107354 0
7.409184 -0.94509441 0.41720197
2.9212489 -0.37083274 -0.97095644
3.4815021 -0.44195309 -0.96824455
4.300036 -0.54586041 -0.96023059
5.5725427 -0.70739651 -0.9364779
7.369112 -0.93545878 -0.82796139
7.4433808 -0.94488674 -0.41909531
7.3524065 -0.93333811 0
7.3427367 -0.93211061 0.4134286
2.9584818 -0.37192741 -0.98318172
3.4820335 -0.43774605 -0.96824455
4.3032107 -0.54098088 -0.96079296
5.5606608 -0.69906199 -0.93433851
7.3779383 -0.92752212 -0.82882655
7.3826413 -0.9281134 -0.41561198
7.3483691 -0.92380488 0
7.3361206 -0.92226505 0.41299304
2.9123259 -0.36255082 -0.96769655
3.5024765 -0.43601775 -0.97378182
4.2937756 -0.53452533 -0.95854139
5.571691 -0.69361097 -0.93605036
7.3816175 -0.91892588 -0.82911456
7.3940716 -0.92047626 -0.41619253
7.3778811 -0.91846073 0
7.3346534 -0.91307938 0.41284806
2.9421983 -0.36265996 -0.97747618
3.468137 -0.427488 -0.96409023
4.2969475 -0.52964848 -0.95910591
5.572525 -0.6868782 -0.93605036
7.3878617 -0.91063941 -0.82969171
7.3874393 -0.91058731 -0.41575697
7.3815756 -0.9098646 0
7.3254356 -0.90294468 0.41226751
3.003967 -0.3665894 -0.99784952
3.4835975 -0.42512113 -0.96824455
4.2950549 -0.52414739 -0.95854139
5.5835438 -0.68138826 -0.9377622
7.3838167 -0.90108472 -0.82911456
7.3885341 -0.90166038 -0.41575697
11.781854 -1.4377995 0
7.3574734 -0.89786988 0.41400915
0 -0 -0
3.4716578 -0.4194074 -0.96478438
4.3108253 -0.52078635 -0.96191978
5.5869088 -0.67494869 -0.9381898
7.3771944 -0.89123124 -0.82824945
7.3792992 -0.89148551 -0.41517642
11.783582 -1.4235624 0
7.3327508 -0.88586205 0.41255748
2.9410417 -0.3516992 -0.97666198
3.4871032 -0.41699901 -0.96893603
4.3190131 -0.5164814 -0.96360683
5.5877204 -0.66819751 -0.9381898
7.385973 -0.88323832 -0.82911456
7.3829584 -0.88287789 -0.41532198
11.774967 -1.4080883 0
7.3493013 -0.87885302 0.4134286
2.926733 -0.34640169 -0.97177064
3.5274668 -0.41750321 -0.98001063
4.3044991 -0.509471 -0.96023059
5.598721 -0.66265225 -0.93990165
7.3870344 -0.87431318 -0.82911456
7.4072413 -0.87670481 -0.41662809
11.750811 -1.3908 0
7.3477697 -0.86966586 0.41328305
2.9664266 -0.34746569 -0.98481005
3.4905901 -0.40886241 -0.96962756
4.3051114 -0.50426948 -0.96023059
5.591866 -0.65499061 -0.93861735
7.385519 -0.86508614 -0.82882655
7.4031286 -0.86714876 -0.41633752
11.755065 -1.3769029 0
7.3384919 -0.85957772 0.4127025
2.9275615 -0.3393279 -0.97177064
3.4910817 -0.4046444 -0.96962756
4.3057175 -0.49906725 -0.96023059
5.5824533 -0.64705122 -0.93690544
7.3762822 -0.85497034 -0.82767338
7.3551364 -0.85251939 -0.4135803
11.748972 -1.3618002 0
7.3343682 -0.85011214 0.41241249
2.9328852 -0.33635402 -0.97340208
3.5189872 -0.40357035 -0.97724199
4.3113613 -0.4944427 -0.96135533
5.583231 -0.6403054 -0.93690544
7.3644638 -0.84458375 -0.82623219
7.3897185 -0.84748 -0.41546696
11.727341 -1.3449345 0
7.3612003 -0.84420943 0.4138636
0 -0 -0
3.4845781 -0.39535898 -0.96755308
4.3119555 -0.48923293 -0.96135533
5.5814524 -0.63326955 -0.9364779
7.3808942 -0.83743358 -0.82796139
