# .PCD v0.7 - Point Cloud Data file format
VERSION 0.7
FIELDS x y z
SIZE 4 4 4
TYPE F F F
COUNT 1 1 1
WIDTH 1668
HEIGHT 1
VIEWPOINT 0 0 0 1 0 0 0
POINTS 1668
DATA ascii
6.6606507 4.556047 0
8.7491703 5.9846454 0.59208596
6.648622 4.5596213 -0.89858943
6.6592097 4.5668821 -0.45102432
6.6594377 4.5670385 0
8.7483559 5.9996171 0.59252095
6.6537623 4.5749774 -0.90003061
6.6558256 4.576396 -0.45116934
6.6603417 4.5795012 0
8.751812 6.017549 0.59324706
6.658875 4.5903525 -0.90147185
6.6652689 4.5947599 -0.45218545
6.6633739 4.5934539 0
8.7488089 6.0310659 0.59353709
6.6533237 4.5983949 -0.90147185
6.6597118 4.6028104 -0.45218545
6.6642437 4.6059422 0
8.7500658 6.0475426 0.59411764
6.6541424 4.6108518 -0.90233696
6.6690898 4.6212091 -0.453201
6.6543913 4.6110239 0
8.7427521 6.0581107 0.59411764
6.6613154 4.6277456 -0.90406728
6.6613693 4.6277828 -0.45305601
6.6466794 4.6175776 0
8.7482338 6.0775685 0.59498876
6.6599598 4.6387448 -0.9046433
6.6621714 4.6402855 -0.45349157
6.6517711 4.6330414 0
8.7387457 6.0866451 0.59484321
6.6522312 4.6453094 -0.90435529
6.6629448 4.6527905 -0.45392656
6.6483078 4.6425695 0
8.7462997 6.107615 0.59585929
6.6572056 4.6607594 -0.90579647
6.6637058 4.6653104 -0.45436212
6.6512208 4.65657 0
8.7474279 6.1241398 0.59643984
6.6494541 4.6673155 -0.90550846
6.6580639 4.6733589 -0.45436212
6.6562381 4.6720777 0
8.7549114 6.1451559 0.59745598
6.648036 4.6783209 -0.90608448
6.6630354 4.6888762 -0.45508769
6.650588 4.6801167 0
8.7496023 6.1572242 0.597601
6.6571741 4.6967893 -0.90810281
6.6594939 4.6984258 -0.45523325
6.6491771 4.6911469 0
8.7570124 6.1782732 0.59861654
6.6451573 4.7003474 -0.90723765
6.6559315 4.7079682 -0.45537823
6.6520028 4.7051892 0
8.7580271 6.1948524 0.59919709
6.6542439 4.7188478 -0.90925598
6.6565986 4.7205181 -0.4558138
6.6590543 4.722259 0
8.7526608 6.2069373 0.59934264
6.6548634 4.7313824 -0.91012114
6.6572371 4.7330704 -0.45624879
6.649097 4.727283 0
8.7493858 6.2205172 0.59963268
6.6435752 4.7294021 -0.90896797
6.6607289 4.7416139 -0.45668435
6.6504841 4.7343206 0
8.7498636 6.2288189 0.59992319
6.6589046 4.7524486 -0.91185033
6.663455 4.7556963 -0.4572649
6.6447587 4.742353 0
8.7507915 6.2454247 0.60050374
6.6468449 4.7559748 -0.91098517
6.6640453 4.7682819 -0.45770046
6.6517186 4.7594619 0
8.7453499 6.2575045 0.60064876
6.6515999 4.7715392 -0.91242641
6.6540523 4.7732987 -0.45740992
6.6523089 4.772048 0
8.7483377 6.2756386 0.60137433
6.6458292 4.779573 -0.91242641
6.6630487 4.7919569 -0.45842603
6.6528707 4.784637 0
8.7534018 6.2953043 0.60224491
6.6526413 4.7966785 -0.91415668
6.655148 4.7984862 -0.45828104
6.6576457 4.8002868 0
8.7500076 6.308919 0.60253543
6.6405501 4.8001666 -0.91329151
6.6577606 4.8126073 -0.45886102
6.6560545 4.8113742 0
8.7571135 6.3301382 0.60355103
6.645215 4.815774 -0.91473269
6.6582546 4.8252239 -0.45929658
6.6565599 4.8239961 0
8.7536707 6.3437676 0.60384154
6.6519504 4.8329248 -0.91646302
6.6650367 4.8424325 -0.46016771
6.6549335 4.8350921 0
8.7459984 6.3543401 0.60384154
6.6481943 4.8424802 -0.91675103
6.6570745 4.848948 -0.46002215
6.6427813 4.8385372 0
8.7488136 6.372551 0.60456711
6.6506934 4.8566113 -0.9179042
6.6617088 4.864655 -0.46074826
6.6411295 4.849627 0
8.7495012 6.3892474 0.60514766
6.645195 4.8772616 -0.91876936
6.6562119 4.8853474 -0.46118325
6.641983 4.8749042 0
8.7487011 6.4211364 0.6061638
6.6497116 4.8929505 -0.92021054
6.6586757 4.8995466 -0.46176383
6.6423702 4.8875489 0
8.751399 6.4394016 0.60688937
6.6479535 4.9040499 -0.92078656
6.6548395 4.9091296 -0.46190882
6.6469293 4.9032946 0
8.7540646 6.4576821 0.60761493
6.6399455 4.9105425 -0.92049855
6.6530857 4.9202604 -0.46219936
6.6451888 4.9144201 0
8.7546129 6.4744353 0.60819548
6.6443934 4.9262629 -0.92193973
6.6471357 4.9282956 -0.46219936
6.6455197 4.9270973 0
8.7467833 6.4850087 0.60819548
6.6384363 4.9342875 -0.92193973
6.6536846 4.9456215 -0.46306995
6.650003 4.9428849 0
8.747283 6.5017734 0.60877603
6.6511331 4.956213 -0.92453408
6.6560383 4.959868 -0.46365049
6.6356783 4.9446964 0
8.7456732 6.5169973 0.60921156
6.6430697 4.9626994 -0.92424607
6.6521282 4.9694667 -0.46379605
6.6401215 4.9604969 0
8.7461185 6.5337806 0.60979211
6.6412129 4.9738264 -0.92482322
6.6523519 4.9821692 -0.46423104
6.6424551 4.9747567 0
8.7527704 6.555243 0.61080772
6.6476045 4.9911623 -0.92655241
6.6546388 4.9964442 -0.46481159
6.6405973 4.9859014 0
8.7448435 6.565814 0.61080772
6.6457057 5.002305 -0.92712957
6.6485968 5.0044813 -0.46481159
6.647048 5.0033154 0
8.7493639 6.5857549 0.61167884
6.6468091 5.0094295 -0.92770559
6.6517997 5.0131907 -0.46524715
6.6481767 5.0104599 0
8.7474566 6.5926018 0.6118238
6.6490064 5.023694 -0.92885876
6.6498795 5.024354 -0.46553716
6.6545801 5.0279055 0
8.7539988 6.6141334 0.61283994
6.636744 5.0270381 -0.9279936
6.6396651 5.0292506 -0.46524715
6.6485 5.0359426 0
8.7563553 6.6325493 0.6135655
6.6430283 5.0444417 -0.92972392
6.6480713 5.0482712 -0.46626329
6.648622 5.0486898 0
8.7504015 6.6446943 0.61371046
6.6369281 5.052465 -0.92972392
6.6543679 5.0657411 -0.46713385
6.6508002 5.063025 0
8.7506371 6.6615586 0.61429107
6.6390429 5.0667572 -0.93087709
6.6627035 5.0848145 -0.46814996
6.6384768 5.0663257 0
8.7487803 6.6768579 0.6147266
6.6472893 5.0857725 -0.93289429
6.6462302 5.0849624 -0.46742383
6.642683 5.0822487 0
8.755146 6.698472 0.61574215
6.6431975 5.0953794 -0.93318343
6.6483283 5.0993147 -0.46800441
6.6468606 5.0981889 0
8.7470455 6.7090464 0.61574215
6.6390843 5.1049781 -0.93347144
6.6524673 5.1152682 -0.46873051
6.6468868 5.1109776 0
8.7554121 6.7322817 0.61690331
6.6370044 5.1161513 -0.93404746
6.6483374 5.1248879 -0.4688755
6.6427655 5.1205926 0
8.7555027 6.7492018 0.61748385
6.6308174 5.124167 -0.93404746
6.6544728 5.1424475 -0.46974608
6.6406879 5.1317949 0
8.7535114 6.764544 0.61791939
6.6266637 5.1337581 -0.93433553
6.660583 5.1600356 -0.47061718
6.6427116 5.1461906 0
8.7494364 6.778296 0.61820936
6.6327162 5.1512833 -0.93606579
6.6399755 5.1569214 -0.46960106
6.6385503 5.1558142 0
8.7556067 6.8000212 0.6192255
6.6183238 5.1529379 -0.93491262
6.635788 5.1665354 -0.46974608
6.6446323 5.1734214 0
8.7514887 6.8137913 0.61951607
6.6222854 5.1688871 -0.9363538
6.6418347 5.1841459 -0.47061718
6.6424837 5.1846523 0
8.7452955 6.8259583 0.61966109
6.6323309 5.1896362 -0.93866014
6.6437516 5.1985722 -0.47119775
6.6382618 5.1942768 0
8.7493162 6.8461246 0.62053162
6.6321626 5.2024369 -0.93952531
6.6558638 5.2210283 -0.47250387
6.6381178 5.207108 0
8.7492151 6.8631067 0.62111217
6.6380668 5.2200365 -0.9412545
6.6413798 5.2226419 -0.47192329
6.6338725 5.2167387 0
8.7409163 6.8736734 0.62111217
6.629725 5.2264538 -0.94096649
6.6432271 5.2370977 -0.47250387
6.6316481 5.2279696 0
8.7468901 6.8954926 0.62212831
6.6335497 5.2424779 -0.94240767
6.6409674 5.2483401 -0.47279385
6.6396213 5.2472763 0
8.7507801 6.91572 0.62299883
6.6353192 5.2569141 -0.94356084
6.6427679 5.262815 -0.47337443
6.6455112 5.2649889 0
8.7505646 6.9327431 0.62357938
6.6321421 5.260922 -0.94356084
6.6416211 5.2684407 -0.47351941
6.6443663 5.2706184 0
8.7504501 6.9412613 0.62386996
6.631856 5.2737627 -0.944426
6.6393218 5.2796998 -0.47380999
6.6420708 5.2818856 0
8.7583189 6.9647617 0.62503052
6.6335688 5.2882214 -0.94557917
6.6410646 5.2941971 -0.47439054
6.63975 5.293149 0
8.7539644 6.9785819 0.62532109
6.6271739 5.2962327 -0.94557917
6.6549578 5.3184366 -0.47584164
6.6333494 5.301168 0
8.7556734 6.9972634 0.62604666
6.6328773 5.3139367 -0.94730836
6.6485267 5.3264742 -0.47584164
6.6411586 5.3205709 0
8.7512712 7.0110903 0.62633723
6.6365328 5.3300438 -0.94874954
6.6400614 5.3328781 -0.47569665
6.6367517 5.3302197 0
8.7529211 7.0297937 0.62706274
6.6361332 5.3429265 -0.9496147
6.6498046 5.3539338 -0.47685775
6.6303062 5.3382354 0
8.750495 7.0452547 0.62749833
6.6256509 5.3476954 -0.94903868
6.6453509 5.3635955 -0.47700277
6.6339831 5.3544202 0
8.7520838 7.0639815 0.6282239
6.637279 5.370338 -0.95163304
6.636847 5.3699884 -0.47685775
6.6376224 5.3706155 0
8.7475777 7.0778174 0.62851387
6.6247573 5.3734641 -0.95076787
6.6323695 5.3796391 -0.47700277
6.6452708 5.3901033 0
8.751132 7.098206 0.62938499
6.6282916 5.3896222 -0.95220906
6.6399794 5.3991256 -0.47801888
6.6407781 5.3997755 0
8.7526264 7.1169701 0.63011056
6.6257877 5.4008989 -0.95278621
6.6394868 5.4120655 -0.47845387
6.6382794 5.4110808 0
8.7540894 7.1357479 0.63083613
6.6252599 5.413806 -0.95365024
6.6329427 5.420084 -0.47845387
6.6397972 5.4256849 0
8.7494812 7.1496058 0.63112611
6.6207204 5.4234514 -0.95393938
6.6404614 5.4396224 -0.47946998
6.6332364 5.4337039 0
8.7448606 7.1634688 0.63141668
6.6281486 5.4429326 -0.95595658
6.6379042 5.4509435 -0.47976056
6.6286755 5.4433651 0
8.7442303 7.1806264 0.63199723
6.6315498 5.4591551 -0.95739776
6.6413417 5.467216 -0.48048612
6.6321378 5.4596391 0
8.7495928 7.2027488 0.63301337
6.6269493 5.4688153 -0.9576869
6.6427474 5.4818525 -0.48106667
6.6295543 5.4709649 0
8.7509022 7.2215834 0.63373888
6.6243181 5.4801126 -0.95826292
6.6321106 5.4865589 -0.4807761
6.6349664 5.4889216 0
8.7521782 7.2404318 0.63446444
6.6137137 5.4848137 -0.9576869
6.6334767 5.5012035 -0.48135668
6.63234 5.5002608 0
8.7554207 7.260951 0.63533503
6.6190114 5.5027189 -0.95941609
6.6328211 5.5141997 -0.48179224
6.625689 5.5082703 0
8.7506409 7.2748504 0.63562554
6.6103725 5.5090585 -0.95912808
6.632144 5.5272026 -0.48222777
6.6290226 5.5246015 0
8.7518225 7.2937346 0.63635111
6.6235566 5.5336218 -0.96201044
6.6314368 5.5402055 -0.4826628
6.6323266 5.5409484 0
8.7549639 7.3142967 0.63722169
6.6122766 5.5309844 -0.96085727
6.6360612 5.5508795 -0.48324335
6.6329741 5.5482974 0
8.7525425 7.3212571 0.63736725
6.6194639 5.5506048 -0.9628756
6.6373134 5.5655718 -0.4838239
6.622273 5.5529604 0
8.753643 7.3401737 0.63809282
6.6285915 5.5719132 -0.96518195
6.6325707 5.5752583 -0.48396891
6.6354842 5.5777073 0
8.7467546 7.3524156 0.63823777
6.6218543 5.5799184 -0.96518195
6.6337776 5.5899658 -0.48454946
6.6307278 5.5873961 0
8.747798 7.3713493 0.63896334
6.6249847 5.5962596 -0.96662313
6.6409154 5.6097164 -0.48556557
6.6299305 5.6004372 0
8.7448416 7.3869462 0.63939893
6.6221619 5.6076002 -0.96719915
6.6281815 5.6126976 -0.48513001
6.6231585 5.6084442 0
8.7497921 7.4092631 0.64041501
6.6173587 5.6172762 -0.96748829
6.6332841 5.630795 -0.48600113
6.6263032 5.6248689 0
8.7408333 7.4198298 0.64041501
6.6164703 5.6302919 -0.96835232
6.6284528 5.6404881 -0.48614612
6.6234617 5.6362414 0
8.7457085 7.4421692 0.64143062
6.6175337 5.6449966 -0.96950549
6.6255827 5.6518626 -0.48643613
6.6225886 5.6493087 0
8.7446175 7.4594765 0.64201117
4.2745242 3.6642082 -0.93861735
6.6235137 5.6778088 -0.97238898
6.6375494 5.6898408 -0.48832279
6.6187944 5.6737638 0
8.744319 7.4958057 0.64331728
4.2759366 3.6743913 -0.93990165
6.6225276 5.6908603 -0.97325301
6.6306696 5.6978569 -0.48832279
6.6277246 5.6953263 0
8.7451067 7.514832 0.64404285
4.2714934 3.6795552 -0.93990165
6.6117311 5.6954851 -0.97267699
6.6355963 5.7160435 -0.48919392
6.6267557 5.7084279 0
8.7438955 7.532177 0.6446234
0 0 -0
6.6068001 5.7051592 -0.972965
6.6385159 5.7325468 -0.48991948
6.6119742 5.7096272 0
8.7485561 7.5546265 0.64563948
0 0 -0
6.6155462 5.7266803 -0.97527134
6.6315846 5.7405639 -0.48991948
6.6149068 5.7261271 0
8.7453175 7.5702953 0.64607507
0 0 -0
6.6125326 5.7380633 -0.9758485
6.6266041 5.7502742 -0.49006447
6.6256719 5.7494655 0
8.742053 7.5859675 0.6465106
4.2400999 3.6883619 -0.93690544
6.6192489 5.7579269 -0.9778657
6.6235757 5.7616911 -0.49035504
6.6226435 5.7608795 0
8.7465982 7.608458 0.64752614
4.2337074 3.691797 -0.9364779
6.6161895 5.7693238 -0.97844285
6.6224866 5.7748151 -0.49079061
6.6215639 5.7740107 0
8.7432766 7.624146 0.64796174
4.231174 3.6985979 -0.93690544
6.6092134 5.7773142 -0.97844285
6.6194129 5.7862296 -0.49108058
6.6263428 5.7922873 0
8.7438374 7.6432538 0.6486873
4.2209082 3.6986306 -0.93562114
6.6158395 5.7972231 -0.98046005
6.6202335 5.8010736 -0.49166116
6.6154203 5.7968559 0
8.7424126 7.6606631 0.64926785
4.2202969 3.7071195 -0.9364779
6.6107788 5.8069248 -0.98074919
6.6151695 5.810782 -0.49180615
6.6084113 5.8048453 0
8.7390089 7.6763673 0.64970338
4.2177391 3.7139111 -0.93690544
6.6095753 5.8200312 -0.98161322
4.5371785 3.9951918 -0.33767611
6.615067 5.8248668 0
8.7375278 7.69379 0.65028393
4.2151713 3.7207019 -0.93733305
6.6122317 5.8365703 -0.9830544
4.5109172 3.9817543 -0.33607945
6.6177773 5.841465 0
8.7399092 7.7146559 0.65115452
4.2106729 3.7257924 -0.93733305
6.6109877 5.849699 -0.98391956
4.492486 3.9751537 -0.33506387
6.6107144 5.8494573 0
8.7383652 7.7320986 0.65173507
4.2103481 3.7300427 -0.9377622
6.621006 5.8656998 -0.98593789
4.4842467 3.9726961 -0.33462834
6.6188636 5.8638015 0
8.7511959 7.7528825 0.65304118
4.2058377 3.7351274 -0.9377622
6.6332493 5.8908672 -0.98882025
4.4600182 3.9608605 -0.33317721
6.6117735 5.8717947 0
8.7476521 7.7686291 0.65347677
4.1974831 3.7367895 -0.93690544
6.6763515 5.9435902 -0.9963153
4.4494047 3.9610615 -0.33274165
6.6182823 5.8918943 0
8.747961 7.7878304 0.65420228
4.1853037 3.7350216 -0.9351936
4.4307384 3.9540508 -0.66191387
4.4368606 3.9595144 -0.3321611
6.6150379 5.9033494 0
8.7443619 7.803587 0.65463787
4.1807876 3.7400761 -0.9351936
4.4548674 3.9852641 -0.66623741
4.4223919 3.9562118 -0.33143553
6.6234174 5.9252195 0
8.7407312 7.8193398 0.65507287
4.1705303 3.7399819 -0.9339093
4.4327202 3.9751043 -0.66364306
4.4098701 3.9546134 -0.33085498
6.6085029 5.9262681 0
8.7390146 7.8368344 0.65565342
4.1583791 3.7381601 -0.93219906
4.4202194 3.9735408 -0.66248989
4.3934903 3.9495127 -0.32998386
6.6032782 5.9359937 0
8.7353382 7.8526015 0.65608901
4.1633925 3.7517729 -0.93433851
4.4000511 3.9650338 -0.66018462
4.3925791 3.9583008 -0.33027443
6.5980325 5.9457088 0
8.7354927 7.8718462 0.65681452
4.1664758 3.7636838 -0.93605036
4.3856544 3.9616735 -0.65874237
4.3742938 3.9514112 -0.32925832
6.6062932 5.9676332 0
8.7394743 7.8945899 0.65783066
4.1752396 3.780772 -0.93904489
4.3731956 3.9600255 -0.6575892
4.3637433 3.9514663 -0.3288233
6.6241541 5.9983187 0
8.7357092 7.9103785 0.65826619
4.1706681 3.7858143 -0.93904489
4.3626676 3.9600966 -0.65672511
4.34934 3.9479988 -0.32809719
6.6207519 6.0098133 0
8.7376852 7.9314036 0.65913677
4.1490045 3.7753036 -0.9351936
4.3521385 3.9601412 -0.65586001
4.334959 3.944509 -0.32737163
6.6077161 6.0125594 0
8.7415504 7.9541988 0.66015291
4.1387482 3.7751224 -0.9339093
4.3339715 3.9531939 -0.65384167
4.3244281 3.944489 -0.32693607
6.6042881 6.0240431 0
8.7357683 7.9682541 0.66044289
4.115242 3.7628014 -0.92963046
4.3234711 3.9531968 -0.65297759
4.3100724 3.9409459 -0.32621053
6.5854845 6.0214853 0
8.7376442 7.9893279 0.66131401
4.1125832 3.7695041 -0.930058
4.3091521 3.9496746 -0.65153533
4.2995663 3.9408889 -0.3257755
4.5619321 4.1813674 0
8.7413874 8.0121651 0.66232955
4.109921 3.7762122 -0.93048722
4.2948551 3.9461305 -0.65009415
4.2890592 3.9408052 -0.32533997
4.5281358 4.1604695 0
8.7297878 8.0209646 0.66218454
0 0 -0
4.2615519 3.9250381 -0.64577055
4.2823849 3.9442263 -0.32519495
4.5097036 4.1535945 0
8.7296448 8.040307 0.6629101
0 0 -0
0 0 -0
4.2757015 3.9476299 -0.3250494
4.4855638 4.1413898 0
8.7332888 8.0631905 0.66392624
0 0 -0
0 0 -0
4.261395 3.9439702 -0.32432383
4.478641 4.1450338 0
8.7349787 8.0843229 0.66479677
0 0 -0
0 0 -0
4.2452006 3.9385161 -0.32345328
4.4602795 4.1380572 0
8.7309198 8.1001749 0.66523236
0 0 -0
0 0 -0
4.2328277 3.9365644 -0.32287273
6.5152578 6.0592432 0
8.7306385 8.119565 0.66595793
0 0 -0
0 0 -0
4.2166605 3.9310412 -0.32200161
6.5250621 6.0830812 0
8.7303219 8.1389666 0.6666835
4.0684519 3.8020704 -0.9283461
0 0 -0
4.210011 3.934361 -0.32185662
6.5120082 6.0856357 0
8.7318764 8.1601572 0.66755456
4.0657334 3.8087435 -0.92877531
0 0 -0
4.2033596 3.9376702 -0.3217116
6.5141449 6.1023941 0
8.7277002 8.176034 0.66799015
4.0559421 3.8041744 -0.92706347
0 0 -0
4.1933985 3.9330986 -0.32113105
6.5199461 6.1152287 0
8.732234 8.1901913 0.66871572
4.0569482 3.8143427 -0.9283461
0 0 -0
4.1791797 3.9292648 -0.32040548
6.5068626 6.1177526 0
8.7261143 8.2042933 0.66900569
4.0579424 3.8245256 -0.92963046
0 0 -0
4.1706433 3.9307439 -0.32011494
6.5089407 6.1345401 0
8.7294331 8.2273083 0.67002183
4.0458541 3.8223743 -0.92791855
4.1249313 3.8970835 -0.63250971
4.1583352 3.9286425 -0.31953439
6.5053034 6.1459718 0
8.7308149 8.2485533 0.67089236
4.059875 3.8449154 -0.93219906
4.1089482 3.8913903 -0.63077939
4.1517005 3.931879 -0.31938937
6.5224352 6.1770897 0
8.7359343 8.2733908 0.67205352
4.0626659 3.8568811 -0.9339093
4.0911179 3.8838918 -0.62876219
4.1394086 3.9297366 -0.31880882
6.5017529 6.1724219 0
8.7315865 8.2893085 0.67248905
4.0505714 3.8547153 -0.93219906
4.105155 3.9066596 -0.63164455
4.1271281 3.9275701 -0.31822827
6.5169129 6.2018027 0
8.7159157 8.2944775 0.67205352
4.0459108 3.8596067 -0.93219906
4.104178 3.9151912 -0.63222164
4.1129804 3.923588 -0.31750271
6.5150657 6.2150636 0
8.6701698 8.2709303 0.66929626
4.0486584 3.8715825 -0.9339093
4.0863571 3.9076326 -0.63020337
4.1082363 3.9285548 -0.31750271
6.5169539 6.2319226 0
9.3850346 8.9745617 0.725317
4.0439773 3.8764718 -0.9339093
4.0816326 3.9125671 -0.63020337
4.097857 3.9281199 -0.31706715
6.5507479 6.2794094 0
9.3816862 8.9930878 0.72589761
4.0392904 3.8813553 -0.9339093
4.0769019 3.9174962 -0.63020337
4.0874925 3.9276726 -0.31663215
6.580687 6.3233843 0
9.3764362 9.00982 0.72633314
4.0345974 3.8862331 -0.9339093
4.0591235 3.9098573 -0.62818503
4.0752578 3.9253979 -0.3160516
6.5974069 6.3548002 0
9.374898 9.0301542 0.72705871
4.0298986 3.8911054 -0.9339093
4.0748658 3.9345233 -0.63135654
4.0742464 3.9339256 -0.31634158
6.6028309 6.375423 0
9.3751926 9.0523014 0.72792923
4.0215087 3.8924046 -0.93305415
4.0589538 3.9286478 -0.62962621
4.0601563 3.9298115 -0.31561604
6.6026025 6.3906364 0
9.3735809 9.0726576 0.7286548
4.0260129 3.9061971 -0.9351936
0 0 -0
4.0479455 3.9274769 -0.31503546
6.6060791 6.4094796 0
9.3700714 9.0912142 0.72923535
4.0341735 3.9235892 -0.9381898
0 0 -0
4.0450578 3.9341753 -0.31518048
6.6039286 6.4229026 0
9.3758421 9.1188335 0.73054147
4.0349455 3.9338386 -0.93947411
4.0483937 3.94695 -0.63020337
4.0328588 3.9318042 -0.31459993
6.5998864 6.4345074 0
9.3704004 9.1355991 0.73097706
4.0301895 3.9387112 -0.93947411
4.0140252 3.9229138 -0.62559068
4.0225353 3.931231 -0.31416491
6.601418 6.4515777 0
9.3705091 9.157815 0.73184818
4.0272593 3.9453726 -0.93990165
4.0148268 3.933193 -0.62645584
4.0103579 3.9288149 -0.31358436
6.6029115 6.4686542 0
9.3724241 9.1818542 0.73286372
4.0298152 3.9574306 -0.9416135
3.9989953 3.9271641 -0.62472552
4.0018964 3.9300129 -0.31329381
6.6062279 6.487565 0
9.3687391 9.2004547 0.73344427
4.0232029 3.9604979 -0.94118595
3.9887228 3.9265549 -0.62386149
3.9915948 3.9293823 -0.31285879
6.5965314 6.4937186 0
9.3705797 9.2245302 0.73446041
4.0275488 3.97437 -0.9433254
3.9821291 3.9295497 -0.62357235
3.9905396 3.9378493 -0.3131488
6.5960898 6.5089965 0
9.3668251 9.2431469 0.73504096
4.0263901 3.9828408 -0.94418049
3.9681857 3.9252656 -0.62213117
3.9839327 3.9408424 -0.31300381
6.5956211 6.5242825 0
9.3667297 9.265419 0.73591149
4.0294571 3.9906933 -0.94546479
3.9639773 3.925844 -0.62184316
3.9741664 3.9359348 -0.31242326
6.5935254 6.5300956 0
9.3722115 9.2820501 0.73678261
4.0300989 4.0009871 -0.94674915
3.9573972 3.9288101 -0.62155515
3.9657159 3.9370689 -0.31213269
6.5930181 6.545392 0
9.3702078 9.3025198 0.73750818
4.067667 4.0578489 -0.95787543
3.9369009 3.9273984 -0.61982483
3.9451561 3.9356337 -0.31126213
6.5937614 6.5778461 0
9.3734503 9.3508253 0.73953986
4.0682011 4.0682011 -0.95915812
3.9284983 3.9284983 -0.61924881
3.9128351 3.9128351 -0.30908489
6.5858088 6.5858088 0
9.3731728 9.3731728 0.74041098
4.0777864 4.0876527 -0.96258187
3.9182665 3.927747 -0.61838365
3.906271 3.9157224 -0.3089399
6.5870347 6.602972 0
9.3728476 9.3955259 0.74128151
4.0692263 4.0889416 -0.96172673
3.913518 3.9324787 -0.61838365
3.9015367 3.9204395 -0.3089399
4.0623116 4.0819931 0
9.37432 9.4197388 0.74229765
4.0588551 4.0883884 -0.96044242
3.9051223 3.933537 -0.61780763
3.8967969 3.9251509 -0.3089399
4.0537128 4.0832086 0
9.3684187 9.4365854 0.74273264
4.0466866 4.0859938 -0.95873058
3.8949046 3.9327376 -0.61694247
3.886564 3.9243159 -0.30850434
4.0469394 4.0862494 0
9.3661499 9.4571276 0.74345821
4.0381417 4.0872316 -0.95787543
3.8901498 3.9374409 -0.61694247
3.8818195 3.9290092 -0.30850434
6.5989423 6.6791635 0
9.3601961 9.4739847 0.74389374
4.0277925 4.0866213 -0.95659113
3.8817616 3.938458 -0.61636639
3.8734245 3.9299991 -0.30821434
6.5981746 6.6945462 0
9.3560381 9.492691 0.74447429
4.0210533 4.0896564 -0.95616359
3.8733697 3.9394531 -0.61578929
3.8668532 3.9328256 -0.30806935
6.5919037 6.7043676 0
9.3409214 9.5002871 0.74418432
4.0089188 4.0871816 -0.95445174
3.8704162 3.9459753 -0.6160773
3.8584557 3.9337811 -0.30777878
6.5929079 6.7216158 0
9.3203325 9.502286 0.74345821
4.0021834 4.0901895 -0.95402414
3.8584096 3.9432542 -0.61492413
3.8555222 3.9403031 -0.30792433
6.5902433 6.7351594 0
9.2961283 9.5005455 0.74244267
3.9864762 4.0839968 -0.95145553
3.8500323 3.9442153 -0.61434811
3.848938 3.943094 -0.30777878
6.5875559 6.7487063 0
9.2810078 9.5080481 0.74215209
3.9815385 4.0888109 -0.95145553
3.843461 3.9470131 -0.6140601
3.8387375 3.9421623 -0.30734378
6.5830245 6.7603869 0
9.2550106 9.5043631 0.740991
3.9640796 4.0807347 -0.948461
3.8404896 3.9535077 -0.61434811
3.8393979 3.952384 -0.30777878
6.5821042 6.7758031 0
9.2272263 9.4987659 0.73968488
3.959146 4.0855217 -0.948461
3.830308 3.9525714 -0.61348295
3.8273861 3.9495561 -0.30719823
3.9425061 4.0683508 0
9.2067022 9.5005798 0.73895931
3.9524171 4.0884514 -0.94803178
3.8273253 3.9590545 -0.61377096
3.8244224 3.9560516 -0.30734378
3.9339662 4.0693655 0
9.1843834 9.5004921 0.73808873
3.9403462 4.0858331 -0.94631994
3.8225389 3.963676 -0.61377096
3.8214417 3.9625382 -0.30748877
3.9236248 4.0684943 0
9.1638803 9.5022326 0.73736316
3.9300721 4.0850468 -0.94503725
3.8141637 3.9645677 -0.61319494
3.8166509 3.9671528 -0.30748877
6.5943851 6.8544216 0
9.1361732 9.4964399 0.73605651
3.9233506 4.087935 -0.94460803
3.8111598 3.9710379 -0.61348295
3.8046575 3.9642627 -0.30690822
6.5933065 6.8698955 0
9.1174946 9.4999733 0.73547596
3.9059865 4.0796986 -0.9416135
3.79563 3.9644339 -0.61175376
3.7980695 3.9669819 -0.30676323
6.5795994 6.8722157 0
9.0934353 9.4978504 0.73446041
3.9017484 4.080204 -0.94118595
3.7932341 3.9667263 -0.61175376
3.7974663 3.9711521 -0.30690822
6.5880389 6.889358 0
9.0787182 9.4939537 0.73373485
3.8861806 4.0737672 -0.93861735
3.7884383 3.9713068 -0.61175376
3.7980475 3.98138 -0.30734378
6.5815043 6.8991942 0
9.0564747 9.4936323 0.73286372
3.8812554 4.0784597 -0.93861735
3.7854183 3.9777534 -0.61204177
3.7932341 3.9859662 -0.30734378
6.5803394 6.9146829 0
9.0360422 9.4951582 0.73213816
3.8763247 4.0831466 -0.93861735
3.777051 3.9785764 -0.61146569
3.7848334 3.986774 -0.30705324
6.5899014 6.9415069 0
9.0102501 9.4909945 0.73097706
3.8643274 4.0803719 -0.93690544
3.7757945 3.9868896 -0.61204177
3.7817986 3.9932292 -0.30719823
6.5832968 6.9513521 0
8.988059 9.4905577 0.73010647
3.8629234 4.0887737 -0.9377622
3.7674253 3.9876924 -0.61146569
3.775188 3.995909 -0.30705324
6.5820417 6.9668689 0
8.9605265 9.4844141 0.72880036
3.8509374 4.0859661 -0.93605036
3.7679212 3.9978831 -0.61232978
3.7757051 4.0061421 -0.30748877
6.5789685 6.9804931 0
8.9419308 9.4876699 0.72821981
3.8424773 4.0868721 -0.9351936
3.7595477 3.9986677 -0.61175376
3.7672987 4.0069118 -0.30719823
6.5651865 6.9827547 0
8.9162207 9.4833231 0.72705871
3.8375363 4.0915117 -0.9351936
3.7529457 4.0013227 -0.61146569
3.7624543 4.0114608 -0.30719823
6.5656443 7.0001717 0
8.9011974 9.4902954 0.72676814
3.8290854 4.0924006 -0.93433851
3.7481081 4.0058546 -0.61146569
3.7593849 4.0179067 -0.30734378
6.5838542 7.0366068 0
8.8755207 9.4858646 0.72560704
3.8171313 4.0895176 -0.93262661
3.739732 4.0065951 -0.6108886
3.7492065 4.016746 -0.30690822
6.5913277 7.0616779 0
8.8622808 9.4946842 0.72546202
3.8086851 4.0903659 -0.93176985
3.7384164 4.0149007 -0.61146569
3.7496643 4.0269799 -0.30734378
0 0 0
3.9921579 4.2874079 0.32721993
3.8019943 4.0930858 -0.9313423
3.7317972 4.0175142 -0.61117661
3.7483292 4.0353117 -0.30763379
6.5724669 7.0756736 0
3.9869745 4.2922287 0.32721993
3.8057683 4.10709 -0.93348175
3.7304595 4.0258183 -0.61175376
3.7434504 4.0398383 -0.30763379
6.5674534 7.0874314 0
3.9641273 4.277987 0.32576883
3.7868626 4.0966048 -0.930058
3.7291005 4.0341182 -0.61232978
3.7403286 4.0462646 -0.30777878
6.5694809 7.1068249 0
3.9571931 4.2808676 0.32562384
3.7906163 4.1106191 -0.93219906
3.7277334 4.0424275 -0.61290693
3.7319171 4.0469642 -0.30748877
6.5697088 7.1243215 0
3.9484913 4.2818217 0.32533327
3.780431 4.1095266 -0.93091476
3.7175913 4.0412164 -0.61204177
3.7305393 4.0552917 -0.30777878
6.5681434 7.1399159 0
3.9380352 4.2808509 0.32489771
3.7737286 4.1122017 -0.93048722
3.7144525 4.0476093 -0.61232978
3.7256367 4.0597963 -0.30777878
6.5683146 7.1574397 0
3.924077 4.2760353 0.32417214
3.7687571 4.1167588 -0.93048722
3.7008283 4.0425572 -0.6108886
3.7224882 4.0662174 -0.30792433
6.5702024 7.1768851 0
3.9189074 4.2807736 0.32417214
3.762044 4.1194086 -0.930058
3.7029178 4.0546656 -0.61204177
3.7175722 4.0707121 -0.30792433
6.566792 7.1905856 0
3.9172399 4.2893467 0.32446271
3.7501483 4.1163607 -0.9283461
3.6945353 4.0553169 -0.61146569
3.7161474 4.0790391 -0.30821434
6.5616012 7.2023592 0
3.9015512 4.2825484 0.32359159
3.7469034 4.1227942 -0.92877531
3.6965909 4.0674343 -0.61261886
3.7147079 4.0873685 -0.30850434
6.568645 7.2276139 0
3.8946278 4.2853384 0.3234466
3.7426815 4.1231508 -0.9283461
3.6923895 4.0677462 -0.61232978
3.7139893 4.0915418 -0.3086499
6.5677791 7.2354388 0
3.8850522 4.2799945 0.32286602
3.7445891 4.1352816 -0.930058
3.6926816 4.0779581 -0.61319494
3.7107852 4.0979505 -0.30879489
6.5642738 7.2491584 0
3.8746438 4.2789054 0.32243049
3.7395897 4.1398029 -0.930058
3.6877515 4.082417 -0.61319494
3.7058308 4.1024313 -0.30879489
6.5607386 7.2628732 0
3.8625035 4.2758713 0.32184991
3.732868 4.1424136 -0.92963046
3.6810863 4.0849504 -0.61290693
3.7043469 4.1107631 -0.30908489
6.5624142 7.2823987 0
3.8538585 4.2766781 0.32155994
3.7261455 4.1450138 -0.92920285
3.6813302 4.0951605 -0.61377096
3.7045901 4.1210351 -0.30952045
6.5623078 7.2999983 0
3.852159 4.285193 0.32184991
3.7262776 4.1552482 -0.93048722
3.6781111 4.1015368 -0.6140601
3.6961417 4.1216431 -0.30923045
6.5552182 7.3098578 0
3.8383062 4.2801738 0.32112437
3.7178276 4.1559176 -0.92963046
3.6765981 4.1098299 -0.61463612
3.6859598 4.1202946 -0.30879489
6.5498548 7.3216562 0
3.8435297 4.2964315 0.32199547
3.7162249 4.1642408 -0.93048722
3.6681886 4.1104136 -0.6140601
3.6896274 4.1344371 -0.30952045
3.7339635 4.1841183 0
3.82968 4.2913737 0.32126936
3.7077734 4.1648898 -0.92963046
3.6666555 4.1187029 -0.61463612
3.6880879 4.1427774 -0.30981103
3.7254474 4.1847429 0
3.8331356 4.3057075 0.32199547
3.7010353 4.1674495 -0.92920285
3.6651144 4.1270018 -0.61521322
3.6848032 4.1491718 -0.30995601
3.7376664 4.2086968 0
3.819298 4.3006158 0.32126936
3.6993985 4.1757574 -0.930058
3.6566916 4.1275516 -0.61463612
3.6815085 4.1555643 -0.310101
3.7325783 4.2132096 0
3.8123775 4.3032846 0.32112437
3.6994517 4.185997 -0.9313423
3.6551304 4.1358466 -0.61521322
3.6833677 4.1677976 -0.31068158
0 0 0
3.8071749 4.307888 0.32112437
3.6994855 4.1962428 -0.93262661
3.655257 4.1460752 -0.6160773
3.6748955 4.1683507 -0.31039158
0 0 0
3.7985334 4.3085904 0.32083437
3.6927187 4.1987839 -0.93219906
3.6587901 4.1602054 -0.61751956
3.6749995 4.1786361 -0.31082657
3.7379055 4.2501631 0
3.801903 4.3229313 0.32155994
3.6876428 4.2032428 -0.93219906
3.65205 4.1626735 -0.61723047
3.6768024 4.1908865 -0.31140712
3.7327673 4.2546768 0
3.8018196 4.3333836 0.32199547
3.6859393 4.211555 -0.93305415
3.6487257 4.169035 -0.61751956
3.6631808 4.1855516 -0.31068158
3.7241991 4.255271 0
3.8102713 4.3536172 0.3231566
3.6791611 4.2140741 -0.93262661
3.6470845 4.1773338 -0.61809564
3.6632493 4.1958489 -0.31111714
3.7241845 4.2656436 0
3.7964582 4.3484249 0.32243049
3.6808105 4.2262597 -0.93433851
3.6454287 4.1856346 -0.61867166
3.6615865 4.2041874 -0.31140712
3.7258646 4.2779903 0
3.821923 4.3882833 0.32504326
3.6773829 4.2326403 -0.93476605
3.6369789 4.1861353 -0.61809564
3.6530988 4.204689 -0.31111714
3.7189875 4.2805266 0
3.8080919 4.3830848 0.32431716
3.6689003 4.2331967 -0.9339093
3.6370018 4.1963925 -0.6189608
3.6599236 4.2228398 -0.31213269
6.5755043 7.5868526 0
9.3539057 10.792586 0.79773784
3.6704984 4.2453947 -0.93562114
3.6386952 4.2086101 -0.62011391
3.6633205 4.2370925 -0.31285879
6.5697398 7.5987334 0
9.342556 10.805844 0.79788285
3.6669252 4.2620363 -0.93733305
3.6352615 4.225234 -0.62126708
3.649678 4.2419901 -0.31256825
6.5632339 7.6283917 0
9.3469162 10.863842 0.80049509
3.6660275 4.2662034 -0.9377622
3.6310177 4.225462 -0.620978
3.6403403 4.236311 -0.3119877
6.5704989 7.646174 0
9.353899 10.885253 0.80165619
3.6658771 4.2764711 -0.93904489
3.6326427 4.2377014 -0.62213117
3.6470585 4.254518 -0.31300381
6.5663381 7.660037 0
9.3441257 10.900497 0.80194676
3.6640472 4.2848034 -0.93990165
3.6308849 4.2460227 -0.62270832
0 0 -0
6.5672226 7.6798296 0
9.3545866 10.939424 0.80397844
3.6655312 4.2970395 -0.9416135
3.6190374 4.2425356 -0.62155515
0 0 -0
6.5646944 7.6956792 0
9.3514833 10.962584 0.80484957
3.6636605 4.3053718 -0.94246864
3.6155829 4.2488737 -0.62184316
0 0 -0
6.5486441 7.6956778 0
9.3449593 10.981784 0.80542958
3.6634409 4.3156686 -0.94375294
3.6104465 4.2532392 -0.62184316
4.1124024 4.8445621 -0.35494673
6.5460777 7.7115211 0
9.3468227 11.010901 0.80673623
3.7378449 4.4141188 -0.96429372
3.6119905 4.2654939 -0.62299633
4.1183019 4.8634105 -0.35596284
4.7036819 5.5547013 0
9.3469448 11.038052 0.80789733
3.8401821 4.5460987 -0.99211121
3.633539 4.3014693 -0.62760901
4.088944 4.840589 -0.35393062
4.685216 5.5464692 0
9.3436584 11.061244 0.80876791
3.8628056 4.5841055 -0.99938625
3.8499925 4.5688996 -0.6659494
4.1065369 4.8733487 -0.35596284
4.6919203 5.5680399 0
9.3470268 11.092392 0.81021899
3.8589139 4.5907326 -0.9998138
3.9593034 4.7101603 -0.68584126
4.1090035 4.8882504 -0.35668841
0 0 0
9.3419752 11.113622 0.81094456
3.9519424 4.7129531 -0.68555218
4.0897374 4.8772831 -0.35552731
0 0 0
9.3485746 11.148794 0.81268626
3.9595208 4.7335963 -0.68785852
4.0655007 4.8602948 -0.35393062
4.6733804 5.5870132 0
9.3500996 11.178019 0.81399238
3.952143 4.7363935 -0.68757051
4.0629578 4.8691978 -0.35422119
4.6732955 5.6006489 0
9.3499041 11.205269 0.81515348
3.9497232 4.7451372 -0.68814653
4.0603929 4.8780942 -0.35451117
4.6731844 5.6142926 0
9.3479967 11.23054 0.81616962
3.9439869 4.7499061 -0.68814653
4.0661168 4.8969927 -0.35552731
4.6730475 5.627944 0
9.3443756 11.253819 0.81704015
3.8206167 4.6126552 -0.99852949
3.9415474 4.758656 -0.68872368
4.0469365 4.8858929 -0.35436618
4.6695609 5.6375909 0
9.3407192 11.277111 0.81791127
3.816674 4.6192455 -0.99895704
3.9357948 4.7634149 -0.68872368
4.0360632 4.884768 -0.35393062
4.6710324 5.6532588 0
9.3403273 11.304415 0.81907237
3.8127272 4.6258407 -0.99938625
3.9316797 4.7701612 -0.68901169
4.0103321 4.8655872 -0.35218951
4.6708188 5.6669316 0
9.3481445 11.341758 0.82095903
3.9292016 4.7789083 -0.68958879
4.0424013 4.9165878 -0.35552731
4.6705794 5.6806121 0
9.3410349 11.361073 0.82153964
3.9152184 4.7736473 -0.68814653
4.0035009 4.8812861 -0.35262451
4.6686649 5.6922903 0
9.3404827 11.388425 0.82270074
3.9094474 4.7783742 -0.68814653
3.9729235 4.8559589 -0.35044783
4.666729 5.7039719 0
9.3398781 11.415792 0.82386184
3.8987694 4.7770891 -0.68728244
3.9785492 4.8748417 -0.35146341
4.6647654 5.7156496 0
9.3326435 11.435113 0.82444185
3.8962572 4.7858043 -0.68785852
3.9595382 4.8635325 -0.35030285
4.6677175 5.7333951 0
9.3303051 11.460489 0.82545799
3.7693777 4.6414003 -0.99681759
3.8888426 4.7885027 -0.68757051
3.9552951 4.8703284 -0.35044783
4.6706271 5.7511482 0
3.8798699 4.7774544 0.34376502
3.7730412 4.6516514 -0.99852949
3.8778038 4.7808094 -0.68612927
3.9556227 4.8767495 -0.35073784
4.6687894 5.7559881 0
3.8753476 4.7777815 0.34362
3.7674179 4.6562071 -0.99852949
3.8720243 4.7854915 -0.68612927
3.9399235 4.8694091 -0.34986728
4.6700144 5.7717395 0
3.863034 4.7743802 0.34303945
3.7569506 4.6547613 -0.99724513
3.8581183 4.7801051 -0.68468809
3.9193506 4.8559704 -0.34856117
4.6646767 5.7794089 0
9.3502951 11.584765 0.83155352
3.7513235 4.6592975 -0.99724513
3.8604484 4.7948346 -0.68612927
3.9134803 4.8607025 -0.34856117
4.6576896 5.7850413 0
9.3379183 11.598077 0.83169854
3.748909 4.6678333 -0.99810189
3.8449311 4.7873921 -0.68439901
3.9141126 4.8735313 -0.34914172
4.6637335 5.8068976 0
9.3271551 11.613407 0.83198911
3.7448695 4.6743612 -0.99852949
3.8342967 4.7859845 -0.68353492
3.9017224 4.8701458 -0.34856117
4.6632223 5.820653 0
9.3212376 11.634807 0.83271468
3.7376177 4.6768794 -0.99810189
3.8301241 4.7926326 -0.68382299
3.9071856 4.8890595 -0.34957671
4.6626782 5.8344073 0
7.5082364 9.3950529 0.67176348
3.7271616 4.6753683 -0.99681759
3.8178811 4.7891674 -0.68266982
3.8996572 4.8917475 -0.34943172
4.6604939 5.8461442 0
7.4482894 9.3431673 0.6674096
3.7247083 4.6838908 -0.99767435
0 0 -0
3.8953593 4.8984876 -0.34957671
4.6647668 5.8660316 0
7.4175868 9.327755 0.66566789
3.7158523 4.6843619 -0.99681759
3.8159378 4.810534 -0.68439901
3.8732922 4.8828373 -0.34812561
4.6609068 5.8757381 0
7.4014645 9.3306017 0.66523236
3.7117808 4.6908593 -0.99724513
3.7844493 4.7826962 -0.6797874
3.8448193 4.8589902 -0.34609392
4.6618829 5.8915758 0
7.4111443 9.3660259 0.66711903
3.7045212 4.6933279 -0.99681759
3.7818696 4.7913222 -0.68036348
4.6181021 5.8507605 -0.41633752
4.669271 5.9155879 0
9.3428946 11.836689 0.84229356
3.6972611 4.6957855 -0.99639004
3.7712758 4.7897897 -0.67949831
4.58531 5.8236709 -0.41401529
4.666945 5.9273539 0
9.3301916 11.850009 0.84243858
3.6884162 4.6962156 -0.99553496
3.7654855 4.794343 -0.67949831
4.5638266 5.8108177 -0.41270918
4.6613917 5.935041 0
9.3254929 11.873531 0.84330916
3.6890657 4.7087445 -0.99724513
3.754909 4.7927871 -0.67863423
4.5584087 5.8183789 -0.41285473
4.6622405 5.9509101 0
9.3335772 11.913431 0.84534138
3.6833735 4.7131987 -0.99724513
3.7443354 4.7912049 -0.67776912
4.5465736 5.8177385 -0.41241917
4.6598496 5.9626851 0
9.3287725 11.936981 0.84621191
3.6776757 4.7176456 -0.99724513
3.7337713 4.7896042 -0.67690396
4.5075893 5.7822418 -0.40951639
4.657443 5.9744711 0
9.3223286 11.958488 0.84693748
3.6719728 4.722086 -0.99724513
3.7216303 4.7859449 -0.67575079
4.4910316 5.7753801 -0.40864584
4.6661997 6.0006428 0
9.3286066 11.996408 0.84882414
3.6709859 4.7326064 -0.99852949
3.7126772 4.7863545 -0.67517471
4.5047526 5.8074918 -0.4105325
4.6669192 6.0165563 0
5.7579961 7.4231634 0.52474457
3.6605506 4.7309461 -0.99724513
3.7021413 4.7846985 -0.67430961
4.4818277 5.792376 -0.40908083
4.6612372 6.0242472 0
5.7251687 7.3992872 0.52256733
3.6626782 4.745532 -0.99938625
3.6916146 4.7830238 -0.67344445
4.4748254 5.7977872 -0.40908083
4.6523662 6.0278168 0
5.6495523 7.3198166 0.51647234
3.6858327 4.7874808 -0.67344445
4.4567251 5.7887831 -0.40806529
4.6514297 6.0416827 0
5.5709567 7.2360444 0.51008618
3.6784713 4.7898812 -0.67315644
4.4481401 5.7920971 -0.40791973
4.6393695 6.0411043 0
5.5353055 7.2077379 0.50761896
3.6632466 4.7820072 -0.67142719
4.426918 5.7789049 -0.40661362
4.6352286 6.0508337 0
5.5155296 7.1999798 0.50660282
3.6574659 4.7864299 -0.67142719
4.4262428 5.7925086 -0.40719417
4.627914 6.0564299 0
5.5020971 7.2004509 0.50616783
3.6530058 4.7865844 -0.67113918
4.4274735 5.8013802 -0.40762973
4.6258378 6.0612998 0
5.4961715 7.2017097 0.50602287
3.6409528 4.782763 -0.66998601
4.4094415 5.7922511 -0.40661362
4.6263909 6.0772362 0
5.489038 7.2104111 0.50616783
3.6336024 4.7850928 -0.66969693
4.388298 5.7789521 -0.4053075
4.6174717 6.0807514 0
5.4756055 7.2108283 0.5057323
3.6231372 4.7833004 -0.66883284
4.3938637 5.8008208 -0.4064686
4.6101213 6.0863261 0
5.4684563 7.2195086 0.50587732
3.6126757 4.7814817 -0.66796774
4.3727546 5.7874689 -0.40516248
4.6058984 6.0960412 0
5.4550343 7.2198973 0.50544232
3.6037791 4.7817087 -0.66739058
4.3595028 5.7844477 -0.40458193
4.5953994 6.0974493 0
5.4494309 7.2306294 0.5057323
3.596446 4.7839942 -0.66710258
4.3431449 5.7772532 -0.40371138
4.5864601 6.1009111 0
5.4438162 7.2413669 0.50602287
3.5891128 4.7862687 -0.66681457
4.3392758 5.7866507 -0.40400138
4.5775251 6.1043687 0
5.4381771 7.2520928 0.50631285
3.575582 4.7802482 -0.66537333
4.326055 5.7835665 -0.40342081
4.5670314 6.105731 0
5.4294105 7.2586584 0.50631285
3.5605202 4.7721229 -0.66364306
4.3066325 5.7721281 -0.40225971
4.5596504 6.1112452 0
5.429956 7.2777057 0.50718343
3.5578427 4.7805753 -0.66422021
4.2841444 5.7564864 -0.40080857
4.5491524 6.1125703 0
5.4475303 7.3196959 0.50965065
3.545897 4.7765636 -0.66306704
4.3050618 5.7992101 -0.40342081
4.5448685 6.1222463 0
5.4758539 7.3763466 0.513134
3.5370414 4.7766833 -0.66248989
4.2593946 5.752203 -0.39979246
4.5328202 6.1214566 0
5.5055933 7.4351621 0.51676232
3.5224226 4.7810564 -0.66191387
4.2624369 5.7854934 -0.40138915
4.5149293 6.1282063 0
5.5030193 7.4693613 0.51821345
3.5334926 4.8082376 -0.66508532
4.2492881 5.7822642 -0.40080857
4.5059757 6.1315541 0
5.495533 7.4781051 0.51835901
3.5261467 4.8104115 -0.66479623
3.564868 4.8632355 -0.33680555
4.4893351 6.1244044 0
5.4864931 7.4847398 0.51835901
3.5294943 4.8271999 -0.6665265
3.5911949 4.9115863 -0.33985335
4.4742527 6.1193223 0
5.4851122 7.5018497 0.51908457
3.5267041 4.8356366 -0.66710258
3.5975008 4.9327092 -0.34101391
4.4745216 6.1352353 0
5.4775734 7.5105691 0.51922959
3.5223787 4.8419843 -0.66739058
0 0 -0
4.4671049 6.1406374 0
5.4700217 7.5192814 0.51937455
3.5286779 4.8629842 -0.66969693
0 0 -0
4.4581552 6.1439261 0
5.4670362 7.5342979 0.5199551
3.5167332 4.8588634 -0.66854376
0 0 -0
4.4461489 6.142982 0
5.4609785 7.5451121 0.52024567
3.5093472 4.8610139 -0.66825575
3.5492883 4.9163384 -0.33869225
4.437201 6.1462417 0
5.4625001 7.5664468 0.52126122
3.5080068 4.8715496 -0.66912091
3.5463791 4.9248366 -0.33898222
4.4236884 6.1431508 0
5.4609499 7.5835905 0.52198738
3.5095949 4.8799696 -0.66998601
3.5555403 4.9438548 -0.34014335
4.4184523 6.1437035 0
5.4593987 7.5911036 0.52227736
3.5097265 4.8926129 -0.67113918
3.5510771 4.9502568 -0.34028834
4.4064789 6.1427002 0
5.4593072 7.6103587 0.52314794
3.5113361 4.9073658 -0.67258036
4.1801252 5.8420506 -0.40124413
4.3975406 6.1459055 0
5.4576721 7.627522 0.52387404
3.503897 4.9094934 -0.67229128
4.1307974 5.7878761 -0.39718023
4.3825474 6.1406169 0
5.4559979 7.6446843 0.52459961
3.5024638 4.9200473 -0.67315644
4.1207838 5.7886252 -0.39688969
4.3721089 6.1416717 0
5.4497676 7.6555004 0.52488959
3.4995141 4.9284973 -0.67373353
4.0972428 5.7703009 -0.39529356
4.3646846 6.1469498 0
5.4585662 7.6875043 0.52663124
3.49505 4.9348311 -0.6740216
4.1007814 5.7900929 -0.39630967
4.3527403 6.1458459 0
5.4537802 7.7004576 0.52706683
3.4875937 4.9369402 -0.67373353
4.0802846 5.7759371 -0.39500299
4.3408051 6.144722 0
5.4519668 7.7176514 0.52779239
3.4786432 4.9369178 -0.67315644
4.0673161 5.7723665 -0.39442244
4.3318791 6.1478372 0
5.4486241 7.7327299 0.52837294
3.4711897 4.9390035 -0.67286843
4.0737896 5.7964163 -0.39572912
4.3214579 6.1488123 0
5.4377837 7.737184 0.52822793
3.4726412 4.9537816 -0.67430961
4.0399318 5.763031 -0.39311633
4.3110342 6.1497636 0
5.4314113 7.7480001 0.52851796
3.4888864 4.9897718 -0.67863423
4.0195661 5.748745 -0.39181021
4.2961454 6.1443057 0
5.420558 7.75243 0.52837294
3.5893774 5.1467242 -0.69939017
4.0378842 5.7898278 -0.39427745
4.2812757 6.1388211 0
5.4126716 7.7611032 0.52851796
3.6835859 5.295433 -0.71899295
4.0101147 5.764843 -0.39224577
4.2753396 6.1461239 0
5.4032898 7.7676377 0.52851796
3.7007756 5.3338814 -0.72360563
3.9824116 5.7397995 -0.39021409
4.2604938 6.1405964 0
5.3968654 7.7784348 0.52880847
3.7002153 5.3468566 -0.7247588
3.990257 5.7659702 -0.39166522
4.2530713 6.14574 0
5.3874631 7.7849498 0.52880847
3.687875 5.3428092 -0.72360563
3.9980452 5.7921681 -0.39311633
4.2456422 6.1508746 0
5.3824763 7.7978635 0.52924347
3.6770148 5.340868 -0.72274047
3.9586294 5.7499132 -0.38992354
4.2308292 6.1452842 0
5.3789444 7.8129225 0.52982408
3.6676278 5.3410387 -0.72216338
3.9575624 5.7632604 -0.39050409
4.2219291 6.1482482 0
5.3739142 7.8258443 0.53025961
3.6655576 5.3518705 -0.72302854
3.9520626 5.7701797 -0.39064911
4.2115531 6.1490469 0
5.3762007 7.8494825 0.53142071
3.6503372 5.3434854 -0.72129929
3.9333618 5.7577863 -0.38948798
4.1967812 6.1433887 0
5.3681765 7.8581161 0.53156573
3.6424172 5.3457484 -0.72101021
3.9103115 5.7389202 -0.38789186
4.1893549 6.1484551 0
5.3572159 7.8624516 0.53142071
3.6391869 5.3479481 -0.72101021
3.9141512 5.7520204 -0.38861743
4.1812458 6.1445279 0
5.3568521 7.8721337 0.5318563
3.6312711 5.3502035 -0.7207222
3.8984456 5.7438498 -0.38774687
4.166512 6.1388111 0
5.3444147 7.8742962 0.53156573
3.6190042 5.3460197 -0.71956903
3.887131 5.7420988 -0.38731131
4.1590915 6.1438408 0
7.1760039 10.600446 0.71501255
3.6154394 5.3546801 -0.72014612
3.877279 5.7424803 -0.38702077
4.1472945 6.1423893 0
7.1748223 10.626337 0.71617365
3.5945163 5.3375869 -0.71726269
3.8746934 5.7536287 -0.3874563
4.1369653 6.1430826 0
6.6946378 9.9410343 0.66944128
3.5923922 5.3483696 -0.71812785
3.8561478 5.7410502 -0.3862952
4.1266346 6.1437521 0
6.7029018 9.979311 0.67147291
3.5830507 5.348413 -0.71755177
3.8434231 5.7370706 -0.38571465
4.1163135 6.1444135 0
6.7183189 10.028421 0.67423069
3.5765855 5.3527384 -0.71755177
3.8206124 5.7179503 -0.38411853
4.1059918 6.145051 0
6.9198413 10.356275 0.69571024
3.5658107 5.3505974 -0.71668661
3.8439605 5.7679687 -0.38716632
4.0985637 6.1500077 0
6.904438 10.360299 0.69541967
3.5564766 5.3505898 -0.71610951
3.8053408 5.7249966 -0.38397297
4.0839276 6.1441207 0
6.8818498 10.353493 0.69440413
3.5500088 5.3548832 -0.71610951
3.8070378 5.742589 -0.38484406
4.0664387 6.1338735 0
6.8736377 10.368292 0.69483912
3.5378296 5.3505387 -0.71495634
3.8301911 5.7926998 -0.38789186
4.0618925 6.1431198 0
6.8783026 10.402599 0.69658083
3.5299394 5.3526525 -0.71466833
3.7688313 5.7148976 -0.38237685
4.0487356 6.1393328 0
6.9429746 10.528036 0.70441806
3.5049932 5.3288236 -0.71092081
3.7947612 5.7693729 -0.38571465
4.0427432 6.1463928 0
7.1487079 10.868553 0.72662312
3.4914594 5.3222437 -0.70947963
3.7849395 5.7696128 -0.38542464
4.0310349 6.1447515 0
7.1483965 10.896734 0.72792923
3.4821911 5.3221254 -0.70890248
3.7623146 5.7502618 -0.38382795
4.0207548 6.1452579 0
7.0740542 10.811872 0.72168869
3.4757578 5.3263292 -0.70890248
3.7397473 5.7308726 -0.38223186
4.0062165 6.1392164 0
6.7997084 10.420025 0.69498414
3.4650908 5.324028 -0.70803839
3.717227 5.7114291 -0.38063517
3.9902809 6.1309695 0
6.777195 10.412995 0.69396859
3.4530222 5.3195329 -0.70688522
3.6806142 5.6701484 -0.37758738
3.9828699 6.1357865 0
6.7688537 10.427717 0.69440413
3.4522147 5.332386 -0.70803839
3.6003342 5.5611758 -0.37004068
3.5158141 5.4306235 0
6.7830753 10.477325 0.69716138
3.4471707 5.3387241 -0.70832646
3.5485077 5.4956679 -0.36539623
3.5388939 5.4807787 0
6.7690024 10.483334 0.69701636
3.4477179 5.3537564 -0.70976764
3.5334263 5.4868479 -0.36452568
3.529448 5.4806705 0
6.7352262 10.458733 0.69483912
3.445441 5.3644495 -0.7106328
3.512749 5.4692459 -0.363074
3.5143874 5.471797 0
6.6832709 10.405654 0.69077581
3.4463902 5.3730636 -0.7114979
0 0 -0
3.518105 5.48487 0
6.6643581 10.390008 0.6894697
3.4440727 5.3837538 -0.71236199
0 0 -0
3.5283046 5.5154243 0
6.644794 10.387102 0.68874353
3.444525 5.3988199 -0.71380424
0 0 -0
3.5272367 5.5284595 0
6.6462169 10.417033 0.6901952
3.437999 5.4029784 -0.71380424
0 0 -0
3.5191529 5.5305157 0
7.0018754 11.003779 0.72850984
3.4411654 5.4224091 -0.7158215
3.4801769 5.483881 -0.362784
3.5166526 5.541358 0
7.0219903 11.064886 0.73199314
3.4415259 5.4374886 -0.71726269
3.4818835 5.5012517 -0.36365455
3.5155218 5.5543995 0
6.9988861 11.057991 0.73097706
3.4404759 5.4503918 -0.71841586
3.4807818 5.5142441 -0.3642351
3.5115888 5.5630488 0
6.6748447 10.574269 0.69846749
3.4435349 5.4698687 -0.72043419
3.4824252 5.5316439 -0.36510623
3.5159512 5.5848985 0
6.6634459 10.584524 0.69861245
3.4426591 5.4979019 -0.72302854
3.4814572 5.5598621 -0.36641234
3.5065894 5.599998 0
6.6157885 10.565368 0.69629079
3.4360135 5.502058 -0.72302854
3.4788671 5.5706792 -0.3668479
3.5094712 5.6196852 0
6.5961318 10.562327 0.69556469
3.4321001 5.5106006 -0.72360563
3.4748783 5.5792856 -0.36713791
3.5040529 5.6261287 0
6.5792475 10.563679 0.69512969
3.4390838 5.5367107 -0.72648799
3.4791026 5.6011386 -0.36829901
3.5082378 5.6480441 0
6.55551 10.553963 0.69396859
3.4323914 5.5408621 -0.72648799
3.4819121 5.6208029 -0.36931512
3.5096312 5.6655493 0
6.5523276 10.577332 0.69498414
3.4352109 5.5604105 -0.72850633
3.4751179 5.6250062 -0.36931512
3.5000498 5.6653619 0
6.5805159 10.651565 0.69933861
3.4312007 5.5689573 -0.72908241
3.4710422 5.6336212 -0.36960512
3.4986625 5.6784501 0
6.6003485 10.712593 0.70282137
3.4298856 5.5819139 -0.73023558
3.4751153 5.6555223 -0.37076625
3.5013373 5.6981969 0
6.6091652 10.755983 0.70514363
3.4325998 5.6014938 -0.73225385
3.4696357 5.6619306 -0.37091124
3.5026057 5.7157331 0
6.8283138 11.142796 0.72996092
3.4258289 5.6056371 -0.73225385
3.4736319 5.6838565 -0.37207237
3.4997694 5.726625 0
7.0641561 11.558983 0.75666547
3.4230876 5.6163921 -0.73311794
3.4735217 5.6991415 -0.37279791
3.4955537 5.7352901 0
7.0271959 11.529792 0.75419825
3.4189882 5.624949 -0.73369503
3.4706831 5.7099977 -0.37323347
3.4953785 5.750627 0
7.049696 11.598221 0.7581166
3.4162126 5.6357136 -0.73456019
3.4691691 5.7230759 -0.37381405
3.492476 5.7615252 0
7.0976343 11.708941 0.76479274
3.4160895 5.6509023 -0.73600137
3.4676285 5.7361579 -0.3743946
3.4962828 5.7835579 0
7.0982695 11.741972 0.76638943
3.4166813 5.6596017 -0.73686546
3.4722173 5.751595 -0.37526515
3.498168 5.7945814 0
7.0992293 11.759601 0.76725996
3.399173 5.6460075 -0.73456019
3.474648 5.7713714 -0.37628126
3.5045846 5.8210955 0
7.094398 11.783755 0.7682761
3.3976688 5.6589718 -0.73571229
3.4703445 5.7800169 -0.37657127
3.4935334 5.8186388 0
7.0962048 11.819053 0.77001774
3.3921611 5.6652989 -0.73600137
3.4713697 5.7975864 -0.37744239
3.4985313 5.8429494 0
7.0899253 11.84099 0.77088833
3.3866379 5.6716118 -0.73628938
3.4696906 5.8107004 -0.37802294
3.4941347 5.8516369 0
7.0889368 11.871862 0.77234
3.3916912 5.6956987 -0.73888379
3.4733026 5.8327494 -0.37918407
3.4937179 5.867033 0
7.0838895 11.896041 0.77335554
3.3768852 5.6864533 -0.73715454
3.4662523 5.8369417 -0.37918407
3.5038998 5.9003377 0
7.0655336 11.897896 0.77292055
3.36869 5.6882977 -0.73686546
3.4618428 5.845593 -0.37947404
3.5047271 5.9180069 0
7.045856 11.897481 0.77234
3.3710227 5.7079558 -0.73888379
3.4560971 5.8520069 -0.37961906
3.5002182 5.9267149 0
7.0248642 11.894793 0.7716139
3.3654346 5.714251 -0.7391718
3.4595728 5.8740907 -0.38078016
6.4658399 10.978503 0
7.0052118 11.894316 0.77103329
3.3663895 5.7316995 -0.74090207
3.455107 5.8827519 -0.38107073
6.4525695 10.986307 0
6.9868908 11.896056 0.77059829
3.3659961 5.7469201 -0.74234325
3.4585023 5.90486 -0.38223186
6.427454 10.973887 0
6.9751358 11.90897 0.77088833
3.3642676 5.7599168 -0.74349642
3.4552927 5.9157596 -0.38266686
6.4260011 11.001869 0
22.875092 39.164131 2.5333712
3.3638132 5.7751503 -0.74493766
3.4572983 5.9356499 -0.38368297
6.4205594 11.023114 0
22.804209 39.151321 2.5307584
3.3607311 5.7859225 -0.74580276
3.4527314 5.9443121 -0.38397297
6.4176927 11.048867 0
22.747753 39.163128 2.5297427
3.3628085 5.8056393 -0.74782002
3.4546642 5.9642215 -0.38498908
6.419991 11.083638 0
22.67046 39.138866 2.5264044
0 0 -0
3.360966 5.8186574 -0.74897319
3.4513555 5.9751439 -0.38542464
6.4196081 11.113918 0
22.625753 39.170734 2.526695
3.3590968 5.8316793 -0.75012636
3.4545088 5.9973226 -0.38658574
6.419167 11.144223 0
22.555059 39.157513 2.5240822
3.3597798 5.849195 -0.75185663
3.4524367 6.0105052 -0.38716632
6.4147668 11.167762 0
22.494789 39.162209 2.5226312
3.3604207 5.8667121 -0.75358588
3.4477522 6.0191779 -0.3874563
6.41679 11.202603 0
22.440996 39.178089 2.5219057
3.3546112 5.8730121 -0.75387388
3.4379015 6.0188308 -0.38716632
6.4097023 11.221645 0
