# .PCD v0.7 - Point Cloud Data file format
VERSION 0.7
FIELDS x y z
SIZE 4 4 4
TYPE F F F
COUNT 1 1 1
WIDTH 1857
HEIGHT 1
VIEWPOINT 0 0 0 1 0 0 0
POINTS 1857
DATA ascii
4.1159949 58.635212 0
2.4629276 35.086117 1.964599
0 0 -0
4.0372629 58.525913 0
2.4189212 35.065727 1.9632924
0 0 -0
3.9693577 58.572285 0
2.4740527 36.507397 2.0438409
0 0 -0
3.9355404 58.598049 0
2.4486878 36.459625 2.0410831
0 0 -0
0 0 0
2.4008701 36.405521 2.0378904
0 0 -0
0 0 0
2.3510048 36.317646 2.0328109
0 0 -0
0 0 0
2.2308564 35.119854 1.9656146
0 0 -0
0 0 0
2.190197 35.151054 1.9672112
0 0 -0
0 0 0
2.1483562 35.164051 1.9677918
0 0 -0
0 0 0
2.1060209 35.169212 1.9679368
0 0 -0
0 0 0
0 0 0
0 0 -0
0 0 0
0 0 0
0 0 -0
0 0 0
0 0 0
0 0 -0
0 0 0
0 0 0
0 0 -0
0 0 0
2.966804 55.123081 3.083421
0 0 -0
0 0 0
0 0 0
0 0 -0
3.2523851 64.805687 0
0 0 0
0 0 -0
0 0 0
0 0 0
0 0 -0
3.0884404 64.659996 0
0 0 0
0 0 -0
0 0 0
0 0 0
0 0 -0
0 0 0
2.8697858 63.291348 3.5388451
0 0 -0
0 0 0
0 0 0
0 0 -0
0 0 0
0 0 0
0 0 -0
0 0 0
0 0 0
0 0 -0
0 0 0
0 0 0
0 0 -0
2.5578971 64.115395 0
1.4022005 35.147091 1.964744
0 0 -0
2.4804242 64.118439 0
0 0 0
0 0 -0
0 0 0
1.5496205 41.350803 2.3113191
0 0 -0
0 0 0
1.4984308 41.31889 2.3094325
0 0 -0
0 0 0
1.4452268 41.227184 2.3042076
0 0 -0
0 0 0
1.3987505 41.327579 2.3097227
0 0 -0
0 0 0
1.3463553 41.253929 2.3055136
0 0 -0
0 0 0
0 0 0
0 0 -0
0 0 0
1.0787162 35.699203 1.9949313
0 0 -0
0 0 0
1.0388947 35.814754 2.001317
0 0 -0
0 0 0
0.99583548 35.82378 2.0017524
0 0 -0
0 0 0
1.0959216 41.217152 2.3030465
0 0 -0
0 0 0
0.90767831 35.763741 1.9982691
0 0 -0
0 0 0
0.86383641 35.738838 1.9968181
0 0 -0
0 0 0
0.82011557 35.716476 1.9955119
0 0 -0
0 0 0
0.77695858 35.717442 1.9955119
0 0 -0
0 0 0
0.73620212 35.835258 2.002043
0 0 -0
0 0 0
0.81119281 41.95401 2.3438287
0 0 -0
0 0 0
0.76101691 41.983532 2.3454249
0 0 -0
0 0 0
0.67253298 39.752789 2.2207565
0 0 -0
0 0 0
0 0 0
0 0 -0
0 0 0
0.87337732 57.820568 3.2300043
0 0 -0
0 0 0
0.80203152 57.715057 3.2240539
0 0 -0
0 0 0
0 0 0
0 0 -0
0 0 0
0 0 0
0 0 -0
0 0 0
0.36691961 35.724007 1.9955119
0 0 -0
0 0 0
0.32344773 35.690651 1.9936252
0 0 -0
0.62425882 79.481468 0
0.31450391 40.043056 2.236721
0 0 -0
0.52761519 79.391075 0
0 0 0
0 0 -0
0.43181363 79.415085 0
0 0 0
0 0 -0
0.3359217 79.43116 0
0 0 0
0 0 -0
0 0 0
0 0 0
0 0 -0
0 0 0
0.065326162 36.042828 2.0132182
0 0 -0
0 0 0
0.021720456 35.951942 2.0081387
-0 0 -0
-0 0 0
-0.021596443 35.746674 1.996673
-0 0 -0
-0 0 0
-0.064525574 35.60112 1.9885458
-0 0 -0
-0 0 0
-0.1075896 35.6166 1.9894164
-0 0 -0
-0 0 0
-0.15089995 35.681404 1.9930446
-0 0 -0
-0 0 0
-0.19425401 35.725365 1.9955119
-0 0 -0
-0.52782273 79.42231 0
-0.23728284 35.704315 1.9943508
-0 0 -0
-0.62364566 79.403404 0
-0.2792612 35.555908 1.9860785
-0 0 -0
-0 0 0
-0.32198784 35.529556 1.9846269
-0 0 -0
-0.81512976 79.362625 0
-0.36478472 35.516151 1.9839013
-0 0 -0
-0.91185981 79.434448 0
-0.408176 35.557259 1.9862236
-0 0 -0
-1.0087976 79.508751 0
-0.45104077 35.548943 1.985788
-0 0 -0
-1.104506 79.481445 0
-0.49410275 35.556168 1.9862236
-0 0 -0
-0 0 0
-0.51513189 35.524685 1.9844818
-0 0 -0
-0 0 0
-0.55768889 35.500656 1.9831758
-0 0 -0
-0 0 0
-0.60032028 35.484364 1.9823046
-0 0 -0
-0 0 0
-0.64272493 35.457638 1.9808536
-0 0 -0
-0 0 0
-0 0 0
-0 0 -0
-0 0 0
-0 0 0
-0 0 -0
-0 0 0
-0.88590521 40.725811 2.2753263
-0 0 -0
-0 0 0
-0.9839443 40.70797 2.2744558
-0 0 -0
-0 0 0
-1.0562042 41.61586 2.3252516
-0 0 -0
-0 0 0
-1.1071789 41.640533 2.3267031
-0 0 -0
-0 0 0
-1.0442821 37.566578 2.0991361
-0 0 -0
-0 0 0
-1.0904264 37.591259 2.1005874
-0 0 -0
-0 0 0
-1.1352983 37.571739 2.0995717
-0 0 -0
-1.2768919 40.631359 0
-1.1802872 37.557346 2.0988457
-0 0 -0
-1.3255618 40.616787 0
-1.2254977 37.550705 2.0985556
-0 0 -0
-1.3753425 40.635963 0
-1.2707816 37.5466 2.0984106
-0 0 -0
-1.423439 40.605659 0
-1.3162395 37.547634 2.0985556
-0 0 -0
-1.4738227 40.640324 0
-1.4658494 40.420464 2.2592168
-0 0 -0
-1.5210756 40.5891 0
-1.5142993 40.408276 2.2586362
-0 0 -0
-0 0 0
-1.5624205 40.388237 2.2576201
-0 0 -0
-0 0 0
-1.5865147 40.379494 2.2571845
-0 0 -0
-0 0 0
-1.6343579 40.354183 2.2558784
-0 0 -0
-0 0 0
-1.6842 40.378147 2.2573302
-0 0 -0
-0 0 0
-1.7335449 40.389061 2.2580557
-0 0 -0
-0 0 0
-1.785095 40.449226 2.2615385
-0 0 -0
-0 0 0
-1.8322035 40.408112 2.2593617
-0 0 -0
-0 0 0
-1.8755901 40.289066 2.2528307
-0 0 -0
-2.4765868 51.850147 0
-1.9196838 40.19075 2.2474611
-0 0 -0
-2.5425456 51.914696 0
-1.9655759 40.133904 2.2444134
-0 0 -0
-2.6063161 51.932381 0
-2.0131567 40.113331 2.2433972
-0 0 -0
-2.6690643 51.929192 0
-2.0578897 40.038208 2.2393334
-0 0 -0
-2.7301679 51.894741 0
-2.1099524 40.105755 2.2432523
-0 0 -0
-2.7910523 51.857624 0
-2.1568747 40.074631 2.2416556
-0 0 -0
-2.8448439 51.693108 0
-2.2020118 40.012329 2.2383177
-0 0 -0
-2.9078875 51.700027 0
-2.2499194 40.001854 2.2378824
-0 0 -0
-2.996031 52.143349 0
-2.3000407 40.030239 2.239624
-0 0 -0
-3.0575092 52.113705 0
-2.347647 40.014462 2.2388983
-0 0 -0
-3.1242099 52.172321 0
-2.3958392 40.008995 2.2387528
-0 0 -0
-0 0 0
-2.4849021 40.672596 2.2760518
-0 0 -0
-0 0 0
-2.5130394 40.332436 2.2571845
-0 0 0
-2.5560064 40.238613 2.252105
-0 0 0
-2.6032822 40.214752 2.2509439
-3.6349173 55.11795 0
-2.6491361 40.17009 2.2486217
-0 0 -0
-3.661649 55.017075 0
-2.7472558 41.278114 2.3107386
-0 0 -0
-3.7319946 55.069729 0
-2.7962513 41.261795 2.3100126
-0 0 -0
-3.7963836 55.034023 0
-2.8402059 41.172855 2.3052237
-0 0 -0
-3.8639727 55.044979 0
-3.42469 48.787094 2.7317665
-0 0 -0
-0 0 0
-3.4747539 48.65852 2.7248003
-0 0 0
-3.5382502 48.719067 2.7284281
-0 0 -0
-4.791512 64.890144 0
-3.6049602 48.820999 2.7343786
-4.8695264 64.879128 0
-3.6610315 48.777748 2.7322021
-4.0068583 52.534779 0
-3.7102845 48.646336 2.7250903
-4.0649056 52.45985 0
-3.7646453 48.584827 2.7218974
-4.1162434 52.301834 0
-3.8333368 48.707161 2.7290087
-4.1765347 52.260506 0
-3.8992248 48.790554 2.733943
-2.9523671 36.388889 0
-0 0 0
-2.9971881 36.395668 0
-3.8972752 47.325672 2.6523795
-3.0389953 36.366081 0
-3.9533737 47.307976 2.6516533
-3.0813961 36.344238 0
-4.0061436 47.251389 2.648751
-3.1237476 36.322334 0
-0 0 0
-3.1662774 36.302982 0
-0 0 0
-3.2099102 36.296532 0
-4.3980498 49.731594 2.7886584
-0 0 -0
-3.2558572 36.315964 0
-0 0 0
-3.3039746 36.35865 0
-0 0 0
-3.3498137 36.375362 0
-4.6440558 50.429436 2.8287146
-3.3751521 36.409607 0
-4.6754813 50.43697 2.8292952
-3.4215765 36.431408 0
-0 0 0
-3.4700315 36.473888 0
-4.8421416 50.896294 2.8557091
-3.5088587 36.415268 0
-4.9051313 50.905918 2.8565795
-3.5528569 36.411003 0
-4.9636092 50.868919 2.8548379
-3.6219308 36.213272 0
-5.0014515 50.006184 2.80709
-3.6578214 36.131199 0
-5.069983 50.080238 2.811589
-3.6985593 36.098282 0
-5.1355228 50.12318 2.8143461
-3.7343912 36.018719 0
-5.1982269 50.137615 2.8155072
-3.7814395 36.047825 0
-5.2363062 49.916821 2.8034616
-3.8167548 35.965595 0
-5.2856483 49.807098 2.7976561
-3.8585422 35.945427 0
-5.3269687 49.625 2.7877872
-3.9056239 35.974369 0
-0 0 0
-3.7332454 34.003647 0
-0 0 0
-3.7619829 33.887897 0
-5.4236822 48.856461 2.7456992
-3.8035071 33.888493 0
-5.4821315 48.844704 2.7454088
-5.7675643 50.833622 0
-5.8633633 51.677967 2.9050536
-5.82335 50.7775 0
-5.9349799 51.750874 2.9095533
-5.875412 50.690292 0
-5.6379118 48.641254 2.7351041
-5.9351425 50.670223 0
-5.6960773 48.62925 2.7348142
-5.9795399 50.520878 0
-5.7542205 48.617165 2.7345235
-6.0359459 50.474861 0
-5.8126526 48.607601 2.7343786
-6.0863185 50.379692 0
-5.8769903 48.646969 2.7369909
-6.0317469 49.675907 0
-5.9082594 48.658894 2.7378619
-6.1871233 50.446068 0
-5.9702125 48.677505 2.7393131
-6.2381558 50.358494 0
-6.0248728 48.636734 2.7374265
-6.3015842 50.371578 0
-6.0836363 48.629417 2.7374265
-6.9488845 55.006084 0
-6.1407628 48.609146 2.7367008
-7.0413556 55.201576 0
-6.2011366 48.614574 2.7374265
-7.0901022 55.053658 0
-6.2612009 48.617355 2.7380071
-7.1653419 55.112144 0
-6.3098912 48.532455 2.7336531
-7.2569876 55.29438 0
-6.3962531 48.736042 2.7455537
-0 0 -0
-0 0 0
-6.4500189 48.689648 2.743377
-7.2826462 54.469326 0
-6.5081568 48.676662 2.7430863
-0 0 -0
-7.3474135 54.452755 0
-6.762929 50.121056 2.8249412
-0 0 -0
-7.4072347 54.400002 0
-6.8297954 50.159187 2.8275535
-0 0 -0
-7.4726062 54.388428 0
-6.8971171 50.199802 2.8303106
-0 0 -0
-7.5343885 54.351009 0
-6.9595537 50.204308 2.8310368
-7.5953698 54.308361 0
-7.024528 50.226734 2.832778
-0 0 0
-7.0877538 50.236221 2.8337941
-0 0 0
-7.1557717 50.279072 2.8366969
-7.8017969 54.347446 0
-7.2227955 50.314114 2.839164
-7.8741713 54.384335 0
-7.2936373 50.374775 2.8430824
-7.9443908 54.405685 0
-8.4128323 57.613716 3.2522094
-8.0074692 54.378021 0
-8.4900122 57.654922 3.2551122
-8.1756086 55.058182 0
-8.5558529 57.618916 3.2536607
-8.2073355 55.042934 0
-8.5952606 57.644577 3.2554023
-8.0641384 53.638172 0
-8.6672249 57.64957 3.2562735
-8.1305027 53.638672 0
-8.7360973 57.633911 3.2559829
-8.1886253 53.585075 0
-8.8096561 57.649006 3.2574346
-8.2422733 53.503132 0
-8.8785152 57.633179 3.257144
-8.3049192 53.480278 0
-8.9477491 57.619843 3.256999
-8.3755693 53.508766 0
-8.3624077 53.424679 3.0204337
-8.4507618 53.565437 0
-8.4208813 53.376041 3.0182569
-8.5228357 53.60146 0
-8.490674 53.399189 3.0201435
-8.570714 53.485764 0
-9.2429895 57.681114 3.2629495
-8.6129322 53.336636 0
-9.3135061 57.67503 3.2632396
-8.6685953 53.272251 0
-9.3806858 57.64835 3.2623689
-8.7304325 53.246334 0
-9.4574823 57.680565 3.2648363
-8.7922173 53.220333 0
-9.5267467 57.666523 3.2646906
-8.8595095 53.227642 0
-9.5981245 57.665222 3.2652712
-8.9307041 53.257965 0
-9.6695137 57.663834 3.2658517
-4.7981305 28.403036 0
-9.7443762 57.682854 3.2675934
-4.8276439 28.368994 0
-9.7996826 57.586506 3.262804
-4.8632379 28.370838 0
-9.7761917 57.0317 3.2320361
-4.8944149 28.346987 0
-9.8411169 56.996803 3.2307301
-4.9273252 28.333357 0
-9.9046373 56.954151 3.2289884
-4.9466805 28.343201 0
-10.213781 58.522331 3.3182447
-5.0224171 28.372156 0
-10.354723 58.494911 3.3180993
-5.0585222 28.376316 0
-10.431323 58.51561 3.3199859
-5.0909667 28.359938 0
-10.504317 58.515759 3.3207121
-5.1312499 28.387064 0
-10.564384 58.44421 3.3173735
-5.1632147 28.368034 0
-10.613127 58.311256 3.3105526
-5.2007723 28.379696 0
-8.532402 46.559811 2.6439617
-5.2383657 28.39131 0
-8.5726252 46.462593 2.6390271
-5.2717156 28.379837 0
-8.6021862 46.309143 2.6308999
-5.3050475 28.368336 0
-8.6089401 46.035645 2.6159511
-5.3436542 28.38492 0
-8.6241789 45.810715 2.6037598
-5.3813386 28.396334 0
-8.6355019 45.567955 2.590553
-5.4175968 28.400036 0
-8.6486826 45.337986 2.5780714
-5.4519086 28.393469 0
-8.6578922 45.090191 2.564574
-5.4872012 28.391977 0
-8.6719398 44.87051 2.5526736
-5.5224962 28.39043 0
-8.673562 44.589645 2.5372896
-5.559298 28.396513 0
-8.6864996 44.370045 2.525389
-5.593101 28.387215 0
-8.6979132 44.145374 2.5131977
-8.6759644 43.755157 0
-8.7163763 43.958965 2.5031834
-8.6977654 43.58897 0
-8.7150831 43.675758 2.4876544
-8.7063665 43.359001 0
-8.7310209 43.481781 2.4772048
-8.7170038 43.141834 0
-8.7418709 43.264904 2.4654493
-8.7099819 42.973328 0
-8.7241364 43.043163 2.4531131
-8.7182178 42.748581 0
-8.7356386 42.834003 2.4417925
-8.7217388 42.503483 0
-8.743516 42.609612 2.4296014
-8.7373095 42.319611 0
-8.7566442 42.413258 2.4190068
-8.7476845 42.112827 0
-8.7719517 42.229656 2.409138
-8.7522488 41.880608 0
-8.7772617 42.000298 2.3966568
-8.7584076 41.65863 0
-8.7825651 41.773533 2.3843205
-8.777504 41.500343 0
-8.7959337 41.587479 2.3743062
-8.7832346 41.280991 0
-8.7991352 41.355721 2.36168
-8.783 41.036228 0
-8.8121204 41.172287 2.3518109
-2.3852816 11.079165 -0.63301945
-8.8073826 40.908558 0
-8.8126431 40.932995 2.3387487
-2.4036162 11.099128 -0.63432556
-8.8226557 40.740192 0
-8.8307505 40.777573 2.3304765
-2.4153681 11.088606 -0.63389057
-8.8391972 40.579479 0
-8.8363276 40.566303 2.319011
-2.4321003 11.100904 -0.63476115
-8.8715153 40.492508 0
-8.8419647 40.357628 2.3076909
-0 0 -0
-2.4281936 11.019366 0
-8.8588495 40.202278 2.299418
-2.4594812 11.097528 -0.63490617
-2.4443216 11.029126 0
-8.8630075 39.991146 2.2879531
-2.4745851 11.10216 -0.6353417
-8.8297091 39.61425 0
-8.861578 39.757229 2.2751813
-2.489136 11.104238 -0.63563228
-2.4766612 11.048587 0
-8.8891487 39.655216 2.2699564
-2.5014074 11.096148 -0.6353417
-2.4837134 11.017657 0
-8.9302006 39.614025 2.2682147
-2.5188351 11.110858 -0.63635784
-0 0 0
-8.9751883 39.590538 2.267489
-2.5311024 11.102735 -0.63606727
-0 0 0
-9.0247526 39.587269 2.2679245
-2.5340662 11.054084 -0.63345504
-0 0 0
-9.0766439 39.594067 2.2689407
-2.3911402 10.401755 -0.596156
-0 0 0
-9.1052179 39.608826 2.2701013
-0 0 -0
-2.5547202 11.052169 0
-9.1519022 39.592735 2.2698114
-0 0 -0
-2.5668933 11.044 0
-9.2044411 39.601898 2.2709725
-0 0 -0
-2.5790527 11.035826 0
-9.2552414 39.603394 2.271698
-2.4378209 10.374905 -0.59528542
-2.6001236 11.065635 0
-9.3060589 39.604828 2.2724235
-2.4533417 10.384593 -0.59601098
-2.4561312 10.3964 0
-9.3562965 39.603668 2.2730041
-2.4676898 10.389208 -0.59644657
-2.4692924 10.395955 0
-9.4071455 39.604973 2.2737296
-0 0 -0
-2.4754128 10.366 -0.59528542
-2.4830599 10.398022 0
-9.459219 39.611271 2.2747457
-2.440623 10.165927 -0.58396482
-2.4694993 10.286205 0
-9.5113211 39.617504 2.2757618
-2.352318 9.7462158 -0.56001806
-2.497191 10.346458 0
-9.562232 39.61861 2.2764874
-2.3530655 9.6979179 -0.55740583
-2.5078492 10.335843 0
-9.6131592 39.619648 2.2772129
-2.3512363 9.639535 -0.55421305
-2.5240376 10.34798 0
-9.6628723 39.615582 2.2776484
-2.3535995 9.5988283 -0.55203581
-2.5235248 10.291845 0
-9.7138262 39.616493 2.2783742
-2.3564913 9.5606613 -0.55000418
-2.4182513 9.8112307 0
-9.7660418 39.622387 2.2793901
-2.3561707 9.5098925 -0.54724693
-2.4225941 9.7779884 0
-9.8182831 39.628208 2.2804058
-2.3532164 9.4490433 -0.5439086
-2.4300063 9.7573843 0
-9.865531 39.613796 2.2802608
-0 0 -0
-2.3475971 9.3781424 -0.53999025
-2.4291551 9.703949 0
-9.9152832 39.609409 2.2806964
-0 0 -0
-2.3519521 9.3475771 -0.53839356
-2.4294493 9.6555824 0
-9.9561615 39.569679 2.2790997
-2.3536906 9.3069487 -0.53621686
-2.4296279 9.6072197 0
-9.98804 39.494644 2.2754712
-2.3623741 9.2940245 -0.53563631
-2.4232857 9.5336618 0
-10.021672 39.427147 2.2722785
-2.3708348 9.2570066 -0.53374964
-2.4179611 9.4410124 0
-10.061527 39.28558 2.2651668
-2.3813689 9.2516117 -0.53360409
-2.4267721 9.4280024 0
-10.096037 39.223072 2.2622645
-2.3899429 9.2386646 -0.53302354
-0 0 0
-10.119345 39.117771 2.2568946
-2.3991446 9.2282324 -0.53258854
-0 0 0
-10.129992 38.964691 2.2487674
-2.4050386 9.2052145 -0.53142744
-0 0 0
-10.140942 38.814159 2.2407851
-2.4095595 9.1771641 -0.52997577
-0 0 0
-10.160779 38.698833 2.2348344
-2.4213114 9.1767664 -0.53012133
-2.4631062 9.3351688 0
-10.167097 38.533279 2.2259817
-2.4277356 9.15625 -0.52910519
-2.4730515 9.3271589 0
-10.127745 38.196976 2.2072594
-0 0 -0
-2.4802983 9.3090706 0
-10.160511 38.134491 2.2043567
-0 0 -0
-2.4901998 9.3010445 0
-10.178358 38.016769 2.198261
-2.4723854 9.1900434 -0.5315724
-2.5014365 9.298028 0
-10.18446 37.856407 2.1896982
-2.4909477 9.2146444 -0.53316909
-2.5140264 9.3000193 0
-10.193582 37.708633 2.1818614
-2.50208 9.211628 -0.53316909
-2.5184414 9.2718639 0
-10.207128 37.578438 2.1750402
-0 0 -0
-2.5296428 9.2688141 0
-10.211477 37.415672 2.166332
-2.5126522 9.1629562 -0.53070188
-2.5387752 9.2582188 0
-10.151547 37.01992 2.1441269
-2.5237219 9.1599131 -0.53070188
-1.3789971 5.005105 0
-10.177638 36.939995 2.1402085
-2.5278544 9.1318092 -0.5292502
-1.391292 5.0260062 0
-10.213946 36.897621 2.1384668
-2.5381911 9.1262474 -0.52910519
-1.3959678 5.0193024 0
-10.235547 36.802639 2.1336775
-2.5506136 9.1281738 -0.52939516
-1.3964287 4.99756 0
-10.24155 36.652611 2.1256952
-1.5005192 5.3451529 -0.310101
-1.3975445 4.9783368 0
-10.246504 36.500122 2.117568
-1.506272 5.3408375 -0.30995601
-1.401439 4.9691277 0
-10.27085 36.41769 2.1135039
-1.4366964 5.082386 -0.29500708
-1.4058553 4.9732838 0
-10.278714 36.361469 2.1106012
-1.4066359 4.9531732 -0.28760538
-1.4161307 4.9866076 0
-10.323354 36.351528 2.1107469
-1.4111954 4.9464774 -0.28731537
-1.4207256 4.9798827 0
-10.371546 36.354015 2.1116173
-1.41889 4.9507661 -0.85859197
-1.4251922 4.9727559 -0.57658374
-1.4135923 4.9322815 -0.2865898
-1.4238737 4.9681549 0
-10.416899 36.346458 2.111908
-1.42629 4.9539766 -0.85944712
-1.4319147 4.9735131 -0.57687175
-1.4152362 4.9155831 -0.28571871
-1.4212381 4.9364295 0
-10.466559 36.353821 2.1130691
-0 0 -0
-1.4307386 4.9469376 -0.57398939
-1.4197322 4.9088821 -0.2854287
-1.4243096 4.9247084 0
-10.514088 36.353626 2.1137946
-1.435393 4.9406548 -0.85773522
-1.4222828 4.8955293 -0.56822354
-1.4213115 4.8921866 -0.28455758
-1.4338888 4.9354773 0
-10.564529 36.36335 2.1151006
-1.4356084 4.9192028 -0.85431147
-0 0 -0
-1.4286791 4.8954592 -0.28484815
-1.4376633 4.9262438 0
-10.612826 36.36552 2.1159713
-1.4364983 4.900228 -0.85131693
-1.4261049 4.8647733 -0.56505203
-1.4367869 4.9012122 -0.28528368
-1.4421518 4.9195132 0
-10.658222 36.357662 2.1162617
-1.4409666 4.8935585 -0.85046017
-1.4268699 4.845686 -0.56303483
-1.442708 4.8994727 -0.28528368
-1.4466233 4.9127693 0
-10.705815 36.357216 2.1169875
-1.4446963 4.8844361 -0.84917754
-1.4327239 4.8439579 -0.56303483
-1.4456789 4.8877587 -0.28470314
-1.448131 4.8960485 0
-10.750474 36.346745 2.1171324
-1.4527882 4.8900623 -0.85046017
-0 0 -0
-1.4478817 4.8735471 -0.28397703
-1.4555267 4.8992801 0
-10.796605 36.341202 2.117568
-1.4506235 4.8612514 -0.84575379
-1.4355505 4.81074 -0.55957532
-1.4574865 4.8842506 -0.28470314
-1.4577253 4.8850508 0
-10.835307 36.310699 2.1165519
-1.4535482 4.8496594 -0.84404194
-1.4435908 4.8164368 -0.56044048
-1.4633871 4.8824863 -0.28470314
-1.4666157 4.8932576 0
-10.884396 36.315006 2.117568
-1.4534872 4.8282347 -0.84061819
-1.4494094 4.8146892 -0.56044048
-1.4677861 4.8757334 -0.28441259
-1.4740261 4.8964615 0
-1.5007089 4.9850974 0.29079202
-1.455606 4.8141909 -0.83847874
-1.451481 4.8005481 -0.55899817
-1.4661576 4.8490887 -0.28296146
-1.4761761 4.8822236 0
-1.5044745 4.9758162 0.29035646
-1.4539613 4.7878609 -0.83419824
-1.4557787 4.7938457 -0.55842215
-1.4720156 4.8473134 -0.28296146
-1.4820743 4.8804364 0
-1.5127516 4.9814563 0.29079202
-1.4575009 4.7787414 -0.8329156
-1.4600624 4.7871399 -0.55784613
-1.4748393 4.8355894 -0.28238091
-1.4887286 4.8811288 0
-1.5142199 4.9647074 0.2899209
-1.4595126 4.7646976 -0.83077455
-1.4688729 4.7952552 -0.55899817
-1.4768766 4.821384 -0.28165534
-1.4961514 4.8843079 0
-1.5240251 4.9753036 0.29064703
-1.459233 4.7433109 -0.8273524
-1.4723866 4.7860675 -0.55813414
-1.4827013 4.8195958 -0.28165534
-1.5005201 4.8775167 0
-1.5254499 4.9585524 0.28977591
-1.4604151 4.7268238 -0.8247838
-1.4804569 4.7916913 -0.55899817
-1.4885237 4.817801 -0.28165534
-1.50411 4.868248 0
-1.5276057 4.9442945 0.28905034
-1.462512 4.7234907 -0.82435626
-1.4825872 4.7883277 -0.55871016
-1.4914342 4.8169007 -0.28165534
-1.5093579 4.8747892 0
-1.5290539 4.9384017 0.2887598
-1.4720289 4.733974 -0.82649565
-1.488372 4.7865329 -0.55871016
-1.4980241 4.817574 -0.28180036
-1.5137031 4.8679962 0
-1.5357937 4.9390388 0.28890535
-1.4762189 4.7272959 -0.82564056
-1.4949247 4.7871976 -0.55899817
-1.5053917 4.8207164 -0.28209034
-1.52579 4.8860373 0
-1.5363379 4.9198151 0.28788924
-1.4826972 4.7279558 -0.8260681
-1.5014842 4.7878628 -0.55928731
-1.5096619 4.8139396 -0.28180036
-1.5246847 4.8618431 0
-1.536061 4.8981199 0.28672811
-1.4837809 4.7114649 -0.8234995
-1.5041605 4.7761769 -0.55813414
-1.5185997 4.8220258 -0.28238091
-1.5336852 4.8699269 0
-1.5419784 4.8962603 0.28672811
-1.4871527 4.702333 -0.82221681
-1.5099305 4.7743559 -0.55813414
-1.5275592 4.8300972 -0.28296146
-1.5372133 4.8606234 0
-1.5486761 4.8968687 0.28687313
-1.4920572 4.6980886 -0.82178926
-1.5156983 4.7725277 -0.55813414
-1.5357547 4.83568 -0.28339702
-1.5462364 4.8686843 0
-1.5569522 4.9024258 0.28730869
-0 0 -0
-1.4969505 4.6938295 -0.82136005
-1.5238192 4.7780786 -0.55899817
-1.5415965 4.8338208 -0.28339702
-1.5521181 4.8668122 0
-1.5644553 4.9054971 0.28759924
-1.5041884 4.6969113 -0.82221681
-1.5303826 4.7787042 -0.55928731
-1.5498114 4.8393717 -0.28383201
-1.5540296 4.8525434 0
-1.5680032 4.8961768 0.28716367
-1.5067191 4.6853151 -0.82050496
-1.5353615 4.7743821 -0.55899817
-1.5580449 4.8449187 -0.28426757
-1.5622797 4.8580875 0
-1.5778949 4.9066443 0.28788924
-1.5123793 4.6834912 -0.82050496
-1.5411292 4.7725234 -0.55899817
-1.5638978 4.8430328 -0.28426757
-1.5713476 4.8661027 0
-1.5758392 4.880012 0.28643811
-1.5219954 4.6938677 -0.82264435
-1.5468948 4.7706575 -0.55899817
-1.5641376 4.8238349 -0.28325146
-1.5772262 4.8642001 0
-1.5865418 4.89293 0.28730869
-1.527666 4.6920252 -0.82264435
-1.5526581 4.768785 -0.55899817
-1.5707718 4.824419 -0.28339702
-1.5839105 4.8647728 0
-1.5932565 4.8934779 0.28745368
-1.5317404 4.6853004 -0.82178926
-1.5592252 4.769371 -0.55928731
-1.5766001 4.8225179 -0.28339702
-1.5881685 4.8579035 0
-1.5975548 4.8866143 0.28716367
-1.5422028 4.6980758 -0.82435626
-1.5682136 4.7773137 -0.56044048
-1.5808036 4.8156667 -0.28310648
-1.5907904 4.8460898 0
-1.6018357 4.8797379 0.28687313
-1.5478784 4.696209 -0.82435626
-1.5747938 4.7778692 -0.56072849
-1.5898749 4.8236246 -0.28368703
-1.5974587 4.8466334 0
-1.6052929 4.8704023 0.28643811
-1.5519371 4.6894565 -0.8234995
-1.5821894 4.780869 -0.56130451
-1.5989677 4.8315673 -0.28426757
-1.6049507 4.8496461 0
-1.6111766 4.8684592 0.28643811
-1.5584141 4.6900206 -0.82392871
-1.5895978 4.7838678 -0.56188166
-1.6039859 4.8271685 -0.28412259
-1.6099894 4.8452358 0
-1.6178766 4.8689723 0.28658313
-1.5713909 4.7100482 -0.82778001
-1.5970126 4.7868457 -0.56245768
-1.6122822 4.8326144 -0.28455758
-1.6150168 4.8408113 0
-1.6254017 4.8719387 0.28687313
-1.5778955 4.7105775 -0.82820755
-1.6036193 4.7873721 -0.56274682
-1.6181202 4.8306627 -0.28455758
-1.6183873 4.83146 0
-1.6296383 4.8650484 0.28658313
-1.5909501 4.7305636 -0.83205885
-1.6102264 4.7878804 -0.56303483
-1.6107062 4.7893071 -0.28223592
-1.6267104 4.836894 0
-1.6322024 4.8532243 0.28600258
-1.6452315 4.8531165 -0.85431147
-1.6251138 4.7937732 -0.564188
-1.6256125 4.7952442 -0.28281647
-1.640902 4.8403454 0
-12.355183 36.445412 2.149497
-1.6717714 4.9118772 -0.86501026
-1.6292366 4.7869043 -0.56361085
-1.6314054 4.7932763 -0.28281647
-1.6475872 4.8408203 0
-12.400883 36.435371 2.1497869
-1.6805395 4.927876 -0.86800647
-1.6321284 4.7859192 -0.56361085
-1.631784 4.7849097 -0.28238091
-1.648833 4.8349028 0
-12.426249 36.43771 2.1503675
-1.6395872 4.7888422 -0.564188
-1.6384053 4.7853904 -0.2825259
-1.6504596 4.8205981 0
-12.474475 36.434959 2.151093
-1.6462123 4.7893014 -0.56447601
-1.6475649 4.7932363 -0.28310648
-1.6588187 4.8259768 0
-12.524404 36.437061 2.1521091
-1.651998 4.7873087 -0.56447601
-1.6525086 4.7887883 -0.28296146
-1.6621044 4.8165956 0
-12.569268 36.424358 2.1522541
-1.6569356 4.7828674 -0.564188
-1.6591434 4.7892408 -0.28310648
-1.6670719 4.8121271 0
-12.620925 36.43124 2.1535602
-1.6669608 4.7930746 -0.56562918
-1.6700488 4.8019533 -0.28397703
-1.6754475 4.8174763 0
-12.666645 36.420876 2.1538508
-1.6795717 4.8105922 -0.56793553
-1.6801349 4.8122053 -0.28470314
-1.6838416 4.8228221 0
-12.713214 36.412907 2.1542864
-1.7059157 4.8671408 -0.57485449
-1.6868069 4.8126216 -0.28484815
-1.6922511 4.8281541 0
-12.768374 36.429394 2.156173
-1.7349718 4.9309449 -0.58263761
-1.6908942 4.8056726 -0.28455758
-1.6946286 4.8162861 0
-12.813245 36.416386 2.1563182
-1.74782 4.9483557 -0.58494395
-1.694106 4.7962828 -0.28412259
-1.7039139 4.8240504 0
-12.877139 36.457226 2.1596558
-1.7016352 4.7991257 -0.28441259
-1.7071316 4.8146272 0
-12.92726 36.458782 2.1606719
-1.7091771 4.8019671 -0.28470314
-1.7164387 4.8223681 0
-12.973919 36.450481 2.1611075
-0 0 -0
-1.7132279 4.7949996 -0.28441259
-1.7222643 4.8202906 0
-13.020576 36.442123 2.1615431
-1.7225294 4.8027096 -0.28499314
-1.7298429 4.823101 0
-13.069862 36.441036 2.1624136
-0 0 -0
-1.7336141 4.8152986 -0.28586426
-1.7365535 4.823463 0
-13.117405 36.434994 2.1629941
-0 0 -0
-1.7385455 4.8107495 -0.28571871
-1.7406096 4.8164611 0
-13.166718 36.433777 2.1638649
-1.7461309 4.8135352 -0.28600925
-1.7490915 4.8216963 0
-13.219594 36.442272 2.1653163
-1.751946 4.8114219 -0.28600925
-1.7558059 4.8220224 0
-13.26895 36.440918 2.166187
-1.7559726 4.8044157 -0.28571871
-1.7607385 4.8174553 0
-13.322785 36.451706 2.1677837
-1.7590942 4.7949791 -0.28528368
-1.769248 4.8226566 0
-13.37398 36.455097 2.1689448
-1.7648867 4.79285 -0.28528368
-1.7732737 4.8156261 0
-13.419813 36.443783 2.1692348
-1.7733766 4.7980189 -0.28571871
-1.7827002 4.8232446 0
-13.460235 36.417793 2.1686542
-1.7990578 4.849474 -0.28891206
-1.7930518 4.8332844 0
-11.083114 29.875233 1.7798455
-1.8310062 4.9264636 -0.58580905
-1.8264266 4.9141421 -0.29283038
-1.79416 4.8273263 0
-11.091206 29.841745 1.7782494
-1.8360509 4.9218173 -0.58551997
-1.840536 4.9338403 -0.29413649
-1.8018091 4.8300266 0
-11.111816 29.786938 1.7757821
-1.8528799 4.9486623 -0.58897948
-1.8492305 4.9389157 -0.29457206
-1.8049089 4.8205414 0
-10.467213 27.95578 1.6673684
-1.8652281 4.9633703 -0.59099782
-1.8615928 4.9536972 -0.29558763
-1.8088994 4.8134799 0
-10.489102 27.911493 1.6654817
-1.8812621 4.9877267 -0.59416819
-1.8620766 4.936861 -0.29471707
-1.8137966 4.8088579 0
-10.51732 27.884216 1.6646112
-1.8891206 4.9902925 -0.59474534
-1.8708013 4.9419003 -0.29515263
-1.8177614 4.8017902 0
-4.2744765 11.291438 0.67437571
-1.8914744 4.9783349 -0.59359217
-3.4945126 9.1975088 -0.54956859
-3.5279362 9.2854805 0
-4.2770424 11.257116 0.67263407
-1.8974884 4.9760456 -0.59359217
-3.496367 9.1690054 -0.54811746
-3.5437925 9.293376 0
-4.2906413 11.251941 0.67263407
-1.9081211 4.9858251 -0.59503335
-3.5120862 9.1769056 -0.54884303
-3.5540862 9.2866497 0
-0 0 0
-1.9085815 4.9690332 -0.59330416
-3.5268989 9.1823578 -0.54942358
-3.568105 9.2896395 0
-0 0 0
-1.9136511 4.9643035 -0.59301502
-3.5398624 9.1829433 -0.54971415
-3.5849454 9.2998953 0
-0 0 0
-1.9140506 4.9475183 -0.59128582
-3.5584524 9.1980381 -0.55087471
-4.2656569 11.026051 0
-0 0 0
-1.9134734 4.9283218 -0.58926749
-3.570507 9.1961603 -0.55102026
-4.2676735 10.991776 0
-4.2898912 11.048999 0.66203958
-1.9053438 4.8898635 -0.58494395
-4.2715049 10.962366 0
-4.2890863 11.007487 0.65986234
-1.9084239 4.8803287 -0.58407879
-4.2686357 10.915995 0
-4.2853518 10.958741 0.65725011
-1.917155 4.8852448 -0.58494395
-4.269464 10.879337 0
-4.2777085 10.900345 0.65405732
-4.2644863 10.82816 0
-4.2765927 10.858901 0.65188009
-4.269918 10.803646 0
-4.2858901 10.844059 0.65129954
-4.2676167 10.759772 0
-4.2836652 10.800236 0.64897782
-4.2700272 10.728007 0
-4.2832575 10.761248 0.6469456
-4.2656121 10.679342 0
-4.2827649 10.722286 0.64491391
-4.2649589 10.640366 0
-4.2763824 10.668865 0.64201117
-4.2710133 10.6183 0
-4.2737556 10.625118 0.63968891
-4.2628369 10.579507 0
-4.2665801 10.588797 0.63765723
-4.2687912 10.557467 0
-4.2735291 10.569184 0.6367867
-4.2619753 10.504069 0
-4.2745733 10.535119 0.63504499
-4.2687778 10.484454 0
-4.2716222 10.491441 0.6327228
-4.2607737 10.428699 0
-4.2725024 10.457406 0.63098109
-4.2595487 10.389826 0
-4.2762651 10.4306 0.62967497
-4.2592292 10.353386 0
-4.2720604 10.384576 0.62720776
-4.2618074 10.32418 0
-4.2736979 10.352983 0.62561107
-4.2603383 10.285366 0
-4.2782531 10.328616 0.6244505
-4.2567816 10.241759 0
-4.2837481 10.306641 0.62343442
-4.2591343 10.212584 0
-4.2951994 10.299062 0.62328941
-4.2564044 10.171426 0
-4.2996159 10.274688 0.62212831
-4.2566009 10.137481 0
-4.3110228 10.267092 0.62198329
-4.2658148 10.125133 0
-0 0 0
-4.2567663 10.069633 0
-11.931732 28.22522 1.7116336
-4.2576513 10.004248 0
-15.540771 36.516308 2.2166927
-6.7647839 15.84213 -0.96217906
-4.2636023 9.9847307 0
-11.585001 27.130371 1.6477755
-6.8013167 15.874546 -0.96464628
-4.260293 9.9436951 0
-11.655637 27.204723 1.6531456
-6.8081784 15.83767 -0.96290463
-4.2651095 9.9218016 0
-12.029183 27.983143 1.7013297
-6.7964396 15.757857 -0.95855075
-4.2647266 9.8879642 0
-12.076364 27.999603 1.7032163
-4.2181454 9.7475586 -0.59325379
-4.2591014 9.8422022 0
-12.13495 28.042215 1.7066991
-4.2147298 9.7235441 -0.59194708
-4.269187 9.8491793 0
-12.138456 28.003887 1.7048124
-4.2254405 9.7160645 -0.59180212
-4.2541008 9.7819672 0
-15.89859 36.557541 2.2267072
-4.2299061 9.6942873 -0.59078652
-4.2565513 9.7553539 0
-15.937556 36.526402 2.2259817
-4.2478671 9.7034464 -0.5916571
-4.2537265 9.7168312 0
-15.988971 36.523773 2.2269971
-4.256453 9.6911669 -0.59122151
-4.2633691 9.7069139 0
-16.038315 36.516319 2.2277229
-4.2671127 9.6836414 -0.59107655
-4.2698488 9.6898499 0
-5.7192326 12.979033 0.79222286
-4.27986 9.6808529 -0.59122151
-4.2762933 9.6727848 0
-5.7128482 12.922208 0.78917503
-5.7379875 12.93678 -0.79048789
-4.3016944 9.698535 0
-5.7221389 12.901048 0.78830451
-5.7472782 12.915598 -0.7896173
-5.7364173 12.891191 0
-5.7387781 12.896496 0.78844947
-5.7480483 12.875421 -0.78758508
-5.748806 12.877118 0
-5.7448244 12.8682 0.78714335
-5.7466073 12.830523 -0.78526282
-5.7452149 12.827415 0
-5.7444358 12.825675 0.78496617
-5.7546544 12.806986 -0.78424728
-5.761776 12.822835 0
-5.7386289 12.771321 0.78206336
-5.7477007 12.750278 -0.78119951
-5.7569475 12.770791 0
-5.7401752 12.733585 0.7801767
-5.7513237 12.717278 -0.77960283
-5.7562871 12.728254 0
-5.7469912 12.707699 0.77901554
-5.7548795 12.684298 -0.77800667
-5.7641387 12.704706 0
-5.7451687 12.662894 0.77669388
-5.7519031 12.637132 -0.77553946
-5.7590003 12.652725 0
-5.7389359 12.608643 0.77379107
-5.744504 12.580538 -0.77249169
-5.7688808 12.633923 0
-5.7487712 12.589883 0.77306557
-5.7423863 12.535789 -0.77016944
-5.7613821 12.577258 0
-5.7358456 12.52151 0.76929218
-5.7304049 12.469816 -0.76654112
-5.774404 12.565562 0
-5.742291 12.495682 0.76813108
-5.7291489 12.427485 -0.76436388
-5.7677913 12.511307 0
-5.7465048 12.465132 0.76667941
-5.7376189 12.406407 -0.7634933
-5.7741656 12.485432 0
-5.7364788 12.403942 0.76334161
-5.7493234 12.392391 -0.76305777
-5.7640553 12.424145 0
-5.7405286 12.373435 0.76189047
-5.7513356 12.377135 -0.7623322
-5.7540174 12.382907 0
-5.7348633 12.341687 0.76014882
-5.7586007 12.353689 -0.76131606
-5.760179 12.357075 0
-5.739892 12.313554 0.75884271
-5.7636185 12.32554 -0.76000994
-5.7585688 12.314741 0
-5.7239475 12.240703 0.7547788
-5.7608509 12.280927 -0.75768775
-5.7612901 12.281863 0
-5.7310081 12.217308 0.75376266
-5.7601986 12.241045 -0.75565606
-5.7661543 12.253702 0
-5.7291737 12.175114 0.75158602
-5.7561302 12.194132 -0.75318885
-5.7565136 12.194944 0
-5.7294621 12.137637 0.74969935
-5.7597418 12.163688 -0.75173771
-5.7745872 12.195039 0
-5.7296686 12.100178 0.74781269
-5.7621703 12.130898 -0.75014102
-5.7703366 12.148091 0
-5.7331338 12.06977 0.74636102
-5.761178 12.091091 -0.74810934
-5.769341 12.108223 0
-5.7387719 12.044067 0.74519986
-5.7634563 12.058331 -0.74651271
-5.7693782 12.07072 0
-5.7353964 11.999622 0.7428782
-5.7656684 12.02559 -0.74491656
-5.7693334 12.033235 0
-5.7386551 11.969249 0.74142653
-5.7666802 11.990515 -0.74317491
-5.7692022 11.995759 0
-5.7305894 11.915472 0.73852372
-5.7653599 11.950777 -0.74114323
-5.7667336 11.953626 0
-5.7325664 11.882802 0.73692763
-5.7741332 11.932101 -0.74041712
-5.768702 11.920878 0
-5.7344689 11.850136 0.73533094
-5.7703958 11.887722 -0.73809546
-5.7706041 11.888152 0
-5.7317657 11.808141 0.7331543
-5.7688279 11.848029 -0.73606318
-5.766736 11.843733 0
-5.7369294 11.782516 0.73199314
-5.7683167 11.810699 -0.73417652
-5.7650552 11.804022 0
-5.7477403 11.768569 0.73155761
-5.7688651 11.77572 -0.73243487
-5.7770214 11.792368 0
-5.7550993 11.747619 0.73068702
-5.7670484 11.736095 -0.73040318
-5.772902 11.748008 0
-5.7658505 11.733658 0.73025149
-5.7662916 11.698821 -0.72851652
-5.7755895 11.717685 0
-5.7834716 11.733677 0.73068702
-5.7654533 11.661567 -0.72662985
-5.7678323 11.666378 0
-5.7964902 11.724344 0.73054147
-5.7703042 11.635968 -0.7254687
-5.7738299 11.643077 0
-5.8118105 11.719666 0.73068702
-5.7716293 11.603394 -0.72387207
-5.763555 11.587161 0
-5.8224945 11.705653 0.73025149
-5.7670541 11.576651 -0.72242093
-5.7670722 11.576686 0
-5.8330421 11.709113 0.73068702
-5.770586 11.548756 -0.72111481
-5.767097 11.541773 0
-5.8471861 11.702057 0.73068702
-5.7624145 11.497635 -0.71835703
-5.7658811 11.504552 0
-5.8426933 11.657814 0.72836483
-5.7588 11.455847 -0.71618032
-5.7727666 11.483629 0
-5.8346 11.606633 0.72560704
-5.7656169 11.434954 -0.71530926
-5.7561765 11.416231 0
-5.8135262 11.529973 0.7212531
-5.7723956 11.414071 -0.71443868
-5.761744 11.393008 0
-6.3563032 12.568663 0.78670782
-5.7732515 11.381595 -0.71284199
-5.7625542 11.360505 0
-6.3573794 12.533165 0.78496617
-5.7657933 11.332928 -0.71022975
-5.7727404 11.346581 0
-6.3619156 12.504633 0.78366005
-5.7676744 11.302812 -0.70877868
-5.7687011 11.304824 0
-6.3604875 12.464538 0.78162837
-5.7706738 11.275019 -0.70747256
-5.7562733 11.246882 0
-6.3589673 12.424456 0.77959615
-5.7747998 11.249544 -0.7063114
-5.7579761 11.216771 0
-6.3668575 12.402897 0.77872556
-5.7848191 11.235625 -0.70587587
-5.7679501 11.202862 0
-6.3758931 12.383646 0.778
-5.7880535 11.175467 -0.70297307
-5.7614932 11.124184 0
-6.3962407 12.349743 0.7768389
-2.5244911 4.8598518 -0.30589211
-5.7677345 11.103361 0
-6.3860054 12.293584 0.77379107
-2.515954 4.8291445 -0.30415043
-5.7655153 11.066381 0
-6.3888512 12.262818 0.77234
-2.510958 4.8053765 -0.30284432
-5.7608027 11.024806 0
-6.3795962 12.20903 0.76943719
-2.4588497 4.691833 -0.59042066
-2.5095277 4.7885342 -0.30197376
-5.7572093 10.98557 0
-6.3738399 12.162189 0.76696998
-0 0 -0
-2.5068481 4.7693954 -0.30095765
-5.762002 10.962478 0
-6.3861108 12.149874 0.76667941
-0 0 -0
-0 0 -0
-5.7679644 10.941698 0
-6.3947296 12.130657 0.76595384
-0 0 -0
-0 0 -0
-5.7738805 10.920912 0
-6.3838787 12.074683 0.76290607
-0 0 -0
-0 0 -0
-5.7809772 10.902433 0
-6.3887258 12.048595 0.76174492
-2.5025213 4.7126617 -0.59474534
-2.5160289 4.7380991 -0.29965153
-2.5056324 4.7185202 0
-6.391129 12.035554 0.76116437
-2.5045652 4.7027836 -0.59388018
-2.5278583 4.7465205 -0.3003771
-0 0 0
-6.3910146 12.00031 0.75942326
-2.5260861 4.7294106 -0.5976277
-2.5348146 4.7457523 -0.30052209
-2.5231571 4.723927 0
-6.4116297 12.004037 0.76014882
-2.5537803 4.7673898 -0.6028164
-2.5393212 4.7403979 -0.3003771
-2.5300958 4.7231755 0
-6.4224477 11.989407 0.75971329
-2.6072793 4.8531637 -0.6140601
-2.5450473 4.7373261 -0.3003771
-2.5382619 4.7246957 0
-6.4197159 11.949595 0.75768161
-2.6499441 4.9183159 -0.62270832
-2.552001 4.7365327 -0.30052209
-2.5489066 4.7307897 0
-6.4329138 11.939536 0.75753605
-2.4897764 4.6077018 -0.87314206
-2.655885 4.9151106 -0.62270832
-2.5725455 4.7608786 -0.30226377
-2.5570977 4.7322903 0
-2.5169072 4.6579113 0.29572648
-2.5136847 4.6385379 -0.87956035
-2.6716807 4.93009 -0.6250146
-2.5659182 4.7349253 -0.30081263
-2.5665302 4.7360544 0
-2.5188181 4.6480112 0.29529092
-2.5266447 4.6490345 -0.88212895
-2.6887503 4.947309 -0.62760901
-2.5828035 4.7523665 -0.30211875
-2.5834343 4.7535276 0
-2.520709 4.6381125 0.29485539
-2.5408614 4.6617584 -0.88512516
-2.694726 4.9440565 -0.62760901
-2.5773532 4.7287107 -0.30081263
-2.6178236 4.8029623 0
-2.5300434 4.6419106 0.29529092
-2.5612626 4.6857066 -0.89025909
-2.7093785 4.9566774 -0.62962621
-2.5880504 4.7347131 -0.30139321
-2.6760492 4.8957028 0
-2.5443757 4.6548123 0.29630706
-2.5767944 4.7006164 -0.89368284
-2.7153656 4.9533997 -0.62962621
-2.602514 4.7475348 -0.30240932
-2.675709 4.8810577 0
-0 0 0
-2.587419 4.7064977 -0.89539468
-2.7288275 4.9637189 -0.63135654
-2.6082485 4.7443867 -0.30240932
-2.69414 4.9006224 0
-0 0 0
-2.5918658 4.7011218 -0.89496714
-2.7348232 4.9604182 -0.63135654
-2.6152327 4.743505 -0.30255431
-2.7000594 4.8973637 0
-0 0 0
-2.6049948 4.7114615 -0.89753413
-2.7420652 4.9593711 -0.63164455
-2.6234746 4.744885 -0.30284432
-2.707233 4.8963728 0
-0 0 0
-2.6007268 4.6903505 -0.89411038
-2.7505667 4.9605827 -0.63222164
-2.6392863 4.7598915 -0.30400544
-2.7585802 4.9750352 0
-0 0 0
-2.6088898 4.6916957 -0.89496714
-2.7628422 4.9685559 -0.63366288
-2.6412463 4.7498837 -0.30356988
-2.7595305 4.9626002 0
-2.5881574 4.6544118 0.29746816
-2.618309 4.6952682 -0.89625144
-2.7763996 4.9787636 -0.63539207
-2.6507814 4.7534995 -0.30400544
-2.7984779 5.0183554 0
-2.6013703 4.6648932 0.29833871
-2.5964127 4.6428056 -0.88683534
-2.7824135 4.9754052 -0.63539207
-2.6577902 4.7525587 -0.30415043
-2.7715151 4.9559169 0
-2.6057382 4.659481 0.29819372
-2.5417528 4.5322013 -0.86629456
-2.7896872 4.9742932 -0.63568008
-2.6597214 4.7425513 -0.30371544
-2.7851369 4.9661798 0
-2.6164503 4.6653943 0.29877427
-2.4830534 4.4150219 -0.84446949
-2.786824 4.9551444 -0.63366288
-2.6654499 4.7393341 -0.30371544
-2.8000669 4.9786916 0
-2.6144407 4.6486363 0.29790315
-2.4580085 4.3643174 -0.83505499
-2.7999713 4.971489 -0.63596916
-2.675961 4.7513027 -0.30458599
-2.8030744 4.9769988 0
-2.6198013 4.6515884 0.29819372
-2.4506536 4.3389878 -0.83077455
-2.8034298 4.963594 -0.63539207
-2.6817002 4.7480659 -0.30458599
-2.8257229 5.0030646 0
-2.6343613 4.6642509 0.29920927
-2.4356573 4.3002934 -0.82392871
-2.8043265 4.9512005 -0.6342389
-2.6912782 4.7516074 -0.30502155
-2.816375 4.9724727 0
-2.6220694 4.629415 0.29717761
-2.4433846 4.3018074 -0.8247838
-2.810307 4.9478083 -0.6342389
-2.6957357 4.7460947 -0.30487654
-2.8455148 5.0097947 0
-6.52494 11.487767 0.73794377
-2.4422293 4.2877007 -0.82264435
-2.8162835 4.9444089 -0.6342389
-2.7027533 4.7450895 -0.30502155
-2.8270965 4.9633927 0
-6.532382 11.468579 0.73721761
-2.4372227 4.2669144 -0.81922066
-2.8145611 4.9275312 -0.63250971
-2.7123475 4.7485828 -0.30545655
-2.8614867 5.0096855 0
-6.5049987 11.388484 0.73257375
-2.4398272 4.2595153 -0.81836551
-2.820513 4.9241266 -0.63250971
-2.7206688 4.7498159 -0.30574712
-2.863656 4.9994473 0
-6.4942145 11.337773 0.72981596
-2.4347434 4.2387562 -0.81494176
-2.834188 4.9341679 -0.6342389
-2.7264059 4.7465253 -0.30574712
-2.8580298 4.9756751 0
-6.4833226 11.287114 0.72705871
-2.4296129 4.2180157 -0.81151807
-2.8375683 4.9262614 -0.63366288
-2.7295427 4.7387199 -0.30545655
-2.8809254 5.0015326 0
-6.489172 11.265758 0.72618759
-2.438561 4.2217479 -0.81280237
-2.8383439 4.9138703 -0.63250971
-2.7417688 4.746675 -0.30618265
-2.8856661 4.9957967 0
-6.4806862 11.21966 0.72372037
-2.4372232 4.207685 -0.81066132
-2.8429842 4.9082012 -0.63222164
-2.744895 4.7388573 -0.30589211
-2.8864827 4.9832983 0
-6.4694967 11.169106 0.72096312
-2.4307027 4.184761 -0.80681002
-2.854109 4.9137087 -0.63337481
-2.7623637 4.7557573 -0.30719823
-2.8820448 4.9618034 0
-6.4764633 11.150048 0.72023755
-2.4344666 4.179605 -0.80638242
-2.8561378 4.9035492 -0.63250971
-2.7641883 4.7456865 -0.30676323
-2.9299538 5.0302801 0
-6.4703126 11.108532 0.71806031
-2.4265704 4.1544981 -0.80210358
-2.8633637 4.9023261 -0.63279772
-2.7764719 4.7535596 -0.30748877
-2.9215901 5.0020146 0
-6.4758697 11.087248 0.71718979
-2.434181 4.1559892 -0.80295873
-2.8758199 4.9100199 -0.6342389
-2.7835257 4.7524414 -0.30763379
-0 0 0
-6.4669375 11.0413 0.71472251
-2.4300992 4.137548 -0.79996252
-2.8791335 4.9020848 -0.63366288
-2.7840021 4.7401123 -0.30705324
-0 0 0
-6.4526405 10.986428 0.71167475
-2.4337952 4.1323986 -0.79953498
-2.883743 4.8963761 -0.63337481
-2.8015943 4.7568936 -0.30835932
-0 0 0
-6.4579964 10.965185 0.71080363
-2.4335651 4.1206136 -0.79782307
-2.8922853 4.8973379 -0.63395089
-2.8020546 4.7445555 -0.30777878
-0 0 0
-6.4567094 10.932769 0.70920753
-2.4359286 4.1132569 -0.79696798
-2.8929288 4.8849373 -0.63279772
-2.8157325 4.7545853 -0.3086499
-0 0 0
-6.4500527 10.89142 0.7070303
-2.4238584 4.0816188 -0.79140484
-2.8935466 4.8725429 -0.63164455
-2.8294334 4.7645802 -0.30952045
-2.9777105 5.0142694 0
-6.460557 10.879154 0.70674026
-2.4222226 4.0676608 -0.78926539
-2.8954606 4.8623738 -0.63077939
-2.8391781 4.767858 -0.30995601
-2.9850974 5.0129018 0
-6.4577441 10.844549 0.70499861
-2.4271359 4.0647311 -0.78926539
-2.8748183 4.814466 -0.6250146
-2.8449371 4.7644238 -0.30995601
-2.9884813 5.004818 0
-6.4561877 10.812196 0.70340192
-2.4214957 4.0441761 -0.78584164
-2.4740653 4.1319733 -0.53680104
-2.8480196 4.7565198 -0.30966544
-3.0092342 5.0257668 0
-6.4545679 10.77987 0.70180583
-2.4226146 4.0405045 -0.78541243
-2.4725749 4.1238294 -0.53593701
-2.8642573 4.7770882 -0.31111714
-3.0042427 5.01056 0
-6.4503899 10.75814 0.70064473
-0 0 -0
-2.4628947 4.0964532 -0.53276551
-2.8619914 4.7602577 -0.31024602
-3.0035861 4.9957676 0
-6.452673 10.732522 0.69948357
-0 0 -0
-2.4611669 4.0824008 -0.53132433
-2.8798141 4.7768221 -0.31155214
-3.0297768 5.025569 0
-6.4495373 10.698014 0.69774193
-0 0 -0
-2.4306061 4.0207138 -0.78327304
-2.4540563 4.059505 -0.52872998
-2.8855839 4.7733388 -0.31155214
-3.023731 5.001862 0
-6.4503617 10.670202 0.69643581
-2.4421148 4.028748 -0.78541243
-2.454936 4.0498991 -0.52786481
-2.8953917 4.7765169 -0.3119877
-3.0270717 4.9937491 0
-6.4551659 10.649063 0.69556469
-2.4563158 4.041152 -0.78840864
-2.4517698 4.0336728 -0.52613562
-2.8971107 4.7663517 -0.31155214
-3.0249956 4.9767489 0
-6.4518375 10.614619 0.69382358
-2.4531834 4.025033 -0.78584164
-2.4539471 4.0262861 -0.52555847
-2.9082773 4.7717228 -0.31213269
-3.0228827 4.9597607 0
-6.456542 10.593498 0.69295245
-2.4580452 4.0220656 -0.78584164
-2.4574628 4.0211129 -0.52527046
-2.9208198 4.7792974 -0.31285879
-3.0207281 4.9427762 0
-6.4503698 10.554652 0.69092077
-2.4789937 4.0453501 -0.79097563
-2.4650202 4.0225472 -0.52584648
-2.4405642 3.9826388 -0.26090139
-3.0443745 4.9679675 0
-6.4617624 10.544638 0.69077581
-2.5053828 4.0773463 -0.79782307
-0 0 -0
-2.4548986 3.9951866 -0.2619175
-3.0313029 4.9332466 0
-6.4595332 10.512467 0.68917912
-2.5624526 4.1477189 -0.81280237
-2.4646356 3.989387 -0.52267611
-2.4795651 4.0135527 -0.26351362
-3.0527921 4.9414072 0
-6.4630675 10.461456 0.68685687
-2.5742204 4.155529 -0.81494176
-2.4776239 3.9995944 -0.5244053
-2.4953599 4.0282254 -0.26467472
-3.0642426 4.9465647 0
-6.468863 10.442596 0.6861313
-2.5832994 4.1589508 -0.81622446
-2.4865503 4.0031915 -0.52527046
-2.4865174 4.0031385 -0.26322362
-3.0770819 4.9539104 0
-6.4677682 10.412704 0.68468022
-2.5951123 4.166728 -0.81836551
-2.5077944 4.0265298 -0.52872998
-2.4817355 3.9846895 -0.26220751
-2.4350686 3.9097607 0
-6.4611106 10.373999 0.68264794
-2.6001451 4.163589 -0.81836551
-2.5359471 4.0607896 -0.53363067
-2.4631512 3.9442222 -0.25974026
-2.4632246 3.9443395 0
-6.462635 10.34856 0.68148744
-2.6106236 4.169147 -0.82007742
-2.5490854 4.0708714 -0.53535986
-2.9698589 4.7428436 -0.31256825
-2.4969923 3.987679 0
-6.4627194 10.320917 0.68018073
-2.611563 4.1594653 -0.81879306
-2.5622571 4.0809355 -0.53709018
-2.9631536 4.7194481 -0.31126213
-0 0 0
-6.4710441 10.306504 0.67974573
-2.6152205 4.1541367 -0.81836551
-2.5740747 4.0887785 -0.53853136
-2.9730084 4.7224631 -0.31169769
-0 0 0
-6.4668808 10.27229 0.67800409
-2.6229761 4.1553106 -0.81922066
-2.5872946 4.0987844 -0.54026055
-2.9787123 4.7188673 -0.31169769
-2.5155997 3.9852057 0
-6.4681921 10.246891 0.67684293
-2.636235 4.1651573 -0.82178926
-2.5922451 4.095655 -0.54026055
-2.9732947 4.6976995 -0.31053656
-5.756258 9.0946827 0
-2.4854829 3.9269743 0.25958857
-2.6453884 4.1684651 -0.82307196
-2.5944228 4.0881562 -0.53968453
-2.9873199 4.707263 -0.31140712
-5.7644515 9.0833216 0
-2.4944043 3.9305522 0.26002413
-2.6492817 4.1690307 -0.8234995
-2.6052129 4.0996819 -0.54141372
-2.9929533 4.7098479 -0.31169769
-5.7601714 9.0644684 0
-2.50653 3.9443898 0.26103967
-2.6529391 4.1636634 -0.82307196
-2.6073878 4.0921726 -0.54083771
-2.9972417 4.70403 -0.31155214
-5.7641287 9.0465298 0
-2.5154843 3.9479346 0.26147524
-2.6607349 4.1647854 -0.82392871
-2.6151128 4.0933743 -0.54141372
-3.0141151 4.7179232 -0.31271324
-5.7610416 9.0176229 0
-2.5202529 3.9448924 0.26147524
-2.6616099 4.1550808 -0.82264435
-2.6186631 4.0880356 -0.54112571
-3.0198135 4.7142777 -0.31271324
-5.7691288 9.0062761 0
-2.5194113 3.9330921 0.26089469
-2.6763408 4.1669831 -0.82564056
-2.6277955 4.0913992 -0.54199088
-3.0297215 4.7171865 -0.3131488
-5.7701607 8.9839687 0
-2.526973 3.934422 0.26118526
-2.67998 4.161582 -0.82521135
-2.6341362 4.0903935 -0.54227889
-3.0283861 4.702601 -0.31242326
-5.7584667 8.9419813 0
-2.5246868 3.9204361 0.26045913
-2.6905766 4.1669669 -0.82692325
-2.6390767 4.0872078 -0.54227889
-3.0298362 4.6923876 -0.3119877
-5.7636204 8.9262714 0
-2.5364735 3.9283037 0.26118526
-2.7011898 4.1723323 -0.8286351
-2.6538489 4.0992084 -0.54429609
-3.0439794 4.7018147 -0.31285879
-5.7673316 8.9083796 0
-6.459712 9.97785 0.66392624
-2.7006385 4.1604528 -0.82692325
-2.6517599 4.0851531 -0.54285491
-3.0553176 4.7068515 -0.31343937
-5.7695923 8.8883104 0
-6.4675179 9.9634962 0.66349065
-2.6874611 4.1292186 -0.82136005
-2.6651621 4.0949569 -0.54458523
-3.0610027 4.703156 -0.31343937
-5.7675524 8.8617039 0
-6.4724665 9.944788 0.66276515
-2.5423484 3.8959517 -0.77557045
-2.6686907 4.0895615 -0.54429609
-3.0766194 4.7146807 -0.31445491
-5.7725668 8.8460112 0
-6.4674377 9.9108467 0.66102344
-2.4289985 3.7124426 -0.73962283
-2.6750503 4.0885043 -0.54458523
-3.0951166 4.7305269 -0.31576103
-5.7732759 8.8237829 0
-6.4708748 9.8899822 0.66015291
-2.4095464 3.6730177 -0.73234779
-2.6771483 4.0809398 -0.54400808
-3.0994065 4.7246132 -0.31561604
-5.7725134 8.7993917 0
-6.4714179 9.8647747 0.65899175
-2.4055214 3.6572394 -0.72978079
-2.6863427 4.0841866 -0.54487324
-3.1222479 4.7469158 -0.31735772
-5.7745633 8.7793684 0
-6.4776211 9.8482647 0.6584112
-2.4014564 3.6414678 -0.72721219
-2.6912758 4.0809379 -0.54487324
-3.1480062 4.7735047 -0.31938937
-5.7722735 8.7528334 0
-6.4809303 9.8274107 0.65754008
-2.4030256 3.634285 -0.7263571
-2.6990552 4.0819936 -0.54544926
-3.1595044 4.7783675 -0.31996995
-5.7699227 8.7263088 0
-6.4741702 9.791398 0.65565342
-2.4074152 3.6313787 -0.7263571
-2.7111354 4.0895147 -0.54689157
-3.1724534 4.7853727 -0.32069549
-5.7747159 8.7106619 0
-6.4759502 9.7684135 0.65463787
-2.4118013 3.6284671 -0.7263571
-2.7146389 4.0840755 -0.54660243
-3.1710427 4.7707181 -0.31996995
-5.7708278 8.6820002 0
-6.4776788 9.7454319 0.65362173
-2.4104893 3.6170056 -0.7246452
-2.7281806 4.0937104 -0.54833275
-3.1796896 4.7712116 -0.32026049
-5.7712154 8.6598682 0
-6.4822454 9.7267885 0.65289617
-2.4034486 3.5970149 -0.72122145
-2.7245007 4.0775032 -0.54660243
-3.1868947 4.7695246 -0.32040548
-5.7715526 8.6377382 0
-6.4853292 9.7059813 0.6520251
-2.4084735 3.5998254 -0.72207659
-2.728406 4.0780125 -0.54689157
-3.1984422 4.7805524 -0.32127607
-5.7724271 8.627759 0
-6.4796381 9.6847925 0.65086454
-2.4085352 3.590523 -0.7207939
-2.623831 3.9114749 -0.52498245
-3.205668 4.7788482 -0.32142162
-5.7726979 8.6056471 0
-6.4855456 9.6683245 0.65028393
-2.4114354 3.585474 -0.72036469
-2.4221499 3.6014051 -0.48375854
-3.2099857 4.772809 -0.32127607
-5.7700214 8.5792322 0
-6.4783726 9.632453 0.64839727
-2.3764863 3.5243065 -0.94165593
-2.4042897 3.5655386 -0.71694261
-2.4033628 3.5641639 -0.47914588
-3.2099392 4.7603092 -0.32069549
-5.7716565 8.5593109 0
-6.479836 9.6095352 0.64738119
-2.4077835 3.5614288 -0.95235133
-2.4129055 3.5690048 -0.7182253
-2.4076676 3.5612574 -0.47914588
-3.2287855 4.7757988 -0.32200161
-5.7732515 8.5393991 0
-6.4914427 9.6016979 0.64738119
-2.4192121 3.5690312 -0.95516521
-2.4100158 3.555464 -0.71608585
-2.407614 3.5519207 -0.47828072
-3.236016 4.7740512 -0.32214716
-5.7733426 8.5173349 0
-6.4840879 9.5658884 0.64549452
-2.4292355 3.5745115 -0.95741671
-2.4070969 3.5419357 -0.71394646
-2.4031839 3.5361776 -0.4765515
-3.2432413 4.7722845 -0.32229218
-5.7675376 8.4866734 0
-6.4810333 9.5365505 0.64404285
-2.4321234 3.5694759 -0.9568544
-2.4171569 3.5475101 -0.71565831
-2.4045393 3.5289922 -0.47597438
-3.2519288 4.7726531 -0.32258219
-5.7689981 8.4667988 0
-6.4779229 9.5072432 0.64259171
-2.4364347 3.5665345 -0.9568544
-2.4127505 3.5318649 -0.7130897
-2.4088016 3.5260842 -0.47597438
-3.2518303 4.760138 -0.32200161
-5.7660136 8.4404831 0
-6.4806142 9.4865398 0.64172113
-2.4364336 3.557297 -0.95516521
-2.4170163 3.5289469 -0.7130897
-2.3999078 3.5039675 -0.47338003
-3.263453 4.7647805 -0.32258219
-5.7762079 8.4335098 0
-6.4803257 9.4615517 0.64056003
-2.4349768 3.5459719 -0.95291364
-2.4125626 3.5133309 -0.71052271
-2.3997517 3.4946749 -0.47251597
