# .PCD v0.7 - Point Cloud Data file format
VERSION 0.7
FIELDS x y z
SIZE 4 4 4
TYPE F F F
COUNT 1 1 1
WIDTH 1617
HEIGHT 1
VIEWPOINT 0 0 0 1 0 0 0
POINTS 1617
DATA ascii
-5.1637521 9.8967562 -0.62351638
-5.1504574 9.8712759 0
-5.151679 9.8736172 0.62205857
-5.1745028 9.8882093 -0.62337142
-0 0 0
-5.1491485 9.8397579 0.62031692
-0 0 -0
-5.1767869 9.8635435 -0.62221026
-0 0 0
-5.1634469 9.8381262 0.6206069
-0 0 -0
-5.1777196 9.8364182 0
-5.1692801 9.820385 0.61988133
-5.1836267 9.8188381 -0.62017858
-5.185955 9.8232479 0
-5.1787181 9.8095407 0.61959136
-5.179677 9.7827072 -0.61829138
-0 0 0
-5.1893525 9.8009815 0.61944634
-5.1793094 9.7534962 -0.61684024
-5.1925931 9.778512 0
-5.1950946 9.7832232 0.61872023
-5.1788788 9.7243004 -0.61538917
-5.1958399 9.7561493 0
-5.1983652 9.760891 0.61770469
-5.180831 9.6997004 -0.61422801
-5.1978207 9.7315083 0
-5.2003622 9.7362661 0.61654359
-5.1790495 9.6682348 -0.61263138
-0 0 0
-5.1998506 9.7070656 0.61509192
-5.183352 9.6482401 -0.6117608
-5.2065425 9.6914072 0
-5.1943617 9.6687336 0.61306024
-5.1826787 9.6190901 -0.61030912
-5.1984982 9.6484518 0
-5.198648 9.6487293 0.61218965
-5.1807132 9.5876808 -0.60871303
-5.1965423 9.6169748 0
-5.1942453 9.6127243 0.61030298
-5.1836271 9.5654202 -0.60769689
-5.2019601 9.5992508 0
-5.1959524 9.5881643 0.60914189
-5.1827755 9.5363235 -0.60624576
-5.1998887 9.567812 0
-5.1963682 9.5613337 0.60783577
-5.1793718 9.5026751 -0.60450411
-5.2027259 9.5455236 0
-5.197969 9.5367956 0.60667461
-5.1709094 9.4599295 -0.60218185
-5.2005243 9.5141087 0
-5.1945329 9.5031471 0.60493296
-5.1716328 9.4476862 -0.6016013
-5.1962743 9.4927015 0
-5.1965289 9.4931669 0.60449743
-5.1692934 9.4163818 -0.60000521
-5.1939678 9.4613276 0
-5.1929908 9.459548 0.60275573
-5.1706424 9.3919182 -0.59884405
-5.196609 9.4390841 0
-5.1943913 9.4350557 0.60159463
-5.1744485 9.3720102 -0.59797299
-5.1941772 9.4077435 0
-0 0 0
-5.1680727 9.3072357 -0.59463519
-5.1916289 9.349658 0
-5.1970286 9.3593826 0.59796685
-5.1742582 9.2919035 -0.59405464
-5.1965928 9.3320122 0
-5.1931639 9.3258533 0.59622514
-5.1740808 9.2652283 -0.59274852
-5.1939058 9.3007298 0
-5.195559 9.303689 0.59520906
-5.1725731 9.2362938 -0.59129685
-5.1898808 9.2671986 0
-5.1941028 9.2747374 0.59375793
-5.1697373 9.205122 -0.5897007
-5.1959772 9.2518444 0
-5.1951265 9.25033 0.59259683
-5.1655545 9.1717005 -0.58795905
-5.1931076 9.220623 0
-5.1973724 9.2281952 0.59158069
-5.1727982 9.1586628 -0.58752346
-5.1940064 9.1962128 0
-5.1982965 9.2038088 0.59041959
-5.1710572 9.1297998 -0.58607239
-5.1948538 9.171814 0
-5.19661 9.1749153 0.58896846
-5.170536 9.1032124 -0.58476627
-5.1853666 9.129323 0
-5.1935744 9.1437731 0.58737177
-5.1738129 9.0834064 -0.58389515
-5.195107 9.1207914 0
-5.1891866 9.1103973 0.58563012
-5.1757669 9.0613604 -0.58287954
-5.1906347 9.0873899 0
-5.193748 9.0928411 0.58490455
-5.1725039 9.0302954 -0.58128291
-5.1912627 9.0630455 0
-5.1905284 9.0617628 0.58330846
-5.1640019 8.9902477 -0.57910621
-5.186655 9.029685 0
-5.1924129 9.03971 0.58229232
-5.1670771 8.9704876 -0.57823509
-5.1910682 9.0121384 0
-5.1916604 9.0131664 0.5809862
-5.1701164 8.9507418 -0.57736456
-5.1889391 8.9833279 0
-5.194747 8.9933825 0.58011508
-5.1679015 8.921998 -0.57591289
-5.1945724 8.9680433 0
-5.1938896 8.9668646 0.57880896
-5.1682372 8.8977718 -0.57475173
-5.1871023 8.9302502 0
-5.1890588 8.9336195 0.57706732
-5.1685271 8.8735666 -0.57359117
-5.1939631 8.9172363 0
-5.1946182 8.9183617 0.57648677
-5.1700706 8.8516073 -0.57257509
-5.1863551 8.879488 0
-5.1909785 8.8874035 0.57489061
-5.1728802 8.8318958 -0.57170397
-5.1865635 8.855258 0
-5.1885834 8.8587074 0.57343954
-5.1650715 8.8063602 -0.57025284
-5.1787434 8.82967 0
-5.1899896 8.8488445 0.57300395
-5.1625381 8.7777185 -0.56880176
-5.1814947 8.8099508 0
-5.1888232 8.8224115 0.57169783
-5.1652179 8.7580414 -0.56793064
-5.1868477 8.7947168 0
-5.1968369 8.8116541 0.57140726
-5.1612501 8.7271976 -0.56633449
-5.1881957 8.7727604 0
-5.1968989 8.7874756 0.57024616
-5.1625123 8.705308 -0.56531841
-5.1841936 8.741868 0
-5.1969094 8.7633104 0.56908506
-5.1637292 8.6834278 -0.56430227
-5.1814485 8.7132244 0
-5.1955428 8.7369261 0.56777894
-5.1582527 8.6504087 -0.56256115
-5.1813097 8.6890755 0
-5.1887965 8.7016306 0.56589228
-5.1660318 8.6397057 -0.56227058
-5.1784515 8.6604757 0
-5.1939726 8.6864338 0.56531167
-5.1737976 8.6290035 -0.56198061
-5.1808801 8.6408157 0
-5.1924405 8.6600971 0.56400561
-5.1694913 8.5982475 -0.56038392
-5.1779099 8.6122503 0
-5.1895142 8.6315508 0.56255448
-0 0 -0
-5.1718297 8.5786476 -0.55951339
-5.178905 8.5903835 0
-5.1945734 8.6163731 0.56197393
-5.1754661 8.5612669 -0.55878723
-5.1812053 8.5707607 0
-5.192884 8.5900793 0.56066781
-5.1763821 8.5394592 -0.55777168
-5.1794176 8.544466 0
-5.1924839 8.5660219 0.55950665
-5.174551 8.513216 -0.55646557
-5.1856813 8.5315275 0
-5.1947298 8.5464144 0.55863553
-5.1740155 8.4892073 -0.55530447
-5.1810913 8.5008173 0
-5.1955905 8.5246058 0.55761999
-5.1747828 8.4674263 -0.55428833
-5.1818581 8.4790039 0
-5.1950469 8.5005846 0.55645889
-5.1782231 8.4500923 -0.55356282
-5.181221 8.4549847 0
-5.1944528 8.4765768 0.55529779
-5.1734643 8.4194736 -0.55196613
-5.176445 8.424325 0
-5.1965318 8.457015 0.55442721
-5.1781816 8.4043674 -0.55138558
-5.1797957 8.4069872 0
-5.191752 8.4263926 0.55283052
-5.1733141 8.3737946 -0.54978943
-5.1803794 8.385231 0
-5.1910038 8.4024286 0.55166942
-5.1752157 8.3542795 -0.54891831
-5.1767998 8.3568373 0
-5.1902061 8.3784781 0.55050832
-5.1757131 8.3325758 -0.54790276
-5.1772852 8.3351068 0
-5.198956 8.3699961 0.5503633
-5.1789103 8.3152895 -0.5471772
-5.1790948 8.3155861 0
-5.1912088 8.3350363 0.54847664
-5.1738124 8.2847795 -0.54558057
-5.1808705 8.2960815 0
-5.1971459 8.3221436 0.54804111
-5.1769252 8.2675123 -0.544855
-5.1784616 8.2699661 0
-5.1934099 8.2938385 0.54658997
-5.1730914 8.2392406 -0.54340333
-5.1801448 8.250474 0
-5.1937547 8.272151 0.54557383
-5.1670041 8.2185154 -0.54224217
-5.171279 8.2253151 0
-5.1918373 8.2580147 0.54484826
-5.1713934 8.2034817 -0.54166222
-5.1714978 8.2036476 0
-5.1879578 8.2297583 0.54339719
-5.1715822 8.1818495 -0.54064608
-5.1702824 8.1797934 0
-5.1909523 8.2124949 0.54267108
-5.1731157 8.1624222 -0.53977495
-5.1648417 8.1493664 0
-5.1869645 8.1842728 0.54121995
-5.1704335 8.1364298 -0.53846884
-5.167707 8.1321392 0
-5.1898828 8.1670361 0.54049438
-0 0 -0
-5.1704907 8.1148424 -0.53745329
-5.1733327 8.1193027 0
-5.1927671 8.1498041 0.53976882
-5.1649027 8.0845003 -0.5358566
-5.1719303 8.0955009 0
-5.1886187 8.1216221 0.53831714
-5.1662607 8.0651293 -0.53498608
-5.169076 8.0695248 0
-5.1872158 8.0978432 0.53715605
-5.1661711 8.0435743 -0.53396994
-5.174602 8.0567017 0
-5.1899767 8.0806398 0.53643048
-5.1674476 8.0242224 -0.53309935
-5.1716528 8.0307531 0
-5.1898928 8.0590763 0.53541493
-5.1644502 7.9983206 -0.5317927
-5.1686487 8.0048227 0
-5.1883507 8.0353355 0.53425378
-5.1670513 7.9811702 -0.53106713
-5.1698284 7.9854598 0
-5.185348 8.0094318 0.53294766
-5.1667919 7.9596705 -0.53005159
-5.1695585 7.963933 0
-5.1822853 7.9835386 0.53164101
-5.1678987 7.9403505 -0.52918047
-5.172081 7.9467769 0
-5.1777563 7.9554973 0.53018987
-5.1675529 7.9188738 -0.52816492
-5.1703014 7.9230857 0
-5.1816854 7.9405303 0.52960932
-0 0 -0
-5.1700001 7.9017463 -0.52743882
-5.1727424 7.9059377 0
-5.1855855 7.9255662 0.52902877
-5.1681418 7.8781118 -0.52627766
-5.1737294 7.8866296 0
-5.1837559 7.9019132 0.52786767
-5.1642818 7.8309007 -0.523956
-5.1727171 7.8436913 0
-5.1871047 7.8655081 0.52627152
-5.1651382 7.811646 -0.52308488
-5.1735754 7.8244061 0
-5.1865711 7.8440599 0.52525544
-5.1673961 7.7945724 -0.52235931
-5.1729641 7.8029714 0
-5.1831245 7.8182979 0.52394933
-5.1634846 7.7784638 -0.52148879
-5.166163 7.7824988 0
-5.1777864 7.8000088 0.52293319
-5.1642385 7.7592363 -0.52061766
-5.1669083 7.7632475 0
-5.1771336 7.7786107 0.52191764
-5.167841 7.7443447 -0.52003711
-5.1661768 7.7418513 0
-5.1749902 7.7550583 0.52075654
-5.1699715 7.7272987 -0.51931155
-5.166842 7.722621 0
-5.1785769 7.7401609 0.52017599
-5.1474614 7.6735764 -0.51611876
-5.1660252 7.7012496 0
-5.1777916 7.718791 0.51915985
-5.148026 7.6544099 -0.51524764
-5.1651583 7.679883 0
-5.1784163 7.6995959 0.51828933
-5.1427464 7.6266437 -0.51379651
-5.1700678 7.667161 0
-5.178997 7.6804028 0.51741821
-5.1461368 7.6118135 -0.51321596
-5.1691294 7.6458225 0
-5.1839113 7.6676874 0.51698321
-5.1436667 7.5883827 -0.51205486
-5.1696 7.6266418 0
-5.180047 7.6420541 0.5156765
-5.1469898 7.573566 -0.51147431
-5.1656475 7.6010194 0
-5.1775928 7.6185961 0.5145154
-5.1488233 7.5566063 -0.51074874
-5.1660385 7.581872 0
-5.1794801 7.6015997 0.51378983
-5.1550212 7.5460925 -0.51045877
-5.1663847 7.5627265 0
-5.1769357 7.5781713 0.51262873
-5.152389 7.5227075 -0.50929761
-5.1681676 7.5457449 0
-5.1743474 7.5547681 0.51146817
-5.1452932 7.4929118 -0.50770092
-5.1654954 7.5223312 0
-5.1761136 7.5377941 0.51074207
-5.1484494 7.4781284 -0.50712037
-5.1701522 7.5096517 0
-5.1778517 7.5208349 0.5100165
-5.1486278 7.459075 -0.50624985
-5.1703548 7.4905524 0
-5.1795564 7.5038824 0.50929093
-5.1428475 7.4314775 -0.50479817
-5.1690335 7.469317 0
-5.1753125 7.4783902 0.50798482
-5.1459036 7.4167266 -0.50421816
-5.172121 7.4545131 0
-5.1784201 7.4635921 0.50740427
-5.12287 7.3645124 -0.99992436
-5.145956 7.3977003 -0.50334704
-5.169241 7.4311748 0
-5.1755638 7.4402642 0.50624317
-5.12289 7.345592 -0.99819517
-5.1444845 7.3765559 -0.5023309
-5.1663065 7.407846 0
-5.1741443 7.4190841 0.50522703
-5.1228724 7.3266826 -0.99646598
-5.1459503 7.3596888 -0.50160539
-5.164813 7.3866663 0
-5.1741738 7.4000535 0.50435644
-5.1213269 7.3056598 -0.99444765
-5.1473832 7.3428288 -0.50087982
-5.1662669 7.3697672 0
-5.1771455 7.3852854 0.50377589
-5.1197386 7.2846513 -0.99242932
-5.1487823 7.3259764 -0.50015426
-5.1661863 7.35074 0
-5.1756048 7.364141 0.50275981
-5.1210895 7.26789 -0.99098814
-5.1501489 7.3091311 -0.49942869
-5.1660733 7.3317318 0
-5.1755219 7.3451414 0.50188923
-5.109076 7.2415452 -0.98781663
-5.1410832 7.2869115 -0.49812257
-5.163002 7.3179789 0
-5.1739669 7.3335204 0.50130868
-5.1103559 7.2248106 -0.98637545
-5.139379 7.2658424 -0.49710646
-5.1613188 7.2968597 0
-5.175323 7.316658 0.50058311
-5.1175871 7.2165227 -0.98608744
-5.1436439 7.2532663 -0.4966709
-5.1626062 7.2800055 0
-5.1721349 7.2934427 0.49942201
-5.1158104 7.1955757 -0.98406911
-5.1493959 7.2428145 -0.4963809
-5.1668735 7.2673969 0
-5.170403 7.2723618 0.49840587
-5.1184964 7.180964 -0.98291594
-5.141552 7.2133098 -0.49478424
-5.1635661 7.2441945 0
-5.1746659 7.2597671 0.49797088
-5.1181493 7.1621518 -0.98118675
-5.1442208 7.1986356 -0.49420369
-5.1647515 7.227365 0
-5.1713481 7.2365961 0.49680978
-5.1162539 7.1412425 -0.97916842
-5.1423264 7.1776347 -0.49318811
-5.161355 7.2041945 0
-5.1710052 7.2176647 0.49593866
-5.115828 7.1224546 -0.97743922
-5.1434116 7.1608572 -0.49246201
-5.1639833 7.1894979 0
-5.1706305 7.1987524 0.4950681
-5.1138492 7.1015735 -0.97542089
-5.1429529 7.1419897 -0.49159145
-5.1605 7.1663575 0
-5.1732512 7.1840649 0.49448755
-0 0 -0
-5.1088018 7.0765176 -0.97282654
-5.1363721 7.1147065 -0.49014032
-5.1615405 7.1495686 0
-5.1712799 7.1630592 0.49347141
-5.1112828 7.0619583 -0.97167337
-5.1403928 7.1021781 -0.48970476
-5.1625476 7.1327877 0
-5.1707931 7.1441798 0.49260086
-5.1107006 7.0432205 -0.96994418
-5.1398115 7.0833387 -0.48883367
-5.1604619 7.1117978 0
-5.1733174 7.1295142 0.49202031
-5.110075 7.0244865 -0.96821386
-5.1407251 7.0666189 -0.4881081
-5.1583385 7.0908313 0
-5.1712265 7.1085472 0.4910042
-5.1139913 7.012044 -0.96734983
-5.1431351 7.0520043 -0.48752755
-5.1592364 7.0740819 0
-5.167563 7.0854983 0.48984307
-5.1132975 6.9933281 -0.9656195
-5.1439857 7.0352988 -0.48680198
-5.1416688 7.0321307 0
-5.171524 7.0729628 0.48940808
-5.1156273 6.9788003 -0.96446633
-5.1417279 7.0144062 -0.48578587
-5.145545 7.0196137 0
-5.1677766 7.049943 0.48824695
-5.1179295 6.9642768 -0.96331316
-5.1455879 7.0019131 -0.48535088
-5.1493979 7.0070977 0
-5.1716738 7.0374098 0.48781142
-5.1156063 6.9435172 -0.96129596
-5.1463394 6.9852324 -0.48462531
-5.1501441 6.9903965 0
-5.169383 7.01651 0.48679528
-5.1163044 6.9269223 -0.95985365
-5.1486011 6.9706488 -0.48404476
-5.1508574 6.9737034 0
-5.1732306 7.0039945 0.48636028
-5.1108193 6.9020295 -0.9572593
-5.144649 6.9477162 -0.48288363
-5.1437898 6.9465556 0
-5.1708641 6.9831185 0.48534417
-5.1114483 6.8854671 -0.95581812
-5.1452975 6.9310651 -0.48215806
-5.1459746 6.9319763 0
-5.1746497 6.9706039 0.48490861
-5.1120443 6.8689132 -0.95437694
-5.1474633 6.9165049 -0.48157752
-5.1559048 6.9278474 0
-5.1722136 6.9497609 0.48389307
-5.1115556 6.8595996 -0.95351177
-5.1469817 6.9071407 -0.48114195
-5.1523156 6.914299 0
-5.1655416 6.9320478 0.48287693
-5.1074567 6.8368416 -0.95120543
-5.1428828 6.884263 -0.47998086
-5.1497622 6.8934717 0
-5.1630263 6.9112272 0.48186082
-5.1110668 6.8244605 -0.9503414
-5.1434107 6.8676467 -0.47925529
-5.1424842 6.8664093 0
-5.1635866 6.8945866 0.48113528
-5.1115456 6.80794 -0.94890022
-5.1454644 6.8531151 -0.47867474
-5.1429653 6.8497868 0
-5.1625557 6.8758788 0.48026469
-5.1135464 6.7934923 -0.94774705
-5.1412401 6.8302846 -0.47751361
-5.144978 6.8352504 0
-5.1692929 6.8675537 0.48011914
-5.1124001 6.7749171 -0.94601673
-5.141665 6.8136983 -0.47678804
-5.1485348 6.8228025 0
-5.1666355 6.8467894 0.4791036
-5.112782 6.7584233 -0.94457555
-5.1467557 6.8033323 -0.4764975
-5.1473513 6.8041196 0
-5.167068 6.8301821 0.47837803
-5.1115699 6.7398796 -0.94284636
-5.1439857 6.7826219 -0.47548193
-5.1555691 6.797895 0
-5.1674614 6.8135757 0.47765192
-5.1103139 6.7213407 -0.94111603
-5.1380248 6.7577872 -0.47417581
-5.1496043 6.7730174 0
-5.1725483 6.803194 0.47736192
-5.1058884 6.6987042 -0.93880969
-5.1398859 6.7433076 -0.47359526
-5.1451635 6.7502317 0
-5.1681633 6.7804065 0.47620079
-5.1108408 6.6884236 -0.93823367
-5.1417193 6.7288332 -0.47301471
-5.1469955 6.7357383 0
-5.1700416 6.7658982 0.47562024
-0 0 -0
-5.1079068 6.6678686 -0.93621534
-5.1466827 6.7184863 -0.47272414
-5.1440568 6.7150583 0
-5.1608295 6.7369537 0.47402358
-5.1096587 6.6534863 -0.93506217
-5.1437225 6.6978426 -0.4717086
-5.1442366 6.6985116 0
-5.1642227 6.7245364 0.47358859
-5.1082301 6.6350145 -0.93333298
-5.1454711 6.6833868 -0.47112805
-5.1443901 6.681982 0
-5.1644201 6.7079988 0.47286302
-5.111587 6.6062856 -0.93102664
-5.1488862 6.6544919 -0.46996692
-5.1430087 6.6468954 0
-5.1662998 6.6769972 0.47155634
-5.1100512 6.5878382 -0.92929631
-5.1394029 6.6256785 -0.46837023
-5.1510363 6.640676 0
-5.1664023 6.6604857 0.47083077
-5.1084838 6.5694118 -0.92756712
-5.144218 6.615365 -0.46808025
-5.147872 6.6200643 0
-5.1712594 6.6501398 0.47054079
-5.1068802 6.5509992 -0.92583793
-5.1426191 6.5968447 -0.46720913
-5.1510658 6.6076794 0
-5.1665106 6.627492 0.46937966
-5.1147919 6.5448236 -0.92583793
-5.1409893 6.5783458 -0.46633857
-5.1446247 6.5829973 0
-5.1681147 6.6130548 0.46879911
-5.1147161 6.5284524 -0.92439562
-5.140923 6.5619035 -0.46561301
-5.1445518 6.566535 0
-5.1664896 6.5945368 0.46792856
-5.1042933 6.5070477 -0.92180127
-5.1384716 6.5506186 -0.46503246
-5.1340632 6.5449986 0
-5.1608472 6.579143 0.46705744
-5.1041598 6.4907117 -0.92036009
-5.135138 6.5301051 -0.46401635
-5.1435752 6.540834 0
-5.1591587 6.5606513 0.46618688
-5.1071935 6.4784441 -0.91949493
-5.1430244 6.5238957 -0.46401635
-5.1434202 6.5243974 0
-5.1590405 6.5442114 0.46546131
-5.103796 6.4580688 -0.91747773
-5.1412396 6.5054483 -0.46314579
-5.1383905 6.501843 0
-5.1588836 6.5277739 0.46473521
-5.1083803 6.4478388 -0.91690058
-5.1442542 6.4931192 -0.46271023
-5.1446285 6.4935918 0
-5.1603127 6.5133886 0.46415463
-5.1049118 6.4274898 -0.91488338
-5.1391678 6.4706206 -0.4615491
-5.1395221 6.471067 0
-5.161715 6.4990096 0.46357408
-5.1030049 6.4091721 -0.91315305
-5.1405082 6.456275 -0.46096855
-5.1424727 6.4587426 0
-5.163096 6.4846444 0.4629941
-5.1026793 6.3928962 -0.91171187
-5.140202 6.4399066 -0.46024299
-5.1421571 6.4423561 0
-5.162818 6.4682412 0.46226797
-5.1055508 6.3806653 -0.91084671
-5.1431079 6.4276023 -0.45980743
-5.1450582 6.4300399 0
-5.1641364 6.4538827 0.46168742
-5.1067829 6.3664212 -0.90969354
-5.1394882 6.4071927 -0.45879132
-5.1430564 6.4116416 0
-5.1621785 6.4354801 0.46081686
-5.1096144 6.3542047 -0.90882951
-5.1439724 6.3969321 -0.45850131
-5.1426473 6.3952842 0
-5.1634374 6.4211383 0.46023631
-5.1156602 6.3460069 -0.90854037
-5.1402812 6.3765492 -0.4574852
-5.1421995 6.3789287 0
-5.1597753 6.4007316 0.45922017
-5.1151977 6.3297644 -0.90709919
-5.1463504 6.3683143 -0.45734021
-5.1368237 6.3565254 0
-5.1593409 6.3843894 0.45849463
-5.1195889 6.3195634 -0.90652317
-5.1442308 6.3499808 -0.45646966
-5.1379476 6.3422251 0
-5.1637836 6.3741164 0.45820463
-5.1272211 6.3133726 -0.90652317
-5.1404314 6.329639 -0.45545352
-5.1439619 6.3339863 0
-5.1665654 6.3618193 0.45776907
-5.1201506 6.2891226 -0.90392882
-5.1365905 6.3093157 -0.4544374
-5.1433978 6.317677 0
-5.1627636 6.341464 0.45675296
-5.1195641 6.2729063 -0.9024865
-5.139286 6.297071 -0.45400241
-5.1428013 6.3013783 0
-5.1654978 6.3291879 0.45631796
-5.125504 6.2647157 -0.90219849
-5.1419535 6.2848215 -0.45356685
-5.147119 6.2911348 0
-5.1632662 6.3108711 0.45544684
-5.1248703 6.2485204 -0.90075731
-5.1413059 6.2685599 -0.45284128
-5.1497641 6.2788725 0
-5.1642966 6.2965913 0.45486629
-5.1307755 6.2403274 -0.9004693
-5.1455731 6.2583251 -0.45255074
-5.1441245 6.2565632 0
-5.158699 6.2742896 0.45370516
-5.1284385 6.2221441 -0.89873898
-5.1432185 6.2400761 -0.45168018
-5.1450596 6.24231 0
-5.1613231 6.262042 0.45327017
-5.1305518 6.2170515 -0.89845097
-5.1403718 6.228951 -0.45109963
-5.1372328 6.2251477 0
-5.155179 6.2468939 0.45239905
-5.1265178 6.1968956 -0.89643264
-5.13796 6.2107263 -0.45022905
-5.1381154 6.2109146 0
-5.1560979 6.2326517 0.4518185
-5.130703 6.1867185 -0.89585662
-5.1404824 6.1985111 -0.44979352
-5.1439567 6.2027001 0
-5.1603107 6.2224207 0.45152849
-5.1332126 6.1745458 -0.89499146
-5.1346793 6.1763105 -0.44863239
-5.1414685 6.1844769 0
-5.1645002 6.2121811 0.45123792
-5.1257677 6.1504583 -0.89239711
-5.1354842 6.162117 -0.44805184
-5.1422729 6.1702628 0
-5.1636863 6.1959572 0.45051238
-5.1298823 6.1402946 -0.89182109
-5.1345978 6.1459389 -0.44732627
-5.1447172 6.1580515 0
-5.1661696 6.1837292 0.45007682
-5.1289959 6.1241789 -0.89037991
-5.1353469 6.131762 -0.44674572
-5.1421318 6.139863 0
-5.163631 6.1655335 0.44920626
-5.1330628 6.1140113 -0.88980275
-5.1343999 6.1156039 -0.44602016
-5.1428533 6.1256723 0
-5.1577106 6.1433692 0.44804513
-5.1304569 6.0959349 -0.88807356
-5.1367645 6.1034293 -0.4455846
-5.1318159 6.0975494 0
-5.1534224 6.1232219 0.44702959
-5.1311474 6.0818238 -0.88692039
-5.1391072 6.091258 -0.44514903
-5.1341434 6.0853748 0
-5.1624913 6.1189747 0.44717458
-5.1368175 6.0736389 -0.88663125
-5.1397514 6.0771079 -0.44456849
-5.1347704 6.0712185 0
-5.1598101 6.1008248 0.44630346
-5.1324487 6.0536232 -0.88461405
-5.1353331 6.057025 -0.44355291
-5.1370583 6.0590601 0
-5.1621418 6.0886455 0.44586846
-5.1330595 6.0395341 -0.88346088
-5.1392789 6.0468516 -0.44326237
-5.1376343 6.0449162 0
-5.1627636 6.0744839 0.44528791
-5.1302857 6.0215106 -0.88173056
-5.1314168 6.0228381 -0.44195625
-5.1398692 6.0327592 0
-5.1616688 6.0583458 0.44456178
-5.1258039 6.0015454 -0.87971336
-5.1386905 6.0166335 -0.44195625
-5.1454663 6.0245671 0
-5.1622419 6.0442085 0.4439818
-5.1263232 5.9874887 -0.87856019
-5.1341257 5.9966016 -0.44094014
-5.1442809 6.0084629 0
-5.1627817 6.0300713 0.44340125
-5.1268163 5.9734392 -0.87740701
-5.1329074 5.9805365 -0.44021457
-5.1447573 5.9943433 0
-5.1649852 6.0179114 0.44296569
-5.1289678 5.9613562 -0.87654185
-5.136744 5.9703941 -0.43992457
-5.1401134 5.9743109 0
-5.157002 5.9939404 0.44165957
-5.132792 5.951241 -0.87596583
-5.1354704 5.9543462 -0.43919903
-5.1422276 5.9621816 0
-5.1659365 5.9896703 0.44180456
-5.1332126 5.9372082 -0.87481266
-5.1324611 5.9363394 -0.43832791
-5.1341109 5.9382472 0
-5.1629763 5.9716339 0.440934
-5.1317186 5.9282374 -0.8739475
-5.1309433 5.9273415 -0.43789235
-5.134294 5.9312129 0
-5.1597805 5.9606552 0.44035345
-5.1270099 5.9083557 -0.87192917
-5.1364002 5.9191771 -0.43774736
-5.1363382 5.919106 0
-5.1618686 5.9485269 0.43991789
-5.1341453 5.9021564 -0.87192917
-5.1316156 5.8992481 -0.43673179
-5.138361 5.9070024 0
-5.1605272 5.9324846 0.43919232
-5.1259756 5.8784056 -0.86933482
-5.12849 5.881289 -0.43586066
-5.142077 5.8968706 0
-5.1574416 5.9144902 0.4383212
-5.1279731 5.8663712 -0.86847079
-5.1304607 5.8692169 -0.4354251
-5.1389184 5.8788924 0
-5.1594591 5.902391 0.43788621
-5.1265297 5.8504386 -0.86702847
-5.1289878 5.8532438 -0.43469957
-5.142591 5.8687682 0
-5.1563087 5.8844228 0.43701509
-5.1301847 5.8403573 -0.86645246
-5.1309171 5.8411913 -0.43426457
-5.1307845 5.8410401 0
-5.1582689 5.8723292 0.43657953
-5.1286926 5.82445 -0.86501127
-5.1328182 5.8291349 -0.43382901
-5.1395631 5.8367949 0
-5.1567764 5.8563433 0.43585399
-5.1323004 5.8143668 -0.86443412
-5.1381397 5.8209825 -0.43368399
-5.1362753 5.8188701 0
-5.1500926 5.8345237 0.43469286
-5.1238976 5.7907295 -0.86183977
-5.1382818 5.8069854 -0.43310344
-5.1329579 5.8009691 0
-5.1571383 5.8282962 0.43469286
-5.1291761 5.7826009 -0.86155176
-5.1383977 5.7929969 -0.43252289
-5.1365066 5.7908649 0
-5.1590095 5.8162346 0.43425786
-5.1310019 5.7705984 -0.8606866
-5.1315808 5.7712493 -0.43136176
-5.1365829 5.776875 0
-5.1556702 5.7983418 0.43338674
-5.1242032 5.7489481 -0.85838026
-5.1333618 5.7592235 -0.4309262
-5.140099 5.7667823 0
-5.1592183 5.7882323 0.43309674
-5.1225309 5.7331104 -0.85693908
-5.1264668 5.7375154 -0.42976511
-5.1401277 5.7528048 0
-5.1610126 5.7761793 0.43266121
-5.1242757 5.7211347 -0.85607392
-5.1299314 5.7274494 -0.4294751
-5.143599 5.7427087 0
-5.1662564 5.7680054 0.43251619
-5.1294584 5.713016 -0.85578591
-5.1316385 5.7154446 -0.42903954
-5.1453228 5.7306857 0
-5.1610684 5.7482224 0.43150008
-5.1276579 5.683322 -0.85319155
-5.1315107 5.6875925 -0.42787841
-5.1452098 5.7027764 0
-5.1558027 5.7145171 0.42990395
-5.1293144 5.6713653 -0.85232639
-5.1348968 5.677537 -0.42758843
-5.1346431 5.6772571 0
-5.1609559 5.7063503 0.4297584
-5.134428 5.663249 -0.85203838
-5.1330214 5.6616979 -0.4268623
-5.1362538 5.6652627 0
-5.159122 5.6904864 0.42903283
-5.1308331 5.6455603 -0.85030919
-5.132875 5.6478066 -0.42628232
-5.1308413 5.6455688 0
-5.1572576 5.6746359 0.42830729
-5.1324234 5.6336184 -0.84944403
-5.1379404 5.6396742 -0.42613673
-5.1359081 5.6374431 0
-5.160614 5.6645622 0.42801729
-5.1166511 5.6094947 -0.84627253
-5.1273379 5.6212111 -0.42497563
-5.1340499 5.6285691 0
-5.1552749 5.6518388 0.42729118
-5.1164436 5.5956726 -0.84511936
-5.125361 5.6054249 -0.42425007
-5.1338224 5.6146789 0
-5.1533346 5.6360192 0.42656562
-5.1144648 5.5799546 -0.84367818
-5.1268611 5.5934792 -0.42381451
-5.1335688 5.6007977 0
-5.1548719 5.6240396 0.42613006
-5.1177068 5.5699654 -0.84310216
-5.1301036 5.5834575 -0.42352453
-5.1403327 5.5945907 0
-5.1599078 5.6158953 0.42598507
-5.119175 5.5580683 -0.842237
-5.1333289 5.5734358 -0.42323452
-5.1329837 5.573061 0
-5.1561308 5.5981927 0.42511448
-5.1258869 5.5518785 -0.842237
-5.1277189 5.553863 -0.42221841
-5.1326523 5.5592065 0
-5.1558404 5.5843215 0.42453393
-5.1185365 5.5304947 -0.83993065
-5.1308928 5.5438452 -0.42192784
-5.1375999 5.5510921 0
-5.1537609 5.5685544 0.42380837
-5.1181788 5.5167217 -0.83877748
-5.1358218 5.5357385 -0.42178285
-5.1354551 5.5353432 0
-5.1587133 5.5604124 0.42366281
-5.119555 5.5048494 -0.83791232
-5.1354289 5.5219178 -0.42120227
-5.1368208 5.5234146 0
-5.1565824 5.544663 0.42293727
-5.1173859 5.489202 -0.83647114
-5.1332393 5.5062075 -0.42047673
-5.139945 5.5134001 0
-5.1561904 5.5308261 0.42235669
-5.1204863 5.4792385 -0.83589512
-5.1310196 5.49051 -0.41975117
-5.1377201 5.4976802 0
-5.1540003 5.515101 0.42163116
-5.1182632 5.4636111 -0.83445394
-5.1305442 5.4767208 -0.41917062
-5.1425753 5.4895635 0
-5.1624355 5.5107641 0.42177615
-5.1213164 5.4536481 -0.83387679
-5.1318202 5.4648333 -0.41873506
-5.1385188 5.4719667 0
-5.1601982 5.4950528 0.42105058
-5.11904 5.4380412 -0.83243561
-5.134861 5.4548483 -0.41844505
-5.1469088 5.4676466 0
-5.1597099 5.4812455 0.42047003
-5.1238337 5.4299726 -0.8321476
-5.1360965 5.4429684 -0.41800949
-5.1392226 5.446281 0
-5.1556325 5.4636717 0.41959947
-5.1215057 5.4143844 -0.83070642
-5.1319594 5.4254355 -0.41713893
-5.1350727 5.4287271 0
-5.1533041 5.4480014 0.41887391
-5.1244817 5.4044347 -0.83012927
-5.1402974 5.4211144 -0.41728392
-5.1416287 5.4225183 0
-5.1563044 5.4379959 0.41858336
-5.1256604 5.3926125 -0.8292641
-5.1378946 5.4054842 -0.41655838
-5.1374226 5.4049873 0
-5.1539221 5.4223461 0.4178578
-5.1214709 5.3751836 -0.82753491
-5.1372528 5.391747 -0.41597781
-5.1349683 5.3893495 0
-5.1550908 5.4104691 0.41742224
-5.1243858 5.3652468 -0.82695776
-5.1365848 5.3780193 -0.41539726
-5.1378851 5.3793807 0
-5.1580386 5.4004817 0.41713223
-5.121923 5.3497114 -0.82551658
-5.1322942 5.3605437 -0.41452613
-5.1353841 5.363771 0
-5.1591678 5.3886127 0.4166967
-5.1162066 5.3372822 -0.8240754
-5.126543 5.3480649 -0.4138006
-5.1422219 5.3644214 0
-5.15523 5.3779917 0.41611612
-5.1154838 5.3236361 -0.82292223
-5.1275983 5.3362441 -0.41336504
-5.1342745 5.3431916 0
-5.1545229 5.364264 0.41553557
-5.1147351 5.3099999 -0.82176906
-5.1268387 5.3225656 -0.41278502
-5.1353159 5.3313661 0
-5.155591 5.3524156 0.41510001
-5.1211472 5.3038158 -0.82176906
-5.1350694 5.3182344 -0.41293004
-5.138135 5.3214092 0
-5.1530318 5.3368373 0.41437444
-5.120357 5.2901902 -0.82061589
-5.12884 5.2989545 -0.4119139
-5.1337047 5.3039804 0
-5.1558657 5.3268766 0.41408446
-5.1213474 5.2784357 -0.81975186
-5.133431 5.2908902 -0.41176891
-5.1364818 5.2940345 0
-5.1568685 5.3150463 0.4136489
-5.1205082 5.2648268 -0.81859869
-5.1325736 5.2772326 -0.41118836
-5.1410623 5.2859602 0
-5.1578503 5.3032212 0.41321334
-5.1214476 5.253078 -0.81773353
-5.1353149 5.2673025 -0.41089779
-5.1329112 5.2648368 0
-5.1569986 5.2895432 0.41263279
-5.1241717 5.2431831 -0.81715637
-5.1289678 5.2480903 -0.40988225
-5.1356344 5.2549119 0
-5.1579428 5.2777381 0.41219777
-5.1232634 5.2295971 -0.81600326
-5.1298485 5.2363191 -0.40944669
-5.1365151 5.2431235 0
-5.1588593 5.2659316 0.41176221
-5.1205192 5.2141776 -0.81456202
-5.1307082 5.2245531 -0.40901113
-5.1355524 5.229486 0
-5.1542978 5.2485743 0.41089165
-5.1195574 5.2006135 -0.81340885
-5.1279044 5.2090926 -0.40828556
-5.1290855 5.2102928 0
-5.1606359 5.2423425 0.41089165
-5.1222076 5.1907454 -0.81283283
-5.130548 5.1991973 -0.40799558
-5.129899 5.1985393 0
-5.1523657 5.2213068 0.40973055
-5.1193829 5.1753602 -0.81139165
-5.1331682 5.1892958 -0.40770501
-5.1325126 5.188633 0
-5.1531868 5.2095332 0.40929499
-5.1219869 5.1654935 -0.8108145
-5.1357794 5.1794028 -0.407415
-5.1296177 5.1731892 0
-5.15765 5.2014594 0.40915
-5.1191096 5.1501307 -0.80937332
-5.1402035 5.1713524 -0.40727001
-5.1321921 5.1632924 0
-5.1511068 5.1823215 0.40813386
-5.1235046 5.1421108 -0.80908531
-5.1372728 5.1559291 -0.40654388
-5.134757 5.1534038 0
-5.1518607 5.1705699 0.4076983
-5.1224031 5.1285963 -0.80793214
-5.1416645 5.147881 -0.40639889
-5.1317859 5.1379905 0
-5.15627 5.1625042 0.40755332
-5.113956 5.1077805 -0.8056258
-5.1313362 5.1251402 -0.40509278
-5.1306252 5.1244297 0
-5.1551504 5.1489248 0.40697277
-5.1127954 5.094295 -0.80447263
-5.1283236 5.1097674 -0.40436721
-5.1331224 5.1145492 0
-5.15769 5.1390276 0.40668276
-5.118947 5.0881138 -0.80447263
-5.1252813 5.0944099 -0.40364167
-5.1319156 5.1010041 0
-5.1565242 5.1254644 0.40610221
-5.1195793 5.0764594 -0.80360746
-5.131433 5.0882134 -0.40364167
-5.1380754 5.0947995 0
-5.1608701 5.1174026 0.40595719
-5.1171374 5.0679107 -0.80274343
-5.1308103 5.0814519 -0.4033511
-5.1300611 5.0807099 0
-5.1528797 5.1033092 0.4050861
-5.1195741 5.0580845 -0.80216628
-5.1295524 5.0679436 -0.40277055
-5.1324973 5.0708528 0
-5.1553493 5.09343 0.40479609
-5.1146326 5.0410047 -0.80043709
-5.1227231 5.0489788 -0.40175498
-5.131207 5.0573401 0
-5.1540971 5.0799012 0.40421551
-5.1151853 5.0293794 -0.79957193
-5.1362243 5.0500655 -0.40233499
-5.1280298 5.0420079 0
-5.1583734 5.0718427 0.40406996
-5.1194139 5.0213852 -0.79928392
-5.1293426 5.0311241 -0.40131944
-5.1304059 5.032167 0
-5.1552243 5.05651 0.40334442
-5.1180825 5.0079603 -0.79813075
-5.1298447 5.0194688 -0.40088388
-5.1327586 5.0223203 0
-5.1594748 5.0484619 0.4031994
-5.1148772 4.9927406 -0.79668957
-5.1247525 5.0023799 -0.40001333
-5.1276531 5.0052114 0
-5.1581335 5.0349636 0.40261886
-5.1209064 4.9865565 -0.79668957
-5.1270666 4.9925551 -0.39972275
-5.133697 4.9990115 0
-5.1586266 5.0232873 0.40218329
-5.1195068 4.9731565 -0.7955364
-5.1256399 4.9791141 -0.39914221
-5.1285367 4.9819283 0
-5.1591067 5.0116239 0.4017483
-5.1180825 4.9597673 -0.79438323
-5.12606 4.9674978 -0.39870721
-5.1326785 4.9739113 0
-5.1558299 4.996347 0.40102273
-5.1240721 4.9535794 -0.79438323
-5.1301847 4.9594889 -0.39856163
-5.1255922 4.955049 0
-5.1581235 4.9864979 0.40073219
-5.1207466 4.9384089 -0.79294205
-5.130568 4.9478803 -0.39812663
-5.1315756 4.9488525 0
-5.1248689 4.9423842 0.3976844
-5.1211162 4.926836 -0.79207689
-5.1327939 4.9380708 -0.39783609
-5.1300497 4.935431 0
-5.130837 4.9361882 0.3976844
-5.1233301 4.9170594 -0.79149973
-5.133131 4.926466 -0.39740053
-5.1266232 4.9202199 0
-5.1292987 4.9227877 0.39710385
-5.1217942 4.9037104 -0.79034662
-5.1409621 4.9220619 -0.39754608
-5.1250453 4.9068227 0
-5.1352429 4.9165864 0.39710385
-5.1167784 4.8752627 -0.78775221
-5.1321464 4.8899055 -0.39594942
-5.136888 4.8944235 0
-5.1414642 4.8987832 0.39666829
-5.1170468 4.8637357 -0.78688818
-5.1305175 4.8765397 -0.39536884
-5.1314764 4.8774514 0
-5.1323195 4.8782525 0.39550772
-5.1116548 4.846868 -0.78515786
-5.1307473 4.8649716 -0.39493328
-5.1392531 4.8730364 0
-5.1382103 4.8720479 0.39550772
-5.1175075 4.8406882 -0.78515786
-5.1271853 4.8498421 -0.39420775
-5.1281233 4.8507295 0
-5.1422 4.8640447 0.39536217
-5.1177077 4.829174 -0.78429276
-5.1273775 4.8382988 -0.39377272
-5.1320896 4.8427448 0
-5.1310663 4.8417797 0.39405605
-5.1149831 4.8207645 -0.78342867
-5.1246247 4.8298516 -0.39333719
-5.119863 4.8253636 0
-5.1245379 4.8297696 0.39333048
-5.1113839 4.8057237 -0.78198749
-5.1285658 4.821878 -0.39319217
-5.12569 4.8191738 0
-5.1284785 4.8217959 0.3931855
-5.117187 4.7995439 -0.78198749
-5.1343884 4.8156776 -0.39319217
-5.1220198 4.8040767 0
-5.1324077 4.8138199 0.39304048
-5.115428 4.7862887 -0.78083432
-5.1288152 4.7988148 -0.39232105
-5.127821 4.7978845 0
-5.1306305 4.8005133 0.39245993
-0 0 -0
-5.1174221 4.7765713 -0.78025717
-5.1270118 4.785522 -0.3917405
-5.1298132 4.788137 0
-5.1345224 4.7925324 0.39231437
-5.1175094 4.7650948 -0.77939206
-5.1289907 4.7757854 -0.39145049
-5.1336846 4.7801561 0
-5.1327028 4.779242 0.39173383
-5.1156831 4.7518663 -0.77823889
-5.1233311 4.7589707 -0.3905794
-5.1299248 4.7650952 0
-5.1327677 4.7677364 0.3912988
-5.1195254 4.7439256 -0.77795082
-5.1233649 4.7474833 -0.39014438
-5.1318645 4.7553592 0
-5.1309009 4.7544661 0.39071825
-5.1157594 4.7289591 -0.77650964
-5.1290975 4.7412891 -0.39014438
-5.1318717 4.7438531 0
-5.1251898 4.7376766 0.38984713
-5.1157637 4.7175126 -0.77564454
-5.1309986 4.7315617 -0.38985384
-5.1280355 4.7288294 0
-5.1270938 4.7279611 0.38955712
-5.1157546 4.7060795 -0.77478045
-5.1309733 4.7200789 -0.38941827
-5.1203365 4.7102942 0
-5.1270642 4.7164831 0.38912159
-5.1195264 4.6981406 -0.77449137
-5.1309347 4.7086101 -0.38898328
-5.1260242 4.7041039 0
-5.1289339 4.7067742 0.38883159
-5.1194816 4.686717 -0.77362728
-5.1308689 4.6971416 -0.38854772
-5.1221085 4.6891217 0
-5.1307807 4.6970606 0.38854101
-5.1175013 4.6735506 -0.77247411
-5.1307826 4.6856799 -0.38811216
-5.1277704 4.682929 0
-5.1326184 4.6873565 0.38825104
-5.1154966 4.6603961 -0.77132094
-5.1326027 4.6759806 -0.38782215
-5.1334252 4.6767302 0
-5.132514 4.6759 0.38781548
-5.1096358 4.6437707 -0.76959068
-5.1305571 4.6627851 -0.3872416
-5.1294446 4.6617737 0
-5.1323895 4.6644502 0.38737991
-5.115243 4.6375937 -0.76959068
-5.1304107 4.6513448 -0.38680604
-5.1254354 4.6468339 0
-5.1322522 4.6530147 0.38694492
-5.1150937 4.6262097 -0.76872659
-5.1244678 4.6346874 -0.38593549
-5.1291103 4.6388869 0
-5.1320877 4.6415792 0.38650936
-5.1110797 4.6113639 -0.76728541
-5.1262016 4.6250076 -0.38564491
-5.1269827 4.6257124 0
-5.1319027 4.6301513 0.3860738
-5.1185684 4.6069136 -0.76757342
-5.1317863 4.6188102 -0.38564491
-5.1248307 4.6125498 0
-5.1297679 4.6169934 0.38549322
-5.1164331 4.5938134 -0.76642025
-5.1354322 4.6108718 -0.38549992
-5.1226621 4.5994062 0
-5.1295481 4.6055889 0.38505822
-5.1142735 4.5807252 -0.76526707
-5.1332574 4.5977287 -0.38491938
-5.1320891 4.5966825 0
-5.1234922 4.5889821 0.3841871
-5.1178775 4.5728207 -0.76497906
-5.1271868 4.5811386 -0.38404882
-5.1318154 4.5852742 0
-5.130969 4.584518 0.38433212
-5.1156759 4.5597496 -0.76382589
-5.1249595 4.5680242 -0.38346824
-5.1315298 4.5738802 0
-5.128746 4.5713987 0.38375157
-5.1145625 4.553215 -0.76324874
-5.1218939 4.559742 -0.38303268
-5.1284585 4.5655861 0
-5.1334529 4.5700321 0.38389713
-5.1142569 4.5418777 -0.76238364
-5.1176872 4.5449243 -0.38230714
-5.1203485 4.5472875 0
-5.1292515 4.5551939 0.38317099
-5.1158729 4.5322676 -0.76180756
-5.1251183 4.5404587 -0.38245213
-5.1297388 4.5445518 0
-5.1289225 4.5438285 0.382736
-5.1135931 4.5192318 -0.76065439
-5.1247578 4.5290985 -0.38201657
-5.1313224 4.5349002 0
-5.1246758 4.529026 0.38201043
-5.11905 4.5130496 -0.76065439
-5.1282792 4.5211864 -0.38187158
-5.1250887 4.5183735 0
-5.1242948 4.517674 0.3815749
-5.1167302 4.5000281 -0.75950122
-5.1259336 4.5081224 -0.38129103
-5.1188154 4.501862 0
-5.1199961 4.5029001 0.38084933
-5.1202216 4.4921384 -0.75921321
-5.1313772 4.5019255 -0.38129103
-5.1301222 4.5008245 0
-5.1293359 4.5001345 0.38113934
-5.1198049 4.4808364 -0.75834805
-5.1250849 4.4854574 -0.38042045
-5.1218462 4.4826231 0
-5.1269484 4.4870882 0.38055876
-5.1174216 4.4678426 -0.75719488
-5.1265821 4.4758401 -0.3801299
-5.1194172 4.4695845 0
-5.1323662 4.4808898 0.38055876
-5.1150146 4.4548612 -0.75604171
-5.1261139 4.4645276 -0.37969491
-5.1208925 4.45998 0
-5.1221008 4.4610324 0.37939766
-5.114542 4.443593 -0.75517768
-5.1256185 4.4532161 -0.37925935
-5.1262779 4.4537892 0
-5.1294546 4.4565496 0.37954322
-5.1140418 4.4323263 -0.75431252
-5.1270647 4.4436126 -0.37896878
-5.1316557 4.4475918 0
-5.128943 4.445241 0.37910765
-5.1096129 4.4176869 -0.75287133
-5.130466 4.4357166 -0.37882379
-5.1311178 4.4362803 0
-5.1284118 4.4339404 0.37867209
-5.1169038 4.4131975 -0.75315934
-5.1259856 4.4210305 -0.37809822
-5.1246538 4.4198818 0
-5.1278605 4.4226475 0.37823653
-5.1143899 4.4002638 -0.75200617
-5.1332917 4.4165263 -0.37824324
-5.1299906 4.4136863 0
-5.123354 4.4079766 0.37751096
-5.1177421 4.3923979 -0.75171816
-5.1327147 4.4052486 -0.37780824
-5.1293936 4.4023981 0
-5.1286764 4.4017825 0.37751096
-5.1171494 4.3811631 -0.750853
-5.1321106 4.3939719 -0.37737268
-5.1268015 4.3894267 0
-5.1280756 4.3905177 0.37707597
-5.1145725 4.3682575 -0.74969983
-5.1275387 4.3793316 -0.37664711
-5.1281476 4.3798518 0
-5.1313953 4.3826256 0.37693042
-5.1178799 4.3603988 -0.74941182
-5.1268907 4.3680754 -0.37621155
-5.1294699 4.3702731 0
-5.1267996 4.3679981 0.37620488
-5.1132927 4.3458381 -0.74797064
-5.1242452 4.3551464 -0.375631
-5.1268148 4.3573303 0
-5.1281176 4.3584375 0.37591487
-5.1106486 4.3329659 -0.74681747
-5.1215758 4.3422303 -0.37505043
-5.1300931 4.3494511 0
-5.1234646 4.3438315 0.37518874
-5.1138997 4.3251123 -0.74652839
-5.1307831 4.3393912 -0.37534043
-5.1273961 4.3365269 0
-5.1306992 4.3393202 0.37533429
-5.1131973 4.313931 -0.7456643
-5.1260943 4.3248124 -0.37461489
-5.1306453 4.3286519 0
-5.1279945 4.3264155 0.37475374
-5.1243372 4.3127413 -0.74652839
-5.1333098 4.3202929 -0.37476045
-5.1199422 4.3090429 0
-5.1272521 4.3151946 0.37431818
-5.1236072 4.3015618 -0.7456643
-5.1405149 4.3157568 -0.37490544
-5.1311269 4.3078752 0
-5.1284862 4.3056579 0.37402818
-5.1202574 4.2934785 -0.74479914
-5.1331677 4.3043036 -0.37417987
-5.1357207 4.3064446 0
-5.1211252 4.2942061 0.37330207
-5.117506 4.2806506 -0.74364597
-5.1303921 4.2914295 -0.37359932
-5.1309414 4.2918887 0
-5.1303005 4.2913527 0.37359264
-5.1187067 4.271153 -0.74306995
-5.1255927 4.2768989 -0.37287322
-5.1261344 4.2773509 0
-5.1195211 4.2718325 0.37243152
-5.117898 4.2599993 -0.74220479
-5.1227756 4.2640591 -0.3722932
-5.131299 4.2711535 0
-5.1186857 4.2606549 0.37199596
-5.1190581 4.2505045 -0.74162769
-5.1259193 4.2562017 -0.37214765
-5.1304474 4.2599611 0
-5.1218328 4.2528086 0.37185097
-5.1122422 4.2344198 -0.73989844
-5.125061 4.2450371 -0.37171265
-5.1295762 4.2487769 0
-5.1249685 4.2449608 0.37170595
-5.1133709 4.2249475 -0.73932242
-5.1281776 4.2371812 -0.3715671
-5.134706 4.2425756 0
-5.1280928 4.2371116 0.37156096
-5.1164708 4.2171164 -0.73903334
-5.127284 4.2260284 -0.37113211
-5.1237626 4.2231264 0
-5.1191707 4.2193418 0.37054485
-5.1195664 4.2092896 -0.73874527
-5.1323867 4.21983 -0.37113211
-5.130878 4.2185898 0
-5.1222601 4.2115045 0.37039983
-5.1217165 4.1903543 -0.7375921
-5.1304984 4.1975393 -0.37026098
-5.1249437 4.1929946 0
-5.1203523 4.1892381 0.36952874
-5.1187606 4.1776209 -0.73643893
-5.1315446 4.1880541 -0.36997098
-5.1138763 4.1736345 0
-5.1274214 4.1846895 0.36967373
-5.1197968 4.16817 -0.73586291
-5.1325669 4.1785665 -0.3696804
-5.129005 4.1756663 0
-5.128448 4.1752129 0.36938372
-5.1167984 4.1554585 -0.73470974
-5.1275287 4.1641726 -0.36895487
-5.14819 4.1809521 0
-5.1334891 4.169013 0.36938372
-5.1097536 4.1395011 -0.73297948
-5.1244807 4.1514316 -0.36837432
-5.1350327 4.1599798 0
-5.1324635 4.1578989 0.36894816
-5.1127419 4.1316996 -0.73269141
-5.1315122 4.1468682 -0.36851931
-5.1481519 4.160315 0
-5.1334457 4.1484308 0.36865816
-5.1096759 4.1190257 -0.73153824
-5.128427 4.1341414 -0.36793876
-5.1410222 4.1442947 0
-5.1323838 4.137331 0.36822262
-5.1025591 4.103127 -0.72980905
-5.1273494 4.1230617 -0.36750373
-5.1500783 4.1413383 0
-5.1313024 4.1262403 0.36778706
-5.083302 4.0775375 -0.72634953
-5.1242199 4.1103597 -0.36692318
-5.1408739 4.1237183 0
-5.1322341 4.1167884 0.36749706
-5.053895 4.0439224 -0.72144884
-5.1291828 4.1041651 -0.36692318
-5.1438227 4.1158791 0
-5.1270623 4.1024685 0.36677149
-5.0426054 4.0249047 -0.7191425
-5.1321092 4.0963449 -0.36677819
-5.1447201 4.1064105 0
-5.1320157 4.0962701 0.36677149
-5.0454435 4.0171995 -0.71885449
-5.1350164 4.0885177 -0.36663264
-5.1456103 4.0969524 0
-5.1247606 4.0803518 0.36590037
-5.0482707 4.0094929 -0.71856648
-5.1236749 4.0693812 -0.36547151
-5.1485128 4.0891085 0
-5.1317277 4.0757775 0.36604592
-5.061213 4.0098085 -0.71971858
-5.1265535 4.0615754 -0.36532652
-5.1391768 4.0715766 0
-5.1325717 4.0663433 0.36575538
-5.0782337 4.0133157 -0.72144884
-5.1192293 4.0457144 -0.36445597
-2.5817161 2.040324 0
-5.1395178 4.0617485 0.36590037
-5.0948715 4.0214663 -0.72346717
-5.1216726 4.0426207 -0.36445597
-2.5788589 2.0355358 0
-5.1338124 4.0522027 0.36531982
-5.0976887 4.0137024 -0.72317809
-5.1204267 4.0316052 -0.36402041
-2.5997252 2.0469127 0
-5.132586 4.0411792 0.36488482
-5.0984707 4.0043478 -0.72260201
-5.1293855 4.0286283 -0.36431095
-2.5919571 2.0357277 0
-5.1313329 4.030158 0.36444926
-5.0971951 3.9933975 -0.72173685
-5.1281114 4.0176187 -0.36387539
-2.5964696 2.034204 0
-5.1300602 4.0191455 0.3640137
-5.0897927 3.9776826 -0.72000766
-5.1247725 4.0050192 -0.36329484
-2.617379 2.0454865 0
-5.1328673 4.0113454 0.36386871
-5.0905118 3.9683461 -0.71943057
-5.1234579 3.9940298 -0.36285928
-2.6157396 2.0391192 0
-5.1356635 4.0035443 0.3637237
-5.0891833 3.9574337 -0.71856648
-5.1282802 3.9878361 -0.36285928
-2.6223145 2.0391552 0
-5.1281857 3.9877625 0.3628526
-5.0919118 3.9496918 -0.71827739
-5.1248822 3.9752662 -0.36227873
-2.6288853 2.0391724 0
-5.130949 3.9799721 0.36270759
-5.098732 3.9451237 -0.71856648
-5.1235147 3.964299 -0.36184317
-5.1320624 3.9709127 0
-5.1337013 3.9721808 0.3625626
-5.109632 3.9436963 -0.71943057
-5.1241908 3.9549332 -0.36155316
-5.1368566 3.9647088 0
-5.1323242 3.9612105 0.36212704
-5.1102986 3.9343667 -0.71885449
-5.1248522 3.9455714 -0.36126316
-5.1437039 3.9600852 0
-5.1371069 3.9550061 0.36212704
-5.1150489 3.928189 -0.71885449
-5.1275487 3.937789 -0.3611176
-5.1443529 3.9506938 0
-5.1356974 3.9440465 0.36169147
-5.1115785 3.915714 -0.71770132
-5.126121 3.9268544 -0.36068261
-5.1387949 3.9365633 0
-5.1280866 3.9283602 0.36082092
-0 0 -0
-5.1121917 3.9063911 -0.71712422
-5.1267285 3.9174993 -0.36039206
-5.137342 3.9256091 0
-5.134892 3.923737 0.36096591
-5.1148529 3.8986447 -0.71683615
-5.1293941 3.9097281 -0.36024705
-5.1338024 3.9130883 0
-5.1292987 3.9096553 0.36024037
-5.1113243 3.8861997 -0.71568298
-5.1341143 3.9035273 -0.36024705
-5.1468139 3.9131827 0
-5.1298857 3.9003124 0.35995036
-5.1098318 3.8753304 -0.71481788
-5.1326141 3.8926089 -0.35981148
-5.1432438 3.9006705 0
-5.1325188 3.8925364 0.35980481
-5.1083283 3.8644767 -0.71395379
-5.1248841 3.877001 -0.35894093
-5.1458797 3.8928845 0
-5.137218 3.8863318 0.35980481
-5.108861 3.8551824 -0.7133767
-5.1274929 3.8692422 -0.35879594
-5.1401949 3.8788271 0
-5.1315413 3.8722973 0.35907924
-5.1093864 3.8458986 -0.71280062
-5.1300821 3.8614767 -0.35865039
-5.1448779 3.8726134 0
-5.1403728 3.8692224 0.35936981
-5.1078224 3.8350616 -0.71193546
-5.1305923 3.8521578 -0.35836038
-5.1391497 3.8585825 0
-5.1346483 3.8552032 0.35864368
-5.1103845 3.827338 -0.71164745
-5.126924 3.839725 -0.35777983
-5.141727 3.8508115 0
-5.1268282 3.8396533 0.35777313
-5.1087871 3.816515 -0.71078229
-5.1315598 3.8335273 -0.35777983
-5.1359453 3.8368037 0
-5.129384 3.831902 0.35762814
-5.113163 3.8149729 -0.71107036
-5.127625 3.8257632 -0.35734427
-5.1445222 3.8383703 0
-5.133779 3.8303547 0.35777313
-5.1094689 3.8026152 -0.70991719
-5.1280789 3.8164649 -0.35705426
-5.1470704 3.8305993 0
-5.1279826 3.8163934 0.35704756
-5.1140599 3.7964385 -0.70991719
-5.12851 3.8071654 -0.35676369
-5.1516953 3.8243771 0
-5.1325903 3.8101945 0.35704756
-5.1103292 3.7840996 -0.70876402
-5.1289339 3.7978761 -0.35647371
-5.154223 3.8166022 0
-5.1351042 3.8024452 0.35690257
-5.1107407 3.7748516 -0.70818794
-5.1251583 3.7855008 -0.35589314
-5.1232452 3.7840877 0
-5.1313343 3.7900624 0.35632202
-5.1048884 3.7610042 -0.70674676
-5.1255407 3.7762198 -0.35560259
-5.1299071 3.7794368 0
-5.1212645 3.7730691 0.35530588
-5.107347 3.7533031 -0.70645875
-5.1196327 3.7623315 -0.35487702
-5.1260819 3.767071 0
-5.1258197 3.7668784 0.35530588
-5.1118784 3.747129 -0.70645875
-5.1241751 3.7561429 -0.35487702
-5.1306295 3.7608743 0
-5.134563 3.7637575 0.35559645
-5.1080503 3.734843 -0.70530558
-5.1266141 3.7484162 -0.35473204
-5.1246681 3.7469933 0
-5.1265173 3.7483456 0.35472533
-5.1062884 3.7240946 -0.70444041
-5.1269369 3.7391539 -0.35444146
-5.1312923 3.7423306 0
-2.7504275 2.005929 0.19014582
-5.1107845 3.717922 -0.70444041
-5.1230459 3.7268417 -0.35386091
-5.1210771 3.7254093 0
-2.7780645 2.0209475 0.1918875
-5.115273 3.7117438 -0.70444041
-5.1275454 3.7206488 -0.35386091
-5.1192613 3.7146378 0
-2.774193 2.0130095 0.19145194
-5.1155596 3.7025244 -0.70386332
-5.1257286 3.7098844 -0.35342592
-5.130065 3.7130227 0
-2.7808292 2.0127001 0.19174193
-5.1095462 3.6887722 -0.70242214
-5.1281028 3.7021687 -0.3532809
-5.1303315 3.7037776 0
-2.7811544 2.0078192 0.19159694
-5.1119027 3.6810856 -0.70213407
-5.1262445 3.6914129 -0.35284534
-5.1284652 3.693012 0
-2.7814717 2.0029402 0.19145194
-5.107944 3.6688704 -0.7009809
-5.1222591 3.6791527 -0.35226479
-5.1287003 3.683779 0
-2.78389 1.9995779 0.19145194
-5.1102729 3.661191 -0.70069289
-5.1245909 3.6714487 -0.3521198
-5.1246853 3.6715167 0
-2.7799652 1.9916712 0.19101638
-5.1104803 3.652003 -0.7001158
-5.1226788 3.6607203 -0.35168424
-5.141818 3.6743977 0
-2.7866018 1.9913352 0.19130693
-5.1085768 3.641326 -0.69925171
-5.1292124 3.6560347 -0.35182923
-5.1229486 3.6515701 0
-2.8038116 1.9985198 0.19232249
-5.1108584 3.6336474 -0.69896263
-5.1293945 3.6468258 -0.35153925
-5.1231108 3.6423585 0
-2.8316374 2.0131984 0.19406417
-5.1131377 3.6259747 -0.69867462
-5.125319 3.634613 -0.35095868
-5.1211376 3.6316478 0
-2.9548821 2.0954506 0.20233698
-5.1154056 3.6183016 -0.69838655
-5.1297069 3.6284173 -0.35095868
-5.1212769 3.6224544 0
-2.9786217 2.1068811 0.20378809
-5.1049781 3.6016791 -0.69636828
-5.1234736 3.614728 -0.35023314
-5.1256499 3.6162636 0
-2.9917793 2.110769 0.20451365
-5.1071529 3.5985942 -0.69636828
-5.1214042 3.6086357 -0.34994256
-5.1278338 3.6131663 0
-3.0058029 2.1179442 0.20538476
-5.1009188 3.5849857 -0.69492704
-5.1215129 3.5994596 -0.34965256
-5.1343231 3.6084628 0
-3.0189874 2.1217799 0.20611033
-5.1053319 3.5696869 -0.69435102
-5.1301966 3.5870724 -0.34965256
-5.1281047 3.5856097 0
-3.024106 2.1144779 0.20611033
-5.1053944 3.5605536 -0.69377393
-5.1281309 3.5764103 -0.349217
-5.1324334 3.5794108 0
-3.0245295 2.1093373 0.20596533
-5.1075716 3.5529065 -0.69348586
-5.1281781 3.5672407 -0.34892645
-5.1324778 3.5702314 0
-3.0228057 2.1027107 0.20567477
-5.1139841 3.5482054 -0.69377393
-5.1324849 3.5610418 -0.34892645
-5.1239624 3.5551288 0
-3.0210786 2.0960972 0.20538476
-5.1097603 3.5361362 -0.69262075
-5.1303802 3.5504057 -0.34849146
-5.1261082 3.5474496 0
-3.0385597 2.1027915 0.20640032
-5.1140289 3.5299594 -0.69262075
-5.1282487 3.5397744 -0.3480559
-5.1261115 3.5382993 0
-3.0282714 2.0902648 0.20552976
-5.1140342 3.5208468 -0.69204468
-5.1282458 3.5306313 -0.34776589
-5.1260915 3.5291483 0
-3.0329332 2.0880764 0.20567477
-5.109756 3.5088086 -0.6908915
-5.12608 3.5200181 -0.34733033
-5.1282091 3.5214801 0
-3.0268857 2.0785265 0.2050942
-5.1139917 3.5026319 -0.6908915
-5.1281877 3.5123546 -0.34718534
-5.12817 3.5123427 0
-3.0122445 2.0631211 0.20393309
-5.105402 3.4876933 -0.68916124
-5.1281323 3.5032215 -0.34689477
-5.1302552 3.5046713 0
-2.9224811 1.9964573 0.19769251
-5.1117558 3.4829824 -0.68945032
-5.1216269 3.4897082 -0.3461692
-5.1323376 3.4970059 0
-2.8132367 1.916847 0.19014582
-5.1074038 3.470988 -0.68829715
-5.1193905 3.4791341 -0.34573367
-5.1301079 3.4864178 0
-2.7553751 1.8725511 0.18608192
-5.1137333 3.466264 -0.68858516
-5.1278963 3.4758644 -0.34602422
-5.127852 3.4758344 0
-2.7232215 1.8458931 0.18375967
-5.1136279 3.4571824 -0.68800807
-5.1320925 3.469666 -0.34602422
-5.1255779 3.4652615 0
-2.7276089 1.8440609 0.18390524
-5.1113744 3.4466672 -0.68714398
-5.1255112 3.4561999 -0.34529865
-5.1232858 3.4546993 0
-2.7319875 1.8422152 0.18405023
-5.1112385 3.4375989 -0.68656689
-5.1253672 3.4471011 -0.34500811
-5.1317797 3.4514139 0
-2.7255867 1.8331121 0.18346968
-5.1153884 3.4314203 -0.68656689
-5.118741 3.4336693 -0.34428254
-5.1208153 3.4350607 0
-2.7321112 1.8327098 0.18375967
-5.1087847 3.418047 -0.68512565
-5.1185627 3.4245892 -0.34399199
-5.1292925 3.4317679 0
-2.7364898 1.8308563 0.18390524
-5.1108484 3.4149599 -0.68512565
-5.1184726 3.420054 -0.34384698
-5.1270328 3.4257739 0
-2.7419121 1.8320872 0.18419524
-5.1063619 3.4030445 -0.68397254
-5.120441 3.4124272 -0.34370199
-5.1225061 3.4138033 0
-2.7506127 1.8330972 0.1846308
-5.1018538 3.3911448 -0.68281937
-5.1223984 3.4048007 -0.343557
-5.1222963 3.4047327 0
-2.7463317 1.8254557 0.18419524
-5.1124172 3.3892667 -0.68368447
-5.1265087 3.3986087 -0.343557
-5.1242394 3.3971043 0
-2.750699 1.8235704 0.18434024
-5.1078787 3.3773806 -0.6825313
-5.1262727 3.3895428 -0.34326643
-5.1131425 3.380861 0
-2.7594049 1.8245462 0.1847758
-5.1119556 3.3712063 -0.6825313
-5.12603 3.3804879 -0.34297642
-5.1150532 3.3732491 0
-2.7572732 1.8183523 0.18448579
-5.1073818 3.3593416 -0.68137813
-5.1301112 3.3742917 -0.34297642
-5.1278229 3.3727865 0
-2.7529535 1.8107343 0.18405023
-5.1092768 3.3517504 -0.68109012
-5.1233234 3.3609653 -0.34225088
-5.1231904 3.360878 0
-2.7725208 1.8188089 0.18521136
-5.1046653 3.33991 -0.67993695
-5.1230278 3.3519242 -0.34196031
-5.1272473 3.3546853 0
-2.7681911 1.8111881 0.1847758
-5.1043611 3.33091 -0.67935985
-5.1248999 3.3443129 -0.34181532
-5.1204019 3.3413775 0
-2.7682035 1.8064233 0.1846308
-2.8940749 1.88358 -0.95268589
-5.1018848 3.3205113 -0.67849576
-5.1245775 3.3352804 -0.34152475
-5.1287937 3.3380246 0
-2.8030453 1.8243343 0.18680747
-2.8647821 1.8595911 -0.94230276
