# .PCD v0.7 - Point Cloud Data file format
VERSION 0.7
FIELDS x y z
SIZE 4 4 4
TYPE F F F
COUNT 1 1 1
WIDTH 1555
HEIGHT 1
VIEWPOINT 0 0 0 1 0 0 0
POINTS 1555
DATA ascii
-5.6138506 -0.59232563 -0.62919974
-5.6775055 -0.599042 -0.3188841
-5.749167 -0.60660303 0
-9.9202747 -1.0467027 0.55718446
-0 -0 -0
-0 -0 -0
-5.6131306 -0.5991084 -0.62919974
-5.6897039 -0.60728139 -0.31961024
-5.7484298 -0.61354935 0
-9.8879967 -1.0553794 0.55544275
-0 -0 -0
-0 -0 -0
-0 -0 -0
-5.6046953 -0.60505831 -0.62833565
-5.6812134 -0.61331886 -0.31917468
-5.7425141 -0.61993665 0
-9.8763809 -1.0662107 0.5548622
-0 -0 -0
-5.5905132 -0.61036193 -0.93755668
-5.6013818 -0.61154854 -0.62804657
-5.6778874 -0.6199013 -0.31902966
-5.7417607 -0.62687486 0
-9.85184 -1.0756058 0.55355608
-0 -0 -0
-5.5846634 -0.61655259 -0.93669993
-5.6032171 -0.6186009 -0.62833565
-5.6822948 -0.6273312 -0.31931967
-5.7435837 -0.63409752 0
-5.9688544 -0.65896767 0.33542305
-5.5839143 -0.62330014 -0.93669993
-5.6127377 -0.62651747 -0.62948775
-5.6737828 -0.6333316 -0.3188841
-5.7428131 -0.64103705 0
-5.9654641 -0.66589028 0.3352775
-5.5755024 -0.62918288 -0.93541563
-5.6145539 -0.6335898 -0.62977684
-5.670434 -0.63989574 -0.31873912
-5.736867 -0.64739257 0
-5.9310908 -0.66931021 0.3333908
-0 -0 -0
-5.5925941 -0.6379562 -0.93841177
-5.6086397 -0.63978654 -0.62919974
-5.6851521 -0.64851445 -0.31961024
-5.7360806 -0.65432394 0
-9.8284521 -1.1211473 0.55254
-5.5845542 -0.64045715 -0.93712747
-5.6133966 -0.64376485 -0.62977684
-5.6744328 -0.65076476 -0.31902966
-5.7382674 -0.65808553 0
-9.8329411 -1.1276777 0.55283052
-0 -0 -0
-5.583776 -0.64720452 -0.93712747
-5.6151814 -0.65084463 -0.63006485
-5.6865458 -0.65911633 -0.31975523
-5.7348852 -0.66471928 0
-9.8264036 -1.1389591 0.55254
-0 -0 -0
-5.5880942 -0.65454882 -0.93798423
-5.6092482 -0.65702659 -0.62948775
-5.6805787 -0.66538179 -0.31946468
-5.7521644 -0.67376679 0
-9.8301868 -1.1514367 0.55283052
-5.5847526 -0.660999 -0.93755668
-5.616158 -0.66471612 -0.63035291
-5.6875143 -0.67316169 -0.31990021
-5.7410083 -0.67949307 0
-9.8287888 -1.1633137 0.55283052
-5.5839496 -0.6677466 -0.93755668
-5.6050782 -0.67027324 -0.62919974
-5.6789541 -0.67910755 -0.31946468
-5.7376013 -0.68612075 0
-9.8299532 -1.1754973 0.55297554
-5.5805826 -0.67418444 -0.93712747
-5.6016989 -0.67673546 -0.62891167
-5.6703978 -0.68503493 -0.31902966
-5.7367682 -0.69305307 0
-9.8311024 -1.1876854 0.55312055
-5.5797644 -0.68092704 -0.93712747
-5.6060071 -0.68412954 -0.62948775
-5.6747193 -0.6925149 -0.31931967
-5.7488408 -0.70156026 0
-9.8322477 -1.1998792 0.55326611
-5.5840378 -0.68829727 -0.93798423
-5.6026115 -0.69058669 -0.62919974
-5.6738787 -0.69937116 -0.31931967
-5.7350764 -0.70691454 0
-9.8772058 -1.2174799 0.55587834
-5.5755572 -0.69409227 -0.93669993
-5.6069112 -0.69799548 -0.62977684
-5.6781917 -0.70686907 -0.31961024
-5.7419682 -0.71480852 0
-9.9608173 -1.2400063 0.56066781
-5.5823584 -0.70178968 -0.93798423
-5.6060638 -0.70476985 -0.62977684
-5.6850605 -0.71470094 -0.32004523
-5.7307715 -0.7204476 0
-5.93501 -0.74612355 0.33411637
-5.580646 -0.71527797 -0.93798423
-5.6069074 -0.71864396 -0.63006485
-5.673007 -0.72711605 -0.31946468
-5.7393394 -0.73561794 0
-10.092845 -1.2936119 0.56835949
-5.5746808 -0.7213611 -0.93712747
-5.6060348 -0.72541827 -0.63006485
-5.6772833 -0.7346378 -0.31975523
-5.730701 -0.74155003 0
-10.050043 -1.3004708 0.56603724
-5.5814443 -0.72909433 -0.93841177
-5.6102786 -0.73286098 -0.63064092
-5.6686592 -0.7404871 -0.31931967
-5.7298007 -0.74847394 0
-10.043316 -1.3119409 0.56574726
-5.5805588 -0.73583788 -0.93841177
-5.6042657 -0.73896378 -0.63006485
-5.6651869 -0.74699664 -0.31917468
-5.7288923 -0.75539672 0
-10.126734 -1.3352846 0.57053673
-0 -0 -0
-5.5898442 -0.74393499 -0.94012368
-5.6008072 -0.74539399 -0.62977684
-5.6720095 -0.75487012 -0.31961024
-5.7279754 -0.76231843 0
-10.15344 -1.3512896 0.57213283
-0 -0 -0
-5.576674 -0.74561131 -0.93798423
-5.6003556 -0.74877757 -0.62977684
-5.6715527 -0.75829673 -0.31961024
-5.7404089 -0.76750296 0
-10.088235 -1.3488151 0.56850451
-0 -0 -0
-5.578311 -0.75269204 -0.93841177
-5.5994468 -0.75554401 -0.62977684
-5.6757774 -0.76584339 -0.31990021
-5.734324 -0.77374321 0
-9.9295282 -1.33981 0.55965167
-5.5697641 -0.75839245 -0.93712747
-5.6062112 -0.76335514 -0.63064092
-5.6697035 -0.77200043 -0.31961024
-5.7282228 -0.77996856 0
-9.8274965 -1.3381355 0.55399168
-0 -0 -0
-5.5739346 -0.76582134 -0.93798423
-5.6052847 -0.77012861 -0.63064092
-5.6739101 -0.77955729 -0.31990021
-5.7272758 -0.78688943 0
-9.8104219 -1.3478863 0.55312055
-0 -0 -0
-5.5755458 -0.77290797 -0.93841177
-5.6043501 -0.77690095 -0.63064092
-5.6729641 -0.78641254 -0.31990021
-5.7237458 -0.79345214 0
-9.8010721 -1.35867 0.55268556
-0 -0 -0
-5.5822372 -0.78071135 -0.93969607
-5.6059761 -0.78403139 -0.63093001
-5.661716 -0.79182702 -0.31931967
-5.7356672 -0.80216956 0
-9.7942715 -1.3697912 0.55239499
-0 -0 -0
-5.576201 -0.78673786 -0.93883932
-5.607583 -0.79116553 -0.63121802
-5.6710472 -0.80011958 -0.31990021
-5.7269607 -0.80800831 0
-5.9590907 -0.84075922 0.33614859
-0 -0 -0
-5.5803342 -0.79419917 -0.93969607
-5.6040649 -0.79757655 -0.63093001
-5.6700759 -0.80697131 -0.31990021
-5.7311382 -0.81566173 0
-5.9632106 -0.84869057 0.3364386
-0 -0 -0
-5.5819092 -0.80130577 -0.94012368
-5.5954142 -0.80324447 -0.63006485
-5.6690969 -0.81382191 -0.31990021
-5.7275748 -0.82221663 0
-6.0187616 -0.86401772 0.33963138
-0 -0 -0
-5.5758605 -0.80731481 -0.93926853
-5.5969968 -0.81037509 -0.63035291
-5.6552539 -0.81880999 -0.31917468
-5.7162743 -0.827645 0
-6.0820017 -0.88059777 0.34325972
-0 -0 -0
-5.5723333 -0.81367958 -0.93883932
-5.5960135 -0.81713736 -0.63035291
-5.6645451 -0.82714444 -0.31975523
-5.7229886 -0.8356784 0
-6.1040812 -0.89132613 0.3445664
-0 -0 -0
-5.5764303 -0.82116073 -0.93969607
-5.5975785 -0.8242749 -0.63064092
-5.6635413 -0.83398831 -0.31975523
-5.7245564 -0.84297317 0
-6.1235557 -0.90172803 0.34572697
-0 -0 -0
-5.5805078 -0.82865155 -0.94055122
-5.6017003 -0.83179843 -0.63121802
-5.6650972 -0.84121227 -0.31990021
-5.7338309 -0.85141855 0
-9.3454142 -1.3877039 0.52772266
-0 -0 -0
-5.5668111 -0.83349371 -0.93841177
-5.6006908 -0.83856636 -0.63121802
-5.6615095 -0.84767246 -0.31975523
-5.71735 -0.85603327 0
-9.3488655 -1.3997638 0.52801269
-5.5734172 -0.84136939 -0.93969607
-5.6047835 -0.84610456 -0.6317941
-5.6707582 -0.85606414 -0.32033578
-5.7137408 -0.86255282 0
-9.3446007 -1.4106716 0.52786767
-0 -0 -0
-5.5850835 -0.85003406 -0.94183552
-5.6037574 -0.85287619 -0.6317941
-5.6697197 -0.86291552 -0.32033578
-5.7152648 -0.86984736 0
-9.3454561 -1.4223522 0.52801269
-0 -0 -0
-5.5739026 -0.85522467 -0.94012368
-5.6027226 -0.85964662 -0.6317941
-5.668673 -0.86976564 -0.32033578
-5.7193594 -0.87754261 0
-9.3385983 -1.432856 0.52772266
-0 -0 -0
-5.5809989 -0.85976493 -0.94140798
-5.6047659 -0.86342633 -0.63208318
-5.6630054 -0.8723982 -0.32004523
-5.7136788 -0.88020456 0
-9.3171854 -1.4353327 0.52656156
-5.58249 -0.8669014 -0.94183552
-5.5934954 -0.86861038 -0.63093001
-5.6593819 -0.87884188 -0.31990021
-5.7126112 -0.88710779 0
-9.2769365 -1.4406097 0.52438486
-5.5763712 -0.87285286 -0.94098043
-5.6001005 -0.87656718 -0.6317941
-5.663455 -0.88648391 -0.32019079
-5.7218199 -0.89561957 0
-9.1904745 -1.4385579 0.51959538
-0 -0 -0
-5.5727692 -0.87918901 -0.94055122
-5.5964847 -0.88293046 -0.63150609
-5.6546774 -0.89211124 -0.31975523
-5.7155972 -0.90172225 0
-9.1630573 -1.4456116 0.51814371
-5.571703 -0.88592196 -0.94055122
-5.6030793 -0.89091092 -0.63237119
-5.6587229 -0.89975846 -0.32004523
-5.7119255 -0.90821791 0
-9.1613045 -1.4566823 0.51814371
-5.5655637 -0.89184207 -0.93969607
-5.591783 -0.89604354 -0.63121802
-5.6653309 -0.90782905 -0.32048079
-5.7134013 -0.91553199 0
-9.1723738 -1.4698077 0.51886988
-5.5720873 -0.8997944 -0.94098043
-5.6009102 -0.90444881 -0.63237119
-5.6591043 -0.91384619 -0.32019079
-5.7122908 -0.92243481 0
-9.1962385 -1.4850312 0.52032095
-0 -0 -0
-5.5735273 -0.90693843 -0.94140798
-5.5972629 -0.9108007 -0.63208318
-5.6733794 -0.92318666 -0.32106134
-5.7111721 -0.92933637 0
-9.1790533 -1.4936389 0.51945043
-5.5774889 -0.9145022 -0.94226307
-5.6038079 -0.91881752 -0.63294727
-5.6645646 -0.92877942 -0.32062578
-5.7074695 -0.9358142 0
-9.1336527 -1.4975818 0.51698321
-5.5763798 -0.92124087 -0.94226307
-5.6001439 -0.92516679 -0.63265926
-5.6660094 -0.93604803 -0.32077134
-5.7063346 -0.94270986 0
-9.0549212 -1.4959102 0.51262873
-0 -0 -0
-5.5752625 -0.92797816 -0.94226307
-5.5964732 -0.93150854 -0.63237119
-5.6623039 -0.94246572 -0.32062578
-5.7103305 -0.9504596 0
-8.9044571 -1.482108 0.50421149
-5.5665493 -0.9334417 -0.94098043
-5.5953436 -0.93827009 -0.63237119
-5.6586003 -0.94887751 -0.32048079
-5.7168803 -0.95865035 0
-8.8052826 -1.4765373 0.49869645
-5.5730038 -0.94144863 -0.94226307
-5.5967536 -0.94546074 -0.63265926
-5.6600094 -0.95614654 -0.32062578
-5.7080169 -0.96425647 0
-8.6241465 -1.4568789 0.48853695
-5.5718622 -0.94818187 -0.94226307
-5.59306 -0.95178914 -0.63237119
-5.6588502 -0.96298486 -0.32062578
-5.7068477 -0.97115278 0
-5.9558706 -1.0135298 0.33745471
-5.5707126 -0.95491368 -0.94226307
-5.5893588 -0.95810997 -0.63208318
-5.6628094 -0.97070068 -0.32091635
-5.7159305 -0.97980648 0
-5.9520826 -1.0202869 0.33730972
-5.5720816 -0.96208042 -0.94269061
-5.5907435 -0.96530259 -0.63237119
-5.6641908 -0.97798401 -0.32106134
-5.6993499 -0.98405468 0
-8.4703016 -1.4624896 0.48011914
-5.5759783 -0.96969301 -0.94354737
-5.5972199 -0.97338706 -0.63323635
-5.6630049 -0.9848274 -0.32106134
-5.7007284 -0.99138772 0
-8.4429331 -1.468272 0.47866803
-5.572865 -0.97262061 -0.94311982
-5.5966311 -0.97676849 -0.63323635
-5.6649661 -0.98869485 -0.32120633
-5.6949959 -0.99393588 0
-8.421566 -1.4697986 0.47750691
-5.5716858 -0.97935367 -0.94311982
-5.5954466 -0.98353016 -0.63323635
-5.6586537 -0.99464029 -0.32091635
-5.7066045 -1.0030687 0
-8.381403 -1.473227 0.47533023
-5.5730238 -0.98653227 -0.94354737
-5.6018877 -0.9916417 -0.63410044
-5.6446571 -0.99921274 -0.32019079
-5.7105184 -1.0108714 0
-8.2158623 -1.4543655 0.46604133
-5.5718274 -0.99326545 -0.94354737
-5.5904999 -0.99659407 -0.63294727
-5.6485567 -1.0069436 -0.32048079
-5.7144122 -1.0186833 0
-8.2268972 -1.4665731 0.46676743
-5.5756717 -1.0009035 -0.94440252
-5.5867481 -1.0028918 -0.63265926
-5.647336 -1.0137681 -0.32048079
-5.7029309 -1.023748 0
-8.1535072 -1.4636574 0.46270353
-5.5668874 -1.0062712 -0.94311982
-5.5906277 -1.0105627 -0.63323635
-5.651226 -1.0215163 -0.32077134
-5.7068167 -1.031565 0
-18.788349 -3.3961844 1.0664525
-5.5681906 -1.0134562 -0.94354737
-5.5894027 -1.0173171 -0.63323635
-5.6525412 -1.0288088 -0.32091635
-5.7030077 -1.0379941 0
-6.3170614 -1.1497569 0.35864368
-5.5669618 -1.0201836 -0.94354737
-5.5957942 -1.0254674 -0.63410044
-5.6538477 -1.036106 -0.32106134
-5.7222285 -1.0486373 0
-6.3028908 -1.1550475 0.35791811
-5.5581493 -1.0255116 -0.94226307
-5.5945511 -1.032228 -0.63410044
-5.6551442 -1.0434078 -0.32120633
-5.6902456 -1.0498842 0
-6.2401724 -1.1513491 0.35443532
-5.5468106 -1.0303515 -0.94055122
-5.5932999 -1.0389872 -0.63410044
-5.6538796 -1.0502403 -0.32120633
-5.6966419 -1.0581836 0
-6.1417012 -1.1408559 0.34892032
-5.5455613 -1.037053 -0.94055122
-5.5945802 -1.0462198 -0.63438845
-5.6602712 -1.0585045 -0.32164189
-5.70048 -1.0660237 0
-6.0815697 -1.1372898 0.34558198
-5.5216017 -1.0394791 -0.93669993
-5.5933118 -1.052979 -0.63438845
-5.6513247 -1.0639004 -0.32120633
-5.7068629 -1.0743558 0
-6.2972345 -1.1854972 0.35791811
-5.5052137 -1.0432832 -0.93413293
-5.5920358 -1.0597367 -0.63438845
-5.6449342 -1.0697614 -0.32091635
-5.6927686 -1.0788264 0
-6.403019 -1.2134247 0.3640137
-5.4963818 -1.0484909 -0.93284863
-5.5856748 -1.0655245 -0.63381237
-5.6563973 -1.0790155 -0.32164189
-5.7068043 -1.0886312 0
-0 -0 0
-5.4925923 -1.0546478 -0.93242109
-5.5818453 -1.0717856 -0.63352436
-5.6550894 -1.0858493 -0.32164189
-5.6978145 -1.0940531 0
-6.4077258 -1.2303652 0.36444926
-5.4963498 -1.0622571 -0.93327618
-5.5881577 -1.0800003 -0.63438845
-5.6461167 -1.0912019 -0.32120633
-5.7016039 -1.1019256 0
-6.4138908 -1.2395865 0.36488482
-5.5057878 -1.0675321 -0.93498802
-5.5798936 -1.0819007 -0.63352436
-5.6556606 -1.0965912 -0.32178691
-5.6932697 -1.1038835 0
-6.4131408 -1.2434611 0.36488482
-5.5095377 -1.0751683 -0.93584478
-5.5887365 -1.0906237 -0.63467753
-5.6492352 -1.1024299 -0.3214969
-5.6944838 -1.1112598 0
-6.4090757 -1.2507101 0.36473927
-5.5132675 -1.0828131 -0.93669993
-5.5848694 -1.0968759 -0.63438845
-5.6504464 -1.1097553 -0.32164189
-5.6880345 -1.1171376 0
-6.3795199 -1.2529463 0.36314315
-5.5472074 -1.0964419 -0.94269061
-5.5886197 -1.1046274 -0.63496554
-5.6618447 -1.1191007 -0.32236746
-5.6943321 -1.1255221 0
-6.3397622 -1.2530955 0.36096591
-5.5660205 -1.1071503 -0.94611436
-5.5923495 -1.1123875 -0.63554162
-5.6528401 -1.1244198 -0.3219319
-5.6878681 -1.1313874 0
-7.3932772 -1.4706143 0.42105058
-5.5772715 -1.1163956 -0.94825542
-5.5884676 -1.1186367 -0.63525361
-5.6438413 -1.1297208 -0.3214969
-5.6890464 -1.1387695 0
-5.9902196 -1.199055 0.34122807
-5.5608144 -1.1200916 -0.94568682
-5.584579 -1.1248783 -0.63496554
-5.6399274 -1.1360269 -0.32135192
-5.6825686 -1.144616 0
-7.2521529 -1.4607707 0.41321334
-5.5670071 -1.1283401 -0.94697112
-5.5806832 -1.1311121 -0.63467753
-5.6589141 -1.1469681 -0.32251245
-5.6888261 -1.1530308 0
-7.1867185 -1.4566288 0.409585
-5.5642643 -1.1417902 -0.94697112
-5.5829959 -1.1456339 -0.63525361
-5.6510396 -1.1595966 -0.32222247
-5.6809292 -1.1657299 0
-16.531994 -3.3923745 0.94265479
-5.5603685 -1.147994 -0.94654357
-5.5866785 -1.1534259 -0.6358307
-5.6394553 -1.1643223 -0.32164189
-5.6871648 -1.1741724 0
-16.494802 -3.4055181 0.94076812
-5.5614886 -1.1552334 -0.94697112
-5.5852809 -1.1601756 -0.6358307
-5.6380444 -1.1711357 -0.32164189
-5.6831865 -1.1805125 0
-6.8208923 -1.416837 0.38912159
-5.5625992 -1.1624771 -0.94739866
-5.5864043 -1.167452 -0.63611871
-5.6518812 -1.1811355 -0.32251245
-5.6843109 -1.1879127 0
-6.7428751 -1.4091324 0.38476768
-5.5611901 -1.1691977 -0.94739866
-5.5773935 -1.1726042 -0.63525361
-5.6555405 -1.1890341 -0.32280302
-5.6879601 -1.19585 0
-6.6750579 -1.4033798 0.38099432
-5.5622826 -1.1764472 -0.94782627
-5.5886226 -1.1820182 -0.63669479
-5.6464705 -1.1942532 -0.32236746
-5.6814237 -1.201646 0
-6.5818381 -1.3920875 0.37576932
-5.5658836 -1.1842366 -0.94868302
-5.579608 -1.1871568 -0.6358307
-5.6373963 -1.1994523 -0.3219319
-5.6825104 -1.209051 0
-6.5496621 -1.3935523 0.37402818
-5.5626588 -1.1870638 -0.94825542
-5.5788898 -1.1905274 -0.6358307
-5.6468358 -1.205027 -0.32251245
-5.6919599 -1.2146565 0
-6.5767651 -1.4034728 0.3756243
-5.5612206 -1.1937844 -0.94825542
-5.5825 -1.1983523 -0.63640678
-5.6479235 -1.2123961 -0.32265803
-5.6879458 -1.2209876 0
-6.4861517 -1.3923322 0.37054485
-5.5547509 -1.1994184 -0.94739866
-5.5785222 -1.2045513 -0.63611871
-5.6388321 -1.2175739 -0.32222247
-5.6890078 -1.2284081 0
-6.3422394 -1.3694582 0.36241758
-5.5583196 -1.2072202 -0.94825542
-5.5770626 -1.2112911 -0.63611871
-5.6475139 -1.2265924 -0.32280302
-5.6849785 -1.2347295 0
-6.2618608 -1.3600234 0.35791811
-5.5643735 -1.2155775 -0.94953811
-5.5755949 -1.218029 -0.63611871
-5.6434913 -1.2328614 -0.32265803
-5.6860228 -1.2421527 0
-6.3059125 -1.3775721 0.36053091
-5.5603957 -1.2217497 -0.94911057
-5.5842242 -1.2269853 -0.63727188
-5.6419978 -1.2396796 -0.32265803
-5.6743503 -1.2467881 0
-6.3296175 -1.3907658 0.36198202
-5.5614195 -1.2290208 -0.94953811
-5.5802145 -1.2331743 -0.63698387
-5.6480999 -1.2481765 -0.32309303
-5.6804657 -1.2553289 0
-6.3609138 -1.4057015 0.36386871
-5.5624337 -1.2362963 -0.94996566
-5.5812426 -1.2404767 -0.63727188
-5.6415195 -1.2538737 -0.32280302
-5.6814828 -1.2627558 0
-6.4353023 -1.4302984 0.36822262
-5.560936 -1.2430165 -0.94996566
-5.5797396 -1.2472196 -0.63727188
-5.6425338 -1.2612557 -0.32294801
-5.6774154 -1.2690526 0
-6.4361029 -1.4386394 0.36836761
-5.5594301 -1.2497349 -0.94996566
-5.58075 -1.2545274 -0.63755995
-5.6333976 -1.2663624 -0.32251245
-5.688571 -1.2787652 0
-6.4140782 -1.441856 0.36720648
-5.5579157 -1.2564515 -0.94996566
-5.5767093 -1.2607 -0.63727188
-5.6394691 -1.2748878 -0.32294801
-5.6794038 -1.2839156 0
-6.3565774 -1.4370011 0.3640137
-5.5563936 -1.2631662 -0.94996566
-5.5802217 -1.2685831 -0.63784796
-5.6404562 -1.2822765 -0.32309303
-5.6803837 -1.2913536 0
-6.3218994 -1.4371929 0.36212704
-5.5498629 -1.268736 -0.94911057
-5.5812135 -1.2759029 -0.63813704
-5.6313105 -1.2873554 -0.32265803
-5.6788192 -1.2982162 0
-6.3252296 -1.44599 0.36241758
-5.5583334 -1.2777414 -0.95082241
-5.5746212 -1.2814857 -0.63755995
-5.6398807 -1.2964875 -0.32323858
-5.6772466 -1.3050771 0
-6.341197 -1.457705 0.36343315
-5.5517783 -1.2832993 -0.94996566
-5.5755863 -1.2888025 -0.63784796
-5.6408391 -1.3038858 -0.32338357
-5.6756654 -1.3119359 0
-6.3141193 -1.4595152 0.36198202
-5.552731 -1.2905895 -0.95039487
-5.5740252 -1.2955385 -0.63784796
-5.641788 -1.3112884 -0.32352859
-5.6690111 -1.3176156 0
-6.203526 -1.4418499 0.35574144
-5.5586596 -1.2990487 -0.95167756
-5.5774975 -1.3034511 -0.63842505
-5.6427274 -1.3186952 -0.32367358
-5.6750102 -1.3262396 0
-6.2726173 -1.4658992 0.35980481
-5.5528798 -1.3012365 -0.95082241
-5.574193 -1.306231 -0.63813704
-5.6394024 -1.3215117 -0.32352859
-5.6792803 -1.3308566 0
-6.2160769 -1.456647 0.356612
-5.5562959 -1.3091214 -0.95167756
-5.5726109 -1.3129654 -0.63813704
-5.6403279 -1.3289202 -0.32367358
-5.6827297 -1.3389105 0
-6.0423369 -1.4236376 0.34674308
-5.5572152 -1.3164276 -0.95210671
-5.5710201 -1.3196977 -0.63813704
-5.633666 -1.3345377 -0.32338357
-5.6963072 -1.3493764 0
-5.9394827 -1.4069815 0.34093806
-5.5531163 -1.3225449 -0.95167756
-5.5668983 -1.3258274 -0.63784796
-5.6345749 -1.3419454 -0.32352859
-5.6845455 -1.3538465 0
-5.9200816 -1.4099425 0.33992195
-5.546526 -1.3280594 -0.95082241
-5.5602665 -1.3313495 -0.63727188
-5.6329494 -1.3487526 -0.32352859
-5.6854343 -1.3613197 0
-5.9032164 -1.4134655 0.3390514
-5.5499039 -1.3359609 -0.95167756
-5.5712242 -1.3410931 -0.63871306
-5.636373 -1.3567754 -0.32381913
-5.683785 -1.3681884 0
-5.9115996 -1.4230275 0.33963138
-5.5457931 -1.3420626 -0.95124996
-5.5670886 -1.347216 -0.63842505
-5.6347294 -1.3635849 -0.32381913
-5.6796007 -1.3744437 0
-5.90483 -1.4289483 0.3393414
-5.5516529 -1.3505837 -0.95253432
-5.5679674 -1.3545526 -0.63871306
-5.6356001 -1.371006 -0.32396412
-5.6855245 -1.3831514 0
-5.9056211 -1.4366957 0.33948639
-5.5525079 -1.3579 -0.95296186
-5.5738664 -1.3631233 -0.63957822
-5.6389828 -1.3790479 -0.32425413
-5.6787882 -1.3887826 0
-5.9064026 -1.4444472 0.33963138
-5.5533538 -1.3652203 -0.95338941
-5.5722151 -1.3698572 -0.63957822
-5.6373119 -1.3858604 -0.32425413
-5.6771059 -1.3956434 0
-5.902132 -1.450963 0.33948639
-5.5566888 -1.3731624 -0.95424616
-5.5730643 -1.3772091 -0.63986623
-5.6356335 -1.3926711 -0.32425413
-5.6804733 -1.4037519 0
-5.9079447 -1.4599643 0.33992195
-5.5500383 -1.3786366 -0.95338941
-5.566371 -1.3826938 -0.63928914
-5.6339464 -1.3994796 -0.32425413
-5.6888762 -1.4131242 0
-5.9238315 -1.4714874 0.34093806
-5.5533543 -1.3865867 -0.95424616
-5.5646963 -1.3894186 -0.63928914
-5.6322513 -1.4062861 -0.32425413
-5.6821094 -1.4187349 0
-5.9976759 -1.4975269 0.34529197
-5.5516748 -1.3932959 -0.95424616
-5.5655293 -1.3967729 -0.63957822
-5.630548 -1.4130906 -0.32425413
-5.6829128 -1.4262325 0
-6.0941463 -1.5294391 0.350952
-5.5450044 -1.3987459 -0.95338941
-5.5638375 -1.4034966 -0.63957822
-5.6313539 -1.4205279 -0.32439914
-5.6837163 -1.4337366 0
-6.127562 -1.5456982 0.35298365
-5.5383382 -1.4041845 -0.95253432
-5.5596232 -1.4095809 -0.63928914
-5.6246004 -1.4260553 -0.32410914
-5.6794496 -1.4399617 0
-6.1231737 -1.5524629 0.35283867
-5.5499263 -1.4106915 -0.95467371
-5.5713115 -1.4161273 -0.64073139
-5.6287699 -1.4307321 -0.32439914
-5.6684895 -1.4408282 0
-6.1222348 -1.556162 0.35283867
-5.545733 -1.4167618 -0.95424616
-5.577107 -1.4247769 -0.64159548
-5.6371074 -1.4401051 -0.32497969
-5.6793594 -1.4508991 0
-6.1153193 -1.5622733 0.35254866
-5.5440168 -1.4234616 -0.95424616
-5.5854025 -1.4340876 -0.64274865
-5.6328487 -1.4462698 -0.3248347
-5.6776018 -1.4577605 0
-13.074574 -3.3569801 0.75398356
-5.5472593 -1.4314409 -0.95510125
-5.5986972 -1.4447142 -0.64447892
-5.6336107 -1.4537235 -0.32497969
-5.6707916 -1.4633179 0
-13.005096 -3.3558965 0.75021017
-5.5455256 -1.4381428 -0.95510125
-5.5994487 -1.4521267 -0.64476693
-5.6318502 -1.4605296 -0.32497969
-5.6740627 -1.4714767 0
-12.943178 -3.3566048 0.74687183
-5.5413022 -1.4441956 -0.95467371
-5.5951896 -1.4582398 -0.64447892
-5.6326027 -1.4679906 -0.32512525
-5.669755 -1.4776734 0
-12.878766 -3.3565137 0.74338847
-5.5420341 -1.4515399 -0.95510125
-5.5959229 -1.4656541 -0.64476693
-5.625793 -1.4734775 -0.3248347
-5.6780357 -1.4871607 0
-12.819406 -3.35759 0.74019569
-5.5477262 -1.4601961 -0.95638561
-5.5941477 -1.4724147 -0.64476693
-5.6240082 -1.4802741 -0.3248347
-5.6762342 -1.4940203 0
-12.75252 -3.3565431 0.73656738
-5.5385103 -1.4649286 -0.95510125
-5.5948629 -1.4798338 -0.645055
-5.6272445 -1.4883987 -0.32512525
-5.6844888 -1.5035398 0
-12.680636 -3.3540115 0.73264903
-5.5392241 -1.472281 -0.95553046
-5.5980749 -1.487923 -0.64563209
-5.6279507 -1.4958639 -0.32527024
-5.6826682 -1.5104073 0
-12.628859 -3.3566484 0.72989124
-5.5448742 -1.4809583 -0.95681316
-5.5937667 -1.4940169 -0.64534301
-5.6311555 -1.5040028 -0.32556024
-5.6707816 -1.5145863 0
-12.572085 -3.3578281 0.72684401
-5.5406041 -1.4869924 -0.95638561
-5.5944629 -1.5014471 -0.64563209
-5.6318507 -1.5114813 -0.3257058
-5.6714683 -1.5221138 0
-12.502764 -3.3555033 0.72307009
-5.5388031 -1.4936861 -0.95638561
-5.5976343 -1.5095514 -0.64620817
-5.6249981 -1.5169308 -0.32541525
-5.6771555 -1.5309966 0
-12.453547 -3.3584311 0.72045785
-5.5444298 -1.5023923 -0.95766991
-5.5983 -1.5169898 -0.64649618
-5.6306872 -1.5257658 -0.32585081
-5.6753016 -1.5378551 0
-12.386782 -3.3564868 0.71682948
-5.545085 -1.5097643 -0.95809746
-5.5964632 -1.5237532 -0.64649618
-5.6288395 -1.5325683 -0.32585081
-5.6734395 -1.5447115 0
-12.330069 -3.3571169 0.71378171
-5.5367398 -1.5110859 -0.95681316
-5.5930486 -1.5264536 -0.64620817
-5.6203899 -1.5339156 -0.32541525
-5.6725049 -1.5481389 0
-12.285425 -3.3529356 0.7113145
-5.539866 -1.5191339 -0.95766991
-5.5887079 -1.5325272 -0.6459201
-5.6160288 -1.5400192 -0.32527024
-5.6731377 -1.5556794 0
-12.238767 -3.3560965 0.70884722
-5.5380263 -1.5258266 -0.95766991
-5.5943356 -1.5413407 -0.64678526
-5.6216817 -1.5488751 -0.3257058
-5.6812897 -1.5652983 0
-12.1846 -3.3570781 0.70594448
-0 -0 -0
-5.5386505 -1.5332013 -0.95809746
-5.5899692 -1.5474073 -0.64649618
-5.6223078 -1.5563593 -0.32585081
-5.6844153 -1.5735518 0
-12.142978 -3.3614018 0.70376778
-5.5615211 -1.5467697 -0.9623763
-5.5930839 -1.555548 -0.64707327
-5.6329379 -1.5666322 -0.32657635
-5.7301421 -1.5936666 0
-12.086338 -3.3614511 0.70072001
-5.5621276 -1.5541815 -0.96280551
-5.6011643 -1.5650892 -0.64822644
-5.6460519 -1.5776317 -0.32744694
-5.7557859 -1.6082939 0
-12.029716 -3.3613684 0.69767219
-5.5651836 -1.5622873 -0.9636606
-5.5992694 -1.5718559 -0.64822644
-5.7241969 -1.6069263 -0.33209139
-5.7663646 -1.6187638 0
-11.978109 -3.3625572 0.6949144
-5.563292 -1.5690106 -0.9636606
-5.5998526 -1.5793219 -0.64851451
-5.8147817 -1.6399381 -0.33746141
-5.8195047 -1.6412702 0
-11.944036 -3.3685668 0.69317329
-5.6261401 -1.6014233 -0.97521448
-5.7701521 -1.6424148 -0.66869438
-5.8957691 -1.6781704 -0.34239587
-5.9331589 -1.6888131 0
-11.878378 -3.3810589 0.68983495
-5.6439462 -1.6138662 -0.97863823
-5.7880578 -1.6550745 -0.67100072
-5.8587556 -1.6752903 -0.34036365
-5.9035969 -1.6881125 0
-11.874284 -3.3954091 0.68983495
-5.6296577 -1.6171416 -0.97649884
-5.7239075 -1.6442152 -0.66379368
-5.7917981 -1.6637172 -0.33659029
-5.8915472 -1.6923704 0
-11.840203 -3.4011455 0.6880933
-5.6104321 -1.6189601 -0.97350264
-5.7020359 -1.6453934 -0.66148734
-5.7548361 -1.6606296 -0.33455861
-5.8644981 -1.692274 0
-11.806135 -3.4068074 0.68635219
-5.581358 -1.6178783 -0.96879625
-5.6677508 -1.6429213 -0.65773982
-5.7303667 -1.6610718 -0.33325249
-5.8174515 -1.6863153 0
-11.777048 -3.4138346 0.68490046
-5.5596809 -1.6188798 -0.9653725
-5.6384425 -1.6418136 -0.65456831
-5.7009096 -1.6600029 -0.33165583
-5.7654448 -1.6787944 0
-11.72552 -3.4142618 0.68214327
-5.5306163 -1.6176684 -0.96066445
-5.6215644 -1.6442702 -0.65283912
-5.668972 -1.6581366 -0.32991415
-5.733438 -1.6769924 0
-11.669016 -3.4131093 0.67909545
-5.5025477 -1.613068 -0.95595801
-5.5932651 -1.6396618 -0.64966762
-5.6380568 -1.6527923 -0.32817304
-5.7174344 -1.6760619 0
-11.609598 -3.4033453 0.67575711
-5.4833546 -1.614639 -0.95296186
-5.5714307 -1.6405741 -0.64736134
-5.6161146 -1.6537317 -0.32701191
-5.6854467 -1.6741475 0
-11.568095 -3.4063632 0.67358047
-5.4617062 -1.6154386 -0.94953811
-5.5421686 -1.6392374 -0.64419091
-5.58919 -1.6531452 -0.32556024
-5.6584682 -1.673636 0
-11.544037 -3.4144425 0.67241931
-5.4326892 -1.6139972 -0.94483173
-5.5029907 -1.6348832 -0.63986623
-5.5672617 -1.6539773 -0.32439914
-5.6414785 -1.6760263 0
-11.517488 -3.4217293 0.67111319
-5.4184284 -1.616888 -0.94269061
-5.4960494 -1.6400506 -0.63928914
-5.5403643 -1.6532743 -0.32294801
-5.6319652 -1.6806085 0
-11.488441 -3.4282119 0.66966152
-5.3771362 -1.6116445 -0.93584478
-5.4643426 -1.6377821 -0.6358307
-5.5159636 -1.6532542 -0.32164189
-5.5925341 -1.676204 0
-11.46189 -3.4353776 0.66835541
-5.3530645 -1.6114814 -0.93199348
-5.4326391 -1.6354365 -0.63237119
-5.4915709 -1.6531773 -0.32033578
-5.5630994 -1.6747102 0
-11.427873 -3.4402361 0.66661376
-5.3363652 -1.6134893 -0.92942488
-5.4182825 -1.6382575 -0.63093001
-5.4646921 -1.6522897 -0.3188841
-5.553596 -1.6791705 0
-11.411274 -3.4502823 0.66588819
-5.3196788 -1.6154619 -0.92685789
-5.3915453 -1.6372861 -0.62804657
-5.4552398 -1.6566286 -0.31844911
-5.524178 -1.6775635 0
-11.392183 -3.4595394 0.66501766
-5.2980795 -1.6158974 -0.92343414
-5.3722525 -1.6385199 -0.62602931
-5.4184337 -1.6526049 -0.31641689
-5.4872923 -1.6736065 0
-11.368112 -3.4672377 0.66385651
-5.274035 -1.6155319 -0.91958284
-5.3578963 -1.6412201 -0.62458706
-5.3990483 -1.6538256 -0.31540132
-5.4603868 -1.6726148 0
-11.301804 -3.461946 0.66022819
-5.2622647 -1.6188841 -0.917871
-5.3163648 -1.6355273 -0.61997545
-5.3672433 -1.6511796 -0.31365964
-5.4459271 -1.675386 0
-11.255394 -3.4626112 0.65776092
-5.2308731 -1.6161479 -0.9127354
-5.2970834 -1.6366045 -0.61795717
-5.3627639 -1.6568973 -0.31351465
-5.4065986 -1.6704406 0
-11.238791 -3.4723742 0.65703541
-5.2191091 -1.6194242 -0.9110235
-5.2753396 -1.6368718 -0.61565083
-5.3235297 -1.6518245 -0.31133741
-5.4020929 -1.6762017 0
-5.7626591 -1.7880809 0.33701915
-5.1926451 -1.6180936 -0.90674466
-5.2486691 -1.6355515 -0.61276841
-5.3016834 -1.6520714 -0.31017631
-5.3752217 -1.6749868 0
-5.765461 -1.7965903 0.33730972
-5.1686296 -1.6174645 -0.90289176
-5.2318735 -1.6372559 -0.61103815
-5.2724123 -1.6499419 -0.30858019
-5.343389 -1.6721535 0
-5.7558441 -1.8012265 0.33687416
-5.1348372 -1.6137041 -0.89732856
-5.2002816 -1.634271 -0.60757864
-5.2505832 -1.6500791 -0.30741906
-5.3215027 -1.6723666 0
-5.7536631 -1.80818 0.33687416
-5.1216211 -1.6129513 -0.89518917
-5.1894345 -1.6343077 -0.60642654
-5.2396717 -1.6501288 -0.30683851
-5.2981529 -1.6685463 0
-5.745132 -1.8093134 0.3364386
-5.0976424 -1.6121726 -0.89133787
-5.1603265 -1.631997 -0.60325503
-5.2054687 -1.6462736 -0.30495185
-5.28124 -1.6702368 0
-5.7503767 -1.8186053 0.33687416
-5.0810156 -1.6136703 -0.88877088
-5.1410923 -1.63275 -0.60123676
-5.1886115 -1.6478416 -0.30408072
-5.2544184 -1.668741 0
-10.911522 -3.4653697 0.63947421
-5.0668268 -1.6159064 -0.88662982
-5.1243353 -1.6342471 -0.59950751
-5.1593924 -1.6454273 -0.3024846
-5.2276087 -1.6671828 0
-10.882575 -3.4706581 0.63802308
-5.0502067 -1.6173314 -0.88406283
-5.1001902 -1.6333387 -0.59691316
-5.1499739 -1.649282 -0.30204904
-5.2107143 -1.6687341 0
-10.841251 -3.4719167 0.63584584
-5.0433655 -1.6218621 -0.88320768
-5.0834346 -1.6347475 -0.5951829
-5.1158218 -1.6451628 -0.30016237
-5.191349 -1.6694511 0
-10.809845 -3.4762654 0.63424975
-5.0462832 -1.629531 -0.88406283
-5.0642333 -1.6353273 -0.59316564
-5.0940485 -1.6449553 -0.29900125
-5.1521864 -1.663729 0
-10.768543 -3.4773464 0.63207251
-5.0369825 -1.6332512 -0.88277853
-5.0376449 -1.6334659 -0.5902822
-5.0698137 -1.6438967 -0.29769513
-5.1427431 -1.6675442 0
-10.729734 -3.4791365 0.63004082
-5.0350056 -1.6393361 -0.88277853
-5.0258298 -1.6363487 -0.58912903
-5.0480576 -1.6435857 -0.29653403
-5.1332984 -1.6713392 0
-10.698341 -3.4832489 0.62844414
-5.033021 -1.6454188 -0.88277853
-5.0213928 -1.6416173 -0.58884102
-5.0386562 -1.647261 -0.29609847
-5.0991197 -1.6670282 0
-5.3077397 -1.7352312 0.31191128
-5.035912 -1.6531018 -0.88363528
-0 -0 -0
-5.0341954 -1.6525384 -0.29595348
-5.0674391 -1.6634511 0
-5.2982397 -1.7392143 0.31147629
-5.0363464 -1.6599883 -0.88406283
-0 -0 -0
-0 -0 -0
-5.048121 -1.6638694 0
-5.286263 -1.7423613 0.31089571
-5.034337 -1.6660726 -0.88406283
-0 -0 -0
-5.0227842 -1.6622493 -0.29551792
-5.0337558 -1.6658802 0
-5.2619543 -1.7414007 0.30958959
-5.0371971 -1.6737748 -0.88491958
-5.0256705 -1.6699448 -0.5902822
-5.0183086 -1.6674986 -0.2953729
-5.0391412 -1.674421 0
-5.2425828 -1.7420211 0.30857348
-5.0376039 -1.6806718 -0.88534713
-5.0285606 -1.6776547 -0.59085929
-5.0138273 -1.6727394 -0.29522792
-5.0297155 -1.67804 0
-5.2059708 -1.7368432 0.30654183
-5.0438843 -1.6861542 -0.88662982
-5.0226355 -1.6790508 -0.5902822
-5.0202117 -1.6782405 -0.29566348
-5.0287008 -1.6810784 0
-5.185205 -1.7333974 0.3053807
-5.0418434 -1.6922475 -0.88662982
-5.0230622 -1.6859438 -0.59057128
-5.0157094 -1.6834761 -0.29551792
-5.0266657 -1.6871533 0
-5.1633997 -1.7330469 0.30421957
-5.0325041 -1.6958815 -0.88534713
-5.0185633 -1.6911837 -0.5902822
-5.0136719 -1.6895354 -0.29551792
-5.029551 -1.6948864 0
-5.146523 -1.7343042 0.30334848
-5.0377388 -1.7044268 -0.88662982
-5.0189729 -1.6980777 -0.59057128
-5.0140953 -1.6964273 -0.29566348
-5.0348978 -1.7034655 0
-5.1296597 -1.7355266 0.30247793
-5.035676 -1.7105126 -0.88662982
-5.0242577 -1.7066342 -0.59143537
-5.0071163 -1.7008115 -0.2953729
-5.0254407 -1.707036 0
-5.1054182 -1.7342026 0.30117181
-5.0360422 -1.717427 -0.88705897
-5.022192 -1.7127037 -0.59143537
-5.014895 -1.7102152 -0.29595348
-5.0307665 -1.7156279 0
-5.0910244 -1.7361774 0.30044624
-5.0436778 -1.7268369 -0.88877088
-5.0250177 -1.720448 -0.59201247
-5.0202022 -1.7187994 -0.29638901
-5.0262299 -1.7208631 0
-0 -0 0
-5.0367274 -1.7312595 -0.88791412
-5.0229349 -1.7265185 -0.59201247
-5.0181217 -1.7248641 -0.29638901
-5.0192199 -1.7252415 0
-5.0941787 -1.751007 0.30088124
-5.0467629 -1.7415302 -0.89005351
-5.0232878 -1.7334294 -0.59230053
-5.0184879 -1.731773 -0.29653403
-5.0269723 -1.7347008 0
-0 -0 0
-5.0398083 -1.745948 -0.88919842
-5.026073 -1.7411896 -0.59287655
-5.0188446 -1.7386854 -0.29667902
-5.0224156 -1.7399225 0
-5.0629311 -1.7539585 0.29928511
-5.0401173 -1.7528787 -0.88962597
-5.0239654 -1.7472613 -0.59287655
-5.0142879 -1.7438956 -0.29653403
-5.0227652 -1.7468439 0
-5.0608082 -1.7600747 0.29928511
-5.0404172 -1.7598128 -0.89005351
-5.0218506 -1.7533305 -0.59287655
-5.0121775 -1.7499532 -0.29653403
-5.0280242 -1.755486 0
-5.0586777 -1.7661884 0.29928511
-5.0407166 -1.7667534 -0.89048272
-5.0221763 -1.7602551 -0.59316564
-5.0174179 -1.7585875 -0.29696959
-5.0209827 -1.7598369 0
-5.066349 -1.7757375 0.29986569
-5.0361495 -1.7719884 -0.89005351
-5.0200458 -1.7663221 -0.59316564
-5.0177383 -1.7655103 -0.29711458
-5.0213146 -1.7667687 0
-5.0617414 -1.780993 0.29972014
-5.0364323 -1.7789297 -0.89048272
-5.0203443 -1.7732472 -0.59345365
-5.0180492 -1.7724366 -0.2972596
-5.0265312 -1.7754325 0
-5.0595856 -1.7871078 0.29972014
-5.0391135 -1.786728 -0.89133787
-5.0230689 -1.7810391 -0.59402972
-5.0110106 -1.7767636 -0.29696959
-5.0243821 -1.7815048 0
-5.0574226 -1.79322 0.29972014
-5.0428758 -1.7914925 -0.89219463
-5.0268712 -1.7858068 -0.59460682
-5.0197301 -1.78327 -0.29755014
-5.015955 -1.7819289 0
-5.0538921 -1.7954061 0.29957512
-5.0455384 -1.7993073 -0.89304972
-5.0271435 -1.7927475 -0.59489489
-5.0273619 -1.7928253 -0.29813069
-5.0186958 -1.789735 0
-5.0639539 -1.8058746 0.30030069
-5.040946 -1.8045382 -0.89262217
-5.0274062 -1.7996913 -0.5951829
-5.0227385 -1.7980204 -0.29798514
-5.01653 -1.7957978 0
-5.0642219 -1.8128704 0.30044624
-5.0460024 -1.8132297 -0.89390481
-5.0276694 -1.8066419 -0.59547198
-5.0107808 -1.8005731 -0.29740459
-5.0168033 -1.8027372 0
-5.0595751 -1.8181069 0.30030069
-5.0486422 -1.8210692 -0.89476156
-5.0230427 -1.8118354 -0.5951829
-5.0086012 -1.8066263 -0.29740459
-5.0170765 -1.8096833 0
-5.0647097 -1.826865 0.30073625
-5.0464377 -1.8271682 -0.89476156
-5.0232887 -1.8187865 -0.59547198
-5.0186381 -1.8171027 -0.29813069
-5.0271187 -1.8201734 0
-5.0624986 -1.8329834 0.30073625
-5.0369864 -1.830633 -0.89347726
-5.0210872 -1.8248549 -0.59547198
-5.0139894 -1.8222752 -0.29798514
-5.0200191 -1.8244667 0
-5.0578403 -1.8382124 0.30059123
-5.0371799 -1.8375969 -0.89390481
-5.0261612 -1.8335773 -0.59633607
-5.0215483 -1.8318944 -0.29856572
-5.0129261 -1.8287489 0
-5.0653801 -1.8478845 0.30117181
-5.0399551 -1.852422 -0.89518917
-5.0290008 -1.8483958 -0.59720123
-5.0146699 -1.8431286 -0.2984207
-5.0109324 -1.8417548 0
-5.0608997 -1.8601202 0.30117181
-5.0377131 -1.8585105 -0.89518917
-5.0267639 -1.8544711 -0.59720123
-5.0197554 -1.8518854 -0.29885626
-5.0160308 -1.8505114 0
-5.0610838 -1.8671324 0.3013168
-5.0402832 -1.8663808 -0.89604592
-5.0245194 -1.8605436 -0.59720123
-5.0223827 -1.8597524 -0.29914626
-5.0137911 -1.856571 0
-5.0563898 -1.872345 0.30117181
-5.0476494 -1.8760469 -0.89775777
-5.0246897 -1.8675137 -0.59748924
-5.0176988 -1.8649153 -0.29900125
-5.0139813 -1.8635335 0
-5.0638661 -1.8820742 0.30175236
-5.0429668 -1.8812448 -0.89732856
-5.0224295 -1.8735836 -0.59748924
-5.0178738 -1.8718841 -0.29914626
-5.019043 -1.8723203 0
-5.0542822 -1.8854661 0.3013168
-5.0431008 -1.8882396 -0.89775777
-5.0177422 -1.8787448 -0.59720123
-5.0131774 -1.8770356 -0.29900125
-5.0192122 -1.8792952 0
-5.0495691 -1.8906616 0.30117181
-5.0263929 -1.8889118 -0.89518917
-5.0203061 -1.8866243 -0.59777725
-5.0133357 -1.8840048 -0.29914626
-5.014504 -1.8844439 0
-9.4496326 -3.5511596 0.5638606
-5.0529299 -1.9058552 -0.90032476
-5.0252852 -1.8954283 -0.59864241
-5.0110555 -1.8900611 -0.29914626
-5.0122232 -1.8905016 0
-9.4429064 -3.5616589 0.56371558
-5.0241394 -1.898464 -0.59864241
-5.0220733 -1.8976833 -0.29987237
-5.0232501 -1.8981282 0
-9.4334583 -3.5646067 0.56328005
-5.0218415 -1.9045333 -0.59864241
-5.024631 -1.9055912 -0.30016237
-5.0112195 -1.9005049 0
-9.419426 -3.5723169 0.5626995
-0 -0 -0
-5.0195365 -1.9105998 -0.59864241
-5.0150371 -1.9088871 -0.29972681
-5.0137792 -1.9084084 0
-9.4199543 -3.5855429 0.56298947
-5.0220613 -1.9185114 -0.5992195
-5.0175862 -1.9168018 -0.30001739
-5.0163369 -1.9163245 0
-9.4156151 -3.5969224 0.56298947
-5.0076575 -1.9199458 -0.59777725
-5.0201144 -1.9247218 -0.30030736
-5.0140176 -1.9223843 0
-9.406415 -3.6064382 0.5626995
-5.1575456 -1.9845645 -0.92129475
-5.0323405 -1.9363869 -0.30117849
-5.0116911 -1.9284414 0
-9.4044724 -3.6187334 0.56284446
-5.1479573 -1.9880197 -0.92001045
-5.1091671 -1.9730397 -0.61046207
-5.1002808 -1.9696081 -0.30538684
-5.0190682 -1.9382458 0
-9.4025154 -3.6310296 0.56298947
-5.1575174 -1.9988761 -0.92214984
-5.167069 -2.002578 -0.61766911
-5.1705871 -2.0039415 -0.30974129
-4.9997339 -1.9377247 0
-9.4029713 -3.6442678 0.56328005
-5.1455283 -2.0013843 -0.92043799
-5.1694622 -2.0106933 -0.61824518
-5.1778488 -2.0139556 -0.31032187
-5.026495 -1.9550854 0
-9.393713 -3.6537411 0.56298947
-5.1454954 -2.0085328 -0.92086554
-5.1622148 -2.015059 -0.61766911
-5.1875124 -2.0249338 -0.31104741
-5.1332221 -2.0037417 0
-9.3868732 -3.664145 0.56284446
-5.1502376 -2.0175586 -0.92214984
-5.164588 -2.02318 -0.61824518
-5.187479 -2.0321474 -0.31119242
-5.1816821 -2.0298765 0
-9.3776045 -3.6735907 0.56255448
-5.1430225 -2.0219035 -0.92129475
-5.1621394 -2.0294189 -0.61824518
-5.1850195 -2.038414 -0.31119242
-5.1646886 -2.030421 0
-9.3707428 -3.6839693 0.56240946
-5.1453471 -2.0299988 -0.92214984
-5.1717114 -2.0404003 -0.61968637
-5.1801381 -2.0437248 -0.31104741
-5.1598129 -2.0357058 0
-9.3638601 -3.6943328 0.56226391
-5.1476684 -2.0381062 -0.92300659
-5.1620345 -2.0437942 -0.61882228
-5.1752419 -2.0490232 -0.31090185
-5.154932 -2.040982 0
-9.3690538 -3.7094707 0.56284446
-5.1523523 -2.0471656 -0.92428929
-5.1691761 -2.0538502 -0.61997545
-5.1631122 -2.0514407 -0.31032187
-5.152462 -2.0472093 0
-9.3573275 -3.7179132 0.56240946
-5.155889 -2.0521784 -0.92514604
-5.1739407 -2.0593634 -0.31104741
-5.1463838 -2.0483949 0
-9.364727 -3.7274058 0.56298947
-5.1510243 -2.0574555 -0.9247185
-26.050888 -10.405415 0
-9.3602161 -3.7387185 0.56298947
-5.1485343 -2.063678 -0.9247185
-0 -0 -0
-26.03347 -10.43495 0
-9.3484631 -3.7471282 0.56255448
-5.1460371 -2.0698977 -0.9247185
-25.999113 -10.457659 0
-9.3487453 -3.7603588 0.56284446
-5.1506667 -2.0789938 -0.92600113
-25.950256 -10.474454 0
-9.3514261 -3.7745707 0.56328005
-5.1433969 -2.0832903 -0.92514604
-25.862812 -10.475517 0
-9.346858 -3.7858675 0.56328005
-5.1599011 -2.0972362 -0.92856979
-5.2142339 -2.1193197 -0.31438521
-25.777811 -10.477364 0
-9.3374577 -3.7951999 0.56298947
-5.1478553 -2.0995915 -0.92685789
-5.1814833 -2.113307 -0.62372297
-5.2309175 -2.1334691 -0.31554633
-25.639833 -10.457399 0
-9.3352785 -3.8074636 0.56313503
-5.1548176 -2.1096995 -0.92856979
-5.2052507 -2.1303401 -0.6268934
-5.2499771 -2.1486452 -0.31685245
-25.5212 -10.444999 0
-9.3330736 -3.8197241 0.56328005
-5.1498833 -2.1149485 -0.92814058
-5.1931024 -2.1326978 -0.62574023
-5.2401638 -2.1520247 -0.31641689
-5.1815815 -2.1279664 0
-9.3308525 -3.8319845 0.563425
-5.1425819 -2.1192155 -0.92728543
-5.1785669 -2.1340446 -0.62429905
-5.2255497 -2.1534057 -0.31569132
-5.2054768 -2.145134 0
-9.3310251 -3.8452382 0.56371558
-5.1566257 -2.1322951 -0.93028164
-5.1640358 -2.1353595 -0.62285787
-5.198936 -2.1497908 -0.31424022
-5.1932611 -2.1474442 0
-9.3143587 -3.8515427 0.56298947
-5.1492987 -2.136555 -0.92942488
-5.1280107 -2.127722 -0.61882228
-5.1675339 -2.1441212 -0.31249854
-5.1762352 -2.1477315 0
-9.3145027 -3.8647881 0.56328005
-5.1538253 -2.1457362 -0.93070918
-5.1182704 -2.1309335 -0.61795717
-5.1649394 -2.1503634 -0.31249854
-12.825478 -5.3397412 0
-9.3122225 -3.8770378 0.563425
-5.1512289 -2.151962 -0.93070918
-5.1156917 -2.1371162 -0.61795717
-5.1671371 -2.158608 -0.31278908
-5.135016 -2.1451893 0
-9.3171225 -3.8922935 0.56400561
-5.1546593 -2.1570539 -0.93156433
-5.1024718 -2.1352153 -0.61651593
-5.1610332 -2.1597211 -0.31249854
-5.1265144 -2.1452763 0
-9.324357 -3.9019339 0.56458616
-5.166255 -2.1692455 -0.93413293
-12.69528 -5.3305883 -0.76908362
-5.1335168 -2.1554992 0
-9.3220291 -3.9142029 0.56473112
-5.1612577 -2.1744869 -0.93370372
-0 -0 -0
-12.661296 -5.3343239 0
-9.3268709 -3.9294994 0.56531167
-5.1633601 -2.1827226 -0.93456048
-0 -0 -0
-0 -0 0
-9.3221159 -3.9407661 0.56531167
-5.1654406 -2.1909628 -0.93541563
-12.639997 -5.3613558 -0.76690692
-12.648368 -5.3649058 0
-9.3269167 -3.9560859 0.56589228
-5.1627898 -2.1972027 -0.93541563
-5.1989508 -2.2125921 -0.62977684
-12.626335 -5.3735709 -0.76647139
-12.641876 -5.3801851 0
-9.3245182 -3.9683692 0.56603724
-5.1624985 -2.2044504 -0.93584478
-5.1915116 -2.2168391 -0.62919974
-5.212152 -2.2256527 -0.31656244
-12.640148 -5.3974981 0
-9.3340588 -3.9857578 0.56690836
-5.1621885 -2.2116966 -0.93627238
-5.1745687 -2.2170007 -0.62747049
-5.2046771 -2.2299004 -0.31627187
-5.2110434 -2.2326281 0
-9.3244543 -3.9949846 0.56661779
-5.1689458 -2.2219877 -0.93798423
-12.652124 -5.4387999 -0.76922864
-5.2059531 -2.237896 0
-9.3196211 -4.0062485 0.56661779
-5.1544738 -2.2231493 -0.93584478
-5.140696 -2.217207 -0.62401098
-12.640776 -5.4520273 -0.7689386
-12.649176 -5.4556503 0
-9.3195496 -4.0195665 0.56690836
-5.1588449 -2.2324314 -0.93712747
-5.1261468 -2.2182817 -0.6225698
-12.631797 -5.4662666 -0.76879364
-12.637794 -5.4688616 0
-9.3146858 -4.0308247 0.56690836
-5.1608577 -2.24071 -0.93798423
-5.1210923 -2.2234449 -0.62228179
-5.1485596 -2.2353704 -0.31351465
-12.626406 -5.4820571 0
-9.3217239 -4.0472498 0.56763393
-5.1722627 -2.2530935 -0.94055122
-5.1363258 -2.2374389 -0.3129341
-5.1330462 -2.2360103 0
-9.3168268 -4.0585103 0.56763393
-5.1577773 -2.2542024 -0.93841177
-12.649985 -5.5286655 -0.7711153
-5.1374879 -2.2453346 0
-9.3119164 -4.0697651 0.56763393
-5.1691604 -2.2666202 -0.94098043
-12.643295 -5.5439463 -0.7711153
-12.661263 -5.551825 0
-9.3165102 -4.0851874 0.56821448
-5.1617141 -2.2707949 -0.94012368
-12.636588 -5.5592194 -0.7711153
-12.656935 -5.5681705 0
-9.3282194 -4.1037674 0.56923062
-5.1683602 -2.2811763 -0.94183552
-12.627486 -5.5734358 -0.77097028
-12.657333 -5.5866094 0
-9.3113613 -4.1097865 0.56850451
-5.1693268 -2.2853355 -0.94226307
-5.1984553 -2.298213 -0.63352436
-12.647887 -5.5915723 -0.77242196
-12.665855 -5.5995159 0
-9.308876 -4.1154113 0.56850451
-5.1665616 -2.29158 -0.94226307
-5.1862173 -2.300298 -0.63237119
-5.2115993 -2.3115561 -0.31844911
-12.668595 -5.6190367 0
-9.2967777 -4.1234984 0.56806952
-5.1684842 -2.2999103 -0.94311982
-5.1857948 -2.3076134 -0.63265926
-5.2064309 -2.3167961 -0.31830412
-5.241334 -2.3323276 0
-9.3036566 -4.1400099 0.56879503
-5.1680431 -2.3071992 -0.94354737
-12.648888 -5.6469154 -0.77372807
-5.2242579 -2.3322954 0
-9.3010178 -4.152307 0.56894004
-0 -0 -0
-5.1722822 -2.316591 -0.94483173
-5.1448021 -2.3042829 -0.62833565
-12.627822 -5.6558204 -0.77285695
-12.683774 -5.6808801 0
-9.3031101 -4.1667295 0.56937563
-5.1577649 -2.3175752 -0.94269061
-5.1349339 -2.3073165 -0.62747049
-12.620978 -5.6710744 -0.77285695
-12.667404 -5.6919355 0
-9.3075495 -4.1822276 0.56995618
-5.1666689 -2.3290837 -0.94483173
-5.1274219 -2.3113914 -0.6268934
-5.140686 -2.3173709 -0.31496575
-12.655777 -5.7051001 0
-9.3024893 -4.193471 0.56995618
-5.1685243 -2.3374383 -0.94568682
-5.1331515 -2.3214412 -0.31467578
-5.1892071 -2.346792 0
-9.2997808 -4.2057776 0.57010114
-5.1675377 -2.3520508 -0.94654357
-12.654907 -5.7599936 -0.77663034
-12.69422 -5.7778869 0
-9.3061476 -4.2357755 0.57111728
-5.1576843 -2.3550932 -0.94525927
-12.63376 -5.7688065 -0.77575976
-12.675394 -5.787817 0
-9.3033838 -4.2480955 0.5712623
-5.1688337 -2.3677361 -0.94782627
-5.2050748 -2.3843374 -0.63813704
-12.619691 -5.7808199 -0.77532423
-12.6613 -5.79988 0
-9.3029642 -4.2614961 0.57155228
-5.1636386 -2.3729091 -0.94739866
-5.2045379 -2.3917038 -0.63842505
-5.2181935 -2.3979793 -0.32077134
-12.66137 -5.8184319 0
-9.2978086 -4.2727337 0.57155228
-5.1677637 -2.3823717 -0.94868302
-5.1922488 -2.3936594 -0.63727188
-5.2247314 -2.4086342 -0.32135192
-12.651969 -5.8326378 0
-9.2997198 -4.2872295 0.57198781
-5.1695366 -2.3907673 -0.94953811
-5.1799622 -2.3955886 -0.63611871
-12.650544 -5.8505254 -0.77851754
-5.2400403 -2.4233732 0
-9.2968893 -4.2995534 0.57213283
-5.1736326 -2.400254 -0.95082241
-12.643465 -5.8658066 -0.77851754
-12.687411 -5.8861952 0
-9.2987614 -4.3140655 0.57256842
-5.1745071 -2.40446 -0.95124996
-5.138082 -2.3875341 -0.63150609
-12.637556 -5.8723459 -0.77837199
-12.664972 -5.8850856 0
-9.3032246 -4.3229685 0.57300395
-5.1762562 -2.4128819 -0.95210671
-5.1234741 -2.388278 -0.63006485
-12.649292 -5.8963943 -0.77953309
-12.657852 -5.9003844 0
-9.3003473 -4.3353033 0.57314897
-5.1710048 -2.4180441 -0.95167756
-5.1276159 -2.3977547 -0.63093001
-5.1503539 -2.4083874 -0.31757799
-12.638928 -5.9101639 0
-9.302166 -4.3498406 0.5735845
-5.1704097 -2.4253838 -0.95210671
-12.644416 -5.9313598 -0.78011364
-5.1678848 -2.4241993 0
-9.2992535 -4.3621798 0.57372952
-5.1605048 -2.4283493 -0.95082241
-12.648993 -5.9521646 -0.7808392
-5.1649518 -2.4304419 0
-9.2916269 -4.3723078 0.5735845
-5.1691718 -2.4400611 -0.95296186
-12.639444 -5.9663358 -0.78069425
-12.680958 -5.9859319 0
-9.2980833 -4.3890767 0.57431006
-5.1615839 -2.4441102 -0.95210671
-12.627534 -5.9793816 -0.78040421
-12.659608 -5.9945693 0
-9.2927732 -4.4003081 0.57431006
-5.1609435 -2.4514453 -0.95253432
-5.2041459 -2.4719663 -0.64217257
-12.622644 -5.995749 -0.78054923
-12.652355 -6.0098619 0
-9.2874498 -4.4115334 0.57431006
-5.1695628 -2.4631996 -0.95467371
-5.2128277 -2.4838145 -0.64361376
-5.2218933 -2.4881341 -0.32309303
-12.640381 -6.0229044 0
-9.2938395 -4.42834 0.57503563
-5.1712193 -2.4716604 -0.95553046
-5.1958256 -2.4834213 -0.64188457
-5.2141986 -2.492203 -0.32280302
-5.2605267 -2.5143461 0
-9.2908239 -4.4406857 0.57518065
-5.1728539 -2.4801245 -0.95638561
-12.647689 -6.0639334 -0.78345203
-5.2363667 -2.5105755 0
-9.2924824 -4.4552803 0.57561618
-5.1675425 -2.4852614 -0.95595801
-12.633325 -6.0758314 -0.78301644
-12.677097 -6.0968828 0
-9.2894325 -4.4676299 0.5757612
-5.1714654 -2.4948466 -0.9572407
-5.1378703 -2.4786396 -0.6358307
-12.611928 -6.0843153 -0.78214532
-12.662696 -6.1088071 0
-9.2887125 -4.4811115 0.57605171
-5.1730728 -2.5033321 -0.95809746
-5.1302109 -2.4825904 -0.63525361
-5.1412835 -2.4879487 -0.31902966
-12.655305 -6.1241031 0
-9.2926464 -4.4968596 0.57663232
-5.165421 -2.5073369 -0.9572407
-5.1178999 -2.4842696 -0.63410044
-5.1312585 -2.4907539 -0.3185941
-5.1656423 -2.5074441 0
-9.298892 -4.5137568 0.57735783
-0 -0 -0
-5.1615987 -2.5093358 -0.95681316
-5.128027 -2.4930146 -0.63554162
-5.1344218 -2.4961236 -0.3188841
-5.1524262 -2.5048764 0
-9.2961636 -4.5193739 0.57735783
-5.1700974 -2.5211954 -0.95895255
-5.1924276 -2.5320847 -0.64390182
-5.1617708 -2.5171351 -0.32077134
-5.1353559 -2.5042539 0
-9.3070469 -4.5385766 0.57837397
-5.1716638 -2.5296988 -0.9598093
-5.2079515 -2.5474486 -0.64620817
-5.2170687 -2.5519085 -0.32439914
-5.1206393 -2.5047405 0
-9.2992153 -4.5486741 0.57822841
-5.1778221 -2.5404689 -0.96152121
-5.2234459 -2.5628541 -0.64851451
-5.2396445 -2.5708017 -0.3259958
-21.2124 -10.407744 0
-9.2983828 -4.5621986 0.57851899
-0 -0 -0
-5.1793504 -2.5489883 -0.9623763
-5.2203455 -2.5691638 -0.64851451
-5.2528563 -2.5851638 -0.32701191
-5.2569976 -2.5872018 0
-9.2951927 -4.5745769 0.57866395
-0 -0 -0
-5.1854744 -2.5597899 -0.9640882
-5.1917229 -2.5628746 -0.64534301
-5.2287612 -2.5811582 -0.3257058
-5.2468734 -2.5900993 0
-9.3013058 -4.5915546 0.57938951
-0 -0 -0
-5.189281 -2.5694721 -0.9653725
-5.1747193 -2.5622618 -0.64361376
-5.2046738 -2.5770938 -0.32439914
-5.2274122 -2.5883524 0
-9.3027391 -4.6062503 0.5798251
-0 -0 -0
-5.1930723 -2.5791671 -0.9666568
-5.1530876 -2.5593085 -0.64130747
-5.1852722 -2.5752933 -0.32338357
-5.1963105 -2.5807753 0
-9.2994919 -4.6186423 0.57997006
-0 -0 -0
-5.1646748 -2.5728478 -0.96194875
-5.1407309 -2.56092 -0.6401543
-5.1844807 -2.5827143 -0.32352859
-5.165235 -2.5731268 0
-9.3032074 -4.63451 0.58055067
-0 -0 -0
-5.177639 -2.5871196 -0.96494496
-5.1515198 -2.5740685 -0.64188457
-5.1604385 -2.5785248 -0.32222247
-5.1691084 -2.5828571 0
-9.2976007 -4.6457477 0.58055067
-0 -0 -0
-5.1699147 -2.5910711 -0.9640882
-5.1460867 -2.579129 -0.64159548
-5.1596398 -2.5859215 -0.32236746
-5.1659837 -2.5891011 0
-9.2989521 -4.6604729 0.5809862
-0 -0 -0
-5.1713719 -2.5996242 -0.96494496
-5.1221704 -2.5748911 -0.63900113
-5.1379385 -2.5828176 -0.32120633
-5.1535506 -2.5906656 0
-9.3025999 -4.6763735 0.58156675
-0 -0 -0
-5.1773953 -2.6104939 -0.9666568
-5.1560078 -2.59971 -0.64361376
-11.484888 -5.7907944 -0.71843284
-5.1318259 -2.5875173 0
-9.3015785 -4.6899481 0.58185679
-0 -0 -0
-5.1811032 -2.6202202 -0.9679395
-5.2197957 -2.6397879 -0.65197396
-11.445415 -5.7882476 -0.71640062
-5.1263757 -2.5925429 0
-9.2959051 -4.7011838 0.58185679
-0 -0 -0
-5.1818161 -2.6245129 -0.96836865
-5.2181997 -2.642941 -0.65197396
-5.2367401 -2.6523314 -0.32788247
-20.521482 -10.393826 0
-9.3069763 -4.7138457 0.58272785
-0 -0 -0
-5.1786408 -2.6307724 -0.96836865
-5.2196102 -2.6515849 -0.65255004
-5.2451124 -2.6645403 -0.32860804
-5.2214332 -2.6525109 0
-9.308217 -4.7286153 0.5831629
-0 -0 -0
-5.1868925 -2.6428537 -0.9705081
-5.2164025 -2.6578898 -0.65255004
-5.2372632 -2.6685188 -0.32831803
-5.2483668 -2.6741765 0
-9.3071318 -4.7422204 0.58345342
-0 -0 -0
-5.1768355 -2.6456134 -0.9692238
-5.2131872 -2.6641908 -0.65255004
-5.2224679 -2.6689339 -0.32759249
