# .PCD v0.7 - Point Cloud Data file format
VERSION 0.7
FIELDS x y z
SIZE 4 4 4
TYPE F F F
COUNT 1 1 1
WIDTH 1542
HEIGHT 1
VIEWPOINT 0 0 0 1 0 0 0
POINTS 1542
DATA ascii
-2.3505654 3.5736868 -0.94757789
-3.0706451 4.6684613 -0.93156433
-3.9036903 5.9349837 -0.79178888
-5.6160078 8.5383091 -0.57083338
-7.116713 10.819909 0
-8.5316038 12.971042 0.86718619
-1.615065 2.4490168 -0.96730512
-1.9189841 2.909867 -0.96168333
-2.3506839 3.5644786 -0.9458887
-3.0734599 4.6604657 -0.93070918
-3.9008896 5.9151459 -0.78977054
-5.6091542 8.5054865 -0.56909174
-7.5180421 11.400044 0
-8.5558567 12.973742 0.86805731
-1.6289285 2.463557 -0.97382486
-1.921111 2.9054475 -0.96098918
-2.3577948 3.5658786 -0.94701552
-3.081918 4.6610274 -0.93156433
-3.902328 5.9017978 -0.78861737
-5.6136947 8.4900331 -0.56851119
-7.5016694 11.345366 0
-8.5872869 12.987231 0.8696534
-1.6264414 2.4533467 -0.97056502
-1.94403 2.9324021 -0.97068077
-2.3578885 3.5566719 -0.94532633
-3.0875475 4.6573 -0.93156433
-3.9123118 5.9013858 -0.78919345
-5.6210804 8.4789162 -0.56822115
-7.4233451 11.197477 0
-8.6058483 12.981181 0.86994398
-1.637611 2.463726 -0.9754532
-1.9420168 2.9216936 -0.96791208
-2.3579633 3.5474699 -0.94363713
-3.0889139 4.6471586 -0.93028164
-3.9180093 5.8945022 -0.78890538
-5.6327586 8.4742804 -0.56836617
-7.3216243 11.015117 0
-8.6258383 12.977259 0.87037897
-1.6323653 2.4494092 -0.97056502
-1.9371954 2.9068151 -0.96375781
-2.3566115 3.5361605 -0.94138563
-3.0973711 4.6476908 -0.93113673
-3.9193912 5.8811545 -0.78775221
-5.6329055 8.4523296 -0.56735009
-7.3103943 10.969448 0
-8.6415119 12.966827 0.87037897
-1.6421882 2.4577084 -0.97463906
-1.9476793 2.9149082 -0.9672206
-2.3665292 3.5417612 -0.94363713
-3.1029847 4.6439447 -0.93113673
-3.9207468 5.8678122 -0.78659904
-5.6358976 8.4347172 -0.56662452
-7.3164153 10.94979 0
-8.6485147 12.943417 0.86950845
-1.6506592 2.4639359 -0.9778989
-1.9484047 2.90838 -0.96583498
-2.3623245 3.5262372 -0.94026089
-3.1143088 4.6487231 -0.93284863
-3.9292777 5.8652253 -0.78688818
-5.6374106 8.4149523 -0.56575394
-7.3267412 10.936613 0
-8.6554737 12.920009 0.86863786
-1.627455 2.4229624 -0.96241689
-1.9463221 2.8976932 -0.96306628
-2.3736658 3.5339246 -0.94307482
-3.125649 4.6534805 -0.93456048
-3.9406841 5.8669086 -0.78775221
-5.6417789 8.3995066 -0.56517339
-7.4545832 11.098417 0
-8.6681776 12.905223 0.86834729
-1.6510864 2.4517393 -0.97463906
-1.9498219 2.8953395 -0.96306628
-2.3779342 3.531054 -0.94307482
-3.1341348 4.653955 -0.93541563
-3.9391046 5.8492746 -0.78602302
-5.6475682 8.3862152 -0.56473786
-7.6148052 11.307414 0
-8.6866703 12.899055 0.86863786
-1.6526659 2.4476962 -0.97382486
-1.9491061 2.8867416 -0.96098918
-2.3793526 3.5239625 -0.94194794
-3.1354504 4.6437879 -0.93413293
-3.9447234 5.8423691 -0.78573501
-5.6460648 8.3621569 -0.5635767
-7.6619534 11.347807 0
-8.7051554 12.892852 0.86892784
-1.6514643 2.4395554 -0.97137916
-1.9540032 2.8864679 -0.96168333
-2.3836091 3.5210848 -0.94194794
-3.1453724 4.6463671 -0.93541563
-3.9488771 5.8333106 -0.78515786
-5.6488829 8.3445721 -0.56285113
-7.6960869 11.368717 0
-8.7338362 12.901688 0.87023395
-1.6516374 2.4334719 -0.96975082
-1.9574895 2.8841047 -0.96168333
-2.3878617 3.5182021 -0.94194794
-3.149544 4.6404414 -0.93498802
-3.9530206 5.8242588 -0.78458184
-5.650209 8.3248444 -0.56198061
-8.7445192 12.883905 0
-8.7625504 12.910473 0.87154007
-1.664306 2.4457722 -0.9754532
-1.9581474 2.8775854 -0.96029764
-2.3892548 3.511117 -0.94082326
-3.1580398 4.6408811 -0.93584478
-3.9542346 5.810925 -0.78342867
-5.6602635 8.3180113 -0.56198061
-8.7542238 12.864724 0
-8.7869177 12.912769 0.87241119
-1.6547248 2.4253862 -0.96811932
-1.9658661 2.8814363 -0.96237481
-2.3906288 3.5040257 -0.93969643
-3.160749 4.6328168 -0.93498802
-3.9627094 5.8082771 -0.78371668
-5.6542001 8.2875519 -0.56038392
-8.7726984 12.85844 0
-8.8156929 12.921459 0.87371731
-1.6660293 2.4356289 -0.97301066
-1.9721763 2.8831964 -0.96375781
-2.397733 3.5053329 -0.94082326
-3.1735897 4.639586 -0.93712747
-3.9668069 5.7992191 -0.78314066
-5.6612787 8.2764292 -0.56009394
-8.776474 12.830647 0
-8.8430357 12.927955 0.87487847
-1.6493981 2.4050736 -0.96159959
-1.9699831 2.8725352 -0.96098918
-2.3990898 3.4982381 -0.93969643
-3.1850009 4.6442161 -0.93883932
-3.9679599 5.7858896 -0.78198749
-5.6668644 8.2631512 -0.55965835
-8.7860832 12.811448 0
-8.8718748 12.936545 0.87618458
-1.6691071 2.4275184 -0.97137916
-1.9748781 2.872226 -0.96168333
-2.397562 3.4869699 -0.93744701
-3.1877041 4.636138 -0.93798423
-3.9793401 5.7874784 -0.78285152
-5.6738977 8.2520113 -0.55936784
-8.791234 12.785809 0
-8.9139967 12.964353 0.87879682
-1.6678346 2.4194009 -0.96893662
-1.974074 2.8636391 -0.95960617
-2.406096 3.4903402 -0.93913406
-3.1947591 4.6343942 -0.93841177
-3.9804583 5.774148 -0.78169835
-5.6779652 8.2365923 -0.55878723
-8.8052015 12.773036 0
-8.9901209 13.041285 0.88474739
-1.6707568 2.4173839 -0.96893662
-1.9803828 2.8653753 -0.96098918
-2.4103115 3.4874306 -0.93913406
-3.2018149 4.6326404 -0.93883932
-3.9830248 5.7629571 -0.78083432
-5.6805277 8.2190399 -0.55806172
-8.8043509 12.738835 0
-9.0487146 13.0924 0.88895625
-1.6764325 2.4224653 -0.97137916
-1.979261 2.8600564 -0.95960617
-2.4109735 3.4838862 -0.93857169
-3.1958508 4.6180439 -0.93627238
-3.9806182 5.7520423 -0.77968115
-5.6766233 8.2027903 -0.55719113
-8.8061218 12.724954 0
-9.0743666 13.112571 0.89069796
-1.663864 2.3981063 -0.96241689
-1.9741374 2.8452995 -0.95545453
-2.4166284 3.4830561 -0.93913406
-3.208744 4.6247225 -0.93841177
-3.9831409 5.7408509 -0.77881598
-5.6835651 8.1916513 -0.55690056
-8.8066578 12.692925 0
-9.1198235 13.144287 0.89360017
-1.672406 2.4042101 -0.96567678
-1.9833044 2.85115 -0.95822316
-2.4208353 3.4801335 -0.93913406
-3.2084661 4.6124125 -0.93669993
-3.9900746 5.7360339 -0.77881598
-5.6845589 8.1719828 -0.55603004
-8.8115845 12.667318 0
-9.1668577 13.178051 0.89664799
-1.6625811 2.3839362 -0.95833975
-1.9881817 2.8508072 -0.9589147
-2.4192245 3.4688694 -0.9368825
-3.2213778 4.6190581 -0.93883932
-3.9955246 5.7290893 -0.77852798
-5.6869984 8.1544542 -0.55530447
-8.8194418 12.64599 0
-9.2288542 13.233038 0.90114743
-1.6767907 2.3981299 -0.96485949
-1.9930612 2.850457 -0.95960617
-2.4248745 3.4680321 -0.93744701
-3.2269566 4.6151624 -0.93883932
-4.0039248 5.7263746 -0.77881598
-5.6908913 8.1390581 -0.55472392
-8.8183098 12.611861 0
-9.2790794 13.27085 0.90448523
-1.6910372 2.412293 -0.97137916
-1.9965039 2.8480465 -0.95960617
-2.4276004 3.4630129 -0.9368825
-3.2325308 4.6112599 -0.93883932
-4.0108409 5.7215328 -0.77881598
-5.703702 8.1364269 -0.5550139
-8.8320494 12.599068 0
-9.3473082 13.334093 0.90956467
-1.6882659 2.4021595 -0.96811932
-2.001385 2.8476827 -0.96029764
-2.4390867 3.4704695 -0.93969643
-3.2454851 4.6178579 -0.94098043
-4.0147743 5.7124457 -0.77823889
-5.7000833 8.1103983 -0.55370778
-8.8442764 12.584132 0
-9.3798494 13.346176 0.91116136
-1.692595 2.402144 -0.96893662
-2.0019372 2.8411646 -0.9589147
-2.4388919 3.4612944 -0.93800938
-3.2451479 4.6055393 -0.93926853
-4.0201855 5.7054782 -0.77795082
-5.6934199 8.0801458 -0.55211169
-8.8474836 12.556417 0
-9.403451 13.345451 0.91188693
-1.694066 2.3980725 -0.96811932
-2.0010247 2.8325946 -0.95683753
-2.4386728 3.4521172 -0.93632019
-3.25367 4.605804 -0.94012368
-4.016634 5.6858349 -0.77593362
-5.7001777 8.0690117 -0.55182111
-8.8536367 12.53296 0
-9.4300661 13.348937 0.91290301
-1.6926811 2.3899786 -0.96567678
-2.0015485 2.8260839 -0.95545453
-2.4428422 3.449168 -0.93632019
-3.2636852 4.6081562 -0.94140798
-4.0220022 5.6788607 -0.77564454
-5.6874003 8.0303173 -0.54964447
-8.853735 12.501019 0
-9.4687109 13.369334 0.91507971
-1.6812555 2.3677754 -0.95752555
-2.006413 2.825707 -0.956146
-2.4484777 3.4482834 -0.9368825
-3.2647908 4.5979276 -0.94012368
-4.022871 5.6655612 -0.77449137
-5.6925845 8.0170813 -0.54920888
-8.8658228 12.486073 0
-9.516449 13.402373 0.91812748
-1.7127827 2.4060125 -0.97382486
-2.0083723 2.8212388 -0.95545453
-2.4511704 3.4432545 -0.93632019
-3.270344 4.5939794 -0.94012368
-4.0252185 5.6543808 -0.77362728
-5.6917176 7.9953771 -0.5481928
-8.877882 12.471106 0
-9.5386639 13.399332 0.91870803
-1.698459 2.3797998 -0.96404529
-2.026351 2.8392265 -0.96237481
-2.4508996 3.4340837 -0.93463099
-3.2773826 4.5921121 -0.94055122
-4.0335488 5.6516161 -0.77391529
-5.6983581 7.9842677 -0.54790276
-8.8687544 12.426476 0
-9.55334 13.385684 0.91856307
-1.7056494 2.3837779 -0.96649098
-2.0253992 2.830653 -0.96029764
-2.4594843 3.4373209 -0.93632019
-3.2814364 4.5860629 -0.94012368
-4.0343542 5.6383243 -0.77276212
-5.6974154 7.9625821 -0.54688668
-8.8973913 12.434797 0
-8.2979383 11.597014 0.79650706
-1.694119 2.3616283 -0.95833975
-2.0171194 2.8118956 -0.95476037
-2.4577117 3.4260881 -0.93406862
-3.2839856 4.5779271 -0.93926853
-4.0351338 5.6250391 -0.77160895
-5.699461 7.945137 -0.54616112
-8.8820763 12.381753 0
-8.3073997 11.580644 0.79607147
-1.7186191 2.3896799 -0.97056502
-2.023448 2.8135338 -0.956146
-2.4633317 3.4251769 -0.93463099
-3.2910123 4.5760374 -0.93969607
-4.0494771 5.6306562 -0.77305013
-5.7090569 7.9382448 -0.54616112
-8.8772783 12.343547 0
-8.3259392 11.576928 0.79650706
-1.7200612 2.3855987 -0.96975082
-2.0136421 2.792774 -0.94991726
-2.4704435 3.4263239 -0.93575782
-3.2920334 4.5658088 -0.93841177
-4.0547662 5.6236634 -0.77276212
-5.7140841 7.9250154 -0.54572552
-8.8952284 12.337029 0
-8.3216848 11.541567 0.79476535
-1.7142521 2.3714962 -0.96485949
-2.0390565 2.8208308 -0.96029764
-2.4671404 3.4130421 -0.93294394
-3.3020611 4.5680714 -0.93969607
-4.0600448 5.6166654 -0.77247411
-5.7160459 7.907578 -0.54499996
-8.896409 12.307291 0
-8.3310623 11.525191 0.79433036
-1.7084169 2.357419 -0.95997125
-2.026274 2.7960253 -0.95268589
-2.474242 3.4141695 -0.93406862
-3.3060734 4.5620012 -0.93926853
-4.0592408 5.6012859 -0.77103293
-5.7194977 7.8922496 -0.54441941
-8.9173813 12.304962 0
-8.3449821 11.515117 0.79433036
-1.7156239 2.3613536 -0.96241689
-2.0325973 2.7976303 -0.9540689
-2.4768734 3.4091237 -0.93350631
-3.31007 4.5559206 -0.93883932
-4.0629625 5.5921879 -0.77045578
-5.7213945 7.8748236 -0.54369384
-8.9383621 12.3026 0
-8.3558321 11.500816 0.79403979
-1.7155627 2.3552794 -0.96078539
-2.0404088 2.8012576 -0.956146
-2.4869747 3.4143436 -0.93575782
-3.3140626 4.5498447 -0.93841177
-4.0575337 5.5705495 -0.76814944
-5.7217231 7.8552985 -0.54282278
-8.3755922 11.49877 0
-8.3636036 11.48231 0.79345924
-1.7300916 2.3722131 -0.96811932
-2.0480142 2.8081324 -0.9589147
-2.4875412 3.4107897 -0.93519551
-3.3122714 4.5416174 -0.93712747
-4.0654726 5.574368 -0.7690146
-5.7234087 7.8476458 -0.54253274
-8.3978701 11.51473 0
-8.3705387 11.477256 0.79345924
-1.7198287 2.3521662 -0.96078539
-2.0454826 2.797555 -0.956146
-2.4841578 3.3975201 -0.93237942
-3.3192761 4.53969 -0.93755668
-4.069149 5.5652719 -0.7684375
-5.7328868 7.8407245 -0.54253274
-8.4240656 11.521381 0
-8.3844004 11.467133 0.79345924
-1.7153649 2.3401213 -0.95671135
-2.0488615 2.7950814 -0.956146
-0 0 -0
-3.3262751 4.5377445 -0.93798423
-4.077404 5.5624433 -0.76872659
-5.7454262 7.8379788 -0.54282278
-8.439518 11.513291 0
-8.3921061 11.448611 0.79287869
-1.728438 2.3519905 -0.96241689
-2.0418365 2.7784505 -0.9513002
-2.4968765 3.3976512 -0.93406862
-3.3271937 4.5275145 -0.93669993
-4.0779953 5.5491757 -0.76757342
-5.7441258 7.81638 -0.54180717
-8.4549627 11.50518 0
-8.4120874 11.446837 0.79345924
-1.7532649 2.3797426 -0.97463906
-2.0496578 2.7820427 -0.95337737
-2.4994745 3.3925881 -0.93350631
-3.3372314 4.5296926 -0.93798423
-4.0816264 5.5400753 -0.76699626
-5.7443156 7.7968779 -0.54093605
-8.4750328 11.503337 0
-8.4305382 11.442943 0.79389483
-1.7429246 2.3597314 -0.96730512
-2.050034 2.7755241 -0.95199174
-2.5020638 3.3875237 -0.93294394
-3.3366017 4.5173974 -0.93627238
-4.0883174 5.5351396 -0.76699626
-5.7460151 7.7794824 -0.54021055
-8.4796524 11.480532 0
-8.4366407 11.422299 0.79316926
-1.7457746 2.3576236 -0.96730512
-2.0593579 2.7811098 -0.95476037
-2.5091763 3.3885779 -0.93406862
-3.346642 4.5195537 -0.93755668
-4.0919271 5.526042 -0.76642025
-5.7554107 7.7725339 -0.54021055
-8.505908 11.487009 0
-8.4519815 11.414184 0.79331422
-1.7309433 2.3316979 -0.95752555
-2.0672045 2.7846646 -0.95683753
-2.5102427 3.3814671 -0.93294394
-3.3521006 4.5155067 -0.93755668
-4.0955148 5.5169363 -0.76584309
-5.7539606 7.7509751 -0.53919494
-8.5089216 11.462093 0
-8.4827995 11.426907 0.79491037
-1.7396619 2.3375359 -0.96078539
-2.0555923 2.7620428 -0.94991726
-2.5112898 3.374351 -0.93181711
-3.3498867 4.5011506 -0.93541563
-4.0990925 5.5078378 -0.76526707
-5.7633219 7.7440171 -0.53919494
-8.51966 11.447633 0
-8.5090122 11.433325 0.79607147
-1.7557859 2.3532588 -0.96811932
-2.0649292 2.7676001 -0.95268589
-2.5168834 3.3733487 -0.93237942
-3.3537893 4.4950438 -0.93498802
-4.1011033 5.4966598 -0.76440191
-5.7602439 7.7203865 -0.53803384
-8.5474911 11.4561 0
-8.5290356 11.431365 0.79665202
-1.7423477 2.3293703 -0.95915705
-0 0 -0
-2.5179164 3.3662395 -0.93125474
-3.354604 4.4848194 -0.93370372
-4.106194 5.4896312 -0.7641139
-5.777349 7.7238226 -0.53875941
-8.5628853 11.447846 0
-8.5366173 11.412728 0.79607147
-1.7570236 2.3430824 -0.96567678
-2.0731151 2.7646072 -0.95337737
-2.5158846 3.3550634 -0.92900324
-3.3584819 4.4787111 -0.93327618
-4.1097178 5.4805231 -0.76353681
-5.7695279 7.6939664 -0.53716272
-8.5767107 11.437491 0
-8.5504007 11.402405 0.79607147
-1.762821 2.3449051 -0.96730512
-2.068918 2.7520754 -0.94991726
-2.5260441 3.3601449 -0.93125474
-3.3608091 4.4705496 -0.93242109
-4.1194482 5.479692 -0.7641139
-5.7866259 7.6973724 -0.53788829
-8.5999107 11.439606 0
-8.5423155 11.362991 0.79403979
-1.7610341 2.3307803 -0.96323109
-2.0816121 2.7550743 -0.95268589
-2.5326266 3.3520052 -0.93069243
-3.3731489 4.4644608 -0.93284863
-4.1326785 5.4697208 -0.7641139
-5.79738 7.6730018 -0.53716272
-8.6134062 11.400095 0
-13.138795 17.38958 1.2173897
-1.7623582 2.3266823 -0.96241689
-2.0788803 2.7445579 -0.94991726
-2.5336037 3.344888 -0.92956555
-3.3769922 4.4583378 -0.93242109
-4.1314774 5.4544163 -0.76267272
-5.8082142 7.6680603 -0.53730774
-8.6318903 11.395905 0
-3.8047214 5.0230298 0.35196811
-1.756197 2.312737 -0.95752555
-2.0761263 2.7340519 -0.94714856
-2.5330379 3.3357592 -0.9278785
-3.3839278 4.4562964 -0.93284863
-4.1380653 5.4494205 -0.76267272
-5.801764 7.6403465 -0.5358566
-8.6488047 11.389616 0
-3.7605019 4.9522071 0.34732366
-1.7874367 2.3479805 -0.97301066
-2.0931034 2.7495048 -0.95337737
-2.5447607 3.3428028 -0.93069243
-3.3846436 4.446075 -0.93156433
-4.139945 5.4382405 -0.76180756
-5.8188601 7.6436663 -0.53658217
-8.6783218 11.399861 0
-3.7035315 4.8649669 0.34151861
-1.763279 2.3104489 -0.95833975
-2.0888155 2.737004 -0.94991726
-2.5410917 3.329628 -0.9278785
-3.3931313 4.4460673 -0.93242109
-4.146513 5.4332342 -0.76180756
-5.8154802 7.6201048 -0.53542107
-8.7252445 11.43281 0
-3.7015204 4.8501539 0.34079251
-1.7781848 2.3270638 -0.96567678
-2.0889411 2.7337425 -0.9492231
-2.5461855 3.3321261 -0.92900324
-3.3895822 4.4358573 -0.93070918
-4.1419444 5.420454 -0.76036638
-5.8232412 7.6207232 -0.53571159
-8.8727751 11.611568 0
-3.6886764 4.8272743 0.3393414
-1.7569467 2.2935205 -0.95263731
-2.0937726 2.7332137 -0.94991726
-2.5455728 3.322994 -0.92731404
-3.3949394 4.4317584 -0.93070918
-4.1500621 5.4174967 -0.76065439
-5.8324451 7.6136813 -0.53571159
-8.9548483 11.689671 0
-3.6929278 4.8207526 0.33919638
-1.7853072 2.3247182 -0.96649098
-2.1215165 2.7625096 -0.96098918
-2.5449479 3.3138759 -0.92562699
-3.3987298 4.4256191 -0.93028164
-4.1487298 5.4022236 -0.75921321
-5.8337288 7.5963264 -0.53498608
-3.923748 5.1092658 0
-3.6940005 4.8101025 0.33876082
-1.7700216 2.2990582 -0.95671135
-2.09425 2.7201943 -0.94714856
-2.5504987 3.3128099 -0.9261893
-3.4040749 4.4215093 -0.93028164
-4.1599894 5.403357 -0.76007837
-5.8444867 7.5913286 -0.53513104
-3.9235682 5.0962725 0
-3.6934693 4.7974 0.33818027
-1.7561852 2.2753932 -0.94774598
-2.1021292 2.7236142 -0.9492231
-2.5513916 3.3056989 -0.92506248
-3.4109819 4.4194231 -0.93070918
-4.1538725 5.3819461 -0.75777203
-5.8552413 7.5863161 -0.53527606
-3.9201856 5.0791702 0
-3.6929128 4.7847052 0.33759972
-1.7770833 2.2967269 -0.95752555
-2.1038849 2.71909 -0.94853157
-2.558497 3.3066366 -0.9261893
-3.4116051 4.4092054 -0.92942488
-4.1635351 5.3810101 -0.75834805
-5.8548656 7.5669093 -0.53440547
-3.9263198 5.07443 0
-3.6955142 4.7761335 0.33730972
-1.7722843 2.2848151 -0.95345151
-2.1102471 2.7205143 -0.94991726
-2.5609345 3.301537 -0.92562699
-3.4137866 4.4010272 -0.92856979
-4.1842999 5.3943672 -0.7609424
-3.9784546 5.1289926 -0.36256927
-3.9244745 5.059402 0
-3.7060556 4.7778182 0.33774471
-1.7826284 2.2924256 -0.95752555
-2.1135328 2.7179625 -0.94991726
-2.5633578 3.2964287 -0.92506248
-3.4222505 4.400948 -0.92942488
-4.1733546 5.3668532 -0.75777203
-3.9974096 5.1405916 -0.3637304
-3.9273868 5.0505438 0
-3.7070456 4.767189 0.33730972
-1.7808427 2.2844279 -0.95508301
-2.1121867 2.7094691 -0.94784009
-2.5673389 3.293329 -0.92506248
-3.4259889 4.3947873 -0.92899734
-4.1846023 5.3679204 -0.75863612
-0 0 -0
-3.9334865 5.0457945 0
-3.7207892 4.7729506 0.33803529
-1.7881631 2.2881112 -0.95752555
-2.120095 2.712847 -0.94991726
-2.5713165 3.2902243 -0.92506248
-3.4328759 4.3926649 -0.92942488
-4.1831236 5.3526726 -0.75719488
-0 0 -0
-3.9395804 5.041038 0
-0 0 0
-1.7711123 2.2606578 -0.94693178
-2.1187282 2.7043567 -0.94784009
-2.5690222 3.2791145 -0.92281091
-3.4318485 4.3804307 -0.92771304
-4.1879945 5.3455801 -0.75690687
-0 0 -0
-3.9424617 5.0321808 0
-0 0 0
-1.7814742 2.2682331 -0.95100582
-2.1126997 2.6899605 -0.94368845
-2.5698466 3.2720153 -0.92168623
-3.4292123 4.3661885 -0.92557359
-4.1976423 5.3445797 -0.75748295
-0 0 -0
-3.9453213 5.0233159 0
-0 0 0
-1.7857471 2.2680264 -0.95182312
-2.1066337 2.6755753 -0.93953413
-2.5753686 3.2709022 -0.9222486
-3.4408376 4.3701096 -0.92728543
-4.2009006 5.3354435 -0.75690687
-0 0 -0
-3.9417315 5.0062804 0
-0 0 0
-1.8022667 2.2833257 -0.95915705
-2.1238527 2.6907492 -0.94576293
-2.5683036 3.2538323 -0.91831005
-3.4445267 4.3639359 -0.92685789
-4.2025352 5.3242712 -0.75604171
-4.0055909 5.074759 -0.3611176
-3.9429388 4.9953837 0
-3.7173588 4.7095919 0.33513248
-1.809621 2.2869554 -0.96159959
-2.123992 2.6842501 -0.94437993
-2.5801153 3.2606876 -0.92112392
-3.4481995 4.3577518 -0.92642868
-4.2105751 5.3212233 -0.75633085
-4.002049 5.057693 -0.36024705
-3.9425123 4.9824524 0
-3.7294962 4.7132478 0.33571303
-1.8047044 2.2750874 -0.95752555
-2.122555 2.6757834 -0.94230276
-2.5808921 3.2535825 -0.91999704
-3.4518688 4.351573 -0.92600113
-4.2041421 5.299921 -0.75402451
-4.0130033 5.0589628 -0.36068261
-3.9517674 4.9817667 0
-3.7400346 4.7148471 0.33614859
-1.8074521 2.2729049 -0.95752555
-2.1242266 2.6712549 -0.94161129
-2.5816617 3.2464881 -0.91887236
-3.4571242 4.3473988 -0.92600113
-4.2201991 5.3069797 -0.7557537
-4.0110221 5.0439353 -0.3599565
-3.9448256 4.9606924 0
-3.7732213 4.7448969 0.33861583
-1.7963324 2.2533274 -0.95019168
-2.1290152 2.6706462 -0.94230276
-2.5855825 3.2433662 -0.91887236
-3.4655781 4.3472366 -0.92685789
-4.2249975 5.2998562 -0.75546569
-4.0090165 5.0289283 -0.35923094
-3.9540582 4.9599881 0
-3.7692301 4.7281394 0.33774471
-1.8036844 2.2569494 -0.95263731
-2.1212754 2.654351 -0.93745697
-2.5894995 3.2402396 -0.91887236
-3.4692211 4.3410349 -0.92642868
-4.2168674 5.2765641 -0.75287133
-4.0167108 5.0261083 -0.35937592
-3.9600484 4.9552069 0
-3.7700784 4.7174978 0.33730972
-1.8019562 2.2519958 -0.95100582
-2.1369898 2.6707044 -0.94368845
-2.5978067 3.2466104 -0.92112392
-3.4574103 4.3209004 -0.92257738
-4.2184339 5.2719903 -0.75258225
-4.0148807 5.0175996 -0.35894093
-3.9597926 4.9487534 0
-3.7794216 4.7233348 0.33789027
-1.8108621 2.2575288 -0.95426571
-2.1276572 2.6524646 -0.93815112
-2.5874202 3.2256327 -0.91605848
-3.4658444 4.3207288 -0.92343414
-4.2199502 5.2608423 -0.75171816
-4.0160613 5.0066624 -0.35850537
-3.9625094 4.9399009 0
-3.7948782 4.7309222 0.33876082
-1.8151418 2.2572708 -0.95508301
-2.1402905 2.6616185 -0.94230276
-2.5929067 3.2244823 -0.91662085
-3.4630208 4.3065372 -0.92129475
-4.2246847 5.253726 -0.75143015
-4.0204811 4.999783 -0.35836038
-3.961952 4.9269972 0
-3.8103588 4.7384791 0.33963138
-1.8070083 2.2416043 -0.94937748
-2.1403589 2.6551278 -0.94091982
-2.5920155 3.2154105 -0.91493165
-3.4649966 4.2983484 -0.92043799
-4.234273 5.2526407 -0.75200617
-4.0151024 4.9807582 -0.35734427
-3.9711721 4.9262624 0
-3.799777 4.7136455 0.33818027
-1.8283575 2.2624876 -0.95915705
-2.1530237 2.6642435 -0.94507146
-2.5927076 3.2083273 -0.91380697
-3.4669638 4.2901692 -0.91958284
-4.2341142 5.2394738 -0.750853
-4.0260191 4.9819684 -0.35777983
-3.9754875 4.9194384 0
-3.8005683 4.7029858 0.33774471
-1.8124201 2.237231 -0.94937748
-2.1483467 2.6518953 -0.94161129
-2.5965824 3.2051923 -0.91380697
-3.4721451 4.2859769 -0.91958284
-4.2437015 5.2383771 -0.75143015
-4.0287614 4.9730577 -0.35748926
-3.9666862 4.8964334 0
-3.7948034 4.6842628 0.33672917
-1.8244679 2.2465475 -0.95426571
-2.1499696 2.6473517 -0.94091982
-2.5924397 3.1921847 -0.91099089
-3.4837947 4.2897491 -0.92129475
-4.2418704 5.2232013 -0.7499879
-4.0282149 4.9601183 -0.35690871
-3.9742389 4.8936548 0
-3.7922716 4.6695905 0.3360036
-1.8318639 2.2500932 -0.95671135
-2.1420777 2.6311314 -0.93607402
-2.601109 3.1949632 -0.91268009
-3.4889753 4.2855368 -0.92129475
-4.2530789 5.2240911 -0.750853
-4.0342054 4.9552474 -0.35690871
-3.9735765 4.8807764 0
-0 0 0
-1.8127055 2.2210741 -0.94530344
-2.1484249 2.6324248 -0.93745697
-2.6033626 3.1898513 -0.91211778
-3.4941511 4.2813177 -0.92129475
-4.2528462 5.2109332 -0.74969983
-4.0319767 4.9403052 -0.35618314
-3.976177 4.8719349 0
-0 0 0
-1.8435565 2.2533116 -0.95997125
-2.1531973 2.6317742 -0.93815112
-2.6039939 3.1827664 -0.91099089
-3.4976914 4.2751002 -0.92086554
-4.2542248 5.1997828 -0.74883473
-4.0412369 4.939456 -0.35647371
-3.9804144 4.8651147 0
-0 0 0
-1.8274691 2.2281497 -0.95019168
-2.1627395 2.6369298 -0.94091982
-2.6013925 3.1717591 -0.90873939
-3.5012281 4.268888 -0.92043799
-4.2621493 5.1966443 -0.74912381
-4.0422573 4.9285402 -0.35603815
-3.9862902 4.8603015 0
-0 0 0
-1.8537071 2.2545791 -0.96241689
-2.1595509 2.6265631 -0.93815112
-2.597156 3.158802 -0.90592545
-3.5014911 4.2587037 -0.91915369
-4.2651372 5.1874909 -0.74854666
-4.0366564 4.9096003 -0.35502204
-3.9938111 4.8574901 0
-0 0 0
-1.8359953 2.227545 -0.95182312
-2.1595287 2.6200762 -0.93676549
-2.6025918 3.1576281 -0.90648997
-3.5082719 4.2564564 -0.91958284
-4.268115 5.1783457 -0.74797064
-4.0392833 4.900713 -0.35473204
-3.9847817 4.8345881 0
-0 0 0
-1.8386855 2.2253251 -0.95182312
-2.169085 2.625201 -0.93953413
-2.6047821 3.1525166 -0.90592545
-3.5117726 4.2502294 -0.91915369
-4.2743688 5.1731849 -0.74797064
-4.0352683 4.8838058 -0.35386091
-3.9707284 4.8056946 0
-3.8051498 4.605298 0.33368137
-1.8429482 2.2250032 -0.95263731
-2.1690578 2.6187177 -0.93815112
-2.6037316 3.143502 -0.90423846
-3.5169055 4.2459831 -0.91915369
-4.2806168 5.1680164 -0.74797064
-4.0428286 4.8809333 -0.35400647
-3.9599342 4.7808547 0
-3.8040817 4.5926924 0.3331008
-1.8487902 2.2265744 -0.95426571
-2.1738214 2.6180232 -0.93884265
-2.6156423 3.150126 -0.90705234
-3.5187569 4.2377844 -0.91829854
-4.2852011 5.1608443 -0.74768156
-4.0503817 4.8780422 -0.35415146
-3.9524081 4.7600484 0
-3.8312058 4.6140795 0.33498749
-1.830925 2.1996453 -0.94367194
-2.1705635 2.6076818 -0.93607402
-2.6178226 3.1450124 -0.90648997
-3.5189464 4.2276082 -0.91701424
-4.2914338 5.155663 -0.74768156
-4.0546122 4.8711491 -0.35400647
-3.9315176 4.7232652 0
-3.8284681 4.599463 0.33426192
-1.8446676 2.2107172 -0.94937748
-2.170495 2.6012008 -0.93468833
-2.6183619 3.1379414 -0.90536314
-3.5289876 4.2292686 -0.91829854
-4.2910318 5.14253 -0.74652839
-4.0604949 4.8662462 -0.35400647
-3.9072125 4.6825471 0
-3.8490043 4.6127882 0.33556804
-1.8489217 2.2103808 -0.95019168
-2.1784668 2.6043513 -0.93676549
-2.6172595 3.1289265 -0.90367395
-3.5258615 4.215158 -0.91615915
-4.2889466 5.1274238 -0.74508721
-4.056366 4.8493743 -0.35313535
-3.8894939 4.6498795 0
-3.8862464 4.645997 0.33832526
-1.8515911 2.2081451 -0.95019168
-2.1719434 2.5901866 -0.93261385
-2.6275685 3.1335497 -0.90592545
-3.5309522 4.2108946 -0.91615915
-4.2951388 5.1222377 -0.74508721
-4.0605545 4.8424802 -0.35299036
-3.8516359 4.5933313 0
-3.9035461 4.6552377 0.3393414
-1.8338541 2.1843109 -0.94041204
-2.1847951 2.602318 -0.93745697
-2.6196618 3.1202893 -0.90254927
-3.5351446 4.2107248 -0.9165867
-4.2965713 5.1176629 -0.74479914
-4.0551267 4.8300776 -0.35226479
-3.827636 4.5591125 0
-3.9497952 4.7046165 0.34311473
-1.8508142 2.1991107 -0.94774598
-2.1798623 2.590081 -0.93399686
-2.61852 3.1112878 -0.90086007
-3.536927 4.2025256 -0.91573155
-4.3077497 5.1184058 -0.7456643
-4.0559387 4.8192081 -0.35182923
-3.8197358 4.5385547 0
-3.9755552 4.7236972 0.34485641
-1.8566607 2.2006545 -0.94937748
-2.1846066 2.5893607 -0.93468833
-2.6239145 3.1100616 -0.90142238
-3.5370347 4.1923609 -0.91444725
-4.3022547 5.0993571 -0.74364597
-4.0600853 4.8123198 -0.35168424
-3.8201807 4.527967 0
-3.9762316 4.7129302 0.34442085
-1.8800658 2.2229407 -0.95997125
-2.1974573 2.5982161 -0.93884265
-2.6276705 3.106889 -0.90142238
-3.5338109 4.1782856 -0.91230786
-4.3117566 5.0981083 -0.74422312
-4.065897 4.8074102 -0.35168424
-3.827328 4.5253329 0
-3.9802468 4.70614 0.34427586
-1.8523802 2.1848464 -0.94448608
-2.1924846 2.5859931 -0.93538249
-2.6363537 3.1095278 -0.90311158
-3.5454972 4.1818447 -0.9140197
-4.3128939 5.0869746 -0.74335796
-4.0717025 4.802494 -0.35168424
-3.827749 4.5147552 0
-3.9876091 4.7033072 0.34442085
-1.8486223 2.1750805 -0.9412294
-2.1972308 2.5852516 -0.93607402
-2.6318831 3.0966613 -0.9002977
-3.5405698 4.1658177 -0.9114511
-4.3223844 5.0856972 -0.74393404
-4.0775027 4.7975707 -0.35168424
-3.8483684 4.5279722 0
-4.0050702 4.712347 0.34543696
-1.8592622 2.1822503 -0.94530344
-2.1889625 2.5692255 -0.93122822
-2.6356227 3.0934789 -0.9002977
-3.5489335 4.1654487 -0.91230786
-4.3251748 5.0765371 -0.74335796
-4.0782394 4.7867045 -0.35124868
-3.8437068 4.5114293 0
-3.9972801 4.6916809 0.34427586
-1.8602879 2.1781173 -0.94448608
-2.1888096 2.562767 -0.92984521
-2.6377101 3.0883617 -0.89973539
-3.5506265 4.1572495 -0.9114511
-4.3313055 5.0713072 -0.74335796
-4.0823345 4.7797995 -0.35110369
-3.8660603 4.5265751 0
-3.9826953 4.6631374 0.34253418
-1.8564947 2.168365 -0.9412294
-2.2000613 2.5696471 -0.93330532
-2.6381319 3.0813084 -0.89860851
-3.5539792 4.1510081 -0.9110235
-4.3307014 5.0582108 -0.74220479
-4.0796585 4.7649961 -0.35037813
-3.8833702 4.5357332 0
-3.94608 4.6089773 0.33890584
-1.8752074 2.1848722 -0.94937748
-2.1917255 2.5536587 -0.92845953
-2.6418531 3.0781186 -0.89860851
-3.5556452 4.1428108 -0.91016674
-4.3384929 5.0549355 -0.74249279
-4.0820255 4.7561154 -0.35008755
-3.9007142 4.5448632 0
-3.8822689 4.5233722 0.33295581
-1.8617294 2.1638725 -0.9412294
-2.2013545 2.5586157 -0.93122822
-2.6472259 3.0768485 -0.89917088
-3.5573032 4.1346235 -0.90931165
-4.3395352 5.0438056 -0.74162769
-4.0860763 4.7492118 -0.34994256
-3.9316649 4.5697408 0
-3.8504448 4.4753394 0.32976246
-1.8853263 2.1859508 -0.95182312
-2.2077246 2.5597572 -0.93261385
-2.6443102 3.0659585 -0.89692146
-3.553915 4.1206045 -0.9071722
-4.3439388 5.0366015 -0.74133962
-4.0918117 4.7442713 -0.34994256
-3.9473789 4.576808 0
-3.8354909 4.4470792 0.32802135
-1.879879 2.1743174 -0.94774598
-2.2140944 2.5608797 -0.93399686
-2.6463463 3.0608335 -0.896357
-3.5605688 4.118247 -0.90759981
-4.3415651 5.0215678 -0.73989844
-4.0839453 4.7235985 -0.34878144
-3.9733315 4.5956593 0
-3.8306615 4.4306436 0.32715023
-1.8841283 2.1739173 -0.94856328
-2.2171872 2.5582025 -0.93399686
-2.6500428 3.0576336 -0.896357
-3.5554578 4.1023064 -0.90503281
-4.3442445 5.012413 -0.73932242
-4.0930572 4.7225914 -0.34907201
-3.9686577 4.5790586 0
-3.829205 4.4181576 0.32656968
-1.8867537 2.1716392 -0.94856328
-2.2120512 2.5460544 -0.93053669
-2.6537354 3.0544293 -0.896357
-3.550307 4.0863767 -0.90246415
-4.3519926 5.0091109 -0.73961043
-4.0970511 4.7156749 -0.34892645
-3.9844258 4.5860438 0
-3.8277237 4.4056811 0.32598913
-1.8845049 2.1637647 -0.94611758
-2.2101815 2.5377023 -0.92845953
-2.6524224 3.0454779 -0.89466995
-3.5535576 4.0801497 -0.90203661
-4.3580422 5.0038486 -0.73961043
-4.1010413 4.7087636 -0.34878144
-3.9968011 4.5890765 0
-3.8347495 4.4030104 0.32613412
-1.887118 2.1614859 -0.94611758
-2.2099493 2.5312538 -0.92707658
-2.6594393 3.0460951 -0.89579463
-3.5567985 4.0739212 -0.90160906
-4.3572807 4.9907856 -0.73845726
-4.1016059 4.697938 -0.34834644
-4.0057631 4.5881605 0
-3.8229806 4.3788033 0.32468301
-1.8881022 2.157346 -0.94530344
-2.2146568 2.5304675 -0.92776805
-2.6681399 3.0486174 -0.89748383
-3.5566449 4.0638232 -0.90032476
-4.3598981 4.9816208 -0.73788017
-4.1038537 4.6890645 -0.3480559
-4.0301595 4.6048613 0
-3.8180041 4.3624525 0.32381245
-1.8776674 2.1401997 -0.93878371
-2.2160599 2.5259058 -0.92707658
-2.6667929 3.0396595 -0.89579463
-3.5581698 4.0556674 -0.89946961
-4.3608017 4.9705215 -0.73701608
-4.1009498 4.6743379 -0.34733033
-4.0340061 4.5980339 0
-3.8112752 4.3441615 0.32279631
-1.8962421 2.153486 -0.94611758
-2.2256098 2.5275354 -0.92915368
-2.6639035 3.0252879 -0.89298075
-3.5570276 4.0395732 -0.89732856
-4.371511 4.9645491 -0.73730409
-4.1059771 4.662993 -0.34703979
-4.0474877 4.5965691 0
-3.8036892 4.3196969 0.3214902
-1.9102938 2.1641657 -0.95182312
-2.22368 2.5192001 -0.92707658
-2.667557 3.0220668 -0.89298075
-3.5585117 4.0314264 -0.89647347
-4.3792167 4.9612007 -0.7375921
-4.1081729 4.6541362 -0.34674978
-4.0530391 4.5916748 0
-3.8003099 4.3053594 0.32076466
-1.9047134 2.1525955 -0.94774598
-2.2317114 2.5221496 -0.92915368
-2.6712067 3.0188415 -0.89298075
-3.5667791 4.0309653 -0.89732856
-4.3783522 4.9481573 -0.73643893
-4.1137934 4.6491685 -0.34674978
-4.0568609 4.5848269 0
-3.8020623 4.2968683 0.32047409
-1.8958371 2.1373546 -0.94204354
-2.2414162 2.5269585 -0.93192238
-2.6748524 3.0156116 -0.89298075
-3.5648334 4.018971 -0.89561671
-4.3808985 4.9389973 -0.73586291
-4.1176853 4.6422524 -0.34660476
-4.0520396 4.568244 0
-3.8038061 4.2883868 0.32018408
-1.9099097 2.1479864 -0.94774598
-2.2327971 2.5111229 -0.92707658
-2.6784942 3.0123775 -0.89298075
-3.5696869 4.0146604 -0.89561671
-4.3885798 4.9356313 -0.73615092
-4.1181102 4.6314464 -0.3461692
-4.055829 4.5614014 0
-3.808985 4.2837877 0.32018408
-1.9108608 2.1438339 -0.94693178
-2.2341621 2.5065522 -0.92638505
-2.6838212 3.0110338 -0.89354312
-3.5796611 4.0160952 -0.89690101
-4.3910952 4.9264593 -0.73557383
-4.1202421 4.6225839 -0.34587866
-4.0544109 4.5487261 0
-3.8089697 4.2733612 0.31974855
-1.9118047 2.1396821 -0.94611758
-2.2355127 2.5019746 -0.92569089
-2.6806855 3.0002098 -0.89129156
-3.5879354 4.0155988 -0.89775777
-4.3953228 4.9192233 -0.73528576
-4.610569 5.1601253 -0.38651603
-4.0599041 4.5438242 0
-3.8158603 4.2706914 0.31989354
-1.9044977 2.1263275 -0.9412294
-2.2402129 2.5011456 -0.92638505
-2.6843088 2.9969685 -0.89129156
-3.5944958 4.0131712 -0.89818531
-4.3960915 4.908134 -0.73442173
-4.6462708 5.1874533 -0.38898328
-4.0636501 4.5369711 0
-3.8279524 4.2738199 0.32047409
-1.90376 2.120343 -0.9395979
-2.2465823 2.502167 -0.92776805
-2.6896241 2.9956117 -0.89185393
-3.5993423 4.0088248 -0.89818531
-4.3985596 4.8989658 -0.73384458
-4.647326 5.176033 -0.38854772
-4.0639181 4.5262537 0
-3.822701 4.2575941 0.31960353
-1.9046687 2.1162057 -0.93878371
-2.2428908 2.4919918 -0.92499942
-2.6915436 2.9904728 -0.89129156
-3.602468 4.0025668 -0.89775777
-4.4027472 4.891727 -0.73355657
-4.6622663 5.180069 -0.38927329
-4.0676384 4.5194001 0
-3.831316 4.2568312 0.31989354
-1.9105325 2.1175694 -0.94041204
-2.2526226 2.4967306 -0.92776805
-2.686646 2.9777875 -0.88847768
-3.6021411 3.992491 -0.89647347
-4.4017243 4.8787222 -0.7324034
-4.6737456 5.1802216 -0.38970882
-4.0713544 4.5125513 0
-3.8277552 4.2425542 0.31916797
-1.9164088 2.1189291 -0.94204354
-2.2556376 2.4940069 -0.92776805
-2.6885395 2.9726562 -0.88791531
-3.6052423 3.9862337 -0.89604592
-4.4076161 4.8733997 -0.7324034
-4.6800017 5.1745706 -0.38970882
-4.0750599 4.5057001 0
-3.83462 4.2398515 0.31931299
-1.9173092 2.1147826 -0.9412294
-2.2586496 2.4912796 -0.92776805
-2.6870079 2.9637566 -0.88622612
-3.6100564 3.9818745 -0.89604592
-4.4065523 4.8604059 -0.73125023
-4.6879945 5.170835 -0.38985384
-4.077002 4.496913 0
-3.8432343 4.2390685 0.31960353
-1.9165353 2.1088028 -0.9395979
-2.2616582 2.4885485 -0.92776805
-2.6940014 2.9642646 -0.8873508
-3.6062274 3.9680054 -0.89390481
-4.4141598 4.8569899 -0.73153824
-4.6977377 5.1690164 -0.39014438
-4.0719337 4.4804316 0
-3.8431089 4.228651 0.31916797
-1.9190819 2.1064854 -0.9395979
-2.251147 2.4709775 -0.92223078
-2.6941621 2.9572544 -0.88622612
-3.6110194 3.9636452 -0.89390481
-4.4165449 4.8478327 -0.73096222
-4.7057281 5.1652551 -0.3902894
-4.0755935 4.4735861 0
-3.8429642 4.2182398 0.31873241
-1.9232908 2.1059883 -0.94041204
-2.2524409 2.4664052 -0.92153925
-2.6943099 2.950248 -0.88510144
-3.6192715 3.9630737 -0.89476156
-4.4223995 4.8424926 -0.73096222
-4.7049565 5.1518908 -0.38970882
-4.0757294 4.4628916 0
-3.8410492 4.2059183 0.31815186
-1.9308425 2.1091337 -0.94285774
-2.2655804 2.4747808 -0.92569089
-2.7013009 2.9507351 -0.88622612
-3.6171238 3.951124 -0.89304972
-4.4247508 4.8333259 -0.73038507
-4.7024069 5.1366205 -0.38898328
-4.0740895 4.450285 0
-3.8496408 4.205111 0.31844243
-1.9450892 2.1195481 -0.94856328
-2.2634852 2.4665015 -0.92361641
-2.7048643 2.947469 -0.88622612
-3.6201613 3.9448609 -0.89262217
-4.4270935 4.8241682 -0.72980905
-4.6717172 5.0907326 -0.38593549
-4.0847445 4.4511132 0
-3.8670192 4.2138596 0.31945854
-1.924632 2.0947142 -0.93796951
-2.2632725 2.4632809 -0.92292225
-2.704927 2.943965 -0.88566381
-3.6260142 3.94645 -0.89347726
-4.4247556 4.8157773 -0.72894388
-4.5956807 5.0018072 -0.37940434
-4.090951 4.4524736 0
-3.8730769 4.2153459 0.31974855
-1.9338592 2.099659 -0.9412294
-2.2798443 2.475307 -0.92845953
-2.7050362 2.9369528 -0.88453692
-3.6168673 3.92696 -0.89005351
-4.425313 4.804718 -0.72807878
-4.4961057 4.8815804 -0.37069654
-4.0910439 4.4417901 0
-3.8869677 4.2202177 0.32047409
-1.956508 2.1191056 -0.95100582
-2.2726257 2.4614944 -0.92430788
-2.7016883 2.9262147 -0.88228542
-3.5833025 3.8810961 -0.88063908
-4.434628 4.8031716 -0.72865587
-4.4455953 4.8150506 -0.36605206
-4.0946374 4.434926 0
-3.893832 4.2174325 0.32061964
-1.9305288 2.0859046 -0.93715221
-2.2755983 2.4587467 -0.92430788
-2.7052221 2.9229481 -0.88228542
-3.5077839 3.790103 -0.86095339
-4.4404283 4.7978096 -0.72865587
-4.4390602 4.7963319 -0.36503652
-4.0858579 4.4147024 0
-3.9112749 4.226068 0.32163522
-1.9548993 2.1071236 -0.94774598
-2.2785676 2.4559951 -0.92430788
-2.7035725 2.9140944 -0.88059837
-3.2330236 3.4847729 -0.79248196
-4.4391856 4.7848563 -0.7275027
-4.4165759 4.7604861 -0.36271429
-4.087646 4.4059429 0
-3.9146128 4.2194362 0.3214902
-1.957444 2.1047599 -0.94774598
-2.2781131 2.4495625 -0.92292225
-2.7036276 2.9071009 -0.87947154
-3.2092671 3.4507945 -0.78563613
-4.4449639 4.779489 -0.7275027
-4.4064002 4.7380233 -0.36140817
-4.0929666 4.4010005 0
-3.9303224 4.2261157 0.32236075
-1.9414513 2.0825121 -0.93878371
-2.2793622 2.4449747 -0.92223078
-2.7071383 2.903832 -0.87947154
-3.2134345 3.4469142 -0.78563613
-4.4507356 4.7741146 -0.7275027
-4.4138923 4.7345943 -0.36155316
-4.0911827 4.3884373 0
-3.9372029 4.2232699 0.32250634
-1.9524024 2.0891919 -0.94285774
-2.285744 2.4458883 -0.92361641
-2.7123783 2.9024134 -0.88003385
-3.2210991 3.4467764 -0.78649122
-4.4512014 4.7630625 -0.72663754
-4.4231548 4.7330508 -0.36184317
-4.0964823 4.383491 0
-3.9493997 4.2261033 0.32308689
-1.9397192 2.0705993 -0.93552381
-2.2869775 2.4412885 -0.92292225
-2.7158833 2.8991339 -0.88003385
-3.2199948 3.4372597 -0.78520691
-4.4516468 4.7520156 -0.72577244
-4.4288707 4.7277026 -0.36184317
-4.0982208 4.374743 0
-3.9598277 4.2270117 0.32352188
-1.9692906 2.0970814 -0.94856328
-2.2899258 2.4385233 -0.92292225
-2.7176466 2.8939998 -0.87947154
-3.2241457 3.4333663 -0.78520691
-4.4467654 4.7353244 -0.72404319
-4.4434786 4.7318244 -0.36256927
-4.0928111 4.3584013 0
-3.9845004 4.243062 0.32511857
-1.9633477 2.0856969 -0.94448608
-2.2808385 2.4229727 -0.91807914
-2.714175 2.8833134 -0.87721997
-3.2247763 3.4257333 -0.78435177
-4.4489417 4.7261848 -0.72346717
-4.4723449 4.7510467 -0.36445597
-4.1069922 4.362926 0
-4.0109968 4.2609487 0.32686022
-1.9726515 2.0905135 -0.94774598
-2.2958121 2.4329822 -0.92292225
-2.715915 2.8781855 -0.87665761
-3.2236261 3.4162314 -0.78306746
-4.4386678 4.7038693 -0.72087175
-4.5333605 4.8042202 -0.36895487
-4.1069074 4.3522873 0
-4.0553722 4.2976727 0.33005303
-1.9615949 2.0737708 -0.9412294
-2.2918608 2.4229231 -0.92015624
-2.7141507 2.8693621 -0.87496841
-3.2224646 3.4067442 -0.78178483
-4.4407969 4.6947484 -0.72029567
-4.5802331 4.8421583 -0.3722932
-4.1103697 4.3454256 0
-4.0909162 4.3248591 0.33252025
-1.9623938 2.0696003 -0.94041204
-2.2947867 2.4201522 -0.92015624
-2.7193692 2.8679297 -0.87553293
-3.2301078 3.4065702 -0.78263992
-4.4233327 4.6649814 -0.71654814
-4.6504378 4.9044938 -0.37751767
-4.1066656 4.3310151 0
-4.1015043 4.3255715 0.33295581
-1.975113 2.0779798 -0.94530344
-2.2977095 2.4173775 -0.92015624
-2.7140749 2.855428 -0.8727169
-3.2359884 3.4045236 -0.78306746
-4.4147105 4.6446352 -0.7142418
-4.6814198 4.9252353 -0.37954935
-4.1083136 4.3222809 0
-4.1031442 4.3168421 0.33266526
-1.9656861 2.0630643 -0.9395979
-2.3006287 2.4145994 -0.92015624
-2.719281 2.8539913 -0.87328142
-3.2400997 3.4006109 -0.78306746
-4.3953443 4.6130853 -0.71020627
-4.6282253 4.8575029 -0.37476045
-4.1045585 4.3078942 0
-4.1065664 4.3100019 0.33252025
-1.9630545 2.0553238 -0.93715221
-2.3018067 2.4099984 -0.91946208
-2.7315006 2.859889 -0.87609529
-3.2388923 3.3911297 -0.78178483
-4.3776927 4.583457 -0.70645875
-4.5551238 4.769228 -0.36837432
-4.102571 4.2954035 0
-4.1117711 4.3050365 0.33252025
-1.9655366 2.0529504 -0.93715221
-2.306457 2.4090326 -0.92015624
-2.7279253 2.8492451 -0.87384373
-3.2571828 3.4020405 -0.78520691
-4.3474536 4.5407991 -0.70069289
-4.5447116 4.74683 -0.3670682
-4.1203513 4.303597 0
-4.1115775 4.2944326 0.33208469
-1.9782876 2.0612767 -0.94204354
-2.304153 2.4008121 -0.91807914
-2.727844 2.8422771 -0.8727169
-3.2524054 3.3888435 -0.78306746
-4.3224921 4.5038209 -0.6957922
-4.5180612 4.7075934 -0.36445597
-4.1147394 4.2873526 0
-4.1113639 4.2838354 0.33164912
-1.984665 2.0654225 -0.94448608
-2.3021233 2.3957982 -0.91669345
-2.7242842 2.8351371 -0.87102985
-3.2526753 3.3850288 -0.78263992
-4.3072882 4.4825549 -0.69290876
-4.5281057 4.7123575 -0.36503652
-4.1119175 4.2792344 0
-4.1139512 4.2813506 0.33164912
-1.9785876 2.0541241 -0.94041204
-2.3189399 2.40747 -0.92223078
-2.73123 2.8355 -0.87215453
-3.256763 3.3810961 -0.78263992
-4.3019385 4.4661736 -0.69117951
-4.4905329 4.6619678 -0.36155316
-4.1279216 4.2855129 0
-4.1137185 4.2707677 0.33121413
-1.9948026 2.0659561 -0.94693178
-2.3148768 2.3974471 -0.91946208
-2.7346542 2.8321977 -0.87215453
-3.2519321 3.3679266 -0.78050047
-4.2929592 4.4460869 -0.68887323
-4.5069885 4.6677504 -0.36242372
-4.1168218 4.2636666 0
-4.1098533 4.2564492 0.33048859
-1.9887044 2.0546663 -0.94285774
-2.3195217 2.396456 -0.92015624
-2.7310057 2.8215883 -0.86990303
-3.2613571 3.3695304 -0.78178483
-4.294734 4.4371829 -0.68829715
-4.4945574 4.6436338 -0.36097261
-4.1219707 4.2586894 0
-4.10957 4.2458773 0.33005303
-1.9756974 2.0362985 -0.93552381
-2.3189182 2.3900471 -0.91877061
-2.7291033 2.8128138 -0.86821383
-3.2582757 3.3582175 -0.78007293
-4.2910886 4.4227104 -0.68685597
-4.516448 4.6549821 -0.36227873
-4.1253033 4.2518396 0
-4.1074595 4.2334485 0.32947245
-1.9747066 2.0303626 -0.93389237
-2.3253062 2.3908436 -0.92015624
-2.7360466 2.8131607 -0.86934066
-3.2587481 3.350594 -0.77921617
-4.2874079 4.408246 -0.68541372
-4.5021462 4.6290369 -0.36068261
-4.126812 4.243124 0
-4.0962687 4.2117195 0.32816634
-1.9737111 2.0244391 -0.93226397
-2.321188 2.380847 -0.9173876
-2.7429879 2.8134878 -0.87046534
-3.261004 3.3448179 -0.77878863
-4.2782865 4.3882465 -0.68310738
-4.5059171 4.6217275 -0.36053705
-4.1246691 4.2306809 0
-4.0868435 4.1918826 0.32700524
-1.9917017 2.0379598 -0.9395979
-2.3223047 2.3762412 -0.91669345
-2.742837 2.8065405 -0.86934066
-3.2632506 3.339041 -0.77836108
-4.2673173 4.3664274 -0.68051302
-4.4987903 4.6032763 -0.35952148
-4.1297779 4.2256937 0
-4.0955343 4.1906548 0.32729524
-1.9889722 2.0302534 -0.93715221
-2.3199122 2.3680623 -0.91461897
-2.7391136 2.795964 -0.86708915
-3.2780581 3.3460944 -0.78092808
-4.2653499 4.3538775 -0.67935985
-4.5061655 4.5996914 -0.3596665
-4.1367002 4.222558 0
-4.0769572 4.1615748 0.32540855
-1.9793063 2.0155096 -0.93144977
-2.3262842 2.3688338 -0.91600198
-2.7424898 2.7926524 -0.86708915
-3.2838957 3.343961 -0.78135562
-4.2561097 4.3339572 -0.67705351
-4.4935174 4.5757074 -0.35821536
-4.1417994 4.2175565 0
-4.0819826 4.1566453 0.32540855
-1.9782691 2.0095904 -0.92981827
-2.3326681 2.3696003 -0.9173876
-2.7458622 2.7893364 -0.86708915
-3.2825365 3.3345077 -0.78007293
-4.2540922 4.3214455 -0.67590141
-4.5081553 4.5795317 -0.35894093
-4.1468925 4.2125487 0
-4.0870023 4.15171 0.32540855
-1.9824302 2.0089562 -0.93063247
-2.3337624 2.3649893 -0.91669345
-2.7438748 2.7805891 -0.86539996
-3.2829535 3.3268809 -0.77921617
-4.2502217 4.3070917 -0.67445916
-4.5118623 4.5722332 -0.35879594
-4.1519794 4.2075353 0
-4.0792451 4.1338272 0.324393
-1.9900724 2.0118325 -0.93307817
-2.3383877 2.3639562 -0.9173876
-2.7418771 2.7718575 -0.86371291
-3.2797499 3.3156116 -0.77750432
-4.2499714 4.296442 -0.67359507
-4.5100741 4.5593886 -0.35821536
-4.1424189 4.1877131 0
-4.0878882 4.1325865 0.32468301
-2.0012016 2.0181999 -0.93715221
-2.3377061 2.3575628 -0.91600198
-2.7487991 2.7721477 -0.86483759
-3.2927895 3.3207588 -0.77964371
-4.251514 4.2876267 -0.67301798
-4.5338726 4.5723839 -0.3596665
-4.1493063 4.1845512 0
-4.0892229 4.1239572 0.324393
-1.9984165 2.0105267 -0.93470967
-2.3387861 2.3529587 -0.91531044
-2.7503572 2.7670238 -0.86427528
-3.2913756 3.3113208 -0.77836108
-4.2548699 4.2806535 -0.67272991
-4.5503812 4.5779562 -0.36053705
-4.1543598 4.1795344 0
-4.0868759 4.1116414 0.32381245
-2.0322425 2.0396225 -0.94937748
-2.3398585 2.3483555 -0.91461897
-2.7501082 2.7600951 -0.86314839
-3.2917471 3.3037009 -0.77750432
-4.2582154 4.2736788 -0.6724419
-4.9593792 4.9773889 -0.39246607
-4.1483889 4.1634536 0
-4.0881691 4.1030154 0.32352188
-2.0015178 2.0039377 -0.93389237
-2.3462367 2.3490734 -0.91600198
-2.7498534 2.7531781 -0.86202371
-3.2993681 3.3033571 -0.77836108
-4.2560649 4.2612104 -0.67128873
-5.0039496 5.0099998 -0.39551386
-4.1607733 4.1658034 0
-4.0912895 4.0962358 0.32337689
-1.9969426 1.9945312 -0.93063247
-2.3401999 2.337374 -0.91254181
-2.7495792 2.7462587 -0.86089689
-3.3033571 3.2993681 -0.77836108
-4.2666955 4.2615428 -0.67215282
-5.0302248 5.0241504 -0.39711052
-4.1565986 4.1515794 0
-4.0925627 4.0876203 0.32308689
-1.9923545 1.9851454 -0.92737573
-2.3483555 2.3398585 -0.91461897
-2.7564988 2.7465248 -0.86202371
-3.3091581 3.2971845 -0.77878863
-4.2645197 4.2490888 -0.67100072
-5.0473323 5.0290694 -0.39798108
-4.161612 4.146554 0
-4.1067004 4.0918407 0.32381245
-1.9900463 1.9804511 -0.92574424
-2.3479855 2.3366644 -0.91392481
-2.7527528 2.7394803 -0.86033452
-3.3147852 3.2988026 -0.77964371
-4.2634158 4.2428594 -0.67042357
-5.0356355 5.0113559 -0.39681998
-4.1659594 4.1458726 0
-4.0981174 4.0783577 0.32294133
-2.0012062 1.9867501 -0.92981827
-2.3508072 2.3338256 -0.91392481
-2.7614722 2.7415242 -0.86202371
-3.3133087 3.2893744 -0.77836108
-4.263031 4.2322359 -0.66955847
-4.5198603 4.4872103 -0.35574815
-4.1654234 4.1353335 0
-4.0956659 4.0660801 0.32236075
-2.0141454 1.9947693 -0.93470967
-2.3447144 2.3221583 -0.91046464
-2.75034 2.7238817 -0.85752064
-3.3081558 3.2763314 -0.77622002
-4.2699847 4.2289071 -0.66984755
-4.5086575 4.4652839 -0.35444146
-4.1667223 4.1266384 0
-4.1061168 4.0666156 0.32279631
-2.014791 1.990592 -0.93389237
-2.3528743 2.3246148 -0.91254181
-2.7536292 2.7205565 -0.85752064
-3.3230724 3.2831604 -0.77878863
-4.2714081 4.2201056 -0.6692704
-4.5269904 4.4726186 -0.35545757
-4.1643 4.114284 0
-4.1036334 4.0543461 0.32221577
-2.003119 1.974283 -0.92737573
-2.3646138 2.3305738 -0.91600198
-2.7623453 2.7225797 -0.85920984
-3.3178973 3.2701344 -0.77664918
-4.276504 4.2149415 -0.6692704
-4.539794 4.4744411 -0.35603815
-4.156292 4.0964599 0
-4.0955729 4.0366149 0.32119966
-2.021363 1.9874551 -0.93470967
-2.3620596 2.3224366 -0.91392481
-2.7583857 2.7121143 -0.85695827
-3.3273325 3.2715173 -0.77793187
-4.2797513 4.2079592 -0.66898239
-4.5433459 4.4671326 -0.35589314
-4.1649537 4.0950875 0
-4.0985966 4.0298433 0.32105464
-2.0202305 1.9815464 -0.93307817
-2.3702388 2.3248527 -0.91600198
-2.7616606 2.7087793 -0.85695827
-3.3239524 3.2603042 -0.77622002
-4.2866774 4.2045941 -0.6692704
-4.5598674 4.4725533 -0.35676369
-4.1698985 4.0900521 0
-4.1034627 4.024888 0.32105464
-2.0480044 1.9991007 -0.94367194
-2.365082 2.3086069 -0.91185033
-2.7681987 2.7020977 -0.85695827
-3.3373344 3.257643 -0.77750432
-4.2949767 4.1924181 -0.66898239
-4.5948334 4.4851146 -0.35865039
-4.1760426 4.0763235 0
-4.1076045 4.0095201 0.32061964
-2.0380282 1.9845594 -0.93796951
-2.3660672 2.303992 -0.91115618
-2.7678173 2.6952021 -0.85583144
-3.3394308 3.2518189 -0.77707678
-0 0 -0
-4.5890832 4.4686861 -0.35777983
-4.1772394 4.067647 0
-4.1161656 4.0081758 0.32090965
-2.028013 1.9700387 -0.93226397
-2.3742497 2.3063774 -0.91323334
-2.7692511 2.6900871 -0.85526907
-3.3415179 3.2459946 -0.77664918
-4.3088021 4.1856275 -0.66955847
-4.592617 4.461329 -0.35763481
-4.1840162 4.0644083 0
-4.1172819 3.9995818 0.32061964
-2.0179658 1.9555449 -0.92655843
-2.3662286 2.293035 -0.9090817
-2.7724996 2.686739 -0.85526907
-3.3325315 3.2294476 -0.77365303
-4.3157196 4.1822233 -0.66984755
-4.5980043 4.4557762 -0.35763481
-4.1907911 4.0611591 0
-4.1221113 3.9946039 0.32061964
-2.02566 1.9582604 -0.92900413
-2.3798163 2.300633 -0.91323334
-2.7702618 2.6780872 -0.85357988
-3.3364313 3.2254186 -0.77365303
-4.3207698 4.1770053 -0.66984755
-6.4471984 6.2326818 -0.50087982
-4.1975646 4.0578995 0
-4.1231952 3.9860048 0.3203291
-2.0315795 1.9592396 -0.93063247
-2.369952 2.2855635 -0.90838754
-2.7698412 2.6712136 -0.8524552
-3.3458712 3.2267325 -0.77493733
-4.3351207 4.180757 -0.67128873
-6.4341488 6.2050438 -0.49928313
-4.185607 4.0365672 0
-4.1242714 3.9774156 0.32003909
-2.0357316 1.9585019 -0.93144977
-2.3817568 2.2914 -0.91185033
-2.7748961 2.6696248 -0.85301757
-3.3442161 3.2173464 -0.77365303
-4.3345757 4.1701345 -0.67042357
-4.7826452 4.6012058 -0.37069654
-4.1942358 4.0351186 0
-4.1103449 3.9544108 0.31858742
-2.0380964 1.9560406 -0.93144977
-2.3827083 2.2867782 -0.91115618
-2.774457 2.6627545 -0.85189289
-3.3573599 3.2221892 -0.77579242
-4.3489399 4.1738472 -0.67186481
-4.8200703 4.6260095 -0.37316376
-4.1859627 4.0174317 0
-4.1113744 3.9458463 0.31829742
-2.0493832 1.9621212 -0.93552381
-2.3818491 2.2804308 -0.90977317
-2.7776723 2.6594002 -0.85189289
-3.3501289 3.2074816 -0.77322549
-4.3502469 4.1650152 -0.67128873
-4.8106413 4.6058059 -0.37200266
-4.1889362 4.0105729 0
-4.1198893 3.9444661 0.31858742
-2.023155 1.9323299 -0.9224844
-2.3791583 2.2723513 -0.90769601
-2.784555 2.6595485 -0.85301757
-3.3502858 3.1998818 -0.77236873
-4.3534079 4.1579709 -0.67100072
-4.8124485 4.5964041 -0.37171265
-4.206955 4.0180926 0
-4.1227751 3.9376922 0.31844243
-2.0469613 1.9503433 -0.93226397
-2.3800876 2.267746 -0.90700454
-2.7822461 2.6509221 -0.85132837
-3.3671613 3.2082288 -0.77536488
-4.3640413 4.1580553 -0.67186481
-4.8123531 4.5852065 -0.37127709
-4.1967335 3.9986446 0
-4.1369343 3.9416683 0.31916797
-2.0427661 1.943993 -0.92981827
-2.3869112 2.2714977 -0.9090817
-2.7838471 2.6492407 -0.85132837
-3.3598027 3.1973472 -0.77322549
-4.3665524 4.1554179 -0.67186481
-4.7925344 4.5608025 -0.36953542
-4.1991487 3.9961085 0
-4.1355543 3.9355891 0.31887797
-2.055872 1.9517367 -0.93470967
-2.3932896 2.272063 -0.91046464
-2.7833643 2.6423795 -0.85020369
-3.3655236 3.195051 -0.77365303
-4.3678222 4.1465807 -0.67128873
-4.7792006 4.5371213 -0.36808431
-4.2077451 3.994612 0
-4.1365337 3.9270077 0.31858742
