# .PCD v0.7 - Point Cloud Data file format
VERSION 0.7
FIELDS x y z
SIZE 4 4 4
TYPE F F F
COUNT 1 1 1
WIDTH 1707
HEIGHT 1
VIEWPOINT 0 0 0 1 0 0 0
POINTS 1707
DATA ascii
2.9934351 1.2378032 0.18093273
0 0 -0
0 0 -0
0 0 -0
3.0064437 1.2474383 -0.18180999
3.0526388 1.2666056 0
2.9919374 1.2414193 0.18093273
0 0 -0
0 0 -0
0 0 -0
3.0073307 1.2520678 -0.18195498
3.0030634 1.2502912 0
2.9688478 1.2360458 0.17962661
0 0 -0
0 0 -0
0 0 -0
3.0034204 1.2547001 -0.18180999
3.0135553 1.2589339 0
2.9625523 1.237627 0.17933606
0 0 -0
0 0 -0
0 0 -0
3.0306592 1.2703825 -0.18355165
3.0216324 1.2665987 0
2.9394891 1.2321661 0.17802995
0 0 -0
0 0 -0
0 0 -0
3.0011413 1.2601415 -0.18180999
3.0472548 1.2795041 0
2.9435403 1.2359556 0.17832051
0 0 -0
0 0 -0
0 0 -0
3.016381 1.2708299 -0.1828261
3.0001452 1.2639897 0
2.9372511 1.2374917 0.17802995
0 0 -0
0 0 -0
0 0 -0
2.9885137 1.2633433 -0.18122943
3.0489528 1.288893 0
2.9261801 1.2369928 0.17744939
0 0 -0
0 0 -0
0 0 -0
2.9774165 1.2628949 -0.18064888
3.0569768 1.296641 0
2.9199035 1.2385004 0.17715938
0 0 -0
0 0 -0
0 0 -0
2.9734998 1.265475 -0.18050388
3.0601923 1.3023701 0
2.9136186 1.2399905 0.17686883
0 0 -0
0 0 -0
0 0 -0
2.991086 1.2772304 -0.18166499
3.0562253 1.3050457 0
2.9192894 1.2465724 0.17730439
0 0 -0
0 0 -0
0 0 -0
2.9322174 1.256284 -0.17818163
3.0522563 1.3077137 0
2.9488289 1.263401 0.17919107
0 0 -0
0 0 -0
0 0 -0
2.9903758 1.2854803 -0.18180999
3.0626266 1.3165388 0
2.9711678 1.2772232 0.18064217
0 0 -0
0 0 -0
0 0 -0
2.9697323 1.2808598 -0.18064888
3.0753672 1.3264207 0
3.0483575 1.3147713 0.18543164
0 0 -0
0 0 -0
0 0 -0
2.9848781 1.291672 -0.18166499
3.0546546 1.321867 0
3.1278431 1.3535386 0.1903661
0 0 -0
0 0 -0
0 0 -0
2.9237301 1.2694075 -0.17803665
3.0721526 1.3338487 0
3.2000959 1.3893983 0.19486557
0 0 -0
0 0 -0
0 0 -0
2.9817479 1.2988815 -0.18166499
3.0633879 1.3344448 0
3.1745877 1.3828847 0.1934139
0 0 -0
0 0 -0
0 0 -0
2.9301779 1.2806318 -0.17861719
3.078459 1.3454379 0
3.1919625 1.3950444 0.19457501
0 0 -0
0 0 -0
0 0 -0
2.9762228 1.305041 -0.18151999
3.0577638 1.3407958 0
3.2212086 1.4124646 0.19646168
0 0 -0
0 0 -0
0 0 -0
2.9199369 1.284569 -0.17818163
3.0323243 1.3340117 0
3.2218847 1.4174051 0.19660725
0 0 -0
0 0 -0
0 0 -0
2.9160075 1.287048 -0.17803665
3.0545146 1.3481812 0
3.2391782 1.4296869 0.19776779
0 0 -0
0 0 -0
0 0 -0
2.9524651 1.3074042 -0.18035887
3.0457513 1.3487129 0
3.2683332 1.4472761 0.19965447
0 0 -0
0 0 -0
0 0 -0
2.9651265 1.3172984 -0.18122943
3.060761 1.3597854 0
3.2808344 1.457556 0.2005256
0 0 -0
0 0 -0
0 0 -0
2.8875937 1.2870334 -0.17658553
3.0543661 1.3613658 0
3.2766998 1.4604625 0.20038059
0 0 -0
0 0 -0
0 0 -0
2.9287298 1.3096123 -0.17919776
3.0717254 1.3735542 0
3.2630653 1.459114 0.19965447
0 0 -0
0 0 -0
0 0 -0
2.9840448 1.3386759 -0.1826811
3.0558119 1.3708714 0
3.2660463 1.4651849 0.19994503
0 0 -0
0 0 -0
0 0 -0
2.9998198 1.3479304 -0.18369666
3.0882218 1.3876528 0
3.2556796 1.4628978 0.19936447
3.3001008 1.4876531 -0.99872363
0 0 -0
0 0 -0
0 0 -0
2.9863467 1.3462158 -0.1829711
3.0604422 1.3796173 0
3.251543 1.4657637 0.19921948
0 0 -0
0 0 -0
0 0 -0
2.9160602 1.3187732 -0.1787622
3.0658891 1.3865325 0
3.252135 1.4707612 0.19936447
3.2850752 1.4904422 -0.99526346
0 0 -0
0 0 -0
0 0 -0
3.0209455 1.3706062 -0.18529333
3.0405071 1.3794813 0
3.2645488 1.4811292 0.20023504
0 0 -0
0 0 -0
0 0 -0
3.0311098 1.3796366 -0.1860189
3.0648959 1.3950145 0
3.2603939 1.4839972 0.20009004
3.2928722 1.5035858 -0.99872363
0 0 -0
0 0 -0
0 0 -0
3.0459888 1.3908542 -0.18703501
3.0726776 1.4030409 0
3.2538755 1.4857792 0.19980003
3.2963748 1.5100012 -0.8032155
0 0 -0
0 0 -0
3.0797348 1.410763 -0.18921168
3.0851719 1.4132535 0
3.2449884 1.4864622 0.19936447
3.3337948 1.5320188 -0.81278402
0 0 -0
0 0 -0
3.0567806 1.4047191 -0.18790556
3.0550849 1.4039398 0
3.2243013 1.481702 0.19820336
3.3342555 1.5371128 -0.81334853
0 0 -0
0 0 -0
3.0716016 1.4160278 -0.18892168
3.0392101 1.401095 0
3.2154272 1.4823322 0.19776779
3.2878501 1.5205394 -0.99941778
3.3623743 1.5550047 -0.82066548
3.3884213 1.5670508 -0.62238365
0 0 -0
3.065167 1.4175546 -0.18863112
3.0280664 1.4003967 0
3.2348666 1.4960359 0.19907448
3.3351364 1.5473025 -0.81447321
3.3935046 1.5743818 -0.62366629
0 0 -0
3.1035209 1.4398469 -0.19109836
3.0169289 1.3996733 0
3.2707615 1.5174364 0.20139615
3.3724239 1.5695565 -0.82404166
3.3985841 1.5817317 -0.62495065
0 0 -0
3.0758717 1.4315383 -0.18950224
2.9822073 1.3879461 0
3.2453721 1.5104253 0.19994503
3.3567154 1.5671828 -0.82066548
3.3524733 1.5652022 -0.61681885
0 0 -0
3.1659577 1.4781219 -0.19516227
3.0158935 1.40806 0
3.2482491 1.5165421 0.20023504
3.3548193 1.5712376 -0.82066548
3.3575561 1.5725193 -0.61810315
3.7454848 1.7542068 -0.46099535
3.1312296 1.4665189 -0.19313058
3.0000536 1.4050822 0
3.2675993 1.5303879 0.20154171
3.4104004 1.6022967 -0.83473486
3.3277726 1.563476 -0.61296755
3.5912099 1.6872457 -0.44225773
3.1270969 1.4691932 -0.19298503
2.9630191 1.3921051 0
3.3033679 1.5520099 0.20386338
3.4659202 1.6334965 -0.84880644
3.3607147 1.583913 -0.61938745
3.6687121 1.7290729 -0.45205912
3.1112211 1.466326 -0.19211447
2.9778161 1.4034519 0
3.2920883 1.5515691 0.20328282
3.5742052 1.6898125 -0.87582493
3.3263121 1.5726136 -0.61339676
3.6783097 1.7390311 -0.4535003
3.1258931 1.4778596 -0.19313058
2.9714172 1.4048265 0
3.2737739 1.5477747 0.20226726
3.7351556 1.7714319 -0.91578811
3.3290439 1.5788296 -0.61425185
3.6598535 1.7357192 -0.4514831
3.1170595 1.4782941 -0.19269504
2.9673593 1.4072974 0
3.2366822 1.5350262 0.20009004
3.7146566 1.7672112 -0.91128504
3.3294494 1.5839528 -0.6146794
3.5993648 1.7123623 -0.44427606
3.0941553 1.4720138 -0.19138892
2.9586132 1.4075309 0
3.199635 1.5221947 0.19791336
3.6506011 1.7421499 -0.89608663
3.3599725 1.6034553 -0.62067175
3.5225956 1.6810628 -0.4350507
3.1181636 1.4880587 -0.19298503
2.9709983 1.417828 0
3.1368163 1.4969602 0.19413945
3.611824 1.7290058 -0.88708049
3.3441355 1.6008614 -0.61810315
3.4202516 1.6372988 -0.42265496
3.1116805 1.4895835 -0.19269504
2.9552031 1.4146767 0
3.1256392 1.4962658 0.19355945
3.1173065 1.4969093 -0.76606834
3.3421988 1.604901 -0.61810315
3.3669801 1.6168008 -0.41631308
3.1075382 1.4922185 -0.19255003
2.9511387 1.4171166 0
3.1027408 1.4899149 0.19225278
3.0330851 1.4609793 -0.74580449
3.3402572 1.6089382 -0.61810315
3.3696802 1.6231107 -0.4168891
3.0987074 1.4925884 -0.19211447
2.9494243 1.4206815 0
3.0985994 1.4925363 0.19210778
3.029032 1.4635388 -0.74524218
3.3267558 1.6073902 -0.6159637
3.3747053 1.6305579 -0.41775426
3.1202939 1.5076338 -0.19356559
2.9500556 1.4253798 0
3.092119 1.4940206 0.19181778
3.059268 1.4827101 -0.75312144
3.3363593 1.6170056 -0.61810315
3.4216084 1.6583227 -0.42380813
3.1558826 1.5295355 -0.19588782
2.9647179 1.4368852 0
3.0973196 1.5011523 0.19225278
3.012655 1.4623668 -0.74186379
3.3099852 1.6066933 -0.61339676
3.4508526 1.6750715 -0.42755565
3.20171 1.5541357 -0.19879061
3.0106742 1.4614054 0
3.1081069 1.5087 0.19297889
3.0291617 1.4749045 -0.74636686
3.3380435 1.6252997 -0.6189599
3.5023055 1.7052791 -0.43418553
3.2021639 1.5591396 -0.19893561
2.9784901 1.4502325 0
3.1273055 1.522691 0.19428501
2.9999883 1.465187 -0.73961437
3.329155 1.6259511 -0.6176756
3.5258098 1.7219968 -0.43735704
3.1629198 1.5447623 -0.19661337
2.990762 1.4606808 0
3.1277959 1.5276079 0.19443001
3.023309 1.4811038 -0.74580449
3.4032605 1.6672401 -0.63179809
3.5423083 1.735359 -0.43966338
3.1353893 1.5360115 -0.19501726
3.0006874 1.4700215 0
3.1376131 1.5371008 0.19515558
3.0443172 1.4959596 -0.75143224
3.4450116 1.6928585 -0.63992822
3.5703843 1.7544659 -0.4434109
3.1545179 1.5501115 -0.19632338
3.0152524 1.4816773 0
3.1777267 1.5615163 0.19776779
0 0 -0
3.5396669 1.7446845 -0.65790206
0 0 -0
3.2668362 1.6102074 -0.20343451
3.0484772 1.5025795 0
3.1735091 1.5642071 0.19762281
3.0406933 1.5033121 -0.75143224
3.6411076 1.8001558 -0.67716014
3.6658268 1.8123769 -0.45580664
3.4349263 1.6982201 -0.21402955
0 0 0
3.2088859 1.5864663 0.19994503
0 0 -0
3.6412275 1.8056934 -0.67758775
3.6682732 1.8191054 -0.45638379
3.4980447 1.7346888 -0.2180929
3.0564926 1.515722 0
3.22559 1.5995779 0.20110615
0 0 -0
3.0734515 1.5287616 -0.76043844
3.6298492 1.8055187 -0.67587584
3.6104929 1.7958907 -0.44946477
3.5308464 1.7562739 -0.22027014
3.0616517 1.5228924 0
3.239934 1.6115716 0.2021217
0 0 -0
3.0424809 1.5225393 -0.75368381
3.6231818 1.8131377 -0.6754483
0 0 -0
3.52194 1.7624735 -0.21997958
3.0183997 1.5104884 0
3.2801831 1.6414918 0.20487949
0 0 -0
3.6095192 1.8117574 -0.67330885
0 0 -0
0 0 -0
3.0002887 1.5059611 0
3.3199944 1.6664338 0.20749173
0 0 -0
0 0 -0
0 0 -0
3.4539254 1.738887 -0.43101516
3.5269542 1.7756534 -0.22056013
3.042635 1.5318217 0
3.2947738 1.6587616 0.20604061
3.0256035 1.5278324 -0.75086993
3.7403214 1.8887421 -0.69855773
3.4587417 1.7465533 -0.43187922
3.5294495 1.7822585 -0.22085069
3.0570371 1.5437053 0
3.2974017 1.6650819 0.20633061
3.0169613 1.5280463 -0.74918288
0 0 -0
3.4520183 1.7483962 -0.43130317
3.5180211 1.7818255 -0.22027014
3.1039228 1.572091 0
3.3139319 1.6784575 0.20749173
3.012841 1.5305364 -0.74861836
0 0 -0
0 0 -0
5.0841613 2.5827763 -0.31852439
3.1530626 1.6017696 0
3.3281205 1.6906997 0.20850784
3.0132599 1.5353327 -0.74918288
0 0 -0
0 0 -0
5.101872 2.5995336 -0.31983051
3.1998184 1.6303889 0
3.353858 1.7088759 0.21024951
3.0091336 1.5378128 -0.74861836
3.8271511 1.9558594 -0.71653152
3.4940219 1.7856143 -0.43735704
3.4513843 1.7638245 -0.2164968
3.2279701 1.6496489 0
3.3610458 1.7176571 0.21083008
2.9937105 1.5344958 -0.74524218
3.7813783 1.9382331 -0.70839971
3.4872539 1.787473 -0.43677992
3.456181 1.7715459 -0.21693179
3.195869 1.6381168 0
3.3774669 1.731199 0.21199119
2.9941118 1.5392727 -0.74580449
0 0 -0
3.5080991 1.8035134 -0.43966338
3.4563556 1.7769121 -0.21707734
3.1545422 1.6217499 0
3.3799901 1.7376527 0.2122812
2.9877374 1.5405626 -0.74467981
3.756151 1.9367785 -0.70454842
3.5059173 1.8077509 -0.43966338
3.461128 1.7846563 -0.21751234
3.1502695 1.6243688 0
3.3663428 1.7357824 0.21155563
2.9881284 1.5453377 -0.74524218
3.7515299 1.9401376 -0.70412087
3.5129201 1.8167384 -0.44081655
3.4612837 1.7900342 -0.21765791
3.1459949 1.6269797 0
3.3388519 1.7267175 0.20995896
2.9885125 1.5501159 -0.74580449
3.7423444 1.9411222 -0.70283657
3.4808764 1.805501 -0.43706903
3.4591184 1.7942151 -0.21765791
3.1694324 1.6439576 0
3.3229277 1.7235743 0.2090884
2.9920893 1.554266 -0.74693137
3.7480073 1.9469339 -0.70412087
3.4499488 1.7921048 -0.43332151
0 0 -0
3.2030833 1.6638685 0
3.3080461 1.7183924 0.20821728
2.9992228 1.5625763 -0.74918288
3.7479265 1.9526461 -0.70454842
3.4225464 1.7831252 -0.43015
3.4765985 1.811286 -0.21896403
3.1918383 1.6629277 0
3.3059673 1.7223883 0.20821728
2.9973326 1.5661991 -0.74918288
3.72509 1.9464749 -0.70069712
3.4066393 1.7800746 -0.42842081
3.4928312 1.8251126 -0.22012514
0 0 0
3.2969813 1.7227749 0.20778228
2.9931808 1.5686368 -0.74861836
3.6613419 1.9188 -0.68914163
3.4113522 1.7877879 -0.42928484
3.4929228 1.8305366 -0.22027014
3.2223895 1.6887583 0
3.3017952 1.7303724 0.20821728
2.9912832 1.5722523 -0.74861836
3.5863156 1.885008 -0.6754483
5.0712757 2.66552 -0.6385746
3.4861038 1.8323356 -0.21997958
3.2180364 1.6914363 0
3.3089025 1.7391965 0.20879784
2.9826446 1.5723143 -0.74693137
3.5363495 1.8642021 -0.66646141
0 0 -0
3.4700999 1.8292785 -0.21910901
3.2436166 1.7098868 0
3.3182983 1.7492555 0.20952396
2.9829867 1.5771035 -0.74749368
3.515939 1.8588752 -0.66303766
5.0533891 2.6717241 -0.63713342
3.4541087 1.8261853 -0.21823846
3.2507513 1.7186705 0
3.3046899 1.7471877 0.20879784
3.0057657 1.5937968 -0.75368381
3.5068843 1.8595132 -0.66175336
5.0547228 2.6802492 -0.63770944
3.4518995 1.8303577 -0.21823846
3.2486722 1.7225971 0
3.2819173 1.7402252 0.20749173
3.1451654 1.672585 -0.78914392
3.5091722 1.8661622 -0.66261011
5.0514803 2.6863549 -0.63770944
3.4313316 1.8247669 -0.21707734
3.2282062 1.7167456 0
3.2706354 1.7393093 0.20691118
3.3023148 1.7612782 -0.82910711
3.5227637 1.8788538 -0.66560465
5.0505195 2.6936772 -0.63799858
3.4199533 1.8240204 -0.2164968
3.2284234 1.7218685 0
3.2685313 1.7432599 0.20691118
3.3965197 1.8167969 -0.85330951
3.5544467 1.9012721 -0.67202455
5.0495396 2.7009966 -0.63828659
3.4131598 1.8256978 -0.21620622
3.2194626 1.7220892 0
3.2549684 1.7410812 0.20618561
3.3159614 1.7788627 -0.83361018
3.586081 1.9237696 -0.6784445
3.2822402 1.7607729 -0.41515991
3.4292696 1.8396475 -0.21736735
3.2425997 1.7395076 0
3.2551498 1.7462401 0.20633061
3.0318837 1.6311888 -0.76268995
3.6402593 1.9585019 -0.68914163
3.2755504 1.7622843 -0.41458276
3.4316254 1.8462543 -0.21765791
3.2450836 1.7458928 0
3.2644856 1.7563313 0.20705673
3.0097873 1.6239932 -0.75762451
3.7395513 2.0177524 -0.70839971
3.2825236 1.7711537 -0.41573593
3.4362457 1.8540976 -0.2180929
3.249845 1.7535212 0
3.2554984 1.7565717 0.20662117
2.998884 1.6227916 -0.755373
3.8228991 2.0686924 -0.72466165
3.2963068 1.7837366 -0.41775426
3.4317198 1.8570127 -0.2179479
3.2522972 1.7599214 0
3.2533736 1.760504 0.20662117
2.9790552 1.6167183 -0.75086993
3.739181 2.0292349 -0.70925647
3.2850561 1.7827834 -0.41660109
3.4180565 1.8549621 -0.21722235
3.2570326 1.7675751 0
3.2558072 1.7669102 0.20691118
2.9614837 1.6118176 -0.74693137
3.6983979 2.0128906 -0.70198143
3.2942562 1.7929325 -0.41804227
3.3861449 1.8429438 -0.21533567
3.2663217 1.7777288 0
3.2513897 1.7696019 0.20676617
2.9528408 1.6117415 -0.74524218
3.6486466 1.9915314 -0.69299453
3.2966325 1.7993925 -0.41861942
3.3611031 1.8345822 -0.213884
3.259598 1.779178 0
3.2378473 1.7673059 0.20604061
2.9531178 1.6165272 -0.74580449
3.6349721 1.989772 -0.69085348
3.3012557 1.8070967 -0.41948345
3.3429353 1.8299119 -0.21286844
3.2551651 1.7818669 0
3.2379866 1.7724634 0.20618561
2.9511626 1.6200943 -0.74580449
3.6055703 1.9793434 -0.68571949
3.3104041 1.8173065 -0.42092466
3.3316107 1.8289481 -0.21228789
3.239326 1.7782869 0
3.2404025 1.7788779 0.20647617
2.9402993 1.6187572 -0.74355298
3.5986743 1.9812201 -0.68486273
3.3150055 1.8250486 -0.4217898
3.3453343 1.841746 -0.213304
3.2417302 1.7847075 0
3.2291455 1.7777792 0.20589562
2.949461 1.6284482 -0.74636686
3.5693102 1.9706776 -0.67972714
3.3037407 1.8240522 -0.42063662
3.3521969 1.8508058 -0.213884
3.2259059 1.7810783 0
3.2247138 1.7804202 0.20575005
2.9741659 1.6467806 -0.75312144
3.5467165 1.9637989 -0.67587584
3.283432 1.8180196 -0.41833028
3.384059 1.8737364 -0.21606123
3.2351332 1.7912769 0
3.2111962 1.778023 0.2050245
3.0121551 1.6725737 -0.76325232
3.5376058 1.9643432 -0.67459154
3.2676697 1.8144544 -0.41660109
3.4045053 1.8904358 -0.21751234
3.2511687 1.8052918 0
3.2181323 1.7869476 0.20560506
3.0789516 1.7145346 -0.78070229
3.5285079 1.9648731 -0.67330885
3.2496545 1.8095918 -0.41458276
3.4067633 1.8970789 -0.2178029
3.2512565 1.8104838 0
3.2114348 1.7883089 0.20531505
3.0934429 1.7250535 -0.78464085
3.5161035 1.9607496 -0.67116779
3.2350111 1.8039988 -0.41285357
3.3738489 1.8814216 -0.21577123
3.2410703 1.8073777 0
3.2058105 1.7877152 0.2050245
3.0691838 1.7163905 -0.7790131
3.5226939 1.9700086 -0.6728797
3.2305737 1.8066452 -0.41256556
3.3352866 1.8652042 -0.213449
3.2343454 1.8087544 0
3.2081883 1.7941265 0.20531505
3.0737584 1.7238276 -0.78070229
3.5561349 1.9943545 -0.67972714
3.2125945 1.8016899 -0.41054723
3.337559 1.8717725 -0.21373899
3.2253456 1.808841 0
3.2150836 1.8030858 0.20589562
3.0539558 1.717576 -0.77619916
3.5716224 2.0087171 -0.68315089
3.2013977 1.8004988 -0.40939406
3.3737948 1.8974566 -0.21620622
3.2140841 1.8076339 0
3.2174277 1.8095143 0.20618561
3.0518782 1.7212648 -0.77619916
3.5624826 2.0092466 -0.68186659
3.2014704 1.8056351 -0.40968207
0 0 -0
3.2096331 1.8102388 0
3.2039247 1.8070194 0.20546006
3.063062 1.7324542 -0.77957541
3.6047409 2.0388255 -0.69042593
3.2308095 1.8273314 -0.41371873
3.4234815 1.9363059 -0.21968958
3.2142415 1.8179606 0
3.2062581 1.8134453 0.20575005
3.1051691 1.7612255 -0.79083312
3.6960526 2.0963695 -0.70839971
3.2330942 1.8337835 -0.41429475
3.4166145 1.9378747 -0.21939902
3.2233589 1.8282617 0
3.1927657 1.8109096 0.2050245
3.1737146 1.8051759 -0.8088454
3.7113676 2.1109874 -0.71182346
3.2308762 1.8376888 -0.41429475
3.3713627 1.9175961 -0.21664178
3.2211473 1.8321552 0
3.1928318 1.8160496 0.2051695
3.2951205 1.8795036 -0.84036481
3.6865201 2.1027539 -0.70754462
3.2376401 1.8467174 -0.41544792
3.3284199 1.8984971 -0.21402955
3.241533 1.8489377 0
3.1883802 1.81862 0.2050245
3.3347468 1.9074501 -0.85105801
3.6394107 2.0817156 -0.69898528
3.2219398 1.8429252 -0.41371873
3.3058257 1.8909074 -0.21272343
3.2280035 1.8463936 0
3.1726515 1.8147327 0.20415394
3.3456683 1.919066 -0.8544364
3.5032959 2.0094807 -0.67330885
3.2062447 1.839093 -0.41198841
3.2855067 1.8845575 -0.21156232
3.2235148 1.848999 0
3.1839759 1.8263197 0.2050245
3.3477478 1.9256384 -0.85556108
3.4140797 1.9637929 -0.65661776
3.1905723 1.8352305 -0.41025922
3.2854774 1.8898203 -0.21170732
3.2280395 1.8567818 0
3.1907766 1.835348 0.20560506
3.3586287 1.937302 -0.85893947
3.3694611 1.9435502 -0.64848757
3.1928291 1.8416665 -0.41083524
3.2831917 1.8937888 -0.21170732
3.2348111 1.8658823 0
3.1953113 1.8430983 0.20604061
3.3782759 1.9540786 -0.86456722
3.3537819 1.9399107 -0.64592063
3.1995571 1.8507032 -0.41198841
3.2719038 1.8925503 -0.21112676
3.2258022 1.8658841 0
3.1930819 1.8469578 0.20604061
3.4022872 1.9734577 -0.87132186
3.3536539 1.9452485 -0.64634818
3.2017975 1.8571659 -0.41256556
3.2606239 1.8912874 -0.21054621
3.2010291 1.8567201 0
3.1886024 1.8495122 0.20589562
3.397706 1.9762909 -0.87075949
3.3490841 1.9480098 -0.64592063
3.1928418 1.8571306 -0.4117004
3.2583363 1.8952259 -0.21054621
3.1515431 1.8331093 0
3.1886091 1.8546689 0.20604061
3.4216452 1.9957522 -0.87751198
3.3533738 1.9559314 -0.64720327
3.1995323 1.8661999 -0.41285357
3.2695067 1.9070141 -0.21141677
3.1201036 1.8198713 0
3.1818724 1.8558995 0.20575005
3.4433594 2.0139976 -0.88370425
3.3465805 1.9573923 -0.64634818
3.1972749 1.8700645 -0.41285357
3.2784214 1.9175265 -0.21214288
3.1246438 1.8275831 0
3.1706557 1.8544952 0.2051695
3.4628365 2.0310092 -0.889332
3.3685639 1.9757168 -0.65105456
3.210624 1.8830825 -0.4148708
3.2850676 1.9267449 -0.21272343
3.1426349 1.8432058 0
3.1504903 1.8478131 0.20400894
3.4866619 2.0506494 -0.89608663
3.4945087 2.0552645 -0.67587584
3.2373357 1.9040104 -0.41861942
3.2715316 1.9241225 -0.21199733
3.1426466 1.8483199 0
3.1348124 1.8437122 0.20313781
3.5038772 2.0664766 -0.90115201
3.5517178 2.0946915 -0.68742973
3.2818162 1.9355122 -0.42467329
3.2714491 1.9293979 -0.21214288
3.1135108 1.8362509 0
3.0967712 1.8263785 0.20081559
3.5145042 2.0784719 -0.90453041
3.5646534 2.1081302 -0.69042593
3.3195441 1.9631729 -0.42986199
3.2624035 1.9293799 -0.21170732
3.0933778 1.8294185 0
3.0878587 1.8261546 0.20038059
3.5163569 2.0853066 -0.90565515
3.5687296 2.1163652 -0.69171023
3.3015945 1.9579461 -0.42784366
3.2623026 1.9346447 -0.21185233
3.0665395 1.8185513 0
3.0632956 1.8166276 0.19892892
3.5203886 2.0934513 -0.90734434
3.5485184 2.1101792 -0.68828648
3.2547643 1.9354938 -0.4220778
3.2532601 1.9345995 -0.21141677
3.0553925 1.8169345 0
3.0610983 1.8203276 0.19892892
3.5213041 2.0968766 -0.90790665
3.5406239 2.108381 -0.68700218
3.2335956 1.9255511 -0.41948345
3.2520909 1.9365646 -0.21141677
3.0498264 1.8161196 0
3.0577676 1.8208485 0.19878392
3.5096929 2.1014678 -0.9062196
3.4980791 2.0945139 -0.67972714
3.2600045 1.9519643 -0.42352012
3.2384925 1.9390837 -0.21083677
3.0521207 1.8274915 0
3.0957186 1.8535962 0.20154171
3.5006137 2.1017821 -0.90453041
3.4845436 2.0921335 -0.67758775
3.2886844 1.9745389 -0.42755565
3.2361472 1.9429953 -0.21083677
3.0454521 1.8285013 0
3.1157498 1.8707083 0.20299283
3.506779 2.1112525 -0.90678197
3.4666162 2.0870726 -0.67459154
3.2973733 1.9851803 -0.42899683
3.236021 1.9482431 -0.21098177
3.0432405 1.8321798 0
3.1246159 1.8811717 0.20371838
3.5216274 2.125994 -0.91128504
3.4597006 2.088609 -0.67373645
3.2883275 1.9851515 -0.42813167
3.2381094 1.9548351 -0.21127176
3.0432503 1.8371993 0
3.1134424 1.8795741 0.20313781
3.5429599 2.1447177 -0.91747516
3.4791307 2.1060789 -0.67801529
3.2704442 1.9797512 -0.42611447
3.2468574 1.9654731 -0.21199733
0 0 0
3.1067276 1.8806461 0.20284782
3.5838072 2.1753659 -0.92873287
3.494139 2.1209373 -0.68143904
3.2680495 1.9837015 -0.42611447
3.2289376 1.9599606 -0.21098177
3.0432467 1.8472465 0
3.1022253 1.8830464 0.20270227
3.6875272 2.2444258 -0.95631367
3.5529728 2.1625288 -0.69342208
3.2590199 1.9836133 -0.42524931
3.2243495 1.9625111 -0.21083677
3.0454631 1.8536311 0
3.1043911 1.889498 0.20299283
3.7195063 2.2700536 -0.96531767
3.591984 2.1922255 -0.70155227
3.2676575 1.9942856 -0.42669049
3.2197514 1.9650481 -0.21069121
3.0521069 1.8627328 0
3.1021059 1.8932477 0.20299283
3.7102649 2.2705712 -0.96363062
3.6112328 2.2099664 -0.70583272
3.2586248 1.9941809 -0.42582536
3.2484081 1.9879285 -0.21272343
3.0454099 1.8636998 0
3.0887363 1.8902142 0.20226726
3.6793671 2.2577779 -0.95631367
3.6282494 2.2264104 -0.70968401
3.2606261 2.0008249 -0.42640248
3.3190789 2.0366933 -0.21751234
3.0520287 1.8728228 0
3.0908751 1.8966603 0.20255727
3.6333551 2.2355912 -0.94505596
3.6255567 2.2307928 -0.70968401
3.2515955 2.0006957 -0.42553732
3.5179992 2.164613 -0.23071963
3.0652812 1.8860573 0
3.0841594 1.8976729 0.20226726
3.5744317 2.2052944 -0.93042207
3.6184847 2.2324736 -0.70882726
3.2557814 2.0086987 -0.42640248
3.5750835 2.2056966 -0.23463796
3.0652127 1.8911248 0
3.0818641 1.9013981 0.20226726
3.5112607 2.1721823 -0.91466129
3.6092417 2.2327964 -0.70754462
3.2467511 2.0085478 -0.42553732
3.5635765 2.2045465 -0.23405741
3.0651367 1.8961951 0
3.0861874 1.9092177 0.20270227
3.4632921 2.1482978 -0.90284121
3.5934482 2.2290342 -0.70497596
3.2465177 2.0138314 -0.42582536
3.5344212 2.1924195 -0.2323163
3.0761168 1.908131 0
3.0860927 1.914319 0.20284782
3.4369662 2.137723 -0.89665115
3.5842106 2.229306 -0.70369166
3.244082 2.0177526 -0.42582536
3.4324803 2.1349328 -0.22578515
3.0848565 1.9187177 0
3.088186 1.9207888 0.20313781
3.4322186 2.1405258 -0.89608663
3.5858748 2.2363546 -0.70454842
3.2548137 2.029886 -0.42755565
3.3417058 2.0840769 -0.21997958
3.0891626 1.9265767 0
3.0814576 1.9217714 0.20284782
3.4253252 2.1419797 -0.89496195
3.5635834 2.2284374 -0.70069712
3.2720933 2.0461583 -0.43015
3.2973316 2.0619407 -0.21722235
3.0868325 1.930308 0
3.0879457 1.9310042 0.20342837
3.4227345 2.146117 -0.89496195
3.5695877 2.2381966 -0.70240903
3.2915277 2.063848 -0.43303236
3.2816246 2.0576384 -0.21635123
3.0668585 1.9229763 0
3.0768044 1.9292125 0.20284782
3.4201388 2.1502509 -0.89496195
3.579916 2.2507033 -0.70497596
3.2846565 2.065073 -0.43245634
3.2747407 2.0588388 -0.21606123
3.0579209 1.9225236 0
3.039274 1.9108003 0.2005256
3.4196856 2.1557357 -0.89552426
3.5815411 2.2577679 -0.70583272
3.279973 2.0676622 -0.43216833
3.278847 2.0669525 -0.2164968
3.04459 1.9192792 0
2.95783 1.8645866 0.19530056
3.4170783 2.1598661 -0.89552426
3.5744665 2.2593479 -0.70497596
3.2774723 2.071624 -0.43216833
3.2675612 2.0653596 -0.21591623
3.040071 1.9215674 0
2.9072568 1.8376184 0.19210778
3.4114828 2.159215 -0.89439958
3.5709338 2.2601357 -0.70454842
3.2915123 2.0832827 -0.43418553
3.2860713 2.079839 -0.21722235
3.023514 1.9136596 0
2.8710163 1.8171397 0.18978556
3.3938518 2.1538038 -0.89045888
3.5660348 2.2630746 -0.70412087
3.3130171 2.1025045 -0.43735704
3.2923317 2.0893772 -0.2178029
3.0014253 1.9047625 0
2.8710186 1.8220038 0.18993111
3.3912468 2.1579032 -0.89045888
3.5459714 2.2563567 -0.70069712
3.3061056 2.1037264 -0.43677992
3.2963836 2.0975401 -0.21823846
2.9815562 1.8972106 0
2.8907335 1.8394186 0.19138221
3.3779287 2.1551671 -0.88764495
3.5237675 2.2482145 -0.69684583
3.2795823 2.0924206 -0.43360952
3.3157482 2.1154952 -0.21968958
2.9924297 1.9092133 0
2.9279349 1.8680645 0.19399445
3.3881605 2.16746 -0.89102119
3.4972594 2.2372522 -0.69213778
3.2661595 2.0894141 -0.43216833
5.029181 3.2172468 -0.33347279
2.9769628 1.9044102 0
2.9563241 1.8912073 0.19602668
3.3812656 2.1688113 -0.88989651
3.4837518 2.2345479 -0.68999839
3.2636325 2.0933592 -0.43216833
5.0340385 3.2289329 -0.33405334
2.9921842 1.9192467 0
2.9518433 1.8933712 0.19588113
3.3978744 2.1852639 -0.89496195
3.4788921 2.2373686 -0.68957078
3.2676208 2.1014943 -0.43303236
5.0366917 3.2392311 -0.3344889
2.9898629 1.9228607 0
2.9604871 1.9039683 0.19660725
3.4101732 2.199003 -0.89890051
3.4934456 2.2526999 -0.69299453
3.2737741 2.1110477 -0.43418553
5.0305924 3.2439077 -0.33434391
2.9962862 1.9321135 0
2.9691012 1.9145837 0.1973328
3.4053819 2.2017436 -0.89833814
3.5295203 2.2820048 -0.70069712
3.2799091 2.1206193 -0.43533871
3.1850784 2.0593066 -0.21185233
3.0070581 1.944208 0
2.9907823 1.9336849 0.19892892
3.3984592 2.203095 -0.89721346
3.5547609 2.3044198 -0.70626032
3.2708397 2.1203642 -0.43447468
3.1847661 2.0645659 -0.21199733
3.0112603 1.9520884 0
3.0189731 1.9570885 0.20096114
3.383008 2.1988888 -0.89383507
3.5648839 2.3171046 -0.70882726
3.2661002 2.122901 -0.43418553
3.1735544 2.0627482 -0.21141677
3.0132675 1.9585648 0
3.0166063 1.9607348 0.20096114
3.3590653 2.1891046 -0.88820732
3.5620816 2.3214104 -0.70882726
3.2635329 2.1268461 -0.43418553
3.1710596 2.0665812 -0.21141677
3.0087123 1.9607793 0
3.0142348 1.9643784 0.20096114
3.3223846 2.1709237 -0.87920117
3.5528333 2.3215041 -0.70754462
3.2544711 2.1265473 -0.43332151
3.172915 2.0732567 -0.21170732
2.9976263 1.958719 0
3.0292528 1.9793844 0.2021217
3.2730045 2.1443055 -0.86681879
3.5457268 2.3229792 -0.70668787
3.2540605 2.1318944 -0.43360952
3.1704075 2.0770891 -0.21170732
3.0039649 1.9680444 0
3.0442469 1.9944352 0.20328282
3.2406836 2.1287313 -0.85893947
3.5450609 2.3286698 -0.70711541
3.2493227 2.1344059 -0.43332151
3.1678956 2.0809183 -0.21170732
3.0276871 1.9888186 0
3.0418348 1.9981121 0.20328282
3.231741 2.1284513 -0.85725027
3.5422447 2.3329515 -0.70711541
3.2445748 2.1369038 -0.43303236
3.1762271 2.0918894 -0.21243288
3.0448408 2.0053573 0
3.0350823 1.9989303 0.20299283
3.2270484 2.1309559 -0.8566879
3.5265741 2.3287454 -0.70454842
3.2419906 2.1408226 -0.43303236
3.2170641 2.1243627 -0.21533567
3.0337286 2.0032988 0
3.0109856 1.9882804 0.20154171
3.2265878 2.136255 -0.85725027
3.5023575 2.318836 -0.70026958
3.2437186 2.1475968 -0.43360952
3.3033242 2.1870604 -0.22128625
2.9965942 1.983981 0
2.9934125 1.9818745 0.2005256
3.2240043 2.140152 -0.85725027
3.4631965 2.2989321 -0.69299453
3.251894 2.1586657 -0.4350507
3.3353088 2.2140381 -0.22360793
3.0115325 1.9991095 0
2.9758594 1.9754289 0.19950947
3.2298768 2.1496773 -0.85950184
3.4219456 2.2775106 -0.68529034
3.2578959 2.1683257 -0.43620387
3.3391228 2.2223871 -0.22404349
3.0134521 2.0056336 0
2.9453514 1.9603086 0.19762281
3.2293885 2.1549876 -0.86006415
3.4063835 2.273097 -0.68272334
3.2509749 2.1693921 -0.43562785
3.2932069 2.1975739 -0.2211407
3.0413289 2.0294943 0
2.9192114 1.9480047 0.19602668
3.2225628 2.1560647 -0.85893947
3.4015028 2.2757852 -0.6822958
3.2504988 2.1747556 -0.43591586
3.2257636 2.1582065 -0.21678679
3.0583396 2.046191 0
2.9017358 1.9414147 0.19501057
3.2241714 2.1627853 -0.86006415
3.4072781 2.2856138 -0.68400764
3.2457228 2.177242 -0.43562785
3.2102101 2.15342 -0.21591623
3.0407424 2.0397406 0
2.867017 1.923205 0.19283333
3.2363167 2.1766071 -0.86400491
3.4556284 2.3241069 -0.69427723
3.2473779 2.1840465 -0.43620387
3.1838858 2.1413445 -0.21431956
3.0296373 2.0376036 0
2.8560665 1.9208673 0.19225278
3.2876878 2.2140429 -0.87807649
3.5074532 2.3620408 -0.70497596
3.2567825 2.1932304 -0.43764505
3.1847448 2.1447177 -0.21446456
3.0262492 2.0379813 0
2.8549056 1.9225924 0.19225278
3.3741772 2.281188 -0.9022789
3.5031662 2.3683939 -0.70497596
3.2485209 2.1962349 -0.43706903
3.1851618 2.1533999 -0.21475512
3.0182345 2.0405447 0
2.8492656 1.9263097 0.19210778
3.4001498 2.3017416 -0.90959585
3.4932315 2.3647537 -0.70326412
3.2728956 2.2155964 -0.44052854
3.1644964 2.1422153 -0.213449
3.0062275 2.0350747 0
2.8588581 1.9353126 0.19283333
3.3973663 2.3058484 -0.90959585
3.4627612 2.3502331 -0.69770098
3.2702162 2.2195497 -0.44052854
3.1404014 2.1314423 -0.21199733
3.001615 2.0372455 0
2.8823178 1.9562765 0.19457501
3.3840761 2.3028059 -0.90678197
3.4556785 2.3515298 -0.69684583
3.2611148 2.2191327 -0.43966338
3.1378236 2.1352353 -0.21199733
2.994844 2.0379398 0
2.9164698 1.9846077 0.19704224
3.3561041 2.2897091 -0.90002733
3.454953 2.3571489 -0.69727337
3.24775 2.2157843 -0.4382222
3.1459799 2.1463516 -0.21272343
3.0009785 2.0474241 0
2.9162142 1.9895933 0.19718724
3.3407557 2.2851582 -0.89665115
3.4499855 2.359874 -0.69684583
3.249336 2.2226248 -0.43879822
3.1498122 2.1545482 -0.21315844
2.9920561 2.0466392 0
2.9116654 1.9916499 0.19704224
3.3358905 2.2877519 -0.89608663
3.4428935 2.3611343 -0.69598907
3.2445168 2.2250879 -0.43851021
3.1364939 2.1510057 -0.21243288
2.9831483 2.0458415 0
2.9285409 2.0083919 0.19834836
3.3352237 2.2932248 -0.89665115
3.4421511 2.3667457 -0.69641662
3.23543 2.2246089 -0.43764505
3.1403182 2.1592121 -0.21286844
3.0128355 2.071558 0
2.9282594 2.0134053 0.19849391
3.3429081 2.3044624 -0.89946502
3.4583168 2.3840203 -0.70026958
3.2476485 2.2387941 -0.43966338
3.1377068 2.1630049 -0.21286844
3.012471 2.0766726 0
2.9129841 2.0080905 0.19762281
3.3401213 2.3084998 -0.89946502
3.4849944 2.408628 -0.70626032
3.2853618 2.2706532 -0.44514009
3.1393621 2.1697466 -0.21315844
2.9928403 2.0684793 0
2.9084201 2.0101328 0.1974778
3.326889 2.3052995 -0.89665115
3.5074017 2.4303823 -0.71139592
3.3081274 2.292299 -0.44859961
3.1367381 2.1735382 -0.21315844
2.9603868 2.0513394 0
2.876092 1.9929291 0.19544613
3.2907131 2.2861226 -0.88764495
3.5297616 2.452194 -0.71653152
3.3032331 2.2948203 -0.4483116
3.1469176 2.1862249 -0.21402955
2.957906 2.054915 0
2.8672779 1.9919537 0.19501057
3.2566714 2.2683122 -0.87920117
3.5162575 2.4491172 -0.71439046
3.3153167 2.3091593 -0.45032993
3.353219 2.3355589 -0.22825238
2.9490204 2.0540295 0
2.8648689 1.9954169 0.19501057
3.224767 2.2518821 -0.87132186
3.5069876 2.4489591 -0.71310776
3.3761384 2.3575861 -0.45897815
3.5442488 2.4749789 -0.2414591
2.9422648 2.0546083 0
2.8752341 2.0078003 0.19588113
3.2012327 2.2412071 -0.86569411
3.4998159 2.4502475 -0.71225101
3.4050634 2.3839104 -0.46330169
3.5476437 2.483732 -0.24189466
2.9291222 2.0507004 0
2.8749406 2.0127676 0.19602668
3.1860402 2.2363122 -0.86231571
3.4926546 2.4515278 -0.71139592
3.4106486 2.3939669 -0.46445486
3.531883 2.4790626 -0.24102411
2.9223778 2.051245 0
2.9044027 2.0386281 0.19820336
3.1729479 2.2328501 -0.85950184
3.4686923 2.4409699 -0.70711541
3.4352496 2.4174356 -0.46820238
3.5161309 2.4743531 -0.24015298
2.9326713 2.0637641 0
2.9274375 2.060081 0.19994503
3.169615 2.2419772 -0.86006415
3.4753621 2.4582424 -0.70968401
3.4948599 2.4720342 -0.47713974
5.0311079 3.5586748 -0.34421283
2.9255528 2.0693436 0
2.9075987 2.0566442 0.19892892
3.1917753 2.2634432 -0.86681879
3.4954169 2.4787703 -0.71439046
3.4623289 2.4553058 -0.47310308
5.0183258 3.5587389 -0.34363228
2.9400251 2.0849149 0
2.8966334 2.0541437 0.19834836
3.222172 2.2908552 -0.87582493
3.5300827 2.5097694 -0.72209466
3.3792591 2.4025388 -0.46214852
3.5655439 2.534981 -0.24436189
2.9672029 2.1095808 0
2.9068599 2.066679 0.19921948
3.2297449 2.3021195 -0.8786388
3.5103245 2.5021129 -0.71867096
3.2794726 2.3375647 -0.44888762
3.5688281 2.5438135 -0.24479745
3.002794 2.1403518 0
2.9297519 2.0882883 0.20096114
3.2393608 2.3148813 -0.88201505
3.4926765 2.4959035 -0.71567476
3.2324557 2.309947 -0.44283375
3.5720961 2.5526576 -0.24523301
3.0404384 2.1727295 0
2.9462514 2.1054225 0.20226726
3.229696 2.3109238 -0.87976348
3.46403 2.4785953 -0.71011162
3.2394733 2.3179197 -0.44398692
5.0370421 3.6041226 -0.34595451
3.0412397 2.1760788 0
2.9597654 2.1177821 0.20328282
3.2310345 2.3177896 -0.88089037
3.4589486 2.4812841 -0.70968401
3.2702968 2.3459544 -0.44859961
5.0242381 3.6041479 -0.34537396
3.0259161 2.1706474 0
2.9635403 2.1259019 0.20371838
3.2282314 2.3216918 -0.88089037
3.4892931 2.509443 -0.71653152
3.2548647 2.3408461 -0.44687042
5.0240946 3.6132474 -0.34566393
3.0275209 2.1773438 0
2.9525313 2.1234126 0.20313781
3.2316089 2.3300505 -0.88257957
3.4862585 2.5136573 -0.71653152
3.2163699 2.3190627 -0.44196972
5.0028634 3.6071579 -0.34450284
3.0861046 2.2251391 0
2.9499633 2.1269786 0.20313781
3.2493796 2.3488359 -0.88820732
3.4728105 2.5103445 -0.71439046
3.2009842 2.313853 -0.4402394
5.0048208 3.6177685 -0.3449384
3.169879 2.2913685 0
2.9473913 2.1305416 0.20313781
3.2876878 2.3825808 -0.89946502
3.4780891 2.5205643 -0.7161023
3.2107563 2.3268287 -0.44196972
5.0004458 3.6238132 -0.3449384
3.1544683 2.286037 0
2.9469168 2.1356246 0.20328282
3.309474 2.4044735 -0.9062196
3.4958129 2.5398569 -0.72038281
3.2456036 2.3580689 -0.44715843
4.9981637 3.6313784 -0.34508339
3.1159127 2.2638431 0
2.9464424 2.1407156 0.20342837
3.3024547 2.4054759 -0.90509278
3.5238602 2.5667455 -0.7268011
3.4204488 2.4914217 -0.4716619
5.0000753 3.6420062 -0.34551895
3.0879316 2.2492194 0
2.9480503 2.1473312 0.20371838
3.3015957 2.4109616 -0.90565515
3.5269778 2.5755446 -0.7280854
3.6680791 2.6785829 -0.50625479
4.9935746 3.6465142 -0.34537396
3.02847 2.211514 0
2.943357 2.1493607 0.20357338
3.2986801 2.4149492 -0.90565515
3.5362871 2.5889001 -0.73065239
3.6398041 2.6646845 -0.50279635
4.9954486 3.6571457 -0.34580895
2.9837976 2.1844249 0
2.9365604 2.1498427 0.20328282
3.2834735 2.4099154 -0.9022789
3.5476446 2.6038048 -0.73364854
3.6011364 2.6430655 -0.49789569
4.9994049 3.6693289 -0.3463895
3.0063326 2.2065072 0
2.9528198 2.1672313 0.2045895
3.2764621 2.4108665 -0.90115201
3.5527666 2.6141751 -0.73536044
3.4375293 2.529382 -0.47569743
5.0033393 3.6815271 -0.34697005
3.024622 2.2255592 0
2.9543808 2.1738746 0.20487949
3.2694609 2.4118099 -0.90002733
3.561996 2.6276066 -0.73792744
3.2471535 2.3953543 -0.44975278
4.9967985 3.686029 -0.34682506
2.9884214 2.2044933 0
2.95593 2.1805248 0.2051695
3.2808468 2.4263358 -0.9039681
3.5650125 2.6364894 -0.73921174
3.1985102 2.3654442 -0.4434109
5.0006976 3.6982441 -0.34740561
2.9752953 2.2003667 0
2.9574754 2.1871881 0.20546006
3.3126094 2.4560232 -0.91353661
3.5535755 2.6346793 -0.73749983
3.1873388 2.3631456 -0.44225773
4.9962254 3.7042837 -0.34740561
2.9726346 2.2039602 0
2.9548304 2.1907599 0.20546006
3.313714 2.4630525 -0.91466129
3.5380318 2.629786 -0.7349329
3.1803255 2.3639061 -0.44168061
5.002171 3.7180669 -0.34813118
2.9511728 2.1935792 0
2.9396725 2.1850312 0.2045895
3.2761011 2.4412463 -0.90509278
3.5327873 2.6325207 -0.73450369
3.1836908 2.3723853 -0.44254574
5.0039277 3.7287679 -0.34856674
2.9213934 2.1769295 0
2.9266062 2.180814 0.20386338
3.2344782 2.4163144 -0.89439958
3.5275493 2.6352527 -0.73407614
3.1766818 2.3731372 -0.44196972
5.0014982 3.7363651 -0.34871173
2.9041643 2.1695535 0
2.9302161 2.1890154 0.20429894
3.2193499 2.4110789 -0.89102119
3.514091 2.6318204 -0.73193669
3.1779485 2.3800719 -0.44254574
3.4059966 2.5508647 -0.23768575
2.8744628 2.1527815 0
2.9234133 2.1894422 0.20400894
3.2123742 2.4119189 -0.88989651
3.502697 2.6298993 -0.73022485
3.1792109 2.3870192 -0.44312289
3.3945999 2.5487378 -0.23710521
2.8947544 2.1734431 0
2.9311535 2.2007723 0.20473449
3.2074215 2.4142661 -0.889332
3.5015657 2.6356721 -0.73065239
3.1866548 2.3986347 -0.44456407
3.3769915 2.5419035 -0.23608965
2.8879635 2.1738062 0
2.9284921 2.2043123 0.20473449
3.2024758 2.416611 -0.88876969
3.5045278 2.6445413 -0.73193669
3.1940753 2.4102716 -0.44600525
3.378062 2.5491095 -0.23637964
2.8874183 2.1788661 0
2.9175298 2.2015886 0.20415394
3.1995535 2.4204786 -0.88876969
3.5013299 2.6487739 -0.73193669
3.2097232 2.4281721 -0.44859961
3.3687606 2.5484846 -0.23594408
2.8827019 2.1807787 0
2.8900003 2.1863 0.20241226
3.200114 2.423944 -0.889332
3.5017731 2.6524372 -0.73236424
3.2000084 2.4238639 -0.44744644
3.3692975 2.552093 -0.23608965
2.8876095 2.1872356 0
2.8658924 2.1707859 0.20081559
3.2032557 2.4324203 -0.89102119
3.4965231 2.6551156 -0.73193669
3.2073748 2.4355483 -0.44888762
5.0009747 3.7975342 -0.35074398
2.8953259 2.198591 0
2.8405094 2.1569657 0.19921948
3.2063813 2.4409077 -0.89271039
3.4974015 2.6624513 -0.73279345
3.2270696 2.4566569 -0.45205912
5.0067182 3.8114421 -0.35146952
2.8988814 2.2068186 0
2.8440979 2.1651137 0.19965447
3.213527 2.4524863 -0.89552426
3.5023367 2.672899 -0.73450369
3.2117662 2.4511425 -0.45032993
4.9979739 3.8143332 -0.35117897
2.9065549 2.2182126 0
2.8538773 2.1780102 0.2005256
3.2125773 2.4579098 -0.89608663
3.505223 2.6818099 -0.73578799
3.2231758 2.4660187 -0.45234713
4.9954233 3.8219469 -0.35132396
2.9038727 2.2217231 0
2.8801315 2.2035589 0.20255727
3.2176697 2.4679754 -0.89833814
3.5121624 2.6938536 -0.73792744
3.2591896 2.4998214 -0.45782498
5.0052361 3.8390515 -0.35234007
2.9053199 2.2284009 0
2.8980889 2.2228549 0.20400894
3.2287872 2.4827049 -0.9022789
3.529259 2.7137461 -0.74220788
3.38328 2.6014988 -0.47569743
3.5381436 2.7205777 -0.24929635
2.9067476 2.2350795 0
2.8747981 2.2105126 0.20255727
3.2519443 2.5067694 -0.90959585
3.5422425 2.7305465 -0.74563164
3.496897 2.6955917 -0.49212983
3.5451417 2.7327814 -0.2500219
2.9267199 2.2560694 0
2.8556612 2.2012935 0.20139615
3.2931406 2.5448751 -0.92197824
3.4800367 2.6893048 -0.73322099
3.5468447 2.7409329 -0.49962488
3.5356748 2.732301 -0.24958691
2.9569399 2.2850659 0
2.8612235 2.211098 0.2019767
3.3041255 2.5597467 -0.925919
3.4077914 2.6400578 -0.71867096
3.5660236 2.7626424 -0.50279635
3.5323708 2.7365711 -0.24958691
2.9665167 2.298197 0
2.8893638 2.2384257 0.20415394
3.278954 2.5465918 -0.91972673
3.3964891 2.6378751 -0.71695906
3.554512 2.7606032 -0.50164318
3.5249531 2.7376466 -0.24929635
2.9493477 2.2906039 0
2.9092255 2.259443 0.20575005
3.2437963 2.5255764 -0.91072053
3.3831735 2.6340935 -0.71481967
3.491991 2.7188175 -0.493283
3.5093448 2.7323289 -0.2484258
2.9404235 2.2893741 0
2.8962438 2.2549765 0.2050245
3.2467532 2.5341856 -0.91240972
3.3901045 2.6460755 -0.71695906
3.4418061 2.6864302 -0.48665199
3.4814606 2.7173815 -0.24668412
2.9581666 2.3089354 0
2.8750837 2.2440867 0.20371838
3.2677021 2.5568967 -0.91916436
3.3889244 2.6517501 -0.7173866
3.3733814 2.6395881 -0.47742775
3.4495285 2.6991713 -0.24465245
3.0926929 2.4199562 0
2.8682811 2.2443595 0.20342837
3.3165858 2.601614 -0.93379825
3.3917792 2.6605978 -0.71867096
3.3396616 2.6197155 -0.47310308
3.4421718 2.7001269 -0.24436189
3.0938578 2.4269006 0
2.894186 2.270273 0.20546006
3.3613751 2.6433151 -0.94730753
3.4067209 2.6789739 -0.72252226
3.328361 2.6173534 -0.47194991
3.4225662 2.6914344 -0.24320078
3.1032014 2.4402926 0
2.8832705 2.2673435 0.20487949
3.3701475 2.65681 -0.95068371
3.4236372 2.6989779 -0.7268011
3.3231668 2.6197736 -0.4716619
3.4152343 2.6923537 -0.24291077
3.1145513 2.4553142 0
2.837678 2.237045 0.2018317
3.3709257 2.6640341 -0.9518106
3.4364858 2.7158463 -0.73022485
3.2895658 2.5997357 -0.46733835
3.4119787 2.6964784 -0.24291077
3.1238372 2.4687607 0
2.810509 2.2211382 0.20009004
3.357748 2.6602175 -0.94899672
3.4332018 2.7199967 -0.73022485
3.2843888 2.6020977 -0.46704921
3.394459 2.6893022 -0.24189466
3.1249278 2.4757626 0
2.7854252 2.2067876 0.19849391
3.3127496 2.6310885 -0.93717664
3.4299126 2.724143 -0.73022485
3.2893438 2.612499 -0.46820238
3.3891742 2.6917872 -0.24174966
3.1321216 2.4876282 0
2.7888551 2.2149951 0.19892892
3.2817352 2.6129286 -0.92929518
3.4386721 2.7378824 -0.73279345
3.259882 2.5955291 -0.46445486
3.3818498 2.6926403 -0.2414591
3.1331894 2.4946561 0
2.7861767 2.2183633 0.19892892
3.2130437 2.5645859 -0.91072053
3.4473953 2.7516408 -0.73536044
3.2628098 2.6043084 -0.46532002
3.3664126 2.6870019 -0.24058855
3.1139007 2.4854522 0
2.8078644 2.2411802 0.20067059
3.1742351 2.5398948 -0.9005897
3.444068 2.7558043 -0.73536044
3.2859128 2.6292548 -0.46906754
3.3631635 2.6910677 -0.24058855
3.1129253 2.4908371 0
2.8152969 2.2526867 0.20139615
3.1469231 2.5211608 -0.89327276
3.482471 2.7899852 -0.74391979
3.3670831 2.6975422 -0.48088726
3.361537 2.693099 -0.24058855
3.1154859 2.495975 0
2.822047 2.260886 0.2019767
3.1418953 2.5233719 -0.89271039
3.5111132 2.8199043 -0.75076562
3.3739023 2.7097054 -0.48232844
5.0133896 4.0264378 -0.35916123
3.132755 2.516031 0
2.8274169 2.2708025 0.20255727
3.1526999 2.5383222 -0.89665115
3.5257049 2.8386383 -0.75461853
3.3706257 2.7137799 -0.48232844
5.0125728 4.0357547 -0.35945177
3.1357958 2.5247123 0
2.8266931 2.2758453 0.20270227
3.1911428 2.575635 -0.90846902
3.5322583 2.8509562 -0.75675797
3.341181 2.696734 -0.47858092
5.0137529 4.0467 -0.3598868
3.1043868 2.5056126 0
2.8259687 2.2808959 0.20284782
3.2393897 2.6210465 -0.92310506
3.5068569 2.8374588 -0.75204992
3.3761184 2.7316759 -0.48405764
5.0088596 4.0527554 -0.3598868
3.0872006 2.4979076 0
2.8110867 2.2744989 0.2019767
3.3447495 2.7129889 -0.9540621
3.4595687 2.8061209 -0.74263549
3.4170041 2.7715957 -0.49039951
5.010015 4.0637169 -0.36032233
3.0740759 2.4934404 0
2.8184247 2.2860768 0.20270227
3.4084935 2.7715275 -0.97319913
3.4402416 2.7973428 -0.73921174
3.4818797 2.8311996 -0.50020093
5.0111513 4.074687 -0.36075789
3.0528898 2.4823778 0
2.831789 2.3025954 0.20386338
3.4524024 2.8141673 -0.9867062
3.4368591 2.8014975 -0.73921174
3.5285747 2.8762581 -0.50740796
4.9820552 4.061038 -0.35901621
3.0519035 2.4877076 0
2.8471296 2.3207896 0.2051695
3.482446 2.8456674 -0.99627471
3.4434087 2.8137684 -0.74135113
3.6592815 2.9901681 -0.52672273
4.9932413 4.0802083 -0.36017734
3.0750916 2.5127995 0
2.8503616 2.3291621 0.20560506
3.4419978 2.8195584 -0.74178034
3.6976821 3.0290055 -0.53277659
4.980267 4.0796523 -0.35959679
3.0962121 2.5363035 0
2.817399 2.30791 0.20342837
3.4127922 2.802532 -0.73621553
3.7140121 3.0498891 -0.53566003
4.9753337 4.0856667 -0.35959679
3.1253178 2.5664623 0
2.7985432 2.2981203 0.20226726
3.371753 2.7756593 -0.7280854
3.7103243 3.0543745 -0.53566003
4.9844384 4.1032376 -0.3606129
3.1382885 2.5834692 0
2.7937524 2.2998438 0.2021217
3.3274522 2.752708 -0.7199536
3.4697702 2.8704436 -0.50193119
4.9825163 4.1218963 -0.36119345
3.118005 2.5794382 0
2.8302295 2.3413696 0.2051695
3.3201754 2.7534521 -0.71909851
3.474263 2.8812382 -0.50308436
4.9795303 4.1295705 -0.36133847
3.0948496 2.5665874 0
2.8414013 2.3564003 0.20618561
3.3306661 2.7689512 -0.72209466
3.4847035 2.8970103 -0.50510269
4.9865222 4.1455483 -0.36220902
3.0877476 2.5670009 0
2.854537 2.373121 0.20734672
3.3312581 2.7762573 -0.7229498
3.501066 2.9177744 -0.50798506
4.9775209 4.1482463 -0.36191902
3.0986402 2.5823946 0
2.8776152 2.3981931 0.2092334
3.3613896 2.8082585 -0.73022485
3.4995208 2.9236596 -0.50827312
4.9744973 4.1559219 -0.362064
3.0875287 2.5794625 0
2.9026291 2.4249887 0.21126507
3.3914487 2.8403363 -0.73749983
3.5138299 2.9428306 -0.51086748
4.97545 4.1669364 -0.36249956
3.0963771 2.593214 0
2.9315703 2.4551885 0.2135873
3.4214351 2.8724909 -0.74477488
3.4805636 2.9221325 -0.50654387
4.9763761 4.1779528 -0.36293456
3.08726 2.5919316 0
2.918653 2.4503765 0.21286175
3.4336743 2.8898468 -0.74819863
3.3998511 2.8613806 -0.4953002
4.9673519 4.1806197 -0.36264458
3.0701935 2.5839343 0
2.9176762 2.4555728 0.21300675
3.4242918 2.8890259 -0.74691433
3.3430209 2.8204587 -0.48751715
3.1491394 2.6568837 -0.23013906
3.0670691 2.5876422 0
2.9067631 2.4523942 0.21242619
3.4051182 2.8798997 -0.74349058
3.3415835 2.8261647 -0.48780516
3.1518807 2.6657226 -0.23057462
3.0718884 2.5980687 0
2.9077694 2.4592638 0.21271674
3.3781469 2.8640974 -0.73835659
3.3500071 2.8402395 -0.48953548
3.138742 2.6611223 -0.2298485
3.0627899 2.5967278 0
2.9246118 2.4795761 0.21416786
3.3864162 2.8781486 -0.74092358
3.3721917 2.8660588 -0.493283
3.1533494 2.6800628 -0.23115517
3.0596502 2.6004269 0
2.933497 2.4932082 0.21503899
3.3924968 2.8868484 -0.74263549
3.3822746 2.8781497 -0.49501219
3.149745 2.6802785 -0.23100962
3.0620387 2.6056447 0
2.9418831 2.5033982 0.21576454
3.4202545 2.9176016 -0.74948293
3.4201162 2.9174836 -0.50106609
3.1445291 2.6823976 -0.23086461
3.0747278 2.6228547 0
2.9546711 2.520442 0.21692565
3.4303782 2.9334059 -0.75247747
3.461803 2.9602778 -0.50769705
3.147212 2.6912632 -0.23130018
3.075516 2.6299541 0
2.9871671 2.5544045 0.21953788
3.4521737 2.9592726 -0.75804228
3.4641089 2.9695039 -0.50856113
4.8720527 4.1764216 -0.35843566
3.0664065 2.6285853 0
3.031426 2.5985994 0.22302124
3.4544308 2.9684563 -0.75932497
3.4526715 2.9669445 -0.50740796
4.874886 4.1890798 -0.35901621
3.0592842 2.6288996 0
3.0479879 2.6191924 0.22447234
3.4527845 2.9743018 -0.75975251
3.4314492 2.9559231 -0.50481361
4.8737545 4.1983552 -0.35930622
3.0580754 2.6342909 0
3.0586038 2.6347463 0.22548847
3.447247 2.9767954 -0.75932497
3.4141772 2.9482388 -0.50279635
3.1774309 2.7438016 -0.23449297
3.0726159 2.6532907 0
3.0416493 2.6265504 0.22447234
3.4417086 2.9792802 -0.75889742
3.4008288 2.943893 -0.5013541
3.1976888 2.7680469 -0.23623464
3.0871148 2.6723297 0
3.0109725 2.6064179 0.22244067
3.4477987 2.9918473 -0.76103681
3.3875036 2.9395258 -0.49991289
3.1884522 2.7667978 -0.23579909
3.0917461 2.6828806 0
2.9999709 2.6032422 0.22186011
3.4383688 2.9909551 -0.75975251
3.3937047 2.9521029 -0.5013541
3.1772647 2.7638268 -0.23521852
3.0865405 2.6849079 0
2.9968231 2.6068649 0.22186011
3.4250803 2.9866734 -0.75761306
3.3940377 2.9596045 -0.50193119
3.1660891 2.760833 -0.23463796
3.075448 2.6817939 0
3.023042 2.6360958 0.2240368
3.4156761 2.9857461 -0.75633043
3.4332976 3.0011497 -0.50827312
3.1490619 2.7526906 -0.2336224
3.0800431 2.6923592 0
3.0550656 2.6705256 0.22664902
3.4024069 2.9814074 -0.75418937
3.4471745 3.0206356 -0.51086748
3.1457334 2.7564936 -0.2336224
3.0670028 2.6875045 0
3.112422 2.727304 0.23114848
3.3853068 2.9736621 -0.75119483
3.4590683 3.0384543 -0.51317382
3.1463013 2.7637188 -0.23391241
3.0578854 2.6860542 0
3.1305933 2.7499211 0.2327446
3.3720801 2.9692698 -0.74905539
3.4650984 3.0511765 -0.514615
3.1663613 2.788125 -0.23565409
3.0546377 2.6897473 0
3.1194675 2.7468328 0.23216404
3.3607917 2.966547 -0.74734354
3.4575346 3.0519412 -0.51403892
3.1688364 2.7971094 -0.23608965
3.0455301 2.6882677 0
3.1297848 2.7626388 0.23318017
3.3264446 2.9433877 -0.74049604
3.4519093 3.0544045 -0.51375091
3.1693425 2.8043768 -0.23637964
3.0364306 2.6867702 0
3.1789811 2.8129053 0.2370985
3.3152039 2.9405911 -0.73878419
3.4520822 3.0620024 -0.51432699
3.1640096 2.8064816 -0.23623464
3.0312369 2.6887119 0
3.2319517 2.8667464 0.24130741
3.3749533 3.0008833 -0.75290668
3.4387174 3.0575798 -0.51288575
3.1664436 2.815484 -0.2366702
3.0299289 2.6941004 0
3.2517877 2.8913689 0.24304909
4.1665592 3.7137742 -0.93050367
4.987318 4.4453406 -0.74466068
3.1572182 2.8141196 -0.23623464
3.0286198 2.699496 0
3.2405326 2.8883801 0.24246852
3.3517044 2.994746 -0.99571234
4.1754632 3.7307737 -0.9334982
4.9780893 4.4479198 -0.74408466
3.1615663 2.8248577 -0.2368152
3.0272946 2.704886 0
3.2234821 2.8801794 0.24145298
3.3386219 2.990319 -0.99289846
4.1824288 3.7460957 -0.93606681
4.9784856 4.4591041 -0.74494869
3.1600845 2.8304076 -0.2369602
3.0182064 2.7033312 0
3.2161248 2.8806016 0.24116242
3.3444576 3.0028369 -0.99571234
3.4444482 3.0926142 -0.77173561
4.9807925 4.4720283 -0.74610186
3.164396 2.8411679 -0.23754075
3.0130031 2.7052391 0
3.1913791 2.8653948 0.2395663
3.3540487 3.0187762 -0.9996531
3.454067 3.1087966 -0.77473176
4.9773059 4.4797716 -0.74638987
3.1725452 2.8554158 -0.23841132
3.0135972 2.7123563 0
3.1705267 2.8535991 0.23825963
3.4598362 3.1215644 -0.7768712
4.0674367 3.669759 -0.61061162
3.1613829 2.8522913 -0.23783131
3.0083873 2.7142541 0
3.1535769 2.8452485 0.23724407
3.4522505 3.1222956 -0.77601445
4.0514932 3.6642647 -0.60888243
3.1482928 2.8473892 -0.23710521
2.9993131 2.7126484 0
3.1366446 2.8368545 0.23622794
3.4522719 3.1261086 -0.77644366
4.0416098 3.6597674 -0.60772926
3.1485038 2.8510399 -0.23725076
2.9938192 2.7109697 0
3.1272259 2.8317723 0.2356474
3.4256828 3.1095734 -0.77130806
4.0276108 3.6559577 -0.60628808
3.1392827 2.849601 -0.2368152
2.9886162 2.7128377 0
3.1218798 2.8338041 0.23550239
3.3725607 3.0687943 -0.76018173
4.0117087 3.6503739 -0.60455775
3.1377573 2.8551393 -0.2369602
2.9930356 2.7234528 0
3.1222935 2.8410685 0.23579238
3.3214371 3.0296197 -0.74948293
3.9958329 3.6447637 -0.60282856
3.134305 2.8589287 -0.2369602
2.9820516 2.720052 0
3.1553359 2.8781118 0.23855019
