# .PCD v0.7 - Point Cloud Data file format
VERSION 0.7
FIELDS x y z
SIZE 4 4 4
TYPE F F F
COUNT 1 1 1
WIDTH 1721
HEIGHT 1
VIEWPOINT 0 0 0 1 0 0 0
POINTS 1721
DATA ascii
-1.1368396 6.3549976 -0.71958005
-1.2187779 6.8130369 -0.38659132
-0 0 0
-2.2120917 12.365718 0.70166641
-0 0 -0
-1.1379377 6.3390398 -0.71785086
-1.2100385 6.7406878 -0.38252741
-0 0 0
-1.849992 10.305637 0.58483481
-1.1428368 6.3223939 -0.71612167
-1.2177206 6.7366662 -0.38238242
-0 0 0
-1.8656789 10.321296 0.58585095
-1.1476955 6.3057356 -0.71439135
-1.2198113 6.7019582 -0.38049576
-0 0 0
-1.8818711 10.339486 0.58701205
-1.1525174 6.2890844 -0.71266216
-1.2218199 6.6672554 -0.37860906
-0 0 0
-1.8948309 10.339758 0.58715707
-1.1587074 6.2800541 -0.711797
-1.2223315 6.6248894 -0.37628683
-0 0 0
-1.908738 10.345129 0.5875926
-1.1610982 6.2506742 -0.7086255
-1.2217944 6.5774269 -0.3736746
-1.3792406 7.4250255 0
-1.9217108 10.345367 0.58773762
-1.1672251 6.2416468 -0.70776147
-1.2306954 6.581049 -0.37396461
-1.3891691 7.4284749 0
-1.9356432 10.350703 0.58817321
-1.171416 6.2224364 -0.70574313
-1.2328795 6.548924 -0.3722235
-1.3899592 7.3833146 0
-1.9385339 10.297285 0.5852704
-1.1794149 6.2235551 -0.70603114
-1.2354692 6.5193439 -0.37062684
-1.3959711 7.3662829 0
-1.9190438 10.126441 0.57569146
-1.184027 6.2068863 -0.70430195
-1.2384776 6.4923272 -0.3691757
-1.399508 7.3364778 0
-1.9156992 10.042447 0.57104754
-1.1886004 6.1902156 -0.70257276
-1.2458301 6.4882665 -0.36903015
-1.4059184 7.3220048 0
-1.9356719 10.080955 0.5733698
-1.1936238 6.1760702 -0.70113045
-1.2556412 6.4969616 -0.3696107
-1.4216774 7.3560686 0
-1.9769391 10.229115 0.58193207
-1.1961478 6.1492395 -0.69824809
-1.2600189 6.4775925 -0.36859515
-1.4226139 7.3134713 0
-1.9883062 10.221622 0.58164203
-1.2055649 6.1579428 -0.69940126
-1.2643498 6.4582124 -0.36757904
-0 0 0
-1.9806882 10.11722 0.57583702
-1.2085052 6.1336446 -0.69680691
-1.2726543 6.4592271 -0.36772403
-0 0 0
-1.9627727 9.961853 0.56712866
-1.2149085 6.1271009 -0.69622976
-1.2774266 6.4423966 -0.36685348
-0 0 0
-1.9793563 9.9824114 0.56843477
-1.2202865 6.1154828 -0.69507658
-1.2841922 6.4357471 -0.36656293
-1.8576974 9.3098764 0
-2.0178571 10.112519 0.57598203
-1.2256382 6.1038604 -0.69392341
-1.2940137 6.4443808 -0.36714348
-1.8464018 9.1953554 0
-2.0505347 10.211968 0.58178705
-1.2345499 6.109983 -0.69478858
-1.3017997 6.4428129 -0.36714348
-1.7023751 8.4253244 0
-2.0690479 10.240047 0.5835287
-1.2419317 6.1084867 -0.69478858
-1.3111372 6.4488764 -0.36757904
-1.7109982 8.4156075 0
-2.0891857 10.275737 0.58570594
-1.2482759 6.1019187 -0.69421256
-1.3184081 6.4447441 -0.36743402
-1.7211655 8.4135342 0
-2.1182632 10.354658 0.59034985
-0 0 -0
-1.3130984 6.3795218 -0.36380568
-1.7329049 8.4190979 0
-2.1381063 10.387718 0.59238154
-1.2614442 6.0912833 -0.69334739
-1.3218588 6.3830142 -0.36409569
-1.7330506 8.3685846 0
-2.1496036 10.380043 0.59209156
-1.2666931 6.0796266 -0.69219422
-1.3316904 6.3915877 -0.36467624
-1.7489988 8.3945036 0
-2.1499555 10.318937 0.58875376
-0 0 -0
-1.3254539 6.342463 -0.36191902
-1.75407 8.393445 0
-2.0987847 10.042948 0.57307923
-0 0 -0
-1.3373934 6.3611994 -0.36308011
-1.770636 8.4218817 0
-0 0 0
-1.2834463 6.0681782 -0.69132906
-1.3450787 6.3595791 -0.36308011
-1.782427 8.4273767 0
-2.0655193 9.7658472 0.55755031
-1.2929306 6.0767426 -0.69248223
-1.3495165 6.3426948 -0.36220902
-1.7888168 8.4073954 0
-0 0 0
-0 0 -0
-1.3588114 6.3486848 -0.36264458
-1.7978859 8.4001436 0
-2.0896568 9.7633657 0.55769527
-1.3054345 6.0634861 -0.69132906
-1.3648404 6.3394151 -0.36220902
-1.804747 8.3826942 0
-2.1014526 9.7608337 0.55769527
-0 0 -0
-1.3714004 6.3326869 -0.36191902
-1.8247904 8.4262962 0
-2.1110451 9.7481289 0.55711472
-0 0 -0
-1.3807087 6.3386345 -0.36235401
-1.8294306 8.3986521 0
-2.1195052 9.7303429 0.55624419
-0 0 -0
-1.3833623 6.3141198 -0.36104789
-1.8351215 8.3760977 0
-2.1340408 9.7404633 0.55696976
-0 0 -0
-1.3949054 6.3302093 -0.362064
-1.8458006 8.3764133 0
-2.1469259 9.7429476 0.55725974
-0 0 -0
-1.4003043 6.3183718 -0.36148345
-1.8598628 8.3919649 0
-2.1626329 9.7581072 0.55827588
-0 0 -0
-1.4073731 6.3141413 -0.36133847
-1.8700016 8.3897114 0
-2.1823354 9.7909889 0.5603075
-0 0 -0
-1.4172748 6.3225784 -0.36191902
-1.8829832 8.4001408 0
-2.2259905 9.9303246 0.56843477
-0 0 -0
-1.4231986 6.3132544 -0.36148345
-1.8891271 8.3800955 0
-2.3025565 10.214052 0.58483481
-0 0 -0
-1.430252 6.3089981 -0.36133847
-1.9004012 8.3828783 0
-2.3120248 10.198594 0.58410931
-0 0 -0
-1.4384511 6.3097963 -0.36148345
-1.9076371 8.3678913 0
-2.2365623 9.8107281 0.56204921
-0 0 -0
-1.4495568 6.3232455 -0.36235401
-2.357353 10.283227 0
-2.2431901 9.7852268 0.56074309
-0 0 -0
-1.4554467 6.3139005 -0.36191902
-2.3662679 10.26515 0
-2.2555952 9.7850389 0.56088811
-0 0 -0
-1.4630748 6.3121371 -0.36191902
-2.3751447 10.247077 0
-2.2691774 9.7899027 0.56132364
-0 0 -0
-1.4689308 6.3027701 -0.36148345
-2.4052448 10.320231 0
-2.2821834 9.7922096 0.56161362
-0 0 -0
-1.4765455 6.3009911 -0.36148345
-2.4082127 10.276776 0
-2.2963853 9.7995644 0.56219423
-0 0 -0
-1.4871368 6.3118458 -0.36220902
-0 0 0
-2.3088219 9.7993193 0.56233978
-0 0 -0
-1.4977566 6.3226843 -0.36293456
-2.4744327 10.445661 0
-2.3188634 9.7889347 0.56190419
-0 0 -0
-1.5035909 6.3132939 -0.36249956
-0 0 0
-2.340322 9.8265696 0.56422645
-0 0 -0
-1.5007652 6.2845807 -0.36090291
-2.4589059 10.296876 0
-2.3824685 9.9767876 0.57293427
-0 0 -0
-1.5119963 6.2979178 -0.36177346
-2.4658787 10.271124 0
-2.4090779 10.034532 0.57641703
-0 0 -0
-1.5250936 6.3188267 -0.36308011
-0 0 0
-2.4260781 10.051821 0.57757813
-0 0 -0
-1.5259873 6.2891998 -0.36148345
-0 0 0
-2.4363856 10.041313 0.57714313
-0 0 -0
-1.5461317 6.3056831 -0.36264458
-0 0 0
-2.4581692 10.025301 0.57656258
-0 0 -0
-1.5512624 6.2937188 -0.362064
-2.5534215 10.359638 0
-2.4534905 9.9542017 0.5726437
-0 0 -0
-1.5563663 6.2817512 -0.36148345
-2.5709443 10.376755 0
-2.3949082 9.6662445 0.55624419
-0 0 -0
-1.5670946 6.2924705 -0.36220902
-2.5583236 10.272626 0
-2.3871195 9.5851765 0.5517447
-0 0 -0
-1.570912 6.2754531 -0.36133847
-2.5713656 10.27205 0
-2.4087954 9.6226158 0.55406696
-0 0 -0
-0 0 -0
-1.5772241 6.2685061 -0.36104789
-2.5952072 10.314369 0
-2.4603631 9.7784452 0.56321031
-0 0 -0
-0 0 -0
-1.5918058 6.2943087 -0.36264458
-2.5974591 10.270857 0
-2.4868276 9.8333988 0.56654811
-0 0 -0
-0 0 -0
-1.5942891 6.2722335 -0.36148345
-2.6047385 10.247532 0
-2.4935865 9.8102398 0.56538701
-0 0 -0
-1.6037968 6.2778578 -0.36191902
-2.6203389 10.256983 0
-2.4983656 9.7795334 0.56379086
-0 0 -0
-1.6120268 6.27843 -0.362064
-2.6592658 10.357157 0
-2.5030715 9.7488194 0.56219423
-0 0 -0
-1.6150665 6.258863 -0.36104789
-0 0 0
-2.5070581 9.7155962 0.56045252
-0 0 -0
-1.6278462 6.2770286 -0.36220902
-0 0 0
-2.5090134 9.6748381 0.55827588
-0 0 -0
-1.6321536 6.2624874 -0.36148345
-0 0 0
-2.5226684 9.6793451 0.55871141
-0 0 -0
-1.6390617 6.2579994 -0.36133847
-0 0 0
-2.5416021 9.7039328 0.5603075
-0 0 -0
-0 0 -0
-1.6505892 6.2710867 -0.36220902
-0 0 0
-2.5672145 9.7536221 0.56335533
-0 0 -0
-1.6568377 6.2640681 -0.36191902
-0 0 0
-2.5863073 9.7781487 0.56495202
-0 0 -0
-0 0 -0
-1.6664059 6.2695885 -0.36235401
-2.746104 10.331781 0
-2.602124 9.7900791 0.56582254
-0 0 -0
-1.6766623 6.2776122 -0.36293456
-2.7538846 10.310853 0
-2.6233399 9.8220787 0.56785476
-0 0 -0
-1.6703763 6.2389545 -0.36075789
-2.7540562 10.286564 0
-2.6534636 9.9108438 0.57307923
-0 0 -0
-0 0 -0
-1.6812882 6.2494755 -0.36148345
-2.7766232 10.320918 0
-2.7133639 10.085779 0.58338374
-0 0 -0
-0 0 -0
-1.6935855 6.2650003 -0.36249956
-2.7870564 10.310026 0
-2.7296159 10.097539 0.58425426
-0 0 -0
-1.6963859 6.2453942 -0.36148345
-2.5327928 9.3246994 0
-2.7275121 10.041576 0.5812065
-0 0 -0
-1.703931 6.2433395 -0.36148345
-2.5598185 9.3793802 0
-2.7177532 9.958066 0.57656258
-0 0 -0
-1.7107871 6.2387729 -0.36133847
-2.5663314 9.3587093 0
-2.7249727 9.9372311 0.57554644
-0 0 -0
-1.7217745 6.2492242 -0.362064
-2.5721076 9.3355293 0
-2.7404282 9.946454 0.57627201
-0 0 -0
-0 0 -0
-1.7300167 6.2496409 -0.36220902
-2.5778313 9.3123493 0
-2.7559102 9.9556551 0.57699758
-0 0 -0
-1.7375669 6.2475462 -0.36220902
-2.5995424 9.3468399 0
-2.7762926 9.9823589 0.57873929
-0 0 -0
-1.7465146 6.250452 -0.36249956
-2.6409481 9.4514647 0
-2.7757666 9.9339552 0.57612705
-0 0 -0
-1.749149 6.2308226 -0.36148345
-2.659399 9.4733181 0
-3.1726105 11.301481 0.65565956
-0 0 -0
-1.7616143 6.246213 -0.36249956
-2.8050575 9.9459839 0
-3.2074223 11.372662 0.66001344
-0 0 -0
-1.7634935 6.2240796 -0.36133847
-2.8227489 9.9626188 0
-3.243118 11.446271 0.6645124
-0 0 -0
-0 0 -0
-1.7752798 6.2369347 -0.36220902
-2.8276613 9.9341745 0
-3.2775753 11.514818 0.66872126
-0 0 -0
-0 0 -0
-1.7792434 6.2222958 -0.36148345
-2.8389452 9.9282408 0
-3.2836273 11.483365 0.66712463
-0 0 -0
-1.7896301 6.2301311 -0.362064
-2.8538134 9.9348087 0
-3.0033801 10.455486 0.60762048
-0 0 -0
-1.7964369 6.2254701 -0.36191902
-2.8528292 9.8863497 0
-3.0354633 10.51926 0.61153936
-0 0 -0
-0 0 -0
-1.8061261 6.2307749 -0.36235401
-2.864049 9.8803978 0
-3.0590212 10.553013 0.61371607
-0 0 -0
-0 0 -0
-1.8151077 6.2335825 -0.36264458
-1.968735 6.7611809 0
-3.0964682 10.634129 0.61865056
-0 0 -0
-0 0 -0
-1.829203 6.253828 -0.3639507
-0 0 0
-3.1078577 10.625397 0.61836052
-0 0 -0
-1.8249395 6.2252908 -0.36235401
-0 0 0
-3.106235 10.596086 0.61676383
-0 0 -0
-1.8331963 6.2255807 -0.36249956
-2.4412293 8.2904758 0
-3.1271105 10.619746 0.61836052
-0 0 -0
-1.7547871 5.9328356 -0.68959987
-1.8480859 6.2482738 -0.3639507
-2.4586279 8.3124819 0
-3.1502566 10.65084 0.6203922
-1.7597439 5.9232702 -0.68873471
-1.8548951 6.2435479 -0.36380568
-2.4620004 8.2870541 0
-3.1683047 10.664463 0.62140834
-0 0 -0
-1.7683804 5.9261017 -0.68931186
-1.8550062 6.2163978 -0.36235401
-2.4653149 8.261631 0
-3.188617 10.685522 0.62285942
-0 0 -0
-1.7762815 5.9264355 -0.68959987
-1.864755 6.221621 -0.36278957
-2.4737999 8.2536554 0
-3.2082396 10.704061 0.62416553
-0 0 -0
-1.7826962 5.9218106 -0.68931186
-1.8752674 6.2293162 -0.36337012
-2.4830215 8.2481709 0
-3.266861 10.851951 0.63301891
-0 0 -0
-1.7898504 5.9196525 -0.68931186
-1.8842984 6.2320247 -0.36366069
-2.4967513 8.257618 0
-3.3897612 11.211109 0.65420789
-0 0 -0
-1.7947464 5.9100585 -0.6884467
-1.8880498 6.2173047 -0.36293456
-2.5067272 8.2545948 0
-3.3821669 11.137398 0.65014452
-0 0 -0
-1.8026401 5.910357 -0.68873471
-1.8985931 6.2249603 -0.36351514
-2.5189779 8.2590303 0
-3.3827357 11.091053 0.6476773
-0 0 -0
-1.8120536 5.915596 -0.68959987
-1.9099207 6.2350917 -0.36424124
-2.5259066 8.246027 0
-3.3946111 11.081984 0.64738673
-1.8207197 5.9183416 -0.69017589
-1.9159237 6.227807 -0.3639507
-2.5396938 8.2554045 0
-3.362159 10.928869 0.63867891
-0 0 -0
-1.826344 5.9112 -0.68959987
-1.9242136 6.2279677 -0.36409569
-2.5488997 8.2498455 0
-3.3001957 10.681513 0.62445611
-0 0 -0
-1.8334851 5.908989 -0.68959987
-1.9271188 6.210753 -0.36322513
-2.5658066 8.2691269 0
-3.2923076 10.610508 0.62053722
-1.8429328 5.9141793 -0.69046503
-1.9438983 6.2381892 -0.36496681
-2.5781198 8.2734776 0
-3.2943048 10.571795 0.61850554
-1.8516212 5.9168806 -0.69104105
-1.9460015 6.2184744 -0.3639507
-2.5749023 8.2281351 0
-3.3117342 10.582691 0.61937666
-1.8579944 5.9121737 -0.69075304
-1.9566301 6.2260342 -0.36453125
-2.5895226 8.2399101 0
-3.3416562 10.633214 0.62256944
-0 0 -0
-1.8651367 5.9099245 -0.69075304
-1.9610234 6.2137537 -0.3639507
-2.6002593 8.239254 0
-3.3803082 10.710938 0.62735891
-0 0 -0
-1.870712 5.9027305 -0.69017589
-1.970886 6.2188129 -0.36438623
-2.610213 8.2361069 0
-3.4042368 10.74152 0.6293906
-0 0 -0
-1.8770593 5.8980036 -0.68988788
-1.9799733 6.2213745 -0.36467624
-2.6241083 8.2453442 0
-3.3801787 10.621031 0.62256944
-1.8881207 5.9080472 -0.69132906
-1.9882795 6.2214503 -0.36482126
-2.6364467 8.2496061 0
-3.3708613 10.547635 0.61850554
-0 0 -0
-1.8928893 5.8983803 -0.69046503
-1.9981781 6.2264681 -0.36525682
-2.6535692 8.2687149 0
-3.3756652 10.518817 0.6170544
-0 0 -0
-1.9016 5.9010077 -0.69104105
-2.0104835 6.238893 -0.36612791
-2.6555777 8.240736 0
-3.3915606 10.524624 0.61763495
-1.9079334 5.8962474 -0.69075304
-2.0140185 6.2240911 -0.3654018
-2.6719429 8.2573299 0
-3.4082742 10.532877 0.61836052
-1.9162804 5.9098511 -0.69248223
-2.0153763 6.2154651 -0.36496681
-2.6737201 8.2458124 0
-3.4258561 10.565415 0.6203922
-1.9273417 5.8953691 -0.69132906
-2.0311973 6.2130437 -0.3651118
-0 0 0
-3.4747934 10.628728 0.62460113
-1.9368845 5.9004107 -0.69219422
-2.0427544 6.2229266 -0.36583737
-0 0 0
-3.4803407 10.602304 0.62329501
-1.9448215 5.9005203 -0.69248223
-2.0486469 6.2155232 -0.36554736
-0 0 0
-3.4833879 10.568478 0.6215533
-0 0 -0
-1.9495142 5.8908067 -0.6916182
-2.0577869 6.2179723 -0.36583737
-0 0 0
-3.4912586 10.549464 0.62068278
-0 0 -0
-1.9598899 5.8982553 -0.6927703
-2.0661173 6.2179446 -0.36598235
-0 0 0
-3.504003 10.545238 0.62068278
-1.9645621 5.8885293 -0.69190621
-2.0736289 6.2154436 -0.36598235
-0 0 0
-3.5183854 10.545921 0.62097275
-0 0 -0
-1.9741379 5.8935018 -0.6927703
-2.086091 6.2277217 -0.36685348
-2.2747171 6.7908368 0
-3.5344269 10.551517 0.6215533
-0 0 -0
-1.9820845 5.8935709 -0.69305938
-2.0969276 6.2350478 -0.36743402
-2.280431 6.7806807 0
-3.5546277 10.569404 0.62285942
-0 0 -0
-1.9892043 5.8911715 -0.69305938
-2.0911596 6.1931195 -0.3651118
-2.2819619 6.7581944 0
-3.578202 10.597102 0.62474608
-1.9938291 5.8814125 -0.69219422
-2.1111526 6.2274942 -0.36728847
-2.2984834 6.7800841 0
-3.5901704 10.590313 0.62460113
-2.0059328 5.8936858 -0.69392341
-2.1128175 6.207727 -0.36627293
-2.295774 6.7452765 0
-3.5937538 10.558906 0.62300444
-2.0155625 5.8986025 -0.69478858
-2.120317 6.2051692 -0.36627293
-2.3333731 6.8286848 0
-3.604831 10.549643 0.62271446
-0 0 -0
-2.0218499 5.8937187 -0.69450057
-2.1345584 6.2222657 -0.36743402
-0 0 0
-3.6125181 10.530538 0.62184387
-2.0272837 5.8863759 -0.69392341
-2.1446111 6.2270451 -0.36786902
-0 0 0
-3.6108561 10.484401 0.61937666
-2.0335503 5.8814797 -0.6936354
-2.1529853 6.2269125 -0.3680146
-0 0 0
-3.5929539 10.391622 0.6141516
-2.0440481 5.888792 -0.69478858
-2.1639161 6.2341251 -0.36859515
-0 0 0
-3.5918744 10.347996 0.6118294
-2.0443532 5.8667784 -0.69248223
-2.1697354 6.226594 -0.36830458
-0 0 0
-3.6069412 10.351012 0.61226493
-2.0548568 5.8740697 -0.6936354
-2.1695364 6.2018957 -0.36699846
-0 0 0
-3.6245921 10.361358 0.61313552
-2.0645249 5.8789058 -0.69450057
-2.1899438 6.2360473 -0.3691757
-0 0 0
-3.6414165 10.369236 0.61386162
-2.0733449 5.8812809 -0.69507658
-2.1957479 6.2284904 -0.36888516
-0 0 0
-3.660851 10.384424 0.61502218
-2.0839014 5.8885245 -0.69622976
-2.1989386 6.2135873 -0.36815959
-0 0 0
-3.6881323 10.421634 0.6174894
-2.0883255 5.8897095 -0.6965189
-2.2035596 6.2147045 -0.36830458
-0 0 0
-3.7239506 10.502666 0.62242389
-2.0858994 5.8603754 -0.69334739
-2.2250085 6.2512054 -0.37062684
-0 0 0
-3.7680061 10.586287 0.62764889
-2.1060336 5.8943882 -0.69767207
-2.2325602 6.2485123 -0.37062684
-0 0 0
-3.8061481 10.652686 0.63185781
-2.1087859 5.8796592 -0.69622976
-2.231338 6.2213559 -0.3691757
-0 0 0
-3.839191 10.704328 0.63519561
-2.1211472 5.8917127 -0.69796008
-2.2379708 6.2162032 -0.36903015
-0 0 0
-3.8670847 10.741241 0.63766283
-2.1273863 5.8867154 -0.69767207
-2.2516632 6.2306032 -0.37004626
-0 0 0
-3.8827107 10.743894 0.63809836
-2.138907 5.8962955 -0.69911325
-2.2627344 6.237649 -0.37062684
-2.711103 7.4736605 0
-3.8735383 10.678129 0.63447005
-2.1398344 5.8766918 -0.69709492
-2.2702696 6.23491 -0.37062684
-2.7228036 7.4777179 0
-3.8668804 10.61973 0.63127726
-2.1495981 5.881392 -0.69796008
-2.2688835 6.2077618 -0.3691757
-2.727371 7.462203 0
-3.8636553 10.571125 0.62866503
-2.158483 5.8836422 -0.6985361
-2.2826447 6.222085 -0.37019128
-2.7139778 7.3978224 0
-3.8773196 10.568886 0.62880999
-2.1673801 5.8858891 -0.69911325
-2.2937529 6.2290759 -0.37077183
-0 0 0
-3.900862 10.593454 0.6305517
-2.1744905 5.8832655 -0.69911325
-2.3057811 6.2384839 -0.37149739
-2.7661312 7.4839993 0
-3.920866 10.608232 0.63171279
-2.1815975 5.8806338 -0.69911325
-2.3078964 6.2210808 -0.37062684
-2.7489223 7.4098935 0
-3.9409113 10.622975 0.63287389
-2.1959219 5.8973846 -0.70141959
-2.3262925 6.247509 -0.37236848
-2.7433434 7.3675442 0
-3.949208 10.606023 0.63214779
-2.1994243 5.885036 -0.70026642
-2.3429346 6.2690287 -0.37381962
-2.7449584 7.3447309 0
-3.9547431 10.581772 0.63098669
-2.2010815 5.8678393 -0.6985361
-2.3349943 6.2248359 -0.37135237
-2.7584004 7.35359 0
-3.9538398 10.540499 0.62880999
-2.2127256 5.8772759 -0.69997728
-2.3516679 6.2463236 -0.37280351
-2.7746196 7.3697367 0
-3.9436851 10.47492 0.62518167
-2.2207425 5.8770247 -0.70026642
-2.3592136 6.2434773 -0.37280351
-2.7743216 7.3420291 0
-3.9425609 10.433684 0.62300444
-2.2278421 5.8743372 -0.70026642
-2.3630736 6.2309132 -0.3722235
-2.7924213 7.3630099 0
-3.9487178 10.411913 0.62198889
-2.2367771 5.8764706 -0.70084244
-2.3724477 6.2329059 -0.3725135
-3.9918311 10.487357 0
-3.9566748 10.394995 0.62126333
-2.2420316 5.8689361 -0.70026642
-2.3771944 6.2227502 -0.37207794
-4.0044999 10.482526 0
-3.9683022 10.387772 0.62111777
-2.2556005 5.883121 -0.70228362
-2.386574 6.2247305 -0.37236848
-4.0246167 10.49712 0
-3.9808509 10.382969 0.62111777
-2.2645669 5.8852239 -0.70286077
-2.3931613 6.2194195 -0.3722235
-0 0 0
-3.9943297 10.380584 0.62126333
-2.2644007 5.8742013 -0.7017076
-2.4006534 6.2276611 -0.37280351
-4.0445709 10.492234 0
-4.0034018 10.385435 0.62169832
-2.2705646 5.869051 -0.70141959
-2.4156768 6.2441435 -0.37396461
-4.0769639 10.538308 0
-4.0196977 10.390284 0.62227887
-2.2888846 5.8952274 -0.70487797
-2.4279251 6.2533383 -0.37469074
-4.1311364 10.640111 0
-4.0444746 10.416906 0.62416553
-2.2856793 5.8659544 -0.7017076
-2.4401953 6.2625031 -0.37541628
-4.1487131 10.647234 0
-4.0919633 10.501592 0.62953556
-2.3003013 5.8824592 -0.70401394
-2.4420807 6.2450256 -0.37454516
-4.6657805 11.931596 0
-4.1566949 10.629733 0.63751781
-2.3102393 5.8868914 -0.70487797
-2.4505768 6.2444963 -0.37469074
-4.6687856 11.896877 0
-4.20086 10.704522 0.64230728
-2.3154569 5.8792872 -0.70430195
-2.4752576 6.2850447 -0.37730297
-4.6679025 11.852493 0
-4.2309284 10.742953 0.64491951
-2.3225591 5.8764853 -0.70430195
-2.4771175 6.2675452 -0.37643185
-4.6726527 11.822637 0
-4.2362657 10.7185 0.64375842
-2.3306108 5.8760767 -0.70458996
-2.484689 6.2645473 -0.37643185
-4.6610308 11.751672 0
-4.2463422 10.706135 0.64332342
-2.3434501 5.8876796 -0.70632029
-2.4951403 6.2687855 -0.37686741
-4.6627164 11.7146 0
-4.2592754 10.700995 0.64332342
-2.3534379 5.8920426 -0.70718431
-2.5017502 6.2633553 -0.3767224
-4.6614218 11.670287 0
-4.2779837 10.710316 0.64419395
-2.3624821 5.894001 -0.70776147
-2.519948 6.2868519 -0.37831852
-4.6551871 11.613919 0
-4.2957549 10.717196 0.64491951
-2.3763556 5.9079323 -0.70977867
-2.5343311 6.3006802 -0.37933463
-4.6536779 11.569654 0
-4.3125801 10.721641 0.64550006
-2.3747807 5.8834729 -0.70718431
-2.5341618 6.2783365 -0.37817353
-4.6530457 11.52783 0
-4.3284507 10.723653 0.64593565
-2.3848019 5.8877935 -0.70804948
-2.5349205 6.2584186 -0.37715796
-4.650363 11.481195 0
-4.3453069 10.728048 0.6465162
-2.3967829 5.8968859 -0.70949066
-2.5336721 6.2336788 -0.37585127
-4.6456127 11.429757 0
-4.3631577 10.734823 0.64724177
-2.3960919 5.874826 -0.70718431
-2.5843804 6.3364782 -0.38223743
-4.6397667 11.375949 0
-4.3879013 10.758416 0.64898342
-2.4159238 5.9030428 -0.71093184
-2.5733337 6.2876563 -0.37947965
-4.6406913 11.339016 0
-4.4048343 10.762726 0.64956397
-2.4289522 5.9144797 -0.71266216
-2.5789568 6.2797399 -0.37918964
-4.6385741 11.294891 0
-4.4188218 10.759797 0.64970899
-2.4452128 5.9133682 -0.71323818
-2.6139836 6.3215141 -0.38209242
-4.6310477 11.199471 0
-4.4249525 10.701061 0.64680618
-2.4483912 5.9008532 -0.71208501
-2.5987148 6.2631478 -0.37875408
-4.6286225 11.155416 0
-4.4358897 10.690911 0.6465162
-2.4624794 5.9146075 -0.71410334
-2.6282511 6.3127732 -0.38194686
-4.630095 11.120984 0
-4.4627848 10.719123 0.64854789
-2.4640629 5.908349 -0.71352732
-2.6340668 6.3159852 -0.38223743
-4.6187835 11.074954 0
-4.4902625 10.766786 0.65159565
-2.4751902 5.9149022 -0.71467936
-2.6306615 6.286428 -0.38064075
-4.6120691 11.021349 0
-4.5072813 10.770941 0.6521762
-2.4803348 5.9071422 -0.71410334
-2.6483173 6.3072076 -0.38209242
-4.6142988 10.989371 0
-4.5082207 10.736736 0.65043455
-2.4975109 5.9279718 -0.7169857
-2.6549246 6.3016019 -0.38194686
-4.6114068 10.945415 0
-4.5201831 10.728889 0.65028954
-2.5006435 5.9154205 -0.71583253
-2.6675987 6.3103628 -0.382673
-4.6043663 10.891901 0
-4.5351648 10.728202 0.65057951
-2.5138509 5.9266858 -0.71756285
-2.6833348 6.326263 -0.38383353
-4.6002483 10.845602 0
-4.5491424 10.725113 0.65072507
-2.5159471 5.911747 -0.71612167
-2.6889439 6.3182387 -0.38354355
-4.6092734 10.830457 0
-4.5702343 10.738727 0.65188563
-2.5261328 5.9158316 -0.7169857
-2.6853504 6.2886963 -0.38194686
-4.6029372 10.779403 0
-4.5760665 10.716475 0.65087008
-2.543467 5.9365544 -0.7198692
-2.7277381 6.3666501 -0.38688132
-4.6016116 10.740347 0
-4.5859413 10.703771 0.65043455
-2.5475729 5.9263458 -0.71900403
-4.4850168 10.433366 -0.6343317
-4.5981412 10.696524 0
-4.5875859 10.671969 0.6488384
-2.5567787 5.9280086 -0.71958005
-4.4996767 10.432707 -0.63462174
-4.5935416 10.650337 0
-4.5757794 10.609155 0.64535505
-2.5639396 5.9249148 -0.71958005
-4.5009303 10.401036 -0.63302559
-4.5950408 10.618513 0
-4.5524793 10.520159 0.6402756
-2.5762503 5.933682 -0.72102237
-4.5165963 10.402734 -0.63346058
-4.5954304 10.584307 0
-4.5289669 10.431226 0.63519561
-2.5854819 5.9353027 -0.72159839
-4.5239749 10.385361 -0.63273507
-4.5884676 10.533411 0
-4.5343065 10.409078 0.63418001
-2.5967948 5.9416542 -0.72275156
-4.5333977 10.372741 -0.63229948
-4.5866027 10.494477 0
-4.5229454 10.348826 0.63084167
-2.6008554 5.9314036 -0.7218864
-4.5302787 10.331567 -0.63012284
-4.5815139 10.448412 0
-4.9559512 11.302339 0.68933022
-2.611146 5.9353614 -0.72275156
-4.5281119 10.292791 -0.62809116
-4.5878453 10.428571 0
-4.9748354 11.308232 0.69005579
-2.6204066 5.9369392 -0.72332871
-4.5279546 10.258786 -0.62634945
-4.5773258 10.370645 0
-4.9926925 11.311722 0.69063634
-2.6275783 5.9337687 -0.72332871
-4.5266709 10.222423 -0.62446278
-4.5719409 10.324655 0
-5.0221353 11.341312 0.69281304
-2.6326439 5.9258575 -0.72275156
-4.5284677 10.193194 -0.62301111
-4.5749044 10.29772 0
-5.0548224 11.377975 0.69542527
-2.6450663 5.9344821 -0.72419274
-4.5206847 10.142629 -0.62025392
-4.5767508 10.268418 0
-5.0569339 11.345758 0.69382912
-2.6596267 5.9478121 -0.72621107
-4.5170255 10.101575 -0.61807668
-4.5710959 10.222494 0
-5.0663962 11.330152 0.69324857
-2.6716776 5.9650884 -0.72851741
-4.5082593 10.065648 -0.616045
-4.5591874 10.179356 0
-4.845953 10.81962 0.66219014
-2.665103 5.9311876 -0.72476989
-4.5065746 10.029384 -0.61415833
-4.5597496 10.147724 0
-4.8132305 10.711846 0.65594953
-2.6871469 5.9609704 -0.72880542
-4.5048084 9.9931374 -0.61227167
-4.5538268 10.101876 0
-4.8101554 10.670497 0.65377289
-2.7039387 5.9789271 -0.73139977
-4.5072446 9.9663811 -0.61096555
-4.5563788 10.075027 0
-4.8219709 10.662302 0.65362734
-2.7133005 5.9803705 -0.73197693
-4.5031786 9.9254313 -0.60878831
-4.5481181 10.024482 0
-4.8595443 10.710895 0.65696567
-2.7451658 6.0312257 -0.73860681
-4.5022507 9.8916025 -0.6070466
-4.5419006 9.978714 0
-4.9230728 10.816163 0.66378683
-2.8448381 6.2302318 -0.76339829
-4.5012479 9.8577909 -0.60530496
-4.5420666 9.9471846 0
-4.9793067 10.904745 0.66959184
-2.8943748 6.318501 -0.77464199
-4.4980078 9.8192759 -0.60327327
-4.5508299 9.9345884 0
-5.0238609 10.967228 0.67380077
-2.9527652 6.4254518 -0.7881909
-4.4925089 9.7760563 -0.60095102
-4.5465331 9.8936176 0
-5.0403652 10.968235 0.6742363
-2.9551136 6.4101372 -0.78674972
-4.4836516 9.7257929 -0.59819382
-4.54214 9.852663 0
-5.0612302 10.978658 0.67525244
-0 0 -0
-4.4757695 9.6779203 -0.59558159
-4.5103493 9.7526922 0
-5.0897603 11.005548 0.67728406
-0 0 -0
-4.4776149 9.6512842 -0.59427488
-4.4958434 9.6905756 0
-5.11727 11.03003 0.67917079
-0 0 -0
-4.4805059 9.6270294 -0.59311432
-4.4087248 9.4727964 0
-5.1382699 11.040332 0.68018687
-2.9762096 6.37468 -0.78415424
-4.4789443 9.5933552 -0.59137267
-4.3816328 9.3849249 0
-5.1516061 11.034115 0.68018687
-2.97733 6.3570299 -0.78242505
-4.4806147 9.5667601 -0.59006655
-4.4095278 9.414979 0
-5.1506085 10.997293 0.6783002
-0 0 -0
-4.4789114 9.5331173 -0.5883249
-4.4718051 9.5179911 0
-5.1638927 10.991062 0.6783002
-2.9816589 6.3264241 -0.77954268
-4.476027 9.4971447 -0.58643818
-4.5077095 9.5643673 0
-5.1815968 10.994207 0.67888021
-2.982666 6.3087826 -0.77781236
-4.4652867 9.444746 -0.58353543
-4.509253 9.5377407 0
-5.2070951 11.013782 0.6804769
-2.991394 6.3075085 -0.77810037
-4.4655633 9.4158707 -0.5820843
-4.5174274 9.5252285 0
-5.2426686 11.054438 0.68337965
-2.9923484 6.2898803 -0.77637118
-4.466887 9.3893433 -0.58077765
-4.516634 9.4939098 0
-5.2348108 11.00351 0.68062186
-3.0077453 6.3026023 -0.77838951
-4.4569688 9.3393888 -0.57802039
-4.5090485 9.4485197 0
-5.7516894 12.052421 0.74593157
-3.0175898 6.3036246 -0.77896553
-4.4559078 9.3082132 -0.5764237
-4.500237 9.400815 0
-5.7292242 11.968121 0.74114209
-3.020726 6.2906475 -0.77781236
-4.4604049 9.2887726 -0.57555318
-4.5014548 9.374259 0
-5.7538033 11.982268 0.74244821
-3.0036333 6.2357321 -0.77147049
-4.4603515 9.2599707 -0.57410204
-4.5060043 9.3547497 0
-5.770535 11.979994 0.74273878
-3.00965 6.2385798 -0.77204764
-4.4467478 9.2174816 -0.57163423
-4.4879098 9.302804 0
-5.7935758 12.009266 0.74477047
-2.9484611 6.0929203 -0.75446206
-4.444304 9.1840429 -0.56989312
-4.4866757 9.2716026 0
-5.828454 12.044353 0.7473827
-2.9095137 5.9939551 -0.74264234
-4.4429154 9.1529503 -0.56829649
-4.4933295 9.2568102 0
-5.8645635 12.081719 0.75014049
-2.8861859 5.9276538 -0.73485929
-4.4437351 9.1265516 -0.56699038
-4.4885635 9.2186203 0
-5.8791575 12.074624 0.75014049
-2.8831315 5.9032474 -0.73226494
-4.4547596 9.1211748 -0.56699038
-0 0 0
-5.9108448 12.102528 0.75231713
-2.8822961 5.8834982 -0.7302466
-4.4703498 9.1251192 -0.56757092
-4.4833498 9.1516552 0
-5.9163189 12.076709 0.75115603
-2.9008121 5.9032292 -0.7331301
-4.4699149 9.0963945 -0.56611979
-4.4863691 9.129879 0
-5.9011135 12.008922 0.7473827
-2.9022222 5.8881135 -0.73168778
-4.4786034 9.0863218 -0.56582922
-4.4962478 9.1221189 0
-4.5773444 9.2866507 0.57830429
-2.9104843 5.8869276 -0.73197693
-4.4918842 9.0855665 -0.56611979
-4.5038099 9.1096878 0
-4.5908632 9.2857676 0.57859427
-2.9210393 5.8903513 -0.73284096
-3.0345066 6.1191611 -0.38151187
-4.5182796 9.111227 0
-4.6043863 9.2848644 0.57888424
-2.9316113 5.8937674 -0.73370612
-3.0453665 6.1224627 -0.38194686
-4.529285 9.1057606 0
-4.604032 9.2560339 0.57743317
-2.9445031 5.9017906 -0.7351473
-3.052762 6.1187787 -0.38194686
-3.3192406 6.6528921 0
-6.9154668 13.860958 0.86522979
-2.9389031 5.8727918 -0.73197693
-3.0613194 6.1174159 -0.38209242
-3.3249452 6.6442175 0
-6.9438405 13.875834 0.86668146
-2.9471562 5.8715458 -0.73226494
-3.0663753 6.1090631 -0.38180187
-3.3259683 6.6262441 0
-3.3915246 6.7568502 0.42228699
-0 0 -0
-2.9450166 5.8320875 -0.7282294
-3.09167 6.1225085 -0.38310799
-3.3537004 6.6414137 0
-3.4148734 6.7625561 0.42315811
-2.967253 5.8585191 -0.73197693
-3.108458 6.1373129 -0.38426909
-3.3523157 6.618783 0
-3.4054298 6.7236514 0.42098087
-0 0 -0
-2.980186 5.866457 -0.73341811
-3.148824 6.1984191 -0.38833299
-3.3626704 6.6193728 0
-3.4312057 6.7542839 0.42315811
-2.9907961 5.8697677 -0.73428327
-3.2223685 6.324254 -0.39646026
-3.3553076 6.5851617 0
-3.4263871 6.7246633 0.42156145
-0 0 -0
-3.0214221 5.9122038 -0.74004799
-3.2784877 6.4152198 -0.40241084
-4.5238233 8.8520451 0
-3.4486995 6.7482839 0.4233031
-3.0179467 5.8878355 -0.73745364
-3.3052011 6.4482517 -0.40473306
-4.5250239 8.8280535 0
-3.4485531 6.7279229 0.42228699
-3.0297892 5.8933859 -0.73860681
-3.3177378 6.4534883 -0.40531307
-4.5273571 8.8063755 0
-3.4590583 6.7283773 0.42257756
-3.0309823 5.8782282 -0.73716563
-3.3207743 6.4402456 -0.40473306
-4.5212989 8.7685194 0
-8.835248 17.134909 1.0768323
-3.0226676 5.8534188 -0.73428327
-3.3175089 6.4243808 -0.40386194
-4.5265956 8.7657862 0
-8.8384476 17.115721 1.0759617
-3.0380616 5.8658328 -0.73630047
-3.3204889 6.4111381 -0.40328139
-4.5252128 8.7371969 0
-8.8674831 17.121172 1.0769773
-3.0439558 5.8598647 -0.73601246
-3.3294299 6.4094253 -0.40342638
-4.5225735 8.7063246 0
-8.8881645 17.110445 1.0769773
-3.0605948 5.8745327 -0.7383188
-3.3335736 6.3984909 -0.40299138
-4.5138507 8.6639252 0
-8.9256439 17.13196 1.0790095
-3.0748756 5.8845806 -0.74004799
-4.4748311 8.5637627 -0.53970528
-4.5110569 8.63309 0
-8.9403172 17.10964 1.0782834
-3.0975904 5.9106407 -0.74379551
-4.4815607 8.5514517 -0.53927022
-4.5094066 8.6045856 0
-3.6336129 6.9334474 0.43723595
-0 0 -0
-3.1119528 5.9206347 -0.74552584
-4.4870543 8.5368299 -0.53868967
-4.5161667 8.5922174 0
-3.7229841 7.0831509 0.44695988
-3.1396077 5.9557648 -0.75042653
-3.2190571 6.1064787 -0.38557521
-4.5095572 8.5545282 0
-3.7594063 7.1315088 0.45029765
-3.164932 5.986259 -0.75475007
-3.2325046 6.114068 -0.38630077
-4.5162401 8.5421686 0
-3.8263121 7.2372155 0.4572638
-3.1879134 6.0121346 -0.7584976
-3.2374578 6.1055708 -0.38601077
-4.5131507 8.5114202 0
-3.882529 7.3221211 0.46292436
-3.2146065 6.0448165 -0.76311028
-3.2399526 6.0924778 -0.38543022
-4.5173187 8.4944649 0
-3.4350951 6.4594283 0.40864474
-3.2206922 6.0386481 -0.76282227
-3.2448683 6.0839772 -0.38514021
-4.5116587 8.4591503 0
-3.447789 6.4644442 0.40922529
-3.2304239 6.039309 -0.76339829
-3.2546661 6.08463 -0.38543022
-4.5108304 8.4330416 0
-3.450695 6.451108 0.40864474
-3.227942 6.0171762 -0.76109308
-4.4866285 8.3634825 -0.53012687
-4.5160956 8.4184113 0
-3.4609466 6.4515181 0.40893528
-3.2143786 5.9745522 -0.75619239
-4.4918065 8.3489017 -0.52954632
-4.5102363 8.3831568 0
-3.4785836 6.4656291 0.41009584
-3.1933453 5.9183073 -0.74956137
-4.4981885 8.336606 -0.52911079
-4.5178928 8.3731251 0
-3.4900963 6.4682837 0.4105314
-3.1869524 5.8894196 -0.74638987
-4.4983649 8.3128824 -0.52794963
-3.3637986 6.2162275 0
-3.5263538 6.5166259 0.41386974
-3.1965361 5.8901153 -0.74696702
-3.209568 5.9141288 -0.37585127
-3.3750324 6.2190228 0
-3.5664475 6.5717349 0.4176431
-3.2024155 5.8839793 -0.74667901
-3.2229261 5.9216647 -0.37657741
-3.3750823 6.2012291 0
-3.5917737 6.599369 0.41967475
-3.2119989 5.8846416 -0.74725503
-3.2201197 5.8995194 -0.37541628
-3.3713472 6.1765809 0
-3.6072123 6.6087046 0.42054531
-3.2240746 5.8898315 -0.7484082
-3.2197571 5.8819442 -0.37454516
-3.3800611 6.1747923 0
-3.5914927 6.5610409 0.41778809
-3.2313635 5.8946891 -0.74927336
-3.2345505 5.9005027 -0.37585127
-3.3912947 6.1864371 0
-3.5879638 6.5452032 0.41691753
-3.2285154 5.8726478 -0.74696702
-3.2429333 5.8988738 -0.37599686
-3.4163177 6.2142587 0
-3.6008723 6.5499625 0.41749755
-3.2418518 5.8800654 -0.7484082
-3.3052545 5.9950652 -0.38238242
-3.6449616 6.6112251 0
-3.6526949 6.6252522 0.42257756
-3.242698 5.8648286 -0.74696702
-3.5023415 6.3344269 -0.4042975
-3.6693165 6.6364222 0
-3.7160144 6.7208815 0.42896312
-3.2522881 5.8654256 -0.74754304
-3.5326715 6.3710909 -0.40690973
-3.6710238 6.6206059 0
-3.7505927 6.7641063 0.43201092
-3.2593729 5.8614917 -0.74754304
-3.5593104 6.4008842 -0.40908697
-4.3986406 7.9102936 0
-3.772655 6.7845521 0.43360761
-3.271492 5.8665853 -0.74869621
-3.5657728 6.3943028 -0.40894142
-4.3917141 7.8754177 0
-3.7859123 6.7890668 0.43418816
-4.0031862 7.1583443 -0.91416776
-3.5570099 6.3605089 -0.40705475
-3.4689038 6.202961 0
-3.7928407 6.7822127 0.4340426
-4.0181575 7.1647797 -0.91560894
-3.5481706 6.3267455 -0.40516806
-3.4725761 6.1919532 0
-3.7984934 6.7730966 0.4337526
-4.0280833 7.1621799 -0.91589808
-3.4844868 6.195632 -0.39704081
-3.4711239 6.1718717 0
-3.7901168 6.7390609 0.43186593
-4.029108 7.143786 -0.91416776
-3.4243171 6.071465 -0.38934857
-3.4568458 6.1291394 0
-3.7867696 6.7141089 0.43055981
-0 0 -0
-4.035193 7.1344142 -0.91359174
-3.4316509 6.0673227 -0.38934857
-3.3412609 5.9075093 0
-3.7884846 6.6982222 0.42983425
-4.0310473 7.1070309 -0.91070825
-3.4030893 5.9998951 -0.3852852
-4.3780794 7.7188735 0
-3.7491438 6.6100144 0.42446423
-4.0357995 7.095417 -0.90984422
-3.400059 5.9777093 -0.3841241
-4.382256 7.7045293 0
-3.6980345 6.501586 0.41778809
-0 0 -0
-4.0315523 7.0680637 -0.90696073
-3.0648417 5.3732395 -0.34551895
-4.3799586 7.678885 0
-3.6930158 6.474546 0.41633698
-3.232363 5.6510587 -0.72563392
-3.0764928 5.3785548 -0.3460995
-4.373733 7.6464872 0
-3.678905 6.4317369 0.41386974
-3.2353318 5.6404247 -0.72476989
-3.0972123 5.3996296 -0.34769619
-4.3700175 7.6186175 0
-4.3149791 7.5226641 0.48440391
-3.2498801 5.6499591 -0.72649908
-3.187942 5.5422792 -0.35712954
-4.3519711 7.5659595 0
-4.3098125 7.4926658 0.48280722
-3.2605829 5.6527519 -0.72736424
-3.3673017 5.8377662 -0.37643185
-4.3572078 7.5539303 0
-4.3110757 7.4739523 0.48193666
-4.2982121 7.4308915 -0.95683283
-3.3756578 5.8359489 -0.37657741
-4.3676391 7.5509191 0
-4.3201032 7.4687376 0.48193666
-4.3007002 7.4145079 -0.95539165
-0 0 -0
-3.379189 5.8258014 0
-4.3199968 7.4477763 0.48092055
-4.3122544 7.4137735 -0.95596766
-3.3923614 5.832262 -0.37686741
-3.3679094 5.7902236 0
-4.3172359 7.422338 0.47961444
-3.3143971 5.6903105 -0.73399413
-0 0 -0
-3.3177037 5.6959877 0
-3.340898 5.7358084 0.37076512
-3.3225787 5.6885414 -0.73428327
-3.4094779 5.8373208 -0.37759295
-3.2825813 5.6200624 0
-3.3399653 5.7183089 0.36989456
-3.3399024 5.7023687 -0.73658848
-3.4112759 5.8242283 -0.3770124
-4.3454971 7.4192672 0
-3.3455606 5.7120295 0.36974958
-3.3494124 5.7027941 -0.73716563
-3.3959408 5.7820144 -0.37454516
-4.3570971 7.4185038 0
-3.3590384 5.7191834 0.37047514
-0 0 -0
-3.3589232 5.7031956 -0.73774165
-3.3844659 5.7465653 -0.3725135
-3.1140833 5.2874756 0
-3.364629 5.7128835 0.37033013
-3.3723922 5.7102747 -0.73918396
-3.3742306 5.7133875 -0.37062684
-3.1032665 5.25458 0
-4.3625016 7.3867688 0.47917888
-3.3871949 5.7195444 -0.74091315
-3.3811316 5.7093062 -0.37062684
-3.1003292 5.2351494 0
-4.3740692 7.3859596 0.47946888
-3.3914645 5.7110038 -0.74033713
-3.3999674 5.7253222 -0.37193295
-0 0 0
-4.3803396 7.376205 0.47917888
-3.3877759 5.6891236 -0.73803079
-3.4148571 5.734601 -0.37280351
-3.1076453 5.2186975 0
-4.3972235 7.3842978 0.48004943
-3.3906684 5.6783614 -0.73716563
-4.3036337 7.2073073 -0.4688811
-3.1179528 5.2216439 0
-3.8386736 6.428637 0.41822365
-3.414799 5.7031064 -0.74091315
-4.3016605 7.184267 -0.46771997
-0 0 0
-3.8624568 6.4507465 0.41996533
-3.464292 5.7699361 -0.75013852
-4.3116741 7.1812897 -0.46786496
-3.1211836 5.1984735 0
-3.8809438 6.4638882 0.42112589
-4.2802281 7.090034 -0.92310399
-4.3196192 7.1552839 -0.46684942
-3.1256695 5.1775517 0
-3.8804431 6.4278049 0.41938478
-4.2820964 7.0737958 -0.92166281
-3.2773862 5.4140682 -0.3535012
-4.3340249 7.1595788 0
-4.4923577 7.4211369 0.4845489
-0 0 -0
-3.2704451 5.3878956 -0.3520501
-4.3359165 7.1432071 0
-3.5899143 5.9142051 0.38643965
-4.2669091 7.0104094 -0.91474491
-3.2742484 5.3794966 -0.35175952
-3.2161245 5.2840009 0
-0 0 0
-4.2726793 7.0008287 -0.91416776
-3.2739792 5.3644485 -0.35103396
-3.1737041 5.2001472 0
-0 0 0
-4.2743859 6.9846325 -0.91272658
-3.284529 5.3671398 -0.35146952
-3.1636837 5.1696706 0
-0 0 0
-3.6064761 5.8772607 -0.76858813
-3.3073199 5.3897438 -0.35321119
-3.1631234 5.1547551 0
-3.5967126 5.8613501 0.38411739
-3.6162832 5.8773003 -0.76916414
-3.3260839 5.4056592 -0.35451731
-3.1775301 5.1642246 0
-3.6037922 5.8569999 0.38411739
-3.6125174 5.8553166 -0.7668578
-3.3394339 5.4126916 -0.35524288
-3.1946995 5.1781001 0
-3.6081405 5.8482223 0.38382742
-4.2727175 6.9067063 -0.90523154
-3.3842435 5.4705176 -0.35930622
-3.214643 5.1963644 0
-3.6275065 5.8637443 0.38513353
-4.2578177 6.8733368 -0.90119487
-4.3002105 6.9417706 -0.45610937
-3.2218947 5.2010608 0
-3.6365218 5.8703876 0.38571408
-4.2524748 6.8462195 -0.89831251
-4.2907729 6.907877 -0.45422271
-3.2281768 5.1971636 0
-3.6477215 5.8726044 0.38614908
-4.2525425 6.8279076 -0.89658332
-4.2895045 6.8872542 -0.45320714
-3.228951 5.184423 0
-3.6493199 5.8593702 0.38556853
-4.2525668 6.809597 -0.894853
-4.2909374 6.8710399 -0.45248103
-3.2503779 5.2048016 0
-3.650897 5.846149 0.38498852
-4.2456961 6.7803464 -0.89168262
-4.2978587 6.8636498 -0.45233601
-4.3090744 6.8815613 0
-3.6607137 5.8461337 0.38527852
-4.2483845 6.766449 -0.89052945
-3.3666415 5.3620877 -0.35364619
-4.3160038 6.8741474 0
-3.6663945 5.8395076 0.38513353
-4.2510452 6.7525554 -0.88937628
-3.3731182 5.358016 -0.35364619
-4.3145995 6.8535085 0
-3.6706765 5.8306708 0.38484296
-4.2481561 6.7299166 -0.88706994
-3.3795898 5.3539362 -0.35364619
-0 0 0
-4.53901 7.1906862 0.47496998
-4.2479825 6.7116613 -0.88533962
-3.3846681 5.3476553 -0.3535012
-4.3144474 6.8166733 0
-4.5365777 7.1676316 0.47380885
-4.2491612 6.6956062 -0.88389844
-3.3953056 5.3501453 -0.35393676
-4.310132 6.7916808 0
-3.6778674 5.7953916 0.38339186
-4.2433653 6.6686497 -0.88101608
-3.4087412 5.356998 -0.35466233
-4.3085537 6.7710962 0
-3.6904471 5.7997127 0.38397241
-4.2444658 6.6526175 -0.87957489
-4.2900739 6.7241025 -0.44551489
-4.3083363 6.7527256 0
-3.7016466 5.8018231 0.38440797
-4.2441354 6.634407 -0.87784457
-4.2981958 6.7189136 -0.44551489
-4.3052726 6.7299767 0
-3.7016487 5.7863951 0.38368183
-4.2409773 6.6118569 -0.87553823
-3.5866592 5.5917482 -0.37106237
-4.3063774 6.7138186 0
-3.708638 5.7819185 0.38368183
-4.2461677 6.6023812 -0.87496221
-3.6046574 5.6048946 -0.3722235
-4.3060374 6.6954727 0
-3.7212436 5.7861748 0.38426241
-4.240128 6.5755124 -0.87207985
-3.6269133 5.6245503 -0.37381962
-4.3028469 6.6727757 0
-3.7296445 5.7838645 0.38440797
-4.2382383 6.5551777 -0.87006152
-3.6308877 5.6158037 -0.37352961
-4.3052545 6.6588297 0
-3.740859 5.7858934 0.38484296
-4.2419338 6.543539 -0.86919636
-3.6277752 5.5961475 -0.3725135
-4.3048005 6.6405158 0
-3.7577429 5.7966342 0.38585907
-4.2385607 6.5210595 -0.86689001
-3.5977187 5.5351191 -0.36874014
-4.3043137 6.622221 0
-3.7704086 5.8008041 0.38643965
-4.2379665 6.5029359 -0.86516082
-3.5221207 5.4045081 -0.36032233
-4.3052092 6.6061158 0
-3.8043668 5.8375998 0.38919687
-4.2415752 6.4913125 -0.86429566
-3.5002213 5.3567433 -0.35741955
-4.2989497 6.5791183 0
-3.8455303 5.8852048 0.39268023
-4.2352438 6.4645514 -0.8614133
-3.5038462 5.3481674 -0.35712954
-4.3011913 6.5652118 0
-3.901051 5.9544497 0.39761469
-4.2306337 6.4490118 -0.85968298
-3.5013754 5.337359 -0.35654899
-4.2937369 6.5452032 0
-3.8989468 5.9434009 0.39703411
-4.2327375 6.4352512 -0.85852981
-3.5063953 5.3309555 -0.35640398
-4.2916355 6.5247965 0
-3.8718553 5.8865829 0.39355078
-4.2262735 6.4085441 -0.85564744
-3.5099704 5.322372 -0.35611343
-4.2866225 6.5000548 0
-3.8403447 5.8233376 0.38963243
-4.229733 6.3969584 -0.85478228
-3.5178363 5.3203011 -0.35625899
-4.2915998 6.4905248 0
-3.8832059 5.8728781 0.39326078
-4.227459 6.3767586 -0.85276508
-3.5113361 5.2965484 -0.35495231
-4.2922506 6.4744906 0
-4.0912976 6.17137 0.4135792
-4.2308645 6.3651814 -0.85189992
-4.2642236 6.415369 -0.43027595
-4.2885456 6.4519606 0
-4.1303935 6.2140265 0.41677198
-4.2242112 6.3385458 -0.84901756
-4.263329 6.3972425 -0.42940539
-4.2905655 6.4381113 0
-4.1537514 6.2328181 0.41836864
-4.224678 6.3226776 -0.84757525
-4.2652812 6.3834443 -0.42882481
-4.289669 6.4199433 0
-4.1381812 6.1932259 0.41604641
-4.22368 6.3046794 -0.84584606
-0 0 -0
-4.2901764 6.4039383 0
-4.1312022 6.1666374 0.41459531
-0 0 -0
-4.2226448 6.2866931 -0.84411687
-4.2560658 6.3364506 -0.4263576
-4.2819533 6.3749914 0
-4.1589313 6.1918359 0.41662696
-4.2215667 6.2687097 -0.84238654
-4.2593637 6.3248353 -0.42592204
-4.2867427 6.3654914 0
-3.7876012 5.6243038 0.37874737
-4.2175593 6.2464557 -0.8400802
-4.2611866 6.31107 -0.42534149
-4.2827864 6.3430605 0
-3.7900364 5.6132684 0.37831238
-4.2222066 6.2370753 -0.83950418
-4.2571559 6.2887025 -0.42418036
-4.2816911 6.3249459 0
-3.8084693 5.6258993 0.37947351
-4.2166686 6.2127099 -0.83690983
-4.2603726 6.277102 -0.4237448
-4.2776384 6.3025408 0
-3.8590388 5.6857891 0.38382742
-4.2198057 6.2011933 -0.83604467
-4.2606463 6.2612104 -0.42301926
-4.2793941 6.2887611 0
-3.9901559 5.8637128 0.39616355
-4.2185521 6.1832747 -0.83431548
-4.2623506 6.2474713 -0.42243868
-4.278192 6.2706909 0
-4.0192003 5.891078 0.39834023
-4.2187147 6.1674924 -0.83287317
-4.2596316 6.2273102 -0.42142314
-4.2769475 6.2526245 0
-4.0277872 5.8883681 0.39848578
-4.2188511 6.1517272 -0.83143198
-4.2598062 6.2114458 -0.42069757
-4.2800879 6.2410197 0
-4.0451822 5.8984914 0.39950135
-4.2189555 6.1359706 -0.8299908
-4.259943 6.1955824 -0.41997147
-4.2743564 6.2165451 0
-4.0552535 5.8978858 0.3997919
-4.2175612 6.1180954 -0.82826161
-3.6495194 5.2940803 -0.35916123
-4.2774324 6.2049456 0
-4.0756488 5.9122338 0.40109801
-4.2095022 6.0985169 -0.82595527
-3.664526 5.3089824 -0.36032233
-4.2723069 6.1895051 0
-4.0880737 5.9225974 0.4019686
-4.2065639 6.078536 -0.82393694
-3.6546769 5.2810531 -0.35872623
-4.2694201 6.1693645 0
-4.0198193 5.8086877 0.39456689
-4.2065349 6.0628257 -0.82249576
-4.2431517 6.1156011 -0.41576254
-4.2679672 6.1513677 0
-4.0090599 5.7782078 0.39282522
-4.209425 6.0513663 -0.8216306
-4.2431202 6.0998063 -0.41503701
-4.2768874 6.1483488 0
-4.0575857 5.8330865 0.39688912
-4.207859 6.0335507 -0.81990141
-4.240087 6.0797615 -0.41402143
-3.6218615 5.1933026 0
-0 0 0
-4.2077374 6.0178657 -0.81846023
-4.2399812 6.0639801 -0.41329533
-4.2738376 6.112401 0
-4.0746455 5.8275189 0.39717913
-4.2075782 6.0021811 -0.81701791
-4.2383585 6.0460901 -0.41242477
-4.2647858 6.0837889 0
-4.080194 5.8204656 0.39703411
-4.2059069 5.9844003 -0.81528872
-4.2426758 6.0367169 -0.41213477
-4.2631578 6.0658603 0
-4.0991769 5.8325386 0.39819524
-4.2041988 5.9666319 -0.81355953
-4.2379932 6.0145931 -0.41097364
-4.2599897 6.0458107 0
-4.1107125 5.8339558 0.3986308
-4.2024484 5.9488683 -0.81182921
-4.236259 5.9967299 -0.41010252
-4.2627854 6.0342798 0
-4.1222525 5.8353453 0.39906579
-4.2006669 5.9311256 -0.81010002
-4.2374945 5.9831247 -0.40952197
-4.2595487 6.0142641 0
-4.1413145 5.8473239 0.40022692
-4.1984863 5.8977771 -0.80692852
-4.2338576 5.9474649 -0.40778029
-4.255959 5.9785113 0
-4.2217388 5.9304404 0.40661305
-4.1995993 5.8842783 -0.80577534
-4.231987 5.9296584 -0.40690973
-4.2420168 5.9437118 0
-4.2349391 5.933795 0.4071936
-4.1976786 5.8665829 -0.80404615
-4.2270522 5.9076352 -0.40574864
-4.2264781 5.9068322 0
-4.1876721 5.8525982 0.4019686
-4.1942091 5.8467927 -0.80202782
-4.2220707 5.885632 -0.40458751
-4.2305813 5.8974957 0
-4.0402603 5.6321855 0.38716519
-4.1997623 5.839623 -0.80173981
-4.2185636 5.8657656 -0.40357196
-4.2422581 5.8987122 0
-4.0561628 5.6399527 0.38803574
-4.1932025 5.8156638 -0.79914546
-4.2134905 5.843802 -0.40241084
-4.2448206 5.8872547 0
-4.1328778 5.7319984 0.39471188
-4.1956792 5.8043027 -0.7982803
-4.2205486 5.838707 -0.40241084
-4.2504025 5.8800063 0
-4.1854653 5.7901726 0.39906579
-4.1951022 5.7887588 -0.79683912
-4.2230244 5.8272886 -0.40197527
-4.2483439 5.8622265 0
-4.154346 5.7325201 0.39543802
-4.1929688 5.7711267 -0.7951088
-4.2102089 5.7948551 -0.40008861
-4.2431865 5.8402452 0
-4.0910153 5.6307998 0.38876188
-4.1888485 5.7581363 -0.79366761
-4.1861973 5.7544918 -0.39747638
-4.2329369 5.8187418 0
-4.1219282 5.6661458 0.39137411
-4.1866612 5.7405362 -0.79193842
-3.8654983 5.3001742 -0.36641791
-4.2353625 5.8073125 0
-4.1165228 5.6443658 0.39021298
-4.184432 5.7229419 -0.7902081
-4.2000914 5.7443585 -0.39747638
-4.2331629 5.7895899 0
-4.0435948 5.5303221 0.38266629
-4.1806445 5.7032852 -0.7881909
-4.2147088 5.7497559 -0.39820194
-4.2293835 5.7697759 0
-4.0318394 5.5002837 0.38092461
-4.1860027 5.6961474 -0.78790289
-4.215498 5.7362838 -0.39762136
-4.233273 5.7604709 0
-4.0507927 5.5121589 0.38208574
-4.1821418 5.676507 -0.78588456
-4.2008514 5.7019019 -0.39558971
-4.2309651 5.7427764 0
-4.1591644 5.6453199 0.39166409
-4.1797743 5.6589622 -0.78415424
-4.1737714 5.650835 -0.39239636
-4.2270823 5.723012 0
-4.2292771 5.7259831 0.39761469
-4.1773767 5.6414399 -0.78242505
-4.1744113 5.637435 -0.39181578
-4.2262464 5.7074366 0
-0 0 0
-4.1811099 5.6322389 -0.78184903
-4.1951637 5.6511703 -0.39312246
-4.2300401 5.6981506 0
-4.250845 5.7261763 0.39834023
-4.1832781 5.6209559 -0.78098387
-4.2128444 5.6606827 -0.39413804
-4.2260442 5.6784186 0
-4.2562108 5.7189531 0.39819524
-4.1792383 5.6013837 -0.77896553
-4.215024 5.6493464 -0.39370301
-4.2220125 5.6587133 0
-4.2506866 5.697145 0.39703411
-4.1829081 5.5921912 -0.77838951
-4.2109504 5.6296816 -0.3926869
-4.219491 5.6410995 0
-4.2528968 5.6857605 0.39659858
-4.1803489 5.5747132 -0.77665919
-4.2146292 5.6204276 -0.39239636
-4.2200589 5.6276684 0
-4.2582064 5.6785407 0.39645356
-4.1762066 5.555192 -0.77464199
-4.2104917 5.6007981 -0.39138079
-4.2221684 5.6163306 0
-4.2510138 5.6547003 0.39514744
-4.1782441 5.5439429 -0.77377683
-4.2078695 5.583252 -0.39050967
-4.2179856 5.5966744 0
-4.25315 5.6433325 0.39471188
-4.1771455 5.528574 -0.77233565
-4.2020812 5.5615778 -0.38934857
-4.220037 5.5853424 0
-4.255271 5.6319752 0.39427689
-4.1728892 5.5090885 -0.77031732
-4.1570311 5.4881525 -0.38455966
-4.2173572 5.5677958 0
-4.2557969 5.6185441 0.39369634
-4.1748486 5.4978604 -0.76945215
-4.0709491 5.3610353 -0.37599686
-4.2209311 5.5585465 0
-4.2547274 5.6030526 0.39297077
-4.168961 5.476356 -0.76714694
-4.0758452 5.3540387 -0.37585127
-4.2181892 5.5410218 0
-4.2536201 5.587564 0.39224467
-4.1691303 5.469718 -0.76656979
-4.1436605 5.4363031 -0.38180187
-4.2104912 5.523982 0
-4.2443938 5.5684605 0.39108354
-4.1694546 5.4564562 -0.76541662
-4.1865144 5.4787817 -0.38514021
-4.2155838 5.5168242 0
-4.2463903 5.5571399 0.39064854
-4.1666102 5.4390984 -0.76368743
-4.2026091 5.4860916 -0.38601077
-4.2064238 5.4910707 0
-4.2452025 5.5416932 0.38992298
-4.1668777 5.4258542 -0.76253426
-4.1823311 5.4459772 -0.38354355
-4.2098823 5.4818521 0
-4.2423964 5.5241904 0.38905185
-4.1671195 5.4126177 -0.76138109
-4.1857414 5.4368057 -0.38325354
-4.2133303 5.472641 0
-4.2427278 5.5108247 0.38847131
-4.167335 5.3993883 -0.76022792
-4.1843648 5.421453 -0.38252741
-4.2119851 5.4572387 0
-4.2446189 5.4995213 0.38803574
-4.1675248 5.3861666 -0.75907475
-4.181375 5.4040666 -0.38165686
-4.2138028 5.4459767 0
-4.2433119 5.4841146 0.38731021
-4.1629314 5.3668189 -0.75705642
-4.1783428 5.3866873 -0.38078576
-4.2060256 5.4223757 0
-4.2403827 5.4666686 0.38643965
-4.1630621 5.3536177 -0.75590324
-4.1864481 5.3836918 -0.38093132
-4.1997938 5.4008536 0
-4.242198 5.4553852 0.38600409
-4.1615787 5.3383861 -0.75446206
-4.183362 5.3663292 -0.3800602
-4.2031136 5.3916664 0
-4.2423964 5.4420581 0.38542351
-4.1600642 5.3231659 -0.75302088
-4.1834426 5.3530812 -0.37947965
-4.2000132 5.3742843 0
-4.2361689 5.4205484 0.38426241
-4.1601124 5.3099914 -0.75186771
-4.1818967 5.3377972 -0.37875408
-4.2016873 5.3630576 0
-4.2363052 5.4072442 0.38368183
-4.1553407 5.29072 -0.74984938
-4.1771131 5.3184414 -0.37773851
-4.1969104 5.3436475 0
-4.2412324 5.4000802 0.38353685
-4.1585336 5.2816348 -0.74927336
-4.1738887 5.301137 -0.37686741
-4.2033639 5.3385725 0
-4.2348948 5.3786187 0.38237572
-4.1601033 5.2705135 -0.7484082
-4.1738515 5.287931 -0.37628683
-4.2017512 5.323278 0
-4.238174 5.3694224 0.38208574
-4.160049 5.2573695 -0.74725503
-4.1753993 5.2767692 -0.37585127
-4.198494 5.3059554 0
-4.2365985 5.3541112 0.38136017
-4.1599689 5.2442341 -0.74610186
-4.1753125 5.263577 -0.37527072
-4.1984324 5.2927232 0
-4.2317591 5.3347359 0.38034406
-4.1582546 5.2290835 -0.74466068
-4.1784382 5.2544646 -0.37498072
-4.2048249 5.2876463 0
-4.2349644 5.3255472 0.38005349
-4.1581206 5.2159653 -0.7435075
-4.1734443 5.2351871 -0.37396461
-4.1982327 5.2662816 0
-4.2316809 5.308239 0.37918293
-4.1595745 5.2048736 -0.74264234
-4.1781464 5.2281127 -0.37381962
-4.1948476 5.2490106 0
-4.2364707 5.3010941 0.37903795
-4.1546397 5.1922641 -0.74120116
-4.1699386 5.2113833 -0.37280351
-4.191514 5.2383471 0
-4.2283072 5.2843294 0.37802184
-4.1560602 5.1811929 -0.74033713
-4.169735 5.1982408 -0.3722235
-4.188067 5.2210941 0
-4.2265615 5.269084 0.37729627
-4.1558342 5.1681051 -0.73918396
-4.1678667 5.1830683 -0.37149739
-4.1943722 5.2160301 0
-4.2247849 5.2538505 0.3765707
-4.1523333 5.1509938 -0.73745364
-4.1659741 5.1679153 -0.37077183
