# .PCD v0.7 - Point Cloud Data file format
VERSION 0.7
FIELDS x y z
SIZE 4 4 4
TYPE F F F
COUNT 1 1 1
WIDTH 1771
HEIGHT 1
VIEWPOINT 0 0 0 1 0 0 0
POINTS 1771
DATA ascii
4.6634588 6.6014624 0.45145878
4.2518668 6.0342822 -0.82278377
4.5193534 6.4139018 -0.4382582
3.8867517 5.5161085 0
4.6569743 6.6092143 0.45160377
4.2490354 6.0457659 -0.82364893
4.5145917 6.423614 -0.43854874
3.8785887 5.5186734 0
4.6489849 6.6148367 0.45160377
4.2402439 6.0487795 -0.82336092
4.5127926 6.4375753 -0.43912932
3.87341 5.525485 0
4.6484451 6.6310859 0.45232934
4.2284842 6.0475373 -0.82249576
4.5154295 6.4579239 -0.44014487
3.8622611 5.5237689 0
3.9987118 5.7189193 0.38977742
4.2241302 6.0568814 -0.82307178
4.5091081 6.4655042 -0.44028986
3.8570712 5.5305643 0
3.9947743 5.7280135 0.39006799
4.2123818 6.0556173 -0.82220775
4.5161333 6.4922833 -0.44174153
3.845926 5.5288091 0
3.9952679 5.7434998 0.39079353
4.2153783 6.075572 -0.82422495
4.5142107 6.5062752 -0.44232211
3.8333085 5.5248995 0
3.9824002 5.7397833 0.39021298
4.2124515 6.0870438 -0.82509011
4.5152149 6.5245409 -0.44319266
3.8340333 5.540225 0
3.9621551 5.7253628 0.38890687
4.1815844 6.0580711 -0.82047743
4.507328 6.5299921 -0.44319266
3.8169918 5.5298672 0
3.9581838 5.7344189 0.38919687
4.1669292 6.0524693 -0.81903625
4.5126944 6.5546937 -0.44449878
3.7955463 5.5130353 0
3.9365196 5.7177992 0.38774574
4.1420431 6.0319138 -0.81557673
4.515069 6.5751381 -0.44551489
3.7962468 5.5283422 0
3.9457893 5.7461157 0.38934243
4.0660625 5.9366245 -0.80202782
4.5085878 6.5827303 -0.44565988
3.7925081 5.5372238 0
3.9755502 5.8044729 0.39297077
4.0005326 5.8561134 -0.79049724
4.5079579 6.5988994 -0.44638544
3.788748 5.5460958 0
3.9758611 5.8199983 0.39369634
3.9730613 5.8310142 -0.78646058
4.4999809 6.6043415 -0.44638544
3.7981648 5.5743294 0
3.9688258 5.8247981 0.39369634
3.9601974 5.8272538 -0.78530741
4.4949217 6.6140766 -0.44667602
3.8045907 5.5982852 0
3.9559426 5.8209929 0.39311576
3.977823 5.8684292 -0.7902081
4.4708877 6.5958409 -0.44507933
3.8051231 5.6136475 0
3.9503627 5.8279171 0.39326078
4.0141916 5.9375176 -0.79885745
4.0627151 6.0092907 -0.40516806
3.8260334 5.6592069 0
6.7985616 10.055967 0.67800963
4.0431585 5.9959655 -0.80606335
4.0205908 5.9624977 -0.40168527
3.8584738 5.7220793 0
6.7617106 10.027552 0.67554241
4.0597649 6.0284462 -0.81010002
3.9966648 5.9347472 -0.39965305
3.8521113 5.7200966 0
6.7512956 10.025167 0.67510688
4.0164247 5.9796715 -0.80289298
3.9721048 5.9136877 -0.39791137
3.8321385 5.7053051 0
6.7217913 10.007433 0.67336518
3.9688888 5.9243526 -0.79482079
4.5144963 6.73878 -0.45306158
3.7977192 5.6688485 0
6.7111444 10.017713 0.67351073
3.948796 5.909791 -0.79222643
4.4962492 6.7291126 -0.45204604
4.2781019 6.4026318 0
3.907213 5.8475575 0.39282522
3.9402194 5.9124079 -0.79193842
4.4837909 6.7280517 -0.45161048
4.3107681 6.4684262 0
3.9174366 5.8782215 0.39456689
3.9602721 5.9580851 -0.79741514
4.4742212 6.7313027 -0.45146546
4.2986312 6.4671345 0
3.941973 5.9305549 0.39775968
4.0216699 6.0663433 -0.81125319
4.460341 6.7280412 -0.45088491
4.2936873 6.4766579 0
4.0008473 6.034934 0.40443581
3.9870601 6.0458112 -0.80721653
4.3568072 6.6064801 -0.44203153
3.7894769 5.7462039 0
4.0334582 6.1161671 0.40922529
3.7267666 5.665997 -0.75590324
4.2917104 6.5249104 -0.43622652
3.9112358 5.946455 0
4.0103564 6.0971537 0.4076286
3.6702659 5.5948091 -0.74581385
4.2353659 6.4562249 -0.43129206
3.8997638 5.9446464 0
3.8804193 5.9151583 0.39514744
3.6436801 5.568943 -0.74177831
4.1863055 6.398283 -0.42708316
3.8313119 5.8557162 0
3.6698368 5.6089201 0.37439349
3.6270525 5.558177 -0.73975998
4.135973 6.3380575 -0.42272925
3.7829897 5.7971382 0
3.6374989 5.5741849 0.37178126
3.6189246 5.5603895 -0.73947197
4.4954004 6.9070735 -0.46031827
3.7674673 5.7886219 0
3.6250913 5.5698647 0.37120068
4.013535 6.1830277 -0.8216306
4.4884648 6.9146781 -0.46046329
3.7562177 5.7866192 0
3.616945 5.5720634 0.37105569
4.0032525 6.1835346 -0.82105458
4.4928145 6.9397254 -0.4617694
3.7874062 5.8501325 0
3.6243284 5.598238 0.3725068
4.0041933 6.2014003 -0.82278377
4.4886556 6.9516997 -0.46220496
3.7859817 5.8634496 0
3.6161532 5.6004324 0.37236181
3.9938993 6.201889 -0.82220775
4.4943242 6.9789691 -0.46365663
3.7521257 5.8264537 0
3.6107891 5.6069803 0.3725068
3.9877989 6.2088847 -0.82249576
4.4844799 6.9822021 -0.46351108
3.695857 5.7543397 0
3.6068227 5.615716 0.37279737
3.9733195 6.2028108 -0.82105458
4.4774456 6.9898095 -0.46365663
3.6692512 5.7281251 0
3.5958285 5.6135035 0.37236181
3.9644306 6.2054296 -0.82076657
4.452209 6.9689379 -0.46191496
3.666532 5.7391362 0
3.5890431 5.6178446 0.37236181
3.953721 6.1969151 -0.81932425
4.3893008 6.8796268 -0.45581937
3.663064 5.7413502 0
3.5800579 5.6112494 0.37178126
3.9295678 6.1755018 -0.81586474
4.2526531 6.6832457 -0.44246709
3.6742857 5.7743139 0
3.5746689 5.6177611 0.37192625
3.9054775 6.154048 -0.81240636
4.1833181 6.5918546 -0.43608153
3.6896176 5.8139071 0
3.8351927 6.0432968 0.3997919
3.8966515 6.1565704 -0.81211722
4.1656208 6.581533 -0.43506542
3.6547532 5.7743802 0
3.9029219 6.1664777 0.4076286
3.9002545 6.178772 -0.81442356
4.1562796 6.5843663 -0.4349204
3.6269345 5.745779 0
3.8857629 6.1558142 0.40661305
3.9010563 6.1966171 -0.81615388
4.1510868 6.5937772 -0.43521041
3.6213796 5.7523656 0
3.8714015 6.1495123 0.40588748
3.8935661 6.2013264 -0.81615388
4.1527896 6.6141949 -0.43622652
3.6268797 5.7765718 0
3.8625824 6.1519785 0.40574193
3.8819509 6.1994481 -0.81528872
4.1489334 6.6258168 -0.43666208
3.6337063 5.8030033 0
6.3814182 10.191079 0.67162406
3.8758259 6.2063255 -0.81557673
4.1436744 6.6352286 -0.43695208
3.636343 5.8228436 0
6.3663445 10.19437 0.67133349
3.8724275 6.2175927 -0.81644189
4.1411486 6.6490536 -0.43753263
3.6403115 5.8449059 0
6.3430319 10.18441 0.67017239
3.8785565 6.2442346 -0.81932425
4.1427102 6.6695056 -0.43854874
3.6291254 5.8426661 0
6.3252373 10.183238 0.66959184
3.9077861 6.3082857 -0.82710844
4.1401219 6.683342 -0.43912932
3.6138427 5.8337765 0
3.639256 5.8748012 0.38600409
3.9178321 6.3416061 -0.83085597
4.1361365 6.6949654 -0.43956432
4.5026784 7.2882686 0
3.6253276 5.8681431 0.38527852
3.9278033 6.3749604 -0.83460349
4.122592 6.6911092 -0.43898374
4.4843111 7.278192 0
3.6100588 5.8592501 0.38440797
3.9444687 6.419364 -0.83979219
4.1049852 6.6805944 -0.43796819
3.610383 5.8756614 0
3.5893703 5.8414645 0.3829563
3.9826553 6.4991031 -0.84959358
4.0901179 6.6744657 -0.43724209
3.6182346 5.9044223 0
3.5809529 5.8435841 0.38281128
4.0031223 6.5502548 -0.85564744
4.0928903 6.6971402 -0.43840319
3.6138146 5.9132357 0
3.5644031 5.8323841 0.38179517
4.0234714 6.6014652 -0.86170131
4.1402392 6.7930503 -0.44435376
3.599896 5.9064884 0
3.5533001 5.8300366 0.38136017
4.035645 6.6394777 -0.86602598
4.2197485 6.9423666 -0.45378715
6.5259008 10.736468 0
3.5489497 5.8387628 0.38165018
4.0450478 6.6731009 -0.86977351
4.238296 6.9919019 -0.45668992
6.5034781 10.728765 0
3.5351586 5.8319383 0.38092461
4.0155725 6.6425681 -0.86516082
4.2338791 7.0036912 -0.45712548
6.4878197 10.732164 0
3.525418 5.8317537 0.38063407
3.9728253 6.5898275 -0.85766578
4.2133403 6.9887762 -0.45581937
6.4708147 10.733308 0
3.5130026 5.8271079 0.38005349
3.9422045 6.5569415 -0.85276508
4.2022123 6.9894037 -0.45552883
6.452477 10.732197 0
3.507302 5.8335819 0.38019904
3.943568 6.568192 -0.85391825
4.2100253 7.0119886 -0.45683494
6.4352751 10.718244 0
3.5010993 5.8312402 0.3799085
3.942271 6.5840454 -0.85535944
4.2242413 7.0549679 -0.45930216
6.4169717 10.71708 0
3.4900501 5.8287845 0.37947351
3.9343126 6.5888042 -0.85535944
4.2343664 7.0913048 -0.46133441
3.8637543 6.4706397 0
3.4843354 5.8352261 0.3796185
3.9276705 6.5957737 -0.85564744
4.2417483 7.1232071 -0.46307606
3.8506067 6.4663596 0
3.4865847 5.8550539 0.38063407
3.9117765 6.5871754 -0.85391825
4.2238498 7.1126857 -0.46205994
3.8334875 6.4553413 0
3.483489 5.8659673 0.3810696
3.8919539 6.5718699 -0.8513239
4.1847973 7.066359 -0.45872161
3.8097711 6.4330974 0
3.4697795 5.858995 0.38034406
3.8577046 6.5320258 -0.84555805
6.2956219 10.660009 -0.6915136
6.3309326 10.719798 0
3.4481611 5.8385696 0.37874737
3.8183069 6.4831944 -0.83863902
6.2695527 10.645223 -0.69006252
6.3060899 10.70726 0
3.4266024 5.8181095 0.37715128
3.7960656 6.4632769 -0.83546865
6.2619443 10.661744 -0.69064248
3.5979655 6.1259866 0
3.4143059 5.8132834 0.3765707
3.7856362 6.4633908 -0.8348915
6.2411804 10.655854 -0.68977195
3.5918748 6.1325731 0
3.4085913 5.8196449 0.37671572
3.7739089 6.4612579 -0.83402634
6.2269907 10.661146 -0.68962693
3.5818346 6.13241 0
3.4133506 5.8439507 0.37802184
3.7752128 6.4814601 -0.83604467
6.2075667 10.657437 -0.68890136
3.567874 6.1254911 0
3.4102116 5.8548088 0.3784574
3.7933605 6.5307484 -0.84181052
6.1920719 10.660433 -0.68861079
3.5643926 6.1365514 0
3.4044385 5.8611698 0.37860239
3.8165753 6.5890341 -0.84872842
6.1778851 10.66566 -0.68846583
3.5595815 6.1453533 0
3.3856335 5.8450451 0.37729627
3.8202579 6.6138043 -0.8513239
6.1571927 10.659613 -0.68759471
3.6419699 6.3051438 0
3.3538735 5.8063784 0.37453848
3.8664825 6.7125444 -0.86343163
6.1378245 10.655788 -0.68686914
3.7954121 6.58916 0
3.342968 5.803678 0.37410349
3.9768803 6.9235334 -0.8899523
6.1184745 10.651933 -0.68614358
6.1646557 10.732331 0
3.330776 5.7987003 0.37352291
4.0019341 6.9866829 -0.89744735
6.1030188 10.654813 -0.6858536
6.1309867 10.70364 0
3.3224766 5.8004684 0.37337792
3.9857943 6.9780421 -0.89571816
3.7820389 6.6213217 -0.42592204
6.1115961 10.699743 0
3.3270633 5.8247833 0.37468404
3.9504781 6.9356585 -0.88966429
3.777895 6.6326628 -0.4263576
6.0935111 10.698074 0
3.3225925 5.8333106 0.37497404
3.7698779 6.6372228 -0.4263576
6.0792961 10.703169 0
0 0 0
3.7682571 6.6530757 -0.42708316
6.06251 10.703712 0
3.3097653 5.8435817 0.37511903
3.8102844 6.7367654 -0.4323076
6.0509171 10.698311 0
3.2972834 5.8297544 0.37410349
3.9489355 7.001636 -0.44899824
6.0264807 10.685215 0
3.3004489 5.851841 0.37526459
3.7909949 6.740622 -0.86198932
3.9748604 7.0675464 -0.45291659
6.0071878 10.681149 0
3.2971933 5.8626122 0.37569958
3.7461586 6.6797781 -0.85362911
3.959964 7.0610147 -0.45219103
3.6991594 6.595974 0
3.2964659 5.8779306 0.37642571
3.7052634 6.6256099 -0.84613407
3.9488902 7.061254 -0.45190045
3.6873796 6.5936308 0
3.2906282 5.8841753 0.3765707
3.6917574 6.63907 -0.84671122
3.9141376 7.0389872 -0.4498688
3.715698 6.6821237 0
3.2738707 5.8875637 0.37628016
3.6849859 6.6457858 -0.84699923
3.8854685 7.0073519 -0.44754657
3.7681935 6.7958488 0
3.2604554 5.8801551 0.37555459
3.6744523 6.6457109 -0.84642321
3.8606548 6.9824815 -0.44565988
3.7876809 6.8504992 0
3.2282016 5.8386102 0.37265182
3.660172 6.638814 -0.8449809
3.8559799 6.9939704 -0.44609544
3.7806606 6.8573561 0
3.2148728 5.831131 0.37192625
3.6359503 6.6137691 -0.84123337
3.8500276 7.0031738 -0.44638544
3.7723722 6.8619194 0
3.2103307 5.83957 0.37221679
3.5956326 6.5591922 -0.83373833
5.4540191 9.9492817 -0.63375115
3.7640781 6.8664727 0
3.2007718 5.8388834 0.37192625
3.5628932 6.5181413 -0.82797247
5.4419937 9.9558649 -0.63375115
3.7520325 6.8641629 0
3.2011948 5.856431 0.37279737
3.5562561 6.5247188 -0.82826161
5.4374189 9.9761181 -0.63462174
3.7437358 6.8686914 0
3.1966007 5.8648539 0.37308738
3.5718324 6.5721831 -0.83373833
5.4290843 9.9895325 -0.63505727
3.7341921 6.8709254 0
3.1944749 5.8778443 0.37366793
3.5885353 6.6219749 -0.83950418
5.4256773 10.012079 -0.63607341
3.7209275 6.8662801 0
3.183655 5.8748441 0.37323236
3.594053 6.6513305 -0.84267455
5.4283943 10.046051 -0.63781452
5.346879 9.895195 0
3.1617358 5.8512626 0.37149125
3.5835624 6.6511188 -0.84209853
5.42488 10.068619 -0.6388306
5.3213434 9.8764534 0
5.7686758 10.706705 0.67931575
3.5743003 6.6531672 -0.84181052
5.4114819 10.072879 -0.63868564
5.3007832 9.8668251 0
5.7483582 10.699938 0.67844522
3.5613732 6.6483617 -0.84065735
5.3931732 10.06796 -0.63796008
5.2618237 9.8227577 0
3.7613196 7.0216208 0.44492763
3.5496805 6.6458135 -0.83979219
3.6463864 6.826869 -0.4323076
5.2474966 9.8245125 0
3.6438839 6.8221836 0.43201092
3.5477257 6.66151 -0.84123337
3.633249 6.8220959 -0.43172705
5.2588663 9.8744926 0
3.6026628 6.7646642 0.42809257
3.5372503 6.6612277 -0.84065735
3.6274431 6.8310752 -0.43201762
3.6834676 6.9365788 0
3.587172 6.7552385 0.42722145
3.5291989 6.6654968 -0.84065735
3.6155374 6.8285618 -0.43158206
3.6860423 6.9617224 0
3.5559084 6.7159424 0.42446423
3.5271788 6.6811905 -0.84209853
3.6000075 6.8191428 -0.43071151
3.6654754 6.943152 0
3.4701562 6.5731783 0.41517586
3.5207317 6.6787486 -0.84152251
3.5692313 6.770751 -0.4275187
3.664922 6.9522738 0
3.450433 6.5453935 0.41328919
3.5078537 6.6738553 -0.42113256
3.6565187 6.9566975 0
3.4316423 6.5288596 0.41198307
3.4660192 6.6136546 -0.41706923
3.6456964 6.9565048 0
3.428571 6.5421987 0.41256306
3.4544139 6.6109266 -0.41663367
3.6372883 6.9609046 0
3.4134455 6.5325232 0.4116925
3.4440198 6.6104827 -0.41634312
5.4348984 10.431792 0
3.4067492 6.5389447 0.41183752
3.4348333 6.6123352 -0.4161981
5.3910999 10.378309 0
3.4012437 6.5476727 0.41212806
3.426841 6.6164808 -0.4161981
5.3522263 10.33398 0
3.3873556 6.5402431 0.41140252
3.4164615 6.6160035 -0.4159081
5.355258 10.370498 0
3.3699126 6.5258613 0.4102414
3.4108415 6.624743 -0.4161981
5.3736954 10.437116 0
3.3584554 6.5229955 0.40980583
3.4028344 6.6288595 -0.4161981
3.3953879 6.6143537 0
3.3458245 6.5178018 0.40922529
3.3924568 6.6283445 -0.4159081
3.3826506 6.6091847 0
3.3367639 6.5195289 0.40908027
4.6363115 9.0856991 -0.56974757
3.3770256 6.6178989 0
3.3300638 6.5258684 0.40922529
5.2863078 10.390477 -0.6511668
4.9219689 9.6743526 0
3.3209989 6.5275736 0.40908027
5.2361383 10.32271 -0.64652288
4.9090996 9.6779737 0
3.3213341 6.5477967 0.41009584
5.1966891 10.275695 -0.64318454
3.3894248 6.7020936 0
3.3169391 6.5587635 0.4105314
5.1643825 10.242525 -0.64071733
3.3414843 6.6271696 0
5.3608575 10.632195 0.66509295
4.6128473 9.1762295 -0.57366651
3.3159444 6.5963306 0
5.3083286 10.559734 0.66015846
5.2304249 10.436167 -0.65203792
3.3033073 6.5910258 0
5.1570263 10.289716 0.64288783
5.2665854 10.540092 -0.65813291
3.2965031 6.5973382 0
5.0900044 10.186698 0.63606673
5.2804956 10.599944 -0.66147125
3.2885292 6.6013165 0
5.059154 10.155628 0.63374448
5.2572827 10.585374 -0.66016513
3.2759197 6.595962 0
5.0306997 10.129157 0.63171279
5.1903 10.48228 -0.65334404
3.2621744 6.5882564 0
3.7582715 7.5901694 0.47308329
5.1885724 10.494731 -0.65392458
3.2512753 6.5762329 0
3.7594421 7.6040831 0.47380885
5.206902 10.563915 -0.65784293
3.2387245 6.5708194 0
3.7456563 7.599297 0.47322831
5.1975727 10.577198 -0.65827847
3.2307825 6.5747275 0
4.9717722 10.117687 0.62968057
5.1824999 10.578799 -0.65798795
3.2194002 6.5716133 0
4.986979 10.179691 0.63316393
5.1366453 10.517344 -0.65377903
3.2103162 6.5731621 0
4.9849372 10.206721 0.63447005
5.0534139 10.378711 -0.64478123
3.2000906 6.5723519 0
4.9691873 10.205726 0.63403445
5.0147705 10.331041 -0.64144284
3.1932867 6.5785618 0
4.9489121 10.195366 0.63301891
4.997756 10.327738 -0.64086229
3.1921351 6.596467 0
4.9241381 10.175608 0.63142222
4.9830174 10.329093 -0.64057231
5.0951185 10.561461 0
4.9061952 10.16985 0.63069671
4.9716582 10.337445 -0.64071733
5.0947576 10.593403 0
4.8905234 10.168744 0.63026112
4.9456835 10.315329 -0.63897562
5.0909548 10.618324 0
4.8804817 10.179337 0.6305517
4.9298573 10.31427 -0.63854063
0 0 0
4.9185982 10.290713 0.63708228
4.9162698 10.317867 -0.63839507
5.052969 10.604759 0
5.0302234 10.557023 0.65319234
4.8870792 10.2886 -0.63621837
5.0390315 10.6085 0
5.0319562 10.593604 0.65507901
4.8490658 10.24048 -0.63288003
5.0217543 10.605172 0
5.0113668 10.583235 0.65406287
4.7767978 10.119456 -0.62504333
5.0033827 10.599467 0
5.0052285 10.603376 0.65493345
4.7103562 10.010016 -0.61793166
4.9650888 10.551352 0
5.0090094 10.644687 0.65711069
4.6839128 9.9851208 -0.616045
4.8771839 10.397134 0
4.9950409 10.64838 0.65696567
4.7158675 10.084916 -0.62185001
4.8072925 10.28043 0
4.9799676 10.649696 0.6566751
4.7223406 10.130643 -0.62431723
4.7794757 10.253212 0
3.2457771 6.9630322 0.42910814
4.709002 10.133986 -0.62417221
4.763792 10.251897 0
3.2373614 6.966949 0.42910814
4.702879 10.13683 -0.62417221
4.7554092 10.250056 0
3.227685 6.9571204 0.42838258
4.6751037 10.141084 -0.62373668
4.7229967 10.244972 0
3.2141275 6.9719815 0.42881814
4.6498308 10.118402 -0.62199557
4.7073574 10.243584 0
3.2057009 6.9758601 0.42881814
4.6484208 10.147632 -0.6234467
4.6938896 10.246891 0
3.1972697 6.9797287 0.42881814
4.6372342 10.155602 -0.62359166
4.6793447 10.247826 0
4.860589 10.644753 0.65362734
4.6271148 10.165933 -0.62388223
4.6648006 10.24873 0
4.8477235 10.650619 0.65362734
4.6116061 10.164415 -0.6234467
4.6470385 10.242512 0
4.8305564 10.647003 0.65304679
4.5971775 10.16524 -0.62315613
4.6325159 10.243382 0
4.8155489 10.648101 0.65275675
4.5827575 10.166055 -0.62286609
4.6158576 10.239481 0
4.7994742 10.646803 0.65232122
4.5694065 10.169217 -0.62272114
4.6045475 10.247422 0
4.7812824 10.640746 0.65159565
4.5539284 10.167614 -0.62228554
4.5889697 10.245851 0
4.765234 10.639399 0.65116012
4.5395231 10.168368 -0.62199557
4.5765862 10.251389 0
4.7523751 10.645149 0.65116012
4.5261736 10.171465 -0.62185001
4.5610247 10.249784 0
4.7363429 10.643768 0.65072507
4.5107226 10.169807 -0.62141502
4.5423036 10.24101 0
4.7108359 10.62098 0.64898342
4.4942284 10.165744 -0.62083447
4.5320325 10.251255 0
4.6916933 10.6124 0.6481123
4.4808912 10.168782 -0.62068892
4.5206909 10.259103 0
4.6736288 10.606174 0.64738673
4.4654689 10.167059 -0.62025392
4.5229416 10.297913 0
4.6587219 10.60706 0.64709675
4.4583902 10.184346 -0.62097943
4.5209336 10.327215 0
4.643816 10.607917 0.64680618
4.4606276 10.223064 -0.62301111
4.5136547 10.344595 0
4.6299567 10.611141 0.64666116
4.4607072 10.257041 -0.62475282
4.5146441 10.381064 0
4.6160965 10.614347 0.6465162
4.4596786 10.288651 -0.62634945
4.5155516 10.417552 0
4.5981021 10.607999 0.64579064
4.4565172 10.315498 -0.62765557
4.5163774 10.454056 0
4.5852809 10.613546 0.64579064
4.4574084 10.351899 -0.62954223
4.5109482 10.47624 0
4.5693693 10.611917 0.64535505
4.4603882 10.376073 -0.63084835
4.5169477 10.507646 0
4.5629573 10.614676 0.64535505
4.459105 10.40773 -0.63244504
4.515523 10.539412 0
4.5450125 10.608242 0.64462954
4.4618292 10.448949 -0.63462174
4.5109611 10.564008 0
4.5260668 10.599382 0.64375842
4.4542875 10.466285 -0.63534731
4.4992113 10.571843 0
4.5122395 10.602455 0.6436134
4.4568586 10.507544 -0.63752449
4.4884686 10.582068 0
4.4963803 10.600721 0.64317787
4.4492168 10.524886 -0.63825005
4.4685845 10.570702 0
4.4785104 10.594182 0.6424523
4.4395237 10.53744 -0.63868564
4.4537897 10.571301 0
4.4667139 10.601977 0.64259726
4.4257832 10.540403 -0.63854063
4.4369831 10.567077 0
4.45189 10.60258 0.64230728
4.4090314 10.536156 -0.63796008
4.4242115 10.572431 0
4.4370675 10.603153 0.64201671
4.3932958 10.534278 -0.63752449
4.410429 10.57536 0
4.4182534 10.594122 0.64114618
4.3805642 10.539579 -0.63752449
4.3926539 10.568667 0
4.4034567 10.594658 0.64085615
4.3658352 10.540058 -0.63723397
4.3778906 10.569163 0
4.3896546 10.597564 0.64071059
4.3610282 10.564541 -0.63839507
4.3631287 10.56963 0
4.3778405 10.605268 0.64085615
4.3591352 10.596238 -0.63999176
4.3592644 10.596553 0
4.3660107 10.612951 0.64100116
4.3561835 10.625536 -0.64144284
4.3592901 10.633114 0
4.3600807 10.635042 0.64201671
4.3571019 10.664473 -0.64347512
4.3523469 10.652833 0
4.3560748 10.661959 0.64332342
4.3520479 10.688972 -0.64463568
4.353209 10.691825 0
4.3578839 10.703306 0.64550006
4.3547606 10.732748 -0.64695787
4.3500738 10.721197 0
4.3615551 10.749495 0.64796728
4.3534775 10.766911 -0.64869958
4.3468699 10.750568 0
4.3563557 10.774029 0.64912844
4.3424087 10.776988 -0.64899009
4.3474917 10.789603 0
4.3491592 10.79374 0.64999896
4.343904 10.81839 -0.6511668
4.3451195 10.821417 0
4.3477325 10.827924 0.65174067
4.3433771 10.854991 -0.65305346
4.3417072 10.850817 0
4.3510551 10.87418 0.65420789
4.3418064 10.889194 -0.65479511
4.3420854 10.889894 0
4.3533106 10.918047 0.65653014
4.3486781 10.925611 -0.65682679
4.3441701 10.914285 0
4.3524776 10.935156 0.65740067
4.3402662 10.942941 -0.6575529
4.3405724 10.943712 0
4.3459682 10.957317 0.65841681
4.3413644 10.984419 -0.6597296
4.3436069 10.990092 0
4.3432322 10.989145 0.66001344
4.355701 11.059768 -0.66393852
4.3350916 11.007438 0
4.3432794 11.028229 0.66204512
4.564446 11.631002 -0.69789916
4.3151321 10.995708 0
4.345139 11.07217 0.66436738
4.5655298 11.675229 -0.70022142
4.5691104 11.684384 0
4.5437236 11.619465 0.69687694
4.5702877 11.72916 -0.70312423
4.5634913 11.711719 0
4.5787339 11.750836 0.70442361
4.5636358 11.754052 -0.70428532
4.5606403 11.746337 0
4.5654712 11.75878 0.70456862
4.5578671 11.781366 -0.70559144
4.5605297 11.788249 0
4.5643873 11.798221 0.70660084
4.5623202 11.835356 -0.70849425
4.550962 11.805891 0
4.5669494 11.847364 0.70921308
4.5573316 11.865112 -0.70994532
4.5544209 11.857533 0
4.5610151 11.874702 0.71051919
4.5532088 11.897307 -0.71154201
4.5475316 11.882473 0
4.5550218 11.902044 0.71182531
4.5499363 11.931926 -0.71328312
4.5470805 11.924437 0
4.55545 11.946386 0.71414757
4.5428987 11.956847 -0.71444428
4.5465312 11.966408 0
4.5603919 12.002889 0.71719533
4.5404062 11.993917 -0.71633095
4.5440459 12.003531 0
4.5606046 12.047273 0.71951759
4.542419 12.043161 -0.71894372
4.5396423 12.035801 0
4.5533805 12.072225 0.72067869
4.540659 12.08269 -0.7209754
4.5351677 12.068078 0
4.5515857 12.111766 0.72271037
4.5424547 12.131966 -0.72358763
4.5342684 12.110101 0
4.5515261 12.156193 0.72503263
4.5357537 12.203796 -0.72721595
4.5231228 12.169812 0
4.5366168 12.206118 0.72735429
4.530931 12.236074 -0.72881263
4.5310068 12.236279 0
4.540812 12.26276 0.73040205
4.530529 12.280537 -0.7311343
4.5180182 12.246624 0
4.5340886 12.290185 0.73170877
4.5300303 12.325025 -0.73345655
4.5130939 12.278947 0
4.5299888 12.324912 0.73344988
4.5279546 12.342402 -0.73432767
4.5200167 12.320764 0
4.5404406 12.376436 0.73635262
4.5335512 12.403989 -0.73766547
4.5176315 12.360433 0
4.5361867 12.411201 0.73809433
4.5310049 12.443636 -0.7396971
4.5151577 12.400113 0
4.530076 12.441084 0.7395454
4.5274844 12.480854 -0.74158382
4.5143709 12.444704 0
4.5318766 12.492962 0.74230325
4.5274167 12.527866 -0.74405158
4.5117121 12.484411 0
4.5309086 12.537529 0.74462545
4.525476 12.569993 -0.74622828
4.5063219 12.516791 0
4.5245562 12.567438 0.74607658
4.5269527 12.621926 -0.74898607
4.5034933 12.556518 0
4.520771 12.604691 0.74796325
4.5160689 12.63962 -0.74971163
4.4997005 12.593808 0
4.5151553 12.637062 0.74955994
4.5208311 12.701365 -0.75304937
4.4984431 12.638465 0
4.5146942 12.684123 0.75202715
4.5132952 12.728857 -0.75435549
4.4909954 12.665965 0
4.5123878 12.726297 0.7542038
4.5134907 12.778408 -0.75696832
4.4852228 12.698378 0
4.5082564 12.76359 0.75609052
4.5101194 12.818164 -0.759
4.4871521 12.752887 0
4.5083566 12.813153 0.75870329
4.503221 12.848121 -0.76045108
4.4863725 12.80005 0
4.5117779 12.872535 0.76189607
4.4996862 12.887902 -0.7624833
4.4743342 12.815289 0
4.5064993 12.907415 0.76363772
4.4892302 12.908051 -0.76335388
4.4759407 12.869839 0
4.4994335 12.937389 0.76508886
4.489789 12.96011 -0.76611114
4.4816837 12.936713 0
4.4923024 12.967364 0.76653999
4.4876881 13.004826 -0.76843333
4.4694448 12.95196 0
4.4944296 13.024364 0.76958776
4.4804192 13.034817 -0.769885
4.463943 12.986884 0
4.4913597 13.066647 0.77176499
4.4781294 13.079545 -0.77220672
4.4575214 13.019355 0
4.4881907 13.108932 0.7739417
4.4673557 13.099708 -0.77307779
4.4602656 13.078918 0
4.4866052 13.156153 0.77640891
4.467401 13.151836 -0.77583504
4.4612002 13.133581 0
4.4798994 13.188631 0.7780056
4.4631662 13.191689 -0.77786726
4.4503303 13.153749 0
4.4764524 13.230958 0.78018284
4.4593515 13.20669 -0.77859282
4.4606977 13.210676 0
4.476769 13.258274 0.78163391
4.4616117 13.266248 -0.78178561
4.4505396 13.233326 0
4.4797945 13.320313 0.78497171
4.4596086 13.313513 -0.78425288
4.4510789 13.288049 0
4.4735999 13.355283 0.78671342
4.4558544 13.355867 -0.78643006
4.4490204 13.335383 0
4.4714389 13.402579 0.78918064
4.4470868 13.383432 -0.78773618
4.4443917 13.375321 0
4.4642549 13.4351 0.79077733
4.4431558 13.425792 -0.78991288
4.4429431 13.42515 0
4.4635272 13.487348 0.79353452
4.4358783 13.4583 -0.79150957
4.4373083 13.462638 0
4.4586163 13.527286 0.79556674
4.4341993 13.508083 -0.7941218
4.4388938 13.522384 0
4.4568539 13.577097 0.79817897
4.4316001 13.555416 -0.79658902
4.4346828 13.564845 0
4.4541712 13.624457 0.80064625
4.4272857 13.597825 -0.79876626
4.4303756 13.607315 0
4.4562058 13.68665 0.80398399
4.4300842 13.662477 -0.80224901
4.4267707 13.652259 0
4.4428706 13.701912 0.8045646
4.4223566 13.695023 -0.8038457
4.4222684 13.694749 0
4.4398851 13.749304 0.80703181
4.4161463 13.732512 -0.80573237
4.4176664 13.737239 0
4.433609 13.786814 0.80891848
4.3979664 13.732893 -0.80544239
4.412178 13.77727 0
4.4288354 13.829284 0.81109571
4.3837361 13.745617 -0.80587739
4.3994808 13.794987 0
4.4136996 13.839571 0.81138569
4.3663383 13.748429 -0.80573237
4.378871 13.787892 0
4.3961883 13.84242 0.81124073
4.3481574 13.748745 -0.80544239
4.361424 13.790694 0
4.3786764 13.845246 0.81109571
4.3299789 13.749027 -0.80515182
4.3439732 13.793465 0
4.3603816 13.845566 0.81080514
4.3125858 13.751773 -0.8050068
4.3226323 13.783809 0
4.338985 13.835953 0.80993462
4.2920942 13.744574 -0.80428129
4.3059745 13.789021 0
4.3207159 13.836229 0.80964458
4.2762542 13.752229 -0.80442625
4.2854466 13.781792 0
4.3063068 13.848877 0.81007957
4.2557921 13.744977 -0.80370069
4.2664809 13.779499 0
4.2841926 13.836701 0.80906403
4.2436528 13.735135 -0.80297518
4.2566175 13.777096 0
4.275063 13.836798 0.80891848
4.2285805 13.745215 -0.80326515
4.2369094 13.772289 0
4.2545214 13.829537 0.80819291
4.2119689 13.750315 -0.80326515
4.2233109 13.787342 0
4.2362871 13.829704 0.80790293
4.205205 13.787702 -0.80515182
4.2036147 13.782488 0
4.2210884 13.839779 0.80819291
4.1983571 13.825093 -0.80703849
4.1952744 13.814942 0
4.2051167 13.847353 0.80833793
4.1944327 13.872437 -0.8095057
4.1921349 13.864837 0
4.2064309 13.912118 0.81182128
4.1881528 13.912324 -0.81153738
4.1836319 13.897306 0
4.2075944 13.976906 0.81530464
4.1884985 13.974625 -0.81487572
4.1683297 13.907332 0
4.1921935 13.986953 0.81559461
4.1708674 13.977188 -0.81473076
4.1552453 13.924835 0
4.1827216 14.016912 0.81704628
4.1487951 13.964779 -0.81371462
4.1458273 13.954788 0
4.1702204 14.036897 0.81791687
4.1429739 14.00716 -0.81589186
4.1348677 13.979753 0
4.1569409 14.054381 0.81864238
4.1847591 14.211548 -0.82750189
4.1312037 14.029672 0
4.1487637 14.089306 0.82038409
4.2465267 14.485884 -0.84317642
4.1457272 14.142034 0
4.1507406 14.159135 0.82415742
4.2574086 14.588279 -0.84883642
4.1731105 14.299426 0
4.1612897 14.258923 0.82967246
4.2550015 14.645811 -0.85188425
4.1848693 14.404415 0
6.7080541 23.089273 1.3430045
4.246913 14.750933 -0.85739923
4.1658869 14.469501 0
6.6716456 23.172831 1.3469228
4.2469831 14.818498 -0.8610276
4.1670437 14.539576 0
6.6722765 23.28079 1.3527284
4.2440443 14.87609 -0.86407536
4.1608934 14.584633 0
6.6583962 23.3388 1.3556305
4.242394 14.938701 -0.8674137
4.1510892 14.61719 0
6.6323214 23.35433 1.3560661
4.2420077 15.006315 -0.87104154
4.1341314 14.624698 0
6.6033912 23.359829 1.3559211
4.2358365 15.05395 -0.87350875
4.1115246 14.612153 0
6.5716419 23.355286 1.3551955
4.2309594 15.106601 -0.87626654
4.0924606 14.612093 0
6.5399137 23.3507 1.35447
4.2308435 15.176776 -0.88003987
4.0741038 14.614523 0
6.5165763 23.376101 1.3554856
4.223618 15.221938 -0.88236213
4.0592251 14.629466 0
6.4813805 23.358923 1.3540344
4.231751 15.287092 -0.88599044
4.0656595 14.687091 0
6.465879 23.357822 1.3537439
4.2319098 15.359824 -0.88990879
4.0928397 14.855066 0
6.4355822 23.358109 1.3533089
4.2236557 15.402518 -0.89208603
4.1154919 15.008075 0
6.4032292 23.350828 1.3524377
4.2187219 15.457736 -0.8949883
4.0877628 14.977892 0
6.3702226 23.341007 1.3514222
4.2129831 15.510469 -0.89774609
4.0416937 14.879851 0
6.341332 23.346172 1.3512766
4.2098327 15.573235 -0.90108383
4.0250707 14.889753 0
6.3076935 23.333752 1.3501155
4.1977644 15.603407 -0.90253556
4.0151896 14.924764 0
6.2761197 23.328812 1.34939
3.8120024 14.238056 -0.82329357
3.9783072 14.859214 0
6.2506151 23.346418 1.3499706
3.7914488 14.23009 -0.82256746
3.9543202 14.841379 0
6.21772 23.336386 1.348955
3.7802474 14.257273 -0.82387412
3.9363844 14.846147 0
6.1861863 23.331316 1.3482289
2.8734238 10.890272 -0.6291067
3.9018447 14.787985 0
6.1540141 23.323704 1.3473583
2.8556457 10.87615 -0.62809116
3.8846338 14.795203 0
6.1225286 23.318558 1.3466327
2.8372471 10.85948 -0.62693006
3.8213639 14.626158 0
6.0989442 23.343531 1.3476483
2.8195462 10.845294 -0.62591392
3.7683289 14.494756 0
4.4245324 17.018822 0.98220634
2.8025365 10.833604 -0.62504333
3.7312598 14.423717 0
4.4013619 17.014091 0.9816258
2.7849092 10.819366 -0.62402725
3.7053957 14.395452 0
4.3827443 17.026949 0.98206139
2.7666767 10.802585 -0.62286609
3.6725023 14.339412 0
4.3602328 17.024679 0.9816258
2.754904 10.810951 -0.62315613
3.6474617 14.313577 0
4.3351665 17.012306 0.98060971
2.7322619 10.776498 -0.62097943
3.6276054 14.307882 0
4.3146071 17.017532 0.98060971
2.7147889 10.762152 -0.61996335
4.2735658 16.941561 0
4.2927718 17.0177 0.98031968
2.7005193 10.760388 -0.61967331
4.252459 16.944191 0
4.270308 17.01531 0.97988415
2.6887732 10.768682 -0.61996335
4.2288284 16.936686 0
4.2459698 17.005337 0.97901356
2.6726279 10.759315 -0.61923778
4.2077336 16.939259 0
4.2260447 17.012974 0.97915858
2.6680024 10.768497 -0.61967331
4.1956234 16.934227 0
4.2132659 17.005436 0.97857803
2.6543677 10.769193 -0.61952835
4.1751585 16.939283 0
4.1902275 17.000422 0.97799748
2.6407325 10.769861 -0.6193828
4.151587 16.931671 0
4.1727762 17.018089 0.97872299
2.6166351 10.727609 -0.61677057
2.8996186 11.887777 0
4.1497474 17.01302 0.97814244
2.5981572 10.708038 -0.61546445
2.8803432 11.871039 0
4.1279631 17.012978 0.97785246
2.5858259 10.713694 -0.61560941
2.8641648 11.866919 0
4.1061826 17.012896 0.97756189
2.5716665 10.711761 -0.61531943
2.8467867 11.85772 0
4.0819845 17.002689 0.97669137
2.5569103 10.707277 -0.6148839
2.830039 11.851027 0
4.046349 16.944427 0.97306299
2.540369 10.695195 -0.61401331
2.8367679 11.943062 0
3.9886432 16.792566 0.96406466
2.5256512 10.690667 -0.61357778
0 0 0
3.9420648 16.686113 0.95767903
2.5157032 10.706357 -0.61430329
0 0 0
3.9290326 16.72122 0.95942074
2.4956689 10.679026 -0.61256164
0 0 0
3.9236078 16.789209 0.96304905
2.4880574 10.704809 -0.61386776
0 0 0
3.6450844 15.682891 0.89933604
2.473367 10.70022 -0.61343277
0 0 0
3.6354952 15.727791 0.9016583
2.4511218 10.662683 -0.61111051
0 0 0
3.60077 15.663795 0.89773935
2.4364984 10.658035 -0.61067498
0 0 0
3.5725756 15.627605 0.89541715
2.4241939 10.663503 -0.61082
0 0 0
3.5444758 15.591379 0.89309549
2.4107349 10.663892 -0.61067498
2.8937914 12.800693 0
3.5072994 15.514547 0.88845098
2.3967092 10.661732 -0.61038494
2.8811755 12.816874 0
3.4765832 15.465537 0.88540322
2.3798566 10.646866 -0.60936886
2.8617122 12.802564 0
3.4612935 15.484937 0.8862738
2.3686819 10.657346 -0.60980439
2.8524523 12.833961 0
3.4313073 15.438387 0.88337153
2.3586059 10.672884 -0.61052996
2.831326 12.811981 0
3.4210594 15.480573 0.88554823
2.3460059 10.646391 -0.60893327
2.8191068 12.793366 0
3.412267 15.485182 0.88569379
2.3286915 10.628912 -0.60777217
2.8292642 12.913691 0
3.3935537 15.489293 0.88569379
2.326355 10.67996 -0.61052996
2.7987046 12.84845 0
3.3748353 15.493382 0.88569379
2.3123477 10.677679 -0.61023939
2.8008041 12.933215 0
3.3632612 15.530461 0.88758045
2.2983513 10.67539 -0.60994941
2.770385 12.867894 0
3.3455861 15.539589 0.88787043
2.2865372 10.683236 -0.61023939
0 0 0
3.5138743 16.417643 0.93779564
2.2763321 10.698707 -0.61096555
0 0 0
3.4843016 16.376133 0.93518341
2.2677047 10.721786 -0.61212665
0 0 0
3.3139672 15.668551 0.89454657
2.2568843 10.73468 -0.61270666
0 0 0
3.2918255 15.657291 0.89367604
2.2235386 10.70449 -0.61067498
2.8527403 13.733573 0
3.2825129 15.80257 0.90151274
2.2116547 10.712263 -0.61096555
0 0 0
3.2676194 15.826883 0.90267384
2.2028878 10.735291 -0.61212665
0 0 0
3.2469258 15.823181 0.90223831
2.1914709 10.745576 -0.61256164
0 0 0
3.2194982 15.786366 0.89991659
2.1795187 10.753314 -0.61285222
0 0 0
3.1926782 15.752042 0.89773935
2.1685762 10.766129 -0.61343277
0 0 0
3.1751823 15.763533 0.89817494
2.1494458 10.738167 -0.61169106
0 0 0
3.1484821 15.729136 0.8959977
2.1359627 10.73821 -0.6115461
0 0 0
3.1249125 15.709995 0.89469159
2.1229861 10.740783 -0.6115461
0 0 0
3.1200354 15.785135 0.89875549
2.111007 10.748435 -0.61183608
0 0 0
3.1079698 15.824585 0.90078717
2.0930421 10.725479 -0.61038494
0 0 0
3.0938227 15.853827 0.90223831
2.0815635 10.735646 -0.61082
0 0 0
3.0810955 15.890724 0.90412551
2.0685899 10.738153 -0.61082
0 0 0
3.0707388 15.940358 0.90673774
2.0606337 10.731753 -0.61038494
0 0 0
3.0620868 15.947309 0.90702772
2.0486376 10.739335 -0.61067498
0 0 0
3.0394087 15.933138 0.90601218
2.0356598 10.741802 -0.61067498
0 0 0
3.0162838 15.916374 0.90485108
2.0197954 10.728938 -0.60980439
0 0 0
2.9980102 15.92511 0.90514106
2.0049195 10.721154 -0.60922384
0 0 0
2.976855 15.918504 0.90456051
1.9857949 10.690359 -0.60733718
0 0 0
2.9566703 15.916985 0.90427053
1.9686335 10.669755 -0.60603106
0 0 0
2.9355497 15.910324 0.90368998
1.9552701 10.669563 -0.60588551
0 0 0
2.9158552 15.911306 0.90354496
1.9405153 10.661692 -0.60530496
0 0 0
2.9003479 15.93526 0.90470552
1.9257826 10.653801 -0.60472441
0 0 0
2.8792441 15.928535 0.90412551
1.9101542 10.640779 -0.60385382
0 0 0
2.8517306 15.885961 0.90151274
1.8963844 10.637969 -0.60356385
0 0 0
2.8197663 15.817778 0.89744937
1.8835291 10.640252 -0.60356385
0 0 0
2.7979331 15.805816 0.89657825
1.8711205 10.645077 -0.6037088
0 0 0
2.773886 15.781041 0.89498216
1.8573623 10.642206 -0.60341829
0 0 0
2.7566025 15.794621 0.89556271
1.8449467 10.64701 -0.60356385
0 0 0
2.7384024 15.803056 0.89585268
1.8311987 10.644105 -0.60327327
0 0 0
2.7166629 15.790993 0.89498216
1.8174618 10.641191 -0.6029833
0 0 0
2.6958306 15.784019 0.89440161
0 0 -0
0 0 0
2.6841407 15.830813 0.89686882
0 0 -0
0 0 0
2.6801038 15.923722 0.90194827
1.7771639 10.637459 -0.60240269
0 0 0
2.6882629 16.090967 0.91123664
1.7643093 10.639598 -0.60240269
2.2720807 13.701694 0
2.6713696 16.109589 0.91210777
1.7506074 10.636589 -0.60211217
2.2775006 13.837963 0
2.648948 16.094854 0.91109163
1.7398479 10.651517 -0.60283774
2.2515478 13.784193 0
2.8238523 17.287895 0.97843301
1.7338309 10.655138 -0.6029833
2.2352791 13.736753 0
2.8113194 17.276768 0.97770691
1.7217827 10.662351 -0.60327327
2.2311251 13.816516 0
2.7908571 17.282724 0.97785246
1.7080766 10.659297 -0.6029833
2.2098989 13.790932 0
2.7654493 17.257858 0.97625577
1.6947865 10.658779 -0.60283774
2.1907823 13.778175 0
2.7433701 17.253487 0.97582024
1.6819062 10.660819 -0.60283774
2.181432 13.827081 0
2.7241404 17.267056 0.97640079
1.6702293 10.670547 -0.60327327
2.1558697 13.773145 0
2.7024715 17.265205 0.97611082
1.6565381 10.667428 -0.6029833
2.1476121 13.829742 0
2.6863928 17.299271 0.97785246
1.6432507 10.666846 -0.60283774
0 0 0
2.6757736 17.36927 0.9816258
1.6303607 10.668824 -0.60283774
0 0 0
2.6598868 17.40588 0.98351246
1.6178589 10.673363 -0.6029833
0 0 0
2.6341801 17.378252 0.98177081
1.6057329 10.680444 -0.60327327
0 0 0
2.6085441 17.350588 0.98002911
1.5916765 10.674664 -0.60283774
0 0 0
2.574549 17.266352 0.97509468
1.5787771 10.676579 -0.60283774
0 0 0
2.5468431 17.223185 0.97248244
1.5662534 10.681057 -0.6029833
0 0 0
2.5271616 17.233965 0.97291797
1.5548419 10.693228 -0.60356385
0 0 0
2.5029712 17.213865 0.97161186
1.5415483 10.692519 -0.60341829
0 0 0
4.3519492 30.186083 1.703512
1.5286273 10.694374 -0.60341829
0 0 0
4.3040752 30.111586 1.699013
1.5160698 10.698793 -0.60356385
0 0 0
2.4288898 17.140499 0.9669674
1.5027788 10.698037 -0.60341829
0 0 0
2.4081771 17.143421 0.9669674
1.4909265 10.707568 -0.60385382
0 0 0
2.3849521 17.1283 0.96595132
1.4779874 10.709362 -0.60385382
0 0 0
2.3646104 17.133751 0.96609688
1.4650462 10.71114 -0.60385382
0 0 0
2.3410888 17.115999 0.96493572
1.4524515 10.715475 -0.60399884
0 0 0
2.3047001 17.002947 0.9584046
1.4470202 10.724078 -0.60443437
0 0 0
2.2131252 16.401794 0.9244439
1.4340612 10.725819 -0.60443437
0 0 0
2.1915824 16.391573 0.9237178
1.421441 10.730117 -0.60457939
0 0 0
2.1741638 16.412243 0.92473394
1.3961771 10.73868 -0.60486996
0 0 0
5.4392467 41.835903 2.356461
1.3838636 10.745508 -0.60515994
0 0 0
5.3876963 41.834709 2.3560255
1.371537 10.752333 -0.60545051
0 0 0
5.3378 41.84634 2.3563156
1.3585439 10.753982 -0.60545051
0 0 0
5.2836518 41.824409 2.3547194
1.3461932 10.760767 -0.60574049
0 0 0
5.2305307 41.810135 2.3535583
1.3341486 10.770124 -0.60617608
0 0 0
5.1787295 41.80611 2.3529778
1.3214501 10.774305 -0.60632104
0 0 0
5.1285276 41.814915 2.3531227
1.3087434 10.778471 -0.60646605
0 0 0
5.0776858 41.818504 2.3529778
1.2966493 10.787787 -0.60690165
0 0 0
5.0265317 41.819443 2.3526871
1.2848413 10.799666 -0.60748219
1.3945298 11.721647 0
4.972928 41.79969 2.3512361
1.2736137 10.81669 -0.60835272
1.3870602 11.780181 0
4.9221144 41.803089 2.3510911
1.2623478 10.833713 -0.60922384
1.3634886 11.701721 0
4.8706975 41.801262 2.3506556
1.2507443 10.848134 -0.60994941
1.358588 11.783499 0
4.8151259 41.763237 2.3481882
1.24058 10.875449 -0.61140054
1.3425797 11.769623 0
4.7655435 41.776772 2.3486238
1.2283126 10.884689 -0.61183608
1.3271902 11.760892 0
4.7121468 41.756672 2.3471723
1.2166008 10.899075 -0.61256164
1.311534 11.749547 0
4.6590943 41.739098 2.345866
1.204571 10.910868 -0.61314219
1.2973361 11.751123 0
4.6080875 41.739536 2.345576
1.1916683 10.914896 -0.61328721
1.2820064 11.742333 0
4.5584955 41.752815 2.3460109
1.1807101 10.936996 -0.61444831
1.2711691 11.774924 0
4.5086002 41.763462 2.3463016
1.1699756 10.961666 -0.61575443
1.266055 11.861846 0
4.4567552 41.755966 2.345576
0 0 -0
1.259987 11.872961 0
4.4268661 41.714725 2.3431089
1.2102859 11.537451 -0.64797401
1.2483544 11.900352 0
4.3775434 41.730381 2.3436894
1.2041152 11.613856 -0.65218288
0 0 0
4.3268485 41.733047 2.3435438
1.1919343 11.633389 -0.65319848
0 0 0
4.2777438 41.751179 2.34427
1.1799705 11.655503 -0.65435958
0 0 0
4.2241521 41.725292 2.3425283
1.1687311 11.685364 -0.65595627
0 0 0
4.1745071 41.738117 2.3429632
0 0 -0
1.1751567 11.894731 0
4.1225395 41.727619 2.3420928
0 0 -0
1.160026 11.888378 0
4.0706029 41.717056 2.341222
0 0 -0
1.1454099 11.887174 0
4.0211892 41.732281 2.3418021
0 0 -0
1.1320318 11.898912 0
3.9668243 41.695732 2.3394804
0 0 -0
1.1181406 11.905458 0
3.917412 41.710842 2.3400609
0 0 -0
1.1039944 11.909389 0
3.8665297 41.710365 2.3397706
1.2336563 13.485392 -0.75638777
1.0884181 11.897759 0
3.8139977 41.691723 2.3384643
1.2208642 13.525683 -0.75856441
1.0745087 11.904244 0
3.765254 41.714417 2.3394804
1.2061336 13.545269 -0.75958055
1.0608166 11.913313 0
3.7123122 41.690464 2.3378837
1.2584182 14.328395 -0.80341017
1.046876 11.919766 0
3.6635263 41.713039 2.3388999
1.2505207 14.438627 -0.8095057
1.0324725 11.921022 0
3.6131215 41.717438 2.3388999
1.2319683 14.427185 -0.80878019
1.0178462 11.919671 0
3.5616064 41.708828 2.3381743
1.2140994 14.42349 -0.80849016
1.0027887 11.913119 0
3.5116422 41.718277 2.3384643
1.1921595 14.370568 -0.80544239
0.98946887 11.927288 0
3.4616613 41.727673 2.3387549
1.1775464 14.405663 -0.80732906
0.97463191 11.923283 0
3.4112391 41.731827 2.3387549
0 0 -0
2.616024 32.486843 0
3.3599777 41.725555 2.3381743
2.5961895 32.485825 0
3.3333192 41.709446 2.3371582
2.5571389 32.491531 0
3.2829192 41.713444 2.3371582
2.5174756 32.48941 0
3.2319117 41.709602 2.3367226
0 0 -0
2.4764357 32.469078 0
3.181314 41.710892 2.3365777
0 0 -0
2.437006 32.469444 0
3.1318846 41.727657 2.3373032
2.3981547 32.477562 0
3.0797405 41.708092 2.3359971
2.3594751 32.488213 0
3.0285892 41.701416 2.3354166
2.3189209 32.472878 0
2.2003205 30.812065 1.725427
2.2798641 32.478249 0
2.9238019 41.651592 2.3322237
2.2400813 32.47319 0
2.8761537 41.69397 2.3344004
2.1994345 32.455101 0
2.8254216 41.692234 2.3341105
2.1609085 32.468121 0
2.7757328 41.70599 2.334691
0 0 -0
2.022413 30.951567 0
2.7243204 41.693752 2.3338199
0 0 -0
1.9803492 30.881268 0
2.671778 41.663303 2.3319333
1.9417264 30.86286 0
1.9650838 31.234112 1.7480676
1.9001064 30.795055 0
1.9279821 31.246838 1.7486482
1.8650948 30.833693 0
1.8855187 31.171339 1.7442943
1.8299932 30.872299 0
1.8478528 31.173594 1.7442943
1.7957053 30.926441 0
1.7395461 29.959244 1.6762273
1.7642441 31.03252 0
1.7049669 29.989853 1.6778234
1.806838 32.474113 0
1.6693062 30.002268 1.6784041
1.746159 32.443554 0
1.6140879 29.989681 1.6775335
1.7070925 32.448235 0
1.5771677 29.978638 1.6768079
1.6666818 32.426888 0
1.5386759 29.936409 1.6743407
1.6264554 32.408081 0
1.5713978 31.311026 1.7511154
1.5876775 32.417824 0
1.5326735 31.294731 1.7500993
1.5491264 32.432716 0
2.2103877 46.276966 2.5878015
1.5087267 32.408569 0
2.1541066 46.271812 2.5873659
1.4696839 32.412968 0
2.0971355 46.251022 2.5860598
1.4308624 32.422523 0
2.0419359 46.269093 2.5869303
1.390569 32.39822 0
1.9859158 46.268932 2.5867853
1.3515294 32.402477 0
1.9297906 46.266102 2.5864947
1.3116394 32.385891 0
1.8736756 46.26321 2.5862048
1.2729151 32.397854 0
1.81706 46.247265 2.5851886
1.2341639 32.409771 0
1.7609802 46.24424 2.5848987
0 0 -0
1.194235 32.39043 0
1.7061547 46.274887 2.5864947
1.1561165 32.420452 0
1.6486652 46.232773 2.5840275
1.1157771 32.388016 0
1.0631994 30.861828 1.7248465
1.0766417 32.389339 0
1.0249585 30.83452 1.7232498
0 0 -0
1.0371715 32.380215 0
0.98819959 30.851324 1.7241209
0.99836624 32.39185 0
0.95052087 30.839512 1.7233953
0.95845616 32.367023 0
0.91356432 30.851027 1.7239759
0.92001116 32.391567 0
1.3129289 46.225334 2.5830119
0.88009334 32.364037 0
1.2570736 46.226887 2.5830119
0.78320867 29.45615 0
1.2288691 46.217251 2.5824313
0.74801219 29.472679 0
1.1730237 46.2187 2.5824313
0.71221119 29.465763 0
1.116737 46.201897 2.5814152
0.67600948 29.44058 0
1.0609102 46.203213 2.5814152
0.64117151 29.475197 0
1.0047994 46.191475 2.5806897
0.60523546 29.460344 0
0.59248227 28.839571 1.6112082
0.56963789 29.461054 0
0.55688131 28.801294 1.609031
0.5872879 32.399307 0
0.52325743 28.866894 1.6126593
0.54739094 32.355759 0
0.48833314 28.86491 1.6125144
0.50825405 32.353798 0
0.45321038 28.849895 1.6116438
0.46957543 32.383007 0
0.4184635 28.85821 1.6120788
0.42982399 32.336712 0
0.38145265 28.697618 1.603081
0 0 -0
0.39078251 32.339809 0
0.34646291 28.672071 1.6016293
0.35187575 32.355877 0
0.3119593 28.685457 1.6023549
0.31288037 32.366688 0
0.27732348 28.688419 1.6025004
0.2736392 32.351421 0
0.24281272 28.706915 1.603516
0.23449208 32.343929 0
0.2080882 28.701996 1.6032259
0 0 -0
0.1953634 32.33638 0
0.24297945 40.217747 2.2464507
0.15637912 32.354813 0
0.19442166 40.225807 2.2468863
0.11721849 32.336758 0
0.14580709 40.223419 2.2467413
0.078095444 32.316055 0
0.069526531 28.77022 1.6069993
0.039076049 32.339546 0
0.034822948 28.819656 1.6097571
-0 32.336971 0
-0 28.814476 1.6094666
-0.019536458 32.336964 0
-0.017419325 28.832663 1.6104827
-0.058590479 32.326508 0
-0.072865985 40.202827 2.2455802
-0.097690001 32.339424 0
-0.12140393 40.189713 2.244854
-0.13676581 32.339279 0
-0.16997626 40.192142 2.2449996
-0.17569992 32.313072 0
-0.21854049 40.191906 2.2449996
-0.21474382 32.312836 0
-0.26701808 40.178623 2.2442739
-0.25368524 32.299545 0
-0.31554544 40.175667 2.2441285
-0.29287776 32.317425 0
-0.36411324 40.17786 2.2442739
-0.33184674 32.309246 0
-0.41252658 40.164391 2.2435479
-0.37085593 32.30621 0
-0.46108699 40.16647 2.2436934
-0.40972635 32.292732 0
-0.50952107 40.158085 2.2432578
-0.44874552 32.292213 0
-0.55807996 40.160038 2.243403
-0.48799992 32.307266 0
-0.60668367 40.164536 2.2436934
-0.52673936 32.288433 0
-0.65517169 40.161167 2.2435479
-0.56589007 32.295582 0
-0.70365268 40.157749 2.243403
-0.60432774 32.263649 0
-0.75202894 40.149075 2.2429674
-0.6435191 32.273304 0
-0.80054069 40.148136 2.2429674
-0.72150916 32.271656 0
-0.89767689 40.151287 2.2432578
-0.7606864 32.278557 0
-0.94643611 40.160561 2.2438383
-0.79994601 32.288021 0
-0.96864063 39.097 2.1844792
-0.8386212 32.274025 0
-1.0175683 39.16074 2.1881077
-0.87761748 32.272991 0
-1.0650977 39.167278 2.1885433
-0.89718735 32.275051 0
-1.0881107 39.14325 2.187237
-0.93610942 32.271347 0
-0.90095258 31.059351 1.7355865
-0.97463089 32.254589 0
-0.93706822 31.011484 1.7329737
-1.0136852 32.255985 0
-0.97404933 30.994751 1.7321031
-1.0530839 32.267742 0
-1.0114998 30.993551 1.7321031
-1.0916322 32.253441 0
-1.0481577 30.968937 1.7307971
-1.1303298 32.244293 0
-1.0856677 30.970242 1.730942
-1.1692899 32.242905 0
-1.1235592 30.98189 1.7316675
-1.2085408 32.249271 0
-1.0538629 28.121775 1.5718775
-1.2475069 32.247787 0
-1.0877415 28.117887 1.5717325
-1.2858489 32.230659 0
-1.120887 28.095781 1.5705714
-1.3252199 32.239483 0
-1.1539806 28.073635 1.5694103
-1.3638439 32.230057 0
-1.1883408 28.082605 1.5699909
-1.4034654 32.24398 0
-1.2234019 28.107103 1.571442
-1.4418435 32.229263 0
-1.2582921 28.126371 1.5726031
-1.4811437 32.235302 0
-1.2913222 28.104065 1.571442
-1.5199702 32.230888 0
-1.4689742 31.149523 1.741827
-1.5587877 32.226421 0
-1.4954388 30.916746 1.7289103
-1.5974684 32.219322 0
-1.524817 30.754015 1.7199119
-1.6370579 32.230362 0
-1.5599988 30.713223 1.7177347
-1.6755953 32.220562 0
-1.5972439 30.713917 1.7178802
-1.713973 32.208118 0
-1.6362873 30.748287 1.7199119
-1.7526064 32.200829 0
-1.67584 30.790392 1.7223792
-1.791658 32.201286 0
-1.7134762 30.796131 1.7228148
-1.8112582 32.202793 0
-1.7303303 30.763958 1.721073
-1.8501676 32.200581 0
-1.637383 28.497246 1.5943726
-1.8898369 32.211319 0
-1.6642065 28.365562 1.5871165
-1.9290675 32.214203 0
-1.6983237 28.360929 1.5869709
-1.9673558 32.201458 0
-1.7333839 28.371832 1.587697
-2.0065875 32.204258 0
-1.7754202 28.49419 1.5946631
-2.0458283 32.206997 0
-1.9671526 30.968426 1.7332642
-2.0840702 32.194115 0
-1.9985276 30.872677 1.7280393
-2.1229689 32.191574 0
-2.0334363 30.833946 1.7260076
-2.1629107 32.204559 0
-1.9202565 28.591572 1.6006137
-2.2005799 32.183754 0
-1.9539157 28.576262 1.5998876
-2.2400081 32.188862 0
-1.9891646 28.584248 1.6004682
-2.2781653 32.175751 0
-2.0202153 28.532583 1.597711
-2.3183498 32.191135 0
-2.2120295 30.71484 1.720057
-2.3561046 32.172745 0
-2.0956137 28.615725 1.6026454
-2.3955572 32.177662 0
-2.1278737 28.582077 1.6009037
-2.4336505 32.164364 0
-2.1631923 28.589848 1.6014843
-2.4731109 32.169174 0
-2.1931553 28.527634 1.5981466
-2.5125873 32.17395 0
-2.2296464 28.550863 1.5995976
-2.5510504 32.165707 0
-2.2633214 28.537786 1.599017
-2.5901232 32.165192 0
-2.2984278 28.542803 1.5994526
-2.6298347 32.172417 0
-2.3928216 29.272884 1.640525
-2.648417 32.160446 0
-2.4141316 29.315456 1.6429923
-2.6874912 32.159813 0
-2.4514992 29.335819 1.6442983
-2.7272274 32.166916 0
-2.4900169 29.36908 1.64633
-2.7656465 32.158405 0
-2.5237207 29.345339 1.6451689
-2.8049543 32.160229 0
-3.487515 39.986137 2.2419517
-2.8431237 32.149036 0
-3.5362852 39.987064 2.2422419
-2.8833621 32.161137 0
-2.7003798 30.120146 1.6891441
-2.9219842 32.155029 0
-2.7424159 30.178967 1.6926274
-2.9605968 32.148888 0
-2.7831681 30.222202 1.6952397
-3.000649 32.158241 0
-2.8237872 30.262796 1.6977069
-3.0387697 32.146824 0
-3.7765796 39.952038 2.2415161
-3.0786028 32.153492 0
-2.8221219 29.47476 1.6538767
-3.1547699 32.130413 0
-3.0352726 30.913368 1.735006
-3.1941063 32.131763 0
-3.072623 30.909678 1.735006
-3.2331891 32.130466 0
-3.110229 30.908525 1.7351509
-3.2720101 32.126537 0
-3.1486268 30.915085 1.7357315
-3.3113596 32.127731 0
-3.1881106 30.931936 1.7368926
-3.349638 32.118534 0
-4.1647472 39.934341 2.2426772
-3.3881717 32.111877 0
-4.2151785 39.949955 2.2438383
-3.4291797 32.128464 0
-3.8817945 36.369076 2.0429759
-3.46716 32.116531 0
-3.9265726 36.372101 2.043411
-3.5068116 32.120083 0
-3.9699547 36.362171 2.0431211
-3.5467622 32.126171 0
-4.0124631 36.344437 2.0423954
-3.564734 32.11108 0
-4.0335593 36.334255 2.0419598
-3.6029515 32.101582 0
-3.4885757 31.082518 1.7470515
-3.6423235 32.102371 0
-3.5053325 30.894972 1.736747
-3.6814077 32.10054 0
