# .PCD v0.7 - Point Cloud Data file format
VERSION 0.7
FIELDS x y z
SIZE 4 4 4
TYPE F F F
COUNT 1 1 1
WIDTH 1844
HEIGHT 1
VIEWPOINT 0 0 0 1 0 0 0
POINTS 1844
DATA ascii
5.3947043 5.8430362 0.44420207
5.3513689 5.8101692 -0.88043892
5.385963 5.8477292 -0.44406378
5.3807273 5.8420448 0
5.3876405 5.8495507 0.44420207
5.3635955 5.8375835 -0.88361043
5.3788929 5.8542328 -0.44406378
5.3754234 5.8504567 0
5.3946328 5.8713636 0.44536319
5.3652749 5.8535919 -0.88505161
5.3770776 5.8664689 -0.44449878
5.3753843 5.8646216 0
5.3963113 5.8874536 0.44608876
5.361692 5.8638921 -0.88562876
5.3769989 5.8806324 -0.44507933
5.3718033 5.8749504 0
5.392704 5.8978086 0.4463793
5.3633161 5.8799191 -0.88706994
5.376894 5.8948045 -0.44565988
5.375227 5.8929772 0
5.3960772 5.9158354 0.44724986
5.3614316 5.8921361 -0.8879351
5.3855047 5.9185925 -0.44696599
5.3733587 5.9052444 0
5.402915 5.937726 0.44841099
5.3595181 5.9043503 -0.88879913
5.3766046 5.923173 -0.446821
5.3732162 5.9194407 0
5.3992262 5.9480944 0.44870099
5.3575902 5.9165754 -0.88966429
5.3729353 5.9335213 -0.44711155
5.367805 5.927856 0
5.3902926 5.9526901 0.44855598
5.3556404 5.9288044 -0.89052945
5.3849168 5.9612141 -0.44870767
5.3798232 5.9555755 0
5.4039979 5.9823375 0.45029765
5.3605876 5.9487157 -0.89254665
5.3777099 5.9677162 -0.44870767
5.376111 5.9659419 0
5.3898077 5.9811416 0.4497171
5.3533959 5.9551888 -0.89254665
5.3843923 5.9896693 -0.4498688
5.3775959 5.9821091 0
5.4051576 6.0127692 0.45160377
5.3600111 5.9770579 -0.894853
5.3806238 6.0000434 -0.45015934
5.3807855 6.0002241 0
5.411767 6.0347719 0.4527649
5.3579602 5.989315 -0.89571816
5.3768315 6.0104103 -0.45044935
5.3735313 6.006721 0
5.3958106 6.0316253 0.45203933
5.3524399 5.9977126 -0.89600617
5.390327 6.0401669 -0.45219103
5.3818703 6.0306907 0
5.3919754 6.0420146 0.45232934
5.3469071 6.0061054 -0.89629418
5.386477 6.0505538 -0.45248103
5.3849587 6.0488486 0
5.391582 6.0562882 0.45290989
5.3551083 6.029973 -0.89888966
5.3791618 6.0570579 -0.45248103
5.3672805 6.0436792 0
5.3911619 6.0705705 0.45349044
5.3460984 6.0344973 -0.89860052
5.3752885 6.0674467 -0.45277157
5.3789525 6.0715823 0
5.392437 6.086803 0.454216
5.3490829 6.0525851 -0.90033084
5.3799939 6.0875611 -0.45378715
5.3698907 6.076129 0
5.3971252 6.1069455 0.45523211
5.353734 6.0726194 -0.90234804
5.3863811 6.1096501 -0.45494825
5.3814783 6.1040888 0
5.3931756 6.1173568 0.45552212
5.3569016 6.0836172 -0.90350121
5.3844113 6.1148591 -0.4550938
5.3777895 6.1073389 0
5.4032164 6.1362152 0.45668325
5.3632026 6.1056318 -0.90580755
5.3770185 6.1213608 -0.4550938
5.3755536 6.1196928 0
5.3957982 6.1427398 0.45668325
5.3609366 6.1179452 -0.90667272
5.3833117 6.1434803 -0.45625436
5.3801632 6.1398869 0
5.3986502 6.1609845 0.45755434
5.3501391 6.1205277 -0.9060967
5.3810167 6.1558514 -0.45668992
5.3881536 6.1640162 0
5.3980422 6.1753287 0.45813492
5.3512373 6.1367331 -0.90753788
5.3855305 6.1760597 -0.45770603
5.378993 6.1685629 0
5.4025259 6.19555 0.45915046
5.3540006 6.1548996 -0.90926707
5.3848853 6.1904044 -0.45828661
5.3766546 6.1809425 0
5.3967462 6.2040396 0.45929602
5.3567338 6.173089 -0.91099739
5.3791032 6.1988673 -0.4584316
5.3862424 6.2070947 0
5.4011621 6.2242885 0.46031159
5.3628073 6.1951942 -0.9133026
5.3852143 6.2210793 -0.45959273
5.3855515 6.2214694 0
5.3919382 6.228847 0.46016657
5.3587017 6.2055888 -0.91387975
5.3827896 6.2334838 -0.46002829
5.3797297 6.2299399 0
5.3996911 6.253056 0.46147269
5.3545723 6.2159748 -0.91445577
5.3735533 6.238009 -0.45988271
5.3874831 6.25418 0
5.4006095 6.2694178 0.46219826
5.3487482 6.2244072 -0.91474491
5.3880258 6.2701154 -0.4617694
5.3816171 6.2626572 0
5.4015026 6.2857981 0.46292436
5.3614173 6.2544231 -0.91820329
5.3939748 6.2924037 -0.4629305
5.3859038 6.2829881 0
5.3972826 6.2962623 0.46321437
5.3471322 6.2530336 -0.91705012
5.3897486 6.3028703 -0.46322107
5.3816943 6.2934508 0
5.3879838 6.300806 0.46306938
5.3530016 6.2752323 -0.91935647
5.3922439 6.3212357 -0.46409163
5.3825293 6.3098474 0
5.3955421 6.3251019 0.4643755
5.3571501 6.2954865 -0.9213748
5.3862844 6.3297234 -0.46423662
5.3867025 6.3302145 0
5.3946314 6.3395324 0.46495605
5.3595791 6.3137822 -0.92310399
5.3819985 6.3401928 -0.46452719
5.3891582 6.3486271 0
5.4021001 6.363873 0.46626216
5.3569622 6.3261771 -0.92396915
5.3810506 6.3546233 -0.46510774
5.3865237 6.3610868 0
5.3994455 6.3763466 0.46669772
5.3593321 6.3445044 -0.92569947
5.3884578 6.378984 -0.46641386
5.3821955 6.3715706 0
5.4001193 6.3927894 0.46742329
5.3549924 6.3549275 -0.92627549
5.3874435 6.3934383 -0.4669944
5.3929415 6.3999629 0
5.3856936 6.3913617 0.46684271
5.352304 6.3673348 -0.92714065
5.3797145 6.3999434 -0.4669944
5.3902235 6.4124451 0
5.3946834 6.4177513 0.46829385
5.3612223 6.3936129 -0.93002301
5.3786559 6.4144034 -0.46757498
5.3908305 6.4289227 0
5.3835893 6.4202867 0.46800384
5.3584728 6.4060397 -0.93088818
5.3842387 6.4368424 -0.46873608
5.3813906 6.4334373 0
5.3908305 6.4447231 0.46930996
5.3579154 6.4132419 -0.9314642
5.3953409 6.4580393 -0.4700422
5.387517 6.4486747 0
5.4002638 6.4639316 0.47047108
5.3667245 6.4395843 -0.93434769
5.397512 6.4765267 -0.47091275
5.3913794 6.4691687 0
5.4007654 6.4804306 0.47119662
5.3688574 6.457994 -0.93607688
5.3930078 6.4870439 -0.47120333
5.3952065 6.4896889 0
5.3979163 6.4929481 0.47163218
5.3610501 6.4644766 -0.93607688
5.3851657 6.4935555 -0.47120333
5.3923469 6.5022149 0
5.408308 6.5214615 0.47322831
5.363523 6.4993591 -0.93924838
5.3893042 6.5306001 -0.472945
5.3931794 6.535296 0
5.3974957 6.5405264 0.47366387
5.3688169 6.5218105 -0.94155473
5.3896651 6.5471358 -0.47367054
5.3968587 6.5558743 0
5.4011507 6.5610886 0.47467998
5.3592863 6.526288 -0.94126558
5.3899937 6.5636826 -0.47439611
5.3971896 6.5724449 0
5.3998151 6.5756426 0.47526053
5.3661466 6.550765 -0.94385993
5.3985219 6.5902877 -0.47584721
5.3925395 6.5829844 0
5.3902144 6.5801463 0.47511497
5.3631387 6.5632544 -0.9447251
5.3922038 6.598824 -0.47599277
5.3961101 6.6036038 0
5.4052815 6.6148281 0.47714722
5.3666453 6.5837655 -0.94674343
5.3907938 6.6133909 -0.47657335
5.3930616 6.6161728 0
5.4022055 6.6273909 0.47758222
5.37011 6.6042948 -0.94876176
5.3795171 6.6158638 -0.47628278
5.4014788 6.6428728 0
5.3991132 6.6399636 0.47801778
5.3735271 6.6248345 -0.95077896
5.392797 6.6485915 -0.47816947
5.3901725 6.6453562 0
5.3959985 6.6525388 0.47845331
5.3655181 6.6313224 -0.95077896
5.3880315 6.6591468 -0.47846001
5.3952284 6.6680422 0
5.3928609 6.6651158 0.47888887
5.3656225 6.6478624 -0.95222014
5.4011955 6.6919365 -0.48034668
5.3920727 6.6806335 0
5.392962 6.6817355 0.47961444
5.3624535 6.6603866 -0.9530853
5.3882155 6.6923842 -0.47991112
5.3872638 6.6912022 0
5.3979211 6.7044387 0.48077556
5.3641167 6.678957 -0.95481449
5.3931422 6.7150974 -0.48107225
5.3987308 6.7220559 0
5.3930669 6.715004 0.48106554
5.3657484 6.6975489 -0.95654482
5.3834014 6.719583 -0.48092726
5.3971071 6.736691 0
5.3963237 6.735713 0.48208168
5.3657241 6.714128 -0.957986
5.3833876 6.7362304 -0.4816528
5.3873401 6.7411761 0
5.4076476 6.7665868 0.48382333
5.3592181 6.7226272 -0.95827401
5.4011602 6.7752395 -0.48397502
5.4002786 6.7741337 0
5.4075646 6.7832732 0.4845489
5.3704095 6.7533908 -0.96173352
5.4075241 6.8000631 -0.48528114
5.3920898 6.780654 0
5.3993645 6.7898021 0.4845489
5.3702807 6.7700052 -0.9631747
5.3944573 6.8004827 -0.48484561
5.3936 6.7994018 0
5.4024553 6.8105655 0.48556447
5.3588901 6.7724361 -0.96259868
5.3926859 6.8151469 -0.48542616
5.3869934 6.8079529 0
5.39745 6.8211679 0.48585501
5.3676271 6.7919068 -0.96490502
5.4095111 6.8449039 -0.48731282
5.3941765 6.825501 0
5.4062176 6.8407369 0.48701614
5.3658218 6.8065124 -0.96605819
5.407671 6.8595977 -0.48789337
5.39398 6.8422308 0
5.4059896 6.8574653 0.48774168
5.3719811 6.8312874 -0.96865255
5.4025879 6.8702083 -0.48818338
5.4001856 6.8671532 0
5.4025202 6.870122 0.48817724
5.3732982 6.8499799 -0.97038174
5.4103231 6.8971801 -0.48963505
5.3950934 6.8777647 0
5.4070449 6.8930006 0.48933837
5.3682084 6.8605452 -0.97095889
5.4131956 6.9180393 -0.49065116
5.3948021 6.8945322 0
5.4131222 6.9179449 0.49064448
5.3646846 6.8731375 -0.97182292
5.4128251 6.9348145 -0.49137673
5.3976722 6.915401 0
5.4063563 6.926527 0.49078947
5.3675003 6.8939028 -0.97384125
5.4060369 6.9433985 -0.49152175
5.397305 6.9321833 0
5.4107537 6.9494567 0.4919506
5.3813744 6.928978 -0.97787678
5.4040184 6.9581342 -0.4921023
5.385735 6.9345927 0
5.4023528 6.9559894 0.4919506
5.3825054 6.9477472 -0.97960711
5.3940172 6.9626064 -0.49195728
5.3964782 6.9657836 0
5.4050789 6.9768848 0.49296615
5.3741064 6.954246 -0.97960711
5.4030733 6.9917297 -0.4935534
5.3960128 6.9825935 0
5.4061809 6.9957514 0.49383727
5.3704386 6.9668818 -0.98047227
5.4025517 7.0085411 -0.49427897
5.3939271 6.9973531 0
5.4072394 7.0146222 0.49470782
5.3793545 6.9959145 -0.98364264
5.4035859 7.0274277 -0.49515009
5.4045048 7.0286226 0
5.4082661 7.033514 0.49557894
5.3756213 7.0085683 -0.9845078
5.407742 7.050446 -0.49631119
5.3975906 7.0372109 0
5.4076691 7.0503507 0.49630451
5.3765759 7.02738 -0.98623699
5.4007964 7.0590367 -0.49645621
5.3890834 7.0437279 0
5.4102001 7.0713277 0.49732062
5.3774986 7.0462117 -0.98796731
5.4001436 7.0758834 -0.49718174
5.4010925 7.0771275 0
5.4111075 7.0902495 0.49819118
5.3721113 7.0568166 -0.98854333
5.4041815 7.0989437 -0.49834287
5.3941126 7.0857172 0
5.4072595 7.1029873 0.49862674
5.3714004 7.0735998 -0.98998451
5.4018855 7.1137462 -0.49892342
5.3949933 7.1046696 0
5.4112444 7.126071 0.49978784
5.3815899 7.1048265 -0.99344403
5.4011292 7.1306224 -0.49964899
5.3864045 7.1111832 0
5.4026303 7.1326046 0.49978784
5.3839169 7.1257715 -0.99546236
5.4003401 7.1475077 -0.50037456
5.3840837 7.1259923 0
5.4049683 7.1536336 0.50080341
5.3753028 7.1322718 -0.99546236
5.3916993 7.1540279 -0.50037456
5.392695 7.1553483 0
5.4103947 7.1788335 0.50210953
5.3837729 7.1614971 -0.99863273
5.4033484 7.1875362 -0.50226122
5.3887382 7.1681018 0
5.4126477 7.1999063 0.50312567
5.3797727 7.1742072 -0.99949789
5.4024587 7.2044601 -0.50298733
5.3941236 7.1933451 0
5.4070649 7.2106032 0.50341618
5.3999753 7.219306 -0.50356787
5.3869848 7.2019396 0
5.4107938 7.2337694 0.50457674
5.3943529 7.2299867 -0.50385791
5.3985095 7.235558 0
5.40516 7.2444711 0.50486732
5.391818 7.2448378 -0.50443846
5.3928733 7.2462549 0
5.408813 7.267673 0.50602841
5.3939037 7.265954 -0.50545454
5.3918686 7.2632122 0
5.4046698 7.2804565 0.50646341
5.4003415 7.2838168 -0.50647014
5.3983307 7.2811046 0
5.4126511 7.3004193 0.50762457
5.4008098 7.302876 -0.50734127
5.392621 7.2918029 0
5.4239101 7.3341112 0.50951123
5.4089451 7.3323922 -0.50893736
5.3992586 7.3192606 0
5.4057922 7.3281174 0.50864065
5.3985429 7.3368316 -0.50879234
5.4012032 7.3404465 0
5.4061704 7.3471975 0.50951123
5.4019737 7.3601074 -0.50995344
5.398489 7.35536 0
5.4157386 7.3788619 0.51125288
5.3946099 7.3687239 -0.51009846
5.3942113 7.3681793 0
5.4144921 7.3958817 0.51197845
5.3964305 7.3899283 -0.5111146
5.4006491 7.3957052 0
5.4147487 7.4150133 0.51284957
5.3997364 7.4132462 -0.5122757
5.3855801 7.3938112 0
5.4164958 7.436255 0.51386571
5.3984103 7.430274 -0.51300126
5.3995891 7.4318972 0
5.4181938 7.4575038 0.51488125
5.3970509 7.44731 -0.51372683
5.3982396 7.4489508 0
5.4122314 7.4682574 0.51517183
5.395658 7.4643531 -0.5144524
5.4075308 7.4807777 0
5.4153814 7.4916382 0.51633292
5.404871 7.4961596 -0.51619405
5.3984876 7.4873061 0
5.4154406 7.5108185 0.51720345
5.3958097 7.5026851 -0.51619405
5.3939967 7.5001645 0
5.4200139 7.5363407 0.51850957
5.4049153 7.5345359 -0.51793569
5.3940291 7.5193605 0
5.4139361 7.547111 0.51880014
5.392786 7.536839 -0.51764572
5.3864527 7.527987 0
5.410861 7.5620999 0.51938069
5.3972592 7.5623827 -0.51895183
5.3864264 7.547204 0
5.4288878 7.606699 0.52199292
5.3956513 7.5794811 -0.5196774
5.3908854 7.5727863 0
5.4136648 7.6047854 0.52141237
5.3985238 7.6029444 -0.5208385
5.41186 7.621726 0
5.4180102 7.6303873 0.52271849
5.3878269 7.6073351 -0.52069294
5.3921218 7.613399 0
5.4132929 7.643292 0.52315402
5.3933744 7.6543193 -0.5230152
5.394691 7.6561875 0
5.420249 7.6924596 0.52562129
5.4022064 7.6766992 -0.52432132
5.3975515 7.670085 0
5.4185882 7.6999784 0.52591127
5.4048691 7.7002358 -0.52548242
5.4062219 7.7021627 0
5.4152517 7.7150273 0.52649182
3.5661247 5.0936813 -0.69305938
5.4015222 7.7152753 -0.52606297
5.4103432 7.7278748 0
5.4193368 7.7407207 0.52779794
3.5614467 5.1001053 -0.69334739
5.3966603 7.7281899 -0.52649856
5.4173932 7.7578797 0
5.4203949 7.7621784 0.52881408
3.5478916 5.0937948 -0.69190621
5.393259 7.7432337 -0.52707911
5.4020658 7.755878 0
5.4214091 7.7836499 0.52983016
3.5358315 5.0895815 -0.69075304
5.3957591 7.7668171 -0.5282402
5.420898 7.8030028 0
5.4179244 7.7987227 0.53041017
0 0 -0
5.3967261 7.7882757 -0.52925575
5.4173946 7.8181038 0
5.4173799 7.8180823 0.53128129
3.4926407 5.0534306 -0.68469918
5.3917451 7.8012056 -0.52969134
5.406466 7.822505 0
5.4153147 7.8353086 0.53200686
3.4791937 5.0470014 -0.683258
5.3719897 7.792737 -0.5286752
5.4250765 7.8697457 0
5.4205885 7.8632355 0.53345799
3.4613693 5.0341516 -0.68095165
3.6136813 5.2556715 -0.35625899
5.4170365 7.8784375 0
5.4169722 7.8783441 0.53403854
3.4523554 5.03406 -0.6803745
3.6205535 5.2793183 -0.3575651
5.4119301 7.891418 0
5.4192057 7.9020271 0.53519964
3.4375114 5.025423 -0.67864531
3.5951018 5.2558098 -0.35567844
5.4185491 7.9215736 0
5.4169874 7.919291 0.53592521
3.4285185 5.0252953 -0.67806816
3.5638545 5.2236619 -0.35321119
5.4221725 7.9474616 0
5.4220619 7.9472995 0.53737688
3.4166234 5.0208812 -0.67691505
3.5619214 5.2344031 -0.35364619
5.4067092 7.9454012 0
5.416842 7.9602919 0.53781241
3.4032929 5.0143075 -0.67547381
3.5570519 5.2408509 -0.35379121
5.4044166 7.9627013 0
5.4159722 7.9797273 0.538683
0 0 -0
3.5215895 5.2021179 -0.35088897
5.4181285 8.0036993 0
5.4048715 7.9841161 0.53853798
0 0 -0
3.5167537 5.2085209 -0.35103396
5.3953481 7.9908304 0
5.3981252 7.9949436 0.53882802
0 0 -0
3.5104578 5.2127662 -0.35103396
5.3827839 7.9930305 0
5.391367 8.0057755 0.53911853
0 0 -0
3.4867704 5.1911197 -0.34929231
5.3673177 7.9908872 0
5.3758941 8.0036554 0.53853798
0 0 -0
3.4732656 5.1845374 -0.34856674
5.3547587 7.9930382 0
5.3604345 8.0015106 0.53795743
0 0 -0
3.4525652 5.167129 -0.34711564
5.3378687 7.9886851 0
5.3449879 7.9993396 0.53737688
0 0 -0
3.444874 5.1691284 -0.34697005
5.303678 7.9583154 0
5.3353181 8.0057917 0.53737688
0 0 -0
3.4345534 5.1603951 -0.34624451
5.3017559 7.9658551 0
5.32616 8.0025225 0.53694135
0 0 -0
3.4168189 5.1472225 -0.34508339
5.2892451 7.9679151 0
5.3164868 8.0089521 0.53694135
0 0 -0
0 0 -0
5.2753024 7.9677882 0
5.3025007 8.0088682 0.53650576
0 0 -0
0 0 -0
5.258502 7.9632998 0
5.2928195 8.0152693 0.53650576
0 0 -0
0 0 -0
5.2402902 7.9566112 0
5.2774138 8.0129786 0.53592521
0 0 -0
3.3833444 5.1506495 -0.34421283
5.2320995 7.9651103 0
5.2634525 8.0128403 0.53549021
3.2615206 4.9782891 -0.66336608
3.3628814 5.1330028 -0.34276173
5.2210464 7.9692516 0
5.2452197 8.0061493 0.53461909
3.2512627 4.9757371 -0.66250205
3.3509912 5.1283617 -0.34218115
5.2042971 7.9646635 0
5.2327023 8.0081348 0.53432912
3.2395995 4.970994 -0.66134888
3.336277 5.1193409 -0.34131005
5.1946697 7.9709458 0
5.2244396 8.0166264 0.53447407
3.2321768 4.9727302 -0.6610598
3.3201749 5.1081157 -0.34029391
5.1836119 7.9750285 0
5.2161641 8.0251102 0.53461909
3.2191327 4.9657822 -0.65961856
3.3125882 5.1099453 -0.34014893
5.1810546 7.9922113 0
5.2064633 8.0314064 0.53461909
3.2075126 4.9609799 -0.65846539
3.3021832 5.1074042 -0.33971393
5.1855211 8.0203161 0
5.2080417 8.0551491 0.53578019
3.2029216 4.967032 -0.65875453
3.2903767 5.1026554 -0.33913338
5.1828771 8.0375099 0
5.2025309 8.0679893 0.53621578
3.1913214 4.9621968 -0.65760136
3.2842085 5.1066275 -0.33913338
5.1872358 8.0656519 0
5.2040229 8.091753 0.53737688
3.1825275 4.9616909 -0.6570242
3.2752273 5.1062136 -0.33884281
5.1873236 8.0872498 0
5.1942415 8.0980358 0.53737688
3.1723473 4.9589944 -0.6561591
3.2676561 5.1079807 -0.33869782
5.1789489 8.0957022 0
5.1816497 8.0999241 0.53708631
3.1649632 4.9606457 -0.65587103
3.2586839 5.1075397 -0.33840725
5.170567 8.1041536 0
5.163476 8.0930395 0.53621578
3.1575797 4.962286 -0.65558302
3.2455366 5.1005144 -0.33768171
5.1467967 8.0884352 0
5.1536932 8.0992727 0.53621578
3.1515815 4.9660978 -0.65558302
3.2365892 5.1000485 -0.3373917
5.138413 8.0968428 0
5.1397247 8.0989103 0.53578019
3.1358943 4.9546013 -0.65356469
3.2304244 5.1039557 -0.3373917
5.1425467 8.125041 0
5.1271582 8.100728 0.53549021
3.1285262 4.956202 -0.65327668
3.2256405 5.1100502 -0.33753669
5.1396699 8.1422501 0
5.1201377 8.1113071 0.53578019
3.1227753 4.9537191 -0.65270066
3.2183945 5.1054015 -0.33710113
3.9440401 6.2565074 0
5.1249375 8.1297884 0.53679633
0 0 -0
3.2136102 5.1114931 -0.33724669
3.9614079 6.3009224 0
5.1275563 8.1557713 0.53810245
0 0 -0
3.2046683 5.1109653 -0.33695614
3.9385879 6.2814569 0
5.1356416 8.1905775 0.53998911
0 0 -0
3.1929793 5.1060209 -0.33637559
3.9144368 6.2597322 0
5.1477842 8.232028 0.54231137
3.0892141 4.9533896 -0.65068233
3.1813073 5.1010561 -0.33579502
3.9082463 6.2666636 0
5.1722088 8.2933598 0.54593968
0 0 -0
3.1723993 5.1004877 -0.33550501
3.8910537 6.2559185 0
5.2088423 8.3746195 0.55087417
0 0 -0
3.1580131 5.091064 -0.33463392
3.875258 6.2473416 0
5.2178926 8.4118166 0.55290586
0 0 -0
3.1477621 5.088253 -0.33419889
3.8594942 6.2387447 0
5.2213979 8.440217 0.55435753
0 0 -0
3.1402433 5.0898352 -0.33405334
3.851953 6.2434034 0
5.2289314 8.4752665 0.55624419
0 0 -0
3.128644 5.0847735 -0.33347279
3.8403134 6.2414017 0
5.220047 8.4837894 0.55638915
0 0 -0
3.1197824 5.084125 -0.33318278
3.8137157 6.2149873 0
5.2070718 8.4856567 0.55609864
3.036407 4.9616919 -0.64837599
3.113637 5.0878911 -0.33318278
3.7763145 6.1707506 0
5.2117357 8.516325 0.55769527
3.0290635 4.9631515 -0.64808798
3.1061347 5.0894337 -0.33303779
3.7363222 6.1220026 0
5.2582932 8.6157675 0.56379086
3.0190287 4.9601774 -0.64722282
3.0999827 5.093183 -0.33303779
3.7059209 6.0887222 0
5.253283 8.6309938 0.56437141
3.011692 4.9616132 -0.64693481
3.0938263 5.0969248 -0.33303779
3.6945088 6.0865192 0
5.2495904 8.6484385 0.56509697
3.0030134 4.9608188 -0.64635772
3.0890098 5.1028805 -0.33318278
3.6790679 6.0776253 0
5.2418251 8.6592169 0.56538701
2.9930105 4.9578075 -0.64549363
3.0801532 5.1021557 -0.33289224
3.681133 6.0976558 0
5.2300167 8.6633224 0.56524199
2.9816816 4.9525566 -0.64434046
3.0699692 5.0992017 -0.33245724
3.6804729 6.113245 0
5.2369671 8.6985731 0.56712866
2.9770253 4.9583712 -0.64462847
3.0624642 5.1006732 -0.33231169
0 0 0
5.2532034 8.7494497 0.57003146
2.9637094 4.9633327 -0.64434046
3.0394766 5.09022 -0.33115113
0 0 0
5.2533588 8.7978144 0.57235366
2.9510946 4.9558005 -0.64289927
3.0213549 5.0737891 -0.32984444
0 0 0
5.2546887 8.8242474 0.57365978
2.9398217 4.9504671 -0.6417461
3.0165527 5.0796766 -0.32999
4.7277484 7.9612184 0
5.2307572 8.8082523 0.5722087
2.9311993 4.9495602 -0.64116895
3.0037935 5.0721412 -0.32926443
4.7499523 8.020668 0
5.2108407 8.798913 0.57119256
2.9308443 4.9557872 -0.6417461
3.0020502 5.0761895 -0.32940945
4.7411304 8.0168133 0
5.1936207 8.7819328 0.56988645
2.9182806 4.9481792 -0.64030385
2.9959142 5.079813 -0.32940945
4.7195425 8.0023632 0
5.1922417 8.8038626 0.57090199
2.9096797 4.947247 -0.63972777
2.9976754 5.0968637 -0.33028001
4.7085519 8.0058193 0
5.2303395 8.8929996 0.57627201
2.9050071 4.9529881 -0.64001578
2.9954598 5.1072083 -0.33071557
0 0 0
5.2419372 8.9374142 0.57873929
2.8964109 4.9520335 -0.63943976
2.9958448 5.1220369 -0.3314411
0 0 0
5.1432409 8.7934704 0.56901532
2.8865147 4.9488249 -0.6385746
2.981801 5.1121898 -0.33057055
0 0 0
5.0540662 8.6650143 0.5603075
2.8805327 4.9523091 -0.6385746
2.9782321 5.1202769 -0.33086056
0 0 0
5.051434 8.6845961 0.56117862
2.8732502 4.9535508 -0.63828659
2.9681306 5.1171269 -0.33042499
0 0 0
5.3446951 9.2143793 0.59499431
2.8685567 4.9592557 -0.6385746
2.958046 5.1139679 -0.32999
0 0 0
5.360878 9.2680635 0.59804213
0 0 -0
2.938879 5.0950255 -0.32853833
0 0 0
5.3496752 9.2745342 0.59804213
2.857852 4.9684134 -0.63886261
2.9210613 5.0783033 -0.32723221
0 0 0
4.9303703 8.5715141 0.55232525
2.8505609 4.9696217 -0.6385746
2.9110432 5.0750651 -0.32679665
0 0 0
4.9290609 8.5932446 0.55334139
2.8381343 4.9618387 -0.63713342
0 0 -0
0 0 0
8.3180447 14.542227 0.93576396
2.8308566 4.9630198 -0.63684541
2.8936255 5.0730658 -0.32621667
0 0 0
8.2927446 14.538729 0.93489343
2.8210201 4.9596896 -0.63598025
2.8900604 5.0810714 -0.32650664
0 0 0
8.3162766 14.621007 0.93953729
2.8073664 4.9495916 -0.63424999
2.8813574 5.0800433 -0.32621667
0 0 0
4.8464479 8.5446415 0.54869694
2.8052049 4.9597363 -0.63511509
2.8560274 5.049593 -0.32403943
0 0 0
4.8680992 8.6070328 0.55232525
2.7941275 4.9541111 -0.63396192
2.8460932 5.0462484 -0.32360387
0 0 0
4.8666325 8.6287537 0.55334139
2.7856061 4.9529791 -0.6333859
2.8348985 5.0406241 -0.32302332
0 0 0
4.8651204 8.6504841 0.55435753
2.7834113 4.9631023 -0.63424999
2.8262663 5.0395174 -0.32273331
0 0 0
3.7171526 6.6280575 0.42446423
2.7761509 4.9642067 -0.63396192
2.825248 5.0520005 -0.32331386
0 0 0
3.6939216 6.605329 0.42272255
2.7714093 4.9698143 -0.63424999
2.8166082 5.0508671 -0.32302332
0 0 0
3.6884663 6.6143222 0.42301255
2.7553511 4.9550843 -0.63194472
2.8054519 5.0451832 -0.32244274
0 0 0
3.6893125 6.6346731 0.42402866
2.7548656 4.961266 -0.63252074
2.8036685 5.0491552 -0.32258829
0 0 0
3.6840432 6.6346312 0.42388368
2.7463655 4.9600701 -0.63194472
2.7975655 5.0525393 -0.32258829
0 0 0
3.6634395 6.6163497 0.42243254
2.7428682 4.9679089 -0.63252074
2.788944 5.051362 -0.32229775
0 0 0
3.6453946 6.6025734 0.42127144
2.7368636 4.9712195 -0.63252074
2.7803345 5.05018 -0.32200775
0 0 0
3.637414 6.6069732 0.42127144
2.7246325 4.9631886 -0.63107955
2.7754796 5.0558114 -0.32215273
0 0 0
3.6319265 6.6159148 0.42156145
2.7248421 4.977819 -0.63252074
2.7681222 5.0568843 -0.32200775
0 0 0
3.6176927 6.6089044 0.42083588
2.7113926 4.9674902 -0.63079154
2.7595177 5.0556593 -0.3217172
0 0 0
3.6097045 6.6132708 0.42083588
2.6992025 4.9593973 -0.62934929
2.7546477 5.0612702 -0.32186219
0 0 0
3.5905328 6.5970888 0.41952977
2.6981428 4.9717484 -0.63050246
2.7435772 5.0554686 -0.32128218
0 0 0
3.5825589 6.6014223 0.41952977
2.6872096 4.9659057 -0.62934929
2.7312799 5.0473466 -0.32055607
3.1780233 5.8729191 0
3.5671573 6.59203 0.41865864
2.6885791 4.982811 -0.63107955
2.732585 5.0643682 -0.3214272
3.1672161 5.8698812 0
3.5480857 6.5757565 0.41735253
2.6788788 4.9792209 -0.63021439
2.7375426 5.0882587 -0.32273331
3.1440928 5.8439121 0
3.5241342 6.5502934 0.41546586
2.6691911 4.9756141 -0.62934929
2.7154248 5.0617981 -0.32084665
3.1481006 5.8683448 0
3.5923729 6.6965084 0.42446423
2.6619582 4.9765573 -0.62906122
2.731365 5.1063137 -0.32345885
3.1520538 5.8927956 0
0 0 0
2.6559432 4.9797697 -0.62906122
2.7361972 5.1302428 -0.32476497
3.1437078 5.8943057 0
0 0 0
0 0 -0
2.7324388 5.1381378 -0.32505554
3.1304748 5.8866134 0
3.0459208 5.7276163 0.36234787
0 0 -0
2.7286606 5.1460228 -0.32534555
3.1184828 5.8811946 0
3.0560374 5.7634277 0.36437955
2.6354589 4.984796 -0.6284852
2.723654 5.1516109 -0.32549053
3.1052935 5.873457 0
3.0502846 5.7694111 0.36452454
2.6258144 4.9811106 -0.62762004
2.7162168 5.1526017 -0.32534555
3.1091158 5.8979225 0
3.04089 5.7684999 0.36423454
2.6197937 4.9842796 -0.62762004
2.7039452 5.144382 -0.32461998
3.0995631 5.8970633 0
3.0133667 5.7330704 0.36176732
2.6149688 4.9897304 -0.62790805
2.6941078 5.1407385 -0.32418442
3.0634468 5.8454895 0
3.0197015 5.7620177 0.36336344
2.601753 4.9791365 -0.62617886
2.6878941 5.14399 -0.32418442
3.080482 5.8953099 0
0 0 0
2.6017089 4.9937434 -0.62762004
2.6864791 5.1564517 -0.32476497
3.0637412 5.8805723 0
0 0 0
2.5956731 4.9968834 -0.62762004
2.6694672 5.1389432 -0.32345885
3.065028 5.9004297 0
3.4168141 6.5776472 0.41401476
0 0 -0
2.6867001 5.1797657 -0.3259261
3.0386984 5.8583927 0
3.3745539 6.5058985 0.40937027
2.5842383 4.9969893 -0.62704402
2.6219525 5.0699153 -0.3188144
3.0471578 5.8921099 0
3.3822067 6.5399737 0.41125694
2.5746412 4.9932094 -0.62617886
2.631309 5.1031098 -0.32070163
3.0269153 5.8703408 0
3.3552527 6.5071125 0.40893528
2.5697875 4.9986148 -0.62646687
2.6227624 5.1016593 -0.32041109
3.0174425 5.8693695 0
3.3711443 6.5573721 0.41183752
2.55195 4.9787035 -0.62358451
2.6237102 5.1187034 -0.32128218
3.0174685 5.8869028 0
3.3442545 6.5244427 0.40951529
2.5482841 4.9863853 -0.62416053
2.6210673 5.1288042 -0.3217172
3.0139072 5.8974986 0
3.3375542 6.5307989 0.40966085
0 0 -0
2.6384616 5.1782722 -0.32461998
2.9949617 5.8779435 0
3.3508925 6.5764971 0.41227308
0 0 -0
2.6333785 5.1837711 -0.32476497
2.9890392 5.8838849 0
3.3700082 6.6338177 0.41561085
0 0 -0
2.6423748 5.217082 -0.32665166
2.9831023 5.8898115 0
3.3115084 6.5382137 0.40937027
0 0 -0
2.6313839 5.2109933 -0.32607108
2.9642549 5.8701854 0
3.3106358 6.5561318 0.4102414
0 0 -0
2.6274247 5.2188153 -0.32636166
2.9536476 5.866787 0
3.3214025 6.5972528 0.41256306
0 0 -0
2.6176188 5.2150168 -0.3259261
2.9593954 5.8959303 0
3.2842927 6.5432143 0.40893528
0 0 -0
2.6015272 5.2143497 -0.32549053
2.921906 5.8564982 0
3.3009474 6.6162271 0.41299862
0 0 -0
2.5929127 5.2128406 -0.32520053
2.9171433 5.8646803 0
3.2813807 6.5969501 0.41154751
0 0 -0
2.5773766 5.1973467 -0.32403943
2.9123695 5.8728685 0
0 0 0
0 0 -0
2.5584259 5.1748323 -0.32244274
2.8948917 5.8553891 0
0 0 0
0 0 -0
2.5131145 5.09868 -0.31750828
2.8947158 5.8728843 0
3.2574456 6.6088014 0.41154751
0 0 -0
2.4932046 5.0737367 -0.31576717
2.8795819 5.8600254 0
3.2299774 6.5730891 0.40908027
0 0 -0
2.5419393 5.1887436 -0.32273331
2.8656318 5.8494821 0
3.2243168 6.5816493 0.40937027
0 0 -0
2.5185618 5.1567864 -0.32055607
2.8539932 5.8435864 0
3.2003992 6.5528569 0.40733862
0 0 -0
2.5043695 5.1434789 -0.31954053
2.8412349 5.8353338 0
0 0 0
0 0 -0
2.5094976 5.1698728 -0.32099164
2.8273611 5.8247104 0
3.1924982 6.5769377 0.40835473
0 0 -0
2.519973 5.1994472 -0.32273331
2.8136272 5.8053422 0
0 0 0
0 0 -0
2.5182106 5.2118473 -0.32331386
2.814537 5.8251433 0
3.1658776 6.5522995 0.40646803
0 0 -0
2.5040169 5.1984968 -0.32229775
2.7995899 5.8121247 0
3.1647217 6.5701618 0.40733862
0 0 -0
2.4943581 5.194489 -0.32186219
2.7981966 5.8272314 0
3.1354084 6.5294733 0.4045808
0 0 -0
2.4892049 5.1998496 -0.32200775
2.7967753 5.8423519 0
3.149956 6.580132 0.40748361
0 0 -0
2.4762032 5.1887784 -0.32113662
2.7818668 5.8292832 0
3.1364083 6.5722103 0.40675804
0 0 -0
2.4710512 5.1941199 -0.32128218
2.777055 5.8373361 0
3.13293 6.585381 0.40733862
0 0 -0
2.471452 5.211184 -0.32215273
2.7688856 5.8383384 0
3.1205165 6.5797706 0.40675804
0 0 -0
2.4496069 5.1812835 -0.32012108
2.758491 5.834619 0
3.114783 6.5882301 0.40704805
0 0 -0
2.4333713 5.1630783 -0.3188144
2.7458925 5.8261795 0
3.1068203 6.5919886 0.40704805
0 0 -0
2.4127676 5.1354432 -0.31692773
2.741066 5.8342085 0
3.0966451 6.5910387 0.40675804
0 0 -0
2.3955419 5.1148281 -0.31547663
2.7295992 5.8280888 0
3.0820684 6.5806613 0.40588748
0 0 -0
0 0 -0
2.726959 5.8408155 0
3.0741146 6.5843806 0.40588748
0 0 -0
0 0 -0
2.7111146 5.8252306 0
3.0628662 6.5810204 0.40545192
0 0 -0
2.3737037 5.1164045 -0.31504107
2.7007871 5.8214173 0
3.0396042 6.5517216 0.40342027
0 0 -0
2.4209638 5.2348304 -0.32215273
2.6937511 5.8246765 0
0 0 0
0 0 -0
2.3972309 5.199996 -0.31983051
2.680176 5.8137507 0
0 0 0
0 0 -0
2.381182 5.1816411 -0.31852439
2.6742349 5.8193479 0
3.0212588 6.5744996 0.40414581
0 0 -0
2.3478661 5.1254573 -0.31489605
2.6747892 5.8391395 0
3.028461 6.6112142 0.40617749
0 0 -0
2.3675747 5.185019 -0.3183794
2.6536801 5.8115935 0
3.0118358 6.5959592 0.40501636
0 0 -0
2.34516 5.1523986 -0.31620216
2.6509686 5.8242707 0
3.0006335 6.5924964 0.4045808
0 0 -0
2.3593318 5.2001905 -0.31895995
2.6460776 5.8322048 0
2.980859 6.5700951 0.40298471
0 0 -0
2.3572609 5.2039795 -0.31910497
2.6404078 5.8290658 0
2.9758179 6.56953 0.40283969
0 0 -0
2.3456256 5.1949854 -0.3183794
2.6290789 5.8227639 0
2.9710827 6.5802188 0.40327471
0 0 -0
2.3286805 5.1741157 -0.31692773
2.6156306 5.8116927 0
2.9588637 6.5743256 0.40269414
0 0 -0
2.3330646 5.2006383 -0.3183794
2.6096706 5.8172212 0
2.9743185 6.6300588 0.40588748
0 0 -0
2.3193531 5.1868467 -0.31736329
2.6132653 5.8441329 0
2.9514532 6.6004338 0.40385526
0 0 -0
2.3152018 5.194397 -0.31765383
2.5977261 5.8282695 0
2.9519386 6.622982 0.40501636
0 0 -0
2.3036458 5.1853104 -0.31692773
2.5885665 5.826643 0
2.9228344 6.579051 0.40211359
0 0 -0
2.3036933 5.2023501 -0.31779885
2.5857394 5.8392849 0
2.9411843 6.641974 0.40574193
0 0 -0
2.3068476 5.2265224 -0.31910497
2.576582 5.8376479 0
2.9415505 6.6645403 0.40690306
0 0 -0
2.2973907 5.2221684 -0.31866941
2.5600955 5.8193197 0
2.867578 6.5182538 0.39775968
0 0 -0
2.3004694 5.2463555 -0.31997553
2.5561945 5.8295522 0
2.8732641 6.5526481 0.39964634
0 0 -0
2.3107781 5.2872272 -0.32229775
2.5533178 5.8421755 0
0 0 0
0 0 -0
2.3178773 5.3209825 -0.32418442
2.5431416 5.8381052 0
0 0 0
0 0 -0
2.3042054 5.3071017 -0.32316887
2.5309043 5.8292403 0
2.5142212 5.7908149 0.35262394
0 0 -0
2.2988222 5.3122644 -0.32331386
2.5269568 5.8394523 0
2.5113502 5.8033876 0.35320452
0 0 -0
2.298574 5.3293495 -0.32418442
2.5198991 5.8425016 0
2.5063922 5.8111854 0.3534945
0 0 -0
2.3106027 5.3750882 -0.32679665
2.5097573 5.838376 0
2.4983435 5.8118248 0.35334951
0 0 -0
2.3051324 5.3802719 -0.32694221
2.500649 5.8366156 0
2.4943902 5.8220067 0.35378507
0 0 -0
2.2914858 5.366323 -0.3259261
2.498704 5.8515973 0
2.4832718 5.8154578 0.35320452
0 0 -0
2.2982271 5.4001675 -0.32781276
2.4885771 5.8474355 0
2.472173 5.8088903 0.35262394
0 0 -0
2.2835832 5.3838034 -0.32665166
2.4815099 5.8504381 0
2.4742832 5.8334002 0.35393006
0 0 -0
2.286181 5.4080968 -0.32795778
2.4703856 5.8438439 0
3.6489084 8.6317091 0.52344406
0 0 -0
2.2806566 5.4132566 -0.32810333
2.4633226 5.8468246 0
3.6233459 8.6001997 0.52126735
0 0 -0
2.2834282 5.4290004 -0.32897389
2.4618058 5.8531051 0
3.6050539 8.5712519 0.51938069
0 0 -0
2.2738521 5.4245639 -0.32853833
2.4497023 5.8440766 0
3.6117704 8.6163387 0.52184796
0 0 -0
2.2652946 5.4225168 -0.32824832
2.4426391 5.8470325 0
3.5883327 8.5895205 0.5199607
0 0 -0
2.2577431 5.4228535 -0.32810333
2.4355721 5.8499794 0
3.5779512 8.5938501 0.5199607
0 0 -0
2.2491953 5.420773 -0.32781276
2.4285018 5.8529181 0
3.57653 8.6197739 0.52126735
0 0 -0
2.2356923 5.4066753 -0.32679665
2.425406 5.8654685 0
3.556181 8.6000719 0.51981568
0 0 -0
2.2261906 5.4021726 -0.32636166
2.4222832 5.8780193 0
3.5546961 8.6259823 0.5211218
0 0 -0
2.22262 5.4120626 -0.32679665
2.4112244 5.8713126 0
3.5403221 8.620657 0.52054125
2.1040478 5.1587811 -0.62099016
2.2065935 5.4102068 -0.32636166
2.3862164 5.8506126 0
3.5155537 8.6195631 0.5199607
2.0997586 5.1661072 -0.62156618
0 0 -0
2.3850269 5.8679619 0
3.4973128 8.6045561 0.51880014
2.0896308 5.1590514 -0.62041301
2.1964364 5.4227414 -0.32679665
2.3720708 5.8563619 0
3.4956918 8.6304493 0.52010626
2.084363 5.1639686 -0.62070107
0 0 -0
2.3727856 5.8785305 0
3.4940133 8.6563501 0.52141237
2.0771575 5.1640859 -0.62041301
2.1804192 5.4208083 -0.32636166
2.3637404 5.8765688 0
3.4641578 8.6123514 0.51850957
2.0709162 5.1665921 -0.62041301
0 0 -0
2.356638 5.8794208 0
3.4808183 8.6840639 0.52257347
2.0656302 5.1714902 -0.62070107
2.1605649 5.4091678 -0.32534555
2.3533936 5.8919311 0
3.4491198 8.6351805 0.51938069
2.063206 5.1835952 -0.62185425
2.1530676 5.4093628 -0.32520053
2.3453074 5.8923454 0
3.4367597 8.6345091 0.51909012
2.0540831 5.1788783 -0.62099016
2.1359906 5.3853889 -0.32360387
2.3458619 5.9145284 0
3.4320705 8.6531429 0.5199607
2.044971 5.1741381 -0.620125
2.1161125 5.3541384 -0.32157218
2.3339317 5.9052591 0
3.4254327 8.6669493 0.52054125
2.0453529 5.1934533 -0.62214333
2.1010728 5.3349342 -0.32026607
2.3248892 5.9032369 0
0 0 0
2.1243074 5.4131045 -0.96944577
2.0485232 5.2199936 -0.62502569
2.0851307 5.3132763 -0.3188144
2.3168011 5.9036121 0
0 0 0
2.1177649 5.4156675 -0.96944577
2.0422144 5.222465 -0.62502569
2.0834436 5.3278985 -0.31954053
2.3134573 5.9161024 0
3.3722305 8.6236563 0.51720345
2.1046984 5.4014859 -0.96645123
2.0349643 5.2225208 -0.62473768
2.0817204 5.3425155 -0.32026607
2.3053632 5.9164705 0
0 0 0
2.0977125 5.3931866 -0.96473938
2.0374327 5.2382083 -0.62646687
2.0690711 5.3195505 -0.3188144
2.3046193 5.9251413 0
3.3773158 8.6830273 0.52039623
2.0930479 5.4004998 -0.96559447
2.0329731 5.2454944 -0.62704402
2.0823603 5.3729243 -0.32186219
2.2880516 5.9036508 0
0 0 0
2.08005 5.3862691 -0.96259993
2.0247679 5.2431169 -0.62646687
2.0571487 5.3269663 -0.31895995
2.2809167 5.9064112 0
0 0 0
2.0726156 5.3863759 -0.96217078
0 0 -0
2.0656409 5.3682494 -0.32128218
2.2728446 5.9067364 0
0 0 0
2.0679455 5.3936749 -0.96302754
0 0 -0
2.0600824 5.3731656 -0.3214272
2.264775 5.9070506 0
0 0 0
2.0641761 5.4033656 -0.96431184
0 0 -0
2.0656424 5.4072042 -0.32331386
2.2613506 5.9195075 0
3.3489034 8.7663794 0.52416962
2.0549052 5.3986564 -0.96302754
0 0 -0
2.0554099 5.3999825 -0.32273331
2.2551215 5.9246655 0
3.3179746 8.7169981 0.52097684
2.0420074 5.3843312 -0.96003133
0 0 -0
0 0 -0
2.2461171 5.922524 0
3.3396864 8.8060293 0.52605629
2.0418527 5.4036064 -0.96302754
0 0 -0
0 0 -0
2.2417161 5.9325299 0
3.3207781 8.7881842 0.52475017
2.0308003 5.3940597 -0.96088809
0 0 -0
0 0 -0
2.235466 5.9376769 0
0 0 0
2.0260828 5.4013119 -0.96174318
0 0 -0
0 0 -0
0 0 0
0 0 0
2.0177591 5.3989515 -0.96088809
0 0 -0
0 0 -0
2.2256649 5.9552484 0
3.2907212 8.8050365 0.52504075
2.011234 5.4013858 -0.96088809
0 0 -0
0 0 -0
2.2121098 5.9408588 0
0 0 0
2.0038106 5.4013982 -0.96045887
0 0 -0
2.0259295 5.4610209 -0.32534555
2.211267 5.9606099 0
3.2866025 8.8592443 0.52779794
1.9955045 5.3990045 -0.95960379
1.9592947 5.3010359 -0.62992638
2.0256362 5.4805284 -0.32636166
2.2022569 5.9583902 0
0 0 0
1.9818829 5.3821402 -0.95618004
1.956463 5.313108 -0.63107955
2.0243981 5.4975977 -0.32723221
2.1977544 5.9683757 0
0 0 0
1.9815681 5.4014034 -0.95917624
1.9482584 5.310607 -0.63050246
2.0204396 5.5073605 -0.32766777
2.1914368 5.9734678 0
3.2526786 8.8662252 0.52750796
1.9768009 5.4086113 -0.96003133
1.9480562 5.3299646 -0.63252074
2.0200284 5.5268836 -0.32868388
2.1860058 5.9810052 0
3.2160962 8.7993755 0.52329904
1.966751 5.4013472 -0.95831949
1.9424987 5.3347425 -0.63280874
2.0160134 5.5366383 -0.32911888
0 0 0
0 0 0
1.9619755 5.4085507 -0.95917624
1.9633946 5.4124632 -0.6417461
2.0137517 5.5512815 -0.32984444
2.1813054 6.0131745 0
0 0 0
1.9545639 5.4084964 -0.95874703
1.9788295 5.4756422 -0.64895314
2.0096929 5.5610442 -0.33028001
2.1722708 6.0109158 0
3.2398138 8.9649267 0.53244239
1.9523777 5.4229374 -0.96088809
1.9827222 5.5072227 -0.65241158
2.004734 5.5683627 -0.33057055
2.1702938 6.028223 0
3.1541669 8.7610359 0.52010626
1.9466895 5.4277067 -0.96131563
1.9717011 5.4974437 -0.65097034
2.0015132 5.5805645 -0.33115113
2.1647673 6.0357451 0
0 0 0
1.9451387 5.4337111 -0.96217078
1.9736115 5.5132494 -0.65270066
2.000766 5.5891051 -0.33158612
2.1602407 6.0345945 0
3.1628006 8.835228 0.52416962
1.9420208 5.4457293 -0.96388263
1.9669484 5.5156298 -0.65270066
2.003613 5.618443 -0.33318278
2.1546974 6.0421076 0
0 0 0
1.9423139 5.4674234 -0.96730638
1.9706692 5.5472403 -0.6561591
1.999433 5.6282082 -0.33361834
2.1500096 6.0520663 0
0 0 0
1.9648228 5.5520415 -0.98185641
1.9760472 5.5837584 -0.66019571
1.9978307 5.6453128 -0.3344889
2.1452975 6.0620127 0
2.3271911 6.5759935 0.38963243
0 0 -0
1.9942365 5.6568804 -0.66855592
1.9944637 5.6575251 -0.33506948
2.1379712 6.0646005 0
2.2967832 6.515089 0.38585907
0 0 -0
2.0191047 5.7495685 -0.67922133
1.9936538 5.6770949 -0.33608559
2.1323681 6.0720954 0
2.2975173 6.5423713 0.38731021
0 0 -0
0 0 -0
1.9962282 5.7064724 -0.33768171
2.1267467 6.0795755 0
0 0 0
0 0 -0
0 0 -0
1.996172 5.7285104 -0.33884281
2.1245389 6.0968909 0
0 0 0
0 0 -0
1.9948572 5.7470756 -0.67806816
1.9960653 5.750556 -0.34000394
2.120584 6.1092882 0
0 0 0
0 0 -0
1.9887592 5.7519336 -0.6783573
1.9925117 5.7627869 -0.34058449
2.1174519 6.1241417 0
0 0 0
1.9834905 5.7592187 -0.67893332
1.9948555 5.7922177 -0.34218115
2.1168303 6.1463809 0
0 0 0
1.9773686 5.7640553 -0.67922133
1.995443 5.8167424 -0.34348726
2.1144674 6.1636996 0
2.2643592 6.600637 0.38977742
1.9829481 5.8031559 -0.68354601
1.9959741 5.8412766 -0.34479338
2.1103842 6.1761007 0
2.256382 6.6033683 0.38977742
2.0084338 5.9010339 -0.69478858
1.9981216 5.8707356 -0.3463895
2.1121447 6.2057495 0
2.2542629 6.6233115 0.39079353
2.0029645 5.90836 -0.69536573
2.0010376 5.9026761 -0.34813118
2.1071489 6.2156844 0
2.2520988 6.643259 0.39180967
2.0016136 5.9279227 -0.69738293
2.0013845 5.9272447 -0.3494373
2.114625 6.2626138 0
2.2573674 6.6853561 0.39413133
1.9944495 5.930337 -0.69738293
2.0049884 5.9616737 -0.35132396
2.1103745 6.2750311 0
2.2484603 6.6856184 0.39398634
2.0020714 5.9768929 -0.70257276
2.0035615 5.9813418 -0.35234007
2.1151876 6.3145852 0
2.2428572 6.695724 0.39442188
2.0194032 6.0529094 -0.71122098
2.0086687 6.0207338 -0.35451731
2.1083791 6.319603 0
2.2331188 6.6934948 0.39413133
2.0300295 6.1093397 -0.71756285
2.016958 6.0700011 -0.35727456
2.0958192 6.3073325 0
0 0 0
2.0258968 6.1216102 -0.71871603
2.0275812 6.1267004 -0.36046734
2.0890133 6.3123283 0
0 0 0
2.0201163 6.128962 -0.71929204
2.0283124 6.1538291 -0.36191902
2.0854573 6.3272042 0
2.3812773 7.2247119 0.42489979
2.013515 6.1338534 -0.71958005
2.0330293 6.1933007 -0.36409569
2.0778105 6.3297195 0
2.4009085 7.3139863 0.42997923
2.009809 6.1350689 -0.71958005
2.0341425 6.2093487 -0.36496681
2.0707452 6.3210807 0
2.3819301 7.2709923 0.427367
2.0007915 6.1325798 -0.71900403
2.0395303 6.251317 -0.36728847
2.0711796 6.3483248 0
0 0 0
2.0053697 6.1718936 -0.72332871
2.0375969 6.2710781 -0.36830458
2.0627038 6.3483496 0
2.3739846 7.3063731 0.42910814
2.0443916 6.3441157 -0.74293149
2.0431564 6.3402829 -0.37207794
2.0393724 6.3285408 0
2.353133 7.302196 0.42852756
2.0659635 6.4376922 -0.7535969
2.0434356 6.3674932 -0.37352961
2.0325186 6.3334761 0
2.3379591 7.2852497 0.427367
2.0810163 6.5116296 -0.76195711
2.0483932 6.4095502 -0.37585127
2.0264504 6.3408899 0
2.3291545 7.2880697 0.427367
2.0864806 6.556036 -0.7668578
2.0508935 6.4442167 -0.37773851
2.0195758 6.3458114 0
2.324286 7.3032565 0.42809257
2.1324739 6.7286782 -0.78674972
2.0509543 6.4714556 -0.37918964
2.0064051 6.3308878 0
2.3327289 7.3605494 0.43128535
2.1601455 6.8446975 -0.80000949
2.053299 6.5061402 -0.38107631
1.9917024 6.3109641 0
2.3293083 7.3807111 0.43230149
2.1921971 6.9756126 -0.81500071
2.0571225 6.5458026 -0.38325354
1.9918795 6.3381987 0
2.3172722 7.3736043 0.43172091
2.2030778 7.0399652 -0.82220775
2.0624037 6.5904388 -0.38572076
1.9818871 6.333147 0
0 0 0
2.2061098 7.0796552 -0.82653129
2.0621679 6.6177292 -0.38717189
1.9641687 6.3032389 0
0 0 0
2.2052202 7.1070237 -0.82941478
2.0595613 6.6375904 -0.388188
1.965806 6.3354349 0
0 0 0
2.2027364 7.1294432 -0.83171999
2.0645785 6.6822772 -0.39065522
1.9581494 6.3378057 0
0 0 0
2.1994448 7.1494069 -0.83373833
2.0656686 6.7145605 -0.39239636
1.9535509 6.3501167 0
0 0 0
2.2014086 7.1866775 -0.83777386
2.0674467 6.7493477 -0.39428303
1.9428277 6.3425193 0
0 0 0
2.2017779 7.2190199 -0.84123337
2.0759683 6.8065248 -0.39747638
1.9298474 6.3274345 0
0 0 0
2.203577 7.2563281 -0.84527004
2.0752914 6.8338866 -0.39892748
1.9320306 6.3621321 0
0 0 0
2.213521 7.3208776 -0.85247707
2.0850813 6.8960829 -0.40241084
1.919824 6.3495202 0
0 0 0
2.2173479 7.3656483 -0.85737777
2.0827394 6.9185028 -0.40357196
1.9241536 6.3917074 0
2.4414711 8.1101475 0.47308329
2.227752 7.432735 -0.86487281
2.0848212 6.9558563 -0.40560362
1.8902768 6.3067727 0
2.4600172 8.2076712 0.47859833
2.2202473 7.4403734 -0.86544883
2.087558 6.9957123 -0.40778029
1.8826549 6.309052 0
2.4396973 8.1757832 0.47656664
2.2290361 7.4863296 -0.87063754
2.0951953 7.0368185 -0.41010252
1.8803297 6.3151817 0
2.4414303 8.199667 0.47787276
2.2324846 7.5311718 -0.87553823
2.0992448 7.0816946 -0.41256976
1.8830514 6.3523769 0
2.4285669 8.1926451 0.47729221
2.22558 7.5413084 -0.87640339
2.0973053 7.1066537 -0.41387588
1.8709559 6.3396759 0
2.4120471 8.1731462 0.47598609
2.2237587 7.5688128 -0.87928689
2.1033664 7.1590438 -0.41677865
1.8728307 6.3743901 0
2.3999717 8.1685734 0.47555053
2.2175133 7.5814147 -0.88043892
2.1078434 7.2064667 -0.41939089
1.8607421 6.3616567 0
2.397393 8.1964025 0.47700164
2.2112434 7.5940218 -0.88159209
2.1064003 7.2339616 -0.42084256
2.2204664 7.6256967 0
0 0 0
2.2027881 7.5991797 -0.88188124
2.1099555 7.2789259 -0.4233098
2.2315357 7.6983533 0
0 0 0
2.1936042 7.6018357 -0.88188124
2.1112435 7.3164177 -0.42534149
2.229449 7.7260537 0
0 0 0
2.181561 7.5945368 -0.88072807
2.1181829 7.3739023 -0.42853427
2.2337618 7.7762599 0
2.5492892 8.8746872 0.51575238
2.1773586 7.6145678 -0.88274527
2.1171303 7.4039402 -0.43013093
2.2386739 7.8289976 0
2.5435627 8.8952417 0.51676792
2.1617842 7.5948067 -0.88015091
2.1081827 7.4064932 -0.43013093
2.2370505 7.8592334 0
2.5349474 8.9058084 0.51720345
2.1547215 7.6048813 -0.88101608
2.1126883 7.4565287 -0.43288818
2.2403212 7.9069967 0
3.1722863 11.196278 0.64999896
2.1427226 7.5975218 -0.8798629
2.1156669 7.5015888 -0.4353554
2.242774 7.9522767 0
3.1658101 11.225116 0.65145063
2.1321442 7.5951295 -0.87928689
2.1213486 7.5566735 -0.43840319
2.2451208 7.9975743 0
3.1543493 11.236431 0.65188563
2.1271405 7.6126418 -0.88101608
2.128999 7.6192937 -0.44188654
2.2515619 8.0579233 0
3.138674 11.232734 0.65145063
2.1241772 7.6376314 -0.88361043
2.1323223 7.6669173 -0.44449878
2.2529814 8.1007557 0
3.1278844 11.246531 0.65203118
2.1232276 7.670105 -0.88706994
2.1438525 7.7446117 -0.44885269
2.2591612 8.1611624 0
3.1177583 11.262822 0.65275675
2.1235752 7.7075701 -0.89110547
2.1641724 7.8549185 -0.4550938
2.258975 8.199007 0
3.1048367 11.269083 0.65290177
2.1190493 7.7275939 -0.89312381
2.1732314 7.9251809 -0.45901215
2.2669597 8.2669821 0
3.0932801 11.280347 0.6533373
2.1376307 7.8324504 -0.90494353
2.1780202 7.9804406 -0.46205994
2.2720423 8.3249454 0
6.6684947 24.433901 1.4146997
2.1288424 7.8375211 -0.90523154
2.1826785 8.0357237 -0.46510774
2.281764 8.4005156 0
6.6369224 24.434416 1.4142641
2.138267 7.9099903 -0.9133026
2.1838167 8.0784893 -0.46742997
2.28859 8.4660721 0
6.6067162 24.439911 1.4141191
2.1475224 7.9825029 -0.9213748
2.1828289 8.11374 -0.46931663
2.3006697 8.5517626 0
6.5839295 24.472963 1.4155703
2.1653008 8.0875273 -0.93319452
2.1837759 8.1565323 -0.47163889
2.3004289 8.5922384 0
6.5556993 24.485926 1.4158608
2.179769 8.1612997 -0.94155473
2.1889033 8.1954994 -0.47381556
2.3194132 8.684144 0
6.5435843 24.499914 1.4164408
2.1924944 8.2489119 -0.95135611
2.1810021 8.2056751 -0.47425112
2.3269665 8.7548428 0
9.8378162 37.013226 2.1391981
2.2043478 8.3340597 -0.96086836
2.1704218 8.2057943 -0.4741061
2.3376813 8.8381586 0
9.7871065 37.00248 2.137892
2.2146857 8.4142599 -0.96980572
2.1948955 8.3390703 -0.4816528
2.3435607 8.9038944 0
9.7404041 37.006737 2.1374564
2.2176237 8.4669714 -0.97557157
2.3006823 8.7840919 -0.50719565
2.3387341 8.9293756 0
9.6917334 37.003403 2.1365857
2.2223928 8.5272036 -0.98220146
2.2874479 8.7768173 -0.5066157
6.9602108 26.705961 0
9.6430836 37.000004 2.1357152
2.2153335 8.5423985 -0.98364264
2.2840145 8.8072357 -0.50821179
6.9220576 26.691683 0
9.6016302 37.024204 2.1364408
2.2218115 8.6101799 -0.99113768
2.2623343 8.7672186 -0.50574458
6.8852487 26.682384 0
9.2387714 35.802986 2.065326
2.2159095 8.6303968 -0.99315602
2.2530329 8.7749844 -0.50603515
6.853003 26.690685 0
9.1929188 35.804054 2.0647454
2.2170022 8.6781712 -0.99834472
3.4534476 13.51808 -0.77931839
6.8233242 26.709032 0
9.1522226 35.825207 2.065326
3.4396715 13.532316 -0.77989894
6.7897654 26.712217 0
9.1038074 35.816093 2.0641649
3.4099398 13.483562 -0.77685118
3.5270829 13.946769 0
9.061799 35.832111 2.0644555
3.3879395 13.464996 -0.77554506
3.5089595 13.945978 0
9.0121546 35.817829 2.0630038
3.3609409 13.426231 -0.77307779
3.492106 13.950208 0
8.9682388 35.826176 2.0628588
3.3440881 13.427764 -0.77293283
6.6505179 26.704315 0
8.9224319 35.826897 2.0622783
3.3303604 13.441883 -0.77351338
6.6151175 26.699703 0
8.8760118 35.825047 2.0615528
3.3396089 13.549326 -0.77946341
6.5809822 26.700094 0
8.8289852 35.820602 2.0606816
3.3535554 13.67701 -0.78657508
6.5443788 26.69034 0
8.7844601 35.826199 2.0603917
3.3388748 13.688628 -0.78701067
6.5145907 26.708342 0
8.7380867 35.824169 2.0596662
3.3198817 13.682551 -0.78643006
6.478631 26.701014 0
8.6898918 35.814499 2.0585048
3.3274443 13.859803 -0.79615343
6.4116564 26.70647 0
8.6039228 35.837917 2.05865
6.3799858 26.716726 0
8.5557852 35.828072 2.0574889
6.3566108 26.690207 0
8.5335369 35.830708 2.0573437
6.3243561 26.697868 0
8.4884386 35.833405 2.0569084
6.2908974 26.700418 0
8.443944 35.838581 2.0566182
6.2615991 26.720667 0
8.4006338 35.848759 2.0566182
6.2210388 26.692734 0
8.3520041 35.836109 2.0553122
6.1934824 26.720514 0
8.3069363 35.838577 2.0548766
6.1541767 26.697546 0
8.2659607 35.858719 2.0554571
6.1242394 26.715109 0
8.2185621 35.850948 2.054441
6.0896411 26.712341 0
8.171773 35.845657 2.0535705
6.0562105 26.714607 0
8.1261568 35.845367 2.05299
6.0256419 26.729515 0
8.0805531 35.84502 2.0524094
5.989357 26.719007 0
8.0372353 35.854759 2.0524094
5.9576335 26.728764 0
7.9888186 35.841621 2.0511034
5.9230804 26.725779 0
7.9438181 35.843632 2.0506678
5.8868623 26.715122 0
7.897707 35.840519 2.049942
5.8540215 26.719677 0
7.8560638 35.857655 2.0503776
5.8228383 26.731812 0
7.8110714 35.859501 2.049942
5.7861295 26.718489 0
7.7627873 35.846058 2.048636
5.7576737 26.743263 0
7.7194686 35.855412 2.048636
5.7204542 26.727299 0
7.67342 35.852013 2.0479105
5.6854477 26.721466 0
7.627389 35.848545 2.0471842
5.6483097 26.705404 0
7.5797658 35.837395 2.0460231
5.6364703 26.729183 0
7.558651 35.844517 2.0461688
5.600965 26.720686 0
7.5153341 35.853626 2.0461688
5.5670829 26.719799 0
7.4730659 35.867764 2.0464587
5.5332093 26.718859 0
7.426034 35.858963 2.0454433
5.5019693 26.730618 0
7.3800793 35.855175 2.0447171
5.4701896 26.739803 0
7.3351893 35.856438 2.0442822
5.4337277 26.72599 0
7.2877164 35.844902 2.0431211
5.3993688 26.722334 0
7.2459421 35.861317 2.043556
5.3660507 26.72373 0
7.2015834 35.864956 2.0432661
5.3322301 26.722546 0
7.1546826 35.855793 2.0422499
5.3014541 26.73662 0
7.1128693 35.872059 2.0426855
5.2666292 26.730242 0
7.0660028 35.862778 2.0416694
5.2318277 26.723818 0
7.0206676 35.861092 2.0410888
5.1980419 26.722454 0
6.975347 35.859344 2.0405083
5.1657495 26.728714 0
6.9320126 35.867748 2.0405083
5.1305056 26.719606 0
6.8886685 35.876099 2.0405083
5.0991907 26.730894 0
6.8428802 35.871635 2.0397825
5.0639815 26.721699 0
6.7990479 35.877327 2.0396376
5.030726 26.722679 0
6.7552123 35.882965 2.0394926
5.0003467 26.73897 0
6.7108932 35.885986 2.039202
4.9656582 26.732203 0
6.6637306 35.873631 2.0380409
4.9352427 26.748419 0
6.6199088 35.879105 2.0378959
4.8991661 26.733885 0
6.5751472 35.879417 2.037461
4.864996 26.729542 0
6.5313225 35.884773 2.0373154
4.8502402 26.740162 0
6.5101066 35.891273 2.037461
4.8174653 26.743444 0
6.4662724 35.896549 2.0373154
4.7856054 26.751804 0
6.4196916 35.88644 2.0362999
4.7500906 26.739628 0
6.3758698 35.891605 2.0361543
4.7164226 26.737667 0
6.3279839 35.873699 2.0347033
4.6809688 26.725399 0
6.2855306 35.88644 2.0349936
4.6500111 26.738731 0
6.2386026 35.873531 2.0338326
4.6137128 26.721241 0
6.1970201 35.891285 2.0344131
4.3211336 25.208344 0
6.1439886 35.842396 2.0312197
4.2884884 25.200722 0
4.2733955 25.11203 1.4228269
4.2467651 25.13917 0
6.0660105 35.908382 2.0341227
4.2138047 25.128887 0
6.0153127 35.872124 2.0316553
4.1808734 25.118553 0
5.982203 35.940884 2.0351388
4.1543369 25.146692 0
5.9243717 35.860924 2.0302043
4.1319504 25.200493 0
4.1157184 25.101496 1.4207953
4.0955153 25.36198 0
4.0074096 24.816376 1.4041046
4.078867 25.454277 0
3.9215095 24.472282 1.3843668
4.258564 26.78278 0
3.8829606 24.420551 1.381174
4.2253871 26.782759 0
3.8534503 24.425224 1.381174
4.1894007 26.764708 0
3.8263445 24.445261 1.3820446
4.1546621 26.754324 0
5.7664423 37.13353 2.0989969
4.1199536 26.743887 0
5.7366028 37.238052 2.1045117
4.1041913 26.748951 0
5.7180443 37.267193 2.105963
4.0706921 26.74617 0
5.6679277 37.240681 2.1040761
4.0375938 26.745916 0
0 0 0
4.004889 26.748205 0
0 0 0
3.9687443 26.727287 0
0 0 0
