# .PCD v0.7 - Point Cloud Data file format
VERSION 0.7
FIELDS x y z
SIZE 4 4 4
TYPE F F F
COUNT 1 1 1
WIDTH 1611
HEIGHT 1
VIEWPOINT 0 0 0 1 0 0 0
POINTS 1611
DATA ascii
3.4951193 1.9573609 -0.22375348
5.108726 2.8610239 0
5.1023259 2.8574398 0.32664496
2.5805087 1.4492531 -0.97587913
4.1234126 2.3157713 -0.78842509
5.0583944 2.8408713 -0.6466468
3.474627 1.9514035 -0.22259237
5.1007314 2.8646483 0
5.089807 2.8585131 0.32606441
2.5925541 1.458079 -0.98076731
4.1242566 2.319524 -0.7888543
5.0611815 2.8464603 -0.64722282
3.4598541 1.9458573 -0.22172125
5.1148715 2.8766561 0
5.108469 2.8730552 0.32737109
2.6058621 1.4697109 -0.98647285
4.1281524 2.3282855 -0.79013693
5.059989 2.853843 -0.64751083
3.4575002 1.9500364 -0.22172125
5.1091275 2.881557 0
5.1004629 2.8766704 0.32708052
2.582567 1.4606884 -0.97832167
4.1320415 2.3370643 -0.79142123
5.0520387 2.8574107 -0.64693481
3.4551415 1.9542128 -0.22172125
5.1056418 2.8877285 0
7.7860594 4.4037609 0.49964228
2.6195018 1.4857591 -0.99299258
4.1292148 2.3420553 -0.79142123
5.0553341 2.8673425 -0.64779997
3.4482617 1.9558247 -0.22143126
5.1112037 2.8990314 0
7.7852573 4.4157319 0.49993286
2.591924 1.4742594 -0.98321301
4.1241527 2.3457751 -0.79099369
5.0586042 2.8772814 -0.648664
3.4571869 1.9664121 -0.22215681
5.0805511 2.8897648 0
7.7595906 4.4135747 0.49862674
2.5729654 1.4675936 -0.97669327
4.1235428 2.3520272 -0.79142123
5.0596213 2.885957 -0.64924115
3.4435251 1.9641521 -0.22143126
5.0883565 2.9023473 0
7.754252 4.4229474 0.49862674
2.5668952 1.4682447 -0.97506177
4.1184716 2.3557348 -0.79099369
5.0583735 2.8933516 -0.64952916
3.4501715 1.9734721 -0.2220118
5.0938821 2.9136622 0
7.7737064 4.4465013 0.50022286
2.5801289 1.4799547 -0.98076731
4.1289783 2.3683705 -0.79356068
5.048141 2.8955996 -0.648664
3.4545398 1.9815145 -0.22244681
5.0858474 2.9172277 0
7.7818561 4.4636507 0.50109398
2.5933383 1.4916989 -0.98647285
4.1194358 2.3695166 -0.79227638
5.0513668 2.9055672 -0.64952916
3.4701624 1.9960519 -0.22360793
5.0890884 2.9272649 0
7.7809577 4.4756393 0.50138396
2.5808311 1.4886578 -0.98239881
4.1188002 2.3757789 -0.7927056
5.0456138 2.9103775 -0.64924115
3.4790087 2.0067387 -0.22433405
5.0878 2.934711 0
5.1714549 2.9829645 0.33346665
2.5811677 1.4930115 -0.98321301
4.1203661 2.383322 -0.79356068
5.046567 2.9190598 -0.64981717
3.4878256 2.0174448 -0.2250596
5.0819998 2.9395547 0
5.1858325 2.9996142 0.33462721
2.5472901 1.4775264 -0.97098774
4.1241474 2.3921642 -0.79484499
5.0452714 2.9264519 -0.65010524
3.5146034 2.0386055 -0.22694628
5.082942 2.9483023 0
5.2181673 3.0267382 0.33694944
2.5668719 1.4930326 -0.97913897
4.1190367 2.3958564 -0.79441744
5.0417318 2.9325459 -0.65010524
3.5727766 2.0781214 -0.23086461
5.0793757 2.9544418 0
0 0 0
2.5885446 1.5098275 -0.98810124
4.1250086 2.4060051 -0.79612929
5.0404253 2.9399426 -0.65039432
3.6129115 2.1073127 -0.2336224
5.0892863 2.968442 0
0 0 0
2.5547225 1.4942399 -0.97587913
4.1243124 2.4122825 -0.79655689
5.0390997 2.9473355 -0.65068233
3.6215751 2.1182349 -0.23434797
5.0834517 2.9732764 0
5.234077 3.0613763 0.33869112
2.5912862 1.5198311 -0.99054694
4.1236067 2.4185615 -0.79698443
5.0399928 2.9560366 -0.65125841
3.6302178 2.1291809 -0.23507352
5.0776124 2.9781013 0
5.2236481 3.0637534 0.33825555
2.5745327 1.5141888 -0.98484135
4.1206813 2.4235423 -0.79698443
5.036417 2.9621243 -0.65125841
3.6343639 2.1375191 -0.23550908
5.0829835 2.9895117 0
5.2177048 3.0687468 0.33811057
2.5620587 1.5110217 -0.98076731
4.1199589 2.4298224 -0.79741198
5.0350685 2.9695253 -0.65154749
3.6295338 2.1405852 -0.23536353
5.0883341 3.0009398 0
5.2095208 3.0724118 0.33782056
2.5219417 1.4914721 -0.9660995
4.119236 2.4361093 -0.79784119
5.02702 2.9729714 -0.65097034
3.6314223 2.1476171 -0.23565409
5.0847044 3.0070858 0
5.2013268 3.0760562 0.33753002
2.5775306 1.5285541 -0.98810124
4.1184955 2.4423931 -0.79826874
5.0301003 2.9830027 -0.6518355
3.6310575 2.1533275 -0.23579909
5.0833035 3.0145538 0
5.1797266 3.0717354 0.33636889
2.5310721 1.5051396 -0.97098774
4.115541 2.4473677 -0.79826874
5.0287132 2.9903991 -0.65212351
3.6195192 2.152401 -0.23521852
5.0796576 3.0206938 0
5.17378 3.0766649 0.3362239
2.5738292 1.5347785 -0.98810124
4.1169863 2.4549656 -0.79912382
5.0206575 2.9938262 -0.65154749
3.6347702 2.1674194 -0.23637964
5.0760036 3.0268292 0
5.2124643 3.108201 0.33898169
2.5401592 1.5188648 -0.97587913
4.114017 2.4599385 -0.79912382
5.0259161 3.0052001 -0.65270066
3.6299207 2.1704774 -0.23623464
5.0790458 3.0369685 0
5.1841712 3.0998271 0.337385
2.5361962 1.5206583 -0.97506177
4.1242557 2.4728305 -0.80169249
5.0289297 3.0152571 -0.65356469
3.6295218 2.1761968 -0.23637964
5.0798321 3.0457773 0
5.1559052 3.0913894 0.33578834
2.5513029 1.53391 -0.98158151
4.1234627 2.4791336 -0.80212003
5.0186391 3.0173368 -0.65270066
3.6246648 2.1792433 -0.23623464
5.0783768 3.0532527 0
5.1588492 3.101635 0.3362239
2.5546148 1.5380032 -0.98321301
4.1219645 2.4816244 -0.80212003
5.0190291 3.0217011 -0.65298867
3.6122191 2.1747327 -0.23550908
5.0854497 3.0616896 0
5.1525264 3.1020732 0.33593389
2.5527546 1.5410888 -0.98321301
4.123354 2.489254 -0.80297512
5.0242314 3.0331104 -0.65414184
5.1333032 3.0989568 -0.33492446
5.0862064 3.0705247 0
0 0 0
2.5678055 1.5544116 -0.98973274
4.1313295 2.500885 -0.80511624
5.0139227 3.0351596 -0.65327668
5.1273341 3.1038129 -0.33477947
5.0869412 3.0793612 0
0 0 0
2.5426824 1.5434047 -0.98076731
4.1392746 2.5125339 -0.80725563
5.014678 3.0439024 -0.65385383
0 0 -0
5.0743179 3.0801039 0
5.1545711 3.1288176 0.33680445
2.5429249 1.5477597 -0.98158151
4.1274648 2.5121951 -0.80554378
5.0330858 3.0634046 -0.6567362
5.1020617 3.1053867 -0.33361834
5.0772638 3.0902934 0
5.1530042 3.1363933 0.33694944
2.5199597 1.5379578 -0.97343343
4.1178503 2.5131671 -0.80425948
4.1374784 2.5251462 -0.54027164
5.1049533 3.1156063 -0.33405334
5.0757456 3.0977805 0
5.1514268 3.1439698 0.33709446
2.5686955 1.5719647 -0.99299258
4.1126232 2.5168023 -0.80383188
4.1653142 2.5490477 -0.54430825
5.1034074 3.1231327 -0.33419889
5.0764427 3.1066308 0
5.152061 3.1529071 0.337385
2.5604725 1.5711881 -0.99054694
4.1095791 2.5217698 -0.80383188
4.1578178 2.5513706 -0.54373115
5.1018429 3.1306546 -0.33434391
5.077117 3.1154821 0
5.1593189 3.1659241 0.33811057
2.5459459 1.5665119 -0.98565871
4.1021519 2.5240405 -0.80297512
4.1569328 2.5577469 -0.54401916
5.102478 3.1395376 -0.33463392
5.0777864 3.1243448 0
5.1621313 3.1762421 0.33854613
2.5314262 1.561798 -0.98076731
4.0947342 2.5263021 -0.80212003
4.1494412 2.5600543 -0.54344308
5.0920529 3.1416116 -0.33419889
5.0695734 3.1277425 0
5.1582899 3.1824772 0.33854613
2.5316372 1.5661546 -0.98158151
4.0894976 2.5298986 -0.80169249
4.1375465 2.5596232 -0.54228991
5.1037154 3.1573274 -0.33521447
5.0657907 3.1338658 0
5.1588559 3.1914392 0.33883613
2.5318494 1.5705191 -0.98239881
4.0864377 2.5348382 -0.80169249
4.1300588 2.5618966 -0.54171389
4.1107063 2.5498922 -0.27019534
5.0686369 3.1441014 0
5.1792874 3.2127385 0.34043279
2.5131598 1.5631341 -0.97587913
4.0920911 2.5451972 -0.80340433
4.1269603 2.566885 -0.54171389
4.1098266 2.5562284 -0.27034032
5.071466 3.1543484 0
0 0 0
2.5091658 1.5648578 -0.97506177
4.0868282 2.5487773 -0.80297512
4.1128759 2.5650222 -0.54027164
4.1023297 2.558445 -0.27005032
5.0698571 3.1618497 0
0 0 0
2.5240381 1.5783722 -0.98158151
4.0815711 2.5523539 -0.80254757
4.1141639 2.5727353 -0.54084873
4.0948329 2.5606472 -0.26976034
5.0638285 3.166595 0
0 0 0
2.5158529 1.5774857 -0.97913897
4.0741386 2.554559 -0.80169249
4.1110525 2.5777047 -0.54084873
4.0829301 2.5600717 -0.26917976
4.074451 2.554755 0
0 0 0
2.5034769 1.5739431 -0.97506177
4.0753913 2.5622101 -0.80254757
4.1035509 2.5799143 -0.54027164
4.0776277 2.5636163 -0.26903421
4.091188 2.5721416 0
4.0577302 2.5511065 0.26772141
2.5287602 1.5941052 -0.98565871
4.0657754 2.5630243 -0.80126327
4.0982447 2.5834928 -0.53998363
4.072331 2.567157 -0.26888922
4.0704646 2.5659804 0
4.0612411 2.5601659 0.26815695
2.5289195 1.5984789 -0.98647285
4.0756993 2.5761673 -0.80383188
4.0907516 2.5856814 -0.53940755
4.078012 2.5776291 -0.26946977
4.0629659 2.5681186 0
4.0647364 2.5692377 0.26859251
2.5083609 1.5939808 -0.97995317
4.0586309 2.5791264 -0.80169249
4.080121 2.5927825 -0.53883046
4.056417 2.5777197 -0.26845366
4.0479617 2.5723464 0
0 0 0
2.4939222 1.5890391 -0.97506177
4.0663342 2.5909243 -0.80383188
4.0769854 2.5977108 -0.53883046
4.0532994 2.5826192 -0.26845366
4.0426579 2.5758386 0
0 0 0
2.5336571 1.6186644 -0.99136108
4.0610394 2.594455 -0.80340433
4.0673022 2.5984561 -0.5379653
4.0458007 2.5847197 -0.26816365
4.037343 2.5793164 0
4.0391283 2.580457 0.26772141
2.5160224 1.6095395 -0.98484135
4.0551419 2.5941389 -0.80254757
4.0700936 2.6037033 -0.53854239
4.0398564 2.5843604 -0.26787311
4.0248246 2.574744 0
4.033195 2.5800989 0.26743141
2.5078406 1.608579 -0.98239881
4.0520048 2.5990367 -0.80254757
4.0669446 2.6086195 -0.53854239
4.0345459 2.5878382 -0.26772809
4.0260959 2.5824182 0
0 0 0
2.518364 1.6196271 -0.98728704
4.0574975 2.6094851 -0.80425948
4.0420394 2.5995436 -0.53566003
4.0292325 2.5913072 -0.2675831
4.0142169 2.5816503 0
4.022573 2.5870242 0.26714084
2.5101717 1.6186492 -0.98484135
4.0414014 2.6060414 -0.80169249
4.0345435 2.6016195 -0.53508294
4.0173635 2.5905409 -0.26700252
4.0176501 2.5907259 0
4.0107174 2.5862556 0.26656085
2.4874623 1.6082642 -0.97669327
4.0447106 2.6151001 -0.80297512
4.0357456 2.609304 -0.53566003
4.0273185 2.6038556 -0.26787311
4.0123334 2.5941668 0
4.0075898 2.5910997 0.26656085
2.489661 1.6139549 -0.97832167
4.0393958 2.6185906 -0.80254757
4.0304132 2.6127675 -0.53537095
4.0176344 2.6044836 -0.26743808
4.0070143 2.5975988 0
4.0022693 2.5945227 0.2664153
2.5187957 1.6371678 -0.99054694
4.0362287 2.6234694 -0.80254757
4.0207534 2.6134109 -0.53450686
4.0101233 2.6065013 -0.26714754
4.0082326 2.6052723 0
3.9926016 2.5951126 0.26598027
2.4898987 1.6226683 -0.97995317
4.0352044 2.6297448 -0.80297512
4.0240874 2.6224997 -0.53537095
4.004796 2.6099274 -0.26700252
3.9985468 2.605855 0
3.9959877 2.604187 0.2664153
2.4982796 1.6324342 -0.98402721
4.0298772 2.6332157 -0.80254757
4.0144262 2.6231198 -0.53450686
4.0059938 2.61761 -0.2672931
3.9932103 2.6092567 0
3.9884918 2.6061735 0.26612529
2.4818313 1.6259692 -0.97832167
4.0331364 2.6423049 -0.80383188
4.0112538 2.6279685 -0.53450686
4.0049996 2.6238711 -0.26743808
3.9878798 2.6126552 0
3.9831684 2.6095684 0.26598027
2.5005267 1.642539 -0.98647285
4.0170631 2.6387172 -0.80126327
4.0080752 2.6328135 -0.53450686
4.0061655 2.6315589 -0.26772809
3.98472 2.6174717 0
3.9778342 2.6129487 0.26583472
2.4944079 1.6428376 -0.98484135
4.0245972 2.6506331 -0.80340433
4.0070491 2.6390758 -0.53479487
3.998647 2.6335421 -0.26743808
3.9837258 2.6237147 0
3.974674 2.6177533 0.26583472
2.4903605 1.6444899 -0.98402721
4.0192432 2.6540754 -0.80297512
4.0017014 2.6424916 -0.53450686
3.9976282 2.6398022 -0.2675831
3.9805527 2.6285264 0
3.9693418 2.6211233 0.26568973
2.4780693 1.6406769 -0.97995317
4.0203185 2.661767 -0.80383188
4.0028143 2.650178 -0.53508294
3.9944355 2.6446307 -0.2675831
3.9730377 2.6304636 0
3.9705093 2.6287894 0.26598027
2.4801996 1.6464012 -0.98158151
4.0149627 2.6652043 -0.80340433
3.9996092 2.6550126 -0.53508294
3.9717553 2.6365228 -0.26627699
3.9655242 2.6323862 0
3.9738183 2.6378922 0.2664153
2.4967244 1.6617203 -0.98891544
4.0160093 2.6728957 -0.80425948
4.0028601 2.664144 -0.53594804
3.9815414 2.6499553 -0.26714754
3.9601676 2.6357298 0
3.966306 2.6398151 0.26612529
2.470052 1.6482782 -0.97913897
4.010643 2.6763227 -0.80383188
4.0017872 2.670413 -0.53623605
3.9740179 2.6518824 -0.26685753
3.95698 2.6405129 0
3.9566271 2.6402774 0.26568973
2.4783278 1.6581322 -0.98321301
4.0138092 2.6854506 -0.80511624
3.9964101 2.6738098 -0.53594804
3.9729683 2.6581259 -0.26700252
3.9537866 2.6452923 0
3.9577575 2.647949 0.26598027
2.4742718 1.6597501 -0.98239881
4.0126915 2.6917272 -0.80554378
3.9931765 2.6786366 -0.53594804
3.9654419 2.6600323 -0.26671255
3.952755 2.6515217 0
3.954555 2.6527293 0.26598027
2.4927695 1.6765294 -0.99054694
4.0094361 2.6965737 -0.80554378
3.9877927 2.6820176 -0.53566003
3.9557543 2.66047 -0.26627699
3.9473825 2.6548393 0
3.957809 2.6618519 0.2664153
2.4763954 1.6698661 -0.98484135
3.9997876 2.6971095 -0.80425948
3.984549 2.6868341 -0.53566003
3.9633067 2.6725101 -0.26700252
3.9441717 2.6596072 0
3.9438198 2.6593697 0.26568973
2.449805 1.6562455 -0.97506177
4.0050325 2.7076917 -0.80597132
3.9877217 2.6959884 -0.53652412
3.9493134 2.6700218 -0.26627699
3.9388013 2.6629148 0
3.9513648 2.6714084 0.2664153
2.484632 1.6841691 -0.98973274
3.9975119 2.709651 -0.80511624
3.9801834 2.6979051 -0.53594804
3.9546881 2.6806235 -0.26685753
3.9377329 2.6691308 0
3.9416876 2.6718113 0.26598027
2.4601068 1.6718869 -0.98076731
3.996356 2.7159207 -0.80554378
3.9747834 2.7012601 -0.53566003
3.9407024 2.6780987 -0.26613197
3.9302042 2.670964 0
3.9448977 2.6809497 0.2664153
2.4499147 1.6692914 -0.97750747
3.9951909 2.7221916 -0.80597132
3.9822018 2.7133415 -0.53710121
3.9524889 2.6930962 -0.26714754
3.9248254 2.674247 0
3.9309206 2.6784 0.26568973
2.4652393 1.6819148 -0.98402721
3.9999092 2.7289464 -0.80725563
3.9677382 2.7069979 -0.53537095
3.9401309 2.6881626 -0.26642197
3.9253566 2.6780829 0
3.9293017 2.6807745 0.26568973
2.4550452 1.6793107 -0.98076731
3.9923673 2.7308762 -0.80639887
3.9730039 2.7176311 -0.53652412
3.9454587 2.6987896 -0.26700252
3.9199719 2.6813562 0
3.9217744 2.6825891 0.26539972
2.4428246 1.6752878 -0.97669327
3.9933028 2.7386048 -0.80725563
3.9633241 2.7180455 -0.53566003
3.9357641 2.6991448 -0.26656699
3.9188733 2.6875613 0
3.9035275 2.677037 0.26438361
2.4509799 1.6852386 -0.98076731
3.9878693 2.7419693 -0.80682641
3.9621663 2.7242963 -0.53594804
3.9367862 2.7068458 -0.26685753
3.919908 2.6952405 0
3.8703179 2.6611435 0.26235193
2.4489417 1.6881989 -0.98076731
3.990896 2.7511582 -0.80811077
3.969517 2.7364204 -0.53738922
3.9313753 2.7101271 -0.26671255
3.9123671 2.6970236 0
3.8157547 2.6304231 0.2588686
2.4428375 1.6883489 -0.97913897
3.9812315 2.7515984 -0.80682641
3.9725931 2.7456281 -0.53825438
3.8789313 2.6808944 -0.26337418
3.9133832 2.7047055 0
3.7976084 2.6246886 0.25785246
2.4428253 1.6927058 -0.97995317
3.9842358 2.7607946 -0.80811077
3.9671404 2.7489488 -0.5379653
3.7496827 2.5982659 -0.25481138
3.9037011 2.7049897 0
3.7837572 2.621877 0.25712693
2.469192 1.7153959 -0.99136108
3.9808969 2.7656066 -0.80811077
3.961694 2.7522659 -0.53767729
3.6569161 2.5405309 -0.2487158
3.9068356 2.7141547 0
3.7827184 2.627928 0.25727192
2.4367013 1.6971929 -0.97913897
3.9838738 2.7748179 -0.80939507
3.9541247 2.7540972 -0.53710121
3.6453147 2.5390072 -0.24813524
3.9099619 2.7233372 0
3.796598 2.6443777 0.25843304
2.4285676 1.6958894 -0.97669327
3.9847236 2.7825661 -0.81025016
3.9677589 2.7707198 -0.53940755
3.6401157 2.5419238 -0.24799024
3.9002652 2.7235882 0
3.8530519 2.6906188 0.26249695
2.4427145 1.7101628 -0.98321301
3.9813585 2.7873788 -0.81025016
3.9601665 2.7725422 -0.53883046
3.6370418 2.5463202 -0.24799024
3.8969712 2.7282989 0
3.8561859 2.6997447 0.26293251
2.4406464 1.7131131 -0.98321301
3.9884992 2.7995658 -0.81239122
3.9610517 2.7803001 -0.53940755
3.6424696 2.5566845 -0.2485708
3.8958082 2.7345052 0
0 0 0
2.4446404 1.7203294 -0.98565871
3.9788136 2.7999496 -0.81110692
3.9619157 2.7880583 -0.53998363
3.6500008 2.5685594 -0.24929635
3.8925011 2.7392104 0
0 0 0
2.4344816 1.7175826 -0.98239881
3.9838178 2.8106747 -0.81281883
3.9564326 2.7913539 -0.53969556
3.7381864 2.6373763 -0.25553694
3.8891885 2.7439117 0
3.8888302 2.743659 0.26583472
2.4243331 1.7148138 -0.97913897
3.9804187 2.8154864 -0.81281883
3.9572761 2.7991168 -0.54027164
3.8240917 2.704911 -0.2616325
3.8794942 2.7440989 0
3.8855124 2.7483559 0.26583472
2.4101589 1.7091608 -0.97424763
3.9874816 2.8277173 -0.81495821
3.9581146 2.8068917 -0.54084873
3.8716905 2.745604 -0.26511586
3.8825462 2.7533023 0
3.8800709 2.7515471 0.26568973
2.420182 1.7206675 -0.97913897
3.9882424 2.8355052 -0.81581336
3.9779022 2.8281538 -0.54401916
3.8620148 2.7457616 -0.2646803
3.8898199 2.7655303 0
3.8809831 2.7592475 0.26598027
2.4120612 1.7192854 -0.97669327
3.9994481 2.8507538 -0.81880951
3.9681695 2.8284588 -0.54315507
3.8311889 2.7308209 -0.26279363
3.8822329 2.7672043 0
3.8839879 2.7684553 0.2664153
2.409982 1.7221986 -0.97669327
4.0147958 2.8690155 -0.8226608
3.9668515 2.8347538 -0.54344308
3.7813799 2.702214 -0.25960085
3.8810017 2.7734048 0
3.8890965 2.7791893 0.26699585
2.4058921 1.7236713 -0.97587913
4.0342832 2.8903115 -0.82736886
3.9739342 2.8470752 -0.54488432
3.7464256 2.6840796 -0.25742361
3.8839967 2.7826407 0
3.8794048 2.779351 0.26656085
2.4198673 1.7381121 -0.98239881
4.0641475 2.9191451 -0.83421636
3.9746966 2.8548956 -0.54546142
3.6925366 2.6522293 -0.25394082
3.8911982 2.7949216 0
3.8760436 2.7840364 0.26656085
2.4217727 1.7439206 -0.98402721
4.0960288 2.949554 -0.8414914
3.9565496 2.8491147 -0.54344308
3.6619191 2.636951 -0.25205415
3.8878183 2.7996213 0
3.8726768 2.7887177 0.26656085
2.4207187 1.7453834 -0.98402721
2.9383063 2.1185739 -0.99941778
4.2399921 3.0571136 -0.87144661
4.7646136 3.4353752 -0.65471786
3.6434636 2.6270053 -0.25089303
3.8903522 2.8050165 0
3.8815279 2.7986541 0.26728639
2.4166069 1.7468606 -0.98321301
2.9337053 2.1206486 -0.99872363
4.3319917 3.1314094 -0.8911323
4.7436895 3.429008 -0.65241158
3.636071 2.6283584 -0.25060248
3.9185913 2.8325801 0
3.8928785 2.8139935 0.26830196
2.4264984 1.7584786 -0.98810124
2.9331782 2.1256683 -0.99941778
4.3448339 3.1486926 -0.89455605
4.74792 3.4408083 -0.65356469
3.6307905 2.6312265 -0.25045747
3.9257085 2.8449533 0
3.8957896 2.823271 0.26873752
2.3823829 1.7309024 -0.97098774
4.343101 3.1554475 -0.89498359
4.7374878 3.4419863 -0.65270066
3.6128912 2.6249189 -0.24944136
5.0549483 3.6726351 0
3.9070928 2.8386691 0.26975363
2.3942764 1.7439675 -0.97669327
4.3309851 3.1546474 -0.89327174
4.7500505 3.4598908 -0.655007
3.6097167 2.6292827 -0.24944136
5.0441942 3.6741421 0
3.9162579 2.8525641 0.27062419
2.3981574 1.7512335 -0.97913897
4.3188777 3.1538227 -0.89155984
4.7542138 3.4717233 -0.6561591
3.5477874 2.5907409 -0.245378
5.041851 3.6817677 0
3.8876264 2.8389053 0.26888251
2.4099939 1.7643458 -0.98484135
4.3129945 3.1575239 -0.8911323
4.7750592 3.4957998 -0.65961856
3.4628916 2.5351675 -0.23971799
5.047904 3.6955481 0
3.8590336 2.8251812 0.26714084
2.3959088 1.7584848 -0.97995317
4.3133187 3.1657739 -0.89198905
4.7770891 3.5061595 -0.66048372
3.4221156 2.5116725 -0.23710521
5.0434351 3.7016449 0
3.8535242 2.8283062 0.26699585
2.3858194 1.7555192 -0.97669327
4.3115563 3.1725032 -0.8924166
3.6312649 2.6719353 -0.50250727
3.4065247 2.5065684 -0.23623464
5.0473351 3.7138999 0
3.8647566 2.8437419 0.26801196
2.3956265 1.7672013 -0.98158151
4.305656 3.1761882 -0.89198905
3.644685 2.6886046 -0.50481361
3.4097688 2.5153117 -0.2366702
5.0365672 3.7153654 0
3.8383138 2.8314402 0.2664153
2.4093871 1.7818518 -0.98810124
4.301815 3.1813884 -0.89198905
3.6435194 2.6945488 -0.50510269
3.3983703 2.5132499 -0.23608965
5.0404439 3.7276382 0
3.7993755 2.8098116 0.26394805
2.411207 1.7877086 -0.98973274
4.2917795 3.1819959 -0.89070475
0 0 -0
3.3869817 2.5111639 -0.23550908
5.0401134 3.7368231 0
3.798063 2.8159463 0.26409304
2.3773067 1.7670299 -0.97669327
4.2858729 3.1856494 -0.89027721
3.6162345 2.6879134 -0.50221926
3.383945 2.5152545 -0.23550908
5.0418625 3.7475693 0
3.8113413 2.8329344 0.26525417
2.3868921 1.7831256 -0.98239881
4.2637644 3.1852415 -0.887281
3.6180167 2.7028363 -0.50337243
3.3695297 2.5172043 -0.23492852
5.0327916 3.7597425 0
5.2324653 3.9089088 0.36481512
2.3985782 1.7963755 -0.98810124
4.2516937 3.1842356 -0.88556916
3.6064672 2.7010043 -0.50221926
3.3602443 2.5165994 -0.23449297
4.0075946 3.0014219 0
0 0 0
2.3687387 1.7784992 -0.97669327
4.2416825 3.1847453 -0.88428479
3.6011348 2.7038083 -0.50193119
3.359277 2.5222166 -0.23463796
4.0102105 3.0109513 0
0 0 0
2.3883116 1.7977117 -0.98565871
2.8941715 2.178479 -0.99941778
4.2357821 3.1883259 -0.88385725
3.601994 2.7112656 -0.50250727
3.3500047 2.5215902 -0.23420297
4.0148869 3.0220551 0
5.1725845 3.8934686 0.36162177
2.3900797 1.803571 -0.98728704
4.2175808 3.1826162 -0.8808611
3.5987153 2.715616 -0.50250727
3.3490276 2.5272 -0.23434797
4.0091491 3.025332 0
5.1429944 3.8809397 0.35988066
2.3701606 1.7930386 -0.97995317
4.2075963 3.1830683 -0.87957841
3.5975001 2.7215273 -0.50279635
3.3480418 2.5328109 -0.23449297
3.9951148 3.0223248 0
5.1486607 3.8949881 0.36060619
2.3778369 1.8033674 -0.98402721
2.8822541 2.1859207 -0.99803209
4.1955657 3.1819451 -0.87786657
3.5921423 2.7243047 -0.50250727
3.3325608 2.5274363 -0.2336224
3.9893885 3.025579 0
5.1522317 3.9074872 0.36118677
2.3599162 1.7942719 -0.97750747
2.8656368 2.1787775 -0.99318898
4.1978426 3.1916687 -0.8791492
3.5909128 2.7302132 -0.50279635
3.3357038 2.5361748 -0.23405741
3.9712257 3.0193696 0
0 0 0
2.3518474 1.7926258 -0.97506177
2.8570144 2.1776743 -0.99111181
4.1756101 3.1827347 -0.8752979
3.5814381 2.7298448 -0.50193119
3.3305724 2.5386298 -0.23391241
3.9613712 3.0194376 0
0 0 0
2.3645194 1.8045441 -0.98076731
2.8497133 2.1748326 -0.98903465
4.171648 3.183701 -0.87487036
3.5859585 2.736717 -0.50279635
3.3228393 2.5359106 -0.23347685
3.9512708 3.0155146 0
5.1383333 3.921452 0.36104122
2.3603761 1.8058995 -0.97995317
2.8530629 2.1828489 -0.99111181
4.1576061 3.1809416 -0.87273091
3.5888059 2.7457583 -0.50366044
3.315649 2.5367689 -0.23318686
3.9269512 3.0044699 0
5.1294675 3.9245028 0.36075121
2.3640778 1.8132644 -0.98239881
2.8305206 2.1710293 -0.98419154
4.1578293 3.1890845 -0.87358606
3.5998535 2.7611132 -0.50567871
3.3167012 2.5439334 -0.23347685
3.9026716 2.9933767 0
5.1288414 3.9338579 0.36104122
2.35992 1.8146086 -0.98158151
2.8318691 2.1775033 -0.98557454
4.1519399 3.1925428 -0.87315851
3.6149664 2.779649 -0.50827312
3.3177485 2.5511098 -0.23376741
3.8784249 2.9822295 0
5.1364479 3.9495587 0.36191231
2.3498957 1.8114229 -0.97832167
2.8610272 2.20543 -0.99664915
4.1440167 3.1944258 -0.87230337
3.6197991 2.7903314 -0.5094263
3.3558233 2.5868449 -0.2366702
3.8624475 2.9773774 0
5.1357837 3.9589319 0.36220232
2.3418436 1.8097314 -0.97587913
2.8385055 2.193542 -0.98972619
4.1462417 3.2041352 -0.87358606
3.620522 2.7978692 -0.51000339
3.4698808 2.6814566 -0.24494246
3.8609042 2.9836321 0
5.120718 3.9571917 0.36147675
2.3631017 1.830724 -0.98565871
2.8378417 2.1985109 -0.99042034
4.1464295 3.21229 -0.87444282
3.6089599 2.7959058 -0.50885022
3.7357168 2.8941057 -0.26395476
3.8572965 2.9882948 0
5.1159329 3.9633763 0.36147675
2.3530798 1.8275138 -0.98239881
2.8272576 2.1957829 -0.98765171
4.1445708 3.2188711 -0.87487036
3.6014895 2.7970884 -0.50827312
3.7609441 2.9209282 -0.26598641
3.8434076 2.9849734 0
5.1131907 3.9711473 0.36162177
2.3606191 1.8379463 -0.98647285
2.82658 2.2007372 -0.98834318
4.136631 3.2207255 -0.87401527
3.5858662 2.7919073 -0.50654387
3.7553637 2.9238758 -0.26584142
3.8274813 2.9800255 0
5.1063399 3.9757278 0.36147675
2.360343 1.8423165 -0.98728704
2.8258946 2.2056932 -0.98903465
4.1367798 3.2288775 -0.87487036
3.5702527 2.7866862 -0.50481361
3.6596618 2.8564727 -0.25931084
3.7582281 2.9334066 0
5.1076794 3.9866929 0.36191231
2.3620045 1.8482105 -0.98891544
2.8172982 2.2044666 -0.98695755
4.1308556 3.2322931 -0.87444282
3.5587347 2.7846227 -0.50366044
3.5682094 2.7920363 -0.2530697
3.6378627 2.8465381 0
5.1028585 3.9928617 0.36191231
2.3597696 1.8510631 -0.98891544
2.816612 2.2094221 -0.98765171
4.1289649 3.2388649 -0.87487036
3.5451941 2.7809403 -0.50221926
3.4932818 2.7402191 -0.24799024
3.5218043 2.7625928 0
5.1000729 4.0006266 0.36205733
2.3381064 1.8386379 -0.98076731
2.8001342 2.2019668 -0.98280591
4.1230326 3.2422664 -0.87444282
3.5438626 2.7868192 -0.50250727
3.4817982 2.7380133 -0.24740969
3.4714098 2.7298441 0
5.0972757 4.0083909 0.36220232
2.3455863 1.8491111 -0.98484135
2.8171694 2.2208772 -0.98972619
4.1170979 3.2456582 -0.87401527
3.5364339 2.7878997 -0.50193119
3.4417603 2.7132649 -0.24479745
3.4578917 2.7259822 0
5.0944753 4.0161605 0.36234787
2.3375385 1.8473508 -0.98239881
2.8105509 2.2211716 -0.98834318
4.1151853 3.2522206 -0.87444282
3.5249457 2.7857559 -0.50077802
3.4180889 2.7013071 -0.24334578
3.448468 2.7253158 0
5.1201925 4.0464759 0.36452454
2.3469245 1.85938 -0.98728704
2.8098297 2.2261224 -0.98903465
4.1132627 3.2587833 -0.87487036
3.5256279 2.7932224 -0.5013541
3.4127874 2.7038233 -0.24320078
3.4370129 2.723016 0
5.1539993 4.0833197 0.36728233
2.3291926 1.8499171 -0.98076731
2.8110707 2.2326396 -0.99042034
4.1133461 3.2669473 -0.87572712
3.5161798 2.792659 -0.50049001
3.39324 2.6950164 -0.24203967
3.4377999 2.7304072 0
5.1612663 4.0992374 0.36815289
2.3366218 1.8604262 -0.98484135
2.798552 2.2282166 -0.98695755
4.1073818 3.2703114 -0.8752979
3.5107737 2.79529 -0.50020093
3.3533945 2.6699841 -0.23942743
3.4304223 2.7313139 0
5.1847649 4.1281271 0.37018457
2.340169 1.8678752 -0.98728704
2.7899809 2.2269058 -0.98488301
4.109448 3.2800777 -0.87658221
3.5114405 2.8027601 -0.50077802
3.2831497 2.6205432 -0.23463796
3.4311917 2.7387071 0
5.1797729 4.1343889 0.37018457
2.3398383 1.8722442 -0.98810124
2.7970805 2.238111 -0.98834318
4.1094942 3.2882514 -0.87743896
3.5120864 2.8102298 -0.5013541
3.2495534 2.6001613 -0.23246129
3.4156914 2.7330985 0
5.1646309 4.1325293 0.369459
2.3086603 1.8518767 -0.97587913
2.7943742 2.2414889 -0.98834318
4.1115198 3.2980287 -0.87872165
3.5147431 2.8193283 -0.50221926
3.2160034 2.5796962 -0.23028407
3.4103506 2.7355905 0
5.1555839 4.1355181 0.36916903
2.3468676 1.8871893 -0.99299258
2.7857966 2.2401459 -0.98626602
4.1115365 3.3062148 -0.87957841
3.5254452 2.8349204 -0.50423753
3.1946611 2.5689268 -0.22897795
3.3948779 2.7299271 0
5.1404605 4.1336045 0.36844346
2.3176425 1.8683043 -0.98158151
2.7948105 2.2529604 -0.99042034
4.101541 3.3063455 -0.87829411
3.5200055 2.8375564 -0.50394952
3.1814418 2.5646327 -0.22825238
3.3895526 2.7323954 0
5.1253409 4.1316538 0.36771736
2.3250005 1.8788753 -0.98565871
2.7901294 2.2547543 -0.98972619
4.109519 3.320977 -0.8808611
3.5226038 2.8466799 -0.50481361
3.1682374 2.5603104 -0.22752683
3.3963675 2.7446663 0
5.1122608 4.1313109 0.36713678
2.304647 1.86473 -0.97750747
2.7868183 2.254863 -0.98903465
4.1055179 3.321846 -0.8804335
3.5228996 2.8504393 -0.50510269
3.1666901 2.5622239 -0.22752683
3.4028015 2.7532656 0
5.0936117 4.1213298 0.36597621
2.3369403 1.8955359 -0.99217528
2.7899387 2.2629714 -0.99111181
4.1054926 3.3300416 -0.88129026
3.5174384 2.85306 -0.50481361
3.1736803 2.5742314 -0.22825238
3.4439347 2.7934399 0
5.0724835 4.1143861 0.36481512
2.3308165 1.8952427 -0.99054694
2.7735751 2.2552602 -0.98626602
4.1134124 3.3447139 -0.88385725
3.5139885 2.8573079 -0.50481361
3.1705675 2.5780642 -0.22825238
3.5374718 2.8764029 0
5.059444 4.113955 0.36423454
2.3017077 1.8761981 -0.97913897
2.770848 2.2586098 -0.98626602
4.1033964 3.3448143 -0.88257295
3.5105333 2.8615518 -0.50481361
3.1654379 2.5802531 -0.22810739
3.6126676 2.9448049 0
5.0584941 4.1233459 0.36452454
2.2956076 1.875847 -0.97750747
2.7817173 2.2730699 -0.99111181
4.1033316 3.3530219 -0.88342971
3.5050724 2.8641565 -0.5045256
3.1743867 2.5939381 -0.22897795
3.6675391 2.9969158 0
5.0514979 4.1278124 0.36437955
2.3181934 1.8989791 -0.98810124
2.7750835 2.2732468 -0.98972619
4.0913339 3.3514705 -0.88171786
3.4996099 2.8667521 -0.50423753
3.1853228 2.6092997 -0.22999406
3.6840518 3.0178401 0
5.0344496 4.1240363 0.363509
2.319721 1.9049188 -0.98973274
2.7684608 2.273417 -0.98834318
4.0872812 3.3564117 -0.88171786
3.5081329 2.8808243 -0.50596678
3.1922064 2.6213903 -0.23071963
3.6944757 3.0338459 0
5.0234365 4.1251678 0.36307344
2.3078785 1.8998677 -0.98565871
2.7618344 2.2735684 -0.98695755
4.08917 3.3662441 -0.88300216
3.514632 2.8932788 -0.50740796
3.1810122 2.6186397 -0.23013906
3.7109036 3.0548513 0
5.0124278 4.1262789 0.36263788
2.2865143 1.8869202 -0.97750747
2.7706985 2.2864878 -0.99111181
4.0831141 3.3695438 -0.88257295
3.5191133 2.9041085 -0.50856113
3.179848 2.6241336 -0.23028407
3.7031913 3.0560169 0
4.9954176 4.1224122 0.36176732
2.2956629 1.8991375 -0.98239881
2.7563319 2.280236 -0.98695755
4.0869517 3.3810203 -0.88428479
3.5275629 2.9182539 -0.5102914
3.1706665 2.6230035 -0.2298485
3.6954894 3.0571747 0
4.9904327 4.1284451 0.36176732
2.310487 1.9161083 -0.98973274
2.7651651 2.2931769 -0.99111181
4.0907674 3.3925109 -0.8859967
3.5240343 2.922514 -0.5102914
3.1754954 2.6334674 -0.23042907
3.6737654 3.0466874 0
4.9754343 4.1261735 0.36104122
2.3062642 1.9173141 -0.98891544
2.7527483 2.2884989 -0.98765171
4.0985126 3.4073009 -0.8885653
3.5145316 2.921808 -0.5094263
3.1743147 2.6389685 -0.23057462
4.9227958 4.0925694 0
4.9584599 4.1222186 0.36017063
2.3058498 1.9216862 -0.98973274
2.7480481 2.2902126 -0.98695755
4.0943928 3.4122508 -0.8885653
3.5109987 2.9260526 -0.5094263
3.169122 2.6411338 -0.23042907
4.9218421 4.1018438 0
4.9494872 4.1248832 0.35988066
2.2940443 1.9165492 -0.98565871
2.7472098 2.2951446 -0.98765171
4.0902667 3.4171956 -0.8885653
3.4856243 2.9120498 -0.50625479
3.1679282 2.646632 -0.23057462
4.9148865 4.1061206 0
4.936523 4.1241965 0.35930008
2.3106716 1.9351861 -0.99380678
2.7482774 2.3016808 -0.98903465
4.094007 3.4287283 -0.89027721
3.4781411 2.9129412 -0.50567871
3.1627302 2.6487846 -0.23042907
4.9059353 4.1087179 0
4.913609 4.1151447 0.35799396
2.291297 1.9236752 -0.98647285
2.7435749 2.3033884 -0.98834318
4.0996895 3.4419241 -0.8924166
3.4449034 2.8921938 -0.5013541
3.155551 2.6492658 -0.23013906
4.9069409 4.119658 0
4.8927126 4.1077123 0.35683286
2.275732 1.9153003 -0.98076731
2.7427073 2.3083155 -0.98903465
4.0974894 3.4485266 -0.89284414
4.3635335 3.6724341 -0.63569224
3.1543336 2.6547484 -0.23028407
4.9019594 4.1255841 0
3.3371358 2.8085983 0.24362965
2.3055289 1.9451417 -0.99462098
2.7418318 2.3132441 -0.98972619
4.0854716 3.4468536 -0.8911323
4.3630428 3.6810365 -0.63626826
3.1531076 2.6602318 -0.23042907
4.8949838 4.1298275 0
3.3238115 2.8042521 0.24290408
2.2767601 1.925584 -0.98321301
2.7256312 2.3052194 -0.98488301
4.09306 3.461731 -0.89369929
4.3487191 3.6779561 -0.63482708
3.1439447 2.6590106 -0.22999406
4.8939605 4.1390972 0
3.3224027 2.8099425 0.24304909
2.2763152 1.9299304 -0.98402721
2.7362335 2.3198633 -0.98972619
4.0927944 3.4699974 -0.89455605
4.3482137 3.6865499 -0.63540316
3.138742 2.6611223 -0.2298485
4.8889556 4.1450076 0
3.3031492 2.8005118 0.24188797
2.2777519 1.9358838 -0.98565871
2.7124062 2.3053007 -0.98211437
4.0944686 3.4799292 -0.89584035
4.3417873 3.6901278 -0.63511509
3.1335461 2.6632318 -0.2297035
3.5692654 3.0335538 0
3.3096607 2.8129134 0.24261352
2.2641194 1.9290141 -0.98076731
2.7153494 2.3134592 -0.98419154
4.0941648 3.4882004 -0.89669544
4.3353586 3.6936955 -0.63482708
3.1224141 2.6602755 -0.22912295
3.5339015 3.0108597 0
3.3418658 2.8472466 0.24522632
2.2956128 1.9606385 -0.99543512
2.7201755 2.3232493 -0.98695755
4.087997 3.4914792 -0.89626789
4.3269548 3.6955686 -0.63424999
3.1191974 2.6640463 -0.22912295
3.4966204 2.9863958 0
3.4312835 2.930593 0.25204745
2.2707195 1.9441277 -0.98565871
2.7116547 2.3216443 -0.98488301
3.2940648 2.8202877 -0.7229498
4.3323154 3.7092097 -0.63569224
3.1159761 2.6678133 -0.22912295
3.4673114 2.9686167 0
3.5461626 3.0361271 0.26075527
2.2695446 1.9454992 -0.98565871
2.7140572 2.3265445 -0.98626602
3.3138011 2.8406568 -0.72765785
4.3261428 3.7084565 -0.63511509
3.1183133 2.6730809 -0.22941351
3.4714391 2.9757874 0
3.49698 2.9976816 0.25727192
2.2728105 1.953068 -0.98810124
2.7093432 2.3281887 -0.98557454
3.3220441 2.8546941 -0.73022485
3.3800983 2.9045811 -0.49674252
3.1111357 2.6734564 -0.22912295
3.4698205 2.9816809 0
3.3317635 2.8630459 0.24537131
2.2891786 1.9719471 -0.99625248
2.7141311 2.3380103 -0.98834318
3.3127558 2.8536782 -0.72894049
3.284488 2.8293278 -0.48319361
3.1059363 2.6755195 -0.22897795
3.5017037 3.0164418 0
3.312552 2.8535025 0.2442102
2.2624774 1.9537133 -0.98565871
2.7075028 2.3380055 -0.98695755
3.315136 2.8627138 -0.73022485
3.179271 2.7453907 -0.46820238
3.1027012 2.6792705 -0.22897795
3.4862418 3.0104685 0
3.4192276 2.9526 0.25233746
2.2582409 1.9548234 -0.98484135
2.7141654 2.3494899 -0.99042034
3.303911 2.859997 -0.72851294
3.1544459 2.7306139 -0.46503201
3.0974989 2.6813185 -0.22883295
3.4668601 3.0010524 0
3.270287 2.8308909 0.24159797
2.2708113 1.9705098 -0.99136108
2.7018449 2.3445418 -0.98695755
3.3101451 2.8723977 -0.73065239
3.1394193 2.7242491 -0.46330169
3.0903277 2.6816499 -0.22854239
3.4298177 2.9762442 0
3.1981802 2.7752395 0.2365185
2.2567303 1.9678712 -0.98728704
2.6980677 2.3527176 -0.98765171
3.3186724 2.8938856 -0.73407614
3.0977407 2.7012331 -0.45811298
3.0858023 2.6908228 -0.22868794
3.389272 2.9554486 0
3.1581726 2.7539296 0.23405127
2.2636535 1.9787283 -0.99136108
2.7065523 2.3658795 -0.99180335
3.3151731 2.8978934 -0.73407614
3.0983655 2.7083755 -0.458689
3.0825489 2.6945496 -0.22868794
3.3739381 2.9492617 0
3.1567972 2.7594521 0.23419628
2.6904819 2.3575728 -0.98695755
3.3097403 2.900207 -0.73364854
3.0912039 2.7087111 -0.45811298
3.0773308 2.6965547 -0.22854239
4.9166026 4.3082428 0
4.9044304 4.2975764 0.36423454
2.2532926 1.9792979 -0.98891544
2.6838651 2.3575139 -0.98557454
3.3081605 2.9058964 -0.73407614
3.0859873 2.7107391 -0.45782498
3.07212 2.6985579 -0.22839738
4.90944 4.3124647 0
4.9128938 4.3154984 0.36525011
2.2471929 1.9787555 -0.98728704
2.6847765 2.3640678 -0.98695755
3.302722 2.9081969 -0.73364854
3.0730057 2.7059212 -0.45638379
3.0708053 2.7039835 -0.22854239
4.9198513 4.3321524 0
0 0 0
2.2410979 1.9782012 -0.98565871
2.67816 2.3639929 -0.98557454
3.3011284 2.9138825 -0.73407614
3.087184 2.7250354 -0.45897815
3.0655897 2.7059741 -0.22839738
4.9204607 4.343256 0
4.8849196 4.3118839 0.36394399
2.2683151 2.0071073 -0.99869502
2.6771786 2.3688881 -0.98626602
3.3072159 2.9263732 -0.73621553
3.1013205 2.7441878 -0.4615725
3.081774 2.7268922 -0.2298485
4.9366508 4.3681703 0
4.8797064 4.3177834 0.36394399
2.2474015 1.9934487 -0.99054694
2.6836967 2.3804433 -0.98972619
3.3132854 2.9388893 -0.73835659
3.1328282 2.7788236 -0.4667612
3.0979199 2.74786 -0.23130018
4.9586225 4.3983064 0
4.8822613 4.3305736 0.36452454
2.2376029 1.9895935 -0.98728704
2.6714463 2.3753507 -0.98626602
3.3576896 2.985533 -0.74905539
3.1584637 2.8083887 -0.47108588
3.115952 2.7705889 -0.2328963
4.9844222 4.4319634 0
4.8809123 4.3399262 0.36481512
2.6760654 2.3852541 -0.98903465
3.4039006 3.0339947 -0.76018173
3.2052655 2.8569455 -0.47858092
3.1436381 2.8020153 -0.23521852
5.0082073 4.4639592 0
4.8776026 4.347548 0.3649601
2.2291057 1.9917047 -0.98565871
2.658215 2.3751135 -0.98349738
3.4346852 3.0688894 -0.76788431
3.2423129 2.8970046 -0.48463479
3.1538157 2.8179324 -0.23623464
5.0125113 4.4786758 0
4.8859115 4.3655591 0.36597621
2.2561479 2.0207746 -0.99869502
2.6516092 2.3749793 -0.98211437
3.4500928 3.0901608 -0.77216315
3.2465167 2.9078228 -0.48578796
3.1581507 2.8286757 -0.2368152
5.0245414 4.5003548 0
4.8980513 4.3870606 0.36728233
2.2316353 2.0036843 -0.98891544
2.6599345 2.3882346 -0.98626602
3.4539969 3.1011875 -0.773875
3.2237513 2.8944604 -0.48290446
3.156662 2.834224 -0.2369602
5.0132885 4.501205 0
4.9256139 4.4224858 0.36974958
2.2163582 1.9948099 -0.98321301
2.6682386 2.40152 -0.99042034
3.4521534 3.1070745 -0.7743026
3.0972204 2.7876205 -0.46445486
3.1648271 2.8484693 -0.23783131
5.0097861 4.5090051 0
4.9685493 4.4718904 0.37337792
2.2378008 2.0190086 -0.99380678
2.6467044 2.3879335 -0.98349738
3.4541166 3.1164038 -0.7755869
3.0074415 2.7134008 -0.4514831
3.1748824 2.8644707 -0.23884687
5.0004659 4.5115652 0
3.6358693 3.2803864 0.27352697
2.2188635 2.0067918 -0.98647285
2.6549847 2.4012299 -0.98765171
3.4560618 3.1257427 -0.7768712
2.9696279 2.6858003 -0.44629326
3.1887615 2.88399 -0.24015298
3.8002992 3.437079 0
3.6396115 3.2917492 0.27410755
2.6465037 2.3993795 -0.98557454
3.4560826 3.1333616 -0.77772629
2.947222 2.6720173 -0.4434109
3.1852746 2.887841 -0.24015298
3.6476846 3.3070722 0
3.6394777 3.2996318 0.27439755
2.6584554 2.4160738 -0.99111181
3.4541991 3.1392667 -0.77815551
2.9439914 2.6755764 -0.4434109
3.1933241 2.9021766 -0.24102411
3.4087389 3.0979512 0
5.0545554 4.5937123 0.38150516
2.2146177 2.015147 -0.98728704
2.6532805 2.4142995 -0.98972619
3.4598966 3.1482637 -0.77986741
2.9423742 2.6773546 -0.4434109
3.1858027 2.8988574 -0.24058855
3.3491161 3.0474613 0
5.0440917 4.5897703 0.38092461
2.2340939 2.0378091 -0.99706662
2.6429472 2.4107411 -0.98695755
3.45609 3.152442 -0.77986741
2.9467809 2.68788 -0.44456407
3.1765366 2.8974497 -0.24015298
3.3108253 3.0199399 0
5.021266 4.5801034 0.3796185
2.1951489 2.0071504 -0.98076731
2.643739 2.4173217 -0.98834318
3.4390152 3.1444883 -0.7768712
2.9549804 2.7019076 -0.44629326
3.1538603 2.883755 -0.23870188
3.2956536 3.0134046 0
5.015728 4.5861673 0.3796185
2.2255154 2.0398588 -0.99543512
2.6389685 2.4188209 -0.98765171
3.4314246 3.145169 -0.77601445
3.0260699 2.7736297 -0.45753583
3.1235595 2.8629866 -0.2366702
3.2862527 3.0121076 0
7.9312286 7.2695913 0.60094434
2.2030339 2.0241566 -0.98647285
2.6286542 2.4152184 -0.98488301
3.435183 3.1562603 -0.77772629
3.157938 2.9015265 -0.47800377
3.0856526 2.8351102 -0.23405741
3.2826107 3.0160761 0
3.5084136 3.2235448 0.26612529
2.2078586 2.0335147 -0.98973274
2.634959 2.4268892 -0.98834318
3.4578054 3.1847594 -0.78371871
3.2533593 2.9964576 -0.49299499
3.0592966 2.817719 -0.2323163
3.271307 3.0129879 0
3.5064256 3.2295403 0.26627028
2.1890578 2.0210929 -0.98239881
2.6135955 2.4130561 -0.9814229
3.4332056 3.1697783 -0.77901065
3.2877364 3.035471 -0.49875972
3.0539751 2.8196456 -0.23217073
3.267664 3.0169384 0
7.8781004 7.2736192 0.59891266
2.2029378 2.0388443 -0.98973274
2.6254005 2.4298384 -0.98695755
3.4143012 3.1599751 -0.7755869
3.289763 3.0447135 -0.49962488
3.0486605 2.8215704 -0.23202574
3.2659242 3.0226505 0
4.9993677 4.6269727 0.38048905
2.6187878 2.4295995 -0.98557454
3.391665 3.1466422 -0.77130806
3.2879758 3.0504436 -0.49991289
3.047152 2.8270178 -0.23217073
3.2584577 3.0230579 0
4.9861536 4.6259408 0.3799085
2.1817172 2.0290148 -0.98239881
2.6195209 2.4361758 -0.98695755
3.3803413 3.1437452 -0.76959616
3.2805033 3.050895 -0.49933687
3.0437341 2.8306975 -0.23217073
3.2490833 3.0216742 0
4.9862709 4.6372728 0.38034406
2.6165752 2.4393392 -0.98695755
3.3652706 3.137321 -0.76702756
3.2787044 3.0566185 -0.49962488
3.034615 2.8290627 -0.23173574
3.24543 3.0255978 0
7.7820406 7.2549171 0.59426874
2.2038894 2.0595899 -0.99462098
2.6081324 2.4373651 -0.98488301
3.3577299 3.1378829 -0.76617241
3.2863436 3.0711706 -0.5013541
3.0330911 2.8344998 -0.23188074
3.2493775 3.0366249 0
7.7694683 7.2607632 0.59397823
2.1707368 2.0335274 -0.98076731
2.6051853 2.4405148 -0.98488301
3.3501925 3.1384311 -0.76531732
3.3052814 3.0963588 -0.50481361
3.0410383 2.8488181 -0.23275129
3.2381089 3.033432 0
7.7493153 7.2594905 0.59310764
2.2061126 2.0716777 -0.99788082
2.6241803 2.4642694 -0.99318898
3.3576221 3.153017 -0.76788431
3.490077 3.2774005 -0.5336417
3.0546398 2.8684976 -0.23405741
3.234441 3.0373423 0
3.8102989 3.5781088 0.29195872
2.1784158 2.0506275 -0.98647285
2.6084118 2.4553998 -0.98834318
3.3556774 3.1588297 -0.76831186
3.5200105 3.3135231 -0.53883046
3.0700955 2.8900003 -0.23550908
3.2269824 3.0376842 0
3.8135409 3.5898345 0.29253927
2.2010996 2.0770028 -0.99788082
2.6017902 2.4551027 -0.98695755
3.3555958 3.166409 -0.76916862
3.4275942 3.2343483 -0.52528155
3.0987275 2.9240229 -0.23797631
3.2233095 3.0415812 0
3.7921934 3.5783916 0.29123315
2.1896124 2.0711703 -0.99380678
2.5860691 2.4461818 -0.98211437
3.3443077 3.1634052 -0.76745677
3.354161 3.1727257 -0.514615
3.1178448 2.9491923 -0.23971799
3.2007217 3.0275862 0
3.7727649 3.568686 0.29007205
2.187108 2.0738146 -0.99380678
2.5958498 2.4613831 -0.98695755
3.3460658 3.1727376 -0.7687394
3.3165448 3.1447456 -0.5094263
3.1312473 2.9690468 -0.24102411
3.1857338 3.0207107 0
3.7477071 3.5535736 0.28847536
2.1899769 2.0815656 -0.99625248
2.5910571 2.4627912 -0.98626602
3.3496726 3.1838527 -0.77045131
3.2977448 3.1344953 -0.50711995
3.1276577 2.9728281 -0.24102411
3.1651061 3.0084229 0
3.7565963 3.5706322 0.28949147
2.1677749 2.0654542 -0.98728704
2.5880792 2.4659202 -0.98626602
3.3421094 3.1843596 -0.76959616
3.3014452 3.1456146 -0.50827312
3.1259427 2.9783959 -0.24116911
3.1407411 2.9924958 0
3.7635629 3.5859201 0.29036203
2.1706414 2.073195 -0.98973274
2.5959866 2.4794455 -0.99042034
3.3475394 3.1972589 -0.77173561
3.3013864 3.1531777 -0.50885022
3.1167026 2.9767849 -0.24073355
3.1371229 2.9962885 0
5.0951796 4.8664427 0.39355078
2.1877677 2.0946133 -0.99869502
2.5911715 2.4808404 -0.98972619
3.3529432 3.2101762 -0.773875
3.2938337 3.1535835 -0.50827312
3.0887053 2.9571896 -0.23884687
3.1316221 2.9982789 0
5.0761628 4.8600221 0.39253521
2.1727576 2.0852804 -0.99299258
2.5755069 2.4718144 -0.98488301
3.3916619 3.25511 -0.78371871
3.2937567 3.1611466 -0.50885022
3.0570145 2.9339359 -0.2366702
3.1298728 3.003861 0
5.0684137 4.8643546 0.39239022
2.1786263 2.0934427 -0.99625248
2.581249 2.4803231 -0.98765171
3.4526258 3.3176291 -0.79826874
3.2955728 3.1667168 -0.5094263
3.0271349 2.9087746 -0.23449297
3.1261828 3.0039499 0
5.0523567 4.8548112 0.39137411
2.1760952 2.0960736 -0.99625248
2.5836656 2.4886565 -0.98972619
3.648278 3.5141199 -0.84448594
3.2824314 3.1617265 -0.50798506
3.0105157 2.8998101 -0.23347685
3.1281757 3.0131433 0
5.0408707 4.8555026 0.39093855
2.155777 2.0815301 -0.98810124
2.5806568 2.4917765 -0.98972619
3.7363615 3.6076777 -0.86588347
3.2413952 3.1297584 -0.50221926
3.0070097 2.9034455 -0.23347685
3.1357622 3.0277636 0
5.0256557 4.8525672 0.39021298
2.1514862 2.0824161 -0.98728704
2.5668316 2.4844275 -0.98557454
3.739378 3.6193311 -0.86759531
3.0666354 2.9681859 -0.47569743
3.0165708 2.9197288 -0.23449297
3.128365 3.0279338 0
5.027257 4.8658648 0.39079353
2.1489682 2.0850141 -0.98728704
2.5656264 2.4892724 -0.98626602
3.7792196 3.6667485 -0.87786657
2.9646699 2.8764403 -0.46041933
3.0391459 2.9487 -0.23652464
3.1359074 3.0425818 0
5.0120511 4.8628902 0.39006799
2.1641622 2.1048384 -0.99543512
2.5590234 2.4888759 -0.98488301
3.8483887 3.7428973 -0.89498359
3.6750047 3.574266 -0.57140607
3.0635238 2.9795468 -0.23870188
3.1527526 3.0663297 0
5.0005817 4.8635063 0.38963243
2.1563132 2.1022806 -0.99299258
2.5685833 2.5042202 -0.98972619
3.932091 3.8335614 -0.91552603
3.6614251 3.5696778 -0.56996489
3.0859654 3.0086377 -0.24073355
3.1769917 3.097383 0
4.990984 4.8659205 0.38934243
2.1661398 2.1169722 -0.99869502
2.5565863 2.4985561 -0.98626602
3.9586647 3.8688099 -0.92280108
3.6478622 3.565062 -0.56852371
3.1009147 3.0305295 -0.24218522
3.2048862 3.1321409 0
4.9925342 4.8792124 0.38992298
2.1353383 2.0919204 -0.98565871
2.5661118 2.5139349 -0.99111181
3.9503162 3.8699942 -0.92194432
3.0061576 2.9450331 -0.46906754
3.0786855 3.0160866 -0.24073355
3.2029564 3.1378305 0
4.9754944 4.8743272 0.38905185
2.5541241 2.5082462 -0.98765171
3.936481 3.8657727 -0.91980487
3.0173602 2.9631615 -0.47137389
3.0583551 3.0034201 -0.23942743
3.204735 3.1471705 0
4.9733124 4.8839803 0.38934243
2.160218 2.1265492 -0.99951231
2.5367887 2.4972508 -0.98211437
3.9372971 3.8759308 -0.92108917
3.026675 2.9795015 -0.47339109
3.0417597 2.9943514 -0.23841132
3.2009299 3.1510406 0
4.9637003 4.8863368 0.38905185
2.1576469 2.1291578 -0.99951231
2.5462644 2.5126441 -0.98695755
3.9435706 3.8915005 -0.92365617
3.0120299 2.9722595 -0.4716619
3.0418422 3.0016782 -0.23870188
3.1971202 3.154906 0
4.9651909 4.8996315 0.38963243
2.1374977 2.1143785 -0.99136108
2.559284 2.5316026 -0.99318898
3.9425192 3.8998768 -0.92451292
3.0176287 2.9849899 -0.47310308
3.0511463 3.0181448 -0.23971799
3.1970098 3.1624308 0
4.9666562 4.9129367 0.39021298
2.1261678 2.1082599 -0.98728704
2.5419714 2.5205615 -0.98765171
3.9560292 3.9227092 -0.92879176
3.01035 2.9849951 -0.47252706
3.0604079 3.0346313 -0.24073355
3.1931863 3.1662915 0
4.9459553 4.9042978 0.38905185
2.5478189 2.5324724 -0.99111181
3.9440038 3.9202476 -0.92707992
3.0177441 2.9995673 -0.47425625
3.0751715 3.0566487 -0.24218522
3.1801238 3.1609688 0
4.9455562 4.9157677 0.38948742
2.5376482 2.5284662 -0.98834318
3.9447212 3.9304478 -0.92836422
3.0122871 3.0013876 -0.47396824
3.0898795 3.0786991 -0.24363634
3.1744602 3.1629739 0
4.9359279 4.9180679 0.38919687
2.1429906 2.1404028 -0.99869502
2.5292645 2.5262101 -0.98626602
3.9399691 3.9352114 -0.92836422
3.00683 3.0031991 -0.47368023
3.0898306 3.0860994 -0.24392633
3.1651103 3.161288 0
4.9391799 4.9332151 0.38992298
2.5386221 2.5416915 -0.99111181
3.9261355 3.9308825 -0.92622316
3.0050251 3.0086582 -0.47396824
3.0952861 3.0990283 -0.24465245
3.1668072 3.1706362 0
4.9332151 4.9391799 0.38992298
2.521383 2.5305395 -0.98557454
3.9232001 3.9374473 -0.92665237
2.9995637 3.0104566 -0.47368023
3.0897 3.1009202 -0.2445069
3.1593037 3.1707766 0
4.9290757 4.9469757 0.39006799
2.53778 2.5531585 -0.99318898
3.9093928 3.9330833 -0.92451292
2.9995673 3.0177441 -0.47425625
3.0749633 3.0935972 -0.24363634
3.1462984 3.1653645 0
4.926755 4.9566102 0.39035797
2.1065214 2.1244144 -0.98647285
2.524091 2.545531 -0.98903465
3.9082491 3.9414463 -0.92536801
2.9904535 3.0158546 -0.47339109
3.0767138 3.1028476 -0.2440719
3.1479635 3.1747026 0
4.9262528 4.9680967 0.39079353
2.112642 2.1357422 -0.99054694
2.5245454 2.5521495 -0.99042034
3.8962626 3.9388657 -0.92365617
2.9868071 3.0194657 -0.47339109
3.0875812 3.1213417 -0.24523301
3.1459537 3.1803524 0
4.9257302 4.9795895 0.39122909
2.1070342 2.1378093 -0.98973274
2.5269599 2.563868 -0.99318898
3.7954211 3.8508561 -0.90140349
5.0292354 5.1026917 -0.79856831
3.1147475 3.1602409 -0.24784525
3.1529739 3.1990256 0
4.9294596 5.0014582 0.39224467
2.1165745 2.1526854 -0.99543512
2.5203388 2.5633383 -0.99180335
3.6845837 3.7474463 -0.87615466
5.0230665 5.1087646 -0.79856831
3.1236739 3.1769669 -0.24886081
3.1564047 3.2102561 0
4.9306998 5.0148225 0.39282522
2.1208947 2.1622992 -0.99869502
2.5102129 2.5592177 -0.98903465
3.7303777 3.8032029 -0.88813609
3.4956028 3.5638447 -0.55641598
3.1289358 3.1900196 -0.24958691
3.1561716 3.217787 0
4.941011 5.0374703 0.39413133
2.1061854 2.1524992 -0.99299258
2.5071187 2.5622489 -0.98903465
3.7132173 3.7948692 -0.88514155
3.4858656 3.5625179 -0.55555081
3.1341639 3.2030823 -0.25031248
3.150456 3.2197328 0
4.980351 5.0898662 0.39775968
2.1070325 2.1585767 -0.99462098
2.5110304 2.5724576 -0.99180335
3.5078058 3.593617 -0.83721089
3.4761364 3.5611727 -0.55468571
3.1375513 3.2143049 -0.25089303
3.1611061 3.238436 0
5.3262987 5.4565954 0.42591533
2.0837312 2.1398718 -0.98484135
2.5009193 2.5683 -0.98903465
3.7434323 3.8442893 -0.89455605
3.477246 3.5709314 -0.55555081
3.1390984 3.2236731 -0.25132802
3.171716 3.2571695 0
5.37046 5.5151529 0.42997923
2.5030601 2.5767202 -0.99111181
3.8496795 3.9629681 -0.92108917
3.4639194 3.565856 -0.55410963
3.1478765 3.2405124 -0.25234416
3.1931615 3.2871301 0
0 0 0
2.513912 2.5941558 -0.99664915
3.8538187 3.9768324 -0.92322862
3.4578032 3.568176 -0.55382055
3.1656582 3.2667058 -0.25408581
3.1873779 3.289119 0
5.3607297 5.5318437 0.43026924
3.8490107 3.9814861 -0.92322862
3.4445024 3.5630553 -0.55237937
3.1581001 3.2667956 -0.25379583
3.1870227 3.2967138 0
5.3504329 5.5345845 0.42997923
2.0973878 2.1748283 -0.99625248
2.5006695 2.5930002 -0.99388045
3.8459773 3.9879801 -0.92365617
3.4366071 3.5634947 -0.55180329
3.1451263 3.2612519 -0.2530697
3.1884515 3.3061767 0
5.3275094 5.5242138 0.42867312
2.5010097 2.5996323 -0.99526346
3.8429339 3.9944723 -0.92408371
3.4287088 3.5639131 -0.5512262
3.1159656 3.2388377 -0.25103804
3.1844542 3.3100269 0
5.292006 5.5006857 0.42635089
2.0852804 2.1727576 -0.99299258
2.5030799 2.608084 -0.99734062
3.8416631 4.0028205 -0.92494047
3.4136577 3.5568604 -0.54949695
3.1066504 3.2369742 -0.25060248
3.1732442 3.3063617 0
5.2889509 5.5108223 0.4266409
2.0604346 2.1520689 -0.98239881
2.4964602 2.6074858 -0.99595761
3.8421443 4.0130172 -0.92622316
3.4022026 3.5535097 -0.54834378
3.1009417 3.2388506 -0.25045747
3.1746478 3.3158348 0
5.3218255 5.5585041 0.42983425
2.076606 2.1742125 -0.99136108
2.4933076 2.6105003 -0.99595761
3.8390708 4.0195184 -0.92665237
3.4050522 3.5650997 -0.54949695
3.09164 3.2369561 -0.2500219
3.1796248 3.3290765 0
