# .PCD v0.7 - Point Cloud Data file format
VERSION 0.7
FIELDS x y z
SIZE 4 4 4
TYPE F F F
COUNT 1 1 1
WIDTH 1642
HEIGHT 1
VIEWPOINT 0 0 0 1 0 0 0
POINTS 1642
DATA ascii
4.9929085 -2.8920493 0.32229105
0 -0 -0
4.3885436 -2.5349054 -0.84491509
5.0147409 -2.8966086 -0.64549363
5.0032554 -2.8899746 -0.32273331
4.9958835 -2.8857162 0
4.9873991 -2.8808155 0.3217105
0 -0 -0
4.3916035 -2.5296009 -0.84491509
5.0137501 -2.8879628 -0.64491647
5.0112429 -2.8865182 -0.32302332
4.990346 -2.8744817 0
4.9908762 -2.8747871 0.3217105
0 -0 -0
4.3879766 -2.5204556 -0.84363079
5.0127549 -2.8793285 -0.64434046
5.0057139 -2.8752842 -0.32244274
5.0005879 -2.8723397 0
4.9898443 -2.8661685 0.32142049
0 -0 -0
4.3821087 -2.5100479 -0.84191895
5.0117373 -2.8706958 -0.6437633
5.011446 -2.8705289 -0.32258829
4.9972777 -2.8624134 0
4.9865375 -2.8562615 0.32098493
0 -0 -0
4.3903112 -2.511225 -0.84320325
5.0179653 -2.8702383 -0.64434046
5.0041571 -2.86234 -0.32200775
4.9922357 -2.855521 0
4.9950309 -2.85712 0.32142049
0 -0 -0
4.3933425 -2.5059183 -0.84320325
5.0124431 -2.8590469 -0.64318728
5.0143766 -2.8601501 -0.32244274
4.98664 -2.8443291 0
5.0097628 -2.8575182 0.32214606
0 -0 -0
4.3985963 -2.5018759 -0.84363079
5.0181398 -2.8542659 -0.64347529
5.0110598 -2.8502386 -0.32200775
4.9991217 -2.8434484 0
5.0154686 -2.8527462 0.32229105
0 -0 -0
4.3993855 -2.4952941 -0.84320325
5.0125861 -2.843096 -0.64232212
5.009975 -2.8416152 -0.3217172
4.9934988 -2.8322701 0
5.0189118 -2.846684 0.32229105
0 -0 -0
4.4023972 -2.4899764 -0.84320325
5.0182667 -2.8383093 -0.64261013
4.9998388 -2.8278866 -0.32084665
4.9946456 -2.8249495 0
5.0133009 -2.8355007 0.3217105
0 -0 -0
4.3964591 -2.4796109 -0.8414914
5.0149407 -2.8284354 -0.6417461
5.0055132 -2.8231184 -0.32099164
4.993526 -2.8163579 0
5.0099397 -2.8256152 0.3212755
0 -0 -0
4.4039226 -2.4768112 -0.84234649
5.0115891 -2.8185689 -0.64088094
5.0043955 -2.8145232 -0.32070163
4.9946594 -2.8090475 0
4.9997573 -2.8119144 0.32040438
0 -0 -0
4.4113946 -2.4740016 -0.84320325
5.0172448 -2.8137753 -0.64116895
5.0055199 -2.8071997 -0.32055607
4.9980497 -2.8030105 0
5.0031509 -2.8058712 0.32040438
0 -0 -0
4.3986945 -2.4598978 -0.84020704
5.0138664 -2.8039224 -0.64030385
4.9998364 -2.7960763 -0.31997553
4.9923472 -2.791888 0
4.9952006 -2.7934837 0.31967881
0 -0 -0
4.4016638 -2.4545808 -0.84020704
5.0195165 -2.7991254 -0.64059293
5.0054874 -2.7913022 -0.32012108
4.9911671 -2.7833164 0
5.0076499 -2.7925081 0.32025939
0 -0 -0
4.4023852 -2.4480143 -0.8397795
5.0138531 -2.7880304 -0.63943976
5.0043101 -2.7827239 -0.31983051
4.9968076 -2.7785518 0
5.0223732 -2.792768 0.32098493
0 -0 -0
4.4075828 -2.4439366 -0.84020704
5.0149493 -2.7807121 -0.63915068
5.0099392 -2.7779341 -0.31997553
4.9910569 -2.7674642 0
5.0598335 -2.8055995 0.32316217
0 -0 -0
4.397049 -2.431154 -0.83763844
5.0160446 -2.7734003 -0.63886261
5.001924 -2.7655931 -0.31924996
4.9943972 -2.7614312 0
5.0791311 -2.8082812 0.32417774
0 -0 -0
4.4044838 -2.4283204 -0.83849519
5.0148664 -2.764842 -0.63828659
5.0075355 -2.7608006 -0.31939495
4.9977303 -2.7553945 0
5.082521 -2.8021421 0.32417774
0 -0 -0
4.4164128 -2.4279435 -0.84020704
5.0136657 -2.7562861 -0.63770944
5.0040431 -2.7509961 -0.31895995
4.9942122 -2.7455912 0
5.0790782 -2.7922471 0.32374272
0 -0 -0
4.399086 -2.4115007 -0.83635575
5.0147266 -2.7489839 -0.63742143
5.0073638 -2.7449477 -0.31895995
4.9929571 -2.7370503 0
5.1097913 -2.8010967 0.3254844
0 -0 -0
4.4110069 -2.4111085 -0.83806765
5.0180445 -2.7429225 -0.63742143
5.0061121 -2.7364001 -0.31866941
4.9939795 -2.7297683 0
5.1314034 -2.8048861 0.32664496
0 -0 -0
4.4071527 -2.4020901 -0.83678335
5.0168176 -2.7343841 -0.63684541
5.0025768 -2.7266223 -0.31823441
4.9904165 -2.7199943 0
5.1507621 -2.8073897 0.32766107
0 -0 -0
4.4190741 -2.4016664 -0.83849519
5.0155683 -2.7258477 -0.63626826
5.005868 -2.7205756 -0.31823441
5.0028462 -2.7189333 0
5.1678534 -2.8086112 0.32853219
0 -0 -0
4.4227781 -2.4002194 -0.83892274
5.0103922 -2.7191148 -0.63540316
5.0097923 -2.7187891 -0.3183794
4.990768 -2.7084646 0
5.176394 -2.8092031 0.32896718
0 -0 -0
4.4279308 -2.3960943 -0.83935028
5.0205007 -2.7167528 -0.63626826
5.0084987 -2.710258 -0.31808883
4.9940372 -2.7024324 0
5.1843596 -2.8054221 0.32925776
0 -0 -0
4.4285655 -2.3895245 -0.83892274
5.0169487 -2.7069986 -0.63540316
5.0049162 -2.7005062 -0.31765383
4.9972987 -2.6963961 0
5.1785984 -2.7942202 0.32867721
0 -0 -0
4.4382339 -2.3878214 -0.84020704
5.0156646 -2.6984861 -0.63482708
5.0035944 -2.691992 -0.31736329
4.9913855 -2.6854236 0
5.1728177 -2.7830362 0.32809663
0 -0 -0
4.4388561 -2.3812447 -0.8397795
5.0189219 -2.6924236 -0.63482708
4.9976845 -2.6810308 -0.31678271
4.9969177 -2.6806197 0
5.1715927 -2.7743249 0.32780609
0 -0 -0
4.4507842 -2.3807225 -0.8414914
5.015327 -2.6826963 -0.63396192
5.005507 -2.6774437 -0.31707329
4.9909739 -2.6696699 0
5.2116013 -2.7876835 0.33012831
0 -0 -0
4.4536576 -2.3753431 -0.8414914
5.0185647 -2.6766343 -0.63396192
5.0087385 -2.6713936 -0.31707329
4.9987931 -2.6660891 0
6.5882473 -3.513819 0.41706252
0 -0 -0
4.4565244 -2.3699598 -0.8414914
5.0240769 -2.6717815 -0.63424999
5.00737 -2.6628971 -0.31678271
4.9882197 -2.6527131 0
6.5947804 -3.5070748 0.41720754
0 -0 -0
4.4684567 -2.3693836 -0.84320325
5.0158782 -2.6596518 -0.63280874
5.0082903 -2.6556287 -0.31663772
4.9937272 -2.6479065 0
6.5990133 -3.4991038 0.41720754
0 -0 -0
4.4667735 -2.3615806 -0.84234649
5.0213814 -2.6548016 -0.63309789
5.006897 -2.6471438 -0.31634718
5.0038185 -2.6455164 0
6.6009412 -3.4899142 0.41706252
0 -0 -0
4.465086 -2.3537898 -0.8414914
5.0200047 -2.6463177 -0.63252074
5.0100918 -2.6410921 -0.31634718
4.9932027 -2.6321888 0
6.6051536 -3.4819357 0.41706252
0 -0 -0
4.4656482 -2.3471951 -0.84106219
5.0186243 -2.6378455 -0.63194472
5.0063858 -2.631413 -0.31591216
4.9963799 -2.6261537 0
6.6001554 -3.4691162 0.41648197
0 -0 -0
4.4707613 -2.3429925 -0.8414914
5.0240965 -2.6329792 -0.63223273
5.0049543 -2.6229472 -0.31562161
4.9972463 -2.6189077 0
6.5974355 -3.4575191 0.41604641
0 -0 -0
4.4667616 -2.3340211 -0.84020704
5.0226851 -2.6245086 -0.63165563
5.0058188 -2.6156955 -0.31547663
4.9911809 -2.6080465 0
5.2659407 -2.751617 0.33186999
0 -0 -0
4.4832335 -2.3357365 -0.84277403
5.023561 -2.6172438 -0.63136756
5.0066738 -2.6084456 -0.31533161
5.0058665 -2.6080251 0
5.2577415 -2.7392502 0.33114442
0 -0 -0
4.490613 -2.3326867 -0.84363079
5.0198317 -2.6075938 -0.63050246
5.0052056 -2.5999961 -0.31504107
4.9974689 -2.5959773 0
6.6030054 -3.4299867 0.41561085
0 -0 -0
4.4751925 -2.3178141 -0.84020704
5.0206842 -2.600338 -0.63021439
5.0106573 -2.595145 -0.31518662
4.9959755 -2.5875406 0
6.6048398 -3.4208119 0.41546586
0 -0 -0
4.4765921 -2.3151102 -0.84020704
5.0291491 -2.6008699 -0.63107955
5.0099096 -2.5909202 -0.31504107
5.0021658 -2.5869153 0
6.6045995 -3.4156284 0.41532084
0 -0 -0
4.4771066 -2.3085239 -0.8397795
5.0184903 -2.5876768 -0.62934929
5.0037985 -2.5801013 -0.31446049
4.9937243 -2.5749068 0
6.6017914 -3.4040718 0.41488531
0 -0 -0
4.4821739 -2.304285 -0.84020704
5.0193152 -2.5804296 -0.62906122
5.0046039 -2.5728664 -0.3143155
4.9968324 -2.568871 0
6.5989733 -3.3925316 0.41445029
0 -0 -0
4.4780993 -2.2953537 -0.83892274
5.0224295 -2.5743628 -0.62906122
5.007709 -2.5668175 -0.3143155
4.9929824 -2.559269 0
6.607688 -3.3869238 0.41474029
0 -0 -0
4.4922967 -2.2957809 -0.84106219
5.0232358 -2.5671165 -0.62877321
5.0038633 -2.5572162 -0.31387994
4.9914317 -2.5508633 0
6.6094642 -3.3777559 0.41459531
0 -0 -0
4.4882121 -2.2868583 -0.8397795
5.0240316 -2.5598719 -0.6284852
5.0115843 -2.5535297 -0.31417051
4.9921937 -2.5436497 0
6.6065927 -3.3662271 0.41415974
0 -0 -0
4.4937253 -2.2760053 -0.8397795
5.0209732 -2.5430486 -0.62733203
5.0107841 -2.5378881 -0.31373495
4.9913588 -2.5280492 0
5.1034002 -2.5847967 0.31953382
0 -0 -0
4.4895954 -2.2671013 -0.83849519
5.0240426 -2.5369799 -0.62733203
5.0092125 -2.5294912 -0.31344494
5.0037022 -2.5267088 0
5.0949249 -2.5727732 0.31880826
0 -0 -0
4.4992123 -2.2651391 -0.8397795
5.0224795 -2.528579 -0.62675494
5.0099463 -2.5222695 -0.31329992
4.9997849 -2.5171535 0
6.5856504 -3.3155613 0.41183752
0 -0 -0
4.490468 -2.2539399 -0.83763844
5.0209122 -2.5201902 -0.62617886
5.0106616 -2.5150449 -0.31315437
4.9981661 -2.5087731 0
6.5571442 -3.2912843 0.40980583
0 -0 -0
4.4977841 -2.2508121 -0.83849519
5.0216427 -2.5129652 -0.62589085
5.0160275 -2.510155 -0.31329992
4.9918847 -2.4980733 0
6.5425262 -3.2740562 0.40864474
4.493607 -2.2419367 -0.83721089
5.0246754 -2.5068955 -0.62589085
5.0097561 -2.4994521 -0.31271937
5.0018878 -2.4955266 0
6.5301995 -3.2580268 0.4076286
4.5009141 -2.2387941 -0.83806765
5.0277009 -2.5008225 -0.62589085
5.0104394 -2.4922364 -0.31257382
5.0048995 -2.4894807 0
6.5318069 -3.2489779 0.40748361
0 -0 -0
4.512815 -2.2379158 -0.8397795
5.0260801 -2.4924452 -0.6253137
5.0157819 -2.4873381 -0.31271937
5.0032363 -2.481117 0
6.5310764 -3.2387764 0.4071936
0 -0 -0
4.5132079 -2.2313204 -0.83935028
5.0174975 -2.4806399 -0.62387252
5.0117931 -2.4778199 -0.31228381
4.9969077 -2.4704604 0
6.5349851 -3.2308826 0.4071936
4.5136008 -2.2247317 -0.83892274
5.0251265 -2.4768603 -0.6244486
5.0171123 -2.4729099 -0.31242883
5.0022216 -2.4655704 0
6.5318899 -3.2195365 0.40675804
4.5047679 -2.2136166 -0.83678335
5.0257969 -2.4696469 -0.62416053
5.0061083 -2.4599721 -0.31155828
4.9958539 -2.4549334 0
6.5357757 -3.2116418 0.40675804
0 -0 -0
4.5038023 -2.209765 -0.83635575
5.0226483 -2.4643338 -0.62358451
5.0169249 -2.4615257 -0.31213883
5.0066819 -2.4565001 0
6.5517068 -3.2145576 0.4076286
4.5064688 -2.2043214 -0.83635575
5.0209708 -2.4559879 -0.62300736
5.0128908 -2.4520354 -0.31170326
4.9979596 -2.444732 0
6.5649228 -3.211206 0.40820917
4.5114341 -2.1999986 -0.83678335
5.0216122 -2.4487867 -0.62271935
5.0135164 -2.4448388 -0.31155828
5.0032468 -2.4398308 0
6.5944915 -3.2158005 0.40980583
4.5117826 -2.1934245 -0.83635575
5.0245676 -2.4427173 -0.62271935
5.0117884 -2.4365048 -0.3112677
4.9991674 -2.4303689 0
6.6100545 -3.2135093 0.4105314
0 -0 -0
4.5051894 -2.1834929 -0.8346439
5.0205307 -2.433259 -0.62185425
5.0053759 -2.425914 -0.31068715
5.0044398 -2.4254606 0
6.6092606 -3.2032557 0.4102414
0 -0 -0
4.5193796 -2.1836307 -0.83678335
5.0258026 -2.4283195 -0.62214333
5.0083032 -2.4198642 -0.31068715
4.9956527 -2.4137518 0
6.6178012 -3.197526 0.4105314
4.5243249 -2.1792812 -0.83721089
5.0240679 -2.4199979 -0.62156618
5.0135627 -2.4149375 -0.31083214
5.0009079 -2.4088421 0
6.6193213 -3.188401 0.41038638
0 -0 -0
4.5176988 -2.169368 -0.83549899
5.0199914 -2.4105656 -0.62070107
5.0094562 -2.4055066 -0.31039715
5.0014715 -2.4016724 0
6.6114593 -3.1747775 0.40966085
0 -0 -0
4.5318918 -2.1694486 -0.83763844
5.0252399 -2.4056182 -0.62099016
5.0147009 -2.4005728 -0.31054214
5.0043697 -2.3956273 0
6.6082568 -3.1634195 0.40922529
0 -0 -0
4.5182991 -2.156235 -0.8346439
5.0211382 -2.3962014 -0.620125
5.0058746 -2.3889172 -0.3098166
4.9931726 -2.3828557 0
6.619112 -3.1587908 0.40966085
0 -0 -0
4.5185852 -2.1496723 -0.83421636
5.0193539 -2.387908 -0.6195479
5.0087576 -2.3828669 -0.3098166
5.0077963 -2.3824098 0
6.6229239 -3.1507907 0.40966085
4.5350914 -2.1508088 -0.83678335
5.0269141 -2.3840601 -0.620125
5.0116329 -2.3768129 -0.3098166
5.0036149 -2.3730104 0
6.6149898 -3.1372197 0.40893528
4.5214396 -2.137646 -0.83378714
5.0227737 -2.3746669 -0.61925983
5.0097985 -2.3685324 -0.30952603
4.9994268 -2.3636289 0
6.6046762 -3.1225586 0.40806416
4.5263476 -2.1332786 -0.83421636
5.0209646 -2.3663929 -0.61868382
5.0079603 -2.3602638 -0.30923602
5.009335 -2.3609116 0
6.6131496 -3.1167936 0.40835473
0 -0 -0
4.5312433 -2.1288984 -0.8346439
5.0214725 -2.3592212 -0.61839473
5.0155077 -2.3564186 -0.30952603
5.0051241 -2.3515403 0
4.9824781 -2.3409007 0.30748767
4.5361347 -2.1245096 -0.83507144
5.0290089 -2.3553481 -0.61897182
5.0112987 -2.3470535 -0.30909103
5.012671 -2.3476963 0
4.9900141 -2.337085 0.30777821
4.5410223 -2.1201119 -0.83549899
5.0201354 -2.3438001 -0.61753064
5.0094175 -2.3387961 -0.30880049
5.0013599 -2.3350341 0
4.9834166 -2.3266566 0.30719766
0 -0 -0
4.5412555 -2.1135414 -0.83507144
5.0229635 -2.3377323 -0.61753064
5.0098863 -2.3316462 -0.30865547
5.0065346 -2.3300862 0
4.990931 -2.3228242 0.30748767
4.536818 -2.1048105 -0.83378714
5.0234404 -2.330574 -0.61724263
5.010345 -2.3244984 -0.30851048
5.006988 -2.3229411 0
4.9913793 -2.3156993 0.30734268
4.5357618 -2.1009912 -0.8333596
5.0224938 -2.3264484 -0.61695355
5.0093837 -2.3203757 -0.30836493
5.0013037 -2.316633 0
4.9951329 -2.3137746 0.30748767
4.5359688 -2.094434 -0.83293205
5.0276566 -2.3214653 -0.61724263
5.0121837 -2.314321 -0.30836493
5.0088205 -2.312768 0
5.016798 -2.3164515 0.30864879
4.5501533 -2.0943172 -0.83507144
5.0281014 -2.3143041 -0.61695355
5.0126185 -2.3071778 -0.30821991
5.0068874 -2.3045402 0
5.0597181 -2.3288565 0.31111601
4.5456786 -2.0856051 -0.83378714
5.0285454 -2.3071494 -0.61666548
5.0130429 -2.3000369 -0.30807492
5.016767 -2.3017454 0
5.0908689 -2.3357441 0.31285769
4.5411987 -2.076911 -0.83250445
5.0289798 -2.2999971 -0.61637747
5.0181794 -2.2950575 -0.30821991
5.0124421 -2.2924337 0
5.1173134 -2.3403964 0.31430879
4.5460386 -2.0724862 -0.83293205
5.0223413 -2.2896271 -0.6152243
5.0114913 -2.2846808 -0.30763936
5.0128427 -2.2852969 0
5.1130514 -2.330981 0.3138738
4.5532088 -2.0691137 -0.83378714
5.0274568 -2.284626 -0.61551231
5.0142484 -2.2786238 -0.30763936
5.0061231 -2.2749314 0
5.1205912 -2.3269491 0.3141638
4.5486975 -2.060436 -0.83250445
5.0302134 -2.2785497 -0.61551231
5.0146332 -2.2714922 -0.30749437
5.0088682 -2.2688808 0
5.1044636 -2.3121829 0.31300268
4.5605421 -2.0591638 -0.83421636
5.0282531 -2.2703433 -0.61493629
5.0150084 -2.2643631 -0.30734935
5.0116062 -2.2628269 0
5.1072536 -2.3060133 0.31300268
4.5442996 -2.0452232 -0.83079261
5.0262709 -2.2621408 -0.61435914
5.0058956 -2.2529707 -0.30662379
5.000093 -2.2503591 0
5.1195145 -2.3041062 0.31358325
0 -0 -0
4.5561366 -2.0439339 -0.83250445
5.0290003 -2.2560658 -0.61435914
5.013351 -2.2490454 -0.30691379
5.0075617 -2.2464483 0
5.1104426 -2.2926018 0.31285769
4.5539112 -2.0363293 -0.83164769
5.0270052 -2.2478781 -0.61378312
5.0160651 -2.2429862 -0.30691379
5.0126462 -2.2414575 0
5.1132092 -2.2864254 0.31285769
4.5610623 -2.0329175 -0.83250445
5.027348 -2.2407463 -0.61349404
5.0211425 -2.2379804 -0.30705881
5.010601 -2.2332819 0
5.1088457 -2.2770708 0.31242213
4.5728993 -2.0315738 -0.83421636
5.0324225 -2.2357233 -0.61378312
5.016726 -2.2287498 -0.30662379
5.0156722 -2.2282815 0
5.0997224 -2.2656221 0.31169656
0 -0 -0
4.5776958 -2.0270853 -0.8346439
5.0327487 -2.2285907 -0.61349404
5.0170326 -2.2216313 -0.30647823
5.0112195 -2.2190573 0
5.0882053 -2.2531478 0.310826
0 -0 -0
4.5566525 -2.0111849 -0.83036339
5.0330734 -2.2214644 -0.61320597
5.0173383 -2.2145195 -0.30633324
5.0138974 -2.2130005 0
5.0766563 -2.2407007 0.30995491
0 -0 -0
4.5708346 -2.0108492 -0.83250445
5.0310235 -2.2133002 -0.61262995
5.0176344 -2.2074099 -0.30618826
5.0165677 -2.2069407 0
5.0769839 -2.2335196 0.30980989
4.5685549 -2.0032611 -0.83164769
5.0313277 -2.206182 -0.61234194
5.020298 -2.2013454 -0.30618826
5.0216117 -2.2019217 0
5.0677829 -2.222167 0.30908433
4.5650654 -1.9984436 -0.83079261
5.0255494 -2.2000291 -0.61147678
5.0144835 -2.1951849 -0.30575269
5.011023 -2.19367 0
5.0715022 -2.2201459 0.30922934
4.5674767 -1.9929261 -0.83079261
5.0329409 -2.196022 -0.6120528
5.0147529 -2.188086 -0.30560768
5.0041289 -2.1834505 0
5.0741811 -2.2140164 0.30922934
4.574585 -1.9894514 -0.83164769
5.0308514 -2.1878779 -0.61147678
5.0078616 -2.17788 -0.30502713
5.0163097 -2.1815538 0
5.0744724 -2.2068484 0.30908433
4.5628581 -1.9777988 -0.82908076
5.0334911 -2.1817975 -0.61147678
5.0200262 -2.175961 -0.30560768
5.0093908 -2.171351 0
5.0890532 -2.2058814 0.30980989
4.5699534 -1.9743183 -0.82993585
5.0242543 -2.1705861 -0.6100356
5.0178766 -2.1678307 -0.30531713
5.0167933 -2.1673629 0
5.0821733 -2.1956084 0.30922934
4.5676246 -1.9667665 -0.82908076
5.0268736 -2.1645136 -0.6100356
5.0181079 -2.1607394 -0.30517212
5.0122352 -2.1582108 0
5.0370908 -2.1689131 0.30632654
0 -0 -0
4.5699978 -1.9612459 -0.82908076
5.0271015 -2.1574152 -0.60974652
5.0135584 -2.151603 -0.30473712
5.0148396 -2.1521528 0
5.0134482 -2.1515558 0.30473045
0 -0 -0
4.5770802 -1.9577397 -0.82993585
5.0273285 -2.1503232 -0.60945845
5.0185413 -2.1465645 -0.30488214
5.0174365 -2.1460919 0
4.9993186 -2.1383424 0.30371431
4.579442 -1.9522077 -0.82993585
5.0299234 -2.1442471 -0.60945845
5.0187435 -2.1394811 -0.30473712
5.0200257 -2.1400278 0
5.0018988 -2.1323001 0.30371431
4.5794373 -1.9456701 -0.8295083
5.0301323 -2.1371572 -0.60917044
5.0213246 -2.1334152 -0.30473712
5.01542 -2.1309063 0
4.9877281 -2.1191411 0.30269819
4.5770617 -1.9381353 -0.82865316
5.0279427 -2.1290588 -0.60859334
5.0167184 -2.1243057 -0.30430156
5.0203853 -2.1258585 0
4.9855042 -2.1110883 0.30240819
4.5794001 -1.9326034 -0.82865316
5.0305119 -2.122982 -0.60859334
5.0168896 -2.1172333 -0.30415657
5.0109639 -2.1147323 0
4.9952359 -2.1080947 0.30284375
0 -0 -0
4.591188 -1.9310459 -0.83036339
5.0211549 -2.1118891 -0.6071521
5.0146494 -2.109153 -0.303866
5.0207148 -2.1117039 0
4.9929843 -2.1000407 0.30255321
4.5840573 -1.9215311 -0.82865316
5.0308614 -2.1088212 -0.60801727
5.0219917 -2.105103 -0.30415657
5.0160599 -2.1026165 0
4.9955182 -2.0940061 0.30255321
4.5863757 -1.9159908 -0.82865316
5.0262437 -2.0997486 -0.6071521
5.0245318 -2.0990336 -0.30415657
5.0185966 -2.096554 0
4.9908495 -2.0849626 0.30211765
4.586246 -1.9029322 -0.8277964
5.0217471 -2.083631 -0.60599899
5.0199895 -2.0829017 -0.30357602
5.0236483 -2.08442 0
4.9718776 -2.0629392 0.30066654
4.588542 -1.8973893 -0.8277964
5.0290461 -2.0795405 -0.60657609
5.0200944 -2.0758388 -0.30343047
5.0261636 -2.0783484 0
4.9815726 -2.0599098 0.3011021
4.5825663 -1.8916773 -0.8265121
5.0303016 -2.0765018 -0.60657609
5.0189481 -2.071815 -0.30328545
5.0202084 -2.0723352 0
4.9804168 -2.0559094 0.30095708
0 -0 -0
4.5872297 -1.8871182 -0.82694131
5.0328069 -2.0704222 -0.60657609
5.0238485 -2.0667367 -0.30343047
5.0178905 -2.0642855 0
4.9852982 -2.0508776 0.3011021
4.5847516 -1.8796246 -0.82608455
5.0257325 -2.0604148 -0.60542291
5.019136 -2.0577106 -0.30299544
5.0179753 -2.0572348 0
4.9853706 -2.0438676 0.30095708
4.5798879 -1.8711698 -0.82480025
5.0234251 -2.0523825 -0.60484582
5.0264249 -2.0536082 -0.30328545
5.0156345 -2.0491996 0
4.9950457 -2.0407877 0.30139208
4.577395 -1.8637004 -0.82394511
5.0211148 -2.0443623 -0.60426974
5.0168719 -2.0426347 -0.30255988
5.0277481 -2.0470631 0
4.9902949 -2.0318139 0.30095708
4.5820198 -1.8591324 -0.82437271
5.0283699 -2.0402367 -0.60484582
5.0217419 -2.0375473 -0.3027049
5.0278091 -2.040009 0
4.9879265 -2.0238268 0.30066654
0 -0 -0
4.5795078 -1.8516718 -0.82351756
5.0284362 -2.0331907 -0.60455775
5.0145645 -2.0275819 -0.30212435
5.0302701 -2.0339324 0
4.9903679 -2.0177984 0.30066654
4.5722179 -1.8422995 -0.82180572
5.0356917 -2.0290487 -0.6051349
5.0194278 -2.0224953 -0.30226991
5.0230684 -2.0239623 0
4.9976273 -2.0137112 0.30095708
0 -0 -0
4.5792003 -1.8386847 -0.8226608
5.0285392 -2.0191076 -0.60398173
5.0170407 -2.0144904 -0.30197933
5.0230975 -2.0169225 0
4.9976387 -2.0067 0.30081153
4.5861897 -1.8350594 -0.82351756
5.0357733 -2.0149498 -0.60455775
5.0218811 -2.0093913 -0.30212435
5.01828 -2.0079503 0
5.0024791 -2.0016279 0.30095708
4.5860124 -1.828563 -0.82308835
5.0213842 -2.002157 -0.60253948
5.0243053 -2.0033219 -0.30212435
5.0182872 -2.0009222 0
5.009717 -1.9975049 0.30124709
4.5762925 -1.8182819 -0.82094896
5.0262103 -1.997046 -0.60282856
5.0218973 -1.9953324 -0.30183434
5.0231175 -1.9958173 0
5.0145392 -1.9924089 0.30139208
4.5808802 -1.8136986 -0.82137817
5.0286198 -1.9909713 -0.60282856
5.0194683 -1.987348 -0.30154377
5.023108 -1.9887892 0
5.0193658 -1.9873075 0.30153763
4.5902252 -1.8109859 -0.8226608
5.0310216 -1.9848938 -0.60282856
5.0218658 -1.9812815 -0.30154377
5.0230889 -1.9817641 0
5.0265932 -1.9831467 0.30182764
4.5995793 -1.8082567 -0.82394511
5.0285974 -1.9769188 -0.60225141
5.0170083 -1.9723628 -0.30110878
5.0182114 -1.9728358 0
5.028986 -1.9770715 0.30182764
4.6113219 -1.8064431 -0.82565701
5.0237646 -1.9680138 -0.60138738
5.0242219 -1.9681929 -0.30139878
5.0181708 -1.9658225 0
5.028954 -1.9700466 0.30168265
4.6111121 -1.7999374 -0.82522947
5.0213156 -1.9600593 -0.60081023
5.024178 -1.9611768 -0.30125377
5.0156889 -1.957863 0
5.0337491 -1.9649127 0.30182764
4.627634 -1.7999461 -0.8277964
5.0309138 -1.9568043 -0.60167539
5.0216961 -1.9532189 -0.30096322
5.0204835 -1.9527472 0
5.021594 -1.9531791 0.30095708
4.6311111 -1.7980782 -0.828224
5.0248594 -1.9509552 -0.60081023
5.0204554 -1.9492451 -0.30081823
5.0289335 -1.9525368 0
5.037302 -1.955786 0.30182764
4.6404653 -1.7952607 -0.8295083
5.0272131 -1.9448822 -0.60081023
5.0131135 -1.9394273 -0.30023766
5.0264392 -1.9445827 0
5.0517764 -1.9543848 0.30255321
4.6546049 -1.794268 -0.83164769
5.0271487 -1.9378769 -0.60052222
5.0227289 -1.9361732 -0.30067322
5.0214982 -1.9356987 0
5.0589876 -1.9501504 0.30284375
4.6735468 -1.7950865 -0.8346439
5.0294867 -1.9318012 -0.60052222
5.0177855 -1.9273069 -0.30023766
5.0214062 -1.9286976 0
5.0637636 -1.9449669 0.30298877
4.6948924 -1.7967784 -0.83806765
5.0245676 -1.9229482 -0.59965706
5.0225353 -1.9221703 -0.30038267
5.0213046 -1.9216994 0
5.0758176 -1.942562 0.30356932
4.7090507 -1.7956766 -0.84020704
5.0341401 -1.9196413 -0.60052222
5.0151515 -1.9124005 -0.29980266
5.0065989 -1.909139 0
5.0805864 -1.9373523 0.30371431
4.7184181 -1.7927214 -0.8414914
5.0292001 -1.9108002 -0.59965706
5.0077424 -1.9026476 -0.29922211
4.9943004 -1.8975403 0
5.0926399 -1.9349036 0.30429488
4.7421861 -1.7951976 -0.8453427
5.019413 -1.9001443 -0.59821588
4.9930243 -1.8901548 -0.298206
4.9649506 -1.8795272 0
5.0998297 -1.9305868 0.30458489
4.7515502 -1.7921815 -0.84662533
5.0071802 -1.8885994 -0.59648561
4.9709969 -1.874952 -0.29675487
4.9647856 -1.872609 0
5.1216087 -1.9317595 0.30574599
4.7609239 -1.7891488 -0.84790963
4.9900985 -1.8752724 -0.59418035
4.9635291 -1.8652878 -0.29617432
4.9572997 -1.8629467 0
6.6222014 -2.4886146 0.39514744
4.7751002 -1.7878947 -0.85004908
4.9802423 -1.8647041 -0.59273809
4.9633389 -1.8583752 -0.29602876
4.9546776 -1.8551321 0
6.6276345 -2.4815214 0.39529246
4.7940955 -1.7884051 -0.85304528
4.9703774 -1.8541659 -0.59129691
4.9680223 -1.8532875 -0.29617432
4.9617872 -1.8509614 0
6.6233315 -2.4707892 0.39485744
4.8106856 -1.7879753 -0.85561222
4.970192 -1.8472586 -0.59100884
4.9605155 -1.8436621 -0.29559377
4.9615831 -1.8440589 0
6.6238694 -2.4618766 0.39471188
4.8200669 -1.7848363 -0.85689658
4.9772668 -1.8430463 -0.59158492
4.9676085 -1.8394699 -0.29588374
4.9589314 -1.8362567 0
6.6122236 -2.4484591 0.39384133
4.8390813 -1.7852314 -0.85989273
4.9722176 -1.8343478 -0.59072083
4.9649563 -1.8316691 -0.29559377
4.9562583 -1.8284602 0
6.5908031 -2.4314756 0.39239022
4.8484654 -1.7820406 -0.86117703
4.9744301 -1.8283386 -0.59072083
4.9647202 -1.8247696 -0.29544821
4.9438124 -1.817085 0
6.5620327 -2.4118576 0.39050356
4.8674822 -1.7823571 -0.86417156
4.9742093 -1.8214381 -0.59043282
4.971806 -1.8205581 -0.29573876
4.9484458 -1.8120041 0
6.51858 -2.38695 0.38774574
4.8792787 -1.7799934 -0.86588347
4.9764066 -1.8154263 -0.59043282
4.9642377 -1.8109871 -0.29515821
4.926178 -1.7971027 0
6.5043693 -2.3728373 0.38672963
4.8900018 -1.7805586 -0.86759531
4.9726372 -1.810648 -0.58985567
4.9653311 -1.8079877 -0.29515821
4.9517221 -1.8030323 0
6.4862685 -2.3617949 0.38556853
4.9114552 -1.7816519 -0.87101907
4.9796886 -1.8064039 -0.59043282
4.9675121 -1.8019867 -0.29515821
4.9563413 -1.7979344 0
6.4524841 -2.3406668 0.38339186
4.9208493 -1.7783343 -0.87230337
4.9696984 -1.7959877 -0.58899057
4.9623523 -1.7933328 -0.29472265
4.9585099 -1.7919444 0
6.4259825 -2.3222709 0.38165018
4.9326558 -1.7758653 -0.87401527
4.9743052 -1.7908602 -0.58927965
4.966958 -1.7882149 -0.29486763
4.9557791 -1.7841902 0
6.4238987 -2.3127458 0.38136017
4.9517055 -1.775968 -0.87700981
4.9740238 -1.7839726 -0.58899057
4.9666715 -1.7813356 -0.29472265
4.9383335 -1.7711719 0
6.421792 -2.303226 0.3810696
4.9611025 -1.7725755 -0.87829411
4.9737425 -1.7770917 -0.5887025
4.9688201 -1.775333 -0.29472265
4.9478154 -1.7678281 0
6.4196811 -2.2937179 0.38077962
4.9922619 -1.7769092 -0.88342971
4.9661393 -1.7676114 -0.58754933
4.9709616 -1.7693279 -0.29472265
4.9524064 -1.7627236 0
6.4175472 -2.284215 0.38048905
0 -0 -0
4.9731517 -1.7633399 -0.58812648
4.9632998 -1.7598467 -0.2941421
4.9447212 -1.7532593 0
6.4276524 -2.2790649 0.38092461
4.9820137 -1.7597084 -0.8808611
4.977715 -1.7581902 -0.58841449
4.972775 -1.7564453 -0.29457763
4.9492879 -1.7481493 0
6.4230485 -2.2686996 0.38048905
4.9865646 -1.7545418 -0.88129026
4.9749517 -1.7504556 -0.5878374
4.9675379 -1.7478472 -0.2941421
4.9440293 -1.7395755 0
6.4257855 -2.260937 0.38048905
4.9838314 -1.7468153 -0.8804335
4.9721861 -1.7427337 -0.58726132
4.9696465 -1.7418436 -0.2941421
4.9534979 -1.7361836 0
6.4309626 -2.2540298 0.38063407
4.9835172 -1.7399467 -0.88000596
4.96696 -1.734166 -0.58639622
4.9717474 -1.7358375 -0.2941421
4.9482188 -1.7276226 0
6.4189668 -2.2411201 0.37976351
4.9856157 -1.7339239 -0.88000596
4.9714923 -1.7290119 -0.58668423
4.9689374 -1.7281234 -0.29385209
4.9453912 -1.7199343 0
6.4167662 -2.2316568 0.37947351
4.9852839 -1.727059 -0.87957841
4.9711361 -1.7221577 -0.58639622
4.9685688 -1.7212683 -0.29370707
4.9597588 -1.7182163 0
6.4219108 -2.2247517 0.3796185
4.9873672 -1.7210339 -0.87957841
4.9732137 -1.7161498 -0.58639622
4.975553 -1.7169572 -0.29399708
4.9618316 -1.7122221 0
6.4270482 -2.2178371 0.37976351
4.9942937 -1.7166737 -0.8804335
4.970396 -1.7084595 -0.58582014
4.9702497 -1.7084092 -0.29356152
4.9737415 -1.7096094 0
6.4248133 -2.2083821 0.37947351
4.9915118 -1.7089764 -0.87957841
4.9675579 -1.7007753 -0.58524305
4.9649425 -1.6998798 -0.29312652
4.9634948 -1.6993841 0
6.4323893 -2.2022991 0.37976351
4.9911366 -1.7021129 -0.8791492
4.9745102 -1.6964431 -0.58582014
4.9669929 -1.6938794 -0.29312652
4.9655447 -1.6933855 0
6.4301314 -2.1928494 0.37947351
4.9834762 -1.6927814 -0.87743896
4.9741096 -1.6896 -0.58553213
4.9714937 -1.6887114 -0.29327151
4.9725108 -1.6890569 0
6.4303088 -2.1842401 0.37932795
0 -0 -0
4.995235 -1.6900463 -0.8791492
4.9761477 -1.6835885 -0.58553213
4.9710717 -1.6818711 -0.29312652
4.9696226 -1.6813807 0
6.4280252 -2.1748047 0.37903795
0 -0 -0
4.9840965 -1.6829227 -0.87700981
4.9722581 -1.6789254 -0.58495498
4.9696178 -1.6780338 -0.29298097
4.9607744 -1.6750478 0
6.429338 -2.1709208 0.37903795
4.983696 -1.6760817 -0.87658221
4.9718342 -1.6720924 -0.58466697
4.971642 -1.6720278 -0.29298097
4.9603305 -1.6682236 0
6.4270263 -2.1614923 0.37874737
4.9881492 -1.6708733 -0.87700981
4.9714007 -1.6652629 -0.58437896
4.9736586 -1.6660193 -0.29298097
4.9672732 -1.6638805 0
6.4271717 -2.1529005 0.37860239
4.9852991 -1.6632215 -0.87615466
4.9758601 -1.6600726 -0.58466697
4.9658084 -1.656719 -0.29240042
4.9643474 -1.6562315 0
6.4248433 -2.1434898 0.37831238
4.9848714 -1.6563878 -0.87572712
4.9754105 -1.6532441 -0.58437896
4.9702797 -1.6515393 -0.29254597
4.9737468 -1.6526915 0
6.422492 -2.1340847 0.37802184
4.9888597 -1.6443366 -0.87572712
4.9769273 -1.6404037 -0.58408988
4.9816527 -1.6419612 -0.29298097
4.9653702 -1.6365945 0
6.4300961 -2.1193705 0.37816682
4.9835234 -1.6359046 -0.87444282
4.9764509 -1.6335829 -0.58380181
4.9663582 -1.63027 -0.29196543
4.9648738 -1.6297827 0
6.4301858 -2.1107898 0.37802184
4.9879341 -1.6306788 -0.87487036
4.9710436 -1.6251568 -0.5829367
4.9658475 -1.6234581 -0.29181984
4.9742627 -1.6262093 0
6.4327316 -2.1030188 0.37802184
4.9923391 -1.6254445 -0.8752979
4.9730034 -1.6191491 -0.5829367
4.9702835 -1.6182635 -0.29196543
4.9712701 -1.6185848 0
6.4303312 -2.093637 0.37773183
4.9869809 -1.617038 -0.87401527
4.9774237 -1.613939 -0.58322579
4.9648175 -1.6098515 -0.29152986
4.9707489 -1.6117748 0
6.4254384 -2.0834606 0.37729627
4.9864812 -1.61022 -0.87358606
4.974443 -1.6063325 -0.58264863
4.9692292 -1.6046491 -0.29167485
4.9751673 -1.6065664 0
6.4353719 -2.0780914 0.37773183
4.9884233 -1.6041936 -0.87358606
4.9739203 -1.5995296 -0.58236063
4.9761167 -1.6002361 -0.29196543
4.9795799 -1.6013497 0
6.4279833 -2.067132 0.37715128
4.9879155 -1.5973827 -0.87315851
4.9733882 -1.5927303 -0.58207262
4.9780469 -1.5942222 -0.29196543
0 -0 0
6.4378929 -2.0617387 0.37758628
4.9898419 -1.5913546 -0.87315851
4.9728379 -1.5859317 -0.58178353
4.970067 -1.585048 -0.29138485
4.9536815 -1.5798223 0
6.4255309 -2.0492227 0.37671572
4.9917612 -1.5853242 -0.87315851
4.9747505 -1.5799218 -0.58178353
4.9645467 -1.5766811 -0.29094929
4.9555869 -1.5738356 0
6.4230537 -2.0398858 0.37642571
4.9961185 -1.5800648 -0.87358606
4.9741921 -1.5731305 -0.58149546
4.9664483 -1.5706813 -0.29094929
4.952527 -1.5662786 0
6.4205542 -2.0305545 0.37613514
4.9921808 -1.5755024 -0.87273091
4.9776058 -1.5709027 -0.58178353
4.9673963 -1.5676805 -0.29094929
4.9559517 -1.5640688 0
6.4242554 -2.0274565 0.37628016
4.9891782 -1.5679284 -0.87187415
4.9770355 -1.5641124 -0.58149546
4.9692869 -1.5616772 -0.29094929
4.9628086 -1.5596414 0
6.4242239 -2.0189142 0.37613514
4.9861736 -1.560367 -0.87101907
4.9764557 -1.5573257 -0.58120745
4.9686928 -1.5548964 -0.2908043
4.9572358 -1.5513111 0
6.4266586 -2.0111504 0.37613514
4.9880557 -1.554341 -0.87101907
4.9758668 -1.5505427 -0.58091944
4.9730463 -1.5496639 -0.29094929
4.9615889 -1.5460936 0
6.4241271 -2.0018389 0.37584516
4.9948287 -1.5498328 -0.87187415
4.9752593 -1.5437605 -0.58063036
4.974915 -1.5436537 -0.29094929
4.9634533 -1.5400974 0
6.4190936 -1.9917643 0.3754096
4.9917974 -1.5422822 -0.87101907
4.9771209 -1.5377479 -0.58063036
4.9792566 -1.5384078 -0.2910943
4.9653106 -1.5340989 0
6.4214959 -1.9840066 0.3754096
4.9912057 -1.5354954 -0.87059152
4.9839244 -1.5332553 -0.58120745
4.981112 -1.5323901 -0.2910943
4.9746256 -1.5303947 0
6.4214072 -1.9754828 0.37526459
4.997962 -1.5309657 -0.87144661
4.9857736 -1.5272321 -0.58120745
4.9879336 -1.5278939 -0.29138485
4.9714894 -1.5228567 0
6.4237895 -1.9677223 0.37526459
5.0071769 -1.5271729 -0.87273091
4.9950395 -1.523471 -0.58207262
4.9997182 -1.5248981 -0.29196543
4.9733257 -1.5168486 0
6.4336114 -1.9622309 0.37569958
5.0212975 -1.5248505 -0.87487036
5.0018215 -1.518936 -0.58264863
5.0065246 -1.5203644 -0.2922554
5.0174861 -1.5236931 0
6.4260325 -1.9514356 0.37511903
5.0477037 -1.5262102 -0.8791492
5.0135565 -1.5158856 -0.58380181
5.0307412 -1.5210814 -0.29356152
5.0193238 -1.5176294 0
6.4283857 -1.9436696 0.37511903
5.0544653 -1.5215913 -0.88000596
5.0426302 -1.5180286 -0.58697331
5.0674143 -1.5254896 -0.29559377
5.0485687 -1.5198163 0
6.4282436 -1.9351524 0.37497404
5.0882645 -1.5250634 -0.88556916
5.0667567 -1.518617 -0.58956766
5.0841832 -1.5238402 -0.29646432
5.0678539 -1.5189459 0
6.4280906 -1.9266384 0.37482902
5.1220798 -1.528456 -0.8911323
5.0859303 -1.5176688 -0.59158492
5.1134129 -1.5258697 -0.29806098
5.0946193 -1.5202616 0
6.4279265 -1.9181277 0.37468404
5.1140795 -1.5193416 -0.88942045
5.1100821 -1.5181539 -0.59418035
5.145143 -1.5285701 -0.29980266
5.1263895 -1.5229986 0
6.4227643 -1.9081386 0.37424847
5.1405234 -1.5204406 -0.89369929
5.1391883 -1.5200458 -0.59735072
5.1544542 -1.5245609 -0.30023766
5.1282258 -1.5168033 0
6.4300442 -1.9018492 0.37453848
5.1497469 -1.5164043 -0.89498359
5.1459885 -1.5152975 -0.59792787
5.1812234 -1.5256729 -0.30168933
5.1625071 -1.5201616 0
6.4248667 -1.8918784 0.37410349
5.1540365 -1.5109022 -0.89541113
5.1751108 -1.5170801 -0.6010983
5.210485 -1.5274498 -0.30328545
5.1818247 -1.5190482 0
6.4321303 -1.8855743 0.37439349
5.1919084 -1.5185986 -0.90183109
5.218226 -1.5262964 -0.60599899
5.2313581 -1.5301374 -0.30444658
5.1977234 -1.5202994 0
6.4307766 -1.8809593 0.37424847
5.2159195 -1.5187825 -0.90568238
5.227519 -1.5221601 -0.60686409
5.2556543 -1.5303526 -0.30575269
5.2270451 -1.522022 0
6.4280596 -1.871736 0.37395847
5.2300763 -1.5160518 -0.90782177
5.2442551 -1.5201617 -0.60859334
5.274972 -1.5290658 -0.3067688
5.2638698 -1.5258476 0
6.427814 -1.8632421 0.37381291
5.2245121 -1.507598 -0.90653914
5.2908244 -1.5267332 -0.61378312
5.2693238 -1.5205289 -0.30633324
5.2432079 -1.512993 0
6.4250722 -1.8540345 0.37352291
5.1967225 -1.4927793 -0.90140349
5.3075762 -1.5246223 -0.61551231
5.228703 -1.5019658 -0.303866
6.4606242 -1.85584 0
6.422308 -1.8448336 0.37323236
5.1664391 -1.4773247 -0.89584035
5.2348146 -1.4968766 -0.60686409
5.1430798 -1.4706453 -0.29878655
5.129252 -1.4666914 0
6.429534 -1.8385023 0.37352291
5.1608109 -1.4689721 -0.89455605
5.1619945 -1.469309 -0.59821588
5.1098695 -1.4544721 -0.29675487
5.1084952 -1.4540809 0
6.4317508 -1.8307321 0.37352291
5.15517 -1.4606351 -0.89327174
5.1363897 -1.455314 -0.59504443
5.1116233 -1.4482968 -0.29675487
5.117753 -1.4500337 0
6.4239578 -1.8201258 0.37294236
5.1544628 -1.4537089 -0.89284414
5.1132555 -1.4420872 -0.59216201
5.1158681 -1.442824 -0.29689988
0 -0 0
6.4386544 -1.8158884 0.37366793
5.1413913 -1.443318 -0.89027721
5.1224675 -1.4380057 -0.59302717
5.1176076 -1.4366413 -0.29689988
5.081162 -1.4264102 0
6.4208298 -1.8024888 0.3725068
5.1381817 -1.4357216 -0.88942045
5.1192141 -1.4304216 -0.59245002
5.1168394 -1.4297581 -0.29675487
5.0828815 -1.4202695 0
6.4280133 -1.796129 0.37279737
5.1522765 -1.4329506 -0.89155984
5.1209388 -1.424235 -0.59245002
5.1135516 -1.4221805 -0.29646432
5.0795746 -1.4127308 0
6.4176545 -1.7848774 0.37207124
5.2109094 -1.4424765 -0.90140349
5.1126852 -1.4152862 -0.59129691
5.1152663 -1.4160007 -0.29646432
5.073751 -1.4045085 0
6.4248199 -1.7785095 0.37236181
5.3858738 -1.4839058 -0.93135875
6.4533691 -1.7780201 -0.74610186
6.4771719 -1.7845782 -0.37527072
5.0905032 -1.4025258 0
6.4194465 -1.7686738 0.37192625
5.4767876 -1.5018365 -0.9467656
6.453021 -1.7695378 -0.74581385
6.4818368 -1.7774397 -0.37541628
6.4574728 -1.7707586 0
6.4215789 -1.7609159 0.37192625
5.4959264 -1.4999471 -0.94976014
6.4526615 -1.7610589 -0.74552584
6.4589071 -1.7627636 -0.37396461
6.4596076 -1.7629547 0
6.4211974 -1.7524718 0.37178126
5.4779258 -1.4879247 -0.946338
6.4622655 -1.7552929 -0.74638987
6.4710631 -1.7576824 -0.37454516
6.4592242 -1.7544668 0
6.4283209 -1.7460726 0.37207124
5.4896321 -1.4839841 -0.9480499
6.4568982 -1.7454603 -0.74552584
6.4681702 -1.7485073 -0.37425518
6.4538097 -1.7446253 0
6.4279199 -1.7376267 0.37192625
5.4988508 -1.4793488 -0.94933254
6.4590025 -1.7376571 -0.74552584
6.4652548 -1.7393391 -0.37396461
6.4559131 -1.7368258 0
6.4325213 -1.7305329 0.37207124
5.4724784 -1.4687088 -0.94462615
6.4500589 -1.7310728 -0.74437267
6.4663043 -1.7354327 -0.37396461
6.4644942 -1.734947 0
6.4335656 -1.7266463 0.37207124
5.4816823 -1.4640806 -0.94590884
6.457139 -1.7246114 -0.74494869
6.4709144 -1.7282907 -0.37411016
6.4665861 -1.7271347 0
6.4331393 -1.7182015 0.37192625
5.5032945 -1.4627312 -0.94933254
6.446722 -1.7134867 -0.7435075
6.4704795 -1.7198012 -0.37396461
6.4611301 -1.7173162 0
6.422657 -1.7070904 0.37120068
5.4976201 -1.4541132 -0.9480499
6.4512858 -1.7063565 -0.74379551
6.4775815 -1.7133118 -0.37425518
6.465714 -1.7101728 0
6.434763 -1.7019863 0.37178126
5.4745431 -1.4409339 -0.9437694
6.4608493 -1.7005359 -0.74466068
6.4620547 -1.7008531 -0.37323904
6.4602227 -1.700371 0
6.4267635 -1.6915643 0.37120068
5.3719859 -1.4070019 -0.92579561
6.4553905 -1.6907613 -0.74379551
6.4766712 -1.696335 -0.37396461
6.4597573 -1.6919051 0
6.428803 -1.6837976 0.37120068
5.202292 -1.3558414 -0.89626789
6.4499273 -1.681005 -0.74293149
5.1033835 -1.3300636 -0.29457763
5.0893531 -1.3264068 0
6.4308324 -1.6760284 0.37120068
0 -0 -0
6.4619684 -1.6758074 -0.74408466
5.112535 -1.3258536 -0.29501319
5.1060619 -1.3241749 0
6.4278274 -1.6669534 0.37091067
5.1608162 -1.3317214 -0.8885653
5.1216736 -1.3216208 -0.58956766
5.1141334 -1.3196751 -0.29501319
5.0975785 -1.3154032 0
6.4222865 -1.6572371 0.37047514
5.1773353 -1.3293138 -0.8911323
5.110743 -1.3122158 -0.58812648
5.1207533 -1.314786 -0.2953032
5.0966458 -1.3085963 0
6.4293127 -1.650767 0.37076512
5.2361455 -1.3376719 -0.90097594
5.1223488 -1.3086003 -0.58927965
6.4842858 -1.6565328 -0.37381962
5.0906563 -1.3005038 0
6.4338279 -1.6436422 0.37091067
5.4318047 -1.3806671 -0.93435496
6.4599652 -1.6420071 -0.74293149
6.4686518 -1.6442151 -0.37280351
5.0922241 -1.2943518 0
6.4206939 -1.632025 0.37003958
5.5081253 -1.3929832 -0.94719315
6.4594302 -1.6335644 -0.74264234
6.4731603 -1.6370367 -0.37294906
6.4561729 -1.6327406 0
6.4277043 -1.6255411 0.37033013
5.5122919 -1.3869525 -0.94762069
6.4613991 -1.6257582 -0.74264234
6.4801683 -1.6304808 -0.37323904
6.4657149 -1.626844 0
6.4321814 -1.6184067 0.37047514
5.4990268 -1.3765519 -0.9450537
6.4683819 -1.619207 -0.74321949
6.4720511 -1.6201257 -0.37265849
6.4575772 -1.6165024 0
6.4316139 -1.6100031 0.37033013
5.5098152 -1.3651116 -0.946338
6.4597254 -1.6004612 -0.74177831
6.4709082 -1.6032319 -0.37236848
6.4614649 -1.6008923 0
6.4329562 -1.593829 0.37018457
5.5114608 -1.358453 -0.946338
6.4742088 -1.5957491 -0.74321949
6.4753609 -1.5960331 -0.3725135
6.4709778 -1.5949527 0
6.4348774 -1.5860549 0.37018457
5.5180798 -1.353014 -0.94719315
6.4685936 -1.5860767 -0.74235433
6.4772849 -1.5882077 -0.3725135
6.4602547 -1.5840321 0
6.4367895 -1.5782784 0.37018457
5.4939651 -1.343583 -0.94291431
6.4770904 -1.5840123 -0.74321949
6.4933825 -1.5879967 -0.37338406
6.4637456 -1.5807488 0
6.4453163 -1.5762417 0.37062013
5.5105457 -1.3405832 -0.94548124
6.4739685 -1.5749608 -0.74264234
6.4725757 -1.5746222 -0.37207794
5.0926075 -1.238909 0
6.4775138 -1.5758234 0.37236181
5.3749409 -1.3007169 -0.92194432
6.4632998 -1.564096 -0.74120116
6.5224614 -1.578413 -0.37483573
5.1016917 -1.2345917 0
6.5349703 -1.5814401 0.37555459
5.2018185 -1.2521703 -0.89198905
6.4576478 -1.554471 -0.74033713
5.1375027 -1.2366885 -0.29515821
5.0880032 -1.2247732 0
6.5772972 -1.5832727 0.37787682
0 -0 -0
5.1163702 -1.2250631 -0.58639622
5.1465769 -1.2322958 -0.29559377
5.1122556 -1.2240779 0
6.6171036 -1.5843984 0.38005349
5.1623788 -1.2294859 -0.88471401
5.1203604 -1.2194787 -0.58668423
0 -0 -0
5.1137309 -1.2178998 0
6.6670427 -1.5878407 0.38281128
5.1813388 -1.2273877 -0.88770854
5.1243544 -1.2138888 -0.58697331
5.1191978 -1.2126673 -0.29385209
5.0974698 -1.2075201 0
6.71699 -1.5911622 0.38556853
5.2377839 -1.2340766 -0.89712304
5.1182623 -1.205916 -0.58610815
5.1231861 -1.2070762 -0.29399708
5.0913229 -1.1995689 0
6.7340879 -1.5866215 0.38643965
5.4317198 -1.2728443 -0.93007606
5.1146836 -1.1985517 -0.58553213
5.1221137 -1.2002927 -0.29385209
5.0978413 -1.1946049 0
6.7714143 -1.5867822 0.38847131
5.5157437 -1.2855055 -0.94419694
6.458672 -1.5052654 -0.73918396
6.841763 -1.5945491 -0.39239636
5.0891428 -1.1860814 0
6.7960997 -1.5839067 0.38977742
5.5198011 -1.2794212 -0.94462615
6.4504075 -1.4951241 -0.73803079
6.8614063 -1.5903887 -0.39341247
5.0981808 -1.1816947 0
6.8309135 -1.5833207 0.39166409
5.5413547 -1.2773637 -0.9480499
6.452209 -1.487329 -0.73803079
6.9038358 -1.5914356 -0.3957347
5.0894608 -1.1731955 0
6.8784037 -1.5855731 0.39427689
5.5203676 -1.265503 -0.94419694
6.4464359 -1.4777973 -0.73716563
6.9133544 -1.5848348 -0.39617026
5.0908747 -1.167045 0
6.8879051 -1.5790008 0.39471188
5.5118814 -1.2565495 -0.94248509
6.4532557 -1.4711556 -0.73774165
6.9228573 -1.5782113 -0.39660525
5.0846663 -1.1591569 0
6.8948798 -1.5718333 0.39500245
5.5334239 -1.254429 -0.94590884
6.4499884 -1.4622145 -0.73716563
6.9196959 -1.5686973 -0.39631525
5.0835276 -1.1524373 0
6.8663645 -1.556607 0.39326078
5.5399489 -1.2488722 -0.9467656
6.441658 -1.4521446 -0.73601246
6.8784966 -1.5506213 -0.39384803
5.0899892 -1.1474376 0
6.8707728 -1.5488801 0.39340577
5.5289316 -1.2393703 -0.94462615
6.4459291 -1.4449253 -0.73630047
6.8981066 -1.5462857 -0.39486358
5.0837507 -1.1395782 0
6.8751721 -1.5411448 0.39355078
5.5354314 -1.2338047 -0.94548124
6.4501925 -1.4376978 -0.73658848
6.9380155 -1.5464298 -0.39704081
5.1003699 -1.1368328 0
6.8415275 -1.5249233 0.3915191
5.4266524 -1.2026777 -0.92665237
6.4569802 -1.4310234 -0.73716563
6.9094362 -1.5312985 -0.39529914
5.0966535 -1.1295419 0
6.8661942 -1.5217152 0.39282522
5.2744784 -1.1656096 -0.90054673
6.4477415 -1.4248896 -0.73601246
5.1318498 -1.1340901 -0.29356152
5.0922575 -1.1253405 0
6.8189125 -1.5069149 0.39006799
5.1881361 -1.1399555 -0.88556916
6.4646111 -1.4204271 -0.73774165
5.1205292 -1.1251007 -0.29283598
5.0758181 -1.1152766 0
6.8638701 -1.5081537 0.39253521
5.1644354 -1.1282082 -0.88129026
6.4562149 -1.4104067 -0.73658848
5.1345754 -1.121685 -0.29356152
5.0949621 -1.1130311 0
6.87076 -1.500967 0.39282522
5.2159567 -1.1328619 -0.88984799
5.1057477 -1.1089255 -0.58236063
5.1257701 -1.1132741 -0.29298097
5.0912118 -1.1057683 0
6.8649583 -1.491011 0.39239022
5.3578391 -1.1569 -0.91381413
5.1121359 -1.1038461 -0.5829367
5.1042547 -1.1021444 -0.29167485
5.1001782 -1.1012642 0
6.856595 -1.4805213 0.39180967
5.514832 -1.1838266 -0.94034564
6.4714007 -1.3891656 -0.73774165
5.1055827 -1.0959761 -0.29167485
5.0862432 -1.0918245 0
6.8583789 -1.4722353 0.39180967
5.5338349 -1.1809129 -0.94334185
6.4654932 -1.3797274 -0.73687762
6.9212499 -1.4769852 -0.39529914
5.1002822 -1.0883932 0
6.8703179 -1.4661164 0.39239022
5.5453024 -1.1763562 -0.9450537
6.4620905 -1.3708396 -0.73630047
6.9306574 -1.4702394 -0.3957347
5.1092334 -1.0838505 0
6.8720841 -1.457814 0.39239022
5.5416913 -1.1685946 -0.94419694
6.4612136 -1.3624972 -0.73601246
6.9273391 -1.4607906 -0.39544412
5.1079855 -1.0771376 0
6.8585806 -1.4462913 0.3915191
5.545619 -1.1624259 -0.94462615
6.4679132 -1.3557494 -0.73658848
6.9138446 -1.4492217 -0.39457357
5.1016493 -1.0693647 0
6.8654146 -1.4390702 0.39180967
5.5369673 -1.1536298 -0.94291431
6.4644871 -1.346879 -0.73601246
6.9181323 -1.4413962 -0.39471859
5.0927463 -1.0610762 0
6.872231 -1.4318327 0.39209965
5.5358357 -1.1464165 -0.94248509
6.4635797 -1.3385431 -0.73572445
6.9376826 -1.436725 -0.3957347
5.1067643 -1.0575601 0
6.8815918 -1.4251091 0.39253521
5.5422506 -1.1407628 -0.94334185
6.4601207 -1.3296882 -0.7351473
6.9088721 -1.4220548 -0.39399302
5.0952959 -1.0487659 0
6.8731284 -1.4146976 0.39195466
5.5486503 -1.1350932 -0.94419694
6.4642544 -1.3223993 -0.73543531
6.9156718 -1.4147463 -0.39428303
5.0940022 -1.0420854 0
6.8850155 -1.4084749 0.39253521
5.5399551 -1.1263421 -0.94248509
6.4683895 -1.3151044 -0.73572445
6.9250178 -1.4079427 -0.39471859
5.1003633 -1.0369675 0
6.8637977 -1.3954958 0.39122909
5.5387983 -1.1191394 -0.94205755
6.4623656 -1.3057504 -0.73485929
6.9088926 -1.3959732 -0.39370301
5.1016126 -1.030804 0
6.8756671 -1.3892598 0.39180967
5.3614588 -1.076566 -0.91167307
6.4614053 -1.2974322 -0.73457128
5.1349888 -1.0310915 -0.29254597
5.1105113 -1.0261765 0
6.8620501 -1.3778806 0.39093855
5.2092037 -1.0394471 -0.88556916
6.473114 -1.2916484 -0.73572445
0 -0 -0
5.0964293 -1.0169441 0
6.8688111 -1.3706061 0.39122909
0 -0 -0
5.1148586 -1.0141966 -0.58120745
0 -0 -0
5.1129766 -1.0138234 0
6.8679061 -1.3617985 0.39108354
5.1581964 -1.0195513 -0.87658221
0 -0 -0
0 -0 -0
5.1186891 -1.0117425 0
6.8789244 -1.3596644 0.39166409
5.2022443 -1.0217277 -0.88385725
0 -0 -0
0 -0 -0
5.1173568 -1.0050558 0
6.8703632 -1.3493485 0.39108354
5.3621988 -1.0464156 -0.91081798
5.1077447 -0.99675965 -0.58005428
5.1226645 -0.99967122 -0.29152986
5.1109018 -0.99737579 0
6.8668928 -1.3400517 0.39079353
5.5373368 -1.0736492 -0.94034564
6.457191 -1.2520022 -0.7331301
5.1009126 -0.98902977 -0.29022375
5.109551 -0.99070466 0
6.8736038 -1.3327416 0.39108354
5.5512309 -1.0693851 -0.94248509
6.4536147 -1.2432196 -0.73255295
6.8982882 -1.3288811 -0.39239636
5.1184134 -0.98600739 0
6.8675618 -1.322962 0.39064854
5.5525193 -1.0626767 -0.94248509
6.4576502 -1.2359065 -0.73284096
6.8794818 -1.3166393 -0.3912358
5.1170373 -0.97933143 0
6.8691554 -1.3146631 0.39064854
5.5563283 -1.0564477 -0.94291431
6.4591389 -1.2281028 -0.73284096
6.9116902 -1.3141483 -0.39297691
5.1131086 -0.97217649 0
6.860528 -1.3044206 0.39006799
5.5500307 -1.0483034 -0.94162995
6.4504519 -1.2183771 -0.73168778
6.9081717 -1.3048322 -0.3926869
5.1168342 -0.96648014 0
6.8672009 -1.2970936 0.39035797
5.5588651 -1.0430171 -0.94291431
6.4544687 -1.2110604 -0.73197693
6.917407 -1.2979221 -0.39312246
5.1026564 -0.95741802 0
6.8866429 -1.2921498 0.39137411
5.5500269 -1.0344181 -0.9412024
6.4533772 -1.2027853 -0.73168778
6.949614 -1.2952743 -0.39486358
5.1089211 -0.95220459 0
6.8703156 -1.2804946 0.39035797
5.5563164 -1.028645 -0.94205755
6.4599175 -1.1959294 -0.73226494
6.9230762 -1.2816743 -0.39326745
5.1100678 -0.94603074 0
6.8922977 -1.2759763 0.3915191
5.5449338 -1.0196097 -0.9399181
6.4715328 -1.189994 -0.73341811
6.9118443 -1.270959 -0.39254192
5.1163316 -0.94079775 0
6.8606143 -1.2615387 0.38963243
5.5436387 -1.0124482 -0.93949056
6.4653306 -1.180779 -0.73255295
6.9287071 -1.2654066 -0.39341247
5.1097817 -0.9332118 0
6.8774757 -1.2560501 0.39050356
5.5296984 -1.0029993 -0.93692189
6.4769325 -1.1748126 -0.73370612
6.9353495 -1.2579621 -0.39370301
5.1185899 -0.92843086 0
6.8738699 -1.2468107 0.39021298
5.2732272 -0.94989967 -0.89327174
6.4656219 -1.1646934 -0.73226494
5.1366205 -0.92529184 -0.29152986
5.1145806 -0.92132169 0
6.8753715 -1.2385041 0.39021298
5.1834102 -0.92725545 -0.87786657
6.4644809 -1.156425 -0.73197693
0 -0 -0
5.1105714 -0.9142254 0
6.8794184 -1.2306527 0.39035797
5.1718917 -0.91874707 -0.87572712
5.1162319 -0.90885955 -0.57918918
0 -0 -0
5.1244817 -0.91032505 0
6.8834658 -1.2227951 0.39050356
5.1679373 -0.91160446 -0.87487036
0 -0 -0
0 -0 -0
5.1281385 -0.90458411 0
6.8695798 -1.2117678 0.38963243
5.2721453 -0.92670244 -0.8924166
0 -0 -0
0 -0 -0
5.1261234 -0.90103567 0
6.8779907 -1.2089672 0.39006799
5.4755592 -0.95563805 -0.92665237
5.1164088 -0.89295626 -0.57890111
5.098062 -0.8897543 -0.28906262
5.1092596 -0.89170855 0
6.8717647 -1.199315 0.38963243
5.5576401 -0.96304506 -0.94034564
6.4655714 -1.1203742 -0.73139977
6.9245329 -1.1999044 -0.39254192
5.1180286 -0.88686782 0
6.8757668 -1.1914542 0.38977742
5.5714469 -0.9585048 -0.94248509
6.4669204 -1.112561 -0.73139977
6.9259777 -1.1915367 -0.39254192
5.1190968 -0.88068306 0
6.8848863 -1.1844673 0.39021298
5.5737467 -0.94503802 -0.94248509
6.4644952 -1.0960659 -0.73082376
6.9057822 -1.1708869 -0.3912358
5.1186466 -0.86787498 0
6.8928576 -1.1686954 0.39050356
5.5748849 -0.93830258 -0.94248509
6.4683628 -1.0886829 -0.73111176
6.9046226 -1.1621093 -0.39109024
5.1068621 -0.85953015 0
6.8788853 -1.1577774 0.38963243
5.5633569 -0.92945105 -0.94034564
6.4569201 -1.0787357 -0.72967058
6.9162731 -1.1554782 -0.39167079
5.120729 -0.85550272 0
6.8905306 -1.1511775 0.39021298
5.5568857 -0.92146951 -0.93906301
6.4582191 -1.070933 -0.72967058
6.9484258 -1.1522213 -0.39341247
5.1140542 -0.84803706 0
6.8842239 -1.1415751 0.38977742
5.5554547 -0.91433632 -0.9386338
6.4595084 -1.0631287 -0.72967058
5.1653881 -0.85013783 -0.29240042
5.1099439 -0.8410126 0
6.8676581 -1.1303034 0.38876188
5.5464215 -0.90596771 -0.93692189
6.4735489 -1.0574073 -0.73111176
5.1612878 -0.84305888 -0.29211041
5.1109567 -0.83483762 0
6.8792763 -1.1236799 0.38934243
5.5753884 -0.9037841 -0.94162995
6.4671602 -1.0483425 -0.7302466
5.1674275 -0.83765262 -0.29240042
5.1196609 -0.82990956 0
6.8857541 -1.1161976 0.38963243
5.4801707 -0.88155466 -0.92536801
6.4684219 -1.0405273 -0.7302466
5.153048 -0.82893288 -0.29152986
5.1103821 -0.82206947 0
6.8793988 -1.1066382 0.38919687
5.2353516 -0.835684 -0.88385725
6.4798913 -1.0343416 -0.73139977
5.1514826 -0.82229662 -0.29138485
5.1165166 -0.81671524 0
6.8833046 -1.0987357 0.38934243
5.1628313 -0.81771213 -0.87144661
6.4836884 -1.0269154 -0.73168778
0 -0 -0
5.1149316 -0.81012559 0
6.8871913 -1.0908239 0.38948742
0 -0 -0
5.1205611 -0.804676 -0.57774794
0 -0 -0
5.1210437 -0.80475187 0
6.8808007 -1.0812907 0.38905185
5.1292872 -0.7996977 -0.86545593
5.1215296 -0.7984882 -0.57774794
0 -0 -0
5.1297293 -0.7997666 0
6.8923721 -1.074577 0.38963243
5.1251712 -0.79271382 -0.86459917
0 -0 -0
0 -0 -0
0 -0 0
6.8910999 -1.0658513 0.38948742
5.1286697 -0.78691089 -0.86502832
0 -0 -0
5.1358094 -0.78800637 -0.29022375
0 -0 0
6.884675 -1.0563414 0.38905185
5.1215291 -0.78264856 -0.86374402
5.1136909 -0.78145075 -0.57659477
5.108027 -0.78058523 -0.28862706
0 -0 0
6.8750377 -1.0506117 0.38847131
5.0894785 -0.77145863 -0.85818088
5.106957 -0.77410805 -0.57572967
