# .PCD v0.7 - Point Cloud Data file format
VERSION 0.7
FIELDS x y z
SIZE 4 4 4
TYPE F F F
COUNT 1 1 1
WIDTH 1590
HEIGHT 1
VIEWPOINT 0 0 0 1 0 0 0
POINTS 1590
DATA ascii
-0 0 -0
-2.0677476 4.1444731 -0.77216315
-2.0935314 4.1961522 -0.52268714
-4.669785 9.3598452 -0.584261
-4.9085736 9.838459 0
-4.8889704 9.7991676 0.61168438
-0 0 -0
-2.0520775 4.1006536 -0.76446056
-2.0974438 4.191309 -0.52239913
-4.6694651 9.3309631 -0.58280987
-4.9006596 9.7929583 0
-4.8926663 9.7769852 0.6106683
-0 0 -0
-2.0593362 4.1027641 -0.76531732
-2.0990245 4.1818342 -0.52153397
-4.6784024 9.3206654 -0.58251929
-4.898479 9.7591181 0
-4.8904881 9.7431984 0.60892659
-0 0 -0
-2.0642922 4.1002731 -0.76531732
-2.1063998 4.1839108 -0.52211004
-4.6955028 9.3266077 -0.58324486
-4.9009051 9.7345953 0
-4.8964162 9.7256794 0.60820103
-0 0 -0
-2.070401 4.1000648 -0.76574486
-2.1137879 4.1859851 -0.52268714
-0 0 -0
-4.8962426 9.6961479 0
-4.897624 9.6988831 0.60689491
-0 0 -0
-2.068392 4.0838156 -0.76317626
-2.1130021 4.1718931 -0.52124596
-0 0 -0
-4.9009018 9.6762991 0
-4.8940778 9.6628246 0.60500824
-2.0779755 4.0904679 -0.76488811
-0 0 -0
-0 0 -0
-4.8901939 9.6262827 0
-4.8916273 9.6291046 0.6032666
-2.0759263 4.074235 -0.76232111
-2.1230776 4.1667743 -0.52124596
-0 0 -0
-4.8982806 9.6134167 0
-4.8879242 9.593091 0.60137993
-2.0820148 4.074007 -0.76274872
-2.1339948 4.1757197 -0.52268714
-0 0 -0
-4.8838358 9.5565033 0
-4.8805923 9.5501566 0.59905767
-0 0 -0
-2.1381679 4.1590509 -0.52124596
-2.0786624 4.0433044 -0.25394082
-4.8926415 9.5169077 0
-4.8858395 9.5036774 0.59688097
-2.0908878 4.0550275 -0.76060927
-2.1408186 4.1518626 -0.52066886
-2.0752094 4.024621 -0.25292471
-4.8850541 9.473979 0
-4.883029 9.4700527 0.59513932
-2.1063979 4.0730176 -0.76446056
-2.1482124 4.153872 -0.52124596
-2.0812633 4.0244164 -0.2530697
-4.8941045 9.4634418 0
-4.8873086 9.4503012 0.59426874
-0 0 -0
-2.1508458 4.1466765 -0.52066886
-2.0885196 4.0265164 -0.25336027
-4.8875647 9.4228745 0
-4.8867574 9.4213181 0.59281707
-2.1020179 4.0405874 -0.75932497
-2.1475024 4.1280193 -0.5186516
-2.0849879 4.0078516 -0.25234416
-4.8773251 9.3754005 0
-4.8801532 9.3808355 0.59064043
-2.1021485 4.0289407 -0.75761306
-2.1572745 4.134594 -0.51980478
-2.0826192 3.9915113 -0.25147358
-4.8886499 9.3695002 0
-4.8794622 9.3518906 0.58918875
-2.1034479 4.0195808 -0.75633043
-2.1622689 4.1319847 -0.51980478
-2.0994861 4.0120101 -0.25292471
-4.8915243 9.3474522 0
-4.8787131 9.3229694 0.58773762
-0 0 -0
-2.1744697 4.1431055 -0.52153397
-2.1019197 4.0048733 -0.2526347
-4.882256 9.3023615 0
-4.8899746 9.3170681 0.58773762
-0 0 -0
-2.1662207 4.1152968 -0.51836252
-2.0886009 3.967838 -0.25045747
-4.8862171 9.2826338 0
-4.8770218 9.2651653 0.58483481
-2.1215968 4.0187335 -0.75761306
-0 0 -0
-2.1043108 3.9859903 -0.25176358
-4.8755617 9.235301 0
-4.8809371 9.2454824 0.58396429
-2.1276557 4.0184426 -0.75804228
-2.1725318 4.103199 -0.51749843
-2.1200674 4.0041103 -0.2530697
-4.8867173 9.2294035 0
-4.8823776 9.2212067 0.58280319
-2.1300831 4.0171561 -0.75804228
-2.1665275 4.0858874 -0.5154801
-2.093276 3.947741 -0.24958691
-4.867909 9.1804638 0
-4.8709083 9.186121 0.58077151
-2.1361396 4.0168438 -0.75846982
-2.1775341 4.0946827 -0.51692134
-2.0858417 3.9222624 -0.24813524
-4.8655601 9.1493063 0
-4.8673639 9.1526976 0.5790298
-2.1434054 4.0187855 -0.75932497
-2.1812639 4.0897689 -0.51663327
-2.1162574 3.9678845 -0.25118303
-4.8655906 9.122756 0
-4.8674154 9.1261778 0.57772368
-2.1434166 4.0071383 -0.75761306
-2.1837618 4.0825644 -0.51605618
-2.1136992 3.9515812 -0.25031248
-4.8680162 9.1008043 0
-4.8686342 9.1019592 0.57656258
-2.1494739 4.006814 -0.75804228
-2.1850288 4.0730915 -0.51519209
-2.1160133 3.9444406 -0.2500219
-4.8716297 9.0811596 0
-4.8722563 9.0823269 0.57569146
-1.7900889 3.3272307 -0.83698642
-2.1530941 4.0019469 -0.75761306
-2.1985233 4.0863862 -0.51720935
-2.1195478 3.9395947 -0.24987692
-4.8665662 9.0454655 0
-4.8635335 9.0398293 0.5733698
-1.8073813 3.3496652 -0.84317869
-2.157928 3.9993424 -0.75761306
-2.1960924 4.0700731 -0.5154801
-2.1206038 3.9301682 -0.24944136
-4.8651366 9.0166798 0
-4.87075 9.0270834 0.57293427
-1.8174726 3.3586502 -0.84599257
-2.1652048 4.0012517 -0.75846982
-2.2034683 4.0719619 -0.51605618
-2.1340086 3.9436023 -0.25045747
-4.8648815 8.9901972 0
-4.8680496 8.9960508 0.57133758
-1.8263773 3.3653846 -0.84824413
-2.1651402 3.9896078 -0.75675797
-2.2108567 4.0738473 -0.51663327
-0 0 -0
-4.8645701 8.963728 0
-4.8702435 8.9741821 0.57032204
-1.8328741 3.3676431 -0.84937096
-2.1699591 3.9869885 -0.75675797
-2.2145422 4.0689034 -0.51634526
-0 0 -0
-4.8629541 8.9349804 0
-4.8686595 8.9454632 0.56887031
-1.8223336 3.3386624 -0.84261638
-2.1686268 3.9730995 -0.75461853
-2.223171 4.073029 -0.51720935
-0 0 -0
-0 0 0
-4.8645258 8.9122038 0.56712866
-1.8141636 3.3141656 -0.83698642
-2.1808193 3.9839826 -0.75718552
-2.2218823 4.0589981 -0.51576817
-0 0 -0
-4.8657913 8.8889666 0
-4.8653092 8.8880854 0.56596756
-1.8071632 3.2919271 -0.83192098
-1.737227 3.1645312 -0.60184121
-2.2255418 4.0540452 -0.5154801
-0 0 -0
-4.8690119 8.8693876 0
-4.8672957 8.8662624 0.56495202
-1.8111396 3.2897413 -0.83192098
-1.7521907 3.1826668 -0.60569251
-2.2341821 4.0581527 -0.51634526
-2.1550262 3.9143744 -0.24958691
-4.8621554 8.8315849 0
-4.86798 8.842164 0.56379086
-1.8114325 3.2808836 -0.83023399
-1.7659612 3.1985257 -0.60911626
-2.2403328 4.0577121 -0.51663327
-2.1584947 3.9094863 -0.24944136
-4.8728232 8.8257036 0
-4.8673582 8.8158054 0.56248474
-1.8117018 3.2720215 -0.8285448
-1.7660931 3.1896501 -0.60783195
-2.2427261 4.0504723 -0.51605618
-2.160702 3.902333 -0.24915136
-4.8683558 8.7924881 0
-4.876749 8.8076468 0.56233978
-1.8107201 3.2609446 -0.82629323
-1.7612261 3.1718102 -0.60483742
-2.2476187 4.0477595 -0.51605618
-2.1692011 3.9065368 -0.24958691
-4.8663449 8.7638502 0
-4.879817 8.7881126 0.56146866
-1.813424 3.2565365 -0.82573086
-1.7650573 3.1696799 -0.60483742
-2.2512507 4.0427833 -0.51576817
-2.1777089 3.910717 -0.2500219
-4.8592072 8.7261362 0
-0 0 0
-1.8136398 3.2476854 -0.82404166
-1.7713867 3.1720231 -0.60569251
-2.2637029 4.0536137 -0.51749843
-2.1722972 3.8899333 -0.24886081
-4.8595963 8.7020807 0
-4.88204 8.7422705 0.55929196
-1.815082 3.2410622 -0.82291698
-1.7789824 3.1766016 -0.60697681
-2.2622766 4.0395856 -0.51605618
-2.1554129 3.8487666 -0.24639356
-4.8612046 8.6803055 0
-4.8849792 8.7227583 0.55842084
-1.8239689 3.2477198 -0.8251664
-1.7677351 3.1475909 -0.60184121
-2.272222 4.0458698 -0.51720935
-2.1778779 3.8778822 -0.2484258
-4.8525777 8.6403952 0
-4.8815227 8.6919346 0.55682474
-1.8278918 3.2455134 -0.8251664
-1.7702785 3.143218 -0.60141367
-2.2783821 4.0453815 -0.51749843
-2.1863835 3.8820336 -0.24886081
-4.854073 8.6186504 0
-4.8818207 8.6679173 0.55566365
-1.8218204 3.2256117 -0.82066548
-1.7652369 3.1254282 -0.59841746
-2.2819927 4.0403666 -0.51720935
-2.2064071 3.9065392 -0.25060248
-4.8555236 8.5969143 0
-4.8871794 8.6529617 0.55508304
-1.8287724 3.233357 -0.82291698
-1.7608072 3.1131911 -0.59627807
-2.2908037 4.0502505 -0.5186516
-2.1895821 3.8712857 -0.2484258
-4.8555913 8.584918 0
-4.8860111 8.6387014 0.55435753
-1.828916 3.2245123 -0.82122779
-1.7696334 3.119993 -0.59798992
-2.3008003 4.056479 -0.51980478
-2.2109225 3.8980176 -0.25031248
-4.8544068 8.5586729 0
-3.7299132 6.5761089 0.42228699
-1.8328109 3.2223003 -0.82122779
-1.7784787 3.1267779 -0.59970176
-2.3082552 4.058188 -0.52038085
-2.2130589 3.8908217 -0.2500219
-4.8505945 8.5279245 0
-0 0 0
-1.8291472 3.2068365 -0.8178494
-1.7797142 3.1201713 -0.59884667
-2.3157225 4.0598936 -0.52095795
-2.2126088 3.8791163 -0.24944136
-4.8531566 8.5084887 0
-3.7483714 6.5715947 0.42257756
-1.8342859 3.2068357 -0.81841391
-1.7924014 3.1336102 -0.60184121
-2.3231924 4.0615788 -0.52153397
-2.222455 3.8854623 -0.2500219
-4.8505144 8.480032 0
-3.7485659 6.5535231 0.42170644
-1.8432163 3.2134333 -0.82066548
-1.7719221 3.0891402 -0.59371108
-2.3319602 4.0655012 -0.52239913
-2.2349081 3.8963022 -0.25089303
-4.847806 8.4515858 0
-3.7564816 6.5489888 0.42170644
-1.8420302 3.2023938 -0.81841391
-1.7743698 3.0847652 -0.59328187
-2.3368709 4.0626807 -0.52239913
-2.2707036 3.947648 -0.25437582
-4.8411469 8.4163971 0
-3.7669859 6.5489545 0.42199698
-1.8509766 3.2089696 -0.82066548
-1.7870756 3.098187 -0.59627807
-2.341778 4.059854 -0.52239913
-2.2689817 3.9336495 -0.25365025
-4.8500137 8.4082899 0
-3.7722971 6.5398917 0.42170644
-1.8675724 3.2287211 -0.82629323
-1.776683 3.0715885 -0.59157163
-2.3505633 4.0637317 -0.52326322
-4.7390695 8.1930609 -0.5286752
-4.8380194 8.3641281 0
-4.8430924 8.3728991 0.54027969
-1.8803977 3.2418497 -0.83023399
-1.7726625 3.0561118 -0.58900303
-2.350281 4.0519395 -0.52211004
-4.7567911 8.200819 -0.52954632
-4.8350668 8.3357687 0
-4.8427763 8.3490591 0.53911853
-1.872812 3.2198014 -0.8251664
-1.7892584 3.0761533 -0.59328187
-2.3577785 4.0535722 -0.52268714
-4.7745328 8.2085381 -0.53041691
-4.8412085 8.3231688 0
-4.8397937 8.3207359 0.53766686
-1.8805429 3.2241228 -0.8268556
-1.792974 3.0739892 -0.59328187
-2.3939505 4.1043415 -0.52960616
-4.7831397 8.2005205 -0.53027189
-4.842082 8.3015747 0
-4.8406835 8.2991772 0.53665131
-1.8805875 3.2152662 -0.8251664
-1.7837291 3.0496659 -0.58900303
-2.3975983 4.0992069 -0.52931708
-4.7786131 8.1700602 -0.5286752
-4.8363471 8.2687693 0
-4.8362756 8.2686472 0.53505462
-1.8664768 3.1823115 -0.81728709
-1.7900126 3.0519414 -0.58985978
-2.4234865 4.1320038 -0.53392977
-4.7753382 8.1418705 -0.52722406
-4.8397479 8.251688 0
-4.83706 8.2471056 0.53403854
-1.8587286 3.1603444 -0.81222165
-1.7858881 3.0364954 -0.58729112
-4.7772708 8.1226606 -0.52635354
-4.8272867 8.2077007 0
-4.8351669 8.2210989 0.53273243
-1.8586724 3.1515284 -0.81053245
-1.7791232 3.0166461 -0.58386743
-4.7699232 8.0877876 -0.52446687
-0 0 0
-4.8371792 8.2018261 0.53186184
-0 0 -0
-1.8689499 3.1602216 -0.81334853
-0 0 -0
-4.7717533 8.068594 -0.52359575
-4.8444605 8.1915359 0
-4.8404737 8.1847944 0.53113627
-1.8766515 3.1645112 -0.81503552
-0 0 -0
-4.7722249 8.047184 -0.52258021
-4.8516974 8.1811943 0
-4.834455 8.1521196 0.52939463
-0 0 -0
-1.8739816 3.1513238 -0.81222165
-0 0 -0
-4.7739739 8.0280075 -0.52170908
-4.8669 8.1842737 0
-4.8363304 8.1328678 0.5285235
-1.8751878 3.1446967 -0.81109697
-0 0 -0
-0 0 -0
-4.8781223 8.1806288 0
-4.8474884 8.1292562 0.52866906
-1.8881103 3.1576879 -0.81503552
-0 0 -0
-0 0 -0
-4.8893375 8.17696 0
-4.8479714 8.1077795 0.52765298
-1.8827817 3.140156 -0.81109697
-0 0 -0
-0 0 -0
-4.9005513 8.1732759 0
-4.8550949 8.0974627 0.52736294
-1.8983566 3.1574752 -0.81616241
-1.8098654 3.0102906 -0.58557928
-4.7618437 7.9202204 -0.51619405
-4.9117632 8.1695776 0
-4.8568397 8.0782242 0.52649182
-1.8982335 3.148649 -0.81447321
-1.8214562 3.0212965 -0.58814788
-4.7647033 7.9033365 -0.51546848
-4.9149141 8.1524944 0
-4.8598905 8.0612259 0.52576625
-1.9040763 3.1540294 -0.81616241
-1.8299135 3.0311816 -0.59028733
-4.7560506 7.8782153 -0.5140174
-4.9131145 8.1383858 0
-4.8634181 8.0560656 0.52562129
-1.9105151 3.1560695 -0.81728709
-1.8349029 3.0311623 -0.59071487
-4.7574902 7.8591213 -0.51314628
-4.9108167 8.1124086 0
-4.8650723 8.0368414 0.52475017
-1.9143271 3.1537588 -0.81728709
-1.8239106 3.004802 -0.58600682
-4.7615895 7.8444819 -0.51256567
-4.9111609 8.0908937 0
-4.8639932 8.0131874 0.52358907
-1.9168166 3.1492748 -0.81672472
-1.8302119 3.0069859 -0.58686358
-4.7575574 7.8165307 -0.5111146
-4.9074054 8.062727 0
-4.8669186 7.9962082 0.52286351
-1.9179707 3.1426146 -0.81559789
-1.8191321 2.9806666 -0.58215553
-4.7534647 7.7886004 -0.50966346
-4.9076524 8.0412388 0
-4.8562756 7.957058 0.52068681
-1.9122728 3.116318 -0.80997014
-1.8478117 3.0112696 -0.58900303
-4.7546015 7.7482929 -0.50777626
-4.9066572 7.9960895 0
-4.855104 7.912076 0.51850957
-1.8365222 2.9847753 -0.96688813
-1.9173671 3.1161671 -0.81053245
-1.8379989 2.9871752 -0.58472419
-4.7585135 7.7336898 -0.50719565
-4.9026747 7.9679852 0
-4.8633003 7.9039927 0.51836461
-1.921131 3.113848 -0.81053245
-1.8308238 2.9674745 -0.58130044
-4.7596712 7.7146702 -0.50632513
-4.9109335 7.9598427 0
-4.8632951 7.8826284 0.51734847
-1.9208856 3.1050482 -0.8088454
-1.8330588 2.963079 -0.58087289
-4.7176571 7.625937 -0.99949789
-4.7525845 7.6823959 -0.50458342
-4.901382 7.9229221 0
-4.8523145 7.843606 0.51517183
-1.9326698 3.1156759 -0.81222165
-1.8434024 2.9717672 -0.58301228
-4.7173228 7.6048431 -0.99747956
-4.7468009 7.6523647 -0.50298733
-4.9013476 7.9015107 0
-4.8590465 7.8333168 0.51488125
-1.8906746 3.0397694 -0.98765171
-1.9391196 3.1176579 -0.81334853
-1.8497008 2.9738932 -0.58386743
-4.7101212 7.5727901 -0.99402118
-4.7532964 7.6422067 -0.50269675
-4.887526 7.8580165 0
-4.8616471 7.8164096 0.51415569
-1.9401934 3.1109965 -0.81222165
-1.8641603 2.9890814 -0.58729112
-4.7137928 7.5583148 -0.99286801
-4.7487793 7.6144137 -0.50124568
-4.8942657 7.847693 0
-4.8532143 7.7818689 0.51226902
-1.9399081 3.1021845 -0.81053245
-1.8555224 2.9672399 -0.58343983
-4.7133217 7.5372605 -0.99084967
-4.7469549 7.5910449 -0.50008452
-4.896841 7.8307343 0
-4.8515916 7.7583742 0.51110792
-1.9396096 3.0933864 -0.8088454
-1.8754708 2.9910946 -0.58857548
-4.7114334 7.514029 -0.98854333
-4.7492232 7.5742984 -0.49935898
-4.8966255 7.8093834 0
-4.8512988 7.7370939 0.51009178
-0 0 -0
-1.9419897 3.0888832 -0.80828094
-1.870883 2.9757824 -0.58600682
-4.7012386 7.4776797 -0.9845078
-4.7445388 7.5465517 -0.49790731
-4.8922038 7.7814245 0
-4.8523483 7.7180314 0.5092212
-1.9457206 3.0865345 -0.80828094
-1.8539469 2.9409521 -0.57958853
-4.706131 7.4654274 -0.98364264
-4.743958 7.5254331 -0.49689177
-4.8932781 7.7623024 0
-4.850585 7.6945777 0.5080601
-1.9467361 3.0798898 -0.80715621
-1.8643557 2.9495573 -0.58172798
-4.7054734 7.4444289 -0.98162431
-4.7405539 7.4999294 -0.49558565
-4.8957024 7.7453866 0
-4.8557129 7.6821198 0.50762457
-1.954538 3.0839758 -0.8088454
-1.8692912 2.9494689 -0.58215553
-4.7075434 7.4278164 -0.98018312
-4.7384844 7.4766374 -0.49442452
-4.8911233 7.7174792 0
-4.8538637 7.6586885 0.50646341
-1.9568962 3.0794611 -0.80828094
-1.8756099 2.9515452 -0.58301228
-4.7109661 7.4133911 -0.97902995
-4.7530899 7.4796786 -0.49500507
-4.8920727 7.6983891 0
-4.8519702 7.6352816 0.50530285
-1.9592516 3.0749536 -0.80771858
-1.8846927 2.9579368 -0.58472419
-4.7101951 7.3924303 -0.97701275
-4.7481585 7.4520121 -0.4935534
-4.8915806 7.6771064 0
-4.8514171 7.6140714 0.50428677
-1.9506555 3.0533149 -0.80265313
-1.8896461 2.9578185 -0.58515173
-4.7093754 7.3714738 -0.97499442
-4.7431726 7.424376 -0.4921023
-4.8924494 7.6580353 0
-4.849422 7.5906858 0.50312567
-1.9388099 3.030736 -0.79702538
-1.8692991 2.9220772 -0.57830423
-4.7040696 7.353374 -0.97297609
-4.736455 7.4039979 -0.49094117
-4.8900642 7.6441188 0
-4.8414063 7.5680571 0.50181955
-1.8825315 2.9349437 -0.58130044
-4.7031803 7.3324509 -0.97095889
-4.7341747 7.3807721 -0.48978007
-4.8824358 7.6119175 0
-4.843534 7.5512676 0.50109398
-1.8985723 2.9520967 -0.58515173
-4.7064404 7.3180609 -0.96980572
-4.7346587 7.3619375 -0.48890951
-13.554404 21.075792 0
-4.8442187 7.5322928 0.50022286
-1.8840539 2.9217563 -0.57958853
-4.7054663 7.2971506 -0.96778738
-4.736506 7.3452859 -0.48818338
-13.564351 21.035345 0
-4.8448701 7.5133352 0.49935231
-1.9451553 3.0085232 -0.79364699
-1.8875829 2.9194775 -0.57958853
-4.7058568 7.2784314 -0.96605819
-4.7326818 7.319921 -0.48687726
-13.582694 21.008015 0
-4.842658 7.4900188 0.49819118
-1.9791938 3.0530727 -0.80602938
-1.9064654 2.9408829 -0.58429497
-4.7005758 7.2510324 -0.9631747
-4.7316327 7.2989407 -0.48586172
-4.865376 7.5052514 0
-4.8418093 7.4688973 0.49717507
-1.9745756 3.0379004 -0.80265313
-1.8946326 2.9149075 -0.57958853
-4.7022872 7.2345066 -0.96173352
-4.7305346 7.2779651 -0.48484561
-4.8701849 7.4928184 0
-4.8437514 7.4521503 0.4964495
-1.9643745 3.0142291 -0.79702538
-1.9023595 2.91907 -0.58087289
-4.7011385 7.2136488 -0.95971519
-4.7308154 7.2591863 -0.48397502
-0 0 0
-4.8399854 7.4267015 0.49514338
-1.9374353 2.9650538 -0.78464085
-1.904477 2.9146142 -0.58044368
-4.6942925 7.1841516 -0.95654482
-4.7310524 7.2404094 -0.48310393
-0 0 0
-4.8404298 7.4078007 0.49427283
-1.928486 2.9435842 -0.77957541
-1.9037811 2.9058752 -0.57916099
-4.6973 7.1698203 -0.95539165
-4.7312565 7.2216506 -0.48223338
-4.8816295 7.4511757 0
-4.8394079 7.3867297 0.49325672
-1.9362277 2.9476249 -0.7812646
-1.9044694 2.8992774 -0.57830423
-4.6945996 7.1468449 -0.9530853
-4.7385535 7.2137585 -0.48208836
-4.8591924 7.3974133 0
-4.8383422 7.3656721 0.49224061
-1.9719281 2.9940834 -0.79420936
-1.9107978 2.9012661 -0.57916099
-4.6989627 7.134685 -0.95222014
-4.7386885 7.195003 -0.48121724
-4.8266163 7.3285084 0
-4.8400941 7.3489723 0.49151504
-1.9769486 2.993825 -0.79477388
-1.9227867 2.911804 -0.58172798
-4.6947541 7.1095786 -0.94962579
-4.7301965 7.1632519 -0.47947559
-4.8110895 7.2857537 0
-4.8346543 7.3214393 0.49006394
-1.9861754 2.9999084 -0.79702538
-1.9064662 2.8795164 -0.57573724
-4.6990614 7.0974369 -0.94876176
-4.7316775 7.1466999 -0.47875002
-0 0 0
-4.8291502 7.2939219 0.48861223
-1.9799606 2.9826858 -0.79308468
-1.9056836 2.8707924 -0.57445294
-0 0 -0
-4.7245059 7.1171703 -0.4771539
-4.7811913 7.2025638 0
-4.8207202 7.2621112 0.48687112
-1.9708941 2.9612563 -0.78801924
-1.9191086 2.8834488 -0.57744914
-4.6990027 7.0602226 -0.94530225
-4.7201405 7.0919819 -0.47584721
-4.7870045 7.1924443 0
-4.8208504 7.2432981 0.48600003
-1.9857538 2.975781 -0.79252231
-1.9197388 2.8768532 -0.57659239
-4.6601543 6.9835439 -0.93578887
-4.7070756 7.0538583 -0.47367054
-4.7812486 7.1650114 0
-4.8339276 7.2439537 0.48643556
-2.0129344 3.0086329 -0.99872363
-1.9808677 2.9607043 -0.78914392
-1.9317811 2.887337 -0.57916099
-4.63695 6.9306183 -0.929447
-4.6838098 7.0006571 -0.47047776
-4.7812166 7.1462464 0
-4.8397841 7.2337842 0.48614502
-1.9844437 2.9583087 -0.78914392
-1.9395546 2.8913901 -0.58044368
-0 0 -0
-0 0 -0
-4.7855029 7.1339865 0
-4.8326025 7.2042003 0.4845489
-2.0104027 2.9891934 -0.99388045
-1.9880168 2.9559088 -0.78914392
-1.9287232 2.8677473 -0.57616484
-4.6060519 6.8485684 -0.91993362
-4.6543097 6.920321 -0.46583331
-4.7694302 7.0914893 0
-4.8355036 7.1897311 0.48396835
-2.0224261 2.9992385 -0.99803209
-1.9859047 2.9450777 -0.78689235
-1.9293193 2.8611619 -0.57530969
-4.5955267 6.8151217 -0.91618609
-4.6408811 6.8823819 -0.46365663
-4.7285275 7.012361 0
-4.8209434 7.1494126 0.48164612
-2.0186222 2.9896991 -0.99526346
-1.993371 2.9523005 -0.78914392
-1.9382286 2.8706315 -0.57744914
-4.5924077 6.8016281 -0.91474491
-4.6363111 6.8666515 -0.46278551
-4.6832514 6.936173 0
-4.8019972 7.1120424 0.47932389
-2.0236437 2.9893415 -0.99595761
-2.0126064 2.9730372 -0.79533619
-1.9402525 2.8661554 -0.57701993
-4.5890231 6.7789392 -0.91243857
-4.6402335 6.8545871 -0.46234995
-4.6609931 6.8852539 0
-4.7552371 7.0244718 0.47380885
-2.0187981 2.9744353 -0.99180335
-2.0347459 2.9979322 -0.80265313
-1.9379534 2.8553209 -0.57530969
-4.5855908 6.7562685 -0.91013223
-4.6324649 6.8253312 -0.46075383
-4.6590772 6.8645411 0
-4.7199469 6.9542246 0.46945494
-2.0223908 2.9719937 -0.99180335
-2.041223 2.9996686 -0.80377781
-1.9442877 2.8572178 -0.57616484
-4.5864768 6.7400331 -0.90869105
-4.6319346 6.8068352 -0.45988271
-4.6571178 6.8438435 0
-4.7064228 6.9162989 0.46727827
-2.0387042 2.9881976 -0.99803209
-2.0462823 2.999305 -0.80434233
-1.9564164 2.8675857 -0.57873178
-4.5873251 6.7237973 -0.90724874
-4.6328354 6.7905035 -0.45915717
-4.6536503 6.8210125 0
-4.7089186 6.9020209 0.46669772
-2.0556431 3.0052192 -0.80659389
-1.9555361 2.8588693 -0.57744914
-4.5925283 6.713984 -0.90667272
-4.6278348 6.7656002 -0.45785105
-4.6560116 6.8067923 0
-4.7055187 6.8791685 0.46553659
-2.0592728 3.0027332 -0.80659389
-1.9604396 2.8586192 -0.57787669
-4.5962477 6.7020288 -0.90580755
-4.63307 6.7557216 -0.45756105
-4.652463 6.7839994 0
-4.7050066 6.8606162 0.4646655
-2.0614557 2.998143 -0.80602938
-1.9522567 2.8393261 -0.57445294
-4.6087399 6.7028661 -0.90667272
-4.6338644 6.7394066 -0.45683494
-4.6488609 6.7612171 0
-4.7000446 6.8356576 0.46335939
-2.0607545 2.9893799 -0.80434233
-1.9571416 2.8390765 -0.57488048
-4.6183023 6.69942 -0.90696073
-0 0 -0
-4.6466861 6.7405939 0
-4.6979814 6.8150043 0.46234381
-2.0715871 2.9973369 -0.80715621
-1.9751689 2.8578315 -0.57916099
-4.6263938 6.6938348 -0.90696073
-4.6353664 6.7068172 -0.45538381
-4.6533489 6.7328353 0
-4.6988215 6.7986288 0.46161771
-2.080996 3.0031857 -0.80940777
-1.9771543 2.8533268 -0.57873178
-4.6359506 6.6903634 -0.90724874
-4.6493869 6.7097545 -0.45596439
-4.6659236 6.7336192 0
-4.7011127 6.7844028 0.46103713
-2.0759223 2.9881444 -0.80602938
-1.9791373 2.8488295 -0.57830423
-4.644031 6.6847572 -0.90724874
-4.6619401 6.7105355 -0.45639992
-4.6725731 6.725841 0
-4.6870732 6.7467136 0.45886046
-2.0766296 2.981468 -0.8049047
-1.9796466 2.842227 -0.57744914
-4.6535873 6.6812692 -0.90753788
-4.6730123 6.7091579 -0.45668992
-4.6806965 6.7201905 0
-4.6967058 6.7431755 0.45900548
-0 0 -0
-1.9904267 2.8503544 -0.57958853
-4.6616569 6.6756415 -0.90753788
-4.684094 6.7077718 -0.4569805
-4.6917958 6.7188015 0
-4.7093143 6.7438889 0.45944104
-2.0760984 2.9653993 -0.99872363
-0 0 -0
-1.9923984 2.8458464 -0.57916099
-4.6637859 6.6615286 -0.90638471
-4.6892118 6.6978455 -0.45668992
-4.7073722 6.7237849 0
-4.7174597 6.7381935 0.45944104
-0 0 -0
-1.997309 2.845536 -0.57958853
-4.6718321 6.6558886 -0.90638471
-4.6943188 6.6879253 -0.45639992
-4.7199802 6.7244844 0
-4.7315693 6.7409959 0.46002159
-2.0832584 2.9603736 -0.99872363
-2.0866272 2.9651606 -0.8032155
-1.9948364 2.8347232 -0.57787669
-4.6620088 6.624856 -0.90292519
-4.6979089 6.6758709 -0.45596439
-4.7281017 6.7187762 0
-4.7441988 6.7416506 0.46045715
-2.0770266 2.9439535 -0.79815006
-1.9893837 2.8197293 -0.57530969
-4.6819386 6.6361251 -0.90523154
-4.6984835 6.6595755 -0.45523882
-4.7392144 6.7173076 0
-4.7553344 6.7401557 0.46074715
-2.0904064 2.9553306 -0.99872363
-2.0615089 2.9144762 -0.79083312
-1.9942703 2.8194172 -0.57573724
-4.6690402 6.6008964 -0.90119487
-4.7035227 6.6496468 -0.45494825
-4.7458262 6.7094536 0
-4.7679782 6.7407708 0.46118271
-2.092526 2.950758 -0.99803209
-2.0488596 2.8891821 -0.78464085
-1.9991591 2.8190975 -0.57616484
-4.6665435 6.5804873 -0.89917767
-4.6920152 6.616406 -0.45306158
-4.7524257 6.7015934 0
-4.7746119 6.7328792 0.46103713
-2.0449889 2.8763521 -0.78182697
-1.9995919 2.8124995 -0.57530969
-4.686481 6.5917082 -0.90148401
-4.704525 6.6170874 -0.45349714
-4.754488 6.6873617 0
-4.78124 6.7249894 0.46089214
-2.1011055 2.9477336 -0.99872363
-2.0469897 2.8718119 -0.7812646
-2.0074544 2.8163464 -0.57659239
-4.6914372 6.5818238 -0.90090686
-4.6989446 6.5923562 -0.45219103
-4.7565227 6.6731353 0
-4.7818227 6.7086296 0.46016657
-2.0999739 2.9423835 -0.99734062
-2.0339663 2.8498967 -0.77563685
-1.9957356 2.7963297 -0.57274109
-4.6728787 6.5474153 -0.89658332
-4.6923585 6.5747089 -0.45117491
-4.749969 6.6554298 0
-4.7783284 6.6951661 0.45944104
-2.1064448 2.9439206 -0.99872363
-2.0551512 2.8722339 -0.78239149
-2.0021036 2.7980957 -0.57359785
-4.6627259 6.5165224 -0.89312381
-4.6866922 6.5500174 -0.4498688
-4.744379 6.6306391 0
-4.7773399 6.6767044 0.45856991
-2.1100004 2.9413731 -0.99872363
-2.0467718 2.8532317 -0.77788836
-2.0054829 2.7956743 -0.57359785
-4.6736088 6.5150828 -0.89369982
-4.7127786 6.5696864 -0.45161048
-4.7463193 6.6164432 0
-4.7732925 6.6540442 0.45740935
-2.1135528 2.9388216 -0.99872363
-2.0531821 2.8548782 -0.7790131
-2.0013611 2.7828228 -0.57145679
-4.6739278 6.4989338 -0.89225864
-4.7009916 6.5365648 -0.44972378
-4.7421546 6.5938005 0
-4.7752609 6.6398335 0.4568288
-2.1103649 2.9194789 -0.99388045
-2.054121 2.841671 -0.77676153
-2.0171063 2.7904649 -0.57402539
-4.6668954 6.4561834 -0.8879351
-4.7015491 6.5041227 -0.44827211
-4.7474017 6.567555 0
-4.7760673 6.6072116 0.45537713
-2.1138911 2.9169266 -0.99388045
-2.0500996 2.8289018 -0.77394766
-2.0265021 2.79634 -0.57573724
-4.6671 6.4400616 -0.88649279
-4.692636 6.4752989 -0.44667602
-4.7461734 6.5491743 0
-4.7718492 6.5846033 0.454216
-2.1218393 2.9204612 -0.99595761
-2.0699463 2.8490365 -0.78013992
-2.043458 2.8125784 -0.57958853
-4.6733594 6.4323273 -0.88620478
-4.6928215 6.459115 -0.44595045
-4.7449083 6.5308061 0
-4.7721667 6.5683236 0.45349044
-2.1194582 2.9097838 -0.99318898
-2.0778708 2.8526888 -0.78182697
-2.0272081 2.7831347 -0.57402539
-4.6735153 6.4162245 -0.8847636
-4.6990886 6.4513335 -0.44580489
-4.7435994 6.5124421 0
-4.7709231 6.5499549 0.45261988
-2.1303687 2.9173491 -0.99664915
-2.0753224 2.8419681 -0.77957541
-2.0260265 2.7744617 -0.57274109
-4.6736393 6.4001307 -0.88332242
-4.6992197 6.4351602 -0.44507933
-4.745326 6.4982986 0
-4.7711735 6.5336947 0.45189434
-2.1338923 2.914773 -0.99664915
-2.0982656 2.8661089 -0.78689235
-2.0339279 2.7782276 -0.57402539
-4.6706729 6.3798676 -0.88130409
-4.6931791 6.4106097 -0.44377321
-4.7454891 6.4820623 0
-4.7744584 6.5216331 0.45145878
-2.1359296 2.9101717 -0.99595761
-2.1182663 2.8861058 -0.79308468
-2.0327253 2.7695575 -0.57274109
-4.6737857 6.3679619 -0.88043892
-4.6978498 6.4007487 -0.4434832
-4.7409992 6.4595394 0
-4.7761855 6.5074801 0.4508782
-2.1394446 2.907589 -0.99595761
-2.1353037 2.9019613 -0.79815006
-2.0634527 2.8043129 -0.58044368
-4.6738133 6.3518958 -0.87899774
-4.69942 6.3866959 -0.44290265
-4.742631 6.4454212 0
-4.7732635 6.487052 0.44986209
-2.1384869 2.8989429 -0.99388045
-2.1538894 2.9198227 -0.80377781
-2.0653172 2.7997539 -0.58001614
-4.6784172 6.3420849 -0.87842172
-4.6824532 6.3475561 -0.44058043
-4.7457852 6.4334092 0
-4.7718458 6.4687371 0.44899154
-2.141988 2.8963571 -0.99388045
-2.1528876 2.9110951 -0.80209082
-2.0564876 2.7807446 -0.57659239
-4.6706948 6.3156276 -0.87553823
-4.7102041 6.369051 -0.44246709
-4.7427216 6.4130211 0
-4.7672982 6.4462533 0.44783044
-2.151463 2.9018278 -0.99664915
-2.153374 2.9044056 -0.80096394
-2.0629067 2.7823858 -0.57744914
-4.6706219 6.2995925 -0.87409705
-4.7008715 6.3403926 -0.44087043
-4.7458153 6.4010119 0
-4.7658014 6.427968 0.44695988
-2.1489813 2.8911722 -0.99388045
-2.1599164 2.905884 -0.80209082
-2.0494204 2.7572262 -0.57274109
-4.6766887 6.2918706 -0.87380904
-4.6945796 6.3159409 -0.43956432
-4.7519956 6.3931861 0
-4.7642612 6.409688 0.44608876
-2.1509755 2.8865638 -0.99318898
-2.1634259 2.9032719 -0.80209082
-2.0772924 2.7876825 -0.57958853
-4.6765618 6.2758474 -0.87236786
-4.6789231 6.279016 -0.43738765
-4.7566037 6.3832617 0
-4.7657919 6.3955922 0.44550818
-2.1544619 2.8839626 -0.99318898
-2.1654131 2.898622 -0.80152845
-2.0745139 2.7769444 -0.57787669
-4.6717577 6.2536149 -0.87006152
-4.6958342 6.2858438 -0.4382582
-4.7689872 6.3837667 0
-4.7672958 6.3815026 0.44492763
-2.1534319 2.8753312 -0.99111181
-2.1734791 2.9020989 -0.8032155
-2.0947964 2.7970395 -0.58258474
-4.6700106 6.235548 -0.86833233
-4.6925211 6.2656045 -0.43724209
-4.7844963 6.388413 0
-4.7687726 6.3674183 0.44434708
-2.1629298 2.8807518 -0.99388045
-2.1663094 2.885253 -0.79927695
-2.0673482 2.7534492 -0.57402539
-4.6728811 6.2236938 -0.86746716
-4.7032118 6.2640901 -0.43753263
-4.7953401 6.3867936 0
-4.762423 6.3429518 0.44304097
-2.1603739 2.8701189 -0.99111181
-2.1759062 2.8907537 -0.80152845
-2.092284 2.779659 -0.58001614
-4.6695085 6.2035756 -0.86544883
-4.6967149 6.2397199 -0.43622652
-4.8093143 6.3893118 0
-4.7528987 6.314362 0.44144484
-2.1666389 2.8748255 -0.99318898
-2.1684735 2.8772597 -0.79815006
-2.0924194 2.7763464 -0.57958853
-4.6685834 6.1945543 -0.86458367
-4.6942277 6.228581 -0.43564597
-4.8163033 6.3905578 0
-4.7551441 6.3094087 0.44129929
-2.1580122 2.8561921 -0.98765171
-2.1551039 2.8523431 -0.79195994
-2.0663681 2.7348988 -0.57145679
-4.6698341 6.1806622 -0.86343163
-4.6986146 6.2187538 -0.4353554
-4.822454 6.382659 0
-4.7611995 6.3015871 0.4411543
-2.1584291 2.8495789 -0.98626602
-2.1385999 2.8234003 -0.78464085
-2.0774257 2.7426374 -0.57359785
-4.663239 6.1564531 -0.86083615
-4.6857305 6.1861467 -0.43346873
-4.8348784 6.3830528 0
-4.7578263 6.2813282 0.44013816
-2.1512547 2.8329885 -0.9814229
-2.1266465 2.8005822 -0.7790131
-2.085391 2.7462525 -0.57488048
-4.6659865 6.14464 -0.85997212
-4.6979179 6.1866908 -0.43390429
-4.8425875 6.3772063 0
-4.727704 6.2259164 0.43665537
-2.1546762 2.8303871 -0.9814229
-2.1207974 2.7858839 -0.77563685
-2.1120334 2.7743711 -0.58130044
-4.6687059 6.1328216 -0.85910696
-4.691226 6.1624041 -0.43259817
-4.8424091 6.3609986 0
-4.7021723 6.1767831 0.43360761
-2.1611357 2.8317664 -0.98280591
-2.1303282 2.7913988 -0.77788836
-2.1122663 2.7677319 -0.58044368
-4.6667008 6.1148434 -0.85737777
-4.6907878 6.1464047 -0.43187261
-4.8279843 6.3261752 0
-4.6844096 6.1380472 0.43128535
-2.1752284 2.8431025 -0.98765171
-0 0 -0
-2.1296461 2.7835248 -0.58429497
-4.6646533 6.0968709 -0.85564744
-4.6982112 6.1407323 -0.43187261
-4.818234 6.2976065 0
-4.6791911 6.1158729 0.43012425
-2.1786621 2.840472 -0.98765171
-2.1293314 2.7761559 -0.77507234
-2.1220763 2.7666969 -0.58130044
-4.6641474 6.0809708 -0.85420626
-4.696136 6.1226764 -0.43100148
-4.8179159 6.2814488 0
-4.7166262 6.1493907 0.43288204
-2.1897373 2.8477795 -0.99111181
-2.1264889 2.7655239 -0.77282083
-2.1238544 2.7620978 -0.58087289
-4.66361 6.0650802 -0.85276508
-4.6940303 6.1046419 -0.43013093
-4.8128171 6.2591257 0
-4.7462249 6.1725216 0.43491372
-2.1916466 2.8431466 -0.99042034
-2.1220741 2.7528925 -0.7700069
-2.1099491 2.7371633 -0.57616484
-4.664619 6.0512466 -0.85161191
-4.6839514 6.0763259 -0.42853427
-4.8092532 6.2388759 0
-4.7536798 6.1667824 0.43491372
-2.1889441 2.8325558 -0.98765171
-2.1362762 2.7644019 -0.77394766
-2.1148231 2.7366409 -0.57659239
-4.664021 6.0353751 -0.85017073
-4.6912899 6.070662 -0.42853427
-4.8104224 6.224823 0
-4.7547717 6.1528096 0.43433315
-2.1985109 2.8378417 -0.99042034
-2.1380603 2.7598119 -0.77338529
-2.1291349 2.748291 -0.57958853
-4.6618028 6.0174632 -0.84844041
-4.692256 6.0567722 -0.42795372
-4.8051896 6.2025476 0
-4.7542477 6.1367912 0.43360761
-2.2019384 2.8351834 -0.99042034
-2.1413934 2.7572265 -0.77338529
-2.1182842 2.7274714 -0.57573724
-4.6611395 6.0016141 -0.84699923
-4.6884189 6.0367389 -0.42693815
-4.8031058 6.1844082 0
-4.756876 6.1248837 0.43317205
-2.2022772 2.8285577 -0.98903465
-2.143158 2.7526264 -0.77282083
-2.1231537 2.7269335 -0.57616484
-4.6620317 5.9878144 -0.84584606
-4.6941085 6.0290132 -0.42679259
-4.8089714 6.1765409 0
-4.7578883 6.11093 0.43259147
-2.2103255 2.8318295 -0.99111181
-2.1464825 2.7500348 -0.77282083
-2.1438231 2.7466278 -0.58087289
-4.6613078 5.9719839 -0.84440488
-4.6965985 6.0171976 -0.4263576
-4.8036208 6.1543131 0
-4.7540755 6.090836 0.43157536
-2.2137456 2.8291566 -0.99111181
-2.1482394 2.74544 -0.77225846
-2.1661174 2.7682881 -0.58600682
-4.6605525 5.9561644 -0.8429637
-4.6926551 5.9971914 -0.42534149
-4.8030362 6.138258 0
-4.7550263 6.0769014 0.43099481
-2.2156157 2.8245077 -0.99042034
-2.1484218 2.7388477 -0.77113378
-2.1504545 2.7414391 -0.58087289
-4.6597657 5.9403553 -0.84152251
-4.6886702 5.9772034 -0.42432535
-4.8040247 6.1242595 0
-4.7527461 6.0588889 0.43012425
-2.2174716 2.8198509 -0.98972619
-2.1548676 2.7402406 -0.77225846
-2.1426561 2.7247114 -0.57787669
-4.6637392 5.9306502 -0.84094536
-4.6878595 5.9613228 -0.42359981
-4.8033791 6.1082234 0
-4.7568545 6.0490603 0.42983425
-2.2193255 2.815201 -0.98903465
-2.1471703 2.7236726 -0.7683199
-2.1618364 2.7422762 -0.58215553
-4.6612973 5.9128275 -0.83921617
-4.6918449 5.9515772 -0.4233098
-4.802702 6.0921984 0
-4.7528977 6.0290222 0.42881814
-2.2320619 2.824331 -0.99318898
-2.1583357 2.7310419 -0.77113378
-2.161968 2.7356379 -0.58130044
-4.6572108 5.8929839 -0.83719784
-4.689363 5.9336677 -0.42243868
-4.7906957 6.0618887 0
-4.7521248 6.0130835 0.42809257
-2.2244244 2.8111739 -0.98903465
-2.1536784 2.7217672 -0.76888222
-2.1827352 2.7584882 -0.58643603
-4.6591668 5.8881431 -0.83690983
-4.6816649 5.9165754 -0.42142314
-4.831501 6.1059351 0
-4.7412472 5.9918737 0.42678645
-2.229377 2.8104477 -0.98972619
-2.1648595 2.7291141 -0.77169609
-2.1493723 2.7095902 -0.57659239
-4.6566305 5.8703465 -0.83517951
-4.6839643 5.9048052 -0.42098758
-4.8162293 6.0715437 0
-4.7420244 5.9779978 0.4262059
-2.2280915 2.8018668 -0.98765171
-2.1586697 2.7145677 -0.7683199
-2.1670232 2.7250724 -0.58044368
-4.6653347 5.8667459 -0.83546865
-4.6846266 5.891006 -0.42040703
-4.802506 6.0392413 0
-4.7460065 5.9681921 0.42591533
-2.2314754 2.7991726 -0.98765171
-2.165113 2.7159274 -0.76944458
-2.1783199 2.7324941 -0.58258474
-4.6611323 5.8469453 -0.83345032
-4.6852622 5.877214 -0.41982645
-4.8097997 6.0334344 0
-4.7467351 5.9543257 0.42533478
-2.2317204 2.7925508 -0.98626602
-2.1699777 2.7152922 -0.7700069
-2.1848221 2.7338669 -0.58343983
-4.6552763 5.8251448 -0.83114398
-4.6793828 5.8553095 -0.41866535
-0 0 0
-4.7441964 5.9364104 0.42446423
-2.2350931 2.7898521 -0.98626602
-2.1732571 2.7126682 -0.7700069
-2.184917 2.727222 -0.58258474
-4.6542268 5.8094249 -0.82970279
-4.6864543 5.8496509 -0.41866535
-4.8129807 6.0075817 0
-4.7432442 5.920536 0.42373866
-2.2384624 2.7871494 -0.98626602
-2.1749437 2.7080612 -0.76944458
-2.1962464 2.7345855 -0.58472419
-4.6531463 5.7937155 -0.82826161
-4.6821337 5.8298082 -0.41764978
-4.8071985 5.9855289 0
-4.7471371 5.9107447 0.42344812
-2.2323916 2.7727218 -0.98211437
-0 0 -0
-2.1931095 2.7239316 -0.58301228
-4.6552758 5.782043 -0.82739645
-4.6826563 5.8160505 -0.41706923
-4.8095298 5.9736323 0
-4.7445011 5.8928647 0.42257756
-2.242043 2.7778313 -0.98488301
-2.1814816 2.7027972 -0.76944458
-2.19801 2.7232754 -0.58343983
-4.6541381 5.7663522 -0.82595527
-4.6815157 5.8002725 -0.41634312
-4.8085728 5.9576931 0
-4.7467208 5.8810596 0.422142
-2.2422388 2.7712157 -0.98349738
-2.1831491 2.6981859 -0.76888222
-2.201299 2.7206175 -0.58343983
-4.648087 5.7446389 -0.82364893
-4.681983 5.7865314 -0.41576254
-4.8092203 5.9437857 0
-4.7407479 5.8591595 0.42098087
-2.2440066 2.7665579 -0.98280591
-2.1864078 2.6955462 -0.76888222
-2.1965005 2.7079892 -0.58130044
-4.655025 5.739018 -0.82364893
-4.6906133 5.7828937 -0.4159081
-4.8049212 5.92382 0
-4.7445531 5.8493948 0.42069089
-2.2584286 2.7774718 -0.98765171
-2.2024872 2.7086737 -0.77338529
-2.1932929 2.6973662 -0.57958853
-4.6505318 5.7193398 -0.8216306
-4.6861205 5.7631073 -0.41489199
-4.807148 5.9119501 0
-4.7401409 5.8295431 0.41967475
-2.2554426 2.7669625 -0.98488301
-2.2009408 2.7000999 -0.77169609
-2.1949303 2.6927261 -0.57916099
-4.6525412 5.7077079 -0.82076657
-4.6848736 5.7473726 -0.41416642
-4.8077168 5.8980761 0
-4.7389741 5.8137426 0.41894922
-2.2508488 2.7545238 -0.9814229
-2.2009892 2.6935074 -0.77057141
-2.2241652 2.7218695 -0.58600682
-4.651247 5.6920619 -0.81932425
-4.6819463 5.7296309 -0.41329533
-4.8033113 5.8781543 0
-4.7427039 5.8039842 0.41865864
-2.2652993 2.7653816 -0.98626602
-2.196187 2.6810122 -0.76775539
-2.229084 2.7211716 -0.58643603
-4.6532087 5.6804409 -0.81846023
-4.6872211 5.7219615 -0.41315031
-4.808763 5.8703346 0
-4.7365403 5.7821684 0.41749755
-2.2686391 2.7626424 -0.98626602
-2.2074921 2.6881807 -0.77057141
-2.2177098 2.700623 -0.58258474
-4.6535034 5.6668186 -0.81730705
-4.6809392 5.7002287 -0.41198921
-4.8075895 5.8544579 0
-4.7402287 5.7724285 0.41720754
-2.2687895 2.7560291 -0.98488301
-2.2107387 2.6855114 -0.77057141
-2.2160752 2.691994 -0.58130044
-4.6504807 5.6492066 -0.81557673
-4.6828737 5.6885557 -0.41155422
-4.808044 5.8406076 0
-4.7405939 5.7586722 0.41662696
-2.2673261 2.747479 -0.98280591
-2.2155976 2.6847959 -0.77113378
-2.2160552 2.6853504 -0.58044368
-4.6490736 5.6336102 -0.81413555
-4.6814694 5.6728668 -0.41082808
-4.8134427 5.8327885 0
-4.7425857 5.7469258 0.41619143
-2.2754433 2.7505383 -0.98488301
-2.220458 2.6840727 -0.77169609
-2.2372994 2.7044303 -0.58515173
-4.6509295 5.6220083 -0.81327039
-4.6783857 5.6551971 -0.40995753
-4.8121943 5.8169436 0
-4.7362757 5.725174 0.4150303
-2.2723591 2.7400625 -0.98211437
-2.2172117 2.6735644 -0.76944458
-2.211072 2.6661611 -0.57744914
-4.6577191 5.6163845 -0.81327039
-4.6785808 5.6415396 -0.40937698
-7.2280054 8.7156944 0
-4.7348981 5.7094479 0.41430473
-2.2756152 2.7406175 -0.98280591
-2.2139554 2.666358 -0.76775539
-2.2323611 2.6885247 -0.58258474
-4.6528516 5.6036215 -0.81182921
-4.6736903 5.6287179 -0.40865141
-7.2183084 8.6933069 0
-4.7366881 5.7045894 0.41415974
-2.2821381 2.7417259 -0.98419154
-2.2090495 2.6539183 -0.76494151
-2.2159007 2.6621494 -0.57744914
-4.6430755 5.5781198 -0.80894685
-4.6738386 5.6150784 -0.40807086
-7.2121611 8.6645803 0
-4.7385888 5.6928682 0.41372418
-2.287055 2.7408907 -0.98488301
-2.2106283 2.6492982 -0.76437914
-2.2437811 2.6890295 -0.58386743
-4.6398664 5.5605865 -0.80721653
-4.6739607 5.6014462 -0.40749028
-4.7733946 5.7206116 0
-4.7338157 5.6731787 0.41270864
-2.2774882 2.7227309 -0.97934574
-2.2170851 2.6505194 -0.76550382
-2.2223277 2.6567867 -0.57744914
-4.6399436 5.54704 -0.80606335
-4.6757226 5.5898132 -0.40705475
-4.788651 5.7248187 0
-4.7339983 5.659482 0.41212806
-2.2872243 2.7276664 -0.98211437
-2.2235546 2.651736 -0.76663071
-2.2205863 2.6481965 -0.57616484
-4.6433225 5.5374694 -0.80548733
-4.6741271 5.5742059 -0.40632918
-0 0 0
-4.7308125 5.6418076 0.41125694
-2.2824485 2.7153006 -0.97865427
-2.2251236 2.6471043 -0.76606834
-2.2452564 2.6710551 -0.58172798
-4.6416903 5.5219574 -0.80404615
-4.6725006 5.5586109 -0.40560362
-0 0 0
-4.7376261 5.6360869 0.41125694
-0 0 -0
-2.2347903 2.6455977 -0.76719302
-2.2351425 2.6460147 -0.57744914
-4.6400008 5.4929428 -0.8014518
-4.6808877 5.5413461 -0.40516806
-4.7994733 5.6817303 0
-4.7244101 5.5928688 0.40893528
-0 0 -0
-2.2347045 2.6390212 -0.76606834
-2.2698524 2.6805282 -0.58557928
-4.6399488 5.4794369 -0.80029863
-4.6758308 5.5218105 -0.40415251
-4.8012881 5.6699667 0
-4.7278032 5.5831866 0.40864474
-2.3020396 2.7118876 -0.9814229
-2.2362425 2.6343763 -0.76550382
-2.2315595 2.6288593 -0.57488048
-4.6415434 5.4679093 -0.79943347
-4.6791329 5.5121913 -0.40386194
-4.7980337 5.6522608 0
-4.7311859 5.5735116 0.40835473
-2.3053148 2.7091041 -0.9814229
-2.2427206 2.6355462 -0.76663071
-2.2447193 2.6378951 -0.57744914
-4.6397672 5.4524498 -0.79799229
-4.6706357 5.4887247 -0.40255582
-4.7947369 5.634563 0
-4.7294922 5.5578904 0.4076286
-2.3069537 2.7044024 -0.98072875
-2.2459035 2.6328344 -0.76663071
-2.2562335 2.644944 -0.57958853
-4.6463518 5.4468393 -0.79799229
-4.6671495 5.4712195 -0.40168527
-4.7863421 5.6109476 0
-4.7294588 5.5442643 0.40704805
-2.3085909 2.699708 -0.98003721
-2.2507329 2.6320479 -0.76719302
-2.254421 2.6363609 -0.57830423
-4.6478858 5.4353218 -0.79712713
-4.6703763 5.4616227 -0.40139472
-4.7609873 5.567585 0
-4.7294064 5.5306535 0.40646803
-2.3151197 2.7007298 -0.9814229
-2.2472968 2.6216099 -0.76494151
-2.249253 2.6238921 -0.57616484
-4.6359377 5.4081068 -0.79395676
-4.6685181 5.4461136 -0.40066916
-4.7321434 5.5203366 0
-4.729321 5.5170436 0.40588748
-2.3167417 2.696022 -0.98072875
-2.2521174 2.6208179 -0.76550382
-2.2624569 2.6328504 -0.57873178
-4.6441531 5.4044609 -0.79424477
-4.6649308 5.4286399 -0.39979804
-4.7235465 5.4968519 0
-4.7309017 5.5054111 0.40545192
-2.3150902 2.6875241 -0.97865427
-2.2652357 2.6296492 -0.76888222
-2.2539134 2.6165056 -0.57573724
-4.6388617 5.3851256 -0.79222643
-4.6731877 5.424974 -0.39994359
-4.7182932 5.4773359 0
-4.7307668 5.491816 0.40487137
-2.3216121 2.6885188 -0.98003721
-2.2584443 2.6153679 -0.76550382
-2.2587495 2.6157215 -0.57616484
-4.6335301 5.3658113 -0.7902081
-4.6712494 5.4094915 -0.39921805
-4.6993928 5.4420829 0
-4.7306061 5.478229 0.40429083
-2.321578 2.6819215 -0.97865427
-2.2549508 2.6049526 -0.76325232
-2.271986 2.6246319 -0.57873178
-4.6315479 5.3504329 -0.78876692
-4.6743779 5.3999104 -0.39892748
-4.7110767 5.4423056 0
-4.7304192 5.4646506 0.40371025
-2.323168 2.6772141 -0.97796011
-2.2697554 2.6156616 -0.76719302
-2.3071239 2.658725 -0.58686358
-4.6312289 5.3370185 -0.78761375
-4.6706843 5.3824868 -0.39805692
-4.7074184 5.424819 0
-4.7285051 5.4491196 0.40298471
-2.324785 2.6758101 -0.97796011
-2.2663343 2.6085336 -0.76550382
-2.2700047 2.6127582 -0.57701993
-4.6259723 5.3244591 -0.78617257
-4.6654091 5.3698506 -0.39733082
-4.6970401 5.4062576 0
-4.730094 5.4443026 0.40283969
-2.3230782 2.6673291 -0.97588557
-2.2728252 2.6096292 -0.76663071
-2.2512441 2.5848498 -0.57145679
-4.6205096 5.3052106 -0.78415424
-4.6684842 5.3602943 -0.39704081
-4.6950245 5.3907671 0
-4.7230163 5.4229074 0.40167859
-2.3229964 2.6607368 -0.97449994
-2.2776463 2.6087933 -0.76719302
-2.2526791 2.5801959 -0.57102919
-4.6269169 5.299624 -0.78415424
-4.6647077 5.3429089 -0.39617026
-4.6998181 5.3831244 0
-4.7261443 5.4132776 0.40138802
-2.3212514 2.6522624 -0.97242278
-2.2774534 2.6022189 -0.76606834
-2.2828453 2.6083798 -0.57787669
-4.6265097 5.2862511 -0.7830022
-4.6625986 5.327486 -0.39544412
-4.6891828 5.3578615 0
-4.7241268 5.3977885 0.40066248
-2.3294196 2.6551151 -0.97449994
-2.280596 2.5994651 -0.76606834
-2.2843041 2.6036916 -0.57744914
-4.6294789 5.2767649 -0.78242505
-4.6656084 5.317946 -0.39515415
-4.6939383 5.3502369 0
-4.7272215 5.3881736 0.40037248
-2.3293157 2.6485345 -0.97311693
-2.2820523 2.594794 -0.76550382
-2.273886 2.5855086 -0.57402539
-4.6273127 5.2614579 -0.78098387
-4.6685953 5.3083982 -0.39486358
-4.6935248 5.3367443 0
-4.7217145 5.3687973 0.39935637
-2.3391504 2.6532454 -0.97588557
-2.2868712 2.5939462 -0.76606834
-2.2702179 2.5750568 -0.57231355
-4.6268249 5.2481022 -0.77983069
-4.6681323 5.2949567 -0.39428303
-4.6844821 5.3135018 0
-4.7230415 5.3572388 0.3989208
-2.3406885 2.6485319 -0.97519141
-2.2849543 2.5854673 -0.76437914
-2.2784293 2.5780842 -0.57359785
-4.6297336 5.2386279 -0.77925354
-4.6710887 5.2854218 -0.39399302
-4.6908989 5.3078375 0
-4.7226281 5.34374 0.39834023
-2.3455555 2.6475849 -0.97588557
-2.293133 2.588412 -0.76606834
-2.2611153 2.5522714 -0.56846225
-4.6257725 5.2214179 -0.77752435
-4.6723008 5.2739372 -0.39355746
-4.6886816 5.2924275 0
-4.7239175 5.3322005 0.39790523
-2.3470821 2.6428676 -0.97519141
-2.2962589 2.5856395 -0.76606834
-2.2727189 2.5591328 -0.57060164
-4.6166224 5.198421 -0.77493
-4.6665969 5.2546935 -0.39254192
-4.6967998 5.2887025 0
-4.7251787 5.3206582 0.39746967
-2.3569465 2.6475248 -0.97796011
-2.3027573 2.5866549 -0.76719302
-2.2911701 2.5736392 -0.57445294
-4.6074233 5.1754541 -0.77233565
-4.6591206 5.2335243 -0.39138079
-4.6945357 5.2733064 0
-4.7264194 5.3091207 0.39703411
-2.3551373 2.639065 -0.97588557
-2.2974236 2.5743935 -0.76437914
-2.2857337 2.5612943 -0.57231355
-4.594728 5.1486535 -0.76916414
-4.6602488 5.2220731 -0.39094523
-4.692235 5.2579155 0
-4.7224536 5.2917771 0.39616355
-2.3466141 2.6231272 -0.97103977
-2.3073092 2.5791907 -0.76663071
-2.2871168 2.5566192 -0.57188594
-4.5906024 5.1315355 -0.76743495
-4.664824 5.2145033 -0.39080024
-4.6916442 5.2444835 0
-4.7253757 5.2821903 0.39587301
-2.349782 2.6202898 -0.97103977
-2.3070278 2.5726137 -0.76550382
-2.2782056 2.5404737 -0.5688898
-4.5829849 5.11058 -0.76512861
-4.6624494 5.1991925 -0.39007467
-4.6910343 5.2310681 0
-4.7248158 5.2687383 0.39529246
-2.3596551 2.6249115 -0.97380847
-2.3118382 2.5717194 -0.76606834
-2.3052967 2.5644426 -0.57488048
-4.5787783 5.0934939 -0.76339829
-4.6617794 5.1858253 -0.38949412
-4.6921301 5.2195878 0
-4.7242298 5.2552958 0.39471188
-2.3645029 2.6239204 -0.97449994
-2.3217478 2.5764744 -0.7683199
-2.2946458 2.5463991 -0.57145679
-0 0 -0
-4.6645598 5.1763244 -0.38920355
-4.6897244 5.2042499 0
-4.7218804 5.239934 0.39398634
-2.3609447 2.6136148 -0.97173131
-2.3248591 2.5736673 -0.7683199
-2.2770784 2.5207727 -0.5663228
-4.5408025 5.0267625 -0.75503922
-4.6638436 5.1629715 -0.388623
-4.6803102 5.1812 0
-4.7212415 5.226512 0.39340577
-2.3641012 2.6107602 -0.97173131
-2.322849 2.5652039 -0.76663071
-2.2749517 2.5123091 -0.5650385
-4.5381875 5.0116801 -0.7535969
-4.6631021 5.1496277 -0.38804245
-4.6865673 5.1755414 0
-4.7223258 5.2150307 0.39297077
-2.3655696 2.6060457 -0.97103977
-2.3225281 2.558629 -0.76550382
-2.2883346 2.5209594 -0.5676055
-4.5233855 4.9832187 -0.75013852
-4.6605902 5.1343713 -0.38731688
-4.6893158 5.1660171 0
-4.7251272 5.2054691 0.39268023
-2.3720903 2.6068931 -0.97242278
-2.3290415 2.5595832 -0.76663071
-2.2896531 2.5162957 -0.56717795
-4.5189557 4.9662676 -0.7484082
-4.6597958 5.1210485 -0.38673633
-4.6902981 5.1545706 0
-4.7191706 5.1863008 0.39166409
-2.3684824 2.5966182 -0.96965683
-2.3269939 2.5511334 -0.76494151
-2.2926917 2.5135274 -0.56717795
-4.5179811 4.9531598 -0.74725503
-4.6659799 5.1154146 -0.38673633
-4.6877556 5.1392875 0
-4.71668 5.1709976 0.39093855
-2.3768113 2.6025896 -0.97242278
-2.3353884 2.5572319 -0.76719302
-2.3115177 2.5310936 -0.57145679
-4.5314412 4.9618921 -0.74898535
-0 0 -0
-4.6873531 5.1326146 0
-4.7127938 5.1604724 0.39035797
-2.3782618 2.597867 -0.97173131
-2.3384767 2.5544083 -0.76719302
-2.3111107 2.5245154 -0.57060164
-2.4696772 2.6977236 -0.40766487
-4.6506829 5.0801206 -0.38470465
-4.6900334 5.1231041 0
-4.7172732 5.1528592 0.39021298
-2.3830938 2.5968382 -0.97242278
-2.3072019 2.5141392 -0.75593531
-2.2950654 2.5009143 -0.56589359
-2.4501956 2.6699586 -0.40391624
-4.6656008 5.0840678 -0.38543022
-4.6821432 5.1020937 0
-4.7111959 5.1337523 0.38919687
-2.3794422 2.5865784 -0.96965683
-2.3412056 2.5450132 -0.76606834
-2.3102529 2.5113659 -0.5688898
-2.4569254 2.6708066 -0.40449336
-4.6699829 5.0765162 -0.3852852
-4.6865444 5.0945191 0
-4.7156382 5.1261454 0.38905185
-2.3808603 2.5818517 -0.96896267
-2.3494418 2.547781 -0.76775539
-2.3011024 2.4953606 -0.56589359
-2.4513855 2.6583307 -0.40305218
-4.6813998 5.076602 -0.38572076
-4.6821141 5.0773768 0
-4.7130227 5.1108947 0.38832632
-2.3839784 2.5789731 -0.96896267
-2.3783915 2.5729296 -0.77619916
-2.3110859 2.5001187 -0.5676055
-2.4370353 2.6363699 -0.40016872
-4.6928167 5.0766606 -0.38615578
-4.6847095 5.0678902 0
-4.7121391 5.0975637 0.38774574
-2.3905063 2.5797746 -0.9703483
-2.3901322 2.5793707 -0.7790131
-2.307126 2.4897926 -0.56589359
-2.454283 2.6486008 -0.40247503
-0 0 -0
-4.6908298 5.0622258 0
-4.7147665 5.088058 0.38745576
-2.391916 2.575048 -0.96965683
-2.3984365 2.5820677 -0.78070229
-2.3031445 2.4794798 -0.56418175
-2.4645228 2.6532137 -0.4036282
-4.7103786 5.0710187 -0.38659132
-4.689858 5.0489268 0
-4.7173705 5.078546 0.38716519
-2.3950257 2.572156 -0.96965683
-2.3877027 2.5642912 -0.77619916
-2.3131361 2.4842098 -0.56589359
-2.465966 2.6483428 -0.40334019
-4.728899 5.0786371 -0.38760746
-4.6835461 5.0299296 0
-4.7146516 5.0633359 0.38643965
-2.4015522 2.5729246 -0.97103977
-2.3786614 2.5484002 -0.77225846
-2.3126361 2.4776635 -0.5650385
-2.467401 2.6434722 -0.40305218
-4.738575 5.0767145 -0.38789743
-4.6878395 5.0223584 0
-4.7101245 5.0462341 0.38556853
-2.4063718 2.571851 -0.97173131
-2.3852141 2.5492384 -0.77338529
-2.3208916 2.4804926 -0.5663228
-2.4670556 2.6367078 -0.40247503
-4.7482595 5.0747838 -0.388188
-4.6867919 5.009089 0
-4.7091241 5.0329571 0.38498852
-2.407763 2.5671134 -0.97103977
-2.4126248 2.5722969 -0.7812646
-2.3168626 2.470197 -0.56461096
-2.4826274 2.6469326 -0.40449336
-4.7579398 5.0728297 -0.38847801
-4.6875052 4.9977331 0
-4.7116432 5.023469 0.38469797
-2.4022725 2.5550652 -0.96757966
-2.4348781 2.5897448 -0.78745687
-2.3251157 2.473001 -0.56589359
-2.4734204 2.6307383 -0.40247503
-4.7676225 5.0708594 -0.38876802
-4.6828408 4.9806857 0
-4.7105904 5.0102 0.38411739
-2.4087961 2.5558085 -0.96896267
-2.4362578 2.5849464 -0.78689235
-2.3210595 2.4627173 -0.56418175
-2.4765973 2.6277478 -0.40247503
-4.7790942 5.0707698 -0.38920355
-4.683506 4.9693475 0
-4.7112923 4.9988298 0.38368183
-2.4067187 2.5474305 -0.96688813
-2.4323997 2.5746129 -0.78464085
-2.3258016 2.4617822 -0.56461096
-2.4513574 2.5946789 -0.39786348
-4.795928 5.0763278 -0.39007467
-4.6877146 4.9617872 0
-4.7084084 4.9836912 0.3829563
-2.4080651 2.5426936 -0.96619397
-2.4302723 2.5661426 -0.7829538
-2.3287745 2.4589703 -0.56461096
-2.4509301 2.5879555 -0.39728633
-0 0 -0
-4.6793904 4.9410028 0
-4.7072797 4.9704518 0.38237572
-2.40941 2.5379646 -0.9655025
-2.4491141 2.5797873 -0.78801924
-2.3246741 2.4487076 -0.56289905
-2.4665227 2.5981245 -0.39930466
-0 0 -0
-4.681777 4.9315739 0
-4.7079201 4.9591122 0.38194072
-2.4107471 2.5332358 -0.96481103
-2.4574862 2.5823498 -0.78970844
-2.3187778 2.4365935 -0.56075799
-2.473223 2.598886 -0.39988068
-0 0 -0
-4.6805558 4.9183722 0
-4.7103229 4.9496517 0.38165018
