# .PCD v0.7 - Point Cloud Data file format
VERSION 0.7
FIELDS x y z
SIZE 4 4 4
TYPE F F F
COUNT 1 1 1
WIDTH 1567
HEIGHT 1
VIEWPOINT 0 0 0 1 0 0 0
POINTS 1567
DATA ascii
-5.6578827 14.783766 0.88417238
-5.3962927 14.049365 -0.84063947
-6.0590544 15.774879 0
-5.6831956 14.796324 0.88533348
-5.4179368 14.054955 -0.84136504
-6.0837255 15.782112 0
-5.6926594 14.767627 0.88402736
-5.4321017 14.041125 -0.84092945
-6.1065464 15.784458 0
-5.7001848 14.734078 0.88243073
-5.4518862 14.041821 -0.84136504
-6.1256146 15.777068 0
-5.7151651 14.71992 0.88199574
-5.4622478 14.018282 -0.8403495
-6.1503444 15.784209 0
-6.1885862 15.882353 0.95209432
-5.4820185 14.018925 -0.84078449
-6.1722527 15.784031 0
-6.2068272 15.872446 0.9519493
-5.5018024 14.019549 -0.84122002
-6.1941733 15.783832 0
-6.2316947 15.879443 0.95281988
-5.517787 14.010476 -0.841075
-6.218008 15.788441 0
-6.2575436 15.888827 0.95383596
-5.5308914 13.994132 -0.84049445
-6.2418628 15.793015 0
-6.2853327 15.903002 0.95514208
-5.5468392 13.985026 -0.8403495
-6.2609406 15.785461 0
-6.2978368 15.878486 0.954126
-5.5627699 13.975892 -0.84020394
-6.2867479 15.794813 0
-6.3035669 15.83707 0.95209432
-5.5796528 13.969161 -0.84020394
-6.3077607 15.792044 0
-6.3169131 15.814959 0.95122319
-5.614367 13.958054 -0.8403495
-6.3546453 15.798482 0
-6.34445 15.773135 0.9496271
-5.6322002 13.953667 -0.84049445
-6.3766494 15.798025 0
-6.3917079 15.835333 0.95383596
-5.6490564 13.946852 -0.84049445
-6.3967133 15.792728 0
-6.4576573 15.943192 0.96080214
-5.6482949 13.89669 -0.83788222
-6.4206901 15.79704 0
-6.5649681 16.152012 0.97386384
-5.6788187 13.923535 -0.8399139
-6.4476357 15.808548 0
-6.6453195 16.293238 0.98286223
-5.6813312 13.905664 -0.83904278
-6.4571853 15.80465 0
-6.6699042 16.325302 0.98503947
-5.7020721 13.908406 -0.83962333
-6.4772635 15.799242 0
-6.5614934 16.004694 0.96617216
-5.7109647 13.882282 -0.83846223
-6.5003095 15.801031 0
-6.5511718 15.924667 0.96181822
-5.736661 13.896995 -0.83976889
-6.5243616 15.805191 0
-6.5971761 15.981583 0.96573657
-5.7524509 13.887646 -0.83962333
-6.5494318 15.811727 0
-6.7964563 16.408098 0.99200559
-5.771224 13.885489 -0.8399139
-6.5725241 15.813405 0
-6.8322339 16.438265 0.99432778
-5.7799959 13.859319 -0.83875281
-6.5916266 15.805452 0
-6.8630905 16.456371 0.99592394
-5.7987423 13.857114 -0.83904278
-6.617753 15.814283 0
-6.8980169 16.484024 0.99810117
-5.8185005 13.857287 -0.83947837
-6.6439104 15.823075 0
-6.9108868 16.458904 0.99708503
-5.8392758 13.859825 -0.84005892
-6.662015 15.812639 0
-6.8843632 16.340395 0.9904089
-5.8499498 13.838404 -0.83918834
-6.6902356 15.82615 0
-6.8757768 16.265059 0.98634559
-5.8676801 13.833714 -0.83933336
-6.7052889 15.808471 0
-6.8994837 16.266308 0.98692614
-5.8843913 13.826614 -0.83933336
-6.7325382 15.819514 0
-6.9384637 16.303379 0.98968333
-5.900074 13.817107 -0.83918834
-6.7567573 15.823333 0
-6.9663215 16.314102 0.99084449
-5.9208584 13.819522 -0.83976889
-6.7809954 15.827116 0
-6.9665847 16.260288 0.9880867
-5.9396029 13.817127 -0.84005892
-6.8011413 15.8213 0
-6.9739165 16.223223 0.98634559
-5.9388003 13.769381 -0.83759171
-6.8212829 15.815457 0
-6.9996867 16.229095 0.98721611
-5.9647202 13.783655 -0.83889782
-6.8496933 15.828707 0
-7.0038147 16.18486 0.98503947
-5.9751635 13.762141 -0.83802724
-6.8771019 15.839507 0
-7.0440588 16.224047 0.98794168
-5.9866004 13.743003 -0.83730167
-6.8920822 15.821651 0
-7.0927138 16.282227 0.99200559
-6.0042415 13.738138 -0.83744669
-6.9174461 15.827616 0
-7.156086 16.373642 0.99810117
-6.0218792 13.733251 -0.83759171
-6.9470143 15.843076 0
-7.2144728 16.45303 1.0034711
-6.020772 13.7082 -0.83628559
-6.9576344 15.841265 0
-7.2442622 16.493864 1.0062284
-6.0551429 13.741336 -0.83875281
-6.9788675 15.837605 0
-7.2851424 16.532656 1.0091312
-6.0959044 13.788664 -0.84209061
-7.0053658 15.845825 0
-7.3114157 16.538095 1.0100018
-6.1357408 13.833549 -0.84528393
-7.028728 15.846865 0
-7.3303409 16.526876 1.0098567
-6.1841416 13.897341 -0.84963787
-7.0489278 15.840736 0
-7.3397427 16.49427 1.0084057
-6.2210522 13.934934 -0.85239506
-7.0765505 15.851218 0
-7.3914437 16.556568 1.0127596
-6.2474437 13.948747 -0.85370117
-7.1020794 15.856903 0
-7.4263115 16.58082 1.0147913
-6.2717495 13.957782 -0.85471731
-7.1255007 15.857805 0
-7.432497 16.541025 1.0129045
-6.2896771 13.952559 -0.85486227
-7.1414471 15.842064 0
-7.4311209 16.484655 1.0100018
-6.3022485 13.935479 -0.85428172
-7.1820316 15.880849 0
-7.4349761 16.440157 1.0078251
-6.3147879 13.918389 -0.85370117
-7.1958404 15.860312 0
-7.4269238 16.369642 1.0040517
-6.3186836 13.882369 -0.85195953
-7.2236242 15.870555 0
-6.3950586 14.050167 0.8622573
-6.3289795 13.860546 -0.85108894
-6.4385819 14.100577 0
-6.4012399 14.018798 0.86080617
-6.330574 13.819819 -0.84905726
-6.4577808 14.097515 0
-6.4127645 13.999243 0.86008066
-1.2227784 2.6608632 -0.64872229
-6.3309917 13.776742 -0.84688008
-6.4541659 14.044778 0
-6.4133987 13.956066 0.85790342
-1.2132316 2.6317027 -0.6419698
-6.3465471 13.766725 -0.84673506
-6.4689503 14.032238 0
-6.4139423 13.912917 0.85572672
-1.2004111 2.5956392 -0.63352603
-0 0 -0
-6.342452 13.714233 -0.84397727
-6.4880877 14.02914 0
-6.4296594 13.902801 0.8555817
-1.2421144 2.6773181 -0.81428808
-1.1992692 2.5849671 -0.63127446
-0 0 -0
-6.3491774 13.685348 -0.84267116
-6.5181775 14.04962 0
-6.4530125 13.90916 0.85645229
-1.2400526 2.6644363 -0.81082529
-1.2013206 2.5812149 -0.63071215
-1.2595268 2.7062795 -0.49764577
-6.337204 13.61642 -0.83889782
-6.5340476 14.039368 0
-6.4698143 13.901352 0.85645229
-1.2167392 2.6061077 -0.79352194
-1.1947654 2.5590427 -0.62564671
-0 0 -0
-6.3404613 13.580499 -0.83715612
-6.5422034 14.012606 0
-6.484406 13.888811 0.85616171
-1.1890345 2.5387604 -0.77345252
-1.1989334 2.559896 -0.62620908
-1.2170684 2.5986171 -0.47838765
-6.3469481 13.551651 -0.83585
-6.5591302 14.00469 0
-6.4879622 13.852737 0.8544206
-1.210236 2.5759206 -0.78521866
-1.1966243 2.5469489 -0.62339514
-1.2278497 2.6134107 -0.48138383
-6.363318 13.543973 -0.83585
-6.5705109 13.984971 0
-7.431695 15.817954 0.9761861
-1.1979066 2.5456812 -0.77622122
-1.1949161 2.5393262 -0.62170595
-1.2305204 2.614989 -0.4818114
-6.3648634 13.526023 -0.83497947
-6.5778513 13.978646 0
-7.4346142 15.799359 0.97531551
-1.2009817 2.5442319 -0.77622122
-1.2077444 2.5585582 -0.62677139
-1.2402519 2.6274242 -0.48437837
-6.3723288 13.499524 -0.83381832
-6.5991807 13.980102 0
-7.4725547 15.830309 0.97778273
-1.1922437 2.5178351 -0.76860672
-1.2053989 2.5456169 -0.62395751
-1.2412306 2.6212881 -0.48352328
-6.3919725 13.498862 -0.83425391
-6.6149554 13.969768 0
-7.556169 15.957466 0.98619998
-1.1887444 2.5026228 -0.91355342
-1.1673007 2.457478 -0.7506119
-1.2041131 2.5349779 -0.62170595
-1.214662 2.5571861 -0.4719694
-6.4105062 13.495819 -0.83454388
-7.5574598 15.91046 0
-7.5988564 15.997611 0.9892478
-1.1503035 2.4141631 -0.881769
-1.1605581 2.4356847 -0.7443831
-1.2148271 2.5495801 -0.62564671
-1.2133341 2.5464468 -0.47025752
-6.4312797 13.497446 -0.83512443
-7.584516 15.917765 0
-7.630477 16.014223 0.99084449
-1.1468266 2.3993959 -0.87688076
-1.1342885 2.3731637 -0.72569406
-1.2200962 2.552691 -0.62677139
-1.1854135 2.4801278 -0.45827442
-6.4363809 13.466226 -0.83367336
-7.6115971 15.925018 0
-7.6576662 16.021406 0.99186057
-1.1422441 2.3824055 -0.87117523
-1.1404101 2.3785803 -0.72777122
-1.2165909 2.5374722 -0.62339514
-1.1506778 2.3999958 -0.44372436
-6.4515204 13.456089 -0.8335278
-7.6297097 15.913465 0
-7.6972384 16.054312 0.9944728
-1.1258417 2.3409348 -0.85650742
-1.1606808 2.4133747 -0.73884577
-1.2317668 2.561182 -0.62958527
-1.1702628 2.4332986 -0.45014265
-6.4677749 13.448283 -0.8335278
-7.6602097 15.927684 0
-7.7290163 16.070751 0.99606895
-1.1018224 2.2839224 -0.83613408
-1.1417946 2.3667791 -0.72500253
-1.2315516 2.5528328 -0.62789828
-1.1698592 2.424953 -0.44885999
-6.4772477 13.426421 -0.83265722
-7.6828432 15.92545 0
-7.7461729 16.056725 0.99577892
-1.1185762 2.3115096 -0.84672785
-1.1523042 2.3812077 -0.72984833
-1.2346354 2.551343 -0.62789828
-1.1772612 2.4327807 -0.45057184
-6.4912047 13.413912 -0.83236724
-7.70435 15.920845 0
-7.7768855 16.070738 0.99723005
-1.13432 2.3368382 -0.85650742
-1.1486053 2.3662677 -0.72569406
-1.2388258 2.5521328 -0.62846059
-1.1824397 2.4359708 -0.45142695
-6.5096755 13.410729 -0.83265722
-7.7315335 15.927907 0
-7.791759 16.051979 0.9966495
-1.1555356 2.3732412 -0.87036103
-1.1426775 2.3468332 -0.72015673
-1.2430198 2.5529165 -0.62902296
-1.1831368 2.4299285 -0.45057184
-6.5247383 13.400519 -0.8325122
-7.7621684 15.941957 0
-7.8168402 16.054241 0.99737561
-1.1573187 2.3696244 -0.86954689
-1.1334047 2.3206604 -0.71254498
-1.251678 2.5628262 -0.63183683
-1.1826913 2.4215751 -0.44928753
-6.5318027 13.373947 -0.8313511
-7.775712 15.920866 0
-7.8362327 16.044785 0.99737561
-1.135175 2.3171806 -0.85080504
-1.1461403 2.3395634 -0.71877378
-1.2514235 2.5544732 -0.63014978
-1.1799707 2.4086199 -0.44714811
-1.3092593 2.6725307 -0.33170852
-6.5445271 13.359042 -0.83091557
-7.8086829 15.939505 0
-7.8510413 16.025969 0.99679506
-1.146234 2.3255131 -0.85487908
-1.1462461 2.3255377 -0.71531361
-0 0 -0
-1.1846541 2.403461 -0.44672054
-1.3054235 2.6484814 -0.32911417
-6.5721965 13.333865 -0.83033496
-7.8609862 15.9486 0
-7.8943419 16.016273 0.99737561
-1.1501374 2.32634 -0.85569322
-1.1401603 2.3061595 -0.70977634
-1.2674295 2.5635819 -0.63352603
-1.1818656 2.3905153 -0.44457948
-0 0 -0
-6.5883031 13.325913 -0.83033496
-7.8837128 15.946091 0
-7.9275036 16.034664 0.99911672
-1.1606351 2.3404505 -0.86139882
-1.1418325 2.3025348 -0.70908481
-1.2716539 2.5643229 -0.63408834
-1.1665099 2.3522973 -0.43773365
-1.2911383 2.6036136 -0.32392547
-6.6055532 13.32027 -0.83047998
-7.9087548 15.948209 0
-7.9618835 16.055344 1.001004
-1.142547 2.296998 -0.84591365
-1.149083 2.3101385 -0.71185344
-1.2792778 2.5718844 -0.6363399
-1.1842126 2.3807635 -0.44329682
-1.2908264 2.5951021 -0.3230603
-6.6355305 13.340197 -0.83222169
-7.9430857 15.96893 0
-8.0078907 16.099216 1.0043417
-1.1464239 2.2978253 -0.84672785
-1.1731505 2.3513944 -0.72500253
-1.2710432 2.5476048 -0.63071215
-1.1905233 2.3862154 -0.44457948
-1.3066641 2.6190014 -0.32623181
-6.6400461 13.308922 -0.83077055
-7.9600539 15.954668 0
-8.0493755 16.133699 1.0070989
-1.1602626 2.3185456 -0.85487908
-1.1580273 2.3140788 -0.71392798
-1.2911737 2.5801446 -0.63915378
-1.1876627 2.3732991 -0.44244006
-1.2866776 2.5711601 -0.32046595
-6.6607742 13.310184 -0.8313511
-7.9851484 15.956673 0
-8.078167 16.142551 1.0082601
-1.1375607 2.2663338 -0.83613408
-1.1653243 2.3216467 -0.71669662
-1.297711 2.5853975 -0.64084297
-1.2008927 2.3925085 -0.44629136
-0 0 -0
-6.6698556 13.288188 -0.83047998
-8.0079222 15.953984 0
-8.0930033 16.123489 1.0076796
-1.1647476 2.3135211 -0.85406172
-1.1726413 2.3292 -0.71946526
-1.287123 2.5565934 -0.63408834
-1.2084 2.4002273 -0.44800323
-1.2812587 2.5449455 -0.31758359
-6.6859069 13.280119 -0.83047998
-8.028367 15.946628 0
-8.106638 16.102097 1.006954
-1.1405548 2.2620635 -0.83531988
-1.1638839 2.3083322 -0.71323645
-1.2715112 2.5217896 -0.62564671
-1.2179413 2.4155443 -0.45099941
-1.2548485 2.4887424 -0.31066456
-6.6857433 13.259842 -0.82946444
-8.0520601 15.96966 0
-8.114027 16.09256 1.0066639
-1.155558 2.2849474 -0.84428531
-1.1825209 2.3382626 -0.72292542
-1.2504778 2.4726377 -0.61382669
-1.2243357 2.4209454 -0.45228371
-1.271862 2.5149217 -0.31412408
-6.6958981 13.240163 -0.82873887
-8.0854397 15.987779 0
-8.1334658 16.082743 1.0066639
-1.1538457 2.2747326 -0.84102541
-1.1819439 2.3301263 -0.72085088
-1.2247298 2.4144759 -0.59975511
-1.2377105 2.4400666 -0.456135
-1.2479874 2.4603267 -0.30749309
-6.7154145 13.239008 -0.82917386
-8.1071091 15.982644 0
-8.1587696 16.084488 1.0073895
-1.1633158 2.2865498 -0.84591365
-1.1722437 2.3040981 -0.71323645
-1.2172778 2.3926146 -0.59468967
-1.2313455 2.4202654 -0.45271125
-1.2638617 2.4841774 -0.31066456
-6.724339 13.216992 -0.82830334
-8.1299562 15.979797 0
-8.1840887 16.086195 1.0081151
-1.1604618 2.274137 -0.84183961
-1.1647652 2.2825704 -0.70700771
-1.2120824 2.3752968 -0.59074891
-1.2377706 2.4256377 -0.45399559
-1.2645134 2.478045 -0.31008855
-6.7414842 13.21117 -0.8284483
-8.156354 15.983867 0
-8.196435 16.062412 1.0072446
-1.1620839 2.270535 -0.84102541
-1.1846642 2.3146536 -0.71738809
-1.2033774 2.3512163 -0.58512115
-1.2430375 2.4287062 -0.4548507
-1.2592567 2.4603961 -0.30807021
-6.7503414 13.18914 -0.82757777
-8.175662 15.974 0
-8.228857 16.077934 1.0088407
-1.1580518 2.2559321 -0.83613408
-1.185171 2.3087611 -0.71600509
-1.1957752 2.3294187 -0.58005571
-1.2471424 2.4294841 -0.45527825
-1.2622287 2.4588728 -0.30807021
-6.7722049 13.192531 -0.82830334
-8.1997108 15.973371 0
-8.2565851 16.084164 1.0098567
-1.1630418 2.2589302 -0.83776557
-1.1695853 2.2716396 -0.70493054
-1.1881176 2.3076341 -0.57498819
-1.2536035 2.4348245 -0.45656255
-1.2687519 2.4642467 -0.30893537
-6.7857594 13.179713 -0.82801276
-8.2392569 16.002783 0
-8.2867184 16.094965 1.0111629
-1.1748428 2.2750921 -0.84428531
-1.1723294 2.2702246 -0.70493054
-1.1920743 2.308461 -0.57555264
-1.2553679 2.4310293 -0.456135
-1.2574875 2.4351339 -0.30547586
-6.7945285 13.157656 -0.82714218
-8.2526178 15.981256 0
-8.3085461 16.089563 1.0114534
-1.1525815 2.2253828 -0.8263545
-1.1716092 2.2621212 -0.70285338
-1.1936908 2.3047562 -0.57498819
-1.2618427 2.4363425 -0.45741767
-1.2497244 2.4129446 -0.30288151
-6.8163962 13.160971 -0.82786775
-8.2683306 15.964338 0
-8.355464 16.132574 1.0147913
-1.1575505 2.2283795 -0.827986
-1.1755015 2.2629366 -0.70354754
-1.187109 2.2852821 -0.57048726
-1.2707058 2.4462128 -0.45955876
-1.2514433 2.4091308 -0.3025924
-6.8239121 13.13659 -0.8268522
-8.3044071 15.986665 0
-8.3761473 16.124769 1.0149362
-1.170519 2.2467048 -0.83531988
-1.1828716 2.2704144 -0.70631617
-1.188692 2.2815862 -0.56992275
-1.2689162 2.4355693 -0.45784688
-1.2519655 2.4030337 -0.30201635
-6.8445783 13.137545 -0.82743222
-8.3321362 15.992777 0
-8.3944254 16.112335 1.0147913
-1.1537751 2.208051 -0.82146627
-1.1739933 2.2467439 -0.69939321
-1.1890968 2.2756486 -0.56879807
-1.2861245 2.4613364 -0.46298248
-1.2452854 2.3831801 -0.29971001
-6.8688722 13.145388 -0.8284483
-8.3610964 16.00115 0
-8.4463758 16.164354 1.0187095
-1.1702096 2.2329257 -0.83124584
-1.1732169 2.2386639 -0.69731873
-1.1965635 2.2832122 -0.57104957
-1.2855216 2.4529572 -0.46169817
-1.2493635 2.3839624 -0.29999802
-6.8690715 13.107161 -0.82656163
-8.3840504 15.997953 0
-8.4876146 16.195568 1.0213224
-1.1924547 2.2687006 -0.84509951
-1.181756 2.2483459 -0.7007789
-1.2005024 2.2840118 -0.57161194
-1.290871 2.4559424 -0.46255329
-1.2450252 2.3687184 -0.29826882
-6.8812761 13.091949 -0.8261261
-8.4045839 15.990113 0
-8.526516 16.222094 1.0236441
-1.170992 2.2213454 -0.827986
-1.180961 2.2402563 -0.69870174
-1.1961542 2.2690775 -0.5682357
-1.2986261 2.4634643 -0.46426514
-1.2502964 2.371784 -0.29884484
-6.8995161 13.088226 -0.82641661
-8.4323902 15.996055 0
-8.5703459 16.257751 1.0265468
-1.1748294 2.2221119 -0.8288002
-1.1742864 2.2210848 -0.69316447
-1.1917672 2.2541487 -0.5648573
-1.312399 2.4823158 -0.46811643
-1.2555815 2.3748491 -0.299422
-6.9104676 13.070691 -0.82583606
-8.457798 15.997364 0
-8.6021309 16.270361 1.0279984
-1.1752 2.2163277 -0.8271718
-1.1804962 2.2263157 -0.69524157
-1.1897287 2.2437277 -0.5626058
-1.3081844 2.4671249 -0.46554947
-1.2487568 2.3550494 -0.29711565
-6.9299088 13.069221 -0.82627165
-8.4819984 15.99633 0
-8.6193476 16.25536 1.0277079
-1.1709119 2.2018085 -0.82228047
-1.2020326 2.2603283 -0.70631617
-1.1912471 2.2400472 -0.56204343
-1.3147815 2.4723442 -0.46683377
-1.2455304 2.3421228 -0.29567447
-6.9456954 13.060838 -0.82627165
-8.5123167 16.006748 0
-8.6450815 16.256401 1.0284334
-1.1863672 2.2243831 -0.83124584
-1.1894159 2.2300994 -0.69731873
-1.1951475 2.2408459 -0.5626058
-1.3117242 2.4594219 -0.46469271
-1.237406 2.3200786 -0.29308012
-6.9480195 13.027213 -0.82467496
-8.5377741 16.007929 0
-8.6793919 16.273457 1.0301752
-1.1680725 2.183723 -0.81657803
-1.2027582 2.2485681 -0.70354754
-1.1966569 2.2371619 -0.56204343
-1.3122756 2.4533122 -0.46383759
-1.2560666 2.3482287 -0.29682764
-6.9735599 13.037139 -0.82583606
-8.5595627 16.002188 0
-8.7223358 16.306494 1.032933
-1.183392 2.2091529 -0.8263545
-1.1993779 2.2389953 -0.7007789
-1.1968096 2.234201 -0.56148106
-1.3210282 2.4660916 -0.46640459
-1.2367237 2.3087122 -0.29192695
-6.9802094 13.030635 -0.8256911
-8.5753775 16.00849 0
-8.7689934 16.369932 1.0372869
-1.1778759 2.1924865 -0.82065207
-1.192584 2.2198641 -0.69524157
-1.2019111 2.2372255 -0.5626058
-1.3252255 2.4667616 -0.46683377
-1.2395124 2.3072162 -0.29192695
-6.9971776 13.024478 -0.82583606
-8.6021013 16.011868 0
-8.8182755 16.414251 1.0407697
-1.1652849 2.1627774 -0.8100583
-1.183368 2.1963398 -0.68832129
-1.1913596 2.2111723 -0.55641568
-1.3355085 2.4787138 -0.46940076
-1.2435249 2.3079915 -0.29221496
-7.0129104 13.016014 -0.82583606
-8.6251469 16.008337 0
-8.8455 16.417315 1.0416408
-1.173771 2.1722381 -0.81413239
-1.1931745 2.208147 -0.69247293
-1.2061074 2.2320812 -0.56204343
-1.3348403 2.4703207 -0.46811643
-1.2512312 2.3155894 -0.29336813
-7.0273981 13.005247 -0.8256911
-8.6543818 16.016222 0
-8.8789148 16.431755 1.0432369
-1.1716845 2.1621261 -0.8108725
-1.1862793 2.1890581 -0.68693566
-1.2160648 2.2440217 -0.56541967
-1.3390509 2.4709694 -0.46854565
-1.2392402 2.2867875 -0.28990862
-7.039392 12.98989 -0.82525551
-8.6861248 16.028629 0
-8.9037151 16.430153 1.0438174
-1.1825589 2.1759121 -0.81657803
-1.2021023 2.2118721 -0.6945501
-1.2054325 2.2179997 -0.55922955
-1.3371323 2.4603279 -0.46683377
-1.238296 2.2784686 -0.28904346
-7.0588064 12.988226 -0.8256911
-8.7017565 16.011259 0
-8.9024696 16.380571 1.0413502
-1.1792696 2.1636245 -0.81250089
-1.2035699 2.2082088 -0.69385594
-1.2044624 2.2098463 -0.55754036
-1.3425589 2.4632139 -0.46768889
-1.2459995 2.2860548 -0.29019663
-7.0682735 12.968273 -0.82496494
-8.7397804 16.035013 0
-8.5765705 15.735568 1.001004
-1.1842562 2.1665397 -0.81413239
-1.2086462 2.2111599 -0.69524157
-1.2010393 2.1972437 -0.55472648
-1.3504592 2.4706001 -0.46940076
-1.2450427 2.2777455 -0.2893326
-7.0939083 12.977963 -0.8261261
-8.7579021 16.02216 0
-8.5993128 15.732027 1.001439
-1.1690507 2.1325951 -0.80190712
-1.2052884 2.1987004 -0.69178146
-1.2073588 2.2024772 -0.55641568
-1.3571466 2.4757218 -0.47068506
-1.2428207 2.2671673 -0.28817943
-7.1170816 12.983058 -0.82699722
-8.7722511 16.002438 0
-8.612071 15.710235 1.0007133
-1.1704371 2.1290171 -0.80109292
-1.2139862 2.2082326 -0.69524157
-1.2002264 2.1832039 -0.55191261
-1.3576612 2.4695766 -0.46982831
-1.2430648 2.2611265 -0.28760228
-7.1302576 12.969891 -0.82670665
-8.7915802 15.991826 0
-8.6322985 15.702092 1.0008584
-1.192102 2.1622326 -0.81413239
-1.2214985 2.2155521 -0.69801027
-1.2077707 2.1906526 -0.55416411
-1.3643637 2.4746807 -0.47111264
-1.2445484 2.25736 -0.28731427
-7.1509423 12.970367 -0.8272872
-8.8021002 15.965236 0
-8.6650667 15.716683 1.0024551
-1.2234161 2.2127025 -0.83369154
-1.219319 2.2052925 -0.69524157
-1.2214807 2.2092023 -0.55922955
-1.3636253 2.4662886 -0.46982831
-1.2360126 2.2354848 -0.28471991
-7.1653533 12.959446 -0.82714218
-8.8213844 15.954588 0
-9.0775681 16.417929 1.0478814
-1.2009205 2.165832 -0.81657803
-1.2159011 2.1928494 -0.69178146
-1.2118254 2.185499 -0.5535996
-1.3778067 2.4848423 -0.4736796
-1.2424768 2.240778 -0.28558508
-7.1910872 12.968959 -0.82830334
-8.8393955 15.941644 0
-9.1515789 16.50466 1.054122
-1.1915227 2.1427743 -0.8084268
-1.2100141 2.1760283 -0.68693566
-1.2144653 2.1840329 -0.5535996
-1.3857983 2.4921498 -0.47539148
-1.2275832 2.2076237 -0.28154841
-7.216855 12.978428 -0.82946444
-8.8637104 15.940049 0
-9.2068729 16.557177 1.0581858
-1.194111 2.1413329 -0.8084268
-1.2236382 2.1942825 -0.69316447
-1.2146307 2.1781299 -0.55247492
-1.3838075 2.4815054 -0.4736796
-1.239069 2.2219539 -0.28356674
-7.2312675 12.967431 -0.82931942
-8.8854971 15.933869 0
-9.2357273 16.561918 1.0592014
-1.1966975 2.1398885 -0.8084268
-1.2177206 2.1774814 -0.68832129
-1.232144 2.2032728 -0.55922955
-1.3780378 2.4641545 -0.47068506
-1.2480639 2.2317402 -0.28500792
-7.2431245 12.951878 -0.82888389
-8.9187174 15.94811 0
-7.2379928 12.942701 0.8282966
-1.1847744 2.1125722 -0.79864722
-1.2056248 2.1497505 -0.68001539
-1.2186491 2.1729741 -0.55191261
-1.3898004 2.4781542 -0.4736796
-1.2431711 2.2166991 -0.28327873
-7.2613087 12.947645 -0.82917386
-8.9341612 15.93051 0
-7.2625246 12.949813 0.82931274
-1.1945981 2.124069 -0.80353862
-1.2229792 2.1745322 -0.68832129
-1.2125539 2.1559954 -0.54797184
-1.3965701 2.4831874 -0.47496393
-1.2331672 2.1926472 -0.28039524
-7.2845931 12.952455 -0.83004498
-8.9789181 15.96507 0
-7.2667041 12.920647 0.82800663
-1.1862372 2.1032507 -0.79620469
-1.2021881 2.1315324 -0.67516959
-1.2276379 2.176656 -0.5535996
-1.3932652 2.4703207 -0.47282448
-1.2358156 2.1911554 -0.28039524
-7.3091702 12.95948 -0.83106053
-9.0173759 15.988205 0
-7.2848616 12.91638 0.8282966
-1.1924245 2.1082637 -0.79864722
-1.2097031 2.138813 -0.67793822
-1.2102574 2.1397932 -0.5445956
-1.3949866 2.466403 -0.47239694
-1.2384623 2.1896605 -0.28039524
-7.3299408 12.959685 -0.83164108
-9.0366888 15.977297 0
-7.2902293 12.889474 0.8271355
-1.1888753 2.0960741 -0.79457319
-1.2518936 2.20718 -0.70008737
-1.2216135 2.1537938 -0.54853421
-1.4004962 2.4691772 -0.47325206
-1.2462114 2.1971617 -0.28154841
-7.3481612 12.955344 -0.83193165
-9.0675421 15.986738 0
-7.3006701 12.871614 0.82655495
-1.1975158 2.1053758 -0.79864722
-1.2285134 2.159873 -0.68555266
-1.2179351 2.1412752 -0.54572034
-1.4009428 2.4630246 -0.47239694
-1.2463102 2.1911621 -0.28097239
-7.3650932 12.948712 -0.83207667
-9.0958595 15.991607 0
-7.3072286 12.84698 0.82553941
-1.184113 2.0788884 -0.78887081
-1.2223656 2.1460466 -0.68139833
-1.2255151 2.151576 -0.54853421
-1.4151335 2.4844797 -0.47667578
-1.2501917 2.1948993 -0.28154841
-7.3844881 12.96458 -0.83338279
-9.1016541 15.979322 0
-7.3059855 12.826756 0.82452327
-1.2111368 2.1203713 -0.80516696
-1.211274 2.1206114 -0.67378658
-1.228114 2.1500938 -0.54853421
-1.4143136 2.4760785 -0.47539148
-1.2477114 2.1844034 -0.28039524
-7.4014354 12.957901 -0.8335278
-9.1274128 15.979619 0
-7.3188987 12.813401 0.8242327
-1.1989564 2.0931702 -0.79538739
-1.216327 2.1234961 -0.67516959
-1.2382909 2.1618414 -0.55191261
-1.4109261 2.4632323 -0.47325206
-1.2439234 2.1716745 -0.27895406
-7.4209628 12.955715 -0.83396333
-9.1557655 15.98438 0
-7.3292146 12.795538 0.82365268
-1.1928709 2.0767236 -0.78968495
-1.2376367 2.1546583 -0.68555266
-1.2231817 2.1294932 -0.54403114
-1.4177384 2.4682057 -0.47453636
-1.2452595 2.1679294 -0.27866605
-7.445673 12.962513 -0.83497947
-9.1750727 15.973306 0
-7.3369021 12.773149 0.82278162
-1.1855102 2.058147 -0.78316528
-1.2239571 2.1248941 -0.67655253
-1.2371718 2.147836 -0.54909873
-1.4168746 2.4598155 -0.47325206
-1.2452936 2.1619363 -0.27808893
-7.4626255 12.955756 -0.83512443
-9.2216444 16.009563 0
-7.3549271 12.768783 0.82307214
-1.2164259 2.105932 -0.80190712
-1.22527 2.1212432 -0.67586106
-1.2346824 2.1375387 -0.54684716
-1.4134271 2.4469893 -0.47111264
-1.2466125 2.1581924 -0.27780089
-7.4860702 12.960226 -0.83599502
-9.2540016 16.020948 0
-7.3651514 12.750886 0.82249159
-1.1954356 2.0638309 -0.78642511
-1.2228025 2.1110778 -0.67309242
-1.2385367 2.1382418 -0.54740953
-1.4035186 2.4230707 -0.46683377
-1.2505145 2.1589205 -0.27808893
-7.5017247 12.951171 -0.83599502
-9.2746563 16.012005 0
-7.3831553 12.746469 0.82278162
-1.2103401 2.0837531 -0.79457319
-1.2240936 2.1074314 -0.67240089
-1.2347397 2.1257601 -0.5445956
-1.4012879 2.4124939 -0.4651219
-1.2453301 2.1439929 -0.27635971
-7.5212851 12.94884 -0.83643055
-9.3044538 16.018791 0
-9.3117476 16.031347 1.0355452
-1.1917106 2.0459838 -0.78071958
-1.2266392 2.1059508 -0.67240089
-1.238585 2.1264601 -0.54515797
-1.3848202 2.3775234 -0.458702
-1.2375054 2.1246066 -0.27405336
-7.5316944 12.930761 -0.83585
-9.3329678 16.023272 0
-9.3441877 16.042534 1.0369964
-1.202909 2.059484 -0.78642511
-1.2291828 2.1044672 -0.67240089
-1.243714 2.1293457 -0.54628265
-1.3501465 2.3115675 -0.44629136
-1.2426832 2.1275809 -0.27463052
-7.5577974 12.939601 -0.8370111
-9.3615112 16.027716 0
-7.4502802 12.755523 0.82510382
-1.214137 2.072952 -0.79212749
-1.2329915 2.1051431 -0.67309242
-1.2450031 2.1256509 -0.54572034
-1.2673185 2.1637511 -0.41804796
-1.2491709 2.132767 -0.27549455
-7.5511026 12.892345 -0.83454388
-9.3992825 16.047827 0
-7.4683113 12.750992 0.82539386
-1.2066319 2.0544419 -0.78561091
-1.234265 2.1014905 -0.67240089
-1.2334194 2.1000509 -0.53953022
-1.2517287 2.1312246 -0.41205561
-1.2530557 2.1334841 -0.27578259
-6.0007706 10.217063 -0.6618371
-9.4226217 16.043194 0
-7.485033 12.744205 0.82553941
-1.2128489 2.0536461 -0.78642511
-1.2457174 2.1093004 -0.67586106
-1.2449501 2.1080012 -0.54234409
-1.2255505 2.0751531 -0.40178603
-1.2503186 2.1170914 -0.27405336
-5.9910855 10.144356 -0.65806323
-9.4812174 16.053991 0
-7.5303397 12.750685 0.8271355
-1.2317009 2.0798235 -0.79701889
-1.2393203 2.0926895 -0.67101794
-1.2513767 2.1130478 -0.54403114
-1.220206 2.0604136 -0.39921743
-1.2502424 2.1111324 -0.27347735
-3.1474698 5.3147497 -0.34501368
-9.5006084 16.042522 0
-7.5682492 12.779583 0.82960272
-1.2064513 2.031585 -0.77909118
-1.2431277 2.0933454 -0.67170942
-1.2487445 2.1028039 -0.54178172
-1.2226948 2.0589378 -0.39921743
-1.2422271 2.0918291 -0.271171
-0 0 -0
-9.5531998 16.086962 0
-7.5969553 12.792775 0.83105439
-1.211432 2.0343688 -0.78071958
-1.2315356 2.0681291 -0.66409498
-1.2499807 2.0991039 -0.54121721
-1.2015427 2.0177617 -0.39151484
-1.2434266 2.0880978 -0.27088189
-0 0 -0
-9.6059179 16.131308 0
-7.6310172 12.814838 0.83308607
-1.2202237 2.0435119 -0.78479362
-1.2468979 2.0881834 -0.67101794
-1.2577267 2.1063185 -0.54346877
-1.2118739 2.0295286 -0.3940818
-1.26849 2.1243436 -0.27578259
-0 0 -0
-9.7054577 16.253756 0
-7.6611462 12.830142 0.83468223
-1.234118 2.0611188 -0.79212749
-1.2403973 2.0716062 -0.66617215
-1.2433033 2.0764594 -0.53615183
-1.2090554 2.0192614 -0.39237159
-1.251129 2.0895293 -0.27145901
-0 0 -0
-9.7772264 16.329092 0
-7.6940002 12.849864 0.83656943
-1.2162563 2.0257301 -0.77909118
-1.246775 2.0765605 -0.66824925
-1.2510431 2.0836692 -0.53840333
-1.2220604 2.0353973 -0.39579368
-1.2523228 2.0858006 -0.271171
-3.1581256 5.2600017 -0.34269202
-9.8076668 16.335115 0
-7.70818 12.838324 0.83642387
-1.2314489 2.0454297 -0.78723931
-1.2673966 2.1051385 -0.67793822
-1.2561835 2.0865138 -0.53953022
-1.224519 2.0339193 -0.39579368
-1.2441696 2.0665588 -0.26886466
-3.1577737 5.2450447 -0.34196588
-9.8421593 16.347773 0
-7.706265 12.800063 0.83453721
-1.2211481 2.0227852 -0.77909118
-1.2491939 2.0692418 -0.66686362
-1.2613276 2.0893409 -0.5406549
-1.2216688 2.0236475 -0.3940818
-1.2533482 2.0761232 -0.27030584
-3.1654558 5.2434564 -0.34211144
-9.8672857 16.34478 0
-7.6935253 12.74403 0.83148938
-1.2313169 2.0368469 -0.78479362
-1.2595303 2.0835176 -0.67170942
-1.2586449 2.0820529 -0.5389657
-1.2122719 2.0053427 -0.39065972
-1.2438976 2.057658 -0.2679995
-3.1632462 5.2326484 -0.34153089
-9.8865843 16.354408 0
-7.68644 12.714925 0.82989329
-1.2273723 2.0247917 -0.78071958
-1.2529423 2.0669744 -0.66686362
-1.2545754 2.0696683 -0.53615183
-1.2213464 2.0148506 -0.39279914
-1.2423594 2.0495157 -0.26713437
-3.170912 5.2310419 -0.34167588
-9.898241 16.329092 0
-7.6950645 12.69452 0.82916772
-1.2285354 2.0211971 -0.77990538
-1.2658634 2.0826094 -0.67240089
-1.2570752 2.068151 -0.53615183
-1.2077799 1.9870498 -0.38766354
-1.2502086 2.056854 -0.26828751
-3.1745286 5.2227616 -0.34138533
-9.9247274 16.328247 0
-7.7225432 12.705194 0.83047384
-1.2206863 2.0028272 -0.77338564
-1.2657702 2.076798 -0.67101794
-1.2582521 2.0644629 -0.53558946
-1.2235373 2.0075049 -0.39194238
-1.2607722 2.0685976 -0.27001783
-3.1767838 5.2122722 -0.34095034
-9.9444494 16.316242 0
-7.7500591 12.715821 0.83177996
-1.2282609 2.0097866 -0.77664554
-1.2813585 2.0966694 -0.67793822
-1.270022 2.0781198 -0.53953022
-1.2232873 2.0016484 -0.39108726
-1.2511332 2.0472121 -0.26742348
-3.185787 5.2128596 -0.34124035
-3.3105392 5.4169903 0
-7.7776117 12.7264 0.83308607
-1.2332687 2.0125117 -0.77827388
-1.258984 2.0544753 -0.66478646
-1.2619112 2.0592518 -0.53502715
-1.2176548 1.9870319 -0.38851863
-1.2644174 2.0633416 -0.26972982
-3.188009 5.2023578 -0.34080479
-3.3143651 5.4085522 0
-7.801127 12.730282 0.83395666
-1.2344068 2.0089161 -0.77745968
-1.2654071 2.0593669 -0.66686362
-1.2630644 2.0555544 -0.53446263
-1.2200549 1.9855592 -0.38851863
-1.2601352 2.0507874 -0.26828751
-3.1929336 5.19629 -0.34065977
-3.3113592 5.38902 0
-7.8205857 12.72749 0.83439219
-1.2394289 2.0116358 -0.77909118
-1.2665797 2.0557027 -0.66617215
-1.2615525 2.0475433 -0.53277558
-1.2278394 1.9928257 -0.39023051
-1.2599014 2.0448635 -0.26771149
-3.1923962 5.1813693 -0.33993423
-3.3219652 5.391664 0
-7.8345966 12.715821 0.83424717
-1.2392581 2.0059273 -0.77745968
-1.27038 2.056303 -0.66686362
-1.2640256 2.0460174 -0.53277558
-1.2086642 1.9564065 -0.38338467
-1.2650875 2.0477362 -0.26828751
-3.2000189 5.1797166 -0.34007922
-3.3243728 5.3810019 0
-7.8335671 12.679818 0.83250552
-1.2468872 2.0128329 -0.78071958
-1.2860777 2.0760977 -0.67378658
-1.2718492 2.0531287 -0.53502715
-1.2286 1.9833121 -0.38894784
-1.2580302 2.0308208 -0.26627031
-3.2076423 5.1780529 -0.34022421
-3.3445747 5.3991008 0
-8.4536715 13.646646 0.89665353
-1.2349769 1.9882358 -0.7717573
-1.2581384 2.0255244 -0.65786618
-1.2756684 2.0537467 -0.53558946
-1.2228661 1.9687382 -0.38637921
-1.2604831 2.0292995 -0.26627031
-3.2138965 5.1741734 -0.34022421
-3.3442314 5.3840041 0
-10.011132 16.1173 1.0597819
-1.2608956 2.0245016 -0.78642511
-1.2539546 2.0133572 -0.65440607
-1.2821802 2.0586762 -0.53727865
-1.2238882 1.9650822 -0.38595167
-1.2670325 2.0343549 -0.26713437
-3.2201462 5.1702862 -0.34022421
-3.34936 5.3777523 0
-10.036095 16.114014 1.0603625
-1.2279916 1.966372 -0.76442027
-1.282964 2.0543988 -0.66824925
-1.2806278 2.050658 -0.53558946
-1.2235396 1.9592431 -0.38509491
-1.2599033 2.017472 -0.26511714
-3.214005 5.1465578 -0.33891809
-3.3682609 5.3935661 0
-10.062438 16.112894 1.0610881
-1.2093841 1.9313779 -0.75138396
-1.2641423 2.0188262 -0.65717471
-1.2857991 2.053412 -0.53671414
-1.2190953 1.9468867 -0.38295549
-1.2609636 2.0137498 -0.26482803
-3.2119498 5.1294608 -0.33804753
-3.3678708 5.3784657 0
-10.084661 16.105131 1.0613786
-1.2196 1.9424704 -0.7562722
-1.2839216 2.0449164 -0.66617215
-1.2869295 2.0497069 -0.53615183
-1.2282706 1.9562805 -0.38509491
-1.2647752 2.0144215 -0.26511714
-3.2181454 5.125576 -0.33804753
-3.3702142 5.3677778 0
-8.5262957 13.579926 0.89563799
-1.2746173 2.0246608 -0.78887081
-1.2583247 1.9987808 -0.65163738
-1.2812856 2.035253 -0.53277558
-1.2237967 1.9439349 -0.38295549
-1.2616963 2.0041363 -0.26396397
-3.2381773 5.1436696 -0.33949867
-3.3766978 5.3637018 0
-10.14293 16.111496 1.0634103
-1.25859 1.9938545 -0.77745968
-1.2674334 2.0078642 -0.65509754
-1.283744 2.0337033 -0.53277558
-1.2343689 1.9554836 -0.38552409
-1.2682549 2.0091655 -0.26482803
-1.3415093 2.1252153 -0.14037789
-3.3887329 5.3684206 0
-10.18042 16.12779 1.065297
-1.255711 1.9839785 -0.77419984
-1.2631513 1.9957341 -0.65163738
-1.2889155 2.0364406 -0.53390026
-1.2298677 1.9431472 -0.38338467
-1.2637666 1.9967062 -0.26338682
-1.3579704 2.1455448 -0.14182901
-3.4007845 5.3731184 0
-10.198511 16.113285 1.0651519
-1.242215 1.9574176 -0.76442027
-1.2803501 2.0175087 -0.65925187
-1.2872894 2.0284436 -0.53221107
-1.2335889 1.9438251 -0.38381225
-1.2675682 1.997368 -0.26367596
-1.3633491 2.1482944 -0.14211957
-3.4142454 5.3799901 0
-10.219364 16.103142 1.065297
-1.2830573 2.0163853 -0.78805345
-1.2733579 2.001142 -0.65440607
-1.2897395 2.0268867 -0.53221107
-1.2290474 1.9315063 -0.3816728
-1.2616467 1.9827377 -0.26194564
-1.3464117 2.1159496 -0.14008734
-10.344626 16.257071 0
-8.5774965 13.479941 0.89244521
-1.268212 1.9877483 -0.77745968
-1.2798243 2.005949 -0.65648317
-1.2880915 2.0189068 -0.53052402
-1.2272369 1.9235253 -0.3803885
-1.2584769 1.9724898 -0.26079246
-1.3531616 2.1208951 -0.1405229
-3.1136987 4.8802958 0
-8.6105442 13.495846 0.89418632
-1.2547793 1.9640765 -0.76849741
-1.2864386 2.0136321 -0.65925187
-1.2947829 2.0266931 -0.53277558
-1.2242513 1.9162916 -0.3791042
-1.2624561 1.9760927 -0.26136962
-1.3348602 2.0894251 -0.13849123
-3.0984335 4.849905 0
-8.6340857 13.51473 0.89578301
-1.2771453 1.9937713 -0.78071958
-1.2658675 1.9761653 -0.64748573
-1.2917486 2.0165689 -0.53052402
-1.2334878 1.925617 -0.38124362
-1.2634437 1.9723816 -0.2610805
-1.3527973 2.1118729 -0.14008734
-3.0860436 4.8176708 0
-8.6714344 13.53711 0.89796025
-1.278219 1.990149 -0.77990538
-1.2777407 1.9894044 -0.65232891
-1.2859429 2.0021749 -0.52714568
-1.2247155 1.9068456 -0.37781987
-1.2644296 1.9686793 -0.26079246
-1.3511394 2.1036839 -0.13965234
-3.0904577 4.8117509 0
-8.703227 13.550667 0.89955634
-1.2672434 1.9678271 -0.7717573
-1.2923671 2.0068402 -0.65855765
-1.2924896 2.0070305 -0.52883488
-1.2367491 1.9204743 -0.38081604
-1.2570088 1.9519342 -0.25877526
-1.3494583 2.0954938 -0.13921678
-3.100498 4.814579 0
-8.7111559 13.527037 0.89868575
-1.2763225 1.9766743 -0.77583134
-1.2907125 1.9989605 -0.65648317
-1.2838875 1.9883906 -0.52433175
-1.2334988 1.9103522 -0.3791042
-1.2635714 1.9569263 -0.25963929
-1.3463514 2.08513 -0.13863622
-3.0893726 4.7845931 0
-8.7148104 13.496857 0.89737964
-1.2840828 1.9834298 -0.77909118
-1.2863059 1.9868636 -0.65302038
-1.2711036 1.9633818 -0.51814169
-1.2358062 1.9088603 -0.3791042
-1.2701533 1.9619138 -0.26050445
-1.3502806 2.0856807 -0.13878122
-3.0852499 4.7655621 0
-8.7311125 13.486317 0.89737964
-1.2824401 1.9756553 -0.77664554
-1.2805126 1.9726861 -0.64886874
-1.2402724 1.9106944 -0.50463241
-1.2367154 1.9052145 -0.37867662
-1.2682968 1.9538671 -0.25963929
-1.3301634 2.0491753 -0.13645899
-3.1136777 4.7967577 0
-10.48183 16.14772 1.0753114
-1.2309027 1.891252 -0.74405003
-1.3006843 1.9984699 -0.65786618
-1.2411956 1.9070667 -0.5040701
-1.2376176 1.9015694 -0.37824908
-1.2706567 1.9523332 -0.25963929
-1.3468152 2.0693488 -0.13791066
-3.1024358 4.7668176 0
-8.1414661 12.509164 0.83366662
-1.2696526 1.945644 -0.76605177
-1.2825366 1.9653879 -0.64748573
-1.224056 1.8757708 -0.49618861
-1.2399144 1.9000726 -0.37824908
-1.2701905 1.9464685 -0.25906327
-1.3493147 2.0677199 -0.13791066
-3.1281023 4.7935739 0
-8.1636734 12.510196 0.83439219
-1.2544119 1.9172233 -0.755458
-1.3027656 1.9911262 -0.65648317
-1.2444054 1.9019294 -0.50350559
-1.2422093 1.898573 -0.37824908
-1.2697066 1.9405993 -0.25848612
-1.3375827 2.0443401 -0.13645899
-3.1025472 4.7418838 0
-8.1802053 12.502495 0.83453721
-1.281128 1.9529011 -0.77012581
-1.2872825 1.9622828 -0.64748573
-1.235558 1.8834361 -0.49900466
-1.2360513 1.8841879 -0.37568045
-1.2748907 1.9433932 -0.25906327
-1.3372041 2.0383813 -0.13616899
-3.1239786 4.7620702 0
-8.2266598 12.540397 0.83772999
-1.2685452 1.9286351 -0.76116037
-1.2937845 1.9670079 -0.64956027
-1.2308475 1.8713214 -0.49618861
-1.2411511 1.8869866 -0.3765372
-1.2658672 1.9245638 -0.25675693
-1.3339543 2.0280802 -0.13558844
-3.1383085 4.7713337 0
-8.2732229 12.578212 0.84092331
-1.2763174 1.9353542 -0.76442027
-1.2837311 1.946596 -0.64333147
-1.2219168 1.8528634 -0.49168554
-1.2462541 1.8897675 -0.37739232
-1.2681917 1.9230328 -0.25675693
-1.3435552 2.0373108 -0.13631399
-3.1268783 4.741467 0
-8.2755423 12.548685 0.83961719
-1.2786549 1.9338106 -0.76442027
-1.2805475 1.9366728 -0.64056283
-1.2451774 1.8831799 -0.50012934
-1.2343807 1.8668513 -0.37311345
-1.2819269 1.9387591 -0.25906327
-1.3230854 2.0010064 -0.13399176
-3.1412203 4.7507148 0
-8.2405367 12.462812 0.83453721
-1.2687007 1.913726 -0.75708634
-1.2939764 1.9518521 -0.6461001
-1.2390307 1.8689713 -0.49675313
-1.2479831 1.8824753 -0.3765372
-1.2814075 1.932893 -0.25848612
-1.3484747 2.0340581 -0.13631399
-3.1455162 4.7447405 0
-8.2153931 12.392214 0.83047384
-1.257333 1.8916117 -0.74893826
-1.2810563 1.9273026 -0.63848567
-1.2412882 1.8674728 -0.49675313
-1.2459924 1.8745502 -0.3752529
-1.2694272 1.9098068 -0.25560376
-1.3408669 2.0172853 -0.13529843
-3.1613328 4.7561102 0
-8.2174168 12.362803 0.82916772
-1.2678391 1.9024274 -0.7538265
-1.2875593 1.9320183 -0.64056283
-1.2421305 1.8638511 -0.49618861
-1.2496787 1.8751774 -0.37568045
-1.2659963 1.8996624 -0.25445059
-1.3274509 1.9918767 -0.13370176
-3.1815071 4.7739391 0
-8.2136106 12.32475 0.82728052
-1.2646443 1.8926739 -0.75056666
-1.3080108 1.9575766 -0.64956027
-1.2415612 1.8581276 -0.49506393
-1.2419645 1.8587312 -0.37268591
-1.2596717 1.885232 -0.2527214
-1.3471801 2.0161977 -0.13544343
-3.1829395 4.7636056 0
-10.783577 16.138763 1.0841643
-1.265556 1.889093 -0.74975246
-1.2838492 1.9163994 -0.63641119
-1.2438054 1.856626 -0.49506393
-1.2499245 1.86576 -0.37439778
-1.2705834 1.8965974 -0.25445059
-1.3452753 2.00809 -0.13500787
-3.1626177 4.7208333 0
-8.7639923 13.081995 0.87952846
-1.252931 1.8678063 -0.74160439
-1.3045702 1.9447875 -0.6461001
-1.2378509 1.8453257 -0.49225006
-1.2467599 1.8586068 -0.37311345
-1.2731684 1.8979753 -0.2547386
-1.3450421 2.005121 -0.13486287
-3.2075117 4.7815967 0
-8.774786 13.081009 0.8798185
-1.2648385 1.8806415 -0.74730676
-1.2985213 1.9307233 -0.64194846
-1.2457517 1.8522623 -0.49450159
-1.2461368 1.8528347 -0.3722567
-1.2668029 1.8835623 -0.25300941
-1.3460152 2.0013402 -0.13471788
-4.5261912 6.729826 0
-8.7905855 13.070397 0.8798185
-1.2671099 1.8791118 -0.74730676
-1.3078649 1.9395511 -0.64540863
-1.2437259 1.8444335 -0.4928124
-1.2412 1.8406878 -0.37011728
-1.2632936 1.8734523 -0.25185624
-1.3411645 1.988934 -0.13399176
-4.4935846 6.6639433 0
-8.1337891 12.062331 0.81262267
-1.2583103 1.8612067 -0.74079019
-1.2919424 1.9109528 -0.63641119
-1.2559168 1.8576663 -0.49675313
-1.2563618 1.8583244 -0.37396857
-1.268451 1.8762059 -0.25243229
-1.3450263 1.989471 -0.13413732
-4.5001717 6.6563463 0
-8.1585407 12.067556 0.81363821
-1.273038 1.878096 -0.74812406
-1.2942504 1.9093903 -0.63641119
-1.2453254 1.8372121 -0.49168554
-1.2658122 1.8674357 -0.37610966
-1.2663676 1.868255 -0.25156823
-1.3343035 1.9684801 -0.13283065
-0 0 0
-8.1731167 12.05769 0.81363821
-1.2516905 1.8418067 -0.73427045
-1.3078377 1.9244248 -0.64194846
-1.2418371 1.8273079 -0.48943615
-1.2493057 1.8382975 -0.37054485
-1.2758917 1.8774176 -0.25300941
-1.3425232 1.9754629 -0.1334112
-3.697109 5.4401307 0
-8.1862211 12.045658 0.81349325
-1.2413909 1.8219121 -0.72693658
-1.2917991 1.8958929 -0.63295102
-1.2497617 1.8341972 -0.49168554
-1.251526 1.8367866 -0.37054485
-1.2737887 1.8694601 -0.25214425
-1.3419857 1.9695487 -0.13312121
-3.6890225 5.4141483 0
-8.2036934 12.040049 0.81378323
-1.2672913 1.8551033 -0.74079019
-1.2855953 1.8818973 -0.6287967
-1.2491132 1.8284937 -0.49056086
-1.25809 1.8416342 -0.37182915
-1.2731315 1.8636523 -0.25156823
-1.3472933 1.9722128 -0.1334112
-3.7043729 5.4225845 0
-8.2167711 12.027984 0.81363821
-1.2904776 1.8841523 -0.7530123
-1.2878683 1.8803426 -0.6287967
-1.2599338 1.8395571 -0.49393708
-1.254512 1.831641 -0.37011728
-1.2724564 1.8578407 -0.25099108
-1.343802 1.9620081 -0.13283065
-3.7035706 5.407371 0
-8.2210245 12.003046 0.81262267
-1.2451861 1.8133212 -0.72530508
-1.2915581 1.8808511 -0.62948823
-1.2492119 1.8191839 -0.48887166
-1.2712585 1.8512896 -0.37439778
-1.2732376 1.8541716 -0.25070307
-1.3329349 1.9411067 -0.13152453
-3.6953666 5.381434 0
-9.5975189 13.976533 0.94701487
-1.295027 1.8810282 -0.7530123
-1.2653823 1.8379692 -0.61564761
-1.2470907 1.8114007 -0.48718461
-1.2545717 1.8222667 -0.36883461
-1.2622781 1.8334602 -0.24810871
-1.3338072 1.9373565 -0.13137953
-3.7018664 5.376965 0
-9.5952396 13.937096 0.94512761
-1.2930856 1.8733578 -0.75056666
-1.2362463 1.791012 -0.60041875
-1.2593782 1.8245242 -0.4911232
-1.2611432 1.8270814 -0.37011728
-1.2733054 1.8447014 -0.24983792
-1.3464812 1.9507148 -0.13239564
-3.6965337 5.3553534 0
-8.6880903 12.586872 0.85427505
-1.263003 1.8250548 -0.73182476
-1.2312727 1.7792042 -0.59695864
-1.2572482 1.8167391 -0.48943615
-1.2604312 1.8213385 -0.36926216
-1.2725925 1.8389119 -0.24926189
-1.34736 1.9469517 -0.13225064
-3.7015224 5.3487453 0
-8.7225142 12.60414 0.85616171
-1.279294 1.8438303 -0.73997289
-1.2591667 1.8148212 -0.60941887
-1.2666833 1.8256547 -0.49225006
-1.2597015 1.8155918 -0.3684054
-1.2718619 1.8331186 -0.24868475
-1.3437866 1.9367827 -0.13167009
-3.7124345 5.3506856 0
-8.7332983 12.587193 0.85572672
-1.2894015 1.8488426 -0.74323273
-1.2377141 1.7747293 -0.59695864
-1.2521976 1.7954968 -0.48493308
-1.265558 1.814654 -0.36883461
-1.2614954 1.8088286 -0.24580237
-1.3380568 1.9186083 -0.13065396
-0 0 0
-8.7413931 12.534079 0.85354948
-1.2788892 1.8290551 -0.73589885
-1.245608 1.7814566 -0.59972727
-1.2601901 1.8023119 -0.48718461
-1.2486225 1.7857679 -0.36326981
-1.2784984 1.8284961 -0.24868475
-1.3359057 1.9105996 -0.13021842
-0 0 0
-8.7922668 12.574616 0.85703284
-1.2782636 1.8234646 -0.73427045
-1.2419993 1.771733 -0.59695864
-1.2638241 1.8028665 -0.48774695
-1.2581513 1.7947742 -0.36541086
-1.2584409 1.7951872 -0.24436119
-1.3218106 1.8855851 -0.12862229
-0 0 0
-8.8208771 12.583131 0.85833895
-0 0 -0
-1.2513506 1.7804918 -0.60041875
-1.2616171 1.7950996 -0.48605776
-1.264743 1.7995473 -0.36669356
-1.2635807 1.7978935 -0.24493723
-1.3345425 1.8988619 -0.12963785
-3.7312264 5.3089981 0
-8.8256149 12.55758 0.85732281
-0 0 -0
-1.2679541 1.7994905 -0.60734171
-1.2593932 1.7873406 -0.48436856
-1.2550876 1.7812301 -0.36326981
-1.2791589 1.8153924 -0.24753158
-1.3398322 1.9015003 -0.12992841
-3.7376385 5.3044858 0
-8.8392868 12.544785 0.85717785
-0 0 -0
-1.2353873 1.7487798 -0.59072983
-1.2674161 1.7941188 -0.48662013
-1.2616838 1.7860043 -0.36455411
-1.2694128 1.7969452 -0.24522524
-1.3421288 1.8998799 -0.12992841
-3.7380388 5.2914634 0
-8.8469429 12.523485 0.85645229
-0 0 -0
-1.2389481 1.7493311 -0.59142131
-1.2754573 1.8008802 -0.48887166
-1.2593884 1.7781918 -0.36326981
-1.2700896 1.7933013 -0.24493723
-1.3594388 1.9194577 -0.13137953
-3.7444298 5.2869425 0
-8.8545609 12.502186 0.85572672
-0 0 -0
-1.2356552 1.7424488 -0.58934683
-1.2662606 1.7856067 -0.48493308
-1.2767984 1.8004665 -0.36797786
-1.274168 1.7967573 -0.24551436
-1.342561 1.8932011 -0.12963785
-3.7340758 5.2655754 0
-8.8576021 12.490474 0.85529119
-0 0 -0
-1.2421166 1.7470826 -0.59142131
-1.2595805 1.7716463 -0.48155469
-1.2522012 1.7612669 -0.36027527
-1.2763381 1.7952164 -0.24551436
-1.3568928 1.9085196 -0.13079897
-3.7464674 5.2695441 0
-8.8862371 12.498819 0.8565973
-0 0 -0
-1.238402 1.7374089 -0.58865267
-1.2587736 1.7659888 -0.48043001
-1.2662485 1.7764758 -0.36369902
-1.275501 1.7894565 -0.24493723
-1.3516582 1.8963009 -0.13007341
-3.7679346 5.2862015 0
-8.975235 12.591752 0.86370897
-0 0 -0
-1.2521695 1.7522404 -0.59418994
-1.2623824 1.7665319 -0.48099235
-1.2489927 1.7477949 -0.35813585
-1.2806728 1.7921269 -0.24551436
-1.3448869 1.8819857 -0.12920286
-3.7576735 5.2583513 0
-9.330348 13.056549 0.89636356
-0 0 -0
-1.2659746 1.7670413 -0.59972727
-1.2689568 1.7712038 -0.48268154
-1.2481107 1.7421068 -0.35727909
-1.2768118 1.7821678 -0.24436119
-1.3395889 1.8697917 -0.12847674
-3.770087 5.2622695 0
-9.3748722 13.085402 0.89912134
-1.2010679 1.6721734 -0.67885596
-1.2564003 1.7492093 -0.59418994
-1.2681285 1.7655379 -0.48155469
-1.2606992 1.7551943 -0.36027527
-1.2789643 1.7806238 -0.24436119
-1.3585232 1.8913889 -0.13007341
-3.7673361 5.2450318 0
-9.4103813 13.101498 0.90100801
-0 0 -0
-1.2467848 1.7314031 -0.58865267
-1.2776835 1.7743119 -0.48436856
-1.2643176 1.7557509 -0.36070281
-1.2690234 1.7622857 -0.24205485
-1.3395526 1.8602293 -0.12804174
-3.7858374 5.2573714 0
-9.4322786 13.098553 0.90158856
-1.2036545 1.6672564 -0.67803866
-1.2386009 1.7156626 -0.58380955
-1.2783406 1.7707086 -0.48380622
-1.2589266 1.7438171 -0.35856339
-1.2711519 1.7607511 -0.24205485
-1.340274 1.8564965 -0.12789617
-3.7891376 5.2485685 0
-8.9249077 12.362441 0.85166281
-0 0 -0
-1.2274359 1.695876 -0.57758075
-1.2745202 1.7609293 -0.48155469
-1.2519991 1.7298135 -0.35599476
-1.2838897 1.7738746 -0.24407206
-1.336428 1.8464638 -0.12731618
-3.7939522 5.2418804 0
-8.9459324 12.360067 0.85224336
-0 0 -0
-1.261896 1.7390593 -0.59280699
-1.2602364 1.7367722 -0.47536457
-1.260119 1.7366103 -0.35770664
-1.2799618 1.7639563 -0.24292001
-1.3447565 1.8532521 -0.12789617
-3.8048701 5.2436132 0
-8.9745941 12.368176 0.85354948
-0 0 -0
-1.2521896 1.7213033 -0.58726966
-1.2683129 1.743467 -0.47761613
-1.2697715 1.7454718 -0.35984772
-1.2805663 1.7603109 -0.24263088
-1.3469949 1.8516258 -0.12789617
-3.8188565 5.2495327 0
-9.0109348 12.386744 0.8555817
-0 0 -0
-1.2853113 1.7623533 -0.60180444
-1.2719145 1.7439842 -0.47817847
-1.2643119 1.73356 -0.35770664
-1.2796471 1.7545868 -0.24205485
-1.353826 1.8562971 -0.12833174
-3.8159986 5.2323027 0
-9.0549822 12.41573 0.85833895
-1.2239183 1.6739222 -0.68374419
-1.2356181 1.6899238 -0.57758075
-1.2650197 1.7301354 -0.47480008
-1.2558039 1.7175314 -0.3547121
-1.2726036 1.7405078 -0.24032454
-1.346869 1.8420786 -0.12746118
-3.7962065 5.1919756 0
-9.0699778 12.404779 0.85833895
-1.2653887 1.7262584 -0.70574588
-1.2613845 1.7207959 -0.58865267
-1.2656085 1.7265583 -0.47423774
-1.2548401 1.7118679 -0.35385534
-1.2808223 1.7473131 -0.24147771
-1.3490938 1.8404498 -0.12746118
-4.5009637 6.1402688 0
-9.4505568 12.892563 0.8928802
-1.2338145 1.6789261 -0.68700403
-1.2887172 1.7536355 -0.60041875
-1.2737125 1.7332177 -0.47648928
-1.2675502 1.7248324 -0.35685152
-1.2829326 1.7457643 -0.24147771
-1.3451617 1.830443 -0.12688062
-4.5176239 6.1474042 0
-9.4784374 12.897884 0.8940413
-1.2446356 1.6893694 -0.69189227
-1.2283447 1.6672574 -0.57135195
-1.2712829 1.7255385 -0.47480008
-1.2620217 1.7129679 -0.3547121
-1.2666311 1.7192245 -0.2380182
-1.3566171 1.8413643 -0.12775119
-4.5018978 6.1105185 0
-9.4678154 12.850861 0.89157408
-1.2716379 1.7216601 -0.70574588
-1.273576 1.7242841 -0.59142131
-1.2718588 1.7219592 -0.47423774
-1.2701911 1.7197013 -0.35642397
-1.273319 1.7239362 -0.23888336
-1.3572986 1.8376355 -0.12760618
-4.5510206 6.1615896 0
-9.4694433 12.820602 0.89026797
-1.2384229 1.6724582 -0.68618983
-1.2831275 1.7328308 -0.5948841
-1.2739385 1.7204212 -0.47423774
-1.2508781 1.6892787 -0.35043162
-1.2815579 1.730711 -0.24003653
-1.3533329 1.8276411 -0.12702562
-4.527494 6.114264 0
-9.4648275 12.782005 0.8883813
-1.2463357 1.6788988 -0.68944973
-1.2642822 1.7030739 -0.5851925
-1.2896458 1.7372403 -0.47930315
-1.2559816 1.6918924 -0.35128838
-1.2790216 1.7229289 -0.23917137
-1.3493448 1.817659 -0.12644507
-4.5069528 6.0711713 0
-9.4864607 12.778905 0.88896185
-1.2734478 1.7110966 -0.70330334
-1.2723304 1.7095952 -0.5879612
-1.27354 1.7112206 -0.47254854
-1.2748795 1.7130204 -0.35599476
-1.2795599 1.7193092 -0.23888336
-1.3437848 1.8056066 -0.1257195
-4.5313787 6.0886884 0
-9.5080996 12.775771 0.8895424
-1.2346056 1.6568146 -0.68129849
-1.2718654 1.7068166 -0.58726966
-1.2821691 1.7206439 -0.47536457
-1.2667139 1.6999034 -0.3534278
-1.2759604 1.712312 -0.2380182
-1.3340056 1.7902074 -0.12470339
-4.5055089 6.046298 0
-9.5142651 12.767943 0.88939738
-1.266191 1.6949233 -0.6975978
-1.2709267 1.7012626 -0.58588666
-1.2675182 1.6966999 -0.4691723
-1.2626215 1.6901453 -0.35171592
-1.2857728 1.7211355 -0.2394605
-1.287963 1.7240673 -0.12020449
-4.4972386 6.0200043 0
-9.5312395 12.758517 0.8895424
-1.2489785 1.6676761 -0.68700403
-1.2789912 1.7077501 -0.58865267
-1.2726108 1.6992307 -0.47029701
-1.2600448 1.6824523 -0.35043162
-1.2800946 1.7092234 -0.2380182
-0 0 -0
-4.5060682 6.0166469 0
-9.546649 12.746991 0.8895424
-1.2524753 1.6681404 -0.68781823
-1.279549 1.7041992 -0.5879612
-1.262464 1.6814442 -0.46579608
-1.260537 1.6788777 -0.35000405
-1.2759531 1.69941 -0.23686615
-0 0 -0
-4.5164628 6.0153642 0
-9.5417633 12.708436 0.88765574
-1.2455745 1.6547813 -0.68292999
-1.2529455 1.664574 -0.57481211
-1.267548 1.6839738 -0.46692076
-1.2517565 1.6629945 -0.34700787
-1.2780055 1.6978669 -0.23686615
-0 0 -0
-4.5331159 6.0223742 0
-8.9492645 11.889354 0.83119941
-1.2654383 1.6769501 -0.69270957
-1.2745996 1.6890904 -0.58380955
-1.2864189 1.7047534 -0.47311303
-1.2537651 1.6614808 -0.34700787
