# .PCD v0.7 - Point Cloud Data file format
VERSION 0.7
FIELDS x y z
SIZE 4 4 4
TYPE F F F
COUNT 1 1 1
WIDTH 1811
HEIGHT 1
VIEWPOINT 0 0 0 1 0 0 0
POINTS 1811
DATA ascii
0 0 -0
0 0 -0
7.6128697 3.03545 -0.45778134
7.6568108 3.0529704 0
8.093051 3.2269108 0.48665586
0 0 -0
0 0 -0
0 0 -0
7.6381464 3.0562303 -0.45952302
7.6531162 3.0622201 0
8.0360756 3.2154527 0.48346308
0 0 -0
0 0 -0
0 0 -0
7.6507654 3.066643 -0.46039358
7.6561007 3.0687814 0
8.0582466 3.2299728 0.48491418
0 0 -0
0 0 -0
0 0 -0
7.59515 3.0656748 -0.45749134
7.6486626 3.0872743 0
8.2793188 3.34183 0.49870202
0 0 -0
0 0 -0
0 0 -0
7.6444201 3.0963089 -0.46068412
7.6400976 3.094558 0
8.3427105 3.3791454 0.50276595
0 0 -0
0 0 -0
0 0 -0
7.6190109 3.0967388 -0.459378
7.626709 3.0998676 0
8.3458357 3.3921559 0.50320095
0 0 -0
0 0 -0
0 0 -0
7.6320987 3.1128089 -0.46039358
7.6133184 3.1051493 0
8.2767754 3.3757451 0.49928257
0 0 -0
0 0 -0
0 0 -0
7.6090932 3.1141548 -0.45923245
7.6023421 3.1113918 0
8.2438316 3.3739328 0.49754092
0 0 -0
0 0 -0
0 0 -0
7.6269646 3.1322336 -0.46053913
7.6057925 3.1235387 0
8.2133064 3.3730321 0.49594423
0 0 -0
0 0 -0
0 0 -0
7.6495943 3.1523345 -0.46213523
7.5851765 3.1257885 0
8.1924152 3.3760264 0.49492869
0 0 -0
0 0 -0
0 0 -0
7.6169648 3.1496601 -0.46039358
7.5886021 3.1379318 0
8.1739178 3.3799634 0.49405757
0 0 -0
0 0 -0
0 0 -0
7.5867596 3.1479101 -0.45879745
7.5679851 3.14012 0
8.1602268 3.3858542 0.49347699
0 0 -0
0 0 -0
0 0 -0
7.6189265 3.1720531 -0.46097413
7.5785961 3.155262 0
8.158536 3.3967133 0.49362257
0 0 -0
0 0 -0
0 0 -0
7.6007071 3.1752489 -0.46010357
7.5579662 3.1573937 0
8.1568213 3.4075694 0.49376756
0 0 -0
0 0 -0
0 0 -0
7.6208243 3.1944737 -0.46155468
7.5565529 3.1675327 0
8.1503038 3.4164193 0.49362257
0 0 -0
0 0 -0
0 0 -0
7.6289325 3.2087159 -0.46228024
7.5431242 3.1726251 0
8.1054535 3.4091396 0.49115533
0 0 -0
0 0 -0
0 0 -0
7.6298423 3.2199543 -0.46257079
7.5320897 3.1787004 0
8.084568 3.4118578 0.49013922
0 0 -0
0 0 -0
0 0 -0
7.5804815 3.2099192 -0.459813
7.5114655 3.1806948 0
8.0684776 3.416559 0.48941365
0 0 -0
0 0 -0
0 0 -0
7.6029067 3.2302544 -0.46140969
7.5243859 3.1968932 0
8.0715208 3.4293549 0.48984921
0 0 -0
0 0 -0
0 0 -0
7.5966096 3.2384207 -0.46126467
7.5588222 3.222312 0
8.0673714 3.4391053 0.48984921
0 0 -0
0 0 -0
0 0 -0
7.6046343 3.2527058 -0.46199024
7.588418 3.2457695 0
8.0823135 3.4570217 0.49100977
0 0 -0
0 0 -0
0 0 -0
7.5935326 3.2588167 -0.46155468
7.6036229 3.2631471 0
8.1067839 3.4790821 0.49275145
0 0 -0
0 0 -0
0 0 -0
7.6134601 3.2782681 -0.46300635
7.6403079 3.2898285 0
8.1526909 3.5104547 0.49579924
0 0 -0
0 0 -0
0 0 -0
7.6186295 3.2859516 -0.46344134
7.8270988 3.3758652 0
8.1911278 3.5328729 0.49826646
0 0 -0
0 0 -0
0 0 -0
7.6170449 3.2961898 -0.46358693
7.7537508 3.3553476 0
8.1844711 3.5417368 0.49812147
0 0 -0
0 0 -0
0 0 -0
7.5987511 3.2991798 -0.4627158
7.6947827 3.3408744 0
8.1253719 3.5278249 0.49478367
0 0 -0
0 0 -0
0 0 -0
7.6281056 3.3228853 -0.46474746
7.6645021 3.3387399 0
8.0877476 3.5231102 0.49275145
0 0 -0
0 0 -0
0 0 -0
7.6050463 3.3237791 -0.46358693
7.6628447 3.3490398 0
8.0525341 3.5193532 0.49086478
0 0 -0
0 0 -0
0 0 -0
7.5819869 3.3246181 -0.4624258
7.6802411 3.3677013 0
8.0244827 3.5186477 0.48941365
0 0 -0
0 0 -0
0 0 -0
7.5946069 3.3410985 -0.46344134
7.7071319 3.3906016 0
7.9750323 3.5084593 0.48665586
0 0 -0
0 0 -0
0 0 -0
7.6095815 3.3586664 -0.46460247
7.7054172 3.4009657 0
7.9018512 3.4876664 0.48244697
0 0 -0
0 0 -0
0 0 -0
7.5912666 3.3615482 -0.46373191
7.6893973 3.4050019 0
7.8524952 3.4772248 0.47968972
0 0 -0
0 0 -0
0 0 -0
7.5824456 3.3686063 -0.46344134
7.6614985 3.4037266 0
8.869338 3.9403262 0.54209661
0 0 -0
0 0 -0
0 0 -0
7.6116018 3.3925774 -0.46547359
7.6502466 3.409802 0
8.8598194 3.9489224 0.5418061
0 0 -0
0 0 -0
0 0 -0
7.5980086 3.3975294 -0.46489304
7.6532507 3.4222314 0
8.7056065 3.8928034 0.53266269
0 0 -0
0 0 -0
0 0 -0
7.5725627 3.3971364 -0.46358693
7.6396117 3.4272153 0
8.5634031 3.8416383 0.52424544
0 0 -0
0 0 -0
0 0 -0
7.5921431 3.4169462 -0.46503803
7.6615729 3.448194 0
8.5350552 3.8413165 0.52279377
0 0 -0
0 0 -0
0 0 -0
7.6116867 3.4368083 -0.46648914
7.8352795 3.5377643 0
8.516202 3.8452127 0.52192324
0 0 -0
0 0 -0
0 0 -0
7.5885925 3.4374256 -0.46532804
7.9874558 3.6180999 0
7.7375941 3.5049193 0.47446471
0 0 -0
0 0 -0
0 0 -0
7.5702443 3.4401445 -0.46445748
7.9499121 3.6126769 0
7.7522788 3.5228662 0.47562581
0 0 -0
0 0 -0
0 0 -0
7.5802636 3.4557543 -0.46532804
7.8579264 3.5823376 0
7.7480164 3.5322309 0.47562581
0 0 -0
0 0 -0
0 0 -0
7.5808129 3.4670746 -0.46561858
7.8228269 3.5777593 0
7.7413816 3.5405104 0.47548082
0 0 -0
0 0 -0
7.5789776 3.4773145 -0.4657636
8.6889248 3.9865699 0
7.7347388 3.5487792 0.47533584
0 0 -0
0 0 -0
0 0 -0
7.5700545 3.4842989 -0.46547359
8.679369 3.9948876 0
7.7422447 3.5635538 0.47606137
0 0 -0
0 0 -0
7.5729094 3.4967082 -0.46590859
8.6934376 4.0141001 0
7.7379332 3.5729063 0.47606137
0 0 -0
0 0 -0
7.5875411 3.5145931 -0.46706972
8.7240057 4.0410099 0
7.7383308 3.5844398 0.47635195
0 0 -0
0 0 -0
7.5832887 3.5237584 -0.46706972
7.6547451 3.5569625 0
7.7316308 3.5926893 0.47620639
0 0 -0
0 0 -0
7.5882282 3.5316296 -0.46750525
7.6809087 3.574764 0
7.7365284 3.6006498 0.47664192
0 0 -0
0 0 -0
7.6051431 3.5506883 -0.46881136
7.7095928 3.5994537 0
7.7298198 3.6088972 0.47649693
0 0 -0
0 0 -0
7.5867329 3.5532644 -0.46794081
7.7123108 3.6120791 0
7.7325063 3.6215377 0.47693193
0 0 -0
0 0 -0
7.5800753 3.5613208 -0.46779525
7.7102938 3.6225009 0
7.7516475 3.6419299 0.4783836
0 0 -0
0 0 -0
7.5851688 3.5749085 -0.46837583
7.7223926 3.6395824 0
7.7942505 3.6734493 0.48128641
0 0 -0
7.5855465 3.5862944 -0.46866637
7.746223 3.6622589 0
7.8038969 3.6895261 0.48215696
6.4582877 3.0629025 -0.79670066
7.5600796 3.5854373 -0.46736026
7.7817645 3.6905735 0
7.8205609 3.7089729 0.48346308
6.4942856 3.0895922 -0.80160135
7.5651274 3.5990348 -0.46794081
7.7890477 3.7055626 0
7.8231153 3.7217698 0.48389864
6.4835429 3.094094 -0.80073619
7.567802 3.6115272 -0.46837583
7.8057013 3.7250581 0
7.8186126 3.7312198 0.48389864
6.4984632 3.1108603 -0.80304253
7.5821824 3.6296446 -0.46953693
7.8716116 3.7681963 0
7.8140984 3.7406642 0.48389864
6.3967767 3.0716884 -0.7909348
7.5731111 3.6365561 -0.46924692
7.9726224 3.8283987 0
7.8025432 3.7467279 0.48346308
6.4047093 3.0850265 -0.79237598
7.5757275 3.6490836 -0.46968195
7.9328184 3.8210874 0
7.7956715 3.7550266 0.48331806
6.3544083 3.0702624 -0.78661126
7.5806718 3.6627567 -0.4702625
7.8133845 3.7751968 0
7.758378 3.7486191 0.48128641
6.3413839 3.073426 -0.78545809
7.5505257 3.6594508 -0.46866637
7.6636214 3.7142642 0
7.7094131 3.7364573 0.47852862
6.3330088 3.0788221 -0.78488094
7.5671287 3.6787953 -0.46997249
7.5818915 3.6859725 0
7.6558194 3.7219129 0.47548082
6.2688441 3.0569985 -0.77738589
7.5743537 3.6936297 -0.47069806
7.5446882 3.6791635 0
7.6046057 3.7083821 0.47257802
6.2930264 3.0782089 -0.7808454
7.5838943 3.7096317 -0.47156918
7.5402374 3.688277 0
7.5954556 3.7152867 0.47228804
0 0 -0
6.2335734 3.0584674 -0.77392638
7.593399 3.7256579 -0.47243974
7.5217609 3.6905093 0
7.5676374 3.7130182 0.47083691
6.2182722 3.0602877 -0.7724852
0 0 -0
7.5219617 3.7018914 0
7.546823 3.7141266 0.4698208
0 0 -0
0 0 -0
0 0 -0
9.0335426 4.4729576 0
7.5424786 3.7346573 0.4701108
0 0 -0
0 0 -0
0 0 -0
9.0258026 4.4827132 0
7.5333104 3.7414589 0.4698208
6.1478457 3.0626268 -0.76556617
7.5753989 3.7737803 -0.47272971
8.9970894 4.4820137 0
7.5194807 3.745924 0.46924025
6.1205425 3.053642 -0.7623958
7.549871 3.7667582 -0.47127861
7.9115653 3.9472136 0
7.5288396 3.7562654 0.46996579
0 0 -0
6.1006546 3.0529318 -0.76037747
7.5569301 3.7816911 -0.47200418
7.978931 3.9928718 0
7.5150003 3.7607083 0.46938524
6.0969615 3.0603011 -0.76037747
0 0 -0
8.1927261 4.112246 0
7.5243893 3.7767823 0.47025636
0 0 -0
6.1417718 3.0920894 -0.76643133
7.5733018 3.8127966 -0.47360083
8.2900305 4.173635 0
7.5221391 3.7870386 0.47040135
0 0 -0
6.1726656 3.1169975 -0.77075601
7.5802841 3.8277998 -0.4743264
8.2780094 4.1801286 0
7.5152402 3.7949548 0.47025636
0 0 -0
6.2196531 3.1501622 -0.77709788
7.571022 3.8346105 -0.4740364
8.2868786 4.1971812 0
7.5199218 3.8087289 0.47083691
6.2181458 3.1588454 -0.77738589
0 0 -0
7.4488659 3.7840567 0
7.4990954 3.8095732 0.4698208
6.2189293 3.1687028 -0.77796191
7.543211 3.8434579 -0.4728753
7.4605222 3.801326 0
7.4713387 3.8068373 0.46836969
0 0 -0
6.2058921 3.1715112 -0.77680987
7.5524402 3.8596623 -0.47374585
7.4605632 3.8127086 0
7.4991221 3.8324144 0.47040135
6.2227688 3.1896245 -0.77940422
7.5524001 3.8711579 -0.4740364
7.460578 3.8240926 0
7.5430441 3.8663621 0.47344914
6.212007 3.1935923 -0.77853906
7.5453992 3.8790891 -0.47389084
7.4466939 3.8283448 0
7.5383668 3.8754737 0.47344914
0 0 -0
6.2150426 3.2046533 -0.77940422
7.5430231 3.8893979 -0.4740364
7.4235578 3.8277981 0
8.7946024 4.5347481 0.5526911
6.2180514 3.2157216 -0.78026825
7.5383177 3.8985093 -0.4740364
7.3819408 3.8176374 0
8.7591143 4.5298553 0.55080444
6.2049775 3.2184689 -0.77911508
7.5428281 3.9124007 -0.47461694
8.4214878 4.3681536 0
8.6613693 4.4925785 0.54499888
0 0 -0
7.5403981 3.9227099 -0.47476196
8.3584862 4.3483005 0
7.76158 4.0377741 0.48868808
6.2155266 3.2430263 -0.78142142
7.5379543 3.9330189 -0.47490695
8.2978592 4.3295088 0
7.7405672 4.0387344 0.48767197
6.2184806 3.254133 -0.78228658
7.5401058 3.9457397 -0.47534251
8.2764788 4.3310843 0
7.6827359 4.0203781 0.4843342
6.1939344 3.2508276 -0.77969223
7.537631 3.956054 -0.4754875
8.2597198 4.3350353 0
7.6157484 3.9970531 0.48041528
6.1968703 3.2619247 -0.78055739
7.5351429 3.966368 -0.47563252
8.2084169 4.3207679 0
7.5603318 3.9796271 0.4772225
6.1883454 3.2669928 -0.77998024
7.539536 3.9803224 -0.47621307
8.2054892 4.3318968 0
7.5440302 3.9826951 0.47649693
6.1821098 3.2732587 -0.77969223
7.5347214 3.9894295 -0.47621307
8.3175421 4.4039121 0
7.5369182 3.990593 0.47635195
6.1712947 3.2770858 -0.77882707
7.5321879 3.9997482 -0.47635809
8.4340353 4.4786477 0
7.5481491 4.008224 0.47736749
6.1673307 3.2845402 -0.77882707
7.5067105 3.9978547 -0.47505197
8.4469938 4.4986219 0
7.5547657 4.0234475 0.47809306
6.1702037 3.2956467 -0.77969223
7.5041642 4.0081453 -0.47519696
8.4392586 4.5076003 0
7.5567765 4.0362468 0.47852862
6.1704903 3.3005927 -0.77998024
7.5040393 4.0139074 -0.47534251
8.4365339 4.5126982 0
7.5635018 4.0457139 0.47910917
0 0 -0
6.1756144 3.3129368 -0.78113341
7.512918 4.0303392 -0.47621307
8.4219017 4.5179677 0
7.5746384 4.0634499 0.48012528
0 0 -0
6.1693316 3.3191721 -0.7808454
7.5034704 4.0369544 -0.47592306
8.4508076 4.5466328 0
7.5994687 4.0886025 0.48201194
6.1653161 3.3266242 -0.7808454
7.5031562 4.0484834 -0.47621307
8.605629 4.6433454 0
7.6631222 4.1347966 0.48636585
0 0 -0
6.1499205 3.3279178 -0.77940422
7.5005422 4.0587821 -0.47635809
8.6389198 4.6747947 0
7.7129679 4.1737328 0.48984921
0 0 -0
6.1549883 3.340281 -0.78055739
7.4979229 4.0690851 -0.47650364
8.6103868 4.6728139 0
7.7376065 4.1991601 0.49173588
6.1668434 3.3563673 -0.78257459
7.5044098 4.0843515 -0.47722918
8.5933075 4.6769953 0
7.7439365 4.2147164 0.49246144
6.1537023 3.3588595 -0.78142142
7.4994693 4.0934162 -0.47722918
8.6196356 4.7048335 0
7.7525187 4.2315373 0.493332
0 0 -0
6.1609898 3.3725059 -0.78286374
7.501349 4.106214 -0.4776642
8.648181 4.7339864 0
7.7519631 4.2433996 0.49362257
0 0 -0
6.1546364 3.3786995 -0.78257459
7.5032177 4.1190276 -0.47809973
8.6949272 4.7732382 0
7.796937 4.2802701 0.49681535
6.152822 3.3873847 -0.78286374
7.48913 4.1230779 -0.47751918
7.7955041 4.2917495 0
7.8395596 4.3160038 0.49986315
6.13061 3.3848155 -0.78055739
7.5000682 4.1409168 -0.47853529
7.7743621 4.2923594 0
7.7797441 4.295331 0.49637979
6.1219859 3.3897126 -0.77998024
7.4927883 4.1487188 -0.47839031
7.7327414 4.2815795 0
8.4928598 4.7024531 0.54224163
6.1020546 3.3883166 -0.77796191
7.4923086 4.1602898 -0.47868031
7.6615906 4.2542877 0
8.493989 4.7164974 0.54267716
6.0798864 3.3856254 -0.7756567
7.4895444 4.1706028 -0.4788253
7.6268792 4.2470784 0
8.533679 4.7520361 0.54557943
6.0757914 3.3929694 -0.7756567
7.4913077 4.1834512 -0.47926086
7.610383 4.249948 0
8.4893656 4.7408075 0.54311222
6.0536337 3.3901978 -0.77335036
7.4885125 4.1937685 -0.47940585
7.6188707 4.2667727 0
8.4156208 4.7129741 0.53875828
6.054039 3.4000406 -0.77392638
7.4879751 4.2053609 -0.47969642
7.6273198 4.2836194 0
8.3691435 4.7002387 0.53614604
6.067955 3.4175072 -0.77623272
7.4806266 4.2131319 -0.4795514
7.6334743 4.2992167 0
8.3521404 4.7039733 0.53542048
6.0593214 3.4222951 -0.7756567
7.4868407 4.2285557 -0.48027697
7.6464024 4.318676 0
8.3351402 4.707674 0.53469491
6.0889339 3.4487309 -0.77998024
7.4862432 4.2401576 -0.48056698
7.6343827 4.3240628 0
8.3294458 4.717742 0.53469491
6.1027546 3.4663053 -0.78228658
7.4856377 4.2517695 -0.48085752
7.6201096 4.3281479 0
8.3463287 4.7406335 0.53614604
6.134521 3.4941587 -0.78689927
7.4759746 4.2582369 -0.48056698
7.6080875 4.333487 0
8.372201 4.7687173 0.53817773
6.148262 3.5118315 -0.78920561
7.4708242 4.2672668 -0.48056698
7.5960646 4.3388028 0
8.4363804 4.8187838 0.54267716
6.1685867 3.5283849 -0.79208797
7.481782 4.2795229 -0.4814381
7.5979643 4.3459783 0
8.3680592 4.7864666 0.5384683
6.1890001 3.5499933 -0.79525948
7.4743452 4.2872634 -0.48129255
7.5994735 4.3590364 0
7.8190889 4.4850078 0.50349146
6.1981544 3.5652041 -0.79698867
7.4714184 4.2975912 -0.4814381
7.5919471 4.3669195 0
8.4600744 4.8662701 0.54514444
6.2476134 3.6037071 -0.80390769
7.4752235 4.3118091 -0.48201865
7.5844126 4.3747907 0
8.4766922 4.8894696 0.54659551
6.3439951 3.6695242 -0.81687945
7.4790053 4.3260422 -0.4825992
7.5836225 4.3865552 0
8.4640284 4.8958039 0.54615998
6.4424706 3.736881 -0.83014035
7.4670272 4.3311634 -0.48216364
7.585072 4.3996339 0
7.7411304 4.4901538 0.49986315
6.482666 3.7706718 -0.83590621
7.4730167 4.346714 -0.48288921
7.5707521 4.4035621 0
7.7356992 4.4995041 0.49986315
6.4915061 3.7863185 -0.8376354
7.4677591 4.3557405 -0.48288921
7.5811644 4.4218864 0
7.730257 4.5088482 0.49986315
6.466835 3.782408 -0.83504105
7.4692221 4.3686976 -0.48332477
7.5668297 4.4257874 0
7.7360158 4.5247436 0.50058872
6.3997989 3.7535849 -0.82696998
7.466177 4.3790326 -0.48346975
7.5322952 4.4178123 0
7.7260647 4.5314608 0.50029868
6.2458906 3.6734655 -0.80765522
7.4698396 4.3933201 -0.48405033
8.2716761 4.8649135 0
7.6892223 4.5223479 0.49826646
6.1679296 3.6376512 -0.79814184
7.4622893 4.4010239 -0.48390532
8.247859 4.8643279 0
7.6210914 4.4946804 0.49420312
6.0723639 3.6010964 -0.78689927
7.4583306 4.423017 -0.48434031
8.0077677 4.7488499 0
7.686193 4.558146 0.49913758
6.019104 3.5793495 -0.78055739
7.4596834 4.4360113 -0.48477587
7.8409772 4.6627536 0
7.700778 4.5793819 0.5004437
5.9992218 3.5773458 -0.77853906
7.4587855 4.4476857 -0.48506644
7.8174553 4.6615615 0
7.6751552 4.5767074 0.49913758
5.9993305 3.5872443 -0.77911508
7.4534059 4.4566951 -0.48506644
7.8609533 4.7003841 0
7.6763034 4.5899749 0.49957258
6.0016489 3.5984821 -0.77998024
7.450242 4.4670329 -0.48521143
7.8262534 4.6924829 0
7.670752 4.5992465 0.49957258
5.9972963 3.6057312 -0.77998024
7.4559717 4.4827247 -0.485937
7.7135262 4.6375737 0
7.6830044 4.6192231 0.50073367
5.9907222 3.6116412 -0.77969223
7.441648 4.4863644 -0.48535645
7.6923137 4.6374836 0
7.5795116 4.5694785 0.49434811
5.9952078 3.6242294 -0.7808454
7.4362221 4.4953527 -0.48535645
7.6688871 4.636004 0
7.4828153 4.5235195 0.48839754
5.9886146 3.6301312 -0.78055739
7.4241161 4.5002928 -0.48492089
7.6677351 4.6479673 0
7.4906807 4.5406418 0.48926866
5.9797988 3.6346753 -0.77998024
7.4075732 4.5025129 -0.48419532
7.6598916 4.6558785 0
7.414134 4.5065012 0.48462418
5.9798245 3.6445928 -0.78055739
7.4309697 4.5290394 -0.48608199
7.6564803 4.6664839 0
7.3399067 4.4735379 0.48012528
5.9754162 3.6518157 -0.78055739
7.4454446 4.5502086 -0.4873881
7.659719 4.6811604 0
7.3145432 4.4702096 0.47881916
5.966588 3.6513734 -0.77969223
7.4449167 4.556066 -0.48753366
7.6702042 4.6939354 0
7.3140554 4.4759831 0.47896418
5.9753947 3.6666942 -0.78142142
7.4416189 4.5664163 -0.48767868
7.6867127 4.7168136 0
7.3241386 4.4943266 0.47997972
5.9731693 3.675271 -0.78171057
7.4405179 4.5781255 -0.48796868
7.6854362 4.7288232 0
7.5355802 4.6366172 0.49420312
5.9687238 3.6824856 -0.78171057
7.4438262 4.5925703 -0.48854923
7.6686449 4.7312751 0
7.7931175 4.8080702 0.51147372
5.9664674 3.6910546 -0.78199857
7.4382715 4.6015611 -0.48854923
7.6562805 4.7364287 0
7.8160272 4.8352532 0.51336044
5.9685993 3.7023525 -0.78286374
7.4349122 4.6119137 -0.48869422
7.6262312 4.7305899 0
7.8013468 4.8392153 0.51277983
5.9641213 3.7095618 -0.78286374
7.4072733 4.607173 -0.48724312
7.6160855 4.7370496 0
7.7447429 4.8170719 0.50944149
5.9684048 3.7222352 -0.78401577
7.3818603 4.6037459 -0.485937
7.60815 4.744873 0
7.5052195 4.6806798 0.49405757
5.9748745 3.7363048 -0.78545809
7.3630772 4.6043983 -0.48506644
7.5957894 4.7499213 0
7.3101001 4.57127 0.48157641
5.9659686 3.7407708 -0.78488094
7.3575082 4.6132917 -0.48506644
7.5724049 4.7480359 0
7.2077146 4.5193682 0.47519082
5.9636316 3.7493522 -0.78516895
7.3585219 4.6263237 -0.48550144
7.5886989 4.7710366 0
7.1714468 4.508709 0.4731586
5.9547253 3.7537994 -0.78459293
7.3529263 4.6352115 -0.48550144
8.3424244 5.2589812 0
7.1550055 4.5104442 0.47243303
5.9545536 3.7637529 -0.78516895
7.349515 4.6454797 -0.48564643
8.3052692 5.2495933 0
7.1297841 4.5065923 0.47112691
5.9893298 3.7958705 -0.79035878
7.3438964 4.654357 -0.48564643
8.3011169 5.2610164 0
7.1199479 4.5124249 0.47083691
6.0480437 3.8433328 -0.79871899
7.3426576 4.6660171 -0.485937
8.2925596 5.2696486 0
7.7636151 4.9335217 0.51379597
6.0891929 3.8798184 -0.80477172
7.3633113 4.6916413 -0.48767868
7.3007588 4.6517854 0
7.7532611 4.940104 0.5135054
6.1389894 3.9219842 -0.81197876
7.3554492 4.6991377 -0.48753366
7.3389955 4.6886258 0
7.740715 4.9452705 0.51306987
6.184341 3.9614885 -0.81860977
7.3738279 4.7234349 -0.48912978
7.3486586 4.7073126 0
7.7194242 4.9448128 0.51205432
6.1904292 3.9759455 -0.82005095
7.365931 4.7309384 -0.48898479
7.3407779 4.7147837 0
7.7003212 4.9457088 0.5111832
6.1964912 3.9904232 -0.82149214
7.373313 4.7482738 -0.48985535
7.3350754 4.72365 0
7.6812363 4.9465709 0.51031262
6.2003565 4.0035195 -0.82264531
7.3653893 4.7557716 -0.48971036
7.3424764 4.7409768 0
7.6752534 4.9558482 0.51031262
6.2237382 4.0292807 -0.82639283
7.3683624 4.7703161 -0.49029091
7.3389335 4.7512641 0
7.6670804 4.9637079 0.5101676
7.351285 4.7718759 -0.97687429
7.3713112 4.7848749 -0.49087146
7.3353682 4.7615438 0
7.6588917 4.97155 0.51002204
7.3238316 4.7666435 -0.9739908
7.3524613 4.7852769 -0.4900009
7.3339677 4.7732401 0
7.6572385 4.9836378 0.51031262
7.3491187 4.7894244 -0.97773832
7.3626266 4.7982273 -0.49087146
7.3310823 4.7776699 0
10.111887 6.589922 0.67416656
7.3346653 4.7926416 -0.97658515
7.3698707 4.8156457 -0.49174201
7.3231277 4.7851024 0
10.106091 6.6035552 0.67431158
7.3440156 4.8114238 -0.97860348
7.3531809 4.8174286 -0.49101645
7.3304062 4.8025074 0
10.098104 6.6157618 0.67431158
7.3338771 4.8174567 -0.97802746
7.3582115 4.8334417 -0.49174201
7.3267708 4.812789 0
10.09662 6.6322398 0.67474717
7.3280506 4.8263149 -0.97802746
7.3588786 4.8466182 -0.49217758
7.3274646 4.8259287 0
10.101615 6.6530075 0.67561769
7.3286829 4.8394375 -0.97889149
7.3551831 4.8569369 -0.49232256
7.3628926 4.8620281 0
10.095743 6.6666441 0.67576325
7.3185205 4.8454361 -0.97831547
7.3536463 4.8686924 -0.49261314
7.3917327 4.8939085 0
10.089846 6.6802711 0.67590827
7.32128 4.8599977 -0.97946864
7.3564177 4.8833227 -0.49319369
7.4530234 4.9474511 0
10.083929 6.6938934 0.67605329
7.3261662 4.8760042 -0.98090982
7.3396983 4.8850107 -0.49246815
7.5141959 5.0011492 0
10.077994 6.7075114 0.67619824
7.3245683 4.8877215 -0.98148584
7.3424358 4.8996449 -0.4930487
7.5969009 5.0694509 0
7.8329439 5.2269635 0.52598655
7.3229604 4.8994479 -0.982063
7.3408256 4.9114003 -0.4933387
7.6967564 5.1495371 0
7.811511 5.2263136 0.52497101
7.3127351 4.9054079 -0.98148584
7.3327298 4.9188204 -0.49319369
7.7272682 5.1834784 0
7.7922387 5.2270608 0.52409989
7.3175397 4.9214621 -0.98292816
7.3397136 4.9363751 -0.49406424
7.7209992 5.1928115 0
7.7751384 5.2292228 0.52337432
7.3351707 4.9462028 -0.98609853
7.3294392 4.9423375 -0.49377427
7.7039323 5.1948633 0
7.7558918 5.2299004 0.52250379
7.3184776 4.9478202 -0.98465735
7.3471351 4.9671946 -0.49537036
7.6890254 5.1983376 0
7.7344961 5.2290788 0.52148765
7.3060684 4.9523044 -0.98379219
7.3282266 4.9673238 -0.4944998
7.6698093 5.1988602 0
7.7131138 5.2282138 0.52047157
7.3129187 4.9698544 -0.98552251
7.3523026 4.9966197 -0.49653149
7.6484609 5.1978884 0
7.6896062 5.2258511 0.51931101
7.3111792 4.9815969 -0.98609853
7.3419695 5.0025764 -0.49624148
7.6292663 5.1983309 0
7.672543 5.2278185 0.51858485
7.3008876 4.9875126 -0.98552251
7.3380628 5.0129085 -0.49638647
7.603641 5.194335 0
7.6469126 5.2238955 0.51727873
7.3033915 5.0021768 -0.98667568
7.3362837 5.0247054 -0.49667647
7.5823269 5.193223 0
7.6277361 5.2243242 0.51640821
7.3016024 5.0139232 -0.9872517
7.3280673 5.0320964 -0.49653149
7.5524535 5.1861801 0
7.6042814 5.2217698 0.51524711
7.3061886 5.0300746 -0.98869288
7.3412418 5.0542073 -0.4978376
7.5376072 5.1893988 0
7.5872674 5.223588 0.51452154
7.3001051 5.0388989 -0.98869288
7.3436832 5.0689788 -0.49841815
7.5141964 5.1866755 0
7.5638423 5.2209435 0.51336044
7.2982693 5.0506625 -0.98927003
7.3396959 5.0793314 -0.49856371
7.4865198 5.1809382 0
7.5425692 5.219727 0.5123443
7.2964072 5.0624232 -0.98984605
7.3378191 5.091156 -0.49885371
7.4674287 5.1810822 0
7.5170445 5.215507 0.51103818
7.3018441 5.0727334 -0.99099922
7.341146 5.1000371 -0.49928927
7.4557476 5.1796532 0
7.4818802 5.1978078 0.50886095
7.3041992 5.0874658 -0.99215239
0 0 -0
7.4281325 5.1737866 0
7.4606748 5.1964531 0.5078454
7.3088341 5.1169696 -0.99445873
7.3077083 5.1161814 -0.49827316
7.3750987 5.163362 0
7.4268045 5.1995616 0.50639373
7.3132286 5.1332254 -0.99589992
7.3164105 5.1354589 -0.49928927
7.3582058 5.1647954 0
7.3992524 5.1936064 0.5049426
7.3197165 5.1509924 -0.99763024
7.3229461 5.153265 -0.50015986
7.34132 5.1661949 0
7.3780947 5.1920738 0.50392646
7.3177099 5.1628122 -0.99820626
7.3294573 5.1711001 -0.50103092
7.3329482 5.173563 0
7.3612013 5.1934967 0.50320095
7.3199129 5.1776247 -0.99935943
7.3232036 5.1799526 -0.50103092
7.3309369 5.1854224 0
4.4954233 3.1797669 0.30756295
7.3275352 5.1963115 -0.50175649
7.3331575 5.2002983 0
4.5954356 3.2588468 0.31467465
7.3115993 5.1982994 -0.99993658
7.3297224 5.2111845 -0.50233704
7.3480749 5.2242327 0
4.864676 3.4586198 0.33339694
7.329762 5.2245574 -0.50277203
7.3438826 5.2346225 0
4.8901124 3.4856076 0.33542863
7.3255639 5.2349253 -0.50291765
7.3460217 5.2495446 0
7.3656287 5.263556 0.50566816
7.3276825 5.2498264 -0.5034982
7.346014 5.26296 0
7.3656025 5.2769938 0.50610369
7.3255506 5.2617054 -0.50378817
7.3438811 5.2748718 0
7.3634377 5.2889185 0.50639373
7.3255153 5.2751098 -0.50422376
7.3438396 5.2883053 0
7.3570414 5.297812 0.50639373
7.3254504 5.288516 -0.50465876
7.3395529 5.298697 0
7.3443203 5.3021388 0.50595874
7.321166 5.2988915 -0.50480431
7.337357 5.3106103 0
7.3421144 5.3140535 0.50624871
7.3189602 5.3107829 -0.50509429
7.3372564 5.324059 0
4.9656076 3.6031437 0.34268531
7.3209429 5.325737 -0.50567484
7.3392358 5.3390446 0
4.9633498 3.6106682 0.3428303
7.3271031 5.3437686 -0.50654596
7.3411903 5.354043 0
4.9589834 3.6166627 0.3428303
7.3227363 5.3541503 -0.50669098
7.3347154 5.3629093 0
4.9525142 3.62112 0.34268531
7.3288317 5.3722091 -0.5075615
7.3366261 5.3779225 0
4.9418459 3.6224914 0.34224975
7.3558369 5.4056802 -0.50988376
7.3364077 5.3914022 0
4.9500241 3.6376894 0.34312031
7.4015975 5.4530945 -0.51351207
7.327795 5.3987207 0
4.9560914 3.6513786 0.34384644
7.4735718 5.5130906 -0.51873654
7.3412862 5.4155064 0
4.9496984 3.6512842 0.34355587
7.5295768 5.5684657 -0.52309048
7.3472962 5.4336605 0
4.9431953 3.6557186 0.34341088
7.5666747 5.6100574 -0.52613825
7.3888025 5.4781799 0
4.9387746 3.6616888 0.34341088
7.5703239 5.6269507 -0.52686435
7.4719863 5.5538573 0
4.9322634 3.666105 0.34326586
7.5614295 5.6345367 -0.5267188
7.5424809 5.6204171 0
4.9299116 3.6736133 0.34341088
7.5629425 5.6498899 -0.5272994
7.5481896 5.6388688 0
4.9254689 3.6795673 0.34341088
7.5581961 5.6605864 -0.52744496
7.5455408 5.6511083 0
4.8960614 3.6668243 0.3416692
7.5555029 5.672832 -0.52773494
7.5407863 5.6617827 0
7.3164577 5.4933519 0.51103818
7.5527987 5.6850858 -0.52802551
7.5360169 5.6724534 0
4.2228808 3.1786146 0.29522678
7.554213 5.7004623 -0.52860552
7.5250068 5.6784229 0
4.2294135 3.1915452 0.29595292
7.5473194 5.7095857 -0.52860552
7.5139852 5.6843681 0
4.225554 3.1966534 0.29595292
7.546628 5.723413 -0.52904105
7.4988165 5.6871529 0
4.2196121 3.2001822 0.29580736
7.5500474 5.7403898 -0.52976662
7.4836526 5.689909 0
4.2219496 3.2099979 0.29624292
7.5431056 5.7495084 -0.52976662
7.4664249 5.6910605 0
4.2242699 3.2198241 0.29667848
7.5444117 5.7649288 -0.53034717
7.4492054 5.6921787 0
4.2162428 3.2217674 0.29638791
7.5415697 5.777204 -0.53063774
7.4257941 5.6885147 0
4.2102861 3.225281 0.29624292
7.5407681 5.7910619 -0.53107327
7.408597 5.689559 0
4.2043271 3.2287848 0.2960979
7.5440583 5.8080935 -0.53179884
7.3975968 5.6953344 0
4.2065935 3.2386134 0.2965329
7.5370345 5.817205 -0.53179884
7.3804026 5.6963134 0
4.2129683 3.2516367 0.29725903
7.5443802 5.8374338 -0.53281438
7.3755784 5.7068243 0
0 0 0
7.5352697 5.8449545 -0.53266943
7.3748407 5.7205129 0
4.1825109 3.2442882 0.29566234
7.5343575 5.8588419 -0.53310496
7.3638182 5.7262278 0
4.1724319 3.2445526 0.29522678
7.5334229 5.8727355 -0.53354049
7.3609948 5.7383184 0
4.1664615 3.2479959 0.29508179
7.5421596 5.8868756 -0.53441107
7.3595843 5.7443705 0
4.1685991 3.2537131 0.29537237
7.5329967 5.8943849 -0.53426605
7.3546858 5.7548609 0
4.1441965 3.2427318 0.29392067
7.5319963 5.9082894 -0.53470105
7.3579631 5.7717729 0
7.2845368 5.7141757 0.51713377
7.5269003 5.9189968 -0.5348466
7.3509836 5.7806597 0
7.277627 5.7229733 0.51713377
7.5217814 5.9296947 -0.53499162
7.3521686 5.7959824 0
7.2829461 5.7414117 0.5180043
7.5166478 5.9403882 -0.53513664
7.3512874 5.8097043 0
5.1334863 4.0569816 0.36547095
7.5216889 5.9591513 -0.53600776
7.3463001 5.8201971 0
5.1204333 4.0567269 0.3648904
7.5246549 5.9763141 -0.53673333
7.339262 5.8290696 0
5.0972171 4.048368 0.36358428
7.5174279 5.9854016 -0.53673333
7.3383231 5.8427982 0
5.0943527 4.0561409 0.36372927
7.5244002 6.0058231 -0.53774887
7.3312578 5.8516607 0
5.087419 4.0606742 0.36358428
7.5191727 6.0165386 -0.53789443
7.3384008 5.871892 0
5.0642505 4.0522089 0.36227816
7.5159473 6.0288682 -0.5381844
7.3292723 5.879128 0
5.0613756 4.0599494 0.36242315
5.3807826 4.3268552 -0.76960284
7.516757 6.0444589 -0.53876495
7.3302755 5.8945031 0
5.0524125 4.0628023 0.36213261
5.3735309 4.3317256 -0.76931369
7.5094481 6.0535369 -0.53876495
7.3271961 5.9066195 0
5.0373864 4.0607519 0.36140704
5.3763399 4.344718 -0.77046686
7.5061741 6.0658755 -0.53905553
7.3261285 5.9203773 0
4.1816754 3.3792877 0.30030683
5.3690786 4.3495846 -0.77017885
7.5089326 6.083118 -0.53978109
7.325038 5.9341416 0
4.1836405 3.3892405 0.30074182
5.3618131 4.3544397 -0.76989084
7.5035915 6.093823 -0.53992611
7.3239245 5.9479117 0
7.2957544 5.925034 0.52497101
7.5002494 6.106163 -0.54021609
7.3106761 5.9518261 0
7.2785163 5.9256439 0.52424544
7.4948845 6.116869 -0.54036164
7.3135581 5.9688811 0
7.2512159 5.9180012 0.52279377
5.3324342 4.3735209 -0.38521549
7.303133 5.9898353 0
4.0947814 3.3584309 0.29580736
5.3311563 4.3832583 -0.3855055
7.3019228 6.0036154 0
4.1128011 3.3815305 0.29740402
5.3218498 4.3863945 -0.38521549
7.3067169 6.0223689 0
4.1087122 3.3864975 0.29740402
5.316546 4.3928218 -0.38521549
7.2853889 6.019588 0
4.0885921 3.3782189 0.29624292
5.2676849 4.3631711 -0.7623958
5.2792158 4.3727221 -0.38289326
7.2881293 6.0366855 0
4.0604935 3.3632665 0.29450125
5.2630515 4.364697 -0.76210666
5.2565756 4.3593264 -0.38144216
7.2924938 6.0477328 0
5.0104799 4.1552372 0.36358428
5.2577739 4.3710532 -0.76210666
5.2173381 4.3374372 -0.37897491
7.285181 6.0565395 0
4.9854703 4.1446738 0.36213261
5.2524881 4.3774033 -0.76210666
5.1941299 4.3287673 -0.3776688
7.2778578 6.0653381 0
4.9605012 4.1340623 0.3606815
5.1789193 4.3267059 -0.37694269
7.280508 6.0824685 0
4.9255886 4.1150618 0.35850427
5.1597486 4.3212867 -0.37592712
7.2811337 6.0979452 0
4.9026861 4.1059966 0.35719815
7.5007067 6.2972732 -0.54703778
7.2777505 6.1100888 0
4.8599153 4.0801773 0.35444093
7.4891124 6.3029819 -0.54674721
7.2683654 6.1171975 0
4.8211865 4.0576043 0.35197368
7.4934034 6.3220768 -0.54761779
5.0352507 4.2481689 0
4.7825193 4.0349431 0.34950644
7.4877486 6.3328094 -0.54776335
5.0320992 4.255929 0
4.7498608 4.0172238 0.34747422
7.4860315 6.3468885 -0.54819834
5.0209961 4.2569556 0
4.7251873 4.0061598 0.34602311
7.4823208 6.3592982 -0.54848891
5.0158486 4.2630191 0
4.7282629 4.0185971 0.34660366
7.482543 6.3750753 -0.54906946
5.0126805 4.2707696 0
4.7234039 4.0243077 0.34660366
7.4768085 6.3857975 -0.54921448
5.0174093 4.2852726 0
4.7086601 4.0215759 0.34587809
7.4750104 6.3998985 -0.54965001
7.2875347 6.2393875 0
4.6939301 4.0188141 0.34515256
7.4633245 6.4055381 -0.54935944
7.2819633 6.2498817 0
4.6811838 4.0177135 0.34457198
7.4536114 6.4128585 -0.54921448
7.268486 6.2535825 0
4.6704144 4.0182815 0.34413642
7.445857 6.4218597 -0.54921448
7.2688074 6.2691593 0
4.6576848 4.0171332 0.34355587
7.4439912 6.4359522 -0.54965001
7.2671351 6.2830458 0
4.6528277 4.022758 0.34355587
7.4538794 6.4602571 -0.55095613
7.2674046 6.2986398 0
4.6440401 4.0249767 0.34326586
7.46176 6.4828925 -0.55211723
7.2656846 6.3125386 0
4.6411328 4.0322881 0.34341088
7.4735126 6.5089664 -0.55356836
7.2639413 6.3264427 0
4.6323347 4.0344763 0.34312031
7.4715161 6.5231204 -0.55400395
7.2621675 6.3403449 0
4.6450787 4.0554562 0.34442699
7.467536 6.5355625 -0.55429393
7.2545009 6.3491154 0
4.6753674 4.091866 0.34703922
7.4635439 6.5480118 -0.5545845
7.2526946 6.3630271 0
4.689949 4.114646 0.34849033
7.4634309 6.563889 -0.55516505
7.2508655 6.3769436 0
4.6927786 4.1271739 0.34907091
7.4593892 6.5763359 -0.55545503
7.2470555 6.3891392 0
4.6858411 4.1311245 0.34892589
7.4573607 6.5825591 -0.55560005
7.2490497 6.3986845 0
4.6891904 4.1391149 0.34936145
7.4396734 6.5829573 -0.55487448
7.2452068 6.4108849 0
4.6744499 4.1361632 0.34863535
7.4006186 6.5643601 -0.55255282
7.2452431 6.4265423 0
4.6597309 4.1331887 0.34790978
7.369379 6.5525784 -0.55081111
7.2374725 6.4352922 0
4.6508536 4.1353664 0.34761977
6.1062074 5.4426384 -0.91172296
7.3711534 6.5701213 -0.55153668
7.2394037 6.4526892 0
4.6419702 4.1375217 0.34732923
6.0919113 5.4431195 -0.91056979
7.4116488 6.622304 -0.55516505
7.2316017 6.461432 0
4.6582837 4.1621737 0.34892589
7.4307361 6.6555223 -0.55719674
7.235424 6.4805865 0
4.9745369 4.4555669 0.37301764
6.1543965 5.525754 -0.46199024
6.2148557 5.5800376 0
5.0503516 4.534482 0.37911323
6.1592999 5.543613 -0.46286079
6.2119813 5.5910282 0
5.0603199 4.5544877 0.38027436
6.1410251 5.5406108 -0.46199024
7.2350726 6.5276918 0
5.0451689 4.551897 0.37954879
7.4312415 6.7209878 -0.55966395
7.225244 6.5346785 0
5.0300307 4.5492768 0.37882322
7.4423623 6.7474117 -0.56111509
7.2173429 6.5434041 0
5.0418539 4.5710573 0.38012934
7.4399743 6.7616439 -0.56155062
7.2132869 6.555624 0
5.0267143 4.5684094 0.3794038
7.4375634 6.7758803 -0.56198621
7.2111335 6.5695949 0
5.0192642 4.5727253 0.37925822
7.4332042 6.7883635 -0.56227618
7.2127972 6.5870767 0
4.9945517 4.5612674 0.37780711
7.4345851 6.806118 -0.56300229
7.2067504 6.5975428 0
4.9737039 4.5532622 0.37664601
7.430181 6.8186064 -0.56329232
7.1968575 6.6044879 0
4.6599836 4.2764225 0.3532798
7.4276752 6.832859 -0.56372786
7.2022738 6.6255078 0
4.5897965 4.2222404 0.34834534
7.4270549 6.848875 -0.5643084
7.2019157 6.6412625 0
4.5865998 4.2295432 0.34849033
7.4283123 6.8666615 -0.56503397
7.1996212 6.655261 0
4.5853057 4.2386131 0.3487809
7.4295382 6.8844609 -0.56575954
7.201117 6.6727982 0
4.5858932 4.2494435 0.34921589
7.419312 6.8916664 -0.56561452
7.200676 6.6885796 0
4.557909 4.2337604 0.34747422
7.4128795 6.9023952 -0.56575954
7.1964021 6.7008257 0
4.5470905 4.2339578 0.34703922
7.410234 6.9166679 -0.56619507
7.1978111 6.7183933 0
4.5381684 4.2358994 0.34674865
7.4056625 6.9291639 -0.56648511
7.1972895 6.7341981 0
4.5273604 4.2360587 0.34631366
7.4010787 6.9416661 -0.56677562
7.1948433 6.7482324 0
4.5260253 4.2450781 0.34660366
7.415822 6.9639201 -0.56822675
7.1983538 6.7597041 0
8.6355333 8.1093054 0.66168541
7.4206481 6.9853449 -0.56924289
7.1958604 6.7737432 0
8.6143732 8.1090441 0.66081429
7.4046426 6.9871726 -0.56866235
7.1933508 6.7877932 0
9.6533976 9.1091442 0.74136239
7.4018521 7.0014663 -0.56909734
7.1945953 6.8054204 0
9.6423845 9.1208019 0.74136239
7.4009295 7.0175567 -0.56967789
7.1901474 6.8176932 0
9.6351309 9.1360254 0.74165297
5.8820348 5.5908546 -0.45328242
7.1894498 6.8335481 0
5.2717533 5.0107837 0.40625277
5.8759203 5.612134 -0.90566909
5.7971058 5.5368571 -0.44776741
7.1804357 6.8580856 0
5.2784228 5.0414596 0.40770444
5.8691349 5.6192298 -0.90566909
5.7997937 5.5528412 -0.44849297
7.1571121 6.852365 0
0 0 0
5.8660769 5.6299024 -0.90624624
7.3996453 7.101728 -0.57287121
7.1563377 6.8682165 0
5.2980928 5.0847864 0.41017169
5.8741813 5.6513324 -0.90855259
7.3966713 7.1160636 -0.5733062
7.1499076 6.8786612 0
5.2938161 5.0929842 0.41031668
5.8692083 5.6602197 -0.9088406
7.3918118 7.1286068 -0.57359678
7.1472054 6.8927097 0
5.2895269 5.1011791 0.41046169
5.8530688 5.6583204 -0.90739942
7.396265 7.1501698 -0.57461232
7.1444864 6.9067693 0
5.2796264 5.1039581 0.41017169
5.8165088 5.6365891 -0.90278673
7.3913555 7.1627216 -0.57490289
7.1454787 6.9244504 0
5.2827835 5.1193733 0.41089725
5.7855773 5.6201863 -0.89903921
7.3901505 7.1788898 -0.57548344
7.1408439 6.9367099 0
5.2635455 5.1130772 0.40988111
5.7732215 5.6217575 -0.89817405
7.3833308 7.1896253 -0.57562846
7.1361823 6.9489608 0
8.3754473 8.1557131 0.65297705
5.8089967 5.6702852 -0.90480506
7.3802185 7.2039881 -0.57606399
7.1352301 6.9648499 0
9.628089 9.3981829 0.75152189
5.8076816 5.6827216 -0.90566909
7.3807926 7.2219853 -0.57678956
7.1379738 6.9843907 0
9.6018677 9.3952713 0.75036079
5.7565017 5.6462741 -0.8987512
7.3813348 7.239994 -0.57751513
7.1350975 6.9984722 0
9.5923624 9.4086838 0.75050575
5.7072539 5.611516 -0.89212018
7.3688788 7.2452674 -0.57722515
7.1210742 7.0016198 0
4.548892 4.4725857 0.35632759
5.6820517 5.600255 -0.88923782
7.361968 7.2559886 -0.57737011
7.1329927 7.0303092 0
9.5825529 9.4446068 0.75152189
5.6697588 5.6016617 -0.88837266
5.8209114 5.7509985 -0.45705578
7.1356044 7.049901 0
9.5637407 9.4488735 0.75094134
5.6758523 5.6212506 -0.89039099
5.7862625 5.7305989 -0.45487854
7.1233788 7.0548515 0
5.0698791 5.0211067 0.39856109
5.6690559 5.6281047 -0.89039099
5.7203321 5.6790104 -0.45023465
7.1222367 7.0707879 0
5.0545897 5.0180769 0.39783552
5.6750793 5.6477165 -0.89240819
5.6950445 5.6675854 -0.44878298
7.1192236 7.084898 0
5.0503626 5.0260119 0.39798051
5.6954837 5.6748753 -0.89615571
5.7063451 5.6856976 -0.44994408
7.1241584 7.0983806 0
5.0399628 5.0217261 0.39739996
5.6996059 5.6927233 -0.89788604
7.3816071 7.3726935 -0.58274013
5.7346325 5.7277079 0
5.0320544 5.0259776 0.39725497
5.6781006 5.6849656 -0.8955797
7.3781967 7.3871174 -0.58317512
5.7608085 5.7677736 0
4.1684799 4.1735196 0.32947803
5.6894798 5.7101412 -0.89846206
7.3766017 7.4033899 -0.58375573
7.1277709 7.1536555 0
4.1891069 4.20432 0.33150971
5.7008138 5.7353597 -0.90134555
7.373148 7.4178281 -0.58419126
7.1246276 7.1678019 0
4.2151632 4.2407064 0.33397695
5.6811295 5.7293854 -0.89932722
7.3714981 7.4341125 -0.58477181
7.1251221 7.1856437 0
4.2155266 4.2513337 0.33441252
5.6632924 5.7252164 -0.89759803
7.3570261 7.43747 -0.58433628
7.1164346 7.1942477 0
0 0 0
5.6454663 5.7210054 -0.89586771
7.3516879 7.450057 -0.58462679
7.1205268 7.2158031 0
0 0 0
5.6312919 5.7204499 -0.89471453
7.3590846 7.4755983 -0.58593291
7.1282396 7.2410984 0
4.1563458 4.2221518 0.33092973
5.6171265 5.7198682 -0.89356136
5.7388525 5.8438206 -0.45749134
7.1231284 7.2534165 0
4.1475964 4.2234592 0.33063915
5.6102109 5.7266512 -0.89356136
5.7263303 5.8451805 -0.45705578
7.1198244 7.2675972 0
4.1461301 4.2321835 0.33092973
5.6014814 5.7315779 -0.89327335
5.7083626 5.8409419 -0.45618466
7.1146722 7.2799134 0
4.1301131 4.2260365 0.3300586
5.5873294 5.7309341 -0.89212018
5.7013011 5.8478351 -0.45618466
7.1185899 7.3015509 0
4.1213794 4.2273064 0.3297686
5.5804005 5.7376814 -0.89212018
5.685174 5.8454075 -0.45545912
7.1170201 7.3176093 0
4.1162682 4.2322831 0.3297686
5.5698647 5.7407107 -0.89154416
5.6744914 5.8485465 -0.45516911
7.1099834 7.3280697 0
4.6756563 4.8190737 0.37504932
5.5575261 5.7418594 -0.890679
5.6656151 5.8535337 -0.45502409
7.102932 7.3385239 0
4.2162571 4.3561029 0.33862141
5.5469942 5.7448525 -0.89010298
5.6531219 5.8547654 -0.45458853
7.0976787 7.3508487 0
4.1947479 4.3443723 0.33731529
5.5292792 5.7403703 -0.88837266
5.6208096 5.8353949 -0.45255688
7.0851769 7.3556671 0
4.1894956 4.3494377 0.33731529
5.5259266 5.7507806 -0.88894981
5.5831499 5.8103318 -0.45008963
5.4895573 5.7129312 0
4.1860356 4.3563685 0.33746028
5.5082316 5.7462468 -0.88721949
5.5455585 5.7851868 -0.44762242
5.4610391 5.6970153 0
4.1933575 4.3745561 0.33847642
5.4994984 5.7510304 -0.88693148
5.5313811 5.7843714 -0.44704184
5.4505577 5.6998515 0
4.2024355 4.3946433 0.33963752
5.485404 5.7501855 -0.88577831
5.5136228 5.7797661 -0.44617075
5.4310899 5.6932497 0
4.2168465 4.4203944 0.34123364
5.4624062 5.7399483 -0.88318396
5.5048451 5.7845435 -0.44602573
5.4242067 5.6998076 0
4.2276225 4.4424257 0.34253976
5.4429994 5.7334118 -0.88116562
5.4924831 5.7855353 -0.44559017
5.4137354 5.7025867 0
4.2723446 4.5002961 0.34660366
5.4182858 5.7212086 -0.87828326
5.4783411 5.7846212 -0.44500962
5.399683 5.7015657 0
4.3276501 4.5695977 0.35153812
5.4006095 5.7094483 -0.87597692
5.4748454 5.78793 -0.44500962
5.4033909 5.7123895 0
4.3552423 4.604301 0.35400537
5.381279 5.7027998 -0.87395859
5.4660664 5.7926531 -0.44486463
5.3964849 5.718914 0
4.4013906 4.6643648 0.35821426
5.369071 5.7036533 -0.87309456
5.4590631 5.7992535 -0.44486463
5.3859997 5.7216368 0
4.5097318 4.7907629 0.36750263
5.3657131 5.7139039 -0.87367058
5.4467139 5.8001609 -0.44442907
5.3773022 5.7262454 0
4.5999894 4.8984909 0.3753399
5.3588052 5.7203832 -0.87367058
5.436152 5.802949 -0.44413906
5.3686018 5.7308412 0
4.5851865 4.8945656 0.37461433
5.358953 5.7344131 -0.87482375
5.4238119 5.8038163 -0.4437035
5.3687811 5.7449298 0
4.5065293 4.8222666 0.36866376
5.3537822 5.742774 -0.87511176
5.4185653 5.8122644 -0.44384849
5.3600559 5.7495036 0
4.4422288 4.7649894 0.36387429
5.3538852 5.756815 -0.87626493
5.4115386 5.8188071 -0.44384849
5.3477926 5.7502642 0
4.4258537 4.7589407 0.36300373
5.3381314 5.7538013 -0.87482375
5.4027381 5.8234386 -0.4437035
5.3443775 5.7605338 0
5.3514071 5.7681108 0.4394879
5.3206372 5.7488613 -0.87309456
5.399231 5.8337803 -0.44399408
5.3427181 5.7727189 0
5.34267 5.7726674 0.43934292
5.3189454 5.7609816 -0.87395859
5.393939 5.8422074 -0.44413906
5.3357391 5.7791705 0
5.340981 5.7848482 0.43977848
5.3189898 5.7750144 -0.87511176
5.3921585 5.8544564 -0.44457462
5.334043 5.791358 0
5.3287044 5.7855616 0.43934292
5.3277559 5.7985768 -0.87770611
5.3885937 5.8647904 -0.44486463
5.3358436 5.8073792 0
5.3234658 5.7939076 0.4394879
5.3417172 5.8278904 -0.88116562
5.3850112 5.8751249 -0.44515461
5.3305798 5.8157392 0
5.3322682 5.8175812 0.44079459
5.350378 5.8515186 -0.88375998
5.3796668 5.8835506 -0.44530016
5.3305731 5.8298583 0
5.3269868 5.8259358 0.44093958
5.3813076 5.8996434 -0.44602573
5.3410602 5.8555193 0
5.3216925 5.8342862 0.44108459
5.3829174 5.9157491 -0.4467513
5.3392372 5.8677449 0
5.3216343 5.8483996 0.44166514
5.3810067 5.9280229 -0.44718686
5.3356447 5.8780499 0
4.3016672 4.7389612 0.35748869
5.2873187 5.8389721 -0.87799525
5.3790741 5.9403005 -0.44762242
5.3215513 5.8767762 0
4.2941957 4.7422314 0.3573437
5.2767887 5.8415141 -0.8774181
5.3771129 5.9525747 -0.44805741
5.3231673 5.8928561 0
4.2936831 4.7531958 0.3577787
5.266118 5.8580995 -0.87799525
5.3696604 5.9732814 -0.44863796
5.3158703 5.9134445 0
4.2821836 4.7635579 0.3577787
5.365912 5.9836383 -0.44892853
5.3087211 5.9198637 0
4.281631 4.7745342 0.35821426
5.3638706 5.9959216 -0.44936353
5.3119721 5.9379077 0
4.272397 4.7758346 0.35792425
5.3635421 6.0101533 -0.44994408
5.3134561 5.9540286 0
4.2614312 4.7751756 0.35748869
5.3631873 6.0243931 -0.45052463
5.3183727 5.9740534 0
4.2556581 4.7803211 0.35748869
5.3681779 6.0373392 -0.4512502
5.319952 5.9831018 0
5.2783213 5.9362817 0.4436968
5.3608794 6.0438213 -0.4512502
5.3178945 5.9953609 0
5.2487307 5.9173861 0.44181013
5.3621869 6.06003 -0.4519763
5.3175449 6.0095782 0
4.730196 5.3457909 0.39870608
7.0382218 7.9735794 -0.59406018
5.3154483 6.0218544 0
4.7237334 5.3515024 0.39870608
7.0337358 7.9879303 -0.59449577
5.3081679 6.0282726 0
4.703526 5.3416052 0.39754498
7.04637 8.021801 -0.59638244
7.0389209 8.0133209 0
4.6850629 5.3336172 0.39652884
7.0829043 8.0830698 -0.60030079
7.0309534 8.0237827 0
4.683754 5.345139 0.3969644
7.1671844 8.1992168 -0.60828304
7.0298157 8.0420675 0
4.6670341 5.3390598 0.39609385
7.235826 8.2979555 -0.61495918
7.0269346 8.0584021 0
4.6639919 5.3486085 0.39638385
7.2530804 8.3380604 -0.61728138
7.0257311 8.0767031 0
4.6575255 5.3542399 0.39638385
7.2532153 8.3585901 -0.61815196
7.02279 8.0930481 0
4.651053 5.3598638 0.39638385
7.2550163 8.3811026 -0.61916804
7.0181174 8.1074333 0
4.6360712 5.3556585 0.39565828
7.2499804 8.3957644 -0.61960363
7.0185184 8.1277218 0
4.5956311 5.3219228 0.39275551
7.2398305 8.4045181 -0.61960363
7.0120926 8.1401443 0
4.1635513 4.8333511 0.35632759
7.236444 8.4211435 -0.62018418
7.0158148 8.1643934 0
4.1661739 4.8482304 0.35705313
7.227953 8.4318523 -0.6203292
7.009335 8.1768208 0
4.1501694 4.8414278 0.35618258
7.2194467 8.4425526 -0.62047416
7.0062156 8.1931963 0
5.1321821 6.0016675 0.44108459
7.2092404 8.4512691 -0.62047416
7.0081286 8.2155094 0
5.1114359 5.9920492 0.43992347
7.2158661 8.4797678 -0.62192583
7.0032582 8.2299194 0
4.6545949 5.4698744 0.40117332
7.2157011 8.5003624 -0.62279642
6.9966803 8.2423477 0
4.6429362 5.4695501 0.40073776
7.2205358 8.5269194 -0.62410253
7.0018506 8.2686682 0
4.6363239 5.4751558 0.40073776
7.2202916 8.5475521 -0.62497365
6.9935322 8.279109 0
4.6263542 5.476788 0.40044776
7.2266989 8.5761366 -0.62642473
6.9952641 8.301486 0
4.6163812 5.4783959 0.40015721
7.2263598 8.5967932 -0.62729532
6.9919267 8.3179016 0
4.6097584 5.4839702 0.40015721
7.2159667 8.6055183 -0.62729532
6.9919009 8.3383045 0
5.0739288 6.0509963 0.44108459
7.21557 8.626194 -0.62816644
6.9851632 8.3507433 0
5.0732822 6.0650949 0.44166514
7.2203498 8.6425123 -0.62903696
6.9884582 8.3649464 0
5.0746164 6.0741434 0.4421007
7.2198863 8.6632109 -0.62990808
6.9883394 8.385376 0
5.0689354 6.0822644 0.44224569
7.2177172 8.6819172 -0.63063365
6.9798641 8.395813 0
5.0732121 6.1023741 0.4432618
7.2155137 8.7006311 -0.63135922
6.9813452 8.4182653 0
4.1021576 4.9464755 0.35893983
7.2099657 8.7153511 -0.63179481
6.9778037 8.4347162 0
4.0912075 4.9454203 0.35850427
7.1977711 8.7220469 -0.6316492
6.972578 8.4491653 0
4.0835767 4.9483576 0.35835925
7.2004385 8.7467871 -0.63281035
6.9739375 8.4716425 0
4.0842004 4.9613128 0.35893983
7.2014093 8.7695398 -0.63382643
6.9686522 8.4860992 0
4.0831513 4.9722705 0.35937539
7.1973944 8.7862749 -0.63440698
6.9666381 8.5045776 0
4.0837269 4.9852409 0.35995594
7.1917071 8.8010035 -0.63484257
6.9711757 8.5311241 0
4.0809851 4.9941921 0.36024594
7.1974816 8.8298244 -0.63629371
6.9674397 8.5476103 0
4.0930085 5.0212765 0.3618426
7.1868072 8.8385143 -0.63629371
6.9636741 8.5640993 0
9.4816608 11.660783 0.83947164
7.1908531 8.8653526 -0.63759983
6.9598789 8.5805922 0
4.0530367 4.9968481 0.35937539
7.1866732 8.8821144 -0.63818038
6.9576893 8.5991096 0
4.053534 5.0098219 0.35995594
7.1873612 8.9049482 -0.63919646
6.9472938 8.6075106 0
4.039319 5.0046082 0.35923037
7.1847425 8.9237442 -0.63992202
6.9483142 8.6300907 0
9.4773378 11.77124 0.84411615
7.1788378 8.9384985 -0.64035761
6.9460282 8.6486235 0
9.4647331 11.784707 0.84426111
7.1729012 8.9532442 -0.64079261
6.9420819 8.6651344 0
9.4602375 11.808307 0.84513223
7.1734347 8.9761162 -0.64180869
6.9413581 8.6857185 0
9.4573135 11.833932 0.84614778
7.1674442 8.9908743 -0.64224428
6.9324789 8.6961327 0
9.4543476 11.859575 0.84716392
7.1695137 9.0157986 -0.64340538
6.9333 8.7187557 0
9.4480953 11.881158 0.84788948
7.1586146 9.0244551 -0.64340538
6.9324675 8.7393637 0
9.4498777 11.912918 0.84934062
0 0 -0
7.1622152 9.0514355 -0.64471149
6.9283624 8.7558975 0
9.4451532 11.936558 0.85021168
0 0 -0
7.1625381 9.0743542 -0.64572704
6.9371266 8.7887764 0
9.4403801 11.960196 0.85108227
7.1612158 9.0952559 -0.64659816
6.9248872 8.7951012 0
9.4371758 11.985888 0.85209841
7.1621447 9.1077509 -0.64717871
6.9324422 8.815649 0
9.4395666 12.003838 0.85296893
7.1655664 9.1347961 -0.64848483
6.9282103 8.8322105 0
9.4346809 12.027506 0.85384005
7.1593289 9.1495895 -0.64892042
6.9223461 8.8467264 0
9.4345512 12.057313 0.85514617
0 0 -0
7.151463 9.1623259 -0.64921039
6.9228621 8.8694468 0
9.4295654 12.08099 0.8560167
7.1467719 9.179162 -0.64979094
6.9169316 8.8839598 0
9.4197512 12.098528 0.85645229
7.1484265 9.2042084 -0.6509521
6.9109826 8.8984795 0
9.4226599 12.132477 0.85804898
7.1452551 9.2231073 -0.65167761
6.9129763 8.9232817 0
9.4207182 12.160279 0.85920954
7.1356368 9.2568121 -0.65283877
6.912046 8.9667549 0
9.4166861 12.215938 0.86153173
7.1244464 9.2654266 -0.65283877
6.9075518 8.9833527 0
9.4114246 12.23967 0.86240286
7.1227312 9.286396 -0.65370929
6.9046102 9.0020161 0
9.4076948 12.26546 0.8634184
7.1272974 9.3156366 -0.65516096
6.9016333 9.0206852 0
9.4054985 12.293327 0.86457956
7.1239171 9.334568 -0.65588653
6.9002047 9.0414343 0
9.3969431 12.312946 0.86516011
7.1079092 9.3369646 -0.655451
6.8971553 9.0601177 0
9.3946505 12.340832 0.86632121
7.0919127 9.339344 -0.65501601
6.8909264 9.0746651 0
9.3891573 12.364587 0.86719179
7.0680709 9.3313351 -0.65385485
6.8909512 9.0974998 0
9.3867617 12.392493 0.86835289
7.0599208 9.3440113 -0.65414488
6.8877964 9.1162004 0
9.3827477 12.418341 0.86936897
7.0564432 9.3629084 -0.65487045
6.8861775 9.1369905 0
9.3771162 12.442116 0.87023956
7.0544963 9.383894 -0.65574151
6.8845124 9.1577816 0
9.3730068 12.467978 0.8712557
7.0727673 9.4319038 -0.65849876
6.882813 9.1785898 0
9.3704062 12.495925 0.87241679
7.0909386 9.4799795 -0.66125655
6.8810673 9.1993999 0
9.3661966 12.521806 0.87343293
7.1027822 9.5197744 -0.66343325
6.8730621 9.2118835 0
9.3603802 12.545606 0.87430346
7.1052351 9.5471087 -0.66473937
6.8665833 9.2264385 0
9.3622808 12.579839 0.87590015
7.1014428 9.5661249 -0.66546547
6.8755946 9.2618923 0
9.3548164 12.601572 0.87662572
7.0960579 9.5830441 -0.66604549
6.8705935 9.2785597 0
9.358139 12.637925 0.87836736
7.0937395 9.6041555 -0.66691661
6.8702021 9.3015099 0
9.3552122 12.665944 0.87952846
7.0913739 9.625268 -0.66778713
6.8713074 9.3265667 0
9.3445196 12.683509 0.87996346
7.0874367 9.6443052 -0.66851324
6.860033 9.3348627 0
9.3414974 12.711542 0.88112462
7.0892949 9.6590567 -0.66923881
6.8651729 9.353694 0
9.3507299 12.740228 0.88272125
7.0852919 9.6780968 -0.66996437
6.8584733 9.3682756 0
9.3383961 12.755706 0.88301128
7.084321 9.7013426 -0.67098051
6.8578935 9.3912706 0
9.3383036 12.78797 0.88446295
7.0787072 9.7182884 -0.67156047
6.8557315 9.4121675 0
9.3381405 12.820243 0.88591409
7.0761261 9.7394524 -0.67243159
6.8504725 9.4288664 0
9.3348618 12.848334 0.88707519
7.0719752 9.7585135 -0.67315716
6.8497663 9.45189 0
9.3315287 12.876437 0.88823628
7.0616994 9.7691555 -0.67330217
6.845962 9.4707041 0
9.322052 12.896127 0.88881683
7.0696449 9.8050785 -0.67518884
6.8497372 9.500083 0
9.3231745 12.930559 0.89041299
7.0668983 9.8262758 -0.67605996
6.8443255 9.5167961 0
9.3075438 12.941815 0.89041299
7.0595651 9.8411436 -0.67649549
6.8419261 9.5377512 0
9.3100748 12.978389 0.89215463
7.058249 9.8644524 -0.67751104
6.8379669 9.556592 0
9.2989235 12.995971 0.89259022
7.0584006 9.8898945 -0.67867219
6.8324623 9.5733204 0
9.3073654 13.041038 0.89491242
7.0600061 9.9174652 -0.67997831
