# .PCD v0.7 - Point Cloud Data file format
VERSION 0.7
FIELDS x y z
SIZE 4 4 4
TYPE F F F
COUNT 1 1 1
WIDTH 1535
HEIGHT 1
VIEWPOINT 0 0 0 1 0 0 0
POINTS 1535
DATA ascii
-6.3060856 4.5874629 -0.43557626
-5.537837 4.0285878 0
-5.5369611 4.0279512 0.38245103
-2.6852341 1.9484591 -0.91533709
-3.377794 2.4509945 -0.92452174
-4.8509469 3.5199435 -0.99919713
-5.4837804 3.97914 -0.75518876
-6.3032112 4.5737352 -0.43499568
-5.5216408 4.0066123 0
-5.535521 4.0166841 0.38201603
-2.6571076 1.9231534 -0.90495664
-3.3642864 2.434993 -0.92001867
-4.8551965 3.5140796 -0.99919713
-5.4802036 3.9664452 -0.75403559
-6.2918935 4.5539279 -0.43383458
-5.5306983 4.0029922 0
-5.5340533 4.0054202 0.38158047
-2.6756945 1.9316835 -0.91049129
-3.3631098 2.4279544 -0.91889399
-4.8573599 3.5067093 -0.99876958
-5.480794 3.9567897 -0.75345844
-6.2994962 4.5478415 -0.43397957
-5.5249748 3.9886854 0
-5.5388889 3.9987307 0.38158047
-2.6678491 1.9211204 -0.90703112
-3.3619213 2.4209223 -0.91776931
-4.8615932 3.5008376 -0.99876958
-5.4729815 3.9410987 -0.75172925
-6.2902327 4.5296021 -0.43296403
-5.5297904 3.9820065 0
-5.5331755 3.9844444 0.3808549
-2.6864696 1.9296039 -0.91256839
-3.3689675 2.4198201 -0.91889399
-4.8616462 3.4919627 -0.99791282
-5.4756408 3.9329753 -0.75144124
-6.3020263 4.5265412 -0.43339902
-5.5303741 3.9722884 0
-2.5180647 1.8086443 0.17317078
-2.6876347 1.9279805 -0.91256839
-3.3807499 2.4251881 -0.92170787
-4.8595872 3.4860351 -0.99705768
-5.4717088 3.925142 -0.75057608
-6.2942052 4.5151615 -0.43267345
-5.532773 3.9689465 0
-2.5233839 1.8101548 0.17346133
-2.6777246 1.9159752 -0.90841681
-3.3878145 2.4240613 -0.92283475
-4.8742323 3.4876282 -0.99919713
-5.4659324 3.9110038 -0.7491349
-6.2933145 4.503015 -0.43223789
-5.5185184 3.9486301 0
-2.5213387 1.8040774 0.17317078
-2.684118 1.9156504 -0.90979975
-3.3886669 2.4184856 -0.92227024
-4.8659019 3.4727857 -0.99662846
-5.4643364 3.8998873 -0.74826974
-6.2776046 4.4803157 -0.43078679
-5.5190449 3.9389327 0
-2.5235167 1.8010296 0.17317078
-2.6721301 1.9022254 -0.90495664
-3.3833067 2.4084952 -0.92001867
-4.8763704 3.4713714 -0.99791282
-5.4711494 3.8947804 -0.74855775
-6.2787843 4.4697161 -0.43049678
-5.5195637 3.9292455 0
-2.5129941 1.7889403 0.17230022
-2.6805573 1.9033484 -0.90703112
-3.3841448 2.4029357 -0.91945636
-4.8784699 3.4639919 -0.99748522
-5.4674158 3.8821769 -0.74740458
-6.2778225 4.4576116 -0.43006122
-5.5243077 3.9225733 0
-2.519387 1.7889084 0.17259021
-2.6644313 1.8870597 -0.90080231
-3.391197 2.4017849 -0.92058319
-4.886838 3.4610591 -0.99834037
-5.4615512 3.8680947 -0.74596339
-2.6149461 1.8520122 -0.17898305
-5.5205479 3.9098787 0
-2.5088279 1.7768549 0.17171966
-2.6912982 1.901209 -0.90910828
-3.3920152 2.3962152 -0.92001867
-4.8847322 3.4507127 -0.99705768
-5.4619999 3.858511 -0.74538738
-2.6277914 1.856346 -0.1797086
-5.5188894 3.898699 0
-2.5152218 1.7768235 0.17201021
-2.6812925 1.8892883 -0.90495664
-3.3949082 2.3921149 -0.92001867
-4.8888984 3.444808 -0.99705768
-5.4624257 3.8489258 -0.74481022
-2.6257803 1.8501732 -0.17941804
-5.5129609 3.8845341 0
-2.5173669 1.7737831 0.17201021
-2.6753633 1.8802768 -0.902188
-3.3977959 2.388011 -0.92001867
-4.9014583 3.4448025 -0.99876958
-5.4649582 3.840837 -0.74452221
-2.6407735 1.8559668 -0.18028916
-5.511261 3.8733792 0
-2.5110047 1.7647636 0.17142966
-2.6714685 1.8727212 -0.90011084
-3.4027655 2.3853664 -0.92058319
-4.9077168 3.4403496 -0.99919713
-5.4653635 3.8312643 -0.74394619
-2.6345034 1.8468083 -0.1797086
-5.5159373 3.8667171 0
-2.5067499 1.7572521 0.1709941
-2.6757834 1.870928 -0.90080231
-3.4014766 2.3783383 -0.91945636
-4.9118705 3.434417 -0.99919713
-5.4615097 3.8187292 -0.74279302
-2.6282148 1.8376678 -0.17912805
-5.509943 3.8525941 0
-2.5216444 1.763153 0.17186466
-2.6842175 1.8720002 -0.90287948
-3.40643 2.3756785 -0.92001867
-4.9160166 3.4284794 -0.99919713
-5.4618731 3.8091652 -0.74221587
-0 0 -0
-5.5188675 3.8489139 0
-2.5280397 1.7630805 0.17215522
-2.667944 1.8558633 -0.89665067
-3.3967869 2.3628578 -0.91664249
-4.9201555 3.4225368 -0.99919713
-5.4622293 3.7996118 -0.74163985
-2.6433115 1.8387288 -0.1798536
-5.5085573 3.8318384 0
-2.5237668 1.7555716 0.17171966
-2.6804886 1.8597876 -0.90011084
-3.3850241 2.3486114 -0.91270173
-4.9263945 3.4180515 -0.99962467
-5.456193 3.7856381 -0.74019867
-2.6519382 1.8399787 -0.18028916
-5.5067663 3.8207273 0
-2.5258863 1.7525208 0.17171966
-2.6786039 1.8536893 -0.89872521
-3.3732398 2.3344021 -0.90876317
-4.9263034 3.4091775 -0.99876958
-5.4586301 3.7775667 -0.73990953
-2.6627064 1.8426877 -0.18086971
-5.5049567 3.8096263 0
-2.5258675 1.7479903 0.17157465
-2.6643322 1.8390558 -0.89319056
-3.3676934 2.3245511 -0.9065116
-4.9346404 3.4061363 -0.99962467
-5.4482961 3.7606874 -0.73789233
-2.6627944 1.8379943 -0.18072471
-5.5074162 3.8014951 0
-2.5365314 1.7508413 0.17215522
-2.6768825 1.842947 -0.89665067
-3.3663101 2.3175957 -0.90538478
-4.9302945 3.3943484 -0.99791282
-5.4634862 3.7614336 -0.73933351
-2.6585906 1.8303536 -0.18028916
-5.4991479 3.7859857 0
-2.5300841 1.7418811 0.17157465
-2.6770332 1.8382869 -0.89595652
-3.3712087 2.3149688 -0.90594929
-4.9343925 3.3883886 -0.99791282
-5.4530997 3.7445788 -0.73731518
-2.6800766 1.8403766 -0.18159528
-5.4972806 3.7749171 0
-2.534327 1.7402922 0.17171966
-2.6719425 1.8324167 -0.89388204
-3.3642247 2.3071835 -0.90369773
-4.9449067 3.3912144 -0.99962467
-5.4532304 3.7398221 -0.73702717
-2.674757 1.8343469 -0.18115972
-5.497416 3.7701247 0
-2.5439498 1.7446393 0.17230022
-2.678292 1.8320168 -0.89526504
-3.3670101 2.3031168 -0.90369773
-4.9426422 3.3808875 -0.99834037
-5.4492059 3.7273893 -0.735874
-2.6812651 1.8340505 -0.18145028
-5.4933753 3.7576022 0
-2.5524921 1.7459667 0.17273577
-2.6784332 1.8273667 -0.89457357
-3.3362074 2.2761347 -0.89469159
-4.9467239 3.374913 -0.99834037
-2.7275548 1.86088 -0.36803171
-2.6834793 1.8308094 -0.18145028
-5.4871645 3.7436297 0
-2.5438695 1.7355604 0.17201021
-2.6993043 1.8368303 -0.90080231
-3.3200514 2.259238 -0.88962615
-4.9465575 3.3660476 -0.99748522
-2.7212479 1.8517625 -0.36687854
-2.6942823 1.833413 -0.18203083
-5.4852271 3.7326028 0
-2.5631425 1.7441745 0.17317078
-2.6724644 1.8138456 -0.8911134
-3.3080599 2.2452347 -0.88568544
-4.9527435 3.3615086 -0.99791282
-0 0 -0
-2.6943395 1.8286927 -0.18188527
-5.4811196 3.7201264 0
-2.5695522 1.7439975 0.17346133
-2.6725786 1.8092102 -0.89042193
-3.2981498 2.2326925 -0.8823092
-4.9504218 3.351203 -0.99662846
-2.70858 1.8335813 -0.3645722
-2.6836407 1.8166987 -0.18101472
-5.4726844 3.7047501 0
-2.558743 1.7321488 0.17259021
-2.6747627 1.8059795 -0.89042193
-3.3071568 2.2329671 -0.88399625
-4.9566011 3.3466597 -0.99705768
-2.708652 1.8288612 -0.36428419
-2.6879854 1.8149073 -0.18115972
-5.4728389 3.6952193 0
-2.5759108 1.7392354 0.17360634
-2.6811008 1.8055463 -0.89180487
-3.3035357 2.2247157 -0.8823092
-4.9521246 3.3349323 -0.99534583
-2.7044218 1.8212514 -0.36341903
-2.6987975 1.8174639 -0.18174027
-5.475143 3.6871514 0
-2.5823252 1.7390274 0.17389689
-2.6645391 1.7897172 -0.88557613
-3.3062215 2.2207224 -0.8823092
-4.9689322 3.3375316 -0.99791282
-2.7130637 1.8223102 -0.36428419
-2.6966817 1.8113067 -0.18145028
-2.7057829 1.8174198 0
-2.5887344 1.7388008 0.17418689
-2.660445 1.7823061 -0.88349897
-3.2920146 2.2054121 -0.87780613
-4.9516382 3.3172402 -0.99363393
-2.7066684 1.8132724 -0.36313102
-2.7161386 1.8196168 -0.18261139
-2.7296026 1.8286366 0
-2.5929904 1.7371163 0.17433189
-2.6730244 1.7860578 -0.88695908
-3.2967877 2.2028432 -0.87836844
-4.9620485 3.3155348 -0.99491829
-2.7131627 1.8128773 -0.36370817
-2.7528954 1.8394259 -0.18493307
-2.6798766 1.7906362 0
-2.6037295 1.7397565 0.17491245
-2.683531 1.7883917 -0.88972777
-3.2909894 2.1932216 -0.87611693
-4.9681849 3.3109589 -0.99534583
-2.7067418 1.8038602 -0.362555
-2.7659335 1.8433075 -0.18565919
-2.6538868 1.7686359 0
-2.5971806 1.730845 0.17433189
-2.6668882 1.7726505 -0.88349897
-3.3042154 2.1962748 -0.87893081
-4.974318 3.3063731 -0.99577338
-2.7089195 1.8005883 -0.362555
-2.7638266 1.8370844 -0.18536863
-2.6451871 1.758226 0
-2.6187441 1.7406497 0.17563801
-2.669028 1.7694268 -0.88349897
-3.3047512 2.1908782 -0.87836844
-4.976172 3.298943 -0.99534583
-2.7110932 1.7973137 -0.362555
-2.7595451 1.8294349 -0.18493307
-2.638633 1.7492765 0
-2.6165183 1.7346154 0.175348
-2.6795814 1.7671164 -0.88557613
-3.3057895 2.1800849 -0.87724161
-4.9819884 3.285496 -0.99491829
-2.7175858 1.7921795 -0.36284301
-2.753114 1.8156095 -0.18420751
-2.6124322 1.7228333 0
-2.6228695 1.7297164 0.175493
-2.6817145 1.7638774 -0.88557613
-3.3169129 2.1816742 -0.87949312
-4.9730825 3.2710071 -0.99234962
-2.7391958 1.8016852 -0.36543736
-2.7509682 1.8094285 -0.18391751
-2.6188648 1.7225385 0
-2.6162739 1.7208343 0.17491245
-2.671262 1.7523818 -0.88142449
-3.3216772 2.1790626 -0.88005763
-4.981328 3.2678146 -0.99320638
-2.7457001 1.8012142 -0.36601451
-2.7509818 1.8046792 -0.1837725
-2.6339965 1.7279352 0
-2.6313915 1.7262263 0.17578356
-2.6649799 1.7436585 -0.87865579
-3.3243077 2.1750474 -0.88005763
-4.9852729 3.2617934 -0.99320638
-2.750037 1.7993101 -0.36630252
-2.7575052 1.8041965 -0.18406251
-2.6469774 1.7318798 0
-2.6291223 1.7201974 0.175493
-2.6649778 1.7390622 -0.87796164
-3.3269334 2.1710289 -0.88005763
-4.9849067 3.2529588 -0.99234962
-2.756537 1.7988101 -0.36687854
-2.7640312 1.8037006 -0.1843525
-2.6381645 1.7215648 0
-2.633373 1.718438 0.17563801
-2.6828427 1.7484099 -0.88349897
-3.3175945 2.1620781 -0.87724161
-4.9868712 3.2499464 -0.99234962
-2.7576232 1.7971444 -0.36687854
-2.7629454 1.8006129 -0.18420751
-2.6457472 1.7242348 0
-5.468667 3.5639329 0.36459985
-2.6807504 1.7424351 -0.88211596
-3.3265979 2.1622233 -0.87893081
-4.9843354 3.2397201 -0.99106532
-2.7597928 1.7938111 -0.36687854
-2.7520514 1.7887794 -0.18333694
-2.6456487 1.7196198 0
-5.4816837 3.5629869 0.3651804
-2.6702189 1.731004 -0.87796164
-3.3313382 2.1595831 -0.87949312
-4.9882464 3.233695 -0.99106532
-2.7684712 1.7946973 -0.3677437
-2.7542107 1.7854527 -0.18333694
-2.6455429 1.7150074 0
-5.4859848 3.5563607 0.3651804
-2.6870582 1.7373126 -0.88280743
-3.3403485 2.1596963 -0.88118231
-4.9986191 3.2318482 -0.99234962
-2.7619498 1.7857336 -0.36659053
-2.756366 1.7821234 -0.18333694
-2.6410546 1.7075691 0
-0 0 0
-2.6680751 1.7204713 -0.87588716
-3.3429556 2.1556585 -0.88118231
-5.0046759 3.2271957 -0.99277717
-2.7728002 1.7880018 -0.3677437
-2.7563357 1.7773848 -0.18319196
-2.6474862 1.7071947 0
-5.4858279 3.5374601 0.36459985
-2.6764762 1.7213134 -0.87796164
-3.3370094 2.1461201 -0.87893081
-4.993464 3.2114303 -0.98978263
-2.7858338 1.7916441 -0.36918488
-2.7628481 1.7768614 -0.18348195
-2.6714404 1.7180746 0
-5.4769897 3.5223985 0.36372927
-2.6701074 1.7126602 -0.875193
-3.3460186 2.146203 -0.88062
-4.9994998 3.206779 -0.99021024
-2.8010635 1.796658 -0.3709152
-2.7562442 1.7679101 -0.1829014
-2.6625633 1.7078214 0
-5.4724932 3.5101664 0.36314872
-2.6616101 1.7026743 -0.87173289
-3.3571711 2.1476355 -0.88287151
-5.0055313 3.2021177 -0.99063778
-2.8032324 1.7932721 -0.3709152
-2.7605653 1.7659774 -0.18304639
-2.6558559 1.6989931 0
-2.8874152 1.8471253 0.19145751
-2.5523846 1.6284581 -0.99830359
-2.6657784 1.7008051 -0.87242436
-3.3619034 2.1449428 -0.88343388
-5.0137291 3.1988313 -0.99149454
-2.8206542 1.799618 -0.3729324
-2.7670825 1.7654384 -0.18333694
-2.6688747 1.7027804 0
-2.8677435 1.8296616 0.19000639
-2.6741834 1.7016245 -0.87450153
-3.3730676 2.1463354 -0.88568544
-5.0219178 3.1955245 -0.99234962
-2.8250067 1.7975956 -0.37322041
-2.7714038 1.7634872 -0.18348195
-2.6665347 1.6967574 0
-2.8546042 1.816429 0.18899028
-2.5542276 1.6209621 -0.99748939
-2.6635323 1.690329 -0.87034988
-3.3756585 2.1422582 -0.88568544
-5.010601 3.1798241 -0.98935348
-2.8381021 1.8011144 -0.37466273
-2.7691488 1.7573553 -0.18319196
-2.657598 1.686563 0
-2.83267 1.797667 0.18739416
-2.6698084 1.6897902 -0.87173289
-3.3846877 2.1422558 -0.88737464
-5.0252914 3.1806359 -0.99149454
-2.8490183 1.8032168 -0.3758159
-2.7646813 1.7498378 -0.18275639
-2.6706271 1.6903085 0
-2.8348401 1.794243 0.18739416
-2.5414171 1.6042304 -0.99096966
-2.6591234 1.6785308 -0.86758125
-3.3958683 2.1435895 -0.88962615
-5.0356369 3.1786683 -0.99277717
-2.8664992 1.8094335 -0.3778331
-2.771184 1.7492672 -0.18304639
-2.6770732 1.6898613 0
-2.8216226 1.7811059 0.18637805
-2.5663636 1.6156442 -0.99993509
-2.6568995 1.6726408 -0.86619556
-3.4027524 2.1421895 -0.89075083
-5.0351334 3.1698489 -0.99192208
-2.8621147 1.8018333 -0.37696794
-2.7689018 1.7431514 -0.18275639
-2.6835139 1.6893958 0
-2.8435614 1.7901531 0.18768416
-2.551568 1.6020281 -0.99341536
-2.6589186 1.6694292 -0.86619556
-3.3945808 2.1313221 -0.88793695
-5.03896 3.1637626 -0.99192208
-2.8599131 1.7956256 -0.37639192
-2.7666006 1.7370385 -0.18246584
-2.6767368 1.6806166 0
-2.858922 1.7950034 0.18855472
-2.5555947 1.6002543 -0.9942295
-2.660934 1.6662152 -0.86619556
-3.3842366 2.1191306 -0.8845607
-5.0384235 3.1549442 -0.99106532
-2.8642707 1.79354 -0.37667993
-2.764297 1.7309389 -0.18217583
-2.6831813 1.6801461 0
-2.8743069 1.7998246 0.18942584
-2.5617232 1.5997862 -0.99586099
-2.6629453 1.6629988 -0.86619556
-3.3760126 2.1083064 -0.88174468
-5.0465908 3.151576 -0.99192208
-5.3914013 3.3669088 -0.70848703
-2.7597725 1.723467 -0.18174027
-2.6962445 1.683794 0
-2.9051292 1.8142418 0.19131251
-2.5594544 1.5940738 -0.9942295
-2.6543071 1.6531497 -0.86273545
-3.3720934 2.1001997 -0.88005763
-5.0482183 3.1441202 -0.99149454
-5.3779101 3.349458 -0.70618182
-2.7596495 1.7187587 -0.18159528
-2.6916478 1.676406 0
-2.922761 1.8203475 0.19232863
-2.5625138 1.5938313 -0.99504369
-2.6702197 1.6608222 -0.86758125
-3.3647313 2.0927942 -0.87780613
-5.0544724 3.1437788 -0.99234962
-5.3733416 3.3421087 -0.70531666
-2.7628918 1.7184622 -0.18174027
-2.697084 1.6775312 0
-2.9282689 1.8213235 0.19261862
-2.5644379 1.5907339 -0.99504369
-2.6743543 1.6589156 -0.86827272
-3.3715718 2.0914032 -0.87893081
-5.056088 3.1363173 -0.99192208
-5.3729758 3.3328843 -0.70473951
-2.7517216 1.7069069 -0.18086971
-2.6747797 1.6591794 0
-2.9282615 1.8164155 0.19247362
-2.5747657 1.5928353 -0.99830359
-2.6528862 1.6411632 -0.86065829
-3.3611355 2.0793097 -0.87555456
-5.0533223 3.1261528 -0.99063778
-5.3857975 3.3318326 -0.70589268
-2.7626212 1.709049 -0.18145028
-2.7077634 1.6751121 0
-2.9326618 1.8142416 0.19261862
-2.5514467 1.5741498 -0.98852396
-2.6548674 1.6379566 -0.86065829
-3.3701265 2.0792456 -0.87724161
-5.065835 3.1254361 -0.99234962
-5.3788152 3.3185334 -0.7044515
-2.7624664 1.7043413 -0.18130472
-2.7075727 1.6704739 0
-2.9215875 1.8025132 0.19174807
-2.5554581 1.5723647 -0.98934132
-2.6653912 1.6400063 -0.86342692
-3.3769689 2.0778375 -0.87836844
-5.0586782 3.1125877 -0.99021024
-5.3651981 3.3011882 -0.70214516
-2.7623127 1.6996417 -0.18115972
-2.7184553 1.6726564 0
-2.9082696 1.7894485 0.19073196
-2.5573559 1.5692757 -0.98934132
-2.6695154 1.6381004 -0.86412108
-3.3903031 2.080399 -0.88118231
-5.0646214 3.1078143 -0.99063778
-5.3780012 3.3001142 -0.70329833
-2.7643645 1.6963028 -0.18115972
-2.729347 1.6748151 0
-2.9104297 1.7859331 0.19073196
-2.5550299 1.5636019 -0.98770982
-2.6607873 1.6283222 -0.86065829
-3.3841455 2.0709958 -0.87893081
-5.0771313 3.1070523 -0.99234962
-5.3864012 3.2963164 -0.70387548
-2.7553325 1.6861809 -0.18043415
-2.740248 1.6769497 0
-2.9103713 1.7810601 0.19058695
-2.5780187 1.5733918 -0.99586099
-2.654187 1.6198782 -0.85788965
-3.4018295 2.0761721 -0.88287151
-5.0786929 3.0995793 -0.99192208
-2.789741 1.7026081 -0.36428419
-2.7684557 1.6896175 -0.18115972
-2.7378337 1.6709286 0
-2.9191773 1.7816045 0.19102252
-2.5672462 1.5625629 -0.99096966
-2.6732867 1.6271048 -0.86342692
-3.4043357 2.0720603 -0.88287151
-5.0977859 3.1027844 -0.99491829
-2.7962193 1.7019281 -0.36486134
-2.7749388 1.6889757 -0.18145028
-2.7331793 1.6635586 0
-2.919102 1.7767211 0.19087695
-2.5649107 1.5568973 -0.98934132
-2.6645298 1.6173658 -0.85996675
-3.4046669 2.066628 -0.8823092
-5.0817752 3.0846305 -0.99106532
-2.7960563 1.6972022 -0.3645722
-2.7658732 1.6788813 -0.18072471
-2.7329648 1.6589057 0
-2.9168084 1.7704986 0.19058695
-2.5667901 1.5537969 -0.98934132
-2.6600416 1.6102463 -0.85788965
-3.4180279 2.0690906 -0.88512307
-5.0964851 3.0851386 -0.99320638
-2.793684 1.6911463 -0.36399618
-2.7745621 1.6795709 -0.18115972
-2.7683561 1.6758142 0
-2.910054 1.7615904 0.19000639
-2.5686657 1.5506943 -0.98934132
-2.6684306 1.610922 -0.85996675
-3.4226985 2.0662708 -0.88568544
-5.1024051 3.0803037 -0.99363393
-2.7868683 1.6824224 -0.36284301
-2.7765896 1.6762172 -0.18115972
-2.7636929 1.6684316 0
-2.9144027 1.7594146 0.19015139
-2.5430124 1.531018 -0.97874755
-2.676825 1.6115798 -0.86204392
-3.4251926 2.0621338 -0.88568544
-5.1017203 3.0714855 -0.99277717
-2.7888992 1.6790538 -0.36284301
-2.7808368 1.6741999 -0.18130472
-2.7857797 1.6771759 0
-2.9098461 1.7518698 0.18971583
-2.5554535 1.5343043 -0.98282158
-2.6680181 1.6018884 -0.85858381
-3.4342191 2.0619185 -0.88737464
-5.103229 3.0639987 -0.99234962
-2.7975805 1.6796782 -0.36370817
-2.7717211 1.6641521 -0.18057916
-2.8056455 1.6845205 0
-2.909735 1.7470162 0.18957083
-2.5445783 1.5235947 -0.97793025
-2.6634924 1.5947959 -0.85650665
-3.4432418 2.0616796 -0.88906163
-5.1135373 3.0617876 -0.99363393
-2.788506 1.6696492 -0.36226586
-2.7826474 1.6661414 -0.18115972
-2.8344731 1.6971725 0
-2.918534 1.7475049 0.19000639
-2.5485456 1.5217898 -0.97874755
-2.6697214 1.5941464 -0.85788965
-3.4544568 2.0627282 -0.8913132
-5.1128206 3.0529721 -0.99277717
-2.7883029 1.6649539 -0.36197785
-2.7868874 1.6641088 -0.18130472
-2.872273 1.7150942 0
-2.9317963 1.7506368 0.19073196
-2.5716145 1.5313525 -0.98689562
-2.6479409 1.5768036 -0.85027784
-3.4634981 2.062454 -0.89300239
-5.1120987 3.0441678 -0.99192208
-2.7880924 1.6602615 -0.36168984
-2.7822049 1.6567556 -0.18086971
-2.9011762 1.7276009 0
-2.9294486 1.7444366 0.19044195
-2.5564618 1.5181481 -0.98037589
-2.6584725 1.5787269 -0.85304648
-3.4659877 2.0582676 -0.89300239
-5.1223969 3.0419219 -0.99320638
-2.7789791 1.6502894 -0.36024866
-2.7976055 1.6613506 -0.18174027
-2.901026 1.7227665 0
-2.9449551 1.7488537 0.19131251
-2.5646763 1.5188375 -0.98282158
-2.6690128 1.580627 -0.85581517
-3.4728489 2.0566702 -0.89412922
-5.1216474 3.0331116 -0.99234962
-2.7920966 1.6535189 -0.36168984
-2.7906678 1.6526728 -0.18115972
-2.9031055 1.71926 0
-2.9470661 1.7452941 0.19131251
-2.5592093 1.5135121 -0.98037589
-2.676439 1.5828416 -0.85788965
-3.4915788 2.064914 -0.89863014
-5.116848 3.0260954 -0.99106532
-2.7930951 1.6518317 -0.36168984
-2.7983778 1.6549559 -0.18159528
-2.9220643 1.728104 0
-2.9525888 1.7461561 0.19160251
-2.5610361 1.5104187 -0.98037589
-2.6567445 1.5668645 -0.85096937
-3.4918849 2.0594041 -0.89806783
-5.1227179 3.0212183 -0.99149454
-2.7861774 1.6431999 -0.36053666
-2.8048475 1.6542109 -0.18188527
-2.9196625 1.7219253 0
-2.9614134 1.7465485 0.19203807
-2.5607309 1.5060713 -0.97956169
-2.6629648 1.5661993 -0.852355
-3.4987552 2.0577621 -0.89919466
-5.1086631 3.0046151 -0.98807079
-2.7859335 1.6385221 -0.36024866
-2.8023689 1.6481885 -0.18159528
-2.921741 1.7183962 0
-2.9545624 1.7376997 0.19145751
-2.5390952 1.4892201 -0.97059631
-2.6561992 1.5579035 -0.84958637
-3.5056183 2.0561016 -0.90031934
-5.1322165 3.0101273 -0.99192208
-2.7879112 1.6351547 -0.36024866
-2.802119 1.6434878 -0.18145028
-2.9417741 1.7253978 0
-2.9521813 1.7315018 0.1911675
-2.5472953 1.4898958 -0.97304201
-2.6537445 1.5521573 -0.84820068
-3.5015182 2.0480144 -0.89863014
-2.846972 1.6651746 -0.54985529
-2.7965765 1.6356987 -0.36111268
-2.7996128 1.6374745 -0.18115972
-2.9281294 1.7126431 0
-2.9520307 1.7266228 0.19102252
-2.5555005 1.4905539 -0.97548765
-2.657783 1.5502124 -0.84889221
-3.521549 2.0540235 -0.90313321
-2.8401122 1.6565599 -0.54814345
-2.7873819 1.6258038 -0.3596715
-2.8150609 1.6419481 -0.18203083
-2.9346972 1.7117288 0
-2.9585996 1.7256705 0.19131251
-2.5615687 1.4899479 -0.97711605
-2.6444802 1.5381738 -0.84404904
-3.5262311 2.051048 -0.90369773
-2.8376694 1.6505431 -0.54728669
-2.7982874 1.6276364 -0.36082467
-2.8192866 1.6398507 -0.18217583
-2.9435143 1.7121083 0
-2.9606824 1.7220943 0.19131251
-2.5526793 1.4806523 -0.97304201
-2.6615217 1.543785 -0.84889221
-3.5330985 2.0493331 -0.90482241
-2.8441072 1.6496917 -0.54814345
-2.7935464 1.6203645 -0.35996065
-2.8212659 1.636443 -0.18217583
-2.945581 1.7085503 0
-2.9672523 1.7211206 0.19160251
-2.5566039 1.4788032 -0.97385615
-2.6481898 1.5317787 -0.84404904
-3.5377693 2.0463336 -0.90538478
-2.8349814 1.6398236 -0.54600239
-2.7955024 1.6169879 -0.35996065
-2.8209941 1.6317331 -0.18203083
-2.9476433 1.70499 0
-2.9648354 1.7149345 0.19131251
-2.549825 1.4707731 -0.97059631
-2.6522098 1.52983 -0.84474057
-3.5490434 2.0471356 -0.90763628
-2.8347392 1.6351155 -0.54557484
-2.7952073 1.6123129 -0.3596715
-2.8229637 1.6283232 -0.18203083
-2.9429359 1.6975248 0
-2.9736602 1.7152469 0.19174807
-2.5580297 1.4713893 -0.97304201
-2.6453576 1.5216208 -0.84197193
-3.5581241 2.0466478 -0.90932548
-2.8322666 1.6291316 -0.5447197
-2.7971532 1.6089343 -0.3596715
-2.8249292 1.6249111 -0.18203083
-2.9540086 1.6991581 0
-2.9757307 1.7116526 0.19174807
-2.5683815 1.4732164 -0.97630185
-2.6602471 1.5259104 -0.84612358
-3.5738144 2.0499299 -0.91270173
-2.832 1.6244272 -0.54429048
-2.803587 1.6081296 -0.36024866
-2.8291423 1.6227881 -0.18217583
-2.9718556 1.704648 0
-2.9777966 1.7080557 0.19174807
-2.5658648 1.4676553 -0.97467035
-2.6686242 1.5264329 -0.84820068
-3.5740852 2.0443499 -0.91213936
-2.8339605 1.6210041 -0.54429048
-2.8055279 1.6047409 -0.36024866
-2.8423767 1.625818 -0.1829014
-2.9671423 1.6971831 0
-2.9640672 1.6954242 0.19073196
-2.5633466 1.4621071 -0.97304201
-2.6748292 1.5256957 -0.84958637
-3.5831764 2.0438077 -0.91382855
-2.8247702 1.6112205 -0.54215109
-2.8164518 1.6064757 -0.36140183
-2.8465939 1.6236686 -0.18304639
-2.9827504 1.7013308 0
-2.9706323 1.6944188 0.19102252
-2.5629649 1.4577879 -0.97222781
-2.6635823 1.515018 -0.84543204
-3.5922713 2.0432465 -0.91551775
-2.8356404 1.6128829 -0.54386294
-2.8093977 1.5979563 -0.36024866
-2.8621099 1.6279384 -0.18391751
-2.9893327 1.7003013 0
-2.9704123 1.6895397 0.19087695
-2.5647247 1.45469 -0.97222781
-2.6588624 1.5080841 -0.84335488
-3.6013615 2.0426617 -0.9172048
-2.8353565 1.6081901 -0.54343539
-2.8203256 1.5996648 -0.36140183
-2.8685911 1.6270404 -0.18420751
-3.0072243 1.7056721 0
-2.9724517 1.6859493 0.19087695
-2.5535684 1.4442868 -0.96733648
-2.6628726 1.5061089 -0.84404904
-3.6082547 2.0408127 -0.91833168
-2.8328331 1.6022378 -0.54258031
-2.8267548 1.5988001 -0.36197785
-2.8886487 1.6338069 -0.18536863
-3.000222 1.6969123 0
-2.9744866 1.6823564 0.19087695
-2.5531609 1.4399873 -0.96652228
-2.6668737 1.5041215 -0.84474057
-3.6129291 2.0376985 -0.91889399
-2.8302908 1.5962892 -0.54172355
-2.8264339 1.5941138 -0.36168984
-2.8996739 1.6354214 -0.18594918
-5.3777747 3.0330749 0
-2.9765172 1.6787611 0.19087695
-2.554899 1.4369012 -0.96652228
-2.668689 1.500898 -0.84474057
-3.6308932 2.0420516 -0.92283475
-2.8366966 1.5953872 -0.54258031
-2.8463933 1.6008407 -0.36399618
-5.3565955 3.012604 -0.343272
-5.3837018 3.027849 0
-2.9740181 1.6726183 0.19058695
-2.5665395 1.4414077 -0.97059631
-2.6586604 1.4931443 -0.8412804
-2.8656285 1.6093807 -0.72808635
-2.8354154 1.5924125 -0.54215109
-2.8360863 1.5927893 -0.362555
-5.3674769 3.014457 -0.34385255
-5.3787293 3.0207765 0
-2.9659657 1.6657315 0.19000639
-2.5682793 1.4383055 -0.97059631
-2.6779737 1.4997374 -0.84681773
-2.8742239 1.6096427 -0.72977555
-2.8350999 1.5877322 -0.54172355
-2.8380086 1.5893613 -0.362555
-5.3620467 3.0028906 -0.343272
-5.3732929 3.0091887 0
-2.9498391 1.6519893 0.18884528
-2.5480006 1.4188712 -0.96163404
-2.6772022 1.4908179 -0.84543204
-2.8892028 1.6088719 -0.73258942
-2.845659 1.5846242 -0.54300785
-2.8418412 1.5824983 -0.362555
-5.3670201 2.9886608 -0.34312701
-5.3509927 2.9797359 0
-2.944742 1.6397992 0.18826473
-2.5648327 1.4241868 -0.96733648
-2.6833925 1.4900202 -0.84681773
-2.8822591 1.6004457 -0.73033786
-2.8318594 1.5724601 -0.54001164
-2.8505287 1.5828265 -0.36341903
-0 0 -0
-5.3386602 2.9644232 0
-2.9535387 1.6400254 0.18870027
-2.5557425 1.4151016 -0.96326238
-2.6873837 1.4879907 -0.84750921
-2.8819702 1.5957323 -0.72977555
-2.8360009 1.5702794 -0.54043919
-2.8433881 1.5743695 -0.36226586
-5.3446765 2.9593203 -0.34124035
-5.3376889 2.9554515 0
-2.955518 1.6364554 0.18870027
-2.5509572 1.4084275 -0.96081674
-2.684783 1.4823149 -0.84612358
-2.8794432 1.5897902 -0.72864866
-2.8468854 1.5718145 -0.54215109
-2.847559 1.5721865 -0.362555
-5.3437033 2.9503508 -0.34095034
-5.3321428 2.9439681 0
-2.9574933 1.6328831 0.18870027
-2.5548286 1.4065396 -0.96163404
-2.706358 1.4899628 -0.852355
-2.8702347 1.5801839 -0.72583479
-2.8397875 1.5634212 -0.54043919
-2.8562474 1.5724833 -0.36341903
-5.3381591 2.938879 -0.34036976
-5.3425293 2.9412849 0
-2.9549072 1.6267995 0.18840972
-2.5500243 1.3998822 -0.95918834
-2.7103534 1.4878978 -0.85304648
-2.8676832 1.5742667 -0.72470796
-2.8439312 1.5612277 -0.5408684
-2.8581455 1.5690309 -0.36341903
-5.3325953 2.9274251 -0.33978921
-5.3369541 2.9298179 0
-2.9523194 1.6207294 0.18811972
-2.5582201 1.4003614 -0.96163404
-2.7275474 1.4930506 -0.85788965
-2.8740451 1.573243 -0.72583479
-2.8503149 1.5602531 -0.54172355
-2.8532393 1.561854 -0.362555
-5.3156171 2.9097517 -0.3384831
-5.3382096 2.9221187 0
-2.9314783 1.6046817 0.18666805
-2.5490568 1.3913451 -0.95755684
-2.7315578 1.4909592 -0.85858381
-2.871479 1.567332 -0.72470796
-2.854449 1.5580367 -0.54215109
-2.8596606 1.5608813 -0.36313102
-5.3259649 2.9070578 -0.33891809
-5.3348813 2.9119244 0
-2.9311364 1.5998946 0.18652305
-2.5637655 1.3953556 -0.96244824
-2.7377603 1.4900539 -0.85996675
-2.8711412 1.5626478 -0.72414559
-2.8540771 1.5533605 -0.54172355
-2.8706319 1.5623707 -0.36428419
-5.3203444 2.8956516 -0.33833754
-5.3338284 2.9029903 0
-2.9285073 1.5938698 0.18623304
-2.5437307 1.3804698 -0.95430017
-2.7395587 1.4867448 -0.85996675
-2.8752582 1.5603882 -0.72470796
-2.8559518 1.5499108 -0.54172355
-2.8725176 1.5589008 -0.36428419
-5.3261299 2.8904638 -0.3384831
-5.3304677 2.8928182 0
-2.9212956 1.5853726 0.18565249
-2.5453968 1.3773953 -0.95430017
-2.7347317 1.4798503 -0.85788965
-2.8704441 1.5532886 -0.72302091
-2.8623424 1.5489045 -0.54258031
-2.8857708 1.5615824 -0.36572537
-5.320477 2.8790796 -0.33790255
-5.3293862 2.8839004 0
-2.9186342 1.5793658 0.18536194
-2.5340042 1.3672744 -0.94940877
-2.7453492 1.4813101 -0.86065829
-2.8723187 1.5498191 -0.72302091
-2.859689 1.5430045 -0.54172355
-2.8740025 1.5507275 -0.36399618
-5.3193741 2.8701785 -0.33761197
-5.3305788 2.876224 0
-5.387877 2.9071407 0.34195974
-2.5661223 1.3806038 -0.96081674
-2.7603972 1.4851259 -0.86481255
-2.8808956 1.5499555 -0.72470796
-2.8638098 1.5407631 -0.54215109
-2.8872607 1.5533799 -0.36543736
-5.3136849 2.8588245 -0.33703142
-5.3271723 2.8660808 0
-5.3799376 2.8944693 0.34123364
-2.569973 1.3786738 -0.96163404
-2.7710328 1.4865333 -0.86758125
-2.8760557 1.5428733 -0.72302091
-2.874718 1.5421557 -0.54386294
-2.8914125 1.5511116 -0.36572537
-5.324007 2.8560882 -0.33746698
-5.3237491 2.8559499 0
-5.3765683 2.884285 0.34079865
-2.5585563 1.3685707 -0.9567427
-2.7706168 1.4820018 -0.86688972
-2.8846328 1.5429889 -0.72470796
-2.8856337 1.5435243 -0.54557484
-2.8955719 1.5488402 -0.36601451
-5.3182893 2.8447506 -0.33688644
-5.3271961 2.849515 0
-5.3846278 2.8802352 0.34108865
-2.5506623 1.3623669 -0.95348281
-2.7980578 1.4945066 -0.875193
-2.8810863 1.538854 -0.72358328
-2.8775084 1.5369428 -0.54386294
-2.907912 1.5531822 -0.36745569
-5.3108387 2.8366401 -0.33630586
-5.3220277 2.8426166 0
-5.3863668 2.8769815 0.34108865
-2.5479476 1.3569626 -0.95185447
-2.7998617 1.4911246 -0.875193
-2.878454 1.5329806 -0.7224564
-2.8816271 1.5346704 -0.54429048
-2.8983743 1.5435896 -0.36601451
-5.3188539 2.8326662 -0.33659643
-5.320869 2.8337395 0
-0 0 0
-2.5452154 1.3515623 -0.95022297
-2.8171737 1.4959778 -0.8800388
-2.8825548 1.5306965 -0.72302091
-2.8834791 1.5311874 -0.54429048
-2.9116571 1.5461504 -0.36745569
-5.3107915 2.8201406 -0.33587033
-5.3242893 2.8273082 0
-5.3680573 2.8505499 0.33949196
-2.5315626 1.3403934 -0.94452053
-2.8167641 1.4913999 -0.87934732
-2.8866458 1.5284002 -0.72358328
-2.8807943 1.5253021 -0.54343539
-5.306673 2.8097386 -0.66928148
-5.3073125 2.8100772 -0.3354353
-5.3254037 2.8196561 0
-5.3531351 2.8343391 0.3383314
-2.5484741 1.3454075 -0.95022297
-2.8407457 1.4997056 -0.8862676
-2.8884904 1.5249112 -0.72358328
-2.8894477 1.5254166 -0.5447197
-5.3146429 2.805742 -0.66985863
-5.3152952 2.8060863 -0.33572531
-5.3149939 2.805927 0
-5.3588514 2.8290808 0.33847642
-2.5632248 1.349237 -0.95511431
-2.85588 1.5032855 -0.89042193
-2.8948233 1.5237846 -0.72470796
-2.8958275 1.5243133 -0.54557484
-5.311161 2.7957027 -0.66899347
-5.3094845 2.7948203 -0.33514476
-5.3229904 2.8019297 0
-5.3507714 2.8165529 0.33775085
-2.5648532 1.3461388 -0.95511431
-2.8554666 1.4986645 -0.88972777
-2.8944147 1.519106 -0.72414559
-2.8976674 1.5208131 -0.54557484
-5.316823 2.790484 -0.66928148
-5.3082604 2.78599 -0.33485475
-5.3125415 2.7882369 0
-5.3472662 2.8064618 0.33731529
-2.5401993 1.3292871 -0.94533473
-2.8817284 1.5080093 -0.89734221
-2.9030042 1.519143 -0.72583479
-0 0 -0
-5.3133225 2.7804635 -0.66841745
-5.3024139 2.774755 -0.3342742
-5.3159065 2.7818155 0
-5.3483534 2.798795 0.3371703
-2.5418036 1.3262168 -0.94533473
-2.8902233 1.508009 -0.89941937
-2.911598 1.5191615 -0.72752398
-2.8945043 1.5102426 -0.54429048
-5.3097968 2.7704508 -0.66755229
-5.2919359 2.7611318 -0.33340308
-5.3100348 2.7705748 0
-5.3425159 2.7875226 0.33658972
-2.5390146 1.320861 -0.94370323
-2.8809087 1.4987231 -0.89595652
-2.9111707 1.5144662 -0.72695947
-2.896327 1.506744 -0.54429048
-5.3062544 2.7604506 -0.66668713
-5.3068008 2.7607348 -0.33412918
-5.3133783 2.7641566 0
-5.3389626 2.7774663 0.33615416
-2.5537772 1.3246225 -0.94859457
-2.8894007 1.4987075 -0.89803368
-2.9152606 1.5121208 -0.72752398
-2.9027073 1.5056095 -0.54514724
-5.309586 2.7540371 -0.66668713
-5.298593 2.7483351 -0.33340308
-5.3167148 2.7577345 0
-5.3469324 2.7734082 0.33644474
-2.5553758 1.3215357 -0.94859457
-2.8912094 1.4952152 -0.89803368
-2.9170856 1.5085971 -0.72752398
-2.9159231 1.5079961 -0.54728669
-5.3037205 2.742867 -0.66553396
-5.304225 2.7431278 -0.33354864
-5.322361 2.7525072 0
-5.3387327 2.7609739 0.33571863
-2.543786 1.3116486 -0.94370323
-2.8997056 1.495171 -0.90011084
-2.9143853 1.5027401 -0.72639716
-2.9154637 1.5032963 -0.54685915
-5.3001409 2.7329037 -0.66466993
-5.2959814 2.7307591 -0.33282253
-5.3187418 2.7424948 0
-5.3374505 2.7521417 0.33542863
-2.5299885 1.3006668 -0.93800086
-2.9059682 1.493958 -0.90149385
-2.9207227 1.5015433 -0.72752398
-2.9241295 1.5032947 -0.54814345
-5.3103333 2.730042 -0.66553396
-5.3015947 2.7255495 -0.33296809
-5.3081598 2.7289245 0
-5.3384633 2.7445035 0.33528361
-2.535953 1.2998616 -0.9396292
-2.9100101 1.4915932 -0.902188
-2.9225349 1.4980131 -0.72752398
-2.9236526 1.4985861 -0.54771423
-5.3067293 2.7200873 -0.66466993
-5.3002548 2.7167687 -0.33267751
-5.304512 2.7189507 0
-5.334836 2.734494 0.33484805
-2.5309255 1.2934254 -0.93718666
-2.9185059 1.4914976 -0.90426248
-2.9243429 1.4944807 -0.72752398
-2.9414644 1.5032307 -0.55071044
-5.29849 2.7077847 -0.66322762
-5.312789 2.7150922 -0.33325809
-5.3101087 2.7137225 0
-5.3381362 2.7280459 0.33484805
-2.5589046 1.303827 -0.94696307
-2.9136064 1.4845566 -0.902188
-2.9329319 1.4944035 -0.72921103
-2.9295595 1.4926851 -0.54814345
-0 0 -0
-5.3021789 2.7015951 -0.33238751
-5.2994752 2.7002175 0
-5.3275328 2.7145135 0.33397695
-2.5428581 1.2917831 -0.9404465
-2.9086857 1.4776251 -0.90011084
-2.9324722 1.4897088 -0.72864866
-5.247385 2.6656945 -0.98122329
-5.2819629 2.6832602 -0.66034526
-5.2938581 2.6893032 -0.33166197
-5.3073702 2.6961672 0
-5.3331323 2.7092545 0.33412251
-2.5612636 1.2991869 -0.94696307
-2.911813 1.4770013 -0.90080231
-2.942436 1.4925346 -0.73090023
-5.2489944 2.662524 -0.98122329
-5.2743559 2.6753883 -0.65919209
-5.2977972 2.6872787 -0.33180696
-5.2997141 2.688251 0
-5.3301291 2.7036788 0.33383194
-2.5429833 1.2860534 -0.9396292
-2.9113591 1.4723508 -0.90011084
-2.9442372 1.4889781 -0.73090023
-5.2453332 2.6527028 -0.97993898
-5.2706585 2.6655104 -0.65832692
-5.2894487 2.6750131 -0.33108142
-5.295989 2.6783209 0
-5.3287587 2.6948934 0.33354196
-2.5643957 1.2929937 -0.94696307
-2.915374 1.4699603 -0.90080231
-2.9415009 1.4831338 -0.72977555
-5.2485347 2.646363 -0.97993898
-5.2761912 2.6603079 -0.65861607
-5.2880321 2.6662779 -0.33079085
-5.2876043 2.6660624 0
-5.3227305 2.6837733 0.33296138
-2.5549169 1.2843447 -0.94288903
-2.9081821 1.4619294 -0.89803368
-2.9637203 1.4898484 -0.73484093
-5.2494373 2.6388674 -0.97951144
-5.2632232 2.6457977 -0.65659773
-5.2935691 2.6610525 -0.33093584
-5.3024459 2.6655147 0
-5.3236499 2.6761737 0.33281639
-2.5277438 1.2668612 -0.93229526
-2.9211586 1.4640337 -0.90149385
-2.9609709 1.4839871 -0.7337141
-5.2526217 2.6325226 -0.97951144
-5.2641063 2.6382782 -0.65630972
-5.2805262 2.6465077 -0.32992029
-5.2940316 2.6532764 0
-5.3268795 2.6697392 0.33281639
-2.5469604 1.272644 -0.938815
-2.9184413 1.4582624 -0.90011084
-2.9650326 1.4815428 -0.73427641
-5.2420254 2.6192915 -0.97694445
-5.2696018 2.6330707 -0.65659773
-5.28372 2.6401253 -0.32992029
-5.2972341 2.6468778 0
-5.3208036 2.6586549 0.33223584
-2.524159 1.2574416 -0.92984962
-2.92694 1.458092 -0.902188
-2.9781988 1.4836273 -0.73709249
-5.2451863 2.6129556 -0.97694445
-5.2635188 2.6220884 -0.65544456
-5.2799268 2.6302619 -0.32948473
-5.2981009 2.6393158 0
-5.3240123 2.6522238 0.33223584
-2.547817 1.2653869 -0.93800086
-2.9129691 1.4467417 -0.89734221
-2.993639 1.4868069 -0.74046874
-5.2368374 2.6009033 -0.97480339
-5.2597318 2.6122739 -0.6545794
-5.2854261 2.625035 -0.32962972
-5.2733159 2.6190207 0
-5.3179045 2.6411655 0.33165526
-2.5515571 1.2634032 -0.938815
-2.9124689 1.4421088 -0.89665067
-2.977217 1.4741687 -0.73596561
-5.2376781 2.5934358 -0.97437584
-5.2698402 2.6093609 -0.65544456
-5.2839413 2.616343 -0.32933974
-5.2998037 2.6241972 0
-5.3164301 2.6324298 0.33136472
-2.5287006 1.2482835 -0.92984962
-2.9164567 1.439698 -0.89734221
-3.0040607 1.4829433 -0.74215794
-5.2293005 2.5814247 -0.97223639
-5.261395 2.5972679 -0.65400338
-5.2754507 2.6042066 -0.32861418
-5.2796297 2.6062694 0
-5.3126235 2.6225567 0.33092973
-2.5457323 1.2528678 -0.93555516
-2.9069417 1.4306351 -0.89388204
-3.0058503 1.4793124 -0.74215794
-5.2393279 2.5785058 -0.9735207
-5.2575655 2.5874813 -0.65313822
-5.2762556 2.5966794 -0.32846862
-5.2781096 2.5975919 0
-5.2994666 2.6081028 0.32991359
-2.5539031 1.2530581 -0.93800086
-2.9176774 1.4315418 -0.89665067
-2.9985111 1.4712025 -0.73990637
-5.251658 2.5766962 -0.9752326
-5.2606878 2.5811267 -0.65313822
-5.2723975 2.5868719 -0.32803363
-5.2742329 2.5877724 0
-5.2769513 2.5891061 0.32831693
-2.5665143 1.2554003 -0.94207489
-2.9261594 1.4313192 -0.89872521
-2.9706166 1.4530653 -0.73258942
-5.2639918 2.5748606 -0.97694445
-5.263803 2.5747683 -0.65313822
-5.2731786 2.5793543 -0.32788807
-5.2656689 2.575681 0
-5.2240648 2.5553305 0.32483414
-2.5302653 1.2338827 -0.92822123
-2.9233811 1.4255853 -0.89734221
-3.8835638 1.8938179 -0.95716798
-5.2601748 2.5651217 -0.97566015
-5.2529659 2.5616062 -0.65140903
-5.2762914 2.5729809 -0.32788807
-5.2383699 2.5544887 0
-5.1851039 2.5285134 0.32222134
-2.5473166 1.23839 -0.93392676
-2.9115682 1.4154726 -0.89319056
-3.8584273 1.8757927 -0.95041341
-5.2563419 2.5553956 -0.97437584
-5.2514005 2.5529931 -0.65083188
-5.2583666 2.5563798 -0.32658195
-5.1993184 2.5276732 0
-5.1788077 2.5177019 0.32164079
-2.5932853 1.2568662 -0.95022297
-2.9155319 1.4130467 -0.89388204
-3.869837 1.875562 -0.95266491
-5.2548103 2.5468054 -0.9735207
-5.261466 2.5500312 -0.65169704
-5.2310557 2.5352926 -0.32469526
-5.1812935 2.5111747 0
-5.1748381 2.5080459 0.32120579
-2.5903556 1.2515833 -0.94859457
-2.9149804 1.4084325 -0.89319056
-3.8583777 1.8642542 -0.94928867
-5.2555656 2.5393341 -0.97309154
-5.250566 2.5369184 -0.64996672
-5.2060394 2.5154045 -0.32295358
-5.1773009 2.5015187 0
-5.1778646 2.5017912 0.32120579
-2.5495555 1.2280724 -0.93310946
-2.9144132 1.4038174 -0.89249641
-3.8629146 1.8606924 -0.94985104
-5.2586303 2.5329819 -0.97309154
-5.2419782 2.524961 -0.64852554
-5.1809916 2.495585 -0.32121247
-5.177968 2.4941287 0
-5.1738586 2.4921491 0.32077023
-2.5458465 1.2243915 -0.93148112
-2.9107435 1.3998837 -0.8911134
-3.864038 1.8583583 -0.94985104
-5.255537 2.5275815 -0.97223639
-5.2038794 2.5027373 -0.64362484
-5.1778107 2.4901998 -0.32092193
-5.1771312 2.4898729 0
-5.1706843 2.4867725 0.32048023
-2.5762949 1.2352045 -0.94207489
-2.9146929 1.3974493 -0.89180487
-3.8708587 1.8558828 -0.95097572
-5.2539625 2.5190117 -0.97138131
-5.1789122 2.4830291 -0.64016533
-5.1737843 2.4805706 -0.32048637
-5.1707487 2.479115 0
-5.1689949 2.4782741 0.32018968
-2.5376503 1.2129073 -0.92740709
-2.9118567 1.3917648 -0.89042193
-3.8685176 1.8490149 -0.94985104
-5.2338367 2.5015893 -0.9671008
-5.1562457 2.4645035 -0.63699496
-5.1720934 2.4720783 -0.32019636
-5.1737404 2.4728653 0
-5.1719856 2.4720266 0.32018968
-2.5502682 1.2151549 -0.93148112
-2.9293833 1.3957962 -0.89526504
-3.8684573 1.8432473 -0.94928867
-5.2021003 2.4787033 -0.96068251
-5.1522126 2.4549327 -0.6361298
-5.1727333 2.4647102 -0.32005137
-5.1743774 2.4654939 0
-5.1679292 2.4624212 0.31975412
-2.5383437 1.2057118 -0.92659289
-2.9220033 1.3879499 -0.89249641
-3.8775606 1.8418391 -0.95097572
-0 0 -0
-5.143496 2.4431577 -0.63468862
-5.168664 2.4551125 -0.31961581
-5.1679497 2.4547732 0
-5.1685557 2.4550612 0.31960911
-2.5330949 1.1994696 -0.92414719
-2.9191477 1.382273 -0.8911134
-3.866009 1.8306301 -0.94759947
-5.1361499 2.4320664 -0.94741511
-5.1464443 2.4369409 -0.63468862
-5.1763191 2.4510875 -0.31990582
-5.1662126 2.4463017 0
-5.1715183 2.4488142 0.31960911
-2.5434828 1.2006282 -0.92740709
-2.9389656 1.3873122 -0.89665067
-3.8797047 1.8313797 -0.95041341
-5.1367655 2.4247639 -0.94698757
-5.1423659 2.4274075 -0.63382345
-5.1628351 2.4370699 -0.31889024
-5.1715159 2.4411674 0
-5.1697783 2.4403474 0.3193191
-2.56058 1.2049174 -0.93310946
-2.9519875 1.3890998 -0.90011084
-3.877321 1.8245288 -0.94928867
-5.1373711 2.4174633 -0.94656003
-5.1452951 2.4211922 -0.63382345
-5.1610694 2.4286149 -0.3185997
-5.1673951 2.4315915 0
-5.1656675 2.4307787 0.31888357
-2.5597985 1.200774 -0.93229526
-2.9309552 1.3748796 -0.89319056
-3.8818209 1.8209205 -0.94985104
-5.1426101 2.4123433 -0.94698757
-5.143538 2.4127784 -0.63324744
-5.164 2.4223769 -0.3185997
-5.1656213 2.4231374 0
-5.168601 2.4245353 0.31888357
-2.5769219 1.2050097 -0.93800086
-2.9348848 1.3723989 -0.89388204
-3.8909256 1.8194587 -0.95154023
-5.13622 2.401778 -0.94527572
-5.1464496 2.4065619 -0.63324744
-5.1598687 2.4128366 -0.31816468
-5.1709008 2.4179955 0
-5.1785908 2.4215913 0.3193191
-2.5134132 1.171613 -0.91436762
-2.9388125 1.3699105 -0.89457357
-3.8792989 1.8083128 -0.94816184
-5.1321359 2.3923154 -0.94399142
-5.1423187 2.3970621 -0.63238227
-5.1604185 2.4054992 -0.31801912
-5.1643834 2.4073474 0
-5.1532512 2.4021583 0.31757745
-2.5484507 1.1841993 -0.92659289
-2.9313653 1.3621297 -0.89180487
-3.888396 1.8068373 -0.94985104
-5.1350226 2.3861125 -0.94399142
-5.1381721 2.3875761 -0.63151711
-5.1562586 2.3959804 -0.31758413
-5.1696463 2.4022012 0
-5.1608582 2.3981175 0.31786743
-2.5176437 1.1624944 -0.91436762
-2.9369237 1.3560925 -0.89249641
-3.9019785 1.8016959 -0.9521026
-5.1361175 2.371546 -0.94313627
-5.1415811 2.3740687 -0.6312291
-5.1620336 2.3835125 -0.31758413
-5.1588945 2.3820632 0
-5.1619248 2.3834624 0.31757745
-2.5302703 1.1646175 -0.91844165
-2.9385602 1.3525428 -0.89249641
-3.8926141 1.791669 -0.94928867
-5.1366491 2.3642659 -0.94270873
-5.1373949 2.3646092 -0.63036394
-5.153101 2.3718383 -0.31685802
-5.166502 2.3780062 0
-5.1600757 2.3750484 0.31728688
-2.5429058 1.1667118 -0.92251569
-2.9401925 1.3489912 -0.89249641
-3.8901529 1.784843 -0.94816184
-5.1301694 2.3537755 -0.94099689
-5.1426063 2.3594816 -0.63065308
-5.1559629 2.3656099 -0.31685802
-5.1575465 2.3663366 0
-5.1605821 2.3677292 0.31714189
-2.5443137 1.1636384 -0.92251569
-2.9418201 1.3454375 -0.89249641
-3.8969326 1.7822568 -0.94928867
-5.1306777 2.3465085 -0.94056928
-5.1336856 2.3478842 -0.62921077
-5.1517353 2.3561392 -0.31642303
-5.1580377 2.3590217 0
-5.1610785 2.3604124 0.31699687
-2.5569689 1.1656924 -0.92659289
-2.9388826 1.3398025 -0.8911134
-3.894455 1.7754368 -0.94816184
-5.1311665 2.3392394 -0.94014013
-5.1412301 2.3438272 -0.62978792
-5.1522074 2.3488317 -0.31627744
-5.1608844 2.3527873 0
-5.1733842 2.3584859 0.31757745
-2.5689182 1.169266 -0.93066692
-2.9556687 1.3452989 -0.89595652
-3.9070876 1.7783457 -0.95097572
-5.1302447 2.3350766 -0.93971252
-5.130877 2.3353643 -0.62834674
-5.1512628 2.3446431 -0.31613246
-5.1575632 2.3475106 0
-5.1724453 2.3542845 0.31743243
-2.5343168 1.1498222 -0.91762745
-2.9435885 1.3355093 -0.89180487
-3.9046102 1.7715259 -0.94985104
-5.1237116 2.3246334 -0.93800068
-5.1336951 2.3291631 -0.62834674
-5.149364 2.336272 -0.31584245
-5.1556602 2.3391285 0
-5.1918435 2.355545 0.31844801
-2.5672281 1.1610156 -0.92903543
-2.9474838 1.3329843 -0.89249641
-3.8998003 1.7636645 -0.94816184
-5.1218433 2.3163271 -0.93714559
-5.1317878 2.3208246 -0.62776959
-5.1545486 2.3311179 -0.31598747
-5.1750751 2.3404009 0
-5.2017913 2.3524833 0.31888357
-2.5370879 1.1436944 -0.91762745
-2.9262254 1.3191137 -0.88557613
-3.9158313 1.7652184 -0.95154023
-5.1176152 2.3069708 -0.93586123
-5.1345882 2.3146222 -0.62776959
-5.1526284 2.3227544 -0.31569746
-5.175529 2.3330777 0
-5.2164721 2.3515344 0.31960911
-2.5317025 1.1375879 -0.91518182
-2.9506965 1.3258575 -0.89249641
-3.915637 1.7594411 -0.95097572
-5.120399 2.3007855 -0.93586123
-5.1303105 2.305239 -0.62690556
-5.1506863 2.3143945 -0.31540689
-5.1902113 2.3321548 0
-5.2240543 2.3473616 0.31989968
-2.5466137 1.1405917 -0.92007315
-2.9614549 1.3263931 -0.89526504
-3.9177601 1.7547086 -0.95097572
-5.1184855 2.2924962 -0.93500447
-5.1307249 2.2979782 -0.62661642
-5.1629648 2.3124177 -0.31598747
-5.2001534 2.3290739 0
-5.2434802 2.3484795 0.32091522
-2.5502448 1.1385205 -0.92088735
-2.9447286 1.3146322 -0.88972777
-3.9175596 1.7489387 -0.95041341
-5.1259441 2.2884047 -0.93586123
-5.1264191 2.2886169 -0.62575239
-5.1823664 2.3135936 -0.31700358
-5.2172174 2.3291523 0
-5.2486844 2.3432004 0.32106024
-2.5764515 1.1464884 -0.92984962
-2.9646516 1.3192326 -0.89526504
-3.9243174 1.7462717 -0.95154023
-5.1263623 2.2811668 -0.93543369
-5.1362634 2.2855725 -0.62661642
-5.18753 2.3083856 -0.31714857
-5.2271638 2.3260219 0
-5.2562647 2.3389716 0.32135078
-2.534914 1.1243373 -0.91436762
-2.947897 1.307512 -0.88972777
-3.9310653 1.7435871 -0.95266491
-5.1291151 2.2749708 -0.93543369
-5.1461163 2.2825117 -0.62748158
-5.1974435 2.3052773 -0.31758413
-5.2299705 2.3197043 0
-5.2590871 2.3326187 0.32135078
-2.5385289 1.1222719 -0.91518182
-2.9586527 1.3080068 -0.89249641
-3.9308476 1.7378095 -0.9521026
-5.1412516 2.2729235 -0.93714559
-5.1512341 2.2773368 -0.62776959
-5.2097316 2.3031981 -0.31816468
-5.2565675 2.3239043 0
-5.2666502 2.3283617 0.32164079
-2.5557177 1.1261812 -0.92088735
-2.9303885 1.2912806 -0.88349897
-3.9306216 1.732035 -0.95154023
-5.1369448 2.2636032 -0.93586123
-5.1658139 2.2763247 -0.62921077
-5.2243977 2.3021395 -0.31889024
-5.2617602 2.3186033 0
-5.2575731 2.3167584 0.32091522
-2.5412338 1.116134 -0.91518182
-2.9457328 1.2937939 -0.88765323
-3.9234059 1.7231972 -0.94928867
-5.1514254 2.2625551 -0.93800068
-5.1709356 2.2711241 -0.62949991
-5.2295523 2.296869 -0.31903526
-5.2621679 2.3111944 0
-5.2627454 2.3114479 0.32106024
-2.5516372 1.1170274 -0.91844165
-2.9312043 1.2831901 -0.88280743
-3.930136 1.7204913 -0.95041341
-5.1588635 2.2583899 -0.93885744
-5.1949983 2.2742088 -0.63209426
-5.2299457 2.2895076 -0.31889024
-5.2744932 2.3090091 0
-5.2631564 2.3040462 0.32091522
-2.5393972 1.1080146 -0.91355342
-2.9396532 1.2826582 -0.8848846
-3.9298854 1.7147261 -0.94985104
-5.1757011 2.2583125 -0.94142443
-5.1977425 2.2679298 -0.63209426
-5.2255611 2.2800679 -0.31845468
-5.2653551 2.2974312 0
-5.2659364 2.2976849 0.32091522
-2.5339324 1.1019874 -0.91110778
-2.941201 1.2791053 -0.8848846
-3.9342823 1.7109886 -0.95041341
-5.1737223 2.2500114 -0.94056928
-5.2028489 2.2626784 -0.63238227
-5.2259316 2.272717 -0.31830969
-5.2633586 2.2889936 0
-5.2520356 2.2840693 0.31989968
-2.539793 1.1008888 -0.91273612
-2.9427443 1.2755505 -0.8848846
-3.9410141 1.7082566 -0.95154023
-5.1834965 2.2468183 -0.94185197
-5.21033 2.2584493 -0.63295943
-5.2239013 2.2643321 -0.31801912
-5.2589545 2.279526 0
-5.2595553 2.2797863 0.32018968
-2.5252457 1.0909605 -0.90703374
-2.9442835 1.2719939 -0.8848846
-3.9407358 1.7024828 -0.95097572
-5.2003512 2.2466638 -0.94442058
-5.1964321 2.2449706 -0.63094109
-5.2218671 2.2559593 -0.31772915
-5.2569318 2.2711077 0
-5.2575402 2.2713706 0.31989968
-2.5288298 1.0888849 -0.90784788
-2.9250822 1.2595067 -0.87865579
-3.9474621 1.6997317 -0.9521026
-5.1959867 2.2373319 -0.94313627
-5.2038875 2.2407339 -0.63151711
-5.2222052 2.2486212 -0.31758413
-5.2572746 2.2637219 0
-5.2507343 2.2609055 0.3193191
-2.5226729 1.0844277 -0.90540224
-2.946584 1.2666554 -0.8848846
-3.9321456 1.6903212 -0.94816184
-5.1996937 2.2352052 -0.94356382
-5.1957355 2.2335036 -0.63036394
-5.2068496 2.2382815 -0.31656802
-5.2538643 2.2584915 0
-5.2473202 2.2556787 0.31902856
-2.551244 1.0930592 -0.91518182
-2.9365845 1.258155 -0.88142449
-3.9482031 1.6915746 -0.95154023
-5.2000332 2.2279108 -0.94313627
-5.2031898 2.2292631 -0.63094109
-5.214323 2.2340331 -0.31685802
-5.2541995 2.2511177 0
-5.2476559 2.2483141 0.31888357
-2.5184736 1.0754192 -0.90295964
-2.9496365 1.2595309 -0.8848846
-3.9549131 1.6887964 -0.95266491
-5.1979952 2.2196076 -0.94227952
-5.2011175 2.2209411 -0.63036394
-5.2146311 2.2267115 -0.31671301
-5.2545152 2.2437425 0
-5.2551432 2.2440107 0.31917354
-2.5220432 1.0733422 -0.90377384
-2.9534624 1.2569474 -0.88557613
-3.9569509 1.6840165 -0.95266491
-5.193594 2.2103124 -0.94099689
-5.2014198 2.2136431 -0.63007593
-5.2149291 2.2193923 -0.31656802
-5.2524376 2.2353556 0
-5.2458987 2.2325726 0.31844801
-2.51651 1.0673977 -0.90132815
-2.96191 1.2563177 -0.88765323
-3.9566457 1.6782428 -0.9521026
-5.1915298 2.2020288 -0.94014013
-5.1993332 2.2053385 -0.62949991
-5.2199969 2.2141032 -0.31671301
-5.2479448 2.2259576 0
-5.2509823 2.227246 0.318593
-2.5564971 1.0807157 -0.91518182
-2.9495568 1.2468749 -0.88349897
-3.9610088 1.6744492 -0.95266491
-5.1894622 2.1937571 -0.93928498
-5.2067542 2.2010667 -0.63007593
-5.217886 2.2057726 -0.31642303
-5.2482362 2.2186027 0
-5.2440963 2.2168524 0.31801245
-2.5646365 1.0805056 -0.91762745
-2.9533708 1.2442832 -0.88419044
-3.9583507 1.6676906 -0.95154023
-5.196836 2.1894763 -0.94014013
-5.1974945 2.1897538 -0.62863475
-5.2133617 2.1964388 -0.31598747
-5.2461119 2.2102365 0
-5.2419863 2.2084987 0.31772244
-2.5522625 1.0716629 -0.91273612
-2.9664445 1.2455728 -0.88765323
-3.9673843 1.6658548 -0.95322728
-5.1852808 2.1772344 -0.93757313
-5.1929798 2.1804669 -0.62776959
-5.2136183 2.1891327 -0.31584245
-5.2511849 2.2049065 0
-5.2422576 2.201158 0.31757745
-2.5239174 1.0561757 -0.90214235
-2.9563692 1.2371424 -0.88419044
-3.9670525 1.6600798 -0.95266491
-5.1973805 2.1749313 -0.93928498
-5.1908431 2.1721957 -0.62719357
-5.2114606 2.1808233 -0.31555191
-5.2394361 2.1925302 0
-5.2449136 2.1948223 0.31757745
-2.5594115 1.0673965 -0.91436762
-2.9601841 1.2345377 -0.8848846
-3.9737504 1.6572431 -0.9537918
-5.1834173 2.161732 -0.93628883
-5.2030129 2.1699042 -0.62834674
-5.2093 2.1725264 -0.3152619
-5.2516894 2.1902046 0
-5.2331676 2.1824801 0.31670633
-2.5287514 1.0510247 -0.90295964
-2.9848356 1.2405869 -0.89180487
-3.9710526 1.6504883 -0.95266491
-5.1955075 2.1594081 -0.93800068
-5.2008495 2.1616285 -0.62776959
-5.207118 2.1642339 -0.31497133
-5.244719 2.179862 0
-5.2382073 2.1771555 0.31685188
-2.5711174 1.0649917 -0.91762745
-2.9677899 1.2292988 -0.8862676
-3.9730442 1.6456888 -0.95266491
-5.1838875 2.1472366 -0.93543369
-5.1962957 2.1523762 -0.62690556
-5.2073307 2.1569471 -0.31482634
-5.2353296 2.1685445 0
-5.2384262 2.1698272 0.31670633
