# .PCD v0.7 - Point Cloud Data file format
VERSION 0.7
FIELDS x y z
SIZE 4 4 4
TYPE F F F
COUNT 1 1 1
WIDTH 1602
HEIGHT 1
VIEWPOINT 0 0 0 1 0 0 0
POINTS 1602
DATA ascii
-10.380805 16.423252 1.0852273
-4.8314581 7.6233358 -0.5041256
-2.7344024 4.3144884 0
-10.402032 16.412889 1.0853722
-4.8462405 7.626265 -0.50470614
-2.7354302 4.3045979 0
-10.417674 16.393726 1.0849366
-4.8680172 7.6401243 -0.50601226
-2.7448211 4.3078675 0
-10.43189 16.37236 1.0843561
-4.8856359 7.6473708 -0.50688279
-2.7542288 4.3111296 0
-2.5704482 4.0234618 0.26668298
-4.8780537 7.6152053 -0.50514114
-2.7594361 4.3077984 0
-2.5837145 4.0334768 0.26755354
-4.8728371 7.5969529 -0.5041256
-2.7592251 4.3017449 0
-2.5819464 4.0253601 0.26711854
-4.9044967 7.626019 -0.50644726
-2.7658329 4.3006034 0
-2.5868082 4.0222373 0.26711854
-4.9066677 7.6091704 -0.50572169
-2.7611532 4.2819457 0
-2.5874405 4.0125551 0.26668298
-4.9130397 7.598876 -0.50543171
-2.7748005 4.2917147 0
-2.5852342 3.9985175 0.26595742
-4.9420037 7.6234555 -0.5074634
-2.8125458 4.3385882 0
-2.5858221 3.9888475 0.26552185
-4.9766984 7.6566901 -0.51007563
-2.8447297 4.3766394 0
-2.5920546 3.9878969 0.26566687
-4.9902039 7.6572042 -0.51051116
-2.8542802 4.3797421 0
-2.5968714 3.984762 0.26566687
-4.9696054 7.6054907 -0.5074634
-2.8353708 4.3392553 0
-2.6016843 3.9816213 0.26566687
-4.9531627 7.5603614 -0.50485116
-2.4555564 3.7480888 0
-2.6050708 3.9763031 0.26552185
-4.9466 7.530479 -0.50325447
-2.4529407 3.7342453 0
-2.6127238 3.9774921 0.26581186
-4.9399781 7.5006318 -0.50165832
-2.4488649 3.7182419 0
-2.6161001 3.9721642 0.26566687
-4.9332857 7.4708033 -0.50006169
-2.4232416 3.6696761 0
-2.618037 3.9646678 0.26537687
-4.9337053 7.4518414 -0.49919111
-2.4018104 3.6276813 0
-2.6228256 3.9615014 0.26537687
-4.9283319 7.4242215 -0.49773943
-2.3846061 3.5922589 0
-2.6189849 3.9453359 0.26450574
-4.9524183 7.4409781 -0.9962821
-4.9286637 7.4052868 -0.49686888
-2.3802905 3.5763717 0
-2.6194353 3.9356852 0.26407075
-4.9283838 7.3855033 -0.98965108
-4.9347205 7.394999 -0.49657834
-2.387502 3.5778267 0
-2.6270707 3.936836 0.26436076
-4.9473734 7.3945928 -0.99166942
-2.6376719 3.9423971 -0.26494801
-2.3874805 3.5684481 0
-2.6318257 3.9336588 0.26436076
-4.9707108 7.4100852 -0.99455178
-2.6453261 3.9435186 -0.26523799
-2.3888936 3.5612423 0
-2.6380229 3.9326317 0.26450574
-2.6471915 3.9360113 -0.26494801
-2.3873854 3.549715 0
-2.6456759 3.9337578 0.26479632
-4.9471602 7.3365917 -0.49425611
-2.3858528 3.5381968 0
-2.6576896 3.941328 0.26552185
-4.9691238 7.3499885 -0.49556276
-2.3915825 3.5374653 0
-2.6930108 3.9833176 0.26856965
-4.9895825 7.3706484 -0.49715889
-2.403933 3.5511076 0
-2.9386616 4.341013 0.29280642
-5.0130801 7.3861184 -0.49861056
-2.3965299 3.5309734 0
-2.9891429 4.4041114 0.29730588
-5.0278487 7.3886485 -0.49919111
-2.4007947 3.5280752 0
-2.9959226 4.4026423 0.29745087
-5.0382357 7.3847122 -0.49933612
-2.4241219 3.5531173 0
-2.9880617 4.379703 0.29614475
-5.0595636 7.39676 -0.99887645
-5.0412869 7.3700404 -0.49875557
-2.4504488 3.5824003 0
-2.9464064 4.3074589 0.2915003
-5.0684977 7.3906407 -0.99887645
-5.0516567 7.3660846 -0.49890056
-2.4694977 3.6009035 0
-2.7502837 4.0103321 0.27161744
-5.0649714 7.3664007 -0.49933612
-2.4959602 3.6300783 0
-2.6859376 3.906378 0.26479632
-5.0930395 7.3880849 -0.50122279
-2.4959176 3.6206377 0
-2.6832833 3.8924351 0.26407075
-5.1196914 7.407577 -0.50296444
-2.5091658 3.6304607 0
-2.6835511 3.8827751 0.26363519
-5.1345582 7.4099283 -0.50354505
-2.5254087 3.6445394 0
-2.6867621 3.8773961 0.2634902
-5.1464701 7.4079828 -0.50383502
-2.5209043 3.6286652 0
-2.6899583 3.8720067 0.26334465
-5.1776958 7.4337444 -0.50601226
-2.5356948 3.6405592 0
-2.6916676 3.8644931 0.26305464
-5.1896467 7.4317393 -0.50630224
-2.540092 3.6374927 0
-2.6978214 3.8633664 0.26319963
-5.2016058 7.4297247 -0.50659281
-2.5355325 3.6216333 0
-2.7024875 3.8601036 0.26319963
-5.2016196 7.4106693 -0.50572169
-2.5414004 3.6206949 0
-2.7146125 3.8674676 0.26392519
-5.1687045 7.3448863 -0.50165832
-2.5397825 3.6091082 0
-2.7252653 3.8726847 0.26450574
-5.1491127 7.2982926 -0.49890056
-2.5486441 3.6124184 0
-2.7554069 3.9054816 0.26697299
-5.1549292 7.2878265 -0.49861056
-2.548497 3.6029601 0
-2.7976358 3.9551821 0.27060133
-5.1710162 7.2732244 -0.498465
-2.5421193 3.5755842 0
-2.8448257 4.0013518 0.27422968
-5.1828198 7.2712069 -0.49875557
-2.5434139 3.5682673 0
-2.8466449 3.9936838 0.27393967
-2.8038392 3.9286058 -0.2695919
-2.5380113 3.5561404 0
-2.8399973 3.979269 0.27306855
-2.8070734 3.9231038 -0.26944691
-2.5347357 3.5424907 0
-2.8448036 3.9758344 0.27306855
-2.8118117 3.919709 -0.26944691
-2.537499 3.5373127 0
-2.8526375 3.9766209 0.27335912
-5.1255322 7.1268735 -0.49033776
-2.5387292 3.5300143 0
-2.8635089 3.9816093 0.27393967
-5.1523762 7.1459675 -0.49207944
-2.538425 3.5206091 0
-2.8698361 3.9802523 0.27408469
-5.1670957 7.1481605 -0.49265999
-2.5518277 3.5301986 0
-2.8670337 3.9662542 0.27335912
-5.1635308 7.1250792 -0.49149886
-2.5515084 3.5207884 0
-2.871824 3.9627872 0.27335912
-2.9255493 4.0266733 -0.27800971
-2.5588231 3.5219181 0
-2.8811877 3.9656148 0.27379411
-2.9288843 4.0210371 -0.27786472
-2.5600095 3.5146122 0
-2.8813922 3.9558356 0.27335912
-2.9352717 4.0195913 -0.27800971
-2.5550485 3.49891 0
-2.8907628 3.9586406 0.27379411
-2.9431992 4.0202394 -0.27830029
-2.5684953 3.5084155 0
-2.9093628 3.9740205 0.2751008
-2.9403629 4.0061998 -0.27757415
-2.5650349 3.4948211 0
-2.9710414 4.0479989 0.28047025
-2.9328816 3.9859009 -0.27641305
-2.5630863 3.4833345 0
-3.1468666 4.2767148 0.29658031
-2.9161031 3.9530833 -0.27438137
-2.5765598 3.4927969 0
-3.2060158 4.3460903 0.30165979
-2.8884327 3.9056857 -0.27133358
-2.5807784 3.489681 0
-3.2112648 4.3422136 0.30165979
-2.8544619 3.8500116 -0.26770523
-2.6175413 3.5304604 0
-3.2288899 4.3550286 0.30282089
-0 0 -0
-2.6311235 3.5398312 0
-3.2248461 4.3386073 0.30194977
-2.7690554 3.7160137 -0.25885242
-2.6322856 3.5324719 0
-3.2254329 4.3284626 0.30151477
-2.7735434 3.7126651 -0.25885242
-2.6443443 3.5397193 0
-3.2291009 4.3224745 0.30136922
-2.7717967 3.7009919 -0.25827187
-2.6470549 3.5344326 0
-3.2374396 4.3227334 0.30165979
-2.7653439 3.6830924 -0.25725573
-2.6622634 3.5458019 0
-3.2442193 4.3208942 0.30180478
-2.7619803 3.6693699 -0.2565302
-2.6681094 3.5446596 0
-3.2447484 4.3107409 0.30136922
-2.7751458 3.6822286 -0.25754631
-2.6733861 3.5472078 0
-3.2395339 4.2984061 0.30064365
-2.7748921 3.6726508 -0.25711074
-2.6698275 3.5335946 0
-3.2400246 4.2882671 0.30020809
-2.7746196 3.6630793 -0.25667518
-2.6788046 3.5365837 0
-3.2357931 4.271925 0.29933754
-2.7790437 3.659724 -0.25667518
-2.6767805 3.5250537 0
-3.2440925 4.2721472 0.29962754
-2.7897594 3.6646335 -0.25725573
-2.6857686 3.5280311 0
-3.2398114 4.2558231 0.29875699
-2.7973413 3.6653953 -0.25754631
-2.6884522 3.5227165 0
-3.2433765 4.2498417 0.298612
-2.8033454 3.6640742 -0.25769129
-2.6879611 3.5132625 0
-3.2374551 4.2314715 0.29759589
-2.8125165 3.6668718 -0.25812685
-2.6969573 3.5162091 0
-3.2362401 4.2193093 0.29701531
-2.8248632 3.673768 -0.25885242
-2.7043738 3.5170701 0
-3.2191641 4.1865611 0.29498366
-2.846746 3.6929841 -0.26044855
-2.7070341 3.5117407 0
-3.1417339 4.0756617 0.28743696
-2.8639174 3.7059901 -0.26160964
-2.7192307 3.5187614 0
-3.1307642 4.0512977 0.28598526
-3.2470813 4.1913381 -0.59096342
-2.8779445 3.7148557 -0.26248077
-2.7202957 3.5113626 0
-3.1706643 4.0926991 0.28917807
-3.2537284 4.1894526 -0.59125149
-2.8888063 3.7195845 -0.26306131
-2.7261314 3.5101266 0
-3.1867657 4.1032324 0.29019418
-0 0 -0
-2.8901029 3.7119865 -0.26277077
-2.7191775 3.4924536 0
-3.1358545 4.0276246 0.28511471
-3.2383862 4.1489625 -0.58663988
-2.8913915 3.7043991 -0.26248077
-2.7105851 3.472753 0
-3.0304091 3.8825057 0.2751008
-3.2130606 4.1062765 -0.86923975
-3.243397 4.1450462 -0.58663988
-2.8942657 3.6988583 -0.26233578
-2.6987445 3.448983 0
-2.9470325 3.7662938 0.26711854
-0 0 -0
-3.2579782 4.1533308 -0.58836907
-2.9019372 3.6994433 -0.26262575
-2.7045147 3.4477654 0
-2.9211085 3.7238829 0.26436076
-0 0 -0
-0 0 -0
-3.2837775 4.1758199 -0.59211659
-2.9224644 3.7163558 -0.26407689
-2.7006366 3.4342682 0
-2.9223964 3.7162695 0.26407075
-0 0 -0
-3.2469954 4.118794 -0.8743754
-3.2776103 4.157629 -0.59009832
-2.9896929 3.7924075 -0.26973745
-2.7047844 3.4310026 0
-2.9381409 3.7270141 0.26508629
-3.2478943 4.1148186 -0.8739478
-3.2592905 4.1292567 -0.5863508
-3.1642339 4.0088277 -0.2852664
-2.7149172 3.43958 0
-2.9822469 3.7782648 0.26885965
-3.2464924 4.102839 -0.87223595
-3.2385983 4.0928626 -0.58173811
-3.2061555 4.0518622 -0.2886042
-2.7126117 3.4281335 0
-3.183511 4.0232449 0.28656584
-3.2482536 4.0948868 -0.8713792
-3.2339001 4.0767922 -0.58000886
-3.2175086 4.0561285 -0.28918475
-2.728075 3.4391277 0
-3.2416582 4.0865726 0.29135528
-3.2372246 4.0708709 -0.86710036
-3.2388237 4.0728817 -0.58000886
-3.2288764 4.0603728 -0.28976533
-2.7225127 3.4236109 0
-3.235271 4.0684142 0.29033917
-3.237339 4.0609326 -0.86581606
-3.2534132 4.0810962 -0.58173811
-5.0542927 6.3401275 -0.4528937
-2.737999 3.4345579 0
-3.2191293 4.0380902 0.28845251
-3.2470529 4.063036 -0.86710036
-3.264801 4.0852442 -0.58289129
-3.2759917 4.099247 -0.29310367
-2.7405236 3.4292161 0
-0 0 0
-3.2583799 4.0671229 -0.8688122
-3.2956097 4.1135936 -0.58750391
-3.2793131 4.0932517 -0.29295811
-2.7414138 3.421844 0
-3.1963913 3.9897485 0.28555027
-3.2873993 4.0931993 -0.87523049
-3.3183951 4.131793 -0.59067541
-3.3086648 4.1196775 -0.29513535
-2.7569494 3.4327269 0
-3.2028353 3.9879074 0.28569528
-3.3213236 4.1252198 -0.88293475
-3.3233852 4.1277804 -0.59067541
-3.3527496 4.1642523 -0.29861867
-2.7578342 3.4253428 0
-3.2157979 3.9941525 0.28642082
-3.3456469 4.1451669 -0.88806868
-3.3202496 4.1136999 -0.58923423
-3.3855214 4.1945701 -0.30108592
-2.7652369 3.4260545 0
-3.2189913 3.9882438 0.28627583
-3.3538857 4.1451163 -0.88892543
-3.3008125 4.0795221 -0.58490956
-3.3726068 4.1682539 -0.29948923
-2.7759225 3.4308033 0
-3.2123652 3.9702091 0.28525972
-3.3508077 4.1310945 -0.88678604
-3.3008497 4.0695028 -0.58404446
-3.3399971 4.1177664 -0.29615146
-2.7718704 3.4173427 0
-3.1991529 3.9441242 0.28366303
-3.357415 4.1290321 -0.88721359
-3.3139281 4.075551 -0.58548671
-3.338413 4.1056633 -0.29557088
-2.777638 3.4160082 0
-3.1678543 3.895906 0.28047025
-3.367269 4.1309438 -0.88849789
-3.3253868 4.0795631 -0.58663988
-3.3630724 4.1257954 -0.29731256
-2.7866979 3.4187031 0
-3.1249502 3.8336687 0.27626136
-3.3381486 4.0851297 -0.879511
-3.3303139 4.075542 -0.58663988
-3.3762746 4.1317878 -0.29803813
-2.7875302 3.411299 0
-3.0490227 3.7313061 0.2691502
-3.3170545 4.0493197 -0.8726635
-3.3303173 4.0655107 -0.58577472
-3.3796132 4.125689 -0.29789257
-2.7982466 3.4159813 0
-3.0749335 3.7537489 0.27103689
-3.3268337 4.0512624 -0.8739478
-3.3417931 4.069479 -0.58692789
-3.378006 4.1135778 -0.29731256
-2.8040285 3.4146147 0
-3.0926592 3.7660959 0.27219799
-3.3545647 4.0749826 -0.87993854
-3.3730094 4.0973887 -0.59154058
-3.3978357 4.1275463 -0.29861867
-2.8246896 3.431313 0
-3.1302371 3.802479 0.2751008
-3.3823578 4.0986419 -0.88592929
-3.3664324 4.0793438 -0.58952224
-3.5235467 4.2697301 -0.30921316
-2.8453953 3.4479661 0
-3.1315184 3.7946818 0.27481022
-3.3873079 4.0945516 -0.88592929
-3.3482807 4.0473762 -0.58548671
-3.6545768 4.4176245 -0.32024321
-2.8462448 3.4405189 0
-3.069855 3.7108173 0.26900521
-3.3307722 4.0113869 -0.86923975
-3.3556108 4.0413008 -0.58548671
-3.4965899 4.2110877 -0.30572981
-3.3761418 4.0660272 0
-2.9786439 3.5873039 0.26044241
-3.2847109 3.9462016 -0.85597402
-5.1176896 6.148314 -0.89163721
-3.4052687 4.0910378 -0.29731256
-3.3927085 4.0759482 0
-2.9530509 3.5477502 0.25782961
-3.2582266 3.9047782 -0.84784222
-5.1267705 6.1441097 -0.89192522
-3.3885627 4.0609779 -0.29542533
-3.3959651 4.0698495 0
-2.942354 3.5262253 0.25652349
-3.2497659 3.8850863 -0.84441847
-5.1391706 6.1438642 -0.89279038
-3.4068046 4.0728254 -0.29658645
-5.1340137 6.1376991 0
-2.9049349 3.4728417 0.25289515
-3.25281 3.8791916 -0.84399092
-5.1449237 6.1356626 -0.89250124
-3.5035455 4.1782103 -0.30456871
-5.1364141 6.125514 0
-2.8690655 3.4215508 0.24941236
-3.2541945 3.8713322 -0.84313583
-5.1573281 6.1353831 -0.8933664
-3.6607375 4.3549733 -0.31777596
-3.3236167 3.9539199 0
-2.8481162 3.3882434 0.24723512
-3.2588699 3.8673971 -0.84313583
-5.1730695 6.1390347 -0.89480758
-3.7178984 4.4121394 -0.32227489
-3.3384571 3.9618456 0
-2.8488626 3.3808293 0.24694513
-3.2618792 3.86149 -0.84270662
-3.3429384 3.9574497 -0.57741451
-3.741673 4.429481 -0.32387155
-3.3600326 3.9776862 0
-2.8479135 3.3714275 0.24650957
-3.2665427 3.8575459 -0.84270662
-3.3527336 3.959331 -0.57827967
-3.7520616 4.4309077 -0.32430711
-3.3782909 3.9895122 0
-2.8385518 3.3521199 0.24534845
-3.2628965 3.8438127 -0.84056717
-5.2003121 6.1261597 -0.89567274
-3.7506864 4.418447 -0.32372656
-3.3949001 3.9993174 0
-2.8291473 3.33284 0.24418734
-3.2758553 3.8496406 -0.84270662
-5.1959758 6.106081 -0.89365441
-3.7391796 4.3941188 -0.32227489
-3.3980451 3.9932325 0
-2.8197007 3.3135877 0.24302623
-3.2771757 3.8417773 -0.84185153
-5.2033496 6.0997982 -0.89365441
-3.6938987 4.3302946 -0.31792098
-3.4028676 3.9891236 0
-2.8186481 3.3042531 0.24259122
-3.2868221 3.8436694 -0.84313583
-5.2157612 6.0994058 -0.89451957
-3.6518497 4.2705393 -0.31385764
-3.4059889 3.9830253 0
-2.819258 3.2968915 0.24230066
-3.2814364 3.8279974 -0.84056717
-5.2130303 6.0813203 -0.89279038
-3.6248739 4.2286386 -0.31109983
-3.410799 3.9789069 0
-2.8333831 3.3053157 0.24317122
-5.2052045 6.057364 -0.89019603
-3.6215148 4.2144036 -0.31037429
-5.2677183 6.1301117 0
-2.8661695 3.3353984 0.24563901
-5.1871972 6.0216732 -0.88587135
-3.6266043 4.2100244 -0.31037429
-3.1163833 3.617723 0
-2.8922427 3.3575242 0.24752568
-5.1758728 5.9938655 -0.88269985
-3.6384819 4.2135062 -0.31095484
-3.1190531 3.6119871 0
-2.891201 3.3481252 0.24709013
-5.164495 5.9661012 -0.87952948
-3.6554701 4.2228532 -0.31197041
-3.1268187 3.6121471 0
-2.8663349 3.3112328 0.2446229
-3.324693 3.8313692 -0.84570283
-5.1581388 5.9442286 -0.87722313
-3.6707914 4.2302122 -0.3128415
-3.1260688 3.6024752 0
-2.8430855 3.276366 0.24230066
-3.325325 3.827424 -0.84527522
-5.1498528 5.9274416 -0.8752048
-3.6852775 4.2417264 -0.31385764
-3.1333604 3.6064742 0
-2.8467669 3.2766073 0.24244566
-3.3383756 3.8330803 -0.84741467
-5.1519198 5.915369 -0.87434077
-3.7057576 4.2549038 -0.31516373
-3.149682 3.616425 0
-2.850724 3.2731652 0.24244566
-3.3396311 3.8251798 -0.84655958
-5.1471548 5.8954992 -0.87232244
-3.7194393 4.2602081 -0.3158893
-3.1574695 3.6165338 0
-2.8427193 3.256022 0.2414301
-3.3543913 3.8327284 -0.84912652
-5.1491628 5.8834348 -0.87145728
-3.7502489 4.2850356 -0.31806597
-3.1618371 3.6127157 0
-2.8398061 3.2447634 0.24084954
-0 0 -0
-5.1460366 5.8655467 -0.86972809
-3.7965517 4.3273792 -0.32154933
-3.1644852 3.6069384 0
-2.8351581 3.2315652 0.24012399
-3.3517749 3.8111157 -0.84613037
-5.142868 5.8476672 -0.86799777
-3.8395271 4.3657117 -0.32474211
-5.3274212 6.0575128 0
-2.8356254 3.224231 0.23983343
-3.3529856 3.8032155 -0.84527522
-5.1362462 5.8259277 -0.86569142
-3.8740103 4.3942022 -0.32720935
-5.3054805 6.0178862 0
-2.8429592 3.2247043 0.24012399
-3.3541753 3.7953105 -0.84441847
-5.1364374 5.8119726 -0.86453938
-3.884481 4.3953609 -0.32764491
-5.2851729 5.9802699 0
-2.8416896 3.2154238 0.23968843
-3.360466 3.7931819 -0.84484768
-5.1365957 5.798018 -0.86338621
-3.8742828 4.3731613 -0.3263388
-5.2665133 5.944665 0
-2.8524652 3.2197676 0.24026899
-3.3667498 3.7910364 -0.84527522
-5.1367278 5.7840714 -0.86223304
-3.8554113 4.3412805 -0.32430711
-0 0 0
-2.8580773 3.2182596 0.24041399
-3.3679109 3.7831271 -0.84441847
-5.1351085 5.7681956 -0.86079073
-3.8485579 4.3230309 -0.323291
-5.2670202 5.9163699 0
-2.8775122 3.2322693 0.24172011
-3.3707721 3.7771413 -0.84399092
-5.1351862 5.7542672 -0.85963756
-3.8416662 4.3048048 -0.32227489
-5.2689652 5.9041743 0
-2.8831441 3.2307267 0.2418651
-3.3736236 3.7711544 -0.84356338
-5.1386895 5.7442064 -0.85906154
-3.8399351 4.2924132 -0.32169431
-5.2813025 5.9036241 0
-2.8870459 3.2272406 0.2418651
-3.3816023 3.7708938 -0.84441847
-5.1369939 5.7283669 -0.85762036
-5.9822979 6.6709824 -0.50049722
-5.2832179 5.8914242 0
-2.8822708 3.2140791 0.24113955
-5.1369953 5.7144618 -0.85646719
-5.9920897 6.6656799 -0.50064224
-5.2938156 5.8889108 0
-2.8878877 3.2125247 0.24128455
-5.1300445 5.6928792 -0.85416085
-6.0401425 6.7028265 -0.50398004
-5.3044081 5.8863726 0
-2.8882918 3.2051759 0.24099454
-5.1317167 5.6809163 -0.85329568
-6.058691 6.7070966 -0.50485116
-5.3167524 5.8857546 0
-2.9026101 3.2132492 0.2418651
-5.1316328 5.6670427 -0.85214251
-6.0650487 6.6978464 -0.50470614
-5.3256054 5.8812532 0
-2.9187012 3.2232244 0.24288122
-5.133266 5.655098 -0.85127848
-6.0836124 6.7020535 -0.50557667
-5.3239636 5.865181 0
-2.9470408 3.2466278 0.24491289
-5.1279788 5.6424198 -0.84983617
-6.0894065 6.7002978 -0.50572169
-5.3117547 5.8446317 0
-2.9647288 3.2621515 0.24621901
-5.1295724 5.6304889 -0.84897214
-8.7450361 9.5990124 -0.72530645
-5.310051 5.8285918 0
-2.977423 3.2681763 0.24694513
-5.1276526 5.6147389 -0.84753096
-6.147635 6.7316122 -0.50920504
-5.3276167 5.8336978 0
-2.9708529 3.2530603 0.24607401
-5.1291919 5.6028142 -0.8466658
-6.1785727 6.7490931 -0.51109171
-5.3381796 5.831099 0
-2.9730284 3.2475536 0.245929
-5.1272159 5.5870857 -0.84522462
-6.1832056 6.7377896 -0.51080114
-5.3592916 5.8399773 0
-2.9804606 3.2477841 0.24621901
-5.1287079 5.5751739 -0.84435946
-6.2089381 6.7494407 -0.51225281
-5.3786798 5.8469067 0
-2.9896622 3.2499194 0.24665457
-5.1319304 5.5651665 -0.84378231
-5.2218776 5.6627069 -0.43025309
-5.3857408 5.8404031 0
-3.0023928 3.2558539 0.24738012
-5.1210976 5.5399718 -0.84089994
-5.2322474 5.660213 -0.43054363
-5.3892636 5.8300729 0
-3.0186732 3.2655823 0.24839625
-5.1225119 5.5280867 -0.84003478
-5.2567406 5.6729426 -0.43199474
-5.3963046 5.8235564 0
-3.0226169 3.2619324 0.24839625
-5.1239119 5.5162134 -0.83917075
-3.5659816 3.8390033 -0.2926681
-3.8766477 4.1734552 0
-3.0283227 3.2601798 0.24854124
-5.1235232 5.5024462 -0.83801758
-3.5741556 3.8384914 -0.29295811
-3.8781374 4.1649547 0
-3.0234079 3.2470117 0.24781568
-5.1231089 5.4886885 -0.83686441
-3.5841119 3.8398705 -0.29339367
-3.8689606 4.1450458 0
-3.027329 3.243356 0.24781568
-5.120903 5.4730525 -0.83542323
-5.3089485 5.6740298 -0.43402642
-3.8615248 4.1270709 0
-3.0312457 3.2396958 0.24781568
-5.1222024 5.4611993 -0.83455807
-5.30158 5.6524487 -0.43286529
-3.8665087 4.1224017 0
-3.0298235 3.2303431 0.24738012
-5.1199403 5.4455862 -0.83311689
-5.2870541 5.6233287 -0.43112418
-3.8750491 4.1215153 0
-3.0337245 3.2266798 0.24738012
-5.1229653 5.4356275 -0.83253974
-5.2724586 5.5942445 -0.4293825
-3.8764596 4.1130457 0
-3.0322797 3.2173443 0.24694513
-5.1206498 5.4200349 -0.83109856
-5.2453074 5.5519805 -0.42662472
-3.8796344 4.106462 0
-3.043303 3.2212334 0.24752568
-5.1183043 5.4044557 -0.82965738
-5.209137 5.5003662 -0.42314193
-3.8845932 4.1017709 0
-3.0686271 3.2401862 0.2492668
-5.1212659 5.3945117 -0.82908022
-5.1674733 5.4431849 -0.41922304
-3.8913436 4.0989671 0
-3.1387327 3.3062003 0.25463682
-5.1206479 5.380825 -0.82792705
-5.1633024 5.4256468 -0.41835248
-3.9052625 4.1036868 0
-3.1821306 3.3438129 0.25782961
-5.1146536 5.3615389 -0.82590985
-5.1770287 5.4269247 -0.41893303
-3.9263837 4.115911 0
-3.191551 3.3456078 0.25826517
-5.1089616 5.3490977 -0.82446867
-5.1551766 5.3974853 -0.41690081
-3.9468415 4.1323543 0
-3.2079296 3.3587115 0.2594263
-5.1136274 5.3410468 -0.82417953
-5.1545072 5.3837447 -0.41632023
-3.9464374 4.1219482 0
-3.2389421 3.3829885 0.2616035
-5.1147094 5.3292713 -0.8233155
-5.1484189 5.3643947 -0.41530469
-3.944207 4.1096663 0
-3.295197 3.4334304 0.26581186
-5.1139722 5.3156314 -0.82216233
-5.1566968 5.3600407 -0.41544968
-3.9401498 4.0955219 0
-3.2993433 3.4294465 0.26581186
-5.112421 5.2883806 -0.81985599
-5.1642151 5.3419571 -0.41501412
-5.2505336 5.4312468 0
-3.2660875 3.3785 0.26247406
-5.1062059 5.2691956 -0.81783766
-5.1489735 5.3133283 -0.41327301
-5.2607112 5.4286327 0
-3.2575078 3.3614872 0.26145795
-5.10536 5.2556009 -0.81668448
-5.142714 5.294054 -0.4122569
-5.2745199 5.429739 0
-3.2416563 3.3370519 0.25986183
-5.1062984 5.2438745 -0.81582046
-5.149107 5.2878366 -0.4122569
-5.2828908 5.4252248 0
-3.2420568 3.3294058 0.25957128
-5.1054044 5.2302971 -0.81466728
-5.146419 5.2723155 -0.41153133
-5.280355 5.4095273 0
-3.2170367 3.2957346 0.25724906
-5.1099062 5.2222705 -0.81437814
-5.1455169 5.2586641 -0.41095078
-5.3105474 5.4273233 0
-3.188309 3.2584181 0.25463682
-5.1035399 5.2031722 -0.81236094
-5.1482244 5.2487292 -0.41066021
-5.3590174 5.4636374 0
-3.1594956 3.2211759 0.25202459
-5.1098232 5.1970015 -0.81236094
-5.1582098 5.2462139 -0.41095078
-5.3729138 5.464581 0
-3.1415241 3.1951218 0.25028291
-5.1052017 5.1797671 -0.81063062
-5.155427 5.2307258 -0.41022521
-5.3722053 5.4506707 0
-3.1472049 3.1931722 0.2504279
-5.1060085 5.1680803 -0.80976659
-5.1507826 5.2133985 -0.40935412
-5.3531766 5.4182529 0
-3.154717 3.1930676 0.25071847
-5.0995073 5.1490412 -0.80774826
-5.1461105 5.1960974 -0.40848354
-5.3487349 5.4006896 0
-3.1549122 3.1855574 0.2504279
-5.1002564 5.1373672 -0.8068831
-5.1395688 5.1769652 -0.40746742
-5.404758 5.4440842 0
-3.1605952 3.1835923 0.25057349
-5.1028147 5.1275377 -0.80630708
-5.1384883 5.163384 -0.40688688
-5.453557 5.479979 0
-3.1607702 3.1760838 0.25028291
-5.098043 5.1103778 -0.80457675
-5.1263757 5.1387792 -0.40543577
-5.5006075 5.513916 0
-3.1572649 3.1649039 0.24970236
-5.1005597 5.1005597 -0.80400074
-5.1344166 5.1344166 -0.40558076
-5.5127883 5.5127883 0
-3.1555729 3.1555729 0.2492668
-5.0963202 5.0901661 -0.80284756
-5.1338444 5.1276445 -0.40529075
-5.5032268 5.4965811 0
-3.1427779 3.1389828 0.24810624
-5.0914702 5.0730472 -0.80111724
-5.1234646 5.1049261 -0.4039841
-5.4434953 5.423799 0
-3.1410444 3.129679 0.24767068
-5.0939307 5.0632482 -0.80054122
-5.1277881 5.0969014 -0.40383908
-5.361454 5.3291597 0
-3.1263909 3.1075597 0.24621901
-5.0963755 5.0534506 -0.7999652
-5.1265621 5.0833836 -0.40325853
-5.2440777 5.1999092 0
-3.1098526 3.0836594 0.2446229
-5.0932784 5.0381889 -0.79852289
-5.123466 5.0680504 -0.40253296
-3.822062 3.7807226 0
-3.0877168 3.0543201 0.24259122
-5.0956836 5.0284014 -0.79794687
-5.1240354 5.0563788 -0.4020974
-3.8210685 3.7706158 0
-3.0581098 3.017731 0.23997843
-5.0962243 5.0167952 -0.79708171
-5.1282916 5.0483627 -0.40195242
-3.8033659 3.7440872 0
-3.0413899 2.9939871 0.23838231
-5.0930572 5.001574 -0.79564053
-5.1269717 5.0348797 -0.40137187
-3.8116045 3.7431393 0
-3.0338781 2.9793825 0.2375112
-5.0917063 4.9881763 -0.79448736
-5.1182027 5.0141339 -0.40021074
-3.8272753 3.749455 0
-3.0356214 2.9738979 0.2373662
-5.0903306 4.9747891 -0.79333419
-5.1149673 4.9988666 -0.39948517
-3.8299434 3.7430105 0
-3.041069 2.9720423 0.2375112
-5.0833726 4.9559941 -0.79131585
-5.1154203 4.9872389 -0.39904961
-3.8214176 3.725661 0
-3.0427992 2.9665532 0.2373662
-5.0893569 4.9498482 -0.79131585
-5.11586 4.9756246 -0.39861462
-3.7830122 3.6793127 0
-3.0463815 2.9628744 0.2373662
-5.0841999 4.9328923 -0.78958666
-5.1144085 4.9622016 -0.39803407
-3.7127421 3.6022494 0
-3.0499594 2.9591913 0.2373662
-5.0864429 4.923151 -0.78901064
-5.1147976 4.9505954 -0.39759851
-3.6703432 3.5525126 0
-3.0404613 2.942852 0.23635009
-5.0849452 4.9098153 -0.78785747
-5.1151662 4.9389949 -0.39716294
-3.6596553 3.5336134 0
-3.0421474 2.9373729 0.23620509
-5.0852838 4.8982825 -0.78699231
-5.1192603 4.9310098 -0.39701796
-3.6676748 3.5328033 0
-3.0700216 2.9571276 0.23809175
-5.0874653 4.8885469 -0.78641516
-5.1177201 4.9176188 -0.39643738
-3.6794472 3.5355818 0
-3.0998273 2.9786248 0.24012399
-5.0840344 4.8734484 -0.78497398
-5.1199102 4.9078388 -0.3961474
-3.6987464 3.5455408 0
-3.1428072 3.012629 0.24317122
-5.0880518 4.8655162 -0.78468597
-5.1108131 4.8872819 -0.39498627
-3.7161889 3.5536544 0
-3.1408165 3.0034471 0.24273622
-5.0827017 4.8486562 -0.78295678
-5.1054301 4.870338 -0.39411515
-3.7261312 3.5545523 0
-3.0993195 2.9566038 0.23925288
-5.0762615 4.8366585 -0.78151447
-5.1008463 4.8600826 -0.3935346
-3.7433512 3.5666623 0
-3.0917008 2.9457703 0.23852731
-5.0727301 4.8216133 -0.78007329
-5.1010704 4.8485508 -0.39309961
-3.7552035 3.5693085 0
-3.0990212 2.9456093 0.23881732
-5.0804276 4.8172584 -0.78036129
-5.1050344 4.8405905 -0.39295405
-3.755733 3.5611837 0
-3.0969267 2.9365041 0.23838231
-5.08249 4.8075647 -0.77978528
-5.1071076 4.8308506 -0.39266405
-3.7524705 3.5494895 0
-3.0966935 2.9291852 0.23809175
-5.0751252 4.7889924 -0.77776694
-5.1072698 4.8193245 -0.39222848
-3.7529747 3.541384 0
-3.1021187 2.927223 0.23823676
-5.0771451 4.7793145 -0.77719092
-5.1036305 4.8042464 -0.39150292
-3.7534647 3.5332825 0
-3.1075509 2.9252586 0.23838231
-5.0829163 4.7731762 -0.77719092
-5.1056471 4.7945218 -0.39121294
-3.74824 3.5198317 0
-3.11866 2.9286168 0.23896287
-5.0754652 4.7546511 -0.77517259
-5.1000552 4.7776871 -0.39034182
-3.7448931 3.5081832 0
-3.1297817 2.9319522 0.23954344
-5.0736475 4.7414508 -0.77401942
-5.1001267 4.7661967 -0.38990626
-3.7472298 3.5018804 0
-3.1485028 2.9423549 0.24070399
-5.0718055 4.7282619 -0.77286625
-5.0944819 4.749403 -0.3890357
-3.7514584 3.49735 0
-3.1824656 2.9668984 0.24302623
-5.0661545 4.711565 -0.77113706
-5.0983162 4.7414761 -0.38889068
-3.7575853 3.4945853 0
-3.1955602 2.9718971 0.24375178
-5.0642591 4.6984038 -0.76998389
-5.0964222 4.7282429 -0.38831013
-3.7503617 3.4794254 0
-3.2258213 2.9927793 0.24578401
-5.0661325 4.6887641 -0.76940674
-5.0964084 4.716785 -0.38787457
-3.7507393 3.4713526 0
-3.2828245 3.0382919 0.24984735
-5.067997 4.6791334 -0.76883072
-5.1021042 4.7106233 -0.38787457
-3.7492001 3.4615269 0
-3.3762186 3.1171639 0.25666851
-5.0717468 4.6712556 -0.76854271
-5.0982375 4.6956549 -0.38714904
-3.7610371 3.4640465 0
-3.4296799 3.158855 0.26044241
-5.0697689 4.6581244 -0.76738954
-5.1000772 4.6859717 -0.38685846
-3.7556398 3.4506972 0
-3.4468827 3.1670098 0.26145795
-5.0715766 4.6484962 -0.76681238
-5.1095705 4.6833205 -0.38714904
-3.7617233 3.4479136 0
-3.458369 3.1698656 0.26203853
-5.0695543 4.6353836 -0.76565921
-5.1113863 4.6736331 -0.38685846
-3.763968 3.4416113 0
-3.4353533 3.14114 0.26000684
-5.0655985 4.6205411 -0.76421803
-5.1074328 4.6587 -0.3861329
-5.0390077 4.5962863 0
-3.3969147 3.0984657 0.25681406
-5.0673556 4.6109385 -0.76364201
-5.1130581 4.6525249 -0.3861329
-5.019536 4.5674262 0
-3.343003 3.0418987 0.25246015
-5.0652628 4.5978589 -0.76248884
-5.1032844 4.6323719 -0.3849718
-5.0231261 4.5596104 0
-3.3216658 3.0151546 0.25057349
-5.0603747 4.5878487 -0.76133567
-5.106082 4.6292877 -0.3849718
-5.0220199 4.5530753 0
-3.3100095 3.0009286 0.24955736
-5.0601578 4.5765243 -0.76047051
-5.1001124 4.6126604 -0.38410124
-5.0255895 4.54526 0
-3.3174839 3.0004094 0.24984735
-5.0599208 4.565207 -0.75960535
-5.0979652 4.5995317 -0.38352066
-5.0349388 4.5426674 0
-3.3172519 2.9929209 0.24955736
-5.0596714 4.5539041 -0.75874132
-5.0996599 4.5898952 -0.38323069
-5.0442963 4.5400658 0
-3.3073444 2.9767404 0.24854124
-5.0574722 4.540875 -0.75758815
-5.1013317 4.5802546 -0.38294011
-3.8279202 3.4369161 0
-3.3051438 2.9675391 0.24810624
-5.0610304 4.5330367 -0.75730014
-5.0971861 4.5654206 -0.38221455
-3.843698 3.442703 0
-3.3067861 2.9618046 0.24796069
-5.0626426 4.5234685 -0.75672299
-5.0968843 4.5540628 -0.38177899
-3.8420312 3.4328525 0
-3.3123057 2.9595432 0.24810624
-5.0561652 4.4957542 -0.75412863
-5.102047 4.536551 -0.38134345
-3.6616728 3.2558236 0
-3.3524575 2.9808807 0.25057349
-5.0577202 4.4862056 -0.75355148
-5.0978074 4.5217633 -0.38061789
-3.5390615 3.1391532 0
-3.3268962 2.9509621 0.24839625
-5.0573316 4.4749541 -0.75268745
-5.1013231 4.5138798 -0.3804729
-3.4999769 3.0969367 0
-3.3168354 2.934885 0.24738012
-5.0588531 4.4654136 -0.7521103
-5.1067734 4.5077128 -0.3804729
-3.5056655 3.0944259 0
-3.3009021 2.9136829 0.245929
-5.0545406 4.4507527 -0.75066912
-5.0985632 4.4895167 -0.37945676
-3.5074506 3.0884697 0
-3.3044202 2.9096923 0.245929
-5.0502005 4.4361091 -0.74922794
-5.0942249 4.4747801 -0.37873122
-3.5033588 3.0773592 0
-3.3157427 2.9125566 0.24650957
-5.0536137 4.4283009 -0.74893993
-5.0898585 4.4600606 -0.37800565
-3.5031562 3.0696902 0
-3.3348939 2.9222481 0.24767068
-5.0492182 4.4136748 -0.74749762
-5.0952439 4.4539075 -0.37800565
-3.5088277 3.0671728 0
-3.3403769 2.919925 0.24781568
-5.0506525 4.4041743 -0.7469216
-5.0908318 4.4392104 -0.37728009
-3.5046854 3.0560892 0
-3.324322 2.8988123 0.24636456
-5.0501142 4.3929739 -0.74605644
-5.092267 4.4296417 -0.37698954
-3.5103371 3.0535586 0
-3.3415401 2.9067261 0.24738012
-5.0554185 4.386869 -0.74605644
-5.0936942 4.4200826 -0.37669954
-3.5061617 3.0424922 0
-3.3411286 2.8992836 0.24709013
-5.0548544 4.3756833 -0.74519241
-5.0970688 4.4122257 -0.37655455
-3.4980254 3.0280304 0
-3.3485548 2.8986425 0.24738012
-5.0562191 4.3661885 -0.74461526
-5.1023965 4.4060636 -0.37655455
-3.5154717 3.0357096 0
-3.3559918 2.897994 0.24767068
-5.0536523 4.3533235 -0.74346209
-5.0959005 4.3897166 -0.37568343
-3.5092802 3.0229685 0
-3.3693328 2.9024148 0.24839625
-5.0530219 4.342155 -0.74259692
-5.0874109 4.3717065 -0.37466785
-3.5109584 3.0170314 0
-3.3905723 2.9135816 0.24970236
-5.0504174 4.3293195 -0.74144489
-5.0847983 4.3587914 -0.3740873
-3.5185492 3.0161712 0
-3.4295974 2.9399197 0.2523146
-5.0392771 4.3144908 -0.73942655
-5.0894027 4.3574071 -0.37423229
-5.4635792 4.6777668 0
-3.4846683 2.9834774 0.25623348
-5.0444865 4.3083982 -0.73942655
-5.0867605 4.3445039 -0.37365174
-5.4138169 4.6238365 0
-3.5317361 3.0163877 0.2594263
-5.0398464 4.2939148 -0.73798537
-5.0860705 4.3332973 -0.37321618
-5.3401675 4.5497861 0
-3.592736 3.0609863 0.26363519
-5.0410857 4.2844687 -0.73740822
-5.0814052 4.3187366 -0.37249064
-5.3139324 4.5163636 0
-3.6083078 3.0667365 0.26450574
-5.0462589 4.2783742 -0.73740822
-5.0826597 4.3092356 -0.37220064
-5.3134289 4.504889 0
-3.6377745 3.0842175 0.26639241
-5.0435252 4.2655926 -0.73625505
-5.0858731 4.3014083 -0.37205508
-5.2930379 4.4766192 0
-3.6454704 3.083179 0.26668298
-5.0387931 4.2511578 -0.73481387
-5.0851145 4.2902379 -0.37162006
-5.2586603 4.4366565 0
-3.6551533 3.0838003 0.26711854
-5.0399723 4.2417383 -0.73423785
-5.0863147 4.2807407 -0.37132952
-3.5218439 2.9640522 0
-3.6588767 3.0793815 0.26711854
-5.0431075 4.2339773 -0.73394871
-5.0835228 4.267909 -0.37074897
-3.5453584 2.9765317 0
-3.7043769 3.1100368 0.27016577
-5.0442576 4.2245626 -0.73337269
-5.0846958 4.25843 -0.37045896
-3.5489526 2.9722457 0
-3.7161005 3.112232 0.27074632
-5.0394359 4.2101746 -0.73193151
-5.0778689 4.2422838 -0.36958784
-3.5505383 2.9662819 0
-3.7258427 3.1127391 0.27118188
-5.0385566 4.1991129 -0.73106635
-5.0790029 4.232821 -0.36929783
-3.5541198 2.9619894 0
-3.6996648 3.0832863 0.26900521
-5.0376577 4.1880598 -0.73020118
-5.0801139 4.2233558 -0.36900729
-3.5637019 2.9626858 0
-3.6814065 3.0605395 0.26740855
-5.0347509 4.1753654 -0.72904801
-5.0792184 4.2122426 -0.36857229
-3.5953286 2.9816391 0
-3.7111015 3.0776508 0.26929522
-5.0378013 4.1676316 -0.72876
-5.0843043 4.2061024 -0.36857229
-3.5788722 2.9607005 0
-3.7588608 3.1096001 0.272488
-5.0388474 4.1582522 -0.72818398
-5.0833688 4.1949925 -0.36813673
-3.5663888 2.9431224 0
-3.7866652 3.1249027 0.27422968
-5.0378757 4.1472273 -0.72731882
-5.080409 4.1822414 -0.36755615
-3.5799868 2.9470794 0
-3.7844179 3.1153691 0.27379411
-5.0348873 4.1345716 -0.72616565
-5.0774264 4.1695037 -0.36697561
-3.5835452 2.9427516 0
-3.7681019 3.0943067 0.27234301
-5.0398798 4.1284847 -0.72616565
-5.0804524 4.1617203 -0.36683062
-3.5911288 2.941721 0
-3.7437003 3.0667019 0.27031133
-5.0388541 4.1174803 -0.72530049
-5.0754189 4.1473594 -0.36610505
-3.5987072 2.94067 0
-3.7534337 3.0671041 0.27074632
-5.0338035 4.1032195 -0.72385931
-5.0703502 4.1330099 -0.36537895
-3.6042809 2.9379685 0
-3.7651932 3.0691335 0.27132687
-5.0282583 4.0936456 -0.72270614
-5.0668068 4.1250291 -0.36494395
-3.6020148 2.9325011 0
-3.7630205 3.0635803 0.27103689
-5.0291891 4.0843091 -0.72213012
-5.0677495 4.1156244 -0.36465338
-3.6095998 2.9314311 0
-3.752598 3.0475628 0.27002078
-5.024066 4.0700841 -0.72068781
-5.0626254 4.1013212 -0.36392781
-3.6050506 2.9205146 0
-3.7542605 3.0413923 0.26987576
-5.0330076 4.067265 -0.72126496
-5.0695963 4.0968328 -0.36407283
-3.6146436 2.9210591 0
-3.7639978 3.041755 0.27031133
-5.0278521 4.0530658 -0.71982378
-5.0705009 4.0874457 -0.36378282
-3.6080415 2.9085243 0
-3.7636206 3.0339401 0.27002078
-5.0287104 4.0437427 -0.71924663
-5.071382 4.0780563 -0.36349225
-3.6034408 2.897639 0
-3.7267923 2.9968297 0.26711854
-5.0275459 4.0328131 -0.7183826
-5.0641484 4.0621734 -0.36262169
-3.6191239 2.9030566 0
-5.404563 4.3352351 0.38699734
-5.0283723 4.0235004 -0.71780545
-5.0609374 4.0495577 -0.36204115
-3.6226289 2.8986814 0
-5.3955932 4.3173356 0.3859812
-5.0271635 4.0125794 -0.71694028
-5.0658269 4.0434394 -0.36204115
-3.644433 2.9089122 0
-5.3886247 4.3010902 0.38511065
-5.0198717 3.9968388 -0.71521109
-5.0625772 4.0308414 -0.3614606
-3.6520133 2.9077454 0
-5.3877172 4.2897191 0.38467509
-5.0186191 3.9859431 -0.71434593
-5.0633788 4.0214925 -0.36117059
-3.6453364 2.8952391 0
-5.3603406 4.2573485 0.38235286
-5.0214067 3.9782715 -0.71405792
-5.0600872 4.0089169 -0.36059004
-4.8645425 3.8539939 0
-5.332901 4.2250571 0.3800312
-5.0160651 3.964184 -0.71261674
-5.0608463 3.9995744 -0.36029947
-4.8630681 3.8432708 0
-5.3298478 4.2121658 0.37945062
-5.0147562 3.9533148 -0.71175158
-5.0432343 3.9757655 -0.35870335
-4.8595333 3.8309472 0
-5.2655568 4.1510301 0.37451616
-4.9829364 3.9184768 -0.70656288
-4.9928842 3.9262996 -0.35478446
-4.8539319 3.8170304 0
-4.9356065 3.8812575 0.35071442
-4.9205122 3.8597748 -0.6970495
-4.9342513 3.8705521 -0.35028556
-4.8544493 3.8079534 0
-4.8401146 3.7967088 0.34360272
-4.8742495 3.8139803 -0.68984246
-4.9143677 3.845372 -0.34854388
-4.8508482 3.7956698 0
-4.8467431 3.7924573 0.34374771
-4.8686614 3.8001323 -0.68840128
-4.9210567 3.8410282 -0.34868887
-4.8533816 3.7882059 0
-4.8554225 3.789799 0.34403828
-4.867125 3.7894783 -0.68753612
-4.9113479 3.8239098 -0.34767333
-4.8456306 3.7727427 0
-4.8517971 3.777544 0.34345773
-4.8614888 3.7756636 -0.68609494
-4.8995471 3.8052218 -0.3465122
-4.8543005 3.7700808 0
-4.8522496 3.7684882 0.34316716
-4.8578687 3.7634506 -0.68494177
-4.9041414 3.7992988 -0.3465122
-4.8465042 3.7546465 0
-4.8526955 3.7594428 0.34287715
-4.8665094 3.7607441 -0.68551892
-4.9087286 3.7933702 -0.3465122
-4.8489799 3.7471979 0
-4.844902 3.7440462 0.34200659
-4.8646817 3.7546396 -0.68494177
-4.9089565 3.7888117 -0.34636664
-4.8574257 3.7490394 0
-4.8471627 3.7411184 0.34200659
-4.749712 3.656755 -0.99933523
-4.8671675 3.7471826 -0.68465376
-4.9011812 3.7733696 -0.34549609
-4.8475151 3.7320526 0
-4.8599157 3.7415996 0.34258717
-4.7561612 3.6525753 -0.99976283
-4.8655353 3.7365711 -0.6837886
-4.9119215 3.7721941 -0.34593165
-4.8458271 3.7214358 0
-4.8664918 3.7373056 0.34273216
-4.760571 3.6468258 -0.99976283
-4.8618336 3.7243979 -0.68263543
-4.9020348 3.7551937 -0.34491554
-4.8523922 3.717165 0
-4.8586235 3.7219386 0.34186104
-4.8564267 3.7016668 -0.68061823
-4.9028292 3.7370358 -0.34433496
-3.667146 2.7951729 0
-4.8262801 3.6786888 0.3389588
-4.850595 3.6879642 -0.67917591
-4.9052744 3.7295377 -0.34418997
-3.6518774 2.7765653 0
-4.826581 3.6697061 0.33866826
-4.7720032 3.6191192 -0.99847847
-4.8529887 3.6805391 -0.6788879
-4.8973589 3.7141898 -0.34331942
-3.6469352 2.7658601 0
-4.8330798 3.6654401 0.33881325
-4.7784257 3.6149037 -0.99890769
-4.8471208 3.6668718 -0.67744672
-4.9018431 3.7082696 -0.34331942
-3.6440461 2.7567396 0
-4.8312945 3.6548989 0.33837825
-4.7766409 3.6044869 -0.99762338
-4.8515482 3.6610122 -0.67744672
-4.9021678 3.6992106 -0.34302884
-0 0 0
-4.837779 3.6506224 0.33852327
-4.789197 3.604888 -0.99933523
-4.8539033 3.6535935 -0.67715871
-4.896256 3.6854727 -0.34230331
-3.6527827 2.749495 0
-4.8380308 3.6416459 0.3382327
-4.7894397 3.5960128 -0.99847847
-4.8459005 3.6384051 -0.67542839
-4.9027815 3.6811125 -0.34244829
-3.6373656 2.7310114 0
-4.827888 3.6248808 0.33721715
-4.7937808 3.5902231 -0.99847847
-4.8565059 3.6371999 -0.67629355
-4.90307 3.6720734 -0.34215829
-3.6448331 2.7297375 0
-4.834342 3.6206007 0.33736214
-4.8526087 3.6251373 -0.67514038
-4.9012566 3.6614795 -0.34172273
-3.6481287 2.7253315 0
-4.8324661 3.6100898 0.33692658
-4.802443 3.5786281 -0.99847847
-4.8507614 3.6146333 -0.67427522
-4.9035954 3.6540034 -0.34157774
-3.6514192 2.7209215 0
-4.8326616 3.6011457 0.33663657
-4.8592811 3.6118584 -0.67485237
-4.8996654 3.6418753 -0.34099719
-3.6484361 2.7118483 0
-4.8349261 3.5937552 0.33649158
-4.8172655 3.5716 -0.99976283
-4.8490958 3.5951996 -0.67283404
-4.8957129 3.6297622 -0.34041661
-3.65171 2.707438 0
-4.8392649 3.5879104 0.33649158
-4.8472037 3.5847282 -0.67197001
-4.8980079 3.6223004 -0.34027162
-3.6654391 2.7107594 0
-4.8561277 3.5913279 0.33736214
-4.8258829 3.5599482 -0.99976283
-4.8515315 3.5788689 -0.67197001
-4.8961058 3.6117504 -0.33983606
-3.6603346 2.7001488 0
-4.8604636 3.5854576 0.33736214
-4.828115 3.5525944 -0.99933523
-4.8516817 3.5699353 -0.67139286
-4.8983755 3.6042931 -0.33969107
-3.6615002 2.6941831 0
-4.8668833 3.5811207 0.33750713
-4.8282614 3.5437174 -0.99847847
-4.8476515 3.5579488 -0.67023969
-4.8943481 3.592222 -0.33911049
-3.6689532 2.6928396 0
-4.8712068 3.5752373 0.33750713
-4.8346167 3.5394015 -0.99890769
-4.8435988 3.5459774 -0.66908652
-4.8923931 3.5816991 -0.33867493
-3.6827018 2.6960895 0
-4.8713341 3.5662818 0.33721715
-4.8305354 3.5319331 -0.99762338
-4.837389 3.5369439 -0.66793334
-4.890357 3.5756724 -0.33838439
-3.6822312 2.6923296 0
-4.8734875 3.5633383 0.33721715
-4.8347998 3.5260937 -0.99762338
-4.8395715 3.5295737 -0.66764534
-4.8946738 3.5697608 -0.33838439
-3.6833727 2.6863403 0
-4.8777895 3.557447 0.33721715
-4.8266053 3.5111914 -0.99505639
-4.845922 3.5252435 -0.66793334
-4.8926859 3.5592625 -0.3379494
-3.6866162 2.6818879 0
-4.8757787 3.5469632 0.33678159
-4.8391552 3.5113873 -0.9967683
-4.8418045 3.5133095 -0.66678017
-4.8885703 3.5472438 -0.33736882
-3.7024963 2.686605 0
-4.8821621 3.5425937 0.33692658
-4.8371539 3.5010207 -0.99548393
-4.8418593 3.5044265 -0.66620415
-4.897059 3.5443785 -0.33765882
-3.7626562 2.7233238 0
-4.8780193 3.5305979 0.33634603
-4.830976 3.4876618 -0.99334455
-4.8439956 3.497061 -0.66591614
-4.8950238 3.5339003 -0.33722383
-3.7870488 2.7340119 0
-4.880177 3.5231819 0.33620101
-4.8372679 3.4833207 -0.99377209
-4.8314261 3.4791138 -0.6636098
-4.8992901 3.527983 -0.33722383
-3.7966793 2.7339919 0
-4.8865371 3.5187995 0.33634603
-4.8331332 3.471483 -0.99206024
-4.8419223 3.4777958 -0.66447383
-4.8887744 3.5114479 -0.33620772
-3.7915249 2.7233293 0
-4.9055605 3.523505 0.33736214
-4.8352394 3.4641469 -0.99163264
-4.8461213 3.4719429 -0.66447383
-4.8866744 3.5009968 -0.33577216
-3.7863505 2.7126834 0
-4.9098144 3.517575 0.33736214
-4.843595 3.4612842 -0.99248779
-4.835588 3.4555624 -0.66245663
-4.8887892 3.4935803 -0.33562717
-3.7938643 2.7111354 0
-4.9246297 3.5191925 0.33808771
-4.8477736 3.4554291 -0.99248779
-4.8439684 3.4527166 -0.66303265
-4.890893 3.4861639 -0.33548215
-3.7971375 2.7065494 0
-4.9500418 3.5283244 0.33953938
-4.8624043 3.4570048 -0.99462718
-4.8481369 3.446861 -0.66303265
-4.903573 3.4862742 -0.33606273
-3.7898016 2.6944208 0
-4.9797068 3.5404029 0.34128049
-4.8728619 3.4555833 -0.99591154
-4.8649611 3.4499805 -0.66476297
-4.9120169 3.48335 -0.33635271
-3.7739425 2.6762862 0
-5.0157766 3.5569313 0.34345773
-4.8812294 3.4526606 -0.9967683
-4.8712358 3.4455917 -0.66505098
-4.9204693 3.4804163 -0.33664328
-4.8670959 3.4426637 0
-5.0370421 3.5628722 0.34461883
-4.8832941 3.445276 -0.99633908
-4.8901834 3.4501367 -0.66706824
-4.9310346 3.4789579 -0.33707827
-4.884007 3.4457791 0
-5.0328507 3.5507915 0.34403828
-4.8874536 3.439373 -0.99633908
-4.8985834 3.4472051 -0.66764534
-4.9416118 3.4774847 -0.33751383
-4.8945541 3.4443698 0
-5.0562606 3.5581648 0.34534439
-4.9021091 3.4408376 -0.99847847
-4.90486 3.4427681 -0.66793334
-4.9543171 3.4774826 -0.33809438
-4.8944483 3.4354601 0
-5.0605559 3.5520527 0.34534439
-4.9104733 3.4378591 -0.99933523
-4.9153748 3.4412906 -0.66879851
-4.9627686 3.4744716 -0.33838439
-4.9071236 3.435514 0
-5.0648441 3.5459356 0.34534439
-4.9062047 3.4260445 -0.99762338
-4.9322491 3.444231 -0.6705277
-4.9818783 3.4788876 -0.3394005
-4.9240775 3.438525 0
-5.0712538 3.5412993 0.34548938
-4.9406557 3.4412284 -0.67110485
-4.9860783 3.4728656 -0.3394005
-4.9431796 3.4429862 0
-5.0840578 3.5411096 0.34606996
-4.9533072 3.4411588 -0.67225802
-4.998807 3.4727685 -0.33998105
-4.960156 3.4459171 0
-5.101141 3.5438621 0.34694105
-4.959631 3.4411118 -0.67283404
-5.005178 3.472713 -0.34027162
-4.9579563 3.4399498 0
-5.0990071 3.5378141 0.34665051
-4.9659104 3.4365869 -0.67312211
-5.0136395 3.4696174 -0.34056163
-4.9813757 3.4472897 0
-5.105413 3.5331278 0.3467955
-4.9679327 3.4291162 -0.67283404
-5.0221009 3.466506 -0.34085163
-4.9983845 3.4501355 0
-5.1139593 3.5299113 0.34708607
-4.976337 3.4260471 -0.67341119
-5.0305705 3.4633851 -0.34114218
-4.9939752 3.4381902 0
-5.1182208 3.5237293 0.34708607
-4.980473 3.4200318 -0.67341119
-5.0347519 3.4573042 -0.34114218
-5.0067072 3.4380465 0
-5.1289029 3.5219567 0.34752163
-4.98033 3.4110854 -0.67283404
-5.0303502 3.4453449 -0.34056163
-5.0151482 3.4349327 0
-5.1202879 3.5069439 0.34665051
-4.9801807 3.4021499 -0.67225802
-5.0302224 3.4363356 -0.34027162
-5.0192947 3.4288702 0
-5.1245213 3.5007546 0.34665051
-4.9821525 3.394675 -0.67197001
-5.0279269 3.425864 -0.33983606
-5.034194 3.4301343 0
-5.1330466 3.4974892 0.34694105
-4.9798307 3.3842895 -0.67110485
-5.032063 3.4197862 -0.33983606
-5.0447865 3.4284332 0
-5.1480126 3.4985857 0.34766662
-4.9839168 3.3782699 -0.67110485
-5.0275879 3.4078717 -0.33925551
-5.0661592 3.4340167 0
-5.1651373 3.5011077 0.34853718
-4.9751344 3.3635509 -0.66937453
-5.0252419 3.3974271 -0.33881995
-5.0703049 3.4278929 0
-8.7081394 5.8873324 0.58713418
-4.9770527 3.3560922 -0.66908652
-5.0228777 3.3869929 -0.33838439
-5.0787625 3.4246767 0
-8.7109423 5.8739033 0.58684421
-4.9746633 3.3457441 -0.66822141
-5.0205045 3.376575 -0.3379494
-5.0915351 3.4243472 0
-8.7137165 5.8604703 0.58655363
-4.9765563 3.3382914 -0.66793334
-5.024581 3.3705063 -0.3379494
-5.0848646 3.4109449 0
-8.7143154 5.8455935 0.5861181
-4.9805865 3.3322756 -0.66793334
-5.0286498 3.3644326 -0.3379494
-5.0933042 3.4076898 0
-8.7256966 5.8379521 0.58640867
-4.9760036 3.3205125 -0.66678017
-5.0219064 3.3511438 -0.33722383
-5.0974183 3.4015331 0
-8.7219391 5.8201942 0.58568311
-4.9778609 3.3130658 -0.66649216
-5.0237823 3.3436294 -0.33707827
-5.1123552 3.4025798 0
-8.7267952 5.8082075 0.58553755
-4.9732409 3.3013268 -0.66533899
-5.0234933 3.3346853 -0.33678827
-5.1077895 3.3906426 0
-8.7273188 5.7933517 0.58510256
-4.9707541 3.2910302 -0.66447383
-5.0166879 3.3214419 -0.33606273
-5.1053791 3.3801625 0
-8.7278109 5.7784972 0.58466697
-4.9684305 3.285176 -0.66389781
-5.0121894 3.3141098 -0.33562717
-5.1117578 3.3799455 0
-8.7247953 5.7689223 0.58423144
-4.9659166 3.2748971 -0.66303265
-5.0161901 3.3080511 -0.33562717
-5.1245284 3.3794975 0
-8.7230835 5.7526536 0.58365089
-4.9655523 3.2660544 -0.66245663
-5.0180144 3.300561 -0.33548215
-5.1307807 3.3747318 0
-8.7191753 5.734971 0.58292532
-4.9673266 3.2586293 -0.66216755
-5.0154791 3.2902181 -0.33504659
-5.1305065 3.3656776 0
-8.7239275 5.7230077 0.5827803
-4.9626112 3.2469659 -0.66101545
-5.0194507 3.2841554 -0.33504659
-5.1302099 3.3566234 0
-8.7221394 5.7067719 0.58219975
-4.9686947 3.2423794 -0.66130346
-5.0190673 3.2752507 -0.33475661
-5.1320844 3.3490012 0
-8.7203236 5.6905484 0.5816192
-4.9656706 3.2233226 -0.65986228
-5.0160637 3.2560339 -0.33403048
-5.1248803 3.326669 0
-8.7122593 5.655313 0.58016807
-4.9630461 3.2131019 -0.65899712
-5.0112696 3.2443221 -0.33344993
-5.1245308 3.3176482 0
-8.7147198 5.6419549 0.5798775
-4.9604039 3.2028923 -0.65813196
-5.0130053 3.2368565 -0.33330491
-5.1372814 3.3171005 0
-8.7171688 5.6286044 0.57958752
-4.9599252 3.1940982 -0.65755594
-5.0125475 3.2279859 -0.33301494
-5.1390996 3.3094831 0
-8.7195892 5.6152511 0.57929695
-4.9615989 3.1867008 -0.65726686
-5.0142517 3.2205186 -0.33286938
-5.1606045 3.3145168 0
-8.7154388 5.5976911 0.57857138
-4.9589181 3.176522 -0.65640277
-5.0093956 3.2088563 -0.33228937
-5.1580377 3.3040717 0
-8.7134438 5.5815496 0.57799083
-4.9627523 3.1705279 -0.65640277
-5.0132694 3.2028012 -0.33228937
-5.1751809 3.3062408 0
-8.7070475 5.5626264 0.5771203
-4.9578547 3.1589696 -0.6552496
-5.0171356 3.1967413 -0.33228937
-5.2713504 3.3587182 0
-8.7093754 5.5493059 0.57682973
-4.961668 3.1529768 -0.6552496
-5.0209947 3.1906767 -0.33228937
-5.3830323 3.4207401 0
-8.7007294 5.529027 0.57581419
-4.9654741 3.1469791 -0.6552496
-5.0204525 3.1818228 -0.3319988
-5.4267254 3.4393075 0
-8.7074032 5.5185099 0.57581419
-4.9692731 3.1409771 -0.6552496
-5.0111189 3.1674268 -0.33112824
-5.437479 3.4369206 0
-8.7030764 5.501039 0.57508802
-4.9599323 3.1266918 -0.65351927
-5.0105419 3.1585956 -0.3308377
-5.4438272 3.4317346 0
-8.7075214 5.4891343 0.57494307
-4.9530649 3.1181829 -0.65236616
-5.0080552 3.152802 -0.33054769
-8.2229853 5.1767483 0
-8.7020397 5.4783354 0.57436252
-4.9568291 3.1121957 -0.65236616
-5.0074558 3.1439822 -0.33025715
-5.2009878 3.2654934 0
-8.7020569 5.4636755 0.57392746
-4.958396 3.1048329 -0.65207809
-5.0002418 3.1310356 -0.32953158
-5.1762571 3.2412527 0
-8.7042437 5.4503961 0.57363695
-4.9555602 3.0947278 -0.65121299
-5.0018191 3.1236165 -0.32938659
-5.20224 3.2487783 0
-8.6976032 5.4316192 0.57276636
-4.9592962 3.0887377 -0.65121299
-5.0144124 3.1230652 -0.32996714
-5.2525501 3.2713816 0
-8.6953373 5.4156108 0.57218581
-4.9586344 3.0800164 -0.65063691
-5.0049343 3.1087751 -0.32909602
-5.3139825 3.3007379 0
-8.6908321 5.398241 0.57145971
-4.9579592 3.071301 -0.65006089
-5.008687 3.1027253 -0.32909602
-5.3334475 3.3039043 0
-8.6907282 5.383635 0.57102472
-4.9572616 3.0625865 -0.64948374
-5.0035901 3.0912082 -0.32851547
-5.3507242 3.3056672 0
-8.683959 5.364933 0.57015359
-4.95435 3.0525229 -0.64861858
-4.9984727 3.0797081 -0.32793489
-5.3724403 3.3101206 0
-8.6882248 5.3530746 0.57000858
-4.9492202 3.0411179 -0.64746547
-4.9999781 3.0723071 -0.3277899
-5.3875203 3.3104379 0
-8.6924753 5.3412137 0.56986356
-4.9506879 3.0337853 -0.6471774
-4.9992599 3.0635505 -0.3274999
-5.3848577 3.299845 0
-8.6944876 5.3279886 0.56957304
-4.9455218 3.0224061 -0.64602423
-4.9963045 3.0534413 -0.32706434
-5.3311086 3.2580535 0
-8.6898346 5.3107052 0.56884748
-4.9469638 3.0150836 -0.64573622
-5.0022068 3.048753 -0.32720935
-5.2705975 3.212332 0
-8.6607447 5.2785645 0.56652522
-4.9417624 3.0037301 -0.64458305
-4.9992323 3.0386617 -0.32677436
-5.2744751 3.2059612 0
-8.6604614 5.2640505 0.56609023
-4.947598 2.9990962 -0.64487106
-4.9940119 3.027231 -0.32619378
-5.331758 3.2319632 0
-8.6512585 5.2441521 0.56507415
-4.949007 2.9917791 -0.64458305
-4.9998875 3.0225375 -0.3263388
-5.3646102 3.2430201 0
-8.657589 5.233695 0.56507415
-5.1357484 3.0962012 -0.99976283
-4.9481926 2.9831285 -0.64400703
-4.9990811 3.013808 -0.32604823
-5.3373175 3.2177215 0
-8.6527824 5.2165236 0.56434858
-4.9451413 2.9731481 -0.64314187
-5.0027189 3.0077655 -0.32604823
-5.2899084 3.1804311 0
-8.6523962 5.2020464 0.56391299
-4.94873 2.9671707 -0.64314187
-4.9974356 2.9963737 -0.32546768
-5.244647 3.1445973 0
-8.6519871 5.1875782 0.56347746
-5.1315222 3.068346 -0.9967683
-4.9523115 2.961189 -0.64314187
-5.0032892 2.9916704 -0.32561323
-5.2261019 3.1248994 0
-8.6537933 5.1744556 0.56318742
-5.1087675 3.0463665 -0.99163264
-4.9447808 2.9485807 -0.64170069
-4.9957347 2.9789648 -0.32488713
-5.2164669 3.1105876 0
-8.6555796 5.1613364 0.56289744
-5.0819364 3.0262063 -0.9860695
-4.9376721 2.9402993 -0.64054751
-4.9863729 2.9693 -0.32416156
-5.2205791 3.1087658 0
-8.6475267 5.1494551 0.56217134
-5.0833755 3.018749 -0.98564029
-4.9456644 2.9369698 -0.64112353
-4.9988937 2.9685798 -0.32474211
-5.2243314 3.1024554 0
-8.6559839 5.1403327 0.56231689
-5.0848126 3.0112977 -0.98521274
-4.9425311 2.9270365 -0.64025843
-4.9913001 2.9559183 -0.32401657
-5.2347965 3.1001203 0
