# .PCD v0.7 - Point Cloud Data file format
VERSION 0.7
FIELDS x y z
SIZE 4 4 4
TYPE F F F
COUNT 1 1 1
WIDTH 1721
HEIGHT 1
VIEWPOINT 0 0 0 1 0 0 0
POINTS 1721
DATA ascii
-2.5892746 1.3351039 0.16272129
-2.1057673 1.0825748 -0.78071958
-2.0871723 1.0730151 -0.64748573
-2.2202272 1.1414186 -0.55303729
-2.2529473 1.15824 -0.42232683
-2.1659868 1.1135336 -0.27145901
-2.2998269 1.1823407 -0.14444125
-2.4405859 1.254705 0
-2.6001296 1.3367264 0.16330184
-2.0652897 1.0586121 -0.76523757
-2.1085584 1.0807905 -0.65371454
-2.2306495 1.1433711 -0.55528879
-2.2589185 1.1578611 -0.42318359
-2.1581237 1.1061965 -0.27030584
-2.3128223 1.1854907 -0.14516737
-2.4698918 1.2660004 0
-2.6109924 1.3383248 0.1638824
-2.1391852 1.0932271 -0.79212749
-2.0919912 1.0691087 -0.64817727
-2.2523901 1.1510804 -0.56035423
-2.2717431 1.1609706 -0.42532301
-2.1709723 1.1094719 -0.27174702
-2.3142531 1.1826953 -0.14516737
-2.4691045 1.2618319 0
-2.6172397 1.3375361 0.16417296
-2.1052775 1.0726924 -0.77909118
-2.1089222 1.0745496 -0.65302038
-2.2447236 1.1437438 -0.55810267
-2.2685652 1.1558917 -0.42446625
-2.1700091 1.1056749 -0.27145901
-2.3203065 1.1822551 -0.14545736
-2.4752696 1.2612128 0
-2.614219 1.3320111 0.1638824
-2.1197894 1.0768622 -0.78397942
-2.1504841 1.0924553 -0.66548061
-2.2597003 1.1479377 -0.56148106
-2.2676737 1.1519881 -0.42403871
-2.1782637 1.1065675 -0.27232417
-2.3171043 1.1770992 -0.14516737
-2.4721467 1.2558614 0
-2.6389976 1.3406224 0.16533408
-2.1718042 1.0999867 -0.80272442
-2.1003246 1.0637833 -0.64956027
-2.2588212 1.1440595 -0.56091875
-2.2736397 1.1515648 -0.4248938
-2.1865146 1.1074374 -0.27318823
-2.3440173 1.18721 -0.14676347
-2.5061617 1.2693337 0
-2.6568356 1.3456478 0.16634963
-2.1466565 1.0839925 -0.79294485
-2.0859389 1.0533321 -0.6447171
-2.2828789 1.1527804 -0.5665465
-2.2819061 1.1522893 -0.42617813
-2.1970866 1.1094581 -0.27434137
-2.3315375 1.1773515 -0.14589292
-2.4914384 1.2580963 0
-2.6561422 1.3412664 0.16620463
-2.0994015 1.0569487 -0.77501714
-2.1275403 1.0711151 -0.65717471
-2.2706487 1.1431634 -0.56316811
-2.2787154 1.1472247 -0.42532301
-2.1961174 1.1056405 -0.27405336
-2.3445606 1.1803746 -0.14661847
-2.4766829 1.2468919 0
-2.6716819 1.3450646 0.16707519
-2.1117196 1.0599538 -0.77909118
-2.1153755 1.0617889 -0.65302038
-2.2720284 1.140419 -0.56316811
-2.2777991 1.1433156 -0.4248938
-2.2159448 1.1122684 -0.27635971
-2.3645637 1.1868662 -0.14777958
-2.4549327 1.2322258 0
-2.698853 1.3546588 0.16867186
-2.1726706 1.0872627 -0.80109292
-2.1503122 1.076074 -0.66340345
-2.2847724 1.1433616 -0.56598419
-2.2998466 1.1509051 -0.42874676
-2.1964722 1.0991738 -0.27376536
-2.3543799 1.178195 -0.14705403
-2.4471104 1.2245998 0
-2.7074614 1.3548864 0.16910742
-2.1806197 1.0879481 -0.80353862
-2.1381457 1.0667571 -0.65925187
-2.2838721 1.1394625 -0.56541967
-2.3035305 1.1492703 -0.4291743
-2.2163141 1.1057565 -0.2760717
-2.3604474 1.1776671 -0.14734404
-2.5207729 1.2576563 0
-5.8315792 2.9094734 0.36401927
-2.1797218 1.0842127 -0.80272442
-2.1641352 1.0764599 -0.66686362
-2.2898016 1.1389674 -0.5665465
-2.2980199 1.1430552 -0.42789
-2.2269118 1.1076854 -0.27722487
-2.3734992 1.1805992 -0.14806959
-2.5176351 1.2522937 0
-5.830442 2.9001129 0.36372927
-2.1544588 1.0684013 -0.79294485
-2.1744246 1.0783024 -0.66963226
-2.2866192 1.1339399 -0.56541967
-2.3177979 1.1494015 -0.43131372
-2.2328784 1.1072898 -0.27780089
-2.3702726 1.1754239 -0.14777958
-2.5377898 1.258496 0
-0 0 0
-2.1779001 1.0767491 -0.80109292
-2.1419985 1.0589995 -0.65925187
-2.2948229 1.1345556 -0.56710887
-2.3122792 1.1431859 -0.43002942
-2.2805867 1.1275171 -0.28356674
-2.371691 1.172559 -0.14777958
-2.5579722 1.2646559 0
-0 0 0
-2.1592493 1.0642834 -0.79375899
-2.163527 1.0663918 -0.66548061
-2.3030317 1.1351531 -0.56879807
-2.3205688 1.1437969 -0.43131372
-2.2958629 1.1316196 -0.28529593
-2.3870859 1.1765829 -0.14865015
-2.5525022 1.2581158 0
-0 0 0
-2.1560929 1.0594914 -0.79212749
-2.1805687 1.0715187 -0.67032379
-2.3021233 1.1312499 -0.5682357
-2.3334665 1.1466517 -0.43345314
-2.3134801 1.1368306 -0.28731427
-2.3978343 1.1782817 -0.1492307
-2.5516779 1.2538795 0
-0 0 0
-2.1396234 1.0481907 -0.78561091
-2.1413131 1.0490185 -0.65786618
-2.3057683 1.1295842 -0.56879807
-2.3394654 1.1460923 -0.4343099
-2.3078818 1.1306196 -0.2864491
-2.3992562 1.1753834 -0.1492307
-2.5438428 1.2462157 0
-0 0 0
-2.200196 1.0762172 -0.80761266
-2.1667383 1.0598514 -0.66548061
-2.3224297 1.1360072 -0.57273877
-2.3332372 1.1412936 -0.4330256
-2.3248305 1.1371816 -0.28846744
-2.399966 1.1739337 -0.1492307
-2.582 1.2629751 0
-0 0 0
-2.1815031 1.0638089 -0.80027872
-2.165756 1.0561298 -0.66478646
-2.3123748 1.1276284 -0.56992275
-2.346149 1.1440984 -0.43516502
-2.3471239 1.1445737 -0.29106179
-2.4060583 1.173313 -0.14952126
-2.5460973 1.241603 0
-0 0 0
-2.2641284 1.0973364 -0.82961434
-2.2044234 1.0683997 -0.67586106
-2.3196707 1.1242555 -0.57104957
-2.360455 1.1440222 -0.43730444
-2.3685031 1.1479229 -0.29336813
-2.4346011 1.179958 -0.15111738
-2.5912497 1.2558795 0
-0 0 0
-2.2009168 1.0634179 -0.80598116
-2.1786058 1.0526379 -0.66755509
-2.3118761 1.1170303 -0.56879807
-2.3641536 1.1422893 -0.43773365
-2.3745418 1.1473085 -0.29394415
-2.4313502 1.1747566 -0.15082738
-2.5927653 1.2527477 0
-0 0 0
-2.2022002 1.0607579 -0.80598116
-2.1889169 1.0543596 -0.67032379
-2.3315375 1.1230571 -0.57330114
-2.3678427 1.1405448 -0.43816119
-2.4062173 1.159029 -0.2976917
-2.4210651 1.166181 -0.15010183
-2.5872407 1.2462246 0
-0 0 0
-2.2346771 1.0730766 -0.81739223
-2.2241147 1.0680046 -0.68070686
-2.3328927 1.1202391 -0.57330114
-2.3553302 1.1310134 -0.43559259
-2.4006279 1.152765 -0.29682764
-2.4388623 1.1711251 -0.15111738
-2.5840571 1.2408465 0
-0 0 0
-2.2604883 1.0821118 -0.8263545
-2.2140915 1.0599012 -0.67724669
-2.3342447 1.1174195 -0.57330114
-2.3752186 1.1370339 -0.43901631
-2.4090111 1.1532108 -0.2976917
-2.4449677 1.1704234 -0.15140794
-2.6184137 1.2534531 0
-0 0 0
-2.2528718 1.0751216 -0.82309461
-2.2244272 1.0615473 -0.68001539
-2.3333023 1.1135049 -0.57273877
-2.3835433 1.1374811 -0.44030064
-2.4314182 1.1603281 -0.30028716
-2.4510658 1.1697043 -0.15169793
-2.6199262 1.2502885 0
-0 0 0
-2.2497096 1.0702771 -0.82146627
-2.2053213 1.0491598 -0.67378658
-2.3369381 1.1117753 -0.57330114
-2.3941884 1.1390115 -0.44201249
-2.4281428 1.155165 -0.29971001
-2.4759464 1.177907 -0.1531496
-2.6120346 1.2426497 0
-0 0 0
-2.5278993 1.1988795 -0.92251569
-2.2111166 1.0486423 -0.67516959
-2.3451605 1.112214 -0.57498819
-2.4048407 1.1405178 -0.44372436
-2.4482327 1.1610968 -0.30201635
-2.4703221 1.171573 -0.15271406
-2.6323459 1.2484143 0
-0 0 0
-2.2600091 1.068487 -0.6897043
-2.3511014 1.1115537 -0.57611501
-2.3946154 1.1321262 -0.44158494
-2.4379444 1.1526113 -0.30057517
-2.4952228 1.1796913 -0.15416516
-2.6385536 1.2474552 0
-0 0 0
-2.2363334 1.0539893 -0.68208987
-2.3455453 1.1054612 -0.57442582
-2.4075899 1.1347029 -0.44372436
-2.448694 1.1540754 -0.30172834
-2.5060484 1.1811067 -0.15474573
-2.6706605 1.2586888 0
-0 0 0
-2.2194402 1.0427519 -0.67655253
-2.3560781 1.1069481 -0.57667738
-2.4089592 1.131793 -0.44372436
-2.4500866 1.1511158 -0.30172834
-2.4980664 1.1736579 -0.15416516
-2.6698263 1.2543553 0
-0 0 0
-2.2229769 1.0411365 -0.67724669
-2.3482099 1.0997897 -0.57442582
-2.4219463 1.1343243 -0.44586378
-2.4538157 1.1492505 -0.30201635
-2.4994826 1.1706387 -0.15416516
-2.6477764 1.2400923 0
-0 0 0
-2.2401392 1.0458759 -0.68208987
-2.3541462 1.0991035 -0.57555264
-2.4419236 1.1400849 -0.44928753
-2.4669185 1.1517546 -0.30345753
-2.5150268 1.1742153 -0.15503629
-2.6752055 1.2489996 0
-0 0 0
-2.2459548 1.0452876 -0.68347549
-2.3739016 1.1048352 -0.58005571
-2.4409742 1.1360514 -0.44885999
-2.4683084 1.148773 -0.30345753
-2.4999509 1.1634996 -0.15402018
-2.6955886 1.2545512 0
-0 0 0
-2.2358394 1.0372949 -0.68001539
-2.3660152 1.0976886 -0.57780421
-2.4400187 1.1320218 -0.44843242
-2.4743917 1.1479688 -0.30403468
-2.5202119 1.1692266 -0.15518129
-2.720715 1.262248 0
-0 0 0
-2.2598574 1.0451213 -0.68693566
-2.3788686 1.1001607 -0.58061808
-2.4437125 1.1301491 -0.44885999
-2.4875128 1.1504055 -0.30547586
-2.5428467 1.1759959 -0.15648741
-2.7245982 1.260051 0
-0 0 0
-2.269599 1.0479625 -0.6897043
-2.3749146 1.0965909 -0.57949126
-2.45138 1.1318979 -0.45014265
-2.4928992 1.151069 -0.30605188
-2.5411997 1.1733712 -0.1563424
-2.7348101 1.2627686 0
-0 0 0
-2.2936487 1.0557069 -0.69662458
-2.3831646 1.0969086 -0.58118045
-2.4620736 1.1332283 -0.45185453
-2.491941 1.1469755 -0.30576387
-2.5449739 1.1713853 -0.15648741
-2.7552466 1.2681683 0
-0 0 0
-2.2926447 1.0518894 -0.6959331
-2.4168158 1.1088604 -0.58905971
-2.4494462 1.1238316 -0.44928753
-2.493325 1.1439637 -0.30576387
-2.5558343 1.1726437 -0.15706795
-5.7961764 2.6593466 0
-0 0 0
-2.2779415 1.0418135 -0.69108731
-2.4019856 1.0985448 -0.58512115
-2.4531345 1.1219378 -0.44971508
-0 0 -0
-2.5619709 1.1717139 -0.15735796
-5.820684 2.662082 0
-0 0 0
-2.2814879 1.0401039 -0.69178146
-2.370939 1.0808836 -0.57723969
-2.4661653 1.1242961 -0.45185453
-0 0 -0
-2.5775754 1.1750867 -0.15822907
-0 0 0
-0 0 0
-2.3147147 1.0518752 -0.70147038
-2.3814964 1.0822228 -0.57949126
-2.479214 1.1266286 -0.45399559
-2.5421979 1.1552504 -0.31124172
-2.5742576 1.1698194 -0.15793851
-0 0 0
-0 0 0
-2.290844 1.0376899 -0.69385594
-2.4198346 1.0961192 -0.5884974
-2.5016165 1.133164 -0.45784688
-2.5247436 1.14364 -0.30893537
-2.5922401 1.1742141 -0.15895464
-0 0 0
-5.8370466 2.6440232 0.35792425
-2.2852433 1.0318269 -0.69178146
-2.4072671 1.0869228 -0.58512115
-2.4936254 1.1259151 -0.456135
-2.5284789 1.141652 -0.30922338
-2.5960231 1.1721493 -0.15909964
-0 0 0
-5.8307643 2.6326911 0.3573437
-2.3207979 1.0445064 -0.70216191
-2.4294298 1.0933976 -0.5901866
-2.5066862 1.1281679 -0.45827442
-2.5298564 1.1385959 -0.30922338
-2.6069155 1.1732774 -0.15968019
-0 0 0
-5.833941 2.6256437 0.3573437
-2.3037465 1.0334865 -0.69662458
-2.4145188 1.0831802 -0.58624583
-2.5080476 1.1251383 -0.45827442
-2.5265059 1.1334189 -0.30864626
-2.6154461 1.1733184 -0.16011575
-0 0 0
-5.8323631 2.6164634 0.35705313
-2.3439252 1.0481107 -0.70839065
-2.4436605 1.0927085 -0.59300047
-2.5070641 1.12106 -0.45784688
-2.5396862 1.1356474 -0.31008855
-2.6192317 1.171217 -0.16026075
-0 0 0
-5.8236623 2.6041117 0.35632759
-2.3543558 1.0493631 -0.71115929
-2.4403419 1.0876882 -0.59187579
-2.5271745 1.1263905 -0.4612706
-2.5386875 1.1315218 -0.3097994
-2.6277673 1.1712258 -0.16069631
-5.8176193 2.5929792 0
-5.8220534 2.5949554 0.35603702
-2.3418703 1.0404083 -0.70700771
-2.4370058 1.0826735 -0.59074891
-2.5003819 1.1108292 -0.456135
-2.5353298 1.1263553 -0.30922338
-2.6386793 1.1722697 -0.16127686
-5.8255005 2.5880589 0
-5.8299384 2.5900307 0.35632759
-2.3477092 1.0396074 -0.70839065
-2.4452844 1.0828154 -0.5924381
-2.5251901 1.1181992 -0.46041384
-2.5437863 1.1264338 -0.31008855
-2.6709785 1.1827568 -0.16316354
-5.8191047 2.5768032 0
-5.8615746 2.5956097 0.35806927
-2.3306024 1.0286658 -0.70285338
-2.4698319 1.0901179 -0.59806591
-2.5171456 1.1110009 -0.458702
-2.5356805 1.1191818 -0.30893537
-2.6628969 1.1753317 -0.16258298
-5.8126998 2.5655706 0
-5.8670816 2.5895734 0.35821426
-2.7690461 1.2181876 -0.99748939
-2.3662913 1.0410036 -0.71323645
-2.4362674 1.0717881 -0.58962423
-2.5302327 1.1131263 -0.46084142
-2.5488663 1.1213237 -0.31037655
-2.6690674 1.1742039 -0.16287299
-5.827704 2.5637841 0
-5.874959 2.584573 0.35850427
-2.3629568 1.0361305 -0.71185344
-2.4608262 1.0790453 -0.59525204
-2.5245295 1.1069785 -0.45955876
-2.5336356 1.1109713 -0.30835822
-2.6966636 1.1824573 -0.16446966
-5.8379412 2.5598731 0
-5.9018793 2.5879092 0.35995594
-2.3986824 1.0483421 -0.72223389
-2.4504893 1.0709842 -0.5924381
-2.5470331 1.1131786 -0.46341005
-2.5515685 1.1151608 -0.31037655
-2.7028568 1.1812813 -0.16476022
-5.8505688 2.5569861 0
-5.912147 2.5838988 0.3603915
-2.7802436 1.2111042 -0.99993509
-2.3585515 1.0274105 -0.70977634
-2.4843898 1.082227 -0.60031742
-2.534251 1.103947 -0.46084142
-2.5457981 1.1089771 -0.30951139
-2.7209511 1.1852757 -0.16577578
-5.8775182 2.5603104 0
-5.9128757 2.5757127 0.36024594
-2.3890777 1.0389912 -0.71877378
-2.4780507 1.0776849 -0.59862822
-2.5443337 1.1065109 -0.46255329
-2.5749302 1.1198171 -0.31297091
-2.7145157 1.1805217 -0.16534021
-5.8886104 2.5609107 0
-5.9144311 2.5721397 0.36024594
-2.4179533 1.0480766 -0.72707969
-2.4770219 1.0736803 -0.59806591
-2.5409627 1.1013958 -0.46169817
-2.6000082 1.1269895 -0.31585327
-2.7469406 1.1906782 -0.16722745
-5.8917003 2.5537934 0
-5.9151525 2.5639591 0.36010092
-2.3892808 1.0322207 -0.71808225
-2.4783175 1.0706866 -0.59806591
-2.551718 1.1023972 -0.46341005
-2.6251163 1.1341069 -0.31873676
-2.7507603 1.1883878 -0.16737245
-5.8947816 2.5466726 0
-5.9158635 2.5557804 0.35995594
-2.4389129 1.0501678 -0.73261702
-2.4749463 1.0656834 -0.59694123
-2.5648348 1.1043882 -0.46554947
-2.614609 1.1258205 -0.31729558
-2.7879865 1.2004749 -0.16954912
-5.8978543 2.5395482 0
-5.916563 2.5476036 0.35981095
-2.4632299 1.0571121 -0.7395373
-2.478565 1.0636932 -0.59750354
-2.5638106 1.1002769 -0.4651219
-2.6349733 1.1308168 -0.31960079
-2.7798836 1.1930062 -0.16896856
-5.9033079 2.5334451 0
-5.9124708 2.5373776 0.35937539
-2.4252951 1.0373636 -0.72777122
-2.5008717 1.0696898 -0.60256898
-2.5769372 1.1022249 -0.46726134
-2.6125615 1.1174624 -0.31671843
-2.7813232 1.1896464 -0.16896856
-5.8991842 2.5232389 0
-5.9155326 2.5302317 0.35937539
-2.4380836 1.0393505 -0.73123133
-2.5021625 1.0666672 -0.60256898
-2.5947995 1.1061583 -0.47025752
-2.6186728 1.1163354 -0.31729558
-2.7899318 1.1893427 -0.16940412
-5.9141965 2.5212111 0
-5.9233618 2.5251181 0.35966536
-2.4739749 1.0511202 -0.74161446
-2.5104673 1.0666248 -0.60425818
-2.6079452 1.1080402 -0.47239694
-2.6319203 1.1182265 -0.31873676
-2.8248439 1.2001942 -0.17143579
-5.9172387 2.5140631 0
-5.9216299 2.5159287 0.35937539
-2.4452131 1.035414 -0.73261702
-2.5140917 1.0645803 -0.60482049
-2.6021883 1.1018844 -0.47111264
-2.6451759 1.1200873 -0.32017794
-5.9295568 2.510843 -0.35967207
-5.9178782 2.5058975 0
-5.9103045 2.5026906 0.35850427
-2.4949987 1.052942 -0.74715173
-2.5130377 1.0605549 -0.60425818
-2.6106153 1.1017346 -0.47239694
-2.6560593 1.120913 -0.32133111
-5.9254022 2.5006444 -0.35923651
-5.9113107 2.4946976 0
-5.9181166 2.4975698 0.35879481
-2.50089 1.05187 -0.74853474
-2.521337 1.06047 -0.60594517
-2.6166728 1.1005681 -0.47325206
-2.6621757 1.1197065 -0.32190713
-5.9236336 2.4914701 -0.3589465
-5.9071217 2.4845252 0
-5.9354968 2.4964597 0.35966536
-2.4813378 1.0401196 -0.74230593
-2.5390222 1.0642996 -0.60988593
-2.6251054 1.1003836 -0.47453636
-2.6683018 1.1184907 -0.32248428
-0 0 -0
-5.9317274 2.4864435 0
-3.0389833 1.2738718 0.18405582
-2.5589819 1.0690328 -0.76514661
-2.5262437 1.0553561 -0.60650969
-2.6501153 1.1071043 -0.47881523
-2.6672671 1.1142696 -0.32219627
-5.922442 2.4741418 -0.35851094
-4.4483466 1.8583282 0
-3.0477157 1.2732047 0.18449137
-2.5023725 1.0418342 -0.74784321
-2.5533133 1.0630428 -0.61269981
-2.6443484 1.1009442 -0.47753254
-2.6853192 1.1180021 -0.32421347
-5.9326258 2.4699812 -0.3589465
-5.9088879 2.460098 0
-3.042053 1.2665241 0.18405582
-2.5546041 1.0599602 -0.76306945
-2.5381742 1.0531431 -0.60876125
-2.6551609 1.1016835 -0.47924441
-2.7010069 1.120706 -0.3259438
-5.9236083 2.4578326 -0.35822096
-5.9190607 2.4559457 0
-3.0363786 1.259859 0.18362026
-2.6022503 1.076046 -0.77691269
-2.5535288 1.0558994 -0.6121375
-2.6896973 1.1122057 -0.48523512
-2.7238684 1.1263357 -0.32853815
-5.9217668 2.4486856 -0.35793039
-5.9051957 2.4418335 0
-3.0162897 1.2472537 0.18231414
-2.5362844 1.0451819 -0.75684065
-2.5829937 1.0644304 -0.61889207
-2.6839166 1.1060197 -0.48395082
-2.7252274 1.1230437 -0.32853815
-5.9271302 2.4425213 -0.35807595
-5.9057384 2.4337058 0
-3.0081849 1.2396481 0.18173358
-2.5630753 1.052601 -0.76445508
-2.5795727 1.0593761 -0.61776525
-2.711374 1.1135042 -0.48865888
-2.7720344 1.1384162 -0.33401486
-5.9324789 2.4363439 -0.35822096
-5.90626 2.4255767 0
-5.9323678 2.4362984 0.35821426
-2.5759523 1.0542536 -0.76791525
-2.5973141 1.0629964 -0.62170595
-2.7245941 1.115088 -0.49079829
-2.7734079 1.1350659 -0.33401486
-5.9257989 2.4252372 -0.35764039
-5.911602 2.4194269 0
-5.9329047 2.4281454 0.35806927
-2.5888369 1.0558766 -0.77137542
-2.5797749 1.0521805 -0.61720288
-2.7330728 1.1147044 -0.49208263
-2.7843573 1.1356211 -0.33516803
-5.926321 2.4170947 -0.3574954
-5.9072895 2.4093325 0
-5.9310179 2.4190102 0.3577787
-2.6034112 1.0599868 -0.77552706
-2.5733478 1.0477464 -0.61551368
-2.7622674 1.1246656 -0.49721658
-2.8042071 1.1417415 -0.33747438
-5.9229627 2.4115524 -0.35720482
-5.9087443 2.4057634 0
-5.9228516 2.4115071 0.35719815
-2.6604829 1.079478 -0.79213893
-2.586391 1.0494156 -0.61832976
-2.7564948 1.1184344 -0.49593392
-5.9043741 2.3956711 -0.71021736
-5.9114299 2.3985341 -0.35633427
-5.8995914 2.3937304 0
-5.9257612 2.4043489 0.35719815
-2.6315517 1.0640379 -0.78314149
-2.5876572 1.0462897 -0.61832976
-2.7744966 1.1218361 -0.49892846
-5.8928723 2.3827157 -0.70848703
-5.9167304 2.3923626 -0.35647929
-5.9000597 2.3856218 0
-4.3532777 1.7601981 0.26228222
-2.6281769 1.0589803 -0.78175581
-2.586556 1.0422099 -0.61776525
-2.8115683 1.1328748 -0.50534838
-5.9029465 2.3784945 -0.7093522
-5.9196167 2.3852115 -0.35647929
-5.9029379 2.3784912 0
-4.3337121 1.7461976 0.26097611
-2.6294546 1.055804 -0.78175581
-2.611397 1.0485533 -0.62339514
-2.8439014 1.1419107 -0.51091152
-0 0 -0
-5.9176764 2.3761225 -0.35618928
-5.8985691 2.3684504 0
-4.3358188 1.7409598 0.26097611
-2.6307285 1.052626 -0.78175581
-2.6362484 1.0548346 -0.62902296
-2.8357456 1.1346589 -0.50919968
-5.9062781 2.3632627 -0.70906419
-5.9157138 2.367038 -0.35589871
-5.9159198 2.3671205 0
-4.3282695 1.7318584 0.26039556
-2.6716123 1.0652416 -0.79352194
-2.6257222 1.046944 -0.62620908
-2.8490348 1.1359847 -0.51133907
-5.9115295 2.3570814 -0.7093522
-5.9161582 2.3589268 -0.35575372
-5.899436 2.3522594 0
-4.320704 1.7227776 0.25981501
-2.7032132 1.0740581 -0.802522
-2.6387897 1.0484608 -0.62902296
-2.8623314 1.1372797 -0.51347852
-5.9095707 2.3480284 -0.70877618
-5.9141698 2.3498559 -0.35546318
-5.9071159 2.3470531 0
-4.3227825 1.7175556 0.25981501
-2.7174673 1.072125 -0.80598217
-2.6625857 1.0504725 -0.63408834
-4.5174446 1.7822717 -0.80961704
-5.9056039 2.3299434 -0.707623
-5.905333 2.3298368 -0.35459259
-5.895822 2.3260844 0
-4.3051596 1.6985188 0.25850832
-2.7210934 1.0697577 -0.80667365
-2.6685872 1.0491157 -0.63521522
-4.5100384 1.7730551 -0.8079052
-5.9011908 2.3199661 -0.70675784
-5.9033027 2.3207963 -0.35430205
-5.8937888 2.3170562 0
-4.3023767 1.6914159 0.25821832
-2.7363951 1.0719577 -0.81082529
-2.691143 1.0542307 -0.6402806
-4.5432482 1.7797757 -0.81346834
-5.899178 2.3109488 -0.70618182
-5.9036856 2.3127148 -0.35415706
-5.9014258 2.3118296 0
-4.3068347 1.687163 0.25836334
-2.730684 1.0659164 -0.80875081
-2.692415 1.0509782 -0.6402806
-4.5214863 1.7649521 -0.8091895
-5.8947353 2.3009968 -0.70531666
-5.9113216 2.3074713 -0.3544476
-5.8945179 2.3009119 0
-4.2967696 1.6772344 0.25763777
-2.7366416 1.0644332 -0.81013381
-2.6960487 1.0486444 -0.64084297
-4.5307951 1.7622801 -0.8104738
-5.895103 2.2929358 -0.70502865
-5.9116764 2.2993822 -0.35430205
-5.9069958 2.2975614 0
-4.2915254 1.6692146 0.25720221
-2.7917304 1.0819786 -0.82605416
-2.7020566 1.0472242 -0.6419698
-4.5185552 1.7512364 -0.8079052
-5.8930411 2.2839398 -0.7044515
-5.9120302 2.2912993 -0.35415706
-5.8976364 2.2857208 0
-4.3105016 1.670602 0.25821832
-2.8070731 1.0840254 -0.8302058
-2.7222824 1.0512813 -0.64647293
-4.515883 1.7439276 -0.80705011
-5.8933864 2.2758868 -0.70416349
-5.9099512 2.2822838 -0.35386705
-5.8931084 2.2757795 0
-4.3052425 1.6625832 0.25778276
-2.9301252 1.1274787 -0.86619556
-2.7306581 1.0507261 -0.64815992
-4.5227742 1.7403117 -0.8079052
-5.8912992 2.2669046 -0.70358634
-5.9151273 2.2760732 -0.35401204
-5.8982806 2.2695909 0
-4.302403 1.6555154 0.25749275
-2.870585 1.100588 -0.84820068
-2.7271852 1.0456083 -0.64703524
-4.5200844 1.7330093 -0.80705011
-5.8843832 2.2560842 -0.7024343
-5.9033203 2.2633448 -0.35314149
-5.8937354 2.25967 0
-4.2971191 1.647524 0.25705722
-3.0125186 1.1508325 -0.88972777
-2.7759097 1.0604439 -0.6582908
-4.5173745 1.7257125 -0.80619335
-5.8943467 2.2517388 -0.70329833
-5.9109011 2.2580628 -0.35343149
-5.8964615 2.2525468 0
-4.2991066 1.6423306 0.25705722
-3.0537641 1.1623625 -0.90149385
-2.798568 1.0652264 -0.66335839
-4.5194564 1.7202529 -0.80619335
-5.9019022 2.2464571 -0.70387548
-5.9087729 2.2490721 -0.35314149
-5.89431 2.2435672 0
-4.303514 1.6380582 0.25720221
-3.2029412 1.2147154 -0.94509804
-2.7950969 1.0600405 -0.6622315
-4.5167356 1.7129719 -0.8053382
-5.8925228 2.2347391 -0.7024343
-5.9066219 2.2400863 -0.35285094
-5.8945856 2.2355213 0
-4.3030629 1.6319366 0.25705722
-3.2341738 1.2243259 -0.95409548
-2.8028681 1.0610511 -0.6639207
-4.5129633 1.7084234 -0.80448145
-5.8914456 2.2302604 -0.70214516
-5.9079742 2.2365174 -0.35285094
-5.8935032 2.2310393 0
-4.3064761 1.6302556 0.25720221
-3.2098367 1.2106806 -0.94648367
-2.7732441 1.0460074 -0.65660375
-4.5126247 1.702064 -0.8040539
-5.8941364 2.22314 -0.70214516
-5.9155397 2.2312129 -0.35314149
-5.9010601 2.2257516 0
-4.3084426 1.6250509 0.25720221
-3.2112973 1.2068013 -0.94648367
-3.713958 1.3957005 -0.87893081
-4.5074668 1.6939001 -0.8027696
-5.8847146 2.211468 -0.70070398
-5.9012027 2.217664 -0.35212538
-5.8964438 2.2158759 0
-4.3079729 1.6189306 0.25705722
-3.2033551 1.1994014 -0.94371504
-3.7108872 1.3894317 -0.87780613
-4.5143232 1.6902544 -0.80362636
-5.8825426 2.2025437 -0.70012796
-5.9136119 2.2141767 -0.35270593
-5.8918028 2.2060111 0
-4.3123574 1.6146343 0.25720221
-3.2212491 1.2016653 -0.94855815
-3.71732 1.3867213 -0.87893081
-4.5139594 1.6839023 -0.80319881
-5.8851995 2.1954343 -0.70012796
-5.9138503 2.2061222 -0.35256094
-5.8895826 2.1970694 0
-4.3021345 1.6048824 0.25647664
-3.2156506 1.1951526 -0.94648367
-0 0 -0
-4.5183945 1.6793402 -0.80362636
-5.8902702 2.1892216 -0.70041597
-5.9140692 2.1980669 -0.35241538
-5.8873591 2.1881397 0
-4.3065038 1.6005872 0.25662166
-3.2476747 1.2025907 -0.95548111
-0 0 -0
-4.5300498 1.6774451 -0.8053382
-5.8832092 2.1785102 -0.6992628
-5.9094176 2.188215 -0.35198039
-0 0 0
-4.308435 1.5953826 0.25662166
-3.2349987 1.193454 -0.95132685
-0 0 -0
-4.5128064 1.664862 -0.80191445
-5.8858371 2.1714001 -0.6992628
-5.9144926 2.1819715 -0.35212538
-5.8975081 2.1757057 0
-4.3054881 1.5883785 0.25633165
-3.2128954 1.1808912 -0.94440651
-3.6929772 1.3573439 -0.87161386
-4.5268598 1.6638352 -0.8040539
-5.8811712 2.1616087 -0.69839764
-5.9024868 2.1694431 -0.35125425
-5.8879218 2.1640899 0
-4.3025217 1.5813805 0.25604108
-3.2143199 1.177008 -0.94440651
-3.6874545 1.3502588 -0.86992466
-4.5240502 1.6566005 -0.80319881
-5.8740635 2.1509435 -0.69724447
-5.8953528 2.1587391 -0.35067427
-5.8856492 2.1551859 0
-4.3044295 1.5761806 0.25604108
-3.2180943 1.1739823 -0.94509804
-3.6890833 1.3458023 -0.86992466
-4.5308671 1.6528907 -0.8040539
-5.8766584 2.1438444 -0.69724447
-5.9003959 2.152504 -0.35081926
-5.8711324 2.1418283 0
-4.3063307 1.5709783 0.25604108
-3.2124436 1.1675247 -0.94302356
-3.6931016 1.3422142 -0.87048918
-4.5376911 1.6491702 -0.80491066
-5.8743873 2.1349766 -0.69666845
-5.8956637 2.1427093 -0.3503837
-4.3719716 1.5889415 0
-4.3033462 1.5640004 0.2557511
-3.2280009 1.1687651 -0.9471752
-3.6827683 1.3334231 -0.8676731
-4.5517468 1.648055 -0.80705011
-5.8672347 2.1243548 -0.69551528
-5.8982482 2.1355839 -0.3503837
-4.3714437 1.5827725 0
-4.305233 1.5587995 0.2557511
-3.1987338 1.1537986 -0.93817776
-3.6772132 1.3263884 -0.86598605
-4.5633941 1.6460379 -0.80876195
-5.8722281 2.1181407 -0.69580328
-5.8910475 2.1249287 -0.34980315
-4.373353 1.5774893 0
-4.3046713 1.5527154 0.25560609
-3.197767 1.149085 -0.93748623
-3.6716373 1.3193656 -0.86429685
-4.5774565 1.6448624 -0.8109014
-5.874783 2.1110437 -0.69580328
-5.8936105 2.1178091 -0.34980315
-4.3727999 1.5713211 0
-4.3041015 1.5466352 0.2554611
-3.2251282 1.1545188 -0.94509804
-3.6540909 1.3080772 -0.85979378
-4.5939369 1.6445197 -0.81346834
-5.867589 2.1004567 -0.69465011
-5.8863797 2.1071832 -0.34922257
-4.3722472 1.56516 0
-4.2790542 1.5317991 0.25386441
-3.2265208 1.1506211 -0.94509804
-3.6532779 1.3028084 -0.85923147
-4.6031771 1.6415553 -0.8147527
-5.8603778 2.0898902 -0.69349694
-5.8938212 2.1018164 -0.34951314
-4.3471684 1.5502592 0
-4.261322 1.5196451 0.25270331
-3.1759048 1.128247 -0.9298718
-3.6428802 1.2941411 -0.8564176
-4.6099906 1.637709 -0.81560779
-5.870213 2.0854058 -0.6943621
-5.8890085 2.092083 -0.34907758
-4.3637576 1.5502343 0
-4.2558069 1.5118847 0.25226775
-3.2269292 1.1419842 -0.94440651
-3.6324668 1.2855008 -0.85360366
-4.624073 1.6364222 -0.81774884
-5.8580942 2.0731323 -0.69263178
-5.8915319 2.0849657 -0.34907758
-4.355814 1.5414875 0
-4.2453852 1.5024077 0.25154218
-3.2086942 1.1333503 -0.93886924
-3.6404235 1.2858423 -0.85529071
-4.6419973 1.6396104 -0.82074338
-5.8642278 2.0713172 -0.69320893
-5.885438 2.078809 -0.34864202
-4.3567443 1.5388556 0
-4.2291393 1.4937838 0.25052607
-3.1934931 1.1236427 -0.93402344
-3.6419744 1.2814426 -0.85529071
-4.6560802 1.6382596 -0.82288283
-5.8520918 2.0590808 -0.69147974
-5.8903942 2.0725577 -0.34878704
-4.3586006 1.5335902 0
-4.2211456 1.4852262 0.24994607
-3.1948485 1.1197832 -0.93402344
-3.6387291 1.2753618 -0.85416603
-4.6507959 1.6300876 -0.82160014
-5.8765411 2.0597072 -0.69407409
-5.8904443 2.06458 -0.34864202
-4.3604503 1.5283226 0
-4.2180281 1.478404 0.24965551
-3.2056735 1.1192299 -0.93679208
-3.649863 1.2743143 -0.8564176
-4.6648779 1.6286969 -0.82373959
-5.8643694 2.0474877 -0.69234377
-5.885582 2.054894 -0.34820703
-4.3450923 1.5170469 0
-4.2001858 1.4664541 0.2484944
-3.1928108 1.1104126 -0.93264043
-3.6537976 1.2707372 -0.85697991
-4.6571436 1.6196861 -0.82202768
-5.8692799 2.0412493 -0.69263178
-5.8905125 2.0486336 -0.34835202
-4.3370895 1.508376 0
-4.1970506 1.4596726 0.2482044
-3.2131145 1.1131238 -0.93817776
-3.6553304 1.2663213 -0.85697991
-4.6639442 1.6157367 -0.82288283
-5.8644171 2.0316184 -0.69176775
-5.8880687 2.0398118 -0.34806147
-4.343832 1.5048399 0
-4.2037172 1.4562997 0.2484944
-3.1575403 1.0895997 -0.92156583
-3.656858 1.2619036 -0.85697991
-4.6586199 1.6075903 -0.82160014
-5.8375278 2.0144062 -0.68830824
-5.8856211 2.0310023 -0.34777147
-4.3185835 1.4902509 0
-4.1956487 1.4478288 0.24791384
-3.2039347 1.101279 -0.9347176
-3.6463678 1.2533551 -0.85416603
-4.6484232 1.5977887 -0.81946075
-5.8595252 2.0140772 -0.69061458
-5.8856158 2.0230453 -0.34762648
-4.3302255 1.4884156 0
-4.1802006 1.4368479 0.24689828
-3.2408588 1.109594 -0.94509804
-3.6526828 1.2505928 -0.85529071
-4.6649175 1.5971583 -0.82202768
-5.8521667 2.0036445 -0.68946141
-5.8806787 2.0134063 -0.34719092
-4.3320208 1.4831822 0
-4.1917672 1.4351627 0.24747884
-3.2255826 1.1000112 -0.94025487
-3.6445715 1.2428979 -0.85303921
-4.6619897 1.589865 -0.8211726
-5.8545833 1.9965718 -0.68946141
-5.8781834 2.0046201 -0.34690034
-4.2919378 1.4636673 0
-4.1738234 1.4233871 0.24631771
-3.1865289 1.0823965 -0.92848879
-3.6292365 1.2327749 -0.84910059
-4.6347389 1.5743229 -0.816037
-5.8569918 1.9894962 -0.68946141
-5.883069 1.9983542 -0.3470459
-4.2000675 1.4266741 0
-4.1730728 1.4175045 0.24617216
-3.2258482 1.0914067 -0.93956071
-3.625905 1.2267586 -0.84797376
-4.6269112 1.5654308 -0.81432509
-5.8569436 1.9815897 -0.6891734
-5.8805518 1.9895771 -0.34675536
-4.1574192 1.4065866 0
-4.1723232 1.4116292 0.24602716
-3.1938856 1.0762935 -0.9298718
-3.6635048 1.2345484 -0.8564176
-4.6312299 1.5606579 -0.8147527
-5.8544269 1.9728577 -0.68859625
-5.8829513 1.98247 -0.34675536
-4.1418495 1.3957437 0
-4.1617165 1.4024386 0.2453016
-3.1547534 1.0588635 -0.91810572
-3.6505361 1.2252684 -0.85303921
-0 0 -0
-5.8641648 1.9682521 -0.68946141
-5.8779502 1.9728791 -0.34631979
-4.1311994 1.3865985 0
-4.1757226 1.4015422 0.24602716
-3.2059946 1.0717536 -0.93264043
-3.6496065 1.2200516 -0.85247684
-0 0 -0
-5.866539 1.961165 -0.68946141
-5.885263 1.9674245 -0.34661037
-4.1131258 1.3750046 0
-4.1749511 1.3956727 0.24588217
-3.1763456 1.0575769 -0.92364299
-3.646261 1.2140372 -0.85135216
-0 0 -0
-5.8615398 1.951623 -0.68859625
-5.8827004 1.9586686 -0.34631979
-4.1172509 1.3708551 0
-4.1741714 1.389807 0.24573717
-3.1871462 1.0568967 -0.92641163
-3.6477253 1.2096305 -0.85135216
-0 0 -0
-5.8810811 1.9502386 -0.69061458
-5.8801351 1.9499248 -0.34602979
-4.0991521 1.3593291 0
-4.163518 1.3806736 0.24501161
-3.2050986 1.0585531 -0.93125743
-3.6564155 1.2076102 -0.85303921
-0 0 -0
-5.8564148 1.9342077 -0.68744308
-5.8701525 1.9387447 -0.34530425
-4.1057291 1.3560059 0
-4.1627088 1.3748245 0.24486604
-3.1962068 1.0534753 -0.92848879
-3.6547334 1.2046064 -0.85247684
-0 0 -0
-5.8477564 1.9274305 -0.68628991
-4.0920868 1.3487588 -0.24066384
-4.0941916 1.3494525 0
-4.1660137 1.3731252 0.24501161
-3.187943 1.0464826 -0.92572016
-3.6465297 1.1970196 -0.85022527
-0 0 -0
-5.859911 1.9235899 -0.68744308
-4.0838385 1.3405716 -0.24008328
-4.10571 1.3477513 0
-4.1602607 1.3656583 0.24457605
-3.1892049 1.0426298 -0.92572016
-3.6479735 1.1926125 -0.85022527
-0 0 -0
-5.8671527 1.918117 -0.68802023
-4.0656967 1.3291767 -0.23892216
-4.0776515 1.3330849 0
-4.1693196 1.3630536 0.24501161
-3.1689951 1.0317861 -0.91949135
-3.6421614 1.1858431 -0.84853613
-0 0 -0
-5.8669996 1.9102232 -0.68773109
-4.0500116 1.3186342 -0.23790661
-4.0693607 1.324934 0
-4.1709638 1.3580147 0.24501161
-3.1177332 1.0109309 -0.90426248
-3.6363475 1.1790925 -0.84684908
-0 0 -0
-5.8668451 1.9023356 -0.68744308
-4.0268793 1.3057233 -0.23645493
-4.0660124 1.3184122 0
-4.1701226 1.3521701 0.24486604
-3.1857991 1.0287489 -0.92364299
-3.6329288 1.1731348 -0.8457222
-0 0 -0
-5.8765259 1.8976306 -0.68830824
-4.0235133 1.2992612 -0.23616493
-4.0774989 1.316694 0
-4.1593924 1.3431387 0.24414049
-3.194207 1.0272036 -0.92572016
-3.6440194 1.1718557 -0.84797376
-0 0 -0
-5.8541965 1.8826118 -0.68542588
-4.0127144 1.290422 -0.23543938
-4.0716615 1.3093784 0
-4.175859 1.3428864 0.24501161
-3.140491 1.005744 -0.90979975
-3.6478503 1.168226 -0.84853613
-0 0 -0
-5.8466139 1.8723813 -0.68427271
-4.0093169 1.2839859 -0.23514882
-4.0484509 1.2965187 0
-4.1725245 1.3362533 0.24472106
-3.2253528 1.0286257 -0.93402344
-3.6516869 1.1645917 -0.84910059
-0 0 -0
-4.052557 1.2924368 -0.47411779
-3.9885871 1.2720356 -0.2338427
-4.0648961 1.2963719 0
-4.1716628 1.3304218 0.24457605
-3.1453011 0.99891037 -0.91049129
-3.6603496 1.1624836 -0.85078764
-0 0 -0
-4.0442553 1.2844075 -0.47296461
-4.0000277 1.2703613 -0.23442325
-4.0565381 1.2883084 0
-4.1707931 1.3245944 0.24443105
-0 0 -0
-3.6738715 1.161893 -0.85360366
-0 0 -0
-4.0482678 1.2802991 -0.47325262
-3.9966092 1.2639616 -0.23413326
-4.0729752 1.2881129 0
-4.1823006 1.322688 0.24501161
-3.1931736 1.0056256 -0.92364299
-3.6558845 1.151347 -0.84910059
-0 0 -0
-4.042418 1.273078 -0.4723886
-3.9832582 1.2544467 -0.23326214
-4.0621195 1.2792826 0
-4.1640682 1.3113892 0.24385048
-3.2207205 1.010025 -0.93125743
-3.6669707 1.1499701 -0.85135216
-0 0 -0
-4.0340815 1.2650968 -0.47123542
-3.9872479 1.2504097 -0.23340714
-4.0785666 1.2790474 0
-4.1854849 1.3125771 0.24501161
-3.1788292 0.9926706 -0.91879719
-3.6416759 1.1372063 -0.84515989
-0 0 -0
-3.9985712 1.248656 -0.46691075
-3.9862781 1.2448171 -0.23326214
-4.0801091 1.2741182 0
-4.1796246 1.3051945 0.24457605
-3.1764302 0.9835031 -0.91741419
-3.6589723 1.1329103 -0.84853613
-0 0 -0
-3.9793427 1.232105 -0.4643164
-3.9867949 1.2344124 -0.23311713
-4.0931106 1.2673305 0
-4.187726 1.2966257 0.24486604
-3.1464522 0.9700563 -0.90841681
-3.6530612 1.1262447 -0.84684908
-0 0 -0
-3.9832978 1.2280571 -0.46460441
-3.9858027 1.2288295 -0.23297215
-4.0797219 1.2577848 0
-4.1892896 1.2915648 0.24486604
-3.1811938 0.97655952 -0.91810572
-3.6447031 1.1188471 -0.84459752
-0 0 -0
-3.9748883 1.2202071 -0.46345124
-3.9748669 1.2202005 -0.23224658
-4.0712872 1.2497995 0
-4.1834021 1.2842164 0.24443105
-3.1823714 0.97271496 -0.91810572
-3.6606274 1.1188973 -0.84797376
-0 0 -0
-3.9986286 1.2222099 -0.46604669
-3.9688811 1.2131174 -0.23181102
-4.0703077 1.2441192 0
-4.1948905 1.2821989 0.24501161
-3.1853559 0.97152334 -0.91879719
-3.666168 1.1181695 -0.84910059
-0 0 -0
-3.9845176 1.2152652 -0.4643164
-3.9745793 1.212234 -0.23210102
-4.0760326 1.2431769 0
-4.1956644 1.2796643 0.24501161
-3.1625268 0.96038532 -0.91187692
-3.6675165 1.1137389 -0.84910059
-0 0 -0
-3.9736111 1.2066927 -0.46287522
-3.9710732 1.205922 -0.23181102
-4.072556 1.2367399 0
-4.1897464 1.2723279 0.24457605
-3.1949008 0.96600169 -0.92087436
-3.6737192 1.1107759 -0.85022527
-0 0 -0
-3.9800131 1.2033862 -0.46345124
-3.9725275 1.2011228 -0.23181102
-4.0815234 1.2340785 0
-4.1987448 1.2695212 0.24501161
-0 0 -0
-3.6799293 1.1078024 -0.85135216
-0 0 -0
-3.9913709 1.2015585 -0.46460441
-3.9764616 1.1970702 -0.23195602
-4.0755329 1.2268945 0
-4.1952944 1.2629474 0.24472106
-3.1323478 0.9388327 -0.902188
-3.6836967 1.1040839 -0.85191447
-0 0 -0
-3.9630983 1.1878266 -0.461146
-3.977905 1.1922646 -0.23195602
-4.0720215 1.2204734 0
-4.2018003 1.2593709 0.24501161
-0 0 -0
-3.6801538 1.0981776 -0.85078764
-0 0 -0
-3.9496551 1.1785982 -0.4594157
-3.9967749 1.192659 -0.23297215
-4.0934443 1.2215056 0
-4.2008219 1.2535478 0.24486604
-3.2452183 0.96412164 -0.93402344
-3.6790447 1.0930071 -0.85022527
-0 0 -0
-3.9758749 1.1811923 -0.46229917
-4.0181398 1.1937488 -0.23413326
-4.0799537 1.212113 0
-4.2048316 1.2492131 0.24501161
-3.128511 0.92533666 -0.90011084
-3.6730509 1.0863982 -0.84853613
-0 0 -0
-3.9599349 1.1712515 -0.46028087
-4.0295463 1.1918409 -0.23471381
-4.0539608 1.199062 0
-4.2038388 1.2433923 0.24486604
-3.1464753 0.92651707 -0.90495664
-3.6743608 1.0819592 -0.84853613
-0 0 -0
-3.9489439 1.1628135 -0.45883968
-4.0185132 1.1832991 -0.2339877
-4.0554066 1.1941627 0
-4.2103286 1.2397813 0.2451566
-3.1331432 0.91847867 -0.90080231
-3.6634765 1.0739455 -0.8457222
-0 0 -0
-3.9478569 1.1573114 -0.45855054
-4.0199399 1.1784426 -0.2339877
-4.0568466 1.1892617 0
-4.2118235 1.2346931 0.2451566
-0 0 -0
-3.6598978 1.0680958 -0.84459752
-0 0 -0
-3.966635 1.1576133 -0.46056888
-4.013885 1.1714026 -0.23355269
-4.068274 1.1872753 0
-4.2182961 1.2310575 0.24544661
-0 0 -0
-3.6660609 1.0650892 -0.8457222
-0 0 -0
-3.9531331 1.1484913 -0.45883968
-4.0252786 1.1694516 -0.23413326
-4.0622053 1.1801798 0
-4.2172875 1.2252353 0.2453016
-0 0 -0
-3.6722317 1.0620719 -0.84684908
-0 0 -0
-3.9545178 1.1437138 -0.45883968
-4.0191979 1.1624204 -0.2336977
-4.061131 1.1745481 0
-4.2212586 1.2208599 0.24544661
-0 0 -0
-3.6905973 1.0625528 -0.85078764
-0 0 -0
-3.9509211 1.1375022 -0.45826253
-4.0230942 1.1582814 -0.2338427
-4.0750494 1.1732397 0
-4.2302246 1.2179159 0.24588217
-0 0 -0
-3.6869981 1.056694 -0.84966296
-0 0 -0
-3.9572701 1.1341541 -0.45883968
-4.0344825 1.156283 -0.23442325
-4.0739646 1.1675986 0
-4.2291975 1.2120883 0.24573717
-3.1228297 0.89092141 -0.89595652
-3.6809397 1.0501462 -0.84797376
-0 0 -0
-3.9461944 1.1258216 -0.45739737
-4.023385 1.1478436 -0.2336977
-4.0628614 1.159106 0
-4.2431502 1.210541 0.24646272
-3.1166708 0.88509333 -0.89388204
-3.6675451 1.0415343 -0.84459752
-0 0 -0
-3.9575043 1.123879 -0.45855054
-4.0222721 1.1422721 -0.23355269
-4.061758 1.1534857 0
-4.2446098 1.2054131 0.24646272
-3.0477295 0.86153668 -0.87380999
-3.6736863 1.0384831 -0.8457222
-0 0 -0
-3.9588592 1.1190963 -0.45855054
-4.0236492 1.1374111 -0.23355269
-4.0531316 1.1457453 0
-4.2360616 1.1974561 0.24588217
-0 0 -0
-3.6700513 1.0326682 -0.84459752
-0 0 -0
-3.9502494 1.1115096 -0.45739737
-4.0275197 1.1332517 -0.2336977
-4.0595183 1.1422554 0
-4.2475104 1.195152 0.24646272
-3.1512618 0.88258511 -0.90287948
-3.6786296 1.0302868 -0.84628457
-0 0 -0
-3.9416366 1.1039481 -0.4562453
-4.0288858 1.1283844 -0.2336977
-4.0734239 1.1408582 0
-4.2564602 1.192122 0.24689828
-0 0 -0
-3.6743617 1.0266979 -0.84515989
-0 0 -0
-3.9497688 1.1036527 -0.45710936
-4.0295668 1.1259501 -0.2336977
-4.081634 1.1404989 0
-4.2721906 1.1937445 0.24776883
-0 0 -0
-3.682946 1.0243006 -0.84684908
-0 0 -0
-3.9436309 1.0968022 -0.4562453
-4.0284233 1.1203847 -0.23355269
-4.0604458 1.1292907 0
-4.2686276 1.1871904 0.24747884
-3.1853433 0.88176215 -0.91187692
-3.6498928 1.0103581 -0.83896762
-0 0 -0
-3.9424534 1.0913444 -0.45595619
-4.0322762 1.1162089 -0.2336977
-4.0818725 1.1299381 0
-4.277565 1.1841093 0.24791384
-0 0 -0
-3.6658134 1.009998 -0.84234601
-0 0 -0
-3.938787 1.0852071 -0.45538017
-4.0411396 1.1134071 -0.23413326
-4.0882483 1.1263864 0
-4.3040481 1.1858432 0.24936551
-0 0 -0
-3.6670313 1.0055679 -0.84234601
-0 0 -0
-3.9326098 1.0783944 -0.45451501
-4.0424819 1.1085234 -0.23413326
-4.0695372 1.1159424 0
-4.2979579 1.1785796 0.24892995
-0 0 -0
-3.6706924 1.0018046 -0.84290832
-0 0 -0
-3.9488859 1.0777291 -0.4562453
-4.0463228 1.1043216 -0.23427826
-4.0683646 1.1103371 0
-4.3069015 1.1754386 0.24936551
-0 0 -0
-3.6645417 0.99536979 -0.84121913
-0 0 -0
-3.9426947 1.0709223 -0.45538017
-4.042634 1.098068 -0.2339877
-4.0797491 1.1081493 0
-4.3108239 1.1709142 0.24951051
-0 0 -0
-3.6559303 0.98828894 -0.83896762
-0 0 -0
-3.9414914 1.0654832 -0.45509216
-4.0464735 1.0938625 -0.23413326
-4.0785751 1.1025404 0
-5.8447919 1.5799927 0.33818585
-0 0 -0
-3.6350412 0.97793043 -0.83390218
-0 0 -0
-3.9452713 1.0613912 -0.45538017
-4.0477924 1.0889723 -0.23413326
-4.0849261 1.0989623 0
-0 0 0
-0 0 -0
-3.6116805 0.96696734 -0.82827443
-0 0 -0
-3.9415491 1.0552841 -0.45480302
-4.0340405 1.0800471 -0.23326214
-4.0887718 1.0947007 0
-5.863658 1.5698969 0.33905697
-0 0 -0
-3.6226671 0.96521932 -0.83052593
-0 0 -0
-3.9603188 1.0551828 -0.45682135
-4.0453858 1.077848 -0.2338427
-4.0900917 1.0897593 0
-5.8630424 1.5621424 0.33891198
-0 0 -0
-3.641016 0.96539789 -0.83446455
-0 0 -0
-3.9465952 1.0464207 -0.45509216
-4.0491943 1.0736245 -0.2339877
-4.1140432 1.0908189 0
-5.8548789 1.5523931 0.3383314
-0 0 -0
-3.6544709 0.96424079 -0.83728057
-0 0 -0
-3.9478567 1.0416512 -0.45509216
-4.0429587 1.0667442 -0.23355269
-4.1103206 1.0845178 0
-5.8567505 1.5453174 0.3383314
-0 0 -0
-3.6752942 0.9649865 -0.84178364
-0 0 -0
-3.9365966 1.0335941 -0.45364985
-4.0367022 1.059878 -0.23311713
-4.1116281 1.0795505 0
-5.8510714 1.5362593 0.33789584
-0 0 -0
-3.6985805 0.96632499 -0.84684908
-0 0 -0
-3.9478526 1.0314521 -0.45480302
-4.0379801 1.0549996 -0.23311713
-4.1078987 1.0732671 0
-5.8554349 1.5298445 0.33804086
-0 0 -0
-3.6972792 0.96121413 -0.84628457
-0 0 -0
-3.9440944 1.0253808 -0.454227
-4.0392518 1.0501198 -0.23311713
-4.1268263 1.0728872 0
-5.844707 1.5194998 0.33731529
-0 0 -0
-3.7033625 0.95801991 -0.84741139
-0 0 -0
-3.9378159 1.0186704 -0.45336184
-4.0354815 1.0439355 -0.23282658
-4.1331539 1.0692023 0
-5.8389897 1.5104836 0.33687973
-0 0 -0
-3.7045174 0.95354444 -0.84741139
-0 0 -0
-3.9415462 1.0145558 -0.45364985
-4.0417776 1.0403554 -0.23311713
-4.1520877 1.0687492 0
-5.8382964 1.5027801 0.33673474
-0 0 -0
-3.67556 0.94372338 -0.84065682
-0 0 -0
-3.9296348 1.0089587 -0.45220867
-4.0398912 1.0372678 -0.23297215
-4.1602874 1.0681803 0
-5.8392034 1.4992526 0.33673474
-0 0 -0
-3.708699 0.9474569 -0.84797376
-0 0 -0
-3.930851 1.0042098 -0.45220867
-4.0386167 1.0317405 -0.23282658
-4.2145247 1.0766795 0
-5.8384953 1.4915534 0.33658972
-0 0 -0
-3.6876802 0.93734205 -0.84290832
-0 0 -0
-3.9195302 0.99627411 -0.45076749
-4.0398602 1.0268599 -0.23282658
-4.2334809 1.0760747 0
-5.8402934 1.4844977 0.33658972
-0 0 -0
-3.7060559 0.93724692 -0.84684908
-0 0 -0
-3.9382863 0.99597704 -0.45278582
-4.0360646 1.0207049 -0.23253658
-4.2650547 1.0786155 0
-5.8320065 1.4748914 0.33600917
-0 0 -0
-3.7071857 0.93276817 -0.84684908
-0 0 -0
-3.9444985 0.99247867 -0.45336184
-4.0322604 1.0145605 -0.23224658
-4.266355 1.0734613 0
-5.8287396 1.4665742 0.33571863
-0 0 -0
-3.663938 0.9171806 -0.83671606
-0 0 -0
-3.9431882 0.98708433 -0.45307383
-4.0234003 1.0071635 -0.23166603
-4.2575507 1.0657775 0
-5.8330355 1.460163 0.33586419
-0 0 -0
-3.6872411 0.9182809 -0.84178364
-0 0 -0
-3.9268069 0.97794306 -0.4510555
-4.0447764 1.0073224 -0.23282658
-4.2613583 1.0612607 0
-5.8297477 1.4518567 0.33557361
-0 0 -0
-3.6932759 0.91504586 -0.84290832
-0 0 -0
-3.9480703 0.97817373 -0.45336184
-4.0459905 1.0024344 -0.23282658
-4.2550569 1.0542326 0
-5.8289781 1.4441873 0.33542863
-0 0 -0
-3.6943789 0.9105826 -0.84290832
-0 0 -0
-3.9567857 0.97526008 -0.454227
-4.0497289 0.99816853 -0.23297215
-4.2613859 1.0503373 0
-5.8332391 1.4377643 0.33557361
-0 0 -0
-3.7127533 0.91035426 -0.84684908
-0 0 -0
-3.9554517 0.96986306 -0.45393899
-4.0433588 0.99141753 -0.23253658
-4.2601266 1.0445683 0
-5.8324509 1.4300967 0.33542863
-0 0 -0
-3.6743541 0.89623362 -0.83784294
-0 0 -0
-3.9390285 0.96079195 -0.45192066
-4.0445538 0.9865312 -0.23253658
-4.2714992 1.0418869 0
-5.8265991 1.4212005 0.33499306
-0 0 -0
-3.7075324 0.89958137 -0.84515989
-0 0 -0
-3.9577839 0.9603014 -0.45393899
-4.0533209 0.98348212 -0.23297215
-4.2702188 1.0361094 0
-5.8283119 1.4141592 0.33499306
-0 0 -0
-3.7036815 0.89390969 -0.84403521
-0 0 -0
-3.9564197 0.95490992 -0.45364985
-4.0671334 0.9816314 -0.2336977
-4.2765322 1.0321712 0
-5.8224363 1.4052862 0.3345575
-0 0 -0
-3.6849933 0.88468862 -0.83953214
-0 0 -0
-3.9550581 0.94952548 -0.45336184
-4.0607338 0.97489595 -0.23326214
-4.2727103 1.025787 0
-5.826664 1.3988582 0.33470306
-0 0 -0
-3.1439812 0.75078648 -0.89180487
-3.6860595 0.88023537 -0.83953214
-0 0 -0
-3.9612389 0.94594854 -0.45393899
-4.0669684 0.97119689 -0.23355269
-4.3017936 1.0272733 0
-5.8258152 1.3912115 0.3345575
-0 0 -0
-3.1790535 0.75510257 -0.90149385
-3.6648643 0.87049443 -0.83446455
-0 0 -0
-3.9573412 0.93996483 -0.45336184
-4.0580268 0.96388012 -0.23297215
-4.2903738 1.0190682 0
-5.8249664 1.3835713 0.33441252
-0 0 -0
-3.1555526 0.74549377 -0.89457357
-3.6881759 0.87132502 -0.83953214
-0 0 -0
-3.9811263 0.94053406 -0.45595619
-4.0642414 0.96016979 -0.23326214
-4.2941322 1.0144812 0
-5.8291602 1.3771287 0.3345575
-0 0 -0
-3.1564512 0.74168032 -0.89457357
-3.6842742 0.86570442 -0.83840525
-0 0 -0
-3.9923315 0.93808949 -0.45710936
-4.0755167 0.95763576 -0.2338427
-4.300427 1.0104835 0
-5.8257656 1.3688967 0.3342675
-0 0 -0
-0 0 -0
-3.7001677 0.86472249 -0.84178364
-0 0 -0
-3.9607224 0.9256137 -0.45336184
-4.0741429 0.95211983 -0.2336977
-4.3168449 1.0088389 0
-5.8324714 1.3630379 0.3345575
-0 0 -0
-3.1431353 0.73254269 -0.89042193
-3.6957357 0.8613323 -0.84065682
-0 0 -0
-3.9864755 0.92909253 -0.4562453
-4.0797739 0.95083672 -0.2339877
-4.3073153 1.0038679 0
-5.8307652 1.3589247 0.33441252
-0 0 -0
-3.1660116 0.73384207 -0.89665067
-3.6645975 0.84940809 -0.83333981
-0 0 -0
-3.9875953 0.92427498 -0.4562453
-4.0707946 0.94355947 -0.23340714
-4.3059926 0.99807549 0
-5.8273454 1.3507061 0.33412251
-0 0 -0
-3.7186468 0.85247201 -0.84515989
-0 0 -0
-4.0125046 0.9198367 -0.45883968
-4.0680022 0.93255907 -0.23311713
-4.3210731 0.9905737 0
-5.8153911 1.333135 0.33325139
-0 0 -0
-3.657743 0.83385962 -0.8310883
-0 0 -0
-4.0438747 0.92188644 -0.46229917
-4.0893936 0.93226343 -0.23427826
-5.8116446 1.3248869 0
-5.8195386 1.3266865 0.33339694
-0 0 -0
-3.6983962 0.83842766 -0.84009445
-0 0 -0
-4.0525455 0.91871345 -0.46316323
-4.0778489 0.92444962 -0.23355269
-5.798008 1.3144103 0
-5.8160639 1.3185036 0.3331064
-0 0 -0
-3.6696622 0.82725298 -0.83333981
-0 0 -0
-4.0763588 0.9189347 -0.46575758
-4.0992413 0.92409313 -0.23471381
-5.7970557 1.3068318 0
-5.8176527 1.311475 0.3331064
-0 0 -0
-3.692971 0.82781976 -0.83840525
-0 0 -0
-4.1052308 0.9202323 -0.46892908
-4.0952792 0.91800147 -0.23442325
-5.7960935 1.2992575 0
-5.8192334 1.3044447 0.3331064
-0 0 -0
-3.6815708 0.82059354 -0.83559138
-0 0 -0
-4.1063399 0.91527128 -0.46892908
-4.1090641 0.91587842 -0.23514882
-5.7874985 1.2899884 0
-5.8157377 1.2962828 0.33281639
-0 0 -0
-3.6825597 0.81614447 -0.83559138
-0 0 -0
-4.099865 0.90862942 -0.46806392
-4.1177807 0.91260004 -0.23558438
-5.7915912 1.2835569 0
-5.8122211 1.2881291 0.33252582
-0 0 -0
-3.6959476 0.81442761 -0.83840525
-0 0 -0
-4.128747 0.90979797 -0.47123542
-4.1264954 0.90930188 -0.23601992
-5.785511 1.2748774 0
-5.8137732 1.2811052 0.33252582
-0 0 -0
-3.706857 0.81213635 -0.84065682
-0 0 -0
-4.112155 0.90093315 -0.46921709
-4.1275911 0.90431511 -0.23601992
-5.7870469 1.2678858 0
-5.8102455 1.2729683 0.33223584
-0 0 -0
-3.7053554 0.80711651 -0.84009445
-0 0 -0
-4.1157651 0.89651376 -0.4695051
-4.1362906 0.90098459 -0.23645493
-5.796206 1.2625545 0
-5.8066964 1.2648396 0.33194527
-0 0 -0
-3.7038469 0.80210143 -0.83953214
-0 0 -0
-4.1244316 0.89318281 -0.47037026
-4.1551557 0.89983636 -0.23747104
-5.7900944 1.2538971 0
-5.8056836 1.2572731 0.33180028
-0 0 -0
-3.7221942 0.80136746 -0.84347069
-0 0 -0
-4.1103415 0.88493335 -0.46864107
-4.1511641 0.89372224 -0.23718105
-5.7966986 1.2479966 0
-5.8097363 1.2508035 0.33194527
-0 0 -0
-3.6908619 0.78995663 -0.83615375
-0 0 -0
-4.1366949 0.88537836 -0.47152343
-4.1649432 0.89142436 -0.23790661
-5.78548 1.2382685 0
-5.8137817 1.244326 0.33209026
-0 0 -0
-3.7042377 0.78813976 -0.83896762
-0 0 -0
-4.1327066 0.87930381 -0.47094738
-4.1685562 0.88693142 -0.23805161
-5.7793331 1.2296517 0
-5.8025756 1.234597 0.33136472
-0 0 -0
-3.702704 0.78313804 -0.83840525
-0 0 -0
-4.1362944 0.87484431 -0.47123542
-4.1848731 0.88511902 -0.23892216
-5.7935433 1.2253597 0
-5.8116922 1.2291983 0.33180028
-0 0 -0
-3.6937013 0.77657241 -0.83615375
-0 0 -0
-4.1575975 0.87410301 -0.47354177
-4.1986613 0.88273638 -0.23964828
-5.7924752 1.2178235 0
-5.8080826 1.2211049 0.33150971
-0 0 -0
-3.7145343 0.77626687 -0.84065682
-0 0 -0
-4.1586509 0.86907876 -0.47354177
-4.1997252 0.87766248 -0.23964828
-5.7786627 1.2076304 0
-5.8146458 1.2151502 0.33180028
-0 0 -0
-3.6826677 0.76728559 -0.83333981
-0 0 -0
-4.1819615 0.87131369 -0.47613612
-4.2078786 0.87671351 -0.24008328
-5.8048639 1.2094462 0
-5.8026624 1.2089875 0.33107471
-0 0 -0
-3.6935446 0.76489627 -0.83559138
-0 0 -0
-4.1880717 0.86730802 -0.47671214
-4.2089348 0.87162852 -0.24008328
-5.7961273 1.2003204 0
-5.8015771 1.2014488 0.33092973
-0 0 -0
-3.7069073 0.76299357 -0.83840525
-0 0 -0
-4.2321815 0.87111098 -0.48161283
-4.2252603 0.86968637 -0.2409544
-5.7822843 1.1901689 0
-5.8106523 1.196008 0.33136472
-0 0 -0
-3.7451692 0.76615316 -0.84684908
-0 0 -0
-5.7763586 1.1816758 -0.65717375
-4.2466741 0.86874658 -0.24211551
-5.7862654 1.1837023 0
-5.8120933 1.1889861 0.33136472
-0 0 -0
-3.6962929 0.75150251 -0.83559138
-0 0 -0
-5.7828565 1.175727 -0.6577509
-4.2859087 0.87137872 -0.24429218
-5.7902393 1.177228 0
-5.8033404 1.1798916 0.33078414
-0 0 -0
-3.6971984 0.74703574 -0.83559138
-0 0 -0
-5.7741318 1.1666896 -0.65659773
-5.8303437 1.1780475 -0.33224195
-5.7789049 1.167654 0
-5.8047614 1.1728785 0.33078414
-0 0 -0
-3.77034 0.75707376 -0.85191447
-0 0 -0
-5.7780709 1.1602206 -0.65688574
-5.8317633 1.1710018 -0.33224195
-5.7956161 1.1637436 0
-5.7985392 1.1643305 0.33034915
-0 0 -0
-3.179733 0.63448554 -0.89457357
-3.691515 0.73660678 -0.83390218
-0 0 -0
-5.7845464 1.1542513 -0.65746289
-5.8178892 1.1609045 -0.3313714
-5.7868094 1.1547029 0
-5.8024874 1.1578313 0.33049417
-0 0 -0
-3.7048619 0.73461628 -0.83671606
-0 0 -0
-5.7707095 1.1442416 -0.65573257
-5.8218341 1.1543789 -0.33151641
-5.7830997 1.1466984 0
-5.79878 1.1498075 0.33020359
-0 0 -0
-0 0 -0
-3.7107375 0.73112243 -0.83784294
-0 0 -0
-5.7746229 1.1377676 -0.65602058
-5.8155837 1.1458379 -0.33108142
-5.7793694 1.1387026 0
-5.8027215 1.1433038 0.33034915
-0 0 -0
-0 0 -0
-3.7116182 0.7266382 -0.83784294
-0 0 -0
-5.7962999 1.1347647 -0.65832692
-5.8195119 1.1393089 -0.33122641
-5.7807412 1.1317186 0
-5.7989941 1.1352921 0.3300586
-0 0 -0
-0 0 -0
-3.7424233 0.72797483 -0.84459752
-0 0 -0
-5.7875113 1.1257846 -0.65717375
-5.8132296 1.1307874 -0.33079085
-5.7821045 1.1247329 0
-5.8003616 1.1282842 0.3300586
-0 0 -0
-0 0 -0
-3.7033844 0.715738 -0.83559138
-0 0 -0
-5.8091831 1.1227171 -0.65948009
-5.822248 1.1252421 -0.33122641
-5.7834592 1.1177455 0
-5.806828 1.1222619 0.33034915
-0 0 -0
-0 0 -0
-3.726702 0.71557438 -0.84065682
-0 0 -0
-5.790215 1.1117952 -0.65717375
-5.8184948 1.1172253 -0.33093584
-5.7873688 1.1112486 0
-5.7979722 1.1132847 0.3297686
-0 0 -0
-0 0 -0
-3.6926262 0.70440614 -0.8327775
-0 0 -0
-5.7509131 1.0970454 -0.6525622
