# .PCD v0.7 - Point Cloud Data file format
VERSION 0.7
FIELDS x y z
SIZE 4 4 4
TYPE F F F
COUNT 1 1 1
WIDTH 1836
HEIGHT 1
VIEWPOINT 0 0 0 1 0 0 0
POINTS 1836
DATA ascii
6.4694963 7.9563475 0
9.0013666 11.070105 0.79694819
4.8855934 6.0232782 -0.86444521
10.045433 12.384665 -0.89071023
6.4664354 7.9722438 0
8.9847136 11.076941 0.79665816
4.8831944 6.0352116 -0.86531037
10.027189 12.39275 -0.89041966
6.453527 7.9760089 0
8.9500704 11.061523 0.79477096
4.8775215 6.043118 -0.86559838
7.9037743 9.7925644 -0.70290947
6.4406128 7.9797463 0
8.9383345 11.074357 0.79491651
4.8685956 6.0469947 -0.86531037
7.8674912 9.7717457 -0.70073229
6.4293356 7.9854975 0
8.9151669 11.073002 0.79404539
4.8746691 6.0620327 -0.86704069
7.8860126 9.8068733 -0.70290947
6.4538627 8.0258827 0
8.9084749 11.078385 0.79404539
4.8657179 6.0658946 -0.86675155
10.01696 12.487741 -0.89419299
7.8803554 9.8241215 0
8.872323 11.060769 0.7920137
4.8616199 6.0758128 -0.8673287
10.001863 12.499835 -0.89419299
11.494194 14.364876 0
8.8589525 11.071481 0.7920137
4.8607292 6.0897684 -0.86848187
7.908761 9.9084978 -0.70813394
11.481701 14.384858 0
8.829361 11.061872 0.79056257
4.8598113 6.1037312 -0.86963505
7.8919258 9.9119463 -0.7076984
11.449723 14.3804 0
8.7981834 11.05017 0.78896594
4.857254 6.1156693 -0.87049907
7.8912573 9.9357204 -0.70871454
11.427482 14.388108 0
8.7864399 11.062826 0.7891109
4.8578963 6.1316762 -0.87194139
10.002646 12.625422 -0.89970803
11.400394 14.389669 0
8.7633867 11.061218 0.78824037
4.8520861 6.1395688 -0.8722294
10.001883 12.655845 -0.90101415
11.355568 14.368725 0
8.740345 11.059563 0.78736925
4.8494697 6.1515226 -0.87309456
9.9801483 12.659759 -0.9004336
11.347862 14.394694 0
8.7189341 11.059915 0.78664368
4.8516231 6.1695728 -0.87482375
7.8961473 10.041146 -0.71350396
11.315984 14.389986 0
8.6927137 11.054102 0.78548259
4.8414826 6.1873922 -0.87568891
7.8734584 10.062243 -0.71364897
11.268346 14.400893 0
8.6547709 11.060757 0.78446698
4.8371825 6.1973114 -0.87626493
9.9700069 12.773394 -0.90507805
11.223716 14.379624 0
8.6366014 11.06506 0.78403145
4.8328719 6.2072372 -0.87684208
9.954565 12.785432 -0.90507805
11.196737 14.380851 0
8.60886 11.057036 0.78272533
4.8301229 6.2191949 -0.87770611
7.883152 10.15023 -0.7178579
11.179353 14.394369 0
8.5763674 11.042804 0.78098369
4.8257761 6.2291198 -0.87828326
7.8899784 10.184398 -0.71959955
11.152391 14.395526 0
8.5630178 11.053159 0.78098369
4.8198256 6.2369909 -0.87857127
7.874486 10.189808 -0.71930903
11.114303 14.382223 0
8.5433006 11.055273 0.78040308
4.8201799 6.2530508 -0.88001245
7.8669286 10.205491 -0.71974456
11.081031 14.375034 0
8.522006 11.0553 0.77967757
4.8157773 6.2629752 -0.8805896
7.8830986 10.252064 -0.7223568
11.041441 14.359526 0
8.499135 11.053226 0.77880645
4.8145027 6.276999 -0.88174278
7.900754 10.300757 -0.72511458
11.028835 14.379053 0
8.4715424 11.044933 0.77750033
4.8147712 6.2930808 -0.88318396
7.87567 10.293787 -0.72395349
11.008293 14.388239 0
8.4471416 11.040721 0.77648473
4.7977457 6.2865534 -0.88145363
7.8726821 10.315685 -0.72482401
10.989317 14.399455 0
8.4322147 11.048848 0.77633917
4.7901464 6.292346 -0.88145363
7.8554945 10.318994 -0.72438902
10.951418 14.385805 0
8.4141407 11.052833 0.77590418
4.7825398 6.2981291 -0.88145363
7.8917303 10.392624 -0.72888792
10.938751 14.405248 0
8.3944931 11.054713 0.77532363
4.7896757 6.3154454 -0.88347197
7.8948684 10.409808 -0.7297585
10.886012 14.353792 0
8.3689709 11.034939 0.77358198
4.7851653 6.3253574 -0.88404912
7.8775859 10.413129 -0.72932351
10.870235 14.369018 0
8.3462286 11.032613 0.7727114
4.7728434 6.3249388 -0.88318396
7.8634281 10.42056 -0.72917795
10.840324 14.365522 0
8.3313217 11.040609 0.77256584
4.7683053 6.3348303 -0.88375998
7.8477087 10.425906 -0.72888792
10.813564 14.36613 0
8.3101635 11.04029 0.77184027
4.7699685 6.3530016 -0.8854903
7.8787899 10.493563 -0.73295182
10.780575 14.358378 0
8.2890177 11.039935 0.77111471
4.7684908 6.3670416 -0.88664347
7.8879089 10.532188 -0.7349835
10.744497 14.346397 0
8.2616549 11.031226 0.76980859
4.7685323 6.3831573 -0.88808465
10.37415 13.886837 -0.96821052
10.72871 14.361452 0
8.2327652 11.02038 0.76835692
4.7608156 6.3889146 -0.88808465
10.369783 13.916031 -0.96937162
10.697356 14.355626 0
8.2194433 11.03032 0.76835692
4.7546339 6.3967361 -0.88837266
10.34831 13.922293 -0.96893609
10.667582 14.351831 0
8.2076645 11.042335 0.76850247
4.7453623 6.4004006 -0.88808465
10.319099 13.918087 -0.96777493
10.639387 14.350082 0
8.1788368 11.031366 0.7670508
4.7330103 6.399889 -0.88721949
10.291463 13.915928 -0.96675938
10.62204 14.362927 0
8.1593218 11.032885 0.76647025
4.7329493 6.4160085 -0.88866067
10.268471 13.919989 -0.96617883
10.575322 14.335958 0
8.1336441 11.026007 0.76530915
4.7282619 6.4258933 -0.88923782
8.088048 10.991974 -0.76226807
10.547194 14.33405 0
8.1080017 11.019092 0.76414859
4.7189651 6.4295187 -0.88894981
8.0824461 11.012211 -0.76299363
10.502151 14.309023 0
8.0962172 11.030973 0.76429361
4.7142458 6.4393859 -0.88952583
8.0445814 10.98843 -0.76067191
10.455649 14.28181 0
8.0721359 11.026069 0.76327747
4.714087 6.4555197 -0.89096701
7.9853287 10.935192 -0.75631803
10.436846 14.292325 0
8.0358257 11.004343 0.76110083
4.7078047 6.4632998 -0.89125502
7.9415121 10.902825 -0.75341523
10.428765 14.317552 0
8.013341 11.001439 0.76022971
4.6969538 6.4648023 -0.890679
0 0 -0
7.9150987 10.894198 0
8.0046253 11.017422 0.76066524
4.6967263 6.4809427 -0.89212018
0 0 -0
7.9248323 10.935358 0
7.9852085 11.01867 0.76008469
4.6904058 6.4887071 -0.89240819
7.8821507 10.904167 -0.75152856
7.908567 10.940711 0
7.9657993 11.019887 0.75950414
4.6855903 6.49857 -0.89298534
7.8613725 10.903147 -0.75080299
0 0 0
7.93576 11.006317 0.75790745
4.6837754 6.5126262 -0.89413851
7.8360548 10.895761 -0.7496419
0 0 0
7.9179082 11.009575 0.75747246
4.6804271 6.5245876 -0.89500368
7.8153124 10.894667 -0.74891633
7.8612728 10.958736 0
7.9121714 11.02969 0.75819802
4.6710305 6.5281291 -0.89471453
7.8097014 10.914666 -0.7496419
7.8283396 10.940715 0
7.8897629 11.026558 0.7573269
4.6761112 6.5435801 -0.89644486
7.804615 10.921494 -0.74978691
7.8126469 10.932734 0
7.8800812 11.027099 0.75703692
4.6817112 6.5681791 -0.89903921
7.7929196 10.933031 -0.74993187
7.8024549 10.946408 0
7.8592119 11.026034 0.75631136
4.6827612 6.5864754 -0.9007684
7.791749 10.959381 -0.75109303
0 0 0
7.8172741 10.995283 0.75355357
4.6703148 6.5858054 -0.89990437
7.7890239 10.983627 -0.75210911
0 0 0
7.7994781 10.998368 0.75311857
4.662354 6.5914435 -0.89990437
7.7832479 11.003635 -0.75283468
7.7642255 10.976742 0
7.7861829 11.007785 0.75311857
4.6603446 6.6055179 -0.90105641
7.7834268 11.032139 -0.75414079
7.7584567 10.996746 0
7.7713742 11.015055 0.75297302
4.6493855 6.6069179 -0.90048039
7.7835484 11.060658 -0.75544691
7.7601438 11.0274 0
7.7610526 11.028691 0.75326353
4.6354551 6.604063 -0.89932722
7.7836123 11.089194 -0.75675303
7.7572756 11.051673 0
7.7551837 11.048693 0.7539891
4.6348877 6.6202512 -0.9007684
7.783618 11.117747 -0.75805914
7.7558565 11.078094 0
7.7492776 11.068697 0.75471467
4.6357727 6.6385746 -0.90249872
7.7805943 11.142059 -0.75907528
7.7528968 11.102396 0
7.7552361 11.105745 0.75660133
4.6218348 6.6356816 -0.90134555
7.7775226 11.16638 -0.76009136
7.7543478 11.133106 0
7.7522087 11.130035 0.75761747
4.6182365 6.6476278 -0.90220958
7.7743983 11.190701 -0.76110697
7.7512851 11.157432 0
7.7506151 11.156466 0.75877857
4.6278787 6.6787148 -0.90566909
7.7727103 11.217174 -0.76226807
7.7452078 11.177483 0
7.7489686 11.18291 0.75993967
4.6198053 6.6843019 -0.90566909
7.7635846 11.232972 -0.7627036
7.7405715 11.199675 0
7.742836 11.202951 0.76066524
4.6146641 6.6941419 -0.90624624
7.7544317 11.248765 -0.76313919
7.7373743 11.224021 0
7.7410922 11.229414 0.76182634
4.6094999 6.7039714 -0.90682226
7.717279 11.223867 -0.76081693
7.7459259 11.265531 0
7.7407665 11.258027 0.76313245
4.6028576 6.7116675 -0.90711027
7.5596972 11.02319 -0.74659413
7.739666 11.285611 0
7.7359724 11.280226 0.76400304
4.5976682 6.721498 -0.90768743
7.4070086 10.828575 -0.73280627
7.7392464 11.314285 0
7.73701 11.311016 0.76545471
4.5880866 6.7249136 -0.90739942
7.7687984 11.386991 -0.76996028
7.7138357 11.30643 0
7.732121 11.333231 0.76632529
4.5843186 6.7368617 -0.90826344
7.7681885 11.415701 -0.7712664
7.6899185 11.300679 0
7.7301164 11.359752 0.76748639
4.5819855 6.7509565 -0.90941662
7.7616844 11.435827 -0.77199197
7.6368012 11.251828 0
7.7309742 11.39058 0.76893753
4.5854244 6.7736225 -0.91172296
7.7507768 11.449505 -0.77228254
7.3985405 10.929179 0
7.7332296 11.423584 0.77053416
4.5798841 6.774251 -0.91143495
7.7598624 11.477859 -0.77387863
7.754859 11.470457 0
7.7365155 11.443325 0.7715503
4.5803685 6.7926431 -0.91316414
7.7590613 11.506614 -0.77518475
7.7322659 11.466877 0
7.7328477 11.467739 0.77256584
4.5779319 6.8067575 -0.91431731
7.7422547 11.511673 -0.77489477
7.7155032 11.471896 0
7.730587 11.494324 0.77372694
4.5697036 6.812284 -0.91431731
7.7225494 11.512387 -0.77431422
7.7306261 11.524427 0
7.7297192 11.523075 0.77503306
4.5517936 6.8211579 -0.9140293
7.6745162 11.500761 -0.77228254
7.7460876 11.608015 0
7.7249269 11.576304 0.77735531
4.5464168 6.8309631 -0.91460645
7.6649294 11.516509 -0.77271754
7.7421508 11.632534 0
7.7253275 11.607257 0.77880645
4.5338669 6.8299851 -0.91374129
7.6524496 11.527933 -0.77286309
7.7410421 11.661392 0
7.7227936 11.633902 0.77996755
4.5341754 6.8483939 -0.91547048
7.6342096 11.530669 -0.77242756
7.735569 11.683762 0
7.7259445 11.669225 0.78170919
4.5330219 6.8646574 -0.91691166
7.6116776 11.526871 -0.77155644
7.7157097 11.684413 0
7.7218633 11.693731 0.78272533
4.5275722 6.874454 -0.91748881
7.5905995 11.525211 -0.77083087
7.6929941 11.680682 0
7.7191615 11.720414 0.78388643
4.5249424 6.888567 -0.91864198
7.5723925 11.527865 -0.77039587
7.6760197 11.685623 0
7.7121258 11.74059 0.784612
4.5251179 6.9070063 -0.92037117
7.5598803 11.539178 -0.77054089
7.6718736 11.710122 0
7.6993566 11.752071 0.78475702
4.5181875 6.9146404 -0.92066032
7.5445118 11.546131 -0.77039587
7.6961565 11.778209 0
7.6951017 11.776594 0.7857731
4.509829 6.9200945 -0.92066032
7.5163651 11.533465 -0.7689442
7.7359123 11.870349 0
7.6893764 11.798942 0.78664368
4.5028725 6.9277053 -0.92094833
7.5123377 11.557792 -0.76996028
7.0323043 10.819256 0
7.7006006 11.847436 0.78925592
4.495904 6.9353094 -0.92123634
7.4997792 11.569038 -0.7701053
7.0263028 10.838662 0
7.7018294 11.880718 0.79085261
4.4945412 6.9515948 -0.92267752
7.484385 11.575912 -0.76996028
7.0146132 10.849327 0
7.7058077 11.918381 0.79273927
4.4889441 6.9613724 -0.92325467
7.481658 11.602418 -0.77112144
6.9958572 10.849047 0
7.7040734 11.947335 0.79404539
4.4903193 6.9820127 -0.92527187
7.4816861 11.6333 -0.77257252
6.9813366 10.855305 0
7.70228 11.976302 0.79535151
4.4762936 6.978725 -0.9241187
7.4844589 11.668578 -0.77431422
6.9625945 10.85497 0
7.7032371 12.009662 0.79694819
4.4790564 6.9923244 -0.92556101
7.5348716 11.762805 -0.78026479
6.9546328 10.856985 0
7.7029862 12.025251 0.7976737
4.4733863 7.0020862 -0.92613703
7.6241665 11.933928 -0.7910043
6.934505 10.854417 0
7.7010398 12.054255 0.79897982
4.4649224 7.0074863 -0.92613703
7.6753631 12.046122 -0.7978254
6.9185848 10.858395 0
7.7046194 12.092038 0.80086648
4.4620008 7.0216084 -0.9272902
7.6886749 12.099249 -0.8007282
6.8998766 10.85796 0
7.6997595 12.116693 0.80188262
4.4521303 7.0248117 -0.92700219
7.6865673 12.128282 -0.80203432
6.8811789 10.857496 0
7.7004156 12.150132 0.80347931
4.4464002 7.034555 -0.92757821
7.6830134 12.155132 -0.80319542
6.8666658 10.863605 0
7.7023835 12.185778 0.80522043
4.4392748 7.0421081 -0.92786622
7.6863337 12.192981 -0.80508208
6.8424315 10.854282 0
7.6918125 12.201672 0.80565596
4.4335184 7.0518508 -0.92844337
7.6964869 12.241852 -0.80769432
6.8306947 10.864743 0
7.6881275 12.228556 0.80681711
4.4249945 7.0572023 -0.92844337
7.6692672 12.231331 -0.8063882
6.8092694 10.859763 0
7.6885314 12.262054 0.80841374
4.4192042 7.066926 -0.92901939
7.6255522 12.194324 -0.80334044
6.794764 10.865779 0
7.6874843 12.293363 0.80986488
4.4120345 7.0744615 -0.92930853
7.5338149 12.080069 -0.79521316
6.7761211 10.865148 0
7.6877513 12.326898 0.81146157
4.4034834 7.0797873 -0.92930853
7.4698071 12.00973 -0.78998816
6.7602363 10.868903 0
7.6906905 12.36486 0.81334823
4.3962874 7.0872989 -0.92959654
7.4429641 11.998877 -0.78868204
6.7402406 10.866008 0
7.6812234 12.382976 0.81392878
4.3904395 7.0970006 -0.93017256
7.4352999 12.018916 -0.78940815
6.7243705 10.869722 0
7.6812887 12.41655 0.81552488
4.3777909 7.0957031 -0.92930853
7.4316816 12.045574 -0.79056871
6.7044001 10.866767 0
7.6799264 12.44794 0.81697655
4.3678546 7.0987782 -0.92901939
7.4743099 12.147491 -0.7966643
6.6898971 10.872638 0
7.6757736 12.474916 0.81813771
4.3619819 7.1084642 -0.92959654
7.5398054 12.287175 -0.8052271
6.6726756 10.874064 0
7.6742821 12.506324 0.81958878
4.3628416 7.1291747 -0.93161488
7.5764918 12.380494 -0.81074214
6.6568117 10.877675 0
7.6754413 12.542184 0.82133049
7.5425782 12.358592 -0.80871046
6.6368856 10.874606 0
7.6751676 12.575841 0.82292658
7.5168319 12.349939 -0.80754936
6.625093 10.884838 0
7.6721239 12.605081 0.8242327
7.5221295 12.392334 -0.8097266
6.6065345 10.883937 0
7.6636329 12.625454 0.8249588
7.5259867 12.43253 -0.81175822
6.5866408 10.880782 0
7.6604815 12.654709 0.82626492
7.5754142 12.548384 -0.81872439
6.5748329 10.890958 0
7.6586118 12.686196 0.82771605
7.6218953 12.659925 -0.82540053
6.8918643 11.447348 0
7.6606994 12.724379 0.82960272
7.6262941 12.684568 -0.82670665
6.9064026 11.487197 0
7.6677394 12.753503 0.83119941
6.5260181 10.884275 -0.7088595
6.9166093 11.535714 0
7.6643481 12.782814 0.83250552
6.5195284 10.903301 -0.70958507
6.8986578 11.53736 0
7.6622295 12.814363 0.83395666
0 0 -0
6.8154016 11.429454 0
7.6587167 12.843696 0.83526278
6.4758959 10.889993 -0.7076984
6.5209355 10.965733 0
7.6564755 12.875278 0.83671445
6.4521294 10.87993 -0.70653731
0 0 0
7.6488628 12.897926 0.83758497
6.4297233 10.872068 -0.7055217
0 0 0
7.6465025 12.929529 0.83903664
6.408659 10.866396 -0.70465064
6.4626312 10.957911 0
7.6414289 12.956656 0.84019721
6.3955245 10.874131 -0.70465064
6.4361949 10.943282 0
7.6349902 12.981561 0.84121335
6.3810673 10.879612 -0.70450562
6.4045367 10.919627 0
6.4401627 10.980369 0.71103007
6.3666062 10.885074 -0.7043606
6.3808265 10.909387 0
6.420332 10.97693 0.7103045
6.3521409 10.890516 -0.70421559
6.365015 10.912588 0
6.407064 10.984679 0.7103045
6.337667 10.895931 -0.70407003
6.3531318 10.922519 0
6.3898654 10.985672 0.70986897
6.3192868 10.894599 -0.70349008
6.3464622 10.941449 0
6.3752842 10.991139 0.70972395
6.3009143 10.893229 -0.70290947
6.3319302 10.946851 0
6.3476863 10.974091 0.70812726
6.2812519 10.889574 -0.70218337
6.3161001 10.949989 0
6.3344216 10.981752 0.70812726
6.2655005 10.892655 -0.70189339
6.2989707 10.950843 0
6.3159657 10.980389 0.70754671
6.2510428 10.897966 -0.70174837
6.2624283 10.917815 0
6.2988181 10.981257 0.70711172
6.2275491 10.887467 -0.70058727
6.247941 10.923118 0
6.2752237 10.970816 0.70595062
6.2195387 10.904012 -0.70116782
6.228292 10.919358 0
6.2580996 10.971617 0.70551503
6.212781 10.922811 -0.70189339
6.2138033 10.924607 0
6.2461214 10.981427 0.70566005
6.2175236 10.961947 -0.70392507
6.1928968 10.91853 0
6.234129 10.991224 0.70580506
6.216022 10.974746 -0.70450562
6.1824503 10.915473 0
6.2172475 10.97691 0.7046445
6.2188115 11.041811 -0.70784396
6.1688275 10.953062 0
6.1983504 11.005482 0.70551503
6.2130971 11.062906 -0.70871454
6.1823492 11.008158 0
6.1990457 11.037888 0.70711172
6.2098823 11.088543 -0.70987564
6.1779413 11.031507 0
6.1996665 11.070301 0.70870781
6.2192817 11.13687 -0.71248788
6.1836419 11.07305 0
6.1951556 11.093667 0.70972395
6.2184644 11.167083 -0.71393955
6.1778522 11.094151 0
7.6152458 13.675415 0.87430346
6.2364964 11.231371 -0.71756732
6.1808658 11.131185 0
7.6088076 13.70278 0.87546456
6.2644563 11.313913 -0.7223568
6.1774964 11.156859 0
7.6010571 13.727879 0.8764807
6.2821784 11.378342 -0.72598517
6.1816192 11.196207 0
7.5970211 13.759796 0.87793183
6.2634125 11.376819 -0.72540456
6.2170382 11.292584 0
7.5929189 13.791724 0.87938291
6.2621679 11.407161 -0.72685623
6.2221708 11.334301 0
7.5900049 13.825947 0.8809796
6.2745805 11.462583 -0.72990406
6.2284651 11.378337 0
7.5857677 13.857897 0.88243073
6.2719288 11.490681 -0.73121017
6.2371531 11.426969 0
7.5864491 13.898988 0.88446295
6.2729459 11.525639 -0.73295182
6.2320514 11.4505 0
7.5870371 13.940092 0.88649464
6.2738829 11.560607 -0.73469293
6.2306223 11.480891 0
7.5813413 13.969802 0.88780075
6.2685676 11.584178 -0.73570907
6.242754 11.536475 0
7.5792956 14.006376 0.8895424
6.2644367 11.610039 -0.73687017
6.2411704 11.566918 0
7.5771732 14.042966 0.89128411
6.268867 11.651917 -0.73904687
6.238286 11.595076 0
7.5700483 14.070417 0.89244521
6.2609291 11.670938 -0.73977298
6.2341132 11.620952 0
7.5702362 14.111607 0.89447689
6.262754 11.70828 -0.74165964
6.2323394 11.65142 0
7.5715599 14.155106 0.89665353
6.2571583 11.731881 -0.74267519
6.2292781 11.679606 0
7.5666814 14.187176 0.8981052
6.2563996 11.764671 -0.74427187
6.2298241 11.714698 0
7.5641737 14.223839 0.89984691
6.2543502 11.795175 -0.74572301
6.2217593 11.733711 0
7.5554991 14.249031 0.90086246
6.2510228 11.823396 -0.74702913
6.2233891 11.771128 0
7.5528502 14.285716 0.9026041
6.2572241 11.852449 -0.74862576
6.2284288 11.797905 0
7.5587759 14.317851 0.90434581
6.2562132 11.885296 -0.75022244
6.2299266 11.835358 0
7.5414701 14.326974 0.90434581
6.2515078 11.911253 -0.7513836
6.225297 11.861312 0
9.4295826 17.966568 1.1333638
6.2491565 11.941816 -0.75283468
6.2218189 11.889576 0
9.4199171 18.000977 1.1348156
6.2491465 11.977003 -0.75457639
6.2182817 11.917849 0
9.4185925 18.051506 1.1372828
6.2442636 12.002987 -0.75573748
6.2170854 11.950744 0
9.4099617 18.088224 1.1388789
6.2465038 12.042811 -0.75776917
6.2098327 11.972113 0
9.404851 18.131878 1.1409111
6.2414966 12.068815 -0.75893027
6.2120967 12.011966 0
9.4032259 18.182465 1.1433784
6.2364364 12.094824 -0.76009136
6.2106991 12.044909 0
9.3979187 18.226141 1.1454101
6.2384481 12.134699 -0.76212305
6.2080374 12.075546 0
9.3889542 18.262897 1.1470062
6.232079 12.158417 -0.76313919
6.2053108 12.106194 0
9.3751783 18.290417 1.1480223
6.2315731 12.193705 -0.76488084
6.2037067 12.139177 0
5.8685179 11.483292 0.72031844
6.2309861 12.228999 -0.76662195
6.194941 12.158257 0
5.8569999 11.495009 0.72060901
6.2256203 12.255053 -0.76778311
6.202642 12.20982 0
9.400609 18.504976 1.1593429
6.2248969 12.290382 -0.76952475
6.1937628 12.228912 0
9.3829393 18.525595 1.1599234
6.2182417 12.314134 -0.77054089
6.194231 12.266585 0
9.3617172 18.539234 1.1600684
6.2185469 12.351809 -0.77242756
6.1887674 12.292657 0
9.3369703 18.545887 1.1597779
6.2141075 12.380212 -0.77373368
6.1867485 12.325705 0
9.3098917 18.547867 1.1591973
6.213098 12.415596 -0.77547532
6.1834993 12.356449 0
9.281661 18.547485 1.1584718
6.2108488 12.448664 -0.77707148
6.180181 12.387195 0
9.2511215 18.542408 1.1574557
6.2085333 12.481753 -0.77866811
6.1779594 12.420287 0
9.2217684 18.539619 1.1565851
6.204989 12.512521 -0.78011924
6.1779776 12.458051 0
9.1912785 18.534451 1.155569
6.2025347 12.545634 -0.78171593
6.1756039 12.491162 0
9.1619692 18.53157 1.1546984
6.2076073 12.575011 -0.78331256
6.1807294 12.520564 0
9.1277676 18.490503 1.1517956
6.2073231 12.612809 -0.78519928
6.1736412 12.544371 0
9.5781202 19.462011 1.2115903
6.2069569 12.650624 -0.78708595
6.1768212 12.589204 0
9.5477276 19.45957 1.2107192
6.1996555 12.674447 -0.78810149
6.1718955 12.617696 0
9.5219259 19.466429 1.2104292
6.1877542 12.688938 -0.78853703
6.1612082 12.634501 0
9.5018158 19.484928 1.2108648
6.1769619 12.705753 -0.78911763
6.1425223 12.634912 0
9.4669018 19.473021 1.2094131
6.1616049 12.713207 -0.78911763
6.1193047 12.625929 0
9.4433651 19.484446 1.2094131
6.1677189 12.7651 -0.79187542
6.0904574 12.605194 0
9.4005985 19.45607 1.2069459
6.1613069 12.791262 -0.79303592
6.07974 12.621923 0
9.3658085 19.44401 1.2054948
6.1683426 12.845545 -0.79593873
6.0903959 12.683221 0
9.3490543 19.469362 1.2063653
6.1606717 12.869397 -0.79695487
6.1121478 12.768033 0
9.3075714 19.443144 1.204043
6.1529479 12.89324 -0.79797041
6.1168895 12.817681 0
9.2773581 19.44031 1.2031724
6.1507597 12.928823 -0.79971206
6.1103415 12.843864 0
9.2516317 19.446817 1.2028825
6.13625 12.9386 -0.79985768
6.1003928 12.862993 0
0 0 0
6.1406012 12.988285 -0.80246991
6.0826192 12.865644 0
0 0 0
6.138196 13.023901 -0.80421156
6.0559759 12.849448 0
9.1799669 19.477869 1.202737
6.1390257 13.066579 -0.8063882
6.0382342 12.85205 0
9.1542168 19.484247 1.2024469
6.1481028 13.168489 -0.81175822
5.9697275 12.786431 0
9.489625 20.325626 1.2529527
0 0 -0
6.1541147 13.223025 -0.81466103
5.9378004 12.758242 0
9.47054 20.348854 1.2536782
6.1501589 13.256373 -0.81625718
5.9201918 12.76069 0
9.4437599 20.355574 1.2533883
6.1450458 13.287384 -0.81770885
5.9419084 12.848142 0
5.3324547 11.530324 0.70957893
6.1489964 13.317037 -0.81930494
6.0574179 13.118703 0
5.3331094 11.550051 0.71059448
6.1470237 13.355141 -0.82119161
6.1057587 13.265488 0
5.3072019 11.530528 0.70899838
6.1449676 13.393258 -0.82307827
6.119029 13.336724 0
5.2780933 11.503863 0.70696616
6.1428285 13.431391 -0.82496494
6.1083207 13.355939 0
5.2479815 11.474794 0.70478946
6.1352177 13.457718 -0.8261261
6.0986533 13.377514 0
5.227643 11.466936 0.70391834
6.1340046 13.498245 -0.82815832
6.0835605 13.38724 0
5.2127099 11.470881 0.70377338
6.1294808 13.531676 -0.82975441
6.0770478 13.415924 0
5.1934857 11.465339 0.70304781
0 0 -0
6.128098 13.572233 -0.83178663
6.087606 13.482553 0
5.1828375 11.478713 0.70348334
6.1276879 13.615164 -0.83396333
6.0937395 13.539734 0
5.3171916 11.814315 0.72365677
6.1239948 13.651008 -0.83570498
6.0997396 13.59694 0
5.3826733 11.998526 0.73454124
6.1181006 13.682114 -0.83715612
6.0992427 13.63994 0
5.3713546 12.012139 0.73497683
6.1163759 13.722728 -0.83918834
6.0922914 13.668691 0
5.3515482 12.006757 0.73425126
6.1177239 13.770475 -0.84165561
6.0947881 13.718848 0
5.344418 12.02983 0.7352668
6.1115994 13.801612 -0.84310669
6.0908518 13.754758 0
5.3288274 12.033905 0.73512185
6.1075091 13.837513 -0.84484839
6.0868378 13.790679 0
5.3037925 12.016568 0.73367071
6.105432 13.878177 -0.84688008
6.082746 13.82661 0
5.2767129 11.994426 0.731929
6.1063967 13.925997 -0.84934729
6.0785761 13.86255 0
5.2695212 12.017453 0.73294514
6.0989299 13.954791 -0.85065341
6.0743279 13.898501 0
5.2674842 12.052383 0.73468679
6.0976305 13.997887 -0.85283065
6.0731173 13.941613 0
5.242538 12.034913 0.73323512
6.0941644 14.036227 -0.85471731
6.0738859 13.989521 0
5.7443552 13.230538 0.80565596
6.0906143 14.074579 -0.85660398
6.0673156 14.02074 0
4.5808749 10.585777 0.64426923
6.0880089 14.115328 -0.85863566
6.0699501 14.073458 0
4.5649924 10.584145 0.6438337
6.0842886 14.153706 -0.86052233
6.0591054 14.095123 0
4.54707 10.577719 0.64310813
6.0880337 14.186033 -0.86226398
6.0659852 14.134657 0
4.5396552 10.578078 0.64296311
6.0892839 14.236386 -0.86487681
6.0622058 14.17308 0
4.520741 10.569226 0.64209259
6.0812473 14.265244 -0.86618292
6.0624247 14.221091 0
4.5018511 10.560334 0.64122146
6.0853434 14.322803 -0.86923069
6.0594826 14.261935 0
4.485023 10.5562 0.64064091
6.0720854 14.339716 -0.86981124
6.0584822 14.30759 0
4.4722648 10.561611 0.64064091
6.0638461 14.368586 -0.87111735
6.0523214 14.341278 0
5.0171666 11.888428 0.72075397
6.0464797 14.375902 -0.87111735
6.0521402 14.38936 0
4.9947391 11.875319 0.71959287
6.0451736 14.421532 -0.87343901
6.0387735 14.406263 0
4.9703431 11.857387 0.71814173
6.0557895 14.495959 -0.87750292
6.0253749 14.423155 0
4.407145 10.549541 0.63860923
6.0532513 14.539251 -0.87968016
6.0179439 14.454446 0
4.4003854 10.569247 0.63947976
6.0506134 14.582548 -0.88185686
6.0144353 14.495356 0
4.3846269 10.567363 0.63904476
6.0518556 14.635475 -0.88461465
6.0187969 14.555527 0
4.3728471 10.575052 0.63918978
6.0391164 14.654787 -0.88534021
6.0061617 14.574818 0
4.3610549 10.582728 0.6393348
6.0233769 14.666876 -0.88563019
6.0073285 14.627798 0
4.3413539 10.571162 0.63831866
6.003684 14.669338 -0.88534021
6.0133071 14.692852 0
4.3207073 10.557171 0.6371581
5.9849739 14.674178 -0.8851952
6.0004625 14.712153 0
4.7740474 11.705184 0.70609558
5.9672389 14.681399 -0.8851952
5.9836607 14.721802 0
4.7569642 11.70372 0.70566005
5.9680266 14.734351 -0.88795245
5.9619598 14.719373 0
4.7428193 11.709459 0.70566005
5.9648085 14.777698 -0.89012969
5.9451466 14.728986 0
4.7286673 11.715181 0.70566005
5.9614906 14.821048 -0.89230633
5.9322004 14.748229 0
4.7193556 11.732938 0.70638561
5.9609776 14.87165 -0.89491856
5.9279294 14.789201 0
4.7042093 11.736222 0.70624059
5.9574623 14.91504 -0.8970958
5.9264655 14.837437 0
4.6900249 11.741898 0.70624059
5.9538507 14.958444 -0.89927304
5.9277816 14.892947 0
4.6777577 11.752389 0.70653117
5.9592018 14.998254 -0.90144968
5.9418459 14.954572 0
4.6754527 11.767285 0.70725673
5.9449015 15.015107 -0.90203029
5.9362254 14.993195 0
4.6583605 11.765676 0.70682114
5.924849 15.017449 -0.90174025
5.9534397 15.089918 0
4.6450934 11.77371 0.70696616
5.9076486 15.027014 -0.90188527
5.9456773 15.123745 0
4.6299138 11.776898 0.70682114
5.8875899 15.029298 -0.9015947
5.9330926 15.145453 0
4.609045 11.765546 0.70580506
5.8684816 15.033982 -0.90144968
5.9138427 15.150188 0
4.5938811 11.768688 0.70566005
5.8521972 15.04591 -0.90174025
8.4803352 21.802814 0
4.5787168 11.771811 0.70551503
5.8311949 15.0457 -0.90130472
8.450223 21.803337 0
4.5635514 11.774915 0.70537001
5.8120756 15.050313 -0.9011597
8.4257488 21.818392 0
4.5502553 11.782842 0.70551503
5.7976189 15.067025 -0.90174025
8.3928356 21.811554 0
4.5276175 11.766507 0.70420891
5.7794089 15.074019 -0.90174025
8.3636789 21.814386 0
4.5152555 11.776817 0.70449895
5.7574816 15.071282 -0.9011597
8.3261728 21.795311 0
4.497313 11.772555 0.70391834
5.7364926 15.07094 -0.90072417
8.2914972 21.783459 0
4.4812379 11.773129 0.70362836
5.6954641 15.072608 -0.89999861
8.2701092 21.886209 0
4.4592037 11.800941 0.7046445
5.6818242 15.091636 -0.90072417
8.2491579 21.910795 0
4.4440231 11.803882 0.70449895
5.6617579 15.093619 -0.9004336
8.2263336 21.930494 0
4.4324961 11.816544 0.70493448
5.6435161 15.10045 -0.9004336
8.2052937 21.95504 0
4.4209447 11.829195 0.70537001
5.6261754 15.109699 -0.90057915
8.1905642 21.996641 0
4.4093657 11.841826 0.70580506
5.607914 15.116487 -0.90057915
8.1431627 21.950409 0
4.3968635 11.852023 0.70609558
5.5896449 15.123252 -0.90057915
8.1021976 21.921175 0
4.3798361 11.850013 0.70566005
5.5641842 15.110488 -0.89941806
8.0424318 21.840591 0
4.3691058 11.86505 0.70624059
5.550396 15.129395 -0.90014356
6.0397043 16.463163 0
4.3547659 11.87032 0.70624059
5.5403619 15.130308 -0.89999861
6.0503359 16.523008 0
4.3511677 11.88271 0.70682114
5.5202928 15.132104 -0.89970803
6.0250173 16.515644 0
4.3332443 11.878194 0.70624059
5.5020046 15.138763 -0.89970803
6.0086126 16.532696 0
4.3153386 11.873652 0.70566005
5.4837084 15.1454 -0.89970803
6.0028076 16.579096 0
4.3036432 11.88619 0.70609558
5.46805 15.15935 -0.90014356
7.934196 21.996372 0
4.2857513 11.881604 0.70551503
5.4514847 15.170833 -0.9004336
7.9014535 21.988806 0
4.2678766 11.876992 0.70493448
5.4305248 15.170076 -0.89999861
7.8810163 22.01548 0
4.2412634 11.847896 0.70290279
5.4130626 15.179072 -0.90014356
7.8465424 22.002928 0
4.2007623 11.779592 0.69854891
5.3947177 15.185602 -0.90014356
7.8042703 21.968256 0
4.174346 11.750375 0.69651669
5.3746328 15.187215 -0.89985359
8.1979246 23.165049 0
4.1540794 11.738271 0.69550109
5.3571415 15.196146 -0.89999861
8.1716604 23.179852 0
4.1398931 11.743281 0.69550109
5.3387761 15.202608 -0.89999861
8.1358862 23.16761 0
4.1188126 11.728662 0.69433999
5.32126 15.211498 -0.90014356
8.100153 23.155317 0
4.0986309 11.716458 0.69332385
5.3020215 15.215466 -0.89999861
8.0738792 23.17 0
4.0844712 11.721402 0.69332385
5.2836328 15.221861 -0.89999861
8.0364895 23.152691 0
4.0668969 11.71651 0.6927433
5.2677813 15.235594 -0.9004336
8.0119095 23.172224 0
4.0501885 11.714046 0.69230777
5.2527528 15.251776 -0.90101415
7.9703484 23.142527 0
4.0402646 11.731222 0.69303387
5.2334776 15.255655 -0.90086913
6.0913682 17.756416 0
4.0277715 11.741007 0.69332385
5.2108402 15.249677 -0.90014356
6.0791659 17.790857 0
4.0161033 11.753243 0.69375944
5.1949224 15.263344 -0.90057915
6.0626941 17.812967 0
4.0010624 11.75563 0.69361442
5.1756396 15.267141 -0.9004336
0 0 0
3.9843514 11.753071 0.69317889
5.1571884 15.273384 -0.9004336
6.0121369 17.805376 0
3.9701474 11.757876 0.69317889
5.1370745 15.274683 -0.90014356
5.9798346 17.780563 0
3.9542792 11.757735 0.69288832
5.1319785 15.290098 -0.90086913
5.9657788 17.774303 0
3.9430416 11.747808 0.69216275
5.1118536 15.291365 -0.90057915
5.9434733 17.779034 0
3.9271977 11.747639 0.69187278
5.0958338 15.304919 -0.90101415
5.9228077 17.788668 0
3.9006865 11.715392 0.68969554
5.0822458 15.325868 -0.90188527
5.9004912 17.793344 0
3.8881652 11.725035 0.68998611
5.0669832 15.341867 -0.90246582
0 0 0
3.8951807 11.793871 0.69375944
5.0460052 15.340571 -0.90203029
0 0 0
3.8866084 11.81584 0.69477499
5.0396004 15.383699 -0.90420747
0 0 0
3.8796113 11.842758 0.6960817
5.0306768 15.419412 -0.90594858
5.8015079 17.782068 0
3.8596563 11.830143 0.69506556
5.0200729 15.450196 -0.90740031
5.7816243 17.79401 0
3.8365257 11.807611 0.69346887
5.015799 15.500747 -0.91001254
5.7601199 17.800983 0
3.809459 11.772693 0.69114721
5.0281458 15.603244 -0.91567254
5.7505808 17.845089 0
3.7952313 11.777287 0.69114721
5.0259624 15.661263 -0.9187203
5.7441244 17.899109 0
3.7873468 11.801648 0.69230777
5.0236454 15.719299 -0.92176813
5.734374 17.943214 0
3.7770414 11.818599 0.69303387
5.0133171 15.752598 -0.92336476
5.7221603 17.979889 0
3.7627583 11.823153 0.69303387
5.0209689 15.842857 -0.92829925
5.7051468 18.001671 0
3.7429736 11.810349 0.69201773
5.0135503 15.886076 -0.93047595
7.8897033 24.999535 0
3.730263 11.819815 0.69230777
5.0130486 15.951616 -0.93395925
7.8610497 25.014009 0
3.7159784 11.824314 0.69230777
5.0030828 15.98742 -0.93570095
7.8424788 25.060749 0
3.6993623 11.821362 0.69187278
5.0015397 16.050505 -0.93903875
8.0312939 25.773329 0
3.6827559 11.818379 0.69143718
4.9898438 16.081358 -0.94049042
8.0263672 25.867521 0
3.670784 11.830268 0.69187278
4.9819126 16.124609 -0.94266707
8.0196867 25.956758 0
3.6549511 11.829725 0.6915822
4.9798269 16.152451 -0.94411874
5.9653401 19.349039 0
3.6439764 11.819518 0.69085664
4.9702187 16.190746 -0.9460054
5.9541759 19.396038 0
3.627404 11.816458 0.6904211
4.9597664 16.226561 -0.94774711
5.9246492 19.383308 0
3.6085675 11.805927 0.68955052
4.9567986 16.287226 -0.95093989
5.8891006 19.350616 0
3.5867357 11.785424 0.68809944
4.9529386 16.345423 -0.95398766
5.8634529 19.350254 0
3.5657086 11.767362 0.68679273
4.9466929 16.39617 -0.95659989
5.830296 19.324936 0
3.5469859 11.75674 0.68592221
4.935101 16.429512 -0.95819658
5.826406 19.396767 0
3.5193233 11.716228 0.68330997
4.9360895 16.505159 -0.96225995
5.8044543 19.408775 0
3.4835737 11.648278 0.67910105
4.9287477 16.553446 -0.96472716
5.7839694 19.425751 0
3.4383545 11.547887 0.67300546
4.9227743 16.606726 -0.96748495
0 0 0
3.4111071 11.507195 0.67039323
4.9126563 16.720779 -0.97343498
0 0 0
3.3744988 11.485487 0.66865158
4.8975558 16.744162 -0.97445107
5.6783233 19.413513 0
3.3482182 11.447161 0.66618431
4.8889437 16.789986 -0.97677332
5.66432 19.452843 0
3.3263927 11.423753 0.66458768
4.8606939 16.768425 -0.97517663
5.655302 19.509665 0
3.3096931 11.417781 0.66400713
4.8512359 16.811737 -0.97735387
5.6504831 19.581491 0
3.2951746 11.419277 0.66386211
4.8273325 16.805101 -0.9766283
5.6483727 19.66334 0
3.2792215 11.415756 0.66342652
4.8077369 16.813419 -0.97677332
5.6446433 19.740211 0
3.2725706 11.444698 0.66487819
4.7760358 16.779228 -0.97445107
5.638598 19.809593 0
3.2630062 11.463634 0.66574878
4.7677994 16.827486 -0.97691834
5.633811 19.883991 0
3.2512782 11.475071 0.66618431
4.7622743 16.88575 -0.9799661
5.6309724 19.965921 0
3.2374103 11.478992 0.66618431
4.7601261 16.956533 -0.98373944
5.6272411 20.045372 0
3.2305596 11.507907 0.66763544
4.7738981 17.084896 -0.99085116
5.6177235 20.104792 0
3.7117171 13.283548 0.7703892
4.7762265 17.173264 -0.99564064
5.6150446 20.189295 0
3.6685092 13.190388 0.76472861
5.6223269 20.26289 0
3.6459534 13.140033 0.76168138
5.6089234 20.309807 0
3.2095318 11.621654 0.67344105
5.600244 20.374289 0
3.2065058 11.665612 0.67576325
5.579741 20.396097 0
3.195148 11.679494 0.67634326
5.5619278 20.427931 0
3.1810331 11.683346 0.67634326
3.7744794 13.929341 -0.80609822
4.3794966 16.162096 0
3.1614797 11.667127 0.6751827
3.7515571 13.911315 -0.80479211
0 0 0
3.1419673 11.650867 0.6740216
3.7300298 13.898268 -0.80377597
3.7670553 14.036226 0
3.1238446 11.639593 0.67315048
0 0 -0
3.7574778 14.068419 0
3.1024046 11.615751 0.67155433
0 0 -0
3.7418144 14.077983 0
3.0756843 11.571775 0.66879654
0 0 -0
3.7214744 14.069917 0
3.0550568 11.550367 0.66734546
3.6581829 13.89854 -0.80275989
3.6925483 14.029106 0
3.041759 11.556561 0.66749042
3.6394134 13.895417 -0.80232489
3.6597688 13.973136 0
3.0205503 11.532575 0.66589379
3.6258967 13.912374 -0.80305046
3.6448522 13.985105 0
2.9738505 11.410508 0.65863764
3.6032138 13.894111 -0.80174434
3.6286037 13.992016 0
2.9274478 11.288336 0.65138096
3.5812287 13.878326 -0.80058318
3.6279504 14.059386 0
2.9001725 11.23903 0.64833313
3.5631633 13.877604 -0.80029267
0 0 0
2.8891749 11.252593 0.64891368
3.5502524 13.89701 -0.80116379
3.6197281 14.168963 0
2.8890822 11.308944 0.65196151
3.5347371 13.906322 -0.80145377
3.5885017 14.117842 0
2.8818154 11.337605 0.65341264
3.5230281 13.930736 -0.80261487
3.5625086 14.086849 0
2.8528242 11.28062 0.64992929
3.5061929 13.934982 -0.80261487
3.5486593 14.10376 0
2.8252439 11.228625 0.6467365
3.4843047 13.919044 -0.80145377
3.5170789 14.04997 0
3.493741 13.956739 0.80362433
3.4819272 13.981238 -0.80479211
3.4862647 13.998655 0
3.4900608 14.013899 0.8066721
3.4728515 13.980811 -0.80464655
3.4533401 13.902263 0
3.4834735 14.023573 0.80710763
0 0 -0
3.4209313 13.843266 0
3.4540589 13.97732 0.80420488
0 0 -0
3.3992314 13.82717 0
3.4191785 13.90831 0.79999596
0 0 -0
3.3893228 13.859078 0
3.3887918 13.856906 0.79680318
0 0 -0
3.3774958 13.883393 0
3.4002991 13.977127 0.80347931
3.3576555 13.874809 0
3.3950186 14.029203 0.80623651
3.3396711 13.873801 0
3.3774569 14.030772 0.80609155
3.3216941 13.872769 0
3.349004 13.986827 0.80333376
3.306134 13.881831 0
2.6897848 11.293898 0.64847815
3.2899573 13.888346 0
2.6743388 11.289552 0.64804262
3.7434275 15.888206 -0.91175419
3.2713847 13.884719 0
2.6612933 11.295311 0.64818817
3.7123702 15.84212 -0.90885139
3.2563851 13.896255 0
2.6440849 11.283335 0.64731705
3.6973543 15.864311 -0.90986753
3.2419546 13.910318 0
2.6304493 11.286521 0.64731705
3.6682088 15.825737 -0.90740031
3.2451231 14.000421 0
2.6197431 11.302345 0.64804262
3.639745 15.789645 -0.90507805
3.2439885 14.072805 0
2.6107538 11.325759 0.64920372
3.6270511 15.821894 -0.90667474
3.2293079 14.086862 0
2.597647 11.331436 0.64934874
3.3982892 14.906669 -0.85399175
3.6212294 15.884601 0
2.5862634 11.3447 0.64992929
3.3808489 14.913296 -0.85413677
3.5991571 15.876276 0
2.5737038 11.35289 0.6502198
3.3588262 14.899623 -0.85312063
3.5753925 15.860303 0
2.5645556 11.37627 0.65138096
3.3368435 14.88593 -0.85210508
3.3461809 14.927585 0
2.5564904 11.404711 0.65283203
3.3165932 14.879806 -0.85152453
3.3326709 14.951939 0
2.5641885 11.504163 0.65834707
3.2974858 14.878724 -0.85123396
3.3055944 14.915311 0
2.5812075 11.646774 0.66632932
3.2873759 14.875644 -0.85094398
3.2909658 14.891889 0
2.5865052 11.704146 0.66952211
3.2671685 14.869453 -0.85036337
3.2746456 14.903482 0
2.5807261 11.745334 0.67169935
3.2447629 14.853082 -0.84920228
3.2566352 14.907428 0
2.8471315 13.032902 0.74513632
3.2229524 14.839214 -0.84818614
3.2369626 14.90372 0
2.8341386 13.049026 0.74586189
3.2072134 14.853257 -0.84876674
3.2189519 14.90762 0
2.8293359 13.10323 0.7487641
3.1713095 14.860965 -0.84876674
3.1774862 14.889909 0
2.8166432 13.198975 0.75384414
3.1511939 14.854618 -0.84818614
3.1589527 14.891193 0
2.7791238 13.100693 0.74803853
3.134316 14.863504 -0.84847671
3.1404188 14.892447 0
2.4823627 11.771822 0.67198938
3.1152868 14.86219 -0.84818614
3.1234908 14.901329 0
2.4724016 11.795158 0.67315048
3.094677 14.853227 -0.84746063
3.1049528 14.902547 0
2.4613287 11.813405 0.6740216
3.07989 14.872227 -0.84833175
3.0827217 14.8859 0
2.4507396 11.834174 0.67503715
3.0697739 14.914106 -0.85050839
3.0657811 14.894708 0
2.4353919 11.832042 0.67474717
3.0658107 14.986532 -0.85442674
3.0415225 14.867805 0
2.7845802 13.6118 0.7760492
3.0611615 15.056436 -0.85820067
3.0417039 14.960732 0
2.4445815 12.023764 0.68534166
3.0460532 15.0754 -0.8590712
3.0457866 15.07408 0
2.4305654 12.029254 0.68548661
3.0324388 15.101995 -0.86037731
3.0977576 15.427293 0
2.4155176 12.029636 0.68534166
3.0131729 15.100557 -0.86008734
0 0 0
2.3979304 12.017262 0.68447107
2.9979558 15.119475 -0.86095786
3.0589478 15.427073 0
2.3909876 12.058375 0.68664771
2.9671273 15.059353 -0.85732955
0 0 0
2.3894749 12.127537 0.6904211
2.9344518 14.988978 -0.85312063
0 0 0
2.3708274 12.110024 0.68926054
2.9128668 14.974667 -0.85210508
0 0 0
2.349246 12.077167 0.68722832
2.9043133 14.978971 -0.8522501
2.978323 15.360677 0
2.3350255 12.042875 0.68519664
2.8852282 14.977363 -0.85195953
2.958777 15.359158 0
2.3155582 12.020177 0.6837455
2.8656647 14.973188 -0.85152453
0 0 0
2.2976129 12.005099 0.68272942
2.8470857 14.97409 -0.85137951
2.9070687 15.289567 0
2.277766 11.979784 0.68113273
2.8285067 14.974958 -0.85123396
2.8919718 15.310962 0
2.2579854 11.954449 0.67953658
2.8056192 14.952831 -0.84978282
2.8571525 15.227483 0
2.2392268 11.934186 0.67823046
2.7937386 14.989416 -0.85166949
2.8516264 15.300005 0
2.2229006 11.926664 0.67764992
2.7775168 15.003001 -0.8522501
0 0 0
2.2094331 11.934447 0.67793995
2.7570374 14.99357 -0.85152453
2.7868762 15.155843 0
2.1921926 11.92178 0.67706937
2.7459199 15.035226 -0.85370117
2.7783799 15.21296 0
2.1731164 11.898853 0.67561769
2.7258956 15.028306 -0.85312063
2.7576723 15.203495 0
2.148999 11.847781 0.67256993
2.7031293 15.006021 -0.85166949
2.7383778 15.201698 0
2.1240878 11.791559 0.66923213
2.6946039 15.062988 -0.85471731
2.7310064 15.26648 0
2.1048048 11.765978 0.66763544
2.6836729 15.107167 -0.85703951
2.6966257 15.180083 0
2.0937681 11.786424 0.66865158
2.647814 15.010608 -0.85137951
0 0 0
2.0858436 11.824765 0.67068326
2.6413295 15.080338 -0.85515285
0 0 0
2.0746927 11.845196 0.67169935
2.6168723 15.047673 -0.85312063
0 0 0
2.0617146 11.855377 0.67213494
2.6141624 15.140447 -0.85820067
0 0 0
2.0429664 11.832249 0.67068326
2.6055238 15.199933 -0.86139345
0 0 0
2.0207665 11.788614 0.66807103
2.5845394 15.187696 -0.86052233
0 0 0
2.0012896 11.760307 0.66632932
2.56056 15.157502 -0.85863566
2.8221536 16.706034 0
1.9831831 11.73966 0.66502321
2.5572841 15.25028 -0.86371565
0 0 0
1.9672778 11.731797 0.66444266
2.540134 15.261042 -0.86415064
0 0 0
1.9607792 11.780298 0.66705489
2.5360143 15.293335 -0.86589235
0 0 0
2.0029697 12.078831 0.68389052
2.5162671 15.288693 -0.86545676
0 0 0
2.0039864 12.176105 0.68926054
2.4998875 15.304553 -0.86618292
0 0 0
1.9955546 12.216978 0.69143718
2.4809761 15.30499 -0.86603737
2.5066102 15.463123 0
1.9787128 12.206557 0.69071168
2.4637198 15.315676 -0.8664729
2.4854434 15.450719 0
1.9581852 12.173028 0.68867999
2.4472594 15.331469 -0.86719847
2.4782586 15.52567 0
1.9406075 12.157421 0.68766385
2.4299524 15.342116 -0.867634
2.4586837 15.523518 0
1.9181926 12.110991 0.68490607
2.4154458 15.370706 -0.86908513
2.4415393 15.536751 0
1.8987184 12.082507 0.68316495
2.3980727 15.381318 -0.86952066
2.4223638 15.537121 0
1.8809154 12.064253 0.68200386
2.3834567 15.409879 -0.8709718
2.4043849 15.545185 0
1.8671303 12.071648 0.68229383
2.3648353 15.412747 -0.8709718
2.3871784 15.558369 0
1.8478138 12.043075 0.68055218
2.3516846 15.451562 -0.87300402
2.3715103 15.581824 0
1.8313062 12.032456 0.67982662
2.3322363 15.449249 -0.87271351
2.3538451 15.592391 0
1.8187051 12.047504 0.68055218
2.319339 15.490605 -0.87489069
2.3377011 15.613243 0
1.8056858 12.059973 0.68113273
2.2979479 15.475402 -0.8738746
2.3176866 15.608331 0
1.7918763 12.067291 0.68142331
2.2837899 15.509016 -0.87561625
2.3018584 15.631718 0
1.7742656 12.048882 0.68026215
2.2642984 15.506627 -0.87532628
2.2859771 15.655089 0
1.7495681 11.981592 0.67634326
2.2492828 15.535063 -0.87677741
2.2633309 15.632089 0
1.723176 11.901415 0.67169935
2.2279251 15.519762 -0.87576127
2.2514663 15.68375 0
1.7025176 11.859766 0.66923213
2.2073405 15.509583 -0.8750357
2.2420471 15.753445 0
1.6881862 11.861814 0.66923213
2.2009404 15.599714 -0.87997019
2.2266471 15.781917 0
1.674215 11.866416 0.66937715
2.1777709 15.571482 -0.87822849
0 0 0
1.6580763 11.855566 0.66865158
2.1521759 15.525207 -0.87547129
0 0 0
1.6426792 11.849836 0.66821599
0 0 -0
2.1807423 15.801459 0
1.6337439 11.837959 0.66749042
0 0 -0
0 0 0
1.7890562 13.198779 0.74397516
0 0 -0
4.7750263 35.55048 0
1.783829 13.280759 0.74847406
0 0 -0
4.7169619 35.442726 0
1.7869757 13.427136 0.75660133
0 0 -0
4.6778741 35.476772 0
1.7789029 13.491114 0.76008469
0 0 -0
4.6390491 35.513367 0
1.7787544 13.616918 0.7670508
0 0 -0
4.5881195 35.457001 0
1.7669687 13.65514 0.76908308
0 0 -0
4.7365003 36.954487 0
1.7481551 13.639221 0.76806694
0 0 -0
4.6869292 36.921463 0
1.7274199 13.607815 0.76618028
0 0 -0
4.6767211 37.200794 0
1.7057903 13.568642 0.76385802
0 0 -0
4.6626296 37.454323 0
1.6916413 13.588745 0.76487416
0 0 -0
4.6488886 37.715637 0
1.674902 13.588193 0.76472861
0 0 -0
4.6225424 37.878796 0
1.6543905 13.556678 0.76284194
4.6079822 38.142715 0
1.6320882 13.509661 0.76008469
4.5934081 38.411819 0
1.6126784 13.485826 0.75863355
4.6017432 38.879932 0
1.5893574 13.428413 0.75529522
4.5656605 38.978516 0
1.5679919 13.386453 0.752828
4.5194588 38.991764 0
1.5440378 13.321232 0.74905467
4.4723415 38.997196 0
1.5190593 13.245647 0.74470073
4.4240441 38.992226 0
1.492215 13.151946 0.73933071
4.3757653 38.987198 0
1.4702364 13.099515 0.73628294
4.3280787 38.987282 0
1.4549811 13.106452 0.73657352
0 0 0
1.562537 14.153283 0.79535151
2.7251554 24.960627 0
1.4346069 13.140055 0.73831463
2.6952722 24.966486 0
1.4270961 13.219287 0.74266905
2.6645513 24.964554 0
1.4251859 13.352766 0.75007075
2.6341119 24.96517 0
1.4093231 13.35706 0.75021577
2.6044838 24.973507 0
1.3923738 13.350998 0.74978018
2.5708377 24.942984 0
1.3786381 13.375931 0.75108629
0 0 -0
2.5420153 24.959015 0
1.363265 13.385345 0.75152189
0 0 -0
2.512377 24.967253 0
1.3452691 13.368881 0.75050575
0 0 -0
4.3771 44.03233 0
1.4632808 14.720171 0.82626492
0 0 -0
4.3221116 44.019451 0
1.4426999 14.69348 0.82466829
0 0 -0
4.2684178 44.019466 0
1.4246942 14.692628 0.82452327
0 0 -0
4.3531327 45.464916 0
1.4064442 14.689161 0.8242327
0 0 -0
4.2999086 45.488281 0
1.3879613 14.683096 0.8237977
0 0 -0
4.2425232 45.467525 0
1.3675629 14.656301 0.82220101
0 0 -0
4.1909232 45.508907 0
1.3481843 14.639828 0.82118493
0 0 -0
4.131928 45.469879 0
4.0264273 44.308891 2.4851229
0 0 -0
4.2607956 47.525085 0
3.9749734 44.337013 2.486429
0 0 -0
4.2058887 47.558708 0
3.9170494 44.292614 2.4836719
0 0 -0
4.1490989 47.571533 0
3.8574324 44.227428 2.4797535
0 0 -0
4.0936217 47.599846 0
3.8910394 45.244259 2.5364997
0 0 0
3.8637042 45.246601 2.5364997
0 0 0
3.8090298 45.251236 2.5364997
0 0 -0
0 0 0
3.7509124 45.214371 2.5341775
0 0 -0
0 0 0
3.692467 45.17226 2.5315654
0 0 -0
0 0 0
3.6289146 45.065323 2.5253248
0 0 -0
4.3358021 54.669304 0
3.5726106 45.046364 2.5240188
4.2689314 54.664124 0
3.516964 45.035099 2.5231476
4.2062683 54.713352 0
3.7164826 48.342426 2.7081912
4.1450639 54.783272 0
0 0 0
0 0 0
3.4893057 46.869133 2.6251757
4.0217857 54.917713 0
3.4275465 46.803345 2.6212568
3.0858095 42.847595 0
3.3687515 46.776348 2.6195152
0 0 0
3.3149819 46.819267 2.6216924
0 0 0
3.1747115 45.620529 2.5543511
0 0 -0
0 0 0
3.1241939 45.691727 2.5581243
3.1144528 46.372501 0
3.0674152 45.672138 2.5568182
3.0563633 46.34507 0
3.0074401 45.603222 2.5527549
2.9985132 46.320168 0
2.9462924 45.513474 2.5475299
2.9412224 46.302979 0
2.8855312 45.426247 2.5424504
2.8828442 46.267536 0
2.8249846 45.338928 2.5373704
2.6261864 42.985123 0
2.7692487 45.326752 2.5364997
0 0 -0
2.5470414 42.969028 0
2.6901665 45.383572 2.5394027
0 0 -0
2.496176 42.990261 0
2.6351769 45.384197 2.5392575
0 0 -0
2.4418654 42.951675 0
0 0 0
0 0 -0
2.3877966 42.915623 0
0 0 0
0 0 -0
2.3353741 42.908081 0
0 0 0
0 0 -0
2.2833877 42.908268 0
2.4315352 45.692184 2.5558021
0 0 -0
2.4130471 46.401257 0
2.3733549 45.638004 2.5526094
0 0 -0
2.3564503 46.393745 0
2.3162317 45.601921 2.5504327
0 0 -0
2.300004 46.388756 0
2.2586842 45.555374 2.5476749
0 0 -0
2.2428191 46.368111 0
2.2018805 45.52174 2.5456431
0 0 -0
2.1863003 46.360386 0
2.1466296 45.519169 2.5453527
2.1296842 46.349998 0
2.0911498 45.511349 2.5447721
0 0 -0
2.0743759 46.368141 0
2.0336022 45.456738 2.5415792
0 0 0
1.9741558 45.355331 2.5357742
0 0 -0
2.0047848 47.376633 0
1.9119911 45.18375 2.5260503
0 0 -0
1.9456142 47.332218 0
1.8526987 45.071804 2.5196648
0 0 -0
0 0 0
1.7962687 45.024673 2.516907
0 0 -0
2.2840135 59.041267 0
1.7403575 44.987873 2.5147302
2.0142536 53.74929 0
1.6856079 44.979557 2.5141497
1.9445909 53.621651 0
1.6330466 45.030891 2.516907
0 0 -0
1.8806187 53.647366 0
1.5499606 44.21487 2.4711907
1.8143864 53.607983 0
1.4989952 44.289413 2.4752541
0 0 -0
1.7824309 53.622074 0
1.4707699 44.246166 2.4727869
0 0 -0
1.7189709 53.665806 0
1.4208828 44.359577 2.4790275
0 0 -0
1.6535637 53.649632 0
1.3697636 44.44178 2.4835269
0 0 -0
1.5881214 53.630791 0
1.3202162 44.583641 2.4913635
0 0 -0
1.5228007 53.61446 0
1.2676727 44.631962 2.4939764
1.4588659 53.647476 0
1.2154377 44.695793 2.4974592
0 0 0
1.1627132 44.746586 2.500217
0 0 -0
0 0 0
1.1102537 44.812897 2.5038452
0 0 -0
1.1296273 47.934002 0
1.0587987 44.928493 2.5102308
0 0 -0
1.0731038 47.997776 0
1.0118283 45.25705 2.5285175
0 0 -0
1.0141164 47.952198 0
0.96027464 45.406303 2.5367899
0.95627868 47.958595 0
0.9053058 45.402241 2.5364997
0 0 -0
0.89847547 47.967518 0
0.85088331 45.426682 2.537806
0 0 -0
0.93288541 53.240158 0
0.79717696 45.49522 2.5415792
0 0 -0
0.86855441 53.241245 0
0.74309433 45.550709 2.5446272
0.80398619 53.226639 0
0.69394118 45.94128 2.5663972
0 0 -0
0.73815292 53.118282 0
0.64009041 46.061596 2.5730734
0 0 -0
0.67420048 53.137352 0
0.58548826 46.14547 2.5777173
0 0 -0
0.61005354 53.14333 0
0.52949148 46.125359 2.5765562
0 0 -0
0.54589331 53.149235 0
0.47330394 46.081795 2.5740888
0.48294592 53.290382 0
0.41750503 46.069344 2.5733633
0 0 -0
0.41953561 53.415833 0
0.36181855 46.067219 2.5732183
0.35532132 53.465748 0
0.3061378 46.065029 2.5730734
0 0 -0
0.3229726 53.458145 0
0.27868414 46.127556 2.5765562
0 0 -0
0.25822771 53.427265 0
0.22327431 46.195412 2.5803294
0 0 -0
0.19398242 53.51342 0
0.16761613 46.239819 2.5827966
0 0 -0
0.12944125 53.563053 0
0.11181331 46.268574 2.5843933
0 0 -0
0.064767845 53.602211 0
0.055872153 46.240089 2.5827966
-0 0 -0
-0 53.706341 0
-0 46.271305 2.5845385
-0 0 -0
-0.064931348 53.73753 0
-0.055941232 46.29726 2.58599
-0 0 -0
-0.1299192 53.760834 0
-0.11188238 46.297161 2.58599
-0 0 -0
-0 0 0
-0.16794582 46.330769 2.5878768
-0 0 -0
-0 0 0
-0.2578721 53.353691 2.9801681
-0 0 -0
-0 0 0
-0.3225278 53.384521 2.98191
-0 0 -0
-0 0 0
-0.38722068 53.410072 2.983361
-0 0 -0
-0 0 0
-0.4519538 53.432949 2.9846671
-0 0 -0
-0 0 0
-0.51694375 53.476532 2.9871345
-0 0 -0
-0 0 0
-0.58328295 53.634361 2.9959877
-0 0 -0
-0 0 0
-0.64824611 53.646606 2.9967132
-0 0 0
-0.71337783 53.669167 2.9980195
-0 0 -0
-0 0 0
-0.77950692 53.756596 3.0029538
-0 0 -0
-0 0 0
-0.90919352 53.74157 3.0022283
-0 0 -0
-0 0 0
-0.97441149 53.756012 3.003099
-0 0 -0
-0 0 0
-1.0373553 53.65089 2.9972937
-0 0 -0
-0 0 0
-1.1010071 53.592445 2.994101
-0 0 -0
-0 0 0
-1.1336596 53.604759 2.9948266
-0 0 -0
-0 0 0
-1.1983134 53.598148 2.9945359
-0 0 -0
-0 0 0
-1.2617898 53.542114 2.9914882
-0 0 -0
-0 0 0
-1.3236526 53.426262 2.9851027
-0 0 -0
-0 0 0
-1.3840221 53.26358 2.9761043
-0 0 -0
-0 0 0
-1.4447776 53.129402 2.9687026
-0 0 -0
-0 0 0
