# .PCD v0.7 - Point Cloud Data file format
VERSION 0.7
FIELDS x y z
SIZE 4 4 4
TYPE F F F
COUNT 1 1 1
WIDTH 1653
HEIGHT 1
VIEWPOINT 0 0 0 1 0 0 0
POINTS 1653
DATA ascii
-0 -0 -0
-0 -0 -0
-0 -0 -0
-0 -0 -0
-0 -0 -0
-4.3575101 -0.065820009 -0.24342163
-4.4092369 -0.066601343 0
-5.9603682 -0.090031125 0.33296138
-0 -0 -0
-0 -0 -0
-0 -0 -0
-0 -0 -0
-0 -0 -0
-4.344439 -0.070873283 -0.24269606
-4.3232846 -0.070528179 0
-5.9576597 -0.097190656 0.33281639
-0 -0 -0
-0 -0 -0
-0 -0 -0
-0 -0 -0
-0 -0 -0
-4.3391495 -0.076031499 -0.2424055
-4.265955 -0.074748978 0
-5.9575377 -0.10438925 0.33281639
-0 -0 -0
-0 -0 -0
-0 -0 -0
-0 -0 -0
-0 -0 -0
-4.3339114 -0.078558899 -0.24211551
-4.2398834 -0.076854497 0
-5.9600692 -0.10803554 0.33296138
-0 -0 -0
-0 -0 -0
-0 -0 -0
-0 -0 -0
-0 -0 -0
-4.3831673 -0.084749795 -0.24487273
-4.2580042 -0.082329735 0
-5.9469471 -0.11498593 0.33223584
-0 -0 -0
-0 -0 -0
-0 -0 -0
-0 -0 -0
-0 -0 -0
-4.4402103 -0.091220006 -0.24806553
-4.2527027 -0.087367833 0
-5.9597907 -0.12243837 0.33296138
-0 -0 -0
-0 -0 -0
-0 -0 -0
-0 -0 -0
-0 -0 -0
-4.5076356 -0.09805423 -0.25183886
-5.935926 -0.1291237 0
-5.9492469 -0.12941349 0.33238083
-0 -0 -0
-0 -0 -0
-0 -0 -0
-0 -0 -0
-0 -0 -0
-4.5049186 -0.10344116 -0.25169387
-5.9435635 -0.13647507 0
-5.9464912 -0.13654229 0.33223584
-0 -0 -0
-0 -0 -0
-0 -0 -0
-0 -0 -0
-0 -0 -0
-4.5229769 -0.10932398 -0.25270998
-5.9433942 -0.14365661 0
-5.9593077 -0.14404126 0.33296138
-0 -0 -0
-0 -0 -0
-0 -0 -0
-0 -0 -0
-0 -0 -0
-4.5150461 -0.11459119 -0.25227442
-5.9406171 -0.15077196 0
-5.9539289 -0.15110983 0.33267084
-0 -0 -0
-0 -0 -0
-0 -0 -0
-0 -0 -0
-0 -0 -0
-4.4863391 -0.11928713 -0.25067833
-5.9378314 -0.15788083 0
-5.9511471 -0.15823488 0.33252582
-0 -0 -0
-0 -0 -0
-0 -0 -0
-0 -0 -0
-4.2132416 -0.11712039 -0.46979424
-4.3926835 -0.12210856 -0.2454533
-5.9402351 -0.16512766 0
-5.9535465 -0.16549769 0.33267084
-0 -0 -0
-0 -0 -0
-0 -0 -0
-5.8703566 -0.17028406 -0.9790839
-4.1536303 -0.12048621 -0.46316323
-4.3042274 -0.12485466 -0.24051884
-5.9374328 -0.17222977 0
-5.9507475 -0.172616 0.33252582
-0 -0 -0
-0 -0 -0
-0 -0 -0
-5.7752109 -0.17450847 -0.9632495
-4.3266892 -0.13073877 -0.48247799
-4.2677169 -0.12895679 -0.23848715
-5.9320126 -0.17924652 0
-5.9583287 -0.1800417 0.33296138
-0 -0 -0
-0 -0 -0
-0 -0 -0
-5.7980852 -0.18221217 -0.9671008
-4.1817665 -0.1314173 -0.46633473
-0 -0 -0
-5.9395976 -0.18665938 0
-5.9503126 -0.18699612 0.33252582
-0 -0 -0
-0 -0 -0
-0 -0 -0
-5.7542462 -0.18779449 -0.95982575
-4.1893625 -0.13672325 -0.46719986
-0 -0 -0
-5.9341707 -0.19366647 0
-5.9526772 -0.19427045 0.33267084
-0 -0 -0
-0 -0 -0
-0 -0 -0
-5.8489399 -0.19796002 -0.97566015
-4.202117 -0.14222254 -0.46864107
-4.2464457 -0.14372286 -0.23732604
-5.9365306 -0.20092456 0
-5.9498434 -0.20137514 0.33252582
-0 -0 -0
-0 -0 -0
-0 -0 -0
-5.8281727 -0.20430771 -0.97223639
-4.2148638 -0.14775285 -0.47008225
-4.2488632 -0.14894471 -0.23747104
-5.9180751 -0.20745924 0
-5.9521904 -0.20865516 0.33267084
-0 -0 -0
-0 -0 -0
-0 -0 -0
-5.8073983 -0.21060549 -0.96881264
-5.8249159 -0.21124075 -0.64967871
-4.2564731 -0.15436113 -0.23790661
-5.9594326 -0.21611901 0
-5.9571323 -0.21603559 0.33296138
-0 -0 -0
-0 -0 -0
-0 -0 -0
-5.825099 -0.21829547 -0.97180885
-5.8298306 -0.21847278 -0.65025586
-4.2329159 -0.15862845 -0.23660049
-5.9513626 -0.22302718 0
-5.9542727 -0.22313625 0.33281639
-0 -0 -0
-0 -0 -0
-0 -0 -0
-5.8350916 -0.22573073 -0.9735207
-5.8683228 -0.22701629 -0.6545794
-4.2223353 -0.16334119 -0.23601992
-4.3960419 -0.17006104 0
-5.9462066 -0.23002923 0.33238083
-0 -0 -0
-0 -0 -0
-0 -0 -0
-5.8092985 -0.22824796 -0.96924025
-4.2271214 -0.16608405 -0.47152343
-4.2300177 -0.16619785 -0.23645493
-4.3907323 -0.17251234 0
-5.9538584 -0.23392774 0.33281639
-0 -0 -0
-0 -0 -0
-0 -0 -0
-5.8064561 -0.23516341 -0.96881264
-4.2217541 -0.17098245 -0.47094738
-4.2428031 -0.17183495 -0.23718105
-4.3775215 -0.17729108 0
-5.9483738 -0.24091114 0.33252582
-0 -0 -0
-0 -0 -0
-0 -0 -0
-5.8215613 -0.24282129 -0.97138131
-4.2086153 -0.17554422 -0.4695051
-4.2581644 -0.17761093 -0.23805161
-5.9659724 -0.24884479 0
-5.9480786 -0.2480984 0.33252582
-0 -0 -0
-0 -0 -0
-0 -0 -0
-5.8289504 -0.25018525 -0.97266394
-4.2032371 -0.18040778 -0.46892908
-4.2657371 -0.18309036 -0.23848715
-5.955267 -0.25560692 0
-5.955565 -0.2556197 0.33296138
-0 -0 -0
-0 -0 -0
-0 -0 -0
-5.8183856 -0.2567755 -0.97095209
-4.208179 -0.18571427 -0.4695051
-4.2888737 -0.18927549 -0.23979327
-5.9523563 -0.26268786 0
-5.9474616 -0.26247185 0.33252582
-0 -0 -0
-0 -0 -0
-0 -0 -0
-5.7924318 -0.26264316 -0.96667325
-4.2027888 -0.19056483 -0.46892908
-4.3405576 -0.19681159 -0.24269606
-5.9468298 -0.26964396 0
-5.9497333 -0.2697756 0.33267084
-0 -0 -0
-0 -0 -0
-0 -0 -0
-5.8280053 -0.27131301 -0.97266394
-4.2077179 -0.19588326 -0.4695051
-4.3792439 -0.20386834 -0.24487273
-5.951704 -0.27707162 0
-5.9390206 -0.27648115 0.33209026
-0 -0 -0
-0 -0 -0
-0 -0 -0
-5.8071599 -0.27737504 -0.96924025
-4.1997352 -0.20059747 -0.46864107
-4.3556371 -0.20804404 -0.24356662
-5.9461608 -0.28401431 0
-5.9282999 -0.28316119 0.33150971
-0 -0 -0
-0 -0 -0
-0 -0 -0
-5.7760625 -0.28288525 -0.96410626
-4.1994896 -0.20567188 -0.46864107
-4.3501868 -0.21305236 -0.24327606
-5.9510174 -0.29145375 0
-5.9253607 -0.29019719 0.33136472
-0 -0 -0
-0 -0 -0
-0 -0 -0
-5.8192992 -0.29205158 -0.97138131
-4.1992378 -0.21074599 -0.46864107
-4.3758831 -0.21961124 -0.24472775
-5.9636545 -0.29929626 0
-5.9146252 -0.29683566 0.33078414
-0 -0 -0
-0 -0 -0
-0 -0 -0
-5.8394418 -0.30013648 -0.97480339
-4.2273865 -0.21727984 -0.47181144
-4.4378953 -0.22809958 -0.24821109
-5.9502954 -0.30583414 0
-5.9116697 -0.30384886 0.33063915
-0 -0 -0
-0 -0 -0
-5.8185768 -0.30611369 -0.97138131
-4.2142091 -0.22170834 -0.47037026
-4.4739394 -0.23537269 -0.25024277
-5.9421225 -0.3126134 0
-5.9164929 -0.31126502 0.33092973
-0 -0 -0
-0 -0 -0
-4.5022244 -0.24231623 -0.99882036
-5.8105102 -0.31273004 -0.97009701
-4.2191086 -0.22707851 -0.47094738
-4.4788361 -0.24105744 -0.25053278
-5.9313455 -0.3192336 0
-5.9109182 -0.31813416 0.33063915
-0 -0 -0
-0 -0 -0
-5.7896223 -0.3186222 -0.96667325
-4.1077776 -0.22606468 -0.45855054
-4.4733577 -0.24618377 -0.25024277
-5.9283595 -0.32625735 0
-5.9183154 -0.3257046 0.33107471
-0 -0 -0
-0 -0 -0
-5.8302412 -0.32792413 -0.9735207
-5.8582854 -0.32950145 -0.65400338
-5.9465675 -0.33446693 -0.33267751
-5.9123654 -0.33254322 0
-5.9179177 -0.33285549 0.33107471
-0 -0 -0
-0 -0 -0
-5.8118987 -0.33393767 -0.97052455
-5.8010788 -0.333316 -0.64766151
-5.9305992 -0.34075791 -0.33180696
-5.9145551 -0.33983606 0
-5.9097261 -0.3395586 0.33063915
-0 -0 -0
-0 -0 -0
-5.765368 -0.33825392 -0.96282196
-5.7102981 -0.33502299 -0.63757098
-0 -0 -0
-5.9141402 -0.34698239 0
-5.9119029 -0.34685114 0.33078414
-0 -0 -0
-0 -0 -0
-5.7828851 -0.34629369 -0.9658165
-5.8622112 -0.35104394 -0.6545794
-5.8960414 -0.35306978 -0.32992029
-5.8851476 -0.35241744 0
-5.9166722 -0.35430521 0.33107471
-0 -0 -0
-0 -0 -0
-4.4927387 -0.27448496 -0.99713117
-5.7850318 -0.35343793 -0.96624571
-5.7946644 -0.35402641 -0.64708436
-5.9189506 -0.36161971 -0.33122641
-5.8795171 -0.35921052 0
-5.9162397 -0.3614541 0.33107471
-0 -0 -0
-0 -0 -0
-5.7438221 -0.35440344 -0.95939821
-5.8151021 -0.35880151 -0.6493907
-5.9135389 -0.36487523 -0.33093584
-5.8819041 -0.36292332 0
-5.9134293 -0.36486846 0.33092973
-0 -0 -0
-0 -0 -0
-5.7766933 -0.36343873 -0.96496135
-5.8017597 -0.36501577 -0.64794952
-5.9079118 -0.37169433 -0.33064586
-5.8762617 -0.36970305 0
-5.9207563 -0.37250242 0.33136472
-0 -0 -0
-0 -0 -0
-4.4994984 -0.28854316 -0.99882036
-5.7531962 -0.36894009 -0.96111006
-5.8116393 -0.37268791 -0.64910269
-5.9178309 -0.37949777 -0.33122641
-5.8836045 -0.37730289 0
-5.9203019 -0.37965623 0.33136472
-0 -0 -0
-0 -0 -0
-5.8014092 -0.37907115 -0.96924025
-5.7853699 -0.37802312 -0.64621919
-5.8888435 -0.38478419 -0.32962972
-5.8779454 -0.3840721 0
-5.9120679 -0.3863017 0.33092973
-0 -0 -0
-0 -0 -0
-5.7830248 -0.3848879 -0.96624571
-5.8055549 -0.38638741 -0.64852554
-5.8806038 -0.39138225 -0.32919472
-5.8826756 -0.39152017 0
-5.914187 -0.39361739 0.33107471
-0 -0 -0
-0 -0 -0
-5.787673 -0.39222208 -0.9671008
-5.7896056 -0.39235306 -0.64679635
-5.8904862 -0.39918962 -0.32977474
-5.8770003 -0.39827567 0
-5.9059267 -0.40023598 0.33063915
-0 -0 -0
-0 -0 -0
-5.7769508 -0.39850843 -0.96538895
-5.7968707 -0.39988256 -0.64766151
-5.8796406 -0.40559223 -0.32919472
-5.884306 -0.40591407 0
-5.9183979 -0.4082658 0.33136472
-0 -0 -0
-3.527252 -0.24760126 -0.97555315
-5.7739067 -0.40530887 -0.96496135
-5.7886405 -0.40634313 -0.64679635
-5.8895044 -0.41342345 -0.32977474
-5.881218 -0.41284174 0
-5.9075322 -0.41468892 0.33078414
-0 -0 -0
-3.4443736 -0.24596618 -0.95271248
-5.7990131 -0.41411337 -0.96924025
-5.7829804 -0.41296846 -0.64621919
-5.883822 -0.42016965 -0.32948473
-5.8859015 -0.42031813 0
-5.9122152 -0.42219722 0.33107471
-0 -0 -0
-3.4340651 -0.24940097 -0.94994384
-5.7652268 -0.41870293 -0.96367705
-5.7927961 -0.42070514 -0.64737236
-5.8858991 -0.42746681 -0.32962972
-5.8853893 -0.4274298 0
-5.9091115 -0.42915264 0.33092973
-0 -0 -0
-3.4537771 -0.25502816 -0.95548111
-5.7851977 -0.42718109 -0.9671008
-5.7742348 -0.42637157 -0.64535517
-5.8802004 -0.43419614 -0.32933974
-5.8848686 -0.43454081 0
-5.9163556 -0.43686584 0.33136472
-0 -0 -0
-3.5060003 -0.26314414 -0.97001582
-5.7974739 -0.43513152 -0.96924025
-5.8020792 -0.43547717 -0.64852554
-5.8900361 -0.4420788 -0.32992029
-5.8739581 -0.44087207 0
-5.9132347 -0.44381997 0.3312197
-0 -0 -0
-3.507853 -0.27180961 -0.97070736
-5.7836113 -0.44814909 -0.9671008
-5.7855425 -0.44829872 -0.64679635
-5.8785882 -0.45550847 -0.32933974
-5.8780704 -0.45546833 0
-5.901782 -0.4573057 0.33063915
-0 -0 -0
-3.4374931 -0.27053657 -0.95132685
-5.821455 -0.45815846 -0.9735207
-5.8236666 -0.45833251 -0.65111989
-5.8754454 -0.46240759 -0.32919472
-5.8853016 -0.46318328 0
-5.9064112 -0.46484464 0.33092973
-0 -0 -0
-3.4721797 -0.27748829 -0.96101844
-5.8183312 -0.46498713 -0.97309154
-0 -0 -0
-5.87747 -0.46971336 -0.32933974
-5.8821359 -0.47008625 0
-5.9058452 -0.47198105 0.33092973
-0 -0 -0
-3.5043466 -0.28432077 -0.97001582
-0 -0 -0
-5.8173909 -0.47198677 -0.65054387
-5.8717132 -0.47639415 -0.32904917
-5.8789721 -0.47698307 0
-5.9026732 -0.47890604 0.33078414
-0 -0 -0
-3.4889939 -0.28731909 -0.96586156
-0 -0 -0
-0 -0 -0
-5.8840795 -0.48455471 -0.32977474
-5.883584 -0.48451391 0
-5.9046874 -0.48625177 0.33092973
-0 -0 -0
-3.4413233 -0.28548673 -0.95271248
-0 -0 -0
-0 -0 -0
-5.8734374 -0.48725101 -0.32919472
-5.8755069 -0.4874227 0
-5.9069796 -0.49003363 0.33107471
-0 -0 -0
-3.4609754 -0.29132813 -0.95824975
-5.8112016 -0.48915878 -0.97223639
-0 -0 -0
-0 -0 -0
-5.8749137 -0.49452174 0
-5.9037962 -0.49695295 0.33092973
-0 -0 -0
-3.4481249 -0.29444277 -0.95478964
-5.7824683 -0.49377736 -0.96752834
-0 -0 -0
-5.8877716 -0.50276947 -0.33006528
-5.8794928 -0.5020625 0
-5.9057779 -0.50430703 0.33107471
-0 -0 -0
-3.4527605 -0.29904148 -0.95617265
-5.8202324 -0.50408673 -0.9739483
-0 -0 -0
-5.8897462 -0.51010734 -0.3302103
-5.8762918 -0.50894201 0
-5.9025784 -0.51121867 0.33092973
-0 -0 -0
-3.4523966 -0.30321324 -0.95617265
-5.8093901 -0.51022065 -0.97223639
-5.8063936 -0.50995749 -0.64967871
-5.8865395 -0.51699644 -0.33006528
-5.8704925 -0.51558703 0
-5.8967743 -0.51789528 0.33063915
-0 -0 -0
-3.4145517 -0.30404752 -0.9457922
-5.8266706 -0.51883376 -0.9752326
-5.8083472 -0.5172022 -0.64996672
-5.8859105 -0.52410877 -0.33006528
-5.8724546 -0.52291059 0
-5.9039111 -0.52571166 0.33107471
-0 -0 -0
-3.4341612 -0.30997652 -0.95132685
-0 -0 -0
-5.8309097 -0.52631336 -0.6525622
-5.8904438 -0.53168708 -0.33035529
-5.8769975 -0.53047341 0
-5.9032717 -0.53284496 0.33107471
-0 -0 -0
-3.4612682 -0.31664008 -0.95894128
-5.8228359 -0.53267848 -0.97480339
-5.8122368 -0.5317089 -0.65054387
-5.8923922 -0.53904158 -0.33050084
-5.8633966 -0.53638899 0
-5.9052086 -0.540214 0.3312197
-0 -0 -0
-3.4084263 -0.31595939 -0.94440651
-5.8068562 -0.53829259 -0.97223639
-5.8090172 -0.53849292 -0.65025586
-5.8736229 -0.54448181 -0.32948473
-5.8782973 -0.54491514 0
-5.8993821 -0.5468697 0.33092973
-0 -0 -0
-3.4230239 -0.32148463 -0.94855815
-5.8062015 -0.54530865 -0.97223639
-5.8135076 -0.54599482 -0.65083188
-5.875545 -0.55182129 -0.32962972
-5.8750362 -0.55177349 0
-5.9064708 -0.55472577 0.33136472
-0 -0 -0
-3.4376228 -0.32704654 -0.95271248
-5.8080916 -0.55256683 -0.97266394
-5.8051167 -0.55228376 -0.64996672
-5.882637 -0.55965889 -0.33006528
-5.8743649 -0.55887192 0
-5.8980432 -0.56112456 0.33092973
-0 -0 -0
-3.4247415 -0.32999712 -0.94925231
-5.7971988 -0.55859953 -0.97095209
-5.8095989 -0.55979437 -0.65054387
-5.89747 -0.56826133 -0.33093584
-5.8736854 -0.56596953 0
-5.9076967 -0.56924677 0.33150971
-0 -0 -0
-3.4143524 -0.33316046 -0.94648367
-5.8041868 -0.56635201 -0.97223639
-0 -0 -0
-5.8812671 -0.57387328 -0.33006528
-5.8729973 -0.57306629 0
-5.8966699 -0.57537621 0.33092973
-0 -0 -0
-3.4089494 -0.33679199 -0.94509804
-5.8086023 -0.57386911 -0.97309154
-5.7876377 -0.57179785 -0.64823753
-5.885736 -0.58148968 -0.33035529
-5.867126 -0.579651 0
-5.9063039 -0.58352166 0.33150971
-0 -0 -0
-3.4235227 -0.34240931 -0.94925231
-5.8053532 -0.58063203 -0.97266394
-5.7895136 -0.57904786 -0.64852554
-5.8927884 -0.58937705 -0.33079085
-5.8741922 -0.58751714 0
-5.9030113 -0.5903995 0.33136472
-0 -0 -0
-3.4430745 -0.34856725 -0.95478964
-5.8020954 -0.58738792 -0.97223639
-5.7913904 -0.58630419 -0.64881468
-5.8920722 -0.59649688 -0.33079085
-5.8760648 -0.59487641 0
-5.8997111 -0.59727025 0.3312197
-0 -0 -0
-3.4376547 -0.35221538 -0.95340395
-5.8013816 -0.5943982 -0.97223639
-5.790678 -0.59330153 -0.64881468
-5.8913469 -0.60361588 -0.33079085
-5.8805146 -0.60250604 0
-5.90415 -0.60492766 0.33150971
-0 -0 -0
-3.4322405 -0.35585189 -0.952021
-5.8006592 -0.60140759 -0.97223639
-5.7873769 -0.60003048 -0.64852554
-5.8854489 -0.61019856 -0.33050084
-5.8668418 -0.60826939 0
-5.9008327 -0.61179352 0.33136472
-0 -0 -0
-3.4195416 -0.35662353 -0.94855815
-5.8053966 -0.60544401 -0.97309154
-5.7870131 -0.60352683 -0.64852554
-5.8954172 -0.61483228 -0.33108142
-5.8690591 -0.61208344 0
-5.9030437 -0.61562765 0.33150971
-0 -0 -0
-3.4191082 -0.36075512 -0.94855815
-5.8046603 -0.61245829 -0.97309154
-5.7811403 -0.60997659 -0.64794952
-5.8894968 -0.62140948 -0.33079085
-5.8760824 -0.6199941 0
-5.8945508 -0.6219427 0.33107471
-0 -0 -0
-3.4336421 -0.36648425 -0.95271248
-5.7988162 -0.61892724 -0.97223639
-5.7906866 -0.61805958 -0.64910269
-5.8913226 -0.62880081 -0.33093584
-5.8882656 -0.62847447 0
-5.9067111 -0.63044327 0.33180028
-0 -0 -0
-3.3982818 -0.36686358 -0.94302356
-5.8057232 -0.62676036 -0.9735207
-5.8002214 -0.62616646 -0.65025586
-5.8931494 -0.63619858 -0.33108142
-5.8668017 -0.63335419 0
-5.9007735 -0.6370216 0.33150971
-0 -0 -0
-3.4127948 -0.37260267 -0.9471752
-5.8049617 -0.633775 -0.9735207
-5.7866073 -0.63177109 -0.64881468
-5.8923764 -0.64331883 -0.33108142
-5.8763809 -0.64157242 0
-5.8999991 -0.64415103 0.33150971
-0 -0 -0
-3.4497488 -0.38085583 -0.95755827
-5.7939854 -0.63966191 -0.97180885
-5.7909765 -0.63932973 -0.6493907
-5.8890047 -0.65015221 -0.33093584
-5.8652544 -0.64753008 0
-5.8992167 -0.65127957 0.33150971
-0 -0 -0
-3.4442947 -0.38446674 -0.95617265
-5.8059616 -0.64808595 -0.9739483
-5.7876315 -0.6460399 -0.64910269
-5.8494864 -0.65294433 -0.32875916
-5.8670616 -0.65490615 0
-5.8984256 -0.65840715 0.33150971
-0 -0 -0
-3.4388466 -0.38806611 -0.95478964
-5.807723 -0.65538847 -0.97437584
-5.7971272 -0.65419281 -0.65025586
-5.8383646 -0.65884632 -0.32817861
-5.8688493 -0.66228646 0
-5.9053741 -0.66640818 0.33194527
-0 -0 -0
-3.4109542 -0.38909304 -0.9471752
-5.8094749 -0.66269612 -0.97480339
-5.7911882 -0.66061014 -0.64967871
-5.855639 -0.66796213 -0.32919472
-5.8680449 -0.66937733 0
-5.9071441 -0.67383742 0.33209026
-0 -0 -0
-3.4154613 -0.39378837 -0.94855815
-5.80867 -0.66971529 -0.97480339
-5.7878189 -0.66731125 -0.6493907
-5.844502 -0.67384654 -0.32861418
-5.8672318 -0.67646724 0
-5.929565 -0.68365395 0.33339694
-0 -0 -0
-3.414983 -0.39791501 -0.94855815
-0 -0 -0
-0 -0 -0
-5.7947178 -0.67520255 -0.65025586
-5.8540072 -0.68211097 -0.32919472
-5.8715754 -0.68415797 0
-5.9493728 -0.69322294 0.3345575
-0 -0 -0
-3.4144998 -0.40204105 -0.94855815
-5.8095913 -0.68405163 -0.9752326
-5.7887554 -0.68159831 -0.64967871
-5.8505907 -0.68887913 -0.32904917
-5.8759184 -0.69186139 0
-5.9536967 -0.70101941 0.33484805
-0 -0 -0
-3.3940914 -0.40379661 -0.94302356
-5.8138537 -0.69167686 -0.97608769
-5.7904935 -0.68889767 -0.64996672
-5.8574977 -0.69686919 -0.32948473
-5.8724966 -0.69865358 0
-5.965744 -0.70974731 0.33557361
-0 -0 -0
-3.4135182 -0.41029137 -0.94855815
-5.8079214 -0.69808912 -0.9752326
-5.7896571 -0.69589382 -0.64996672
-5.8514962 -0.7033267 -0.32919472
-5.863894 -0.70481682 0
-5.970047 -0.71757603 0.33586419
-0 -0 -0
-3.4030676 -0.4132072 -0.9457922
-5.8045177 -0.70479608 -0.97480339
-5.793952 -0.70351315 -0.65054387
-5.8480554 -0.71008247 -0.32904917
-5.9121175 -0.717861 0
-5.9640117 -0.7241621 0.33557361
-3.3901081 -0.41579095 -0.94232941
-5.8036618 -0.71180916 -0.97480339
-5.7879581 -0.70988315 -0.64996672
-5.8471932 -0.71714818 -0.32904917
-5.931911 -0.7275387 0
-5.9553924 -0.73041868 0.33513805
-0 -0 -0
-3.4145052 -0.42297167 -0.94925231
-5.8053527 -0.71913773 -0.9752326
-5.7870965 -0.71687627 -0.64996672
-5.8566375 -0.72549063 -0.32962972
-5.9258671 -0.73406643 0
-5.9570918 -0.73793441 0.33528361
-0 -0 -0
-3.4242074 -0.42627415 -0.952021
-5.8049169 -0.72264493 -0.9752326
-5.7918005 -0.72101206 -0.65054387
-5.8458838 -0.72774482 -0.32904917
-5.9331627 -0.73861003 0
-5.9617968 -0.74217463 0.33557361
-0 -0 -0
-3.4037764 -0.42790791 -0.94648367
-5.7938514 -0.7283777 -0.9735207
-5.7857876 -0.72736394 -0.64996672
-5.8553128 -0.73610431 -0.32962972
-5.9348555 -0.74610406 0
-5.9583201 -0.74905396 0.33542863
-0 -0 -0
-3.4206712 -0.43423101 -0.95132685
-5.7955112 -0.73570085 -0.9739483
-5.790041 -0.73500645 -0.65054387
-5.8595796 -0.7438339 -0.32992029
-5.9391079 -0.7539295 0
-5.9599857 -0.75657982 0.33557361
-0 -0 -0
-3.3927786 -0.43485647 -0.94371504
-5.7920742 -0.74237704 -0.9735207
-5.7865858 -0.74167353 -0.65025586
-5.8715606 -0.75256491 -0.33064586
-5.9356141 -0.76077467 0
-5.9642272 -0.76444203 0.33586419
-0 -0 -0
-3.4022028 -0.44024345 -0.94648367
-5.7962599 -0.75003332 -0.97437584
-5.7856855 -0.74866498 -0.65025586
-5.8783803 -0.76065969 -0.33108142
-5.9346905 -0.76794612 0
-5.9632993 -0.77164811 0.33586419
-0 -0 -0
-3.3966885 -0.4437035 -0.94509804
-5.7902637 -0.75637203 -0.9735207
-5.7899008 -0.75632471 -0.65083188
-5.8980598 -0.77045327 -0.33224195
-5.9285922 -0.77444166 0
-5.9572043 -0.77817923 0.33557361
-3.401129 -0.44846398 -0.94648367
-5.7867928 -0.76303136 -0.97309154
-5.7889829 -0.76332009 -0.65083188
-5.9125862 -0.77961814 -0.33311307
-5.9379725 -0.78296548 0
-5.9614167 -0.78605682 0.33586419
-0 -0 -0
-3.3906374 -0.45124936 -0.94371504
-5.7833247 -0.76968467 -0.97266394
-5.7906179 -0.77065527 -0.65111989
-5.9193697 -0.78779048 -0.33354864
-5.9421868 -0.7908271 0
-5.9578795 -0.79291564 0.33571863
-3.3925736 -0.45567963 -0.94440651
-5.7849321 -0.77701354 -0.97309154
-5.7896824 -0.77765155 -0.65111989
-5.9158306 -0.79459542 -0.33340308
-5.9334865 -0.79696685 0
-5.9646454 -0.80115205 0.33615416
-3.3969975 -0.46045315 -0.9457922
-5.7890816 -0.78469318 -0.9739483
-5.8220654 -0.78916407 -0.65486854
-5.9148664 -0.80174297 -0.33340308
-5.932519 -0.80413574 0
-5.9585285 -0.80766124 0.33586419
-3.398922 -0.46489707 -0.94648367
-5.7855883 -0.79134005 -0.9735207
-5.8339181 -0.79795051 -0.65630972
-5.9216189 -0.80994606 -0.33383864
-5.9367051 -0.81200945 0
-5.9549661 -0.81450719 0.33571863
-0 -0 -0
-3.4058061 -0.47003162 -0.94855815
-4.4638824 -0.61605561 -0.99825591
-5.7947998 -0.799734 -0.9752326
-5.8841839 -0.81206983 -0.66207445
-5.9180646 -0.8167457 -0.33369362
-5.9254069 -0.81775904 0
-5.9617023 -0.82276809 0.33615416
-3.3928142 -0.47241694 -0.94509804
-4.4555922 -0.62039864 -0.99656886
-5.793829 -0.80673534 -0.9752326
-5.8934455 -0.82060593 -0.66322762
-5.9247966 -0.82497132 -0.33412918
-5.929565 -0.82563525 0
-5.9607038 -0.82997102 0.33615416
-0 -0 -0
-3.4046602 -0.47826073 -0.94855815
-4.4623809 -0.62684125 -0.99825591
-5.8131871 -0.81659222 -0.97865635
-5.9078226 -0.8298859 -0.66495794
-5.9135027 -0.83068383 -0.33354864
-5.931138 -0.83316106 0
-5.9571257 -0.83681166 0.33600917
-0 -0 -0
-3.3991168 -0.48167095 -0.9471752
-4.4641433 -0.63259023 -0.99882036
-5.8299804 -0.82613587 -0.98165089
-5.9093738 -0.83738631 -0.66524595
-5.9124947 -0.83782852 -0.33354864
-5.9327111 -0.84069324 0
-5.9561105 -0.84400904 0.33600917
-0 -0 -0
-3.3910794 -0.48471245 -0.94509804
-4.4583402 -0.63726407 -0.99769354
-5.8340654 -0.83390683 -0.98250765
-5.9032416 -0.84379476 -0.66466993
-5.9140477 -0.84533936 -0.33369362
-5.9265332 -0.84712398 0
-5.9602261 -0.85193992 0.33629918
-0 -0 -0
-3.3904912 -0.48880956 -0.94509804
-4.4575667 -0.6426506 -0.99769354
-5.8482933 -0.8431527 -0.98507458
-5.9047756 -0.85129577 -0.66495794
-5.9181609 -0.85322553 -0.33398363
-5.9280787 -0.85465539 0
-5.9643407 -0.85988331 0.33658972
-0 -0 -0
-3.3923879 -0.49326798 -0.9457922
-4.4542747 -0.64767098 -0.99713117
-5.8421946 -0.84948057 -0.98421949
-5.9088569 -0.85917354 -0.66553396
-5.9119878 -0.8596288 -0.33369362
-5.9373436 -0.86331558 0
-5.9581499 -0.86634094 0.33629918
-0 -0 -0
-3.4243586 -0.50002944 -0.95478964
-4.4513707 -0.64999515 -0.99656886
-5.8442178 -0.8533805 -0.98464704
-5.9083366 -0.86274326 -0.66553396
-5.9140363 -0.86357546 -0.33383864
-5.934248 -0.86652684 0
-5.9679098 -0.8714422 0.33687973
-0 -0 -0
-3.3889992 -0.49904919 -0.94509804
-4.4505825 -0.65537328 -0.99656886
-5.8406453 -0.86006784 -0.98421949
-5.9021769 -0.86912876 -0.66495794
-5.9232712 -0.872235 -0.33441919
-5.9228978 -0.87217999 0
-5.9540014 -0.87676018 0.33615416
-0 -0 -0
-3.408246 -0.50609165 -0.95063531
-4.4497871 -0.66075045 -0.99656886
-5.8446755 -0.8678779 -0.98507458
-5.9062343 -0.87701887 -0.66553396
-5.9222131 -0.87939149 -0.33441919
-5.9218397 -0.87933606 0
-5.9606509 -0.88509917 0.33658972
-0 -0 -0
-3.4001863 -0.50909466 -0.94855815
-4.4540067 -0.66687846 -0.99769354
-5.8436222 -0.87493944 -0.98507458
-5.9000592 -0.88338947 -0.66495794
-5.9211459 -0.88654667 -0.33441919
-5.9284964 -0.88764727 0
-5.9595771 -0.89230078 0.33658972
-0 -0 -0
-3.392134 -0.51208043 -0.94648367
-4.4506874 -0.67188084 -0.99713117
-5.8298717 -0.8800841 -0.98293519
-5.904098 -0.89128935 -0.66553396
-5.9046593 -0.89137411 -0.33354864
-5.924849 -0.89442194 0
-5.9610615 -0.89988863 0.33673474
-0 -0 -0
-3.4008055 -0.52179825 -0.94925231
-4.4465418 -0.68224949 -0.99656886
-5.8226485 -0.89339066 -0.98207843
-5.8993726 -0.90516275 -0.66524595
-5.9178934 -0.90800446 -0.33441919
-5.9380994 -0.91110474 0
-5.9563036 -0.91389787 0.33658972
-0 -0 -0
-3.3778613 -0.52245623 -0.94302356
-4.4482226 -0.68800974 -0.99713117
-5.8317122 -0.90199506 -0.98379028
-5.9033818 -0.91308028 -0.66582197
-5.9167919 -0.9151544 -0.33441919
-5.9267068 -0.91668791 0
-5.955195 -0.92109424 0.33658972
-0 -0 -0
-3.3970487 -0.52962756 -0.94855815
-4.4398541 -0.69220942 -0.99544203
-5.8356957 -0.90983254 -0.98464704
-5.9022741 -0.92021269 -0.66582197
-5.9131169 -0.92190313 -0.3342742
-5.9358802 -0.92545211 0
-5.9258332 -0.9238857 0.33499306
-0 -0 -0
-3.4261465 -0.53840542 -0.95686412
-4.4365067 -0.69717956 -0.99487966
-5.8371258 -0.91728133 -0.98507458
-5.9037204 -0.92774642 -0.66611111
-5.9222665 -0.93066084 -0.33485475
-5.9244742 -0.93100774 0
-5.9247127 -0.93104523 0.33499306
-0 -0 -0
-3.3883324 -0.53665912 -0.94648367
-4.438168 -0.70293677 -0.99544203
-5.8410888 -0.92513758 -0.98593134
-5.902595 -0.93487924 -0.66611111
-5.9134359 -0.93659621 -0.33441919
-5.9259129 -0.93857235 0
-5.9261475 -0.93860954 0.33513805
-0 -0 -0
-3.3876815 -0.54075289 -0.94648367
-4.4398222 -0.70869905 -0.99600434
-5.8450317 -0.93300325 -0.98678648
-5.9040132 -0.94241798 -0.66639912
-5.9225636 -0.94537914 -0.33499974
-5.9479017 -0.94942361 0
-5.9198818 -0.94495106 0.33484805
-0 -0 -0
-3.4018824 -0.54723573 -0.95063531
-4.4289284 -0.71244901 -0.99375284
-5.8464322 -0.94047248 -0.98721403
-5.9105334 -0.95078391 -0.66726428
-5.9060292 -0.95005935 -0.33412918
-5.9236274 -0.95289022 0
-5.9264345 -0.95334184 0.33528361
-0 -0 -0
-3.3863647 -0.54893798 -0.94648367
-4.4380965 -0.71942627 -0.99600434
-5.837697 -0.94630492 -0.98593134
-5.9017181 -0.95668292 -0.66639912
-5.9100018 -0.95802575 -0.33441919
-5.9404569 -0.96296257 0
-5.9304032 -0.96133286 0.33557361
-0 -0 -0
-3.4079802 -0.55666882 -0.95271248
-4.4322138 -0.72396994 -0.99487966
-5.8492146 -0.95542669 -0.98807079
-5.9082184 -0.96506459 -0.66726428
-5.9088402 -0.96516609 -0.33441919
-5.931581 -0.96888071 0
-5.9215417 -0.96724081 0.33513805
-0 -0 -0
-3.3751264 -0.5554902 -0.94371504
-4.4338403 -0.7297371 -0.99544203
-5.8505864 -0.96291012 -0.98849833
-5.9070482 -0.97220278 -0.66726428
-5.9153638 -0.97357142 -0.33485475
-5.9278407 -0.97562492 0
-5.9152455 -0.97355199 0.33484805
-0 -0 -0
-3.4090977 -0.56531298 -0.95340395
-4.4429822 -0.73675668 -0.99769354
-5.8443584 -0.96913964 -0.98764324
-5.9033098 -0.97891527 -0.66697514
-5.911622 -0.98029363 -0.33470976
-5.931797 -0.98363912 0
-5.9243188 -0.98239905 0.33542863
-0 -0 -0
-3.438452 -0.57231534 -0.96170992
-4.4350147 -0.7381888 -0.99600434
-5.8437719 -0.97267032 -0.98764324
-5.9052763 -0.98290747 -0.66726428
-5.9084582 -0.98343712 -0.33456421
-5.9260626 -0.98636729 0
-5.9134712 -0.98427153 0.33484805
-0 -0 -0
-3.3932269 -0.56900227 -0.94925231
-4.4466562 -0.7456494 -0.99882036
-5.8501801 -0.98100305 -0.98892587
-5.9091811 -0.99089682 -0.6678403
-5.912396 -0.99143589 -0.33485475
-5.9402614 -0.99610859 0
-5.8917766 -0.98797822 0.33368695
-0 -0 -0
-3.3999507 -0.57435435 -0.95132685
-4.4407363 -0.75017446 -0.99769354
-5.8464618 -0.98764396 -0.98849833
-5.913085 -0.99889868 -0.66841745
-5.9163132 -0.99944395 -0.33514476
-5.9287987 -1.0015532 0
-5.8700809 -0.99163401 0.33252582
-0 -0 -0
-3.4017346 -0.57888424 -0.952021
-4.4398265 -0.75553972 -0.99769354
-5.8427358 -0.9942773 -0.98807079
-5.9067693 -1.005174 -0.6678403
-5.9125419 -1.0061564 -0.33499974
-5.9301476 -1.0091524 0
-5.8586321 -0.99698246 0.33194527
-0 -0 -0
-3.3960826 -0.58214557 -0.95063531
-4.443924 -0.76176322 -0.99882036
-5.8465858 -1.002203 -0.98892587
-5.9055505 -1.0123105 -0.6678403
-5.9087634 -1.0128613 -0.33485475
-5.9314861 -1.0167564 0
-5.8625503 -1.0049396 0.33223584
-0 -0 -0
-3.3978465 -0.58667511 -0.95132685
-4.4379878 -0.76626682 -0.99769354
-5.8529615 -1.0105774 -0.99021024
-5.9068694 -1.0198852 -0.66812831
-5.9100933 -1.0204418 -0.33499974
-5.9276915 -1.0234803 0
-5.8715739 -1.0137911 0.33281639
-3.4119699 -0.59336019 -0.95548111
-4.4370584 -0.77162868 -0.99769354
-5.8390932 -1.0154501 -0.98807079
-5.9056325 -1.0270216 -0.66812831
-5.919096 -1.029363 -0.33558032
-5.9213176 -1.0297494 0
-5.8652196 -1.0199937 0.33252582
-0 -0 -0
-3.4137192 -0.59791481 -0.95617265
-4.4336228 -0.77655149 -0.99713117
-5.8429141 -1.0233897 -0.98892587
-5.9094877 -1.03505 -0.66870546
-5.912724 -1.0356169 -0.33528975
-5.9277616 -1.0382508 0
-5.86654 -1.0275278 0.33267084
-0 -0 -0
-3.410526 -0.60160381 -0.95548111
-4.4426904 -0.78367364 -0.99938273
-5.8492599 -1.0317873 -0.99021024
-5.8980441 -1.0403925 -0.66755229
-5.9063554 -1.0418587 -0.33499974
-5.9341941 -1.0467693 0
-5.8652945 -1.0346156 0.33267084
-3.3875682 -0.60177559 -0.94925231
-4.4367318 -0.7881515 -0.99825591
-5.8480091 -1.0388541 -0.99021024
-5.9018707 -1.0484223 -0.66812831
-5.9153256 -1.0508125 -0.33558032
-5.9277954 -1.0530276 0
-5.8614841 -1.0412478 0.33252582
-3.3794274 -0.60454261 -0.9471752
-4.4357762 -0.79351187 -0.99825591
-5.8416905 -1.0450146 -0.98935348
-5.9006 -1.0555528 -0.66812831
-5.9140515 -1.0579592 -0.33558032
-5.9239593 -1.0597316 0
-5.8653421 -1.0492456 0.33281639
-0 -0 -0
-3.3786945 -0.60862559 -0.9471752
-4.4273195 -0.797521 -0.99656886
-5.8429575 -1.0525289 -0.98978263
-5.9069591 -1.0640578 -0.66899347
-5.9102144 -1.0646442 -0.3354353
-5.9329195 -1.0687343 0
-5.8640699 -1.056332 0.33281639
-0 -0 -0
-3.4001708 -0.61673689 -0.95340395
-4.4238453 -0.80241519 -0.99600434
-5.8442049 -1.0600458 -0.99021024
-5.8980317 -1.0698092 -0.66812831
-5.914032 -1.0727113 -0.33572531
-5.9162645 -1.0731163 0
-5.8576708 -1.0624883 0.33252582
-3.3944919 -0.61994427 -0.952021
-4.4303737 -0.80912989 -0.99769354
-5.8403969 -1.0666459 -0.98978263
-5.9043703 -1.0783296 -0.66899347
-5.9152851 -1.0803229 -0.33587033
-5.927762 -1.0826015 0
-5.8563828 -1.0695654 0.33252582
-0 -0 -0
-3.3962054 -0.62449867 -0.95271248
-4.4268961 -0.81402344 -0.99713117
-5.8391037 -1.0737021 -0.98978263
-5.9030633 -1.085463 -0.66899347
-5.9088693 -1.0865307 -0.33558032
-5.9315639 -1.0907037 0
-5.8423109 -1.0742917 0.33180028
-3.4003773 -0.6295144 -0.95409548
-4.4359031 -0.82122207 -0.99938273
-5.847899 -1.0826259 -0.99149454
-5.9042883 -1.0930653 -0.66928148
-5.8998847 -1.0922501 -0.33514476
-5.9251285 -1.0969235 0
-5.8333406 -1.0799308 0.33136472
-3.3823571 -0.63040626 -0.94925231
-4.4274116 -0.82518423 -0.99769354
-5.8491077 -1.0901611 -0.99192208
-5.9080534 -1.1011474 -0.66985863
-5.9164443 -1.1027113 -0.33616087
-5.9314666 -1.1055112 0
-5.8218136 -1.0850741 0.33078414
-3.3918397 -0.63429421 -0.952021
-4.4269118 -0.82785892 -0.99769354
-5.8433967 -1.09275 -0.99106532
-5.902297 -1.1037648 -0.66928148
-5.9157767 -1.1062856 -0.33616087
-5.9231305 -1.1076607 0
-5.8262706 -1.0895473 0.33107471
-3.4132576 -0.64256895 -0.95824975
-4.4334021 -0.83461809 -0.99938273
-5.8446016 -1.100286 -0.99149454
-5.9060478 -1.1118537 -0.66985863
-5.9118848 -1.1129525 -0.33601588
-5.9294529 -1.1162599 0
-5.8249497 -1.0965863 0.33107471
-0 -0 -0
-3.3779655 -0.64015222 -0.94855815
-4.4248986 -0.83855462 -0.99769354
-5.8407388 -1.1068679 -0.99106532
-5.9047003 -1.1189891 -0.66985863
-5.9054246 -1.1191264 -0.33572531
-5.9229908 -1.1224555 0
-5.8236203 -1.1036239 0.33107471
-3.4067614 -0.64987451 -0.95686412
-4.4188952 -0.84294933 -0.99656886
-5.8494835 -1.1158487 -0.99277717
-5.9033437 -1.1261231 -0.66985863
-5.914278 -1.1282089 -0.33630586
-5.9267383 -1.1305858 0
-5.8197327 -1.1101733 0.33092973
-3.3764086 -0.64831352 -0.94855815
-4.4228592 -0.84924543 -0.99769354
-5.8430934 -1.1219486 -0.99192208
-5.9019785 -1.1332552 -0.66985863
-5.9129105 -1.1353543 -0.33630586
-5.9279308 -1.1382384 0
-5.826035 -1.1186731 0.33136472
-3.3559268 -0.64858621 -0.94302356
-4.4193373 -0.85410726 -0.99713117
-5.8392158 -1.1285213 -0.99149454
-5.908226 -1.1418587 -0.6707238
-5.9064364 -1.1415129 -0.33601588
-5.9188833 -1.1439184 0
-5.8170328 -1.1242342 0.33092973
-3.3625212 -0.65407646 -0.94509804
-4.4183021 -0.85944653 -0.99713117
-5.8428826 -1.1365554 -0.99234962
-5.9042959 -1.1485015 -0.67043465
-5.9076009 -1.1491444 -0.33616087
-5.9251628 -1.1525606 0
-5.8258629 -1.1332448 0.33150971
-0 -0 -0
-3.3666573 -0.65910381 -0.94648367
-4.4122686 -0.86380726 -0.99600434
-5.8440218 -1.1441073 -0.99277717
-5.9029036 -1.1556349 -0.67043465
-5.9113035 -1.1572793 -0.33645087
-5.918653 -1.1587181 0
-5.8219419 -1.1397846 0.33136472
-3.3584716 -0.66171592 -0.94440651
-4.4012499 -0.86717325 -0.99375284
-5.8401189 -1.1506721 -0.99234962
-5.8989677 -1.162267 -0.67014664
-5.8971562 -1.1619101 -0.33572531
-5.9223604 -1.166876 0
-5.8205605 -1.1468184 0.33136472
-3.3724301 -0.66870022 -0.94855815
-4.402698 -0.87298632 -0.99431729
-5.8462811 -1.1592262 -0.99363393
-5.8975592 -1.1693939 -0.67014664
-5.9059429 -1.1710563 -0.33630586
-5.928597 -1.1755482 0
-5.8191705 -1.1538507 0.33136472
-3.388844 -0.6762116 -0.95340395
-4.4016399 -0.87830549 -0.99431729
-5.8473911 -1.1667913 -0.99406153
-5.8986759 -1.1770247 -0.67043465
-5.9045238 -1.1781917 -0.33630586
-5.9271722 -1.1827109 0
-5.8177719 -1.1608812 0.33136472
-3.3658898 -0.6758613 -0.9471752
-4.3781576 -0.87912184 -0.98925191
-5.8434625 -1.173351 -0.99363393
-5.907393 -1.186188 -0.67158782
-5.9183865 -1.1883955 -0.33717698
-5.9206409 -1.1888481 0
-5.8189101 -1.1684209 0.33150971
-3.414252 -0.68986517 -0.96101844
-4.3795805 -0.8849141 -0.98981422
-5.8445544 -1.1809188 -0.99406153
-5.9008894 -1.1923015 -0.67101181
-5.9016595 -1.1924571 -0.33630586
-5.9191999 -1.1960013 0
-5.8149495 -1.174937 0.33136472
-3.3691587 -0.68499207 -0.94855815
-4.3685479 -0.88818038 -0.98756272
-5.8380966 -1.186958 -0.99320638
-5.8994446 -1.1994307 -0.67101181
-5.8976703 -1.19907 -0.33616087
-5.9202986 -1.2036706 0
-5.8237109 -1.1840332 0.33194527
-3.3683286 -0.68906254 -0.94855815
-4.3699584 -0.89396703 -0.98812503
-5.8416834 -1.1950393 -0.99406153
-5.8979912 -1.2065582 -0.67101181
-5.9064002 -1.2082784 -0.33674142
-5.9137449 -1.2097811 0
-5.8146367 -1.1895063 0.33150971
-3.3773227 -0.69515508 -0.95132685
-4.3663888 -0.89873487 -0.98756272
-5.8352113 -1.2010629 -0.99320638
-5.8939977 -1.2131629 -0.6707238
-5.9049358 -1.2154143 -0.33674142
-5.9173722 -1.2179741 0
-5.8182902 -1.19758 0.33180028
-3.4084141 -0.70584863 -0.96032423
-4.3752522 -0.90607119 -0.98981422
-5.836267 -1.2086328 -0.99363393
-5.8950582 -1.2208078 -0.67101181
-5.9085469 -1.2236012 -0.33703142
-5.9209981 -1.2261797 0
-5.8219228 -1.2056623 0.33209026
-3.3535309 -0.69870979 -0.94509804
-4.3617191 -0.90876627 -0.98700035
-5.8423443 -1.2172552 -0.99491829
-5.8935785 -1.2279299 -0.67101181
-5.9121566 -1.2318007 -0.337322
-5.9195123 -1.2333332 0
-5.8179202 -1.2121665 0.33194527
-3.3678472 -0.70381588 -0.94925231
-4.3711181 -0.91348034 -0.98925191
-5.8416076 -1.2207847 -0.99491829
-5.9004235 -1.2330761 -0.67187583
-5.9139524 -1.2359034 -0.33746698
-5.9238558 -1.237973 0
-5.807013 -1.2135551 0.33136472
-3.3817203 -0.71098077 -0.95340395
-4.3625488 -0.91719252 -0.98756272
-5.8401284 -1.2278422 -0.99491829
-5.9039965 -1.2412701 -0.67245299
-5.8972025 -1.2398416 -0.33659643
-5.9172668 -1.24406 0
-5.8258853 -1.2248477 0.33252582
-3.3833108 -0.71558499 -0.95409548
-4.3713813 -0.92456621 -0.98981422
-5.8486767 -1.2370207 -0.99662846
-5.9024925 -1.248403 -0.67245299
-5.9134884 -1.2507286 -0.33761197
-5.9259443 -1.2533631 0
-9.4341536 -1.9953648 0.53861326
-3.4094381 -0.72541612 -0.96170992
-4.3652854 -0.92878896 -0.9886874
-5.8396525 -1.2424856 -0.99534583
-5.895915 -1.2544565 -0.67187583
-5.9094334 -1.2573328 -0.33746698
-5.9167862 -1.2588972 0
-9.4749393 -2.015955 0.54108053
-3.3938446 -0.72638589 -0.95755827
-4.3716164 -0.93565875 -0.99037659
-5.8431625 -1.2506143 -0.99620092
-5.8969316 -1.2621225 -0.67216498
-5.8977466 -1.2622969 -0.33688644
-5.9152608 -1.2660456 0
-9.6503553 -2.0654693 0.55124003
-3.3954148 -0.73101366 -0.95824975
-4.3704824 -0.94094026 -0.99037659
-5.8441544 -1.2582135 -0.99662846
-5.9004545 -1.2703346 -0.672741
-5.9063778 -1.2716099 -0.33746698
-5.9137268 -1.273192 0
-9.7392912 -2.0968146 0.55646449
-3.3700049 -0.72980493 -0.95132685
-4.3792758 -0.94837165 -0.9926281
-5.8426299 -1.265274 -0.99662846
-5.9014406 -1.2780101 -0.67302901
-5.9022999 -1.2781962 -0.337322
-5.9096432 -1.2797865 0
-9.6427889 -2.0882328 0.55109447
-3.3666718 -0.73334295 -0.95063531
-4.3582654 -0.94933611 -0.98812503
-5.8436122 -1.2728808 -0.99705768
-5.8998923 -1.2851399 -0.67302901
-5.9058242 -1.286432 -0.33761197
-5.9182639 -1.2891418 0
-9.5615597 -2.0827401 0.54659551
-3.395191 -0.74385333 -0.95894128
-4.3546352 -0.95405829 -0.98756272
-5.8445749 -1.2804896 -0.99748522
-5.898335 -1.2922679 -0.67302901
-5.9093466 -1.2946805 -0.33790255
-5.9192414 -1.2968483 0
-9.5311127 -2.0881741 0.54499888
-0 -0 -0
-3.3673372 -0.74201608 -0.95132685
-4.3410749 -0.95658588 -0.98474884
-5.840519 -1.2869987 -0.99705768
-5.8942456 -1.2988379 -0.672741
-5.9103131 -1.3023784 -0.33804753
-5.9049649 -1.3011999 0
-9.5742636 -2.1097553 0.54761165
-3.4031806 -0.75422734 -0.96170992
-4.3448725 -0.96292907 -0.98587352
-5.8414636 -1.2946099 -0.99748522
-5.8926721 -1.305959 -0.672741
-5.9112697 -1.3100806 -0.33819255
-5.9084654 -1.3094591 0
-9.6452751 -2.1376266 0.55182058
-3.3900259 -0.75561041 -0.95824975
-4.341228 -0.96762604 -0.98531115
-5.8449011 -1.3027831 -0.99834037
-5.8961439 -1.3142046 -0.67331815
-5.9046149 -1.3160927 -0.33790255
-5.9170394 -1.3188621 0
-9.6680422 -2.1549315 0.55327165
-3.3744175 -0.75641251 -0.95409548
-4.3375788 -0.97231561 -0.98474884
-5.8433228 -1.3098445 -0.99834037
-5.8920202 -1.3207606 -0.67302901
-5.9030204 -1.3232263 -0.33790255
-5.9154415 -1.3260107 0
-9.6299391 -2.1586559 0.55124003
-3.3686111 -0.7593869 -0.95271248
-4.3289623 -0.97587913 -0.98305964
-5.8417358 -1.3169041 -0.99834037
-5.89042 -1.327879 -0.67302901
-5.9064817 -1.3314998 -0.33819255
-5.9087625 -1.3320138 0
-9.3586359 -2.1097198 0.53585547
-3.3603487 -0.76179212 -0.95063531
-4.3203435 -0.97942328 -0.98137045
-5.8426514 -1.324531 -0.99876958
-5.8963814 -1.3367115 -0.67389417
-5.897264 -1.3369117 -0.33775699
-5.91222 -1.3403022 0
-9.2471189 -2.0963249 0.52961493
-3.3741064 -0.76919872 -0.95478964
-4.3191571 -0.98464286 -0.98137045
-5.8385363 -1.3310175 -0.99834037
-5.8897228 -1.3426865 -0.67331815
-5.9032469 -1.3457695 -0.33819255
-5.9156661 -1.3486007 0
-9.2167177 -2.1011453 0.52801877
-3.3731747 -0.77327508 -0.95478964
-4.3229222 -0.99099761 -0.98249727
-5.8419328 -1.3392195 -0.99919713
-5.8956523 -1.3515342 -0.67418218
-5.9092174 -1.3546439 -0.33862811
-5.9064293 -1.3540049 0
-9.2015114 -2.1093779 0.52729326
-3.3864288 -0.78277647 -0.95894128
-4.3235922 -0.99940276 -0.98305964
-5.8369975 -1.349228 -0.99876958
-5.8906755 -1.3616357 -0.67389417
-5.9092817 -1.3659365 -0.3387731
-5.9115653 -1.3664644 0
-9.1698217 -2.1196139 0.52569658
-3.3805978 -0.78573292 -0.95755827
-4.3149543 -1.0029 -0.98137045
-5.8328552 -1.355697 -0.99834037
-5.8890257 -1.3687525 -0.67389417
-5.9000316 -1.3713104 -0.33833754
-5.9048448 -1.3724291 0
-9.1444778 -2.1253984 0.52439046
-3.3601024 -0.78524989 -0.952021
-4.3162112 -1.0086907 -0.98193276
-5.889884 -1.3764552 -0.67418218
-5.8958421 -1.3778477 -0.33819255
-5.9082456 -1.3807464 0
-9.1267166 -2.1328971 0.52351934
-3.3738 -0.79275137 -0.95617265
-4.3248835 -1.0162301 -0.98418432
-5.8907413 -1.3841643 -0.67447132
-5.9068184 -1.387942 -0.33891809
-5.9091139 -1.3884813 0
-9.1064329 -2.1397645 0.52250379
-3.3752789 -0.79740363 -0.95686412
-4.3211818 -1.0208715 -0.98362195
-5.8915796 -1.3918753 -0.67475933
-5.8975577 -1.3932875 -0.3384831
-5.9023614 -1.3944224 0
-9.1291246 -2.1567395 0.52395487
-3.3621109 -0.79858315 -0.95340395
-4.3051171 -1.0225701 -0.98024571
-5.8337297 -1.3856528 -0.99962467
-5.8898935 -1.398993 -0.67475933
-5.8933344 -1.3998104 -0.33833754
-5.9133301 -1.4045599 0
-9.1543236 -2.1743746 0.52555156
-3.3660285 -0.80381161 -0.95478964
-4.3112855 -1.0295401 -0.98193276
-5.8932252 -1.4073092 -0.67533535
-5.8966985 -1.4081385 -0.33862811
-5.9116287 -1.4117039 0
-9.1112509 -2.1757774 0.52322936
-3.3821239 -0.81197613 -0.95963275
-4.3100386 -1.0347487 -0.98193276
-5.8864956 -1.4132226 -0.67475933
-5.9000411 -1.4164746 -0.33891809
-5.9124565 -1.4194552 0
-9.0884027 -2.1819324 0.5220682
-3.407969 -0.82253742 -0.96724719
-4.3013821 -1.038169 -0.98024571
-5.8998642 -1.423974 -0.67648852
-5.9033823 -1.424823 -0.33920866
-5.9081998 -1.4259858 0
-9.3156109 -2.2483885 0.53527552
-3.3630927 -0.81600785 -0.95478964
-4.3149352 -1.0469593 -0.98362195
-5.8906059 -1.429274 -0.67562449
-5.909234 -1.4337938 -0.33964422
-5.9115357 -1.4343522 0
-9.4845896 -2.3013043 0.54514444
-3.3718536 -0.82244891 -0.95755827
-4.2988605 -1.0485607 -0.98024571
-5.8863549 -1.4357759 -0.67533535
-5.9049654 -1.4403154 -0.33949867
-5.9022107 -1.4396434 0
-9.6080093 -2.3435469 0.55240059
-3.3513646 -0.82174295 -0.952021
-4.314858 -1.0579883 -0.98418432
-5.887135 -1.443505 -0.67562449
-5.9057517 -1.4480699 -0.33964422
-5.8954163 -1.4455357 0
-9.5521755 -2.3421602 0.54935277
-3.3576698 -0.8275913 -0.95409548
-4.3061824 -1.0613786 -0.98249727
-5.8218012 -1.4349451 -0.99962467
-5.8853865 -1.4506174 -0.67562449
-5.8989472 -1.4539599 -0.33935365
-5.8810334 -1.4495445 0
-9.448431 -2.3288291 0.54354775
-3.3518016 -0.83044225 -0.95271248
-4.3073606 -1.0671915 -0.98305964
-5.8911538 -1.459592 -0.67648852
-5.8946662 -1.4604622 -0.33920866
-5.8641162 -1.4528931 0
-9.3724689 -2.3221223 0.53933883
-3.3581014 -0.83631104 -0.95478964
-4.2912793 -1.0687124 -0.9796834
-5.8893857 -1.4667093 -0.67648852
-5.9004641 -1.4694682 -0.33964422
-5.8674116 -1.4612367 0
-9.3293133 -2.3233984 0.53701663
-3.3497851 -0.83853984 -0.95271248
-4.2998347 -1.0763624 -0.98193276
-5.8951387 -1.4757092 -0.67735368
-5.9138036 -1.4803814 -0.34051478
-5.8605881 -1.4670602 0
-9.326499 -2.3346694 0.53701663
-3.3658023 -0.84687245 -0.95755827
-4.3083873 -1.0840371 -0.98418432
-5.8908458 -1.4822007 -0.67706567
-5.8994131 -1.4843564 -0.33978921
-5.8613324 -1.4747748 0
-9.3463573 -2.351645 0.53832328
-3.389611 -0.85504079 -0.96447855
-4.3077316 -1.0866398 -0.98418432
-5.887434 -1.4851249 -0.67677653
-5.9035497 -1.4891902 -0.34007922
-5.8680129 -1.480226 0
-9.4633455 -2.3871608 0.54514444
-3.4031618 -0.86283404 -0.96863019
-4.2965636 -1.0893463 -0.98193276
-5.8881497 -1.4928752 -0.67706567
-5.9067883 -1.4976008 -0.34036976
-5.8561296 -1.4847568 0
-9.6417952 -2.4445705 0.55559391
-3.358362 -0.85579562 -0.95617265
-4.2952442 -1.094537 -0.98193276
-5.8838277 -1.4993483 -0.67677653
-5.9049745 -1.5047369 -0.34036976
-5.8568506 -1.4924738 0
-9.711853 -2.4748261 0.55980283
-3.3573256 -0.85985297 -0.95617265
-4.2816138 -1.0965748 -0.97911888
-5.8085585 -1.4876443 -0.99962467
-5.8845248 -1.5071002 -0.67706567
-5.8981128 -1.5105802 -0.34007922
-5.8550429 -1.4995496 0
-9.8875599 -2.5323277 0.57010674
-3.3611479 -0.86516094 -0.95755827
-4.285212 -1.1030154 -0.98024571
-5.806757 -1.4946618 -0.99962467
-5.8877044 -1.5154977 -0.67764169
-5.898797 -1.518353 -0.34022421
-5.8633084 -1.5092181 0
-9.9272699 -2.5552835 0.57257396
-3.364953 -0.87047702 -0.95894128
-4.2764935 -1.1062827 -0.97855651
-5.8833671 -1.5219636 -0.67735368
-5.9019942 -1.5267822 -0.34051478
-5.8514023 -1.5136945 0
-9.9015369 -2.5614207 0.57126784
-3.3687501 -0.87580353 -0.96032423
-4.2751541 -1.1114492 -0.97855651
-5.8865256 -1.5303717 -0.6779297
-5.9026575 -1.5345657 -0.34065977
-5.8445363 -1.5194553 0
-9.7551003 -2.536119 0.56299561
-3.3895421 -0.8855828 -0.96655571
-4.2664304 -1.1146866 -0.97686732
-5.8846722 -1.5374832 -0.6779297
-5.8982873 -1.5410405 -0.34051478
-5.8149958 -1.519279 0
-9.7017479 -2.5347674 0.56009281
-3.3496451 -0.879484 -0.95548111
-4.2650805 -1.119841 -0.97686732
-5.7969847 -1.5220582 -0.99919713
-5.8853188 -1.5452514 -0.67821884
-5.898932 -1.5488256 -0.34065977
-5.8181949 -1.5276272 0
-9.7238054 -2.5530858 0.56154394
-3.3534269 -0.88480961 -0.95686412
-4.2710967 -1.1269389 -0.97855651
-5.7926612 -1.5284073 -0.99876958
-5.8859458 -1.5530207 -0.67850685
-5.8970561 -1.5559522 -0.34065977
-5.8188586 -1.5353196 0
-9.7257433 -2.5661602 0.56183451
-3.3547873 -0.88950574 -0.95755827
-4.2574544 -1.1288435 -0.97574264
-5.8890605 -1.5614561 -0.67908287
-5.8876343 -1.561078 -0.34022421
-5.8169994 -1.5423495 0
-9.6422625 -2.5565994 0.55719
-3.3730943 -0.89872342 -0.96309292
-4.2659082 -1.1366037 -0.9779942
-5.7864633 -1.5417386 -0.99834037
-5.8846726 -1.5679054 -0.67879486
-5.9033222 -1.5728744 -0.34124035
-5.8151317 -1.5493771 0
-9.5864401 -2.5542002 0.55414224
-3.3598912 -0.89955497 -0.95963275
-4.2743497 -1.1443859 -0.98024571
-5.8827739 -1.5750148 -0.67879486
-5.891377 -1.5773182 -0.34065977
-0 -0 0
-9.5507193 -2.5570462 0.55225557
-3.4120951 -0.91795146 -0.974859
-4.2778664 -1.1508688 -0.98137045
-5.8858666 -1.583467 -0.67937201
-5.891974 -1.5851101 -0.34080479
-5.8163919 -1.5647763 0
-9.5250416 -2.5625095 0.55094945
-3.3722432 -0.91160125 -0.96378708
-4.2593098 -1.1513973 -0.97743183
-5.7882733 -1.5647143 -0.99962467
-5.888938 -1.5919265 -0.67994803
-5.8900542 -1.5922282 -0.34080479
-5.8195262 -1.5731627 0
-9.5971861 -2.5943582 0.55530334
-3.3566084 -0.91172832 -0.95963275
-4.2726231 -1.160538 -0.98080808
-5.7739944 -1.5683433 -0.99748522
-5.889504 -1.5997182 -0.68023604
-5.8981562 -1.6020684 -0.34138533
-5.8226395 -1.5815564 0
-9.7896318 -2.6590784 0.56662393
-3.3899505 -0.92298436 -0.96932435
-4.257216 -1.1591153 -0.97743183
-5.7829533 -1.5745289 -0.99919713
-5.8810563 -1.6012396 -0.67937201
-5.8971872 -1.6056316 -0.34138533
-5.8216829 -1.5850738 0
-9.7303562 -2.649291 0.56328559
-3.3622122 -0.91979718 -0.96170992
-4.2729611 -1.1689498 -0.98137045
-5.7810464 -1.5815153 -0.99919713
-5.8940816 -1.6124382 -0.6811012
-5.8952432 -1.612756 -0.34138533
-5.8122396 -1.5900489 0
-9.7446947 -2.6658468 0.56430173
-3.3683579 -0.9258545 -0.96378708
-4.2592974 -1.1707455 -0.97855651
-5.7717032 -1.5864577 -0.99791282
-5.8871455 -1.6181892 -0.68052518
-5.8958025 -1.6205688 -0.34153089
-5.8153281 -1.5984489 0
-9.8516998 -2.7079189 0.57068729
-3.3599796 -0.92791963 -0.96170992
-4.2554331 -1.1752154 -0.9779942
-5.772254 -1.5941132 -0.99834037
-5.8851862 -1.6253015 -0.68052518
-5.8938403 -1.6276915 -0.34153089
-5.8209209 -1.6075535 0
-10.091363 -2.7869139 0.58476514
-3.3443561 -0.92795557 -0.95755827
-4.2466621 -1.1783177 -0.97630501
-5.7678523 -1.600401 -0.99791282
-5.8832178 -1.6324114 -0.68052518
-5.896872 -1.6362 -0.3418209
-5.818974 -1.6145856 0
-10.168112 -2.8213372 0.58940959
-3.401222 -0.94816172 -0.97416747
-4.2599254 -1.1875433 -0.9796834
-5.770865 -1.6087492 -0.99876958
-5.8862195 -1.6409067 -0.6811012
-5.8973913 -1.6440212 -0.34196588
-5.8220282 -1.6230119 0
-22.476362 -6.2657561 1.3033135
-3.3686707 -0.94347554 -0.96517003
-4.2487006 -1.1899487 -0.97743183
-5.7713861 -1.6164126 -0.99919713
-5.8892183 -1.6494143 -0.68167835
-5.9029093 -1.6532488 -0.34240144
-5.8125515 -1.627942 0
-22.511311 -6.3048224 1.3057806
-3.3940954 -0.95502061 -0.97278452
-4.2472596 -1.1950815 -0.97743183
-5.8847241 -1.6558264 -0.68138921
-5.8959098 -1.6589738 -0.34211144
-5.8256068 -1.6391922 0
-22.501177 -6.331315 1.3056357
-3.356724 -0.94888377 -0.96240139
-4.2482553 -1.2009031 -0.9779942
-5.7600503 -1.6282595 -0.99791282
-5.887702 -1.6643443 -0.68196636
-5.8939009 -1.6660967 -0.34211144
-5.8211198 -1.6455228 0
-22.498516 -6.3599138 1.3059262
-3.3579862 -0.95362371 -0.96309292
-4.2516847 -1.2074224 -0.97911888
-5.8881721 -1.6721631 -0.68225437
-5.8918834 -1.6732171 -0.34211144
-5.8191276 -1.6525553 0
-22.483313 -6.384964 1.3054906
-3.3568313 -0.95768046 -0.96309292
-4.2526731 -1.2132579 -0.9796834
-5.7659726 -1.6449916 -0.99962467
-5.8861475 -1.6792766 -0.68225437
-5.8948503 -1.6817595 -0.34240144
-5.8146262 -1.6588721 0
-22.485577 -6.4149776 1.3060713
-3.346025 -0.95897114 -0.96032423
-4.2438741 -1.2162948 -0.9779942
-5.7590499 -1.6505443 -0.99876958
-5.889082 -1.6878115 -0.68283039
-5.8978143 -1.6903142 -0.34269202
-5.8126173 -1.6658968 0
-22.485296 -6.4442878 1.3065063
-3.3424554 -0.96231997 -0.95963275
-4.2521682 -1.2242337 -0.98024571
-5.8746133 -1.6913487 -0.68138921
-5.8932633 -1.6967182 -0.34254643
-5.8030953 -1.6707581 0
-22.474998 -6.4707341 1.3063612
-3.3629777 -0.97263044 -0.96586156
-4.2555628 -1.2307812 -0.98137045
-5.882504 -1.7013203 -0.68254238
-5.8887153 -1.7031167 -0.34240144
-7.8209987 -2.261966 0
-22.474653 -6.5000525 1.3067968
-3.3858964 -0.98369384 -0.97278452
-4.2394371 -1.2316704 -0.9779942
-5.882925 -1.7091478 -0.68283039
-5.8941412 -1.7124063 -0.34283701
-7.8282566 -2.2743187 0
-22.48175 -6.5315523 1.3076674
-3.3606176 -0.98075461 -0.96586156
-4.255013 -1.2417729 -0.98193276
-5.7510056 -1.6783596 -0.99876958
-5.8833456 -1.7169815 -0.68311954
-5.8920679 -1.719527 -0.34283701
-7.8579779 -2.2932534 0
-22.476343 -6.5594425 1.3078129
-3.3425848 -0.97987634 -0.96101844
-4.2462015 -1.244771 -0.98024571
-5.7538953 -1.6867503 -0.99962467
-5.8862262 -1.725543 -0.68369555
-5.8899856 -1.7266451 -0.34283701
-7.9001498 -2.3159232 0
-22.470892 -6.587326 1.3079579
-3.3660579 -0.98896623 -0.96793872
-4.2576356 -1.2509167 -0.98305964
-5.7454839 -1.6880547 -0.99834037
-5.8851824 -1.7290989 -0.68369555
-5.8914323 -1.7309351 -0.34298199
-7.9062424 -2.3228974 0
-22.466908 -6.6009007 1.3079579
-3.3624566 -0.99232334 -0.96724719
-4.2341905 -1.2495883 -0.9779942
-5.8830891 -1.7362087 -0.68369555
-5.8943162 -1.739522 -0.343272
-7.9059234 -2.3331847 0
-22.468885 -6.6309848 1.3085384
-3.3732793 -0.99994981 -0.97070736
-4.2229333 -1.2518148 -0.97574264
-5.7413878 -1.7019343 -0.99834037
-5.8834643 -1.7440504 -0.68398356
