# .PCD v0.7 - Point Cloud Data file format
VERSION 0.7
FIELDS x y z
SIZE 4 4 4
TYPE F F F
COUNT 1 1 1
WIDTH 1554
HEIGHT 1
VIEWPOINT 0 0 0 1 0 0 0
POINTS 1554
DATA ascii
6.8504953 -3.8093235 0.43782207
3.7865262 -2.0995703 -0.95914918
4.174202 -2.3145304 -0.79571819
5.1123056 -2.8346946 -0.65155858
6.8620086 -3.804878 -0.43826377
6.8869777 -3.8187227 0
6.8460031 -3.7960031 0.43724152
0 -0 -0
3.7823873 -2.0913041 -0.95745999
4.1859818 -2.3144536 -0.7974301
5.1089339 -2.8247595 -0.65069342
6.8575053 -3.7915547 -0.43768322
6.8847518 -3.8066194 0
6.8483129 -3.7864721 0.43709651
0 -0 -0
3.7849114 -2.0867321 -0.95745999
4.1865206 -2.308151 -0.79700089
5.1055465 -2.8148367 -0.64982826
6.8620815 -3.7832658 -0.43768322
6.8893466 -3.7982979 0
6.8460546 -3.7744298 0.43666098
0 -0 -0
3.7785237 -2.077261 -0.95520842
4.1915627 -2.3043311 -0.7974301
5.1089439 -2.8086655 -0.64982826
6.8620982 -3.7724705 -0.43739322
6.8962092 -3.791223 0
6.8437767 -3.7623982 0.43622541
0 -0 -0
3.778805 -2.0714736 -0.95464611
4.1943436 -2.2992647 -0.7974301
5.1100678 -2.8012483 -0.64954025
6.8666515 -3.7641761 -0.43739322
6.8962255 -3.7803881 0
6.8505945 -3.755374 0.4363704
3.7857685 -2.069346 -0.95577294
4.2061205 -2.2991152 -0.79914027
5.1270704 -2.8025174 -0.65127057
6.8734727 -3.7571216 -0.43753821
6.9007883 -3.7720525 0
6.843729 -3.7408633 0.43564484
3.7904952 -2.065985 -0.95633531
4.2156596 -2.297718 -0.80042464
5.1213689 -2.791369 -0.6501174
6.8780074 -3.7488134 -0.43753821
6.8984833 -3.759974 0
6.8436852 -3.7301066 0.43535486
3.7929885 -2.0614033 -0.95633531
4.2116642 -2.288944 -0.79914027
5.1315489 -2.7888806 -0.65098143
6.8779702 -3.7380209 -0.4372482
6.9075994 -3.7541234 0
6.8481874 -3.7218344 0.43535486
3.7887726 -2.0531857 -0.95464611
4.227973 -2.2911942 -0.80170894
5.1440115 -2.7876074 -0.6521346
6.8824821 -3.7297075 -0.4372482
6.9075499 -3.7432921 0
6.8458238 -3.7098417 0.4349193
3.7979591 -2.0522311 -0.95633531
4.2217045 -2.2812023 -0.79999703
5.1451025 -2.7801614 -0.65184659
6.8846908 -3.7201498 -0.43710265
6.8983345 -3.7275221 0
6.8503013 -3.7015672 0.4349193
2.6447482 -1.4249663 -0.99057823
3.7914886 -2.0428197 -0.95408374
4.2221999 -2.274883 -0.79956949
5.1370749 -2.7678096 -0.65040541
6.8868957 -3.7105968 -0.43695766
6.9005446 -3.7179508 0
6.8524837 -3.6920559 0.43477428
3.7961903 -2.0394382 -0.95464611
4.2226777 -2.2685614 -0.79914027
5.1404157 -2.7616003 -0.65040541
6.893661 -3.7035012 -0.43710265
6.9004421 -3.7071445 0
6.8546529 -3.6825449 0.43462929
3.7829711 -2.0264502 -0.95070535
4.2186337 -2.2598245 -0.79785764
5.1460266 -2.7566073 -0.65069342
6.8866806 -3.6890352 -0.43637711
6.9026246 -3.697576 0
6.8613858 -3.6754854 0.43477428
3.7966297 -2.0278666 -0.95352143
4.2168283 -2.2523043 -0.79700089
5.1447954 -2.7479525 -0.6501174
6.8911328 -3.6807113 -0.43637711
6.8979053 -3.6843286 0
6.8612332 -3.6647413 0.43448374
3.8023336 -2.0279615 -0.95464611
4.2227225 -2.2521746 -0.79785764
5.1350455 -2.738759 -0.64867622
6.8910646 -3.6753256 -0.43623209
6.8909445 -3.6752615 0
6.8565745 -3.6569304 0.43404874
3.8002987 -2.020982 -0.95352143
4.2163749 -2.2422495 -0.79614574
5.1383514 -2.7325523 -0.64867622
6.8932085 -3.6657777 -0.4360871
6.888485 -3.6632655 0
6.8541036 -3.6449816 0.43361318
3.7937586 -2.0116272 -0.95126987
4.2190809 -2.2371531 -0.79614574
5.146215 -2.7287626 -0.64925224
6.8953395 -3.6562297 -0.43594208
6.8975091 -3.6573801 0
6.8516135 -3.6330442 0.43317762
3.7961864 -2.0070417 -0.95126987
4.2195139 -2.2308547 -0.79571819
5.1563706 -2.7261703 -0.6501174
6.9020472 -3.6491086 -0.4360871
6.8950186 -3.6453929 0
6.8605971 -3.6271939 0.43346816
3.7986088 -2.0024533 -0.95126987
4.2222066 -2.2257547 -0.79571819
5.1527944 -2.7163184 -0.64925224
6.9041553 -3.6395557 -0.43594208
6.8971186 -3.6358464 0
6.8580766 -3.6152654 0.4330326
3.794276 -1.9943144 -0.94958067
4.2248926 -2.2206514 -0.79571819
5.1514983 -2.7076857 -0.64867622
6.9085479 -3.6312108 -0.43594208
6.9061098 -3.6299293 0
6.8624401 -3.606976 0.4330326
3.8011799 -1.992085 -0.95070535
4.2366681 -2.2203112 -0.7974301
5.1570549 -2.7026587 -0.64896423
6.9083228 -3.6204457 -0.43565154
6.8920498 -3.6119175 0
6.8575873 -3.5938568 0.43245205
3.7833183 -1.9769011 -0.94563997
4.2393475 -2.2151904 -0.7974301
5.1671872 -2.7000153 -0.64982826
6.9103918 -3.6108937 -0.43550655
6.896409 -3.6035872 0
6.8550134 -3.5819569 0.43201649
3.8014803 -1.9805474 -0.94958067
4.2374635 -2.2076919 -0.79657334
5.1681542 -2.6925759 -0.64954025
6.9147496 -3.6025412 -0.43550655
6.8915257 -3.5904417 0
6.8616476 -3.5748754 0.43216205
3.7903461 -1.9689271 -0.94620448
4.242404 -2.2037523 -0.79700089
5.1484556 -2.6744087 -0.64665788
6.9190974 -3.5941834 -0.43550655
6.8958592 -3.5821121 0
6.8567386 -3.5617905 0.4315815
2.6720331 -1.3839128 -0.99220973
3.7972305 -1.9666806 -0.94732916
4.2382317 -2.1950862 -0.79571819
5.1424966 -2.6634276 -0.64550471
6.9257402 -3.5870142 -0.43565154
6.8978739 -3.5725813 0
6.8587232 -3.5523043 0.43143594
3.8041236 -1.964425 -0.94845599
4.2568407 -2.198205 -0.79871273
5.1181331 -2.642971 -0.6420452
6.9208345 -3.5738742 -0.43507099
6.895246 -3.5606606 0
6.8583975 -3.5416322 0.43114594
3.8087513 -1.960989 -0.94901836
4.2572136 -2.1918859 -0.79828519
5.109827 -2.6308661 -0.64060402
6.9251475 -3.5655091 -0.43507099
6.8949203 -3.5499461 0
6.860364 -3.5321543 0.43100095
3.8088598 -1.9552262 -0.94845599
4.2507238 -2.1820509 -0.79657334
5.1037984 -2.6199651 -0.63945085
6.9386973 -3.5618856 -0.43565154
6.8945785 -3.5392375 0
6.8530707 -3.51793 0.43027538
3.8044319 -1.9471484 -0.94676679
4.2602153 -2.180423 -0.79785764
5.1276803 -2.6244009 -0.6420452
6.933744 -3.5487635 -0.43507099
6.8965263 -3.5297151 0
6.8549967 -3.5084596 0.43012983
3.8203571 -1.9494773 -0.95014304
4.2582688 -2.1729381 -0.79700089
5.174623 -2.6405413 -0.64752305
6.9357147 -3.5392027 -0.43492597
6.8938389 -3.5178342 0
6.8638644 -3.5025387 0.43042037
3.80233 -1.9344913 -0.9450776
4.2608914 -2.1677911 -0.79700089
5.1962433 -2.6436651 -0.64982826
6.9353495 -3.528461 -0.43463543
6.8957582 -3.5083182 0
6.856514 -3.4883521 0.42969483
3.8046649 -1.9298955 -0.9450776
4.2635078 -2.162641 -0.79700089
5.2040515 -2.6397269 -0.65040541
6.9396081 -3.5200784 -0.43463543
6.9023199 -3.5011642 0
6.8537698 -3.4765372 0.42925927
3.7990277 -1.9241512 -0.9433884
4.2716861 -2.1635456 -0.79828519
5.1918054 -2.6295726 -0.64867622
6.9394174 -3.5147121 -0.43449041
6.8951468 -3.4922898 0
6.8512282 -3.4700456 0.4289687
3.8058903 -1.9218522 -0.94451529
4.2628417 -2.1525981 -0.79614574
5.1857438 -2.6186337 -0.64752305
6.9413419 -3.5051546 -0.43434542
6.8923903 -3.4804354 0
6.8507814 -3.4594243 0.42867872
3.8082099 -1.9172522 -0.94451529
4.2677302 -2.1485989 -0.79657334
5.195828 -2.6158519 -0.64838707
6.9084377 -3.4780693 -0.4320232
6.9012351 -3.4744432 0
6.8479915 -3.4476376 0.42824316
3.8150611 -1.9149268 -0.94563997
4.2657394 -2.1411397 -0.79571819
5.1828103 -2.6014531 -0.64636987
6.910315 -3.4685547 -0.43187818
6.8938007 -3.4602654 0
6.8498321 -3.4381959 0.42809814
3.8037429 -1.9034952 -0.94226372
4.270617 -2.1371315 -0.79614574
5.1975126 -2.6009753 -0.64781106
6.9145012 -3.4602025 -0.43187818
6.8886676 -3.4472744 0
6.8446865 -3.4252653 0.42751759
3.7946742 -1.8932271 -0.93944985
4.2663026 -2.1285305 -0.79486144
5.1983395 -2.5935395 -0.64752305
6.9163542 -3.450686 -0.43173319
6.8951545 -3.440109 0
6.8441749 -3.4146745 0.42722759
3.8037775 -1.8920321 -0.9411369
4.2734728 -2.1256628 -0.79571819
5.1875701 -2.5803428 -0.64579272
6.9158611 -3.4400098 -0.43144262
6.8923221 -3.4283013 0
6.8506198 -3.4075582 0.4273726
3.8106179 -1.8896946 -0.94226372
4.2737317 -2.1193538 -0.79528898
5.2069068 -2.5821176 -0.64781106
6.9153614 -3.4293442 -0.43115264
6.8964596 -3.4199708 0
6.8477464 -3.3958137 0.42693704
3.8197339 -1.8884681 -0.94395292
4.2739902 -2.1130517 -0.79486144
5.1961069 -2.5689442 -0.64608073
6.9101825 -3.4163795 -0.43057206
6.8959165 -3.4093263 0
6.8495173 -3.3863866 0.42679203
3.8220129 -1.8838514 -0.94395292
4.2719398 -2.1056182 -0.79400635
5.1992073 -2.5626638 -0.64608073
6.9166341 -3.4091749 -0.43071708
6.8953667 -3.3986926 0
6.8489385 -3.375808 0.42650148
3.8105993 -1.8725061 -0.94057453
4.2906017 -2.1083765 -0.79700089
5.1906953 -2.5506773 -0.64463955
6.9137497 -3.3973761 -0.43028152
6.8994684 -3.3903582 0
6.8460226 -3.3640954 0.42606649
3.8128324 -1.862178 -0.94001216
4.2864575 -2.0934954 -0.79528898
5.1712856 -2.5256433 -0.64146918
6.9102678 -3.3749578 -0.42955595
6.8819156 -3.3611107 0
6.8471255 -3.3441193 0.42563093
3.8173618 -1.8586807 -0.94057453
4.2982163 -2.0928097 -0.79700089
5.1720018 -2.5182574 -0.64118004
6.9096727 -3.3643327 -0.42926595
6.8766127 -3.3482356 0
6.8464932 -3.3335705 0.42534092
3.8150377 -1.8518499 -0.93944985
4.3122864 -2.0932183 -0.79914027
5.1750407 -2.5120063 -0.64118004
6.9160681 -3.3571148 -0.42941096
6.8806534 -3.3399241 0
6.8481717 -3.3241575 0.42519537
3.8195574 -1.8483446 -0.94001216
4.3171301 -2.0891278 -0.79956949
5.1827331 -2.5080068 -0.64175719
6.9131002 -3.3453591 -0.4289754
6.8753133 -3.3270733 0
6.8428278 -3.311353 0.42461482
3.8080614 -1.8371059 -0.93663597
4.3265805 -2.0872529 -0.80085218
5.1997328 -2.5084836 -0.64348638
6.9147992 -3.3358755 -0.42883042
6.8816791 -3.3198974 0
6.8491707 -3.3042145 0.42476037
3.8263006 -1.840209 -0.94057453
4.3290997 -2.0820234 -0.80085218
5.1981025 -2.499959 -0.64291036
6.9141459 -3.3252676 -0.42854041
6.8809905 -3.3093216 0
6.8414431 -3.290302 0.42403424
3.8239436 -1.8333894 -0.93944985
4.3223529 -2.0723519 -0.79914027
5.1894603 -2.4880862 -0.64146918
6.9158092 -3.3157842 -0.42839485
6.8826394 -3.299881 0
6.8477635 -3.2831597 0.42417979
3.8135934 -1.8255943 -0.93663597
4.3143516 -2.0653107 -0.7974301
5.1909623 -2.4849505 -0.64146918
6.9154696 -3.3104844 -0.42824984
6.8775873 -3.2923501 0
6.8380203 -3.2734089 0.42345369
3.8180876 -1.8220782 -0.93719828
4.3029389 -2.0534604 -0.79486144
5.1916203 -2.4775593 -0.64118004
6.9171219 -3.301008 -0.42810485
6.8745122 -3.2806735 0
6.8396277 -3.2640259 0.4233087
3.8202863 -1.8174635 -0.93719828
4.2891879 -2.0405388 -0.79186529
5.2086287 -2.4779537 -0.64291036
6.9164081 -3.2904129 -0.42781428
6.8878717 -3.2768369 0
6.8435669 -3.2557592 0.4233087
3.8041134 -1.8041357 -0.93269521
4.2823725 -2.0309546 -0.79015338
5.2162881 -2.4738727 -0.64348638
6.9156876 -3.2798285 -0.4275243
6.8800707 -3.2629368 0
6.8498411 -3.2486002 0.42345369
3.8223724 -1.8071411 -0.93663597
4.2662663 -2.0170052 -0.7867313
5.2146015 -2.4653592 -0.64291036
6.9149427 -3.2692466 -0.42723373
6.8769569 -3.2512875 0
6.8467207 -3.2369924 0.42301869
3.819952 -1.8003526 -0.93550909
4.2594118 -2.0074711 -0.78501946
5.2526646 -2.4755936 -0.6472339
6.9118433 -3.2575686 -0.42679873
6.8785195 -3.241863 0
6.8435736 -3.2253928 0.42258313
3.8175294 -1.7935767 -0.93438441
4.2687979 -2.0055947 -0.78630209
5.229908 -2.4571497 -0.64406353
6.9157743 -3.2492146 -0.42679873
6.8777251 -3.231338 0
6.8427668 -3.2149136 0.42229313
3.8242915 -1.791116 -0.93550909
4.2758722 -2.0026147 -0.78715885
5.2352133 -2.4519246 -0.64435154
6.9173355 -3.2397506 -0.42665318
6.8769064 -3.2208154 0
6.8419356 -3.2044368 0.42200258
3.826453 -1.7864938 -0.93550909
4.2968969 -2.0061347 -0.7905826
5.2381721 -2.4455969 -0.64435154
6.9141884 -3.2280953 -0.42621818
6.8737254 -3.209204 0
6.8434501 -3.1950691 0.42185757
3.8170929 -1.7765094 -0.93269521
4.3039684 -2.0031054 -0.79143769
5.2575402 -2.4469066 -0.64636987
6.9133677 -3.2175436 -0.42592761
6.8775983 -3.200896 0
6.8402362 -3.1835074 0.421422
3.8284564 -1.7761732 -0.93494678
4.3180265 -2.0033042 -0.79357713
5.2745662 -2.4470811 -0.64809906
6.9101858 -3.2059102 -0.42549261
6.8790932 -3.1914852 0
6.841723 -3.1741476 0.42127702
3.8213749 -1.7672797 -0.93269521
4.3227806 -1.999166 -0.79400635
5.2798643 -2.4417908 -0.64838707
6.918767 -3.1997375 -0.42578262
6.875865 -3.1798966 0
6.8502655 -3.1680577 0.42156702
3.8327374 -1.7669162 -0.93494678
4.322855 -1.9928635 -0.79357713
5.2687221 -2.4289141 -0.64665788
6.9108319 -3.1859372 -0.42505705
6.8797021 -3.171586 0
6.8446493 -3.1554267 0.42098644
3.8371761 -1.7633437 -0.93550909
4.3322597 -1.9908555 -0.79486144
5.2693052 -2.4214673 -0.64636987
6.9123173 -3.1765003 -0.42491207
6.8716989 -3.1578343 0
6.8390131 -3.1428139 0.42040589
3.8346884 -1.7565916 -0.93438441
4.3276587 -1.982411 -0.79357713
5.2651706 -2.4118659 -0.64550471
6.9067011 -3.1638172 -0.42433149
6.8849735 -3.1538644 0
6.8428054 -3.1345479 0.42040589
3.8252447 -1.7466768 -0.93156838
4.3277178 -1.9761152 -0.79314959
5.2539687 -2.3990583 -0.64377552
6.9081483 -3.154387 -0.42418593
6.8793101 -3.1412189 0
6.837142 -3.1219645 0.41982591
3.8204212 -1.7388986 -0.92988133
4.3254337 -1.9687597 -0.79229444
5.2615671 -2.3948491 -0.64435154
6.9048667 -3.1428113 -0.42375094
6.8783679 -3.1307502 0
6.8385377 -3.1126213 0.41968033
3.8340869 -1.7395293 -0.93269521
4.334816 -1.9667107 -0.79357713
5.2573886 -2.3852828 -0.64348638
6.908659 -3.1344659 -0.42375094
6.8797779 -3.1213624 0
6.8422937 -3.1043558 0.41968033
3.8374493 -1.7382599 -0.93325758
4.3266501 -1.9598546 -0.79186529
5.2611914 -2.3831763 -0.64377552
6.9010835 -3.1260028 -0.42317039
6.8745484 -3.1139829 0
6.8418031 -3.0991504 0.41953534
3.8349197 -1.7315327 -0.9321329
4.3313613 -1.9556847 -0.79229444
5.2687774 -2.3789442 -0.64435154
6.9024897 -3.1165936 -0.42302537
6.875936 -3.1046042 0
6.8431768 -3.089813 0.41939035
3.8277409 -1.7227263 -0.92988133
4.3454237 -1.9557164 -0.79443389
5.2645702 -2.3693907 -0.64348638
6.9062505 -3.1082511 -0.42302537
6.8796825 -3.0962937 0
6.8374271 -3.0772762 0.41880977
3.8321359 -1.7191391 -0.9304437
4.3477836 -1.9504644 -0.79443389
5.2650714 -2.3619699 -0.64319837
6.9005179 -3.0956497 -0.42244482
6.8762927 -3.0847821 0
6.8387723 -3.0679498 0.41866478
3.8272493 -1.7113948 -0.92875451
4.347796 -1.9441626 -0.79400635
5.2513909 -2.3482146 -0.64118004
6.9018745 -3.0862458 -0.42229927
6.8847713 -3.0785978 0
6.842474 -3.0596843 0.41866478
3.8269958 -1.7057356 -0.92819214
4.3477902 -1.9378597 -0.79357713
5.2778535 -2.3523993 -0.64406353
6.907979 -3.0789647 -0.42244482
6.8718443 -3.0628593 0
6.8390436 -3.0482397 0.41822922
3.8220859 -1.6980144 -0.92650294
4.3454413 -1.9305223 -0.79272205
5.2594209 -2.3365705 -0.64146918
6.9069405 -3.0685036 -0.42215428
6.8779163 -3.0556095 0
6.8355956 -3.0368078 0.41779366
3.8404 -1.7005975 -0.9304437
4.3548145 -1.9283894 -0.79400635
5.2787886 -2.3375416 -0.64348638
6.9130163 -3.0612068 -0.42229927
6.8768487 -3.045191 0
6.8368864 -3.0274951 0.41764867
3.8447745 -1.6969808 -0.93100601
4.3500938 -1.9200155 -0.79272205
5.267416 -2.3248971 -0.64175719
6.9048266 -3.0476065 -0.4215737
6.8757567 -3.0347757 0
6.8381648 -3.0181835 0.41750365
3.8351953 -1.687219 -0.92819214
4.3430119 -1.910623 -0.79101014
5.2725868 -2.3195713 -0.6420452
6.9132657 -3.0413558 -0.42186427
6.8746591 -3.0243716 0
6.8394213 -3.0088694 0.4173581
3.8162904 -1.6734014 -0.9231267
4.3523722 -1.9084675 -0.79229444
5.2777524 -2.3142364 -0.64233321
6.9050298 -3.0277798 -0.42113814
6.8759274 -3.0150185 0
6.8430519 -3.0006032 0.4173581
3.8113225 -1.6657352 -0.9214375
4.3476162 -1.900122 -0.79101014
5.2852893 -2.3099313 -0.64291036
6.9063048 -3.0183945 -0.42099315
6.8724089 -3.0035806 0
6.8395367 -2.9892137 0.41692311
0 -0 -0
4.3522601 -1.8958915 -0.79143769
5.2951927 -2.306643 -0.64377552
6.9123268 -3.0110841 -0.42113814
6.878417 -2.9963126 0
6.8359942 -2.977833 0.41648754
0 -0 -0
4.3569002 -1.8916527 -0.79186529
5.2908559 -2.297152 -0.64291036
6.913579 -3.0016959 -0.42099315
6.8772626 -2.9859283 0
6.8467402 -2.9726765 0.41692311
3.8033485 -1.6458559 -0.91806132
4.3568292 -1.8853683 -0.79143769
5.3007512 -2.2938399 -0.64377552
6.9100533 -2.990247 -0.42055815
6.8736978 -2.9745145 0
6.8407884 -2.9602735 0.41634256
3.8053346 -1.6412591 -0.91806132
4.366178 -1.8831536 -0.79272205
5.2987647 -2.2853827 -0.64319837
6.9112687 -2.9808633 -0.4204126
6.8820615 -2.9682662 0
6.8419766 -2.9509773 0.41619754
3.8026416 -1.6346511 -0.91693443
4.3613725 -1.8748341 -0.79143769
5.2896433 -2.2738721 -0.64175719
6.9100957 -2.9704599 -0.42012259
6.8784771 -2.9568682 0
6.8479223 -2.9437332 0.41634256
3.8092897 -1.6320583 -0.91806132
4.3659921 -1.8705728 -0.79186529
5.3018966 -2.2715533 -0.64291036
6.9136796 -2.9621081 -0.42012259
6.874866 -2.9454789 0
6.8443065 -2.9323859 0.415907
3.8089244 -1.6264575 -0.91749895
4.3753338 -1.8683213 -0.79314959
5.2998757 -2.2631121 -0.64233321
6.9124699 -2.9517095 -0.41983202
6.876029 -2.9361486 0
6.8454571 -2.9230943 0.41576201
3.8005569 -1.6201704 -0.91524744
4.3788209 -1.8666834 -0.79357713
5.2917247 -2.2558525 -0.64118004
6.9023023 -2.9424388 -0.41910648
6.8778014 -2.931994 0
6.8352728 -2.9138641 0.41503644
3.8071845 -1.6175622 -0.91637212
4.3952541 -1.8674159 -0.79614574
5.306356 -2.2545168 -0.64262235
6.9106402 -2.9361308 -0.41939703
6.8741512 -2.9206274 0
6.8005238 -2.8893452 0.41271421
3.799777 -1.6089977 -0.91412055
4.3975072 -1.8621037 -0.79614574
5.3066878 -2.247092 -0.64233321
6.9046121 -2.9237256 -0.41881648
6.8680892 -2.9082601 0
6.7968292 -2.8780854 0.41227865
3.8040571 -1.6053922 -0.91468292
4.3950191 -1.8547907 -0.79528898
5.2974868 -2.235651 -0.64089203
6.9081397 -2.9153805 -0.41881648
6.8715982 -2.8999591 0
6.7955184 -2.867852 0.41198865
3.8013144 -1.5988263 -0.91355824
4.4019942 -1.8514712 -0.79614574
5.3025661 -2.2302501 -0.64118004
6.9068623 -2.9050145 -0.4185259
6.8798904 -2.8936701 0
6.7941837 -2.8576221 0.41169807
3.8102758 -1.5971798 -0.91524744
4.3971233 -1.8431728 -0.79486144
5.3100324 -2.2258432 -0.64175719
6.9079733 -2.8956633 -0.41838092
6.8689857 -2.8793204 0
6.7952375 -2.848407 0.41155308
3.7957888 -1.5857176 -0.91130668
4.3851399 -1.8319231 -0.79229444
5.2960095 -2.2124453 -0.63973886
6.9066763 -2.8853128 -0.41809091
6.8484507 -2.8609884 0
6.7938838 -2.8381929 0.41126308
3.8047414 -1.5840607 -0.91299587
4.3897176 -1.8276088 -0.79272205
5.3034592 -2.2080348 -0.64031601
6.9053555 -2.8749659 -0.41780037
6.8374825 -2.8467078 0
6.7949023 -2.82898 0.41111752
3.8042991 -1.5784856 -0.91243136
4.3942919 -1.8232863 -0.79314959
5.3156791 -2.2055898 -0.64146918
6.9088244 -2.8666201 -0.41780037
6.8168836 -2.8284719 0
6.8055182 -2.8237562 0.41155308
3.8085585 -1.5748615 -0.91299587
4.3798833 -1.8111078 -0.79015338
5.3231163 -2.2011402 -0.6420452
6.907485 -2.856286 -0.41751036
6.8130789 -2.8172486 0
6.7969213 -2.8105671 0.41082752
3.8128054 -1.5712256 -0.91355824
4.4010563 -1.8136388 -0.79357713
5.3114281 -2.1887956 -0.64031601
6.9037218 -2.8449667 -0.4170748
6.8164783 -2.8090143 0
6.8027124 -2.8033416 0.41097254
3.8099959 -1.564685 -0.91243136
4.3795028 -1.7985694 -0.7892983
5.3140688 -2.1823761 -0.64031601
6.9047527 -2.8356366 -0.41692981
6.8270917 -2.8037429 0
6.782063 -2.7852504 0.4095214
3.8024774 -1.5562305 -0.91017985
4.3888025 -1.7961943 -0.7905826
5.3190937 -2.1769323 -0.64060402
6.8937407 -2.8213842 -0.41605869
6.8208404 -2.7915485 0
6.7854233 -2.7770536 0.4095214
3.813766 -1.5554732 -0.91243136
4.379087 -1.7860436 -0.78844315
5.3241129 -2.1714795 -0.64089203
6.8658686 -2.8002963 -0.41417202
6.8266158 -2.7842867 0
6.7911777 -2.7698331 0.40966642
3.8062272 -1.5470369 -0.91017985
4.3836179 -1.7817167 -0.78887075
5.3195419 -2.162122 -0.64002687
6.8475847 -2.7831933 -0.41286591
6.8227491 -2.7730992 0
6.7848907 -2.7577116 0.40908587
3.8128083 -1.5443463 -0.91130668
4.3881445 -1.7773814 -0.7892983
5.3221507 -2.1556928 -0.64002687
6.8413091 -2.7710154 -0.41228533
6.8260951 -2.764853 0
6.7858119 -2.7485368 0.40894085
3.8146715 -1.5397382 -0.91130668
4.3902888 -1.7720779 -0.7892983
5.3343453 -2.1531329 -0.64118004
6.8326068 -2.757885 -0.41155979
6.8197775 -2.7527068 0
6.7867208 -2.7393637 0.40879586
3.8165293 -1.5351278 -0.91130668
4.3995738 -1.7696466 -0.7905826
5.3345456 -2.1457217 -0.64089203
6.8359342 -2.7496271 -0.41155979
6.8255105 -2.7454345 0
6.7851996 -2.7292202 0.40850529
3.8151002 -1.5318758 -0.91074431
4.3982534 -1.766029 -0.79015338
5.3310452 -2.1405728 -0.64031601
6.8279486 -2.7416239 -0.41097921
6.8247552 -2.7403417 0
6.7820292 -2.7231858 0.40821528
3.8069832 -1.5179437 -0.90792829
4.3953614 -1.7525455 -0.78887075
5.3265924 -2.1238515 -0.63916284
6.8466201 -2.7299263 -0.41170478
6.8168488 -2.7180557 0
6.7934132 -2.7087111 0.40850529
3.8253462 -1.5199111 -0.91186905
4.4094019 -1.7519718 -0.79101014
5.3315563 -2.1183679 -0.63945085
6.837842 -2.716855 -0.41097921
6.820128 -2.7098169 0
6.7846093 -2.6957042 0.40777975
3.8177302 -1.5115463 -0.90961748
4.4067373 -1.7447507 -0.79015338
5.3220901 -2.1071644 -0.63800967
6.8435335 -2.7095466 -0.41112423
6.8258147 -2.7025311 0
6.7902751 -2.6884601 0.40792474
3.814831 -1.505069 -0.9084928
4.4136229 -1.7413108 -0.79101014
5.3174119 -2.0978837 -0.63714451
6.8443875 -2.7003229 -0.41097921
6.8169727 -2.6895068 0
6.7862649 -2.6773915 0.40748918
3.8237343 -1.5032446 -0.91017985
4.4133368 -1.7350383 -0.7905826
5.3271666 -2.0942969 -0.63800967
6.8452296 -2.6911008 -0.41083422
6.8202176 -2.681268 0
6.789495 -2.6691897 0.40748918
3.8255479 -1.4986234 -0.91017985
4.408257 -1.7268944 -0.7892983
5.324872 -2.0859699 -0.63743252
6.8363719 -2.678086 -0.41010812
6.8186107 -2.6711283 0
6.790298 -2.6600373 0.40734419
3.8226264 -1.4921538 -0.90905511
4.4270825 -1.7281017 -0.79229444
5.3177509 -2.0757723 -0.63627934
6.8420305 -2.6707714 -0.41025367
6.8194022 -2.6619384 0
6.7935076 -2.6518304 0.40734419
3.8220608 -1.4866135 -0.9084928
4.4148078 -1.7171661 -0.78972584
5.2985625 -2.0609078 -0.63368499
6.842824 -2.6615574 -0.41010812
6.8201904 -2.6527541 0
6.7870197 -2.639852 0.40676361
3.8191113 -1.4801561 -0.90736592
4.4168792 -1.7118304 -0.78972584
5.2962303 -2.0526364 -0.63310897
6.846035 -2.6532874 -0.41010812
6.8209662 -2.6435716 0
6.7877841 -2.6307113 0.40661862
3.8185291 -1.4746258 -0.90680361
4.4213371 -1.7074161 -0.79015338
5.2721634 -2.035985 -0.62993747
6.8443923 -2.6431429 -0.40981811
6.8193049 -2.6334546 0
6.7861147 -2.6206374 0.40632862
3.8250463 -1.4718341 -0.90792829
4.4233971 -1.7020725 -0.79015338
5.2553077 -2.0221822 -0.62763113
6.8403034 -2.6320705 -0.40938255
6.8200459 -2.6242757 0
6.7941217 -2.6143003 0.40661862
3.8292012 -1.4681234 -0.9084928
4.4086785 -1.6902962 -0.78715885
5.2746553 -2.0223134 -0.62964946
6.8434792 -2.6238034 -0.40938255
6.8183565 -2.6141715 0
6.7875705 -2.6023681 0.40603808
3.8214781 -1.4598684 -0.90624124
4.4251013 -1.6904627 -0.78972584
5.2722578 -2.0140905 -0.62907231
6.8466444 -2.6155324 -0.40938255
6.8190813 -2.6050031 0
6.79071 -2.5941646 0.40603808
3.8327379 -1.4588654 -0.9084928
4.4199505 -1.6823776 -0.78844315
5.265028 -2.0040417 -0.62792027
6.8400855 -2.6035604 -0.408802
6.8197846 -2.5958331 0
6.7889876 -2.5841107 0.40574807
3.8273683 -1.4515294 -0.90680361
4.4099717 -1.6724817 -0.78630209
5.2626042 -1.9958425 -0.62734312
6.8407993 -2.594373 -0.40865698
6.8204851 -2.586669 0
6.7921047 -2.5759056 0.40574807
3.8243701 -1.4451091 -0.90567893
4.4215946 -1.6707814 -0.78801399
5.2698555 -1.9913124 -0.62792027
6.8463573 -2.587023 -0.408802
6.8162999 -2.5756652 0
6.7879181 -2.5649405 0.40531251
3.8308649 -1.4422759 -0.90680361
4.4188099 -1.6636304 -0.78715885
5.2819309 -1.9885852 -0.62907231
6.8446193 -2.5769193 -0.408512
6.8169742 -2.5665109 0
6.7885828 -2.5558221 0.40516752
3.8341117 -1.4408542 -0.90736592
4.4198141 -1.6609604 -0.78715885
5.2879782 -1.9872153 -0.62964946
6.8340158 -2.5682139 -0.40778643
6.8087788 -2.5587301 0
6.7901254 -2.5517201 0.40516752
3.8310955 -1.4344401 -0.90624124
4.4098001 -1.6511189 -0.78501946
5.2903757 -1.9808244 -0.62964946
6.8371139 -2.5599546 -0.40778643
6.8143005 -2.5514128 0
6.7859011 -2.5407796 0.40473196
3.8375826 -1.4315844 -0.90736592
4.4093795 -1.6448895 -0.78459024
5.2976074 -1.9762368 -0.63022548
6.8499403 -2.5553243 -0.40836698
6.8125062 -2.5413597 0
6.7865338 -2.5316708 0.40458694
3.8393097 -1.4269464 -0.90736592
4.4137774 -1.6404573 -0.78501946
5.2975693 -1.9689339 -0.62993747
6.8432803 -2.5434246 -0.40778643
6.8155718 -2.5331261 0
6.7871456 -2.5225611 0.40444139
3.8386505 -1.4214249 -0.90680361
4.4205661 -1.636904 -0.78587455
5.3242044 -1.9715148 -0.63282096
6.8439045 -2.5342491 -0.40764087
6.8113036 -2.522177 0
6.7877541 -2.5134568 0.4042964
3.8403652 -1.4167855 -0.90680361
4.4273624 -1.6333401 -0.7867313
5.3411374 -1.9704497 -0.63455015
6.8615937 -2.5313756 -0.408512
6.8143463 -2.5139451 0
6.7859149 -2.5034564 0.40400639
3.8396916 -1.4112685 -0.90624124
4.4317398 -1.6288741 -0.78715885
5.3459401 -1.964886 -0.63483816
6.867084 -2.5239782 -0.40865698
6.8124981 -2.5039155 0
6.786489 -2.4943559 0.40386084
3.8390105 -1.405755 -0.90567893
4.4337049 -1.623518 -0.78715885
5.3483105 -1.958425 -0.63483816
6.8798885 -2.5192528 -0.40923753
6.8033018 -2.4912086 0
6.7846227 -2.4843688 0.40357083
3.8454757 -1.4028553 -0.90680361
4.4380722 -1.6190385 -0.78758639
5.3482451 -1.9510757 -0.63455015
6.8902531 -2.5136104 -0.40967309
6.8014126 -2.4812009 0
6.785181 -2.4752793 0.40342584
3.8495536 -1.3990748 -0.90736592
4.4376149 -1.6127988 -0.78715885
5.3457322 -1.9428432 -0.633973
6.9030542 -2.5088334 -0.41025367
6.8093023 -2.4747605 0
6.7979355 -2.4706292 0.40400639
3.8536282 -1.3952866 -0.90792829
4.4274945 -1.6030667 -0.78501946
5.3383574 -1.9328637 -0.63282096
6.9011893 -2.4987197 -0.4099631
6.8098335 -2.4656425 0
6.7911429 -2.4588749 0.40342584
3.8529234 -1.3897679 -0.90736592
4.4414997 -1.6020701 -0.78715885
5.347981 -1.9290422 -0.63368499
6.8968778 -2.4877367 -0.40952811
6.812808 -2.4574122 0
6.7892156 -2.4489024 0.40313527
3.852211 -1.3842529 -0.90680361
4.4410186 -1.595835 -0.7867313
5.3551807 -1.9243299 -0.63426214
6.8998785 -2.4794014 -0.40952811
6.8182287 -2.4500611 0
6.7848406 -2.4380636 0.40270028
3.8491008 -1.3778862 -0.90567893
4.4453583 -1.5913321 -0.78715885
5.3550601 -1.9169835 -0.633973
6.8979716 -2.4693091 -0.40923753
6.8113828 -2.4383123 0
6.7828841 -2.4281104 0.40240973
3.8507631 -1.3732343 -0.90567893
4.4351907 -1.5816491 -0.78501946
5.3719945 -1.9157259 -0.63570333
6.9033957 -2.4618444 -0.40938255
6.8167734 -2.4309537 0
6.7882581 -2.420785 0.40255472
3.8548114 -1.3694302 -0.90624124
4.3911357 -1.5599605 -0.77688766
5.3816195 -1.911832 -0.63656849
6.9039192 -2.4526322 -0.40923753
6.8368745 -2.4288144 0
6.7936339 -2.4134531 0.40270028
3.8564634 -1.3647714 -0.90624124
4.2115245 -1.4904246 -0.74479133
5.4107399 -1.9148172 -0.63973886
6.8995266 -2.4416869 -0.408802
6.8520689 -2.4248919 0
6.7842903 -2.4009056 0.40197417
3.8557155 -1.3592666 -0.90567893
4.1261744 -1.4546123 -0.72938615
5.4130497 -1.908278 -0.63973886
6.9024715 -2.4333484 -0.408802
6.86235 -2.4192042 0
6.7749357 -2.3883877 0.4012486
3.8501608 -1.3520802 -0.90398973
4.0819077 -1.4334639 -0.72125435
5.4129133 -1.9008799 -0.63945085
6.9005084 -2.423286 -0.408512
6.8677306 -2.4117754 0
6.7851739 -2.3827834 0.40168417
3.8533726 -1.3505936 -0.90455204
4.0755119 -1.4284527 -0.71997172
4.0179434 -1.4082751 -0.47455645
6.9019709 -2.4191165 -0.408512
6.8667235 -2.4067624 0
6.7939711 -2.381263 0.40211973
3.8693902 -1.3509601 -0.90792829
4.0820775 -1.4252179 -0.7208268
4.0294099 -1.4068295 -0.47570962
6.8975267 -2.4082048 -0.40807644
6.8671718 -2.3976066 0
6.7992945 -2.3739078 0.40226471
3.863827 -1.3437823 -0.90624124
4.0765204 -1.4177539 -0.7195425
4.0384288 -1.4045061 -0.47657368
6.9004316 -2.3998687 -0.40807644
6.8774405 -2.3918726 0
6.7972445 -2.3639817 0.40197417
3.858243 -1.3366165 -0.90455204
4.0806632 -1.4136699 -0.71997172
4.040123 -1.3996254 -0.47657368
6.9057794 -2.3923788 -0.40822142
6.8631096 -2.3775966 0
6.7976432 -2.354917 0.40182915
3.8646636 -1.3336129 -0.90567893
4.0799351 -1.4078984 -0.7195425
4.0393686 -1.3938998 -0.47628567
4.0275621 -1.3898257 -0.23798189
6.858604 -2.3667579 0
6.8029375 -2.3475485 0.40197417
3.8590612 -1.3264636 -0.90398973
4.0792079 -1.4021339 -0.71911496
4.0434933 -1.389858 -0.47657368
4.0243287 -1.3832705 -0.23769189
6.8589902 -2.3576205 0
6.8155985 -2.3427055 0.40255472
3.853447 -1.3193299 -0.90230054
4.0784726 -1.3963733 -0.71868736
4.0451698 -1.3849711 -0.47657368
4.035821 -1.3817704 -0.23827189
4.0329347 -1.3807822 0
6.8282576 -2.3378351 0.40313527
3.8670607 -1.3187727 -0.90511441
4.0850115 -1.3930998 -0.7195425
4.0395031 -1.3775803 -0.47570962
4.0251932 -1.3727001 -0.23754634
4.0075026 -1.3666672 0
6.8360009 -2.3312619 0.40342584
3.8710642 -1.3149186 -0.90567893
4.0794067 -1.3856883 -0.71825981
4.0387087 -1.371864 -0.4754205
4.0293164 -1.3686736 -0.23769189
4.0042181 -1.3601482 0
6.8363547 -2.3221653 0.40328082
3.8630226 -1.306983 -0.90342736
4.073781 -1.3782892 -0.71697551
4.0452681 -1.3686424 -0.47599763
4.0284986 -1.3629688 -0.23754634
4.0083308 -1.3561454 0
4.0037761 -1.3546044 0.23608853
3.857373 -1.2998793 -0.90173817
4.0803132 -1.3750069 -0.71783227
4.0395637 -1.3612748 -0.4751325
4.0227628 -1.3556132 -0.23711133
4.0099664 -1.3513011 0
3.9832509 -1.3422983 0.23478241
3.8589408 -1.2952175 -0.90173817
4.0795312 -1.3692565 -0.71740305
4.0412054 -1.3563929 -0.4751325
4.0317807 -1.3532295 -0.23754634
4.0165262 -1.3481095 0
3.9971843 -1.3416176 0.23550797
3.8653181 -1.2921634 -0.90286285
4.0836244 -1.3651423 -0.71783227
4.0502028 -1.3539697 -0.47599763
4.0260267 -1.3458878 -0.23711133
4.015686 -1.3424309 0
4.0061979 -1.339259 0.23594353
3.8668766 -1.2874919 -0.90286285
4.0779614 -1.3577735 -0.71654797
4.0395679 -1.3449903 -0.47455645
4.0251775 -1.3401989 -0.23696578
4.012362 -1.3359319 0
3.9757657 -1.323747 0.23405685
3.8756671 -1.2852187 -0.90455204
4.0820336 -1.3536524 -0.71697551
4.0411901 -1.3401083 -0.47455645
4.0243301 -1.3345172 -0.23682077
4.0139732 -1.3310828 0
3.9551673 -1.311582 0.23275073
3.8723965 -1.2789426 -0.90342736
4.0861015 -1.3495233 -0.71740305
4.0452604 -1.3360347 -0.47484446
4.0259395 -1.3296536 -0.23682077
4.0057034 -1.3229702 0
3.9715486 -1.3116897 0.2336213
3.869107 -1.2726732 -0.90230054
4.0755386 -1.3405752 -0.71526366
4.0444169 -1.3303384 -0.47455645
4.0201359 -1.3223516 -0.23638521
4.009769 -1.3189415 0
3.9928775 -1.3133854 0.23478241
3.8754759 -1.2695808 -0.90342736
4.0771556 -1.3356498 -0.71526366
4.041101 -1.3238386 -0.47397932
4.0266743 -1.3191124 -0.23667577
3.9989963 -1.3100454 0
3.9672966 -1.2996607 0.23318574
3.8714073 -1.2656586 -0.90230054
4.0852838 -1.3355801 -0.71654797
4.0419002 -1.3213968 -0.47397932
4.0274706 -1.3166795 -0.23667577
4.0146241 -1.3124797 0
3.9656136 -1.2964569 0.23304074
3.8753474 -1.2617657 -0.90286285
4.0746922 -1.3266699 -0.71440852
4.0410366 -1.3157121 -0.47369131
4.031527 -1.3126158 -0.23682077
4.008781 -1.30521 0
3.9721234 -1.2932748 0.23333129
3.8792932 -1.2578682 -0.90342736
4.078732 -1.3225366 -0.71483606
4.0450816 -1.3116254 -0.47397932
4.0256925 -1.3053384 -0.23638521
4.0128379 -1.3011702 0
3.978622 -1.2900758 0.2336213
3.8759696 -1.2516167 -0.90230054
4.0827675 -1.3183954 -0.71526366
4.036818 -1.3035574 -0.47282615
4.0173755 -1.2972792 -0.23580466
4.009449 -1.2947196 0
3.9777076 -1.2844697 0.2334763
3.8774791 -1.2469325 -0.90230054
4.0892501 -1.3150344 -0.71612042
4.0506992 -1.3026372 -0.47426733
4.0189404 -1.292424 -0.23580466
4.0035758 -1.287483 0
3.9792566 -1.2796625 0.2334763
3.8765655 -1.2414722 -0.90173817
4.1079421 -1.3155707 -0.71911496
4.0399566 -1.2937982 -0.47282615
4.0254531 -1.2891535 -0.23609522
4.0076141 -1.2834406 0
3.9832723 -1.2756451 0.2336213
3.8780627 -1.2367872 -0.90173817
4.1290946 -1.316846 -0.72253865
4.0513735 -1.2920593 -0.47397932
4.0344367 -1.2866579 -0.23653078
4.024034 -1.2833402 0
3.9749084 -1.2676731 0.23304074
3.8868217 -1.2344085 -0.90342736
4.1380248 -1.3141876 -0.72382301
4.0480061 -1.2855988 -0.47340328
4.0310307 -1.2802075 -0.23624022
4.0082164 -1.272962 0
3.981395 -1.2644439 0.23333129
3.8761904 -1.225878 -0.90061134
4.1640811 -1.3169259 -0.72810185
4.0569477 -1.2830441 -0.47426733
4.0300994 -1.2745532 -0.23609522
4.0097513 -1.2681179 0
3.9878702 -1.2611977 0.2336213
3.8912709 -1.220311 -0.90342736
4.1623569 -1.3053242 -0.7272467
4.0773149 -1.2786548 -0.47628567
4.0455623 -1.2686973 -0.23682077
4.0152946 -1.2592052 0
3.9884293 -1.2507801 0.2334763
3.89031 -1.2148488 -0.90286285
4.1663795 -1.3010584 -0.72767431
4.0936751 -1.2783546 -0.47801596
4.0495706 -1.2645818 -0.23696578
4.0093584 -1.2520245 0
3.9948938 -1.2475076 0.23376629
3.8917751 -1.2101471 -0.90286285
4.1532454 -1.2914512 -0.72510731
4.1124983 -1.2787811 -0.48003319
4.0610204 -1.262774 -0.23754634
4.0232916 -1.2510421 0
3.9864731 -1.2395935 0.23318574
3.8908098 -1.204693 -0.90230054
4.1572523 -1.2871904 -0.72553486
4.1189866 -1.2753423 -0.48061031
4.0749521 -1.2617081 -0.23827189
4.0123725 -1.2423319 0
3.9854882 -1.2340078 0.23304074
3.8898368 -1.1992429 -0.90173817
4.151443 -1.2798966 -0.72425056
4.1328807 -1.2741739 -0.48205149
4.0988288 -1.2636756 -0.23957856
4.0138707 -1.2374828 0
3.9820149 -1.2276616 0.23275073
3.8937097 -1.195287 -0.90230054
4.1578994 -1.2763876 -0.72510731
4.1443076 -1.2722152 -0.48320466
4.1003528 -1.2587219 -0.23957856
4.0377517 -1.2395048 0
4.0033679 -1.2289497 0.23391186
3.8975787 -1.1913233 -0.90286285
4.161891 -1.2721124 -0.72553486
4.1532555 -1.2694727 -0.48406872
4.1217408 -1.25984 -0.24073912
4.0467153 -1.236908 0
4.0048499 -1.2241114 0.23391186
3.8990152 -1.186613 -0.90286285
4.1806092 -1.2723123 -0.72852939
4.1275749 -1.2561719 -0.48089832
4.1207767 -1.2541031 -0.24059412
4.058166 -1.2350483 0
4.0212364 -1.2238092 0.23478241
3.902885 -1.1826398 -0.90342736
4.1747804 -1.2650287 -0.7272467
4.1414638 -1.2549332 -0.48233953
4.1173201 -1.2476174 -0.24030413
4.0671201 -1.2324059 0
4.0301747 -1.2212108 0.23521797
3.897011 -1.1757207 -0.90173817
4.2008777 -1.2673967 -0.7315256
4.1281247 -1.2454472 -0.48061031
4.1063886 -1.2388895 -0.23957856
4.0835605 -1.2320024 0
4.0490541 -1.2215918 0.23623353
3.8977206 -1.1733661 -0.90173817
4.2286839 -1.272999 -0.73623365
4.1288762 -1.2429529 -0.48061031
4.1121078 -1.237905 -0.23986857
4.0743361 -1.2265342 0
4.0647254 -1.223641 0.23710464
3.8991356 -1.1686556 -0.90173817
4.3457847 -1.3025261 -0.75634688
4.1353254 -1.2394469 -0.48118636
4.1061311 -1.2306966 -0.23943301
4.0758152 -1.2216103 0
4.0711741 -1.2202194 0.23739465
3.9005446 -1.1639434 -0.90173817
4.470345 -1.3339748 -0.77774441
4.1318679 -1.2329714 -0.48061031
4.1101122 -1.2264794 -0.23957856
4.0872636 -1.2196612 0
4.0577106 -1.2108425 0.23652409
3.911691 -1.1621239 -0.90398973
4.5014734 -1.3373424 -0.78287834
4.1383085 -1.2294497 -0.48118636
4.1140795 -1.2222515 -0.23972356
4.1061902 -1.2199076 0
4.0616593 -1.206678 0.23666908
3.9130924 -1.1573966 -0.90398973
4.522779 -1.337727 -0.78630209
4.1596332 -1.2303174 -0.4834927
4.1230311 -1.2194912 -0.24015912
4.0951853 -1.2112553 0
4.0481687 -1.1973488 0.23579852
3.9023032 -1.1490796 -0.90117586
4.5243921 -1.3322611 -0.78630209
5.5306454 -1.6285644 -0.64262235
4.1294818 -1.215975 -0.24044913
4.0966458 -1.2063061 0
4.0545931 -1.1939231 0.23608853
3.9109967 -1.1465058 -0.90286285
4.5161452 -1.3239048 -0.78459024
5.5251608 -1.619697 -0.64175719
6.886137 -2.018666 -0.40081975
4.100605 -1.2020894 0
4.0510502 -1.1875625 0.23579852
3.924582 -1.1453406 -0.90567893
4.5251365 -1.320605 -0.78587455
5.5147018 -1.6093974 -0.64031601
6.906034 -2.0154405 -0.40183586
4.1045504 -1.1978623 0
4.0499806 -1.1819367 0.23565297
3.9113183 -1.136343 -0.90230054
4.5193315 -1.3129871 -0.78459024
5.5141516 -1.6020091 -0.64002687
0 -0 -0
4.1009917 -1.1914482 0
4.0514059 -1.1770422 0.23565297
3.9126885 -1.1316161 -0.90230054
4.5209146 -1.3075254 -0.78459024
5.5136008 -1.5946273 -0.63973886
6.8884215 -1.9922488 -0.40052974
4.1149263 -1.1901067 0
4.0503316 -1.1714247 0.23550797
3.9116135 -1.1261852 -0.90173817
4.5175619 -1.3006427 -0.7837351
5.5229826 -1.5901114 -0.64060402
6.8983173 -1.9860815 -0.4009653
6.8922338 -1.9843299 0
4.0592375 -1.1686873 0.23594353
3.9203014 -1.1235588 -0.90342736
4.5191302 -1.2951832 -0.7837351
5.5174384 -1.5812984 -0.63973886
6.8882155 -1.9741632 -0.40023917
0 -0 0
4.0931168 -1.1730876 0.23783021
3.9192057 -1.118122 -0.90286285
4.5231581 -1.2904253 -0.7841627
5.5218296 -1.5753393 -0.64002687
6.885603 -1.9644144 -0.39994919
0 -0 0
6.8305202 -1.9486996 0.39674971
3.918112 -1.1126921 -0.90230054
4.5271811 -1.2856597 -0.78459024
5.5237293 -1.5686661 -0.64002687
6.8829675 -1.9546719 -0.39965862
6.8668385 -1.9500914 0
6.8403711 -1.942575 0.39718527
3.9218965 -1.1086475 -0.90286285
4.5336766 -1.2815864 -0.785447
5.5256205 -1.5619906 -0.64002687
6.87783 -1.9442353 -0.39922363
6.8691897 -1.9417927 0
0 -0 0
3.9207895 -1.1032202 -0.90230054
4.5426378 -1.2781941 -0.7867313
5.5225291 -1.5539131 -0.63945085
6.8826733 -1.9366264 -0.39936861
6.8765364 -1.9348997 0
6.8675551 -1.9323725 0.39849138
3.9196754 -1.0977974 -0.90173817
4.549118 -1.2740875 -0.78758639
5.5169282 -1.5451458 -0.63858569
6.8825088 -1.9276086 -0.39922363
6.8638377 -1.9223794 0
6.8573766 -1.9205697 0.39776582
3.9258893 -1.0944237 -0.90286285
4.5457134 -1.2672125 -0.7867313
5.526268 -1.5405627 -0.63945085
6.8873334 -1.9199882 -0.39936861
6.8661556 -1.9140844 0
6.8571815 -1.9115827 0.39762026
3.9314506 -1.0934147 -0.90398973
4.5514197 -1.2658404 -0.78758639
5.5271978 -1.5372238 -0.63945085
6.8859911 -1.9151312 -0.39922363
6.8623009 -1.9085425 0
6.8508325 -1.9053528 0.39718527
3.9229736 -1.0859519 -0.90173817
4.5504742 -1.2596558 -0.78715885
5.5365319 -1.5326149 -0.64031601
6.880785 -1.904729 -0.39878806
6.8620868 -1.8995531 0
6.8556314 -1.8977661 0.39733025
3.9316342 -1.0832365 -0.90342736
4.5519929 -1.2541565 -0.78715885
5.5259047 -1.5224868 -0.6388737
6.8880963 -1.8977953 -0.39907861
6.8719063 -1.8933346 0
6.8428841 -1.8853385 0.39645913
3.9304826 -1.0778111 -0.90286285
4.5411291 -1.2452617 -0.78501946
5.5277405 -1.5158088 -0.6388737
6.8778477 -1.8860332 -0.3983525
6.8616424 -1.8815894 0
6.8426538 -1.8763824 0.39631414
3.9342403 -1.073732 -0.90342736
4.5500526 -1.2417994 -0.78630209
5.5245824 -1.5077678 -0.63829768
6.8801212 -1.8777212 -0.3983525
6.8639107 -1.8732971 0
6.8449159 -1.8681129 0.39631414
3.935535 -1.0689775 -0.90342736
4.5416408 -1.2336091 -0.78459024
5.5164161 -1.4983793 -0.63714451
6.8823853 -1.8694066 -0.3983525
6.8686786 -1.8656836 0
6.839643 -1.8577968 0.39587858
3.9319134 -1.062894 -0.90230054
4.543128 -1.2281204 -0.78459024
5.5107293 -1.4896872 -0.63627934
6.882133 -1.8604118 -0.39820752
6.8684177 -1.8567042 0
6.8418827 -1.8495311 0.39587858
3.9356461 -1.0588018 -0.90286285
4.5470943 -1.2232989 -0.78501946
5.5175257 -1.4843727 -0.6368565
6.8893991 -1.8534461 -0.39849806
6.8631144 -1.8463748 0
6.8365922 -1.8392395 0.39544359
3.9418361 -1.055361 -0.90398973
4.5485692 -1.2178037 -0.78501946
5.516819 -1.4770365 -0.63656849
6.8866086 -1.8437749 -0.39820752
6.8628287 -1.8374082 0
6.8312769 -1.8289608 0.39500803
3.9332874 -1.0479807 -0.90173817
4.5500374 -1.2123069 -0.78501946
5.5160933 -1.4697015 -0.63627934
6.8913403 -1.8361208 -0.3983525
6.8625317 -1.8284451 0
6.8234386 -1.8180292 0.39442748
3.944375 -1.045832 -0.90398973
4.5514989 -1.2068081 -0.78501946
5.5178647 -1.4630353 -0.63627934
6.888535 -1.826462 -0.3980625
6.867249 -1.8208181 0
6.8231211 -1.8091177 0.39428246
3.9431813 -1.0404177 -0.90342736
4.5504646 -1.2006508 -0.78459024
5.5146317 -1.4550486 -0.63570333
6.8857074 -1.8168101 -0.39777195
6.86693 -1.8118557 0
6.820272 -1.7995449 0.39399192
3.9493461 -1.0369416 -0.90455204
4.5444703 -1.1931977 -0.78330755
5.5313911 -1.4523239 -0.63743252
6.8904181 -1.8091506 -0.39791751
6.8691144 -1.803557 0
6.8274727 -1.7926236 0.39428246
3.9481401 -1.0315272 -0.90398973
4.5608063 -1.1915979 -0.78587455
5.5256419 -1.4436797 -0.63656849
6.8875661 -1.7995086 -0.39762694
6.8662481 -1.7939388 0
6.8220892 -1.7824014 0.3938469
3.9370902 -1.0235599 -0.90117586
4.5647249 -1.1867316 -0.78630209
5.539896 -1.4402554 -0.63800967
6.8771634 -1.7879165 -0.3969014
6.8608518 -1.7836758 0
6.8267503 -1.7748102 0.39399192
3.9432392 -1.0200734 -0.90230054
4.5661554 -1.1812152 -0.78630209
5.5441341 -1.4342076 -0.63829768
6.8843451 -1.7809058 -0.39719138
6.870563 -1.7773405 0
6.8163142 -1.7633069 0.39326635
3.944469 -1.015308 -0.90230054
4.5576353 -1.1731373 -0.78459024
5.5508676 -1.4287958 -0.6388737
6.881464 -1.7712919 -0.3969014
6.8651423 -1.7670907 0
6.8108978 -1.7531282 0.39283136
3.9432337 -1.0099114 -0.90173817
4.5665121 -1.1695408 -0.78587455
5.5601091 -1.4240134 -0.63973886
6.8911533 -1.7649103 -0.39733696
6.8672724 -1.7587942 0
6.8205557 -1.7468294 0.39326635
3.9518402 -1.0070289 -0.90342736
4.5629516 -1.1627556 -0.78501946
5.5518003 -1.4147393 -0.63858569
6.8882399 -1.7552979 -0.39704639
6.8668733 -1.7498531 0
6.8176303 -1.7373048 0.39297634
3.9524479 -1.0046412 -0.90342736
4.5686245 -1.1612623 -0.78587455
5.5551586 -1.4120214 -0.6388737
6.8892994 -1.7511361 -0.39704639
6.8628893 -1.7444232 0
6.811121 -1.7312646 0.39254078
3.9585807 -1.0011095 -0.90455204
4.5650516 -1.1544836 -0.78501946
5.5593753 -1.4059441 -0.63916284
6.8838506 -1.7408986 -0.39661083
6.8675127 -1.7367668 0
6.8157248 -1.7236699 0.3926858
3.9523928 -0.99446499 -0.90286285
4.5639467 -1.1483386 -0.78459024
5.5585546 -1.3985927 -0.6388737
6.8909936 -1.7338488 -0.3969014
6.867085 -1.7278332 0
6.8077226 -1.7128969 0.39210522
3.9511292 -0.98907214 -0.90230054
4.5603552 -1.1415775 -0.7837351
5.5602403 -1.3918753 -0.6388737
6.8905654 -1.7248907 -0.39675638
6.8742118 -1.7207971 0
6.8148336 -1.7059331 0.39239579
3.9572573 -0.9855265 -0.90342736
4.5692067 -1.1379281 -0.78501946
5.5569034 -1.3839068 -0.63829768
6.8926444 -1.7165636 -0.39675638
6.8712401 -1.711233 0
6.8017564 -1.6939286 0.39152467
3.9658372 -0.98257565 -0.90511441
4.5680795 -1.1317872 -0.78459024
5.553555 -1.3759485 -0.63772166
6.884625 -1.7057344 -0.39617583
6.8707695 -1.7023015 0
6.8088474 -1.6869597 0.39181525
3.9719603 -0.97900027 -0.90624124
4.5719433 -1.1268828 -0.78501946
5.5577226 -1.3698555 -0.63800967
6.8816299 -1.6961695 -0.39588529
6.8677726 -1.6927539 0
6.8184524 -1.6805975 0.39225081
3.9682 -0.9729889 -0.90511441
4.5683103 -1.1201339 -0.7841627
5.5669026 -1.3649852 -0.6388737
6.8862057 -1.6884737 -0.39603084
6.869813 -1.6844543 0
6.8103833 -1.6698823 0.39167023
3.9767807 -0.97000033 -0.90680361
4.5671687 -1.1140053 -0.7837351
5.5635271 -1.357033 -0.63829768
6.8882408 -1.6801518 -0.39603084
6.8667912 -1.67492 0
6.812396 -1.6616521 0.39167023
3.9779499 -0.96519446 -0.90680361
4.5734959 -1.1096954 -0.78459024
5.5500865 -1.3466516 -0.63656849
6.8877335 -1.671213 -0.39588529
6.8713369 -1.6672347 0
6.8169217 -1.6540315 0.39181525
3.9692333 -0.95800257 -0.90455204
4.5748334 -1.1041685 -0.78459024
5.5592451 -1.3417631 -0.63743252
6.8922806 -1.6635008 -0.39603084
6.8733463 -1.6589308 0
6.8037548 -1.6421343 0.39094412
3.9852073 -0.95676368 -0.90792829
4.5761642 -1.0986398 -0.78459024
5.5608621 -1.3350449 -0.63743252
6.8841791 -1.6527451 -0.39545026
6.8677516 -1.6488012 0
6.8082681 -1.6345205 0.39108968
3.9937773 -0.95371872 -0.90961748
4.5799928 -1.0937077 -0.78501946
5.5624714 -1.3283247 -0.63743252
6.8861713 -1.6444257 -0.39545026
6.8697386 -1.6405017 0
6.8127627 -1.6268958 0.39123467
3.9850383 -0.94654357 -0.90736592
4.5763106 -1.0869852 -0.7841627
5.5590444 -1.3204082 -0.6368565
6.8881531 -1.636104 -0.39545026
6.8641171 -1.6303949 0
6.807137 -1.6168607 0.39079911
3.9861789 -0.9417277 -0.90736592
4.5826225 -1.0826364 -0.78501946
5.5656652 -1.3148785 -0.63743252
6.8926516 -1.6283767 -0.39559528
6.873683 -1.6238955 0
6.8141479 -1.6098304 0.39108968
3.987314 -0.93691051 -0.90736592
4.5764279 -1.0753362 -0.7837351
5.5697751 -1.3087459 -0.63772166
6.887023 -1.6182634 -0.39515972
6.8731093 -1.614994 0
6.8059702 -1.5992181 0.39050913
3.9895666 -0.92727202 -0.90736592
4.5790129 -1.0642737 -0.7837351
5.5603175 -1.2923527 -0.63627934
6.8934422 -1.6022031 -0.39530471
6.8693848 -1.5966116 0
6.8199387 -1.5851192 0.39108968
3.9931571 -0.92302239 -0.90792829
4.5927987 -1.0616302 -0.78587455
5.5744824 -1.2885474 -0.63772166
6.8827167 -1.5909472 -0.39457917
6.8611665 -1.5859656 0
6.8117223 -1.5745367 0.39050913
3.9917958 -0.91762811 -0.90736592
4.5890794 -1.0549308 -0.78501946
5.5709891 -1.2806507 -0.63714451
6.8871641 -1.5832111 -0.39472416
6.8757567 -1.5805888 0
6.8136201 -1.5663049 0.39050913
3.9997816 -0.91692007 -0.90905511
4.5847068 -1.0510098 -0.7841627
5.569243 -1.2767074 -0.6368565
6.8855891 -1.5784699 -0.39457917
6.8716421 -1.5752727 0
6.8120346 -1.5616081 0.39036411
3.9885023 -0.90926319 -0.90624124
4.5884738 -1.0460393 -0.78459024
5.5733008 -1.2705514 -0.63714451
6.8950939 -1.571882 -0.3950147
6.8735404 -1.5669684 0
6.7987108 -1.5499095 0.38949299
4.0094223 -0.90893734 -0.91074431
4.582231 -1.0387933 -0.78330755
5.5672622 -1.2621002 -0.63627934
6.8843203 -1.5606776 -0.39428917
6.8754287 -1.5586619 0
6.8081837 -1.5434175 0.38992855
4.0030789 -0.90241522 -0.90905511
4.5834827 -1.0332558 -0.78330755
5.5612211 -1.2536676 -0.63541532
6.8862009 -1.5523582 -0.39428917
6.8722248 -1.5492074 0
6.8024368 -1.5334752 0.38949299
4.0116072 -0.8992455 -0.91074431
4.5897331 -1.0288388 -0.7841627
5.5728273 -1.24921 -0.63656849
6.8855286 -1.5434663 -0.39414361
6.8766384 -1.5414735 0
6.8042846 -1.5252546 0.38949299
4.0102034 -0.89384323 -0.91017985
4.5684247 -1.0182664 -0.78031141
5.5768547 -1.2430376 -0.6368565
6.8848548 -1.5345807 -0.39399859
6.8683352 -1.5308986 0
6.8035889 -1.5164671 0.389348
4.0137687 -0.88954836 -0.91074431
4.582181 -1.0155224 -0.7824508
5.5758295 -1.235739 -0.63656849
6.8841696 -1.5256988 -0.3938536
6.8727183 -1.5231609 0
6.8079505 -1.5088068 0.38949299
4.0098729 -0.88360327 -0.90961748
4.5859089 -1.0105368 -0.78287834
5.5747857 -1.2284425 -0.63627934
6.8885431 -1.5179381 -0.39399859
6.872015 -1.5142961 0
6.8021536 -1.4989016 0.38905746
4.0233455 -0.88147587 -0.91243136
4.577106 -1.0027994 -0.78116816
5.5787997 -1.2222608 -0.63656849
6.9005251 -1.5118381 -0.39457917
6.8738394 -1.5059915 0
6.8039598 -1.4906815 0.38905746
4.0244074 -0.8766138 -0.91243136
4.5833259 -0.99835986 -0.78202325
5.5752134 -1.214417 -0.63599133
6.8896551 -1.5007343 -0.3938536
6.8629422 -1.4949157 0
6.7956004 -1.480247 0.38847688
4.0229831 -0.8712132 -0.91186905
4.5845289 -0.99282104 -0.78202325
5.5792022 -1.2082264 -0.63627934
6.8965373 -1.4935073 -0.39414361
6.8647437 -1.4866221 0
6.8151636 -1.475885 0.38949299
4.0339684 -0.8684907 -0.91412055
4.5832181 -0.98674107 -0.78159571
5.5781317 -1.2009404 -0.63599133
6.8856382 -1.4824392 -0.39341804
6.8563581 -1.4761353 0
6.8067808 -1.4654616 0.38891244
4.039989 -0.86468041 -0.91524744
4.5768743 -0.97959012 -0.78031141
5.5821056 -1.1947402 -0.63627934
6.8874245 -1.4741181 -0.39341804
6.8581367 -1.4678496 0
6.7983832 -1.4550605 0.38833189
4.0534549 -0.86244166 -0.91806132
4.5830808 -0.97512859 -0.78116816
5.5835452 -1.1879945 -0.63627934
6.8917494 -1.4663372 -0.3935636
6.8573523 -1.4590187 0
6.8026752 -1.4473852 0.38847688
4.0619445 -0.85911906 -0.91974831
4.5842557 -0.96959013 -0.78116816
5.5824485 -1.1807122 -0.63599133
6.8782582 -1.4547817 -0.39269248
6.8591104 -1.4507319 0
6.8069687 -1.4397037 0.38862243
4.0828719 -0.85839254 -0.92425138
4.5854239 -0.96405029 -0.78116816
5.5863996 -1.1744977 -0.63627934
6.8800111 -1.4464695 -0.39269248
6.8608584 -1.4424429 0
6.8087034 -1.4314778 0.38862243
4.0839062 -0.85345858 -0.92425138
4.5865855 -0.95850897 -0.78116816
5.590354 -1.1682774 -0.63656849
6.8741207 -1.4365603 -0.39225692
6.8600512 -1.43362 0
6.7977033 -1.4205904 0.38789633
4.1023512 -0.8521412 -0.92819214
4.5827088 -0.95192111 -0.78031141
5.5892215 -1.1609942 -0.63627934
6.8784032 -1.4287832 -0.39240247
6.8541317 -1.4237415 0
6.8095913 -1.4144896 0.38847688
4.1033778 -0.8471837 -0.92819214
4.5939116 -0.94845933 -0.78202325
5.5880899 -1.1537174 -0.63599133
6.87503 -1.4194191 -0.39211193
6.8609495 -1.416512 0
6.806211 -1.4052107 0.3881869
4.1063757 -0.84521621 -0.92875451
4.5894599 -0.94464964 -0.78116816
5.5913167 -1.150862 -0.63627934
6.8784289 -1.4157887 -0.39225692
6.8592572 -1.4118426 0
6.8019633 -1.4000498 0.38789633
4.1073937 -0.84025383 -0.92875451
4.5880761 -0.93858749 -0.78073895
5.5927033 -1.1441052 -0.63627934
6.8674083 -1.4048729 -0.39153138
6.8584013 -1.4030303 0
6.8087468 -1.3928725 0.3881869
4.1009436 -0.83377302 -0.92706746
4.5816669 -0.93151015 -0.77945626
5.5915494 -1.1368319 -0.63599133
6.8741984 -1.3976104 -0.39182192
6.852448 -1.3931882 0
6.8104248 -1.3846444 0.3881869
4.1069241 -0.82982272 -0.92819214
4.592854 -0.92800707 -0.78116816
5.5979943 -1.1311002 -0.63656849
6.8784266 -1.3898174 -0.39196694
6.8643298 -1.3869691 0
