# .PCD v0.7 - Point Cloud Data file format
VERSION 0.7
FIELDS x y z
SIZE 4 4 4
TYPE F F F
COUNT 1 1 1
WIDTH 1655
HEIGHT 1
VIEWPOINT 0 0 0 1 0 0 0
POINTS 1655
DATA ascii
-7.5689034 20.90448 1.2418245
-5.8058262 15.974729 -0.94939005
-7.5733838 20.838163 0
-7.5923839 20.89044 1.2415345
-5.8028622 15.906677 -0.94576174
-5.9726849 16.37219 0
-7.6158376 20.876364 1.241244
-5.7455773 15.720143 -0.93487722
-5.9682808 16.32947 0
-7.6222038 20.854673 1.2402278
-5.7341413 15.630252 -0.92994279
-5.9781499 16.295378 0
-7.6312895 20.801542 1.2376156
-5.6398935 15.31609 -0.91165602
-5.9897394 16.266155 0
-7.6402583 20.748421 1.2350034
-5.6313725 15.23615 -0.90730214
-6.0066853 16.251589 0
-7.6455064 20.685556 1.2318106
-5.6434507 15.212278 -0.906286
-6.0308428 16.256517 0
-0 0 0
-5.644599 15.159179 -0.90352821
-6.0550208 16.261412 0
-7.5585628 20.299335 1.2098955
-5.6483607 15.113412 -0.90120655
-6.0773993 16.261398 0
-7.5821762 20.287756 1.2097505
-5.6474543 15.055488 -0.89815879
-6.0961308 16.25161 0
-7.589344 20.232351 1.2069927
-5.6445832 14.992719 -0.89482039
-6.1166792 16.246664 0
-7.4554033 19.802483 1.1818848
-5.6415725 14.929988 -0.89148265
-6.1353865 16.23683 0
-7.4407506 19.691376 1.1757892
-5.648551 14.894005 -0.88974094
-6.1513095 16.219671 0
-7.4525609 19.650787 1.1739025
-5.6591487 14.867742 -0.88857985
-7.44381 19.556412 0
-7.4587393 19.595634 1.1711453
-5.6706171 14.843899 -0.88756371
-7.4507194 19.503649 0
-7.4583039 19.523502 1.167372
-5.7074084 14.832583 -0.88770926
-5.7146854 14.851495 0
-7.4541416 19.372047 1.1593897
-5.7159638 14.801433 -0.88625759
-5.7148156 14.798458 0
-7.4466538 19.283037 1.1546003
-5.7131877 14.741217 -0.88306481
-5.7326922 14.791542 0
-7.447412 19.215876 1.151117
-5.7498345 14.782737 -0.88596761
-5.7401824 14.757922 0
-7.4404864 19.129377 1.1464731
-5.7365127 14.695902 -0.88117814
-5.758956 14.753397 0
-7.4361949 19.050179 1.1422641
-5.7665858 14.72041 -0.88306481
-7.3999419 18.889891 0
-7.4298258 18.966175 1.1377647
-5.7710605 14.679581 -0.88103312
-7.3989573 18.820387 0
-7.4232678 18.882225 1.1332657
-5.8002372 14.701602 -0.88277483
-7.4035444 18.765434 0
-7.4212852 18.8104 1.1294924
-5.8170376 14.69216 -0.88262928
-7.402267 18.695992 0
-7.4172249 18.733772 1.1254284
-3.4937968 8.7932663 -0.52850735
-7.4037089 18.633821 0
-7.4177909 18.669262 1.1220907
-3.5034575 8.7866268 -0.52836233
-7.3992333 18.557182 0
-7.4085855 18.580637 1.1173012
-3.5135837 8.7965717 -0.5290879
-7.3853464 18.489876 0
-7.3966775 18.518244 1.1138179
-3.525176 8.7947292 -0.52923292
-7.3805709 18.4133 0
-7.3987465 18.458645 1.1107701
-0 0 -0
-3.5348313 8.7880554 -0.5290879
-7.3814502 18.351254 0
-7.3938975 18.3822 1.1067067
-3.5415571 8.7741394 -0.52850735
-7.38024 18.284403 0
-7.3869276 18.30097 1.1023529
-3.5463052 8.7554073 -0.52763677
-7.3915796 18.248936 0
-7.3856235 18.23423 1.0988696
-5.9430952 14.621998 -0.88161367
-3.556812 8.7509441 0
-7.3802552 18.15789 1.0948056
-5.9901967 14.686982 -0.88596761
-3.5654156 8.7418165 0
-7.3756976 18.084003 1.0908873
-6.0089216 14.682137 -0.88611263
-3.5759757 8.7375011 0
-7.3709717 18.010155 1.0869689
-6.0128398 14.641218 -0.88408095
-3.5806005 8.7187347 0
-7.3729858 17.953163 1.0840662
-6.0364647 14.648353 -0.88495147
-7.3371038 17.804541 0
-7.3788328 17.905802 1.0817438
-6.0581317 14.650653 -0.88553202
-7.3446908 17.761997 0
-7.3815999 17.851255 1.0789866
-6.0778236 14.648127 -0.88582259
-7.3452034 17.702631 0
-3.5564566 8.5713949 0.51834172
-6.0855293 14.616779 -0.88437092
-7.345583 17.643291 0
-3.5638134 8.5598927 0.51790619
-6.1192126 14.647778 -0.88669318
-7.3478346 17.588774 0
-3.5791612 8.5675659 0.5186317
-7.3469496 17.527084 0
-3.5834854 8.5488615 0.51776117
-7.3600502 17.499002 0
-7.3633904 17.506945 1.0608449
-7.3822041 17.4925 0
-7.3815069 17.49085 1.0604093
-0 0 -0
-7.402317 17.481165 0
-7.4097295 17.498671 1.0614254
-7.4173303 17.45784 0
-7.433917 17.496881 1.061861
-7.443521 17.460835 0
-7.454031 17.485489 1.0617155
-6.2418642 14.59311 -0.88654816
-7.4431219 17.401581 0
-7.4710698 17.466921 1.0611354
-6.2748609 14.621368 -0.8887248
-7.4261684 17.304089 0
-7.4921699 17.457882 1.0611354
-6.3171868 14.671055 -0.89220816
-7.3986998 17.182764 0
-7.5050378 17.429724 1.0599743
-0 0 -0
-7.3369374 17.011026 0
-7.4991012 17.387011 1.0576521
-0 0 -0
-7.3678203 17.026028 0
-0 0 0
-7.3386412 16.902536 0
-0 0 0
-7.2821498 16.7171 0
-0 0 0
-7.2856679 16.670134 0
-7.2531934 16.595829 1.0116453
-7.2660933 16.570753 0
-7.262804 16.563251 1.0101936
-7.2735386 16.533384 0
-7.2713051 16.528307 1.0085975
-7.2809 16.496014 0
-7.282877 16.500492 1.0074364
-7.2829146 16.446753 0
-7.2870269 16.456039 1.0052592
-0 0 -0
-7.2837648 16.395134 0
-7.2826443 16.392612 1.0019213
-0 0 -0
-7.2866178 16.348288 0
-7.2886953 16.352949 1.0000347
-0 0 -0
-7.2936182 16.310963 0
-7.294661 16.313295 0.99814802
-0 0 -0
-7.3186464 16.314007 0
-7.3026667 16.278387 0.99655133
-7.3447638 16.319397 0
-7.327662 16.281397 0.9972769
-7.3559098 16.291534 0
-7.3537474 16.286745 0.99814802
-7.3873987 16.308704 0
-7.3744926 16.280212 0.99829298
-7.3963561 16.276125 -0.99858969
-7.4157124 16.31872 0
-7.4049067 16.294941 0.99974412
-7.431107 16.300276 0
-7.4245906 16.285982 0.99974412
-7.4562082 16.303116 0
-7.4529095 16.295904 1.0009053
-6.6827517 14.565386 -0.89511096
-7.4780746 16.29883 0
-7.4747634 16.291615 1.0011958
-6.6960006 14.547858 -0.89453042
-7.4847054 16.261414 0
-7.4857516 16.263687 1.0000347
-0 0 -0
-0 0 -0
-0 0 -0
-7.4945307 16.231096 0
-7.4999523 16.242838 0.99930912
-7.461741 16.108912 -0.99162358
-7.4922605 16.174799 0
-7.5119271 16.217257 0.99829298
-7.4757261 16.088102 -0.99089801
-7.4975433 16.135054 0
-7.5129032 16.16811 0.99582577
-7.5095634 16.135406 -0.9940908
-7.477644 16.066822 0
-7.4985509 16.111744 0.99263299
-7.5059714 16.07688 -0.99104303
-7.4662247 15.991747 0
-7.498229 16.060297 0.99002075
-0 0 -0
-7.5286989 16.07486 -0.99147856
-7.4623628 15.933224 0
-7.4900775 15.992398 0.98639238
-7.5448008 16.058693 -0.99104303
-7.465013 15.888869 0
-7.4872971 15.9363 0.98348963
-7.5664167 16.054272 -0.99133354
-7.4675622 15.844523 0
-7.4799604 15.87083 0.98000628
-7.6107578 16.047676 -0.99205911
-7.4668016 15.744137 0
-7.4704165 15.751759 0.97376567
-7.6357231 16.050198 -0.99278468
-7.454515 15.6693 0
-7.4671178 15.695792 0.97086293
-5.3621235 11.236101 -0.69540912
-7.4678392 15.64854 0
-7.4636993 15.639865 0.96796066
-5.3869181 11.253057 -0.69686079
-7.4586501 15.580823 0
-7.4601526 15.583961 0.96505785
-5.3937602 11.23248 -0.69598967
-7.4583211 15.531919 0
-7.463232 15.542146 0.96302623
-5.3994384 11.209574 -0.69497406
-7.4420753 15.450217 0
-7.4673481 15.502686 0.96113956
-5.4141083 11.205379 -0.69511908
-7.4550738 15.42949 0
-7.4713755 15.463229 0.9592523
-5.4231105 11.189476 -0.69453853
-7.4521494 15.37598 0
-7.4877901 15.449518 0.95896232
-5.4252682 11.159551 -0.6930874
-7.4491019 15.322493 0
-7.4996381 15.426442 0.95809174
-5.4250813 11.12496 -0.69134575
-7.4584894 15.294776 0
-7.5228281 15.426711 0.95867229
-5.4248185 11.090387 -0.68960404
-5.505621 11.255578 0
-7.5323286 15.398937 0.95751119
-5.4336371 11.074492 -0.68902349
-5.4424148 11.092383 0
-7.552073 15.392155 0.9576562
-5.4229202 11.018962 -0.68597573
-5.4236369 11.020418 0
-7.5477185 15.33639 0.9547534
-5.4350815 11.010074 -0.68583071
-5.3782005 10.894848 0
-7.5558929 15.306292 0.95344728
-5.434545 10.975554 -0.68408906
-5.3705764 10.846365 0
-7.545558 15.238936 0.94981891
-5.4327779 10.938728 -0.6822024
-5.3686299 10.809568 0
-7.5339165 15.169305 0.94604558
-0 0 -0
-5.4320874 10.904246 -0.68046069
-5.3584785 10.756485 0
-7.526752 15.109027 0.9428528
-5.4270763 10.877715 -0.67900956
-5.3510337 10.725301 0
-7.5126781 15.057974 0.93994999
-5.4378877 10.866498 -0.67871904
-5.3476863 10.686249 0
-7.4890089 14.96524 0.93472552
-5.4277005 10.813473 -0.67581624
-5.3547583 10.668152 0
-7.4954271 14.932953 0.93327385
-5.4197326 10.765135 -0.673204
-5.3465819 10.619837 0
-7.4889283 14.875148 0.93022609
-0 0 -0
-5.3453326 10.585491 0
-7.4647355 14.782596 0.92500162
-0 0 -0
-5.3404799 10.544197 0
-7.4626336 14.734159 0.92253441
-5.40341 10.636542 -0.66638285
-5.3426089 10.516856 0
-7.4557185 14.676484 0.91948658
-5.364357 10.528144 -0.65999728
-5.3364086 10.473291 0
-7.4640093 14.648943 0.91832548
-5.3770742 10.521654 -0.65999728
-5.3360357 10.441351 0
-7.4214015 14.521915 0.91092378
-5.3601532 10.457342 -0.65636897
-5.3332167 10.40479 0
-7.3986464 14.434321 0.90598935
-5.3787241 10.46241 -0.65709448
-5.329124 10.365931 0
-7.3780642 14.351421 0.90134484
-5.3734984 10.421259 -0.65491724
-5.3273373 10.331736 0
-7.3823037 14.317098 0.89974874
-5.3598285 10.363985 -0.65172446
-5.3278604 10.30217 0
-7.3673687 14.245847 0.89582986
-5.3735428 10.359806 -0.65186948
-5.3295212 10.274935 0
-7.3642383 14.197724 0.89336258
-5.3848586 10.351003 -0.65172446
-5.3299241 10.245404 0
-7.3777895 14.181898 0.89292705
-5.3721213 10.296112 -0.64867669
-5.318222 10.19281 0
-7.3780947 14.140725 0.89089537
-5.3821507 10.285013 -0.64838672
-5.3196754 10.165627 0
-7.3734918 14.090364 0.88828313
-5.4138908 10.315307 -0.65070838
-5.312604 10.122321 0
-7.3772273 14.056132 0.88668644
-5.4009395 10.260483 -0.64766115
-5.3151331 10.09747 0
-7.3760548 14.012725 0.8845098
-0 0 -0
-5.3151822 10.06803 0
-7.3699303 13.96014 0.88175201
-0 0 -0
-5.3115134 10.031703 0
-7.3734217 13.925971 0.88015586
-0 0 -0
-5.3089843 9.9976959 0
-7.379272 13.89639 0.87884921
-5.3381424 10.03796 -0.63503444
-5.2979183 9.9623213 0
-7.374249 13.866699 0.87725312
-5.3429327 10.017751 -0.63416386
-5.3001542 9.9375429 0
-7.3567595 13.793582 0.87318921
-5.3280678 9.9608755 -0.63097054
-5.2949705 9.8989992 0
-7.3280754 13.699908 0.86781919
-5.3192186 9.9155064 -0.62850326
-5.2970853 9.8742476 0
-7.3163748 13.638386 0.86448139
-5.3373504 9.9205103 -0.62922883
-5.2979164 9.8472147 0
-7.3291545 13.622668 0.8640458
-5.3555064 9.9254951 -0.62995493
-5.2900429 9.8041687 0
-7.3345056 13.593224 0.86273968
-5.3613086 9.9075832 -0.62922883
-0 0 0
-7.3397961 13.563786 0.86143357
-0 0 -0
-5.2888932 9.7456093 0
-7.3499842 13.54349 0.86070806
-5.3616381 9.8512411 -0.62647158
-5.2894692 9.7186413 0
-7.355165 13.514061 0.85940194
-5.3623343 9.8242302 -0.62516546
-5.2862458 9.6848297 0
-7.364017 13.491474 0.85853082
-5.3642197 9.799509 -0.62400436
-5.2854457 9.6556025 0
-7.3753228 13.47345 0.85795027
-5.3598022 9.7634115 -0.6221177
-5.2770753 9.6127167 0
-5.727356 10.432947 0.66478008
-5.3578091 9.7318869 -0.62052101
-5.2824121 9.5949364 0
-5.74121 10.428293 0.66492504
-5.345705 9.6821918 -0.61776382
-5.2801638 9.5634823 0
-5.7249184 10.369027 0.6615867
-5.3070526 9.584796 -0.61195821
-5.2765875 9.5297747 0
-5.7198243 10.330281 0.65955502
-0 0 -0
-5.2653599 9.4824409 0
-5.7247357 10.309736 0.65868449
-5.2404518 9.4107733 -0.60165429
-0 0 0
-5.1721306 9.2880821 0.59381032
-0 0 -0
-0 0 0
-5.2175527 9.3430738 0.59772867
-5.2187395 9.3187304 -0.59657425
-5.2259459 9.3315983 0
-0 0 0
-5.2210927 9.2965651 -0.5955587
-5.2295737 9.3116665 0
-0 0 0
-5.2157464 9.2608185 -0.59367204
-5.2280474 9.2826605 0
-0 0 0
-5.2154279 9.2341404 -0.59236538
-5.2251854 9.2514162 0
-5.2319851 9.2634554 0.59424591
-5.22018 9.2165289 -0.59163982
-5.226099 9.2269802 0
-5.2316451 9.2367716 0.59293926
-5.2184815 9.1876249 -0.59018868
-5.2269616 9.2025547 0
-5.2248378 9.1988153 0.59090757
-5.2093768 9.1330099 -0.58728588
-5.2204251 9.152379 0
-5.2106085 9.135169 0.58742476
-5.2178307 9.1222019 -0.5869959
-5.2185559 9.1234703 0
-5.2048674 9.0995378 0.58553755
-5.2146263 9.091095 -0.58539921
-5.2205157 9.1013622 0
-5.2081037 9.0797234 0.58466697
-0 0 -0
-5.223721 9.0815077 0
-5.2035236 9.0463943 0.58292532
-5.2184067 9.0469589 -0.58336753
-5.2177873 9.0458841 0
-5.2053661 9.0243511 0.58190972
-5.218926 9.0226526 -0.58220643
-5.2326241 9.0463333 0
-5.2136621 9.0135517 0.5816192
-5.2259121 9.0095949 -0.5817709
-5.2318001 9.0197458 0
-5.2297645 9.0162363 0.58219975
-5.2315688 8.9942894 -0.58119035
-5.2374606 9.0044193 0
-0 0 0
-5.2267222 8.9610262 -0.57944864
-5.2417822 8.986846 0
-5.2554665 9.0103073 0.58263528
-5.2257404 8.9345198 -0.57814252
-5.240808 8.9602814 0
-5.2729082 9.0151634 0.58336085
-5.2299604 8.9169941 -0.57741696
-5.2345157 8.9247608 0
-5.2851105 9.0110245 0.58350587
-5.2301927 8.8927507 -0.57625586
-5.2400184 8.9094563 0
-5.2946787 9.0023947 0.58336085
-5.2264175 8.8618107 -0.57465976
-5.2362409 8.8784666 0
-5.3108325 9.0049429 0.5839414
-5.2278614 8.8398304 -0.57364362
-5.2363667 8.8542118 0
-5.3362556 9.0231152 0.58553755
-5.2199855 8.8022213 -0.57161194
-5.2404251 8.836688 0
-5.3776402 9.0680685 0.58887589
-5.2160068 8.7713385 -0.57001525
-5.2431149 8.8169241 0
-5.4430451 9.1531305 0.59482646
-5.2186189 8.7516432 -0.56914473
-5.2364383 8.7815266 0
-5.48737 9.2023392 0.59845483
-5.2185216 8.7274895 -0.56798363
-5.2363605 8.7573233 0
-5.5131497 9.2202282 0.60005093
-5.2210436 8.7078018 -0.56711251
-5.2308841 8.7242146 0
-5.5296316 9.2224741 0.60063148
-5.2235308 8.6881294 -0.56624192
-5.2306938 8.7000437 0
-5.538096 9.2113361 0.6003415
-5.2179255 8.6551075 -0.56450027
-5.230453 8.6758871 0
-5.5545883 9.2135391 0.60092205
-5.2162828 8.6287851 -0.56319416
-5.2247758 8.6428347 0
-5.5657172 9.2068205 0.60092205
-5.2093854 8.605629 -0.56188804
-5.2192144 8.6218653 0
-5.5753112 9.2101183 0.60135704
-5.2089934 8.5815573 -0.56072688
-5.2215285 8.6022091 0
-5.5931759 9.2144794 0.60208261
-0 0 -0
-5.2031469 8.5486221 -0.55898523
-5.2197371 8.5758791 0
-5.6056609 9.20994 0.60222816
-0 0 -0
-5.2053533 8.5290251 -0.55811471
-5.2233181 8.5584602 0
-5.6154275 9.2009363 0.60208261
-5.2061591 8.5072126 -0.55709857
-5.2132826 8.5188522 0
-5.625186 9.1919298 0.60193759
-0 0 -0
-5.2069201 8.4854107 -0.55608243
-5.2140427 8.4970169 0
-5.6267791 9.1696291 0.60092205
-5.2062759 8.4614077 -0.55492133
-5.2120328 8.4707642 0
-5.6419358 9.1694565 0.60135704
-5.2042179 8.4352102 -0.55361521
-5.2154331 8.4533882 0
-5.6584687 9.1714783 0.60193759
-5.2007384 8.4068222 -0.55216408
-5.2105813 8.4227324 0
-5.6722832 9.1690588 0.60222816
-5.2013035 8.3850727 -0.551148
-5.2097802 8.3987379 0
-5.6847267 9.1644039 0.60237318
-5.1977105 8.3567219 -0.54969686
-5.2048087 8.3681345 0
-5.7067747 9.1751804 0.60353428
-5.1940508 8.3283825 -0.54824519
-5.2094073 8.3530064 0
-5.7178574 9.1682777 0.60353428
-5.1958466 8.3088856 -0.54737461
-5.2098365 8.3312569 0
-5.7358184 9.1723757 0.60425985
-5.1948395 8.2849903 -0.54621351
-5.2060766 8.3029108 0
-5.7496552 9.169838 0.60454983
-5.1910191 8.2567129 -0.54476243
-5.2050238 8.2789888 0
-5.7593493 9.1606855 0.60440481
-5.1954494 8.241642 -0.54418182
-5.2039208 8.2550812 0
-5.7759566 9.1625128 0.60498542
-5.1929102 8.2155924 -0.54287571
-5.1985946 8.2245865 0
-5.7870235 9.1555271 0.60498542
-5.1917052 8.1917534 -0.54171461
-5.1987805 8.2029171 0
-5.8008666 9.1529217 0.60527593
-5.1932349 8.1723118 -0.54084349
-5.1975222 8.1790571 0
-5.8133144 9.1480961 0.60542095
-5.1919408 8.1485071 -0.53968292
-5.1962132 8.1552124 0
-5.8243637 9.1410656 0.60542095
-5.1905913 8.1247101 -0.53852183
-5.1948543 8.1313829 0
-5.8423982 9.144968 0.60614651
-5.1800947 8.0974932 -0.53692514
-5.1857443 8.1063242 0
-5.8521242 9.1480055 0.60658205
-5.1800537 8.0759153 -0.53590906
-5.1899152 8.0912905 0
-5.8743968 9.1584253 0.6077432
-5.1771593 8.049983 -0.53460294
-5.1856079 8.0631199 0
-5.888267 9.1556873 0.60803318
-5.1671705 8.0131531 -0.53257126
-5.1882963 8.0459146 0
-5.9148169 9.1725893 0.60962987
-5.1683869 7.9938154 -0.53170067
-5.1867104 8.0221558 0
-5.9244809 9.1632471 0.60948431
-5.1695585 7.9744782 -0.53082955
-5.1794114 7.9896774 0
-5.9426198 9.1669903 0.61021042
-5.1636119 7.9442582 -0.52923292
-5.1848111 7.9768734 0
-5.9593568 9.1685181 0.61079097
-0 0 -0
-5.1632805 7.922781 -0.52821732
-5.1844978 7.955338 0
-5.9675903 9.1569519 0.6105004
-5.1657443 7.9056621 -0.52749181
-5.1827178 7.9316387 0
-5.9829159 9.1562624 0.61093599
-5.1624784 7.8798552 -0.52618569
-5.1837435 7.9123135 0
-5.999671 9.1577206 0.61151654
-5.1634336 7.8605762 -0.52531457
-5.179009 7.8842878 0
-6.012157 9.1526346 0.61166155
-0 0 -0
-5.1614938 7.8369708 -0.52415341
-5.1742201 7.8562937 0
-6.0246396 9.1475315 0.61180651
-0 0 -0
-5.1609406 7.8155565 -0.52313787
-5.1751075 7.8370099 0
-6.0385547 9.1445856 0.61209708
-0 0 -0
-5.1574659 7.7898088 -0.52183121
-5.1759501 7.8177271 0
-6.0538993 9.1437769 0.61253208
-0 0 -0
-5.1611266 7.7749119 -0.52125067
-5.1767592 7.7984619 0
-6.0735683 9.1494484 0.6134032
-5.1647639 7.7600255 -0.52067065
-5.1688752 7.7662029 0
-6.081737 9.1377726 0.61311263
-5.1553822 7.7256751 -0.51878339
-5.1681418 7.7447958 0
-6.0999899 9.1412306 0.61383873
-5.1546035 7.7043285 -0.51776785
-5.1673703 7.7234106 0
-6.1139178 9.1381683 0.61412877
-5.1508822 7.6786757 -0.51646173
-5.1737962 7.7128344 0
-6.1350889 9.1458817 0.61514485
-5.1587024 7.6702838 -0.51631618
-5.1714926 7.689301 0
-6.1490331 9.1427698 0.61543489
-5.1464257 7.6221619 -0.51370394
-5.1650352 7.6497231 0
-6.1670465 9.1337614 0.61557984
-5.1425238 7.5965738 -0.51239783
-5.1611457 7.6240826 0
-6.1839051 9.1349106 0.61616045
-5.1458616 7.5817547 -0.51181728
-5.1586618 7.6006141 0
-6.2022386 9.1381874 0.61688656
-5.1433244 7.5583453 -0.51065618
-5.1561289 7.5771623 0
-6.2176571 9.137126 0.61732155
-5.1465955 7.543539 -0.51007563
-5.1594138 7.5623274 0
-6.2301559 9.1317501 0.61746657
-5.1439705 7.5201573 -0.50891447
-5.1553254 7.5367575 0
-6.2470536 9.1327944 0.61804712
-5.1457067 7.5032239 -0.5081889
-5.1585407 7.5219378 0
-6.2624946 9.131671 0.61848265
-5.135632 7.4691677 -0.50630224
-5.1587815 7.5028362 0
-6.2779417 9.1305227 0.61891824
-5.1372805 7.4522624 -0.50557667
-5.158978 7.483737 0
-6.2948689 9.1314878 0.61949879
-5.1344624 7.4289489 -0.50441557
-5.1547012 7.4582319 0
-6.3058977 9.1238747 0.61949879
-5.1360369 7.4120622 -0.50369
-5.1503701 7.4327478 0
-6.3213592 9.1226578 0.61993432
-5.1346097 7.3909106 -0.50267392
-5.1445017 7.4051499 0
-6.3338585 9.1171455 0.62007934
-5.1234217 7.3558216 -0.99916446
-5.1375961 7.3761725 -0.50209337
-5.1445184 7.3861108 0
-6.3448701 9.1094856 0.62007934
-5.1175003 7.3284235 -0.9962821
-5.1331172 7.3507876 -0.50078726
-5.1400304 7.3606877 0
-6.3647957 9.1145906 0.62094986
-0 0 -0
-5.1375232 7.338192 -0.50035167
-5.1399679 7.3416839 0
-6.378788 9.1111546 0.62124044
-5.1188483 7.2927461 -0.9931106
-5.1329522 7.3128395 -0.49904555
-5.1428547 7.3269472 0
-6.3942666 9.1098146 0.62167543
-5.1157484 7.2696338 -0.99080426
-5.1328149 7.2938857 -0.498175
-5.1442108 7.3100801 0
-6.4097567 9.1084595 0.62211102
-5.1140895 7.248651 -0.98878592
-5.1266475 7.2664504 -0.49672389
-5.1410432 7.2868552 0
-6.4252534 9.1070795 0.62254655
-5.1138854 7.2298002 -0.98705673
-5.1264176 7.2475181 -0.49585277
-5.1453342 7.2742615 0
-6.4407501 9.1056671 0.62298155
-5.1166329 7.2151766 -0.98590356
-5.1246481 7.2264795 -0.49483666
-5.1435804 7.2531772 0
-6.4547567 9.1021214 0.62327212
-5.1208496 7.2026629 -0.9850384
-5.1228409 7.2054639 -0.49382108
-5.1372638 7.22575 0
-6.4687586 9.098547 0.6235621
-5.120544 7.1838369 -0.98330921
-5.1255107 7.190805 -0.49324054
-5.1369243 7.2068181 0
-6.4812603 9.0928459 0.62370765
-5.115871 7.1681142 -0.98158002
-5.1253242 7.1813598 -0.49280497
-5.1276722 7.1846499 0
-6.4912767 9.0952673 0.62414271
-5.1139913 7.1472011 -0.97956169
-5.1188798 7.1540337 -0.49135387
-5.1287794 7.1678686 0
-6.514358 9.1043234 0.6253038
-5.1120687 7.1263032 -0.97754335
-5.1214623 7.1393976 -0.49077332
-5.1283379 7.1489825 0
-6.5253544 9.0964451 0.6253038
-5.1040683 7.0970292 -0.97437298
-5.1194634 7.1184354 -0.48975718
-5.127852 7.1300993 0
-6.5424094 9.0969925 0.62588435
-5.1020498 7.0761685 -0.97235465
-5.1143851 7.093277 -0.48845106
-5.1273341 7.1112361 0
-6.5564389 9.0932999 0.62617493
-5.1030211 7.0595198 -0.97091347
-5.1138215 7.074461 -0.48758051
-5.1313477 7.0987062 0
-6.5719838 9.0916824 0.62660992
-5.1039605 7.0428786 -0.96947229
-5.1101675 7.0514441 -0.48641941
-5.1246524 7.0714316 0
-6.5905929 9.0942612 0.62733603
-5.1018229 7.0220571 -0.96745396
-5.1125751 7.0368557 -0.48583883
-5.1270742 7.0568128 0
-6.6031027 9.0883913 0.62748104
-5.1011701 7.0033474 -0.96572477
-5.1149545 7.0222716 -0.48525828
-5.1264009 7.0379868 0
-6.6140795 9.0804062 0.62748104
-5.1035271 6.9888229 -0.9645716
-5.1127076 7.0013947 -0.48424217
-5.1195564 7.0107737 0
-6.6296453 9.0787048 0.62791657
-5.0997448 6.9659553 -0.96226525
-5.1088839 6.9784389 -0.48308104
-5.115725 6.9877834 0
-6.6452107 9.076972 0.62835157
-5.1020365 6.951448 -0.96111208
-5.1127043 6.9659824 -0.48264605
-5.1149282 6.9690127 0
-6.6592512 9.0731287 0.62864214
-5.1012321 6.9327741 -0.95938176
-5.1164961 6.9535189 -0.48221049
-5.1171756 6.9544425 0
-6.6779079 9.0755386 0.62936771
-5.0988617 6.9120412 -0.95736456
-5.1063838 6.9222383 -0.48046881
-5.1178517 6.9377847 0
-6.6950393 9.0758276 0.62994826
-5.0949063 6.8892384 -0.95505822
-5.1054769 6.903532 -0.47959825
-5.1153975 6.9169464 0
-6.7106376 9.0740004 0.63038379
-5.0862803 6.8602204 -0.95188671
-5.1060724 6.8869157 -0.47887215
-5.116003 6.9003096 0
-6.7184987 9.0617065 0.63009328
-5.0914831 6.8499222 -0.95131069
-5.1050925 6.8682323 -0.47800159
-5.1150188 6.8815866 0
-6.7387409 9.0660915 0.6309638
-5.0904803 6.8313169 -0.94958037
-5.1025181 6.8474717 -0.47698548
-5.1155562 6.8649688 0
-6.7559009 9.0662766 0.63154435
-5.0940914 6.8189507 -0.94871634
-5.1061273 6.835062 -0.47655049
-5.1113873 6.842103 0
-6.7637434 9.0539474 0.63125437
-5.0930214 6.800365 -0.94698602
-5.1050334 6.8164043 -0.47567937
-5.1102934 6.8234277 0
-6.782465 9.0561647 0.63197994
-5.0862651 6.7827997 -0.94496769
-5.1060357 6.809165 -0.47538936
-5.1050439 6.8078423 0
-6.7910562 9.0562277 0.63227051
-5.0820293 6.7601175 -0.94266248
-5.1002083 6.7842994 -0.47408324
-5.1038861 6.7891912 0
-6.8051138 9.052165 0.63256049
-5.0839667 6.7457099 -0.94150931
-5.095891 6.7615309 -0.47292212
-5.1011195 6.7684689 0
-6.8254328 9.0563908 0.63343161
-5.0811982 6.7251143 -0.93949097
-5.0930905 6.7408543 -0.47190601
-5.1014514 6.7519202 0
-6.8379359 9.0502081 0.63357663
-5.0768266 6.7024755 -0.93718463
-5.0965233 6.7284794 -0.47147045
-5.1001806 6.7333078 0
-6.8567095 9.0522938 0.63430214
-5.0786648 6.6880965 -0.93603146
-5.0952244 6.7099037 -0.47059989
-5.1035895 6.7209201 0
-6.8723583 9.0502119 0.63473773
-5.0789104 6.6716671 -0.93459028
-5.0938873 6.6913409 -0.46972933
-5.0990958 6.6981826 0
-6.8895841 9.0501719 0.63531828
-5.0775561 6.6531925 -0.93286109
-5.0940824 6.6748471 -0.46900323
-5.1024475 6.6858077 0
-6.9036646 9.0459681 0.63560826
-5.0761585 6.6347232 -0.93113077
-5.0926733 6.6563087 -0.46813267
-5.0915513 6.6548424 0
-6.9145899 9.0376196 0.63560826
-5.0778751 6.6203756 -0.9299776
-5.0912209 6.6377754 -0.46726155
-5.0932531 6.6404252 0
-6.9349904 9.041625 0.63647884
-5.0779891 6.6039853 -0.92853642
-5.0913196 6.6213217 -0.46653599
-5.0949278 6.6260138 0
-6.9538345 9.0435438 0.63720495
-5.0780711 6.587604 -0.92709523
-5.0866251 6.598701 -0.46537489
-5.0949812 6.6095409 0
-6.9663415 9.0371914 0.63734996
-5.0765347 6.56918 -0.92536491
-5.0866518 6.5822716 -0.46464932
-5.0918288 6.5889711 0
-6.9820242 9.0349369 0.63778549
-5.0718026 6.5466914 -0.9230597
-5.0834665 6.5617476 -0.46363375
-5.0902205 6.5704656 0
-6.9961157 9.0305986 0.63807553
-5.0717721 6.5303388 -0.92161739
-5.0866084 6.5494418 -0.46319821
-5.0917706 6.5560884 0
-7.0181808 9.0365057 0.63909161
-5.066947 6.5078788 -0.91931105
-5.0849371 6.5309849 -0.46232709
-5.0916963 6.5396662 0
-7.0306897 9.0300674 0.63923663
-5.0684414 6.4935961 -0.91815788
-5.0848327 6.5145965 -0.46160153
-5.0867839 6.5170965 0
-7.0447898 9.0256586 0.63952661
-5.0715065 6.4813619 -0.91729385
-5.0862951 6.5002618 -0.46102098
-5.089848 6.5048022 0
-7.0572963 9.0191917 0.63967216
-5.0697532 6.4630151 -0.91556352
-5.0797138 6.4757128 -0.45971486
-5.0848541 6.4822664 0
-7.0762062 9.0208788 0.64039773
-5.0679688 6.4446898 -0.91383433
-5.079505 6.4593596 -0.45898929
-5.084641 6.4658909 0
-7.0854964 9.0102816 0.64025277
-5.0661478 6.4263778 -0.91210514
-5.0840921 6.4491401 -0.45869929
-5.0827799 6.4474754 0
-7.1092482 9.0180378 0.64141387
-5.0649471 6.4009585 -0.9097988
-5.0715852 6.4093475 -0.45652208
-5.0799251 6.4198871 0
-7.1368632 9.0193958 0.64242941
-5.0630302 6.3826718 -0.90806848
-5.0712533 6.3930378 -0.45579651
-5.0779772 6.4015145 0
-7.1542153 9.0189085 0.64300996
-5.0578604 6.3603544 -0.90576214
-5.072505 6.3787704 -0.45521596
-5.0759864 6.3831487 0
-7.1683455 9.014329 0.64330053
-5.0574818 6.3441277 -0.90432096
-5.070487 6.3604417 -0.45434484
-5.0739651 6.3648043 0
-7.1840868 9.0117512 0.64373553
-5.0586848 6.3299298 -0.90316778
-5.0716863 6.346199 -0.45376483
-5.0735297 6.3485055 0
-7.1998391 9.0091553 0.64417112
-5.0582452 6.3137221 -0.9017266
-5.0744753 6.3339806 -0.45332927
-5.0698051 6.3281512 0
-7.2107196 9.0004492 0.64417112
-5.0642524 6.3055911 -0.90143859
-5.0723591 6.3156848 -0.45245817
-5.0709291 6.3139043 0
-7.2297235 9.0018578 0.64489663
-5.0426741 6.2632074 -0.89624989
-5.0685844 6.2953892 -0.4514426
-5.0752935 6.3037219 0
-7.2487411 9.003233 0.64562219
-5.0437403 6.2490587 -0.89509672
-5.07129 6.2831922 -0.45100704
-5.074729 6.2874532 0
-7.2677794 9.0045834 0.6463483
-5.0480304 6.2389345 -0.89451957
-5.0690746 6.2649436 -0.45013648
-5.0774164 6.2752533 0
-7.285192 9.0038757 0.64692891
-5.0409026 6.2147536 -0.89192522
-5.0635457 6.2426696 -0.44897538
-5.0702419 6.2509246 0
-7.2993369 8.9990988 0.64721888
-5.0353541 6.1926036 -0.88961887
-5.0612459 6.2244463 -0.44810426
-5.0712237 6.2367167 0
-7.3184004 9.000351 0.64794445
-5.0346637 6.1764927 -0.88817769
-5.0638428 6.2122898 -0.44766927
-5.0688868 6.2184772 0
-7.334197 8.9975452 0.64837998
-5.0372114 6.1643944 -0.88731253
-5.0614772 6.1940899 -0.44679815
-5.0681648 6.2022738 0
-7.3483486 8.9926977 0.64867002
-5.0348253 6.1463022 -0.88558334
-5.0656681 6.1839533 -0.44650814
-5.065763 6.1840696 0
-7.3608603 8.9858274 0.64881557
-5.0356822 6.1322184 -0.88443017
-5.0632386 6.1657753 -0.44563702
-5.0616689 6.1638637 0
-7.3766551 8.9829454 0.64925057
-5.0414462 6.1241341 -0.88414216
-5.0657358 6.1536403 -0.44520202
-5.0591855 6.1456833 0
-7.3941097 8.9820499 0.64983112
-5.0340209 6.1000781 -0.88154668
-5.0648932 6.1374884 -0.44447592
-5.0632977 6.1355553 0
-7.4099207 8.9791241 0.65026665
-5.0347996 6.0860271 -0.88039464
-5.0640254 6.1213551 -0.44375035
-5.0624151 6.1194086 0
-7.4306993 8.982173 0.65113723
-5.033524 6.0770068 -0.87952948
-5.0577807 6.1062918 -0.4428798
-5.0611291 6.1103344 0
-7.4377871 8.9796886 0.65128279
-5.0276451 6.0550008 -0.87722313
-5.0518761 6.0841827 -0.44171867
-5.0618587 6.0962052 0
-7.4585881 8.982686 0.65215337
-5.018414 6.0290461 -0.87434077
-5.054235 6.0720806 -0.44128311
-5.062561 6.0820837 0
-7.4727583 8.9776573 0.65244335
-5.0240331 6.0209861 -0.87405163
-5.0549092 6.0579891 -0.44070256
-5.0615711 6.0659728 0
-7.4935923 8.9805965 0.65331447
-0 0 -0
-5.0279889 6.0109472 -0.87347561
-5.0522256 6.0399218 -0.439832
-5.0638862 6.0538621 0
-7.511107 8.9795074 0.65389502
-0 0 -0
-5.0252738 5.9929719 -0.87174529
-5.049499 6.0218625 -0.43896088
-5.0578198 6.0317855 0
-7.5102625 8.9564857 0.65287888
-0 0 -0
-5.0225291 5.9750199 -0.8700161
-5.0484133 6.0058131 -0.43823534
-5.0533872 6.0117302 0
-6.2169995 7.3960142 0.53967625
-5.0264149 5.9649949 -0.86944008
-5.0489693 5.9917607 -0.43765476
-5.0556149 5.9996471 0
-6.2175612 7.3785634 0.53895068
-5.0269423 5.9510136 -0.86828691
-5.0511799 5.9797063 -0.43721977
-5.0527873 5.9816093 0
-6.2180834 7.3611145 0.53822458
-5.0224276 5.9311161 -0.86626858
-5.0533624 5.9676476 -0.43678421
-5.0515971 5.9655633 0
-6.2202568 7.345664 0.53764403
-5.0178719 5.9112382 -0.86425024
-5.0454364 5.9437103 -0.43547809
-5.0537543 5.9535089 0
-6.227448 7.3361635 0.53749901
-5.0099268 5.8874445 -0.86165589
-5.0425076 5.9257321 -0.43460697
-5.0525126 5.93749 0
-6.2194715 7.3088479 0.53604788
-5.0103226 5.8735156 -0.86050272
-5.04461 5.9137101 -0.43417197
-5.0512333 5.9214749 0
-6.2181768 7.2894626 0.53517681
-5.0090122 5.8576303 -0.85906154
-5.0483708 5.903657 -0.43388143
-5.0550051 5.9114151 0
-6.2236056 7.277998 0.53488678
-5.0144048 5.8496118 -0.85877353
-5.0487361 5.8896613 -0.43330085
-5.0469022 5.8875217 0
-6.2205558 7.2566609 0.5338707
-5.0096679 5.8298149 -0.8567552
-5.045691 5.8717356 -0.4324303
-5.0489221 5.8754959 0
-6.2174697 7.2353497 0.53285509
-5.0133352 5.8198419 -0.85617918
-5.0409093 5.8518519 -0.43141419
-5.0475268 5.8595338 0
-6.2160287 7.2160153 0.53198397
-5.0119066 5.8039861 -0.85473686
-5.0411835 5.8378897 -0.43083364
-5.0494986 5.8475194 0
-6.2145572 7.196703 0.53111345
-5.0172248 5.7959723 -0.85444885
-5.0482335 5.8317943 -0.43083364
-5.0463443 5.8296118 0
-6.2130413 7.1773973 0.53024232
-5.0088725 5.779264 -0.85243165
-5.0432487 5.8189273 -0.43010807
-5.0413442 5.8167305 0
-6.2139759 7.1697192 0.52995235
-5.0039754 5.7595382 -0.85041332
-5.0349398 5.7951775 -0.42880195
-5.0432467 5.804739 0
-6.2055893 7.1425862 0.52850068
-5.0058336 5.7476344 -0.84954816
-5.0334067 5.779294 -0.42807639
-5.0399985 5.7868619 0
-6.2108054 7.1311679 0.52821064
-5.0059705 5.733788 -0.84839499
-5.031837 5.7634153 -0.42735028
-5.0384307 5.7709675 0
-6.2108741 7.1138725 0.52748507
-4.9975657 5.7102199 -0.84580064
-5.033668 5.7514706 -0.42691529
-5.0351195 5.753129 0
-6.2143297 7.1004949 0.52704954
-4.9993429 5.6983423 -0.84493548
-5.0354714 5.7395225 -0.42647973
-5.0386314 5.7431245 0
-6.212626 7.081265 0.52617896
-4.999392 5.6845288 -0.84378231
-5.0321097 5.7217302 -0.42560917
-5.0352583 5.7253103 0
-6.2057352 7.0561943 0.52487284
-5.0011306 5.6726689 -0.84291828
-5.0338631 5.7097969 -0.42517361
-5.0318494 5.7075124 0
-6.2090998 7.0428414 0.52443731
-4.9977007 5.6549897 -0.84118795
-5.0338755 5.6959219 -0.42459306
-5.0335703 5.6955762 0
-6.2038393 7.0197573 0.52327621
-5.0045304 5.6489468 -0.84118795
-5.0338616 5.6820555 -0.42401248
-5.0352693 5.6836443 0
-6.2054248 7.0044765 0.5226956
-5.0010505 5.6312957 -0.83945876
-5.0355458 5.6701384 -0.42357695
-5.0334945 5.6678281 0
-6.2173309 7.0008554 0.52298564
-4.995811 5.6117239 -0.83744043
-5.0285711 5.6485233 -0.42241582
-5.0334172 5.6539669 0
-5.05441 5.6775475 0.42458636
-4.9956989 5.5979643 -0.83628726
-5.0250154 5.6308146 -0.42154527
-5.0333138 5.6401138 0
-5.0664582 5.6772542 0.42502192
-4.9955616 5.5842133 -0.83513409
-5.0266161 5.618927 -0.42110971
-5.0401254 5.634028 0
-5.0559864 5.6517582 0.42357025
-4.9971299 5.5724015 -0.83427006
-5.0247293 5.6031785 -0.42038414
-5.0365076 5.6163125 0
-5.0437341 5.6243711 0.42197412
-4.9952087 5.5567365 -0.83282775
-5.0297608 5.5951724 -0.42023915
-5.0328474 5.5986061 0
-5.0244675 5.5892844 0.41979688
-4.9967299 5.5449376 -0.83196372
-5.027822 5.5794411 -0.41951358
-5.0291586 5.5809245 0
-5.0033922 5.5523314 0.41747522
-4.9912882 5.5254588 -0.82994539
-5.0293326 5.5675755 -0.41907802
-5.0254283 5.5632529 0
-4.9979033 5.5327821 0.41645911
-4.9944921 5.5155931 -0.82936937
-5.0290799 5.5537901 -0.41849747
-5.0251589 5.5494599 0
-4.9993505 5.5209589 0.41602355
-4.9959359 5.5038071 -0.8285042
-5.0270562 5.5380912 -0.41777191
-5.0248642 5.535676 0
-5.0042734 5.5129919 0.41587856
-4.9870815 5.4873872 -0.82648587
-5.0199122 5.5235114 -0.41690081
-5.0229616 5.5268669 0
-5.005857 5.5080466 0.41573355
-4.9832602 5.4698892 -0.82475668
-5.0178342 5.5078397 -0.41617525
-5.0243764 5.5150204 0
-5.0160055 5.5058317 0.41602355
-4.9828892 5.456224 -0.82360351
-5.0209846 5.4979386 -0.41588524
-5.029283 5.5070252 0
-5.0226545 5.4997673 0.41602355
-4.9790025 5.4387565 -0.82187432
-5.020606 5.4842014 -0.41530469
-5.0236306 5.4875054 0
-5.0292964 5.4936943 0.41602355
-4.9820695 5.4289212 -0.82129717
-5.0166841 5.4666405 -0.41443357
-5.0249772 5.475677 0
-5.0324202 5.483788 0.41573355
-4.9846573 5.4054608 -0.81956798
-5.0246005 5.4487758 -0.41399857
-5.0205555 5.4443893 0
-5.0386114 5.4639697 0.415153
-4.9876704 5.3956313 -0.81899083
-5.0170703 5.4274359 -0.41283745
-5.0182991 5.4287658 0
-5.0293374 5.4407063 0.41384688
-4.9853978 5.3801169 -0.81754965
-4.9936018 5.3889699 -0.41037023
-5.019547 5.4169693 0
-5.0306077 5.4289055 0.41341132
-4.9936538 5.3759823 -0.81783766
-4.9948025 5.3772192 -0.40993467
-5.0207801 5.4051852 0
-5.023016 5.4075928 0.41225019
-4.9842844 5.35291 -0.8152433
-4.9959826 5.3654728 -0.40949911
-5.0219851 5.3933988 0
-5.0242324 5.3958125 0.41181466
-4.9889855 5.3449945 -0.81495529
-4.9953699 5.3518343 -0.40891856
-5.0196214 5.3778162 0
-5.0272059 5.385942 0.41152465
-4.9813032 5.323853 -0.81264895
-4.9911842 5.3344135 -0.408048
-5.0207796 5.366044 0
-5.0283828 5.3741698 0.41108909
-4.9895 5.319715 -0.81293696
-4.9922915 5.322691 -0.40761244
-5.0272598 5.3599734 0
-5.0384312 5.3718843 0.41137964
-4.9782104 5.2948418 -0.8100546
-4.9898214 5.3071914 -0.40688688
-5.0212522 5.340621 0
-5.0413551 5.3620024 0.41108909
-4.9792809 5.283174 -0.80918944
-4.9926696 5.29738 -0.40659687
-5.0259185 5.3326578 0
-5.058527 5.3672566 0.41196021
-4.9838867 5.2752757 -0.80890143
-4.9954944 5.2875624 -0.40630633
-5.0216379 5.3152342 0
-5.0614362 5.3573589 0.41166964
-4.9813662 5.2598615 -0.80746025
-4.9947329 5.2739758 -0.40572575
-5.0244741 5.3053799 0
-5.0714827 5.3550162 0.41196021
-4.9788089 5.2444544 -0.80601794
-4.9975271 5.2641711 -0.40543577
-5.0237136 5.2917552 0
-5.0815244 5.3526497 0.41225019
-4.9762287 5.2290683 -0.80457675
-4.9859676 5.2393022 -0.4039841
-5.0318966 5.2875643 0
-5.0933638 5.3521547 0.41268575
-4.9736185 5.2136955 -0.80313557
-4.9940934 5.2351594 -0.40412965
-5.0382819 5.2814803 0
-5.1070013 5.3535171 0.41326633
-4.9749827 5.2088213 -0.80284756
-4.9775119 5.2114697 -0.40253296
-5.0378799 5.2746754 0
-5.1102347 5.350431 0.41326633
-4.972331 5.1934667 -0.80140638
-4.9856005 5.2073264 -0.40267798
-5.04425 5.2685843 0
-5.1130986 5.3404946 0.41297576
-4.9768066 5.1855836 -0.80111724
-4.9828944 5.1919265 -0.40195242
-5.0470047 5.2587266 0
-5.1231499 5.3380656 0.41326633
-4.9741044 5.170248 -0.79967606
-4.9819579 5.1784115 -0.40137187
-5.0551648 5.2545052 0
-5.1331954 5.3356128 0.41355631
-4.9767604 5.1605144 -0.79910004
-4.9864097 5.1705198 -0.40122685
-5.0542836 5.2409 0
-5.1414409 5.3312755 0.41370133
-4.9775972 5.1489162 -0.79823488
-4.9944577 5.166357 -0.40137187
-5.0660338 5.240397 0
-5.1551032 5.3325319 0.41428187
-4.9874187 5.1466165 -0.79881203
-4.9934635 5.1528544 -0.40079129
-5.0741787 5.236146 0
-5.1633563 5.3281703 0.41442743
-4.9864249 5.1331658 -0.79765886
-5.0014949 5.1486793 -0.40093631
-5.0913787 5.2412081 0
-5.1661658 5.3181963 0.41413689
-4.9998412 5.1345491 -0.79881203
-5.0095305 5.1444988 -0.40108186
-5.1122327 5.2499685 0
-5.1780281 5.3175368 0.41457245
-5.0096517 5.1322021 -0.79938805
-5.0230031 5.1458802 -0.40166241
-5.1294761 5.2549582 0
-5.19171 5.3187141 0.415153
-5.0212779 5.1316929 -0.80025321
-5.0346637 5.1453733 -0.4020974
-5.1467462 5.2599206 0
-5.2054019 5.3198662 0.41573355
-5.0329032 5.1311564 -0.80111724
-5.0481553 5.1467066 -0.40267798
-5.1676774 5.2685614 0
-5.2191043 5.3209925 0.4163141
-5.0463529 5.1324487 -0.80227041
-5.0561905 5.1424541 -0.40282297
-5.1758623 5.2641678 0
-5.2419243 5.3313565 0.41762021
-5.0579991 5.1318755 -0.80313557
-5.0769925 5.1511459 -0.4039841
-5.1785688 5.2542062 0
-5.2501845 5.3268676 0.41776523
-5.0660124 5.1275983 -0.80342358
-5.090518 5.1524014 -0.40456465
-5.1666193 5.2294283 0
-5.2566171 5.3205199 0.41776523
-5.0776668 5.1269884 -0.80428874
-5.0967398 5.1462469 -0.40456465
-5.1527953 5.2028465 0
-5.257555 5.3086238 0.41732967
-5.0893264 5.1263576 -0.80515391
-5.1066194 5.1437764 -0.40485519
-5.1462412 5.1836867 0
-5.2694592 5.3078012 0.41776523
-5.1009851 5.125699 -0.80601794
-5.1183314 5.1431293 -0.40529075
-5.154335 5.1793075 0
-6.4855433 6.5169654 0.51355225
-5.1126566 5.1250267 -0.8068831
-5.131876 5.1442924 -0.40587077
-5.1587534 5.1712351 0
-6.5025868 6.5183201 0.51427782
-5.1298227 5.1298227 -0.80861342
-5.1380877 5.1380877 -0.40587077
-5.172359 5.172359 0
-6.5104585 6.5104585 0.51427782
-5.1347489 5.1285486 -0.80890143
-5.1503887 5.1441693 -0.40659687
-5.1920533 5.1857834 0
-6.523581 6.5157032 0.51500338
-5.1482711 5.129643 -0.8100546
-5.1492381 5.1306062 -0.40601632
-5.2093735 5.1905241 0
-6.5351343 6.511488 0.51529396
-5.1526327 5.1215968 -0.80976659
-5.181231 5.1500225 -0.408048
-5.2322588 5.2007432 0
-6.5448384 6.5054169 0.51543891
-6.253397 6.2007275 -0.98158002
-6.5269508 6.4719772 -0.51341397
-5.2496238 5.2054081 0
-6.5637684 6.5084848 0.51631004
-6.266396 6.1986184 -0.98244405
-6.5403032 6.469563 -0.51384896
-5.2651587 5.2082105 0
-6.5771646 6.5060258 0.51674503
-6.2775669 6.1946793 -0.9830212
-6.5536656 6.4671326 -0.51428449
-5.2751565 5.2055044 0
-6.59797 6.5108514 0.51776117
-6.2924204 6.1943474 -0.98417437
-6.5559182 6.4537387 -0.51384896
-5.2870011 5.2045984 0
-6.6058321 6.5028744 0.51776117
-6.2999005 6.1867399 -0.98417437
-6.5785432 6.4603777 -0.51501006
-5.3025684 5.2073221 0
-6.5951486 6.4766846 0.51631004
-6.3129086 6.1845479 -0.9850384
-5.3557835 5.2468839 -0.41878805
-5.3162928 5.2081962 0
-6.6159573 6.4814348 0.51732558
-6.3277764 6.1841469 -0.98619157
-5.3583989 5.2367725 -0.41849747
-5.3300271 5.2090445 0
-6.6312175 6.4807005 0.51790619
-6.344502 6.1855226 -0.98763275
-5.3610053 5.2266698 -0.41820747
-5.3363171 5.2026005 0
-6.6390433 6.4726834 0.51790619
-6.3556833 6.1814623 -0.9882099
-5.3728995 5.2256184 -0.41864246
-5.3444705 5.1979685 0
-6.6524496 6.4700933 0.51834172
-6.3742824 6.1845813 -0.98993909
-5.37362 5.2136993 -0.41820747
-5.3563457 5.1969385 0
-6.6695852 6.471096 0.51906729
-6.3873277 6.1822729 -0.99080426
-5.3836465 5.2108135 -0.41849747
-5.370101 5.1977024 0
-6.6848679 6.4702611 0.51964784
-6.402236 6.1817369 -0.99195743
-5.3918066 5.2061076 -0.41864246
-5.3763776 5.1912103 0
-6.6982908 6.4675951 0.52008337
-6.419013 6.1829662 -0.99339861
-5.4093256 5.2104082 -0.41951358
-5.3938961 5.1955462 0
-6.7117095 6.4648995 0.52051842
-6.4264793 6.1752057 -0.99339861
-5.4137383 5.2020626 -0.41936803
-5.4039197 5.1926279 0
-6.7345057 6.4711885 0.52167952
-6.4414048 6.1745954 -0.99455178
-5.4256492 5.2009134 -0.41980359
-5.4177051 5.1932983 0
-6.7460752 6.4666462 0.52197009
-6.4563384 6.1739583 -0.99570495
-5.4244175 5.1871705 -0.41922304
-5.4352651 5.1975436 0
-6.7670245 6.471056 0.52298564
-6.4750261 6.176868 -0.99743527
-5.4306812 5.1806126 -0.41922304
-5.4415412 5.1909723 0
-6.7861228 6.4736395 0.52385676
-6.4824982 6.1765199 -0.99801129
-5.4375763 5.1809187 -0.41951358
-5.4540958 5.1966581 0
-6.7881532 6.4677477 0.52371174
-5.4551291 5.1850824 -0.42038414
-5.460371 5.1900644 0
-6.8016081 6.4649062 0.52414674
-5.4670491 5.1838527 -0.4208197
-5.4741921 5.1906257 0
-6.816957 6.4638343 0.52472728
-5.4751945 5.1790266 -0.42096472
-5.476675 5.1804271 0
-6.8379784 6.4680939 0.52574342
-5.4833364 5.1741891 -0.42110971
-5.4980731 5.1880946 0
-6.849565 6.4633899 0.5260334
-5.5009403 5.1782494 -0.42198083
-5.5138111 5.1903648 0
-6.8592672 6.4568954 0.52617896
-5.5166626 5.180491 -0.42270637
-5.5257716 5.189045 0
-6.88411 6.4646096 0.52748507
-5.5210233 5.1720467 -0.42256138
-5.5377374 5.1877041 0
-6.8976068 6.4616179 0.52792066
-5.56178 5.1850476 -0.84753096
-5.5506101 5.1746345 -0.42386749
-5.5597739 5.1831775 0
-6.9265008 6.4573283 0.52893621
-5.5604649 5.171278 -0.84637779
-5.562561 5.1732273 -0.42430249
-5.5736556 5.1835456 0
-6.9400082 6.4542646 0.52937174
-5.5648079 5.1627913 -0.84608865
-5.5745244 5.1718059 -0.42473805
-5.579915 5.1768069 0
-6.9516082 6.4494052 0.52966177
-5.5691457 5.1543083 -0.84580064
-5.582675 5.1668296 -0.42488307
-5.5938058 5.1771317 0
-6.9746523 6.455121 0.53082287
-5.5620651 5.1352916 -0.84378231
-5.6003723 5.17066 -0.42575416
-5.6077061 5.1774306 0
-6.9881763 6.4519782 0.53125846
-5.5644646 5.1250663 -0.84320629
-5.6161709 5.1726894 -0.42647973
-5.6196952 5.1759353 0
-7.0017028 6.4488125 0.53169399
-5.5592289 5.1078424 -0.8414771
-5.6166749 5.1606236 -0.42604417
-5.6297817 5.1726661 0
-7.0267086 6.4561687 0.53300011
-5.5615797 5.0976229 -0.84089994
-5.6344032 5.164371 -0.42691529
-5.6437016 5.172894 0
-7.0421667 6.4546967 0.53358066
-5.5639215 5.0874114 -0.84032393
-5.6483097 5.1645727 -0.42749584
-5.6595497 5.17485 0
-7.0518765 6.4479342 0.53372568
-5.5566859 5.0684819 -0.83830559
-5.6526208 5.1559882 -0.42735028
-5.6734891 5.1750231 0
-7.0711775 6.4499121 0.5345962
-5.5628061 5.0617642 -0.83830559
-5.674222 5.1631446 -0.42851141
-5.6912837 5.1786699 0
-7.0866532 6.4483585 0.53517681
-5.5631709 5.0498219 -0.83744043
-5.6862302 5.1615257 -0.42894697
-5.6975369 5.1717892 0
-7.1021357 6.4467769 0.53575736
-5.5604777 5.0412531 -0.8365764
-5.6970477 5.1650705 -0.42952752
-5.7025943 5.1700993 0
-7.1118064 6.4477224 0.53619289
-5.5569682 5.0258508 -0.83513409
-5.7148438 5.1686378 -0.43039808
-5.7223425 5.1754198 0
-7.1311512 6.4495788 0.53706348
-5.5630369 5.0191326 -0.83513409
-5.7210851 5.1617284 -0.43039808
-5.7305226 5.1702433 0
-7.1408739 6.4427032 0.53720903
-5.5594869 5.0037575 -0.83369291
-5.735043 5.1617651 -0.43097863
-5.7425704 5.16854 0
-7.1621675 6.4462333 0.53822458
-5.5539851 4.9866714 -0.83196372
-5.7432151 5.1565728 -0.43112418
-5.7546229 5.1668153 0
-7.1699514 6.4375749 0.53822458
-5.5580816 4.9782333 -0.83167571
-5.757184 5.1565642 -0.43170476
-5.7724895 5.1702728 0
-7.197084 6.4462461 0.53967625
-5.5505896 4.9594488 -0.82965738
-5.769218 5.1547928 -0.43213975
-5.7864952 5.1702299 0
-7.2087398 6.4410048 0.53996623
-5.5565782 4.9527383 -0.82965738
-5.7812634 5.1530066 -0.43257532
-5.7985682 5.1684313 0
-7.2184548 6.4340167 0.54011124
-5.5548272 4.939146 -0.8285042
-5.7991328 5.1563735 -0.43344587
-5.8048091 5.1614208 0
-7.2359385 6.433928 0.54083735
-5.5491848 4.9221358 -0.82677501
-5.801475 5.1459174 -0.43315586
-5.8188295 5.1613111 0
-7.251483 6.4320774 0.5414179
-5.5531855 4.9137082 -0.82648587
-5.8213124 5.150959 -0.43417197
-5.8289561 5.157722 0
-7.2611938 6.4250307 0.54156291
-5.5591187 4.9069948 -0.82648587
-5.8372707 5.1525173 -0.43489754
-5.842988 5.1575642 0
-7.2806368 6.4265666 0.5424335
-5.559226 4.8951511 -0.82562184
-5.8512931 5.152329 -0.43547809
-5.853126 5.1539435 0
-7.3117986 6.4383712 0.54417515
-5.5573635 4.8816023 -0.82446867
-5.8672733 5.1538277 -0.43620366
-5.8710771 5.1571693 0
-7.3137145 6.4243851 0.54373962
-5.5554767 4.8680654 -0.8233155
-5.8695841 5.1433063 -0.43591309
-5.8890524 5.1603656 0
-7.3332014 6.4258218 0.54461074
-5.55162 4.8528395 -0.82187432
-5.8836203 5.1430511 -0.43649366
-5.8952832 5.1532459 0
-7.35074 6.4255052 0.54533625
-5.5477271 4.8376236 -0.82043201
-5.8917942 5.1376505 -0.43663922
-5.9113111 5.1546693 0
-7.368289 6.4251556 0.54606181
-5.5496688 4.8275247 -0.81985599
-5.9019151 5.1339355 -0.43692923
-5.9175353 5.1475229 0
-7.3917313 6.4298911 0.54722297
-5.5535464 4.8191218 -0.81956798
-5.9238148 5.1404243 -0.43809032
-7.3998508 6.4212637 0
-7.4014559 6.4226561 0.54736793
-5.549582 4.8039393 -0.81812567
-5.9398427 5.1417646 -0.43881589
-7.4135094 6.417429 0
-7.4111738 6.4154072 0.54751295
-5.5534267 4.7955413 -0.81783766
-5.9480162 5.1362805 -0.43896088
-7.4271693 6.4135709 0
-7.4267869 6.4132409 0.5480935
-5.5553017 4.7854548 -0.81726164
-5.9660339 5.1392684 -0.439832
-7.4388533 6.4079857 0
-7.4443798 6.4127469 0.5488196
-5.5551929 4.7736797 -0.81639647
-5.9722395 5.1320558 -0.439832
-7.4525137 6.4040828 0
-7.4600058 6.410521 0.54940015
-5.5550637 4.7619123 -0.81553131
-6.0395875 5.1772561 -0.4443309
-7.4701242 6.4035406 0
-7.4756298 6.4082603 0.54998016
-5.5481176 4.7501459 -0.81409013
-7.4164362 6.3497491 -0.54534298
-7.4937644 6.4159555 0
-7.4893751 6.4121976 0.55070627
-5.5381193 4.7300005 -0.81178379
-6.2702518 5.3553009 -0.46058598
-7.5074425 6.4119616 0
-7.5129247 6.4166436 0.55186743
-5.5457973 4.7249813 -0.8120718
-6.2826462 5.3527713 -0.46102098
-7.5270743 6.4130158 0
-7.532536 6.4176688 0.55273795
-5.5416503 4.7099032 -0.81063062
-6.2752552 5.3334017 -0.4600054
-7.5467124 6.4140253 0
-7.5482049 6.4152937 0.5533185
-5.5414243 4.6981907 -0.80976659
-6.2697997 5.3157296 -0.45913431
-7.5504904 6.4015388 0
-7.5519834 6.4028044 0.55302799
-5.5391974 4.6848106 -0.80861342
-6.2484455 5.2846613 -0.45710263
-6.2428231 5.2799058 0
-7.5874939 6.41717 0.55506021
-5.5389218 4.6731086 -0.80774826
-6.2170901 5.2452698 -0.45434484
-6.2551675 5.2773952 0
-7.5932584 6.406323 0.55491519
-5.5425873 4.6647487 -0.80746025
-6.219451 5.2344108 -0.45405483
-6.2615395 5.2698331 0
-7.5910478 6.388773 0.55418909
-5.542275 4.6530576 -0.80659509
-6.2058744 5.210187 -0.45260373
-6.2698941 5.2639351 0
-6.1679692 5.1783633 0.44983923
-5.5399613 4.6397142 -0.80544192
-6.1982188 5.1910043 -0.45158759
-6.2762499 5.2563553 0
-6.1861782 5.1809206 0.45071036
-5.533658 4.6230702 -0.80371273
-6.2064786 5.1851759 -0.45173261
-6.2945762 5.2587762 0
-6.1964178 5.1767707 0.45100036
-5.533277 4.6114116 -0.80284756
-6.2007666 5.1676946 -0.45086205
-6.2889338 5.2411728 0
-6.1986804 5.1659555 0.45071036
-5.5348635 4.6014118 -0.80227041
-6.2030058 5.1568727 -0.45057148
-6.2732468 5.2152672 0
-6.2049179 5.158462 0.45071036
-5.5344524 4.5897722 -0.80140638
-6.1892352 5.1327896 -0.44912037
-6.2715383 5.2010446 0
-6.2131443 5.1526179 0.45085534
-5.5320225 4.5764871 -0.80025321
-6.1814156 5.1137118 -0.44810426
-6.2657828 5.1835065 0
-6.2253742 5.1500773 0.45129091
-5.5355554 4.5681543 -0.7999652
-6.1875901 5.1062388 -0.44810426
-6.2579889 5.1643348 0
-6.2355971 5.1458559 0.45158091
-5.535078 4.5565295 -0.79910004
-6.1897469 5.095459 -0.44781426
-6.25418 5.1485009 0
-6.2498345 5.1449237 0.45216146
-5.5425768 4.5514779 -0.79938805
-6.222003 5.1094122 -0.44970092
-6.2644229 5.1442466 0
-6.2660856 5.1456118 0.45288703
-5.5360708 4.5349464 -0.79765886
-6.2583184 5.126585 -0.45187759
-6.2645922 5.1317244 0
-6.2783308 5.1429782 0.45332259
-5.5375371 4.5249772 -0.79708171
-6.2886534 5.1387496 -0.45361927
-6.282876 5.1340284 0
-6.2905788 5.1403227 0.45375815
-5.5389948 4.515018 -0.79650569
-6.312983 5.1459212 -0.45492539
-6.2951283 5.1313677 0
-6.3028216 5.1376386 0.45419315
-5.527679 4.5002379 -0.79448736
-6.3261719 5.1503139 -0.45565152
-6.3022676 5.1308527 0
-6.3200321 5.1453147 0.45520926
-5.5250816 4.4870334 -0.79333419
-6.3344059 5.1443024 -0.45579651
-6.3165436 5.1297965 0
-6.3363276 5.1458635 0.45593482
-5.5345225 4.4836135 -0.79391134
-7.7740655 6.2979069 -0.55884022
-6.3348665 5.1319866 0
-6.3425407 5.1382036 0.45593482
-5.5338988 4.4720445 -0.79304618
-7.743268 6.2574759 -0.55608243
-6.3430853 5.1259627 0
-6.3628941 5.1419702 0.45695093
-5.5332556 4.4604831 -0.79218102
-6.3813295 5.144135 -0.45782819
-6.3553548 5.1231961 0
-6.3691025 5.1342783 0.45695093
-5.5285649 4.4456911 -0.79073983
-6.3915944 5.1396804 -0.45811874
-6.3696527 5.1220365 0
-6.3874474 5.1363454 0.45782149
-5.5332317 4.4274688 -0.78987467
-6.3350182 5.0690255 -0.45318428
-6.4084272 5.1277647 0
-6.4180994 5.1355038 0.4591276
-5.5264521 4.4111013 -0.78814548
-6.292398 5.0224638 -0.44970092
-6.4166503 5.1216393 0
-6.4344602 5.1358547 0.45985371
-5.5236845 4.3979764 -0.78699231
-6.2700067 4.9922009 -0.44766927
-6.433012 5.1219864 0
-6.4508228 5.136167 0.46057928
-5.5249395 4.3880787 -0.78641516
-6.2536497 4.9668427 -0.44607258
-6.4473481 5.1206837 0
-6.467196 5.1364479 0.46130484
-5.5241618 4.3765855 -0.78555113
-6.2576118 4.9576707 -0.44592759
-6.4596524 5.1177397 0
-6.4754324 5.1302419 0.46144983
-5.5314732 4.3715096 -0.78583914
-6.2452517 4.935607 -0.44462147
-6.4760385 5.1179972 0
-6.491818 5.1304679 0.4621754
-5.5245681 4.3552184 -0.78410995
-6.2532496 4.9296646 -0.44476646
-6.492435 5.1182232 0
-6.5041366 5.1274476 0.46261096
-5.5257564 4.3453388 -0.7835328
-6.2734933 4.9333439 -0.44578204
-6.5047536 5.115202 0
-6.5205379 5.1276145 0.4633365
-5.5269365 4.3354692 -0.78295678
-6.2937632 4.9369879 -0.44679815
-6.515029 5.1105542 0
-6.5349069 5.1261468 0.46391708
-4.880362 3.8187637 -0.69070762
-4.9593849 3.8805969 -0.35173666
-6.517096 5.0994678 0
-6.5472374 5.1230526 0.46435264
-4.9216695 3.8415067 -0.69589633
-4.9599771 3.871407 -0.35144666
-6.5396657 5.1043997 0
-6.5677633 5.1263309 0.46536875
-4.9263077 3.835557 -0.69589633
-4.9338951 3.8414648 -0.34926942
-6.5622563 5.1092849 0
-6.5780492 5.1215806 0.46565875
-4.9186859 3.8200858 -0.69416714
-4.7415366 3.682503 -0.33533716
-6.5745935 5.106142 0
-6.6027007 5.1279716 0.46696487
-4.9212475 3.812551 -0.69387805
-4.5241432 3.5049095 -0.31966266
