# .PCD v0.7 - Point Cloud Data file format
VERSION 0.7
FIELDS x y z
SIZE 4 4 4
TYPE F F F
COUNT 1 1 1
WIDTH 1703
HEIGHT 1
VIEWPOINT 0 0 0 1 0 0 0
POINTS 1703
DATA ascii
-2.2693923 5.908412 -0.70546621
-0 0 -0
-7.3985295 19.262234 0
-3.065769 7.9817963 0.47758836
-2.280251 5.915319 -0.70661938
-0 0 -0
-7.4105659 19.22414 0
-3.0707352 7.9659562 0.47686222
-2.285532 5.9077396 -0.70604336
-0 0 -0
-7.4394212 19.229729 0
-3.0831718 7.9695129 0.47729778
-2.2926688 5.9049735 -0.70604336
-0 0 -0
-7.4701867 19.240135 0
-3.0871582 7.9512525 0.47642723
-2.3026166 5.9094224 -0.70690739
-0 0 -0
-7.4915414 19.22625 0
-3.0882738 7.9257283 0.47512111
-2.3097553 5.9066358 -0.70690739
-0 0 -0
-7.5166607 19.222027 0
-3.0978482 7.9219909 0.47512111
-2.3133233 5.9052391 -0.70690739
-0 0 -0
-6.6853676 17.065792 0
-3.0969453 7.9055967 0.47424999
-2.3195117 5.9000349 -0.70661938
-0 0 -0
-6.7526398 17.17638 0
-3.1064954 7.9018493 0.47424999
-2.330436 5.9068518 -0.70777255
-0 0 -0
-6.7905798 17.211779 0
-3.1103208 7.8835917 0.47337943
-2.3404288 5.9112482 -0.70863771
-0 0 -0
-6.8152041 17.21324 0
-3.1236706 7.8894916 0.47395998
-0 0 -0
-2.346612 5.9060054 -0.70834857
-0 0 -0
-6.8350377 17.202578 0
-6.5852017 16.573784 0.99614477
-0 0 -0
-2.3518324 5.8983655 -0.70777255
-0 0 -0
-6.8577447 17.199135 0
-6.6013732 16.55616 0.99556422
-0 0 -0
-2.3628011 5.9051247 -0.70892572
-0 0 -0
-6.8746543 17.181171 0
-6.610754 16.521631 0.99396753
-2.3747525 5.9142642 -0.7103669
-0 0 -0
-6.8847413 17.146284 0
-6.6394253 16.535332 0.99527365
-2.3789961 5.904191 -0.70950174
-0 0 -0
-6.9093447 17.147608 0
-6.6564898 16.520073 0.99483865
-2.3871007 5.903717 -0.70979089
-0 0 -0
-6.9290848 17.136837 0
-6.6676769 16.49033 0.993532
-2.3952041 5.903223 -0.7100789
-0 0 -0
-6.9400034 17.104342 0
-6.6670861 16.431709 0.99048477
-2.404284 5.9051108 -0.71065491
-0 0 -0
-6.9528146 17.07666 0
-6.6781144 16.401976 0.98917806
-0 0 -0
-2.4143531 5.9093866 -0.71152008
-0 0 -0
-6.9773803 17.077883 0
-6.697928 16.393894 0.98917806
-2.4214916 5.9064651 -0.71152008
-0 0 -0
-6.9989967 17.071846 0
-3.488831 8.509903 0.51372623
-2.4325628 5.9131031 -0.71267325
-0 0 -0
-7.0532818 17.145203 0
-3.4823062 8.4648323 0.51125902
-2.4367442 5.9029846 -0.71180809
-0 0 -0
-7.0799532 17.151106 0
-3.4855905 8.4438028 0.51024294
-2.4458563 5.90482 -0.71238524
-0 0 -0
-3.5573218 8.5881348 0
-3.4898224 8.4251766 0.50937182
-2.4569602 5.9114137 -0.71353841
-0 0 -0
-3.5397289 8.5165405 0
-3.4900291 8.3969641 0.50792068
-2.4641013 5.9084406 -0.71353841
-0 0 -0
-6.2235284 14.922824 0
-3.496172 8.3831472 0.50734013
-2.4742312 5.9126101 -0.71440244
-0 0 -0
-6.242559 14.917691 0
-3.4982741 8.3597403 0.50617903
-2.4813735 5.909616 -0.71440244
-0 0 -0
-6.2545323 14.895736 0
-3.5073676 8.3531141 0.50603402
-2.4935365 5.9185386 -0.71584475
-0 0 -0
-6.2694979 14.88098 0
-3.5154424 8.3440857 0.50574398
-2.5006859 5.9155211 -0.71584475
-0 0 -0
-3.6306381 8.5884895 0
-3.5224857 8.3326492 0.50530845
-2.503792 5.9029708 -0.71469158
-0 0 -0
-3.6125584 8.5170116 0
-3.5325515 8.3283873 0.50530845
-2.5190256 5.9189801 -0.71699792
-0 0 -0
-3.6146939 8.4934835 0
-3.5415957 8.3217239 0.50516343
-2.518544 5.9079399 -0.71584475
-0 0 -0
-0 0 0
-3.5435646 8.3124094 0.5047279
-2.5317817 5.9191566 -0.71757394
-0 0 -0
-3.6116614 8.4438515 0
-3.553606 8.3081217 0.5047279
-2.5430121 5.9256005 -0.71872711
-0 0 -0
-3.6218617 8.4394817 0
-3.564666 8.3062067 0.50487292
-2.5491483 5.9201503 -0.7184391
-0 0 -0
-3.6248507 8.4183645 0
-3.5777836 8.3090563 0.50530845
-2.555275 5.9146934 -0.71815109
-0 0 -0
-3.6381173 8.4211483 0
-3.587821 8.3047266 0.50530845
-2.5685899 5.9258361 -0.71988028
-2.8518167 6.5792513 -0.40052974
-3.6493242 8.4191313 0
-3.5978529 8.3003855 0.50530845
-2.5757482 5.9227281 -0.71988028
-2.8369679 6.5233822 -0.39733696
-3.6563797 8.4075537 0
-3.6151307 8.312705 0.50632399
-2.5870402 5.9290938 -0.72103345
-2.8199081 6.462791 -0.3938536
-3.6509271 8.3673573 0
-3.6251724 8.3083315 0.50632399
-2.5931664 5.9235964 -0.72074544
-0 0 -0
-3.6610346 8.3629389 0
-3.642504 8.32061 0.50734013
-2.6044824 5.9299312 -0.72189862
-2.756108 6.2751555 -0.38282356
-3.6753232 8.368041 0
-3.6598706 8.3328581 0.50835621
-2.6074736 5.9173126 -0.72074544
-2.7280653 6.190979 -0.3778891
-3.6833308 8.3588257 0
-3.6793659 8.3498278 0.50966233
-2.6208947 5.9283466 -0.72247463
-0 0 -0
-3.7028978 8.3757896 0
-3.7010105 8.371521 0.51125902
-2.6270084 5.9228134 -0.72218663
-2.7356427 6.1677389 -0.37687299
-3.7109072 8.3665562 0
-3.7037475 8.3504133 0.51024294
-2.6394198 5.931448 -0.72362781
-2.7166841 6.1050811 -0.37324464
-3.7220709 8.3644409 0
-3.709609 8.3364363 0.50966233
-2.6476381 5.930614 -0.72391582
-2.7558391 6.1729808 -0.37759909
-3.7247515 8.3433094 0
-3.7249746 8.3438091 0.5103879
-2.6537459 5.9250522 -0.72362781
-2.725059 6.0842738 -0.37237409
-3.7348301 8.3388023 0
-3.7350538 8.3393021 0.5103879
-2.6662028 5.9336352 -0.72506899
-2.7494488 6.1188993 -0.37469631
-3.7470345 8.3390274 0
-3.7323472 8.3063402 0.50864625
-2.6701846 5.9233422 -0.72420496
-0 0 -0
-3.7581763 8.3368635 0
-3.7466526 8.3113003 0.5092268
-2.6879959 5.9436741 -0.72708732
-0 0 -0
-3.7703938 8.3370638 0
-3.747057 8.2854614 0.50792068
-2.690901 5.9310002 -0.72593415
-0 0 -0
-3.7804649 8.3325014 0
-3.7527711 8.2714624 0.50734013
-2.7023516 5.937161 -0.72708732
-2.789753 6.1291847 -0.37614742
-3.7959199 8.3397684 0
-3.7530758 8.2456388 0.50603402
-2.7170448 5.9503632 -0.72910565
-2.8133473 6.1612668 -0.37832466
-3.8070741 8.3375416 0
-3.7705927 8.2576466 0.5070501
-2.7299802 5.9501262 -0.72968167
-2.8299267 6.167964 -0.37905023
-3.8265204 8.3400888 0
-3.7725499 8.2224579 0.50530845
-2.735007 5.9421287 -0.72910565
-2.8232548 6.1338573 -0.37716353
-3.8191848 8.2976341 0
-3.7781367 8.2084522 0.5047279
-2.7465179 5.9482036 -0.73025769
-2.829576 6.1280842 -0.37701854
-3.8455739 8.3284569 0
-3.783695 8.1944447 0.50414735
-2.7602279 5.9589663 -0.73198801
-3.9476266 8.5224028 -0.52461743
-3.8556345 8.3238039 0
-3.7859476 8.1733599 0.50313121
-2.7685151 5.9579701 -0.73227602
-3.9601135 8.5223446 -0.52490801
-3.8755586 8.3403788 0
-3.7991068 8.1758509 0.5035668
-2.7768037 5.9569626 -0.73256403
-3.9726017 8.5222588 -0.52519798
-3.8856335 8.3356895 0
-3.7991035 8.1500607 0.50226068
-2.7894807 5.9653249 -0.73400635
-3.9817967 8.5151005 -0.52505296
-3.8813725 8.3003435 0
-3.800143 8.1266336 0.50109953
-2.7966866 5.9619498 -0.73400635
-4.0086322 8.5455637 -0.52722967
-3.9201334 8.3569031 0
-3.8143737 8.1314459 0.50168008
-2.8115942 5.9749417 -0.73602355
-4.0178494 8.5383654 -0.52708465
-3.9213634 8.3333216 0
-3.8241963 8.1268311 0.50168008
-2.822125 5.9785595 -0.73688871
-4.034821 8.5476074 -0.52795577
-3.9325397 8.3309288 0
-3.8317926 8.1175003 0.50138956
-2.8348804 5.9868312 -0.73832989
-6.1623683 13.013972 -0.80428684
-3.9704463 8.3849716 0
-3.8315909 8.0917301 0.50008345
-2.8476601 5.9950805 -0.73977107
-6.16471 12.978352 -0.80254519
-3.9694111 8.3566647 0
-3.8413653 8.0870943 0.50008345
-2.8526788 5.9869699 -0.73919505
-6.1625037 12.933361 -0.80022293
-3.9985354 8.3917999 0
-3.8567219 8.0941734 0.50080901
-2.8621395 5.9881816 -0.73977107
-6.1669235 12.902466 -0.7987718
-4.0086722 8.3869629 0
-3.8676231 8.0918589 0.50095457
-2.88503 6.017375 -0.74380773
-6.1577969 12.843462 -0.79557902
-4.0390534 8.4243488 0
-3.8729041 8.0778074 0.50037396
-2.8979027 6.025537 -0.74524891
-6.1643014 12.817278 -0.79441792
-6.1200752 12.72532 0
-3.8804071 8.0684338 0.50008345
-2.8849542 5.9801035 -0.74006021
-6.1583309 12.765352 -0.79166013
-6.1184835 12.682754 0
-3.8957975 8.0754385 0.50080901
-6.1533794 12.715804 -0.7890479
-6.1247349 12.65661 0
-3.9066873 8.0730715 0.50095457
-6.1539898 12.677973 -0.78716123
-6.124115 12.616427 0
-3.9119005 8.0589943 0.50037396
-6.1522403 12.635482 -0.78498399
-6.1211262 12.571581 0
-3.9273219 8.0659409 0.50109953
-6.1640854 12.621041 -0.784549
-6.1271753 12.545467 0
-3.9393437 8.065855 0.50138956
-6.1633248 12.580911 -0.78251678
-6.1251588 12.503004 0
-3.9582319 8.0797567 0.50255066
-6.1636252 12.543139 -0.78063011
-6.1081243 12.430194 0
-3.9679918 8.0749683 0.50255066
-6.1482587 12.492794 -0.77772784
-6.1018429 12.39848 0
-3.9774592 8.0818949 0.50313121
-6.1495466 12.457397 -0.77598619
-6.1029954 12.363095 0
-3.9803226 8.0631075 0.50226068
-6.1357703 12.391743 -0.77235782
-6.1075373 12.334723 0
-0 0 0
-6.1345592 12.351744 -0.77032614
-6.1004453 12.283055 0
-0 0 0
-6.1019764 12.248965 -0.76437557
-6.0932326 12.231414 0
-0 0 0
-6.080771 12.169533 -0.75987667
-6.0893955 12.186793 0
-0 0 0
-6.0430803 12.057642 -0.75334555
-6.0854635 12.142209 0
-7.1920891 14.350238 0.89658386
-0 0 -0
-6.0273037 11.989974 -0.74957222
-6.0861039 12.106944 0
-6.3306689 12.593451 0.78729951
-0 0 -0
-6.01371 11.926998 -0.74608886
-6.0808105 12.060079 0
-6.3505607 12.595074 0.78788006
-0 0 -0
-6.0093541 11.882622 -0.74376661
-6.0754132 12.013244 0
-6.3587408 12.573483 0.78700954
-6.0107808 11.849868 -0.74217051
-6.0781493 11.98268 0
-6.3739285 12.56579 0.78700954
-6.0144916 11.821755 -0.7408644
-6.0737462 11.938223 0
-6.3808584 12.541865 0.7859934
-6.0075097 11.772813 -0.73825157
-6.0739717 11.903058 0
-6.3948283 12.531835 0.78584844
-6.0087113 11.740108 -0.73665547
-6.072937 11.865595 0
-6.40523 12.514846 0.78526783
-6.0003448 11.688915 -0.73389769
-6.0801363 11.844353 0
-6.3883109 12.444689 0.78134948
-0 0 -0
-3.8704245 7.5173731 -0.94243097
-6.0049486 11.663175 -0.73273659
-6.0622816 11.77453 0
-6.3843122 12.399998 0.77902728
-3.878315 7.510386 -0.94214183
-5.9987702 11.616664 -0.73026931
-6.0609822 11.737138 0
-6.3754454 12.346098 0.77612448
-3.8861985 7.5033998 -0.94185382
-6.0080218 11.600178 -0.72968876
-6.0727639 11.72518 0
-6.3867726 12.331462 0.77568895
-0 0 -0
-6.0509386 11.648553 0
-6.4196362 12.358326 0.77786618
-3.90432 7.4939866 -0.94185382
-0 0 -0
-6.0565953 11.625083 0
-10.450377 20.058546 1.2633325
-3.9193602 7.5007234 -0.943295
-0 0 -0
-0 0 0
-10.472201 20.041302 1.2630424
-3.933223 7.5051455 -0.94444817
-6.0483389 11.541086 -0.7278021
-0 0 0
-10.508469 20.051645 1.2644936
-3.9362729 7.4889426 -0.94300699
-6.0634875 11.536067 -0.72794712
-6.0877943 11.582313 0
-10.53511 20.043537 1.2647841
-0 0 -0
-3.9395928 7.4842763 -0.94271898
-6.0801387 11.550797 -0.72910821
-6.0935798 11.576332 0
-10.554477 20.050961 1.2656547
-0 0 -0
-3.9425969 7.4680762 -0.9412778
-6.0819621 11.520467 -0.72765708
-6.0978432 11.550549 0
-10.577485 20.035896 1.2655097
-0 0 -0
-6.1007414 11.522296 -0.72823769
-6.1312795 11.579972 0
-10.617492 20.052954 1.2673963
-0 0 -0
-6.1158772 11.517208 -0.72838265
-6.1464868 11.574852 0
-10.641714 20.04011 1.2673963
-6.1371198 11.523575 -0.72925377
-6.1604681 11.567416 0
-6.4631696 12.135795 0.76799721
-0 0 -0
-6.1547084 11.523021 -0.72968876
-6.1842494 11.578329 0
-6.4521217 12.079846 0.76494944
-6.1710835 11.520161 -0.72997934
-6.198235 11.570848 0
-10.181806 19.007366 1.2044089
-0 0 -0
-4.0823135 7.5987782 -0.9614566
-6.1886892 11.519566 -0.73041487
-6.2109814 11.56106 0
-10.209684 19.004206 1.2049894
-4.0730934 7.5596914 -0.95713305
-6.2050667 11.51665 -0.7307049
-6.2335882 11.569587 0
-10.225246 18.978134 1.2041188
-4.0564046 7.5069809 -0.95107919
-6.2177434 11.50686 -0.73055989
-6.2438507 11.555175 0
-10.218524 18.9109 1.2006356
-4.0543828 7.4816098 -0.94848484
-6.2130709 11.465068 -0.72838265
-6.2739263 11.577365 0
-10.215369 18.850565 1.1975877
-4.0671215 7.4835162 -0.94934887
-6.2430491 11.48723 -0.73026931
-6.2866693 11.567492 0
-10.204641 18.776573 1.1936694
-4.0724511 7.4717898 -0.94848484
-6.2544398 11.47512 -0.72997934
-6.3043747 11.566735 0
-10.213641 18.73913 1.1920727
-4.0777531 7.460053 -0.94761968
-6.2832565 11.494914 -0.73172098
-6.3245912 11.570535 0
-10.191414 18.644701 1.1868483
-4.1128726 7.5027471 -0.95367354
-6.2996368 11.491867 -0.73201102
-6.3310585 11.549187 0
-10.157729 18.52984 1.1803172
-4.1406221 7.531764 -0.95799708
-6.3160238 11.488805 -0.73230159
-6.3562918 11.562052 0
-10.147567 18.458355 1.1765438
-4.1522198 7.5312896 -0.95857424
-6.3349195 11.490267 -0.73288214
-6.3702574 11.554363 0
-10.156061 18.421047 1.1749471
-4.1541038 7.4918294 -0.95482671
-6.3651862 11.479465 -0.73317212
-6.405736 11.552595 0
-10.162748 18.328279 1.1705933
-4.1593809 7.480021 -0.95396155
-6.3891544 11.489933 -0.73433322
-6.4184265 11.542575 0
-10.148267 18.250132 1.1663843
-4.1633773 7.4659538 -0.95280838
-6.410624 11.495817 -0.7352038
-6.4374342 11.543894 0
-10.150063 18.201544 1.1640621
-4.1622958 7.4428577 -0.95050204
-6.4219756 11.483531 -0.73491383
-6.459002 11.54974 0
-10.153028 18.155254 1.1618854
-4.1642666 7.435833 -0.94992602
-6.4149451 11.454708 -0.73331714
-6.4697948 11.552649 0
-10.141143 18.108313 1.1592731
-4.1745133 7.4330487 -0.95021403
-6.3664398 11.335945 -0.726206
-6.4850225 11.547091 0
-10.122299 18.023548 1.1546288
-4.1796827 7.421236 -0.94934887
-6.8978095 12.247406 -0.78512955
-6.49897 11.539247 0
-10.117293 17.96376 1.1515809
-4.1911931 7.4206891 -0.94992602
-6.9011035 12.218701 -0.78382343
-6.5077887 11.522321 0
-10.113434 17.906273 1.1486782
-4.1925058 7.4021115 -0.9481957
-6.8915296 12.167394 -0.78106564
-6.5075965 11.489538 0
-10.109456 17.848827 1.1457759
-6.8908267 12.131945 -0.779324
-9.9801264 17.570946 0
-10.102779 17.786888 1.1425825
-6.910625 12.132641 -0.77990454
-9.9846058 17.529478 0
-10.097258 17.727255 1.1395347
-6.9239922 12.122027 -0.77975953
-10.000617 17.508362 0
-10.09032 17.665407 1.1363419
-6.9283023 12.095614 -0.77859843
-10.010124 17.475943 0
-10.088413 17.612619 1.1337297
-5.9049864 10.280262 -0.66220242
-10.024748 17.452543 0
-10.107096 17.595907 1.1334392
-5.9057326 10.252857 -0.6608963
-5.9620509 10.35063 0
-10.12965 17.585939 1.1335847
-5.9077196 10.227713 -0.6597352
-5.9537258 10.307362 0
-10.156091 17.582687 1.1341653
-5.9122615 10.207081 -0.65886462
-5.9557405 10.282144 0
-10.174722 17.565901 1.1338748
-5.9037085 10.163979 -0.65654236
-5.9563971 10.254688 0
-10.20638 17.571569 1.1350359
-5.9042163 10.136632 -0.65523624
-5.9530654 10.220498 0
-10.224991 17.554739 1.1347458
-5.9046664 10.109299 -0.65393013
-5.9509759 10.188584 0
-10.222603 17.501978 1.1321331
-0 0 -0
-5.9024305 10.077491 -0.6523335
-5.9501266 10.158925 0
-10.901649 18.612886 1.2048445
-5.905395 10.054674 -0.65131789
-5.9465814 10.124799 0
-10.90439 18.56609 1.2026672
-5.899076 10.016181 -0.64928567
-5.9456062 10.095186 0
-10.90704 18.519321 1.2004906
-5.897963 9.9866762 -0.6478346
-5.9419188 10.061104 0
-10.917518 18.485994 1.1991844
-5.8994331 9.9616556 -0.64667344
-5.9461174 10.040485 0
-10.945143 18.481733 1.199765
-5.8942189 9.925478 -0.64478678
-5.9409714 10.004206 0
-10.986038 18.499769 1.2017967
-5.8982329 9.9049578 -0.64391625
-5.9410725 9.9768972 0
-11.005722 18.482012 1.2015061
-5.8915443 9.8665857 -0.64188397
-5.9304423 9.9317284 0
-10.961446 18.357162 1.19425
-5.8841715 9.8407269 -0.64043289
-5.9297595 9.9169683 0
-9.9484472 16.637848 1.0827885
-5.8840332 9.8135548 -0.63912678
-5.9296947 9.8897104 0
-9.9778986 16.641417 1.0838046
-5.8838377 9.786397 -0.63782066
-5.9228692 9.8513165 0
-9.973896 16.58926 1.0811918
-5.8835802 9.7592468 -0.63651395
-5.9199862 9.8196344 0
-9.9684477 16.534922 1.0784346
-5.8792419 9.7254543 -0.63477284
-5.918386 9.790206 0
-9.9655685 16.485064 1.0759673
-5.8775167 9.6961184 -0.63332117
-5.9221144 9.7696905 0
-9.9679708 16.444124 1.0740806
-5.8784313 9.6712456 -0.63216007
-5.9190493 9.7380705 0
-9.9770355 16.414305 1.0729195
-5.8752413 9.6397352 -0.63056397
-5.9172697 9.7086935 0
-9.9941549 16.397797 1.072629
-5.8746905 9.6126766 -0.62925786
-5.9154229 9.6793261 0
-10.005834 16.37241 1.0717584
-5.8727221 9.5834112 -0.62780619
-5.9175992 9.6566448 0
-10.022891 16.355871 1.0714679
-5.8693376 9.5519619 -0.62621003
-5.9115467 9.6206551 0
-10.071213 16.39024 1.0745156
-5.8672419 9.5227356 -0.62475836
-5.910882 9.5935659 0
-5.8535514 9.5005159 0.62330055
-5.8691878 9.5001717 -0.62374282
-5.9115272 9.5687046 0
-5.8759522 9.5111208 0.62446171
-5.8697157 9.4754019 -0.62258172
-5.9148641 9.5482845 0
-0 0 0
-5.863338 9.4396095 -0.62069505
-5.9167838 9.5256529 0
-0 0 0
-5.8664951 9.4192801 -0.61982393
-5.9117789 9.4919882 0
-0 0 0
-0 0 -0
-0 0 -0
-5.8654861 9.3923502 -0.61851782
-5.909461 9.4627676 0
-0 0 0
-0 0 -0
-5.8740749 9.3808565 -0.61822778
-5.911221 9.4401779 0
-5.9333062 9.4754477 0.62446171
-0 0 -0
-5.9074049 9.4087906 0
-5.9406047 9.4616671 0.62402612
-5.8953395 9.3644276 -0.61808223
-0 0 0
-5.9548044 9.4588842 0.62431669
-5.9011021 9.3485088 -0.61750168
-5.9301252 9.3944864 0
-5.960681 9.442893 0.62373614
-5.9150815 9.3581247 -0.6183728
-5.9288487 9.3799047 0
-5.9747124 9.4524651 0.62460667
-5.9277744 9.3531637 -0.61851782
-5.9373889 9.3683338 0
-6.0042109 9.4737692 0.62649333
-5.9418616 9.3503847 -0.61880833
-5.9528933 9.3677444 0
-6.0198359 9.4730883 0.62692893
-5.9573402 9.3497658 -0.61924332
-5.9656053 9.3627377 0
-6.0173178 9.4438982 0.62547779
-5.9714336 9.3469448 -0.6195339
-5.9769139 9.3555222 0
-6.0217257 9.4256649 0.62475169
-5.9911304 9.3528461 -0.62040448
-5.9896164 9.3504829 0
-6.0275097 9.4096384 0.62417167
-6.00383 9.347785 -0.62054944
-6.0051308 9.3498106 0
-6.0416803 9.4067173 0.62446171
-6.0165315 9.3427143 -0.62069505
-6.0262885 9.3578653 0
-6.0657029 9.4190702 0.62576783
-6.034862 9.3463507 -0.62142056
-6.0390015 9.3527613 0
-6.0968099 9.4422903 0.62779945
-6.0461507 9.3390512 -0.62142056
-6.0545425 9.3520136 0
-6.1463437 9.4938126 0.6317184
-6.0588441 9.3339167 -0.62156558
-6.0644174 9.3425016 0
-6.159224 9.4885559 0.63186336
-6.0786252 9.3396597 -0.6224367
-6.0884819 9.354805 0
-6.1791921 9.4941778 0.63273448
-6.0884819 9.3301258 -0.62229115
-6.1040435 9.3539734 0
-6.1792989 9.4692965 0.63157338
-6.106863 9.3336325 -0.62301672
-6.1139183 9.3444157 0
-9.8155069 15.001864 1.0013692
-6.1379709 9.3318768 -0.62388784
-6.1436315 9.3404827 0
-6.2464218 9.4967604 0.63491118
-6.1549644 9.3331299 -0.62446839
-6.1577816 9.3374014 0
-6.2621851 9.4957151 0.63534671
-6.1662374 9.3256865 -0.62446839
-6.177669 9.3429756 0
-6.2722225 9.4859762 0.63520175
-6.1832442 9.3268919 -0.62504894
-6.1903901 9.3376713 0
-6.2793713 9.4718914 0.63476616
-6.1959462 9.3215761 -0.62519395
-6.2045527 9.3345232 0
-6.2922482 9.4664583 0.63491118
-6.2115297 9.3205709 -0.62562948
-6.215827 9.3270197 0
-9.7806597 14.67615 0.98511475
-6.212831 9.3103304 -0.62519395
-6.2257957 9.3297586 0
-9.7736578 14.646461 0.98351806
-6.2110734 9.2833824 -0.62388784
-6.2370644 9.3222294 0
-9.7769022 14.613048 0.98206693
-6.1817551 9.2154484 -0.61982393
-6.2439733 9.3082008 0
-9.7742834 14.571009 0.98003471
-6.1537361 9.1497622 -0.61590558
-6.2624764 9.3114443 0
-9.7686853 14.524697 0.97771305
-6.1894827 9.1789427 -0.6183728
-6.2839093 9.3189774 0
-9.768796 14.487031 0.97597134
-6.2573233 9.2554045 -0.6240328
-6.3053641 9.3264637 0
-9.7702837 14.451535 0.97437471
-6.3005743 9.2951527 -0.62722558
-6.3253927 9.3317671 0
-9.7629547 14.403156 0.97190744
-6.3234854 9.3047256 -0.62838674
-6.3381252 9.3262682 0
-9.7584467 14.359118 0.96973079
-6.3464289 9.3142576 -0.62954783
-6.3523178 9.3228998 0
-9.7567701 14.319403 0.96784413
-6.3576784 9.3065825 -0.62954783
-6.3679833 9.3216667 0
-9.7506132 14.273273 0.96552187
-9.5594273 13.95717 -0.94491959
-6.3836555 9.3204088 0
-9.7458267 14.229322 0.96334463
-6.3993335 9.3191271 0
-9.7438927 14.189692 0.96145797
-6.2779198 9.1186848 -0.6183728
-9.6350393 13.994905 0
-9.7433491 14.152225 0.95971632
-6.2889333 9.1110926 -0.6183728
-9.6342077 13.95756 0
-9.7368298 14.106234 0.9573946
-9.561717 13.816798 -0.93853402
-9.6303291 13.915944 0
-9.7302084 14.060271 0.9550724
-9.5858097 13.815907 -0.93925959
-9.6204357 13.865813 0
-9.7264509 14.018611 0.95304018
-9.6128788 13.819241 -0.94027513
-9.6193485 13.828541 0
-9.7285471 13.985521 0.95158905
-6.3210044 9.0635395 -0.6172117
-9.6166992 13.78916 0
-9.7186861 13.935396 0.94897681
-6.3066397 9.0196962 -0.61474442
-9.6258984 13.766868 0
-9.7161617 13.895961 0.94709015
-6.3041115 8.9929218 -0.61343831
-9.6290827 13.736049 0
-9.7135563 13.856552 0.94520348
-6.3239346 8.9980488 -0.61430889
-9.6217299 13.690336 0
-9.7093716 13.815039 0.94317126
-6.3617458 9.0286388 -0.61692166
-9.6232777 13.657431 0
-9.7036114 13.771441 0.94099456
-6.3936372 9.0506544 -0.61895335
-9.6067343 13.599025 0
-9.7022533 13.734239 0.93925291
-6.402102 9.0510283 -0.61924332
-9.5999231 13.571976 0
-9.6865406 13.694432 0.93693066
-6.4100304 9.0390511 -0.61895335
-9.5997534 13.537012 0
-9.6835413 13.655165 0.93504399
-7.2565441 10.206595 -0.69950145
-9.6085653 13.5148 0
-9.6910028 13.630752 0.93417341
-7.2688713 10.19782 -0.69950145
-9.6022339 13.471397 0
-9.686348 13.589405 0.93214118
-9.5973177 13.430137 0
-9.6710367 13.533297 0.92909342
-6.5277891 9.1114569 -0.62606448
-9.5908079 13.386803 0
-8.2180214 11.470675 0.78817064
-6.4311767 8.9537334 -0.61576056
-9.5842009 13.343496 0
-8.2227774 11.448071 0.78729951
-6.4222527 8.9185457 -0.6138739
-9.5896759 13.317128 0
-9.6608152 13.41592 0.92343336
-6.4284596 8.9044571 -0.61343831
-9.5890017 13.282319 0
-9.6587677 13.378956 0.92169172
-6.4437866 8.9029999 -0.6138739
-9.5867329 13.245424 0
-9.6551218 13.339913 0.91980505
-6.4530087 8.8930979 -0.61372834
-9.569108 13.187494 0
-9.6529207 13.302999 0.91806334
-6.4668097 8.8895016 -0.61401892
-9.5697279 13.154881 0
-9.6475906 13.261912 0.91603172
-6.482141 8.8879814 -0.61445445
-9.573348 13.126486 0
-9.6498289 13.231353 0.9147256
-6.4974723 8.8864288 -0.61488944
-9.5661592 13.083395 0
-9.6443405 13.190321 0.91269392
-6.5112805 8.8827667 -0.61518002
-9.5604239 13.042444 0
-9.6387625 13.149314 0.9106617
-6.5127735 8.8623257 -0.61430889
-9.5638466 13.014106 0
-9.6300297 13.104165 0.90833998
-7.3079453 9.9192238 -0.6881814
-9.5579567 12.973211 0
-9.6335258 13.075783 0.90717888
-7.3075747 9.8936653 -0.6870203
-9.5550709 12.936532 0
-9.6292505 13.036963 0.90529221
-7.3056087 9.8660364 -0.68571419
-9.5567579 12.906156 0
-9.626441 13.00026 0.90355051
-7.3175244 9.8572016 -0.68571419
-9.5490751 12.863252 0
-9.6204615 12.959414 0.90151888
-9.539772 12.834511 0
-9.6127844 12.93274 0.90006721
-9.5334988 12.793755 0
-9.6020117 12.885696 0.89759994
-9.5287046 12.755124 0
-9.6051331 12.857431 0.89643884
-9.5207129 12.71236 0
-9.5973015 12.814625 0.89426214
-9.5266876 12.688356 0
-9.5940561 12.778084 0.89252049
-9.5232306 12.651885 0
-9.5954266 12.747799 0.89121437
-9.5134354 12.607138 0
-9.5842161 12.700937 0.88874716
-9.5192375 12.583177 0
-9.590147 12.676909 0.88787603
-9.5124216 12.542639 0
-9.5740595 12.623913 0.88497376
-9.5102415 12.508346 0
-9.5547047 12.566825 0.88178045
-9.5064173 12.472008 0
-9.4438734 12.389953 0.87016982
-9.4977827 12.4295 0
-9.3641825 12.25466 0.86146206
-7.1700835 9.3598366 -0.65857404
-9.5017138 12.40355 0
-9.3600206 12.218583 0.85972035
-7.1275802 9.2811012 -0.65363961
-9.496089 12.36523 0
-9.3811083 12.215508 0.8603009
-7.1118908 9.214489 -0.6501568
-9.4893751 12.294866 0
-9.4312391 12.219542 0.86218756
-7.1277852 9.2120476 -0.65059179
-9.4787426 12.250458 0
-9.4444084 12.206083 0.86204261
-7.1436906 9.20959 -0.65102738
-9.4807777 12.222545 0
-9.460741 12.196713 0.86218756
-7.1436462 9.1865911 -0.65001124
-9.476368 12.186426 0
-9.4770708 12.18733 0.86233318
-7.1444106 9.1761284 -0.64957625
-9.4693413 12.16222 0
-9.4812365 12.177498 0.86204261
-7.1395016 9.1470022 -0.64812458
-9.4648142 12.12615 0
-9.4991446 12.170134 0.86233318
-7.129734 9.1117668 -0.64623791
-9.4602137 12.09011 0
-9.5074377 12.150461 0.86175257
-7.1247039 9.0827045 -0.64478678
-9.4603605 12.060243 0
-9.5124865 12.126694 0.86088145
-7.1244283 9.0597887 -0.64377069
-9.4556217 12.024255 0
-9.5014391 12.082518 0.85855979
-7.1192865 9.0307722 -0.64231956
-9.4540348 11.992387 0
-9.4918995 12.040418 0.85638255
-7.1269679 9.0180817 -0.64202899
-9.4475422 11.954412 0
-9.4726086 11.98613 0.85333478
-7.1330228 9.0033598 -0.64159399
-9.4490509 11.926669 0
-9.4774065 11.962459 0.8524642
-7.1487403 9.0008326 -0.64202899
-9.4456491 11.892824 0
-9.4692259 11.922508 0.85043198
-7.1628509 8.9962578 -0.64231956
-9.4373207 11.852902 0
-9.4803905 11.906996 0.850142
-7.1558833 8.9652548 -0.64072287
-9.4418983 11.82929 0
-9.4915257 11.891466 0.84985143
-7.1374922 8.9200859 -0.63811064
-9.4431772 11.801617 0
-9.49615 11.86782 0.8489809
-7.1092439 8.8628082 -0.63462728
-9.4541702 11.786134 0
-9.5007248 11.844172 0.84810978
-7.0890141 8.8157434 -0.63187009
-9.4651461 11.770649 0
-9.511775 11.828637 0.84781975
-7.0947671 8.8011007 -0.6314345
-9.4842625 11.765284 0
-9.5260611 11.817135 0.84781975
-7.1021328 8.7884836 -0.63114452
-9.5033751 11.759882 0
-9.5468655 11.8137 0.84840029
-7.1127472 8.7798948 -0.63114452
-9.5224934 11.754459 0
-9.5725842 11.816291 0.84941643
-7.1266236 8.7753248 -0.6314345
-9.5514536 11.761125 0
-9.5884914 11.806731 0.84956145
-7.1355829 8.7646942 -0.63128948
-9.5722303 11.757648 0
-9.6125908 11.807223 0.85043198
-7.1461678 8.7560654 -0.63128948
-9.5963068 11.758174 0
-9.6334229 11.803652 0.85101253
-7.1563907 8.7577848 -0.63172507
-9.6116409 11.762448 0
-9.6471291 11.805879 0.85159314
-7.1735539 8.7571716 -0.63230562
-9.6340904 11.760891 0
-9.6679735 11.802254 0.85217369
-7.2055664 8.7746019 -0.63419229
-9.6532507 11.755277 0
-9.6921244 11.802616 0.85304481
-7.2541423 8.8120241 -0.63753009
-9.6724052 11.749626 0
-9.7113285 11.796908 0.8534798
-7.3243251 8.8754015 -0.64275509
-9.6948824 11.747972 0
-9.737154 11.799196 0.85449588
-7.3698249 8.9085875 -0.64580292
-9.7190199 11.748278 0
-9.7596836 11.797431 0.85522145
-7.388876 8.9096746 -0.64652848
-9.7415133 11.74654 0
-9.7855444 11.799633 0.85623759
-7.3913317 8.8907518 -0.64580292
-9.7590303 11.738767 0
-9.7997952 11.787801 0.85623759
-7.3904228 8.8678398 -0.64478678
-9.7798719 11.734963 0
-9.8256712 11.789918 0.85725313
-7.3728123 8.8250055 -0.64231956
-9.8007126 11.731119 0
-9.8465738 11.786014 0.85783368
-7.360116 8.7882051 -0.64028788
-9.828248 11.735229 0
-9.8658142 11.780086 0.85826927
-7.3573632 8.7633848 -0.63912678
-9.8440981 11.725345 0
-9.8883934 11.778104 0.85899478
-7.3461971 8.7286453 -0.63724011
-9.8666363 11.723395 0
-9.9093103 11.774099 0.85957539
-7.3500361 8.7118187 -0.6366595
-9.8942204 11.727378 0
-9.9352608 11.776022 0.86059147
-7.3504863 8.6910229 -0.63578844
-9.9184637 11.727333 0
-9.9511585 11.76599 0.86073649
-7.364346 8.6861029 -0.63607895
-9.9359961 11.719314 0
-9.9704113 11.759906 0.86117202
-7.3832483 8.6870956 -0.63680452
-9.9585743 11.717213 0
-9.9896574 11.753784 0.86160702
-7.4223862 8.711791 -0.63927174
-9.981163 11.715074 0
-10.01565 11.755552 0.86262316
-7.5206537 8.8055544 -0.64681846
-9.9953108 11.703005 0
-10.050097 11.767152 0.8643648
-7.5802946 8.8536997 -0.65102738
-10.004365 11.684987 0
-10.06938 11.760923 0.86480039
-7.5974817 8.8629303 -0.65204346
-10.031748 11.702651 0
-10.084937 11.7647 0.86552596
-7.6115694 8.8576813 -0.6523335
-10.074714 11.724074 0
-10.104227 11.75842 0.86596149
-7.6307445 8.8583193 -0.65305907
-10.080381 11.702036 0
-10.130294 11.759977 0.86697704
-7.6567316 8.8667984 -0.65436572
-8.3069324 9.6197577 0
-10.1428 11.745764 0.86683208
-7.692945 8.8870039 -0.65654236
-8.2895956 9.5762644 0
-8.2591553 9.5410986 0.70486474
-7.7496605 8.9306927 -0.66046131
-8.2892265 9.5524874 0
-8.304739 9.570364 0.70776755
-7.736567 8.8938713 -0.65842909
-8.2751398 9.5130091 0
-8.3265257 9.5720816 0.70863813
-7.7473083 8.8845167 -0.65842909
-8.2746534 9.4892712 0
-8.3568726 9.5835581 0.71023476
-5.8948922 6.743722 -0.99835581
-7.7494888 8.8653698 -0.65770352
-8.2638493 9.4537945 0
-8.3787041 9.5851879 0.71110535
-5.8979273 6.7307639 -0.99749178
-7.7499232 8.8442774 -0.65683293
-8.2615452 9.4281435 0
-8.3834295 9.5672398 0.7105248
-5.8992281 6.7158594 -0.99633861
-7.7485986 8.8212385 -0.65581685
-8.2677832 9.4122944 0
-8.3795519 9.5395346 0.70921868
-5.8936644 6.6931973 -0.99403226
-7.7472296 8.7982168 -0.65480071
-8.2757072 9.398387 0
-8.3739033 9.5099049 0.70776755
-3.9586575 4.4847507 -0.9972797
-5.8829174 6.6647387 -0.99086076
-7.7544193 8.7849569 -0.65451074
-8.2853365 9.3864317 0
-8.380228 9.4939337 0.70733202
-3.9674726 4.4838052 -0.99813479
-5.8841105 6.6498775 -0.98970759
-7.7667484 8.7775249 -0.65465569
-8.2949495 9.3744669 0
-8.3934135 9.4857445 0.70747697
-3.9524527 4.4559703 -0.99300086
-5.8887119 6.6388965 -0.98913157
-7.7876911 8.7797937 -0.65552628
-8.3131781 9.3722248 0
-8.4117661 9.4833717 0.70805758
-3.9373648 4.4281707 -0.98786521
-5.8864141 6.6201754 -0.98740125
-7.8000259 8.7723246 -0.65567183
-8.3210344 9.3582792 0
-8.4301252 9.4809685 0.70863813
-3.9444189 4.425324 -0.98829281
-5.8892508 6.6072707 -0.98653722
-7.8019767 8.7531967 -0.65494627
-8.337533 9.3540487 0
-8.446763 9.4765968 0.70907366
-3.9412129 4.4109855 -0.98615336
-5.890337 6.5924354 -0.98538405
-7.8056221 8.7360125 -0.65436572
-10.436459 11.68043 0
-8.4564781 9.464447 0.70892864
-3.9482508 4.4081302 -0.98658091
-5.8913956 6.5776062 -0.98423088
-7.8023033 8.7110901 -0.65320462
-10.450564 11.667812 0
-8.4592352 9.4445391 0.70820254
-0 0 -0
-5.8929296 6.5553727 -0.98250055
-7.861506 8.7452431 -0.65683293
-10.487351 11.666268 0
-10.529542 11.713202 0.87974876
-0 0 -0
-5.8887305 6.5348029 -0.98048335
-7.9520731 8.824522 -0.66350853
-10.508409 11.661322 0
-10.561079 11.71977 0.8811999
-3.9754601 4.4009166 -0.98872036
-5.8948903 6.5257654 -0.98019534
-8.0027933 8.8592577 -0.66684687
-10.532955 11.660199 0
-10.575233 11.707001 0.8811999
-3.9790533 4.3942084 -0.98829281
-5.8871412 6.5013771 -0.97759986
-8.0134916 8.8495808 -0.66684687
-10.557521 11.659042 0
-10.599838 11.705774 0.88207102
-0 0 -0
-5.8845654 6.4827719 -0.97587067
-8.0102072 8.8245001 -0.66568577
-10.576844 11.652053 0
-10.619216 11.698731 0.88250655
-3.981024 4.3750882 -0.98615336
-5.8836923 6.4660931 -0.97442949
-7.9928837 8.7840643 -0.66336352
-10.599678 11.648894 0
-10.643833 11.69742 0.88337713
-3.9897642 4.3740644 -0.98700845
-5.8880115 6.4551539 -0.97385234
-7.9824781 8.7513628 -0.66162187
-10.626018 11.649531 0
-10.668463 11.696065 0.88424766
-3.986387 4.3597698 -0.98486906
-5.8888254 6.4403992 -0.97269917
-7.9895434 8.7378798 -0.66133183
-10.643601 11.640529 0
-10.69136 11.69276 0.88497376
-3.9864466 4.3492708 -0.98358476
-5.8843746 6.4199376 -0.97068197
-8.0194101 8.7492924 -0.66292852
-10.671727 11.643007 0
-10.712503 11.687495 0.88555437
-3.9882288 4.3406739 -0.98272961
-5.8851275 6.4052043 -0.96952879
-8.0545855 8.7663803 -0.66496021
-10.692831 11.63777 0
-10.744194 11.693673 0.88700545
-3.9917331 4.3339653 -0.98230207
-5.8770943 6.3809681 -0.96693444
-8.0774899 8.7700148 -0.66597575
-10.719221 11.638236 0
-10.761833 11.684501 0.88729548
-4.0004463 4.3329072 -0.98315716
-5.8883057 6.3776588 -0.96751046
-8.0933704 8.7659779 -0.66641134
-10.742102 11.634834 0
-10.784762 11.681041 0.88802159
-4.0039372 4.3261881 -0.98272961
-5.8854699 6.3591537 -0.96578127
-8.1039562 8.7561922 -0.66641134
-10.763223 11.629486 0
-10.807693 11.677534 0.88874716
-4.01265 4.3251071 -0.98358476
-8.1110001 8.7425871 -0.6661213
-10.782579 11.622197 0
-10.835933 11.679706 0.88990825
-4.01438 4.3164997 -0.98272961
-8.1162472 8.7270708 -0.66568577
-10.805474 11.618688 0
-10.851805 11.668505 0.89005327
-4.0090933 4.3003836 -0.98016262
-8.1303263 8.721055 -0.66597575
-10.831929 11.618949 0
-10.881842 11.672488 0.89135939
-4.0072756 4.288034 -0.97845078
-8.1479549 8.7188187 -0.6665563
-10.860176 11.621064 0
-10.901261 11.665028 0.89179492
-4.0142069 4.2850604 -0.97887832
-8.1655893 8.7165518 -0.66713685
-10.879543 11.613626 0
-10.927779 11.665116 0.89281046
-4.0176263 4.2783375 -0.97845078
-8.1850147 8.716156 -0.66786301
-10.904261 11.611858 0
-10.954319 11.665165 0.8938266
-4.0131764 4.2684283 -0.97673893
-8.190279 8.7112093 -0.66786301
-10.918405 11.612852 0
-10.97204 11.6699 0.89469719
-4.0148067 4.2598362 -0.97588217
-8.1990118 8.6994104 -0.66771746
-10.946708 11.614802 0
-10.995049 11.666094 0.89542329
-4.0093765 4.2437897 -0.97331518
-8.2077351 8.6876097 -0.66757244
-10.97324 11.614803 0
-11.014486 11.658461 0.89585829
-4.0162649 4.2408042 -0.97374272
-8.2200108 8.6795712 -0.66771746
-10.994424 11.609095 0
-11.046435 11.664014 0.89730996
-4.02669 4.2415352 -0.97502702
-8.225131 8.6639843 -0.6672824
-11.017408 11.605244 0
-11.067677 11.658195 0.89789051
-4.0565844 4.2626972 -0.98101777
-8.240962 8.6596813 -0.66771746
-11.042184 11.603231 0
-11.090711 11.654223 0.89861608
-4.07236 4.2689338 -0.98358476
-8.2478361 8.6459599 -0.66742742
-11.065176 11.599294 0
-11.117334 11.65397 0.89963162
-4.0952606 4.2825665 -0.98786521
-10.964485 11.465971 -0.88614106
-11.088175 11.595318 0
-11.135003 11.644288 0.89992219
-4.0968761 4.2739053 -0.98700845
-10.983727 11.458344 -0.88657659
-11.11118 11.591304 0
-11.16345 11.645832 0.90108329
-0 0 -0
-8.4897594 8.8352137 -0.68440807
-11.132391 11.585376 0
-11.188313 11.643573 0.90195388
-4.1000686 4.2565966 -0.98529661
-8.5256624 8.8511457 -0.68643975
-11.160825 11.586911 0
-11.205982 11.633792 0.90224439
-4.1052089 4.2516394 -0.98529661
-8.5417671 8.846447 -0.68687528
-11.182049 11.580906 0
-11.236274 11.637065 0.90355051
-4.1157012 4.2522116 -0.98658091
-8.5470266 8.8305168 -0.68643975
-11.208705 11.580478 0
-11.261166 11.634679 0.90442109
-4.140501 4.2675037 -0.99128896
-8.5305481 8.7922068 -0.68426251
-11.224501 11.568792 0
-11.284261 11.630386 0.90514666
-4.1456547 4.2624974 -0.99128896
-8.5158052 8.7558184 -0.68223083
-11.256619 11.573881 0
-11.307369 11.626061 0.90587276
-4.1490045 4.2556419 -0.99085975
-8.5281906 8.7473812 -0.68237579
-11.283308 11.57331 0
-11.330477 11.621692 0.90659833
-4.1523514 4.2487912 -0.9904322
-8.5569191 8.7556572 -0.68382752
-11.308201 11.570839 0
-11.357219 11.620996 0.90761387
-4.1467066 4.2327719 -0.98786521
-8.5874901 8.7657242 -0.68542361
-11.329459 11.564603 0
-11.378527 11.614689 0.90819442
-4.16081 4.2369146 -0.99000466
-8.6090031 8.766468 -0.68629473
-11.354362 11.562042 0
-11.401661 11.610207 0.90892053
-4.1587229 4.2245665 -0.98829281
-8.6195889 8.7560596 -0.68629473
-11.379274 11.559439 0
-11.426615 11.607529 0.90979111
-4.1666818 4.2275395 -0.98957711
-8.6066341 8.7323408 -0.68484306
-11.395396 11.561834 0
-11.451862 11.619125 0.91124225
-4.1735897 4.2243261 -0.99000466
-8.5715246 8.675725 -0.68121469
-11.423984 11.56286 0
-11.473198 11.612674 0.9118228
-4.1859164 4.2265759 -0.9917165
-8.5436049 8.6265926 -0.67816693
-11.447108 11.558299 0
-11.498196 11.609883 0.91269392
-4.194634 4.2251554 -0.99257165
-8.5265665 8.5886078 -0.67599022
-11.470232 11.553692 0
-11.526861 11.610733 0.91385502
-4.2015524 4.2219086 -0.99300086
-8.522275 8.5635643 -0.67482913
-11.493361 11.549046 0
-11.548214 11.604164 0.91443557
-4.2211475 4.2313609 -0.99642295
-8.5509634 8.5716534 -0.67628026
-11.51466 11.54252 0
-11.573235 11.601236 0.91530615
-4.2353382 4.2353382 -0.998564
-8.5851994 8.5851994 -0.67816693
-11.541482 11.541482 0
-11.594593 11.594593 0.9158867
-4.2240982 4.2139025 -0.99471271
-8.7243347 8.7032766 -0.68832642
-11.572 11.544068 0
-11.626987 11.598923 0.91733778
-4.2455611 4.225091 -0.998564
-8.8471861 8.8045292 -0.6971792
-11.593318 11.53742 0
-11.650201 11.594028 0.91806334
-8.8928566 8.828618 -0.69993699
-11.625716 11.541736 0
-11.669735 11.585437 0.91849893
-8.9072075 8.8215199 -0.70022702
-11.64705 11.535006 0
-11.70034 11.587783 0.91980505
-11.601672 11.462328 -0.91095895
-11.670235 11.530067 0
-11.721726 11.580941 0.9203856
-11.621059 11.453769 -0.91139394
-11.691572 11.523265 0
-11.752366 11.583184 0.92169172
-11.640451 11.445186 -0.91182947
-11.722187 11.52555 0
-11.775622 11.578089 0.92241782
-11.654272 11.431111 -0.91182947
-11.747255 11.522315 0
-11.804438 11.578402 0.92357838
-11.76861 11.515392 0
-11.825848 11.571399 0.92415893
-11.793686 11.512068 0
-11.856562 11.573442 0.92546564
-11.822504 11.512334 0
-11.876117 11.56454 0.92590064
-11.849475 11.510736 0
-11.904992 11.564666 0.92706174
-11.874584 11.507273 0
-11.933885 11.564739 0.92822284
-11.899703 11.503766 0
-11.95719 11.55934 0.9289484
-11.916018 11.505619 0
-11.977258 11.56475 0.92996454
-11.943027 11.503845 0
-12.000578 11.55928 0.93069005
-11.966299 11.49842 0
-12.027654 11.557376 0.93170619
-4.9014978 4.6871219 -0.75591546
-5.6276016 5.3814678 -0.43492597
-12.014743 11.489256 0
-12.0762 11.548025 0.93330228
-0 0 -0
-4.899672 4.6740546 -0.75476229
-5.6322217 5.3728719 -0.43478099
-12.047444 11.49269 0
-12.103309 11.545982 0.93431842
-0 0 -0
-4.9053159 4.6681309 -0.75476229
-0 0 -0
-12.076404 11.492477 0
-12.132309 11.545679 0.93547952
-0 0 -0
-4.9090719 4.6604142 -0.75447315
-0 0 -0
-12.103496 11.490421 0
-12.153789 11.538168 0.93606007
-0 0 -0
-4.9146996 4.6544795 -0.75447315
-5.6610923 5.3613524 -0.43550655
-12.123041 11.481159 0
-12.177154 11.532406 0.93678564
-0 0 -0
-4.925962 4.6538682 -0.75533831
-5.658124 5.3455877 -0.43478099
-12.150142 11.479008 0
-12.204303 11.530177 0.93780178
-4.9334621 4.6496849 -0.75562632
-5.6570148 5.3316183 -0.43420044
-12.179154 11.478598 0
-12.225789 11.522551 0.93838233
-4.9296565 4.6348634 -0.75418514
-5.6577721 5.3194375 -0.43376487
-12.202494 11.472785 0
-12.268094 11.534463 0.94055903
-4.9352531 4.6289034 -0.75418514
-5.6547208 5.3037109 -0.43303931
-12.225843 11.46694 0
-12.293398 11.5303 0.94143009
-4.9483976 4.6300054 -0.75533831
-5.6611252 5.2968745 -0.43303931
-12.260589 11.471713 0
-12.313007 11.520759 0.94186515
-4.946425 4.6169634 -0.75418514
-5.6580253 5.2811666 -0.43231374
-12.272541 11.455115 0
-11.15686 10.413747 0.8524642
-4.9444284 4.6039329 -0.75303197
-5.6529884 5.2636986 -0.43144262
-12.307326 11.459788 0
-11.163729 10.394944 0.85202867
-4.9537816 4.6014791 -0.75360912
-5.644114 5.2427168 -0.43028152
-12.336411 11.459072 0
-11.180084 10.384981 0.85231864
-4.9669266 4.6025224 -0.75476229
-5.6485405 5.2341285 -0.43013653
-12.359798 11.453007 0
-11.183097 10.362636 0.85159314
-4.9629822 4.5877337 -0.75331998
-5.6472282 5.2202444 -0.42955595
-12.385091 11.44866 0
-11.201336 10.354408 0.85202867
-4.9590168 4.572968 -0.7518788
-5.6458912 5.2063708 -0.4289754
-12.410391 11.444269 0
-12.493623 11.521022 0.94926679
-4.9693885 4.5769801 -0.75303197
-5.6394806 5.1941586 -0.42824984
-12.430704 11.449113 0
-12.496762 11.509954 0.94897681
-4.9596786 4.556973 -0.75072563
-5.6400108 5.182065 -0.42781428
-12.461775 11.44993 0
-12.524056 11.507154 0.94999295
-0 0 -0
-4.9651809 4.5509768 -0.75072563
-5.6462679 5.1752462 -0.42781428
-12.483275 11.441897 0
-12.547527 11.50079 0.95071846
-0 0 -0
-0 0 -0
-4.9744978 4.5484681 -0.75130278
-5.6410151 5.1579027 -0.42694372
-12.516301 11.44437 0
-12.580587 11.503151 0.9521696
-4.9685206 4.5319924 -0.74957246
-5.639564 5.1440787 -0.42636317
-12.537805 11.436248 0
-12.604074 11.496696 0.95289516
-4.9644299 4.5172834 -0.74813128
-5.6419353 5.1337662 -0.42607316
-12.568943 11.436858 0
-12.633332 11.495448 0.95405626
-4.9603105 4.5025911 -0.74669009
-5.6442828 5.1234488 -0.42578262
-12.598169 11.435657 0
-12.660683 11.492402 0.9550724
-0 0 -0
-4.9657474 4.4965944 -0.74669009
-5.642765 5.1096487 -0.42520204
-12.613905 11.422171 0
-12.680341 11.482329 0.95550793
-0 0 -0
-4.9673347 4.4871202 -0.74611294
-5.641222 5.0958595 -0.42462149
-12.635423 11.413899 0
-12.698058 11.47048 0.95579797
-0 0 -0
-4.9708333 4.4793849 -0.74582493
-5.6396537 5.0820818 -0.42404094
-7.3850121 6.6548824 0
-12.70998 11.45339 0.95565295
-4.980093 4.4768372 -0.74640208
-5.6341996 5.0648441 -0.42317039
-7.3872395 6.6407332 0
-11.332531 10.187339 0.85115755
-4.9874225 4.4725413 -0.74669009
-5.63451 5.0528264 -0.42273483
-7.3778224 6.6161666 0
-11.346772 10.175379 0.8513031
-4.9754753 4.4509931 -0.74409574
-5.6347995 5.0408154 -0.42229927
-7.3799906 6.6020398 0
-11.360993 10.163391 0.85144812
-4.9962883 4.458755 -0.74640208
-5.6331315 5.0270824 -0.42171872
-7.3763156 6.5827241 0
-11.363574 10.141007 0.85072255
-5.0113297 4.4613123 -0.74784327
-5.6353235 5.01682 -0.42142871
-7.380373 6.5703421 0
-11.340881 10.096166 0.84810978
-5.0263844 4.4638395 -0.74928445
-5.635551 5.0048294 -0.42099315
-7.3844185 6.5579667 0
-11.164629 9.915103 0.83403248
-0 0 -0
-5.0530725 4.4766316 -0.75245595
-5.6338143 4.9911237 -0.4204126
-7.3806453 6.538681 0
-12.944486 11.467813 0.96595746
-0 0 -0
-5.0875435 4.4962096 -0.75677949
-5.6320529 4.9774299 -0.41983202
-7.3807402 6.5228648 0
-12.962223 11.455603 0.96624744
-0 0 -0
-5.2287793 4.6097889 -0.77695942
-5.6361156 4.9689045 -0.41968703
-7.3886166 6.5139418 0
-12.981905 11.445088 0.96668297
-0 0 -0
-5.5295472 4.8630896 -0.82077765
-5.6265059 4.9483624 -0.4185259
-7.390625 6.4998579 0
-12.98792 11.42253 0.96610242
-0 0 -0
-0 0 -0
-5.6324806 4.9415603 -0.4185259
-7.4004278 6.4926381 0
-7.4468894 6.5334001 0.55334699
-0 0 -0
-5.6345406 4.9313316 -0.41823593
-7.410224 6.4854035 0
-7.4528246 6.5226874 0.55320197
-0 0 -0
-5.6346211 4.9193912 -0.41780037
-7.4121714 6.4713087 0
-7.4469972 6.5017133 0.55218583
-0 0 -0
-5.613132 4.8886905 -0.41576868
-7.4160643 6.4589324 0
-7.4430947 6.4824743 0.55131531
-0 0 -0
-5.6082425 4.8784766 -0.41518813
-7.4219265 6.4561572 0
-7.4293671 6.4626293 0.55000919
-5.5656466 4.8296223 -0.82135367
-5.6003933 4.8597741 -0.41417202
-7.4316859 6.4488888 0
-7.4430523 6.4587517 0.55044419
-5.5656171 4.8178201 -0.82048965
-5.6023359 4.8496056 -0.41388202
-7.4394727 6.4399042 0
-7.444963 6.4446564 0.55000919
-0 0 -0
-5.5694714 4.8093963 -0.8202005
-5.6101565 4.8445292 -0.41402701
-7.445281 6.4292111 0
-7.4507723 6.4339528 0.54986364
-5.571363 4.7992902 -0.81962448
-5.6238809 4.8445306 -0.41460755
-7.4629011 6.4287014 0
-7.456574 6.4232512 0.54971862
-5.5810771 4.7959228 -0.8202005
-5.6277618 4.8360395 -0.41446257
-7.4726429 6.42138 0
-7.4525089 6.404079 0.54884803
-5.5947232 4.7959089 -0.82135367
-5.6375427 4.8326149 -0.41475257
-7.490274 6.4208136 0
-7.4661546 6.4001379 0.54928309
-5.6044493 4.7925105 -0.82193083
-5.6453509 4.827487 -0.41489756
-7.5039625 6.4168339 0
-7.475863 6.3928051 0.54942864
-5.6181073 4.79245 -0.823084
-5.6571126 4.8257227 -0.41533312
-7.5156665 6.4111371 0
-7.4815993 6.3820763 0.54928309
-5.631773 4.7923627 -0.82423717
-5.6767936 4.8306732 -0.41634923
-7.5333161 6.4104824 0
-7.4853511 6.3696671 0.54899305
-5.6434693 4.7905712 -0.8251012
-5.6905503 4.8305364 -0.41692981
-7.5569286 6.4148488 0
-7.4989872 6.365664 0.54942864
-5.6492538 4.7837486 -0.8251012
-5.700345 4.8270121 -0.41721979
-7.5686502 6.40908 0
-7.5086546 6.3582759 0.5495736
-5.6589856 4.7802601 -0.82567835
-5.7160969 4.8285031 -0.41794536
-13.460911 11.370706 0
-7.520298 6.3525491 0.54986364
-5.6706853 4.7784142 -0.82654238
-5.7179565 4.8182473 -0.41765535
-13.456723 11.339334 0
-7.5339313 6.3484821 0.55029917
-5.6903162 4.7832103 -0.82856071
-5.7376919 4.8230338 -0.41867092
-13.480381 11.331445 0
-7.5356274 6.3343568 0.54986364
-5.7000594 4.7796583 -0.82913786
-5.7455125 4.8177719 -0.41881648
-13.504032 11.323507 0
-7.5492511 6.3302569 0.55029917
-5.7137661 4.7794056 -0.83029103
-5.7612929 4.8191605 -0.41954204
-13.535668 11.322208 0
-7.564867 6.3277993 0.55087972
-5.723505 4.7758088 -0.83086705
-5.7750921 4.8188548 -0.42012259
-13.561325 11.315845 0
-7.5725074 6.3186541 0.55087972
-5.7352371 4.7738552 -0.83173221
-5.780911 4.811873 -0.42012259
-13.592997 11.314441 0
-7.5901203 6.3178096 0.55160528
-5.7529368 4.7768326 -0.8334614
-5.7927203 4.809866 -0.42055815
-13.618668 11.30798 0
-7.6137414 6.3219137 0.55276638
-5.7626925 4.773181 -0.83403856
-5.8045254 4.8078308 -0.42099315
-13.650357 11.306456 0
-7.6293793 6.3193393 0.55334699
-5.7764311 4.7728043 -0.83519173
-5.8183432 4.8074341 -0.4215737
-13.688084 11.309846 0
-13.778318 11.384401 0.99832147
-5.7801924 4.7641711 -0.83490258
-5.8381853 4.8119707 -0.42258981
-13.715799 11.304886 0
-13.794075 11.369403 0.99846703
-5.8028116 4.7651787 -0.83692092
-5.8609486 4.8129196 -0.42360538
-13.764421 11.303128 0
-13.838748 11.364165 1.0002081
-5.7965641 4.7483325 -0.83519173
-5.8727918 4.8107758 -0.42404094
-13.788133 11.294732 0
-13.890664 11.378722 1.0029659
-5.7682509 4.7135043 -0.83029103
-5.890677 4.8135443 -0.42491207
-13.823939 11.29618 0
-13.92653 11.380012 1.004562
-5.7799506 4.7114291 -0.83115506
-5.8944693 4.8047767 -0.42476651
-13.851693 11.290974 0
-13.952359 11.37303 1.0054332
-5.82377 4.7354469 -0.83663291
-5.9123707 4.8074899 -0.4256376
-13.885522 11.29065 0
-13.147606 10.690633 0.9465096
-0 0 -0
-5.8616281 4.7544761 -0.84124559
-5.9282637 4.8085256 -0.42636317
-13.905212 11.278777 0
-13.156474 10.671462 0.94621903
-5.8894806 4.7652812 -0.84441596
-5.9320517 4.799726 -0.42621818
-13.941088 11.279976 0
-13.159261 10.647387 0.94549346
-5.9093251 4.7695346 -0.8464343
-5.9560428 4.807241 -0.4275243
-13.974955 11.279465 0
-13.15594 10.618422 0.94433236
-5.9352264 4.7786078 -0.84931666
-5.969943 4.8065591 -0.42810485
-13.998714 11.270736 0
-14.101766 11.353704 1.0112382
-0 0 -0
-5.9716907 4.7960849 -0.42781428
-14.026521 11.265216 0
-13.183594 10.58823 0.94447792
-5.9467573 4.7642512 -0.84931666
-5.9835672 4.7937412 -0.42824984
-14.062467 11.26616 0
-13.208542 10.582037 0.94534844
-5.9626102 4.7651343 -0.85075784
-6.0015302 4.7962379 -0.42912039
-14.090294 11.260529 0
-13.229438 10.572558 0.94592905
-5.9703922 4.7595429 -0.85104698
-6.0093589 4.790607 -0.42926595
-14.124244 11.259721 0
-13.25236 10.564663 0.94665456
-5.9761386 4.7523255 -0.85104698
-6.0273418 4.7930431 -0.43013653
-14.152092 11.253981 0
-13.273252 10.555112 0.94723517
-6.0061851 4.7643838 -0.85450536
-6.0473809 4.7970624 -0.43115264
-14.177917 11.246579 0
-13.277852 10.532606 0.94665456
-6.0362773 4.7763824 -0.85796487
-14.036414 11.106727 -0.99977928
-14.215986 11.248818 0
-13.286498 10.513333 0.94636458
-6.1455803 4.8508081 -0.87266695
-14.043711 11.084933 -0.99934423
-14.245911 11.244533 0
-13.284912 10.486 0.94534844
-6.2286563 4.9041777 -0.88362151
-14.016263 11.035807 -0.99644148
-14.27993 11.243407 0
-14.367305 11.312201 1.0213976
-6.2447457 4.9046345 -0.88506269
-14.301692 11.232574 0
-14.395269 11.30607 1.0224137
-6.2465992 4.893898 -0.88448668
-14.331643 11.228126 0
-14.417094 11.295072 1.0229938
-6.2239804 4.8640523 -0.88045114
-14.375953 11.234834 0
-14.4553 11.296844 1.0247355
-6.2400508 4.8644781 -0.88189232
-14.405937 11.230255 0
-14.495579 11.300136 1.0266221
-6.2756419 4.8861308 -0.88650501
-14.429148 11.234341 0
-14.51266 11.299362 1.0273483
-6.3060546 4.8975825 -0.88996452
-14.442712 11.216898 0
-14.540663 11.292971 1.0283638
-6.3283172 4.9026256 -0.89226973
-14.462428 11.204222 0
-14.568678 11.286534 1.0293798
-6.3281026 4.8902349 -0.8914057
-10.466769 8.0885162 0
-14.609032 11.289577 1.0312666
-6.3176188 4.8699527 -0.88909936
-10.447681 8.0536222 0
-14.65147 11.294123 1.0332983
-6.3296518 4.8670468 -0.88996452
-10.449153 8.034646 0
-14.675404 11.284329 1.0340238
-6.3211598 4.8483744 -0.88794619
-10.481571 8.0394392 0
-14.70759 11.280826 1.0353305
-6.3352308 4.8470197 -0.88909936
-10.489212 8.0251884 0
-14.737712 11.275672 1.036491
-6.328742 4.8299432 -0.88736904
-10.488551 8.0046091 0
-14.786448 11.284659 1.0389588
-6.3469253 4.8316956 -0.88909936
-10.512713 8.0029669 0
-14.810408 11.274653 1.0396844
-6.3568749 4.8271484 -0.88967538
-10.505795 7.9776669 0
-14.836432 11.266175 1.040555
-6.4018788 4.8491383 -0.89515322
-10.459154 7.9223437 -0.73288214
-10.5092 7.9602513 0
-14.87489 11.267067 1.0422966
-6.4263043 4.8554306 -0.89774758
-10.477004 7.9159598 -0.7334621
-10.485596 7.922451 0
-14.903008 11.260052 1.0433128
-6.438365 4.8523335 -0.89861274
-10.478269 7.8970447 -0.73288214
-10.45567 7.880013 0
-14.941496 11.260798 1.0450538
-6.4524932 4.8507676 -0.89976591
-10.487803 7.884378 -0.73288214
-10.415258 7.8298416 0
-14.969632 11.253667 1.04607
-6.4686942 4.8507247 -0.90120709
-10.497322 7.8716998 -0.73288214
-10.401814 7.8000808 0
-14.991535 11.241806 1.0466505
-6.5056124 4.8661389 -0.90553063
-10.502661 7.8558946 -0.73259157
-10.402896 7.781271 0
-15.025911 11.239244 1.0481017
-6.5218506 4.8660069 -0.90697181
-10.503815 7.8369827 -0.73201102
-10.431061 7.782701 0
-15.060311 11.236623 1.0495533
-6.5277257 4.8581228 -0.90697181
-10.4966 7.8118744 -0.73084992
-10.450894 7.7778587 0
-15.069704 11.215311 1.0492628
-6.5024452 4.8271108 -0.90264827
-10.497686 7.7929902 -0.73026931
-10.445663 7.7543707 0
-13.691699 10.164076 0.95246017
-6.4521556 4.7776961 -0.89486521
-6.8047996 5.0388222 -0.47295058
-10.452928 7.7401905 0
-11.870568 8.7899256 0.82503414
