# .PCD v0.7 - Point Cloud Data file format
VERSION 0.7
FIELDS x y z
SIZE 4 4 4
TYPE F F F
COUNT 1 1 1
WIDTH 1792
HEIGHT 1
VIEWPOINT 0 0 0 1 0 0 0
POINTS 1792
DATA ascii
2.5162733 -2.5315216 0.19937006
0 -0 -0
0 -0 -0
2.4014149 -2.4101355 -0.75370759
2.3777976 -2.3864324 -0.5616312
2.3716619 -2.3802745 -0.37452424
2.3745303 -2.3831534 -0.18791114
2.428324 -2.4371424 0
2.5156658 -2.5248015 0.19908005
0 -0 -0
0 -0 -0
2.3702071 -2.3730729 -0.74301225
2.3806794 -2.3835576 -0.5616312
2.370877 -2.3737435 -0.37394711
2.3737392 -2.3766091 -0.18762115
2.4257479 -2.4286807 0
2.5168803 -2.5199232 0.19893505
0 -0 -0
0 -0 -0
2.3910539 -2.3881667 -0.74864215
2.3726635 -2.3697982 -0.55906421
2.3609316 -2.3580806 -0.37192878
2.3766091 -2.3737392 -0.18762115
2.4323668 -2.4294298 0
2.5199232 -2.5168803 0.19893505
0 -0 -0
0 -0 -0
2.4011307 -2.3924425 -0.75089157
2.375525 -2.3669295 -0.55906421
2.3619487 -2.3534024 -0.37164077
2.3757906 -2.3671942 -0.18733059
2.4389844 -2.4301591 0
2.5137537 -2.504658 0.19820893
0 -0 -0
0 -0 -0
2.3878026 -2.37342 -0.74582613
2.3692818 -2.3550107 -0.55692482
2.3666234 -2.3523684 -0.37192878
2.3804975 -2.366159 -0.18747614
2.4197693 -2.4051943 0
2.5112548 -2.4961286 0.19777393
0 -0 -0
0 -0 -0
2.3744318 -2.3544331 -0.74076068
2.3757677 -2.3557577 -0.55777991
2.3731408 -2.3531528 -0.37250593
2.3888848 -2.3687644 -0.18791114
2.4263732 -2.405937 0
2.5105751 -2.4894297 0.19748338
0 -0 -0
0 -0 -0
2.3935311 -2.3676426 -0.74582613
2.3585353 -2.3330255 -0.55307186
2.3667898 -2.3411906 -0.37106475
2.3917453 -2.3658762 -0.18791114
2.442225 -2.4158096 0
2.5228162 -2.4955294 0.19820893
0 -0 -0
0 -0 -0
2.3746941 -2.3433392 -0.73907369
2.3814538 -2.3500097 -0.55777991
2.3640921 -2.3328772 -0.37019959
2.3779581 -2.34656 -0.18660502
2.4155104 -2.3836164 0
2.5295324 -2.4961331 0.19849949
0 -0 -0
0 -0 -0
2.3956277 -2.35829 -0.74470145
2.3751464 -2.3381276 -0.55564046
2.3742821 -2.3372769 -0.37135276
2.3789418 -2.3418639 -0.18646003
2.4313657 -2.393471 0
2.5195825 -2.4803128 0.19748338
0 -0 -0
0 -0 -0
2.4020979 -2.3589509 -0.74582613
2.3761401 -2.3334591 -0.55521291
2.3568032 -2.3144696 -0.36818126
2.3780653 -2.3353498 -0.18617003
2.4045465 -2.3613553 0
2.5281415 -2.4827302 0.19791894
0 -0 -0
0 -0 -0
2.3886127 -2.340045 -0.74076068
2.3679519 -2.3198042 -0.55264431
2.3706872 -2.322484 -0.36991158
2.3734608 -2.325201 -0.18558946
2.4241347 -2.3748448 0
2.5329938 -2.4814904 0.19806394
0 -0 -0
0 -0 -0
2.4023452 -2.3478162 -0.74413908
2.3652508 -2.3115637 -0.55136162
2.3697886 -2.3159986 -0.36933443
2.383702 -2.329596 -0.18617003
2.4325809 -2.3773656 0
2.5452805 -2.4875069 0.19878949
0 -0 -0
0 -0 -0
2.3997207 -2.3395889 -0.74244988
2.3625262 -2.3033264 -0.55007732
2.359627 -2.3004997 -0.36731723
2.3790729 -2.3194585 -0.18558946
2.4224131 -2.3617127 0
2.5333998 -2.4699183 0.19762838
0 -0 -0
0 -0 -0
2.3934402 -2.3278315 -0.739636
2.367146 -2.302258 -0.55050486
2.3679621 -2.3030517 -0.36818126
2.3800056 -2.3147652 -0.18544391
2.4439178 -2.3769255 0
2.5401113 -2.4704821 0.19791894
0 -0 -0
0 -0 -0
2.385735 -2.3175344 -0.73682213
2.3703759 -2.3026145 -0.55093241
2.3712137 -2.3034282 -0.36847037
2.3795416 -2.3115182 -0.1852989
2.4136207 -2.3446229 0
0 -0 0
0 -0 -0
0 -0 -0
2.3775821 -2.3040373 -0.73344374
2.369473 -2.2961791 -0.55007732
2.3702767 -2.296958 -0.36789325
2.3804688 -2.3068347 -0.18515392
2.4108434 -2.3362696 0
0 -0 0
0 -0 -0
0 -0 -0
2.3639245 -2.28527 -0.7283783
2.3630195 -2.284395 -0.54793787
2.365612 -2.2869012 -0.36674008
2.3720417 -2.293117 -0.18428279
2.4117951 -2.331548 0
0 -0 0
0 -0 -0
0 -0 -0
2.3776543 -2.2929916 -0.73175454
2.365778 -2.281538 -0.54793787
2.3721006 -2.2876356 -0.36731723
2.3822923 -2.2974644 -0.18486336
2.4295969 -2.3430848 0
2.5692368 -2.4777522 0.19937006
0 -0 -0
0 -0 -0
2.384089 -2.2936437 -0.73288137
2.3518782 -2.2626548 -0.54408497
2.3636758 -2.2740049 -0.36558691
2.3738348 -2.2837784 -0.1839928
2.4117944 -2.320298 0
2.5909579 -2.4926646 0.20082173
0 -0 -0
0 -0 -0
2.3721929 -2.276686 -0.7283783
2.3435013 -2.2491496 -0.54151797
2.3608289 -2.2657795 -0.36472285
2.3784654 -2.282706 -0.18413779
2.4089687 -2.3119812 0
2.6108387 -2.5057237 0.20212784
0 -0 -0
0 -0 -0
2.3877914 -2.2861202 -0.73231906
2.3554869 -2.2551911 -0.54365742
2.363565 -2.2629254 -0.36472285
2.3718393 -2.2708471 -0.18341224
2.4136386 -2.3108668 0
2.5969741 -2.4863961 0.20082173
0 -0 -0
0 -0 -0
2.3776879 -2.2709467 -0.7283783
2.3600647 -2.2541146 -0.54408497
2.3700347 -2.2636373 -0.3652989
2.3689423 -2.2625937 -0.18297668
2.4352455 -2.3259203 0
2.5999765 -2.4832563 0.20082173
0 -0 -0
0 -0 -0
2.3657136 -2.2540503 -0.72387522
2.351639 -2.2406399 -0.54151797
2.3615363 -2.2500701 -0.36356968
2.3810861 -2.268697 -0.1837028
2.4192159 -2.3050272 0
2.5954502 -2.4729431 0.20024116
0 -0 -0
0 -0 -0
2.374845 -2.2518265 -0.72500211
2.3533249 -2.2314212 -0.54066288
2.3632095 -2.2407939 -0.36299255
2.3790195 -2.2557847 -0.18312223
2.4266658 -2.3009632 0
2.6033025 -2.4684498 0.20038617
0 -0 -0
0 -0 -0
2.3757129 -2.2472043 -0.72443759
2.3597457 -2.2321007 -0.54151797
2.3546448 -2.2272758 -0.36126336
2.3704133 -2.2421913 -0.18225113
2.4181039 -2.2873023 0
2.6289361 -2.4867299 0.20212784
0 -0 -0
0 -0 -0
2.3876719 -2.2530563 -0.72725362
2.3587105 -2.2257276 -0.54066288
2.361093 -2.2279758 -0.36183938
2.3731208 -2.2393255 -0.18225113
2.4151857 -2.2790189 0
0 -0 0
0 -0 -0
0 -0 -0
2.3866887 -2.2466829 -0.72612679
2.361398 -2.2228758 -0.54066288
2.361902 -2.2233503 -0.36155137
2.3777151 -2.2382357 -0.18239613
2.412251 -2.2707458 0
0 -0 0
0 -0 -0
0 -0 -0
2.3745837 -2.2298825 -0.72162372
2.3547204 -2.2112296 -0.53852177
2.3664703 -2.2222636 -0.36183938
2.3690565 -2.2246921 -0.18152556
2.4149928 -2.2678292 0
0 -0 0
0 -0 -0
0 -0 -0
2.3796406 -2.2319274 -0.72275054
2.3560557 -2.2098064 -0.53852177
2.3583817 -2.211988 -0.3603982
2.3798745 -2.2321467 -0.18225113
2.4087696 -2.2592483 0
0 -0 0
0 -0 -0
0 -0 -0
2.3600712 -2.2082183 -0.71599591
2.3493536 -2.1981905 -0.53638238
2.3610528 -2.2091367 -0.3603982
2.3825698 -2.2292695 -0.18225113
2.4153023 -2.2598958 0
0 -0 0
0 -0 -0
0 -0 -0
2.373879 -2.2157643 -0.71937215
2.3520079 -2.1953499 -0.53638238
2.3637202 -2.2062824 -0.3603982
2.3681676 -2.2104335 -0.18094501
2.4066124 -2.2463174 0
0 -0 0
0 -0 -0
0 -0 -0
2.3542397 -2.192116 -0.71261752
2.34339 -2.1820138 -0.53381538
2.3512409 -2.1893239 -0.35809186
2.3746364 -2.2111084 -0.181235
2.3959978 -2.2309985 0
0 -0 0
0 -0 -0
0 -0 -0
2.3829536 -2.2134829 -0.72049904
2.346025 -2.1791806 -0.53381538
2.3557777 -2.1882398 -0.35837987
2.3811178 -2.2117777 -0.18152556
2.4311054 -2.2582104 0
0 -0 0
0 -0 -0
0 -0 -0
2.3669853 -2.1933286 -0.71486908
2.3448868 -2.1728513 -0.53295863
2.3508313 -2.1783597 -0.3572267
2.3761647 -2.2018344 -0.18094501
2.4319179 -2.2534971 0
0 -0 0
0 -0 -0
0 -0 -0
2.371505 -2.1921966 -0.7154336
2.3701313 -2.1909268 -0.53809422
2.361059 -2.1825404 -0.35837987
2.3692849 -2.1901443 -0.18021944
2.4308205 -2.2470274 0
0 -0 0
0 -0 -0
0 -0 -0
2.3592086 -2.1755495 -0.71093053
2.3501308 -2.1671784 -0.53295863
2.3541892 -2.1709206 -0.35693869
2.3757463 -2.1907995 -0.18050945
2.4163167 -2.2282119 0
0 -0 0
0 -0 -0
0 -0 -0
2.3767958 -2.1864593 -0.7154336
2.3414159 -2.1539125 -0.53039163
2.3587122 -2.1698239 -0.3572267
2.3726602 -2.1826549 -0.18007445
2.4190073 -2.2252905 0
0 -0 0
0 -0 -0
0 -0 -0
2.3457348 -2.1526587 -0.70530057
2.3459063 -2.1528158 -0.53081918
2.3594286 -2.1652253 -0.35693869
2.3752956 -2.1797862 -0.18007445
2.4274487 -2.2276466 0
0 -0 0
0 -0 -0
0 -0 -0
2.3708241 -2.1704113 -0.71205521
2.3428235 -2.1447778 -0.52953488
2.3467808 -2.1484005 -0.35463235
2.3683393 -2.1681366 -0.17934833
2.4262958 -2.2211938 0
0 -0 0
0 -0 -0
0 -0 -0
2.3621912 -2.1572676 -0.70867896
2.3511019 -2.1471405 -0.53081918
2.3608379 -2.1560321 -0.35636267
2.3709571 -2.1652734 -0.17934833
2.4193711 -2.2094872 0
0 -0 0
0 -0 -0
0 -0 -0
2.3647959 -2.1544118 -0.70867896
2.3423123 -2.1339285 -0.52825224
2.3538833 -2.14447 -0.35492146
2.3812551 -2.1694067 -0.17992888
2.4278123 -2.211822 0
0 -0 0
0 -0 -0
0 -0 -0
2.3579974 -2.1430099 -0.70586509
2.3391881 -2.1259155 -0.52696788
2.3583851 -2.1433623 -0.3552095
2.3608067 -2.1455631 -0.17818777
2.3938882 -2.1756284 0
0 -0 0
0 -0 -0
0 -0 -0
2.3549361 -2.1350377 -0.70417589
2.3474624 -2.1282618 -0.52825224
2.3628876 -2.1422465 -0.35549751
2.3633976 -2.142709 -0.17818777
2.4254382 -2.1989563 0
0 -0 0
0 -0 -0
0 -0 -0
2.3593967 -2.1338933 -0.70473826
2.3367031 -2.1133687 -0.52525604
2.3635578 -2.1376567 -0.3552095
2.3659849 -2.1398516 -0.17818777
2.4338784 -2.201256 0
0 -0 0
0 -0 -0
0 -0 -0
2.3493762 -2.1222513 -0.70136201
2.3341732 -2.1085184 -0.52440095
2.3514116 -2.1240902 -0.35319117
2.3653433 -2.1366751 -0.17804222
2.4043157 -2.1718795 0
0 -0 0
0 -0 -0
0 -0 -0
2.3538244 -2.1211104 -0.70192438
2.3329017 -2.1022561 -0.52354419
2.3578231 -2.1247137 -0.35376829
2.3640666 -2.1303399 -0.17775221
2.4301307 -2.1898725 0
0 -0 0
0 -0 -0
0 -0 -0
2.3526027 -2.1148641 -0.7007975
2.3373473 -2.1011503 -0.52397174
2.3526945 -2.1149466 -0.35261512
2.3608398 -2.1222687 -0.17731667
2.3940737 -2.1521442 0
0 -0 0
0 -0 -0
0 -0 -0
2.3551564 -2.1120198 -0.7007975
2.3303306 -2.0897567 -0.52183229
2.353317 -2.1103704 -0.35232601
2.365335 -2.1211476 -0.17746165
2.4141083 -2.1648858 0
0 -0 0
0 -0 -0
0 -0 -0
2.3577068 -2.1091726 -0.7007975
2.3385954 -2.0920758 -0.52311659
2.3616502 -2.1127005 -0.35319117
2.373708 -2.123487 -0.17789721
2.4264188 -2.1706414 0
0 -0 0
0 -0 -0
0 -0 -0
2.3375115 -2.0860269 -0.69404507
2.3123903 -2.0636084 -0.51669669
0 -0 -0
2.3743353 -2.1188889 -0.17775221
2.4290397 -2.1677079 0
0 -0 0
0 -0 -0
0 -0 -0
2.3457184 -2.0882647 -0.69573206
2.3225515 -2.0676405 -0.51840854
0 -0 -0
2.3710694 -2.1108334 -0.17731667
2.4063895 -2.1422768 0
2.6814928 -2.3871863 0.20053117
0 -0 -0
0 -0 -0
2.3558395 -2.0921776 -0.69798362
2.3288908 -2.0682452 -0.51926529
0 -0 -0
2.3619647 -2.0976176 -0.1764461
2.4089761 -2.1393676 0
2.6688321 -2.3701408 0.19937006
0 -0 -0
0 -0 -0
2.3431506 -2.0758502 -0.69348055
2.3275414 -2.0620217 -0.51840854
0 -0 -0
2.3761637 -2.1050973 -0.17731667
2.4407814 -2.1623435 0
2.7105935 -2.4013762 0.20227285
0 -0 -0
0 -0 -0
2.3532727 -2.0797479 -0.69573206
2.3300312 -2.0592079 -0.51840854
2.3491778 -2.076129 -0.34944364
2.3650744 -2.0901778 -0.17630054
2.4336362 -2.1507707 0
0 -0 0
0 -0 -0
0 -0 -0
2.3843751 -2.1021094 -0.70417589
2.3248153 -2.0496004 -0.51669669
2.3555613 -2.0767066 -0.35001966
2.3656509 -2.0856018 -0.17615554
2.4264743 -2.1392248 0
2.7378309 -2.4137228 0.20386952
0 -0 -0
0 -0 -0
2.3850074 -2.0975506 -0.70361352
2.3157282 -2.0366213 -0.5141297
2.3503075 -2.0670331 -0.3488676
2.3642704 -2.079313 -0.17586555
2.4231927 -2.1311336 0
2.7778127 -2.4430125 0.20662674
0 -0 -0
0 -0 -0
2.4028201 -2.108073 -0.70811665
2.3201151 -2.0355129 -0.51455724
2.3391917 -2.0522494 -0.34684929
2.3628709 -2.0730243 -0.17557499
2.4277279 -2.1299255 0
0 -0 0
0 -0 -0
2.4110961 -2.1101835 -0.70980364
2.3206429 -2.0310192 -0.5141297
2.3455586 -2.0528252 -0.34742531
2.371242 -2.0753031 -0.17601055
2.4322562 -2.1287026 0
2.7230983 -2.3832467 0.20212784
0 -0 -0
2.4136441 -2.1072686 -0.70980364
2.3192241 -2.0248337 -0.51327294
2.3402438 -2.0431852 -0.34627214
2.3717923 -2.0707293 -0.17586555
2.4054179 -2.1000865 0
0 -0 0
0 -0 -0
0 -0 -0
2.4340711 -2.1225126 -0.7154336
2.3146482 -2.0183756 -0.51199031
2.3473279 -2.0468724 -0.3471373
2.3671658 -2.0641708 -0.17542998
2.4184589 -2.1088986 0
0 -0 0
0 -0 -0
2.432209 -2.1157205 -0.8893953
2.4347115 -2.1178975 -0.71486908
2.3112731 -2.0105214 -0.51070595
2.3341875 -2.0304542 -0.34483096
2.3716168 -2.0630128 -0.17557499
2.4249287 -2.1093876 0
0 -0 0
0 -0 -0
2.4158189 -2.0963409 -0.88247502
2.4449451 -2.1216152 -0.71712065
2.3040082 -1.9993165 -0.50856656
2.3366392 -2.0276322 -0.34483096
2.3741078 -2.0601459 -0.17557499
2.413722 -2.0945213 0
0 -0 0
0 -0 -0
2.3898962 -2.0687895 -0.87209189
2.4494336 -2.1203272 -0.7176851
2.3258276 -2.013329 -0.5128454
2.3390875 -2.0248075 -0.34483096
2.3746326 -2.0555766 -0.17542998
2.4300191 -2.1035216 0
0 -0 0
0 -0 -0
2.432267 -2.1003315 -0.88662666
2.4500651 -2.1157005 -0.71712065
2.3068919 -1.9920666 -0.50813901
2.3337021 -2.0152178 -0.34367779
2.3653183 -2.0425196 -0.17455943
2.4207444 -2.0903814 0
0 -0 0
0 -0 -0
2.4139001 -2.0793848 -0.87901485
2.4660974 -2.1243486 -0.72106135
2.3170772 -1.9959794 -0.50985086
2.3361354 -2.0123966 -0.34367779
2.3618765 -2.0345707 -0.17412387
2.4232686 -2.087455 0
0 -0 0
0 -0 -0
2.41451 -2.0748329 -0.87832338
2.472513 -2.124676 -0.72218603
2.3097467 -1.9848081 -0.5077098
2.3326857 -2.0045199 -0.34281373
2.3682711 -2.035099 -0.17441387
2.4099984 -2.070956 0
0 -0 0
0 -0 -0
2.3903453 -2.049052 -0.86863178
2.4731512 -2.1200349 -0.72162372
2.3179922 -1.9870294 -0.5089941
2.3409917 -2.0067451 -0.34367779
2.3648155 -2.0271673 -0.17397887
2.4006474 -2.0578833 0
0 -0 0
0 -0 -0
2.4023511 -2.0543132 -0.87209189
2.4853647 -2.1253002 -0.72443759
2.3184423 -1.9825604 -0.50856656
2.3394868 -2.0005562 -0.34310177
2.3712091 -2.0276828 -0.17426887
2.4347715 -2.0820367 0
0 -0 0
0 -0 -0
2.399111 -2.0465291 -0.87001741
2.4918008 -2.1255968 -0.72556442
2.3091142 -1.9697584 -0.5059979
2.3359973 -1.9926906 -0.34223661
2.3697076 -2.0214467 -0.17397887
2.4372854 -2.0790932 0
0 -0 0
0 -0 -0
2.3480844 -1.9981048 -0.8506369
2.507915 -2.1341126 -0.72950518
2.3193128 -1.9736214 -0.5077098
2.3384032 -1.9898666 -0.34223661
2.3662095 -2.0135283 -0.1735433
2.4179995 -2.0575988 0
0 -0 0
0 -0 -0
2.3562367 -2.0001383 -0.85271406
2.4814336 -2.1064141 -0.72106135
2.3158302 -1.9658386 -0.50642711
2.3270011 -1.9753212 -0.34021828
2.3686409 -2.0106678 -0.1735433
2.418494 -2.0529866 0
0 -0 0
0 -0 -0
0 -0 -0
2.4742835 -2.0952058 -0.71824747
2.3240755 -1.9680108 -0.5077098
2.3333378 -1.975854 -0.34079543
2.3790007 -2.0145211 -0.17412387
2.4209731 -2.0500629 0
0 -0 0
0 -0 -0
2.2959056 -1.9393983 -0.82918185
2.4263494 -2.0495868 -0.70361352
2.3539102 -1.9883959 -0.51370215
2.325846 -1.9646895 -0.33935425
2.3715098 -2.0032628 -0.17339832
2.4333947 -2.0555379 0
0 -0 0
0 -0 -0
2.2771423 -1.9188385 -0.82156742
2.3821912 -2.0073583 -0.69010431
2.3759377 -2.0020888 -0.51798099
2.3242586 -1.9585412 -0.3387771
2.3679655 -1.9953709 -0.17296275
2.4299042 -2.0475636 0
0 -0 0
0 -0 -0
2.3447499 -1.9709681 -0.84509963
2.3573885 -1.9815922 -0.68222499
2.3940756 -2.0124307 -0.52140474
2.3365211 -1.9640512 -0.34021828
2.3683877 -1.9908378 -0.17281775
2.4104607 -2.0262039 0
0 -0 0
0 -0 -0
2.3517063 -1.9743921 -0.84717673
2.3469055 -1.9703617 -0.6788466
2.4070835 -2.0208845 -0.52397174
2.3337493 -1.9593163 -0.33964226
2.36959 -1.9894066 -0.17281775
2.4216561 -2.033119 0
0 -0 0
0 -0 -0
2.3175447 -1.9409424 -0.83402503
2.3181171 -1.9414216 -0.66984046
2.4351063 -2.0393999 -0.52953488
2.3162897 -1.9398911 -0.3367599
2.3700018 -1.9848752 -0.17267275
2.4241109 -2.0301914 0
0 -0 0
0 -0 -0
2.3429918 -1.9574423 -0.84233093
2.326313 -1.943508 -0.67152965
2.4356005 -2.034812 -0.52910733
2.3325207 -1.9486942 -0.3387771
2.3584378 -1.9703467 -0.17165664
2.4305527 -2.0305948 0
0 -0 0
0 -0 -0
2.3241613 -1.9369469 -0.83471918
2.3403747 -1.9504591 -0.67490804
2.4498932 -2.0417314 -0.53167593
2.3249409 -1.9375966 -0.33733591
2.3548267 -1.9625032 -0.17122108
2.4090137 -2.0076625 0
0 -0 0
0 -0 -0
2.3245652 -1.9325287 -0.83402503
2.3485858 -1.9524982 -0.67659509
2.4681506 -2.0518985 -0.53509969
2.3173375 -1.92652 -0.33589473
2.3791776 -1.9779307 -0.17281775
2.4014337 -1.9964333 0
0 -0 0
0 -0 -0
2.3114572 -1.9169128 -0.82849038
2.3392119 -1.9399301 -0.67321885
0 -0 -0
2.3276274 -1.9303229 -0.3370479
2.3735652 -1.9684196 -0.1722372
2.4138584 -2.0018351 0
0 -0 0
0 -0 -0
2.3543563 -1.947693 -0.84302247
2.3435104 -1.9387203 -0.67378122
2.4770541 -2.0491974 -0.53595483
2.3279672 -1.925862 -0.3367599
2.3659332 -1.9572701 -0.17151164
2.4162755 -1.998917 0
0 -0 0
0 -0 -0
2.3044693 -1.9017375 -0.82433605
2.355648 -1.943972 -0.67659509
2.4953678 -2.0592742 -0.53937852
2.3183191 -1.9131668 -0.33502957
2.3542655 -1.942831 -0.17049553
2.4267182 -2.0026219 0
0 -0 0
0 -0 -0
2.3726163 -1.9531605 -0.84786826
2.3305352 -1.9185188 -0.66871578
2.4998343 -2.0578876 -0.53980613
2.3206291 -1.9103642 -0.33502957
2.3766689 -1.9564965 -0.17194664
2.4190917 -1.9914196 0
0 -0 0
0 -0 -0
2.3109953 -1.8977535 -0.82502759
2.3426681 -1.9237624 -0.67152965
2.5062904 -2.0581269 -0.54066288
2.3149402 -1.900993 -0.3338764
2.3629661 -1.940431 -0.17078552
2.4134512 -1.9818887 0
0 -0 0
0 -0 -0
2.3307517 -1.9092662 -0.83125639
2.3567882 -1.9305944 -0.67490804
2.4988406 -2.0469587 -0.53852177
2.3112388 -1.8932821 -0.33301234
2.3713412 -1.9425159 -0.17122108
2.4279199 -1.9888629 0
0 -0 0
0 -0 -0
2.333416 -1.9020445 -0.83056486
2.341748 -1.9088364 -0.66927814
2.5137346 -2.0490282 -0.54066288
2.319813 -1.8909564 -0.33358839
2.3619359 -1.925292 -0.17020552
2.4024663 -1.9583298 0
0 -0 0
0 -0 -0
2.3181961 -1.8849806 -0.82433605
2.3519385 -1.9124174 -0.67152965
2.5181985 -2.0476074 -0.54109043
2.3241012 -1.8897822 -0.3338764
2.3703029 -1.9273499 -0.17064053
2.4149251 -1.9636333 0
0 -0 0
0 -0 -0
2.3282654 -1.8884996 -0.82710475
2.3463542 -1.9031717 -0.66927814
2.5266538 -2.0494161 -0.54237473
2.3123274 -1.8755718 -0.3318592
2.378686 -1.9293966 -0.17107607
2.4213421 -1.9639959 0
0 -0 0
0 -0 -0
2.326649 -1.882532 -0.82572174
2.3565533 -1.9067281 -0.67152965
2.5291281 -2.0463614 -0.54237473
2.3186095 -1.8760272 -0.33243522
2.3830338 -1.928154 -0.17122108
2.4216845 -1.959427 0
0 -0 0
0 -0 -0
2.2996366 -1.8560827 -0.81533861
2.3687396 -1.911857 -0.67434353
2.5216053 -2.035238 -0.54023367
2.3208747 -1.8732243 -0.33243522
2.3631256 -1.9073257 -0.16962497
2.4260814 -1.9581387 0
0 -0 0
0 -0 -0
2.3183343 -1.8688619 -0.82156742
0 -0 -0
2.5208378 -2.0321047 -0.53980613
2.3139513 -1.8653287 -0.33128205
2.3622487 -1.9042623 -0.1694794
2.4049745 -1.9387045 0
0 -0 0
0 -0 -0
2.3245046 -1.8692067 -0.8229531
2.3484395 -1.8884535 -0.66758895
2.5392954 -2.0419266 -0.54322982
2.3101544 -1.8576672 -0.33041689
2.3625247 -1.8997798 -0.16933441
2.4113674 -1.9390558 0
0 -0 0
0 -0 -0
2.3208888 -1.8616858 -0.82087594
2.3408115 -1.8776666 -0.66477501
2.5377598 -2.0356474 -0.54237473
2.3184521 -1.8597313 -0.33128205
2.3648186 -1.8969238 -0.16933441
2.4157445 -1.9377738 0
0 -0 0
0 -0 -0
2.3035517 -1.843209 -0.81395566
2.3589501 -1.8875366 -0.66927814
2.5522401 -2.0421994 -0.54494172
2.31868 -1.8553141 -0.33099404
2.3731976 -1.8989369 -0.16976996
2.4282427 -1.9429817 0
0 -0 0
0 -0 -0
2.3194966 -1.851375 -0.81879878
2.3532856 -1.8783445 -0.66702658
2.5506892 -2.0359082 -0.54408497
2.3047481 -1.8396029 -0.3286877
2.3673668 -1.8895839 -0.16918941
2.4346528 -1.9432901 0
0 -0 0
0 -0 -0
2.2785575 -1.8141953 -0.80357254
2.3476024 -1.869169 -0.66477501
2.5411017 -2.0232339 -0.54151797
2.3089907 -1.8384264 -0.32897571
2.3716791 -1.888339 -0.16933441
2.4349649 -1.9387274 0
0 -0 0
0 -0 -0
2.2925315 -1.8207996 -0.80772418
2.3399127 -1.8584311 -0.66196114
2.5616343 -2.0345294 -0.54536927
2.3071635 -1.8324208 -0.32839969
2.3637872 -1.8773931 -0.16860884
2.4128506 -1.9163607 0
0 -0 0
0 -0 -0
2.3084967 -1.828935 -0.81256998
2.338177 -1.8524498 -0.66083646
2.5600705 -2.0282476 -0.54451418
2.3154521 -1.8344456 -0.32926372
2.3640192 -1.8729235 -0.16846384
2.4233239 -1.9199084 0
0 -0 0
0 -0 -0
2.318578 -1.8323666 -0.81533861
2.3384144 -1.8480432 -0.66027194
2.5665436 -2.0283329 -0.54536927
2.3115849 -1.8268399 -0.32839969
2.3703539 -1.8732849 -0.16875385
2.4174745 -1.9105242 0
0 -0 0
0 -0 -0
2.3207905 -1.8295636 -0.81533861
2.3386521 -1.8436447 -0.65970963
2.5770564 -2.0315874 -0.54708111
2.3239448 -1.8320503 -0.32984087
2.3603761 -1.8607705 -0.16788329
2.3993473 -1.891493 0
0 -0 0
0 -0 -0
2.3013051 -1.809698 -0.80772418
2.3468721 -1.8455311 -0.66139883
2.5714376 -2.0221248 -0.54536927
2.3180242 -1.8228457 -0.3286877
2.3646634 -1.8595217 -0.1680283
2.4241283 -1.9062837 0
0 -0 0
0 -0 -0
2.3054695 -1.8084689 -0.80841833
2.3391061 -1.8348544 -0.65858495
2.5718613 -2.0174334 -0.54494172
2.2998784 -1.804083 -0.32580534
2.3587306 -1.8502481 -0.16744773
2.4202929 -1.8985392 0
0 -0 0
0 -0 -0
2.3135748 -1.8103155 -0.81049281
2.3353164 -1.8273277 -0.65689576
2.5783367 -2.0174851 -0.54579681
2.3000135 -1.7997042 -0.32551619
2.3671057 -1.8522021 -0.16788329
2.4143865 -1.8891982 0
0 -0 0
0 -0 -0
2.3078499 -1.8013442 -0.80772418
2.3174965 -1.8088737 -0.65126795
2.5767291 -2.0112123 -0.54494172
2.314424 -1.8064754 -0.32724652
2.3672955 -1.8477433 -0.16773829
2.4187171 -1.8878793 0
0 -0 0
0 -0 -0
2.3100247 -1.7985542 -0.80772418
2.3397255 -1.8216789 -0.65689576
2.5710552 -2.0017891 -0.54322982
2.3043561 -1.7941407 -0.32551619
2.365422 -1.8416858 -0.16744773
2.4168935 -1.8817608 0
2.4268322 -1.8894989 0.17179495
0 -0 -0
2.3012104 -1.7894596 -0.80426407
2.3307984 -1.8124677 -0.65408188
2.5702398 -1.9986612 -0.54280227
2.2931926 -1.7832248 -0.323787
2.3767884 -1.8482302 -0.16817328
2.4098122 -1.87391 0
2.4772034 -1.9263145 0.17527829
0 -0 -0
2.3053515 -1.7882138 -0.80495554
2.330981 -1.8080941 -0.65351951
2.5767057 -1.9986978 -0.54365742
2.3076041 -1.7899612 -0.32551619
2.3687561 -1.8373955 -0.16744773
2.4305801 -1.8853512 0
2.514431 -1.9503927 0.17774552
0 -0 -0
2.3293383 -1.8023162 -0.81256998
0 -0 -0
2.5649128 -1.9845909 -0.54066288
2.3056779 -1.7840091 -0.32494017
2.3607008 -1.8265829 -0.16672218
2.410213 -1.8648927 0
2.4551368 -1.8996524 0.17339163
0 -0 -0
2.3017297 -1.776512 -0.80218959
0 -0 -0
2.5774677 -1.9893311 -0.54280227
2.3016872 -1.7764792 -0.32407501
2.3711343 -1.8300797 -0.16730273
2.4227638 -1.8699281 0
2.4471474 -1.8887477 0.17266606
0 -0 -0
2.315798 -1.7829093 -0.80634123
2.3395312 -1.8011812 -0.65408188
2.5737655 -1.9815158 -0.54151797
2.3140774 -1.7815846 -0.32551619
2.3589294 -1.8161157 -0.16628662
2.4188409 -1.862241 0
2.4164846 -1.8604269 0.17034383
0 -0 -0
2.3040206 -1.769412 -0.80149543
2.3396926 -1.7968069 -0.65351951
2.5741239 -1.9768424 -0.54109043
2.3141789 -1.7772133 -0.32522818
2.3611221 -1.813264 -0.16628662
2.4148951 -1.85456 0
2.4517045 -1.8828284 0.17266606
0 -0 -0
2.2623463 -1.7330657 -0.78626919
2.3358088 -1.7893416 -0.65183032
2.5785465 -1.9752902 -0.54151797
2.310163 -1.7696956 -0.32436302
2.3695016 -1.8151518 -0.16672218
2.3985424 -1.8373985 0
2.443666 -1.8719653 0.17194051
0 -0 -0
2.280386 -1.7425166 -0.79180646
2.3238347 -1.7757173 -0.64788955
2.5727723 -1.9659386 -0.53980613
2.3040869 -1.7606273 -0.32321095
2.3654971 -1.8075528 -0.16628662
2.4317732 -1.8581966 0
2.5305676 -1.9336885 0.17789052
0 -0 -0
2.3044393 -1.7564905 -0.79942089
2.330024 -1.7759916 -0.64901644
2.575146 -1.9628284 -0.53980613
2.3000393 -1.7531366 -0.32234582
2.3738811 -1.8094203 -0.16672218
2.4112549 -1.8379074 0
2.4481826 -1.8660544 0.17194051
0 -0 -0
2.302562 -1.7506649 -0.79803526
2.3362098 -1.7762476 -0.65014112
2.5754743 -1.9581633 -0.53937852
2.3124487 -1.7581819 -0.323787
2.3574514 -1.792398 -0.16541606
2.4217608 -1.8412931 0
2.4069996 -1.83007 0.16889271
0 -0 -0
2.292686 -1.7387885 -0.79388362
2.3241885 -1.7626801 -0.64620256
2.5839765 -1.959705 -0.54066288
2.3001437 -1.7444444 -0.32176867
2.3616838 -1.7911168 -0.16556107
2.4011722 -1.8210651 0
2.4795978 -1.8805436 0.17382717
0 -0 -0
2.292779 -1.734499 -0.79318947
2.3344142 -1.7659965 -0.64845192
2.5761003 -1.9488331 -0.53852177
2.3063793 -1.7447877 -0.32234582
2.3617761 -1.7866957 -0.16541606
2.4220483 -1.832292 0
2.5108762 -1.8994907 0.17585886
0 -0 -0
2.312902 -1.7453321 -0.79942089
2.3284414 -1.7570583 -0.64620256
2.5784533 -1.945719 -0.53852177
2.2981646 -1.7342113 -0.32090464
2.359781 -1.7807074 -0.1651255
2.4201097 -1.8262318 0
2.430203 -1.8338482 0.17005327
0 -0 -0
2.3310366 -1.7546003 -0.80495554
2.3305628 -1.7542435 -0.64620256
2.5869575 -1.9472349 -0.53980613
2.3002584 -1.7314332 -0.32090464
2.366087 -1.7809831 -0.16541606
2.4306316 -1.8295667 0
2.4656339 -1.8559132 0.1723755
0 -0 -0
2.3231258 -1.7442522 -0.80149543
2.3265829 -1.746848 -0.64451337
2.5810969 -1.9379424 -0.53809422
2.2982082 -1.7255435 -0.32032749
2.3661532 -1.7765582 -0.16527051
2.4265952 -1.8219391 0
0 -0 0
0 -0 -0
2.2931108 -1.7173874 -0.79042345
2.3408906 -1.7531714 -0.64788955
2.5834367 -1.9348222 -0.53809422
2.3002915 -1.7227653 -0.32032749
2.3641424 -1.7705855 -0.1649805
2.4121304 -1.8065251 0
2.4347568 -1.8234707 0.16990827
0 -0 -0
2.3082049 -1.7265161 -0.79526663
2.3561943 -1.7624117 -0.65183032
2.5804977 -1.9301888 -0.53723913
2.2992628 -1.7198275 -0.32003948
2.3652117 -1.7691568 -0.1649805
2.4090571 -1.8019528 0
2.4733076 -1.8500116 0.1725205
0 -0 -0
2.2821424 -1.7027253 -0.78557765
2.4194136 -1.8051444 -0.66871578
2.5807648 -1.9255298 -0.53680992
2.2868257 -1.7062196 -0.31802115
2.3840089 -1.7787287 -0.16614161
2.427912 -1.8114851 0
2.4901216 -1.8579004 0.17353661
0 -0 -0
2.2982881 -1.7104527 -0.79042345
2.6396828 -1.9645286 -0.72894067
2.5707374 -1.9132173 -0.53424293
2.2909586 -1.7049979 -0.31830916
2.3757358 -1.7680914 -0.16541606
2.4071395 -1.791463 0
2.4798617 -1.845585 0.17266606
0 -0 -0
2.3124356 -1.7166438 -0.7945751
2.7399836 -2.0340352 -0.75595915
2.5730472 -1.9101096 -0.53424293
2.2951 -1.7037746 -0.3185983
2.3674405 -1.7574769 -0.16469049
2.4260194 -1.8009632 0
2.5384164 -1.8844014 0.17658441
0 -0 -0
2.3084576 -1.7093682 -0.79249799
2.7506073 -2.0367713 -0.75821066
2.5753534 -1.9069992 -0.53424293
2.2826045 -1.6902243 -0.31657997
2.3612094 -1.7484298 -0.16410995
2.4198277 -1.7918355 0
2.5114598 -1.8596873 0.17455274
0 -0 -0
2.3105214 -1.7065777 -0.79249799
2.6937969 -1.9896693 -0.74188757
2.5755928 -1.9023623 -0.53381538
2.3075325 -1.70437 -0.31975147
2.3654084 -1.7471176 -0.16425495
2.4282732 -1.7935505 0
2.5346024 -1.8720864 0.17600384
0 -0 -0
2.2782474 -1.6784887 -0.78073186
2.5898249 -1.9080421 -0.71261752
2.5592909 -1.8855464 -0.52996409
2.2908511 -1.6877745 -0.31715709
2.3612397 -1.739633 -0.16381939
2.4283373 -1.7890669 0
2.5054886 -1.8459079 0.17382717
0 -0 -0
2.3004935 -1.6905938 -0.78765482
2.5368524 -1.86429 -0.69742125
2.5657005 -1.8854901 -0.53081918
2.294971 -1.6865354 -0.31744513
2.3717153 -1.7429336 -0.16439994
2.4472742 -1.7984606 0
2.5370274 -1.8644185 0.17585886
0 -0 -0
2.294441 -1.6818802 -0.78488618
2.5513949 -1.8702335 -0.7007975
2.557627 -1.8748018 -0.52867979
2.2990911 -1.6852888 -0.31773314
2.3675306 -1.7354565 -0.16396439
2.4116681 -1.7678103 0
2.4952703 -1.8290927 0.17281106
0 -0 -0
2.2843168 -1.6702193 -0.78073186
2.6315911 -1.9241353 -0.72218603
2.5495312 -1.8641356 -0.52654034
2.2990398 -1.6809844 -0.31744513
2.3696258 -1.7325945 -0.16396439
2.3990943 -1.7541411 0
2.495383 -1.8245442 0.17266606
0 -0 -0
2.2964661 -1.674848 -0.78419203
2.7673521 -2.0182724 -0.75877303
2.5517817 -1.8610537 -0.52654034
2.3031571 -1.6797279 -0.31773314
2.3612225 -1.7220758 -0.16323882
2.4285452 -1.7711754 0
2.5248761 -1.841431 0.17455274
0 -0 -0
2.2863195 -1.6632197 -0.78004038
2.8088226 -2.043323 -0.76946622
2.5561025 -1.8594776 -0.52696788
2.2968187 -1.6708575 -0.31657997
2.3654008 -1.7207485 -0.16338383
2.4180603 -1.7590567 0
2.5334051 -1.8429661 0.1749883
2.3815064 -1.7280685 -0.97020489
2.282234 -1.6560344 -0.77796322
2.817461 -2.0444057 -0.77115542
2.5666583 -1.8624183 -0.52867979
2.3093011 -1.6756747 -0.31802115
2.3779998 -1.7255239 -0.16410995
2.4054372 -1.7454331 0
2.4620192 -1.7864901 0.16990827
2.3395481 -1.6933111 -0.95227718
2.282203 -1.651806 -0.77727175
2.7869959 -2.0171635 -0.76214921
2.554348 -1.8487784 -0.52568358
2.302943 -1.6668172 -0.31686798
2.3674493 -1.7135053 -0.16323882
2.4349496 -1.7623605 0
2.4578674 -1.7789477 0.16947328
0 -0 -0
2.2943656 -1.6563882 -0.78073186
2.6761298 -1.931998 -0.73119217
2.5773976 -1.8607196 -0.52996409
2.3028603 -1.6625208 -0.31657997
2.3568811 -1.7015204 -0.16236827
2.4075403 -1.7380931 0
2.470547 -1.7835799 0.17019883
2.3265748 -1.6775039 -0.94575751
2.3035059 -1.6608707 -0.78350055
2.3578587 -1.7000601 -0.643951
2.5639434 -1.8486512 -0.52696788
2.2975683 -1.6565896 -0.31571481
2.355803 -1.698578 -0.16222326
2.4296958 -1.7518561 0
2.4800549 -1.7881659 0.17077939
0 -0 -0
2.2953293 -1.6507636 -0.78004038
2.3330884 -1.6779195 -0.63663191
2.5640934 -1.8440543 -0.52654034
2.3079677 -1.6598529 -0.31686798
2.374722 -1.7078617 -0.16338383
2.3958945 -1.7230886 0
2.4779906 -1.7821307 0.17048883
2.344682 -1.6819626 -0.95146304
2.3156667 -1.6611485 -0.78626919
2.34131 -1.6795437 -0.6383211
2.578831 -1.8499298 -0.52910733
2.2994652 -1.6495262 -0.3154268
2.3725653 -1.7019647 -0.16309382
2.4381557 -1.7490162 0
2.4864783 -1.7836804 0.17092438
2.2783747 -1.6302309 -0.92375576
2.293189 -1.6408309 -0.77796322
2.3309433 -1.667845 -0.63494486
2.5789785 -1.8453201 -0.52867979
2.2951443 -1.6422299 -0.31456164
2.3788424 -1.7021179 -0.16338383
2.4360301 -1.7430371 0
2.48229 -1.7761371 0.17048883
2.2843626 -1.6303456 -0.92538416
2.3278425 -1.6613772 -0.78903782
2.3308907 -1.6635526 -0.63438249
2.5749359 -1.8377273 -0.52739549
2.2950237 -1.6379544 -0.31427363
2.3787842 -1.6977342 -0.16323882
2.4317856 -1.7355611 0
2.4802084 -1.7701204 0.17019883
2.3084815 -1.6433527 -0.93434954
0 -0 -0
2.3287551 -1.6577851 -0.63325566
2.5729761 -1.8316401 -0.52654034
2.3012195 -1.638183 -0.31485078
2.3660221 -1.6843145 -0.16222326
2.4190378 -1.7220551 0
2.4865751 -1.7701333 0.17048883
2.2903168 -1.6262555 -0.92620146
0 -0 -0
2.334904 -1.6579149 -0.63438249
2.5626247 -1.8196096 -0.52397174
2.3010821 -1.6338995 -0.31456164
2.3595808 -1.6754369 -0.16164272
2.4359727 -1.7296795 0
2.4760041 -1.7581041 0.16961828
2.2519407 -1.5949168 -0.90990216
0 -0 -0
2.3327546 -1.6521525 -0.63325566
2.5711081 -1.8209643 -0.52525604
2.3072801 -1.6341106 -0.31513879
2.3637218 -1.6740849 -0.1617877
2.4125752 -1.7086849 0
2.484482 -1.7596121 0.17005327
2.2942402 -1.620716 -0.92620146
0 -0 -0
2.3389037 -1.6522676 -0.63438249
2.5879853 -1.8282259 -0.52825224
2.3029134 -1.626843 -0.31427363
2.3614943 -1.6682262 -0.16149715
2.4337666 -1.7192814 0
2.4866064 -1.7566088 0.17005327
2.3143787 -1.630754 -0.93353534
0 -0 -0
2.3263569 -1.639194 -0.63044178
2.5817986 -1.819183 -0.52654034
2.3027651 -1.6225708 -0.31398562
2.374135 -1.6728593 -0.16222326
2.4294579 -1.7118409 0
2.4802387 -1.7476219 0.16947328
2.306231 -1.6208463 -0.9294582
2.2967243 -1.6141649 -0.77450311
2.3220973 -1.6319973 -0.62875259
2.5860932 -1.8175367 -0.52696788
2.2941453 -1.6123524 -0.31254444
2.3718987 -1.6669984 -0.16193271
2.4315245 -1.7089041 0
2.4865963 -1.7476091 0.16976327
2.3183129 -1.6251563 -0.93353534
2.3007255 -1.6128273 -0.77519459
2.3240676 -1.6291904 -0.62875259
2.5756793 -1.8055722 -0.52440095
2.3066795 -1.6170012 -0.31398562
2.3632746 -1.6566749 -0.16120715
2.4293296 -1.7029799 0
2.4759438 -1.7356569 0.16889271
2.3039899 -1.6068258 -0.92620146
2.3190227 -1.6173098 -0.78004038
2.3217437 -1.6192074 -0.62706339
2.5695012 -1.791996 -0.52225983
2.3105805 -1.6114221 -0.31398562
2.3672712 -1.6509589 -0.16120715
2.4142282 -1.6837071 0
2.4929149 -1.738584 0.16976327
2.2450562 -1.5616961 -0.90175092
2.3168602 -1.611644 -0.77865738
2.3028438 -1.601894 -0.62143564
2.5442708 -1.7698345 -0.51669669
2.3019114 -1.6012455 -0.31254444
2.364994 -1.6451268 -0.1609166
2.4290755 -1.6897029 0
2.4822192 -1.7266704 0.16889271
2.2956781 -1.5927969 -0.92131007
2.3394141 -1.6231419 -0.78557765
2.3110425 -1.603457 -0.62312484
2.5274274 -1.7535901 -0.5128454
2.2953441 -1.5925652 -0.31139126
2.3797936 -1.6511583 -0.1617877
2.4140096 -1.674898 0
2.4907024 -1.7281094 0.16932772
0 -0 -0
2.3486426 -1.6274438 -0.78834635
2.2994757 -1.5933746 -0.61974645
2.4905102 -1.7257481 -0.50514281
2.3154376 -1.6044351 -0.31398562
2.3701138 -1.6423218 -0.16106215
2.4235775 -1.6793684 0
2.470392 -1.7118075 0.1678766
2.2578964 -1.5605283 -0.90501076
2.3464758 -1.6217492 -0.78696066
2.3034956 -1.5920438 -0.6203109
2.376452 -1.642467 -0.48160586
2.2982268 -1.5884024 -0.31139126
2.3870535 -1.6497942 -0.16207771
2.4405935 -1.686798 0
2.48528 -1.7176827 0.16874716
2.239435 -1.5437735 -0.89686269
2.342243 -1.6146451 -0.78488618
2.2782238 -1.570513 -0.61299396
2.323487 -1.6017156 -0.47047952
2.3150451 -1.595896 -0.31340846
2.3762131 -1.6380628 -0.16120715
2.4383402 -1.6808907 0
2.4787962 -1.7087793 0.16816659
2.2698076 -1.5606686 -0.90827066
2.3400538 -1.6089683 -0.78350055
2.301053 -1.5821524 -0.61862171
2.2873495 -1.5727299 -0.46277693
2.3148425 -1.5916336 -0.31312045
2.3632004 -1.6248835 -0.16019104
2.4210711 -1.664674 0
2.4765809 -1.7028413 0.1678766
0 -0 -0
2.3357873 -1.6018816 -0.78142339
2.2945812 -1.5736225 -0.6163702
2.2871249 -1.568509 -0.46234772
2.3039696 -1.5800611 -0.31139126
2.3651621 -1.6220269 -0.16019104
2.4230809 -1.6617475 0
2.4722059 -1.6954373 0.16744104
0 -0 -0
2.3149495 -1.5834818 -0.77381158
2.3300362 -1.5938014 -0.62537634
2.2869017 -1.5642964 -0.46192017
2.3016033 -1.5743526 -0.31081411
2.3821354 -1.6294385 -0.16120715
2.420795 -1.6558826 0
2.4828315 -1.6983171 0.1680216
0 -0 -0
2.2982116 -1.5679598 -0.76758277
2.2899816 -1.5623448 -0.61411864
2.2781894 -1.5542996 -0.45978075
2.314193 -1.5788631 -0.3122564
2.3841023 -1.6265589 -0.16120715
2.4227941 -1.6529564 0
2.4784403 -1.6909211 0.16758604
0 -0 -0
2.310473 -1.5722373 -0.77104294
2.2876704 -1.5567205 -0.61299396
2.2800658 -1.5515456 -0.45978075
2.3075457 -1.5702453 -0.31110325
2.3817654 -1.6207505 -0.1609166
2.4398446 -1.6602724 0
2.4761891 -1.6850042 0.16729604
0 -0 -0
2.3144448 -1.5708519 -0.77173442
2.3189793 -1.5739294 -0.62087327
2.2861829 -1.55167 -0.46063587
2.3051572 -1.5645481 -0.3105261
2.3837221 -1.6178714 -0.1609166
2.4483111 -1.661709 0
2.4889712 -1.6893059 0.1680216
0 -0 -0
2.2997212 -1.5568032 -0.76619714
2.299834 -1.5568796 -0.61524332
2.2816849 -1.5445935 -0.45935318
2.2963386 -1.5545133 -0.30908492
2.3835256 -1.6135348 -0.16077159
2.4352291 -1.6485356 0
2.4759462 -1.6760993 0.16700548
0 -0 -0
2.305763 -1.5568337 -0.76758277
2.2975061 -1.5512586 -0.61411864
2.2878006 -1.5447055 -0.4602083
2.3110728 -1.5604188 -0.31081411
2.3725564 -1.601932 -0.15990104
2.4307549 -1.6412272 0
2.4844322 -1.6774698 0.16744104
0 -0 -0
2.2993188 -1.5484412 -0.76481414
2.3057034 -1.5527407 -0.61580783
2.2875381 -1.5405076 -0.45978075
2.3129566 -1.5576252 -0.31081411
2.3787968 -1.6019642 -0.16019104
2.4348927 -1.6397412 0
2.4735298 -1.6657609 0.16657048
0 -0 -0
2.2928579 -1.5400664 -0.7620455
2.2949183 -1.5414503 -0.61242944
2.2830029 -1.5334469 -0.45849642
2.3169901 -1.5562756 -0.31110325
2.3979869 -1.6106795 -0.16135216
2.4411888 -1.6396973 0
2.4733858 -1.6613234 0.16642548
0 -0 -0
2.2884622 -1.5331045 -0.75996834
2.309449 -1.5471641 -0.61580783
2.2741926 -1.5235448 -0.456357
2.3059719 -1.5448347 -0.30937293
2.3783476 -1.5933212 -0.15990104
2.4172308 -1.6193702 0
2.4732263 -1.6568831 0.16627993
0 -0 -0
2.2715414 -1.5177953 -0.7537396
2.302866 -1.5387259 -0.61355633
2.2867019 -1.5279254 -0.45849642
2.297086 -1.5348637 -0.30793175
2.3910718 -1.597663 -0.16062659
2.4321649 -1.6251208 0
2.4817102 -1.6582258 0.16671549
0 -0 -0
2.2712879 -1.5136596 -0.75304806
2.3068359 -1.5373499 -0.61411864
2.2864122 -1.523739 -0.45806888
2.307548 -1.5378245 -0.30908492
2.4016495 -1.6005368 -0.16120715
2.4254644 -1.6164078 0
2.4815519 -1.6537863 0.16657048
0 -0 -0
2.2554941 -1.5011671 -0.74751079
2.3077643 -1.535956 -0.61411864
2.2916024 -1.5251993 -0.458924
2.3084767 -1.5364301 -0.30908492
2.3701668 -1.5774885 -0.15902992
2.4112728 -1.6048471 0
2.4738979 -1.646528 0.16598992
0 -0 -0
2.2635789 -1.5026044 -0.74958795
2.296921 -1.5247375 -0.61074245
2.2784786 -1.5124952 -0.45592946
2.3124845 -1.5350688 -0.30937293
2.3720713 -1.5746236 -0.15902992
2.4435699 -1.6220857 0
2.4758856 -1.6435375 0.16598992
0 -0 -0
2.2988541 -1.5220222 -0.76065987
2.3114693 -1.5303745 -0.61411864
2.2760196 -1.5069039 -0.4550727
2.305711 -1.526562 -0.30821976
2.3761449 -1.5731949 -0.15917549
2.4542081 -1.6248788 0
2.4887009 -1.6477157 0.16671549
2.2388265 -1.4783913 -0.88463742
2.2839434 -1.508184 -0.75512254
2.3048356 -1.5219799 -0.61186713
2.2821271 -1.5069846 -0.45592946
2.30971 -1.5251988 -0.30850777
2.3693707 -1.5645951 -0.15859492
2.4062178 -1.5889268 0
2.477684 -1.636119 0.16584492
2.2550623 -1.4852027 -0.89034295
2.2815778 -1.502666 -0.7537396
2.315161 -1.5247842 -0.61411864
2.2775126 -1.4999887 -0.45464513
2.3093934 -1.5209856 -0.30821976
2.3755956 -1.5645868 -0.15888493
2.412487 -1.5888839 0
2.481827 -1.6345519 0.16598992
2.2713177 -1.4919769 -0.89604849
2.2645223 -1.4875131 -0.74751079
2.321245 -1.524773 -0.61524332
2.2728846 -1.4930061 -0.45336083
2.3220365 -1.5252929 -0.30966094
2.3731449 -1.5588647 -0.15859492
2.4013498 -1.577392 0
2.4751132 -1.6258454 0.16540937
2.3061976 -1.5109029 -0.90908796
2.3061836 -1.5108937 -0.76065987
2.3188391 -1.5191848 -0.61411864
0 -0 -0
2.3195548 -1.5196538 -0.30908492
2.381541 -1.560264 -0.15902992
2.453325 -1.6072932 0
2.4879415 -1.6299721 0.16613492
2.2893939 -1.4959435 -0.90175092
2.2954106 -1.4998748 -0.75650823
2.2994063 -1.5024859 -0.60849088
2.2979798 -1.5015538 -0.45764133
2.3192263 -1.5154365 -0.30879691
2.3856061 -1.5588107 -0.15917549
2.4225838 -1.5829728 0
2.4899092 -1.6269647 0.16613492
2.3326137 -1.5201656 -0.91805023
2.2362702 -1.4573785 -0.73643619
2.3139884 -1.5080276 -0.61186713
2.2911899 -1.4931695 -0.45592946
2.3167176 -1.509806 -0.30821976
0 -0 -0
2.4572022 -1.6013598 0
2.4809904 -1.6168627 0.16540937
0 -0 -0
2.2506464 -1.462876 -0.74058783
2.3328524 -1.5163082 -0.6163702
2.2951427 -1.4917977 -0.456357
2.3250482 -1.5112357 -0.30908492
2.3697517 -1.5402921 -0.1578688
2.450407 -1.5927165 0
2.4742277 -1.6081994 0.16482881
2.2284434 -1.4446172 -0.87567514
2.2713647 -1.4724414 -0.74681926
2.3304145 -1.5107213 -0.61524332
2.2947915 -1.4876283 -0.45592946
2.3312092 -1.5112364 -0.30966094
2.3781543 -1.5416694 -0.15830436
2.447958 -1.5869204 0
2.4892471 -1.6136866 0.16569936
0 -0 -0
2.2752469 -1.4710567 -0.74751079
2.3237114 -1.5023915 -0.61299396
2.2858107 -1.4778868 -0.45379004
2.3308635 -1.5070156 -0.30937293
2.373467 -1.5345608 -0.1578688
2.4542489 -1.5867901 0
2.4802868 -1.6036249 0.16497381
2.3399336 -1.5088738 -0.91805023
2.2854564 -1.4737449 -0.75027943
2.3212502 -1.4968259 -0.61186713
2.2875948 -1.4751238 -0.45379004
2.3283393 -1.5013974 -0.30879691
2.3753195 -1.5316919 -0.1578688
2.4080503 -1.5527978 0
2.4865944 -1.6034459 0.16526437
0 -0 -0
2.2661307 -1.4574093 -0.74335647
2.3380187 -1.5036423 -0.61580783
2.3066401 -1.4834619 -0.45721212
2.3366718 -1.5027761 -0.30966094
2.3815439 -1.5316344 -0.15815936
2.423054 -1.5583307 0
2.4841547 -1.5976263 0.16497381
0 -0 -0
2.2615612 -1.4506104 -0.74128199
2.3269973 -1.4925826 -0.61242944
2.291153 -1.4695913 -0.45379004
2.3297775 -1.4943658 -0.30850777
0 -0 -0
2.4446483 -1.5680462 0
2.4860835 -1.5946236 0.16497381
2.2787709 -1.4577658 -0.89197445
2.2654235 -1.4492273 -0.74197346
2.318099 -1.4829248 -0.60961556
2.2972476 -1.4695858 -0.45464513
2.33812 -1.4957324 -0.30937293
2.3918068 -1.5300769 -0.15859492
2.4246225 -1.5510695 0
2.4989507 -1.5986184 0.16569936
2.3296313 -1.4883194 -0.91153049
2.2705228 -1.4505571 -0.74335647
2.2997255 -1.4692137 -0.60455018
2.2981353 -1.4681977 -0.45464513
2.3172309 -1.4803972 -0.30649057
2.3949184 -1.5300292 -0.15873992
2.4452953 -1.5622131 0
2.4889696 -1.5901151 0.16497381
2.3064146 -1.4695657 -0.90175092
2.2595832 -1.4397266 -0.73920482
2.288646 -1.4582443 -0.60117394
2.2977448 -1.4640416 -0.45421758
2.3430064 -1.4928807 -0.30966094
2.3967655 -1.5271342 -0.15873992
2.4449885 -1.5578601 0
2.4930785 -1.5885013 0.16511881
2.3269689 -1.4787122 -0.90908796
2.2951999 -1.458524 -0.75027943
2.301127 -1.4622904 -0.60398781
2.2995119 -1.4612643 -0.45421758
2.3382657 -1.4858909 -0.30879691
2.4029911 -1.5270216 -0.15902992
2.4402773 -1.5507159 0
2.4993863 -1.5882778 0.16540937
2.3684132 -1.5010344 -0.92456996
2.2948434 -1.4544079 -0.74958795
2.2985957 -1.4567859 -0.60286099
2.2904367 -1.451615 -0.45207816
2.3444245 -1.485831 -0.30937293
2.3894773 -1.5143842 -0.15801436
2.4311604 -1.5408018 0
2.5100827 -1.5908206 0.16598992
2.3179963 -1.4651586 -0.90419662
2.2732699 -1.4368881 -0.74197346
0 -0 -0
2.3052044 -1.4570732 -0.45464513
2.3462181 -1.4829972 -0.30937293
2.3978884 -1.5156568 -0.15844937
2.4242208 -1.5323011 0
2.4834511 -1.5697393 0.16410325
2.3741226 -1.4966233 -0.92538416
2.2834935 -1.4394916 -0.74474216
2.2913642 -1.4444532 -0.60004705
2.3026242 -1.4515514 -0.45379004
2.3436365 -1.4774052 -0.30879691
2.4019225 -1.514148 -0.15859492
2.4326773 -1.5335356 0
2.4589684 -1.5501093 0.16236158
2.384299 -1.4990156 -0.928644
2.3001006 -1.4460797 -0.74958795
2.2866526 -1.4376249 -0.59835786
2.3087189 -1.4514982 -0.45464513
2.3322778 -1.4663097 -0.30706659
2.4015441 -1.5098577 -0.15844937
2.4565568 -1.5444442 0
2.4784381 -1.5582012 0.16352269
2.3316681 -1.4619983 -0.90745646
2.2699616 -1.4233073 -0.73920482
2.288388 -1.4348609 -0.59835786
2.3104711 -1.4487075 -0.45464513
2.3406239 -1.4676138 -0.30793175
2.398968 -1.5041966 -0.15815936
2.458421 -1.5414748 0
2.4450955 -1.5331194 0.16120046
2.3481042 -1.4683543 -0.91316199
2.2865715 -1.4298759 -0.74405062
2.2901201 -1.4320948 -0.59835786
2.3078709 -1.4431951 -0.45379004
2.3380053 -1.4620392 -0.3073546
2.4029849 -1.5026733 -0.15830436
2.4691081 -1.5440226 0
2.4337316 -1.5219003 0.16032991
2.3729396 -1.4798995 -0.92212427
2.2755213 -1.4191438 -0.73989636
2.285387 -1.4252968 -0.59667087
2.2965398 -1.4322522 -0.45122141
2.3397701 -1.4592131 -0.3073546
2.4092126 -1.5025213 -0.15859492
2.4201803 -1.5093614 0
2.4818676 -1.5478331 0.16337769
2.4901519 -1.5488237 -0.96694499
2.2388928 -1.3925456 -0.72743875
2.2978935 -1.4292428 -0.59948474
2.3091657 -1.436254 -0.45336083
2.334949 -1.4522907 -0.30649057
2.4066091 -1.4968618 -0.15830436
2.4639926 -1.5325532 0
2.4219549 -1.5064064 0.15931378
2.2576289 -1.4004188 -0.73297602
2.3017759 -1.4278034 -0.60004705
2.3043613 -1.4294071 -0.45207816
2.3388979 -1.4508303 -0.30677858
2.3995836 -1.4884739 -0.1577238
2.5056467 -1.5542654 0
2.4392323 -1.5130682 0.16032991
2.2294545 -1.3792144 -0.72328711
2.3078253 -1.4276972 -0.60117394
2.3126299 -1.4306694 -0.45336083
2.3472502 -1.4520868 -0.30764374
2.4080117 -1.4896759 -0.15815936
2.4721112 -1.5293299 0
2.4521055 -1.5169537 0.16105546
2.2332523 -1.3778355 -0.72397858
2.3052197 -1.4222367 -0.60004705
2.305618 -1.4224825 -0.45164895
2.3445964 -1.4465307 -0.30706659
2.4120193 -1.4881282 -0.15830436
2.4894636 -1.5359086 0
2.4804738 -1.5303621 0.16279714
2.2562785 -1.3882805 -0.73089892
2.291786 -1.4101282 -0.59610635
2.3138962 -1.4237325 -0.45293328
2.3529532 -1.4477643 -0.30793175
2.4138157 -1.4852127 -0.15830436
2.5023983 -1.5397172 0
2.4336293 -1.4974039 0.15960379
2.2442958 -1.3790392 -0.72674727
2.3012969 -1.4140643 -0.59835786
2.3081923 -1.4183012 -0.45164895
2.3472142 -1.4422789 -0.30706659
2.4125006 -1.4823951 -0.15815936
2.4900281 -1.5300328 0
2.4876671 -1.528582 0.16308713
2.2480977 -1.377636 -0.72743875
2.294338 -1.4059721 -0.59610635
2.3186595 -1.4208764 -0.45336083
2.3599799 -1.4461975 -0.30850777
2.4253657 -1.486266 -0.15888493
2.4208672 -1.4835093 0
2.4562855 -1.5052136 0.16091046
2.271163 -1.3879985 -0.73435903
2.3047075 -1.4084989 -0.59835786
2.3159981 -1.415399 -0.45250571
2.3661437 -1.446045 -0.30908492
2.4182911 -1.4779143 -0.15830436
2.4848356 -1.5185825 0
0 -0 0
2.2642696 -1.3800306 -0.73159039
2.3107512 -1.4083604 -0.59948474
2.3177066 -1.4125996 -0.45250571
2.3590548 -1.4378005 -0.30793175
2.4156418 -1.4722892 -0.15801436
2.4644418 -1.5020319 0
2.4576905 -1.4979172 0.1607649
2.2359262 -1.3590533 -0.72190148
2.2972503 -1.3963276 -0.59554398
2.3128288 -1.4057966 -0.45122141
2.3607905 -1.434949 -0.30793175
2.417419 -1.4693693 -0.15801436
2.4751506 -1.50446 0
2.5749621 -1.565128 0.16831216
2.278331 -1.3810608 -0.73505318
2.3076272 -1.3988193 -0.59779555
2.3211136 -1.4069945 -0.45250571
2.3669422 -1.4347744 -0.30850777
2.430301 -1.4731808 -0.15873992
2.4391346 -1.4785354 0
2.5279613 -1.5323797 0.16511881
2.2563796 -1.3640289 -0.72743875
2.3093157 -1.3960301 -0.59779555
2.3272014 -1.4068424 -0.45336083
2.36204 -1.4279029 -0.30764374
2.425406 -1.4662089 -0.15830436
2.4721038 -1.4944389 0
0 -0 0
2.2752142 -1.3716639 -0.73297602
2.319705 -1.3984861 -0.60004705
2.3223107 -1.400057 -0.45207816
2.3615422 -1.4237086 -0.3073546
2.440532 -1.4713295 -0.15917549
2.4627659 -1.4847337 0
0 -0 0
2.2661216 -1.3624516 -0.72951591
2.3213933 -1.3956822 -0.60004705
2.3152003 -1.391959 -0.45036629
2.3699129 -1.4248536 -0.30821976
2.4334002 -1.4630238 -0.15859492
2.4935515 -1.4991883 0
0 -0 0
2.304342 -1.3816427 -0.74128199
2.3230779 -1.3928763 -0.60004705
2.3168807 -1.3891605 -0.45036629
2.3649757 -1.4179975 -0.3073546
2.4373927 -1.4614174 -0.15873992
2.5065193 -1.5028645 0
0 -0 0
2.256484 -1.3492438 -0.72536159
2.3138573 -1.3835496 -0.59723318
2.3119457 -1.3824065 -0.44908199
2.3777933 -1.4217795 -0.30879691
2.4369287 -1.457139 -0.15859492
2.5150278 -1.5038376 0
2.5460937 -1.5224133 0.16569936
2.301208 -1.3722141 -0.73920482
2.3177078 -1.3820529 -0.59779555
2.326839 -1.3874979 -0.45164895
0 -0 -0
2.4409173 -1.4555229 -0.15873992
2.521318 -1.5034659 0
0 -0 0
2.3136437 -1.3758427 -0.74266499
2.3215578 -1.3805488 -0.59835786
2.332931 -1.3873121 -0.45250571
0 -0 -0
2.4382031 -1.4499136 -0.15844937
2.5454972 -1.5137177 0
0 -0 0
2.3277569 -1.3766316 -0.7461251
2.3248873 -1.3749344 -0.59835786
2.3384843 -1.3829757 -0.45293328
0 -0 -0
2.4416997 -1.4440173 -0.15844937
2.5491478 -1.5075618 0
2.5154021 -1.4876047 0.16323213
2.3423884 -1.3814671 -0.75027943
2.3243604 -1.3708347 -0.59779555
2.3467891 -1.3840625 -0.45421758
0 -0 -0
2.4479237 -1.4437084 -0.15873992
2.5689008 -1.5150571 0
0 -0 0
2.3418956 -1.3773651 -0.74958795
2.323827 -1.3667383 -0.59723318
2.3418195 -1.3773204 -0.45293328
0 -0 -0
2.4519038 -1.4420656 -0.15888493
2.5572743 -1.5040383 0
0 -0 0
2.3513801 -1.3810322 -0.75235659
2.3246522 -1.3653342 -0.59723318
2.3470824 -1.378508 -0.45379004
2.3888865 -1.4030607 -0.30879691
2.4527745 -1.4405841 -0.15888493
2.5536902 -1.4998546 0
0 -0 0
2.3054178 -1.3502933 -0.73712766
2.3263004 -1.3625243 -0.59723318
2.3598197 -1.3821567 -0.45592946
2.3838825 -1.3962504 -0.30793175
2.4612422 -1.4415603 -0.15932047
2.5824485 -1.5125513 0
0 -0 0
2.3373802 -1.3652234 -0.74681926
2.3367212 -1.3648384 -0.59948474
2.3637025 -1.3805978 -0.456357
2.387799 -1.3946722 -0.30821976
2.4540071 -1.4333432 -0.15873992
2.5865192 -1.5107412 0
0 -0 0
2.336854 -1.3611318 -0.7461251
2.3339732 -1.3594538 -0.59835786
2.3587122 -1.3738633 -0.4550727
2.3894825 -1.3917859 -0.30821976
2.4557374 -1.4303769 -0.15873992
2.5748541 -1.4997581 0
0 -0 0
2.3558519 -1.3683877 -0.75166243
2.3268256 -1.3515278 -0.59610635
2.3581529 -1.3697243 -0.45464513
2.3933969 -1.3901955 -0.30850777
2.4597087 -1.4287125 -0.15888493
2.5946679 -1.507103 0
2.6281171 -1.5265319 0.16976327
2.3140943 -1.340396 -0.73782182
2.330662 -1.3499925 -0.59667087
2.3620255 -1.3681593 -0.4550727
2.3950748 -1.3873025 -0.30850777
2.4614332 -1.4257393 -0.15888493
2.5807209 -1.4948345 0
0 -0 0
2.3461215 -1.3551641 -0.74751079
2.3498933 -1.3573425 -0.60117394
2.3592353 -1.3627387 -0.45421758
2.3945119 -1.3831152 -0.30821976
2.4586582 -1.4201672 -0.15859492
2.5983024 -1.5008283 0
0 -0 0
2.3542812 -1.356086 -0.74958795
2.3493235 -1.3532302 -0.60060942
2.365325 -1.3624473 -0.4550727
2.3939424 -1.378931 -0.30793175
2.4671209 -1.4210825 -0.15902992
2.5888402 -1.491194 0
0 -0 0
2.3559182 -1.3532403 -0.74958795
2.3531666 -1.3516598 -0.60117394
2.3780973 -1.36598 -0.45721212
2.404578 -1.3811905 -0.30908492
2.4710958 -1.4193984 -0.15917549
2.5816133 -1.4828798 0
0 -0 0
2.403265 -1.3765771 -0.76412266
2.3503842 -1.3462873 -0.60004705
2.3730698 -1.3592814 -0.45592946
2.401752 -1.3757105 -0.30850777
2.4637902 -1.4112455 -0.15859492
2.5879154 -1.4823439 0
2.5471101 -1.4589707 0.16395825
2.3809617 -1.3599837 -0.75650823
2.3476007 -1.3409282 -0.59892237
2.3813913 -1.360229 -0.45721212
2.3989251 -1.3702441 -0.30793175
2.4745188 -1.4134226 -0.15917549
2.5897048 -1.4792159 0
0 -0 0
2.3586218 -1.3434461 -0.7488938
2.3536308 -1.3406034 -0.60004705
2.3919556 -1.3624327 -0.458924
2.4073236 -1.3711863 -0.30879691
2.4829919 -1.4142861 -0.15961048
2.5869718 -1.4735119 0
0 -0 0
2.362431 -1.3418379 -0.74958795
2.3508344 -1.3352511 -0.59892237
2.3913701 -1.3582749 -0.45849642
2.4134724 -1.3708289 -0.30937293
2.484699 -1.4112849 -0.15961048
2.5978022 -1.4755263 0
2.6404929 -1.4997743 0.16961828
2.407701 -1.3637056 -0.76342851
2.3612895 -1.3374186 -0.60117394
