# .PCD v0.7 - Point Cloud Data file format
VERSION 0.7
FIELDS x y z
SIZE 4 4 4
TYPE F F F
COUNT 1 1 1
WIDTH 1640
HEIGHT 1
VIEWPOINT 0 0 0 1 0 0 0
POINTS 1640
DATA ascii
6.4142218 3.3122625 -0.80463326
6.4360204 3.3235192 -0.40459365
9.854949 5.0890322 0
9.8342714 5.0783539 0.6182211
3.3640583 1.7423298 -0.83926177
6.4102144 3.3200104 -0.80463326
6.4389153 3.3348751 -0.40502864
9.8511019 5.1021318 0
9.8373566 5.0950131 0.61880165
3.3687084 1.7499039 -0.84094876
6.4107933 3.3301406 -0.80521041
6.4325771 3.3414562 -0.40488365
9.8495531 5.1164331 0
9.8265772 5.1044979 0.61851108
3.3575778 1.749277 -0.83869725
6.4113483 3.3402722 -0.80578643
6.4331393 3.3516252 -0.40517363
9.8502893 5.1319389 0
9.825016 5.1187716 0.61880165
3.3442039 1.7474501 -0.83588338
6.4073071 3.3480165 -0.80578643
6.4382968 3.3642097 -0.40575421
9.84869 5.1462455 0
9.8257341 5.1342506 0.61923724
3.3240855 1.7420541 -0.83138031
6.4124212 3.3605585 -0.8069396
6.4365354 3.3731961 -0.40589976
9.8493824 5.1617675 0
9.8241224 5.1485295 0.61952722
3.3287277 1.749617 -0.8330695
6.4083557 3.3683043 -0.8069396
6.4393487 3.3845944 -0.40633476
9.8523531 5.1785083 0
9.8293924 5.1664395 0.62025279
3.3041384 1.7417911 -0.82744169
6.4180136 3.3832843 -0.80866992
6.4329576 3.3911619 -0.40618977
9.8483887 5.1916213 0
9.8208466 5.1771021 0.62010777
3.2997787 1.7445912 -0.82687718
6.3910508 3.3789454 -0.80578643
6.4357491 3.4025772 -0.40662533
9.85361 5.2095981 0
9.826067 5.1950364 0.62083334
3.2797182 1.7390592 -0.82237631
6.3938208 3.3903012 -0.80665159
6.4431095 3.4164362 -0.40735087
9.8519106 5.2239413 0
9.8197823 5.2069054 0.62083334
3.2943695 1.7493786 -0.82631487
6.4009089 3.3990157 -0.80780476
6.4387512 3.4191108 -0.40720588
9.848753 5.2298923 0
9.821229 5.2152767 0.62112391
3.2788014 1.7461939 -0.82293862
6.4013677 3.4091814 -0.80838192
6.4369068 3.4281085 -0.40735087
9.8608027 5.2515755 0
9.8195028 5.2295809 0.62141389
3.267724 1.745366 -0.82068712
6.4063692 3.421788 -0.80953509
6.4373393 3.4383299 -0.40764087
9.8567438 5.2647114 0
9.8292236 5.2500124 0.62243003
3.2633753 1.7481145 -0.82012475
6.3999434 3.4283016 -0.80924594
6.4354773 3.4473362 -0.40778643
9.8549585 5.2790732 0
9.8228722 5.2618852 0.62243003
3.2232111 1.7316149 -0.81055623
6.409472 3.4433789 -0.81097627
6.44275 3.4612572 -0.408512
9.8577433 5.2959037 0
9.8279505 5.2798982 0.62315559
3.241246 1.746354 -0.81562167
6.4212389 3.4597054 -0.81299347
6.4339838 3.466572 -0.40822142
9.8513365 5.3078108 0
9.8215637 5.2917695 0.62315559
3.2123086 1.7357742 -0.80886704
6.4398136 3.4797597 -0.81587696
6.4275064 3.4731097 -0.40807644
9.8540745 5.3246593 0
9.8334503 5.3135152 0.62431669
3.2191446 1.7444968 -0.8111186
6.4537964 3.4973972 -0.8181833
6.4278784 3.4833519 -0.40836698
9.8522139 5.3390446 0
9.8224497 5.3229146 0.62402612
3.1723845 1.7241191 -0.79986089
6.456377 3.5088944 -0.81904733
6.4282265 3.4935954 -0.40865698
9.8571873 5.3571577 0
9.827424 5.340982 0.62475169
3.1569171 1.7206572 -0.79648465
0 0 -0
6.4544101 3.5179346 -0.81933647
9.2142038 5.0221424 -0.58615321
9.8461323 5.3665705 0
9.8300896 5.3578267 0.62533224
3.1236176 1.7074064 -0.78860319
6.4569569 3.529449 -0.8202005
9.2012949 5.0295367 -0.58571821
9.8487749 5.3834567 0
9.8281727 5.3721957 0.62562281
3.1438375 1.7233957 -0.79423314
6.4526873 3.5372484 -0.8202005
9.2088776 5.0481429 -0.5865888
9.8468313 5.3978577 0
9.8376265 5.3928118 0.62663889
3.1194823 1.71495 -0.78860319
6.4529462 3.5475371 -0.82077765
9.2004967 5.0580158 -0.58644378
9.8403015 5.4097519 0
9.8219948 5.3996873 0.62605834
3.1151848 1.7174923 -0.78804088
6.4509177 3.5565794 -0.82106566
9.2080269 5.076654 -0.58731437
9.8451509 5.4279194 0
9.8245649 5.4165697 0.62663889
3.0997698 1.7138808 -0.78466463
6.4466157 3.5643713 -0.82106566
9.206439 5.0902934 -0.58760488
9.8476954 5.4448481 0
9.8248291 5.4322052 0.62707388
3.0754707 1.705301 -0.77903467
6.4513521 3.5771751 -0.82221884
9.2070923 5.1051908 -0.58803988
9.8411093 5.4567432 0
9.8250771 5.447854 0.62750947
3.0756352 1.7102543 -0.77959919
6.4583254 3.5912516 -0.82366002
9.1986485 5.1150503 -0.58789492
9.8458796 5.4749532 0
9.8184881 5.4597216 0.62750947
0 0 -0
6.4449453 3.5940137 -0.82250684
9.201539 5.1312237 -0.58847547
9.8392563 5.486846 0
9.8232288 5.4779077 0.62823504
0 0 -0
6.4518833 3.6081095 -0.82394803
9.1975975 5.1436052 -0.58862048
9.8417053 5.5038118 0
9.8143368 5.4885063 0.62809002
0 0 -0
6.454289 3.6196995 -0.82481319
9.1913757 5.1547146 -0.58862048
9.8441277 5.5207915 0
9.8258286 5.510529 0.62925112
0 0 -0
6.4386406 3.6211572 -0.82337201
9.1964712 5.1721897 -0.58934659
9.8510551 5.5403342 0
9.8191633 5.5223975 0.62925112
3.0519633 1.7213128 -0.7762208
3.4966676 1.9721268 -0.44745752
9.1992683 5.1884041 -0.58992714
9.8398247 5.5496788 0
9.8192749 5.5380888 0.62968671
3.0432441 1.7212453 -0.7745316
3.3121309 1.8733265 -0.63438153
3.4807785 1.9687128 -0.44572833
9.2020397 5.2046328 -0.59050769
9.8399096 5.5654092 0
9.819355 5.5537834 0.63012171
3.0355773 1.7193305 -0.77284461
3.3020639 1.8702667 -0.63266969
3.4795885 1.9708154 -0.44572833
9.2056694 5.2140293 -0.59094268
9.8433323 5.5751972 0
9.8318272 5.5686803 0.63113785
3.0290747 1.720485 -0.77171773
3.2953417 1.871722 -0.63181454
3.4547186 1.9622467 -0.44284594
9.1903248 5.220015 -0.59036213
9.84338 5.5909438 0
9.8205681 5.5779872 0.63084728
3.018162 1.7191133 -0.76946622
3.2908492 1.8744332 -0.631387
3.468071 1.9753768 -0.44486317
9.1952982 5.237545 -0.5910877
9.8501806 5.6105595 0
9.8138208 5.5898495 0.63084728
3.00947 1.7189819 -0.76777917
3.2908087 1.87968 -0.63181454
3.4566979 1.9744345 -0.44371
9.1979885 5.2538071 -0.59166825
9.8411369 5.6211681 0
9.8251095 5.6120133 0.63200837
3.011796 1.7251403 -0.76890385
3.270715 1.8734477 -0.62839079
3.4296279 1.9644722 -0.4405396
9.2074184 5.2739592 -0.59268439
9.8478918 5.6408186 0
9.8250885 5.6277571 0.63244396
3.0097094 1.7287782 -0.76890385
3.2706728 1.8786757 -0.62881839
3.4250112 1.9673278 -0.44025159
9.1897755 5.2786107 -0.59195882
9.8410683 5.6527138 0
9.8272934 5.6448016 0.63302451
2.9966116 1.7260737 -0.76608998
3.2461603 1.8698158 -0.62453949
3.4181447 1.9688804 -0.43967447
9.1946468 5.2961946 -0.59268439
9.8500109 5.6736898 0
9.820466 5.6566715 0.63302451
2.996722 1.730963 -0.76665235
3.2550108 1.8801554 -0.62667894
3.4157631 1.9730091 -0.43967447
9.1927452 5.3099027 -0.5929749
9.8499107 5.6894937 0
9.81812 5.6711307 0.63331449
2.9836369 1.7282162 -0.76383841
3.2549558 1.8853725 -0.62710649
3.3932357 1.9654686 -0.43708012
9.1930618 5.3249097 -0.5934099
9.8475285 5.7039976 0
9.8270016 5.6921077 0.63433063
2.9705629 1.7254403 -0.76102453
3.2371433 1.8802824 -0.62411195
3.388624 1.9682693 -0.43679208
9.2001066 5.3438468 -0.59428102
9.8451347 5.7185092 0
9.8268595 5.7078943 0.63476616
2.9772582 1.7341437 -0.7632761
3.2370851 1.8854833 -0.62453949
3.3974159 1.9788702 -0.43823329
9.1891479 5.3523417 -0.5939905
9.8472128 5.73564 0
9.8109741 5.7145324 0.63418561
2.9576082 1.7274878 -0.75877303
3.2303669 1.8868014 -0.62368274
3.3726926 1.9699314 -0.43535089
9.1916485 5.3686829 -0.59457105
9.8447657 5.7501574 0
9.8264952 5.7394857 0.63563675
2.9686697 1.7387627 -0.76214921
3.2325191 1.8933005 -0.62453949
3.3636122 1.9700823 -0.43448573
9.191884 5.3837266 -0.59500659
9.8423061 5.7646813 0
9.8217926 5.752667 0.63578171
2.951236 1.7333446 -0.75821066
3.2280176 1.8959062 -0.62411195
3.3567643 1.9715228 -0.43390861
9.194334 5.4000931 -0.59558713
9.8443098 5.7818418 0
9.8260441 5.7711143 0.63650787
2.9491396 1.7369093 -0.75821066
3.2146668 1.8932928 -0.62197256
3.3454649 1.970327 -0.43275544
9.1967583 5.4164734 -0.59616768
9.8238573 5.7858057 0
9.8190641 5.7829828 0.63650787
2.9295359 1.7301347 -0.75370759
3.2123768 1.8971758 -0.62197256
3.3408568 1.9730539 -0.43246743
9.1991568 5.4328671 -0.59674829
9.8191061 5.7989988 0
9.8187752 5.7988033 0.63694286
2.9296274 1.7349666 -0.75426996
0 0 -0
3.3340237 1.9744558 -0.43189138
9.2015285 5.449275 -0.59732884
9.7896948 5.7975955 0
9.814003 5.8119912 0.63708842
2.9166074 1.7320197 -0.75145608
3.216603 1.9101713 -0.62368274
3.3316355 1.9784828 -0.43189138
9.1837597 5.4537516 -0.59660274
9.767025 5.8001218 0
9.7980366 5.8185382 0.63650787
2.9101422 1.73294 -0.7503292
0 0 -0
3.3225734 1.9785358 -0.43102625
9.1883326 5.4714956 -0.59732884
9.7309427 5.7946105 0
9.7753687 5.8210654 0.63549173
2.9145927 1.7403643 -0.75201839
0 0 -0
3.3179617 1.9812242 -0.43073821
9.1928673 5.489253 -0.59805441
9.7038174 5.7943521 0
9.7437849 5.8182173 0.63389504
2.8994122 1.7360555 -0.74864215
3.2052572 1.9191836 -0.62282765
3.3155653 1.9852319 -0.43073821
9.1929188 5.5043631 -0.59848994
9.6811857 5.7967186 0
9.7278299 5.8246474 0.63331449
2.8885987 1.7343259 -0.74639064
3.200737 1.921735 -0.6224001
3.3087249 1.9865713 -0.43016109
9.1929379 5.5194755 -0.59892493
9.6473999 5.7923365 0
9.6985121 5.8230243 0.63186336
2.8865008 1.7378149 -0.74639064
3.2006099 1.9269239 -0.62282765
3.2908173 1.9812331 -0.42814386
9.22188 5.5520234 -0.60124719
9.6314754 5.7986197 0
9.6736593 5.8240166 0.63070226
2.8756981 1.7360486 -0.74413908
3.1960835 1.9294643 -0.6224001
3.281776 1.9811965 -0.42727873
9.2641001 5.5927038 -0.60443997
9.6021862 5.7968059 0
9.648819 5.8249578 0.62954116
2.8801129 1.7434658 -0.74582613
3.1959438 1.9346528 -0.62282765
3.2660995 1.9771214 -0.4255484
9.3573637 5.6644454 -0.61097109
9.5729074 5.7949243 0
9.615099 5.8204646 0.62779945
2.8573346 1.7320367 -0.74019837
3.1903882 1.9339246 -0.62197256
3.2671227 1.9804388 -0.42583752
9.4472628 5.7266674 -0.61706668
9.5560551 5.7926145 0
9.5804758 5.8074179 0.62576783
2.8595781 1.738125 -0.74132305
3.1814661 1.9337767 -0.6206882
3.2603025 1.9816957 -0.42526039
9.4669809 5.7542744 -0.61880833
9.5312576 5.7933431 0
9.573452 5.8189898 0.62576783
2.8314481 1.7257154 -0.73457056
3.183507 1.9402889 -0.62154335
3.2556994 1.9842888 -0.42497239
9.4489212 5.7589436 -0.61808223
9.4998035 5.7899556 0
9.5331383 5.8102722 0.62359113
2.8141823 1.7198592 -0.73062986
3.1899219 1.9494888 -0.62325519
3.2532992 1.9882212 -0.42497239
9.4220028 5.7581625 -0.61677611
9.4772625 5.791934 0
9.5128031 5.8136539 0.62272
2.8078549 1.7253259 -0.73006749
3.1830163 1.9558492 -0.62282765
3.2374687 1.9893081 -0.4235312
9.3682146 5.7564311 -0.61416388
9.4277601 5.7930202 0
9.4633036 5.8148603 0.62039781
2.8079293 1.730049 -0.73062986
3.1893928 1.9650801 -0.62453949
3.2438707 1.9986455 -0.42468435
9.350193 5.7609329 -0.61343831
9.405242 5.7948499 0
9.4341526 5.8126626 0.61894667
2.8036773 1.7321064 -0.73006749
3.2044876 1.9797262 -0.62796324
3.2326517 1.9971261 -0.4235312
9.3321743 5.765399 -0.6127128
9.382741 5.7966394 0
9.4116459 5.8144965 0.61793053
2.8145385 1.7435187 -0.73344374
3.2042732 1.9849473 -0.62839079
3.2368348 2.0051181 -0.42439634
9.3097363 5.7670913 -0.61169666
9.3646612 5.801116 0
9.3913631 5.8176565 0.61706001
2.818907 1.7509416 -0.73513293
0 0 -0
3.225621 2.0035689 -0.42324317
9.2983503 5.7755966 -0.61140668
9.3355417 5.7986975 0
9.3578396 5.8125477 0.6153183
2.8016896 1.7449421 -0.73119217
0 0 -0
3.2231977 2.0074649 -0.42324317
9.2913656 5.7868276 -0.61140668
9.315279 5.8017211 0
9.3353682 5.8142333 0.61430222
2.8189735 1.7604378 -0.73625761
0 0 -0
3.2295451 2.0168383 -0.42439634
6.6529455 4.1547379 -0.43811876
9.2950125 5.8046989 0
9.3129139 5.8158784 0.61328661
2.8060787 1.7571015 -0.73344374
0 0 -0
3.2117586 2.0111289 -0.42237803
6.6347108 4.1545024 -0.4372482
9.292408 5.8186908 0
9.2992706 5.8229885 0.61285108
2.7781308 1.7442777 -0.7266891
0 0 -0
3.1961789 2.0067534 -0.42064771
6.6252804 4.15975 -0.43695766
9.291976 5.8340621 0
9.2900295 5.83284 0.61270607
2.7932231 1.7584629 -0.73119217
3.1963179 2.0122297 -0.62967515
3.1696806 1.9954602 -0.41747734
6.6092567 4.1608319 -0.43623209
9.2893295 5.8480611 0
9.2829752 5.8440609 0.61270607
2.806139 1.771332 -0.73513293
3.1895385 2.0133471 -0.62881839
3.2000687 2.019994 -0.42180088
6.5866456 4.1577187 -0.43507099
9.2844543 5.8606691 0
9.2737122 5.8538876 0.61256111
2.7911105 1.7665654 -0.73175454
3.1675835 2.0048449 -0.6249671
3.125514 1.9782181 -0.41228861
6.5750279 4.1615038 -0.43463543
9.2905569 5.8802314 0
9.2863903 5.8775945 0.61386722
2.7761059 1.7617704 -0.7283783
3.1543236 2.0017946 -0.62282765
3.112196 1.9750597 -0.41084632
6.5590272 4.1624851 -0.43390986
9.2966328 5.8998227 0
9.2770901 5.8874202 0.61372221
2.7782667 1.7678542 -0.72950518
3.158402 2.0097401 -0.62411195
3.1272647 1.9899271 -0.41315266
6.5430341 4.163434 -0.4331843
9.2873039 5.9096556 0
9.2940779 5.9139662 0.6153183
2.7718403 1.768474 -0.7283783
3.1581333 2.0149345 -0.62453949
0 0 -0
6.5336213 4.1685443 -0.43289432
9.2933159 5.9292693 0
9.2847366 5.9237957 0.61517334
2.7868247 1.7827759 -0.73288137
3.1492069 2.0145977 -0.62325519
0 0 -0
6.5263848 4.1750317 -0.43274873
9.2949142 5.946104 0
9.2972698 5.9476109 0.61647946
2.7547302 1.7669389 -0.72500211
3.1165237 1.9990005 -0.61726451
0 0 -0
6.5300837 4.1885262 -0.43332931
9.2833462 5.9545231 0
9.2857065 5.9560375 0.61618942
2.7857246 1.7891958 -0.73344374
3.1261129 2.007818 -0.6194039
3.0861833 1.9821723 -0.40882909
6.5253677 4.1910677 -0.4331843
9.3016396 5.9741921 0
9.2842903 5.9630494 0.61633444
2.819875 1.8159462 -0.74301225
3.1301615 2.0157647 -0.6206882
3.0859585 1.987299 -0.40911713
6.5355935 4.2087989 -0.43420044
9.2922287 5.9840193 0
9.2814436 5.9770741 0.61662441
2.8304906 1.8276246 -0.74639064
3.1255691 2.0181544 -0.62026066
3.0748634 1.9854141 -0.40796396
6.5261335 4.213871 -0.43390986
9.2937365 6.0008898 0
9.2851276 5.9953308 0.61734998
2.8496053 1.8448493 -0.75201839
3.1058891 2.0107689 -0.61683691
3.0833161 1.996155 -0.40940514
6.5232244 4.2231698 -0.43405542
9.2973995 6.0191855 0
9.2887888 6.0136104 0.61807609
2.8558991 1.853825 -0.75426996
3.0991466 2.0117221 -0.61598015
3.0809019 1.9998791 -0.40940514
6.5268264 4.2367024 -0.43463543
9.2966709 6.0346675 0
9.2880478 6.0290699 0.61851108
2.853657 1.8572744 -0.75426996
3.0838087 2.0070662 -0.61341321
3.0806489 2.0050099 -0.40969315
6.5260625 4.2474232 -0.43492597
9.3177261 6.0643497 0
9.2916517 6.0473795 0.61923724
2.8386393 1.852387 -0.75089157
3.0792334 2.0093894 -0.61298561
3.0782239 2.0087306 -0.40969315
6.5165691 4.2524629 -0.43463543
9.3626909 6.1097326 0
9.3104429 6.0756373 0.62097836
2.8406553 1.8586005 -0.75201839
3.0682108 2.0074868 -0.61127377
3.0757945 2.0124488 -0.40969315
6.504909 4.2560697 -0.43420044
9.4206314 6.163785 0
9.3574524 6.122448 0.62460667
2.8405302 1.8634239 -0.75258076
3.0571971 2.0055602 -0.60956192
3.0690396 2.013329 -0.40911713
3.1236117 2.049129 -0.20866512
9.4414635 6.1937199 0
9.4087114 6.1722345 0.62852561
2.8658717 1.8850052 -0.75989771
3.050478 2.0064287 -0.60870516
3.0622869 2.0141959 -0.40854108
3.1167958 2.0500488 -0.20837511
9.4383249 6.2079868 0
9.4099302 6.1893106 0.62910616
2.8551071 1.8828713 -0.75764614
3.0501924 2.0115252 -0.60913271
3.0296175 1.9979565 -0.40450445
3.1078067 2.0495203 -0.20793955
9.4481983 6.2308488 0
9.3959351 6.196383 0.62867057
0 0 -0
3.0327766 2.0053022 -0.60613817
3.0530913 2.0187345 -0.40796396
3.0944927 2.0461094 -0.207214
9.4471769 6.2465682 0
9.375432 6.1991296 0.62779945
0 0 -0
3.0389097 2.0146391 -0.60785002
0 0 -0
3.0811913 2.0426695 -0.20648845
9.4439564 6.2608519 0
9.3636074 6.2075849 0.62750947
0 0 -0
3.0321934 2.0154648 -0.60699326
0 0 -0
3.0527527 2.0291305 -0.20474677
9.4515581 6.2823443 0
9.3734121 6.2304015 0.62867057
0 0 -0
3.0318899 2.0205493 -0.6074208
0 0 -0
3.0438099 2.0284932 -0.20431121
9.4201365 6.2778826 0
9.3593884 6.2373986 0.62823504
2.8690319 1.9170258 -0.76440078
3.008106 2.0099523 -0.60314196
3.0196402 2.0176589 -0.40479246
3.0348728 2.0278373 -0.20387565
9.3800831 6.267571 0
9.3907299 6.2746854 0.63084728
2.8709395 1.9233222 -0.76552761
3.022737 2.0250156 -0.60656571
3.0279503 2.0285082 -0.40623474
3.0237854 2.025718 -0.2032951
10.334617 6.9234471 0
9.4068909 6.3019376 0.63244396
2.8411949 1.9083734 -0.75821066
3.0501177 2.0487025 -0.61255646
3.0383756 2.0408156 -0.40796396
3.0278087 2.0337179 -0.20373064
10.30896 6.9243207 0
9.3841677 6.3031564 0.63142782
2.8515282 1.920318 -0.7615869
3.0604196 2.0609927 -0.61512506
3.0423455 2.0488212 -0.40882909
3.0275023 2.038825 -0.20387565
10.283317 6.9251423 0
9.3205118 6.2767558 0.62765449
2.8344629 1.9138079 -0.75764614
3.0430324 2.0546324 -0.61212885
3.0248604 2.0423629 -0.40681079
3.014271 2.0352128 -0.20315009
10.257687 6.9259124 0
9.3366108 6.304009 0.62925112
2.8363607 1.9200829 -0.75877303
3.0235412 2.0467954 -0.60870516
3.0031157 2.0329683 -0.40421644
2.998903 2.0301163 -0.20227954
10.229917 6.9251728 0
11.773275 7.969954 0.79412121
2.825629 1.917801 -0.75652146
2.9998295 2.0360336 -0.60442626
2.9599931 2.008996 -0.39873859
2.9921436 2.0308173 -0.20198898
10.197852 6.9214506 0
11.677636 7.9258037 0.78831565
2.8380163 1.9312215 -0.76046222
2.9655306 2.0179927 -0.59800637
0 0 -0
2.9810946 2.0285838 -0.20140842
10.172269 6.9220543 0
11.642272 7.9223661 0.78657395
2.8314788 1.9317825 -0.75933534
2.9461255 2.0100005 -0.59458262
0 0 -0
2.9700556 2.0263267 -0.20082787
10.151003 6.9255433 0
11.619816 7.9276438 0.78570342
2.8261192 1.930629 -0.75821066
2.9449108 2.01178 -0.59458262
2.9539108 2.0179284 -0.39873859
2.9731259 2.031055 -0.20111842
10.131772 6.9213972 0
11.593564 7.9200025 0.78425175
2.8300674 1.9383457 -0.75989771
2.9424777 2.015337 -0.59458262
2.9642782 2.0302682 -0.40046892
2.9513774 2.0214324 -0.19981231
10.106224 6.9218693 0
11.566844 7.9222641 0.78309119
2.8172522 1.9345735 -0.75708383
2.9379263 2.0174391 -0.59415507
3.0087266 2.0660567 -0.40681079
2.9553528 2.0294056 -0.2002473
10.05924 6.9075608 0
11.593676 7.9612389 0.7855584
2.8107307 1.9350972 -0.75595915
2.9291413 2.016619 -0.59287077
3.0381861 2.0916929 -0.41113544
2.9315 2.0182428 -0.19879618
10.044462 6.915287 0
11.590462 7.9796581 0.7859934
2.4919784 1.7200885 -0.83541065
2.8083906 1.9384921 -0.75595915
2.9499435 2.0361991 -0.59757882
3.0186274 2.0836082 -0.40882909
2.9440305 2.0321176 -0.19981231
10.010397 6.9096785 0
11.572258 7.9877529 0.78541285
2.500211 1.7302351 -0.83887082
2.8039508 1.940434 -0.75539464
2.9158237 2.017854 -0.59116054
2.9565556 2.046042 -0.40075693
2.9116552 2.0149691 -0.19778007
9.9913349 6.9143596 0
10.045621 6.9519277 0.68236911
2.4836879 1.7232426 -0.83402503
2.807869 1.9481673 -0.75708383
2.9239271 2.0286911 -0.59329998
2.9115798 2.0201242 -0.39499107
2.917758 2.0244107 -0.19836062
9.9615946 6.9115944 0
10.026541 6.956656 0.68164355
2.5001454 1.7391402 -0.84025645
2.8096888 1.9544634 -0.75821066
2.9088254 2.0234244 -0.59073132
2.8921585 2.0118306 -0.39268583
2.921711 2.0323877 -0.19879618
9.9425554 6.9161968 0
10.043725 6.9865718 0.68338525
2.4980421 1.7421597 -0.84025645
2.7927344 1.9476811 -0.75426996
0 0 -0
0 0 -0
2.9064693 2.0270011 -0.19792563
9.9192467 6.9177828 0
10.0097 6.980866 0.68164355
2.5041513 1.7509217 -0.84302247
2.796628 1.9554235 -0.75595915
2.8765798 2.0113263 -0.58516818
0 0 -0
2.8976274 2.0260432 -0.19749007
9.895957 6.9193287 0
11.570642 8.0902805 0.78860623
2.5143638 1.7625895 -0.84717673
2.800499 1.9631727 -0.75764614
2.8783555 2.0177507 -0.58602494
2.8996661 2.0326896 -0.39470306
2.9036882 2.0355091 -0.19807063
9.8705406 6.9193296 0
11.554473 8.0997801 0.78817064
2.4978623 1.755527 -0.84233093
2.8022864 1.9694799 -0.75877303
2.8654079 2.0138423 -0.58388388
2.9945459 2.1046021 -0.40796396
2.8884749 2.0300543 -0.19720007
9.8472662 6.9207749 0
11.529794 8.1032753 0.78715456
2.4936905 1.7571002 -0.84163946
2.7999046 1.9728645 -0.75877303
2.888154 2.0350466 -0.58901948
3.0469692 2.1469507 -0.41545901
2.8668969 2.0200684 -0.19589339
9.8197517 6.9191785 0
11.517872 8.1157055 0.78700954
2.475173 1.7485321 -0.83610219
2.785063 1.967447 -0.75539464
2.8815036 2.0355754 -0.58816433
3.0443728 2.150631 -0.41545901
2.8623335 2.0220332 -0.19574839
9.8007584 6.923532 0
11.486838 8.1146269 0.7855584
2.4832931 1.75877 -0.8395623
2.7951288 1.979625 -0.75877303
2.8790419 2.0390558 -0.58816433
3.0375545 2.1513209 -0.41488296
2.8577697 2.0239899 -0.1956034
9.7669001 6.9173193 0
11.489744 8.1375084 0.78642899
2.4791224 1.7603183 -0.83887082
2.7968743 1.9859402 -0.75989771
2.8200607 2.0024037 -0.57660884
2.8746834 2.041189 -0.39297387
2.8553221 2.0274415 -0.1956034
9.743679 6.9185672 0
11.460837 8.1378479 0.78512287
2.4647348 1.7545857 -0.83471918
2.8048205 1.9966847 -0.76271158
2.8469212 2.026655 -0.58260119
2.8342829 2.0176582 -0.38778403
2.8444028 2.0248623 -0.19502284
9.7225952 6.9212828 0
11.450995 8.1516895 0.78512287
2.4666932 1.7604746 -0.83610219
2.8086126 2.0045018 -0.76440078
0 0 -0
0 0 -0
2.8356071 2.0237679 -0.19458728
9.6993942 6.922441 0
11.415757 8.1474066 0.78338116
2.4482419 1.7517749 -0.83056486
2.7999871 2.0034571 -0.76271158
0 0 -0
0 0 -0
2.8183732 2.0166128 -0.19357172
9.6740913 6.9220405 0
11.372093 8.137001 0.78105897
2.4481599 1.7561928 -0.83125639
2.7893138 2.0009203 -0.76046222
2.8040981 2.0115256 -0.57532614
2.8269506 2.0279188 -0.38778403
2.813817 2.0184977 -0.19342616
9.6488028 6.9215889 0
11.334807 8.1310482 0.7791723
2.4358544 1.7518271 -0.82779622
2.7786427 1.9983549 -0.75821066
2.8058295 2.0179071 -0.57618129
2.8518019 2.0509698 -0.39153266
2.8219299 2.0294862 -0.19415228
9.623538 6.9210925 0
11.301775 8.1280537 0.77757615
2.4409051 1.7576978 -0.82987338
2.779495 2.0015166 -0.75877303
2.8379407 2.0436034 -0.58302873
2.9659967 2.1358168 -0.40738791
2.8017194 2.0175207 -0.19284561
9.6003408 6.9132137 0
11.284206 8.1257668 0.77670503
2.420392 1.7518239 -0.82433605
2.7767062 2.009716 -0.75933534
3.0201399 2.1859078 -0.62154335
3.0467224 2.2051475 -0.41920653
2.8010497 2.0273354 -0.19313617
9.5562019 6.9165587 0
0 0 0
2.4060941 1.7459097 -0.82018441
2.7701669 2.010088 -0.75821066
3.0320425 2.2001102 -0.62453949
3.0147517 2.1875637 -0.415171
2.7901855 2.0246141 -0.19255561
9.528882 6.9143457 0
11.204203 8.1299925 0.77322167
2.4060097 1.7502902 -0.82087594
2.7636225 2.0104413 -0.75708383
2.9505019 2.14639 -0.60827756
2.8573327 2.0786123 -0.3938379
2.7793322 2.0218697 -0.19197504
9.5099993 6.9182014 0
11.190172 8.1404696 0.77293169
2.403893 1.7531961 -0.82087594
2.7550306 2.0092862 -0.75539464
2.8048058 2.045588 -0.5787499
2.7858672 2.0317757 -0.38432562
2.7810819 2.0282857 -0.19226505
9.4869127 6.918951 0
11.161435 8.1402063 0.77162558
2.3875947 1.7457329 -0.81603014
2.7464533 2.0081189 -0.75370759
2.7733169 2.0277605 -0.57275754
2.764621 2.0214024 -0.38173127
2.7618566 2.019381 -0.19110449
9.4638453 6.919661 0
11.136907 8.1429501 0.77060944
2.3854835 1.7486165 -0.81603014
2.7604191 2.0234532 -0.75821066
0 0 -0
0 0 -0
2.7656956 2.0273211 -0.1915395
9.4407825 6.9203196 0
11.1082 8.1425762 0.76930332
2.3934751 1.7589244 -0.81949025
2.7641089 2.031297 -0.75989771
2.741519 2.0146961 -0.56719434
0 0 -0
2.7590604 2.0275869 -0.19124949
9.4135418 6.9178529 0
5.0830255 3.7354295 0.35233954
2.3711538 1.7469373 -0.81256998
2.7677913 2.0391581 -0.7615869
2.7432201 2.0210555 -0.5680511
2.7739263 2.043678 -0.38403651
2.7356844 2.0155034 -0.18979782
9.3821259 6.9122405 0
0 0 0
2.3750973 1.754274 -0.81464714
2.7653253 2.042501 -0.7615869
2.8047817 2.0716438 -0.58131689
2.8505101 2.1054194 -0.39499107
2.7416077 2.0249827 -0.19037837
9.369585 6.9204826 0
0 0 0
2.3649111 1.7511708 -0.8118785
2.7608154 2.0443304 -0.76102453
2.917799 2.1605735 -0.60528141
2.953969 2.1873567 -0.40969315
2.7370725 2.0267491 -0.19023338
9.3423939 6.9178619 0
0 0 0
2.3547359 1.7480454 -0.80910987
2.7603815 2.0491776 -0.7615869
2.9564102 2.1947002 -0.61384076
2.9824774 2.2140515 -0.41401783
2.7304528 2.0269601 -0.18994337
9.3277578 6.92449 0
5.044044 3.7444618 0.35088786
2.3667119 1.7613757 -0.81395566
2.7538304 2.0494804 -0.76046222
2.9496412 2.1952085 -0.61298561
2.9777272 2.2161109 -0.41372979
2.7238286 2.0271523 -0.18965282
9.2943306 6.9171104 0
5.0270128 3.7412486 0.35001731
2.3565388 1.7582331 -0.81118703
2.7452407 2.0482466 -0.75877303
2.9305267 2.1864903 -0.60956192
2.9563918 2.2057884 -0.41113544
2.7088852 2.0211217 -0.18878226
9.2755384 6.9205556 0
5.0162387 3.7426569 0.34958175
2.3463769 1.7550684 -0.80841833
2.7427638 2.0515623 -0.75877303
2.87444 2.1500549 -0.59843558
2.9226546 2.1861191 -0.40681079
2.7085199 2.0259483 -0.18892726
5.1410499 3.8454583 0
5.0033894 3.7424898 0.34900117
2.3201687 1.7398411 -0.80011243
2.7199504 2.039628 -0.75314307
2.7403982 2.0549614 -0.57104564
2.7317178 2.0484521 -0.3805781
2.6998315 2.0245414 -0.1884917
5.1155744 3.836051 0
4.9863944 3.7391822 0.34813061
2.3140504 1.7396253 -0.79872674
2.72155 2.0459697 -0.75426996
2.7009828 2.030508 -0.56334305
2.7002926 2.0299892 -0.37654147
2.6953082 2.026242 -0.1883467
5.0942936 3.8297186 0
4.9839478 3.7467644 0.34827563
2.3099451 1.7409116 -0.79803526
2.7129865 2.0446675 -0.75258076
2.6985273 2.0337701 -0.56334305
0 0 -0
2.6887116 2.0263724 -0.18805671
5.0771961 3.8264761 0
4.9731898 3.7480905 0.34784007
2.3198538 1.7527786 -0.80218959
2.7105138 2.0479441 -0.75258076
2.6878753 2.0308392 -0.5616312
0 0 -0
2.6821108 2.026484 -0.18776615
5.0601144 3.8231978 0
4.9645147 3.750967 0.34755006
2.3197322 1.7570938 -0.80288106
2.6938651 2.0404828 -0.74864215
2.6833749 2.032537 -0.56120366
2.6867371 2.0350838 -0.37567741
2.6920922 2.03914 -0.18863726
5.0451121 3.8214478 0
4.9516935 3.7506874 0.34696952
2.3136075 1.7568581 -0.80149543
2.669136 2.0268319 -0.74244988
2.6850021 2.0388799 -0.56205875
2.7151685 2.0617871 -0.38000098
2.6834159 2.0376754 -0.1882017
5.02391 3.81495 0
4.9533601 3.7613776 0.34740451
2.2905834 1.7415575 -0.79388362
2.6679111 2.0284441 -0.74244988
2.7287307 2.0746858 -0.57147485
2.8148091 2.1401324 -0.39412701
2.671844 2.0314343 -0.18747614
5.0153952 3.8132637 0
4.9345469 3.7517939 0.34624395
2.2984517 1.7519265 -0.79734379
2.6977911 2.0563109 -0.75145608
2.785419 2.1231029 -0.58388388
2.8862672 2.1999714 -0.40450445
2.667315 2.0330815 -0.18733059
5.0107837 3.8193209 0
4.9279375 3.7561738 0.34609839
2.2943418 1.7531807 -0.79665226
2.7094312 2.070364 -0.75539464
2.7033076 2.0656848 -0.56719434
2.8938806 2.2113078 -0.40594563
2.6669271 2.0378852 -0.18747614
4.9937539 3.8158889 0
4.9254661 3.7637079 0.34624395
2.2862451 1.7513733 -0.7945751
2.719034 2.0829103 -0.75877303
2.6885865 2.0595863 -0.56462741
2.8583624 2.1896427 -0.40133405
2.6541429 2.0332007 -0.18675002
4.9870753 3.820339 0
4.9167852 3.7664931 0.3459534
2.280144 1.7510755 -0.79318947
2.7104676 2.0815499 -0.75708383
2.6494524 2.0346923 -0.55692482
2.7921205 2.1442566 -0.39239672
2.6475666 2.0332441 -0.18646003
4.9762616 3.8216052 0
4.9122305 3.7724314 0.3459534
2.2919436 1.7645439 -0.79803526
2.7059391 2.0832748 -0.75652146
2.6368158 2.0300577 -0.5547837
2.644022 2.0356057 -0.37192878
2.6451077 2.0364416 -0.18646003
4.9675198 3.8244429 0
4.9056115 3.7767806 0.34580839
2.2818656 1.7611806 -0.79526663
2.6893377 2.0756741 -0.75258076
0 0 -0
2.6251879 2.0261624 -0.36962354
2.6344173 2.0332856 -0.18587947
4.9525962 3.8224933 0
4.9030995 3.7842913 0.3459534
2.2737815 1.7593293 -0.79318947
2.6647279 2.0618227 -0.74639064
0 0 -0
0 0 -0
2.6299052 2.0348787 -0.18573447
4.9500299 3.830066 0
4.8903031 3.7838526 0.34537283
2.2617443 1.7543887 -0.7897293
2.6301115 2.0401237 -0.7373845
2.6091597 2.0238719 -0.55050486
0 0 -0
2.6233344 2.0348668 -0.18544391
4.9433441 3.8344507 0
4.8857274 3.7897587 0.34537283
2.2616091 1.7586647 -0.79042345
2.6196213 2.037061 -0.73513293
2.5965819 2.0191453 -0.54836547
2.6219058 2.0388374 -0.37019959
2.6208737 2.0380349 -0.18544391
4.9387074 3.840421 0
4.8770461 3.7924724 0.34508282
2.237716 1.744428 -0.78280902
2.6071401 2.0324154 -0.73231906
2.6143823 2.0380611 -0.55264431
2.6643138 2.0769856 -0.37654147
2.6143146 2.0380082 -0.18515392
4.9279037 3.841584 0
4.8683577 3.7951643 0.34479228
2.2316492 1.744038 -0.78142339
2.5986743 2.0308688 -0.73062986
2.6220291 2.0491207 -0.5547837
2.7494287 2.1486838 -0.38893721
2.601615 2.0331671 -0.18442835
4.9273634 3.8507438 0
4.8576322 3.7962484 0.34435728
2.2295403 1.7467332 -0.78142339
2.5982168 2.0355728 -0.73119217
2.6458192 2.0728669 -0.5603469
2.8140178 2.2046421 -0.39845058
2.6114254 2.0459211 -0.1852989
4.9165592 3.8518782 0
4.8489466 3.798907 0.34406671
2.2412407 1.7602745 -0.78626919
2.5817733 2.0277293 -0.72725362
2.6372619 2.07131 -0.55906421
2.8133841 2.2096367 -0.39873859
2.5905616 2.0346317 -0.1839928
4.9119015 3.857816 0
4.8443527 3.8047633 0.34406671
2.2174356 1.7459141 -0.77865738
2.5753248 2.0277007 -0.72612679
2.6226516 2.0649638 -0.55649561
2.7639778 2.1762381 -0.39210871
2.5983071 2.0457962 -0.18471836
4.8990574 3.8573084 0
4.8275065 3.8009725 0.34319615
2.2212265 1.7532507 -0.78073186
2.5589097 2.0197897 -0.72218603
2.5859015 2.0410948 -0.54922056
2.6354752 2.080224 -0.37423512
2.5835993 2.0392778 -0.1838478
4.8964338 3.864836 0
4.8249478 3.8084111 0.34334117
2.2328799 1.766832 -0.78557765
2.5365455 2.0071166 -0.71655828
2.5572653 2.0235116 -0.54365742
2.5254693 1.9983522 -0.35895702
2.5750184 2.0375593 -0.18341224
4.8774724 3.8594437 0
4.8101563 3.8061779 0.3426156
2.2110922 1.7539407 -0.77865738
2.5281446 2.0054412 -0.71486908
2.5507998 2.0234125 -0.54280227
2.5169718 1.9965785 -0.35809186
2.5745883 2.0422826 -0.18355724
4.8687315 3.8621027 0
4.8075876 3.8136005 0.34276059
2.2207491 1.7659769 -0.78280902
2.5177646 2.0021687 -0.71261752
2.5403163 2.020102 -0.54109043
2.5125351 1.9980099 -0.35780385
2.5802538 2.051861 -0.18413779
4.8620262 3.8663647 0
4.8029757 3.8194067 0.34276059
2.210767 1.7624036 -0.78004038
2.5153434 2.0052092 -0.71261752
2.5418842 2.0263674 -0.54194552
2.5060701 1.9978167 -0.3572267
2.5655856 2.0452619 -0.18326724
4.8492107 3.8657475 0
4.7882004 3.8171103 0.34203506
2.1968806 1.7556792 -0.77588874
2.5109358 2.0066624 -0.71205521
2.523391 2.0166163 -0.53852177
2.5036545 2.0008433 -0.3572267
2.5671685 2.0516016 -0.18355724
4.8425055 3.8699808 0
4.7835846 3.8228931 0.34203506
2.1977766 1.7585721 -0.77658021
2.507741 2.006593 -0.71149284
2.5281873 2.0229535 -0.53980613
2.49841 1.9991268 -0.35665068
2.5699902 2.0564024 -0.1838478
4.8239098 3.8598981 0
4.7772121 3.8225324 0.34174448
2.1936951 1.7596581 -0.77588874
2.4993665 2.0048506 -0.70980364
2.5117221 2.0147614 -0.53680992
2.4899378 1.9972874 -0.35578552
2.5512881 2.046499 -0.18268669
4.8192425 3.8657238 0
4.7746229 3.8299325 0.34189004
2.1798329 1.7528716 -0.77173442
2.5127831 2.0206072 -0.71430671
2.5152893 2.0226226 -0.53809422
2.4975989 2.0083971 -0.3572267
2.5629902 2.0609803 -0.1837028
4.8165941 3.8731735 0
4.7639146 3.8308125 0.34145448
2.2011514 1.7743982 -0.78004038
2.512316 2.0252352 -0.71486908
2.5128436 2.0256603 -0.53809422
2.4911468 2.0081701 -0.35665068
2.5503771 2.055917 -0.18297668
4.8139348 3.8806224 0
4.7552328 3.8333011 0.34116393
2.169735 1.7534022 -0.76965731
2.5118492 2.029871 -0.7154336
2.4924264 2.0141752 -0.53424293
2.4867089 2.0095546 -0.35636267
2.5357687 2.049201 -0.18210612
4.8011456 3.8798931 0
4.7566624 3.8439453 0.34159949
2.1871121 1.7718178 -0.77658021
2.515312 2.0376983 -0.71712065
2.4879982 2.0155709 -0.53381538
2.4882944 2.015811 -0.35693869
2.5474262 2.0637145 -0.18312223
4.796454 3.8856916 0
4.7479801 3.8464217 0.34130949
2.1538103 1.7491542 -0.76550567
2.5227079 2.0487435 -0.71993452
2.4935317 2.025049 -0.53552723
2.4838512 2.0171871 -0.35665068
2.5368624 2.0602388 -0.18254168
4.7897372 3.8898451 0
4.7392907 3.8488767 0.34101892
2.136131 1.739084 -0.75996834
2.5261438 2.0566044 -0.72162372
2.4731681 2.0134754 -0.53167593
2.4834158 2.0218184 -0.35693869
2.5444448 2.0715036 -0.18326724
4.7910905 3.9005606 0
4.740684 3.8595235 0.34145448
2.1729004 1.7733892 -0.77381158
2.5295644 2.0644765 -0.72331291
2.4389129 1.9904922 -0.52482849
2.4709537 2.0166421 -0.35549751
2.5278461 2.0630744 -0.18225113
4.7520995 3.8783746 0
4.7400393 3.8685317 0.34174448
2.1222153 1.7362995 -0.75650823
2.5408359 2.0787959 -0.72725362
2.3828597 1.9495468 -0.51327294
2.4785225 2.0278139 -0.35693869
2.5253515 2.0661271 -0.18225113
4.7433772 3.8808146 0
4.7393875 3.8775504 0.34203506
2.1181779 1.7372731 -0.7558167
2.5461807 2.0883098 -0.72950518
2.2971494 1.8840607 -0.4953008
2.468071 2.0242462 -0.35578552
2.5288825 2.0741222 -0.18268669
4.742713 3.889847 0
4.7286696 3.878329 0.34159949
2.137388 1.7573531 -0.76342851
2.5456164 2.0929968 -0.73006749
2.2710764 1.8672711 -0.4901652
2.4596355 2.0223036 -0.35492146
2.5123227 2.0656228 -0.18167056
4.7380095 3.8955748 0
4.7219748 3.8823912 0.34145448
2.1042955 1.7344102 -0.75235659
2.5352426 2.089607 -0.72781599
2.2648528 1.8667454 -0.48930845
2.4611781 2.0285611 -0.35549751
2.5118282 2.0703082 -0.18181556
4.7373118 3.9046044 0
4.7172804 3.8880939 0.34145448
2.0751185 1.7145767 -0.74266499
2.5209596 2.0829549 -0.72443759
2.2744732 1.8792944 -0.49187705
2.4607172 2.0331795 -0.35578552
2.5093248 2.0733416 -0.18181556
4.7366066 3.9136441 0
4.7145801 3.8954444 0.34159949
2.1000981 1.7394904 -0.75235659
2.5086586 2.0778971 -0.72162372
2.260335 1.8722131 -0.48930845
2.4263878 2.009753 -0.35117283
2.4988132 2.069742 -0.181235
4.7338767 3.9210231 0
4.7178741 3.9077685 0.34218004
2.0902741 1.7356161 -0.74958795
2.4963737 2.0728126 -0.71880984
2.263998 1.8798642 -0.49059275
2.4219697 2.0110326 -0.35088482
2.4883215 2.0661266 -0.180655
4.7271352 3.9250793 0
4.7131491 3.9134662 0.34218004
2.1209531 1.7654237 -0.76135403
2.4880066 2.0709491 -0.71712065
2.2636962 1.8842391 -0.49102029
2.4135723 2.008992 -0.35001966
2.4818251 2.0658038 -0.18036444
4.7263856 3.9341149 0
4.710412 3.920819 0.34232503
2.1207428 1.7695909 -0.7620455
2.4816043 2.0707011 -0.71599591
2.2436805 1.8721726 -0.487169
2.4151187 2.0152242 -0.35059682
2.4912939 2.0787864 -0.181235
4.7236247 3.9414887 0
4.7096653 3.9298406 0.3426156
2.0993562 1.7560526 -0.75512254
2.475199 2.0704346 -0.71486908
2.2433836 1.8765277 -0.48759657
2.4047463 2.011503 -0.34944364
2.4887805 2.0817952 -0.181235
4.7228551 3.9505363 0
4.710887 3.9405251 0.3430506
2.0972328 1.758588 -0.75512254
2.4493389 2.053839 -0.70811665
2.2411146 1.8792371 -0.48759657
2.3884387 2.0027723 -0.34742531
2.4743204 2.0747867 -0.18036444
4.7160859 3.9545693 0
4.7061219 3.9462144 0.3430506
2.0970323 1.7627398 -0.7558167
2.4507418 2.0600638 -0.70924133
2.2250926 1.8703858 -0.48460203
2.3741412 1.9956743 -0.34569612
2.4757936 2.0811219 -0.180655
4.7152848 3.9636109 0
4.7093067 3.9585857 0.34363115
2.1121652 1.7798202 -0.7620455
2.4404788 2.0564742 -0.70698977
2.2169399 1.868109 -0.4833177
2.3420579 1.9735397 -0.34137145
2.4653289 2.0774143 -0.18007445
4.7244248 3.9810462 0
4.7005496 3.9609277 0.34334117
2.0848832 1.7654644 -0.7537396
2.4277456 2.0557981 -0.70473826
2.212419 1.8734609 -0.4833177
0 0 -0
2.4583127 2.081682 -0.17992888
4.7207432 3.9974921 0
4.6988959 3.9789922 0.34392172
2.1048675 1.7845715 -0.76135403
2.4284394 2.0589058 -0.70530057
2.2073669 1.8714739 -0.48246095
0 0 -0
2.4511144 2.0781305 -0.17949389
4.7203178 4.0020313 0
4.7044191 3.9885519 0.34450227
2.0912361 1.7773622 -0.7571997
2.4240155 2.0601947 -0.70473826
2.1992416 1.8691571 -0.48117828
0 0 -0
2.4664192 2.0962341 -0.18080001
4.7154789 4.0077319 0
4.7055306 3.9992769 0.34493726
2.106272 1.7945293 -0.76342851
2.4157202 2.058177 -0.70304906
2.1852536 1.8618209 -0.47860965
2.333267 1.9879273 -0.34166059
2.4460852 2.0840478 -0.17949389
4.7126117 4.0151129 0
4.7046542 4.0083332 0.34522784
2.0850291 1.7807831 -0.75650823
2.4248281 2.0709987 -0.70642745
2.1908102 1.8711288 -0.48032153
2.3308632 1.9907452 -0.34166059
2.4455392 2.0886879 -0.17963889
4.7176499 4.0292535 0
4.6998076 4.0140147 0.34522784
2.0943065 1.7930876 -0.76065987
2.4261804 2.077229 -0.70755213
2.1787996 1.8654284 -0.47818211
2.3264856 1.9918731 -0.34137145
2.4469576 2.0950179 -0.17992888
4.7167277 4.0383329 0
4.7067933 4.0298271 0.34609839
2.1016624 1.8037912 -0.76412266
2.4217424 2.0785058 -0.70698977
2.166806 1.859702 -0.47604269
2.3162262 1.9879446 -0.34021828
2.4306276 2.0861316 -0.17891333
4.7197442 4.0508089 0
4.7019205 4.0355115 0.34609839
2.089967 1.7981435 -0.76065987
2.4288578 2.0897148 -0.70980364
2.1587176 1.8572944 -0.47475836
2.3118637 1.9890566 -0.33993027
2.422194 2.0839813 -0.17847778
4.7128754 4.0548134 0
4.7029524 4.0462756 0.34653395
2.0782957 1.7924765 -0.7571997
2.4282534 2.094306 -0.71036601
2.1603634 1.8632579 -0.47561511
2.3133798 1.9952304 -0.34050742
2.4314766 2.0970857 -0.17934833
4.7119179 4.0639076 0
4.7157669 4.0672274 0.34784007
2.0799277 1.7982712 -0.75858539
2.4334095 2.1038859 -0.71261752
2.1639307 1.8708988 -0.47689781
2.3050954 1.9929477 -0.33964226
2.4132233 2.0864332 -0.17818777
4.7188125 4.0798078 0
4.7403355 4.0984163 0.35001731
2.0815413 1.8040662 -0.75996834
2.4289474 2.1051621 -0.71205521
2.150033 1.8634276 -0.47433081
2.3183222 2.0092835 -0.3419486
2.4205165 2.0978551 -0.17891333
4.7178164 4.0889187 0
4.7824988 4.1449785 0.3535001
2.0698926 1.7983546 -0.75650823
2.4264019 2.1080954 -0.71205521
2.1594031 1.8761227 -0.47689781
2.313942 2.0103886 -0.34166059
2.4199395 2.1024809 -0.17905833
4.7167978 4.0980268 0
4.8363366 4.2018838 0.35785455
2.0979877 1.8272172 -0.76758277
2.4200244 2.1076913 -0.71093053
2.1397142 1.8635585 -0.47304651
2.3017533 2.0046844 -0.34021828
2.4115169 2.100282 -0.17862277
4.7157712 4.1071448 0
4.8449664 4.2196655 0.35887012
2.0636525 1.8017031 -0.7558167
2.4213004 2.1139529 -0.71205521
2.1413321 1.8695225 -0.47390327
2.2993293 2.0074642 -0.34021828
2.4089775 2.1031942 -0.17862277
4.7009974 4.1042767 0
4.8320346 4.2186809 0.35828954
2.1048894 1.8421922 -0.77173442
2.4206545 2.1185489 -0.71261752
2.1410015 1.8737974 -0.47433081
2.2871723 2.0017257 -0.3387771
2.4201236 2.1180842 -0.17963889
4.7136583 4.1253781 0
11.111076 9.7243776 0.82474357
2.087575 1.8314979 -0.76619714
2.418093 2.1214721 -0.71261752
2.1406636 1.8780744 -0.47475836
2.3003061 2.0181339 -0.34108344
2.3980336 2.1038735 -0.17818777
3.7031794 3.2489207 0
11.099319 9.7377958 0.82474357
2.0721788 1.8224262 -0.76135403
2.4346113 2.141176 -0.71824747
2.1287565 1.8721848 -0.47261894
2.2939851 2.017499 -0.34050742
2.4032872 2.1136272 -0.17876777
3.728559 3.2791684 0
11.087543 9.7511997 0.82474357
2.0737355 1.8282436 -0.76273698
2.4072466 2.1222734 -0.71093053
2.1226454 1.8713635 -0.47176382
0 0 -0
2.4046335 2.1199696 -0.17905833
3.6875086 3.2509761 0
11.058213 9.7491264 0.82343745
2.0846856 1.8423791 -0.76758277
2.4237161 2.1420035 -0.71655828
2.1165318 1.8705238 -0.47090706
0 0 -0
2.3884389 2.1108267 -0.17804222
3.6484799 3.224411 0
4.6234479 4.0860572 0.34464729
2.0693111 1.8332497 -0.76273698
2.4211261 2.1449306 -0.71655828
2.1027448 1.8628694 -0.4683401
0 0 -0
2.3956096 2.1223249 -0.17876777
3.5919833 3.1822195 0
4.6301737 4.1019759 0.34551784
2.0952337 1.8607386 -0.77312011
2.4242342 2.1529179 -0.71824747
2.1120052 1.8756331 -0.47090706
0 0 -0
2.398874 2.1303959 -0.17920333
3.5647848 3.1658199 0
4.6368747 4.1179233 0.34638894
2.066747 1.8399116 -0.76342851
2.4178317 2.1524632 -0.71712065
2.096314 1.8662336 -0.46791089
2.254705 2.0072403 -0.33647075
2.3807716 2.1194706 -0.17804222
3.5629063 3.1718605 0
4.6047282 4.0993376 0.34435728
2.0663993 1.8440828 -0.76412266
2.4171302 2.1570797 -0.7176851
2.1074665 1.8807316 -0.47090706
2.2599969 2.0168519 -0.33762392
2.3859637 2.1292663 -0.17862277
3.5571237 3.1744254 0
4.5920167 4.0979781 0.3437767
2.0828638 1.8633019 -0.77104294
2.416414 2.1616912 -0.71824747
2.0917981 1.8712941 -0.46791089
2.2537067 2.0161355 -0.3370479
2.3756428 2.1252179 -0.17804222
3.5435891 3.1700468 0
10.985309 9.8273087 0.82329243
2.063803 1.8507444 -0.76481414
2.4194698 2.1696937 -0.71993452
2.0914521 1.8755392 -0.4683401
2.2628188 2.0292149 -0.3387771
2.3788786 2.1332929 -0.17847778
3.5281346 3.1639047 0
11.050807 9.9099674 0.82909805
2.0720162 1.8603696 -0.76827431
2.4219434 2.1745534 -0.72106135
2.0616648 1.8510755 -0.46192017
2.2538943 2.0236695 -0.33762392
2.3872547 2.1434081 -0.17920333
3.5339684 3.1729903 0
11.089282 9.9565649 0.83243579
2.0660338 1.859512 -0.76688862
2.4174275 2.1757801 -0.72049904
2.0842295 1.8758888 -0.46748334
2.2495267 2.0246627 -0.33733591
2.3827336 2.1445544 -0.17905833
3.5339971 3.1807368 0
11.08304 9.975173 0.83287138
2.080555 1.8771371 -0.77312011
2.4147966 2.1786995 -0.72049904
2.0838654 1.8801237 -0.46791089
2.2566788 2.036041 -0.3387771
2.374351 2.1422081 -0.17862277
3.532089 3.186753 0
11.076761 9.9937744 0.83330637
2.0596752 1.8628182 -0.76619714
2.4027417 2.1730955 -0.7176851
2.0987327 1.8981426 -0.47176382
2.2465439 2.0318265 -0.33762392
2.3698354 2.1433342 -0.17847778
3.5340209 3.1962504 0
5.0233221 4.5432091 0.37831795
2.0555661 1.8636221 -0.76550567
2.4283452 2.201592 -0.72612679
2.0812232 1.8868834 -0.4683401
2.2479231 2.0380173 -0.33820108
2.3768673 2.1549211 -0.17920333
3.5436544 3.2127562 0
5.0313058 4.5614944 0.37933406
2.0551677 1.8677902 -0.76619714
2.4068832 2.1874385 -0.72049904
2.1017311 1.9101083 -0.47347406
2.2473712 2.04247 -0.33848909
2.3608067 2.1455631 -0.17818777
3.5301421 3.2082856 0
5.0334749 4.574554 0.37991408
2.06218 1.8787183 -0.76965731
2.4061148 2.1920547 -0.72106135
2.1013248 1.9143803 -0.47390327
2.2391639 2.0399566 -0.33762392
2.3716528 2.1606586 -0.17920333
3.5378022 3.2230613 0
5.020268 4.5736394 0.37933406
2.0580578 1.8795184 -0.76896578
2.4053388 2.1966724 -0.72162372
2.09901 1.9169179 -0.47390327
2.2386127 2.04441 -0.33791304
2.3575318 2.1530125 -0.17833278
3.5223784 3.2168071 0
5.0013051 4.5674348 0.37831795
2.0576341 1.8836962 -0.76965731
2.3951862 2.1927142 -0.71937215
2.0966923 1.9194528 -0.47390327
2.2399528 2.0506029 -0.33848909
2.3549285 2.1558595 -0.17833278
7.5206265 6.8848858 0
5.001534 4.5787401 0.37875351
2.0719974 1.9014523 -0.77588874
2.392535 2.1956067 -0.71937215
2.096261 1.9237188 -0.47433081
2.245096 2.0603032 -0.33964226
2.3657176 2.1709967 -0.17934833
7.5295572 6.9098034 0
3.5602069 3.267168 0.2699042
2.1952434 2.0194459 -0.8229531
2.3898804 2.1984961 -0.71937215
2.0977099 1.9297229 -0.47518593
2.2273765 2.0490057 -0.33733591
2.3630927 2.1738536 -0.17934833
7.5001321 6.8995128 0
3.5753839 3.289063 0.2713559
2.4251659 2.236372 -0.91015881
2.3928277 2.2065513 -0.72106135
2.0840573 1.921818 -0.47261894
2.2229993 2.0499437 -0.3370479
2.36238 2.1784739 -0.17949389
7.4841371 6.9015131 0
3.5809562 3.3021867 0.27208143
2.4445689 2.2597363 -0.91846478
2.3994873 2.2180631 -0.72387522
2.0798504 1.922594 -0.47219139
2.2186234 2.0508742 -0.3367599
2.3597462 2.1813269 -0.17949389
7.4700646 6.9052567 0
3.5750501 3.3047423 0.27193588
2.4694412 2.2882676 -0.92884785
2.3912122 2.2157781 -0.72218603
2.0756447 1.9233625 -0.47176382
2.218039 2.05531 -0.3370479
2.3380454 2.1665118 -0.17804222
4.6022687 4.2646179 0
3.5558138 3.2949374 0.27077532
2.459322 2.2844203 -0.92607921
2.39412 2.2238553 -0.72387522
0 0 -0
2.2250276 2.0667882 -0.33848909
2.3506565 2.1834829 -0.17920333
4.5666113 4.2418432 0
3.555634 3.3027649 0.27106532
2.4492157 2.2805517 -0.92331058
2.372839 2.2094345 -0.71824747
2.0803826 1.9371181 -0.47390327
2.2225285 2.0694752 -0.33848909
2.3499162 2.1880906 -0.17934833
4.5729065 4.2579956 0
3.544034 3.2999759 0.27048478
2.4281218 2.2663944 -0.91639024
2.3813088 2.2226994 -0.72162372
0 0 -0
2.2275896 2.0792186 -0.33964226
2.3434753 2.1873858 -0.17905833
4.5734677 4.268847 0
3.5305481 3.2953923 0.26975921
2.0511258 1.9191513 -0.92620146
2.3649299 2.2127645 -0.89354962
2.3860431 2.2325191 -0.72387522
2.0719426 1.9386287 -0.47304651
2.2250757 2.0819087 -0.33964226
2.3484201 2.1973171 -0.17963889
4.5683064 4.2743702 0
3.5189741 3.2925546 0.26917866
2.0686302 1.9402226 -0.93516374
2.204891 2.0680249 -0.83402503
2.3814921 2.233664 -0.72331291
2.0658574 1.9376218 -0.47219139
2.2244432 2.0863636 -0.33993027
2.347657 2.2019289 -0.1797839
4.5745239 4.290566 0
3.549104 3.3287978 0.27179089
2.1077023 1.9816618 -0.95390868
2.1347716 2.0071123 -0.80841833
2.3824904 2.2400174 -0.72443759
2.0635147 1.9401166 -0.47219139
2.2351131 2.1014535 -0.3419486
2.3374221 2.1976445 -0.17920333
7.3412399 6.9022346 0
3.5431881 3.3313055 0.27164587
2.112494 1.9909815 -0.95716542
2.1232111 2.0010819 -0.80495554
2.3927274 2.2550955 -0.7283783
2.0555627 1.9373249 -0.47090706
2.2231629 2.0952845 -0.34050742
2.3423288 2.2075958 -0.1797839
7.3253188 6.9039598 0
3.5353818 3.3320234 0.2713559
2.0885344 1.9731706 -0.94738901
2.1098533 1.993312 -0.8008039
2.3900006 2.2579849 -0.7283783
2.0494919 1.9362848 -0.47005197
2.2206295 2.0979693 -0.34050742
2.3396597 2.2104244 -0.1797839
4.6062326 4.3517995 0
3.5351272 3.3398583 0.27164587
2.1142704 1.9999039 -0.95961112
2.1159389 2.0014822 -0.80357254
2.3978639 2.268157 -0.73119217
2.052048 1.9410473 -0.47090706
2.2268777 2.10642 -0.34166059
2.3421028 2.2154124 -0.18007445
4.5998249 4.3510084 0
3.5236719 3.3330672 0.27092034
2.0670159 1.9599433 -0.93923777
2.1098816 2.0005884 -0.80218959
2.4043388 2.2797925 -0.73400611
2.044111 1.9382248 -0.46962276
2.228081 2.1126652 -0.34223661
2.3299911 2.209296 -0.17934833
4.5832295 4.3458157 0
3.5158672 3.3337431 0.27062976
2.0682328 1.9658483 -0.94086927
2.1001892 1.9962227 -0.79942089
2.3997424 2.2809472 -0.73344374
2.0473514 1.9460007 -0.47090706
2.2199006 2.1100082 -0.34137145
2.3292086 2.2139051 -0.17949389
4.5628848 4.3370066 0
5.0109563 4.7628975 0.38615522
2.0730135 1.9751657 -0.94412911
2.0977755 1.998759 -0.79942089
2.3988223 2.2855961 -0.73400611
2.0394211 1.943159 -0.46962276
2.2210982 2.1162608 -0.3419486
2.3208864 2.2113388 -0.17905833
7.2499881 6.9077835 0
5.0033112 4.7671509 0.38600966
2.0795603 1.986203 -0.94820315
2.0862825 1.9926234 -0.7959581
2.4052515 2.2972729 -0.73682213
2.0519228 1.9598061 -0.47304651
2.2147951 2.1153667 -0.34137145
2.3238516 2.2195275 -0.17949389
7.234108 6.9093485 0
5.0013089 4.7767859 0.38630021
2.0628767 1.9750402 -0.94168341
2.0911219 2.0020826 -0.79872674
2.4079747 2.305444 -0.73850918
2.032867 1.9463081 -0.46919522
2.2085047 2.1144674 -0.34079543
2.3136606 2.2151458 -0.17891333
7.2088375 6.9018879 0
5.0011659 4.7882185 0.38673577
2.0640516 1.9809508 -0.94331181
2.0706043 1.9872397 -0.79180646
2.4161901 2.3189118 -0.74188757
2.0416298 1.9594316 -0.47176382
2.2134125 2.1242981 -0.3419486
2.316601 2.2233324 -0.17934833
7.1873546 6.897984 0
6.6038151 6.3379388 0.51125902
2.0385034 1.9611685 -0.93271804
2.0862775 2.0071304 -0.79872674
2.3969083 2.3059766 -0.73682213
2.0448053 1.9672313 -0.47304651
2.2164376 2.1323526 -0.34281373
2.3307712 2.2423487 -0.180655
7.1790142 6.9066634 0
6.5980225 6.347713 0.51140404
2.0272386 1.9550532 -0.928644
2.0639918 1.9904979 -0.79111499
2.3776543 2.2929916 -0.73175454
2.0331895 1.9607923 -0.47090706
2.1933782 2.1152773 -0.33964226
2.3187029 2.2361393 -0.17992888
7.1631703 6.9081068 0
4.9220557 4.7467928 0.3819463
2.0355401 1.9678119 -0.93353534
2.0669911 1.9982165 -0.79318947
2.3310454 2.2534847 -0.71824747
2.04374 1.9757389 -0.47390327
2.2112782 2.1377025 -0.34281373
2.3178728 2.2407506 -0.18007445
7.1454573 6.9077072 0
4.9125767 4.7491212 0.38165575
2.0296078 1.9668267 -0.93190384
2.0537691 1.9902406 -0.78903782
2.2681079 2.1979494 -0.69967282
2.0302868 1.9674847 -0.47133464
2.2179787 2.1493709 -0.34425494
2.3226278 2.2507827 -0.180655
7.1240282 6.9036636 0
4.875114 4.7243142 0.37918851
1.997093 1.9400024 -0.91805023
2.0405691 1.9822358 -0.78488618
2.1743264 2.1121695 -0.67152965
2.0352733 1.9770913 -0.47304651
2.2098126 2.146641 -0.34338978
2.3180373 2.2517719 -0.18050945
4.700253 4.5658879 0
3.3635073 3.2673552 0.26192197
2.0071445 1.9544859 -0.92375576
2.03637 1.9829446 -0.78419203
2.1462905 2.0899813 -0.66365033
2.0310454 1.9777598 -0.47261894
2.2109268 2.1529219 -0.3439669
2.324621 2.2636333 -0.181235
4.6984582 4.5751915 0
3.3483906 3.2605436 0.26105139
2.0366142 1.9879825 -0.93842357
2.046541 1.9976723 -0.78903782
2.1292176 2.0783744 -0.65914726
2.0488629 1.9999387 -0.47732699
2.2249801 2.1718504 -0.34656128
2.305151 2.2501068 -0.17992888
7.0672984 6.89854 0
3.359324 3.2791076 0.26221251
2.0236144 1.9800737 -0.93353534
2.0387447 1.9948783 -0.78696066
2.1285191 2.082721 -0.65970963
2.0409386 1.9970251 -0.47604269
2.2168062 2.1691086 -0.34569612
2.2987194 2.2492595 -0.17963889
7.0570993 6.9052563 0
10.967843 10.731855 0.85710812
2.0318041 1.9928983 -0.93842357
2.020215 1.9815313 -0.78073186
2.1042333 2.0639405 -0.652955
2.1063306 2.0659978 -0.49187705
2.2215698 2.1790304 -0.34684929
2.2904332 2.2465751 -0.17920333
7.0450311 6.91013 0
10.923334 10.71417 0.8546409
2.0093822 1.9804562 -0.9302755
