# .PCD v0.7 - Point Cloud Data file format
VERSION 0.7
FIELDS x y z
SIZE 4 4 4
TYPE F F F
COUNT 1 1 1
WIDTH 1544
HEIGHT 1
VIEWPOINT 0 0 0 1 0 0 0
POINTS 1544
DATA ascii
-2.9084251 3.4684894 -0.75463498
-3.7011418 4.413857 -0.6420452
-6.9063129 8.2362356 -0.60037661
-6.9309053 8.265564 0
-6.9730129 8.3157797 0.60617495
-2.271209 2.7019296 -0.97383505
-2.5423522 3.0244935 -0.87528419
-2.9225214 3.4767592 -0.75720197
-3.7114668 4.4153233 -0.64291036
-6.9045544 8.2139597 -0.59936053
-6.939208 8.2551851 0
-6.976368 8.2993917 0.6055944
-2.2696207 2.6934259 -0.97175789
-2.5476406 3.0233605 -0.87584656
-2.9283793 3.4751942 -0.75763118
-3.7084675 4.4009476 -0.64146918
-6.9061041 8.1956778 -0.59863496
-6.9357619 8.2308731 0
-6.9746752 8.2770529 0.60457885
-2.2744973 2.6926036 -0.97245204
-2.5578506 3.028044 -0.87809807
-2.9474835 3.4893007 -0.76148248
-3.7171173 4.4004116 -0.6420452
-6.9042625 8.1734295 -0.59761882
-6.9389849 8.2145348 0
-6.9762826 8.258688 0.60385269
-2.2712641 2.6821952 -0.96968341
-2.5549395 3.017195 -0.87584656
-2.9566693 3.4916084 -0.76276511
-6.9158111 8.1670628 -0.59776384
-6.9404979 8.1962156 0
-6.9745069 8.2363777 0.60283715
-2.2728841 2.6808224 -0.96968341
-2.561693 3.021467 -0.87753576
-2.9538028 3.4839528 -0.76148248
-6.9291506 8.1727982 -0.59848994
-6.9303031 8.1741571 0
-6.9744387 8.2262144 0.60240161
-2.2809911 2.6838036 -0.97175789
-2.5587599 3.0106251 -0.87528419
-2.9563432 3.4784195 -0.76105326
-6.1935873 7.2873459 -0.53419638
-6.9384909 8.1637964 0
-6.970911 8.2019415 0.60124046
-2.279356 2.6753221 -0.96968341
-2.5656884 3.0113955 -0.87640887
-2.9588807 3.4728928 -0.76062572
-6.2242937 7.3055677 -0.53608304
-6.9348478 8.1395588 0
-6.9740758 8.1856012 0.60065991
-2.2972312 2.6831403 -0.97452652
-2.574609 3.0071146 -0.87697124
-2.9639289 3.4618359 -0.75977057
-6.2385473 7.2865534 -0.53579247
-6.9409571 8.1069603 0
-6.9786291 8.1509609 0.59935379
-2.2874064 2.6651402 -0.96899188
-2.5699682 2.9943628 -0.87415737
-2.9747972 3.4660439 -0.76148248
-6.2168884 7.2435217 -0.53318024
-6.9388814 8.0847416 0
-6.978322 8.1306953 0.59848326
-2.2922597 2.6642742 -0.96968341
-2.5719287 2.9893312 -0.873595
-2.970607 3.4527116 -0.75934142
-6.9170451 8.0396233 -0.59239435
-6.9401598 8.0664892 0
-6.9864416 8.1202822 0.59833771
-2.2971141 2.6634004 -0.97037488
-2.5705588 2.9804471 -0.8719058
-2.9881895 3.4646711 -0.76276511
-6.9080849 8.009613 -0.59079766
-6.9380083 8.0443077 0
-6.9792809 8.0921612 0.59688658
-2.30197 2.6625187 -0.97106642
-2.5808055 2.9850273 -0.87415737
-2.9890192 3.4571779 -0.76191002
-6.91606 7.9992962 -0.5906527
-6.9426155 8.0300112 0
-6.9788599 8.0719328 0.59601599
-2.3002608 2.6540534 -0.96899188
-2.5727663 2.9684715 -0.87021881
-2.9881487 3.4477422 -0.76062572
-6.9018912 7.9634395 -0.58862048
-6.9403801 8.0078478 0
-6.9766936 8.0497475 0.59499991
-2.3100414 2.6588402 -0.97175789
-2.5796809 2.9691932 -0.87134349
-2.9939945 3.4460649 -0.76105326
-6.8791337 7.9178305 -0.58586323
-6.926158 7.9719553 0
-6.9557428 8.0060072 0.59238768
-2.306668 2.6484869 -0.96899188
-2.584934 2.9679883 -0.8719058
-2.9914124 3.4347017 -0.75934142
-3.8103333 4.3749762 -0.64665788
-6.8460326 7.860528 -0.58223486
-6.8998933 7.9223695 0
-6.9227486 7.9486117 0.5887593
-2.3032665 2.6381383 -0.96622324
-2.5684714 2.9419014 -0.86515337
-2.9938736 3.4291527 -0.75891382
-3.8156168 4.370369 -0.64665788
-6.7854605 7.7719984 -0.57628429
-6.8564057 7.8532581 0
-6.8588681 7.8560786 0.58251876
-2.3081033 2.6372395 -0.96691477
-2.5703461 2.9368782 -0.86458886
-2.9980149 3.4255326 -0.75891382
-3.814081 4.3579702 -0.64550471
-6.7537818 7.7168732 -0.57280153
-6.7853379 7.7529292 0
-6.8170195 7.7891288 0.57816482
-2.314594 2.6382167 -0.96829772
-2.5671899 2.9261303 -0.86233735
-3.0038431 3.4238355 -0.75934142
-6.742537 7.6852674 -0.57105982
-6.777534 7.7251577 0
-6.8041434 7.7554874 0.57627761
-2.3161249 2.6335361 -0.96760625
-2.5740831 2.9268458 -0.86346418
-3.0012033 3.4125001 -0.75763118
-6.7398043 7.6634545 -0.57004374
-6.7713966 7.6993766 0
-6.8032169 7.7355571 0.57540703
-2.3209629 2.6326156 -0.96829772
-2.5876966 2.9351654 -0.86684042
-3.0104125 3.4146426 -0.75891382
-6.7387524 7.6436143 -0.56917316
-6.7738109 7.6833801 0
-6.8091254 7.7234364 0.57511705
-2.3274679 2.6335726 -0.96968341
-2.5912411 2.9320366 -0.86684042
-3.0077362 3.4033084 -0.75720197
-3.7905695 4.2890987 -0.63800967
-6.7411003 7.6276779 -0.56859261
-6.7710242 7.6615372 0
-6.808125 7.7035174 0.57424593
-2.3339725 2.6345103 -0.97106642
-2.5947821 2.9289033 -0.86684042
-3.0067444 3.3939128 -0.75591928
-3.8060369 4.2961278 -0.63973886
-6.745141 7.6136904 -0.56815702
-6.7802768 7.6533504 0
-6.8191495 7.6972284 0.57439095
-2.3305743 2.6274748 -0.96899188
-2.5948665 2.9254363 -0.86627805
-3.007086 3.3901696 -0.75549012
-3.8086317 4.2938275 -0.63973886
-6.7497396 7.6096139 -0.56815702
-6.7814488 7.6453624 0
-6.8220758 7.6911654 0.57424593
-2.3337474 2.6246567 -0.96899188
-2.6051531 2.929894 -0.86852962
-3.0094759 3.3846171 -0.75506252
-3.8086596 4.2834215 -0.6388737
-6.7710176 7.6150475 -0.56917316
-6.7975988 7.6449423 0
-6.8365459 7.6887441 0.57468152
-2.3435876 2.629319 -0.97175789
-2.6053066 2.9229469 -0.86740273
-3.0050247 3.3713984 -0.75292313
-3.8138325 4.2788167 -0.6388737
-6.7871294 7.6146193 -0.56975371
-6.8120279 7.6425533 0
-6.852747 7.6882367 0.57526207
-2.338407 2.6171331 -0.96829772
-2.6105344 2.9216969 -0.86796725
-3.0108049 3.3696775 -0.75335068
-3.8086631 4.2626367 -0.63714451
-6.8032508 7.6141634 -0.57033426
-6.8281937 7.6420794 0
-6.868957 7.6877017 0.57584262
-2.3415675 2.6143057 -0.96829772
-2.61745 2.9223223 -0.86909193
-3.020014 3.3717756 -0.75463498
-3.8051844 4.2483997 -0.63570333
-6.8159099 7.6098051 -0.57062429
-6.8408918 7.6376967 0
-6.8869076 7.6890721 0.57656819
-2.3497546 2.6170764 -0.97037488
-2.6175876 2.9153798 -0.86796725
-3.024086 3.368124 -0.75463498
-3.8137677 4.2476444 -0.63627934
-6.8320436 7.6092978 -0.57120484
-6.862288 7.6429825 0
-6.9066057 7.6923423 0.57743871
-2.3495617 2.6105096 -0.96899188
-2.6177053 2.9084339 -0.86684042
-3.0247157 3.3606477 -0.75377822
-3.8085186 4.2315021 -0.63455015
-6.8516598 7.6126213 -0.57207537
-6.8749967 7.6385503 0
-6.9124222 7.6801324 0.57714874
-2.354393 2.6095295 -0.96968341
-2.6229181 2.9071536 -0.86740273
-3.0339346 3.3627102 -0.75506252
-3.8084292 4.2211342 -0.63368499
-6.8556361 7.5985546 -0.57164037
-6.8789897 7.6244388 0
-6.9182124 7.667912 0.57685816
-2.3558633 2.6048238 -0.96899188
-2.6230235 2.9002168 -0.86627805
-3.0311079 3.3514264 -0.75335068
-3.7996473 4.2011828 -0.63137865
-6.854351 7.5786986 -0.57076925
-6.8881974 7.6161213 0
-6.9274726 7.6595473 0.57685816
-2.3606925 2.6038322 -0.96968341
-2.6179943 2.887635 -0.86346418
-3.0368776 3.3496614 -0.75377822
-3.7977719 4.1889238 -0.63022548
-6.8565226 7.5627108 -0.5701887
-6.8851638 7.5943022 0
-6.9245105 7.637701 0.57584262
-2.3655226 2.6028328 -0.97037488
-2.6197743 2.882591 -0.86290181
-3.0443792 3.3497925 -0.75463498
-3.8045752 4.1862516 -0.63051462
-6.858665 7.5467286 -0.56960815
-6.8855848 7.5763493 0
-6.923245 7.6177874 0.5749715
-2.3737361 2.6055379 -0.97245204
-2.624965 2.8813 -0.86346418
-3.0466974 3.3442156 -0.75420743
-3.8096306 4.1816516 -0.63051462
-6.8607788 7.5307527 -0.5690276
-6.8859658 7.5583992 0
-6.930696 7.6074972 0.57482648
-2.3768828 2.6026678 -0.97245204
-2.6250143 2.8743699 -0.86233735
-3.049 3.3386309 -0.75377822
-3.8077037 4.1694055 -0.62936145
-6.8646216 7.5167065 -0.56859261
-6.8828139 7.5366268 0
-6.9241147 7.5818505 0.57352036
-2.3783269 2.5979383 -0.97175789
-2.6181943 2.8599548 -0.85896111
-3.0513 3.3330526 -0.75335068
-3.8074977 4.1590767 -0.62849629
-6.875452 7.5103211 -0.56873763
-6.8954263 7.5321403 0
-6.9385362 7.5792303 0.57395595
-2.3882494 2.6024561 -0.97452652
-2.6147764 2.8493009 -0.85670954
-3.0535913 3.3274739 -0.75292313
-3.8107731 4.1525688 -0.62820828
-6.8774939 7.49435 -0.56815702
-6.9027648 7.5218873 0
-6.9476891 7.5708408 0.57395595
-2.3964894 2.6051095 -0.97660369
-2.6182172 2.8461392 -0.85670954
-3.0576096 3.3237817 -0.75292313
-3.8070343 4.1384454 -0.6267671
-6.8918238 7.4917736 -0.56859261
-6.9224167 7.5250297 0
-6.9585896 7.5643511 0.57410091
-2.4013343 2.6040542 -0.97729516
-2.6268234 2.8485792 -0.85839874
-3.0668459 3.3257482 -0.75420743
-3.8085217 4.1300359 -0.62618995
-6.907917 7.4910812 -0.56917316
-6.9350362 7.5204897 0
-6.9765301 7.5654869 0.57482648
-2.4112909 2.6085198 -0.98006386
-2.6337097 2.8491311 -0.85952342
-3.0656328 3.3163831 -0.75292313
-3.8117552 4.1235337 -0.62590194
-6.9275432 7.494174 -0.57004374
-6.9582505 7.5273933 0
-6.9909596 7.5627775 0.57526207
-2.4161513 2.6074498 -0.98075801
-2.6336997 2.8422227 -0.85839874
-3.0731242 3.3164387 -0.75377822
-3.8061836 4.1075382 -0.62417161
-6.9454222 7.495326 -0.57076925
-6.9673409 7.51898 0
-7.0159864 7.5714769 0.57656819
-2.4244173 2.6100376 -0.98283249
-2.6371319 2.8390384 -0.85839874
-3.071893 3.3070858 -0.75249559
-3.8023441 4.0934625 -0.62273043
-6.9509406 7.4831243 -0.57047927
-6.9817362 7.5162783 0
-7.030437 7.568707 0.57700372
-2.4395382 2.6199605 -0.98767829
-2.6405606 2.8358498 -0.85839874
-3.0741322 3.3014874 -0.75206637
-3.8072875 4.0888653 -0.62273043
-6.981226 7.4975405 -0.57222098
-7.006773 7.5249767 0
-7.0466599 7.5678134 0.57758427
-2.4496727 2.6276596 -0.9911384
-2.6492038 2.8416882 -0.8606503
-3.0813794 3.3052645 -0.75335068
-3.7974162 4.0733266 -0.62071323
-6.9928422 7.5009236 -0.57280153
-7.0166368 7.5264473 0
-7.0547709 7.5673523 0.5778743
-2.4682608 2.6411924 -0.9973672
-2.6543689 2.8403397 -0.86121261
-3.0836198 3.299665 -0.75292313
-3.7882071 4.053617 -0.61840689
-7.0036726 7.4943652 -0.57294649
-7.038166 7.5312757 0
-7.0674615 7.562623 0.57816482
-2.6612697 2.8408353 -0.86233735
-3.0858514 3.294065 -0.75249559
-3.7860291 4.0414867 -0.61725372
-7.0233784 7.4972715 -0.57381707
-7.0472612 7.5227656 0
-7.085475 7.5635581 0.57889038
-2.657743 2.8302088 -0.86008579
-3.0950961 3.2959425 -0.75377822
-3.7785141 4.0237088 -0.61523539
-7.0395474 7.4963565 -0.57439762
-7.0670314 7.5256243 0
-7.1141701 7.5758214 0.58048654
-2.6629074 2.8288507 -0.8606503
-3.0920382 3.2847235 -0.75206637
-3.7709615 4.0059552 -0.61321706
-7.0486002 7.4878454 -0.57439762
-7.0868258 7.5284534 0
-7.1322289 7.5766854 0.58121264
-2.6645746 2.8237779 -0.86008579
-3.0871975 3.2716515 -0.74992692
-3.7669253 3.9919918 -0.61177588
-7.0719094 7.494442 -0.57555872
-7.0941329 7.5179935 0
-7.1431603 7.5699501 0.58135766
-2.6697359 2.8224075 -0.8606503
-3.1034985 3.2809751 -0.75292313
-3.7646365 3.9799211 -0.6106227
-7.0898862 7.4953284 -0.57628429
-7.1139388 7.5207567 0
-7.1505179 7.5594277 0.58121264
-2.6678977 2.8136463 -0.85896111
-3.1039248 3.2734938 -0.75206637
-3.7676649 3.9734943 -0.61033469
-8.3861609 8.8443003 -0.6807797
-7.1069069 7.4951606 0
-8.8437519 9.32689 0.7179265
-2.6765487 2.8159475 -0.8606503
-3.1008036 3.2622981 -0.75035447
-3.7653356 3.9614398 -0.60918152
-8.4040012 8.8416948 -0.68136024
-8.1235514 8.5466385 0
-8.8603868 9.3218498 0.71836203
-2.6746893 2.8071909 -0.85896111
-3.1029742 3.2566924 -0.74992692
-3.7647653 3.951268 -0.60831636
-8.4254303 8.8428173 -0.68223083
-8.1105356 8.5123243 0
-8.8788137 9.3186617 0.71894258
-2.676326 2.8021212 -0.85839874
-3.1015928 3.2473767 -0.74864429
-3.7606063 3.9373658 -0.60687518
-8.4612312 8.8589344 -0.68426251
-8.1190195 8.5006371 0
-8.9026327 9.3210821 0.71995872
-2.6779478 2.7970448 -0.85783422
-3.1143892 3.2528961 -0.75078368
-3.767148 3.9346852 -0.60716319
-8.488101 8.8655939 -0.68556863
-8.1220865 8.4833021 0
-8.9156837 9.3121929 0.72010374
-2.6901274 2.8029783 -0.8606503
-3.114759 3.2454228 -0.74992692
-3.7701104 3.9282663 -0.60687518
-8.5132008 8.8703299 -0.68672973
-8.1323309 8.4734812 0
-8.9377213 9.3126583 0.72097427
-2.6899858 2.7960601 -0.85952342
-3.122241 3.2453604 -0.75078368
-3.7730625 3.9218459 -0.60658717
-8.5437307 8.8806362 -0.68832642
-8.1371489 8.4580212 0
-8.9651794 9.3187037 0.72228038
-2.6916001 2.7909803 -0.85896111
-3.1225927 3.2378862 -0.74992692
-3.7777987 3.917284 -0.60658717
-8.5634727 8.8796568 -0.68905193
-8.1419411 8.4425611 0
-8.9854565 9.3172207 0.72300649
-2.6932061 2.7859011 -0.85839874
-3.1247203 3.2322671 -0.74949938
-3.7789371 3.9090006 -0.60601115
-8.5832243 8.8786421 -0.68977749
-8.1467075 8.4271011 0
-9.0003166 9.3100901 0.72329652
-2.694797 2.7808149 -0.85783422
-3.1321931 3.2321725 -0.75035447
-3.7782559 3.8988578 -0.60514599
-8.6066055 8.8813286 -0.69079363
-8.1442118 8.4041748 0
-9.0205994 9.3085365 0.72402209
-2.6999307 2.7793846 -0.85839874
-3.1307354 3.2228668 -0.74907184
-3.7847648 3.896143 -0.605434
-8.6209488 8.8746462 -0.69108361
-8.1489191 8.3887262 0
-9.0408916 9.3069477 0.7247476
-2.7050581 2.7779388 -0.85896111
-3.132838 3.2172441 -0.74864429
-3.7894697 3.891567 -0.605434
-8.6516085 8.8847027 -0.6926803
-8.1536007 8.3732777 0
-9.072073 9.3164959 0.72634429
-2.6995401 2.7655787 -0.85614723
-3.1438887 3.2207973 -0.75035447
-3.795974 3.8888345 -0.60572201
-8.6714106 8.8835382 -0.69340587
-6.3095765 6.4639268 0
-9.0905838 9.3129654 0.72692484
-2.7083142 2.7712159 -0.85839874
-3.138664 3.2115607 -0.74864429
-3.7929046 3.8809965 -0.60485798
-8.684041 8.8857307 -0.69398642
-6.3062043 6.4526687 0
-9.1071014 9.3186178 0.72779542
-2.7063246 2.7624946 -0.85670954
-3.1407406 3.2059269 -0.74821508
-3.7975912 3.8764105 -0.60485798
-8.7075014 8.8882265 -0.69500256
-6.3158159 6.4469013 0
-9.1201782 9.3094683 0.72794098
-2.7150033 2.764663 -0.85839874
-3.1446121 3.2021296 -0.74821508
-3.7895846 3.8588994 -0.60283965
-8.7255173 8.8851147 -0.69558311
-0 0 0
-9.1441603 9.3114138 0.72895652
-2.7129927 2.7559464 -0.85670954
-3.1574817 3.2074728 -0.75035447
-3.7960575 3.856159 -0.60312766
-8.7471809 8.8856716 -0.69645363
-6.335032 6.4353323 0
-9.1590538 9.3040657 0.72924709
-2.7145376 2.7508595 -0.85614723
-3.1649644 3.2073133 -0.75121123
-3.7916322 3.842366 -0.60168648
-6.2357111 6.3191476 -0.4958812
-6.3428035 6.4276733 0
-9.1885366 9.3114834 0.73069823
-2.7178595 2.7475774 -0.85614723
-3.1616166 3.1961865 -0.74949938
-3.7871792 3.8285894 -0.6002453
-6.2433419 6.3116083 -0.4958812
-6.3523936 6.4218531 0
-9.1997814 9.300374 0.73069823
-2.7175958 2.7406795 -0.85502034
-3.1546345 3.1814303 -0.74693239
-3.789983 3.8221757 -0.59995729
-6.249136 6.3022165 -0.49573621
-6.3583179 6.4123263 0
-9.2183304 9.2966318 0.73127878
-2.729593 2.7395055 -0.85670954
-3.1695611 3.1810715 -0.74864429
-3.7864277 3.8001783 -0.59793895
-6.2515073 6.27421 -0.4947201
-6.3719606 6.3951001 0
-9.2811155 9.3148203 0.73447156
-2.7364891 2.7397976 -0.85783422
-3.1842837 3.1881337 -0.75121123
-3.7910168 3.7956002 -0.59793895
-6.2590842 6.2666516 -0.4947201
-6.3815203 6.389236 0
-9.2850189 9.2962446 0.73389101
-2.7397976 2.7364891 -0.85783422
-3.1754179 3.1715834 -0.74821508
-3.7882802 3.7837055 -0.59678578
-6.2592974 6.251739 -0.49413955
-6.389236 6.3815203 0
-9.1399822 9.1289444 0.72155482
-2.7341042 2.7242112 -0.85502034
-3.184705 3.1731815 -0.74949938
-0 0 -0
-6.2797337 6.2570114 -0.49515566
-6.3987837 6.3756309 0
-8.9595861 8.9271669 0.70646143
-2.7410014 2.7244914 -0.85614723
-3.1994574 3.1801858 -0.75206637
-3.7882423 3.7654245 -0.5953446
-6.303874 6.2659035 -0.49646178
-6.4120221 6.3734002 0
-8.9371901 8.883358 0.70384866
-2.7388768 2.7158086 -0.85445803
-3.2051258 3.1781304 -0.75249559
-3.7872777 3.7553792 -0.59447944
-6.3298955 6.2765813 -0.49791345
-6.4234109 6.3693094 0
-8.9331636 8.8579235 0.7026881
-2.7421565 2.7124972 -0.85445803
-3.1961865 3.1616166 -0.74949938
-3.7991681 3.758076 -0.59563261
-6.3374748 6.2689285 -0.49791345
-6.4274054 6.3578863 0
-8.9383163 8.8416386 0.70225251
-2.7454319 2.7091818 -0.85445803
-3.2036552 3.1613548 -0.75035447
-3.8018668 3.7516677 -0.5953446
-6.3468928 6.2630897 -0.49805844
-6.4406419 6.3556008 0
-8.9323492 8.8144083 0.70094645
-2.7487035 2.7058625 -0.85445803
-3.2038176 3.1538832 -0.74949938
-3.7971828 3.7380004 -0.59390342
-6.3488989 6.2499456 -0.49762288
-6.4501696 6.349638 0
-8.935586 8.7963171 0.70036584
-2.7465305 2.6971965 -0.85276884
-3.2149525 3.1572044 -0.75121123
-3.7998459 3.7315922 -0.59361428
-6.3564458 6.2422695 -0.49762288
-6.4671197 6.3509555 0
-8.9369402 8.776412 0.69964033
-2.7570477 2.7009885 -0.85502034
-3.2059269 3.1407406 -0.74821508
-3.7988145 3.7215731 -0.59275025
-6.3584137 6.2291279 -0.49718732
-6.4766459 6.3449559 0
-8.941968 8.76015 0.69920474
-2.754863 2.6923325 -0.85333335
-3.2115607 3.138664 -0.74864429
-3.7959094 3.709749 -0.59159708
-6.3752327 6.2305264 -0.49791345
-6.4917531 6.3444018 0
-8.9562588 8.7529678 0.69949472
-2.7599318 2.690774 -0.85389566
-3.2208598 3.140152 -0.74992692
-3.8003893 3.7051597 -0.59159708
-6.3827567 6.2228184 -0.49791345
-6.5068679 6.3438201 0
-8.1668415 7.9621983 0.63708842
-2.7577147 2.6821208 -0.85220647
-3.2283359 3.1398411 -0.75078368
-3.7974467 3.6933517 -0.59044391
-6.4033046 6.227778 -0.49892899
-6.5257187 6.3468366 0
-8.1857681 7.961381 0.63781399
-2.757514 2.6786854 -0.85164416
-3.2265458 3.1343093 -0.74992692
-3.7829821 3.6748385 -0.58784956
-6.4331632 6.2492595 -0.50096124
-6.531424 6.3447113 0
-8.188714 7.9546251 0.63766897
-2.7680473 2.6824245 -0.85389566
-3.2174318 3.1179082 -0.74693239
-3.7707045 3.654067 -0.58525521
-6.4705586 6.2704077 -0.5032829
-6.5577712 6.3549228 0
-8.1964483 7.9429116 0.63752341
-2.7658043 2.6737781 -0.85220647
-3.2248845 3.1175833 -0.74778754
-3.7583754 3.6333234 -0.58265972
-6.4949427 6.2788372 -0.50458902
-6.5747991 6.3560367 0
-8.2023077 7.9293933 0.63723338
-2.7708602 2.6721964 -0.85276884
-3.2304952 3.1154647 -0.74821508
-3.7553158 3.6215975 -0.58150655
-6.5212321 6.2890258 -0.50604069
-6.5862246 6.3517041 0
-6.9082947 6.6623063 0.53607637
-2.7759233 2.6706131 -0.85333335
-3.2305608 3.1080029 -0.74735993
-3.750371 3.608093 -0.58006537
-6.5512967 6.3027601 -0.5077824
-6.6239018 6.3726106 0
-6.9200811 6.6575537 0.53636634
-2.7754784 2.6637347 -0.85220647
-3.2250552 3.0952113 -0.74522054
-3.7453992 3.5946057 -0.57862419
-6.6526337 6.3847919 -0.51503849
-6.6428595 6.3754115 0
-6.9524975 6.6725826 0.53825355
-2.7860363 2.667408 -0.85445803
-3.2269332 3.0895317 -0.74479133
-3.7441335 3.5847096 -0.57775903
-6.8836899 6.5905852 -0.53230971
-6.723866 6.4375668 0
-6.9774451 6.6803484 0.53955966
-2.7800717 2.6552665 -0.85164416
-3.2269547 3.0820878 -0.74393624
-3.7372432 3.5694678 -0.57602984
-6.931107 6.6199503 -0.53535748
-6.914185 6.6037879 0
-6.9873891 6.6737056 0.53970468
-2.7887986 2.6571653 -0.85333335
-3.2381105 3.0852695 -0.74564809
-3.7284436 3.5524583 -0.5740115
-6.9296894 6.602603 -0.53463137
-6.9636078 6.6349206 0
-6.9879231 6.6580877 0.53912413
-2.6238616 2.4939718 -0.99875289
-2.7883203 2.6502891 -0.85220647
-3.243695 3.0831215 -0.74607563
-3.7289875 3.5443902 -0.57343549
-6.9075351 6.565589 -0.53230971
-6.9791651 6.6336732 0
-6.9959626 6.6496396 0.53912413
-2.8007379 2.655658 -0.85502034
-3.2381058 3.07037 -0.74393624
-3.7276349 3.5345411 -0.57257032
-6.8588996 6.5036044 -0.52795577
-6.9758482 6.6144948 0
-6.9926829 6.6304574 0.53825355
-2.7928727 2.6417987 -0.85164416
-3.2474101 3.071749 -0.74522054
-3.7225096 3.5211492 -0.57112914
-6.795023 6.4274621 -0.52244079
-6.9743838 6.5971208 0
-6.9931383 6.614861 0.537673
-2.797909 2.6401644 -0.85220647
-3.2473814 3.064296 -0.74436378
-3.7305202 3.5201955 -0.57170516
-6.7668748 6.3853617 -0.51968294
-6.9709892 6.5779686 0
-6.9935665 6.5992727 0.53709245
-2.8029454 2.6385217 -0.85276884
-3.2473471 3.0568542 -0.74350864
-3.734771 3.5156853 -0.57170516
-6.7689075 6.3718357 -0.51924741
-6.9751463 6.5659766 0
-6.9882894 6.5783486 0.53607637
-2.804281 2.6333952 -0.85220647
-3.2491615 3.0511658 -0.74307948
-3.7409072 3.5129457 -0.5719943
-6.7841783 6.3707676 -0.51982796
-6.9811792 6.5557637 0
-6.9848714 6.5592308 0.53520578
-2.8037558 2.626534 -0.85108179
-3.2584679 3.0525043 -0.74436378
-3.7357059 3.4995763 -0.57055199
-6.7937727 6.364347 -0.51997352
-6.9776964 6.5366449 0
-6.9738245 6.5330181 0.53375411
-2.8050656 2.6214044 -0.85051727
-3.2490306 3.0363007 -0.74136925
-3.7399316 3.49506 -0.57055199
-6.8375239 6.3898377 -0.52273077
-6.9798832 6.5228763 0
-6.9855142 6.5281386 0.53404468
-2.8082311 2.6180131 -0.85051727
-3.2545729 3.0341215 -0.74179679
-3.7517195 3.4975934 -0.57170516
-6.8889484 6.4223194 -0.52606857
-6.9763422 6.5037932 0
-6.9933968 6.5196929 0.53404468
-2.8076746 2.6111605 -0.84939259
-3.2544734 3.0266869 -0.74094003
-3.7483668 3.486012 -0.57055199
-6.923346 6.4387684 -0.52810079
-6.9899144 6.5006776 0
-6.9974604 6.5076957 0.53375411
-2.8145497 2.6112189 -0.85051727
-3.2581282 3.0227523 -0.74094003
-3.7563722 3.4850018 -0.57112914
-6.9406433 6.4392328 -0.52882636
-6.9805951 6.4762983 0
-7.011035 6.5045395 0.53418964
-2.8198578 2.6129756 -0.85164416
-3.2561915 3.017297 -0.74008495
-3.7565815 3.4809754 -0.57084113
-6.9407167 6.4315028 -0.52853578
-6.9883208 6.4756141 0
-7.0225873 6.5073667 0.53477025
-2.824877 2.6112895 -0.85220647
-3.2692585 3.0220714 -0.74222434
-3.7588801 3.474673 -0.57055199
-6.9523029 6.4266429 -0.52882636
-7.0056939 6.4759965 0
-7.0380778 6.5059319 0.5353508
-2.8130867 2.594094 -0.8477034
-3.2729075 3.0181189 -0.74222434
-3.7687819 3.4753907 -0.57141715
-6.9715209 6.4288034 -0.52969688
-7.023078 6.4763465 0
-7.0573912 6.5079889 0.53622133
-2.8311791 2.6044552 -0.85220647
-3.2671075 3.0054739 -0.74008495
-3.7767894 3.4743397 -0.5719943
-6.9984112 6.4379702 -0.53114855
-7.0443072 6.4801912 0
-7.0728993 6.5064936 0.53680187
-2.8212178 2.5890048 -0.84826577
-3.2593849 2.9911065 -0.73751628
-3.769547 3.4592774 -0.57026398
-7.0100102 6.4330201 -0.53143859
-7.0617175 6.4804711 0
-7.0865011 6.5032148 0.53723747
-2.8224716 2.5838799 -0.8477034
-3.2762527 2.9993014 -0.74051249
-3.7775433 3.4582167 -0.57084113
-7.0292816 6.4350758 -0.53230971
-7.0753036 6.4772077 0
-7.1039352 6.5034189 0.53796303
-2.8406014 2.5941753 -0.85220647
-3.2685046 2.9849572 -0.7379455
-3.7817192 3.4536498 -0.57084113
-7.0428023 6.4318295 -0.53274471
-7.0908117 6.4756737 0
-7.1232967 6.5053406 0.53883356
-2.830584 2.5787611 -0.84826577
-3.270206 2.9792719 -0.73751628
-3.7858894 3.4490776 -0.57084113
-7.0659356 6.4373145 -0.5339058
-7.1044044 6.4723606 0
-7.1426806 6.5072317 0.53970468
-2.833698 2.5753391 -0.84826577
-3.2795043 2.9804995 -0.73880059
-3.7881346 3.4427559 -0.57055199
-7.0775585 6.4322705 -0.53419638
-7.1102881 6.4620166 0
-7.1563087 6.5038409 0.54014027
-2.6818907 2.431462 -0.99875289
-2.8424568 2.5770347 -0.84995496
-3.2907107 2.9834316 -0.74051249
-3.7922916 3.4381764 -0.57055199
-7.1007257 6.4376764 -0.53535748
-7.1180911 6.4534202 0
-7.1718626 6.5021706 0.54072082
-2.6773841 2.4214885 -0.9959842
-2.8436859 2.5718956 -0.84939259
-3.3019288 2.986341 -0.74222434
-3.7887702 3.4266517 -0.56939882
-7.114275 6.4343157 -0.53579247
-7.1181631 6.4378319 0
-7.1931982 6.5056958 0.54173636
-2.6709964 2.4098504 -0.99252409
-2.8467915 2.5684576 -0.84939259
-3.3055346 2.9823492 -0.74222434
-3.7948337 3.4238088 -0.56968796
-7.1297617 6.4326773 -0.53637302
-7.122076 6.4257431 0
-7.2106986 6.5057011 0.54246193
-2.6552556 2.3898349 -0.98560113
-2.859334 2.5735135 -0.85220647
-3.3148618 2.9835064 -0.74350864
-3.7989681 3.4192212 -0.56968796
-7.1491213 6.4344912 -0.53724414
-7.1201649 6.4084291 0
-7.2282166 6.5056801 0.54318804
-2.6730752 2.4000332 -0.9911384
-2.8624415 2.5700567 -0.85220647
-3.3203726 2.9812124 -0.74393624
-3.8050194 3.4163547 -0.56997597
-7.1646247 6.4327922 -0.53782469
-7.1143456 6.3876486 0
-7.2322016 6.4934664 0.54289746
-2.6479471 2.3716993 -0.98075801
-2.8731155 2.5733771 -0.85445803
-3.3430908 2.9943218 -0.74821508
-3.8091445 3.4117544 -0.56997597
-7.1801343 6.4310646 -0.53840524
-7.1220589 6.3790479 0
-7.2284327 6.4743242 0.54202694
-2.6320994 2.3517792 -0.97383505
-2.8819091 2.5749841 -0.85614723
-3.3505385 2.9937043 -0.74907184
-3.815191 3.4088709 -0.57026398
-7.2033939 6.4362283 -0.5395658
-7.1297612 6.3704376 0
-7.2343068 6.4638491 0.54188138
-2.6480505 2.3602839 -0.97868085
-2.869844 2.5579746 -0.85164416
-3.3579824 2.9930665 -0.74992692
-3.811584 3.3973746 -0.56911081
-7.2150488 6.4309807 -0.53985637
-7.1374536 6.3618178 0
-7.2304773 6.4447327 0.5410108
-2.6284027 2.3370781 -0.97037488
-2.8786311 2.5595717 -0.85333335
-3.3692701 2.9958298 -0.75163883
-3.8176174 3.3944836 -0.56939882
-7.2364087 6.4343462 -0.54087251
-7.1431923 6.3514614 0
-7.2285519 6.4273601 0.54028523
-2.636857 2.3388965 -0.97245204
-2.9045248 2.5763183 -0.86008579
-3.382488 3.0002723 -0.75377822
-3.8217161 3.3898683 -0.56939882
-7.2480621 6.4290428 -0.54116249
-7.1703277 6.3600922 0
-7.2149277 6.3996525 0.5386886
-2.6377969 2.3340414 -0.97175789
-2.9304705 2.5930121 -0.86684042
-3.3822694 2.992784 -0.75292313
-3.8258092 3.3852479 -0.56939882
-7.2674975 6.4306083 -0.54203308
-7.1741128 6.3479776 0
-7.205143 6.3754344 0.53738248
-2.6500249 2.3391583 -0.97522068
-2.97932 2.6298246 -0.88034964
-3.3820302 2.9852941 -0.75206637
-3.8279598 3.3789129 -0.56911081
-7.2889009 6.4338608 -0.54304916
-7.193481 6.3496346 0
-7.2225795 6.37532 0.53810799
-2.6603808 2.3425863 -0.97798932
-3.0130072 2.6530898 -0.88935578
-3.3971982 2.9913874 -0.75463498
-3.8339789 3.3759928 -0.56939882
-7.3044701 6.4319177 -0.54362971
-7.2187247 6.3564153 0
-7.2380786 6.373457 0.5386886
-2.6594362 2.3360555 -0.97660369
-3.0314827 2.6628621 -0.89385885
-3.3892345 2.9771123 -0.75206637
-3.8419456 3.3747747 -0.56997597
-7.3239536 6.4333797 -0.54450083
-7.2381353 6.3579965 0
-7.2692013 6.3852844 0.54043025
-2.658963 2.3327954 -0.97591221
-3.040731 2.667733 -0.89611042
-3.3910327 2.9750643 -0.75206637
-3.8420415 3.370749 -0.56968796
-7.3297906 6.4306655 -0.54464585
-7.2458844 6.3570518 0
-7.3160257 6.4185891 0.54362303
-2.6598938 2.3279302 -0.97522068
-3.0573308 2.675766 -0.90004897
-3.386898 2.9642019 -0.75035447
-3.8441596 3.3643959 -0.56939882
-7.3414621 6.4252238 -0.54493582
-7.267271 6.3602915 0
-7.3589759 6.4405513 0.5462358
-2.6778233 2.3379142 -0.98075801
-3.062474 2.6737392 -0.90061134
-3.4001517 2.9685538 -0.75249559
-3.8443289 3.3563495 -0.5688228
-7.3590059 6.4248915 -0.54566139
-7.2827926 6.3583522 0
-7.3784933 6.441905 0.54710639
-2.6768591 2.3313785 -0.97937232
-3.0599597 2.6650355 -0.89892429
-3.4037361 2.9644432 -0.75249559
-3.8483815 3.351702 -0.5688228
-7.3785243 6.4262376 -0.54653251
-7.2943912 6.352963 0
-7.382349 6.4295688 0.54681581
-2.67589 2.3248546 -0.97798932
-3.0727663 2.6696668 -0.90173817
-3.3956847 2.9502234 -0.74992692
-3.8543792 3.3487442 -0.56911081
-7.4039354 6.4326534 -0.54783863
-7.3099208 6.3509717 0
-7.3920798 6.4223528 0.54696137
-2.6881745 2.3298335 -0.98144948
-3.0836701 2.6726086 -0.90398973
-3.4070065 2.9528434 -0.75163883
-3.8545175 3.3406997 -0.56853479
-7.4215188 6.43221 -0.5485642
-7.3234911 6.34725 0
-7.4057198 6.4185171 0.54739636
-2.697593 2.3266044 -0.98283249
-3.0901198 2.6651487 -0.90398973
-3.4257998 2.954664 -0.75420743
-3.8625793 3.3313751 -0.56853479
-7.4586878 6.4329262 -0.55016088
-7.3762474 6.3618231 0
-7.4172773 6.3972106 0.54710639
-2.7232234 2.3429778 -0.9911384
-3.0914137 2.6597574 -0.90342736
-3.419632 2.9421465 -0.75206637
-3.8685606 3.3283908 -0.5688228
-7.4763021 6.4323807 -0.55088645
-7.3878784 6.3563037 0
-7.4348488 6.3967156 0.54783195
-2.7203393 2.3347824 -0.9890613
-3.1081164 2.6675992 -0.90736592
-3.4231846 2.9380124 -0.75206637
-3.8725796 3.323714 -0.5688228
-7.4958959 6.4334931 -0.55175698
-7.4093795 6.3592386 0
-7.4642639 6.4063444 0.54942864
-2.7288775 2.33639 -0.9911384
-3.1132658 2.6654928 -0.90792829
-3.4286878 2.9355483 -0.75249559
-3.87463 3.3173518 -0.56853479
-7.515511 6.4345741 -0.5526281
-7.5020595 6.4230576 0
-7.5055528 6.4260483 0.55189586
-2.7374234 2.3379805 -0.99321556
-3.1319411 2.6749303 -0.91243136
-3.4380827 2.9363999 -0.75377822
-3.8786354 3.3126676 -0.56853479
-7.5311837 6.4322386 -0.55320865
-7.565218 6.4613066 0
-6.1697841 5.2694931 0.45320603
-2.7402463 2.334671 -0.99321556
-3.1216378 2.6596138 -0.9084928
-3.4474921 2.9372396 -0.75506252
-3.8905106 3.3146882 -0.56968796
-7.5468621 6.4298749 -0.5537892
-7.5948129 6.4707284 0
-6.1800985 5.2654014 0.45349604
-2.7430654 2.3313584 -0.99321556
-3.1248491 2.6558402 -0.9084928
-3.4412603 2.9247613 -0.75292313
-3.8846605 3.3016114 -0.56824678
-7.5645237 6.4291635 -0.55451477
-7.6125388 6.4699721 0
-0 0 0
-2.7497039 2.3312838 -0.99459857
-3.1338646 2.6569872 -0.91017985
-3.4408722 2.9172776 -0.75206637
-3.8866684 3.2952375 -0.56795764
-7.5802145 6.4267402 -0.55509531
-7.6243253 6.4641385 0
-6.2027206 5.2588582 0.45422214
-2.7467778 2.3231041 -0.99252409
-3.1293125 2.6466353 -0.90792829
-3.4443946 2.9131179 -0.75206637
-3.8946009 3.2938826 -0.56853479
-9.8793859 8.3555517 -0.72272265
-9.9390316 8.4059973 0
-6.2070808 5.2496767 0.45407659
-2.7572527 2.3262546 -0.99529272
-3.1383362 2.6477692 -0.90961748
-3.4557602 2.9155753 -0.75377822
-3.8886955 3.2808366 -0.56709361
-9.8914585 8.3452816 -0.72286767
-9.9452076 8.3906288 0
-6.2173953 5.2455273 0.45436713
-2.7543013 2.3180733 -0.99321556
-3.131815 2.6357961 -0.90680361
-3.4553561 2.9080946 -0.75292313
-3.894634 3.2777994 -0.56738162
-9.8915968 8.3249598 -0.7221421
-9.9473743 8.3719025 0
-6.2177629 5.2329898 0.45393157
-2.7551806 2.313132 -0.99252409
-3.1486213 2.6434481 -0.91074431
-3.441175 2.8890636 -0.74907184
-3.8985918 3.2730911 -0.56738162
-9.8897123 8.3029795 -0.72127151
-9.9495096 8.3531837 0
-9.9712038 8.371397 0.72721487
-2.7387364 2.2936902 -0.98560113
-3.151813 2.6396415 -0.91074431
-3.4545016 2.8931432 -0.75121123
-3.9005628 3.2667189 -0.56709361
-9.8937588 8.2860174 -0.72083598
-9.9536085 8.3361406 0
-9.9773312 8.3560095 0.72692484
-2.7607625 2.3064671 -0.99252409
-3.1374526 2.6211712 -0.90567893
-3.4658751 2.8955503 -0.75292313
-3.9005334 3.2586837 -0.56651646
-9.8977795 8.2690573 -0.72040039
-9.9496984 8.3124323 0
-9.9814367 8.3389482 0.72648931
-2.7500551 2.2918849 -0.98767829
-3.1250024 2.6043646 -0.90117586
-3.4535952 2.8782127 -0.74949938
-3.9084456 3.2572832 -0.56709361
-9.8977852 8.2487755 -0.71967483
-9.9477358 8.2904043 0
-9.9815264 8.3185654 0.72576374
-2.7470329 2.2837474 -0.98560113
-3.1379144 2.608707 -0.90398973
-3.4590425 2.8756771 -0.74992692
-3.9163527 3.2558622 -0.56766963
-9.8997526 8.2301655 -0.71909428
-6.347683 5.2771502 0
-9.9835777 8.2998533 0.72518319
-2.7484121 2.2820873 -0.98560113
-3.1277571 2.5970685 -0.90061134
-3.4706523 2.8817847 -0.75206637
-3.9123473 3.2485371 -0.56680447
-9.9027262 8.2225246 -0.71894932
-6.3428612 5.266664 0
-9.9785967 8.2855225 0.72445762
-2.7511675 2.2787647 -0.98560113
-3.1348102 2.5965321 -0.90173817
-3.4741318 2.877589 -0.75206637
-3.9222474 3.2487586 -0.56766963
-9.8966446 8.1972923 -0.71778816
-6.3412108 5.2523623 0
-9.9765978 8.2635174 0.72358704
-2.7461829 2.269047 -0.98283249
-3.1399021 2.5943594 -0.90230054
-3.4815679 2.8766623 -0.75292313
-3.9221859 3.240725 -0.56709361
-9.8965282 8.1770544 -0.71706259
-6.3475528 5.2446961 0
-9.9825659 8.2481432 0.72329652
-2.7508643 2.2673273 -0.98352665
-3.1332328 2.5824847 -0.89948666
-3.4909859 2.8773532 -0.75420743
-3.928093 3.237627 -0.56738162
-9.8963776 8.1568289 -0.71633708
-6.3679371 5.2486043 0
-9.978487 8.2245045 0.72228038
-2.7574739 2.2671854 -0.98490965
-3.132422 2.5754664 -0.89835978
-3.5004032 2.8780191 -0.75549012
-3.9339981 3.2345195 -0.56766963
-9.8941803 8.1349602 -0.71546596
-6.3662333 5.2342949 0
-9.9783831 8.2041922 0.72155482
-2.7563355 2.260673 -0.98352665
-3.1276805 2.5652404 -0.89611042
-3.5118175 2.8802993 -0.75720197
-3.9399014 3.2314022 -0.56795764
-9.8999882 8.1197062 -0.71517593
-9.952177 8.1625109 0
-9.9862823 8.1904831 0.72140986
-2.7571177 2.2557476 -0.98283249
-3.136672 2.5662816 -0.89779747
-3.4994006 2.8630495 -0.75377822
-3.9478106 3.229918 -0.56853479
-9.9017477 8.1011572 -0.71459538
-9.9640455 8.1521263 0
-9.9861174 8.1701851 0.72068429
-2.7540162 2.2476604 -0.98075801
-3.1417372 2.5640945 -0.89835978
-3.5048521 2.8604469 -0.75420743
-3.9517105 3.2251456 -0.56853479
-9.8974352 8.0776844 -0.7135793
-9.963809 8.131855 0
-9.9879303 8.1515408 0.72010374
-2.7411656 2.2316597 -0.97522068
-3.1408958 2.5570912 -0.8972351
-3.5102947 2.8578291 -0.75463498
-3.9515891 3.2170992 -0.56795764
-9.9011412 8.0607958 -0.71314371
-9.9635382 8.1115952 0
-9.9876986 8.1312647 0.71937817
-2.7419071 2.2267597 -0.97452652
-3.1459539 2.5548944 -0.89779747
-3.5037835 2.8454955 -0.75249559
-3.9675238 3.2221086 -0.56968796
-6.4356503 5.2265258 -0.46308166
-9.963233 8.0913486 0
-9.9874334 8.111002 0.71865261
-2.752393 2.2297618 -0.97729516
-3.1431212 2.5462978 -0.89611042
-3.5112047 2.8444884 -0.75335068
-3.981461 3.2254515 -0.57112914
-6.4581132 5.2318306 -0.46424276
-9.9568253 8.0661983 0
-9.9851084 8.0891113 0.71778148
-2.7511866 2.2232838 -0.97591221
-3.13236 2.531317 -0.89216965
-3.5126445 2.8386319 -0.75292313
-3.9873652 3.2222624 -0.57141715
-0 0 -0
-9.9564457 8.0459843 0
-9.9908371 8.0737772 0.71749151
-2.7460582 2.21366 -0.97314352
-3.1433291 2.5339091 -0.89442122
-3.5120709 2.8311601 -0.75206637
-3.9892442 3.2158203 -0.57112914
-6.4768009 5.2210965 -0.46467775
-9.9600801 8.029047 0
-9.9844007 8.0486526 0.71633035
-2.7506843 2.211911 -0.97383505
-3.1463885 2.5301092 -0.89442122
-3.5174954 2.8285277 -0.75249559
-4.0011892 3.2174811 -0.57228231
-6.4831047 5.2132668 -0.46467775
-9.9616613 8.0104828 0
-9.9860191 8.0300694 0.7157498
-2.7318337 2.1913226 -0.96622324
-3.1474633 2.5247171 -0.89385885
-3.5209105 2.8242755 -0.75249559
-3.9990196 3.2077875 -0.57141715
-6.4873743 5.203805 -0.46453276
-9.9652414 7.9935532 0
-9.9896317 8.0131178 0.71531427
-2.7462289 2.1974216 -0.97037488
-3.1445577 2.5161483 -0.89216965
-3.530328 2.824826 -0.75377822
-3.9988573 3.1997242 -0.57084113
-6.4997458 5.2008343 -0.46496832
-9.9627037 7.9717536 0
-9.9891644 7.9929261 0.7145887
-2.7449644 2.1909747 -0.96899188
-3.1535554 2.5171037 -0.89385885
-3.5197003 2.8093529 -0.75078368
-4.0087795 3.1997259 -0.57170516
-9.9197111 7.9177113 -0.70893538
-9.9662256 7.9548378 0
-9.9845972 7.969502 0.71357256
-2.7534921 2.1923399 -0.97106642
-3.1625521 2.5180347 -0.8955459
-3.5291111 2.8098903 -0.75206637
-4.006578 3.1900513 -0.57084113
-9.9191017 7.8976221 -0.70820928
-9.9737959 7.9411702 0
-9.9942198 7.9574318 0.71357256
-2.7463183 2.1812112 -0.96760625
-3.1616168 2.511054 -0.89442122
-3.5304956 2.804029 -0.75163883
-4.0144768 3.188422 -0.57141715
-9.9327106 7.8888664 -0.70849979
-9.9630079 7.91293 0
-9.9977283 7.9405065 0.71313757
-2.7489519 2.1778913 -0.96760625
-3.1706252 2.5119672 -0.89611042
-3.5298607 2.7965758 -0.75078368
-4.0122423 3.1787488 -0.57055199
-9.9259415 7.8639503 -0.70733869
-9.9705162 7.8992653 0
-9.9950914 7.9187355 0.71226645
-2.7574883 2.1792362 -0.96968341
-3.1696672 2.5049803 -0.89498359
-3.5372615 2.7954891 -0.75163883
-4.0099983 3.1690919 -0.56968796
-9.9333992 7.8503413 -0.70719367
-9.9657669 7.8759212 0
-9.9944611 7.8985982 0.71154088
-2.7423897 2.1619258 -0.9634546
-3.1746852 2.5027201 -0.8955459
-3.5446725 2.7943945 -0.75249559
-4.0077291 3.1594388 -0.5688228
-9.9306307 7.8286777 -0.70632255
-9.9773178 7.8654833 0
-9.9978743 7.8816886 0.71110535
-2.7469702 2.1601598 -0.96414608
-3.1757116 2.4973133 -0.89498359
-3.5540943 2.7948654 -0.75377822
-4.0034113 3.1481988 -0.56766963
-9.9278307 7.8070383 -0.70545202
-9.9745359 7.8437667 0
-10.001268 7.8647885 0.71067035
-2.7476063 2.155292 -0.9634546
-3.1887209 2.5013137 -0.89779747
-3.5574687 2.7905688 -0.75377822
-4.0011053 3.1385684 -0.56680447
-9.9311218 7.7902241 -0.70501643
-9.97787 7.8268943 0
-10.002586 7.846283 0.7100898
-2.7508807 2.1551774 -0.96414608
-3.1862352 2.4962559 -0.89667279
-3.5672369 2.7947516 -0.75549012
-4.0070767 3.139344 -0.56738162
-9.9235573 7.774611 -0.70414591
-9.9662075 7.8080249 0
-9.9909611 7.8274183 0.70892864
-2.751508 2.1503086 -0.9634546
-3.1952493 2.4970932 -0.89835978
-3.5685906 2.7888601 -0.75506252
-4.008831 3.1329088 -0.56709361
-9.930891 7.7610097 -0.70400035
-9.9776831 7.7975779 0
-9.9942675 7.8105388 0.70849311
-2.7580576 2.1500642 -0.96483761
-3.20628 2.4994793 -0.90061134
-3.5719578 2.7845461 -0.75506252
-4.0064917 3.1232905 -0.56622845
-9.9320717 7.7426205 -0.70342034
-9.9645176 7.7679138 0
-9.993453 7.7904706 0.70776755
-2.7606535 2.1467302 -0.96483761
-3.2113094 2.4971676 -0.90117586
-3.5692384 2.7754991 -0.75377822
-4.0163903 3.1232119 -0.56709361
-9.9291086 7.7210402 -0.70254922
-9.9636269 7.7478819 0
-9.9946547 7.7720094 0.707187
-2.7652259 2.1449289 -0.96552908
-3.2323918 2.5073001 -0.90624124
-3.5766499 2.7743342 -0.75463498
-4.0160694 3.1151829 -0.56651646
-9.9322691 7.704258 -0.70211369
-9.9688721 7.7326498 0
-9.9937744 7.751966 0.70646143
-2.7698054 2.143126 -0.96622324
-3.235419 2.5033925 -0.90624124
-3.5840564 2.7731493 -0.75549012
-4.0157433 3.1071656 -0.56594044
-9.939518 7.6906624 -0.70196867
-9.9720316 7.7158194 0
-9.9949131 7.7335243 0.70588088
-2.7644489 2.1336462 -0.9634546
-3.2444701 2.5041344 -0.90792829
-3.5813138 2.7641158 -0.75420743
-4.0174413 3.1007261 -0.5656513
-9.928237 7.6627736 -0.70051754
-9.9710484 7.6958156 0
-9.9960222 7.7150912 0.70530033
-2.769011 2.1318333 -0.96414608
-3.2555468 2.5064123 -0.91017985
-3.578547 2.7550869 -0.75292313
-4.0293832 3.102181 -0.56680447
-9.9395456 7.6523552 -0.70066255
-9.9720907 7.6774116 0
-9.9950447 7.6950827 0.70457476
-2.7775559 2.1330717 -0.96622324
-3.2686548 2.5102193 -0.91299587
-3.5798392 2.7491989 -0.75249559
-4.0310788 3.095736 -0.56651646
-9.9343576 7.6292596 -0.69964641
-9.9689798 7.6558485 0
-10.002269 7.6814132 0.70442921
-2.7821209 2.131238 -0.96691477
-3.2757158 2.5093553 -0.91412055
-3.5892663 2.7495501 -0.75377822
-4.030714 3.0877204 -0.56594044
-9.9311962 7.6077724 -0.69877589
-9.9782238 7.6437974 0
-10.00123 7.6614223 0.70370364
-2.7767205 2.1217818 -0.96414608
-3.2928801 2.5161963 -0.91806132
-3.5823891 2.7374194 -0.75163883
-4.0385485 3.0859854 -0.56651646
-9.9321222 7.5894561 -0.69819534
-9.9729748 7.6206727 0
-10.000159 7.6414452 0.70297807
-2.7912498 2.1275473 -0.96829772
-3.3080389 2.5214543 -0.9214375
-3.5877337 2.7346435 -0.75206637
-4.0443292 3.08267 -0.56680447
-9.9330196 7.5711489 -0.69761479
-9.973897 7.6023064 0
-10.00732 7.6277828 0.70283312
-2.8078001 2.1348033 -0.97314352
-3.3131039 2.5189917 -0.92199987
-3.5910356 2.7303064 -0.75206637
-4.0439372 3.0746529 -0.56622845
-9.9359531 7.5544214 -0.6971792
-9.9768581 7.5855222 0
-10.004115 7.606246 0.70196199
-2.7903922 2.1162519 -0.96622324
-3.3141227 2.5134528 -0.9214375
-3.5984266 2.7290709 -0.75292313
-4.0455904 3.068203 -0.56594044
-9.9347239 7.5345607 -0.69645363
-9.9839449 7.5718904 0
-10.009162 7.5910153 0.70167196
-2.8049479 2.1219573 -0.97037488
-3.3252628 2.5155783 -0.92368907
-3.5914872 2.7169785 -0.75078368
-4.0554771 3.0679893 -0.56680447
-9.9396801 7.5194187 -0.69616365
-9.9764824 7.5472603 0
-10.010037 7.5726447 0.70109141
-2.825531 2.1321657 -0.97660369
-3.3445256 2.5238025 -0.92819214
-3.6050112 2.720367 -0.75292313
-4.0529933 3.0584173 -0.56594044
-9.9342375 7.4964457 -0.69514751
-9.9752102 7.5273638 0
-10.008812 7.5527196 0.70036584
-2.8060627 2.1121583 -0.96899188
-3.3353963 2.5105941 -0.92481589
-3.6123936 2.7190936 -0.75377822
-4.0587506 3.0550718 -0.56622845
-9.9391403 7.4813142 -0.69485754
-9.9822206 7.5137415 0
-10.007552 7.5328088 0.69964033
-2.810617 2.110271 -0.96968341
-3.3567126 2.5202911 -0.92988133
-3.6115746 2.711647 -0.75292313
-4.0748453 3.0594804 -0.56795764
-9.9460888 7.4677343 -0.69471198
-9.9808884 7.4938626 0
-10.006251 7.5129056 0.69891417
-2.815171 2.1083758 -0.97037488
-3.3495886 2.5086191 -0.92706746
-3.6086824 2.7026632 -0.75163883
-4.0764709 3.0530055 -0.56766963
-9.9447069 7.4479241 -0.69398642
-9.9795141 7.4739923 0
-10.013244 7.4992533 0.69876921
-2.8096769 2.0989668 -0.96760625
-3.3688943 2.5167296 -0.93156838
-3.6201718 2.7044463 -0.75335068
-4.0801568 3.0480776 -0.56766963
-9.9516201 7.4343491 -0.6938414
-9.9801979 7.4556985 0
-10.013971 7.4809284 0.6981886
-2.8089356 2.0957701 -0.96691477
-3.3785603 2.5207717 -0.93381989
-3.6156306 2.6976519 -0.75206637
-4.0819974 3.0456121 -0.56766963
-9.9540291 7.4267831 -0.69369644
-9.9867926 7.4512286 0
-8.9938841 6.7104111 0.62678391
-2.8154874 2.0953672 -0.96829772
-3.3754945 2.512141 -0.9321329
-3.6312475 2.7024798 -0.75463498
-4.0877476 3.0422204 -0.56795764
-8.9166183 6.6360059 -0.62084001
-8.9749203 6.6793957 0
-9.016571 6.7103939 0.62779945
-2.8240621 2.0964513 -0.97037488
-3.3764813 2.5065415 -0.93156838
-3.6262655 2.6919696 -0.75292313
-4.0955782 3.0403652 -0.56853479
-8.9475822 6.6422658 -0.6224367
-8.989255 6.6732016 0
-9.0184193 6.6948524 0.62736446
-2.8533361 2.1075068 -0.97868085
-3.3784451 2.4953582 -0.9304437
-3.6410198 2.6892991 -0.75463498
-4.1049919 3.0319941 -0.5688228
-8.9573355 6.6159911 -0.62200117
-8.9969816 6.6452737 0
-9.022027 6.6637731 0.62649333
-2.8296251 2.0847139 -0.96968341
-3.3753188 2.4867513 -0.92875451
-3.6422019 2.6833763 -0.75420743
-4.110733 3.0285645 -0.56911081
-8.9611359 6.6020775 -0.6217106
-9.0008097 6.6313076 0
-9.0154352 6.6420822 0.62547779
-2.8543737 2.0976312 -0.97729516
-3.3824201 2.4856834 -0.92988133
-3.6309597 2.6683309 -0.75121123
-4.1248083 3.0312521 -0.57055199
-8.9628305 6.5866332 -0.6212756
-8.998333 6.6127229 0
-9.0192623 6.6281037 0.62518722
-2.8326335 2.0763881 -0.96899188
-3.3792713 2.4770865 -0.92819214
-3.6383181 2.6669741 -0.75206637
-4.1222157 3.0216827 -0.56968796
-8.9602985 6.5681129 -0.62054944
-8.991621 6.5910735 0
-9.0188818 6.6110559 0.62460667
-2.8655121 2.0951707 -0.97937232
-3.384311 2.4744999 -0.92875451
-3.6415379 2.662576 -0.75206637
-4.125864 3.0166998 -0.56968796
-8.9619417 6.5526848 -0.62011445
-8.9932823 6.5756001 0
-9.0142813 6.5909543 0.62373614
-2.8639915 2.088753 -0.97798932
-3.3790867 2.4644198 -0.92650294
-3.6385362 2.6536405 -0.75078368
-4.1336813 3.0147574 -0.57026398
-8.9614544 6.5357265 -0.6195339
-8.9970121 6.5616589 0
-9.0159388 6.5754628 0.62330055
-2.8502834 2.0734842 -0.97245204
-3.3800092 2.4588418 -0.92594057
-3.6438138 2.6507506 -0.75121123
-4.1415086 3.0128067 -0.57084113
-8.9651384 6.5218334 -0.61924332
-8.9923105 6.5416002 0
-9.0175714 6.5599766 0.62286502
-2.8730881 2.0847697 -0.97937232
-3.3870947 2.4577434 -0.92706746
-3.6387033 2.6403153 -0.74949938
-4.1514201 3.0123529 -0.57170516
-8.9624987 6.5033674 -0.61851782
-8.9917822 6.5246162 0
-9.0128765 6.5399222 0.62199444
-2.8756049 2.0812967 -0.97937232
-3.3859415 2.4506664 -0.92594057
-3.6481316 2.6404335 -0.75078368
-4.148777 3.0027893 -0.57084113
-8.9640341 6.4879613 -0.61808223
-8.9954395 6.5106916 0
-9.0165663 6.5259833 0.62170446
-2.8781178 2.0778205 -0.97937232
-3.3909583 2.4480593 -0.92650294
-3.6617241 2.6435351 -0.75292313
-4.1565924 3.0007992 -0.57141715
-8.9676571 6.4740863 -0.61779225
-9.0032997 6.4998178 0
-9.0307598 6.5196424 0.62213945
-2.8928452 2.0831404 -0.98352665
-3.3877339 2.4395101 -0.92481589
-3.6711671 2.6436105 -0.75420743
-4.168611 3.0018203 -0.57257032
-8.9712515 6.460206 -0.61750168
-9.0005894 6.4813318 0
-9.0428524 6.5117655 0.62243003
-2.9157326 2.0942762 -0.99044693
-3.3906791 2.4354148 -0.92481589
-3.6618447 2.6301844 -0.75163883
-4.1680374 2.9937663 -0.5719943
-8.9853849 6.4539104 -0.61793727
-9.018981 6.4780412 0
-9.069706 6.5144753 0.62373614
-2.9060206 2.0819821 -0.9862926
-3.3915479 2.429832 -0.92425138
-3.6754522 2.6332316 -0.75377822
-4.1716518 2.9887278 -0.5719943
-9.0164137 6.4596968 -0.6195339
-9.0373859 6.4747219 0
-9.0902405 6.512589 0.62460667
-2.8983305 2.0711775 -0.98283249
-3.3903508 2.4227805 -0.9231267
-3.6869855 2.6347587 -0.75549012
-4.18578 2.9912026 -0.57343549
-9.0242119 6.4487972 -0.6195339
-9.0621338 6.4758964 0
-9.1171284 6.5151958 0.62591279
-2.9090025 2.0734985 -0.98560113
-3.3870666 2.4142563 -0.9214375
-3.7006245 2.6377561 -0.75763118
-4.1809664 2.9801376 -0.57228231
-9.053153 6.4529676 -0.62098503
-9.0890312 6.4785414 0
-9.141921 6.5162406 0.62707388
-2.9237778 2.078707 -0.98975545
-3.3713455 2.3969126 -0.91637212
-3.6954403 2.6273329 -0.75591928
-4.1908903 2.9795814 -0.57314748
-9.0715303 6.4495511 -0.6217106
-9.1180592 6.4826312 0
-9.1540279 6.508204 0.62736446
-2.9181018 2.0693679 -0.98698676
-3.3576581 2.3810787 -0.91186905
-3.719548 2.6377122 -0.76019818
-4.1902637 2.9715199 -0.57257032
-9.0941563 6.4491081 -0.62272668
-9.1386185 6.480639 0
-9.185194 6.5136681 0.62896061
-2.9377751 2.080653 -0.99321556
-3.3404362 2.365834 -0.90680361
-3.7232337 2.6369469 -0.76062572
-4.1878409 2.966001 -0.5719943
-9.1150141 6.4556274 -0.62388784
-9.1552792 6.4841447 0
-9.2060919 6.5201321 0.63012171
-2.9382401 2.0756557 -0.99252409
-3.3246169 2.348603 -0.90173817
-3.7243226 2.6309664 -0.76019818
-4.1977534 2.9654114 -0.57285833
-9.1419067 6.4581008 -0.62519395
-9.1801119 6.4850903 0
-9.2245731 6.5164986 0.63084728
-2.9407458 2.0721037 -0.99252409
-3.3025274 2.3270218 -0.89498359
-3.7526805 2.644208 -0.76533377
-4.2055659 2.9633195 -0.57343549
-9.1560783 6.4515414 -0.62562948
-9.2049608 6.4859853 0
-9.2579288 6.5233078 0.63258892
-2.9535081 2.0757604 -0.9959842
-3.2907829 2.3128009 -0.89104283
-3.7747729 2.6529548 -0.76918507
-4.2218366 2.9671564 -0.57516468
-9.1893778 6.4584026 -0.62737119
-9.2298174 6.486824 0
-9.2785645 6.5210843 0.63346004
-3.2914965 2.3073659 -0.89048046
-3.7968919 2.6616523 -0.77303636
-4.2233028 2.9605696 -0.57487667
-9.2099371 6.4562411 -0.62824172
-9.2461729 6.4816422 0
-9.3013248 6.5203047 0.63447559
-3.2859526 2.2975631 -0.88822895
-3.8085206 2.6629465 -0.77474821
-4.2395911 2.9643543 -0.57660586
-9.2390223 6.4599948 -0.62969285
-9.2774611 6.4868712 0
-9.3262329 6.5209727 0.63563675
-3.2845621 2.2906868 -0.88710427
-3.8096318 2.6568756 -0.77432066
-4.2495365 2.9636695 -0.57747102
-9.259613 6.4577479 -0.63056397
-9.3002367 6.4860787 0
-9.3426304 6.515645 0.6362173
-3.297755 2.2939699 -0.88991815
-3.8212688 2.6581342 -0.77603251
-4.2616076 2.9644406 -0.57862419
-9.2802038 6.4554548 -0.6314345
-9.3230162 6.4852352 0
-9.3760939 6.5221572 0.63795894
-3.3005245 2.2899835 -0.88991815
-3.8139262 2.646194 -0.77389145
-4.2736864 2.9651868 -0.57977736
-9.3029442 6.454607 -0.63245064
-9.3351259 6.4769354 0
-9.3989143 6.5211935 0.63897508
-3.3116465 2.2917774 -0.89216965
-3.8192377 2.6430488 -0.77432066
-4.2772665 2.9600208 -0.57977736
-9.3235521 6.4522305 -0.63332117
-9.3579197 6.4760137 0
-9.4217377 6.5201783 0.63999063
-3.3102269 2.2848847 -0.89104283
-3.8181992 2.6355126 -0.7734639
-4.2872276 2.9592597 -0.58064252
-9.3505859 6.4542437 -0.63462728
-9.3571787 6.4587941 0
-9.444581 6.5191236 0.64100677
-3.3171751 2.2837677 -0.89216965
-3.8213809 2.630897 -0.7734639
-4.2908001 2.9540772 -0.58064252
-9.3712234 6.4517846 -0.6354984
-3.4682341 2.3877671 0
-9.4481745 6.5047626 0.64071673
-3.3241174 2.2826319 -0.89329439
-3.8182147 2.6219225 -0.77218121
-4.2943664 2.9488904 -0.58064252
-9.3832922 6.4433956 -0.63578844
-3.4432287 2.3644242 0
-9.4581671 6.4948111 0.64086175
-3.3247788 2.2771792 -0.89273202
-3.8192558 2.6158524 -0.77175206
-4.3085942 2.9510057 -0.5820837
-9.3975048 6.4364591 -0.63622397
-3.4546719 2.3661444 0
-10.492842 7.1866679 0.71037978
-3.3275278 2.2731602 -0.89273202
-3.8160608 2.6068957 -0.77046937
-4.3356519 2.9618478 -0.58525521
-9.390254 6.4148378 -0.63520783
-3.4553733 2.3604963 0
-10.5101 7.1798472 0.71096033
-3.330272 2.2691379 -0.89273202
-3.8234468 2.605171 -0.77132446
-4.3605981 2.971168 -0.58813757
-10.443715 7.1160045 -0.70588756
-3.4453228 2.3475296 0
-10.529503 7.1744571 0.7116859
-3.3330114 2.2651122 -0.89273202
-3.8308423 2.6034377 -0.77218121
-4.4005499 2.9906106 -0.59303826
-10.4566 7.1062984 -0.70617759
-3.4395468 2.3375137 0
-10.563953 7.1792555 0.7134276
-3.3294342 2.2568049 -0.89104283
-3.8297312 2.5959237 -0.77132446
-4.4341297 3.0056057 -0.59707379
-10.478081 7.1024032 -0.70704812
-3.4380646 2.3304384 0
-10.583373 7.1737742 0.71415311
-3.3321586 2.2527804 -0.89104283
-3.8434963 2.5984817 -0.7734639
-4.4591899 3.0147347 -0.59995729
-10.508185 7.1042933 -0.70849979
-3.4451857 2.3291948 0
-10.609255 7.1726236 0.71531427
-3.3398385 2.2550337 -0.89273202
-3.8365555 2.5904131 -0.77175206
-4.4824424 3.026511 -0.60283965
-10.531856 7.1110287 -0.70980591
-3.4530649 2.3314834 0
-10.637277 7.1822085 0.7169109
-3.342561 2.2509966 -0.89273202
-3.8354282 2.5829105 -0.77089691
-4.5011153 3.0312073 -0.60485798
-10.553368 7.1070037 -0.71067649
-3.4580362 2.3287616 0
