# .PCD v0.7 - Point Cloud Data file format
VERSION 0.7
FIELDS x y z
SIZE 4 4 4
TYPE F F F
COUNT 1 1 1
WIDTH 1612
HEIGHT 1
VIEWPOINT 0 0 0 1 0 0 0
POINTS 1612
DATA ascii
-2.6577914 1.2920978 -0.81533861
-3.2860696 1.5975382 -0.80942941
-4.3341126 2.1070492 -0.80342078
-6.7854681 3.2987874 -0.84095645
-6.6756859 3.2454164 -0.41460755
-6.6750207 3.2450929 0
-6.8765402 3.3430626 0.42708203
-2.2252517 1.0784943 -0.81536931
-2.6593506 1.2888855 -0.81533861
-3.2834289 1.5913523 -0.80830473
-4.3320308 2.0995696 -0.80256402
-6.7824731 3.2872052 -0.84009242
-6.6702495 3.2328146 -0.41402701
-6.678937 3.237025 0
-6.8852558 3.3370199 0.4273726
-2.2510355 1.0876338 -0.82433468
-2.6631627 1.2867616 -0.81603014
-3.2761979 1.582962 -0.80605316
-4.3507466 2.1021523 -0.80556023
-6.7747889 3.2733779 -0.83865011
-6.7045641 3.2394474 -0.41591367
-6.6828432 3.2289524 0
-6.8986416 3.3332198 0.42795315
-2.2323093 1.0752609 -0.81700081
-2.6534166 1.2781003 -0.81256998
-3.2849691 1.5823071 -0.80774021
-4.341722 2.0913248 -0.80342078
-6.7880602 3.2696793 -0.83980328
-6.6780424 3.2166858 -0.41402701
-6.6914248 3.2231319 0
-6.8932996 3.3203712 0.4273726
-2.2469709 1.0789801 -0.82188904
-2.6730514 1.283581 -0.81810731
-3.2937524 1.5816374 -0.80942941
-4.3373013 2.0827425 -0.80213648
-6.7943444 3.2625978 -0.84009242
-6.6842647 3.209738 -0.41417202
-6.7164264 3.2251821 0
-6.8996468 3.3131633 0.42751759
-2.2237568 1.0645281 -0.81292677
-2.665549 1.2760172 -0.81533861
-3.2819145 1.5710758 -0.80605316
-4.3189778 2.0675254 -0.79828519
-6.78895 3.2499185 -0.83893925
-6.7068877 3.2106347 -0.41533312
-6.7085838 3.2114468 0
-6.9083371 3.30707 0.42780817
-2.2205758 1.0597093 -0.81129527
-2.6580322 1.2684735 -0.81256998
-3.2883923 1.5692956 -0.80717784
-4.3261023 2.0645144 -0.79914027
-6.792872 3.241713 -0.83893925
-6.7435894 3.2181942 -0.41736481
-6.7242007 3.2089417 0
-6.9287372 3.306551 0.42882371
-2.2664928 1.0782616 -0.82759458
-2.6595631 1.2652608 -0.81256998
-3.2925785 1.5664116 -0.80774021
-4.3355498 2.0625951 -0.80042464
-6.7944417 3.2323885 -0.83865011
-6.7193155 3.1966479 -0.41562313
-6.7445264 3.2086418 0
-6.9397688 3.3015265 0.42925927
-2.2298319 1.0575184 -0.81374091
-2.6656277 1.2641985 -0.81395566
-3.2990646 1.5646118 -0.80886704
-4.3426824 2.0595572 -0.80128139
-6.7889943 3.219743 -0.83749694
-6.7419553 3.1974344 -0.41678426
-6.7460494 3.1993759 0
-6.9578352 3.2998173 0.43012983
-2.2042947 1.0421463 -0.80396134
-2.6716852 1.2631192 -0.81533861
-3.2940593 1.5573653 -0.80717784
-4.3451676 2.0543084 -0.80128139
-6.7882075 3.2093287 -0.83692092
-6.7622604 3.1970611 -0.41780037
-6.7499104 3.1912224 0
-6.9571238 3.2891886 0.42983982
-2.2518587 1.0629697 -0.82107484
-2.6724477 1.2615049 -0.81533861
-3.2949996 1.5553749 -0.80717784
-4.3324752 2.0451057 -0.79871273
-6.7784524 3.1997075 -0.83547974
-6.7853365 3.2029569 -0.41910648
-6.7636023 3.1926973 0
-6.9591098 3.2849848 0.42983982
-2.2173595 1.0434102 -0.80803537
-2.6671579 1.2550693 -0.81326151
-3.2922828 1.5492307 -0.80605316
-4.3395929 2.0420575 -0.79956949
-6.7823138 3.1915147 -0.83547974
-6.7915506 3.1958611 -0.41925147
-6.7909985 3.1956012 0
-6.9771762 3.2832098 0.43071038
-2.2588921 1.0596219 -0.82270318
-2.702744 1.2678282 -0.82364458
-3.3033538 1.5495678 -0.80830473
-4.3420572 2.0368125 -0.79956949
-6.7814775 3.1811182 -0.83490258
-6.7859974 3.1832385 -0.41867092
-6.792501 3.1862893 0
-6.9881978 3.2780886 0.43114594
-2.2333124 1.0443324 -0.81292677
-2.6724622 1.2496859 -0.81395566
-3.3098228 1.5477258 -0.80942941
-4.3468385 2.0326507 -0.79999703
-6.7806349 3.1707327 -0.83432657
-6.815733 3.1871452 -0.42026758
-6.8010654 3.1802864 0
-7.0015688 3.274045 0.43172649
-2.2524941 1.0499871 -0.81944644
-2.6785135 1.2485737 -0.81533861
-3.3070889 1.5415804 -0.80830473
-4.3492913 2.0273969 -0.79999703
-6.7821193 3.1614456 -0.83403856
-6.8007379 3.1701245 -0.41910648
-6.8143296 3.1764603 0
-7.0290666 3.2765589 0.43317762
-2.2268639 1.0347662 -0.80966687
-2.6754744 1.2432239 -0.81395566
-3.3158555 1.5407925 -0.80999172
-4.3447514 2.018894 -0.79871273
-6.7835817 3.1521554 -0.83374941
-6.8210607 3.1695709 -0.42012259
-6.8181624 3.1682241 0
-7.0330205 3.2680631 0.43317762
-2.2236228 1.029995 -0.80803537
-2.6815231 1.2420971 -0.81533861
-3.3154113 1.5357178 -0.80942941
-4.351851 2.0158026 -0.79956949
-6.7826962 3.1417842 -0.83317339
-6.8437481 3.1700637 -0.42128369
-6.8337998 3.1654558 0
-7.0346088 3.2584717 0.4330326
-2.2562852 1.041815 -0.81944644
-2.6739113 1.2346493 -0.81256998
-3.3103418 1.5285141 -0.80774021
-4.3472896 2.0073133 -0.79828519
-6.7888336 3.1346695 -0.8334614
-6.8546438 3.1650569 -0.42171872
-6.8470707 3.1615601 0
-7.052691 3.2565031 0.43390316
-2.2575426 1.039088 -0.81944644
-2.6754012 1.2314175 -0.81256998
-3.314501 1.5255786 -0.80830473
-4.3543711 2.0042036 -0.79914027
-6.7855654 3.123219 -0.83259624
-6.8749886 3.1643782 -0.42273483
-6.848515 3.1521933 0
-7.0660625 3.2523246 0.43448374
-2.2318389 1.0239912 -0.80966687
-2.6791651 1.2292291 -0.81326151
-3.3094115 1.5183927 -0.80661553
-4.3474655 1.9946629 -0.7974301
-6.7822881 3.1117849 -0.83173221
-6.8858943 3.1593206 -0.42317039
-6.871242 3.1525981 0
-7.0841622 3.2502878 0.43535486
-2.2577927 1.0325985 -0.81862915
-2.6874952 1.2291223 -0.81533861
-3.3112438 1.5143929 -0.80661553
-4.3522048 1.9904749 -0.79785764
-6.7836843 3.1025088 -0.83144307
-6.8897071 3.1509981 -0.42317039
-6.8703175 3.1421304 0
-7.0951757 3.2449689 0.43579039
-2.2725368 1.0360231 -0.82352054
-2.6707163 1.2175486 -0.80980134
-3.3269386 1.5167128 -0.80999172
-4.352273 1.9841509 -0.7974301
-6.7850771 3.0932379 -0.83115506
-6.8958712 3.1437478 -0.42331538
-6.8764749 3.1349051 0
-7.0967202 3.2353125 0.43564484
-2.2715302 1.032251 -0.82270318
-2.7155838 1.2340422 -0.8229531
-3.3241467 1.5105913 -0.80886704
-4.3570023 1.9799516 -0.79785764
-6.7864571 3.0839682 -0.83086705
-6.906764 3.1386392 -0.42375094
-6.8897352 3.1309009 0
-7.1006241 3.2267351 0.43564484
-2.2300057 1.0101318 -0.80722123
-2.6919329 1.2193723 -0.81533861
-3.3190238 1.5034274 -0.80717784
-4.3757534 1.982097 -0.80085218
-6.7831082 3.0725632 -0.83000189
-6.9271131 3.1377935 -0.42476651
-6.9124784 3.1311643 0
-7.0997887 3.2160108 0.43535486
-2.2267151 1.0054004 -0.80558974
-2.7002661 1.2192168 -0.81741577
-3.3185246 1.4983712 -0.80661553
-4.352416 1.9651911 -0.79614574
-6.7915349 3.0664957 -0.83057904
-6.9356408 3.1315618 -0.42505705
-6.9304838 3.1292334 0
-7.1178741 3.2138433 0.43622541
-2.2730055 1.0229967 -0.82188904
-2.6765699 1.2046263 -0.80980134
-3.3226473 1.4954022 -0.80717784
-4.3571258 1.9609832 -0.79657334
-6.7928791 3.0572267 -0.83029103
-6.9465303 3.1263795 -0.42549261
-6.9295177 3.1187229 0
-7.1359739 3.2116411 0.43709651
-2.217865 0.99495912 -0.80151564
-2.6826057 1.203447 -0.81118703
-3.3105464 1.4851482 -0.80380166
-4.3665209 1.9588702 -0.79785764
-6.7989259 3.0500741 -0.83057904
-6.95504 3.1201088 -0.42578262
-6.9309087 3.1092834 0
-7.1445866 3.2051415 0.43738651
-2.275471 1.0175008 -0.82188904
-2.6932189 1.2043011 -0.81395566
-3.3192906 1.4842557 -0.80548865
-4.3454456 1.9431117 -0.79357713
-6.8073239 3.0439665 -0.83115506
-6.9801517 3.121248 -0.42708874
-6.9346609 3.1009064 0
-7.1579423 3.2007492 0.43796709
-2.2602935 1.0090758 -0.81618661
-2.6801965 1.1965356 -0.80980134
-3.3225136 1.4832888 -0.80605316
-4.358346 1.9457214 -0.79571819
-6.8068023 3.0387998 -0.83086705
-0 0 -0
-6.9555354 3.1051996 0
-7.1646247 3.1985447 0.43825763
-2.2727995 1.0113672 -0.82026064
-2.6999769 1.2014557 -0.81533861
-3.3196561 1.4772052 -0.80492634
-4.3513126 1.9362792 -0.79400635
-6.8175607 3.0337286 -0.83173221
-0 0 -0
-6.9640422 3.098911 0
-7.1779714 3.1941068 0.43883765
-2.2830572 1.0126287 -0.82352054
-2.7151821 1.2042936 -0.81949025
-3.3284087 1.4762845 -0.80661553
-4.3583374 1.9330997 -0.79486144
-6.8164878 3.0233893 -0.83115506
-0 0 -0
-6.9772978 3.0947149 0
-7.1865807 3.1875405 0.43912819
-2.2684531 1.0028726 -0.81781495
-2.7120507 1.1989851 -0.81810731
-3.3348336 1.4743145 -0.80774021
-4.3653703 1.9299101 -0.79571819
-6.8224993 3.0161955 -0.83144307
-7.0123014 3.100106 -0.42824984
-6.9834099 3.0873332 0
-7.1999335 3.1830573 0.43970874
-2.2447817 0.98916686 -0.80884957
-2.720387 1.1987431 -0.82018441
-3.3319666 1.4682367 -0.80661553
-4.3700461 1.9256681 -0.79614574
-6.8190451 3.0048237 -0.83057904
-7.0065308 3.0874395 -0.42766929
-6.9919028 3.0809937 0
-7.1990137 3.1722577 0.4394182
-2.2437146 0.98546082 -0.80803537
-2.7080472 1.1894001 -0.81603014
-3.3383868 1.4662513 -0.80774021
-4.3653164 1.9172884 -0.79486144
-6.8108325 2.9913826 -0.82913786
-7.0150189 3.0810633 -0.42795983
-6.9932308 3.0714936 0
-7.2290139 3.1750517 0.44101486
-2.2766063 0.99662739 -0.81944644
-2.7255719 1.1931705 -0.82087594
-3.3285201 1.4571226 -0.80492634
-4.3699789 1.9130409 -0.79528898
-6.8215432 2.9862595 -0.83000189
-7.0282583 3.0767529 -0.42854041
-7.0303183 3.0776548 0
-7.2328453 3.1663146 0.44101486
-2.295923 1.0017796 -0.82596308
-2.7224083 1.1878679 -0.81949025
-3.3302782 1.4530996 -0.80492634
-4.3511138 1.8985207 -0.79143769
-6.8251467 2.9780147 -0.83000189
-7.0343499 3.0692964 -0.4286854
-7.0197158 3.062911 0
-7.2366657 3.1575727 0.44101486
-2.247272 0.97732109 -0.80803537
-2.7261488 1.1855808 -0.82018441
-3.3273759 1.4470499 -0.80380166
-4.3651729 1.8983797 -0.79357713
-6.8097649 2.9615138 -0.82769555
-7.0499659 3.065975 -0.42941096
-7.0377355 3.0606563 0
-7.2642999 3.1591873 0.44246599
-2.2620621 0.98050463 -0.81292677
-2.713764 1.1762977 -0.81603014
-3.3221257 1.4399958 -0.80211246
-4.3698258 1.8941277 -0.79400635
-6.8038459 2.9491687 -0.82654238
-7.0536652 3.0574543 -0.42941096
-7.0461998 3.0542183 0
-7.2728848 3.1524763 0.44275653
-2.2700453 0.98070854 -0.81536931
-2.7313068 1.1799834 -0.82087594
-3.3285239 1.437994 -0.80323714
-4.3744655 1.8898634 -0.79443389
-6.8074045 2.9409454 -0.82654238
-7.0740542 3.0561438 -0.43042707
-7.0594411 3.0498307 0
-7.2766886 3.1436861 0.44275653
-2.2871215 0.98480821 -0.82107484
-2.7142968 1.1687449 -0.81533861
-3.3255959 1.4319632 -0.80211246
-4.3578835 1.8764544 -0.79101014
-6.8062062 2.9306738 -0.82596636
-7.0825105 3.0496473 -0.43071708
-7.0607333 3.0402703 0
-7.282866 3.1359181 0.44290155
-2.297395 0.9859429 -0.82433468
-2.7180102 1.1664528 -0.81603014
-3.3226583 1.4259417 -0.80098778
-4.360148 1.8711874 -0.79101014
-6.8121171 2.9234669 -0.82625437
-7.0981269 3.0462101 -0.43144262
-7.0835342 3.0399473 0
-7.2985868 3.1322386 0.44362709
-2.2940354 0.98122036 -0.82270318
-2.7309484 1.1680998 -0.81949025
-3.3197021 1.4199255 -0.79986089
-4.3742046 1.8709643 -0.79314959
-6.8132687 2.9142175 -0.82596636
-7.1018023 3.037631 -0.43144262
-7.1015544 3.0375249 0
-7.3190918 3.1305716 0.44464323
-2.292948 0.97747946 -0.82188904
-2.7069786 1.15398 -0.8118785
-3.3237505 1.4169086 -0.80042326
-4.3670163 1.8616508 -0.79143769
-6.8096447 2.9029388 -0.8251012
-7.1245904 3.0371997 -0.43260375
-7.0908599 3.0228202 0
-7.3276453 3.1237617 0.44493321
-2.2963998 0.97567374 -0.82270318
-2.7337635 1.1614968 -0.81949025
-3.3207874 1.4109062 -0.79929858
-4.3763528 1.8593853 -0.79272205
-6.8083911 2.8926878 -0.82452518
-7.1258659 3.0275736 -0.43245876
-7.1160622 3.0234084 0
-7.3362021 3.1169395 0.44522378
-2.2702744 0.96133697 -0.81292677
-2.7051346 1.1454766 -0.81049281
-3.3318489 1.4108558 -0.80155009
-4.3644085 1.8480881 -0.79015338
-6.8095016 2.8834515 -0.82423717
-7.1366992 3.0220017 -0.43289432
-7.1292963 3.018867 0
-7.3471437 3.1111133 0.44565934
-2.2850926 0.9643572 -0.81781495
-2.711144 1.1441598 -0.8118785
-3.3218486 1.40189 -0.79873621
-4.3619127 1.840819 -0.7892983
-6.8153615 2.8762262 -0.82452518
-7.1570969 3.0204456 -0.43390986
-7.1449251 3.0153089 0
-7.3556809 3.1042523 0.44594932
-2.3067586 0.97021872 -0.82514888
-2.7125244 1.1408831 -0.8118785
-3.3211911 1.3968873 -0.7981717
-4.3404756 1.8255965 -0.78501946
-6.8140593 2.8659816 -0.82394803
-7.1655359 3.0138121 -0.43420044
-7.1605558 3.0117173 0
-7.3618193 3.0963686 0.44609433
-2.2868366 0.96021402 -0.81781495
-2.7201548 1.1421589 -0.81395566
-3.3267245 1.3968499 -0.79929858
-4.3321099 1.8189986 -0.78330755
-6.8205633 2.863869 -0.82452518
-7.176939 3.0135064 -0.43478099
-7.1431775 2.9993305 0
-7.3708782 3.0949392 0.4465299
-2.2469592 0.94027787 -0.80314714
-2.7122757 1.1349974 -0.81118703
-3.3260682 1.3918492 -0.79873621
-4.3082533 1.8028611 -0.7785995
-6.824019 2.8556254 -0.82452518
-7.1925578 3.0098467 -0.43550655
-7.1587977 2.9957194 0
-7.3865952 3.0910451 0.44725543
-2.2823048 0.95182985 -0.81536931
-2.7043834 1.1278566 -0.80841833
-3.3300905 1.3888063 -0.79929858
-4.3033185 1.7946888 -0.7773152
-6.8179154 2.8433957 -0.82337201
-7.1913881 2.9991515 -0.43521598
-7.1816282 2.9950812 0
-7.4047189 3.0881207 0.44812655
-2.2925825 0.95286584 -0.81862915
-2.7080586 1.12555 -0.80910987
-3.329422 1.3838073 -0.79873621
-4.2699337 1.7747121 -0.77089691
-6.816565 2.833168 -0.82279485
-7.216609 2.9994383 -0.43652266
-7.1948547 2.9903967 0
-7.4132395 3.0811639 0.44841656
-2.2891695 0.94820511 -0.81700081
-2.7094166 1.122277 -0.80910987
-3.3263922 1.3778368 -0.79760939
-4.2839313 1.7744623 -0.77303636
-6.8128214 2.8219631 -0.82193083
-7.2298212 2.9946899 -0.43710265
-7.2080803 2.9856846 0
-7.4121604 3.0702174 0.44812655
-2.2857401 0.94355041 -0.81536931
-2.7223632 1.1237879 -0.81256998
-3.3304009 1.3747851 -0.7981717
-4.2647185 1.7604702 -0.76918507
-6.816226 2.813729 -0.82193083
-7.2310348 2.9849615 -0.43695766
-7.2092795 2.9759808 0
-7.411056 3.059274 0.44783601
-2.2914543 0.94267035 -0.81700081
-2.7074761 1.1138154 -0.80772418
-3.3226604 1.3668932 -0.79592019
-4.2573466 1.7514092 -0.76747316
-6.8100533 2.8015547 -0.82077765
-7.2490592 2.9821553 -0.43782878
-7.2321243 2.9751887 0
-7.4171481 3.0513046 0.447981
-2.272012 0.93146372 -0.80966687
-2.720433 1.1153042 -0.81118703
-3.3243096 1.3628774 -0.79592019
-4.249959 1.7423686 -0.76576132
-6.8014698 2.7884192 -0.81933647
-7.2550592 2.9743788 -0.43797377
-7.2333083 2.9654615 0
-7.4448767 3.0521989 0.44943267
-2.2616892 0.92404109 -0.80558974
-2.7031991 1.1044254 -0.8056497
-3.3400714 1.3646275 -0.79929858
-4.2496872 1.7362622 -0.76533377
-6.7976484 2.7772634 -0.81847131
-7.2754884 2.9724905 -0.43898988
-7.2561598 2.9645939 0
-7.4557686 3.0461464 0.44986767
-2.2788303 0.92783272 -0.81129527
-2.7231202 1.1087267 -0.81118703
-3.3299537 1.3558007 -0.79648465
-4.244647 1.7282209 -0.76404947
-6.7986064 2.7680733 -0.8181833
-7.2911053 2.9685957 -0.43971545
-7.2621446 2.9568045 0
-7.4690704 3.0410547 0.45044824
-2.2845347 0.92693883 -0.81292677
-2.7221265 1.1044896 -0.81049281
-3.3245237 1.3489094 -0.79479545
-4.2372169 1.7192303 -0.76233757
-6.7947536 2.7569382 -0.81731814
-7.2994981 2.961736 -0.44000545
-7.2825861 2.9548738 0
-7.4823704 3.0359354 0.45102879
-2.2948186 0.92788374 -0.81618661
-2.7257917 1.1021428 -0.81118703
-3.3449962 1.352511 -0.79929858
-4.2440557 1.7160356 -0.76319432
-6.8052759 2.7516358 -0.8181833
-7.3103008 2.9558368 -0.44044101
-7.2933917 2.9489999 0
-7.4908562 3.0288422 0.45131934
-2.2821786 0.91956609 -0.81129527
-2.7247877 1.097908 -0.81049281
-3.3395553 1.3456185 -0.79760939
-4.2389808 1.708027 -0.76191002
-6.7941966 2.7376089 -0.81645298
-7.3283229 2.9528265 -0.44131157
-7.2872939 2.9362943 0
-34.036167 13.71431 2.0496578
-2.2741137 0.91312402 -0.80803537
-2.714474 1.0899417 -0.8070327
-3.3293915 1.3368493 -0.79479545
-4.2338924 1.7000333 -0.76062572
-6.8071003 2.7332525 -0.81760615
-7.3198314 2.9391294 -0.440586
-7.2980843 2.930397 0
-34.043068 13.669301 2.049077
-2.2660363 0.90670282 -0.80477554
-2.7390859 1.0959828 -0.81395566
-3.3357179 1.3347116 -0.79592019
-4.2430959 1.6977781 -0.76191002
-6.8031917 2.722142 -0.81674099
-7.3523273 2.9418662 -0.44232768
-7.3257775 2.9312429 0
-34.045078 13.622363 2.0482061
-2.3015699 0.91769612 -0.81700081
-2.7031224 1.0778055 -0.80288106
-3.3396952 1.3316238 -0.79648465
-4.2332239 1.687897 -0.75977057
-6.8184953 2.7187123 -0.8181833
-7.3606992 2.9349031 -0.44261768
-7.3389835 2.9262445 0
-34.056694 13.579293 2.0479159
-2.2807963 0.90303111 -0.80884957
-2.7290406 1.0805036 -0.80980134
-3.3334537 1.3198076 -0.79423314
-4.2301278 1.6748261 -0.75848627
-6.8274484 2.7031779 -0.81847131
-7.3870983 2.9247591 -0.44377878
-7.3508778 2.9104185 0
-34.065243 13.487385 2.0464644
-2.2652578 0.89529628 -0.80314714
-2.7366946 1.0816219 -0.8118785
-3.3531547 1.325265 -0.79873621
-4.2263689 1.6703849 -0.75763118
-6.8290801 2.6990526 -0.81847131
-7.3961158 2.9231617 -0.44421434
-7.3550529 2.9069326 0
-34.054062 13.459165 2.0453038
-2.2755368 0.89618129 -0.80640703
-2.7403316 1.0792328 -0.81256998
-3.3334694 1.31283 -0.79366863
-4.2259889 1.6643335 -0.75720197
-6.8130836 2.6832168 -0.81616497
-7.4117289 2.9189827 -0.44493991
-7.3827701 2.907578 0
-34.07513 13.419909 2.0455937
-2.2789166 0.89433312 -0.80722123
-2.729959 1.0713392 -0.80910987
-3.3516126 1.3152996 -0.79760939
-4.2112761 1.6526642 -0.75420743
-6.8139157 2.6740386 -0.81587696
-7.4225092 2.9128737 -0.44537547
-7.393548 2.9015083 0
-34.071972 13.371132 2.0444326
-2.3168254 0.905981 -0.82026064
-2.73592 1.0698655 -0.81049281
-3.3437338 1.3075475 -0.79535782
-4.2252216 1.6522481 -0.75634688
-6.8026838 2.6601496 -0.81414664
-7.4381208 2.9086337 -0.44610101
-7.4018917 2.8944664 0
-34.068745 13.322383 2.0432715
-2.2879822 0.89151621 -0.80966687
-2.7185099 1.0592722 -0.80495554
-3.3500507 1.305353 -0.79648465
-4.2200365 1.6443446 -0.75506252
-6.8034854 2.6509898 -0.81385863
-7.4609995 2.9071913 -0.44726214
-7.4078155 2.8864682 0
-34.079979 13.279323 2.0429816
-2.3005757 0.89322293 -0.81374091
-2.7221334 1.0568972 -0.8056497
-3.3492501 1.3003819 -0.79592019
-4.2172389 1.6373879 -0.75420743
-6.7946305 2.6380875 -0.81241745
-7.4572372 2.8953516 -0.44682658
-7.4355536 2.8869328 0
-34.086311 13.234372 2.0424011
-2.3108737 0.89400965 -0.81700081
-2.7491393 1.0635618 -0.81326151
-3.3437166 1.2935864 -0.79423314
-4.2120299 1.6295114 -0.75292313
-6.795403 2.6289432 -0.81212944
-7.4752755 2.8919661 -0.4476977
-7.4608788 2.8863964 0
-34.08773 13.187549 2.0415299
-2.2589076 0.87076896 -0.7982558
-2.7668107 1.0665566 -0.81810731
-3.3571291 1.2941139 -0.79704702
-4.2235765 1.6281141 -0.75463498
-6.7961545 2.6197975 -0.8118403
-7.4836092 2.884799 -0.44798771
-7.4643612 2.8773792 0
-34.098797 13.144484 2.04124
-2.255348 0.86626816 -0.79662746
-2.7470219 1.0551177 -0.8118785
-3.3444541 1.2845885 -0.79366863
-4.2039757 1.6147265 -0.75078368
-6.7944903 2.6097305 -0.81126428
-7.4895124 2.8766851 -0.44813269
-7.4605513 2.8655612 0
-34.100094 13.09768 2.0403688
-2.3233325 0.88916075 -0.82026064
-2.7529764 1.0535893 -0.81326151
-3.3626175 1.2869046 -0.79760939
-4.1819444 1.6004685 -0.74650317
-6.8024654 2.6033661 -0.8118403
-7.509973 2.8741357 -0.4491488
-7.4688644 2.8584032 0
-34.108624 13.053683 2.0399337
-2.3244052 0.88635278 -0.82026064
-2.7730005 1.0574132 -0.81879878
-3.3736665 1.2864618 -0.79986089
-4.2006674 1.6018176 -0.74949938
-6.8152733 2.5988309 -0.81299347
-7.5158658 2.8659842 -0.44929382
-7.4844694 2.8540118 0
-34.107372 13.005979 2.0389178
-2.297749 0.8730095 -0.81048107
-2.7508287 1.0451531 -0.8118785
-3.3419697 1.2697519 -0.79198158
-4.1906037 1.5921829 -0.74735993
-6.825664 2.5933509 -0.81385863
-7.5387554 2.8642838 -0.45045492
-7.4903426 2.8458896 0
-34.11092 12.960143 2.038192
-2.314985 0.87635863 -0.81618661
-2.7661626 1.047156 -0.81603014
-3.3339963 1.2621145 -0.78973007
-4.1949229 1.5880262 -0.74778754
-6.8167005 2.580524 -0.81241745
-7.5373554 2.8533344 -0.45016491
-7.5108161 2.8432877 0
-34.131413 12.920755 2.0384822
-2.292912 0.86483657 -0.80803537
-2.772125 1.0455853 -0.81741577
-3.3545382 1.2652588 -0.79423314
-4.2040467 1.585675 -0.74907184
-6.8294935 2.5759366 -0.81357062
-7.5578094 2.8506413 -0.45118049
-7.5215535 2.8369663 0
-34.125118 12.871253 2.0371759
-2.2800782 0.85685033 -0.80314714
-2.7616467 1.0378232 -0.81395566
-3.360817 1.2629906 -0.79535782
-4.1987481 1.5778841 -0.74778754
-6.8301826 2.5667734 -0.81328261
-7.5709777 2.8451633 -0.45176104
-7.5249758 2.8278761 0
-34.123627 12.823614 2.0361605
-2.3389764 0.87576038 -0.82352054
-2.7605424 1.0336033 -0.81326151
-3.3623405 1.2589288 -0.79535782
-4.1886339 1.5683098 -0.74564809
-6.8356986 2.5594249 -0.81357062
-7.5890155 2.8414819 -0.45263216
-7.5478854 2.826082 0
-34.131794 12.779638 2.0357249
-2.3029814 0.85911173 -0.81048107
-2.7711914 1.0337744 -0.81603014
-3.3591025 1.2530906 -0.79423314
-4.1857109 1.5614513 -0.74479133
-6.8339348 2.5493536 -0.81299347
-7.6021819 2.8359427 -0.45321271
-7.5708017 2.8242366 0
-34.13504 12.733848 2.0349994
-2.3132849 0.85977268 -0.81374091
-2.7559841 1.0243096 -0.81118703
-3.3439398 1.2428336 -0.79029238
-4.1996326 1.5608667 -0.74693239
-6.8394418 2.5419979 -0.81328261
-7.6104693 2.8285637 -0.45350271
-7.579083 2.8168983 0
-34.135784 12.68716 2.0341282
-2.2865083 0.84667766 -0.80396134
-2.7430995 1.0157501 -0.8070327
-3.3597312 1.2440845 -0.79366863
-4.2063255 1.5575722 -0.74778754
-6.8352294 2.5310366 -0.81241745
-7.6309414 2.8256829 -0.45451882
-7.5824809 2.8077385 0
-34.138908 12.641393 2.0334027
-2.2823873 0.84358406 -0.802333
-2.7648888 1.0219195 -0.81326151
-3.3604822 1.2420545 -0.79366863
-4.1952286 1.5505818 -0.74564809
-6.8513093 2.532285 -0.81414664
-7.6399612 2.8237755 -0.45495439
-7.5866146 2.8040583 0
-34.139225 12.618062 2.0329671
-2.2903564 0.84338534 -0.80477554
-2.7731867 1.0211796 -0.81533861
-3.3524523 1.2344844 -0.79141927
-4.1898704 1.5428495 -0.74436378
-6.8470893 2.5213261 -0.81328261
-7.6506758 2.8172333 -0.45538938
-7.6095347 2.8020837 0
-34.144691 12.573211 2.0323865
-2.3099368 0.84742737 -0.81129527
-2.7626443 1.0135084 -0.8118785
-3.3587077 1.2321813 -0.79254395
-4.2061958 1.5430923 -0.74693239
-6.835557 2.507704 -0.81155229
-7.6443167 2.8044071 -0.45480883
-7.6080332 2.791096 0
-34.150112 12.528368 2.0318065
-2.297035 0.8395465 -0.80640703
-2.761513 1.0093092 -0.81118703
-3.3601942 1.228122 -0.79254395
-4.2008219 1.5353643 -0.74564809
-6.8240108 2.4941173 -0.8098231
-7.6721096 2.80409 -0.4562605
-7.6187263 2.7845788 0
-34.153015 12.482633 2.0310805
-2.3096578 0.84099782 -0.81048107
-2.7792251 1.0119778 -0.81603014
-3.3640609 1.2249296 -0.79310626
-4.200264 1.5294098 -0.74522054
-6.8075762 2.4787903 -0.80751675
-7.6876979 2.799262 -0.45698607
-7.6416488 2.7824945 0
-34.155865 12.436912 2.0303547
-2.3060207 0.83651912 -0.80884957
-2.7733774 1.0060549 -0.81395566
-3.3655386 1.2208638 -0.79310626
-4.1924562 1.5208319 -0.74350864
-6.7911148 2.4635067 -0.80521041
-7.7008457 2.7935154 -0.45756662
-7.6474586 2.7741492 0
-34.161098 12.392088 2.0297742
-2.2837896 0.82533342 -0.8007015
-2.7675107 1.0001442 -0.8118785
-3.3598492 1.2142081 -0.79141927
-4.2015266 1.5183799 -0.74479133
-6.7721963 2.4473882 -0.80261606
-7.7017741 2.7833261 -0.45742163
-7.6679311 2.7710958 0
-34.171165 12.349037 2.0294843
-2.291764 0.82508576 -0.80314714
-2.7710752 0.99764848 -0.81256998
-3.3660908 1.2118672 -0.79254395
-4.2106066 1.5159117 -0.74607563
-6.7629833 2.4348238 -0.80117488
-7.7075739 2.7748973 -0.45756662
-7.6810684 2.7653549 0
-34.17384 12.303339 2.0287588
-2.3416135 0.83983797 -0.82026064
-2.7486684 0.98583144 -0.8056497
-3.3579857 1.2043679 -0.79029238
-4.1882763 1.502158 -0.74179679
-6.7853971 2.4336357 -0.80348122
-7.7500553 2.779618 -0.45988885
-7.6942029 2.7595861 0
-34.176445 12.257648 2.0280325
-2.3356416 0.83451235 -0.81781495
-2.7663882 0.98841584 -0.81049281
-3.3594384 1.2003095 -0.79029238
-4.2094274 1.504006 -0.74522054
-6.8053756 2.4315245 -0.80549842
-7.7558532 2.7711251 -0.46003386
-7.7097831 2.7546644 0
-34.181442 12.212847 2.027452
-2.3017185 0.8192569 -0.80558974
-2.7794049 0.98928112 -0.81395566
-3.3656785 1.197955 -0.79141927
-4.1870527 1.490309 -0.74094003
-6.835115 2.4328411 -0.80866992
-7.7689877 2.7652369 -0.46061441
-7.7302713 2.7514563 0
-34.183937 12.167181 2.0267265
-2.3073702 0.81812871 -0.80722123
-2.7664065 0.9808901 -0.80980134
-3.3719084 1.1955841 -0.79254395
-4.1767554 1.4809601 -0.73880059
-6.8282986 2.4211228 -0.80751675
-7.7992558 2.7653971 -0.46221054
-7.7164178 2.7360249 0
-34.198612 12.125867 2.0267265
-2.3246729 0.82110304 -0.81292677
-2.7604909 0.97503924 -0.80772418
-3.3565776 1.1855844 -0.78860319
-4.1737051 1.4742039 -0.7379455
-6.8312192 2.4128704 -0.80751675
-7.8074965 2.7577038 -0.46250108
-7.7418008 2.7344992 0
-34.186295 12.075019 2.0251303
-2.3070114 0.81173074 -0.80640703
-2.7971675 0.98419404 -0.81810731
-3.3699989 1.1857469 -0.79141927
-4.1657972 1.4657516 -0.73623365
-6.8316922 2.4037569 -0.80722874
-7.8230762 2.7525792 -0.46322665
-7.7500138 2.726872 0
-34.191055 12.030253 2.0245497
-2.2963302 0.8048557 -0.802333
-2.769944 0.97085565 -0.80980134
-3.3642333 1.1791519 -0.78973007
-4.1675653 1.460717 -0.73623365
-6.8443551 2.3989224 -0.80838192
-7.8288465 2.7439833 -0.46337163
-7.7827754 2.7278354 0
-34.195759 11.985494 2.0239692
-2.3019636 0.80370831 -0.80396134
-2.7663825 0.96585566 -0.80841833
-3.368052 1.1759228 -0.79029238
-4.1547809 1.4506016 -0.73366499
-6.8277135 2.3838301 -0.80607557
-7.841969 2.7379477 -0.46395221
-7.7909751 2.7201436 0
-34.197952 11.939884 2.0232437
-2.3216088 0.80742139 -0.81048107
-2.7912385 0.9707517 -0.81533861
-3.3718681 1.1726861 -0.79085475
-4.1468325 1.4422073 -0.73195314
-6.8281388 2.3747263 -0.80578643
-7.8673577 2.7361515 -0.46525833
-7.7942562 2.7107277 0
-34.212353 11.898554 2.0232437
-2.289891 0.7932902 -0.7990731
-2.7734451 0.96080852 -0.80980134
-3.3636789 1.165284 -0.78860319
-4.1801028 1.4481189 -0.73751628
-6.8505549 2.3732474 -0.80809277
-7.8755736 2.7283461 -0.46554887
-7.7975259 2.7013078 0
-34.204601 11.849548 2.0219371
-2.3137245 0.79998159 -0.80722123
-2.7811406 0.96159291 -0.8118785
-3.3643823 1.1632516 -0.78860319
-4.164001 1.4397237 -0.73452175
-6.8568811 2.3708003 -0.80866992
-7.8870435 2.7269838 -0.46612942
-7.8040805 2.6982989 0
-34.209301 11.828032 2.0217919
-2.3310502 0.80281991 -0.81292677
-2.8012767 0.96476722 -0.81741577
-3.370595 1.1608419 -0.78973007
-4.1681623 1.4355264 -0.73494929
-6.862184 2.3633547 -0.80895793
-7.8878784 2.7166066 -0.46598443
-7.8417797 2.7007301 0
-34.216206 11.784153 2.0213571
-2.3156512 0.79438788 -0.80722123
-2.7881975 0.95649576 -0.81326151
-3.3623815 1.1534705 -0.78747851
-4.1893191 1.4371527 -0.73837304
-6.8430181 2.3475087 -0.80636358
-7.8690271 2.6994827 -0.46467775
-7.8327312 2.6870313 0
-34.210754 11.736055 2.020196
-2.3212824 0.79318613 -0.80884957
-2.7964756 0.95556045 -0.81533861
-3.3637729 1.1494068 -0.78747851
-4.1570487 1.4204706 -0.73238236
-6.8385048 2.3367286 -0.80549842
-7.8821187 2.6933334 -0.46525833
-7.8408928 2.6792464 0
-34.202774 11.687146 2.0188892
-2.3315983 0.79356617 -0.81210941
-2.7810011 0.94652164 -0.81049281
-3.3603437 1.1437026 -0.78635168
-4.1344557 1.4071739 -0.72810185
-6.8315291 2.3251305 -0.80434525
-7.8804526 2.6821346 -0.46496832
-7.8490567 2.6714489 0
-34.155384 11.624884 2.0152614
-2.3278785 0.78916276 -0.81048107
-2.7797689 0.94235599 -0.80980134
-3.3593192 1.1388265 -0.78578931
-4.1774807 1.4161874 -0.73537689
-6.826992 2.3143854 -0.80348122
-7.9378223 2.6909626 -0.46816111
-7.8892426 2.6744938 0
-34.05621 11.545231 2.0085852
-2.3054178 0.77844393 -0.802333
-2.7904134 0.94220686 -0.81256998
-3.3558826 1.1331424 -0.78466463
-0 0 -0
-6.8322315 2.3069613 -0.80376923
-7.9558439 2.6863585 -0.46903223
-7.8875418 2.6632957 0
-33.971661 11.47082 2.0027797
-2.3180678 0.77959633 -0.80640703
-2.7867985 0.93723661 -0.81118703
-3.3644674 1.1315142 -0.78635168
-0 0 -0
-6.8325648 2.2978804 -0.80348122
-7.9492326 2.6734302 -0.46845168
-7.9080138 2.6595681 0
-33.94363 11.415684 2.0003126
-2.3096335 0.77365464 -0.80314714
-2.7926822 0.93546075 -0.81256998
-3.3586111 1.1250292 -0.78466463
-0 0 -0
-6.8328767 2.288799 -0.80319208
-7.9450631 2.6613464 -0.46801612
-7.921093 2.6533172 0
-33.92783 11.364758 1.9985708
-2.3222873 0.77477366 -0.80722123
-2.7866688 0.929703 -0.81049281
-3.3599682 1.1209701 -0.78466463
-0 0 -0
-6.8282838 2.2780879 -0.80232805
-7.9803143 2.6624343 -0.46990278
-7.9218268 2.6429212 0
-33.909496 11.313065 1.9966842
-2.3396425 0.77742338 -0.81292677
-2.7854116 0.92554486 -0.80980134
-3.3757832 1.1217153 -0.78804088
-0 0 -0
-6.8162999 2.2649405 -0.80059773
-7.9761252 2.6503308 -0.46946722
-7.9595857 2.644835 0
-33.903416 11.265528 1.9955231
-2.3335385 0.77226543 -0.81048107
-2.7912958 0.92375648 -0.81118703
-3.3723161 1.1160403 -0.7869162
-0 0 -0
-6.792028 2.247766 -0.79742736
-7.9867249 2.6431413 -0.46990278
-7.9776049 2.6401229 0
-33.889874 11.215576 1.9939269
-2.3555942 0.77640784 -0.81781495
-2.7757289 0.91488498 -0.80634123
-3.3736622 1.1119648 -0.7869162
-0 0 -0
-6.8143816 2.2460318 -0.79973257
-8.0170612 2.6424372 -0.47149944
-7.9783196 2.6296678 0
-33.891064 11.170552 1.9932014
-2.3424451 0.76893729 -0.81292677
-2.7959013 0.91779006 -0.8118785
-3.35569 1.1015477 -0.78241307
-0 0 -0
-6.7949758 2.2305367 -0.79713821
-8.0350571 2.6376092 -0.47237
-7.9814911 2.6200256 0
-33.926754 11.136887 1.9945076
-2.3339756 0.76303422 -0.80966687
-2.7755494 0.90739566 -0.8056497
-3.3811653 1.1053864 -0.78804088
-0 0 -0
-6.1314645 2.0045271 -0.71901512
-8.070343 2.6383944 -0.47425669
-8.0192776 2.6216998 0
-33.94759 11.098305 1.9949425
-2.3254952 0.7571528 -0.80640703
-2.80527 0.91336161 -0.81395566
-3.3607562 1.094221 -0.78297544
-0 0 -0
-6.274066 2.0427589 -0.73544753
-8.0735254 2.6286411 -0.47425669
-8.0249119 2.6128132 0
-33.973335 11.061302 1.9956686
-2.3640258 0.76653987 -0.81944644
-2.7968259 0.90687603 -0.81118703
-3.3620758 1.0901594 -0.78297544
-0 0 -0
-6.2814455 2.0367706 -0.73602355
-8.0865831 2.6220899 -0.47483724
-8.0354919 2.6055236 0
-33.991615 11.021845 1.9959586
-2.359781 0.76358819 -0.81781495
-2.7830472 0.90055048 -0.8070327
-3.3530638 1.084999 -0.78072387
-0 0 -0
-6.2925181 2.0361605 -0.73717672
-8.0782766 2.6140039 -0.47425669
-8.0544004 2.6062777 0
-34.04771 11.017306 1.9988614
-2.3536422 0.7584613 -0.81536931
-2.7841332 0.89718705 -0.8070327
-3.3350251 1.0747119 -0.7762208
-0 0 -0
-6.2629728 2.0182433 -0.73342919
-8.08638 2.6058364 -0.47454724
-8.0600176 2.5973413 0
-34.159916 11.008035 2.0046663
-2.371033 0.76090425 -0.82107484
-2.801939 0.89918923 -0.8118785
-3.3653536 1.0799985 -0.78297544
-0 0 -0
-6.2383142 2.0019796 -0.73025769
-8.0895233 2.5960636 -0.47454724
-8.0829744 2.5939622 0
-34.247414 10.99057 2.0090203
-2.3672466 0.75653541 -0.81944644
-2.8030233 0.89580297 -0.8118785
-3.364238 1.0751585 -0.78241307
-0 0 -0
-6.2358055 1.9928672 -0.72968167
-8.109973 2.5918219 -0.47556281
-8.1059351 2.5905316 0
-34.302742 10.962627 2.0114875
-2.3799326 0.75742155 -0.82352054
-2.7801929 0.88480574 -0.80495554
-3.3994274 1.0818791 -0.79029238
-0 0 -0
-6.2332845 1.9837637 -0.72910565
-8.1304331 2.5875378 -0.47657892
-8.1264114 2.5862577 0
-34.350636 10.932205 2.0135198
-2.3831999 0.75529134 -0.82433468
-2.8075693 0.8897838 -0.81256998
-3.4007323 1.0777708 -0.79029238
-0 0 -0
-6.2356768 1.9762306 -0.72910565
-8.1558447 2.5847762 -0.47788504
-8.1568232 2.5850863 0
-34.410877 10.905604 2.0162771
-2.3629 0.74571711 -0.81700081
-2.8134317 0.88790226 -0.81395566
-3.3826473 1.0675433 -0.78578931
-0 0 -0
-6.2429886 1.9702499 -0.72968167
-8.1564865 2.5741384 -0.47774002
-8.1624203 2.5760109 0
-34.458725 10.874968 2.0183094
-2.3590791 0.74137801 -0.81536931
-2.8192847 0.88600498 -0.81533861
-3.3887873 1.0649803 -0.7869162
-0 0 -0
-6.2379599 1.9603779 -0.72881651
-8.1695061 2.5673971 -0.4783206
-8.1729774 2.5684879 0
-34.531322 10.852016 2.0217919
-2.3490674 0.73199904 -0.81129527
-2.8094442 0.87545818 -0.8118785
-3.3937745 1.0575429 -0.78747851
-0 0 -0
-6.2525568 1.9483755 -0.72996968
-8.2178583 2.5607882 -0.48078781
-8.2139406 2.5595675 0
-34.612022 10.785542 2.0249848
-2.3428664 0.72696203 -0.80884957
-2.8081062 0.87132013 -0.81118703
-3.3901918 1.051934 -0.78635168
-0 0 -0
-6.242557 1.9369873 -0.7285285
-8.2358322 2.5554755 -0.48165837
-8.2269697 2.5527258 0
-34.664734 10.756033 2.027307
-2.3555572 0.72778076 -0.81292677
-2.8259287 0.87310833 -0.81603014
-3.3987458 1.0500878 -0.78804088
-0 0 -0
-6.2399554 1.9279174 -0.72795248
-8.2513247 2.5493567 -0.48238394
-8.2275648 2.5420156 0
-34.705017 10.722578 2.0289037
-2.3540657 0.72420514 -0.81210941
-2.8149946 0.86600542 -0.81256998
-3.3975859 1.0452338 -0.78747851
-0 0 -0
-6.2571087 1.924938 -0.72968167
-8.2543993 2.5393846 -0.48238394
-8.2505293 2.5381944 0
-34.8148 10.710431 2.0345638
-2.3762147 0.72787738 -0.81944644
-2.8232377 0.8648085 -0.81464714
-3.396419 1.0403843 -0.7869162
-0 0 -0
-6.2371745 1.9105588 -0.72708732
-8.2599525 2.5301723 -0.48252949
-8.2461233 2.5259359 0
-35.110935 10.755112 2.0511088
-2.3368962 0.71274585 -0.80558974
-2.8290751 0.86285889 -0.81603014
-3.3976738 1.0362797 -0.7869162
-0 0 -0
-6.2518463 1.9067931 -0.7285285
-8.2431211 2.5141256 -0.48136839
-8.2840147 2.526598 0
-35.223312 10.742998 2.0569139
-2.335393 0.70920414 -0.80477554
-2.7965131 0.84923553 -0.80634123
-3.4013524 1.0329111 -0.78747851
-0 0 -0
-6.283844 1.9082563 -0.73198801
-8.2734947 2.5124667 -0.48296449
-8.2771006 2.5135615 0
-35.243729 10.702696 2.0573494
-2.3362482 0.7063818 -0.80477554
-2.8239548 0.85384345 -0.81395566
-3.3952992 1.0265936 -0.78578931
-0 0 -0
-6.2737689 1.89692 -0.73054683
-8.3014021 2.5099897 -0.48441616
-8.3224783 2.5163624 0
-35.376022 10.6962 2.064316
-2.3323712 0.70213479 -0.80314714
-2.8297844 0.8518756 -0.81533861
-3.401408 1.0239565 -0.7869162
-0 0 -0
-6.2686238 1.8871006 -0.72968167
-8.3044291 2.4999573 -0.48441616
-8.313055 2.5025542 0
-35.366524 10.646704 2.0630095
-2.3540967 0.70712423 -0.81048107
-2.8471198 0.85521859 -0.82018441
-3.4093194 1.0240922 -0.78860319
-0 0 -0
-6.2722373 1.8840563 -0.72996968
-8.3109102 2.4964335 -0.48470616
-8.3419847 2.5057676 0
-35.397839 10.632812 2.064461
-2.3549495 0.70427924 -0.81048107
-2.8265212 0.84530908 -0.81395566
-3.4008167 1.0170599 -0.78635168
-0 0 -0
-6.2794704 1.8779598 -0.73054683
-8.3064499 2.4841552 -0.4842706
-8.3400154 2.4941933 0
-35.400703 10.587055 2.0638804
-2.34869 0.69931662 -0.80803537
-2.8323448 0.84332359 -0.81533861
-3.4069183 1.0144014 -0.78747851
-0 0 -0
-6.2792487 1.8696307 -0.73025769
-8.3069572 2.4733758 -0.48412561
-8.3704624 2.4922843 0
-35.40102 10.540565 2.0631549
-2.3637559 0.7006942 -0.81292677
-2.845386 0.84346503 -0.81879878
-3.4032648 1.0088384 -0.78635168
-0 0 -0
-6.2641516 1.8568985 -0.72824049
-8.3572769 2.4773691 -0.4868834
-8.3834486 2.485127 0
-35.446114 10.507382 2.0650415
-2.3646009 0.69783753 -0.81292677
-2.8584316 0.84357619 -0.82225895
-3.4044812 1.0047256 -0.78635168
-0 0 -0
-6.2564678 1.8463998 -0.72708732
-8.3353376 2.4599128 -0.48543173
-8.4039202 2.4801526 0
-35.468754 10.467487 2.0656221
-2.3512094 0.69079822 -0.80803537
-2.8185315 0.82810003 -0.81049281
-3.4178891 1.0041945 -0.7891677
-0 0 -0
-6.2735791 1.8432119 -0.72881651
-10.716576 3.1485887 -0.62388784
-8.4094048 2.4707294 0
-35.511284 10.43341 2.0673633
-2.3283248 0.68101948 -0.7998873
-2.8821397 0.84300667 -0.82849038
-3.4142177 0.99863595 -0.78804088
-0 0 -0
-6.2807713 1.8370838 -0.72939366
-10.735332 3.140013 -0.62475836
-8.4448538 2.4700634 0
-35.79071 10.468544 2.0828929
-2.3267753 0.67751533 -0.7990731
-2.8614707 0.8332091 -0.82225895
-3.3983426 0.98953658 -0.78410012
-0 0 -0
-6.2854676 1.8302158 -0.72968167
-10.739118 3.1270392 -0.62475836
-8.4528246 2.4613116 0
-35.855721 10.440545 2.0859406
-2.3821847 0.69052821 -0.81781495
-2.8504298 0.82625926 -0.81879878
-3.4092975 0.98825926 -0.78635168
-0 0 -0
-6.2876744 1.8226197 -0.72968167
-10.722923 3.1082733 -0.62359726
-8.463294 2.4532704 0
-35.885773 10.402275 2.0869563
-2.3426495 0.67600065 -0.80396134
-2.8273265 0.81586027 -0.8118785
-3.4324677 0.99048132 -0.79141927
-0 0 -0
-6.2774491 1.8114361 -0.72824049
-10.72667 3.0953143 -0.62359726
-8.4887543 2.4495356 0
-35.965725 10.378358 2.0908751
-2.3505936 0.67521733 -0.80640703
-2.8403642 0.81590593 -0.81533861
-3.3896987 0.97370452 -0.78128624
-0 0 -0
-6.2821169 1.8045632 -0.7285285
-10.722918 3.0802009 -0.62316227
-8.4817019 2.4364028 0
-36.005707 10.342782 2.0924711
-2.3371449 0.66829824 -0.80151564
-2.8413479 0.81247336 -0.81533861
-3.4226294 0.97868866 -0.78860319
-0 0 -0
-6.2842927 1.7969711 -0.7285285
-10.724126 3.0665257 -0.62301672
-26.9275 7.6998224 0
-36.010689 10.297128 2.0920362
-2.3522184 0.66953492 -0.80640703
-2.8712828 0.81728131 -0.82364458
-3.4067097 0.96968508 -0.78466463
-0 0 -0
-6.2665582 1.7837117 -0.72622216
-10.712833 3.0492985 -0.62214613
-26.911747 7.6601539 0
-36.023106 10.253609 2.0920362
-2.3601527 0.6687116 -0.80884957
-2.8336482 0.80286896 -0.81256998
-3.4200997 0.96903068 -0.78747851
-0 0 -0
-6.2687087 1.7761385 -0.72622216
-10.721515 3.03777 -0.6224367
-26.973564 7.6425285 0
-36.060463 10.217156 2.0934873
-2.3657212 0.66720241 -0.81048107
-2.8466868 0.8028487 -0.81603014
-3.4090431 0.96144956 -0.78466463
-0 0 -0
-6.2708502 1.7685627 -0.72622216
-10.707669 3.019875 -0.62142056
-26.992798 7.6127563 0
-36.075279 10.174281 2.0936322
-2.3236971 0.65232033 -0.79581326
-2.8887143 0.81093484 -0.82779622
-3.4224317 0.9607628 -0.78747851
-0 0 -0
-6.2704949 1.7602859 -0.72593415
-10.693795 3.002018 -0.62040448
-27.03705 7.5899816 0
-36.187618 10.158776 2.099438
-2.357805 0.65882283 -0.80722123
-2.8703623 0.80204266 -0.82225895
-3.4162462 0.9545747 -0.78578931
-0 0 -0
-6.2576756 1.7485329 -0.72420496
-10.702425 2.9904943 -0.62069505
-27.056229 7.5601087 0
-36.405064 10.172379 2.1113384
-2.3752701 0.66060996 -0.81292677
-2.8737533 0.79924798 -0.8229531
-3.3978133 0.94499952 -0.78128624
-0 0 -0
-6.2647629 1.7423552 -0.72478098
-10.696017 2.9747753 -0.62011445
-27.100451 7.5371747 0
-36.469898 10.143004 2.1143863
-2.3518481 0.65256524 -0.80477554
-2.8065474 0.77873027 -0.80357254
-3.4106231 0.94634265 -0.78410012
-0 0 -0
-6.2857528 1.7441024 -0.72708732
-10.685295 2.9648397 -0.61938894
-27.084938 7.515234 0
-36.553631 10.142505 2.1188853
-2.3621645 0.65235484 -0.80803537
-2.841337 0.78468704 -0.81326151
-3.4142203 0.94289923 -0.78466463
-0 0 -0
-6.272892 1.7323735 -0.725357
-10.678851 2.9491596 -0.61880833
-34.875248 9.6314354 0
-36.573376 10.100405 2.1193206
-2.3534181 0.64687985 -0.80477554
-2.8301902 0.77792931 -0.80980134
-3.4227002 0.94079149 -0.78635168
-0 0 -0
-6.2650142 1.7220533 -0.72420496
-10.697435 2.9403849 -0.61967891
-34.947086 9.6058426 0
-36.595577 10.058961 2.1199014
-2.3446622 0.64142698 -0.80151564
-2.8214488 0.77186102 -0.8070327
-3.414031 0.93397325 -0.78410012
-0 0 -0
-6.2820544 1.7185757 -0.72593415
-10.680929 2.9219718 -0.61851782
-34.986282 9.5711641 0
-36.625252 10.019535 2.1209173
-2.3358963 0.63599616 -0.7982558
-2.8901575 0.78690529 -0.82641321
-3.4372292 0.93585688 -0.7891677
-0 0 -0
-6.2566724 1.7035087 -0.72276264
-10.659386 2.9022386 -0.61706668
-35.048035 9.5425539 0
-36.619778 9.9704943 2.1199014
-2.3104286 0.62606442 -0.78929353
-2.8717346 0.77816337 -0.82087594
-3.4236379 0.92771441 -0.78578931
-0 0 -0
-6.2861896 1.7033894 -0.72593415
-10.657864 2.8879962 -0.61677611
-35.079632 9.5056438 0
-36.649357 9.9309969 2.1209173
-2.3517492 0.6342119 -0.80314714
-2.8290772 0.76293617 -0.80841833
-3.4124925 0.92026967 -0.78297544
-0 0 -0
-6.2832437 1.6944443 -0.725357
-10.673887 2.8784986 -0.61750168
-35.146378 9.478159 0
-36.656307 9.8853512 2.1206269
-2.3716106 0.63649505 -0.80966687
-2.8372591 0.76146621 -0.81049281
-3.4111502 0.91548765 -0.78241307
-0 0 -0
-6.2753038 1.6841718 -0.72420496
-10.672343 2.8642533 -0.6172117
-35.175392 9.4404049 0
-36.675758 9.8430738 2.1210625
-2.3270056 0.62151062 -0.79418176
-2.8939271 0.7729274 -0.82641321
-3.4098015 0.91071028 -0.78185076
-0 0 -0
-6.2823272 1.6779217 -0.72478098
-10.635629 2.8406277 -0.61488944
-35.264721 9.4187136 0
-36.7052 9.8034449 2.1220784
-2.3349233 0.62060374 -0.79662746
-2.8439448 0.75589758 -0.8118785
-3.4428203 0.91507387 -0.7891677
-0 0 -0
-6.2718539 1.6670082 -0.7233398
-10.649098 2.8304443 -0.61546999
-35.338943 9.3928061 0
-36.752171 9.7684298 2.1241102
-2.3643446 0.62536603 -0.80640703
-2.8788066 0.76144052 -0.82156742
-3.4169004 0.90376562 -0.78297544
-0 0 -0
-6.2838655 1.6620741 -0.72449297
-10.650002 2.8169112 -0.61532503
-35.385498 9.359417 0
-36.8167 9.7379675 2.1271579
-2.3555377 0.61999226 -0.80314714
-2.8578916 0.75221491 -0.81533861
-3.4228997 0.90092856 -0.78410012
-0 0 -0
-6.2808619 1.6531621 -0.72391582
-10.628273 2.7974279 -0.6138739
-35.444592 9.3292379 0
-36.868645 9.7040577 2.1294801
-2.3706262 0.62090176 -0.80803537
-2.8248262 0.7398634 -0.8056497
-3.4313622 0.89872402 -0.78578931
-0 0 -0
-6.280355 1.644917 -0.72362781
-10.616559 2.7806323 -0.61300278
-35.491089 9.2956362 0
-36.940659 9.6752996 2.1329629
-2.3857298 0.62177807 -0.81292677
-2.8135822 0.73328668 -0.80218959
-3.4422805 0.89714044 -0.78804088
-0 0 -0
-6.2848387 1.6379789 -0.72391582
-10.609853 2.7651808 -0.61242223
-35.577843 9.2724342 0
-36.982498 9.6385212 2.1347046
-2.3888695 0.61951476 -0.81374091
-2.7974648 0.72547746 -0.79734379
-3.4113905 0.88468915 -0.78072387
-0 0 -0
-6.2868133 1.6303837 -0.72391582
-10.608161 2.7510555 -0.61213219
-35.621765 9.2379313 0
-37.049446 9.6081772 2.1378975
-2.3585067 0.6086002 -0.80314714
-2.8663568 0.73964828 -0.8167243
-3.4296815 0.8850112 -0.78466463
-0 0 -0
-6.3063121 1.6273105 -0.72593415
-10.616505 2.7395329 -0.61242223
-35.670692 9.2046347 0
-37.083683 9.5692482 2.1392043
-2.3807838 0.61128139 -0.81048107
-2.8988354 0.74429446 -0.82572174
-3.4159772 0.87707388 -0.78128624
-0 0 -0
-6.3007555 1.6177591 -0.72506899
-10.607225 2.7234726 -0.61169666
-35.709522 9.1686468 0
-37.125408 9.5321846 2.1409452
-2.3719418 0.60595715 -0.80722123
-2.897295 0.74016845 -0.82502759
-3.4367292 0.87797707 -0.78578931
-0 0 -0
-6.2926817 1.6075839 -0.72391582
-10.595407 2.7067959 -0.61082608
-35.773521 9.139019 0
-37.177181 9.4976101 2.1432674
-2.3675127 0.60330218 -0.80558974
-2.878293 0.73346192 -0.81949025
-3.4520369 0.87966639 -0.7891677
-0 0 -0
-6.3061814 1.6069747 -0.725357
-10.609629 2.7036018 -0.61155164
-35.837032 9.1321831 0
-37.230755 9.487339 2.1460252
-2.3850129 0.60469365 -0.81129527
-2.7989388 0.70963997 -0.79665226
-3.4309235 0.86987269 -0.78410012
-0 0 -0
-6.2705183 1.5898206 -0.72103345
-10.607845 2.6895018 -0.61126113
-35.908588 9.1042252 0
-37.292557 9.4551163 2.1489275
-2.3665695 0.59697515 -0.80477554
-2.8776269 0.72589105 -0.81879878
-3.431972 0.86572647 -0.78410012
-0 0 -0
-6.3000245 1.5892023 -0.72420496
-10.606052 2.6754124 -0.61097109
-35.947323 9.0678329 0
-37.417332 9.4386473 2.1554587
-2.3672891 0.59411514 -0.80477554
-2.876071 0.72180337 -0.81810731
-3.3985178 0.85292113 -0.7762208
-0 0 -0
-6.2893896 1.578439 -0.72276264
-10.601714 2.660697 -0.61053556
-36.021355 9.0402279 0
-37.549675 9.4237871 2.1624248
-2.3847935 0.59544605 -0.81048107
-2.8087878 0.70131087 -0.79872674
-3.4340541 0.85743022 -0.78410012
-0 0 -0
-6.3214054 1.5783572 -0.72622216
-10.599884 2.6466272 -0.61024553
-36.095364 9.012454 0
-37.624058 9.394145 2.1660531
-2.3663216 0.58779734 -0.80396134
-2.8218141 0.70094222 -0.80218959
-3.4350877 0.85328025 -0.78410012
-0 0 -0
-6.323308 1.5707178 -0.72622216
-10.605594 2.6344433 -0.61039054
-36.134014 8.9757357 0
-37.81694 9.3937769 2.1765027
-2.405421 0.59442478 -0.81700081
-2.8616176 0.70715958 -0.81326151
-3.4459829 0.85156721 -0.78635168
-0 0 -0
-6.2875443 1.5537704 -0.72189862
-10.61381 2.6228721 -0.61068052
-36.187782 8.9426813 0
-37.96196 9.381114 2.1841948
-2.3845384 0.58620805 -0.80966687
-2.869781 0.70549864 -0.81533861
-3.4544141 0.84922314 -0.78804088
-0 0 -0
-6.2944355 1.5474058 -0.72247463
-9.1888456 2.2589593 -0.52853578
-36.22636 8.9057837 0
-38.031296 9.3495035 2.1875327
-2.4020441 0.58743465 -0.81536931
-2.8389533 0.69428349 -0.80634123
-3.4233539 0.83720225 -0.78072387
-0 0 -0
-6.2787113 1.5354974 -0.7204563
-9.2016649 2.2503238 -0.52911633
-36.307869 8.8793135 0
-38.090523 9.3152723 2.1902905
-2.3307099 0.56700569 -0.79092193
-2.8812282 0.70093358 -0.81810731
-3.4441142 0.83787018 -0.785227
-0 0 -0
-6.2629771 1.5236317 -0.7184391
-9.1917553 2.2361331 -0.52839077
-36.384315 8.851429 0
-38.172436 9.2864361 2.1943538
-2.3698297 0.5734905 -0.80396134
-2.845495 0.68859988 -0.80772418
-3.4722922 0.84028262 -0.79141927
-0 0 -0
-6.3502817 1.5367461 -0.72824049
-9.1767788 2.2207487 -0.52737522
-36.412693 8.8117447 0
-38.198788 9.2439737 2.195225
-2.3368838 0.56252962 -0.79255342
-2.8731573 0.69162017 -0.81533861
-3.4411836 0.82835424 -0.78410012
-0 0 -0
-6.3194461 1.5212033 -0.72449297
-9.1617689 2.2054012 -0.52635908
-36.453678 8.7750502 0
-38.242767 9.2057161 2.1971116
-0 0 -0
-2.8593569 0.68464404 -0.81118703
-3.4323072 0.82183123 -0.78185076
-0 0 -0
-6.3187666 1.5129647 -0.72420496
-9.1265192 2.1852527 -0.5241819
-36.540176 8.7491751 0
-38.263973 9.1619205 2.1976922
-0 0 -0
-2.8479724 0.67828071 -0.80772418
-3.46048 0.82415712 -0.78804088
-0 0 -0
-6.3105254 1.5029316 -0.72305179
-9.1013556 2.167603 -0.52258575
-36.532997 8.7007961 0
-38.300285 9.1216984 2.1991432
-0 0 -0
-2.912266 0.6898756 -0.82572174
-3.4169736 0.80943382 -0.77790999
-0 0 -0
-6.2720675 1.4857662 -0.7184391
-9.0862665 2.152411 -0.52156967
-12.152514 2.8787627 0
-38.397243 9.0957766 2.2040777
-0 0 -0
-2.8618197 0.67427462 -0.81118703
-3.4204199 0.80588663 -0.77847236
-0 0 -0
-6.2562332 1.4740338 -0.71642077
-9.0736904 2.1378562 -0.52069908
-12.10026 2.8509476 0
-38.527073 9.0773802 2.2108989
-0 0 -0
-2.9554465 0.6925658 -0.83748782
-3.4486063 0.80813062 -0.78466463
-0 0 -0
-6.2983017 1.4759153 -0.72103345
-9.0357876 2.1174052 -0.51837683
-12.065685 2.8274176 0
-38.62656 9.0515718 2.2159789
-0 0 -0
-2.8780959 0.67077231 -0.81533861
-3.4668951 0.80799848 -0.78860319
-0 0 -0
-6.244668 1.4553894 -0.71469158
-8.8358994 2.0593047 -0.50676626
-12.066561 2.8122463 0
-38.695667 9.0184565 2.2193167
-0 0 -0
-2.879307 0.66555476 -0.81533861
-3.4436023 0.79599226 -0.78297544
-0 0 -0
-6.2624111 1.4475627 -0.71642077
-8.5358334 1.9730667 -0.48935065
-12.015859 2.7774782 0
-38.775238 8.9629364 2.222945
-0 0 -0
-2.889889 0.66432339 -0.81810731
-3.4495096 0.79296815 -0.78410012
-0 0 -0
-6.2818031 1.4440516 -0.7184391
-8.5128822 1.9569287 -0.48789895
-11.996381 2.7577105 0
-38.818958 8.923645 2.2248318
-0 0 -0
-2.910255 0.66530383 -0.82364458
-3.4578986 0.79049885 -0.78578931
-0 0 -0
-6.2860622 1.437036 -0.71872711
-8.5152407 1.9466412 -0.48789895
-11.984477 2.739732 0
-38.842377 8.8796282 2.2255573
-0 0 -0
-2.8817005 0.65511316 -0.81533861
-3.4613266 0.78688282 -0.78635168
-0 0 -0
-6.3054514 1.4334537 -0.72074544
-8.4973164 1.9317425 -0.48673785
-11.939569 2.7142894 0
-38.911358 8.8459377 2.2288957
-0 0 -0
-2.8849347 0.65218335 -0.81603014
-3.4449334 0.77877963 -0.78241307
-0 0 -0
-6.2718544 1.4178481 -0.71670878
-8.5401955 1.9306412 -0.48906007
-11.952994 2.7021561 0
-39.028461 8.8229771 2.2349913
-0 0 -0
-2.8832753 0.64814734 -0.81533861
-3.4657042 0.77907473 -0.7869162
-0 0 -0
-6.2912302 1.4142402 -0.71872711
-8.5070343 1.9123431 -0.48702839
-11.930863 2.6820045 0
-39.122742 8.7946167 2.2397802
-0 0 -0
-2.8889577 0.64575857 -0.8167243
-3.4666429 0.77488649 -0.7869162
-0 0 -0
-6.2651658 1.4004304 -0.71555561
-8.4966621 1.899229 -0.48630285
-11.890922 2.6579359 0
-39.219555 8.7666092 2.2447145
-0 0 -0
-2.906872 0.64607596 -0.82156742
-3.4303687 0.76242739 -0.77847236
-0 0 -0
-6.2820072 1.3962274 -0.71728593
-8.5090971 1.8912162 -0.4868834
-11.871252 2.6384826 0
-39.270706 8.7282343 2.2470367
-0 0 -0
-2.8929572 0.63931602 -0.81741577
-3.470984 0.7670545 -0.78747851
-0 0 -0
-6.2761106 1.3869609 -0.71642077
-8.51898 1.8826137 -0.4873184
-11.83886 2.6162755 0
-39.31675 8.6886272 2.249069
-0 0 -0
-2.830024 0.62182283 -0.79942089
-3.4396486 0.7557717 -0.78016156
-0 0 -0
-6.1994767 1.3621708 -0.70748454
-8.518714 1.8717617 -0.48717341
-11.819139 2.5969427 0
-39.367813 8.6500349 2.2513907
-0 0 -0
-2.8528297 0.62322122 -0.8056497
-3.4405594 0.75161499 -0.78016156
-0 0 -0
-6.284503 1.372895 -0.71699792
-8.5235052 1.8620212 -0.4873184
-11.812098 2.5804379 0
-39.423939 8.6124439 2.2540035
-0 0 -0
-2.8633871 0.62190354 -0.80841833
-3.4588389 0.75123072 -0.78410012
-0 0 -0
-6.2457161 1.356517 -0.71238524
-8.5079813 1.8478619 -0.48630285
-11.802493 2.5634022 0
-39.462238 8.5708656 2.2555995
-0 0 -0
-2.8763952 0.62109029 -0.8118785
-3.4870667 0.75295049 -0.79029238
-0 0 -0
-6.229651 1.3451474 -0.7103669
