# .PCD v0.7 - Point Cloud Data file format
VERSION 0.7
FIELDS x y z
SIZE 4 4 4
TYPE F F F
COUNT 1 1 1
WIDTH 1545
HEIGHT 1
VIEWPOINT 0 0 0 1 0 0 0
POINTS 1545
DATA ascii
-2.4117336 2.55583 -0.77847236
-2.9004571 3.0737538 -0.70456487
-3.694154 3.9148724 -0.59995729
-5.2173386 5.5290642 -0.42462149
-11.707425 12.406921 0
-12.442954 13.186396 1.0126898
-1.6109799 1.7031053 -0.77299422
-2.0463026 2.1633224 -0.82156742
-2.4200599 2.5584536 -0.78016156
-2.8971128 3.0627873 -0.70285302
-3.6988816 3.9104059 -0.59995729
-5.2204475 5.5189843 -0.42433149
-11.624051 12.288784 0
-0 0 0
-1.6249425 1.713714 -0.77869976
-2.0610001 2.1735935 -0.82641321
-2.4231496 2.5555274 -0.78016156
-2.9008114 3.0592844 -0.70285302
-3.7000411 3.9021761 -0.59938014
-5.2253194 5.5107813 -0.42418593
-11.58159 12.214297 0
-12.453329 13.13366 1.0109482
-1.6412913 1.7288626 -0.78603369
-2.0605872 2.1705303 -0.82572174
-2.4176953 2.5466919 -0.77790999
-2.909729 3.0649781 -0.70456487
-3.6988397 3.8961921 -0.59880412
-5.2214918 5.5000854 -0.42360538
-11.571052 12.188428 0
-12.463049 13.128017 1.0110931
-1.6263372 1.7089704 -0.77788246
-2.059746 2.1644006 -0.82433605
-2.4172642 2.5400841 -0.77678317
-2.9134302 3.06146 -0.70456487
-3.7053263 3.8935919 -0.59909213
-5.2317195 5.4975405 -0.42389593
-11.522976 12.108452 0
-12.484278 13.118597 1.0115287
-1.6232877 1.7016441 -0.77543992
-2.0640898 2.1637237 -0.82502759
-2.4255948 2.5426786 -0.77847236
-2.9171274 3.0579376 -0.70456487
-3.7082446 3.8872421 -0.59880412
-5.231184 5.4836941 -0.42331538
-11.526823 12.083224 0
-12.448108 13.04898 1.0073198
-1.6321754 1.7068267 -0.77869976
-2.0753772 2.1702993 -0.82849038
-2.4286654 2.539746 -0.77847236
-2.9137235 3.0469892 -0.70285302
-3.7093601 3.8790164 -0.59822696
-5.2413945 5.481122 -0.42360538
-11.523432 12.050483 0
-12.440521 13.009518 1.0054332
-1.6222625 1.6923618 -0.77299422
-2.0675783 2.15692 -0.82433605
-2.4299757 2.534977 -0.77790999
-2.9209592 3.0471764 -0.70370978
-3.7158327 3.8763969 -0.59851497
-5.2354321 5.4616594 -0.42258981
-11.438938 11.933224 0
-12.463425 13.001979 1.0060138
-1.6465671 1.713567 -0.78358799
-2.0753994 2.1598489 -0.82641321
-2.4312782 2.5302086 -0.77734768
-2.9210784 3.0399392 -0.70285302
-3.7151427 3.8663144 -0.59765095
-5.2366247 5.4497066 -0.42215428
-11.415483 11.879988 0
-0 0 0
-1.6434908 1.7062342 -0.78114229
-2.0640843 2.1428845 -0.82087594
-2.4325659 2.5254338 -0.77678317
-2.9229703 3.0345602 -0.70242542
-3.7162194 3.8580933 -0.59707379
-5.2359953 5.4358892 -0.4215737
-11.388303 11.823073 0
-0 0 0
-1.6661528 1.7255836 -0.79092193
-2.070154 2.143995 -0.82225895
-2.4373856 2.5243258 -0.77734768
-2.9284163 3.032871 -0.70285302
-3.72627 3.859184 -0.59793895
-5.237143 5.4239488 -0.42113814
-11.3827 11.788715 0
-0 0 0
-1.6407335 1.6951537 -0.77788246
-2.0640206 2.1324806 -0.81879878
-2.4351308 2.5158999 -0.77565849
-2.9249372 3.0219522 -0.70114112
-3.7291334 3.8528221 -0.59765095
-5.2436929 5.4176168 -0.42113814
-11.329968 11.705764 0
-0 0 0
-1.6617142 1.7126844 -0.78684783
-2.0718384 2.1353884 -0.82087594
-2.4434788 2.5184283 -0.77734768
-2.9339511 3.0239449 -0.70242542
-3.7301803 3.8445971 -0.59707379
-5.2538576 5.4150105 -0.42142871
-11.266184 11.611753 0
-12.548985 12.933904 1.0065943
-1.6568896 1.703588 -0.78358799
-2.0779121 2.1364768 -0.82225895
-2.4412038 2.5100079 -0.77565849
-2.9304435 3.0130365 -0.70071357
-3.734823 3.8400869 -0.59707379
-5.2513399 5.3993464 -0.42070314
-11.220329 11.536568 0
-12.570035 12.924314 1.0070293
-1.64342 1.6856591 -0.77625412
-2.0752432 2.1285808 -0.82018441
-2.4406838 2.5034142 -0.7745316
-2.934082 3.0094934 -0.70071357
-3.7322381 3.8281636 -0.59592062
-5.2542291 5.3892727 -0.4204126
-11.210645 11.498779 0
-12.596529 12.920283 1.0079004
-1.6644599 1.7031177 -0.78521949
-2.0795653 2.1278641 -0.82087594
-2.4490366 2.5059164 -0.7762208
-2.9413083 3.0096214 -0.70157033
-3.7350547 3.8218031 -0.59563261
-5.251658 5.37363 -0.41968703
-11.208161 11.468475 0
-12.612131 12.905053 1.0079004
-1.6492168 1.6834464 -0.77706826
-2.0926654 2.1360989 -0.82502759
-2.4485099 2.4993289 -0.77509612
-2.9395516 3.0005622 -0.70028603
-3.73967 3.8172872 -0.59563261
-5.2563305 5.3654261 -0.41954204
-11.185585 11.417743 0
-12.633172 12.895375 1.0083359
-1.6789582 1.7096677 -0.79010773
-2.0899765 2.1282041 -0.8229531
-2.4533067 2.4981797 -0.77565849
-2.9395742 2.9933414 -0.69942927
-3.7406588 3.8090785 -0.59505659
-5.255527 5.351655 -0.41896147
-11.144672 11.348517 0
-12.626897 12.857853 1.0065943
-1.6792905 1.7058781 -0.78929353
-2.0907817 2.1238842 -0.82225895
-2.4545426 2.4934044 -0.77509612
-2.946794 2.9934497 -0.70028603
-3.7452586 3.8045559 -0.59505659
-5.2601686 5.343451 -0.41881648
-11.134644 11.310934 0
-12.651537 12.851844 1.0073198
-1.6761408 1.6985683 -0.78684783
-2.0933464 2.1213562 -0.82225895
-2.4629025 2.4958572 -0.77678317
-2.9486077 2.9880614 -0.69985849
-3.7498529 3.8000276 -0.59505659
-5.2684445 5.3389387 -0.41896147
-11.098946 11.247455 0
-12.665233 12.8347 1.0071748
-1.6781919 1.6965418 -0.78684783
-2.088851 2.111691 -0.81949025
-2.4551985 2.4820445 -0.77340692
-2.9540195 2.9863198 -0.70028603
-3.7471659 3.7881386 -0.59390342
-5.2675824 5.3251796 -0.41838092
-11.079587 11.200735 0
-12.671597 12.810152 1.0064492
-1.678502 1.6927594 -0.78603369
-2.1002383 2.118078 -0.8229531
-2.4653521 2.4862931 -0.77565849
-2.9630499 2.9882185 -0.70157033
-3.7535598 3.7854428 -0.59419143
-5.2703571 5.315124 -0.41809091
-11.063794 11.157771 0
-12.681576 12.789294 1.0060138
-1.6718358 1.6819669 -0.78195965
-2.1027961 2.1155386 -0.8229531
-2.4629791 2.4779043 -0.77396929
-2.9594197 2.9773533 -0.69985849
-3.7563093 3.779072 -0.59390342
-5.2786059 5.3105931 -0.41823593
-11.046081 11.113018 0
-12.682365 12.759218 1.0048525
-1.6703745 1.6764405 -0.78032815
-2.0911846 2.098779 -0.81741577
-2.4641798 2.4731283 -0.77340692
-2.9648252 2.9755919 -0.70028603
-3.7608728 3.7745304 -0.59390342
-5.2813473 5.3005261 -0.41794536
-11.011744 11.051733 0
-12.688604 12.734683 1.004127
-1.6846271 1.6866639 -0.78603369
-2.102582 2.105124 -0.82087594
-2.4653723 2.468353 -0.77284461
-2.9647868 2.9683714 -0.69942927
-3.7617717 3.76632 -0.59332627
-5.2767339 5.2831135 -0.4170748
-11.030609 11.043945 0
-12.691127 12.70647 1.0031109
-1.6726739 1.6706541 -0.77951396
-2.1015706 2.0990326 -0.81949025
-2.4665501 2.4635715 -0.7722801
-2.9665568 2.9629745 -0.69900173
-3.7626634 3.7581196 -0.59275025
-5.2812767 5.274899 -0.41692981
-11.005279 10.991989 0
-12.710152 12.694803 1.0034015
-1.6736829 1.6696432 -0.77951396
-2.101064 2.0959926 -0.81879878
-2.4734364 2.4674661 -0.77396929
-2.964715 2.9575591 -0.69814658
-3.7667625 3.7576706 -0.59303826
-5.2844625 5.2717075 -0.41692981
-10.967698 10.941226 0
-12.715974 12.685282 1.003256
-1.663434 1.6554137 -0.77380842
-2.096482 2.0863736 -0.81603014
-2.4728174 2.4608943 -0.77284461
-2.9682865 2.9539747 -0.69814658
-3.7676301 3.749464 -0.59246111
-5.2908287 5.2653184 -0.41692981
-10.940331 10.887582 0
-12.714718 12.653413 1.0019498
-1.6864812 1.6742986 -0.78358799
-2.0847583 2.0696988 -0.81049281
-2.4811933 2.4632699 -0.7745316
-2.9718537 2.950386 -0.69814658
-3.7666564 3.7394474 -0.59159708
-5.2934952 5.2552567 -0.41663924
-10.922083 10.843185 0
-12.816662 12.724078 1.0087709
-1.6621665 1.6461763 -0.77136588
-1.8056365 1.7882663 -0.70113796
-2.4733393 2.4495459 -0.77115542
-2.9735873 2.9449813 -0.69771737
-3.7730081 3.7367117 -0.59188509
-5.2850714 5.2342291 -0.41547814
-10.883402 10.778703 0
-12.896646 12.772581 1.0138509
-1.6518451 1.6320053 -0.76566035
-1.7274884 1.7067401 -0.66999131
-2.4799089 2.4501235 -0.7722801
-2.9734948 2.9377813 -0.69686228
-3.7775204 3.7321498 -0.59188509
-5.2987857 5.2351441 -0.41605869
-10.874202 10.743596 0
-12.950887 12.795338 1.0168988
-1.6502918 1.6265349 -0.76402885
-1.6902436 1.6659117 -0.65476507
-2.4810596 2.4453435 -0.77171773
-2.9752159 2.9323859 -0.69643474
-3.7783394 3.7239482 -0.59130794
-5.2921586 5.2159748 -0.41504312
-10.866792 10.710359 0
-12.995941 12.808857 1.0192205
-1.652256 1.6245397 -0.76402885
-1.6922553 1.6638681 -0.65476507
-2.4822025 2.4405639 -0.77115542
-2.9824142 2.932385 -0.69728982
-3.7846859 3.7211986 -0.59159708
-5.3003082 5.2113967 -0.41518813
-10.833333 10.651607 0
-13.026231 12.807719 1.0203816
-1.6436341 1.6121612 -0.75914061
-1.6871004 1.6547952 -0.65199643
-2.4924054 2.44468 -0.77340692
-2.9804556 2.9233847 -0.69600552
-3.7873278 3.7148066 -0.59130794
-5.2917609 5.1904321 -0.41402701
-10.794173 10.587482 0
-13.052832 12.802891 1.0212526
-1.643816 1.6084471 -0.75832641
-1.6908901 1.6545084 -0.65268797
-2.4917219 2.4381092 -0.7722801
-2.9803197 2.916194 -0.69515043
-3.7825718 3.7011847 -0.58986676
-5.2980285 5.1840343 -0.41402701
-10.799518 10.567151 0
-13.072002 12.790741 1.0215427
-1.6156924 1.5771117 -0.7444728
-1.6893009 1.6489626 -0.65130496
-2.4910328 2.4315503 -0.77115542
-2.9856763 2.9143822 -0.69557798
-3.7888975 3.6984234 -0.5901559
-5.2987084 5.1721821 -0.41359144
-10.778759 10.521377 0
-13.09117 12.77857 1.0218332
-1.633532 1.5906755 -0.75180668
-1.7272398 1.6819248 -0.6651482
-2.4976065 2.4320805 -0.7722801
-2.9891956 2.9107726 -0.69557798
-3.7952147 3.6956453 -0.59044391
-5.3012342 5.1621537 -0.41330147
-10.759769 10.477481 0
-13.112181 12.768176 1.0222682
-1.6230413 1.5766437 -0.74610114
-1.7238706 1.6745907 -0.66307104
-2.5041919 2.432605 -0.77340692
-2.9927106 2.9071584 -0.69557798
-3.7959633 3.687449 -0.58986676
-5.2962813 5.1448774 -0.41243035
-10.759353 10.451777 0
-13.125737 12.750514 1.0221232
-1.6497976 1.598765 -0.75751221
-1.7060734 1.6533002 -0.6554566
-2.4907091 2.4136651 -0.76834154
-2.9999115 2.9071167 -0.69643474
-3.8041346 3.6864629 -0.59044391
-5.3062296 5.1420946 -0.41272089
-10.710308 10.37901 0
-13.13367 12.727411 1.0215427
-1.6339546 1.5795883 -0.74936104
-1.7170936 1.659961 -0.65891939
-2.5118883 2.4283106 -0.77396929
-2.9923446 2.8927808 -0.69386607
-3.8048635 3.6782649 -0.58986676
-5.3049664 5.1284552 -0.41214034
-10.704126 10.34797 0
-1.8843862 1.8216872 0.14639707
-1.6429784 1.5844758 -0.75262088
-1.715483 1.6543987 -0.65753376
-2.5093322 2.4199805 -0.7722801
-3.0013831 2.8945107 -0.69515043
-3.8055851 3.6700771 -0.58929074
-5.3055463 5.1166282 -0.41170478
-10.688528 10.307935 0
-1.895936 1.8284261 0.14712262
-1.6626998 1.5996219 -0.76076895
-1.7319442 1.6662394 -0.66307104
-2.5049369 2.4099071 -0.77003074
-3.0048783 2.890882 -0.69515043
-3.8081548 3.6636846 -0.58900273
-5.3023639 5.1012077 -0.41097921
-10.682217 10.276965 0
-1.888783 1.8171281 0.14639707
-1.655717 1.5890561 -0.75669491
-1.7122359 1.6432996 -0.65476507
-2.515173 2.4139094 -0.7722801
-3.0028112 2.8819149 -0.69386607
-3.8069787 3.6537058 -0.58813757
-5.3066506 5.0929999 -0.41083422
-10.67773 10.247833 0
-1.8759793 1.8004504 0.14523596
-1.6362125 1.5665432 -0.74691534
-1.7214688 1.6481693 -0.65753376
-2.5125871 2.4056022 -0.77059305
-3.0081508 2.880065 -0.69429529
-3.8113909 3.6491032 -0.58813757
-5.3221836 5.0955672 -0.41155979
-1.7839293 1.7079703 0
-1.8875362 1.8071656 0.14596151
-1.6327473 1.5594486 -0.7444728
-1.7143896 1.6374258 -0.6540736
-2.5136561 2.4008112 -0.77003074
-3.0153377 2.8799708 -0.69515043
-3.8120527 3.640919 -0.58756042
-5.3170586 5.078361 -0.41068867
-1.8970246 1.8118618 0
-1.8859639 1.8012977 0.14567152
-1.652521 1.5745208 -0.75262088
-1.7345265 1.6526556 -0.66099387
-2.5073521 2.3890033 -0.76721466
-3.0151019 2.872787 -0.69429529
-3.8164494 3.6363101 -0.58756042
-5.3175526 5.0665603 -0.41025367
-1.8502203 1.7628886 0
-1.888139 1.7990174 0.14567152
-1.6526326 1.5708218 -0.75180668
-1.7147013 1.629818 -0.65268797
-2.5212905 2.3964784 -0.77059305
-3.0092623 2.8602939 -0.69215423
-3.8227205 3.6334832 -0.58784956
-5.3236709 5.0601315 -0.41025367
-1.9070512 1.8126459 0
-1.8846594 1.7913625 0.14523596
-1.649147 1.5637202 -0.74936104
-1.7275958 1.6381053 -0.65684223
-2.5204933 2.3899302 -0.76946622
-3.0257576 2.8690214 -0.69515043
-3.8139679 3.6164021 -0.58583122
-5.3146963 5.039392 -0.40909255
-1.8450344 1.7494605 0
-1.892481 1.7944493 0.14567152
-1.6447061 1.5576234 -0.74691534
-1.7212991 1.6301609 -0.6540736
-2.5219367 2.388407 -0.76946622
-3.0144415 2.854835 -0.69215423
-3.8199046 3.617651 -0.58640724
-5.3139629 5.0326033 -0.408802
-1.9122285 1.8109812 0
-1.887903 1.7879437 0.14523596
-1.6555752 1.5641266 -0.75099254
-1.7269113 1.6315223 -0.6554566
-2.5229757 2.3836148 -0.76890385
-3.0178888 2.8511906 -0.69215423
-3.8317933 3.6201377 -0.58756042
-5.3162661 5.022613 -0.408512
-1.912518 1.8068769 0
-1.8843938 1.7803061 0.14480039
-1.6520662 1.5570378 -0.74854684
-1.7234095 1.6242775 -0.65338212
-2.5240066 2.3788235 -0.76834154
-3.0325441 2.8581092 -0.69472283
-3.8418133 3.6208286 -0.58842558
-5.3261094 5.0197468 -0.408802
-1.9241676 1.8134878 0
-1.8846544 1.7762474 0.14465539
-1.6827576 1.5821289 -0.76158631
-1.732682 1.6290678 -0.65615076
-2.5194743 2.3688099 -0.76608998
-3.0247703 2.8438892 -0.69215423
-3.834883 3.6055572 -0.58669639
-5.3340697 5.0150924 -0.40894756
-1.903612 1.7897762 0
-1.8886906 1.7757471 0.14480039
-1.6648362 1.5614935 -0.75262088
-1.7401334 1.6321168 -0.65822524
-2.529748 2.3727169 -0.76834154
-3.030082 2.8419933 -0.69258344
-3.8467829 3.6079986 -0.58784956
-1.9212464 1.8019874 -0.14712933
-1.9190552 1.7999322 0
-1.8832538 1.7663531 0.14421985
-1.6793569 1.571303 -0.75832641
-1.7219584 1.6111634 -0.65061343
-2.532613 2.3696585 -0.76834154
-3.0316339 2.8365712 -0.69215423
-3.8492455 3.6015756 -0.58756042
-1.9348032 1.8103132 -0.14799988
-1.8927287 1.7709459 0
-1.8872896 1.7658567 0.1443654
-1.6722219 1.5608419 -0.75425237
-1.7532477 1.6364709 -0.66168803
-2.54476 2.3752637 -0.77115542
-3.023803 2.8223996 -0.68958724
-3.8498166 3.5933955 -0.5869844
-1.9255955 1.7973393 -0.14712933
-1.9138887 1.7864121 0
-1.8951151 1.7688891 0.14480039
-1.6596358 1.5453458 -0.74773264
-1.7478796 1.6275128 -0.65891939
-2.5364745 2.3618014 -0.76777917
-3.0309651 2.8222392 -0.69044238
-3.8503661 3.5852127 -0.58640724
-1.9334728 1.8003252 -0.14756487
-1.9027114 1.7716821 0
-1.9010581 1.7701428 0.14509095
-1.6433893 1.526515 -0.73958141
-1.7792478 1.6527115 -0.66999131
-2.5393264 2.3587348 -0.76777917
-3.0362592 2.820327 -0.69087154
-3.8471224 3.5735233 -0.58525521
-1.9299334 1.7926806 -0.14712933
-1.9048507 1.7693818 0
-1.9012936 1.7660776 0.14494595
-1.6814913 1.5581266 -0.75588071
-1.7849274 1.6539741 -0.67137694
-2.5421746 2.3556647 -0.76777917
-3.0415459 2.8183992 -0.69129914
-3.8495347 3.5671091 -0.58496606
-1.9359063 1.7938763 -0.14741932
-1.8955373 1.7564689 0
-1.8977064 1.7584789 0.1445104
-1.6797463 1.5527415 -0.75425237
-1.807184 1.6705437 -0.67898875
-2.5394197 2.3474154 -0.76608998
-3.061913 2.8304031 -0.69515043
-3.8519447 3.5607009 -0.58467805
-1.9361662 1.7897736 -0.14727432
-1.8823696 1.7400446 0
-1.9036424 1.7597089 0.14480039
-1.6870669 1.5557325 -0.75669491
-1.8534644 1.7091763 -0.69560063
-2.5441203 2.3460662 -0.76665235
-3.0540113 2.8162632 -0.69258344
-1.9111791 1.762398 -0.28977016
-1.9287781 1.7786269 -0.14654876
-1.9131707 1.7642345 0
-1.9057672 1.7574074 0.14480039
-1.7216911 1.5838162 -0.77136588
-1.8315275 1.6848567 -0.68660319
-2.5488214 2.3447089 -0.76721466
-3.0422978 2.7986672 -0.68915969
-1.9266338 1.7723469 -0.29178849
-1.9328363 1.7780526 -0.14669377
-1.9076397 1.7548738 0
-1.9098072 1.7568676 0.14494595
-1.7017512 1.561681 -0.76158631
-1.8391089 1.6877328 -0.68868035
-2.5497825 2.3399112 -0.76665235
-3.0475669 2.7967231 -0.68958724
-1.9192475 1.7612753 -0.29034731
-1.9254128 1.7669331 -0.1459682
-1.9212599 1.763122 0
-1.908096 1.7510417 0.14465539
-1.752854 1.6046801 -0.78358799
-1.8688983 1.710915 -0.6990608
-2.5507357 2.3351145 -0.76608998
-3.0490522 2.791307 -0.68915969
-1.9251862 1.7624446 -0.29092333
-1.933298 1.7698708 -0.14640376
-1.9233888 1.7607992 0
-1.9044588 1.7434694 0.14421985
-1.764035 1.6070975 -0.78684783
-1.8637565 1.6979474 -0.69560063
-2.5526111 2.3255179 -0.76496315
-1.9571112 1.7829968 -0.4413794
-1.940908 1.768235 -0.29265252
-1.933724 1.7616903 -0.1461132
-1.941107 1.7684164 0
-1.9182762 1.7476166 0.14494595
-1.8025572 1.6382113 -0.80314714
-1.8769499 1.7058213 -0.69975495
-2.5573049 2.3241458 -0.76552761
-1.9478623 1.7702683 -0.43881077
-1.9353868 1.7589302 -0.29149935
-1.941622 1.7645971 -0.14654876
-1.9220551 1.7468141 0
-1.9165368 1.7417989 0.14465539
-1.7898866 1.6227511 -0.79662746
-1.9050268 1.7271398 -0.70944387
-2.5582235 2.3193424 -0.76496315
-1.9328854 1.7523971 -0.43495947
-1.9241028 1.7444345 -0.28948215
-1.9341294 1.7535248 -0.14582321
-1.9434488 1.761974 0
-1.9205632 1.7412255 0.14480039
-1.786345 1.615612 -0.79418176
-1.91083 1.7281991 -0.71082687
-2.5553761 2.3111415 -0.7632761
-1.9350014 1.7500602 -0.43495947
-1.9262092 1.7421083 -0.28948215
-1.947806 1.761641 -0.14669377
-1.9281992 1.7439082 0
-1.9265238 1.7423929 0.14509095
-1.8029766 1.6266978 -0.8007015
-1.8961544 1.7107655 -0.70459807
-2.5619361 2.3114531 -0.76440078
-1.9466426 1.7563174 -0.43709889
-1.9321499 1.7432415 -0.29005817
-1.942216 1.7523236 -0.1461132
-1.918715 1.7311202 0
-1.9228381 1.7348403 0.14465539
-1.8380051 1.6542771 -0.81536931
-1.9261928 1.7336495 -0.71498114
-2.5685081 2.3117585 -0.76552761
-1.9506769 1.7556862 -0.4375281
-1.9284929 1.7357197 -0.28919414
-1.9520575 1.7569288 -0.14669377
-1.9362804 1.7427288 0
-1.9307289 1.7377322 0.14509095
-1.8289716 1.6421508 -0.81048107
-1.9544169 1.7547824 -0.72467011
-1.900153 1.7060614 -0.56571382
-1.933692 1.7361745 -0.4332476
-1.9248133 1.7282027 -0.28832898
-1.9483767 1.7493593 -0.14625821
-1.9519421 1.7525604 0
-1.9289565 1.7319227 0.14480039
-1.8235902 1.6333436 -0.80722123
-2.0032532 1.7942632 -0.74197346
-1.9533105 1.7495308 -0.58091009
-1.9453475 1.7423986 -0.43538702
-1.9269 1.7258756 -0.28832898
-1.9466217 1.7435398 -0.1459682
-1.9443597 1.7415138 0
-1.9368564 1.7347933 0.14523596
-1.8393133 1.6454247 -0.81374091
-2.0847318 1.8649729 -0.77173442
-1.9638339 1.7568192 -0.58372396
-1.9463998 1.741223 -0.43538702
-1.9279424 1.7247112 -0.28832898
-1.9554211 1.7492933 -0.14654876
-1.9454114 1.7403388 0
-1.9301577 1.7266929 0.14465539
-1.8265475 1.6300356 -0.80722123
-2.1169326 1.8891792 -0.78280902
-1.9773335 1.7645992 -0.58710235
-1.9446754 1.7354547 -0.4345319
-1.9416 1.73271 -0.29005817
-1.9555966 1.7452008 -0.14640376
-1.9572272 1.7466561 0
-1.9244878 1.7174389 0.14407484
-1.8617412 1.6574063 -0.82188904
-2.1866639 1.9466671 -0.80772418
-1.9623858 1.7470046 -0.58203691
-1.9486865 1.7348089 -0.43495947
-1.9398321 1.7269263 -0.28948215
-1.9577038 1.7428366 -0.14640376
-1.9671116 1.7512118 0
-1.9304469 1.7185712 0.1443654
-1.8582038 1.6502366 -0.81944644
-2.1646304 1.9223685 -0.79872674
-1.9720874 1.7513746 -0.58428627
-1.9373509 1.7205257 -0.43196493
-0 0 -0
-1.9559188 1.7370156 -0.1461132
-1.9575468 1.7384615 0
-1.9286325 1.7127832 0.14407484
-1.8879414 1.6725701 -0.83166862
-2.1444247 1.8997946 -0.79042345
-1.9570869 1.7338277 -0.57922089
-1.9490339 1.7266934 -0.43410435
-1.9652903 1.7410953 -0.29265252
-1.9619099 1.7381004 -0.14640376
-1.9499079 1.7274677 0
-1.9287575 1.7087301 0.14392984
-1.9177428 1.6948404 -0.84389389
-2.0734029 1.8324078 -0.76342851
-1.9687057 1.7398797 -0.58203691
-1.9626564 1.7345335 -0.43667135
-1.9557679 1.7284458 -0.29092333
-1.9717968 1.7426115 -0.14698432
-1.9519938 1.7251103 0
-1.9347112 1.7098365 0.14421985
-1.8864141 1.6630977 -0.82922292
-2.0097558 1.7718382 -0.73920482
-1.9746147 1.740857 -0.58316159
-1.9512697 1.7202758 -0.43367514
-1.9772527 1.7431828 -0.29380569
-1.969999 1.7367877 -0.14669377
-1.9540769 1.7227504 0
-1.927032 1.6989073 0.14349428
-1.8939919 1.6657155 -0.83166862
-1.9798716 1.7412444 -0.72743875
-1.963359 1.7267221 -0.57922089
-1.953347 1.7179167 -0.43367514
-1.9657676 1.7288404 -0.29178849
-1.9701468 1.7326916 -0.14654876
-1.940523 1.7066385 0
-1.9329896 1.7000129 0.14378484
-1.9127227 1.6780944 -0.83900249
-1.9895176 1.745469 -0.73020738
-1.9711759 1.7293773 -0.58091009
-1.9496379 1.7104812 -0.43239248
-1.9736824 1.7315763 -0.29265252
-1.9702876 1.7285979 -0.14640376
-1.9582343 1.7180232 0
-1.9252703 1.6891028 0.14305872
-1.9259119 1.6855518 -0.84389389
-1.9765223 1.7298458 -0.72467011
-1.9713539 1.7253224 -0.58034772
-1.9690869 1.7233384 -0.43624377
-1.9679879 1.7223765 -0.29149935
-1.9684603 1.72279 -0.1461132
-1.9700989 1.7242241 0
-1.9331777 1.6919107 0.14349428
-1.9037448 1.6620932 -0.83330011
-1.9956179 1.7423043 -0.73089892
-1.971525 1.7212696 -0.57978541
-1.9537657 1.7057647 -0.43239248
-1.9700676 1.7199973 -0.29149935
-1.9803257 1.7289534 -0.14683877
-1.9584557 1.7098594 0
-1.9332652 1.6878664 0.14334927
-1.9467522 1.6955005 -0.85122776
-1.9806969 1.7250643 -0.72467011
-1.965939 1.712211 -0.57753384
-1.9635686 1.7101465 -0.43410435
-1.9760491 1.7210163 -0.2920765
-1.9804558 1.7248542 -0.14669377
-1.9585596 1.7057842 0
-1.9255078 1.6769979 0.14262372
-1.9301381 1.6769338 -0.84307653
-1.9789958 1.719382 -0.72328711
-1.9795113 1.7198299 -0.58091009
-1.9791929 1.7195534 -0.43709889
-1.9820284 1.7220169 -0.29265252
-1.976652 1.7173457 -0.14625821
-1.9547237 1.6982942 0
-1.9294924 1.6763726 0.14276873
-1.917221 1.6616502 -0.83655685
-1.9962312 1.7301282 -0.72882175
-1.9796697 1.7157743 -0.58034772
-1.9754552 1.7121216 -0.43581623
-1.9938861 1.7280957 -0.29409483
-1.9787257 1.714956 -0.14625821
-1.9430134 1.6840044 0
-1.927593 1.6706396 0.14247872
-1.8986661 1.6415555 -0.82759458
-1.9793458 1.7113098 -0.72190148
-1.9778935 1.7100542 -0.57922089
-1.9716948 1.704695 -0.4345319
-1.9705389 1.7036954 -0.29034731
-1.9768689 1.7091683 -0.1459682
-1.9824467 1.7139907 0
-1.9158489 1.6564114 0.14146261
-1.9362041 1.6699262 -0.84307653
-1.9871134 1.713834 -0.72397858
-1.9741915 1.7026893 -0.57753384
-1.9698616 1.6989548 -0.43367514
-1.9686749 1.6979314 -0.28977016
-1.9808984 1.7084738 -0.1461132
-1.9628434 1.6929018 0
-1.9198147 1.6557907 0.14160761
-1.8932614 1.628904 -0.82352054
-1.9834757 1.7065215 -0.72190148
-1.9974293 1.7185267 -0.58372396
-1.9738646 1.6982526 -0.43410435
-1.9785678 1.702299 -0.29092333
-1.9750823 1.6993002 -0.14553265
-1.9589672 1.6854353 0
-1.9139351 1.646691 0.14102705
-1.9046042 1.6346623 -0.82759458
-2.000766 1.717195 -0.72743875
-1.9917917 1.7094927 -0.5814724
-1.9798074 1.6992068 -0.43495947
-1.9629607 1.6847479 -0.28832898
-1.9771341 1.6969125 -0.14553265
-1.9649483 1.6864537 0
-1.9178933 1.6460679 0.14117205
-1.9028194 1.6291417 -0.82596308
-2.0028396 1.7147763 -0.72743875
-1.9938558 1.7070847 -0.5814724
-1.987711 1.7018236 -0.43624377
-1.9826758 1.6975126 -0.29092333
-1.9752393 1.6911457 -0.14524265
-1.9669846 1.6840782 0
-1.8981743 1.6251647 0.13957593
-1.8953911 1.618817 -0.82188904
-2.0030041 1.7107272 -0.72674727
-1.9843282 1.6947763 -0.57809621
-1.9760998 1.6877487 -0.4332476
-1.9709562 1.6833556 -0.28890499
-1.9792552 1.6904436 -0.14538765
-1.9452782 1.6614245 0
-1.8961811 1.6194916 0.13928537
-1.9067508 1.6245385 -0.82596308
-1.9897926 1.6952896 -0.72120994
-1.9883068 1.6940237 -0.57865852
-1.9800899 1.6870229 -0.43367514
-1.9651135 1.6742632 -0.28775182
-1.9733846 1.6813102 -0.14480709
-1.9373735 1.6506289 0
-1.8882488 1.608775 0.13855982
-1.9388452 1.6478436 -0.83900249
-2.0205083 1.71725 -0.73159039
-1.9922864 1.6932639 -0.57922089
-1.9860427 1.6879573 -0.4345319
-1.9888161 1.6903145 -0.29092333
-1.9793785 1.6822933 -0.14509764
-1.9730762 1.676937 0
-1.8763298 1.5947112 0.13754371
-1.9314104 1.6375095 -0.83492845
-2.0034497 1.6985865 -0.72467011
-2.0020833 1.697428 -0.5814724
-1.9861246 1.6838979 -0.43410435
-1.9790238 1.6778774 -0.28919414
-1.9794221 1.6782151 -0.14495209
-1.9671685 1.6678262 0
-1.870335 1.5857278 0.1369637
-1.9220684 1.6256011 -0.83004022
-2.0131629 1.7026448 -0.72743875
-2.0002565 1.6917292 -0.58034772
-1.9881579 1.6814967 -0.43410435
-1.9889492 1.682166 -0.29034731
-1.9774842 1.6724694 -0.14466208
-1.9552706 1.6536821 0
-1.8643136 1.5767548 0.13638315
-1.9259185 1.6248697 -0.83085442
-2.0037174 1.6905077 -0.72328711
-1.9984113 1.686031 -0.57922089
-1.9921484 1.680747 -0.4345319
-1.965275 1.6580744 -0.28659865
-1.9775195 1.6684048 -0.14451709
-1.9393671 1.6362162 0
-1.8721699 1.5795228 0.13681814
-1.9373336 1.6304975 -0.83492845
-2.0095937 1.691313 -0.72467011
-1.9985049 1.6819805 -0.57865852
-1.9882838 1.6733781 -0.4332476
-1.9672771 1.6556985 -0.28659865
-1.9656156 1.6543002 -0.14350097
-1.9234242 1.6187911 0
-1.8581725 1.5638741 0.13565703
-1.9090154 1.6027278 -0.82188904
-2.0077968 1.6856605 -0.72328711
-2.0141597 1.6910025 -0.58259928
-1.9962043 1.6759279 -0.4345319
-1.9871101 1.6682929 -0.28919414
-1.9715894 1.6552624 -0.14379098
-1.9114246 1.6047505 0
-1.8739934 1.5733248 0.13667314
-1.9440697 1.6301566 -0.83655685
-2.0107353 1.6860576 -0.72397858
-2.0151808 1.6897852 -0.58259928
-1.9893482 1.6681238 -0.43282005
-1.9702747 1.6521302 -0.28659865
-1.9785643 1.6590812 -0.14422654
-1.9343318 1.621991 0
-1.8769327 1.5738603 0.13681814
-1.9157124 1.6024398 -0.82352054
-2.0089188 1.6804044 -0.72259295
-2.0172212 1.6873491 -0.58259928
-1.9893953 1.6640735 -0.43239248
-1.9722695 1.6497483 -0.28659865
-1.9606403 1.6400207 -0.14277542
-1.8923697 1.5829144 0
-1.8728595 1.5665945 0.13638315
-1.9157441 1.5985358 -0.82270318
-2.0244334 1.6892285 -0.72743875
-2.0231566 1.6881632 -0.58372396
-1.9854895 1.6567328 -0.43110818
-1.9683095 1.6423975 -0.28573462
-1.95464 1.6309915 -0.14219485
-1.8922848 1.5789609 0
-1.8687638 1.5593345 0.13594759
-1.9271778 1.6041304 -0.82678038
-2.0206866 1.6819646 -0.72536159
-2.0212929 1.6824694 -0.58259928
-1.9914397 1.6576203 -0.43196493
-1.9722786 1.6416711 -0.28602263
-1.9386371 1.6136688 -0.14088874
-1.9061965 1.5866661 0
-1.8706466 1.5570754 0.13594759
-1.915802 1.5907468 -0.82107484
-2.0207891 1.6779207 -0.72467011
-2.0194111 1.6767763 -0.5814724
-1.9954143 1.6568512 -0.43239248
-1.9802325 1.6442453 -0.28688779
-1.9345862 1.6063437 -0.14045319
-1.8900863 1.5693941 0
-1.876521 1.5581306 0.13623759
-1.9443674 1.6105002 -0.83248276
-2.0170171 1.6706753 -0.72259295
-2.0057809 1.6613685 -0.57696933
-1.9895068 1.6478888 -0.4306806
-1.9842077 1.6434996 -0.2871758
-1.9265219 1.595719 -0.13972762
-1.8959935 1.5704327 0
-1.8784024 1.5558621 0.13623759
-1.9329799 1.597134 -0.82678038
-2.0209739 1.6698394 -0.72328711
-2.00583 1.6573268 -0.57640702
-1.9816037 1.6373097 -0.42854118
-1.9722328 1.6295669 -0.28515747
-1.9164259 1.5834563 -0.13885652
-1.8938733 1.564822 0
-1.880281 1.5535913 0.13623759
-1.9329957 1.5932207 -0.82596308
-2.0171804 1.6626078 -0.72120994
-2.0117564 1.6581372 -0.57753384
-1.9736704 1.6267458 -0.42640013
-2.002147 1.6502168 -0.28919414
-1.9103173 1.5745287 -0.13827595
-1.8937564 1.5608788 0
-1.8841677 1.5529755 0.13638315
-1.9559219 1.6081522 -0.83492845
-2.0346909 1.6729157 -0.72674727
-2.01179 1.6540868 -0.57696933
-1.9796041 1.6276236 -0.42725688
-1.9681736 1.6182255 -0.2840043
-1.9182417 1.5771717 -0.13871151
-1.8976494 1.5602406 0
-1.8860428 1.5506978 0.13638315
-1.9215591 1.5760117 -0.81944644
-2.0483456 1.6799986 -0.73089892
-2.0000405 1.64038 -0.57303077
-1.9875258 1.6301157 -0.42854118
-1.9481345 1.5978081 -0.28083393
-1.9141167 1.5699077 -0.13827595
-1.8955126 1.554649 0
-1.8879151 1.5484177 0.13638315
-1.9502395 1.5955968 -0.83085442
-2.029021 1.6600522 -0.72328711
-2.0157816 1.6492203 -0.57696933
-1.9815468 1.6212109 -0.42682931
-1.932049 1.5807142 -0.27823958
-1.9119939 1.564306 -0.13798596
-1.8712063 1.5309355 0
-1.8958123 1.5510669 0.13681814
-1.9349344 1.5791757 -0.82352054
-2.0251925 1.6528389 -0.72120994
-2.0098987 1.6403571 -0.57471782
-1.9934462 1.6269295 -0.42896876
-1.9359596 1.5800123 -0.27852759
-1.9078414 1.5570641 -0.1375504
-1.8730549 1.5286734 0
-1.8976851 1.5487751 0.13681814
-1.9502527 1.5877553 -0.82922292
-2.0349703 1.6567264 -0.72397858
-2.0059736 1.6331193 -0.57303077
-1.9754993 1.6083093 -0.42468825
-1.9097898 1.5548134 -0.27449206
-1.9097215 1.5547577 -0.1375504
-1.8970952 1.5444783 0
-1.8935156 1.5415641 0.13638315
-1.9790338 1.6072146 -0.84063399
-2.0389163 1.6558464 -0.72467011
-2.0039968 1.6274875 -0.57190394
-1.9714688 1.6010708 -0.42340559
-1.9076477 1.5492404 -0.2739149
-1.9136215 1.5540918 -0.13769595
-1.89896 1.5421849 0
-1.9054602 1.5474639 0.1371087
-1.9502467 1.579929 -0.82759458
-2.0272682 1.6423255 -0.71982431
-2.0000446 1.6202712 -0.57021689
-1.9654232 1.5922239 -0.42169371
-1.9336352 1.5664718 -0.27737442
-1.915498 1.5517784 -0.13769595
-1.8927411 1.5333427 0
-1.9032867 1.541886 0.13681814
-1.9598438 1.5837853 -0.83085442
-2.0390131 1.6477636 -0.72328711
-2.0059497 1.6210444 -0.57134157
-1.9553622 1.5801637 -0.41912508
-1.9415636 1.5690129 -0.27823958
-1.9133257 1.5461932 -0.1374054
-1.8986369 1.534323 0
-1.9091944 1.5428547 0.1371087
-1.9521366 1.5736617 -0.82678038
-2.0214672 1.6295506 -0.71636415
-2.0039544 1.6154332 -0.57021689
-1.9532768 1.5745808 -0.41826996
-1.9233174 1.5504299 -0.27535608
-1.9111505 1.5406219 -0.13711539
-1.9045378 1.5352913 0
-1.9211702 1.548699 0.13783427
-1.9424763 1.5620058 -0.82188904
-2.0410285 1.6412545 -0.72259295
-2.0118394 1.6177828 -0.57190394
-1.9391739 1.5593501 -0.41484624
-1.9110858 1.5367637 -0.27333888
-1.9231335 1.5464516 -0.13784096
-1.9104517 1.5362538 0
-1.9270861 1.54963 0.13812426
-1.95786 1.5704846 -0.82759458
-2.048883 1.6434981 -0.72467011
-2.0019045 1.6058146 -0.5685277
-1.9050164 1.5280964 -0.40714365
-1.8927615 1.5182663 -0.27045539
-1.914868 1.5359988 -0.13711539
-1.902158 1.5258037 0
-1.9289571 1.5473003 0.13812426
-1.9867704 1.5897335 -0.83900249
-2.0136545 1.6112449 -0.71152103
-1.9919357 1.5938666 -0.56514931
-1.924899 1.5402265 -0.41099495
-1.910751 1.5289057 -0.27276173
-1.9187495 1.5353059 -0.13726039
-1.9040003 1.5235041 0
-1.9308254 1.5449685 0.13812426
-1.9577824 1.562662 -0.82596308
-2.0175586 1.6103742 -0.7122125
-1.9879082 1.5867078 -0.56346226
-1.9207377 1.5330937 -0.40971062
-1.9024915 1.5185299 -0.27132055
-1.9185742 1.5313668 -0.13711539
-1.924144 1.5358125 0
-1.9326907 1.5426344 0.13812426
-1.9422688 1.5464411 -0.81862915
-2.0371649 1.6219977 -0.71844131
-1.979887 1.5763928 -0.56064838
-1.9105431 1.5211809 -0.40714365
-1.8942096 1.5081762 -0.26987937
-1.9285544 1.5355216 -0.13769595
-1.9076765 1.5188985 0
-1.936592 1.5419211 0.13826981
-1.9789774 1.5717653 -0.83330011
-2.0116236 1.5976939 -0.70875239
-1.9758193 1.569257 -0.55895919
-1.9224287 1.5268525 -0.40928307
-1.9183041 1.5235765 -0.27304974
-1.9324412 1.5348047 -0.13784096
-1.9196981 1.5246837 0
-1.9526911 1.5508878 0.13928537
-2.0002444 1.5847185 -0.84144819
-2.0253475 1.6046066 -0.71290404
-1.9637709 1.5558218 -0.55501848
-1.9162238 1.518152 -0.4075712
-1.9018996 1.5068035 -0.27045539
-1.9424412 1.5389231 -0.13842151
-1.9419339 1.5385212 0
-1.9464167 1.5420728 0.13870482
-1.9769508 1.5623794 -0.83085442
-2.021378 1.5974901 -0.71082687
-1.9437265 1.5361223 -0.54882836
-1.9120127 1.5110589 -0.4062869
-1.9361871 1.530164 -0.27506807
-1.9361446 1.5301303 -0.13784096
-1.9764609 1.5619922 0
-1.946242 1.5381103 0.13855982
-2.0031133 1.5810905 -0.84144819
-2.0203755 1.5947157 -0.71013534
-1.9546247 1.5428175 -0.55164224
-1.9149461 1.5114986 -0.40671608
-1.8965064 1.4969438 -0.26930222
-1.9452273 1.5354 -0.13842151
-1.9324663 1.5253276 0
-1.9573671 1.5449822 0.13928537
-1.9564762 1.5404458 -0.82107484
-2.0045626 1.578307 -0.7039066
-1.9524908 1.5373079 -0.55051535
-1.918786 1.5107702 -0.40714365
-1.9287984 1.5186535 -0.27362689
-1.9470811 1.5330484 -0.13842151
-1.9383935 1.5262083 0
-1.9592324 1.5426159 0.13928537
-2.0049865 1.5747199 -0.84063399
-2.0104105 1.57898 -0.7052896
-1.9503542 1.5318117 -0.54939067
-1.9145516 1.5036923 -0.40585932
-1.9326642 1.5179179 -0.2739149
-1.9489321 1.5306946 -0.13842151
-1.9545652 1.5351189 0
-1.9631444 1.5418571 0.13943094
-1.9659384 1.5363846 -0.82270318
-2.0181777 1.5772096 -0.70667523
-1.9420342 1.5177033 -0.54601228
-1.9282913 1.5069633 -0.40799877
-1.9546664 1.5275755 -0.27650926
-1.9587617 1.5307759 -0.13885652
-1.954172 1.527189 0
-1.9648114 1.5355037 0.13928537
-1.9794929 1.5431284 -0.82759458
-2.0062299 1.5639714 -0.70182943
-1.9338489 1.5075463 -0.54319841
-1.9118915 1.4904292 -0.40414748
-1.9279563 1.5029527 -0.27247372
-1.9647125 1.5316062 -0.13914707
-1.9724281 1.537621 0
-1.9687206 1.5347307 0.13943094
-1.9657471 1.5285977 -0.82107484
-1.9744523 1.535367 -0.69006336
-1.9356691 1.5052085 -0.54319841
-1.9319273 1.5022988 -0.40799877
-1.939978 1.5085592 -0.2739149
-1.9645123 1.5276375 -0.13900207
-1.9516915 1.5176679 0
-1.9746721 1.5355378 0.13972093
-1.9910281 1.5443997 -0.83085442
-1.9723452 1.5299078 -0.68868035
-1.9455172 1.5090978 -0.54544997
-1.9256277 1.49367 -0.4062869
-1.9561074 1.5173124 -0.27593324
-1.9622465 1.5220745 -0.13871151
-1.9576328 1.5184956 0
-1.9703646 1.5283715 0.13928537
-1.9655296 1.5208206 -0.81944644
-1.9860936 1.536732 -0.69283199
-1.9413086 1.5020797 -0.54376078
-1.941645 1.5023401 -0.40928307
-1.9231654 1.4880416 -0.27103254
-1.9846392 1.5356066 -0.14016318
-1.9882864 1.5384287 0
-1.9804302 1.5323501 0.13986593
-2.0045357 1.547133 -0.83492845
-1.9720608 1.5220683 -0.68729472
-1.9451394 1.50129 -0.54432529
-1.9312696 1.4905851 -0.40671608
-1.9638596 1.5157385 -0.27650926
-1.9823753 1.5300292 -0.13987263
-1.9777784 1.5264813 0
-1.9863983 1.5331342 0.14015649
-1.9711556 1.5175726 -0.82026064
-1.9579954 1.5074408 -0.68175739
-1.94091 1.4942869 -0.5426361
-1.9839114 1.5273932 -0.4174132
-1.9595393 1.5086293 -0.27564409
-1.9862795 1.5292163 -0.14001763
-1.9837497 1.5272688 0
-1.9964851 1.5370736 0.14073706
-1.9573059 1.5031465 -0.81374091
-1.9618109 1.5066062 -0.68245155
-1.950775 1.498131 -0.5448876
-1.9470781 1.4952919 -0.40928307
-1.9593114 1.5046867 -0.27535608
-1.9860669 1.525234 -0.13987263
-2.0000362 1.535962 0
-1.9942153 1.5314918 0.1404465
-1.966969 1.5067925 -0.81700081
-1.96363 1.5042347 -0.68245155
-1.9525838 1.4957728 -0.5448876
-1.942768 1.4882534 -0.40799877
-1.9734516 1.5117586 -0.27708641
-1.9899691 1.5244118 -0.14001763
-1.9894987 1.5240514 0
-1.9960643 1.529081 0.1404465
-1.9393281 1.4819033 -0.80477554
-1.9853764 1.5170903 -0.68937182
-1.9523727 1.4918711 -0.54432529
-1.9486482 1.4890251 -0.40885553
-1.9752768 1.5093729 -0.27708641
-1.9938803 1.5235884 -0.14016318
-1.96859 1.5042633 0
-1.9958478 1.5250919 0.1403015
-1.9450524 1.4825584 -0.80640703
-1.9931957 1.5192542 -0.69144899
-1.9662949 1.4987499 -0.54770148
-1.9647313 1.4975581 -0.41185006
-1.9832643 1.5116843 -0.27795044
-1.9977844 1.5227518 -0.14030819
-2.0407753 1.5555203 0
-1.993552 1.5195258 0.14001094
-1.940938 1.4757179 -0.80396134
-1.9530931 1.4849596 -0.67691427
-1.976195 1.5025243 -0.54995304
-1.9644979 1.4936308 -0.41142249
-1.9747968 1.5014611 -0.27650926
-2.0058303 1.5250564 -0.14074375
-2.0157232 1.532578 0
-2.0078015 1.5265549 0.14088205
-1.9663514 1.491294 -0.81374091
-1.9648786 1.490177 -0.68037438
-1.9597903 1.4863181 -0.5448876
-1.9581198 1.4850512 -0.40971062
-1.9972218 1.5147064 -0.27939275
-2.0055952 1.5210568 -0.14059818
-2.0134304 1.526999 0
-2.0199945 1.5319773 0.14160761
-1.9602674 1.4829524 -0.81048107
-1.9786783 1.4968804 -0.68452603
-1.9656336 1.4870119 -0.54601228
-1.970147 1.4904263 -0.41185006
-2.0258641 1.5325766 -0.28314027
-2.0095098 1.5202045 -0.14074375
-2.036025 1.5402634 0
-2.030133 1.5358061 0.14218816
-1.9462745 1.4686725 -0.80396134
-2.0105262 1.5171573 -0.69490916
-1.9735156 1.4892288 -0.54770148
-1.9658049 1.4834102 -0.41056737
-2.0008764 1.5098755 -0.27939275
-2.0237863 1.5271634 -0.1416143
-2.0441189 1.5425065 0
-21.648415 16.336046 1.5148462
-1.9697715 1.4826714 -0.81292677
-1.9522297 1.4694675 -0.67414564
-1.9773418 1.4883697 -0.54826385
-1.973743 1.4856609 -0.41185006
-1.975829 1.487231 -0.27564409
-2.0360084 1.5325288 -0.14233986
-2.0480585 1.541599 0
-21.670212 16.311438 1.5149912
-1.9794675 1.4862263 -0.81618661
-1.9780786 1.4851834 -0.68245155
-1.9913341 1.4951359 -0.55164224
-1.9878577 1.4925258 -0.41441867
-2.0189919 1.5159022 -0.28140995
-2.0316229 1.5253856 -0.14190429
-2.054086 1.5422513 0
-21.69614 16.289923 1.5154268
-1.9891751 1.4897598 -0.81944644
-1.9798716 1.4827921 -0.68245155
-1.9850042 1.4866362 -0.54939067
-1.9855464 1.4870422 -0.41356191
-1.9959793 1.4948558 -0.27795044
-2.0355504 1.5244918 -0.14204986
-2.0351133 1.5241646 0
-21.740767 16.282387 1.5171684
-1.9493939 1.456293 -0.802333
-1.9957252 1.4909047 -0.68729472
-2.0030839 1.496402 -0.55389374
-1.9976305 1.4923282 -0.415703
-2.0226495 1.5110186 -0.28140995
-2.0415504 1.5251384 -0.14233986
-2.0369534 1.5217044 0
-21.756256 16.252993 1.5168779
-1.9650195 1.46427 -0.80803537
-1.9874687 1.4809985 -0.68383455
-2.0048904 1.4939806 -0.55389374
-1.9953114 1.4868426 -0.41484624
-2.0016658 1.4915777 -0.27823958
-2.030894 1.5133578 -0.1414693
-2.0262737 1.5099148 0
-21.792547 16.239113 1.518039
-1.9500417 1.4512775 -0.80151564
-2.0346544 1.5142487 -0.69975495
-2.0119019 1.4973158 -0.55558079
-1.9982667 1.487168 -0.41527379
-2.0170851 1.5011733 -0.28025678
-2.0422287 1.5198858 -0.14219485
-2.0167487 1.5009229 0
-15.594979 11.606236 1.0858362
-1.9597319 1.4548131 -0.80477554
-1.9881372 1.4758999 -0.68314308
-1.9933118 1.4797412 -0.54995304
-2.0103662 1.4924016 -0.4174132
-2.0521262 1.5234022 -0.28486946
-2.0378025 1.512769 -0.14175931
-9.0164185 6.6933665 0
-15.621506 11.596674 1.0867068
-1.9753946 1.4627414 -0.81048107
-2.0201561 1.4958864 -0.69352347
-2.0093944 1.4879175 -0.55389374
-2.0121679 1.4899714 -0.4174132
-2.0310984 1.5039889 -0.28169796
-2.047982 1.5164909 -0.14233986
-9.0244989 6.682467 0
-15.629249 11.573155 1.0862718
-2.0129426 1.4867824 -0.82514888
-2.0038021 1.4800313 -0.68729472
-2.0152745 1.4885048 -0.55501848
-1.9995185 1.4768673 -0.41441867
-2.0204351 1.4923165 -0.27996877
-2.0477247 1.5124729 -0.14219485
-9.0011644 6.6483631 0
-15.557528 11.490968 1.0803212
-1.9848952 1.4623629 -0.81292677
-2.0035713 1.4761224 -0.68660319
-2.0150278 1.484563 -0.55445611
-2.0136981 1.4835832 -0.41698566
-2.047225 1.5082841 -0.28342828
-2.0537307 1.5130771 -0.14248486
-9.002903 6.6328497 0
-15.537929 11.447501 1.077999
-1.9886504 1.4614257 -0.81374091
-1.9932277 1.4647894 -0.68245155
-2.0311544 1.4926611 -0.55839682
-2.0299711 1.4917915 -0.41998184
-2.0177808 1.482833 -0.27910361
-2.0450902 1.5029023 -0.14175931
-9.0004272 6.6142626 0
-15.551749 11.428719 1.077999
-1.9844327 1.4546367 -0.81129527
-2.0051112 1.4697944 -0.68591172
-2.0165622 1.4781884 -0.55389374
-2.0297039 1.4878215 -0.41955429
-2.0383437 1.4941546 -0.28169796
-5.5444689 4.0642281 -0.38398468
-9.0084133 6.6033826 0
-0 0 0
-2.0061445 1.4668287 -0.81944644
-2.0149863 1.4732935 -0.68868035
-2.0368049 1.4892466 -0.55895919
-2.0377107 1.4899089 -0.42083696
-2.0505931 1.499328 -0.28314027
-5.5430808 4.0529232 -0.38354912
-8.9743767 6.5617771 0
-0 0 0
-1.9799545 1.4440112 -0.80803537
-2.02284 1.4752884 -0.69075483
-2.034493 1.4837871 -0.55783236
-2.0478058 1.4934963 -0.42254883
-2.0524032 1.4968492 -0.28314027
-5.5374789 4.0385685 -0.38282356
-8.9843998 6.5524607 0
-15.584678 11.366145 1.0774184
-1.9836946 1.4430704 -0.80884957
-2.0225945 1.4713687 -0.69006336
-2.054775 1.494779 -0.56289774
-2.0309279 1.4774309 -0.41869754
-2.0416567 1.4852359 -0.28140995
-5.5360489 4.0272875 -0.382388
-8.9628506 6.5201693 0
-15.608905 11.354947 1.078144
-2.0074437 1.4566411 -0.81781495
-2.0751319 1.505757 -0.7073667
-2.046299 1.4848353 -0.56008387
-2.0576441 1.4930675 -0.42383313
-2.0581059 1.4934026 -0.28342828
-5.5409112 4.0205951 -0.382388
-8.987566 6.5215564 0
-15.61631 11.331505 1.077709
-1.9991932 1.44697 -0.81374091
-2.0485015 1.4826583 -0.69767779
-2.0460353 1.4808732 -0.55952156
-2.0511286 1.4845597 -0.42212126
-2.0494347 1.4833336 -0.2819871
-5.5436621 4.0123749 -0.38224301
-8.9785814 6.4984903 0
-15.623673 11.308055 1.0772734
-2.0169718 1.4561272 -0.82026064
-2.0279148 1.4640273 -0.69006336
-2.0457649 1.476914 -0.55895919
-2.0487621 1.4790778 -0.42126617
-4.0894938 2.952358 -0.56219292
-5.5485063 4.0056739 -0.38224301
-8.9632139 6.4708786 0
-15.635221 11.287649 1.0771284
-2.0087032 1.4464688 -0.81618661
-2.048003 1.4747686 -0.69629216
-2.049608 1.4759245 -0.55952156
-2.0630429 1.4855989 -0.42383313
-4.0825572 2.939853 -0.5607506
-5.5406947 3.9898589 -0.38137245
-8.9372358 6.4357109 0
-15.648849 11.268749 1.0771284
-2.0204847 1.4512486 -0.82026064
-2.06812 1.4854635 -0.70252091
-2.0658379 1.4838244 -0.56346226
-2.0648365 1.4831051 -0.42383313
-4.092411 2.939446 -0.56161577
-5.5497284 3.9861898 -0.38166243
-8.9555721 6.432497 0
-15.658228 11.246798 1.0768379
-2.0041561 1.4358525 -0.81292677
-2.0943861 1.5004967 -0.71082687
-2.0779548 1.4887247 -0.56627613
-2.0749741 1.4865892 -0.42554501
-4.0896497 2.9299784 -0.5607506
-5.5460916 3.973428 -0.38108188
-8.9379511 6.4034829 0
-15.667585 11.224846 1.0765479
-2.0280039 1.4492329 -0.82188904
-2.049257 1.4644207 -0.69490916
-2.0694177 1.4788277 -0.56346226
-3.2860003 2.3482106 -0.6733253
-4.0889826 2.92203 -0.56017458
-5.5530009 3.9682329 -0.3812269
-8.9393358 6.3881435 0
-15.685362 11.208925 1.0768379
-2.0619559 1.469735 -0.83492845
-2.0510249 1.4619435 -0.69490916
-2.0836136 1.4851722 -0.5668385
-3.2783854 2.3367896 -0.67118591
-4.0925102 2.9170871 -0.56017458
-5.5493279 3.9554875 -0.38064632
-8.9300938 6.365253 0
-16.183418 11.535327 1.110073
-2.0214303 1.4371685 -0.81781495
-2.0671046 1.4696413 -0.69975495
-2.0750542 1.4752933 -0.56402463
-3.2770181 2.329849 -0.67032915
-4.093926 2.9106429 -0.55988657
-5.5646982 3.9563119 -0.38137245
-8.9186907 6.3408875 0
-16.214287 11.527809 1.1112341
-2.0796165 1.4747572 -0.84063399
-2.0750122 1.4714921 -0.70182943
-2.0934165 1.4845434 -0.5685277
-3.2882068 2.3318274 -0.672041
-4.0995479 2.9071887 -0.56017458
-5.5588703 3.9420655 -0.38064632
-8.9157343 6.3225803 0
-16.198534 11.487168 1.1092024
-2.0591989 1.4565418 -0.83166862
-2.1116059 1.4936111 -0.71359551
-2.0806859 1.4717404 -0.56458694
-3.2889283 2.3263714 -0.67161345
-4.1009479 2.9007409 -0.55988657
-5.5530248 3.9278445 -0.37992078
-8.9063692 6.2997799 0
-16.199678 11.458587 1.1083319
-2.0468183 1.4440773 -0.82596308
-2.0826659 1.4693686 -0.70321506
-2.0803885 1.4677618 -0.56402463
-3.2791555 2.3135192 -0.66904646
-4.0981073 2.8913088 -0.55902141
-5.5577664 3.9211318 -0.37992078
-8.9203482 6.2935104 0
-16.215633 11.440501 1.1084769
-2.0566468 1.4472927 -0.82922292
-2.1049528 1.4812863 -0.71013534
-2.7720008 1.9506978 -0.75089157
-3.2798431 2.3080738 -0.66861725
-4.1079459 2.8908219 -0.55988657
-5.5667548 3.9174073 -0.38021132
-8.9109201 6.2707453 0
-16.214567 11.41043 1.1074607
-2.0777462 1.4602644 -0.83737415
-2.0976372 1.474244 -0.7073667
-2.7690251 1.9461035 -0.74976689
-3.2938423 2.3149512 -0.67118591
-4.1033411 2.8838766 -0.55902141
-5.5648646 3.9110522 -0.37992078
-8.9019356 6.2563848 0
-16.19808 11.384201 1.1058646
-2.0633183 1.4464029 -0.83085442
-2.1158512 1.4832289 -0.71290404
-2.7672174 1.939842 -0.74864215
-3.288229 2.3050754 -0.66947401
-4.1089387 2.8803995 -0.55930942
-5.5674605 3.9028351 -0.37977576
-8.8924398 6.2336731 0
-16.16927 11.334789 1.1029619
-2.0670881 1.4453237 -0.83166862
-2.1258659 1.4864217 -0.71567267
-2.7674708 1.9350367 -0.74807769
-3.2931137 2.3025701 -0.66990155
-4.1102986 2.8739519 -0.55902141
-5.5657816 3.8916368 -0.3793402
-8.9020967 6.2244134 0
-16.044535 11.218461 1.0935279
-2.0830259 1.4527233 -0.83737415
-2.1935089 1.5297753 -0.73782182
-2.7823157 1.940415 -0.75145608
-3.2916863 2.2956553 -0.66904646
-4.1116486 2.8675051 -0.5587334
-5.5662212 3.8819389 -0.37905023
-8.8669262 6.1838837 0
-15.996281 11.155968 1.0893196
-2.0847797 1.4502052 -0.83737415
-2.3704031 1.6488893 -0.79665226
-2.7658875 1.9239944 -0.74639064
-3.2944577 2.2916763 -0.66904646
-4.1108599 2.8595781 -0.55815625
-5.5666375 3.8722398 -0.37875965
-8.8807955 6.1776195 0
-16.001217 11.130696 1.088739
-2.0743423 1.4392288 -0.83248276
-2.4424713 1.6946455 -0.82018441
-2.7828176 1.9307859 -0.7503292
-3.2951093 2.2862263 -0.66861725
-4.118566 2.8575606 -0.5587334
-5.5670466 3.8625512 -0.37846965
-8.873292 6.1565037 0
-16.006115 11.105429 1.0881585
-2.0943694 1.4493784 -0.83981669
-2.4692726 1.7088248 -0.82849038
-2.7705288 1.9173048 -0.74639064
-3.2978692 2.282243 -0.66861725
-4.122016 2.852582 -0.5587334
-5.5802565 3.8617363 -0.37905023
-8.8657417 6.1354094 0
-16.013109 11.081643 1.0877229
-2.1042557 1.4524628 -0.84307653
-2.469265 1.7044106 -0.82779622
-2.7749326 1.9153978 -0.74695295
-3.3069644 2.2826328 -0.66990155
-4.1211982 2.8446579 -0.55815625
-5.5827818 3.8535161 -0.37890521
-8.8645811 6.1187787 0
-16.030762 11.065235 1.0880129
-2.1080508 1.4513247 -0.84389389
-2.4816527 1.7085376 -0.83125639
-2.7814267 1.9149224 -0.74807769
-3.3076079 2.2771809 -0.66947401
-4.1310258 2.8440776 -0.55902141
-5.5767264 3.8393958 -0.3781791
-8.8633938 6.10216 0
-16.050543 11.050279 1.0884484
-2.0833175 1.4305894 -0.83330011
-2.4899216 1.7097995 -0.83333349
-2.7795534 1.9086862 -0.74695295
-3.3082428 2.2717309 -0.66904646
-4.1259308 2.8332274 -0.55786824
-5.5770817 3.8297157 -0.3778891
-8.8643227 6.0870247 0
-16.074591 11.03823 1.089174
-2.1115518 1.4462261 -0.84389389
-2.5023329 1.7138766 -0.83679366
-2.7797632 1.9038918 -0.74639064
-3.3025136 2.2619295 -0.66733462
-4.1250873 2.8253198 -0.55729222
-5.5795631 3.8215072 -0.37774411
-8.8695259 6.0748405 0
-16.135084 11.051105 1.0923674
-2.1520681 1.4701592 -0.85937583
-2.4857602 1.6981168 -0.83056486
-2.7778616 1.8976624 -0.74526376
-3.3031185 2.2564852 -0.6669054
-4.1199551 2.8144975 -0.55613905
-5.5820332 3.8132982 -0.37759909
-8.8553743 6.0494413 0
-16.229954 11.087296 1.0978824
-2.135462 1.4550337 -0.85204196
-2.5189109 1.716303 -0.84094799
-2.7927554 1.9028916 -0.74864215
-3.3185751 2.261168 -0.66947401
-4.1297593 2.8138821 -0.55700308
-5.5801926 3.8021598 -0.37716353
-8.8734293 6.0460629 0
-0 0 0
-2.1433532 1.4566214 -0.85448766
-2.4794838 1.6850554 -0.82710475
-2.7929449 1.8980834 -0.74807769
-3.3170545 2.2542679 -0.66861725
-4.1353016 2.810348 -0.55729222
-5.5869298 3.7968736 -0.37730855
-8.8462887 6.0119314 0
-0 0 0
-2.1287446 1.4429363 -0.84796792
-2.4918993 1.689095 -0.83056486
-2.7868233 1.8890047 -0.74582613
-3.3134074 2.2459414 -0.66733462
-4.1322694 2.8009942 -0.55642706
-5.5893645 3.7886636 -0.37716353
-8.8535461 6.0012379 0
-0 0 0
-2.124342 1.4362088 -0.84552222
-2.5084889 1.69592 -0.83541065
-2.7891037 1.885636 -0.74582613
-3.3224926 2.2462454 -0.66861725
-4.1399322 2.7988937 -0.55700308
-5.5853281 3.7760859 -0.37658298
-8.8284569 5.9686756 0
-0 0 0
-2.1650133 1.459897 -0.86100733
-2.5292547 1.7055098 -0.84163946
-2.8019197 1.8893715 -0.74864215
-3.3166907 2.2364883 -0.6669054
-4.1390262 2.7910001 -0.55642706
-5.5898867 3.7693343 -0.37658298
-8.8205566 5.9478173 0
-0 0 0
-2.1462626 1.4434837 -0.85285616
-2.5021732 1.6828538 -0.83195055
-2.7957671 1.8803124 -0.74639064
-3.321527 2.2339158 -0.66733462
-4.1488361 2.7903285 -0.55729222
-5.596591 3.7640259 -0.37672797
-8.8450127 5.9487743 0
-0 0 0
-2.1808465 1.4629194 -0.86589557
-2.5062861 1.6812255 -0.83264202
-2.8001451 1.878347 -0.74695295
-3.3114285 2.2213178 -0.66476595
-4.1436129 2.7795501 -0.55613905
-5.5860276 3.7471266 -0.37571186
-8.8262587 5.9206853 0
-0 0 0
-2.1497447 1.4382929 -0.85285616
-2.4853776 1.6628489 -0.82502759
-2.8087502 1.8792024 -0.74864215
-3.3290472 2.2273088 -0.66776216
-4.1448126 2.7730987 -0.55584991
-5.5970321 3.7447104 -0.37614742
-8.8096113 5.8940959 0
-16.364443 10.948677 1.0997691
-2.1593888 1.4372032 -0.8553018
-2.4873023 1.6554493 -0.82433605
-2.811162 1.8709973 -0.74807769
-3.33442 2.2192571 -0.66776216
-4.1450486 2.7587793 -0.55498588
-5.6017432 3.728297 -0.37585741
-8.8195 5.8699079 0
-0 0 0
-2.1540797 1.4317925 -0.85285616
-2.4966593 1.6595012 -0.82710475
-2.8101778 1.8678935 -0.74751532
-3.3378961 2.2186618 -0.6681897
-4.1531706 2.7605658 -0.55584991
-5.5996623 3.7220325 -0.37556687
-8.8165407 5.8602552 0
-0 0 0
-2.1702304 1.4387498 -0.85856169
-2.5300295 1.677278 -0.83748782
-2.8082011 1.8616912 -0.74639064
-3.3448577 2.2174666 -0.66904646
-4.1586652 2.7569788 -0.55613905
-5.5998282 3.712395 -0.37527686
-8.8040953 5.836657 0
-0 0 0
-2.153414 1.4238589 -0.85122776
-2.5174036 1.6645325 -0.83264202
-2.8168008 1.862497 -0.74807769
-3.3411088 2.2091746 -0.66776216
-4.1576743 2.7490959 -0.5555619
-5.60431 3.705626 -0.37527686
-8.8198242 5.8317566 0
-0 0 0
-2.1757622 1.4348603 -0.85937583
-2.506851 1.6532052 -0.82849038
-2.8084455 1.8520991 -0.74526376
