# .PCD v0.7 - Point Cloud Data file format
VERSION 0.7
FIELDS x y z
SIZE 4 4 4
TYPE F F F
COUNT 1 1 1
WIDTH 1536
HEIGHT 1
VIEWPOINT 0 0 0 1 0 0 0
POINTS 1536
DATA ascii
-1.5426135 2.6521132 -0.84648526
-1.8294322 3.1452217 -0.80605316
-2.2294128 3.8328817 -0.73922819
-2.9156964 5.0127635 -0.64636987
-4.27946 7.3573923 -0.47541779
-8.7194681 14.990803 0
-9.1614218 15.750626 1.0177693
-1.3255843 2.2726662 -0.86752397
-1.5635104 2.680582 -0.85617417
-1.8396311 3.153981 -0.80886704
-2.2379239 3.8368394 -0.74051249
-2.9126277 4.9935951 -0.64435154
-4.2765656 7.3320174 -0.47411168
-8.761179 15.020725 0
-9.2288857 15.822591 1.0231394
-1.3345722 2.2817364 -0.8716011
-1.5464824 2.6440423 -0.84509963
-1.8357412 3.1385918 -0.80548865
-2.2334847 3.8186195 -0.73751628
-2.9225783 4.9967723 -0.6452167
-4.2723002 7.3044105 -0.47266001
-8.7780046 15.007875 0
-9.2335653 15.786753 1.0215427
-1.341076 2.2865119 -0.87404364
-1.55983 2.6594839 -0.8506369
-1.833106 3.1254148 -0.80267477
-2.2380972 3.815918 -0.73751628
-2.9273014 4.9909997 -0.64492756
-4.2732382 7.285799 -0.47178945
-8.7829685 14.974813 0
-9.0515108 15.432673 0.99933755
-1.3413342 2.280633 -0.8724153
-1.5490508 2.6338077 -0.84302247
-1.8471862 3.1407192 -0.80717784
-2.2414062 3.8110001 -0.73708874
-2.92153 4.9673958 -0.64233321
-4.2767692 7.2716713 -0.4712089
-8.8076515 14.975404 0
-9.0095577 15.3187 0.99266142
-1.3528792 2.2939153 -0.87812084
-1.5547835 2.63626 -0.84440809
-1.8471062 3.1319168 -0.80548865
-2.2420959 3.8016534 -0.73580444
-2.9262173 4.9616361 -0.6420452
-4.2789536 7.2553096 -0.47048333
-8.8191309 14.953545 0
-9.0122204 15.280944 0.99091977
-1.3556499 2.2922788 -0.87812084
-1.5618001 2.6408598 -0.84648526
-1.8431312 3.1165645 -0.80211246
-2.2427714 3.7923193 -0.73452175
-2.9322104 4.958097 -0.6420452
-4.281105 7.2389531 -0.4697578
-9.233283 15.61263 0
-9.0333261 15.274521 0.99121028
-1.3558949 2.2863834 -0.87648934
-1.5611497 2.6324952 -0.84440809
-1.8546695 3.127444 -0.80548865
-2.2460387 3.7873921 -0.73409253
-2.9316037 4.943429 -0.64060402
-4.2832227 7.2226019 -0.46903223
-9.2455053 15.590271 0
-9.0517759 15.263595 0.99121028
-1.3586565 2.2847433 -0.87648934
-1.5771497 2.6521659 -0.85132837
-1.8532522 3.1164651 -0.80323714
-2.2479918 3.7802668 -0.73323745
-2.936254 4.9376621 -0.64031601
-4.2866344 7.2084875 -0.46845168
-9.255024 15.563428 0
-9.066227 15.245944 0.99077475
-1.3487601 2.2618756 -0.86834127
-1.5803533 2.6502583 -0.85132837
-1.8479109 3.0989532 -0.79929858
-2.2565033 3.7841644 -0.73452175
-2.944865 4.9385495 -0.64089203
-4.28336 7.1832104 -0.467145
-9.2751541 15.554467 0
-9.0819826 15.230518 0.99048477
-1.3629067 2.2793341 -0.87567514
-1.5668184 2.620357 -0.84233093
-1.8568698 3.1054413 -0.80155009
-2.2518511 3.7660103 -0.7315256
-2.9468467 4.9283257 -0.64002687
-4.2840381 7.1646528 -0.46627444
-9.2939415 15.543248 0
-9.1043758 15.226217 0.99091977
-1.3542222 2.2586095 -0.86834127
-1.5674057 2.6141629 -0.84094799
-1.8606209 3.1031954 -0.80155009
-2.2590425 3.7676942 -0.73238236
-2.9461505 4.913672 -0.63858569
-4.291357 7.1572447 -0.46612942
-9.3127155 15.532007 0
-9.129447 15.226346 0.99164534
-1.3594949 2.261204 -0.86996961
-1.584779 2.6359117 -0.84855974
-1.8722221 3.1140065 -0.80492634
-2.2635934 3.7649617 -0.73238236
-2.9507542 4.9078941 -0.63829768
-4.2879529 7.1320138 -0.46482331
-9.3314762 15.520743 0
-9.1545372 15.226445 0.99237144
-1.3595872 2.2582669 -0.86915547
-1.5760194 2.6177595 -0.84302247
-1.8727937 3.1106999 -0.80436397
-2.2658677 3.7635937 -0.73238236
-2.9510531 4.9016829 -0.63772166
-4.2855558 7.1182847 -0.4640972
-9.3341417 15.503957 0
-9.1623898 15.218679 0.99222589
-1.3597577 2.2523866 -0.86752397
-1.585668 2.6265981 -0.84648526
-1.8673575 3.0932059 -0.80042326
-2.2637761 3.7498584 -0.73024124
-2.9596446 4.9025378 -0.63829768
-4.2834158 7.095314 -0.46293664
-10.510877 17.410866 0
-9.1874905 15.218726 0.99295199
-1.3829572 2.2845719 -0.88056338
-1.5862396 2.6203837 -0.84509963
-1.8776715 3.1018136 -0.80323714
-2.2669773 3.7449265 -0.72981369
-2.9628899 4.894537 -0.63772166
-4.2839098 7.0767913 -0.46206552
-10.533254 17.400375 0
-9.2058725 15.207614 0.99295199
-1.3780242 2.2702262 -0.87567514
-1.5946118 2.6270435 -0.84786826
-1.8761493 3.0908625 -0.80098778
-2.2661726 3.7334065 -0.72810185
-2.9634335 4.8821092 -0.63656849
-4.285717 7.0605059 -0.46133998
-10.523211 17.336466 0
-9.2350225 15.214241 0.99411255
-1.3781937 2.264333 -0.87404364
-1.5886531 2.6101117 -0.84302247
-1.8759181 3.0820799 -0.79929858
-2.2693486 3.7284751 -0.72767431
-2.9652948 4.8718944 -0.63570333
-4.2820878 7.0353475 -0.46003386
-10.50356 17.25705 0
-9.2479954 15.194192 0.993532
-1.3783561 2.2584505 -0.8724153
-1.6074891 2.6338875 -0.85132837
-1.8849356 3.0884864 -0.80155009
-2.2738521 3.7257302 -0.72767431
-2.9711792 4.8683081 -0.63570333
-4.2811084 7.0146403 -0.45901775
-10.500003 17.204363 0
-9.2690582 15.187447 0.99382252
-1.3799305 2.2487912 -0.86996961
-1.5967932 2.6021996 -0.84233093
-1.8844177 3.070924 -0.7981717
-2.2868783 3.7267904 -0.72895861
-2.9748163 4.8478823 -0.633973
-4.3021259 7.0109205 -0.45945328
-10.474854 17.07025 0
-9.3152475 15.180509 0.99483865
-1.3761718 2.236599 -0.86589557
-1.5973095 2.595999 -0.84094799
-1.8921229 3.0751393 -0.79986089
-2.2846496 3.7130864 -0.72681755
-2.9752553 4.8354812 -0.63282096
-4.2874465 6.9680967 -0.45698607
-10.45729 16.995525 0
-9.3349438 15.171453 0.99498367
-1.3788733 2.2349346 -0.86589557
-1.6057142 2.6026075 -0.84371662
-1.8864968 3.0577114 -0.79592019
-2.2877879 3.7081404 -0.72638994
-2.9770203 4.8252769 -0.6319558
-4.2808537 6.9385834 -0.45538938
-9.1510143 14.83234 0
-9.3587265 15.169007 0.99556422
-1.3867741 2.2416744 -0.86915547
-1.624696 2.6262674 -0.85202253
-1.8995486 3.0705576 -0.79986089
-2.2949703 3.7097437 -0.7272467
-2.986932 4.8282771 -0.63282096
-4.2824006 6.922359 -0.45466384
-9.1648207 14.81463 0
-9.3784142 15.159896 0.99570924
-1.3907833 2.2420955 -0.86996961
-1.6225785 2.6157749 -0.84925389
-1.8952239 3.0553091 -0.79648465
-2.3008032 3.7091475 -0.72767431
-2.9913967 4.8224602 -0.63253182
-4.2866511 6.910553 -0.45422828
-9.185461 14.807973 0
-9.400835 15.155179 0.99614477
-1.3895739 2.2341151 -0.86752397
-1.6164615 2.5988979 -0.84440809
-1.9069635 3.0659583 -0.79986089
-2.2985055 3.6954675 -0.72553486
-2.9890277 4.8056684 -0.63080263
-4.2895083 6.8965421 -0.45364773
-9.2088451 14.805702 0
-14.6394 23.536783 1.5482264
-1.4092792 2.2597039 -0.87812084
-1.6129639 2.5863013 -0.84094799
-1.89991 3.0464041 -0.79535782
-2.3016119 3.6905115 -0.72510731
-2.9907248 4.7954669 -0.62993747
-4.2937174 6.8847461 -0.45321271
-9.2253523 14.792358 0
-14.677455 23.534513 1.5492425
-1.4015249 2.2412345 -0.8716011
-1.614759 2.5822256 -0.84025645
-1.9049355 3.0462584 -0.79592019
-2.3047044 3.685545 -0.7246781
-2.995147 4.789659 -0.62964946
-4.2965221 6.8707404 -0.45263216
-9.2514954 14.794436 0
-14.719661 23.538797 1.5506941
-1.3884486 2.2173424 -0.86263573
-1.6176488 2.5833738 -0.84094799
-1.9094751 3.0494182 -0.79704702
-2.3082969 3.6863339 -0.72510731
-2.9925492 4.7790799 -0.62849629
-4.2951565 6.859334 -0.45205161
-9.2673368 14.79987 0
-14.760077 23.571737 1.5534513
-1.4160988 2.2554364 -0.87812084
-1.6261053 2.589916 -0.84371662
-1.9077539 3.038501 -0.79479545
-2.3182044 3.69223 -0.72681755
-2.9996958 4.7776489 -0.6287843
-4.2896218 6.8321285 -0.45059994
-9.3225775 14.848174 0
-14.807889 23.58469 1.555483
-1.4056526 2.2328033 -0.86996961
-1.6078482 2.5539801 -0.83264202
-1.9100716 3.0340455 -0.79423314
-2.3103566 3.6698766 -0.72296625
-3.0013363 4.7674608 -0.62792027
-4.2951078 6.8225465 -0.45030993
-9.3474436 14.847909 0
-14.864063 23.610762 1.5583858
-1.4083496 2.2311032 -0.86996961
-1.6229841 2.5711265 -0.83887082
-1.9137362 3.0317354 -0.79423314
-2.3189013 3.6735966 -0.72425056
-3.0043309 4.7594519 -0.62734312
-4.2936378 6.8019686 -0.44929382
-9.4042692 14.898215 0
-14.900901 23.605963 1.5592564
-1.4136906 2.2335808 -0.8716011
-1.6207228 2.5606842 -0.83610219
-1.910605 3.018688 -0.79141927
-2.3178468 3.6621156 -0.72253865
-3.0017827 4.7427096 -0.62561393
-4.3018537 6.7967758 -0.44929382
-9.4528866 14.935225 0
-14.950259 23.620876 1.5614336
-1.4150603 2.2297781 -0.87078381
-1.6291927 2.5671968 -0.83887082
-1.9251378 3.0335317 -0.79592019
-2.3195217 3.6549814 -0.72168356
-3.0088956 4.741261 -0.62590194
-4.2975335 6.7718296 -0.44798771
-9.4249096 14.851281 0
-15.008027 23.648867 1.5644814
-1.3885648 2.1821954 -0.85285616
-1.633639 2.5673411 -0.8395623
-1.9165264 3.0119121 -0.79085475
-2.3294489 3.6608393 -0.72339541
-3.0076809 4.7267132 -0.62446076
-4.2987394 6.7556725 -0.44726214
-9.3757849 14.734489 0
-15.044958 23.643864 1.565352
-1.4124708 2.2138541 -0.86589557
-1.6340438 2.5611393 -0.83817929
-1.9256309 3.0181623 -0.79310626
-2.3324859 3.6558516 -0.72296625
-3.0147798 4.7252536 -0.62474877
-4.3041067 6.7460966 -0.44697213
-9.3291988 14.622239 0
-15.107059 23.678242 1.5688353
-1.4031589 2.1934097 -0.85856169
-1.6371372 2.5591631 -0.83817929
-1.9251726 3.0094182 -0.79141927
-2.3299861 3.6422203 -0.7208268
-3.0176969 4.7172456 -0.62417161
-4.3024516 6.7255664 -0.44595602
-9.2949715 14.529843 0
-15.16086 23.699366 1.5714475
-1.420483 2.2145913 -0.86752397
-1.6307455 2.5423992 -0.83333349
-1.9342896 3.0156367 -0.79366863
-2.3385446 3.6458867 -0.72211111
-3.0178087 4.7048874 -0.62301844
-4.3007531 6.7050505 -0.44493991
-9.2464857 14.415649 0
-15.213333 23.71821 1.5739148
-1.4138031 2.1983275 -0.86182153
-1.6433169 2.5551991 -0.83817929
-1.9351858 3.0090272 -0.79254395
-2.337394 3.6344221 -0.72039926
-3.0248947 4.7034192 -0.62330759
-4.2976074 6.6823649 -0.44377878
-9.2202559 14.336608 0
-15.261662 23.730412 1.575947
-1.4218161 2.2049263 -0.86508137
-1.6382431 2.5405571 -0.83402503
-1.9374444 3.0045533 -0.79198158
-2.3320441 3.6164911 -0.71740305
-3.0263691 4.6932378 -0.62244242
-4.3042717 6.6749859 -0.44363379
-9.2051373 14.275158 0
-15.297363 23.72287 1.5766726
-1.4285014 2.2094276 -0.86752397
-1.6413116 2.5385759 -0.83402503
-1.9369334 2.9958067 -0.79029238
-2.3475626 3.6309166 -0.7208268
-3.0292318 4.6852374 -0.62186641
-4.3066907 6.6610518 -0.44305325
-9.1757507 14.191906 0
-15.337303 23.721827 1.5778337
-1.4110069 2.1765966 -0.8553018
-1.670308 2.5765903 -0.84717673
-1.9405519 2.9934642 -0.79029238
-2.3421774 3.6130052 -0.71783227
-3.0362964 4.683742 -0.62215441
-4.3104944 6.6492996 -0.44261768
-9.1192837 14.06726 0
-15.373021 23.714176 1.5785593
-1.41636 2.1819651 -0.8577475
-1.6554729 2.550329 -0.83887082
-1.949276 3.0029454 -0.79310626
-2.3443596 3.6115894 -0.71783227
-3.0348995 4.6753964 -0.62128925
-4.3102708 6.640162 -0.44218269
-9.0923567 14.007177 0
-15.402909 23.728861 1.5801558
-1.4311281 2.1988938 -0.86508137
-1.650345 2.5357149 -0.83471918
-1.9501336 2.9963329 -0.79198158
-2.3445196 3.6022975 -0.71654797
-3.032084 4.6587234 -0.61956006
-4.3041139 6.6131668 -0.44073099
-9.0524902 13.908932 0
-15.452827 23.742893 1.5823326
-1.4270318 2.1868155 -0.86100733
-1.6561471 2.5379169 -0.83610219
-1.939864 2.9726913 -0.78635168
-2.3502722 3.6016097 -0.71697551
-3.0433648 4.6637206 -0.62071323
-4.3050027 6.5970826 -0.44000545
-9.0308933 13.839144 0
-15.505644 23.761196 1.5847998
-1.4120824 2.1582043 -0.85041356
-1.6537182 2.5275166 -0.83333349
-1.953194 2.9852307 -0.79029238
-2.35884 3.6052136 -0.71825981
-3.0461628 4.6557069 -0.62013608
-4.3087072 6.5853591 -0.43957046
-8.98349 13.730224 0
-15.564218 23.788103 1.5878476
-1.4268894 2.1750941 -0.8577475
-1.6498919 2.5150301 -0.82987338
-1.9512248 2.9743702 -0.78804088
-2.3505232 3.583045 -0.71440852
-3.0503688 4.6498623 -0.61984807
-4.3066826 6.5649376 -0.43855432
-8.984375 13.695429 0
-15.639983 23.840975 1.5926371
-1.4254405 2.1671715 -0.8553018
-1.6680958 2.536093 -0.83748782
-1.9534223 2.9698896 -0.78747851
-0 0 -0
-3.0474541 4.633203 -0.61811775
-4.3103266 6.5532141 -0.43811876
-8.9337044 13.582376 0
-15.715899 23.8937 1.5974265
-1.4457461 2.1922688 -0.86589557
-1.671159 2.5340755 -0.83748782
-1.9668028 2.9823773 -0.79141927
-2.36624 3.5880673 -0.71654797
-3.0516276 4.6273603 -0.61782974
-4.3096614 6.5349898 -0.4372482
-8.9013977 13.497707 0
-15.796252 23.952776 1.602651
-1.4402174 2.1781542 -0.86100733
-1.6659149 2.5194943 -0.83333349
-1.9563881 2.9587998 -0.78578931
-2.3663249 3.5787797 -0.71526366
-3.0614979 4.6301441 -0.6186949
-4.3089528 6.5167689 -0.43637711
-8.8861189 13.439178 0
-15.86388 23.992195 1.6065699
-1.4182631 2.1393278 -0.84633642
-1.664798 2.5112045 -0.83125639
-1.9557484 2.9500785 -0.78410012
-2.3749042 3.5823386 -0.71654797
-3.0613735 4.6178188 -0.61754173
-4.3010345 6.4877405 -0.43478099
-8.8419628 13.33734 0
-15.917265 24.009825 1.6090372
-1.4495775 2.1808367 -0.86344987
-1.6678311 2.509191 -0.83125639
-1.9635327 2.9540634 -0.78578931
-2.370702 3.5666349 -0.7139793
-3.0655205 4.6119642 -0.61725372
-4.3088703 6.4825387 -0.43478099
-8.8105326 13.255125 0
-15.976469 24.036016 1.6120849
-1.4494728 2.174974 -0.86182153
-1.6833872 2.5259688 -0.83748782
-1.9699215 2.9559214 -0.7869162
-2.37501 3.5637679 -0.7139793
-3.0624821 4.5953388 -0.6155234
-4.3138156 6.4729991 -0.43449041
-8.8092232 13.218482 0
-16.037201 24.06426 1.6152776
-1.4589642 2.1834943 -0.86589557
-1.6808629 2.5155892 -0.83471918
-1.9678451 2.9450884 -0.78466463
-2.3778894 3.558763 -0.71355176
-3.070909 4.5959401 -0.61610055
-4.3230758 6.4699402 -0.43463543
-8.7760315 13.13426 0
-16.103796 24.101034 1.6190511
-1.4437196 2.1550376 -0.8553018
-1.6894866 2.5218935 -0.83748782
-1.9699839 2.9405913 -0.78410012
-2.3779001 3.5494871 -0.71226746
-3.0692637 4.5814843 -0.61465937
-4.3120909 6.4366498 -0.43274873
-8.7440968 13.052298 0
-16.197985 24.178701 1.6255822
-1.4532799 2.1664765 -0.86019003
-1.6979964 2.5312874 -0.84094799
-1.9731797 2.9415169 -0.78466463
-2.3800442 3.5480499 -0.71226746
-3.0677071 4.5731831 -0.61379421
-4.3087425 6.4232559 -0.4320232
-8.7041397 12.975692 0
-16.280621 24.270327 1.6324034
-1.4696928 2.1852319 -0.86834127
-1.6814498 2.5000854 -0.83125639
-1.9753104 2.937016 -0.78410012
-2.3814671 3.5409153 -0.71141237
-3.0703409 4.5651765 -0.61321706
-4.3121486 6.4115744 -0.43158764
-8.6399336 12.846397 0
-16.337482 24.291599 1.6351606
-1.4585112 2.1629581 -0.86019003
-1.685876 2.500138 -0.83195055
-1.9760194 2.9304178 -0.78297544
-2.3929183 3.5486751 -0.71355176
-3.0715208 4.5550361 -0.61235303
-4.3184414 6.4042072 -0.43144262
-8.6190758 12.782006 0
-16.411854 24.338621 1.6396594
-1.4542035 2.1509583 -0.856116
-1.6973238 2.5105653 -0.83610219
-1.9838295 2.934345 -0.78466463
-2.390017 3.5351498 -0.71141237
-3.0712278 4.5427504 -0.61119986
-4.3072581 6.3710017 -0.42955595
-8.5864143 12.700437 0
-16.451439 24.333843 1.6406755
-1.4568014 2.1491997 -0.856116
-1.6848762 2.4856753 -0.82849038
-1.9873736 2.9319458 -0.78466463
-2.3885255 3.5237598 -0.70970047
-3.0738094 4.53475 -0.6106227
-4.3237038 6.3787022 -0.43042707
-8.5550327 12.621125 0
-16.512901 24.361263 1.6438683
-1.4441195 2.1249573 -0.84715372
-1.6836467 2.4774108 -0.82641321
-1.9894825 2.9274347 -0.78410012
-2.3971117 3.5272427 -0.71098477
-3.082197 4.535315 -0.61119986
-4.3182588 6.354125 -0.42912039
-8.5410204 12.567729 0
-16.567152 24.377825 1.6463356
-1.4592102 2.1415918 -0.85448766
-1.6852276 2.4733033 -0.82572174
-1.9858661 2.9145317 -0.78128624
-2.3984783 3.5200968 -0.71012801
-3.0774784 4.516623 -0.60918152
-4.321548 6.3424668 -0.4286854
-8.5298243 12.518691 0
-16.617083 24.387856 1.6483679
-1.4590057 2.1357412 -0.85285616
-1.6867956 2.4691877 -0.82502759
-1.9908236 2.9142342 -0.78185076
-2.401283 3.5150785 -0.70970047
-3.0814762 4.5107675 -0.60889351
-4.3218813 6.3265142 -0.42795983
-8.5023737 12.446058 0
-16.675848 24.410664 1.65127
-1.4587947 2.1299024 -0.85122776
-1.7011191 2.4837065 -0.83056486
-1.9957778 2.9139209 -0.78241307
-2.4040794 3.5100584 -0.70927292
-3.0825381 4.5006371 -0.60802835
-4.319243 6.3062787 -0.42694372
-8.4703522 12.367075 0
-16.727358 24.422655 1.6534473
-1.4641627 2.1322093 -0.85285616
-1.6899202 2.4609721 -0.82364458
-1.9964179 2.9073138 -0.78128624
-2.408319 3.5071511 -0.70927292
-3.0850487 4.4926491 -0.60745233
-4.3209758 6.2924871 -0.42636317
-8.4558249 12.313924 0
-16.792158 24.453835 1.6569307
-1.4583312 2.1182277 -0.84796792
-1.6957351 2.463057 -0.82502759
-1.9999293 2.9048996 -0.78128624
-2.4023635 3.4894357 -0.70627671
-3.0904748 4.4889178 -0.60745233
-4.3241544 6.2808385 -0.42592761
-8.4633198 12.292981 0
-16.843792 24.465626 1.6591073
-1.472122 2.1327367 -0.85448766
-1.7186648 2.4899158 -0.83471918
-2.003438 2.9024808 -0.78128624
-2.4065781 3.4865303 -0.70627671
-3.0914872 4.4787927 -0.60658717
-4.3302655 6.2734728 -0.42578262
-8.4249458 12.205641 0
-16.896959 24.479471 1.6614295
-1.4718821 2.1268878 -0.85285616
-1.6974037 2.452769 -0.8229531
-2.0069435 2.900058 -0.78128624
-2.4093297 3.4815109 -0.70584917
-3.0895388 4.4644217 -0.60514599
-4.3274903 6.2532768 -0.42476651
-8.3878574 12.120557 0
-16.957575 24.503904 1.6644773
-1.4871302 2.1433821 -0.86019003
-1.700366 2.4507163 -0.8229531
-2.0147929 2.9038959 -0.78297544
-2.4106052 3.4743748 -0.70499241
-3.097877 4.464931 -0.60572201
-4.3306036 6.2416449 -0.42433149
-8.3743076 12.069785 0
-17.018276 24.528227 1.6675252
-1.4757346 2.1242166 -0.85285616
-1.7047063 2.4538052 -0.82433605
-2.0049493 2.8859839 -0.77847236
-2.4141726 3.4750321 -0.70542163
-3.0902481 4.4481955 -0.60370481
-4.3314061 6.234755 -0.42404094
-8.36378 12.039075 0
-17.050882 24.54355 1.6692668
-1.4867787 2.1346047 -0.8577475
-1.7048051 2.4476304 -0.8229531
-2.0113423 2.8877332 -0.77959919
-2.4242384 3.4805386 -0.70713347
-3.0985744 4.448699 -0.60428083
-4.3300285 6.2167277 -0.42317039
-8.3411417 11.975582 0
-17.095375 24.544247 1.670718
-1.5105789 2.163197 -0.86996961
-1.7034509 2.4393961 -0.82087594
-2.0148301 2.8853009 -0.77959919
-2.4269683 3.4754961 -0.70670432
-3.0980241 4.4364696 -0.60312766
-4.3375368 6.2114911 -0.42317039
-8.3138857 11.905749 0
-17.139893 24.544872 1.6721691
-1.4805927 2.1148076 -0.85122776
-1.7078346 2.4393892 -0.82156742
-2.0153975 2.8786972 -0.77847236
-2.4296951 3.4704599 -0.70627671
-3.0989308 4.4263644 -0.6022625
-4.333117 6.1892166 -0.42200926
-8.2909527 11.842399 0
-11.356313 16.220812 1.1060096
-1.4902455 2.1231301 -0.8553018
-1.7079011 2.4332209 -0.82018441
-2.0203328 2.8783376 -0.77903467
-2.4265141 3.4570179 -0.70413733
-3.1057673 4.4247398 -0.60255164
-4.334621 6.1754689 -0.42142871
-8.290307 11.811075 0
-11.380379 16.213453 1.1064446
-1.4800094 2.1031384 -0.84796792
-1.7108399 2.4311554 -0.82018441
-2.0238092 2.8758943 -0.77903467
-2.4321654 3.4561808 -0.70456487
-3.1051574 4.4125228 -0.60139847
-4.3360982 6.161727 -0.42084816
-8.2776098 11.762735 0
-11.370058 16.157198 1.1035424
-1.4811261 2.0993309 -0.84715372
-1.7137762 2.4290864 -0.82018441
-2.0214236 2.8651421 -0.77678317
-2.4348612 3.451144 -0.70413733
-3.1089971 4.4066563 -0.60111046
-4.3315563 6.1394973 -0.41968703
-8.2663126 11.716576 0
-11.397061 16.154062 1.104268
-1.4779525 2.0894682 -0.84389389
-1.734095 2.4515922 -0.82849038
-2.016083 2.850255 -0.77340692
-2.4390295 3.4481995 -0.70413733
-3.1113293 4.3986692 -0.60053331
-4.3359733 6.1300206 -0.41939703
-8.2413921 11.65134 0
-8.8417826 12.500148 0.85522145
-1.5033462 2.119931 -0.8569302
-1.726896 2.435168 -0.82364458
-2.0254047 2.8561075 -0.77565849
-2.4372544 3.4368739 -0.70242542
-3.1091626 4.3843594 -0.59909213
-4.3373647 6.1162987 -0.41881648
-8.2163258 11.586184 0
-8.7561769 12.347449 0.84549755
-1.4958856 2.1040182 -0.85122776
-1.7138453 2.4105864 -0.81603014
-2.0332727 2.8598728 -0.77734768
-2.4428914 3.4360166 -0.70285302
-3.1159551 4.3827052 -0.59938014
-4.3402333 6.1046977 -0.41838092
-8.2001591 11.533826 0
-8.7500134 12.307216 0.84346586
-1.4941217 2.0961692 -0.84878206
-1.7211266 2.4146442 -0.81810731
-2.0382001 2.8594809 -0.77790999
-2.4455528 3.430974 -0.70242542
-3.1182489 4.3747287 -0.59880412
-4.3430805 6.0930991 -0.41794536
-8.1929445 11.494244 0
-8.7422533 12.264893 0.84128863
-1.5110209 2.1144676 -0.8569302
-1.7327919 2.4248059 -0.82225895
-2.0386963 2.8528774 -0.77678317
-2.4422355 3.4175756 -0.70028603
-3.120522 4.366745 -0.59822696
-4.3474212 6.0836229 -0.41765535
-8.179594 11.446226 0
-8.7434711 12.235295 0.83998251
-1.5078169 2.1046035 -0.8536703
-1.7401053 2.4288306 -0.82433605
-2.0391853 2.8462851 -0.77565849
-2.4463632 3.4146221 -0.70028603
-3.1227863 4.3587704 -0.59765095
-4.3487153 6.0699162 -0.4170748
-8.1812935 11.41941 0
-8.7416067 12.201492 0.83838642
-1.5103588 2.1027801 -0.8536703
-1.7386466 2.4206114 -0.82225895
-2.048552 2.8520739 -0.77790999
-2.4519835 3.4137466 -0.70071357
-3.12503 4.3507881 -0.59707379
-4.3499832 6.0562153 -0.41649425
-8.1601639 11.360897 0
-8.7472448 12.178254 0.83751529
-1.4881511 2.0639563 -0.83900249
-1.7283614 2.3971105 -0.81533861
-2.0403452 2.829809 -0.77284461
-2.4536612 3.403048 -0.69942927
-3.128371 4.3388209 -0.59620863
-4.3518314 6.0356708 -0.41562313
-8.0985594 11.232107 0
-8.7465124 12.130771 0.83533859
-1.5123643 2.0922048 -0.85122776
-1.748893 2.4194186 -0.82364458
-2.0422699 2.8252764 -0.7722801
-2.4577713 3.4000809 -0.69942927
-3.1305838 4.3308496 -0.59563261
-4.3469491 6.0135694 -0.41446257
-8.0755339 11.171694 0
-8.7428961 12.094923 0.83359694
-1.5003848 2.0703588 -0.84307653
-1.7429794 2.4051113 -0.81949025
-2.0486672 2.8269255 -0.77340692
-2.4603729 3.3950319 -0.69900173
-3.1312597 4.3207788 -0.59476745
-4.3542123 6.0083122 -0.41446257
-8.0676498 11.132429 0
-8.748353 12.071722 0.83272582
-1.5130562 2.0825431 -0.84878206
-1.744411 2.4009757 -0.81879878
-2.0446155 2.8141718 -0.77059305
-2.4644735 3.3920567 -0.69900173
-3.1364782 4.3169918 -0.59476745
-4.3599372 6.0009384 -0.41431701
-8.0581474 11.091089 0
-8.7491884 12.042225 0.83141971
-1.5330337 2.1046872 -0.85856169
-1.7443595 2.3948145 -0.81741577
-2.0495088 2.813751 -0.77115542
-2.4655504 3.3849304 -0.69814658
-3.1386495 4.3090215 -0.59419143
-4.3671846 5.995666 -0.41431701
-8.0439653 11.043483 0
-8.7530279 12.016948 0.83040416
-1.5020494 2.0569222 -0.83981669
-1.7398558 2.3825765 -0.81395566
-2.0484104 2.8051145 -0.76946622
-2.4666078 3.3777983 -0.69728982
-3.1408002 4.3010445 -0.59361428
-4.3621669 5.9735966 -0.41315588
-8.0158691 10.977014 0
-8.7598753 11.995864 0.829678
-1.5030751 2.0531132 -0.83900249
-1.747175 2.3865395 -0.81603014
-2.0517983 2.8026373 -0.76946622
-2.476753 3.3831007 -0.69900173
-3.1398833 4.2888985 -0.59246111
-4.3586416 5.953651 -0.41214034
-8.0029879 10.931616 0
-8.769763 11.978987 0.829243
-1.5055548 2.0512955 -0.83900249
-1.7426368 2.3743162 -0.81256998
-2.0551834 2.8001561 -0.76946622
-2.4717286 3.3676927 -0.69643474
-3.1404767 4.278852 -0.59159708
-4.3627543 5.9441867 -0.41184977
-7.9884758 10.884177 0
-8.7703953 11.949531 0.82793689
-1.5256102 2.073364 -0.84878206
-1.7514518 2.3802917 -0.81533861
-2.0555563 2.7935817 -0.76834154
-2.4773159 3.3667693 -0.69686228
-3.1425757 4.2708836 -0.59101993
-4.3637733 5.9305391 -0.41126922
-7.9615216 10.82002 0
-8.7786674 11.930552 0.82735634
-1.5178423 2.0575943 -0.84307653
-1.7543266 2.3781736 -0.81533861
-2.0664709 2.8013177 -0.77115542
-2.4783316 3.359638 -0.69600552
-3.1431322 4.2608447 -0.5901559
-4.3647661 5.9168978 -0.41068867
-7.9452405 10.770606 0
-8.7822771 11.905297 0.82634026
-1.5335584 2.0736494 -0.85041356
-1.7571989 2.3760521 -0.81533861
-2.0668354 2.7947366 -0.77003074
-2.4900255 3.3669667 -0.69814658
-3.1513512 4.261199 -0.59073192
-4.3611012 5.8970013 -0.40967309
-7.9180117 10.70659 0
-8.7920198 11.888408 0.82590467
-1.5345865 2.0698037 -0.84959626
-1.7451298 2.3537781 -0.80841833
-2.0671811 2.7881513 -0.76890385
-2.4788001 3.3433304 -0.69386607
-3.1441741 4.2407665 -0.58842558
-4.3728619 5.8979831 -0.41010812
-7.9231944 10.686563 0
-8.7939978 11.861076 0.82474357
-1.5429841 2.0758827 -0.85285616
-1.7629358 2.3717988 -0.81533861
-2.0766118 2.7938085 -0.77115542
-2.4904935 3.3506322 -0.69600552
-3.1462128 4.2328167 -0.58784956
-4.3706875 5.8801866 -0.40923753
-7.8848696 10.608057 0
-8.8067741 11.848359 0.82459855
-1.5324329 2.059088 -0.84633642
-1.7733524 2.3828049 -0.81949025
-2.0767837 2.7905169 -0.77059305
-2.4863927 3.3408973 -0.69429529
-3.1456783 4.2267613 -0.58727241
-4.3695836 5.8712893 -0.408802
-7.8555446 10.555279 0
-8.8092756 11.836781 0.82416302
-1.5157069 2.0314839 -0.83574265
-1.7567285 2.3545222 -0.81049281
-2.0786359 2.7859709 -0.77003074
-2.4965622 3.3461127 -0.69600552
-3.1523285 4.225028 -0.58756042
-4.3658023 5.8514328 -0.40778643
-7.8573971 10.531176 0
-8.8251295 11.828217 0.82430857
-1.5344465 2.051424 -0.84470803
-1.7580709 2.3503909 -0.80980134
-2.075913 2.7753186 -0.76777917
-2.4913809 3.3307638 -0.69343853
-3.1527879 4.2150087 -0.58669639
-4.3713083 5.8440666 -0.40764087
-7.8249121 10.46124 0
-8.8503056 11.832104 0.82532412
-1.526543 2.0357246 -0.83900249
-1.7609097 2.3482649 -0.80980134
-2.0853624 2.7809396 -0.77003074
-2.4969423 3.3298028 -0.69386607
-3.1563225 4.2091208 -0.58640724
-4.3721371 5.8304729 -0.40706086
-7.8172507 10.424712 0
-8.8599234 11.81517 0.82488912
-1.5260341 2.0299313 -0.83737415
-1.7697759 2.3541567 -0.81256998
-2.0795572 2.766228 -0.76665235
-2.5040519 3.3308911 -0.69472283
-3.1583006 4.2011728 -0.58583122
-4.3713675 5.8147945 -0.40633476
-7.7798042 10.348699 0
-8.8679476 11.796148 0.82430857
-1.529972 2.0300579 -0.83818835
-1.7846987 2.3680444 -0.81810731
-2.0798426 2.7596588 -0.76552761
-2.504982 3.3237591 -0.69386607
-3.1649299 4.1994171 -0.58611923
-4.3752651 5.8053622 -0.40604475
-7.7578459 10.293571 0
-8.8837566 11.787498 0.82445353
-1.5368952 2.0341256 -0.84063399
-1.7784874 2.3538802 -0.81395566
-2.0831754 2.7571437 -0.76552761
-2.5105481 3.3227839 -0.69429529
-3.1668863 4.1914668 -0.58554322
-4.3775759 5.7938495 -0.40560919
-7.7436085 10.248893 0
-8.8948574 11.772604 0.82416302
-1.5214436 2.0086246 -0.83085442
-1.7813303 2.3517294 -0.81395566
-2.0926423 2.7627263 -0.76777917
-2.5114584 3.3156514 -0.69343853
-3.1657016 4.17939 -0.58439004
-4.3767304 5.7782016 -0.40488365
-7.7214136 10.193884 0
-8.9090757 11.761847 0.82416302
-1.5537641 2.0461528 -0.84715372
-1.76748 2.3275955 -0.80634123
-2.0944378 2.7581663 -0.76721466
-2.5123608 3.3085294 -0.69258344
-3.1691866 4.1735039 -0.58410203
-4.3868489 5.7770438 -0.40517363
-7.7022533 10.143102 0
-8.9060001 11.728316 0.82256687
-1.5412614 2.0246041 -0.83900249
-1.7809299 2.3394332 -0.81118703
-2.0993125 2.7576611 -0.76777917
-2.5147972 3.303443 -0.69215423
-3.1710908 4.1655512 -0.58352488
-4.3780894 5.7510676 -0.40372252
-7.6908565 10.102725 0
-8.9170141 11.713408 0.82227635
-1.5467085 2.0266738 -0.84063399
-1.7883171 2.3432567 -0.81326151
-2.1010971 2.7530968 -0.76721466
-2.5172312 3.2983632 -0.69172668
-3.1729865 4.1576085 -0.58294886
-4.3881912 5.7499084 -0.4040131
-7.679379 10.062398 0
-8.9185495 11.6861 0.8211152
-1.5401422 2.0130217 -0.83574265
-1.7865782 2.3351226 -0.81118703
-2.1044221 2.750556 -0.76721466
-2.522773 3.2973559 -0.69215423
-3.1748614 4.1496592 -0.58237171
-4.3856592 5.7322159 -0.40314198
-7.6519985 10.00144 0
-8.9200382 11.658813 0.81995463
-1.5485903 2.0190039 -0.83900249
-1.8000818 2.3468909 -0.81603014
-2.1000137 2.7379324 -0.76440078
-2.5173845 3.2820878 -0.68958724
-3.1751492 4.1396608 -0.58150655
-4.3830967 5.7145452 -0.40227142
-7.6450715 9.9674063 0
-8.9356985 11.650086 0.82009965
-1.5404869 2.0034215 -0.83330011
-1.7876269 2.3248298 -0.80910987
-2.1048677 2.7374053 -0.76496315
-2.5260444 3.2851505 -0.69087154
-3.1801488 4.1358213 -0.58150655
-4.3852453 5.7030635 -0.40183586
-7.6333122 9.9272127 0
-8.9307623 11.614562 0.818358
-1.5432034 2.004447 -0.83411425
-1.7936239 2.329715 -0.81118703
-2.1080756 2.7381525 -0.76552761
-2.517065 3.2693834 -0.68787539
-3.177918 4.1277571 -0.58064252
-4.3855228 5.6962991 -0.40154585
-7.580574 9.8463097 0
-8.9076643 11.57005 0.81560075
-1.5350518 1.9888828 -0.82840872
-1.8071631 2.3414426 -0.81603014
-2.1082747 2.7315764 -0.76440078
-2.5304213 3.2785287 -0.69044238
-3.1813183 4.1218605 -0.58035338
-4.3828735 5.6786499 -0.40067473
-7.5813332 9.8227196 0
-8.9089365 11.542823 0.81443965
-1.561654 2.0183032 -0.84144819
-1.7946414 2.3194194 -0.80910987
-2.1038008 2.718981 -0.7615869
-2.5343809 3.2754688 -0.69044238
-3.1847153 4.1159697 -0.58006537
-4.3929152 5.677464 -0.4009653
-7.5804558 9.7970858 0
-8.9196939 11.527936 0.81414908
-1.5368268 1.9812652 -0.82678038
-1.7820692 2.2974298 -0.80218959
-2.121099 2.7345045 -0.76665235
-2.5273278 3.2582114 -0.68744785
-3.1849351 4.1059933 -0.57920134
-4.3870311 5.6557264 -0.39980417
-7.5556054 9.7406282 0
-8.9304342 11.513047 0.81385911
-1.5483202 1.9911098 -0.83166862
-1.7971582 2.311111 -0.80772418
-2.1088071 2.711885 -0.76102453
-2.5312629 3.2551551 -0.68744785
-3.1819506 4.0919271 -0.57775903
-4.3938618 5.6504216 -0.39980417
-7.5306239 9.6842375 0
-8.9347658 11.489937 0.81298798
-1.5492067 1.9872901 -0.83085442
-1.787616 2.2931166 -0.80218959
-2.118331 2.7173507 -0.7632761
-2.5351942 3.2520943 -0.68744785
-3.1900761 4.0921631 -0.57833618
-4.3910975 5.6328082 -0.39893305
-7.5231194 9.6505003 0
-0 0 0
-1.5516069 1.9854168 -0.83085442
-1.8135533 2.3206 -0.81256998
-2.1169174 2.7087812 -0.7615869
-2.5375366 3.2470002 -0.68701863
-3.1886477 4.0801535 -0.57718301
-4.393105 5.6213622 -0.39849806
-7.5219541 9.624999 0
-8.967308 11.474455 0.81342351
-1.5585791 1.9893792 -0.83330011
-1.7977895 2.2947087 -0.80426407
-2.120189 2.7062213 -0.7615869
-0 0 -0
-3.1919818 4.0742636 -0.576895
-4.3934841 5.6078682 -0.39791751
-7.5111117 9.5872259 0
-8.9763575 11.457473 0.81298798
-1.5655572 1.9933201 -0.83574265
-1.8176079 2.3142395 -0.8118785
-2.1156118 2.6936681 -0.75877303
-2.5311069 3.2226908 -0.68316734
-3.1921082 4.0642996 -0.57602984
-4.3954401 5.5964227 -0.39748195
-7.487329 9.5331192 0
-8.9934072 11.450709 0.8132785
-1.5572661 1.9778392 -0.83004022
-1.7940208 2.2785347 -0.80011243
-2.1220057 2.6950986 -0.75989771
-2.5365918 3.2216527 -0.68359655
-3.1954181 4.0584092 -0.57574183
-4.3925514 5.5788541 -0.39661083
-7.476306 9.4954424 0
-9.0184841 11.45412 0.8142941
-1.5688398 1.9875928 -0.83492845
-1.8154249 2.2999961 -0.80841833
-2.1331303 2.7025032 -0.76271158
-2.5357096 3.2125385 -0.68231219
-3.1987126 4.0525093 -0.57545269
-4.3960724 5.5694671 -0.39632082
-7.4651971 9.457799 0
-9.0387573 11.451373 0.81487465
-1.5559065 1.9663173 -0.82678038
-1.8259848 2.3076358 -0.8118785
-2.1285124 2.6899629 -0.75989771
-2.5379982 3.2074611 -0.68188465
-3.1987965 4.0425625 -0.57458866
-4.3995771 5.5600801 -0.39603084
-7.445941 9.4100008 0
-9.0542049 11.442487 0.8150202
-1.5475278 1.9508795 -0.82107484
-1.8116201 2.2838056 -0.80426407
-2.1254449 2.6794264 -0.75764614
-2.5450597 3.2084105 -0.68273979
-3.2020731 4.0366697 -0.57430065
-4.4014463 5.5486507 -0.39559528
-7.431428 9.3683748 0
-0 0 0
-1.5671523 1.9731693 -0.83085442
-1.8239231 2.2964642 -0.80910987
-2.1270633 2.6781418 -0.75764614
-2.5422063 3.2008398 -0.68145543
-3.2012908 4.0306797 -0.5737235
-4.3983335 5.5378513 -0.3950147
-7.4209037 9.3435078 0
-0 0 0
-1.5618392 1.9616083 -0.82678038
-1.8126341 2.2765968 -0.80288106
-2.1397967 2.6875002 -0.76102453
-2.546072 3.1977658 -0.68145543
-3.2029397 4.0227656 -0.57314748
-4.4017816 5.5284634 -0.39472416
-7.417594 9.316205 0
-0 0 0
-1.5734564 1.9713062 -0.83166862
-1.8263344 2.2881246 -0.80772418
-2.1477933 2.6908646 -0.76271158
-2.5371289 3.1786442 -0.67803335
-3.2094102 4.0209122 -0.57343549
-4.4068389 5.521112 -0.39457917
-7.4093695 9.282835 0
-0 0 0
-1.5681177 1.9597561 -0.82759458
-1.8275319 2.2839592 -0.8070327
-2.1415212 2.6763675 -0.75933534
-2.5537922 3.1916037 -0.68145543
-3.2110312 4.0129886 -0.57285833
-4.4102631 5.5117292 -0.39428917
-7.4010692 9.2494907 0
-0 0 0
-1.5782157 1.9674981 -0.83166862
-1.8271538 2.2778392 -0.8056497
-2.1368058 2.6638696 -0.75652146
-2.5496173 3.1785052 -0.67931604
-3.2110274 4.0030584 -0.5719943
-4.4006577 5.4861231 -0.39283749
-7.3731575 9.1918192 0
-9.0975294 11.341524 0.8121174
-1.5666537 1.9482565 -0.82433468
-1.8220456 2.2658563 -0.80218959
-2.1368353 2.6573217 -0.75539464
-2.5518489 3.1734235 -0.6788885
-3.2142365 3.9971542 -0.57170516
-4.4056568 5.4787784 -0.39269248
-7.381 9.1788511 0
-9.1096001 11.328501 0.81197238
-1.5783107 1.9579039 -0.82922292
-1.831074 2.2714581 -0.80495554
-2.1400447 2.6547379 -0.75539464
-2.5524623 3.1663446 -0.67803335
-3.2125707 3.9852128 -0.57055199
-4.4122734 5.4734511 -0.39269248
-7.3675842 9.1395321 0
-9.1510038 11.351874 0.81443965
-1.5760194 1.9502337 -0.82678038
-1.8259345 2.2594895 -0.80149543
-2.1528361 2.6640115 -0.75877303
-2.5562863 3.1632581 -0.67803335
-3.2190142 3.9833457 -0.57084113
-4.4074497 5.4539666 -0.39167637
-7.3639021 9.1124067 0
-9.1287794 11.296342 0.81124628
-1.5705911 1.9387201 -0.82270318
-1.8334025 2.2631316 -0.80357254
-2.1512537 2.6554835 -0.75708383
-2.5568717 3.1561739 -0.67717659
-3.2189388 3.9734221 -0.56997597
-4.4124026 5.44662 -0.39153138
-7.3421431 9.0630589 0
-9.1522398 11.297421 0.8121174
-1.5713758 1.9349041 -0.82188904
-1.8408819 2.2667587 -0.8056497
-2.1512601 2.648941 -0.75595915
-2.5655401 3.1590621 -0.6784609
-3.2188444 3.9635046 -0.56911081
-4.4124279 5.4332166 -0.3909508
-7.3202815 9.0137844 0
-9.1740723 11.296438 0.81284297
-1.5830784 1.944508 -0.82678038
-1.8293658 2.2470248 -0.79942089
-2.1496451 2.6404264 -0.75426996
-2.5644915 3.1499856 -0.67717659
-3.2219999 3.9576085 -0.5688228
-4.4157119 5.4238544 -0.39066082
-7.3130922 8.9827299 0
-9.1844368 11.281319 0.81255299
-1.5916779 1.9502531 -0.83004022
-1.828904 2.2409217 -0.79803526
-2.1512289 2.6358604 -0.75370759
-2.5618033 3.1389296 -0.67546475
-3.2235117 3.9497085 -0.56824678
-4.4156904 5.4104629 -0.39008024
-7.3157144 8.9638081 0
-9.1980619 11.270213 0.81255299
-1.5893365 1.9425877 -0.82759458
-1.8316103 2.2387102 -0.79803526
-2.1511912 2.6293223 -0.75258076
-2.5720963 3.143779 -0.67717659
-3.2233667 3.9398031 -0.56738162
-4.4238687 5.4071321 -0.39022526
-7.3084111 8.9328032 0
-9.2133169 11.2611 0.81269795
-1.5869789 1.9349309 -0.82514888
-1.8470417 2.2520137 -0.80357254
-2.1575925 2.6306541 -0.75370759
-2.5693812 3.1327295 -0.67546475
-3.2281249 3.9359055 -0.56738162
-4.4221611 5.3917394 -0.38949969
-7.3010492 8.9018364 0
-9.2302094 11.253973 0.81298798
-1.6038361 1.9530765 -0.83330011
-1.8356649 2.2353868 -0.79803526
-2.1591814 2.6293502 -0.75370759
-2.5696459 3.1291947 -0.67503721
-3.2239363 3.9259589 -0.56622845
-4.4204688 5.3830404 -0.38906413
-7.2667875 8.8491535 0
-9.2353592 11.246388 0.81284297
-1.5779164 1.9167858 -0.81862915
-1.8367716 2.2312322 -0.79734379
-2.1655836 2.6306589 -0.75483227
-2.570159 3.1221199 -0.67418045
-3.2286777 3.9220605 -0.56622845
-4.4220142 5.371675 -0.38862857
-7.2576261 8.8162556 0
-9.2621536 11.25127 0.81400406
-1.586524 1.922503 -0.82188904
-1.8394663 2.2290111 -0.79734379
-2.1622915 2.6202013 -0.75258076
-2.5788329 3.1249537 -0.67546475
-3.2317698 3.9161634 -0.56594044
-4.4285016 5.3663278 -0.38862857
-7.2483959 8.7833929 0
-9.2790461 11.244075 0.8142941
-1.6109053 1.9472499 -0.83330011
-1.8565491 2.2441823 -0.80357254
-2.1751769 2.6293373 -0.75595915
-2.5809722 3.1198595 -0.67503721
-3.2348459 3.9102571 -0.5656513
-4.4267025 5.3509641 -0.38790303
-7.2374396 8.7485619 0
-9.3025665 11.244871 0.81516516
-1.5959001 1.9243727 -0.82433468
-1.8608594 2.2438667 -0.80426407
-2.1718645 2.6188836 -0.75370759
-2.5847399 3.1167386 -0.67503721
-3.2346199 3.9003785 -0.56478727
-4.4281936 5.3396168 -0.38746801
-7.2230902 8.7097673 0
-9.3178043 11.235621 0.81531018
-1.6045444 1.9300454 -0.82759458
-1.857154 2.2338998 -0.80149543
-2.1717753 2.6123459 -0.75258076
-2.5803001 3.103745 -0.67289776
-3.2393303 3.8964672 -0.56478727
-4.4279976 5.3262696 -0.38688746
-7.213644 8.6770182 0
-9.3197441 11.210365 0.8142941
-1.6132047 1.9356999 -0.83085442
-1.8470027 2.2162364 -0.7959581
-2.163548 2.5960622 -0.74864215
-2.5840485 3.1006248 -0.67289776
-3.240721 3.8885727 -0.56421012
-4.4211216 5.3049464 -0.38572636
-7.1991296 8.6383047 0
-9.346591 11.215065 0.8154552
-1.5981097 1.9128829 -0.82188904
-1.8448585 2.2082326 -0.79388362
-2.1764545 2.6051419 -0.75201839
-2.5844984 3.0935564 -0.672041
-3.2421038 3.880688 -0.5636341
-4.4241929 5.2956085 -0.38543579
-7.1928792 8.6096315 0
-9.3667994 11.21174 0.81603575
-1.6051823 1.9166369 -0.82433468
-1.8587962 2.2194598 -0.79872674
-2.174705 2.5966644 -0.7503292
-2.5882344 3.0904312 -0.672041
-3.2467906 3.8767676 -0.5636341
-4.4205813 5.2783103 -0.38456523
-7.1815562 8.5749979 0
-9.3853464 11.206392 0.81647128
-1.6050333 1.9070774 -0.82188904
-1.8544649 2.2034483 -0.7945751
-2.1809738 2.5914016 -0.7503292
-2.5907347 3.0782735 -0.6707567
-3.247824 3.8590174 -0.56219292
-4.4149175 5.2457414 -0.38296854
-7.1620383 8.5098305 0
-9.4124002 11.183679 0.81647128
-1.6105272 1.9089185 -0.82352054
-1.857126 2.201206 -0.7945751
-2.1841033 2.5887642 -0.7503292
-2.5911448 3.0712206 -0.66990155
-3.2524843 3.8550904 -0.56219292
-4.4162307 5.2344503 -0.38253355
-7.1538539 8.4792881 0
-9.4594193 11.212018 0.81937408
-1.5984694 1.8899884 -0.81618661
-1.8435867 2.1798089 -0.78765482
-2.188869 2.5880616 -0.75089157
-0 0 -0
-3.2521279 3.8452311 -0.56132776
-4.4208698 5.2271209 -0.382388
-7.1405687 8.4428225 0
-9.4628887 11.188672 0.81850296
-1.6135325 1.9031302 -0.82270318
-1.8656816 2.2005351 -0.7959581
-2.1854281 2.5776699 -0.74864215
-2.5919187 3.0571177 -0.6681897
-3.2551005 3.8393276 -0.56103975
-4.4187822 5.2118673 -0.38166243
-7.1221557 8.400444 0
-9.5352154 11.246601 0.82358301
-1.5890963 1.872014 -0.80966687
-1.8572726 2.1879356 -0.79180646
-2.1853361 2.5744064 -0.74807769
-2.5937653 3.0555511 -0.6681897
-3.2624362 3.8432703 -0.56190377
-4.41857 5.2052383 -0.38137245
-7.1070189 8.3723307 0
-9.550415 11.250741 0.82430857
-1.615379 1.8983221 -0.82188904
-1.8631636 2.1895075 -0.79318947
-2.1900966 2.5737047 -0.74864215
-2.6024477 3.0582819 -0.66947401
-3.2570236 3.8275104 -0.56017458
-4.4080133 5.1801028 -0.37992078
-7.110384 8.3558092 0
-9.5741034 11.251063 0.8251791
-1.6064479 1.8832115 -0.81618661
-1.8625546 2.1834409 -0.79180646
-2.191551 2.5691178 -0.74807769
-2.6044769 3.0531838 -0.66904646
-3.2566085 3.8176668 -0.55930942
-4.4226995 5.1846552 -0.38064632
-7.0934577 8.3155394 0
-9.6129875 11.269142 0.82735634
-1.6151475 1.8887829 -0.81944644
-1.8570408 2.1716573 -0.78834635
-2.1963098 2.5684047 -0.74864215
-2.6098309 3.0519838 -0.66947401
-3.2595398 3.8117652 -0.55902141
-4.4188318 5.1674623 -0.37977576
-7.1018038 8.3049784 0
-9.6265974 11.257518 0.82735634
-1.6190356 1.8887045 -0.82026064
-1.8596634 2.1694117 -0.78834635
-2.1977532 2.5638142 -0.74807769
-2.6135168 3.0488281 -0.66947401
-3.2607732 3.8038926 -0.55844426
-4.4216933 5.1581774 -0.37948576
-7.0779648 8.2568817 0
-9.6706305 11.281384 0.82996857
-1.6342033 1.9017434 -0.82678038
-1.8704572 2.1766751 -0.79180646
-2.1925709 2.551523 -0.74526376
-2.6155274 3.0437229 -0.66904646
-3.2687418 3.8038769 -0.55902141
-4.4228406 5.1469164 -0.37905023
-7.074367 8.2325325 0
-9.7147341 11.305161 0.8325808
-1.6106902 1.8698056 -0.81374091
-1.8550732 2.1535029 -0.78419203
-2.200629 2.5546491 -0.74695295
-2.617523 3.0386097 -0.66861725
-3.2648969 3.7901282 -0.55758023
-4.4307504 5.1435356 -0.37919521
-7.0639267 8.2003164 0
-9.7334766 11.299323 0.8330164
-1.6226374 1.8790784 -0.81862915
-1.8855467 2.1835377 -0.7959581
-2.1970716 2.5442958 -0.74470145
-2.6178403 3.0315626 -0.66776216
-3.2728517 3.7900918 -0.55815625
-4.4284725 5.1283464 -0.37846965
-7.0636215 8.1799536 0
-9.7607088 11.303288 0.83417749
-1.6152041 1.8659077 -0.81374091
-1.8766947 2.1679854 -0.79111499
-2.2018056 2.5435584 -0.74526376
-2.6265433 3.0342219 -0.66904646
-3.2672753 3.7744048 -0.55642706
-4.4380641 5.1269174 -0.37875965
-7.0683951 8.1655149 0
-9.7981653 11.318986 0.83620918
-1.6320349 1.8807538 -0.82107484
-1.8760213 2.1619229 -0.7897293
-2.2032137 2.5389788 -0.74470145
-2.6251588 3.0252275 -0.66776216
-3.2735271 3.7724059 -0.55671507
-4.4340405 5.1097794 -0.3778891
-7.0475507 8.121583 0
-9.8305702 11.328729 0.83780581
-1.6229497 1.8657249 -0.81536931
-1.8769872 2.1577637 -0.78903782
-2.2029414 2.5324769 -0.74357456
-2.6271291 3.0201182 -0.66733462
-3.2746911 3.7645485 -0.55613905
-4.4350939 5.0985346 -0.37745354
-7.0402818 8.0934296 0
-9.8971138 11.377612 0.84230477
-1.6349524 1.8749431 -0.82026064
-1.8779458 2.153605 -0.78834635
-2.2043314 2.5279002 -0.74301225
-2.6257133 3.0111356 -0.66605031
-3.2792373 3.7605889 -0.55613905
-4.4361329 5.0873022 -0.37701854
-7.0346637 8.0672655 0
-9.97404 11.438106 0.84767479
-1.6176969 1.8506358 -0.81048107
-1.8821962 2.1532214 -0.78903782
-2.2124028 2.5309758 -0.74470145
-2.6344197 3.0137608 -0.66733462
-3.2803712 3.7527254 -0.5555619
-4.4422765 5.0819383 -0.37701854
-7.0238528 8.0352468 0
-10.001534 11.441696 0.84883589
-1.6481115 1.8831326 -0.82514888
-1.893407 2.1634073 -0.79318947
-2.2089095 2.5239007 -0.74301225
-2.624404 2.9986446 -0.66433841
-3.2775259 3.7449019 -0.55469674
-4.4367847 5.0694714 -0.37629241
-7.0184255 8.0192547 0
-10.010155 11.437605 0.8489809
-1.6422371 1.8718519 -0.82107484
-1.8794776 2.1422629 -0.78626919
-2.2086093 2.5174134 -0.74188757
-2.626334 2.9935436 -0.66391087
-3.2837591 3.7428889 -0.55498588
-4.4326282 5.0523906 -0.37542185
-7.0057993 7.9853387 0
-10.020536 11.421592 0.84869033
-1.6298089 1.8531644 -0.81374091
-1.8787544 2.1362264 -0.78488618
-2.2166789 2.5204613 -0.74357456
-2.6282489 2.9884348 -0.66348165
-3.2797337 3.7292018 -0.55354357
-4.440444 5.0489802 -0.37556687
-6.9862266 7.9436474 0
-10.030901 11.405577 0.84840029
-1.6402179 1.860462 -0.81781495
-1.8962643 2.1508896 -0.79111499
-2.2163653 2.513973 -0.74244988
-2.630162 2.9833331 -0.66305411
-3.2808197 3.7213595 -0.55296755
-4.4293609 5.0241237 -0.37411574
-7.0044236 7.9449587 0
-10.053266 11.403192 0.84912586
-1.6326474 1.8473703 -0.81292677
-1.8872308 2.1354361 -0.78626919
-2.2194014 2.5112929 -0.74244988
-2.6252666 2.9705372 -0.66091466
-3.2887361 3.7212648 -0.55354357
-4.4354281 5.0187683 -0.37411574
-6.9916153 7.9111404 0
-10.087686 11.4144 0.85086757
-1.6365157 1.8472444 -0.81374091
-1.8881476 2.131278 -0.78557765
-2.2173777 2.502902 -0.74076068
-2.6373639 2.9769683 -0.66305411
-3.2949502 3.7192299 -0.55383271
-4.4380398 5.0095115 -0.37382519
-6.9908113 7.890995 0
-10.122148 11.425543 0.85260922
-1.6223313 1.8267816 -0.80558974
-1.8907214 2.1289952 -0.78557765
-2.2153435 2.4945269 -0.73907369
-2.637553 2.9699442 -0.66219902
-3.2925718 3.7075102 -0.55267954
-4.4371877 4.9963737 -0.37324464
-6.9744244 7.8533592 0
-10.165277 11.446331 0.85507643
-1.6261857 1.8266715 -0.80640703
-1.8882865 2.1210856 -0.78350055
-2.2200439 2.4937441 -0.739636
-2.6394343 2.9648397 -0.66177142
-3.29017 3.6958017 -0.55152637
-4.4414954 4.9890695 -0.37309963
-6.9666004 7.8254843 0
-10.213655 11.472856 0.85797924
-1.6300356 1.8265475 -0.80722123
-1.9042114 2.1337769 -0.78903782
-2.2247458 2.4929538 -0.74019837
-2.6395931 2.957814 -0.66091466
-3.2963538 3.6937513 -0.55181438
-4.4423285 4.9778814 -0.37266406
-6.9621882 7.801527 0
-10.236159 11.470198 0.85870481
-1.6355342 1.8282572 -0.80884957
-1.91515 2.1408215 -0.79249799
-2.2311413 2.4940476 -0.74132305
-2.6397455 2.9507995 -0.66005957
-3.2990916 3.6878397 -0.55152637
-4.4396796 4.9628286 -0.37193853
-6.9542613 7.773716 0
-10.265602 11.475248 0.86001092
-1.6591984 1.8502061 -0.81944644
-1.8875898 2.1048899 -0.78004038
-2.2188873 2.4743266 -0.73625761
-2.6501644 2.9552524 -0.66177142
-3.2949128 3.6742246 -0.55008519
-4.445673 4.9574609 -0.37193853
-6.949749 7.7498074 0
-10.319356 11.507325 0.86334872
-1.669693 1.8573886 -0.82352054
-1.9001917 2.1137984 -0.78419203
-2.2303736 2.4810972 -0.73907369
-2.6502976 2.9482262 -0.66091466
-3.3010776 3.6721623 -0.5503732
-4.4412403 4.9404945 -0.37106797
-6.9434509 7.7239871 0
-10.34715 11.510306 0.86450982
-1.645463 1.8259922 -0.81048107
-1.8993887 2.1077771 -0.78280902
-2.2333701 2.4784005 -0.73907369
-2.6452672 2.9354885 -0.65877527
-3.3003161 3.6624048 -0.54950804
-4.4489446 4.9370532 -0.37121296
-6.9336133 7.6943231 0
-10.383662 11.522888 0.86639649
-1.6531886 1.8323382 -0.81374091
-1.8972974 2.1029003 -0.78142339
-2.2365675 2.4789355 -0.739636
-2.6487584 2.9357939 -0.65920281
-3.3007972 3.6584918 -0.54922003
-4.4449639 4.9266472 -0.37063241
-6.9260621 7.6766124 0
-10.404547 11.532047 0.86755759
-1.6554013 1.8303393 -0.81374091
-1.9065683 2.1080487 -0.78419203
-2.2344463 2.470576 -0.73794681
-2.6523037 2.9325912 -0.65920281
-3.3034821 3.6525843 -0.54893202
-4.4404588 4.9097133 -0.36976185
-6.923111 7.6547251 0
-10.437648 11.540668 0.86915427
-1.6576118 1.8283377 -0.81374091
-1.9006903 2.0964522 -0.78073186
-2.2357249 2.4659936 -0.7373845
-2.659297 2.9331915 -0.66005957
-3.3009441 3.6409252 -0.54777884
-4.4463882 4.9043446 -0.36976185
-6.9166245 7.6290035 0
-10.481254 11.560771 0.87162149
-1.6598197 1.8263335 -0.81374091
-1.8947872 2.084873 -0.77727175
-2.2352817 2.4595261 -0.73625761
-2.6524768 2.9185743 -0.65749097
-3.305341 3.636934 -0.54777884
-4.4453201 4.8912764 -0.36918128
-6.9083376 7.6013846 0
-10.505697 11.559632 0.87249207
-1.6603624 1.8225013 -0.81292677
-1.9226499 2.1104019 -0.78765482
-2.2416778 2.4605837 -0.7373845
-2.6577284 2.917263 -0.65791851
-3.306246 3.6291099 -0.54720169
-4.4424791 4.8762994 -0.36845574
-6.9052472 7.5795631 0
-10.535405 11.564216 0.87379819
-1.6458927 1.8022397 -0.80477554
-1.9082773 2.0895486 -0.78073186
-2.2446492 2.4578731 -0.7373845
-2.6543272 2.9064672 -0.65620661
-3.3071434 3.6212962 -0.54662567
-4.4483681 4.8709278 -0.36845574
-6.9003606 7.55584 0
-10.573905 11.578342 0.87583041
-1.6697638 1.8239474 -0.81536931
-1.9091083 2.0853925 -0.78004038
-2.2390404 2.4457903 -0.73457056
-2.6543736 2.8994746 -0.65535152
-3.309772 3.6153915 -0.54633766
-4.4472318 4.857883 -0.36787516
-6.8831301 7.5187087 0
-10.610696 11.590472 0.87771708
-1.6502433 1.7982569 -0.80477554
-1.9014523 2.0719974 -0.77588874
-2.247143 2.4486938 -0.73625761
-2.6682858 2.9076097 -0.65791851
-3.3176322 3.6151974 -0.54691368
-4.4478259 4.8467603 -0.3674396
-6.8904452 7.5084634 0
-10.645776 11.600616 0.87945879
-1.6457216 1.7889856 -0.80151564
-1.9005543 2.0660021 -0.77450311
-2.2432191 2.4384968 -0.73400611
-2.6648452 2.8968265 -0.65620661
-3.3114948 3.5997684 -0.54518449
-4.4448848 4.8318224 -0.36671406
-6.8959923 7.496305 0
-10.680889 11.610685 0.8811999
-1.6411799 1.7797278 -0.7982558
-1.9132569 2.0747736 -0.77865738
-2.2496123 2.4395239 -0.73513293
-2.6648664 2.8898337 -0.65535152
-3.3158419 3.5957644 -0.54518449
-4.4489598 4.8245397 -0.36656904
-6.8785796 7.4592671 0
-10.724854 11.630243 0.88366711
-1.6752076 1.8122294 -0.81374091
-1.9208665 2.0779817 -0.78073186
-2.2456594 2.4293406 -0.73288137
-2.6648746 2.8828452 -0.65449643
-3.3149157 3.5860555 -0.54431933
-4.4512553 4.815341 -0.3662785
-6.8646235 7.4261079 0
-10.768883 11.649712 0.88613433
-1.6689981 1.801141 -0.80966687
-1.9097345 2.0609376 -0.77519459
-2.2520437 2.4303493 -0.73400611
-2.6648631 2.8758535 -0.65363967
-3.3139706 3.576354 -0.54345417
-4.450006 4.8023348 -0.36569795
-6.8682899 7.412087 0
-10.805916 11.661474 0.88802159
-1.6610774 1.7882541 -0.80477554
-1.9190528 2.0659811 -0.77796322
-2.2497959 2.4220467 -0.73231906
-2.6718335 2.8763967 -0.65449643
-3.3218133 3.5761409 -0.54403132
-4.4558053 4.7969546 -0.36569795
-6.8736954 7.3999653 0
-10.835913 11.665542 0.8893277
-1.7002882 1.8260373 -0.82270318
-1.9164239 2.0581579 -0.77588874
-2.2388687 2.4044499 -0.72781599
-2.6805501 2.8787971 -0.65577906
-3.3243644 3.5702262 -0.54374218
-4.4492016 4.7782531 -0.36468181
-6.8578062 7.3649926 0
-10.887184 11.692373 0.89237547
-1.6609482 1.7816284 -0.80314714
-1.919376 2.0588329 -0.77658021
-2.2524445 2.4161012 -0.73175454
-2.6822889 2.877177 -0.65577906
-3.3265207 3.568217 -0.54374218
-4.4485469 4.7717667 -0.36439183
-6.8622546 7.3608479 0
-10.911962 11.704797 0.8938266
-1.6597214 1.776005 -0.80151564
-1.9270028 2.0620129 -0.77865738
-2.2553623 2.4133778 -0.73175454
-2.6770015 2.864558 -0.65363967
-3.3273013 3.5604191 -0.54316616
-4.4489851 4.7606907 -0.36395627
-6.8622608 7.3430457 0
-10.965125 11.733366 0.89701939
-1.6635607 1.7758073 -0.802333
-1.9123381 2.0413706 -0.77173442
-2.2495928 2.401381 -0.72894067
-2.675194 2.8556991 -0.65235531
-3.3245277 3.5488458 -0.54201299
-4.4511847 4.7515225 -0.36366627
-6.8462157 7.3081551 0
-11.011268 11.754239 0.89963162
-1.6673955 1.7755959 -0.80314714
