# .PCD v0.7 - Point Cloud Data file format
VERSION 0.7
FIELDS x y z
SIZE 4 4 4
TYPE F F F
COUNT 1 1 1
WIDTH 1529
HEIGHT 1
VIEWPOINT 0 0 0 1 0 0 0
POINTS 1529
DATA ascii
-1.6801589 4.6404142 -0.55008519
-2.230695 6.1609344 -0.36598849
-3.3489413 9.2494087 0
-6.8552227 18.933372 1.1247314
-0.84635627 2.3287489 -0.81700081
-0.99059135 2.7256117 -0.80011243
-1.1456565 3.1522734 -0.74301225
-1.3541389 3.7259123 -0.66091466
-1.6884125 4.6456666 -0.55094922
-2.2363608 6.1533456 -0.36569795
-3.3521152 9.2233438 0
-6.8647838 18.888451 1.1225547
-0.87457949 2.397378 -0.84144819
-0.9913038 2.71734 -0.79803526
-1.1485946 3.1485021 -0.74244988
-1.3604012 3.7291014 -0.66177142
-1.6895934 4.6314759 -0.54950804
-2.23667 6.1311102 -0.36453682
-3.3525543 9.1899481 0
-6.8412948 18.753204 1.1150074
-0.86302882 2.3568664 -0.82759458
-0.98854721 2.6996474 -0.79318947
-1.1506491 3.1423354 -0.74132305
-1.3578446 3.7081704 -0.65834773
-1.6960769 4.6318574 -0.54979604
-2.2422915 6.123528 -0.36424682
-3.3520238 9.1541233 0
-6.804985 18.583899 1.1054291
-0.8675797 2.3604572 -0.82922292
-0.99180847 2.698451 -0.79318947
-1.1632125 3.1647964 -0.74695295
-1.367636 3.7209792 -0.66091466
-1.6981032 4.6200938 -0.54864287
-2.2461033 6.1110582 -0.36366627
-3.3594911 9.140295 0
-6.8157825 18.543959 1.1035424
-0.89267498 2.4197013 -0.85041356
-1.0167756 2.7560909 -0.81049281
-1.1503253 3.1180933 -0.73625761
-1.3739098 3.7241454 -0.66177142
-1.6974205 4.6010594 -0.54662567
-2.2435918 6.0815215 -0.36206958
-3.3588238 9.1044903 0
-6.7923188 18.411386 1.0961407
-0.86899096 2.3467667 -0.82514888
-1.0026851 2.7078164 -0.79665226
-1.1673279 3.1524451 -0.74470145
-1.3677118 3.6935947 -0.65663582
-1.7029787 4.5990052 -0.54662567
-2.2455263 6.0641899 -0.36119902
-3.35446 9.058938 0
-6.8190713 18.415348 1.0968663
-0.90798908 2.4430149 -0.85937583
-1.0111985 2.7207079 -0.8008039
-1.1746769 3.1605592 -0.74695295
-1.3712769 3.6895263 -0.65620661
-1.7049301 4.5872464 -0.5454725
-2.2510397 6.0565963 -0.36090848
-3.3608711 9.0426836 0
-6.7562289 18.178156 1.0832239
-0.91007727 2.4396024 -0.85856169
-0.99344075 2.6630712 -0.78419203
-1.1722776 3.1424706 -0.74301225
-1.3793228 3.6974874 -0.65791851
-1.7168006 4.6021485 -0.54749084
-2.2501833 6.0319633 -0.35960236
-3.3617883 9.0117912 0
-6.7582064 18.116413 1.0800307
-0.86536044 2.3112004 -0.81374091
-1.0089753 2.694766 -0.79388362
-1.168946 3.1220152 -0.73850918
-1.3837895 3.6958179 -0.65791851
-1.713289 4.5758433 -0.54460734
-2.2556496 6.0243778 -0.35931236
-3.3617241 8.9784756 0
-6.7618723 18.059574 1.0771284
-0.8789078 2.3430707 -0.82514888
-1.0097195 2.6918001 -0.79318947
-1.1672624 3.1117923 -0.73625761
-1.3860221 3.6949813 -0.65791851
-1.7160531 4.5748076 -0.54460734
-2.2528996 6.005981 -0.35829625
-3.3543532 8.9423332 0
-6.7399278 17.967901 1.0719033
-0.8869651 2.3558903 -0.83004022
-1.005903 2.6718042 -0.78765482
-1.1844516 3.1460512 -0.74470145
-1.3859642 3.681294 -0.65577906
-1.7179344 4.5630484 -0.54345417
-2.2546637 5.9886684 -0.35742569
-3.3633235 8.9334078 0
-6.736002 17.891663 1.0678401
-0.8898111 2.3548167 -0.83004022
-1.0295242 2.7245567 -0.80357254
-1.1900465 3.1493669 -0.74582613
-1.3867817 3.6700113 -0.65406722
-1.72436 4.5633864 -0.54374218
-2.2517939 5.9591994 -0.355829
-3.3575552 8.8855114 0
-6.7107754 17.759552 1.0604384
-0.87249672 2.3005848 -0.81129527
-1.0194703 2.6881223 -0.79318947
-1.1911507 3.1408062 -0.74413908
-1.3912151 3.6683328 -0.65406722
-1.7280401 4.5564675 -0.54316616
-2.2562275 5.949183 -0.35539344
-3.3692145 8.8838882 0
-6.6778684 17.608091 1.0518756
-0.85593444 2.2487149 -0.79336756
-1.0111166 2.6564102 -0.78419203
-1.1967509 3.1441095 -0.74526376
-1.3901691 3.6522589 -0.65150023
-1.7307833 4.547122 -0.542301
-2.2541726 5.9221725 -0.35394233
-3.3669834 8.8457546 0
-6.6797285 17.549013 1.0488278
-0.87981951 2.3030918 -0.81292677
-1.0179068 2.6645608 -0.78696066
-1.1969221 3.1331668 -0.74301225
-1.4009948 3.6673651 -0.65449643
-1.7344321 4.5401993 -0.54172498
-2.2520556 5.8951755 -0.35249123
-3.367456 8.8149443 0
-6.6777468 17.480247 1.0451994
-0.8967554 2.338943 -0.82596308
-1.0157386 2.6492784 -0.78280902
-1.1997982 3.129348 -0.74244988
-1.3943971 3.6369064 -0.64936078
-1.7399167 4.5381002 -0.54172498
-2.2610357 5.8972979 -0.35278121
-3.3631978 8.7719889 0
-6.6532836 17.353283 1.0380877
-0.88626939 2.3032634 -0.81374091
-1.0585773 2.7510624 -0.81326151
-1.1908056 3.0947011 -0.73457056
-1.4006326 3.6400058 -0.65021592
-1.7416835 4.5263391 -0.54057181
-2.2597623 5.8727379 -0.35147512
-3.3691225 8.7557764 0
-6.6555834 17.29673 1.035185
-0.89439243 2.3160203 -0.81862915
-1.0619006 2.7497814 -0.81326151
-1.2091861 3.1311755 -0.74357456
-1.403182 3.6335261 -0.64936078
-1.7499475 4.5314722 -0.54143697
-2.2593682 5.8506112 -0.35031399
-3.3721993 8.7322769 0
-6.6474624 17.213539 1.030686
-0.89719021 2.3149378 -0.81862915
-1.0226147 2.6385591 -0.78073186
-1.2129686 3.1297121 -0.74357456
-1.4112821 3.6414022 -0.65107268
-1.7498118 4.5148792 -0.53970665
-2.2654977 5.8454566 -0.350169
-3.3789864 8.7184896 0
-6.6213078 17.084356 1.0234293
-0.90357053 2.3230662 -0.82188904
-1.0621793 2.7308469 -0.80841833
-1.1983314 3.0808918 -0.73231906
-1.4166107 3.6420846 -0.65150023
-1.7505788 4.5007114 -0.53826547
-2.2697322 5.8354473 -0.34973344
-3.3829136 8.6974192 0
-6.624052 17.030336 1.0206721
-0.88840204 2.2759244 -0.80558974
-1.0590916 2.7132001 -0.80357254
-1.2038993 3.0841711 -0.73344374
-1.4210104 3.6403701 -0.65150023
-1.7597778 4.5082307 -0.53941864
-2.2654433 5.8036537 -0.34799176
-3.3811188 8.6618118 0
-6.6068306 16.925499 1.0148665
-0.89115137 2.2748494 -0.80558974
-1.0422392 2.6605325 -0.78834635
-1.2066991 3.0803504 -0.73288137
-1.4244726 3.6362627 -0.65107268
-1.7605076 4.4940619 -0.53797746
-2.2677162 5.7888174 -0.3472662
-3.38304 8.6359129 0
-6.6111655 16.876375 1.0123993
-0.92103028 2.3427823 -0.83004022
-1.056468 2.687289 -0.79665226
-1.2178575 3.0978079 -0.7373845
-1.4288652 3.6345387 -0.65107268
-1.7602566 4.4774837 -0.53624713
-2.2671034 5.766727 -0.34610507
-3.3782372 8.5930662 0
-6.5944772 16.774069 1.0067393
-0.8966462 2.2726891 -0.80558974
-1.037617 2.6300015 -0.78004038
-1.2160028 3.0821481 -0.73400611
-1.4294873 3.6232579 -0.64936078
-1.7704109 4.4873815 -0.53768831
-2.2759788 5.7688222 -0.34639564
-3.3886178 8.5889778 0
-6.5622935 16.633152 0.998757
-0.88665539 2.2394359 -0.79418176
-1.0463336 2.6427369 -0.78419203
-1.2234676 3.0901263 -0.73625761
-1.4329166 3.6191342 -0.64893162
-1.7748804 4.4828362 -0.53740031
-2.265728 5.7225757 -0.34378284
-3.3855827 8.5510054 0
-6.572823 16.601055 0.99730587
-0.90578634 2.2797034 -0.80884957
-1.0856549 2.7324004 -0.81118703
-1.2262632 3.0862865 -0.7356953
-1.4325501 3.6054742 -0.64679217
-1.7774334 4.473484 -0.53653628
-2.2736032 5.7222557 -0.3439284
-3.3911085 8.5348177 0
-6.5804052 16.561712 0.9954192
-0.92044324 2.3084598 -0.81944644
-1.0471437 2.6262228 -0.78004038
-1.223403 3.068279 -0.73175454
-1.4359556 3.6013584 -0.64636463
-1.7780448 4.4593139 -0.53509396
-2.2766662 5.7098494 -0.34334785
-3.3831038 8.4847813 0
-6.5676923 16.471689 0.99048477
-0.93100393 2.3308516 -0.82759458
-1.0794384 2.7024708 -0.80288106
-1.2356249 3.0934975 -0.73794681
-1.4371799 3.5981085 -0.64593709
-1.7797801 4.4558392 -0.53480595
-2.2724047 5.6891685 -0.34218675
-3.3863006 8.4779062 0
-6.5217414 16.327765 0.98206693
-0.92830044 2.3159556 -0.82270318
-1.0481683 2.615006 -0.77727175
-1.2289622 3.0660567 -0.73175454
-1.446301 3.6082809 -0.64807647
-1.7870893 4.4584913 -0.53538311
-2.271543 5.6671233 -0.34102562
-3.3975091 8.476222 0
-6.5211644 16.269224 0.97901917
-0.92464441 2.2987874 -0.81700081
-1.0503919 2.6114123 -0.77658021
-1.2288768 3.0551491 -0.72950518
-1.4401213 3.5803306 -0.64336842
-1.7857178 4.4395289 -0.53336477
-2.2754791 5.6571398 -0.34059006
-3.3912394 8.4310665 0
-6.5039721 16.169729 0.97350413
-0.91632003 2.2701652 -0.80722123
-1.0864096 2.6915586 -0.8008039
-1.2306635 3.0489452 -0.7283783
-1.4463699 3.5833533 -0.64422518
-1.7881756 4.4301705 -0.53249961
-2.2823129 5.654386 -0.34059006
-3.3975277 8.4173088 0
-6.5283675 16.173904 0.97422969
-0.92555845 2.2850943 -0.81292677
-1.0501059 2.5925872 -0.77173442
-1.2257626 3.0262628 -0.72331291
-1.4516613 3.5839801 -0.64465272
-1.7954712 4.4328055 -0.53307676
-2.2793903 5.6275449 -0.33913895
-3.4008558 8.3963108 0
-6.5283957 16.117836 0.97132689
-0.91622138 2.2542102 -0.802333
-1.0995243 2.7051966 -0.8056497
-1.2466378 3.0671449 -0.73344374
-1.4511589 3.5703349 -0.64251333
-1.7988764 4.4258361 -0.53249961
-2.2793388 5.607934 -0.33812284
-3.3972814 8.3584461 0
-6.5087337 16.013657 0.96552187
-0.96467721 2.3652308 -0.84226239
-1.0658444 2.6132762 -0.77865738
-1.2493843 3.0632858 -0.73288137
-1.4612868 3.5828362 -0.64508033
-1.8003156 4.4140797 -0.53134644
-2.2821879 5.5955515 -0.33754227
-3.4034472 8.344696 0
-6.505507 15.950439 0.96218354
-0.93383563 2.2817242 -0.81292677
-1.0690013 2.6119864 -0.77865738
-1.251158 3.0570664 -0.73175454
-1.463672 3.5763209 -0.64422518
-1.8056479 4.411901 -0.53134644
-2.2810736 5.5735512 -0.33638117
-3.4066303 8.3237247 0
-6.4676962 15.803101 0.95376629
-0.92710572 2.2497556 -0.802333
-1.1058942 2.6836116 -0.8008039
-1.2575749 3.051687 -0.73119217
-1.468398 3.5632796 -0.64251333
-1.8094089 4.3907919 -0.52932924
-2.2895868 5.5560126 -0.3356556
-3.4059134 8.2649403 0
-6.495965 15.763395 0.95231462
-0.94682193 2.289742 -0.81700081
-1.0784625 2.6080942 -0.77865738
-1.2534938 3.0313807 -0.7266891
-1.465835 3.5448947 -0.63951713
-1.811747 4.3814292 -0.52846408
-2.2893507 5.5364399 -0.33464006
-3.4089351 8.2439814 0
-6.4663582 15.637885 0.94520348
-0.94769168 2.2840261 -0.81536931
-1.1017991 2.6554399 -0.79318947
-1.2522877 3.0181315 -0.72387522
-1.4691343 3.5407522 -0.63908958
-1.8160495 4.3768501 -0.52817607
-2.290062 5.5192647 -0.33376893
-3.4188938 8.2398558 0
-6.4623437 15.574857 0.94186515
-0.93620384 2.2486598 -0.80314714
-1.0992233 2.6402147 -0.78903782
-1.2598401 3.0259991 -0.72612679
-1.4832764 3.5626686 -0.64336842
-1.8223299 4.3770385 -0.52846408
-2.2937322 5.509295 -0.33333337
-3.4188466 8.2116976 0
-6.4352183 15.456695 0.93518901
-0.95797497 2.293139 -0.81944644
-1.0937099 2.6180527 -0.78280902
-1.2723097 3.0455732 -0.73119217
-1.4796638 3.5419242 -0.63994467
-1.8266213 4.3724489 -0.52817607
-2.2913735 5.4849429 -0.33202726
-3.4227452 8.1931477 0
-6.4538898 15.448907 0.93518901
-0.94832093 2.2623403 -0.80884957
-1.0803859 2.5773983 -0.77104294
-1.274026 3.0393515 -0.73006749
-1.482951 3.5377686 -0.63951713
-1.8299015 4.3654633 -0.52759892
-2.2990029 5.4845643 -0.33217224
-3.4255989 8.1722031 0
-6.4313712 15.342855 0.92923898
-0.94913918 2.2566407 -0.80722123
-1.0834994 2.5760911 -0.77104294
-1.271785 3.0237522 -0.7266891
-1.4902114 3.5430753 -0.64080143
-1.835175 4.3632488 -0.52759892
-2.2995856 5.4674158 -0.33130169
-3.4243751 8.1416759 0
-6.426734 15.279982 0.92590064
-0.95090514 2.2532172 -0.80640703
-1.1002657 2.6071346 -0.78073186
-1.2724767 3.0151973 -0.72500211
-1.4895017 3.529449 -0.63866204
-1.8384364 4.356267 -0.5270229
-2.3041716 5.4598498 -0.33101168
-3.4311736 8.1303368 0
-6.4300404 15.236301 0.92372394
-0.96422547 2.2770956 -0.81536931
-1.0770055 2.5434349 -0.7620455
-1.2780987 3.0183325 -0.72612679
-1.4987693 3.5394635 -0.64080143
-1.8406721 4.3468947 -0.52615774
-2.3006332 5.4331293 -0.32956001
-3.4328766 8.1070127 0
-6.4190636 15.159133 0.91951501
-0.96504503 2.2713838 -0.81374091
-1.0938104 2.5744531 -0.77173442
-1.2747887 3.0004137 -0.72218603
-1.5030448 3.5376501 -0.64080143
-1.8439022 4.339911 -0.52558172
-2.3071964 5.4303455 -0.32956001
-3.429441 8.071723 0
-6.4201031 15.110712 0.9170478
-0.98232472 2.3043139 -0.82596308
-1.1087263 2.6008234 -0.78004038
-1.2823989 3.0082207 -0.72443759
-1.4942324 3.5051348 -0.63523829
-1.8450876 4.3281627 -0.52442855
-2.3137562 5.4275537 -0.32956001
-3.4330699 8.0532141 0
-6.3853731 14.978656 0.90950114
-0.96042562 2.2491755 -0.80640703
-1.1191633 2.6209159 -0.78626919
-1.2772342 2.9910946 -0.72049904
-1.5013894 3.5160334 -0.63737774
-1.8517652 4.3365617 -0.52558172
-2.3017313 5.3903165 -0.32738334
-3.4369137 8.0487471 0
-6.3638067 14.9031 0.90514666
-0.96119398 2.2434654 -0.80477554
-1.1114641 2.594202 -0.77865738
-1.2798438 2.9872069 -0.71993452
-1.5026029 3.5071354 -0.63609338
-1.8570037 4.334321 -0.52558172
-2.3072164 5.3851357 -0.32723778
-3.4394612 8.0278406 0
-6.3838582 14.900181 0.90543723
-0.95024043 2.2105169 -0.79336756
-1.0987453 2.5559797 -0.76758277
-1.293489 3.0090063 -0.72556442
-1.5149499 3.5241845 -0.63951713
-1.8581536 4.3225694 -0.52442855
-2.3126965 5.3799591 -0.3270928
-3.4357984 7.992599 0
-6.3669686 14.811296 0.90050274
-0.95291072 2.2093673 -0.79336756
-1.1236897 2.6053259 -0.78280902
-1.2870589 2.9841053 -0.71993452
-1.5151405 3.5129228 -0.63780528
-1.8592778 4.3108211 -0.52327538
-2.315079 5.3676167 -0.32651222
-3.4372077 7.9693241 0
-6.3334079 14.684297 0.89324605
-0.98502553 2.2762597 -0.81781495
-1.1138852 2.5740368 -0.77381158
-1.292684 2.9872162 -0.72106135
-1.5061314 3.4804645 -0.63224208
-1.8644853 4.3085713 -0.52327538
-2.3122764 5.3433552 -0.3252061
-3.4375334 7.9436712 0
-6.3160615 14.595557 0.88831156
-0.95529318 2.2002542 -0.79092193
-1.126984 2.5956969 -0.78073186
-1.2912338 2.9740009 -0.71824747
-1.5174932 3.4951272 -0.63523829
-1.8707191 4.3086853 -0.52356339
-2.3228705 5.3500915 -0.32578668
-3.4429834 7.9299626 0
-6.3243799 14.566465 0.88700545
-0.97473031 2.2376175 -0.80477554
-1.1221043 2.5759332 -0.77519459
-1.312076 3.0120373 -0.72781599
-1.5237638 3.4979935 -0.63609338
-1.8676603 4.2874517 -0.52125704
-2.3272598 5.3425207 -0.32549667
-3.444248 7.9067092 0
-6.3160338 14.499259 0.88337713
-0.99525177 2.2772079 -0.81944644
-1.1141672 2.5492952 -0.76758277
-1.298417 2.9708719 -0.71824747
-1.519765 3.4773319 -0.63266969
-1.8738743 4.2875595 -0.52154505
-2.329551 5.3301811 -0.32491612
-3.4475479 7.8882384 0
-6.2898455 14.391621 0.87728155
-0.97716016 2.2284713 -0.802333
-1.1404157 2.600785 -0.78350055
-1.305064 2.9762752 -0.71993452
-1.528089 3.4848971 -0.63438153
-1.8759406 4.278193 -0.52068102
-2.327642 5.3083243 -0.323755
-3.4455795 7.8578467 0
-6.3218369 14.417321 0.87931323
-0.97288418 2.2114501 -0.79662746
-1.1183022 2.5419981 -0.76619714
-1.3015 2.9584222 -0.71599591
-1.5322988 3.4830482 -0.63438153
-1.8821491 4.2782884 -0.52096903
-2.3340545 5.3055081 -0.323755
-3.4519267 7.846529 0
-6.2806611 14.276487 0.87118596
-0.97056645 2.1989694 -0.79255342
-1.131505 2.5636008 -0.77312011
-1.3050736 2.9568474 -0.71599591
-1.5302888 3.4671078 -0.63181454
-1.8894041 4.2807388 -0.52154505
-2.3341658 5.2884164 -0.32288387
-3.4561517 7.8304501 0
-6.2811189 14.230853 0.8688637
-0.98122871 2.2158747 -0.7990731
-1.1285051 2.5484638 -0.76896578
-1.3086455 2.9552684 -0.71599591
-1.5344771 3.465256 -0.63181454
-1.886197 4.2595329 -0.51923871
-2.3384521 5.2808447 -0.3225939
-3.4561281 7.8048539 0
-6.2720079 14.163857 0.86523539
-0.98691303 2.221457 -0.80151564
-1.1356579 2.5562692 -0.77173442
-1.3245946 2.9815497 -0.72275054
-1.538663 3.4633994 -0.63181454
-1.8913424 4.2572508 -0.51923871
-2.3469391 5.2827601 -0.32288387
-3.4645007 7.798296 0
-6.2564168 14.082661 0.86073649
-0.98255599 2.2044668 -0.79581326
-1.1285344 2.5319848 -0.76481414
-1.3168168 2.9544158 -0.71655828
-1.5428468 3.4615378 -0.63181454
-1.8901694 4.2407923 -0.51750952
-2.3395698 5.2490687 -0.32099721
-3.4580276 7.7584457 0
-6.237464 13.994401 0.855802
-0.98219115 2.196507 -0.79336756
-1.1438823 2.5581021 -0.77312011
-1.3193494 2.9505053 -0.71599591
-1.5449305 3.4549797 -0.63095778
-1.901625 4.2526674 -0.51923871
-2.3480339 5.2509866 -0.32128778
-3.4695263 7.7590179 0
-6.2469425 13.970247 0.85478592
-0.99597365 2.2201266 -0.802333
-1.1356759 2.5315371 -0.76550567
-1.3197925 2.9419518 -0.71430671
-1.5438514 3.4414017 -0.62881839
-1.8961774 4.2267723 -0.51635635
-2.3490601 5.2362943 -0.32056221
-3.4597228 7.7120743 0
-6.2340426 13.896315 0.85072255
-0.98445225 2.1873631 -0.79092193
-1.146971 2.5484648 -0.77104294
-1.3212627 2.9357252 -0.71318203
-1.5511701 3.4465587 -0.63010269
-1.908715 4.2409906 -0.51837468
-2.3617821 5.2476645 -0.32143277
-3.469039 7.7078881 0
-6.2177682 13.815314 0.84622312
-1.0054004 2.2267151 -0.80558974
-1.1314683 2.5059245 -0.75858539
-1.3279428 2.9410675 -0.71486908
-1.5606145 3.4563777 -0.63224208
-1.9063864 4.2221775 -0.51635635
-2.3595667 5.2258611 -0.32027164
-3.4783499 7.703691 0
-6.1938257 13.717803 0.84070808
-1.0036931 2.2193577 -0.80314714
-1.1608911 2.5669525 -0.77727175
-1.3318155 2.9448993 -0.71599591
-1.5510696 3.4297121 -0.6275357
-1.9078721 4.2186708 -0.51606834
-2.3563011 5.2102337 -0.31940109
-3.4701388 7.673142 0
-6.203186 13.716433 0.84085363
-1.0033095 2.2113888 -0.8007015
-1.1588101 2.554127 -0.77381158
-1.3280232 2.9270885 -0.71205521
-1.5562721 3.430171 -0.62796324
-1.9172426 4.2257838 -0.51722151
-2.3550789 5.1908164 -0.31838498
-3.468653 7.6452389 0
-6.1639285 13.58588 0.83330637
-1.0151949 2.2304187 -0.80803537
-1.149424 2.5253246 -0.76550567
-1.3315589 2.9254816 -0.71205521
-1.5625405 3.4329562 -0.62881839
-1.9105599 4.197567 -0.51405001
-2.3602738 5.1856041 -0.31823999
-3.4692633 7.6220927 0
-6.151279 13.514575 0.82938802
-1.0117314 2.2157049 -0.80314714
-1.1649791 2.5513191 -0.77381158
-1.3350929 2.9238706 -0.71205521
-1.5560268 3.4077189 -0.62453949
-1.9177812 4.1999655 -0.51462716
-2.3643773 5.1780167 -0.31794941
-3.4827945 7.6273646 0
-6.1773167 13.528403 0.83069414
-1.017493 2.2212155 -0.80558974
-1.168061 2.5499096 -0.77381158
-1.3418005 2.9291878 -0.7137444
-1.5654877 3.4175031 -0.62667894
-1.9174656 4.1858807 -0.51318485
-2.3706322 5.1751556 -0.31794941
-3.4876726 7.6136866 0
-6.1644435 13.457151 0.82677579
-1.0119237 2.2020264 -0.7990731
-1.152287 2.5074682 -0.76135403
-1.3389709 2.913707 -0.71036601
-1.5674741 3.4109485 -0.62582386
-1.9192851 4.176517 -0.51232082
-2.3725433 5.1628432 -0.31736887
-3.4762256 7.5645432 0
-6.1535749 13.390669 0.82314742
-1.0187228 2.2097805 -0.802333
-1.1595173 2.5151873 -0.76412266
-1.3414278 2.9097819 -0.70980364
-1.5640703 3.392731 -0.62282765
-1.9243302 4.1741948 -0.51232082
-2.3776932 5.1576152 -0.31722388
-3.4908099 7.5721521 0
-6.141468 13.321874 0.81937408
-1.0213921 2.2085478 -0.802333
-1.1604474 2.5092261 -0.76273698
-1.3470778 2.9127758 -0.71093053
-1.5735554 3.4024861 -0.6249671
-1.927199 4.1671672 -0.51174366
-2.3828337 5.1523824 -0.31707886
-3.4868479 7.5395832 0
-6.1346564 13.264918 0.81632632
-1.0063778 2.1691992 -0.78847933
-1.1761483 2.5351312 -0.77104294
-1.3484557 2.9065316 -0.70980364
-1.573344 3.3912678 -0.62325519
-1.9376744 4.1765642 -0.51318485
-2.3824942 5.1353521 -0.31620774
-3.493767 7.5306478 0
-6.1211529 13.193851 0.81240737
-1.0215088 2.1948626 -0.7982558
-1.1569817 2.4859459 -0.75650823
-1.3562552 2.9141147 -0.71205521
-1.5731078 3.3800547 -0.62154335
-1.9307177 4.1484323 -0.51001447
-2.384316 5.1230555 -0.31562775
-3.4929817 7.5051875 0
-6.1283193 13.167599 0.81124628
-1.0356628 2.2182639 -0.80722123
-1.1631696 2.4913681 -0.75858539
-1.351176 2.8940551 -0.70755213
-1.5750209 3.3735037 -0.6206882
-1.942292 4.1601539 -0.51174366
-2.3959997 5.1319408 -0.31635329
-3.4998438 7.4962406 0
-6.13873 13.148415 0.81052071
-1.0100411 2.1565838 -0.78521949
-1.1757547 2.510406 -0.76481414
-1.354672 2.8924203 -0.70755213
-1.5845389 3.3832197 -0.62282765
-1.9451253 4.1531239 -0.51116765
-2.402199 5.1290417 -0.31635329
-3.5011711 7.4755063 0
-6.1050234 13.035107 0.80399013
-1.0252542 2.1821973 -0.79499596
-1.1691868 2.4885499 -0.75858539
-1.3624878 2.8999803 -0.70980364
-1.5919017 3.3882751 -0.62411195
-1.9391415 4.1273561 -0.50828415
-2.4050786 5.1190777 -0.31591776
-3.5102012 7.4712701 0
-6.0953546 12.973627 0.80065179
-1.0278903 2.1809568 -0.79499596
-1.1689832 2.480325 -0.75650823
-1.3638264 2.8937395 -0.70867896
-1.5905235 3.3747408 -0.62197256
-1.9496437 4.1367149 -0.50972646
-2.4112625 5.116168 -0.31591776
-3.5014782 7.4293661 0
-6.0678258 12.87459 0.79499179
-1.0358099 2.190892 -0.7990731
-1.1644722 2.4630322 -0.75166243
-1.3640628 2.885196 -0.70698977
-1.5880147 3.3588874 -0.6194039
-1.944688 4.1133046 -0.50713098
-2.4152234 5.1085572 -0.31562775
-3.4982157 7.3992467 0
-6.084487 12.869596 0.79513681
-1.0278633 2.1673028 -0.79092193
-1.1728216 2.472955 -0.75512254
-1.367548 2.8835456 -0.70698977
-1.5920721 3.3569663 -0.6194039
-1.9474422 4.1062822 -0.50655496
-2.4213943 5.1056352 -0.31562775
-3.5015788 7.3832598 0
-6.090013 12.841106 0.79383069
-1.0251733 2.1549017 -0.78684783
-1.1812009 2.4828699 -0.75858539
-1.3666649 2.8727131 -0.70473826
-1.5961272 3.3550401 -0.6194039
-1.9535124 4.1062593 -0.50684297
-2.4297922 5.1073937 -0.31591776
-3.5127313 7.383719 0
-6.0642223 12.746922 0.78846067
-1.0341612 2.1670411 -0.79173607
-1.1896015 2.4927595 -0.7620455
-1.366851 2.8641779 -0.70304906
-1.6068157 3.3670142 -0.62197256
-1.9573597 4.1015639 -0.50655496
-2.4314852 5.0950737 -0.31533718
-3.5160472 7.3677278 0
-6.0639544 12.706758 0.78642899
-1.0408026 2.177572 -0.79581326
-1.1943539 2.4988329 -0.76412266
-1.3718693 2.8702314 -0.70473826
-1.6044216 3.3567784 -0.62026066
-1.9620659 4.1050434 -0.50713098
-2.4334435 5.0912619 -0.31519219
-3.5092771 7.3421259 0
-6.0200872 12.595254 0.77975285
-1.0252688 2.1384273 -0.78195965
-1.1919463 2.4860706 -0.76065987
-1.3731415 2.8639936 -0.70361352
-1.5973761 3.3316851 -0.61598015
-1.9547276 4.0770216 -0.50396061
-2.441838 5.0929995 -0.3154822
-3.5158935 7.3331823 0
-6.0195765 12.555173 0.77772117
-1.037492 2.1572313 -0.78929353
-1.1862506 2.4665413 -0.75512254
-1.3821064 2.8737795 -0.70642745
-1.6080785 3.3436375 -0.61854881
-1.9585325 4.0723281 -0.5036726
-2.4434853 5.0806785 -0.31490162
-3.5179861 7.3148608 0
-6.0313625 12.540862 0.77728558
-1.022915 2.1203585 -0.77625412
-1.2023109 2.4922211 -0.76342851
-1.3745353 2.8492179 -0.7007975
-1.6121174 3.341692 -0.61854881
-1.9612018 4.0652947 -0.50309545
-2.4462388 5.0707078 -0.31446663
-3.5222988 7.301229 0
-6.0092545 12.456337 0.77249616
-1.045929 2.1613858 -0.79173607
-1.2042297 2.4885104 -0.76273698
-1.3812985 2.8544188 -0.70248669
-1.6116812 3.3304987 -0.61683691
-1.9740002 4.0792217 -0.50511378
-2.4546254 5.0724216 -0.31475663
-3.5231819 7.2805667 0
-6.0061913 12.411643 0.77017391
-1.0496222 2.1623504 -0.79255342
-1.1897072 2.4509428 -0.75166243
-1.3780913 2.8390369 -0.69911045
-1.6134602 3.3239257 -0.61598015
-1.9710203 4.0605435 -0.50309545
-2.4641578 5.076467 -0.31519219
-3.5274305 7.2669396 0
-6.0041666 12.369319 0.76799721
-1.0522342 2.1610806 -0.79255342
-1.1904734 2.4449964 -0.75027943
-1.3870813 2.8487899 -0.70192438
-1.6208477 3.3289001 -0.61726451
-1.9815856 4.0697842 -0.50453663
-2.4668763 5.0664749 -0.31475663
-3.5270944 7.2439528 0
-5.9940848 12.310662 0.76480442
-1.0364063 2.1220546 -0.77869976
-1.2000306 2.4570775 -0.75443107
-1.3871762 2.8402603 -0.70023519
-1.6192371 3.315408 -0.61512506
-1.9785594 4.0511246 -0.50251943
-2.468435 5.0541511 -0.31417608
-3.5267122 7.2209868 0
-6.0009723 12.287065 0.76378834
-1.0607126 2.1651838 -0.79499596
-1.2063109 2.4623868 -0.75650823
-1.3883735 2.8340228 -0.69911045
-1.6254985 3.3180552 -0.61598015
-1.9811749 4.0440812 -0.50194228
-2.4802549 5.06283 -0.31490162
-3.5262752 7.1980233 0
-5.9872365 12.22147 0.76015997
-1.0480695 2.1328492 -0.78358799
-1.2048595 2.451921 -0.7537396
-1.390673 2.8300562 -0.69854599
-1.6329041 3.3230028 -0.61726451
-1.9837807 4.037046 -0.50136626
-2.4886646 5.0644979 -0.31519219
-3.5280812 7.1797385 0
-5.97679 12.162925 0.75696719
-1.0397208 2.109416 -0.77543992
-1.2144741 2.4639606 -0.75789124
-1.3907248 2.821543 -0.69685894
-1.6278386 3.3026068 -0.61384076
-1.9772201 4.0114417 -0.49848279
-2.4913347 5.054493 -0.31475663
-3.5287032 7.1591363 0
-5.9673586 12.106751 0.75391942
-1.0499336 2.123661 -0.78114229
-1.2230129 2.4737425 -0.76135403
-1.4076463 2.8471932 -0.70361352
-1.6352422 3.3075433 -0.61512506
-1.9889456 4.0229659 -0.50021309
-2.4939845 5.0444889 -0.31432107
-3.5235102 7.1268721 0
-5.9670129 12.069253 0.75203276
-1.0744601 2.1666768 -0.7974416
-1.2115126 2.4430466 -0.75235659
-1.3997948 2.8227224 -0.69798362
-1.6301137 3.2871664 -0.61170131
-1.9880607 4.008976 -0.49877191
-2.5035422 5.0484576 -0.31475663
-3.5355844 7.1295972 0
-5.9504256 11.999187 0.74811441
-1.0594655 2.1299696 -0.78440219
-1.2211653 2.4550538 -0.75650823
-1.404335 2.8233018 -0.69854599
-1.6397996 3.2966843 -0.61384076
-1.9940542 4.0088844 -0.49905992
-2.5107965 5.0477533 -0.31490162
-3.5314505 7.0996952 0
-5.9602909 11.982682 0.7475338
-1.0521086 2.1087852 -0.77706826
-1.2241309 2.4535766 -0.75650823
-1.406612 2.8193314 -0.69798362
-1.647221 3.3015938 -0.61512506
-2.0000503 4.0087843 -0.49934795
-2.5168941 5.0447159 -0.31490162
-3.5307317 7.0767927 0
-5.9562049 11.93827 0.7452116
-1.0646096 2.127403 -0.78440219
-1.2068878 2.4117165 -0.74405062
-1.4077457 2.8130896 -0.69685894
-1.6431663 3.2835293 -0.61212885
-2.0002625 3.9971125 -0.49819478
-2.5171745 5.0300546 -0.31417608
-3.5439386 7.081831 0
-5.9485302 11.886911 0.74245381
-1.0564148 2.0983412 -0.77462572
-1.209327 2.4020684 -0.74197346
-1.4088279 2.7983339 -0.69404507
-1.6487901 3.2749674 -0.61127377
-2.0052638 3.983026 -0.49704161
-2.5351641 5.0355592 -0.31490162
-3.5399792 7.0314088 0
-5.9421868 11.802878 0.73809987
-1.0645188 2.1080923 -0.77869976
-1.2178817 2.4118004 -0.74543363
-1.4144965 2.8011615 -0.69516975
-1.6539021 3.2752621 -0.61170131
-2.0124092 3.9852223 -0.49761873
-2.5400765 5.0301747 -0.31475663
-3.539088 7.0085416 0
-5.9365335 11.756261 0.73563266
-1.0704124 2.1134131 -0.78114229
-1.2411966 2.450608 -0.75789124
-1.4144348 2.7926481 -0.69348055
-1.6555363 3.2686768 -0.61084455
-2.0090413 3.9666338 -0.4956004
-2.5461526 5.027102 -0.31475663
-3.5440249 6.9972925 0
-5.9190378 11.686498 0.73171431
-1.0783997 2.1259956 -0.78603369
-1.2199833 2.4051185 -0.74405062
-1.4276184 2.8144577 -0.69911045
-1.6551905 3.2631016 -0.60998946
-2.0161176 3.9746461 -0.49675357
-2.5456619 5.0186086 -0.31432107
-3.5235295 6.9464116 0
-5.9190421 11.66901 0.73084319
-1.074241 2.1114695 -0.78114229
-1.2342623 2.4259984 -0.7509709
-1.4275604 2.8059344 -0.69742125
-1.6579691 3.2588134 -0.60956192
-2.0068445 3.9445436 -0.49329409
-2.5481925 5.0085878 -0.31388608
-3.5307415 6.9398317 0
-5.9025044 11.60164 0.72706985
-1.0711756 2.0991642 -0.77706826
-1.2280704 2.4066284 -0.74543363
-1.4274839 2.7974155 -0.69573206
-1.658404 3.2499459 -0.60827756
-2.0163119 3.9513314 -0.49444726
-2.5589669 5.0147634 -0.31446663
-3.527293 6.912375 0
-5.9070702 11.575983 0.72590876
-1.0714612 2.0934722 -0.77543992
-1.2286936 2.4006803 -0.74405062
-1.432024 2.7979572 -0.69629657
-1.6564831 3.236516 -0.60613817
-2.0257983 3.958102 -0.4956004
-2.5673897 5.0162892 -0.31475663
-3.5380163 6.9127455 0
-5.9009285 11.529517 0.72344148
-1.0706028 2.0855775 -0.77299422
-1.2373209 2.4103513 -0.74751079
-1.4261208 2.778141 -0.6917935
-1.6639061 3.2413566 -0.6074208
-2.0234945 3.9418495 -0.49387121
-2.5698881 5.0062461 -0.31432107
-3.5344837 6.8853173 0
-5.892312 11.478463 0.72068429
-1.0855683 2.1084566 -0.78195965
-1.2344915 2.3977041 -0.74405062
-1.4259861 2.7696364 -0.69010431
-1.6654736 3.2347836 -0.60656571
-2.017597 3.9186988 -0.49127576
-2.5795047 5.0100703 -0.31475663
-3.5428004 6.8810415 0
-5.8895273 11.438996 0.71865261
-1.0949173 2.1203156 -0.78684783
-1.2235746 2.3694615 -0.73574471
-1.4351597 2.7791975 -0.69291818
-1.6670275 3.2282114 -0.60571063
-2.0258918 3.9231548 -0.49214092
-2.5736363 4.9838662 -0.31330553
-3.5451384 6.8651872 0
-5.8842688 11.394931 0.71633035
-1.0895205 2.103626 -0.78114229
-1.2425876 2.3991649 -0.74543363
-1.4373493 2.7752073 -0.69235587
-1.6626617 3.2102361 -0.60271442
-2.0246842 3.9092226 -0.49069971
-2.5772643 4.9761338 -0.31301495
-3.5522354 6.8585901 0
-5.8836927 11.360125 0.7145887
-1.0886468 2.0957344 -0.77869976
-1.2350785 2.3776271 -0.73920482
-1.4383568 2.7689545 -0.69122899
-1.6736372 3.2218888 -0.60528141
-2.0305974 3.9090664 -0.49098775
-2.5868697 4.9799361 -0.31345052
-3.1286561 6.0229197 0
-5.8686676 11.297666 0.71110535
-1.0843241 2.0812614 -0.77380842
-1.2460656 2.3917096 -0.74405062
-1.4428788 2.7694745 -0.6917935
-1.6692296 3.2039344 -0.60228688
-2.0377116 3.911202 -0.49156487
-2.589282 4.9698911 -0.31301495
-3.1275129 6.0029759 0
-5.8667073 11.260611 0.70921868
-1.0994303 2.104048 -0.78277379
-1.2582495 2.4079902 -0.74958795
-1.4391614 2.7542126 -0.68841511
-1.6766629 3.208734 -0.60356951
-2.0364435 3.8972685 -0.49012259
-2.601301 4.9782715 -0.31374052
-3.1275349 5.9853578 0
-5.8562417 11.207454 0.70631588
-1.1042641 2.1070924 -0.78440219
-1.2483472 2.3820229 -0.74197346
-1.4483844 2.7637224 -0.69122899
-1.6853052 3.2158008 -0.60528141
-2.0423551 3.8971026 -0.4904117
-2.6085241 4.9774327 -0.31388608
-3.1480544 6.0069327 0
-5.8492756 11.161245 0.70384866
-1.0895637 2.0729456 -0.77218002
-1.2500583 2.3782942 -0.74128199
-1.4505417 2.7597234 -0.69066668
-1.6879965 3.2114921 -0.60485387
-2.0434513 3.8877611 -0.48954657
-2.6097007 4.9650769 -0.31330553
-0 0 0
-5.8579216 11.144969 0.70326811
-1.0989809 2.0847418 -0.77706826
-1.2447406 2.3612449 -0.73643619
-1.4491358 2.7489779 -0.68841511
-1.6870873 3.2003665 -0.60314196
-2.0384982 3.8669848 -0.48724023
-2.6144874 4.9596238 -0.31316051
-3.163774 6.0016079 0
-5.8556328 11.108003 0.70138144
-1.1176744 2.114007 -0.78847933
-1.2546262 2.3730421 -0.74058783
-1.4583932 2.7584541 -0.69122899
-1.6849551 3.1869807 -0.60100257
-2.0504203 3.8782341 -0.48896942
-2.6022596 4.9220014 -0.31098327
-3.1673732 5.9908762 0
-5.8447647 11.054985 0.69847918
-1.1121218 2.0973675 -0.78277379
-1.2668947 2.389256 -0.7461251
-1.4545856 2.7432251 -0.6878528
-1.6960179 3.1985459 -0.60356951
-2.0575306 3.8803284 -0.48954657
-2.609421 4.9211469 -0.31112829
-0 0 0
-5.8325567 10.999708 0.69543141
-1.0937686 2.0567465 -0.76810598
-1.2650689 2.3788633 -0.74335647
-1.4578991 2.7414656 -0.6878528
-1.693856 3.185164 -0.60143012
-2.0512888 3.8572888 -0.48695219
-2.6141465 4.9156985 -0.31098327
-0 0 0
-5.8348641 10.972007 0.69412529
-1.1043915 2.0706828 -0.77380842
-1.254959 2.3529897 -0.73574471
-1.4659935 2.7486699 -0.69010431
-1.6928712 3.1740549 -0.59971821
-2.0571642 3.8570874 -0.48724023
-2.6164145 4.9056559 -0.31054774
-3.1780472 5.9586906 0
-5.8248825 10.921384 0.69136751
-1.1021523 2.0634811 -0.77136588
-1.2634698 2.3655043 -0.73989636
-1.4640615 2.7410576 -0.68841511
-1.6972097 3.1775644 -0.60057497
-2.0509629 3.8398714 -0.48522189
-2.6157088 4.8972049 -0.31011271
-3.1890008 5.9705386 0
-5.8229089 10.901816 0.69035137
-1.0999765 2.0534329 -0.76810598
-1.2746207 2.3794582 -0.74474216
-1.4625732 2.7303276 -0.6861636
-1.6949883 3.1641994 -0.59843558
-2.0604866 3.8465104 -0.48637506
-2.6240759 4.8986173 -0.31040272
-3.1962128 5.966681 0
-5.8299437 10.883323 0.6896258
-1.1071358 2.0608115 -0.77136588
-1.2644334 2.3536038 -0.73712766
-1.4670773 2.730803 -0.68672806
-1.7036653 3.1711857 -0.60014582
-2.0651329 3.844018 -0.48637506
-2.6250739 4.8862867 -0.30982217
-0 0 0
-5.8111191 10.81676 0.68585247
-1.1189992 2.0768709 -0.77788246
-1.2720362 2.3609087 -0.73989636
-1.4727839 2.7334979 -0.6878528
-1.7062793 3.166867 -0.59971821
-2.0685503 3.8392448 -0.48608705
-2.6285136 4.8785405 -0.30953217
-3.2106225 5.9589396 0
-5.810626 10.784565 0.68425578
-1.1132865 2.0603025 -0.77218002
-1.2880081 2.3836508 -0.74751079
-1.4688406 2.718308 -0.68447655
-1.7125477 3.1693244 -0.60057497
-2.0694978 3.8299139 -0.48522189
-2.6368744 4.8799291 -0.30982217
-3.2116358 5.9436102 0
-5.8001862 10.734108 0.68149859
-1.1181281 2.0632975 -0.77380842
-1.2705684 2.3445978 -0.73574471
-1.472124 2.7165313 -0.68447655
-1.7114836 3.1582248 -0.59886312
-2.0790534 3.8365066 -0.48637506
-2.631628 4.8561802 -0.30851606
-3.2076566 5.9191341 0
-5.8057261 10.713388 0.680628
-1.1182622 2.057606 -0.77218002
-1.2722036 2.3408587 -0.73505318
-1.4790418 2.7214415 -0.6861636
-1.7116199 3.1493859 -0.59757882
-2.0762794 3.8203609 -0.48464587
-2.6325307 4.8438644 -0.30793551
-3.2309606 5.9449778 0
-5.805017 10.68125 0.67903131
-1.1077352 2.0323792 -0.76321465
-1.2738271 2.3371105 -0.73435903
-1.482329 2.7196524 -0.6861636
-1.7191107 3.1540797 -0.59886312
-2.0833673 3.822387 -0.48522189
-2.6371391 4.8384008 -0.30779049
-3.2331595 5.9319291 0
-5.7918057 10.626317 0.67598355
-1.1078215 2.0267057 -0.76158631
-1.2874786 2.3553798 -0.74058783
-1.4831791 2.7134047 -0.68503886
-1.7155308 3.1384807 -0.59629452
-2.0892286 3.8221431 -0.485511
-2.6417384 4.8329329 -0.3076455
-3.240325 5.9280181 0
-5.7959156 10.603349 0.67496741
-1.1518492 2.1012158 -0.79010773
-1.2806807 2.3362317 -0.73505318
-1.490122 2.7182968 -0.68672806
-1.7180889 3.1341567 -0.59586692
-2.1000607 3.8309538 -0.48695219
-2.6450756 4.8251758 -0.30735493
-3.2399817 5.9104104 0
-5.7762504 10.5371 0.67119408
-1.1186683 2.0348501 -0.76566035
-1.2798756 2.3280852 -0.73297602
-1.4860585 2.7031305 -0.68334967
-1.7231102 3.1343257 -0.59629452
-2.0972095 3.8148098 -0.48522189
-2.6546607 4.8288097 -0.30779049
-3.2571511 5.9247355 0
-5.7839708 10.521005 0.67061353
-1.1306728 2.0508125 -0.77218002
-1.2790527 2.3199439 -0.73089892
-1.4868724 2.6968868 -0.68222499
-1.7281392 3.134496 -0.59672368
-2.1030698 3.8145447 -0.485511
-2.6517103 4.8096676 -0.30677438
-3.2592814 5.9116797 0
-5.7728462 10.470779 0.66785628
-1.1271714 2.0386319 -0.76810598
-1.2830677 2.32059 -0.73159039
-1.4938148 2.7017529 -0.68391204
-1.7244701 3.118922 -0.59415507
-2.1076775 3.8120008 -0.485511
-2.6575198 4.8064599 -0.30677438
-3.2676802 5.9100122 0
-5.7779479 10.450148 0.66698515
-1.1344281 2.0459146 -0.77136588
-1.2943879 2.3343985 -0.73643619
-1.4958473 2.6977258 -0.68334967
-1.7332169 3.1258161 -0.59586692
-2.0984838 3.7845669 -0.48233953
-2.6620667 4.8009753 -0.30662939
-3.2798672 5.915164 0
-5.7641106 10.395439 0.66393739
-1.144104 2.0574989 -0.77625412
-1.2996484 2.3372221 -0.73782182
-1.4991059 2.6959164 -0.68334967
-1.7320023 3.1147454 -0.59415507
-2.1068275 3.7888122 -0.48320466
-2.6653378 4.7932086 -0.30633882
-3.2882755 5.9134688 0
-5.7703543 10.377113 0.66321182
-1.1309414 2.0280545 -0.76566035
-1.2865838 2.3071594 -0.72882175
-1.4998896 2.6896689 -0.68222499
-1.7370137 3.1148903 -0.59458262
-2.1076236 3.7794845 -0.48233953
-2.6673346 4.7831831 -0.30590382
-3.2966847 5.9117618 0
-5.7677021 10.3429 0.66147017
-1.1394218 2.0374703 -0.76973438
-1.2869239 2.301228 -0.72743875
-1.5056165 2.6922858 -0.68334967
-1.7370209 3.1060741 -0.59329998
-2.1121888 3.7769351 -0.48233953
-2.6731122 4.7799563 -0.30590382
-3.3127186 5.9236765 0
-5.7586355 10.297372 0.6590029
-1.1297954 2.014539 -0.76158631
-1.2946122 2.308424 -0.73020738
-1.5088686 2.6904645 -0.68334967
-1.7432816 3.1084466 -0.59415507
-2.1129541 3.7676103 -0.48147437
-2.6725268 4.7653847 -0.30517772
-3.3211455 5.921937 0
-5.7545519 10.260945 0.65711623
-1.1297985 2.0116949 -0.76076895
-1.2984612 2.312012 -0.73159039
-1.5080076 2.6851258 -0.68222499
-1.7388753 3.0962038 -0.59201562
-2.111434 3.7595739 -0.48061031
-2.6703207 4.7547154 -0.30459771
-3.3170788 5.9063191 0
-5.7518468 10.241614 0.65610069
-1.152851 2.0469446 -0.77462572
-1.298794 2.3060737 -0.73020738
-1.5100005 2.6810815 -0.68166047
-1.7426152 3.0941005 -0.59201562
-2.1147022 3.7547598 -0.4803212
-2.6735113 4.746953 -0.30430713
-3.33443 5.9204473 0
-5.7591171 10.2256 0.65552014
-1.1443806 2.0261753 -0.76728868
-1.305282 2.311058 -0.73228455
-1.5094939 2.6726241 -0.67997348
-1.748875 3.0964587 -0.59287077
-2.1230547 3.7589605 -0.48118636
-2.679245 4.7437191 -0.30430713
-3.3454173 5.9232059 0
-5.7778563 10.229945 0.65624571
-1.1431773 2.0183454 -0.76484615
-1.3093086 2.3116601 -0.73297602
-1.5102153 2.6663723 -0.6788466
-1.7526152 3.0943432 -0.59287077
-2.1224964 3.74739 -0.48003319
-2.6849749 4.7404785 -0.30430713
-3.3487277 5.9123721 0
-5.1576285 9.1060915 0.58455044
-1.1395082 2.0062108 -0.76076895
-1.3046643 2.2969835 -0.72882175
-1.5121822 2.6623383 -0.67828429
-1.7487482 3.0788348 -0.59030378
-2.1180847 3.7290862 -0.47801596
-2.6817164 4.7214127 -0.30329102
-3.353296 5.9037914 0
-5.1634946 9.0908146 0.58396983
-1.1590598 2.0349038 -0.77218002
-1.3037174 2.2888718 -0.72674727
-1.5166544 2.662715 -0.6788466
-1.7537364 3.078948 -0.59073132
-2.1200261 3.7220247 -0.47743884
-2.6848497 4.7136574 -0.30300102
-3.3578537 5.8952169 0
-5.1153188 8.980711 0.57729369
-1.1651965 2.0399423 -0.77462572
-1.302748 2.2807574 -0.72467011
-1.5148298 2.652055 -0.67659509
-1.7549114 3.0723729 -0.58987623
-2.1155407 3.7037368 -0.4754205
-2.6905432 4.7104096 -0.30300102
-3.3714271 5.902452 0
-5.091373 8.9136095 0.5733754
-1.1639739 2.0320969 -0.77218002
-1.3092449 2.2857146 -0.72674727
-1.525613 2.6634557 -0.67997348
-1.7598972 3.0724754 -0.59030378
-2.1213038 3.7034287 -0.47570962
-2.6936474 4.7026415 -0.30271047
-3.3876126 5.9141841 0
-5.0879316 8.8826466 0.57177871
-1.1541156 2.0092528 -0.76402885
-1.3220023 2.3015344 -0.73228455
-1.5212343 2.6483865 -0.67659509
-1.7661681 3.0748031 -0.59116054
-2.1322172 3.7120748 -0.4771508
-2.6876807 4.6791067 -0.30140436
-3.3947561 5.9100866 0
-5.1025448 8.8832541 0.57221425
-1.1466781 1.9907312 -0.75751221
-1.3110069 2.2760201 -0.72467011
-1.5282391 2.6531539 -0.67828429
-1.7685971 3.0704358 -0.59073132
-2.1379907 3.7117348 -0.47743884
-2.6972246 4.6826129 -0.30183992
-3.4044902 5.9104862 0
-5.0964155 8.8478136 0.57032758
-1.1540228 1.9978969 -0.76076895
-1.3175218 2.2809536 -0.72674727
-1.5263603 2.6425045 -0.67603272
-1.7658871 3.0571842 -0.58859193
-2.1450639 3.7136323 -0.47801596
-2.700284 4.6748548 -0.30154991
-3.4051223 5.895103 0
-5.1148982 8.8551455 0.57119817
-1.1502432 1.9858094 -0.75669491
-1.3152471 2.2706766 -0.72397858
-1.5359186 2.6516495 -0.6788466
-1.7695799 3.0550482 -0.58859193
-2.1378782 3.6908882 -0.4754205
-2.6981137 4.658093 -0.30067879
-3.4200668 5.9044914 0
-5.1255941 8.848958 0.57119817
-1.1824354 2.0357118 -0.77625412
-1.3179898 2.2690856 -0.72397858
-1.5378466 2.6475966 -0.67828429
-1.760379 3.0307143 -0.58431304
-2.1397407 3.6838334 -0.47484446
-2.7037401 4.6548295 -0.30067879
-3.4232812 5.89361 0
-5.1362829 8.8427582 0.57119817
-1.1587719 1.9894332 -0.75914061
-1.3207306 2.2674913 -0.72397858
-1.5333738 2.6325672 -0.67490804
-1.7795441 3.0552037 -0.58944869
-2.1493976 3.6901853 -0.47599763
-2.7093625 4.6515594 -0.30067879
-3.4408739 5.9074516 0
-5.1469636 8.8365459 0.57119817
-1.1748883 2.0115101 -0.76810598
-1.3234694 2.2658939 -0.72397858
-1.5403944 2.6372883 -0.67659509
-1.7780555 3.0441847 -0.58773679
-2.1538548 3.6875854 -0.47599763
-0 0 -0
-3.4414477 5.8920555 0
-5.1641889 8.8415365 0.57192367
-1.1635761 1.9866271 -0.75914061
-1.3262063 2.2642932 -0.72397858
-1.5345945 2.6200838 -0.67265654
-1.7817326 3.0420339 -0.58773679
-2.1504633 3.6715848 -0.47426733
-2.7022128 4.6136122 -0.29864714
-3.4433033 5.8789101 0
-5.1735563 8.8330507 0.57177871
-1.1759895 2.0022693 -0.76566035
-1.3263979 2.2583582 -0.72259295
-1.541616 2.6247942 -0.67434353
-1.7867059 3.0420902 -0.58816433
-2.1496584 3.6600628 -0.47311416
-2.7064707 4.6081052 -0.29850212
-3.4622653 5.8949399 0
-5.1894894 8.8357553 0.57235926
-1.1646096 1.9774183 -0.75669491
-1.3380389 2.271888 -0.72743875
-1.5460796 2.6251252 -0.67490804
-1.7812599 3.0244434 -0.58516818
-2.1580186 3.664151 -0.47397932
-2.7093968 4.6003494 -0.29821157
-3.4588249 5.8728209 0
-5.1843381 8.8026104 0.57061756
-1.1946836 2.0256817 -0.77543992
-1.3292156 2.2537918 -0.72190148
-1.5541179 2.6351318 -0.67772192
-1.7817839 3.0211577 -0.58474064
-2.1615446 3.6650722 -0.47426733
-2.7108569 4.5964756 -0.29806656
-3.4663348 5.8774486 0
-5.6516376 9.5828047 0.62141389
-1.1883221 2.0093429 -0.76973438
-1.3459868 2.2759395 -0.72951591
-1.5404876 2.6048224 -0.67040497
-1.7906601 3.0278409 -0.58645248
-2.1699226 3.6691387 -0.4751325
-2.7150874 4.5909624 -0.29792157
-3.4707868 5.8687801 0
-5.6526303 9.5580759 0.62025279
-1.1844467 1.9972781 -0.76566035
-1.3359367 2.2527287 -0.72259295
-1.5397445 2.5964005 -0.66871578
-1.7890797 3.0168431 -0.58474064
-2.1624818 3.6464939 -0.47253814
-2.7153311 4.5787382 -0.29734102
-3.4805281 5.8690548 0
-5.6482706 9.5244188 0.61851108
-1.1704376 1.9682307 -0.75506657
-1.350197 2.2705176 -0.72882175
-1.544178 2.59672 -0.66927814
-1.7914128 3.0124748 -0.58431304
-2.162919 3.6372068 -0.47167298
-2.7195296 4.5732141 -0.29719546
-3.4956009 5.8782706 0
-5.6478229 9.497489 0.61720496
-1.1829418 1.9837978 -0.76158631
-1.3619349 2.2839699 -0.73366755
-1.5473145 2.5948522 -0.66927814
-1.7989919 3.016916 -0.58559573
-2.172611 3.6434767 -0.47282615
-2.7170713 4.5565381 -0.29632488
-3.4987011 5.8673344 0
-5.6566358 9.4861984 0.61691499
-1.1739235 1.9632772 -0.75425237
-1.3428077 2.2457201 -0.72190148
-1.5452329 2.5842576 -0.66702658
-1.7947341 3.0015249 -0.58302873
-2.1717024 3.6319692 -0.47167298
-2.7225749 4.5532517 -0.29632488
-3.4964375 5.847465 0
-5.6467576 9.4436741 0.61459273
-1.1735703 1.9519616 -0.75099254
-1.3508185 2.2467728 -0.72328711
-1.5554025 2.5870507 -0.66871578
-1.7993394 2.9927831 -0.58217365
-2.1764789 3.6200669 -0.47080892
-2.7335703 4.5466595 -0.29632488
-3.5212862 5.8568416 0
-5.6441221 9.3876858 0.61183494
-1.1784778 1.9547715 -0.75262088
-1.339283 2.2215033 -0.71567267
-1.5559011 2.5808132 -0.66758895
-1.8029543 2.9906068 -0.58217365
-2.1755097 3.6085742 -0.46965575
-2.7296698 4.5277734 -0.29530877
-3.5216434 5.8414407 0
-5.6393676 9.3541641 0.61009383
-1.1872309 1.9639199 -0.75669491
-1.3692205 2.2649674 -0.73020738
-1.5550786 2.5724142 -0.6659019
-1.8039079 2.9840281 -0.58131689
-2.1798685 3.6059427 -0.46965575
-2.7364869 4.5267019 -0.29545432
-3.5394702 5.8549986 0
-5.6358776 9.3228807 0.6084972
-1.1908879 1.9646035 -0.75751221
-1.3628517 2.2482915 -0.72536159
-1.5581857 2.5705333 -0.6659019
-1.812835 2.9906273 -0.58302873
-2.1869028 3.6077256 -0.4702318
-2.7379122 4.5167241 -0.29501876
-3.5573347 5.8685222 0
-5.6363626 9.2982874 0.60733604
-1.1919734 1.961045 -0.75669491
-1.3799024 2.2702272 -0.73297602
-1.5665696 2.5773337 -0.66815341
-1.8124459 2.9818516 -0.58174443
-2.1899183 3.6028724 -0.46994376
-2.7420194 4.5111942 -0.29487377
-3.559016 5.8553238 0
-5.6313982 9.2648249 0.6055944
-1.191772 1.9553864 -0.75506657
-1.3565314 2.2257135 -0.71913278
-1.563072 2.5645926 -0.66533953
-1.8107036 2.9708915 -0.58003259
-2.1915753 3.5958023 -0.46936664
-2.742059 4.4990025 -0.29429322
-3.5728593 5.8621283 0
-5.6250095 9.2291708 0.60370773
-1.1980016 1.9602737 -0.75751221
-1.3539867 2.2155101 -0.71636415
-1.5661697 2.5627022 -0.66533953
-1.8169719 2.9730864 -0.58088934
-2.194571 3.5909467 -0.46907863
-2.7461395 4.4934707 -0.29414821
-3.569083 5.8400421 0
-5.6239634 9.2024145 0.60240161
-1.1952038 1.9503952 -0.75425237
-1.352734 2.2074614 -0.71428967
-1.5666072 2.5564706 -0.6642127
-1.8192229 2.9687021 -0.58046174
-2.196208 3.5838859 -0.46850258
-2.7488489 4.485714 -0.29385766
-3.5883739 5.8556938 0
-5.6201429 9.1712399 0.60080492
-1.1988523 1.9510535 -0.75506657
-1.3750978 2.2378814 -0.72467011
-1.5723581 2.5589099 -0.66533953
-1.8268367 2.9730568 -0.58174443
-2.1937678 3.5702133 -0.4670614
-2.7501848 4.4757452 -0.2934221
-3.5872743 5.8380537 0
-5.6189785 9.1445189 0.59949881
-1.2050996 1.9559183 -0.75751221
-1.3830647 2.2447619 -0.72743875
-1.5701176 2.5483551 -0.66308802
-1.8250414 2.9621053 -0.58003259
-2.2021465 3.5741596 -0.46792546
-2.7583194 4.4768476 -0.29371268
-3.5970535 5.8381424 0
-5.6204863 9.1222439 0.59848326
-1.2074621 1.9544607 -0.75751221
-1.3765448 2.2281468 -0.72259295
-1.575864 2.5507751 -0.6642127
-1.8313202 2.9642699 -0.58088934
-2.2051053 3.569298 -0.46763745
-2.7582641 4.4646692 -0.2931321
-3.6027389 5.8315797 0
-5.6123819 9.0844927 0.59645104
-1.215143 1.9642384 -0.76158631
-1.3778907 2.2273147 -0.72259295
-1.5733931 2.5433381 -0.66252351
-1.8263594 2.9522495 -0.5787499
-2.2127044 3.5767634 -0.46879062
-2.7582242 4.4585781 -0.29284155
-3.6007845 5.820549 0
-5.6110358 9.0700541 0.59572548
-1.2070926 1.945966 -0.75506657
-1.3620694 2.1958055 -0.71290404
-1.5804845 2.5479147 -0.6642127
-1.8299252 2.9500406 -0.5787499
-2.2088468 3.5609038 -0.4670614
-2.7608726 4.45083 -0.29255155
-3.6091855 5.8184037 0
-5.6069279 9.0389843 0.59412932
-1.2159687 1.9549979 -0.75914061
-1.3753216 2.2112007 -0.71844131
-1.5755128 2.5330617 -0.66083646
-1.8321288 2.9456413 -0.57832068
-2.210413 3.5538354 -0.46648428
-2.7607591 4.4386649 -0.291971
-3.6217113 5.8228779 0
-5.6000009 9.0035124 0.59224212
-1.2170235 1.951432 -0.75832641
-1.3872869 2.2244403 -0.72328711
-1.5826021 2.5376179 -0.66252351
-1.8329724 2.9390731 -0.57746559
-2.2133381 3.5489693 -0.46619624
-2.7633677 4.430912 -0.29168043
-3.6287444 5.8184977 0
-5.5998807 8.9791088 0.59108156
-1.2141386 1.9415777 -0.75506657
-1.3966231 2.2333958 -0.72674727
-1.5816295 2.529247 -0.66083646
-0 0 -0
-2.2135093 3.5397112 -0.46533111
-2.7632139 4.4187655 -0.29110044
-3.6357722 5.8141088 0
-5.5983229 8.9525013 0.58977491
-1.2151721 1.9380171 -0.75425237
-1.3833281 2.2062006 -0.71844131
-1.5806338 2.5208738 -0.65914726
-1.8373395 2.9302809 -0.57660884
-2.2177849 3.537034 -0.46533111
-2.7657878 4.4110165 -0.29080987
-3.6317346 5.7920718 0
-5.5994773 8.9303265 0.5887593
-1.228032 1.9532788 -0.76076895
-1.392668 2.2151449 -0.72190148
-1.5944978 2.5361707 -0.66365033
-1.8381488 2.9237165 -0.57575369
-2.2151752 3.5234053 -0.46388993
-2.7724972 4.4098692 -0.29095486
-3.6401198 5.7898893 0
-5.5909042 8.8927612 0.58672768
-1.2145798 1.9267116 -0.75099254
-1.3859773 2.1986027 -0.71705568
-1.5894285 2.5213413 -0.66027194
-1.8320963 2.9062901 -0.57275754
-2.2221868 3.5250981 -0.46446595
-2.7778237 4.4065156 -0.29095486
-3.6512728 5.7920847 0
-5.59056 8.8684139 0.58556652
-1.2261472 1.9398613 -0.75669491
-1.3752311 2.1757238 -0.71013534
-1.5924739 2.519419 -0.66027194
-1.8438387 2.917098 -0.57532614
-2.2223027 3.5158577 -0.46360189
-2.7748187 4.3899817 -0.2900843
-3.6610522 5.7920728 0
-5.5873852 8.8396835 0.58411485
-1.229817 1.9404719 -0.75751221
-1.3926332 2.197372 -0.71774983
-1.5941581 2.5153489 -0.65970963
-1.848735 2.9170341 -0.57575369
-2.2320876 3.5219085 -0.46475506
-2.7773364 4.3822317 -0.28979376
-3.6638675 5.7810483 0
-5.5841551 8.8109818 0.58266371
-1.2202265 1.920204 -0.75017518
-1.39932 2.2020338 -0.71982431
-1.5890222 2.5005579 -0.65633339
-1.8453755 2.9039671 -0.5736143
-2.2363415 3.5192089 -0.46475506
-2.7812371 4.3766818 -0.28964874
-3.6652668 5.7678308 0
-5.5892229 8.7954559 0.58208317
-1.2331709 1.9354038 -0.75669491
-1.3898481 2.1813014 -0.71359551
-1.6043295 2.5179198 -0.66139883
-1.8530227 2.9082322 -0.5748986
-2.2378097 3.5121374 -0.46417794
-2.7823334 4.3667417 -0.28921321
-3.6666393 5.7546186 0
-5.5844855 8.7645884 0.58048654
-1.2381724 1.9380821 -0.75832641
-1.396536 2.1859648 -0.71567267
-1.6032655 2.5095537 -0.65970963
-1.8482405 2.8930073 -0.57233
-2.2420518 3.5094309 -0.46417794
-2.7862101 4.3611889 -0.28906819
-3.6819994 5.7633471 0
-5.5782847 8.7315569 0.57874483
-1.2378443 1.9324181 -0.75669491
-1.3978244 2.1821654 -0.71498114
-1.6035582 2.5033395 -0.65858495
-1.8600453 2.9037457 -0.5748986
-2.2393165 3.4958315 -0.46273676
-2.7914777 4.3578191 -0.28906819
-3.6805353 5.7457409 0
-5.5790238 8.7095003 0.57772928
-1.2201471 1.8997327 -0.7444728
-1.4058832 2.1889184 -0.71774983
-1.5997175 2.4907126 -0.65577102
-1.8635526 2.9014959 -0.5748986
-2.2463317 3.4974716 -0.46331277
-2.7925324 4.3478904 -0.2886332
-3.6734138 5.7193961 0
-5.5769067 8.6830778 0.57642317
-1.2251154 1.9024091 -0.74610114
-1.4058077 2.1829956 -0.71636415
-1.6096032 2.4994571 -0.65858495
-1.8614976 2.8906093 -0.57318676
-2.2435553 3.4838839 -0.46187159
-2.7949677 4.3401394 -0.28834265
-3.6887736 5.7280774 0
-5.5761395 8.6588564 0.57526207
-1.2274133 1.9009274 -0.74610114
-1.4043658 2.1749785 -0.71428967
-1.6112398 2.4953697 -0.65802044
-1.8663801 2.8905122 -0.5736143
-2.2435584 3.474658 -0.46100754
-2.7988017 4.334578 -0.28819764
-3.675931 5.6930118 0
-5.5753222 8.6346483 0.57410091
-1.2498587 1.9305663 -0.75832641
-1.391994 2.1501124 -0.70667523
-1.6114947 2.4891593 -0.65689576
-1.8601044 2.8731687 -0.57061809
-2.2463455 3.4697671 -0.46071842
-2.7983885 4.3224683 -0.28761709
-3.6856387 5.6929393 0
-5.5730433 8.6082764 0.5727948
-1.2550544 1.9360267 -0.76076895
-1.406937 2.1703184 -0.71359551
-1.6129982 2.4881852 -0.65689576
-1.863235 2.8741963 -0.57104564
-2.2526636 3.4749227 -0.46158358
