# .PCD v0.7 - Point Cloud Data file format
VERSION 0.7
FIELDS x y z
SIZE 4 4 4
TYPE F F F
COUNT 1 1 1
WIDTH 1592
HEIGHT 1
VIEWPOINT 0 0 0 1 0 0 0
POINTS 1592
DATA ascii
-4.3659644 11.660596 0
-5.8776731 15.698059 0.93628037
-4.151793 11.047918 -0.65923047
-4.3855419 11.669924 0
-5.86099 15.59609 0.93062037
-4.1633039 11.038027 -0.6589399
-4.4088259 11.688972 0
-5.8963351 15.632755 0.93323261
-4.1830783 11.050001 -0.65995604
-4.4238672 11.686068 0
-5.9106212 15.613471 0.93250704
-4.1964273 11.044939 -0.65995604
-4.442605 11.692875 0
-5.8934927 15.511592 0.92684704
-4.2088447 11.037435 -0.65981102
-4.4622955 11.702094 0
-5.9270444 15.543306 0.92916924
-4.2221785 11.032341 -0.65981102
-4.4903822 11.733145 0
-5.9393187 15.519144 0.92815316
-4.2364364 11.029655 -0.65995604
-4.5026917 11.722857 0
-5.9431591 15.473145 0.9258309
-4.253499 11.034226 -0.66053659
-4.5187235 11.72226 0
-5.9637222 15.470806 0.92612147
-4.2640152 11.021806 -0.660101
-4.5385203 11.731359 0
-0 0 0
-4.2829709 11.031175 -0.66097158
-4.554574 11.730714 0
-5.9888663 15.424862 0.92423481
-4.2972426 11.028419 -0.66111714
-4.5715804 11.732479 0
-5.9990101 15.395826 0.92292869
-4.3134017 11.030472 -0.66155213
-4.5876474 11.73179 0
-6.011929 15.374042 0.92205757
-4.3238816 11.018003 -0.66111714
-4.6046729 11.733507 0
-6.0286045 15.361933 0.92176753
-4.3400455 11.020016 -0.66155213
-4.6665282 11.849004 0
-0 0 0
-4.3467021 11.017392 -0.66155213
-4.7243028 11.974479 0
-0 0 0
-4.359056 11.009718 -0.66140711
-4.7205677 11.922793 0
-6.0367193 15.247013 0.91596198
-3.3016174 8.2804136 -0.99360573
-4.39431 11.020872 -0.66271323
-4.7387633 11.884757 0
-6.0725865 15.229969 0.91581696
-3.2606957 8.149148 -0.97832656
-4.4095554 11.020385 -0.6630038
-4.7366853 11.837949 0
-6.0861588 15.21056 0.9150914
-3.2291009 8.0419989 -0.96593082
-4.4219012 11.012639 -0.66285878
-4.742259 11.810483 0
-6.1045332 15.203195 0.9150914
-3.2320483 8.0212955 -0.96391249
-4.4264617 10.98559 -0.66155213
-4.7526355 11.795089 0
-6.1131859 15.171701 0.91363972
-3.2078063 7.9334655 -0.95382309
-0 0 -0
-4.7707863 11.798988 0
-6.1354098 15.17394 0.91422033
-3.2154469 7.9247952 -0.95324701
-0 0 -0
-4.7821035 11.785978 0
-6.124433 15.094286 0.90986639
-3.1830792 7.8178935 -0.9408502
-0 0 -0
-14.521406 35.665718 0
-6.1456075 15.094097 0.91030198
-3.1612234 7.7374315 -0.93162596
-3.3149853 8.11378 -0.48957092
-14.566461 35.652969 0
-12.541683 30.697107 1.8522084
-3.1637013 7.7168517 -0.92960763
-3.323802 8.1073666 -0.48942593
-14.58781 35.582359 0
-12.589609 30.70838 1.8538051
-3.1543298 7.6675825 -0.92413092
-3.3276625 8.0889215 -0.48855481
-6.189467 15.045431 0
-12.645485 30.738796 1.8565623
-3.1537211 7.639853 -0.92124742
-3.3473506 8.1089182 -0.49000648
-6.2185626 15.064396 0
-12.689559 30.740311 1.8575784
-3.1490948 7.6025872 -0.91721189
-0 0 -0
-6.2407441 15.066489 0
-12.726693 30.724955 1.8575784
-3.1423955 7.5605621 -0.91259921
-0 0 -0
-6.2559509 15.051735 0
-12.765801 30.71435 1.8578683
-3.1385872 7.5257282 -0.90885168
-0 0 -0
-26.792738 64.243828 0
-12.800906 30.694111 1.8575784
-3.1317029 7.4837546 -0.904239
-0 0 -0
-26.853266 64.170601 0
-12.849015 30.704981 1.8591745
-3.1317322 7.4585042 -0.90164465
-0 0 -0
-26.955969 64.198082 0
-12.901197 30.725372 1.8613517
-3.1186512 7.4022808 -0.89530277
-0 0 -0
-27.0315 64.160675 0
-12.934278 30.700182 1.8607712
-3.1215525 7.3842173 -0.89357358
-0 0 -0
-27.087727 64.077629 0
-12.989574 30.727608 1.8633834
-3.1092639 7.3304386 -0.88751972
-3.2125099 7.573853 -0.4595286
-0 0 0
-13.036841 30.735817 1.864835
-3.1035759 7.304749 -0.88463622
-3.1825397 7.4906025 -0.45459414
-0 0 0
-13.064552 30.749456 1.8661412
-3.0911007 7.2510304 -0.87858236
-3.1824186 7.4652414 -0.45328802
-0 0 0
-13.100676 30.731251 1.8659956
-3.0846055 7.2116256 -0.87425882
-3.1750865 7.4231653 -0.45096576
-14.484946 33.864952 0
-13.146998 30.736908 1.8673023
-3.0759773 7.1674891 -0.86935812
-3.1686852 7.3835125 -0.44878909
-14.547407 33.897644 0
-13.179001 30.709053 1.8665762
-3.0692909 7.1281304 -0.86503345
-3.167326 7.3558078 -0.44733742
-14.564681 33.825062 0
-13.240761 30.750385 1.8700595
-3.0502083 7.0603156 -0.85725039
-3.1648788 7.3257432 -0.44574133
-14.607608 33.812222 0
-13.285122 30.751064 1.8710756
-3.0443342 7.0233965 -0.85321373
-3.1675258 7.3076043 -0.4448702
-14.653627 33.806484 0
-13.315034 30.718298 1.8700595
-3.032192 6.9722838 -0.847449
-3.1691022 7.2870984 -0.44385463
-14.658141 33.705231 0
-13.353177 30.704567 1.8702046
-3.0250976 6.933053 -0.84312433
-3.1830997 7.2951698 -0.4445802
-13.400022 30.710766 0
-13.397543 30.705084 1.8712206
-3.013768 6.8843813 -0.83764762
-3.186703 7.2794185 -0.44385463
-14.686326 33.548126 0
-13.453388 30.731714 1.8738328
-3.0096028 6.8523169 -0.8341881
-3.1913168 7.2660465 -0.44327408
-14.700689 33.470791 0
-13.512454 30.765394 1.8768806
-3.0022349 6.81317 -0.82986343
-0 0 -0
-14.730625 33.429184 0
-14.747188 33.46677 2.0427668
-2.9916422 6.7669611 -0.82467473
-0 0 -0
-14.762592 33.392326 0
-14.782359 33.437035 2.0420408
-2.9819899 6.7231493 -0.81977403
-0 0 -0
-14.789209 33.343529 0
-14.840659 33.459526 2.044508
-2.983804 6.7053676 -0.81804484
-0 0 -0
-14.819966 33.304237 0
-14.874742 33.42733 2.0436375
-2.991904 6.7017574 -0.81804484
-0 0 -0
-13.074753 29.286974 0
-14.906647 33.39035 2.0424764
-3.0052848 6.7099376 -0.81948602
-3.0633523 6.8395858 -0.41860121
-13.115449 29.28303 0
-14.954417 33.388916 2.0434923
-3.0229301 6.7275324 -0.82208037
-3.0918505 6.8809147 -0.421359
-13.144423 29.252922 0
-14.992619 33.366077 2.0432019
-3.0278671 6.7167988 -0.82121521
-3.0723999 6.8155875 -0.41758564
-13.179761 29.237017 0
-15.019043 33.317146 2.0413151
-3.0274544 6.6942816 -0.81890887
-3.0784895 6.8071303 -0.4172951
-13.229018 29.251896 0
-15.07856 33.341587 2.0439274
-3.011224 6.6476936 -0.81343216
-3.032213 6.6940298 -0.41047394
-13.259575 29.272345 0
-15.095488 33.325375 2.0434923
-2.9625416 6.5192509 -0.79815292
-3.0435252 6.6974602 -0.4109095
-15.127373 33.288692 0
-15.128218 33.29055 2.0424764
-2.9221408 6.4097719 -0.78518116
-3.0365274 6.6606817 -0.40887785
-11.705626 25.676517 0
-15.167355 33.269886 2.0423312
-2.9148209 6.373302 -0.7811445
-3.0326843 6.631012 -0.40728116
-11.745302 25.681288 0
-15.229158 33.298794 2.0452342
-2.919287 6.3627295 -0.78028047
-3.0168576 6.5753889 -0.40408838
-11.761132 25.633966 0
-15.282381 33.308701 2.0469751
-2.9107504 6.3239517 -0.7759558
-3.0280607 6.5788226 -0.40452394
-11.794271 25.62446 0
-15.313926 33.271328 2.045814
-2.9021285 6.2852135 -0.77163225
-3.0174866 6.5350475 -0.40205613
-11.815408 25.588926 0
-15.371545 33.290543 2.0481362
-2.3605285 5.0960684 -0.93630522
-2.8977616 6.2558837 -0.76846075
-2.9980824 6.4724631 -0.39842835
-11.845225 25.572273 0
-15.434692 33.321457 2.0511842
-2.3829119 5.1281347 -0.94272518
-2.8987808 6.2383084 -0.76673156
-2.989475 6.4334865 -0.39625111
-11.879402 25.565016 0
-15.528597 33.418247 2.0582957
-2.397783 5.1438656 -0.94614893
-2.8986661 6.218389 -0.76471323
-2.9687049 6.3686404 -0.39247778
-11.898192 25.524702 0
-15.573357 33.408882 2.0588763
-2.4061694 5.1456108 -0.94700402
-2.8919358 6.1844254 -0.7609657
-2.9653933 6.3415151 -0.39102665
-11.927924 25.507952 0
-13.951772 29.835964 1.8397272
-2.4091177 5.1357341 -0.94572133
-2.8950126 6.1715603 -0.75981253
-2.9531882 6.295578 -0.38841388
-11.949895 25.47467 0
-13.969053 29.779095 1.83726
-2.3869011 5.0724235 -0.93459338
-2.8958578 6.1540112 -0.75808221
-2.9585824 6.2873073 -0.38812387
-11.966263 25.429604 0
-13.990644 29.731632 1.8353733
-2.3700175 5.0207877 -0.92560649
-2.8999825 6.1434975 -0.75721818
-2.9584117 6.2672772 -0.38710776
-11.980316 25.379822 0
-14.024338 29.710001 1.8350828
-2.3661959 4.9970417 -0.92175519
-2.3395786 4.9408298 -0.60933107
-2.9648712 6.2613516 -0.38696274
-11.982018 25.304176 0
-14.05022 29.6719 1.8337766
-2.3722322 4.9941788 -0.92175519
-2.3477685 4.9426761 -0.60990822
-2.9590561 6.229599 -0.38522106
-3.2620902 6.8675661 0
-14.082716 29.647858 1.833341
-2.3694313 4.9727693 -0.91833144
-2.3515117 4.9351616 -0.60933107
-2.9643478 6.2213321 -0.38493109
-3.2569523 6.8354263 0
-14.099529 29.590944 1.8308738
-2.3721201 4.9629607 -0.91704875
-2.3407457 4.8973188 -0.60500753
-2.9729824 6.220088 -0.38507608
-3.2775557 6.857317 0
-6.0587649 12.676176 0.78476256
-2.3792241 4.9624038 -0.91747636
-2.3343599 4.8688297 -0.60183603
-2.9726312 6.2000875 -0.38405997
-3.259964 6.7993841 0
-6.0774484 12.675878 0.78519815
-2.3718669 4.9317641 -0.9123407
-2.3323975 4.8496957 -0.59981883
-2.981246 6.1988306 -0.38420495
-3.2490032 6.7555714 0
-6.0679855 12.617012 0.78200537
-2.3811717 4.935833 -0.91362506
-2.332633 4.8352194 -0.59837651
-2.9932499 6.2045851 -0.38478553
-3.248117 6.7328887 0
-6.1103234 12.665839 0.78548872
-2.3625357 4.8821206 -0.90421057
-2.3249583 4.8044677 -0.59491813
-2.411073 4.9824219 -0.30917189
-3.2369795 6.6891365 0
-11.775614 24.334011 1.509987
-2.3027873 4.7513289 -0.88024443
-2.3177047 4.7821078 -0.59232265
-2.4050164 4.9622579 -0.30801079
-6.475738 13.361357 0
-11.757449 24.259083 1.5057781
-2.2501671 4.6284995 -0.85799176
-2.3042574 4.7397614 -0.58742195
-2.3985167 4.9336486 -0.30641466
-6.4941516 13.358198 0
-11.793571 24.258884 1.5066493
-2.2297628 4.5584807 -0.84600866
-2.2941148 4.6900411 -0.58194524
-2.375037 4.8554764 -0.3019152
-3.2343628 6.6122646 0
-6.1676822 12.609081 0.78403705
-2.223964 4.5327415 -0.84172982
-2.2861085 4.6594009 -0.57848573
-2.3843369 4.8596039 -0.30235076
-3.2331793 6.5896602 0
-6.1806264 12.596959 0.78374702
-2.2328408 4.536963 -0.84301412
-2.2734632 4.6195045 -0.57387304
-2.3764384 4.8287425 -0.30060908
-3.2307978 6.5647354 0
-6.2164936 12.631442 0.78635925
-2.2383213 4.5342617 -0.84301412
-2.2641606 4.5866055 -0.57012552
-2.3604207 4.7816038 -0.29785186
-3.2525516 6.5888305 0
-6.2329006 12.626249 0.78650427
-2.2346857 4.5131497 -0.83959037
-2.2593727 4.5630078 -0.56753117
-2.3523605 4.7508049 -0.29611018
-3.2431915 6.5499187 0
-6.2527647 12.628023 0.78708482
-2.2310023 4.4920535 -0.83616668
-2.2441776 4.5185814 -0.56234246
-2.351162 4.7339911 -0.29523906
-3.2441554 6.5320058 0
-6.2761102 12.636752 0.78810096
-2.2329934 4.4824591 -0.83488232
-2.2473271 4.5112319 -0.56176531
-2.3487732 4.7148728 -0.29422352
-3.2485633 6.52109 0
-6.2936897 12.633806 0.78839093
-2.2200534 4.4430246 -0.82803649
-2.2412176 4.4853802 -0.55888295
-2.3486624 4.7004113 -0.29349795
-3.2599313 6.5241466 0
-6.3147569 12.637813 0.7891165
-2.2058682 4.4013267 -0.8207615
-2.2408421 4.4711094 -0.55744177
-2.3473525 4.6836271 -0.29262683
-3.2584834 6.5015898 0
-6.3416677 12.653408 0.79056817
-2.1961927 4.368835 -0.81519669
-2.2253349 4.4268064 -0.55225307
-2.3436735 4.6622148 -0.29146573
-3.2698448 6.5046258 0
-6.3616204 12.655023 0.79114872
-2.1910694 4.3455505 -0.8113454
-2.2201984 4.4033222 -0.54965758
-2.358664 4.6779408 -0.29262683
-3.2788725 6.5029917 0
-6.3628683 12.619484 0.78940707
-2.1928463 4.3360343 -0.81006271
-2.215013 4.3798656 -0.54706323
-2.3396897 4.6263952 -0.28957903
-3.2714603 6.4688358 0
-11.524704 22.788422 1.4263911
-2.1713736 4.2807231 -0.80021906
-2.2050941 4.3472009 -0.54331571
-2.3558562 4.6444187 -0.29088515
-3.2875166 6.4811273 0
-11.512267 22.695694 1.4214567
-2.1788747 4.2826767 -0.80107582
-2.2044821 4.3330092 -0.54187453
-2.3520403 4.6230412 -0.28972405
-3.2870834 6.4609113 0
-11.512585 22.628506 1.418119
-2.1700461 4.2526021 -0.79594022
-2.1932595 4.2980928 -0.537839
-2.3540847 4.6132593 -0.28928906
-3.2996194 6.466207 0
-11.519841 22.575233 1.4156517
-2.1693363 4.238553 -0.79380077
-2.1913786 4.2816205 -0.53610867
-2.3442681 4.5803432 -0.28740236
-3.3015027 6.4506345 0
-11.523434 22.515036 1.4127489
-2.153352 4.1948171 -0.78609657
-2.1835606 4.253665 -0.5329383
-2.3343754 4.5474582 -0.2855157
-3.3128614 6.4535885 0
-11.511472 22.424814 1.4079595
-2.1513708 4.1785226 -0.78352958
-2.1863286 4.2464199 -0.53236115
-2.3386755 4.5423169 -0.28537014
-3.3158915 6.4403253 0
-11.550451 22.433987 1.4094105
-2.1327207 4.1361575 -0.77582699
-2.1853409 4.2382083 -0.53149712
-2.33904 4.5362887 -0.28508013
-3.3245528 6.4475732 0
-11.444927 22.19607 1.3948977
-2.1341782 4.1267347 -0.77454269
-2.1845164 4.2240705 -0.53005481
-2.3373554 4.5196066 -0.28420901
-3.3311419 6.4412332 0
-0 0 0
-2.1415246 4.128706 -0.77539778
-2.1681845 4.1801043 -0.5248661
-2.3284621 4.4891081 -0.2824679
-3.3389225 6.4372034 0
-0 0 0
-2.1263726 4.0874028 -0.76812273
-2.1708486 4.1728969 -0.52429008
-2.3362808 4.4908972 -0.28275791
-3.3479028 6.4354796 0
-0 0 0
-2.1170645 4.0575285 -0.76298881
-2.1591365 4.1381626 -0.52025342
-2.3176656 4.4419966 -0.27985513
-2.5310683 4.8510008 0
-0 0 0
-2.1183939 4.048142 -0.76170444
-2.1557438 4.1195159 -0.51823622
-2.3230312 4.4391932 -0.27985513
-2.5224481 4.8202686 0
-0 0 0
-2.1113563 4.0228534 -0.75742561
-2.1583138 4.1123233 -0.51765907
-2.3235631 4.4271798 -0.27927455
-2.50529 4.7734313 0
-11.372494 21.668478 1.3668871
-2.1138217 4.0157518 -0.75656885
-2.1415975 4.0685186 -0.51247036
-2.3252833 4.4174771 -0.27883956
-2.5110559 4.770401 0
-11.332103 21.528263 1.3589048
-2.1030936 3.983685 -0.75100571
-2.1308153 4.0361953 -0.50872284
-2.3160617 4.3870897 -0.27709788
-2.5143907 4.7627649 0
-11.284113 21.374393 1.350052
-2.1055009 3.9765992 -0.75014895
-2.1393228 4.0404773 -0.509588
-2.318927 4.3796906 -0.27680734
-2.4994423 4.7206254 0
-11.281964 21.307924 1.3467137
-2.1042857 3.9627182 -0.7480095
-2.1442032 4.0378895 -0.509588
-2.3217824 4.3723001 -0.27651733
-2.4917171 4.6923156 0
-11.302829 21.285095 1.3461331
-2.1098883 3.9617047 -0.99433893
-2.0752897 3.8967395 -0.73602808
-2.132057 4.0033307 -0.50555134
-2.3124063 4.34197 -0.27477565
-2.4875984 4.6709251 0
-11.32976 21.273714 1.3462781
-2.1086893 3.9479485 -0.99152505
-2.0727377 3.8806388 -0.73345947
-2.1198351 3.9688158 -0.50151581
-2.3041837 4.3139586 -0.27317899
-2.4809816 4.6449647 0
-11.345667 21.241682 1.3451176
-2.1098576 3.9386761 -0.98983586
-2.0859115 3.8939736 -0.73645562
-2.1209638 3.9594092 -0.50065064
-2.3044913 4.3020177 -0.27259898
-2.4878201 4.6442552 0
-11.392182 21.266893 1.3475847
-2.1037939 3.9159811 -0.98477042
-2.0723906 3.8575275 -0.73003572
-2.1098347 3.9272254 -0.49690312
-2.292469 4.2671795 -0.27056676
-2.4774196 4.6114445 0
-11.424019 21.264557 1.3483104
-2.1000862 3.8977759 -0.98082972
-2.0600057 3.823386 -0.72404498
-2.1059895 3.9087319 -0.49488482
-2.2988548 4.2666917 -0.27071175
-2.4681766 4.5809541 0
-11.480516 21.307924 1.3519386
-2.102381 3.890769 -0.97970504
-2.0585234 3.8096039 -0.72190559
-2.1070256 3.8993645 -0.49402076
-2.3040085 4.2639108 -0.27071175
-2.4601045 4.5527892 0
-11.526018 21.330612 1.3542609
-2.0961864 3.8681223 -0.97463959
-2.033771 3.7529466 -0.71163434
-2.1154292 3.9036312 -0.49488482
-2.2955441 4.2360001 -0.26911563
-2.4470031 4.5154896 0
-11.575303 21.360071 1.3570181
-2.0899353 3.8454876 -0.96957201
-2.0615959 3.7933428 -0.71976614
-2.1053281 3.8738105 -0.49142641
-2.2870109 4.2081075 -0.26751897
-2.4499743 4.5079603 0
-11.601104 21.346069 1.3570181
-2.0921507 3.8385019 -0.96844733
-2.0440619 3.7502728 -0.71206188
-2.1013415 3.8553643 -0.48940808
-2.2746866 4.1734033 -0.26548728
-2.4466999 4.4889989 0
-11.635594 21.348009 1.3580343
-2.0859466 3.8216228 -0.96450657
-2.0192719 3.6994696 -0.70264745
-2.0925186 3.8336635 -0.48681372
-2.2722278 4.1629052 -0.26490673
-2.4406822 4.4715271 0
-11.654713 21.352377 1.3587598
-2.082026 3.8035045 -0.96056801
-2.0397635 3.7262979 -0.70821059
-2.0822461 3.8039064 -0.48335421
-2.264782 4.1373682 -0.2634556
-2.442338 4.4617329 0
-11.681751 21.340555 1.3589048
-2.0817292 3.7920766 -0.9583165
-2.0380888 3.7125812 -0.7060712
-2.0868409 3.8013878 -0.48335421
-2.2547741 4.107295 -0.26171395
-2.4264381 4.4199977 0
-11.713779 21.337812 1.3596303
-2.0777307 3.7739751 -0.95437574
-2.0165753 3.6628933 -0.69708431
-2.0802071 3.7784734 -0.48075986
-2.2497098 4.0863571 -0.26055282
-2.4292643 4.4124985 0
-10.711992 19.457188 1.2406222
-2.0749228 3.7581198 -0.9509995
-2.0234838 3.664953 -0.69794106
-2.0822682 3.7714243 -0.48018274
-2.2420888 4.0608926 -0.25910172
-2.4232743 4.3890576 0
-10.721683 19.419214 1.239026
-2.0720749 3.7422683 -0.94762111
-2.0316374 3.6692362 -0.6992237
-2.0768056 3.7508118 -0.4778775
-2.2306275 4.0286217 -0.25721449
-2.4134481 4.3588047 0
-10.701084 19.326679 1.233946
-2.0667274 3.7219906 -0.94311804
-2.0211201 3.6398559 -0.69408977
-2.0725455 3.7324688 -0.47585917
-2.2304478 4.0168366 -0.25663391
-2.4111352 4.3422384 0
-10.69416 19.259222 1.2304631
-2.0638084 3.7061753 -0.93974185
-2.0230165 3.6329212 -0.69323301
-2.0695016 3.716399 -0.47412887
-2.2176037 3.9823601 -0.25460225
-2.4024513 4.3143082 0
-10.702252 19.219044 1.2287215
-2.0620921 3.692589 -0.93692791
-2.0161412 3.6103048 -0.68938172
-2.0676863 3.7026067 -0.47268769
-2.2122788 3.9615283 -0.25344113
-2.4051273 4.3068624 0
-10.669727 19.106285 1.2223359
-2.0615861 3.681227 -0.93467641
-2.0230083 3.6123412 -0.69023681
-2.0620482 3.6820521 -0.47038135
-2.2043698 3.9361854 -0.25199002
-2.3976107 4.2812419 0
-10.672491 19.057104 1.2200137
-2.0560789 3.6610098 -0.93017334
-2.0047474 3.5696101 -0.68253422
-2.0652304 3.6773047 -0.47009331
-2.198945 3.9153941 -0.25082889
-2.3938651 4.2624645 0
-10.649704 18.962633 1.2147887
-2.0642428 3.6651666 -0.93186253
-2.0115812 3.5716629 -0.68339097
-2.0557141 3.6500232 -0.46692294
-2.2138755 3.9308467 -0.25199002
-2.3900726 4.2436934 0
-10.667508 18.940695 1.2142081
-2.059922 3.6471808 -0.92792177
-2.0121069 3.5625219 -0.68210667
-2.0512178 3.6317697 -0.46490461
-2.2122355 3.9168584 -0.25126445
-2.3862381 4.2249379 0
-10.631607 18.823721 1.2075319
-2.0618253 3.6402717 -0.92679709
-2.0126133 3.553385 -0.68082237
-2.0492322 3.6180379 -0.46346343
-2.2067218 3.8960948 -0.25010332
-2.3810806 4.2039356 0
-10.63386 18.774694 1.2052103
-2.06371 3.6333547 -0.92567027
-2.0131006 3.5442519 -0.67953801
-2.0497689 3.6088099 -0.46259826
-2.2037253 3.8798647 -0.24923222
-2.3745918 4.1806912 0
-10.62702 18.709862 1.201872
-2.0618122 3.6198211 -0.92285639
-2.0148432 3.53736 -0.67868292
-2.0400453 3.5816061 -0.45942679
-2.1955538 3.8546245 -0.24778111
-2.3603244 4.1439042 0
-10.618753 18.642818 1.1983886
-2.0535843 3.595268 -0.91722858
-2.0140231 3.5260067 -0.67697108
-2.0405266 3.5724072 -0.45856273
-2.2053647 3.8609941 -0.24836166
-2.3730721 4.154604 0
-10.594881 18.548756 1.1931641
-2.0452957 3.5707316 -0.91159868
-2.0093493 3.5079756 -0.67397487
-2.0306993 3.5452487 -0.45539123
-2.202282 3.8448024 -0.24749111
-2.3703318 4.1381884 0
-10.591455 18.490845 1.1902614
-2.0369554 3.5462289 -0.90597087
-2.0046401 3.4899697 -0.67098033
-2.0311153 3.536062 -0.4545261
-2.1952741 3.8218534 -0.24618444
-2.3610702 4.1104951 0
-10.562026 18.387915 1.1844563
-2.033627 3.5305502 -0.90259248
-2.0037303 3.4786472 -0.66926849
-2.0263534 3.5179229 -0.45250887
-2.1934068 3.8079419 -0.24545887
-2.347852 4.0760717 0
-10.560893 18.334614 1.1818441
-2.0264547 3.5082905 -0.8975271
-1.9938071 3.4517696 -0.66456044
-2.0189607 3.4953167 -0.44991452
-2.1902108 3.7917929 -0.24458832
-2.3475685 4.0642176 0
-10.534952 18.23859 1.1764741
-2.0222139 3.4960704 -0.89471322
-1.9971762 3.4527843 -0.66498798
-2.0249534 3.5008066 -0.45077857
-2.1912014 3.7882218 -0.24444331
-2.3435094 4.0515366 0
-10.503036 18.157997 1.1716846
-2.0213373 3.4848328 -0.89246166
-1.9961947 3.4414864 -0.66327608
-2.016207 3.4759879 -0.44789618
-2.1866498 3.7698352 -0.2434272
-2.3444846 4.0419464 0
-10.474127 18.05764 1.1660246
-2.0076635 3.4516428 -0.88458234
-1.9848683 3.4124525 -0.65814215
-2.0152037 3.464606 -0.44674301
-2.1820567 3.7514653 -0.24241109
-2.3218894 3.9918706 0
-10.464583 17.991064 1.1625413
-2.0054331 3.4382424 -0.88176847
-1.9721775 3.381227 -0.65257895
-2.0167797 3.457696 -0.44616589
-2.1748066 3.7286272 -0.24110498
-2.335891 4.0048008 0
-10.449656 17.91556 1.1584773
-1.991884 3.3961287 -0.87219995
-1.975148 3.367594 -0.6508671
-2.0146663 3.4349723 -0.44386065
-2.1864426 3.7278478 -0.24139553
-2.3113267 3.940773 0
-10.432457 17.787163 1.1518018
-1.9959861 3.3937194 -0.87219995
-1.9805157 3.3674154 -0.65129465
-2.0109453 3.4191542 -0.44213036
-2.1909454 3.7252033 -0.24139553
-2.3134506 3.933495 0
-10.460527 17.785742 1.1525273
-0 0 -0
-1.9962116 3.384737 -0.87051076
-1.9741505 3.3473308 -0.6478709
-1.9979954 3.3877616 -0.4383828
-2.1928024 3.7180724 -0.24110498
-2.3102717 3.9172511 0
-10.478048 17.766373 1.1520917
-1.9912448 3.3670111 -0.86657006
-1.9781938 3.3449428 -0.6478709
-2.0034027 3.3875692 -0.43867084
-2.2171354 3.7489712 -0.2432822
-2.3030765 3.8942895 0
-10.487605 17.733572 1.1507857
-1.9914273 3.3580525 -0.86488301
-1.9717587 3.3248861 -0.64444721
-1.9995812 3.3718019 -0.43694162
-2.2229879 3.7485225 -0.2434272
-2.3011441 3.8803136 0
-10.513002 17.727594 1.1512212
-1.9785964 3.3272464 -0.85756391
-1.9705263 3.3136756 -0.6427353
-1.9970452 3.3582699 -0.43550044
-2.2275157 3.7458336 -0.2434272
-2.3005102 3.868583 0
-10.537069 17.719339 1.1515112
-1.9761099 3.3139436 -0.85474998
-1.9797878 3.3201115 -0.64444721
-1.999778 3.3536351 -0.43521243
-2.2267168 3.7342122 -0.24284664
-2.3011882 3.8591011 0
-10.571777 17.728909 1.1529623
-1.9762045 3.3050172 -0.85306299
-1.9732589 3.300091 -0.64102346
-1.9892265 3.3267953 -0.43204093
-2.224561 3.7203703 -0.24212109
-2.2858143 3.8228106 0
-10.609194 17.742884 1.154704
-1.9775808 3.2982645 -0.8519361
-1.9627279 3.2734923 -0.63631701
-1.9959023 3.3288217 -0.43261698
-2.21703 3.6976247 -0.24081497
-2.2984588 3.8334339 0
-10.677393 17.808054 1.1597841
-1.9750197 3.2849865 -0.84912223
-1.9706463 3.2777123 -0.63759971
-1.9839355 3.2998157 -0.42915857
-2.2134604 3.6815772 -0.23994385
-2.2883422 3.8061256 0
-10.819396 17.995552 1.1728457
-1.9711138 3.2695372 -0.84574383
-1.9640023 3.2577412 -0.63417596
-1.9852479 3.2929816 -0.42858142
-2.1937611 3.6388483 -0.23733163
-2.2781577 3.7788389 0
-10.932355 18.13378 1.1827147
-1.9658653 3.2519383 -0.84180528
-1.9666103 3.253171 -0.63374841
-1.9892253 3.2905805 -0.42858142
-2.1591737 3.5717096 -0.23312272
-2.2921479 3.7916758 0
-10.954258 18.120556 1.1827147
-1.9737457 3.2560811 -0.84349447
-1.9612236 3.2354233 -0.63075221
-1.9931998 3.2881746 -0.42858142
-2.1567543 3.5579898 -0.23239715
-2.2818868 3.7644203 0
-10.937085 18.04287 1.1785058
-1.9578811 3.2211227 -0.83505064
-1.957134 3.2198937 -0.62818527
-1.9850819 3.2658739 -0.42598706
-2.1529567 3.5420628 -0.2315266
-2.2756197 3.7438691 0
-10.915689 17.958586 1.1738613
-1.9617717 3.2187548 -0.83505064
-1.9543445 3.2065685 -0.62604582
-1.9836422 3.2546384 -0.42483389
-2.158586 3.5416753 -0.2316716
-2.2774355 3.7366765 0
-10.895463 17.876606 1.1693624
-1.9570988 3.2067266 -0.83223677
-1.9562814 3.2053871 -0.62604582
-1.9802184 3.2446084 -0.42368072
-2.1688447 3.5536745 -0.23254216
-2.2783382 3.7330806 0
-10.883249 17.832317 1.1668952
-1.9530118 3.1913517 -0.82885838
-1.9494333 3.1855042 -0.62262207
-1.9746854 3.226768 -0.42166242
-2.1826327 3.5665679 -0.23355827
-2.2679029 3.7059047 0
-10.906144 17.821367 1.1670401
-1.9542111 3.1846623 -0.8277337
-1.9492518 3.1765804 -0.62133777
-1.9718204 3.2133591 -0.42022124
-2.1719902 3.5395639 -0.23196161
-2.2519658 3.6698954 0
-0 0 0
-1.950066 3.1693103 -0.8243553
-1.9450197 3.161109 -0.61877078
-1.9675717 3.1977613 -0.41849202
-2.1844382 3.5502195 -0.23283271
-2.2618537 3.6760378 0
-0 0 0
-1.9512283 3.1626308 -0.82323062
-1.9542295 3.1674953 -0.62048268
-1.9755045 3.2019789 -0.41935608
-2.1900895 3.5497868 -0.23297772
-2.2649236 3.6710808 0
-10.959758 17.764025 1.165879
-1.9523773 3.1559534 -0.82210594
-1.9526532 3.1563993 -0.61877078
-1.9739343 3.1907995 -0.41820401
-2.1889088 3.5382988 -0.23239715
-2.2584043 3.6506357 0
-10.97438 17.739723 1.1651535
-1.9360973 3.1212015 -0.81366211
-1.9402276 3.1278601 -0.61363518
-1.9709673 3.1774158 -0.41676173
-2.2000299 3.54669 -0.23312272
-2.2504683 3.6280022 0
-10.993071 17.722038 1.1648635
-1.9465759 3.1296458 -0.81647599
-1.9412966 3.1211579 -0.61278009
-1.9679762 3.1640527 -0.41532055
-2.1809845 3.5065212 -0.23065549
-2.257602 3.6297045 0
-11.013105 17.706537 1.1647185
-1.950356 3.1272914 -0.81647599
-1.9409899 3.1122735 -0.61149573
-1.9676905 3.1550863 -0.41445538
-2.1907201 3.5127025 -0.23123604
-2.2371943 3.5872211 0
-11.030365 17.686602 1.1642829
-1.9325782 3.0904629 -0.80746984
-1.9256966 3.0794585 -0.60550505
-1.9687612 3.1483247 -0.41387933
-2.1935866 3.5078518 -0.23109104
-2.2332506 3.57128 0
-11.047594 17.666649 1.1638473
-1.9457608 3.1031966 -0.81141061
-1.9239614 3.0684297 -0.60379314
-1.9684405 3.1393673 -0.4130142
-2.1895387 3.4919856 -0.23021993
-2.232034 3.5597594 0
-11.066175 17.648888 1.1635574
-1.9167707 3.0487704 -0.99357462
-1.9292219 3.0685749 -0.80296677
-1.9303975 3.0704451 -0.60464829
-1.9639751 3.1238527 -0.41128498
-2.1909931 3.484942 -0.22992992
-2.2404904 3.5636716 0
-11.088873 17.637701 1.1637024
-1.8923594 3.0018864 -0.97903991
-1.939707 3.0769951 -0.80578279
-1.9245222 3.052907 -0.60165209
-1.962231 3.1127253 -0.41013181
-2.1855011 3.466903 -0.22891381
-2.2350786 3.5455487 0
-11.10186 17.611097 1.1628313
-1.917432 3.0335283 -0.99011445
-1.9271325 3.0488753 -0.79902822
-1.9199828 3.037564 -0.59908515
-1.9618436 3.103791 -0.40926668
-2.2119021 3.4994032 -0.23123604
-2.2449231 3.551645 0
-11.125911 17.602066 1.1631218
-1.9331815 3.0502784 -0.99634326
-1.9199336 3.0293751 -0.79452515
-1.9236517 3.0352418 -0.59908515
-1.9586709 3.0904968 -0.40782547
-2.2050009 3.4791696 -0.23007493
-2.2436404 3.5401371 0
-11.138828 17.575445 1.1622512
-1.9099549 3.0055921 -0.98250002
-1.9290437 3.0356312 -0.79677665
-1.9121716 3.0090804 -0.5943771
-1.954083 3.0750341 -0.40609628
-2.1827281 3.4348402 -0.22731769
-2.2297721 3.5088708 0
-11.157267 17.557583 1.1619607
-1.9001068 2.9821284 -0.97557974
-1.9149618 3.0054426 -0.78945971
-1.9047759 2.9894564 -0.59095496
-1.9577972 3.0726707 -0.40609628
-2.164536 3.3971376 -0.22499546
-2.2326131 3.5039814 0
-11.178473 17.544088 1.1619607
-1.9077619 2.9861748 -0.9776569
-1.9144866 2.996701 -0.78777051
-1.9208238 3.0066202 -0.59480625
-1.9559385 3.0615842 -0.40494311
-2.1882217 3.4251719 -0.22702713
-2.2284358 3.4881182 0
-11.196868 17.526194 1.1616707
-1.8964821 2.9606278 -0.97004247
-1.916737 2.9922478 -0.78720814
-1.913378 2.987004 -0.59138256
-1.9596363 3.0592186 -0.40494311
-2.2077775 3.4465957 -0.22862381
-2.2326488 3.4854228 0
-11.209625 17.499519 1.1607996
-1.8932806 2.9477816 -0.9665823
-1.9134868 2.9792421 -0.78439426
-1.9100507 2.9738925 -0.58924311
-1.9577403 3.0481436 -0.40378994
-2.1852586 3.4023829 -0.22586602
-2.2340486 3.4783473 0
-11.229359 17.483778 1.1606545
-1.8977727 2.9508533 -0.9679653
-1.9070373 2.9652591 -0.78101587
-1.9090673 2.9684155 -0.58838636
-1.9483889 3.0295568 -0.4014836
-2.1381238 3.3245761 -0.22078656
-2.251636 3.5010769 0
-11.237105 17.472616 1.160364
-1.8999785 2.9464517 -0.96727377
-1.9175025 2.9736276 -0.78382975
-1.9056981 2.9553216 -0.58624691
-1.9478416 3.0206771 -0.40061846
-2.1618512 3.3525591 -0.22281823
-2.2473998 3.4852264 0
-11.255396 17.45466 1.160074
-1.8803823 2.9083407 -0.9555077
-1.8976426 2.9350367 -0.7742613
-1.9092677 2.9530168 -0.58624691
-1.9514902 3.0183213 -0.40061846
-2.1235785 3.2844861 -0.21846433
-2.2445457 3.4715829 0
-11.275069 17.438869 1.159929
-1.8811684 2.9018602 -0.95412475
-1.9011877 2.9327416 -0.7742613
-1.8974727 2.927011 -0.58153886
-1.9481024 3.0051115 -0.39917725
-2.1402655 3.3015392 -0.21977045
-2.2459102 3.464505 0
-11.284824 17.407789 1.1587679
-1.8696326 2.8764448 -0.94651026
-1.9005797 2.924057 -0.77257425
-1.8926167 2.9118061 -0.57897192
-1.9404554 2.9854062 -0.39687094
-2.101773 3.2335947 -0.21541654
-2.2387483 3.4443321 0
-11.304436 17.391964 1.1586229
-1.8717384 2.8720837 -0.94581878
-1.894399 2.9068551 -0.76863348
-1.884921 2.8923118 -0.57554817
-1.9440613 2.9830594 -0.39687094
-2.0858192 3.2005794 -0.21338487
-2.2400639 3.4372597 0
-10.289824 15.789191 1.0526764
-1.8697182 2.8614194 -0.94305015
-1.8770659 2.8726642 -0.76019186
-1.8785838 2.8749871 -0.57255197
-1.9434185 2.9742105 -0.39600578
-2.1038957 3.219805 -0.21483599
-2.2299824 3.4127684 0
-10.288998 15.746297 1.0506448
-1.8443041 2.8150914 -0.92851537
-1.869396 2.8533909 -0.75568879
-1.8961267 2.894192 -0.57683247
-1.9413412 2.9632061 -0.39485261
-2.0821557 3.1781411 -0.21222375
-2.2369542 3.4144208 0
-10.273841 15.681688 1.0471613
-1.8628514 2.8359201 -0.93612719
-1.8407558 2.8022828 -0.74274188
-1.8798884 2.8618567 -0.57084012
-1.9463444 2.963026 -0.39514172
-2.0888503 3.1799707 -0.21251431
-2.2239323 3.3856132 0
-10.287076 15.660576 1.0465808
-1.8483392 2.8064318 -0.92712975
-1.8371539 2.7894485 -0.73992801
-1.8847611 2.8617332 -0.57126933
-1.9428059 2.9498656 -0.39369944
-2.0769682 3.1535716 -0.21091764
-2.2409086 3.4024911 0
-10.254544 15.57002 1.0413563
-1.8600261 2.8167615 -0.93128407
-1.8419219 2.789345 -0.74049032
-1.8811407 2.8487368 -0.56912822
-1.943521 2.9432032 -0.39312339
-2.0535707 3.109859 -0.20815985
-2.2306747 3.3780594 0
-10.247574 15.518583 1.0387436
-1.8634282 2.814512 -0.93128407
-1.8340693 2.7701683 -0.73598725
-1.8619125 2.8122225 -0.56228238
-1.9470758 2.9408529 -0.39312339
-2.0802784 3.1420412 -0.21048208
-2.2203906 3.3536658 0
-10.250543 15.482364 1.0371474
-1.8709862 2.8185227 -0.93335855
-1.8402284 2.7721882 -0.73711413
-1.8795038 2.8313541 -0.56656128
-1.9477696 2.9341922 -0.39254737
-2.0596442 3.1027243 -0.20801485
-2.2129264 3.3336344 0
-10.241936 15.428831 1.0343896
-1.8604929 2.7953792 -0.92643827
-1.8407583 2.765728 -0.73598725
-1.8800817 2.824811 -0.56570613
-1.9455813 2.923224 -0.3913942
-2.0418005 3.0677924 -0.20583817
-2.1996496 3.3049598 0
-10.273527 15.435911 1.0356958
-1.8694395 2.8014762 -0.92920691
-1.8497404 2.771956 -0.73823881
-0 0 -0
-0 0 -0
-2.0455058 3.0653231 -0.20583817
-2.1993062 3.2958031 0
-10.222945 15.319747 1.0287297
-1.8825898 2.8138132 -0.93405271
-1.8502653 2.7654994 -0.73711413
-0 0 -0
-1.9382545 2.8970125 -0.38851073
-2.0463154 3.0585258 -0.20554762
-2.1873722 3.2693563 0
-10.22411 15.281467 1.0269879
-0 0 -0
-1.8578532 2.769594 -0.73880333
-1.8860174 2.8115797 -0.56442183
-1.9388746 2.8903766 -0.38793468
-2.0442195 3.0474193 -0.20496705
-2.1840734 3.2559066 0
-10.220859 15.23674 1.0248113
-1.8795823 2.7946813 -0.92920691
-1.8541042 2.756799 -0.73598725
-1.8808148 2.796514 -0.56185323
-1.9423656 2.8880315 -0.38793468
-2.0406508 3.0341685 -0.2042415
-2.1850984 3.2489419 0
-10.217508 15.192035 1.022634
-1.8787485 2.786166 -0.92712975
-1.861697 2.7608788 -0.73767644
-1.8813249 2.7899866 -0.56099808
-1.9487431 2.8899674 -0.38851073
-2.0356019 3.0187781 -0.20337094
-2.1817489 3.2355125 0
-10.19518 15.119354 1.0185702
-1.8706084 2.7704821 -0.92228663
-1.8590977 2.7534339 -0.73598725
-1.8786992 2.782465 -0.55971378
-0 0 -0
-2.0359671 3.015388 -0.20322537
-2.1793327 3.2277212 0
-10.182507 15.080895 1.0163934
-1.8514527 2.7349796 -0.91121203
-1.8666979 2.7574999 -0.73767644
-1.874866 2.7695661 -0.55757433
-0 0 -0
-2.04107 3.0150838 -0.20337094
-2.1686449 3.2035384 0
-10.180331 15.03846 1.0143619
-1.843485 2.7161341 -0.90567476
-1.8743106 2.7615516 -0.73936564
-1.8681184 2.7524283 -0.55457819
-1.9298704 2.8434117 -0.38303399
-2.0315797 2.9932673 -0.20206483
-2.1783602 3.2095292 0
-10.18682 15.008948 1.0132006
-1.8340644 2.6952398 -0.89944595
-0 0 -0
-1.8613377 2.7353189 -0.55158365
-1.9362121 2.8453503 -0.38361004
-2.0293477 2.9822173 -0.20148426
-2.1778431 3.2004378 0
-10.181559 14.962256 1.0108784
-1.8161099 2.6619337 -0.88906282
-0 0 -0
-1.8689774 2.7394235 -0.55286628
-1.9352742 2.8365967 -0.38274488
-2.0388074 2.988349 -0.20206483
-2.1626425 3.1698585 0
-10.180594 14.922041 1.0089918
-1.8207455 2.661814 -0.88975698
-1.8843086 2.7547393 -0.73936564
-1.8592436 2.718096 -0.54901499
-1.9270236 2.8171859 -0.38043964
-2.03948 2.9815898 -0.20177427
-2.1620617 3.1607966 0
-10.183944 14.888278 1.0075401
-1.8126093 2.6430602 -0.88421971
-0 0 -0
-1.8581752 2.7095022 -0.54773235
-1.9245749 2.8063233 -0.37928647
-2.0313241 2.9619799 -0.20061314
-2.1732376 3.1689112 0
-10.179886 14.843823 1.0053635
-1.8257473 2.655333 -0.88906282
-1.8938366 2.7543609 -0.74049032
-1.85563 2.6987939 -0.54602045
-1.9250307 2.7997291 -0.37870935
-2.0334308 2.9573841 -0.20046815
-2.1667478 3.1512778 0
-10.1669 14.786551 1.0023156
-1.8346499 2.6613872 -0.89183152
-1.9043727 2.7625287 -0.74330425
-1.8559729 2.6923187 -0.54516369
-1.9225402 2.788883 -0.37755617
-2.032577 2.9485047 -0.20003259
-2.1572614 3.129375 0
-10.161162 14.740025 0.99999338
-1.8282175 2.6383889 -0.88560271
-1.9197289 2.7704535 -0.74668264
-1.853704 2.6751697 -0.54259676
-1.9322233 2.7884848 -0.3781333
-2.0352607 2.9371829 -0.1995976
-2.163331 3.1220074 0
-10.156798 14.657765 0.99607503
-1.8442851 2.6547194 -0.89183152
-1.9216268 2.766047 -0.74612027
-1.856935 2.6729279 -0.54259676
-1.9296885 2.7776513 -0.37698013
-2.026948 2.9176495 -0.19843647
-2.1849201 3.1450391 0
-10.149301 14.609206 0.99360782
-1.8317232 2.6298499 -0.88421971
-1.935129 2.778312 -0.75005883
-1.8454888 2.6496134 -0.53831625
-1.928607 2.7689483 -0.37611499
-2.0304718 2.9151983 -0.19843647
-2.1723611 3.118912 0
-10.14764 14.569216 0.99172115
-1.8550056 2.6564271 -0.89390862
-1.9384847 2.7759719 -0.75005883
-1.8472207 2.6452789 -0.53788871
-1.9275074 2.760252 -0.37524983
-2.0339928 2.9127426 -0.19843647
-2.1850653 3.1290832 0
-10.139948 14.520728 0.98925394
-1.8395107 2.6274688 -0.88491118
-1.9432933 2.775707 -0.7506212
-1.8474739 2.6388431 -0.53703356
-1.9249076 2.7494457 -0.37409666
-2.0285664 2.897507 -0.19756536
-2.1933239 3.1328385 0
-10.138113 14.480796 0.98736727
-1.8354789 2.614979 -0.88145107
-1.9466457 2.7733569 -0.7506212
-1.8447618 2.6282043 -0.53532171
-1.9267439 2.7450027 -0.37380865
-2.0275917 2.8886795 -0.19713035
-2.2000952 3.1344423 0
-10.142163 14.449388 0.98606056
-1.8415221 2.6168587 -0.88283408
-1.9499954 2.7710028 -0.7506212
-1.8464602 2.6238761 -0.53489417
-1.922618 2.7320986 -0.37236744
-2.0340686 2.8904734 -0.19742036
-2.1934011 3.1168895 0
-10.138682 14.407375 0.98402888
-1.8461275 2.6166797 -0.88352555
-1.9592013 2.7769492 -0.75287271
-1.8525863 2.6258342 -0.53574926
-1.9229329 2.7255425 -0.37179032
-2.0345666 2.8837712 -0.19713035
-2.1956608 3.1121042 0
-10.141107 14.373887 0.9825778
-1.8434985 2.6062622 -0.88075954
-1.9654927 2.7787328 -0.75399959
-1.8394496 2.6005383 -0.5310412
-1.9217482 2.7168884 -0.37092626
-2.0365448 2.8791831 -0.1969848
-2.1904054 3.0967047 0
-5.0974159 7.2065167 0.49304757
-1.8437411 2.599936 -0.87937391
-1.9659065 2.7722065 -0.75287271
-1.841107 2.5962217 -0.53061366
-1.9160496 2.7019012 -0.36919597
-2.0400221 2.8767202 -0.1969848
-2.2122109 3.1195304 0
-0 0 0
-1.8482193 2.6029167 -0.88075954
-1.9734652 2.7793052 -0.75512427
-1.8322703 2.5804553 -0.52761745
-1.9191834 2.7028582 -0.36948508
-2.038754 2.871254 -0.19669481
-2.2035465 3.1033375 0
-0 0 0
-1.8411771 2.5863731 -0.87591374
-1.9812441 2.7831306 -0.75681347
-1.8324124 2.5740609 -0.52676237
-1.9209435 2.6984241 -0.36919597
-2.0437274 2.8709033 -0.19683979
-2.2027655 3.0943103 0
-0 0 0
-1.8486744 2.5902746 -0.8779909
-1.975752 2.7683294 -0.75343722
-1.8340313 2.5697575 -0.52633482
-1.9212005 2.6918945 -0.36861992
-2.0321026 2.8472855 -0.19538869
-2.2080188 3.0937707 0
-0 0 0
-1.8488804 2.5839543 -0.87660527
-1.9835269 2.7721334 -0.75512427
-1.8296676 2.5571029 -0.52419537
-1.9214386 2.6853602 -0.3680428
-2.0370522 2.8469391 -0.19553368
-2.202666 3.0783975 0
-0 0 0
-1.8578506 2.5898726 -0.87937391
-1.98984 2.7738678 -0.7562511
-1.8387413 2.5632339 -0.52590722
-1.914133 2.6683309 -0.36602557
-2.0435169 2.8486943 -0.19582368
-2.2033532 3.0715084 0
-0 0 0
-1.8536561 2.5774441 -0.87591374
-1.9976423 2.777652 -0.75794029
-1.8238511 2.5360014 -0.52077162
-1.9158469 2.6639183 -0.36573756
-2.0363419 2.8314624 -0.19480813
-2.2283332 3.0984194 0
-5.105309 7.0987544 0.48840311
-1.8699728 2.5935152 -0.88214254
-2.0069413 2.7834804 -0.76019186
-1.8254083 2.5317075 -0.52034241
-1.9099853 2.6490095 -0.36400726
-2.0352011 2.8226745 -0.19437256
-2.2214193 3.0809457 0
-5.1123648 7.0904746 0.48825812
-1.8686947 2.5851521 -0.88006538
-2.010303 2.7810533 -0.76019186
-1.8164409 2.5128644 -0.51692033
-1.9146985 2.6487939 -0.36429527
-2.0462201 2.8307407 -0.19509813
-2.2373374 3.0951326 0
-5.117887 7.0800843 0.48796812
-1.8570982 2.5625823 -0.8731451
-2.0151515 2.7806776 -0.76075417
-1.8285114 2.5231354 -0.51948732
-1.9042392 2.6276312 -0.36170092
-2.055738 2.8366823 -0.19567868
-2.2135897 3.0544994 0
-5.1188097 7.0633693 0.48724201
-1.8454499 2.5400438 -0.86622483
-2.011044 2.7679646 -0.75794029
-1.8209951 2.5063846 -0.51649112
-1.913494 2.6336985 -0.36285409
-2.0484715 2.819479 -0.19466257
-2.2203412 3.0560374 0
-5.1258149 7.0550785 0.487097
-1.8396524 2.5256412 -0.86207056
-2.0173762 2.7696362 -0.75906497
-1.8240222 2.5041826 -0.51649112
-1.9166749 2.6313844 -0.36285409
-2.0625873 2.831706 -0.19567868
-2.2485423 3.087002 0
-5.1297503 7.0425849 0.486662
-1.7782797 2.4351947 -0.99426085
-1.8456647 2.5274725 -0.86345619
-2.0177271 2.7630966 -0.75794029
-1.8240218 2.4978344 -0.51563603
-1.9137516 2.6207113 -0.36170092
-2.0629454 2.8250189 -0.19538869
-2.2430649 3.0716765 0
-5.1382565 7.0363817 0.486662
-1.7914423 2.4470062 -0.99996638
-1.8457506 2.521188 -0.86207056
-2.0210643 2.7606566 -0.75794029
-1.8255236 2.4935594 -0.51520848
-1.9108053 2.610049 -0.36054775
-2.0632846 2.818327 -0.19509813
-2.245239 3.0668659 0
-5.1390758 7.0196786 0.4859359
-1.7826984 2.4288995 -0.99344665
-1.8443409 2.5128865 -0.8599934
-2.0319142 2.7684524 -0.76075417
-1.8254945 2.4872088 -0.51435173
-1.9078361 2.5993979 -0.35939458
-2.0697663 2.8200254 -0.19538869
-2.2566409 3.0746391 0
-5.1490955 7.0155649 0.48608145
-1.7783091 2.4167919 -0.98937261
-1.8369722 2.4965172 -0.85515022
-2.0337534 2.7639506 -0.76019186
-1.8239329 2.4787962 -0.51306742
-1.9094441 2.5950093 -0.35910657
-2.0577693 2.7965891 -0.193937
-2.2403045 3.0446618 0
-5.1529474 7.003057 0.48564589
-1.8003007 2.4404962 -0.99996638
-1.8399874 2.4942958 -0.85515022
-2.0325651 2.7553549 -0.75850266
-1.8330222 2.4848537 -0.51477927
-1.9095104 2.5885415 -0.35853052
-2.0734873 2.8108292 -0.19509813
-2.262521 3.0670843 0
-5.1614056 6.9968257 0.48564589
-1.7929593 2.4244068 -0.99426085
-1.8355427 2.4819872 -0.85169011
-2.0464644 2.7671916 -0.76244122
-1.825343 2.4681952 -0.51178473
-1.9034061 2.5737507 -0.35680023
-2.0707018 2.7999649 -0.19451757
-2.2662253 3.0643482 0
-5.1698561 6.9905839 0.48564589
-1.7738112 2.3924627 -0.98203874
-1.8415259 2.4837942 -0.85307312
-2.0437591 2.7565603 -0.76019186
-1.8313788 2.4701083 -0.51263982
-1.9142154 2.5818355 -0.35824141
-2.08182 2.8078954 -0.19524312
-2.246675 3.030247 0
-5.1767526 6.9822469 0.48550087
-1.7929152 2.4121323 -0.99100095
-1.8475218 2.4855981 -0.85445875
-2.0531456 2.762238 -0.76244122
-1.8328322 2.4658353 -0.51221228
-1.9096203 2.5691435 -0.35680023
-2.0774622 2.7949526 -0.19451757
-2.268965 3.0525947 0
-5.1805339 6.9697285 0.48506531
-1.8032169 2.419879 -0.99507815
-1.8625103 2.4994495 -0.8599934
-2.054965 2.7577198 -0.76187891
-1.8250718 2.449208 -0.50921613
-1.9019095 2.5523224 -0.354783
-2.0885994 2.8028562 -0.19524312
-2.2679851 3.0435884 0
-5.1951623 6.9717979 0.48564589
-1.7825068 2.3890727 -0.98285288
-1.8475215 2.4762111 -0.85238159
-2.039921 2.7340817 -0.75568879
-1.8357649 2.4604537 -0.51178473
-1.9142736 2.5656781 -0.35680023
-2.0840769 2.7932634 -0.19466257
-2.2744939 3.0484772 0
-5.1916051 6.9582467 0.48492032
-1.7809496 2.3809776 -0.98040724
-1.8505123 2.4739771 -0.85238159
-2.0143051 2.6929541 -0.74499345
-1.8264357 2.4417887 -0.50836098
-1.9034308 2.5447247 -0.35420588
-2.0874505 2.7907431 -0.19466257
-2.268826 3.0332267 0
-5.2015643 6.9540472 0.48506531
-1.7764126 2.3689389 -0.97633314
-1.8474798 2.4637108 -0.84961295
-1.8651255 2.4872422 -0.68870711
-1.8278462 2.4375281 -0.50793344
-1.9127111 2.5507002 -0.35535905
-2.0892637 2.7861419 -0.19451757
-2.2771688 3.0367234 0
-5.2193131 6.9602265 0.4859359
-1.7896714 2.3806219 -0.98203874
-1.8504554 2.4614766 -0.84961295
-1.7765254 2.3631349 -0.65493619
-1.827702 2.43121 -0.50707668
-1.9126863 2.5442562 -0.354783
-2.0973144 2.7898483 -0.19495313
-2.279274 3.0318913 0
-5.2214742 6.9456072 0.48535532
-1.7865963 2.3705623 -0.97877884
-1.8473884 2.4512248 -0.84684432
-1.7442102 2.314322 -0.64199144
-1.8275512 2.4249036 -0.50622159
-1.9126427 2.5378082 -0.35420588
-2.0866098 2.7686381 -0.19364701
-2.3017323 3.0540752 0
-5.2267375 6.9351463 0.48506531
-1.7983963 2.3802302 -0.98366708
-1.8458104 2.4429839 -0.84476715
-1.7500659 2.3162634 -0.64311612
-1.8258359 2.4165473 -0.50493723
-1.91415 2.5334334 -0.35391784
-2.1024852 2.7827008 -0.19480813
-2.2960045 3.0388291 0
-5.2460804 6.9433403 0.48608145
-1.7997801 2.3760872 -0.98285288
-1.8502742 2.4427497 -0.84545863
-1.7605387 2.32428 -0.6459322
-1.8163546 2.3979688 -0.50151354
-1.9125232 2.5249314 -0.35305271
-2.1058462 2.7801583 -0.19480813
-2.2981048 3.0339801 0
-5.2576008 6.9411354 0.48637143
-1.7936844 2.3621039 -0.97796464
-1.8517087 2.4385161 -0.84476715
-1.7679514 2.3282161 -0.64761925
-1.8208017 2.3978148 -0.50194108
-1.9140099 2.5205607 -0.35276467
-2.1092038 2.7776117 -0.19480813
-2.3001966 3.0291305 0
-5.2675538 6.9368448 0.48651645
-1.8010242 2.365829 -0.98040724
-1.8531357 2.4342828 -0.84407568
-1.7538378 2.3038449 -0.64142913
-1.8159245 2.3854022 -0.49980164
-1.9092222 2.5079582 -0.35132349
-2.1157033 2.7791922 -0.19509813
-2.3117356 3.0367007 0
-5.2743597 6.9284096 0.48637143
-1.8083814 2.3695474 -0.98285288
-1.8423789 2.4140947 -0.83784688
-1.7643265 2.3118215 -0.644243
-1.8281529 2.3954542 -0.5023703
-1.9075422 2.4994791 -0.35045835
-2.1222157 2.7807689 -0.19538869
-2.3138258 3.0318382 0
-5.2937636 6.9364929 0.48738757
-1.8052359 2.3595088 -0.97959304
-1.834622 2.3979175 -0.83300108
-1.7547668 2.2935438 -0.63973993
-1.8263649 2.3871253 -0.50108594
-1.9042743 2.4889555 -0.34930518
-2.1160977 2.7658165 -0.19451757
-2.3159077 3.0269754 0
-5.2958255 6.9218364 0.48680699
-1.8005658 2.3475218 -0.975519
-1.82836 2.383759 -0.82884943
-1.7637224 2.2994864 -0.64199144
-1.8276871 2.3828816 -0.50065839
-1.9072803 2.4866529 -0.34930518
-2.1241839 2.7694449 -0.19495313
-2.3211458 3.0262377 0
-5.3136711 6.9277992 0.48767754
-1.8049062 2.347302 -0.97633314
-1.812888 2.3576825 -0.82054347
-1.7556564 2.2832518 -0.63805073
-1.8227366 2.3704906 -0.49851733
-1.9087085 2.4822979 -0.34901714
-2.1227753 2.7606945 -0.19451757
-2.3152795 3.0110483 0
-5.3188734 6.9172578 0.48738757
-1.8183053 2.3588238 -0.98203874
-1.8080788 2.3455572 -0.81708336
-1.764619 2.2891784 -0.64030224
-1.8177648 2.3581226 -0.49637792
-1.9006513 2.4656484 -0.34699884
-2.1276944 2.7601836 -0.19466257
-2.3220968 3.0123749 0
-5.3399186 6.9272895 0.48854867
-1.8211541 2.3566251 -0.98203874
-1.8109115 2.3433709 -0.81708336
-1.7673837 2.2870445 -0.64030224
-1.8111976 2.3437412 -0.49381092
-1.9115355 2.4735811 -0.34844002
-2.1278534 2.7535024 -0.19437256
-2.3432415 3.0322208 0
-5.3546405 6.9290566 0.48912922
-1.8391343 2.3739576 -0.99018681
-1.8106658 2.3372107 -0.81569767
-1.7623668 2.2748661 -0.63748837
-1.8187462 2.3476408 -0.49509525
-1.9081868 2.4630909 -0.34728685
-2.1359544 2.7570937 -0.19480813
-2.3405282 3.021158 0
-5.3693748 6.9307981 0.48970979
-1.8192651 2.342459 -0.97796464
-1.8027213 2.3211572 -0.81085455
-1.75888 2.2647078 -0.63523686
-1.8215816 2.3454416 -0.49509525
-1.9079915 2.4567018 -0.3467108
-2.1392844 2.7545109 -0.19480813
-2.3489614 3.024488 0
-5.3857131 6.9345641 0.49043533
-1.8297805 2.3530624 -0.98285288
-1.79488 2.308181 -0.80670023
-1.7649287 2.2696643 -0.63692605
-1.8308759 2.354471 -0.49723467
-1.9062968 2.4514611 -0.34613368
-2.1313744 2.7409065 -0.193937
-2.3332195 3.0004752 0
-5.3946819 6.9374571 0.49087036
-1.8356644 2.3547521 -0.98448437
-1.8053783 2.3159018 -0.8101604
-1.7582937 2.2555025 -0.63354766
-1.8274064 2.3441586 -0.4955228
-1.9044915 2.443042 -0.34526962
-2.1394789 2.7444789 -0.19437256
-2.344842 3.0079143 0
-5.4126492 6.9432335 0.49174145
-1.8263328 2.3369527 -0.97796464
-1.8097247 2.315701 -0.81085455
-1.7657131 2.2593844 -0.63523686
-1.8207501 2.3298092 -0.49295416
-1.9138129 2.4488909 -0.34642279
-2.1395965 2.7378011 -0.19408257
-2.3532839 3.0112326 0
-5.409833 6.9223547 0.49072534
-1.8215294 2.3250105 -0.9738875
-1.7846687 2.2779613 -0.79839432
-1.7668763 2.2552509 -0.63467449
-1.8235639 2.3276074 -0.49295416
-1.9056029 2.4323225 -0.34440449
-2.1509142 2.7454391 -0.19480813
-2.3456841 2.9940445 0
-9.8905745 12.624386 0.89578855
-1.8365505 2.3383579 -0.98040724
-1.7765772 2.2619979 -0.79355115
-1.7633224 2.2451215 -0.63242292
-1.824791 2.3233855 -0.49252662
-1.9149309 2.4381547 -0.34555766
-2.1574368 2.7469213 -0.19509813
-2.36216 3.0075817 0
-9.9042177 12.610384 0.89564359
-1.8240877 2.3167217 -0.9722591
-1.759135 2.2342272 -0.78455371
-1.7707509 2.24898 -0.63411212
-1.8148926 2.3050435 -0.48910287
-1.9050752 2.4195817 -0.34325132
-2.1591485 2.7422729 -0.19495313
-2.3593526 2.9965463 0
-9.9017649 12.575948 0.8940469
-1.8131052 2.2970572 -0.96492523
-1.7571688 2.2261903 -0.7824766
-1.7734671 2.2468388 -0.63411212
-1.8224496 2.3088956 -0.4903872
-1.9160084 2.4274271 -0.3446925
-2.1528039 2.727428 -0.19408257
-2.372643 3.0059462 0
-9.9137363 12.559899 0.89375687
-1.8189437 2.2987375 -0.96655357
-1.7349497 2.1925876 -0.771402
-1.7745994 2.242696 -0.63354766
-1.8140861 2.2925985 -0.487391
-1.9173366 2.423084 -0.34440449
-2.1544809 2.7227812 -0.193937
-2.3649738 2.9887969 0
-9.9305162 12.549947 0.89390188
-1.8109723 2.282989 -0.96085119
-1.7438341 2.1983516 -0.77417064
-1.7694141 2.2305989 -0.63073373
-1.8136673 2.2863863 -0.48653591
-1.9218689 2.4227898 -0.3446925
-2.1577692 2.720176 -0.193937
-2.3782845 2.9981666 0
-13.732282 17.311499 1.2342365
-1.7875791 2.2479143 -0.94699752
-1.7527351 2.2040973 -0.77693927
-1.775274 2.2324405 -0.63186061
-1.824416 2.2942374 -0.48867533
-1.9392821 2.4386837 -0.34728685
-2.1691394 2.7277336 -0.19466257
-2.3802872 2.9932559 0
-13.751574 17.292862 1.2340915
-1.7933724 2.2496142 -0.94862592
-1.7569594 2.2039378 -0.77763081
-1.7747995 2.2263162 -0.63073373
-1.8191874 2.2819967 -0.48653591
-1.9486765 2.4444284 -0.34844002
-2.1708157 2.7230809 -0.19451757
-2.3855228 2.9924104 0
-10.134669 12.712975 0.90812474
-1.8068919 2.260963 -0.95433146
-1.7439619 2.1822188 -0.77071047
-1.7774882 2.2241702 -0.63073373
-1.8219434 2.2797968 -0.48653591
-1.9564744 2.4481356 -0.34930518
-2.1741042 2.7204559 -0.19451757
-2.3940127 2.9956269 0
-10.179226 12.737262 0.91073751
-1.7601712 2.1970527 -0.92825258
-1.7638534 2.201649 -0.77832496
-1.7785872 2.2200398 -0.63017142
-1.81988 2.2715816 -0.48525158
-1.9561999 2.4417367 -0.34872913
-2.1725206 2.7117488 -0.19408257
-2.3927474 2.9866369 0
-10.201108 12.733065 0.91131806
-1.7813969 2.218049 -0.93803215
-1.747661 2.1760437 -0.77001899
-1.7844476 2.2218473 -0.6312961
-1.8194116 2.2653818 -0.48439646
-1.964003 2.4454153 -0.34959319
-2.1741638 2.7070901 -0.193937
-2.3963544 2.9837437 0
-10.222995 12.728832 0.91189861
-1.7515268 2.175468 -0.92091864
-1.7471393 2.1700184 -0.76863337
-1.7775731 2.2078185 -0.62791985
-1.8189248 2.2591789 -0.4835397
-1.9523594 2.4249103 -0.34699884
-2.1855795 2.7145791 -0.19466257
-2.3885317 2.9666541 0
-10.25466 12.736707 0.91334975
-1.7526034 2.1714287 -0.9201045
-1.7434574 2.1600969 -0.76586467
-1.7786453 2.2036936 -0.62735754
-1.8200425 2.2549839 -0.48311216
-1.9406693 2.4044371 -0.34440449
-2.1855969 2.707896 -0.19437256
-2.413362 2.9900908 0
-10.27657 12.732395 0.9139303
-1.7344896 2.138392 -0.90787923
-1.7502513 2.157824 -0.7665562
-1.777563 2.1914957 -0.62510598
-1.8254865 2.2505789 -0.48311216
-1.9318117 2.3816633 -0.34181011
-2.188864 2.6985743 -0.19408257
-2.4156673 2.9781923 0
-10.312222 12.713579 0.91436589
-1.7404571 2.1431012 -0.91032487
-1.7483945 2.1528749 -0.7651732
-1.7852939 2.1983109 -0.62735754
-1.8138994 2.2335339 -0.47968841
-1.9202057 2.3644335 -0.33950379
-2.2003193 2.7093499 -0.19495313
-2.4207444 2.9807687 0
-10.323174 12.711377 0.91465586
-1.7336856 2.1295002 -0.90543664
-1.7430766 2.1410351 -0.76171309
-1.7895515 2.1981206 -0.62791985
-1.826318 2.2432814 -0.4822554
-1.9246926 2.3641155 -0.3397918
-2.2003071 2.7026551 -0.19466257
-2.4259858 2.9798579 0
-10.330324 12.688821 0.9139303
-1.7284391 2.1178241 -0.9013595
