# .PCD v0.7 - Point Cloud Data file format
VERSION 0.7
FIELDS x y z
SIZE 4 4 4
TYPE F F F
COUNT 1 1 1
WIDTH 1633
HEIGHT 1
VIEWPOINT 0 0 0 1 0 0 0
POINTS 1633
DATA ascii
-2.7566381 4.8193607 -0.92560649
-2.7618022 4.8283892 -0.61999762
-5.4432263 9.5162554 -0.61235249
-5.4934077 9.6039867 0
-5.1258073 8.9613199 0.57664347
-0 0 -0
-2.7624867 4.8160739 -0.61884445
-5.4741154 9.5434837 -0.61452973
-5.5037146 9.5950861 0
-5.1508546 8.9799156 0.57824016
-2.761878 4.8015609 -0.92346704
-2.7476697 4.7768602 -0.61423177
-5.5024843 9.5661411 -0.61641639
-5.4919448 9.5478182 0
-5.1824307 9.0097237 0.58056235
-2.7587028 4.782661 -0.9204725
-2.7379365 4.7466593 -0.61077338
-5.5192323 9.5684891 -0.61699694
-5.5034776 9.5411758 0
-5.1946106 9.0057039 0.58070737
-2.75034 4.754879 -0.91576445
-2.737191 4.7321467 -0.60933107
-5.4969659 9.5033369 -0.61322361
-5.5071864 9.5210066 0
-5.3550987 9.2580729 0.59739745
-2.741914 4.7271237 -0.9110564
-2.7338264 4.7131805 -0.60731387
-5.5110497 9.5011787 -0.61351365
-0 0 0
-5.4184265 9.3414946 0.60320246
-2.7282672 4.6905289 -0.90463811
-2.7317142 4.696455 -0.60558355
-5.5225258 9.4945126 -0.61351365
-5.5288715 9.5054226 0
-5.4440827 9.3596506 0.60479909
-2.7274671 4.6761436 -0.90249872
-2.7269616 4.6752772 -0.60327721
-5.520905 9.4653921 -0.61206251
-5.5311732 9.482996 0
-5.4409857 9.328373 0.60320246
-2.727931 4.663981 -0.90078682
-2.7286952 4.6652875 -0.60241318
-5.5244641 9.4452515 -0.61119139
-5.5294905 9.453846 0
-5.4286418 9.2814226 0.60059023
-2.7179799 4.63411 -0.89565122
-2.7173202 4.6329851 -0.59866565
-5.5293007 9.4273653 -0.61046582
-5.5237947 9.4179764 0
-5.424077 9.2479601 0.59884852
-2.7183716 4.6219716 -0.89393938
-2.7189813 4.6230078 -0.59780049
-5.5314655 9.4049959 -0.60944974
-5.5246153 9.3933487 0
-5.4181237 9.2122841 0.59696186
-2.7252574 4.6208925 -0.89436692
-2.7101109 4.5952106 -0.59462899
-5.5454683 9.4027863 -0.60974026
-5.522738 9.3642454 0
-5.3949332 9.147542 0.59318852
-2.7347603 4.624227 -0.89565122
-2.7143459 4.5897083 -0.59434098
-5.5555043 9.3938446 -0.6095953
-5.5075583 9.3127728 0
-5.3239765 9.0023527 0.58419013
-2.7285624 4.6010494 -0.89179993
-2.7080171 4.5664048 -0.59174663
-5.5244374 9.3156052 -0.60495079
-5.5320792 9.3284912 0
-5.304369 8.9445143 0.58085233
-2.7249339 4.5823021 -0.88880378
-2.7095654 4.556458 -0.59088147
-5.4745984 9.2061911 -0.59827465
-5.559309 9.3486423 0
-12.239629 20.582399 1.3375703
-2.7199507 4.5613675 -0.88538003
-2.7044716 4.5354085 -0.58857512
-5.4630957 9.1616316 -0.59580743
-5.5905905 9.3754406 0
-12.252514 20.54751 1.3362641
-2.7042835 4.5288711 -0.87938929
-2.7032368 4.5271182 -0.5877111
-5.4579725 9.140481 -0.59464633
-5.5962539 9.3720617 0
-12.259597 20.531179 1.3356836
-2.6992037 4.5079803 -0.87596554
-2.694088 4.4994364 -0.58453959
-5.4783583 9.1494875 -0.59566242
-5.6155982 9.3786945 0
-12.280395 20.50967 1.3352486
-2.6940777 4.4871087 -0.87254184
-2.692867 4.4850926 -0.58309841
-5.4894094 9.1428614 -0.59566242
-5.6162095 9.3540525 0
-12.298476 20.483671 1.3345225
-2.6928785 4.472856 -0.8704024
-2.7009499 4.4862628 -0.58367443
-5.5151968 9.1607113 -0.5972591
-5.5979791 9.2982121 0
-12.31384 20.45322 1.3335069
-2.6889927 4.4542136 -0.86740619
-2.7023623 4.4763594 -0.5828104
-5.5853457 9.2519112 -0.60364467
-5.5782733 9.2401953 0
-12.329143 20.422752 1.3324908
-2.6890554 4.4421768 -0.86569434
-2.7010682 4.4620214 -0.58136809
-5.6530342 9.3385124 -0.60974026
-5.5543962 9.1755676 0
-12.347084 20.396729 1.3317653
-2.6957567 4.4411254 -0.86612356
-2.697067 4.4432836 -0.57935089
-5.677794 9.3538837 -0.61119139
-5.5587282 9.1577282 0
-12.370374 20.379574 1.3316202
-2.7024543 4.4400554 -0.8665511
-2.6943626 4.4267607 -0.57762057
-5.6850433 9.3403635 -0.6107564
-5.5833178 9.1732311 0
-5.6525574 9.2869902 0.60726637
-2.6944416 4.4148703 -0.86227059
-2.6983633 4.4212961 -0.57733256
-9.0505409 14.829405 -0.9703933
-5.5957575 9.1687059 0
-5.6597123 9.2734976 0.60683078
-2.6917369 4.398478 -0.8597036
-2.6969545 4.4070039 -0.57589138
-9.069808 14.820673 -0.97053832
-5.6081891 9.164156 0
-5.6763387 9.2755175 0.60741132
-2.6809382 4.3689666 -0.854568
-2.6941636 4.3905191 -0.57416219
-5.4429965 8.8701296 -0.5812946
-5.5933952 9.1152248 0
-5.6848269 9.2642269 0.60712135
-2.6862154 4.3657241 -0.854568
-2.6940448 4.378449 -0.57300901
-5.4496236 8.856905 -0.58085907
-5.5866766 9.0796471 0
-5.7014637 9.2662029 0.6077019
-2.6860969 4.3537364 -0.85285616
-2.692539 4.3641777 -0.5715667
-5.4698734 8.8657951 -0.58187515
-5.5716839 9.0308142 0
-5.7208395 9.2725716 0.60857248
-0 0 -0
-2.6801219 4.3323288 -0.56781918
-5.4887819 8.8724346 -0.58274573
-5.5565763 8.9820213 0
-5.7361417 9.2722836 0.60900801
-2.6857851 4.3297806 -0.84943241
-2.677177 4.3159037 -0.56608999
-5.5077138 8.8790398 -0.58361626
-5.5386176 8.9288607 0
-5.7445993 9.2609253 0.60871744
-2.6869512 4.3199992 -0.84814972
-2.6782904 4.3060746 -0.56522483
-5.519815 8.8745918 -0.58376181
-5.52741 8.8868027 0
-5.7544141 9.2517729 0.60857248
-2.6813016 4.2993236 -0.84472603
-2.6766493 4.2918639 -0.56378365
-5.5332813 8.8723211 -0.58405185
-9.4601755 15.168885 0
-5.7710891 9.2536325 0.60915303
-2.6810503 4.2873745 -0.84301412
-2.6736076 4.2754726 -0.56205446
-5.541245 8.8612261 -0.58376181
-9.4660797 15.137586 0
-5.7808895 9.2444515 0.60900801
-2.6712267 4.2602062 -0.83830607
-2.6691525 4.2568974 -0.56003612
-5.5505638 8.8523169 -0.58361626
-5.7849293 9.2260942 0
-5.7837758 9.2242546 0.60813749
-2.6750073 4.2548041 -0.83787853
-2.674294 4.2536693 -0.56003612
-5.5654063 8.8522053 -0.58405185
-5.8029976 9.2301111 0
-9.9327202 15.798751 1.0423719
-2.6787789 4.2493992 -0.83745098
-2.6711533 4.2373028 -0.5583058
-5.5677872 8.8322887 -0.58318126
-5.814146 9.223093 0
-9.9462595 15.777946 1.0417913
-2.6729391 4.2287998 -0.83402723
-2.6666017 4.2187738 -0.5562886
-5.5840087 8.834341 -0.58376181
-5.8294587 9.2226629 0
-9.9694834 15.772508 1.0422269
-2.6739228 4.2190599 -0.83274293
-2.6675422 4.2089925 -0.55542344
-5.5960689 8.8297796 -0.58390683
-5.8545275 9.2375898 0
-9.991313 15.764835 1.0425169
-2.669595 4.2066088 -0.83060348
-2.664541 4.1986446 -0.55427027
-5.6027932 8.8285894 -0.58405185
-5.8642921 9.2406454 0
-10.006405 15.767571 1.0430975
-2.6677866 4.192553 -0.82846409
-2.6612837 4.1823335 -0.55254108
-5.5939298 8.7911253 -0.58202016
-5.8712606 9.226964 0
-10.044982 15.786165 1.0451297
-2.6618047 4.1720138 -0.82504034
-2.6649454 4.1769361 -0.55225307
-2.6864746 4.21068 -0.27898455
-9.4069099 14.74404 0
-10.103177 15.835343 1.049193
-2.658541 4.1558156 -0.82247174
-2.6560497 4.1519208 -0.54936957
-2.6719594 4.1767907 -0.27695289
-9.4134989 14.715124 0
-10.164309 15.888786 1.0535469
-2.6566322 4.1417985 -0.82033229
-2.6568739 4.1421752 -0.54850441
-2.6784058 4.1757445 -0.27709788
-9.4101944 14.670878 0
-10.21717 15.928987 1.0570303
-2.6519186 4.1234779 -0.81733775
-2.6548829 4.128087 -0.54706323
-2.6637745 4.1419125 -0.27506623
-9.4082088 14.628857 0
-10.232191 15.91007 1.0565947
-2.6471596 4.1051664 -0.81434155
-2.6528618 4.1140094 -0.54562205
-2.6828563 4.1605244 -0.27651733
-9.404726 14.584677 0
-10.25282 15.899885 1.0567403
-2.6437578 4.0890346 -0.81177461
-2.6522136 4.1021128 -0.54446888
-2.6638989 4.1201863 -0.27405009
-9.401145 14.540518 0
-10.259323 15.86784 1.0554336
-2.6403158 4.0729089 -0.80920595
-2.6515403 4.0902238 -0.54331571
-2.7070348 4.1758285 -0.27796844
-9.4031343 14.505124 0
-10.27284 15.846719 1.0548537
-2.6466327 4.0718656 -0.80963349
-2.6522505 4.0805087 -0.54245055
-2.6738482 4.1137366 -0.27405009
-8.4747 13.038393 0
-10.286316 15.82558 1.054273
-2.6501505 4.0665159 -0.80920595
-2.6458871 4.0599737 -0.54014534
-2.6788168 4.1105027 -0.27405009
-8.4805002 13.012879 0
-10.304008 15.810956 1.0541275
-2.6536593 4.0611639 -0.80877841
-2.6465449 4.0502763 -0.53928018
-2.6425636 4.0441828 -0.26984119
-8.4905224 12.993908 0
-10.316 15.787621 1.0534019
-2.6543429 4.0515108 -0.8074941
-2.6471834 4.0405827 -0.53841501
-2.6531441 4.0496812 -0.27042174
-8.5047922 12.981464 0
-10.320831 15.753412 1.0519508
-2.6225953 3.9925196 -0.79636776
-2.6407034 4.0200868 -0.53610867
-2.6994057 4.1094527 -0.27463067
-8.5033255 12.945076 0
-10.334152 15.732244 1.0513703
-2.6302443 3.9936397 -0.79722452
-2.638447 4.0060949 -0.53466749
-2.6543503 4.0302415 -0.26955119
-8.5261173 12.945658 0
-10.346009 15.708897 1.0506448
-2.6200447 3.9573014 -0.79123217
-2.6381242 3.9846084 -0.53264916
-2.6698143 4.0324731 -0.2701312
-9.3518362 14.124962 0
-10.36816 15.660013 1.0490481
-2.6120481 3.934886 -0.78738087
-2.6429369 3.9814179 -0.53264916
-2.6818745 4.0400748 -0.2708573
-9.344429 14.076794 0
-10.382763 15.640978 1.0486125
-2.6281793 3.9488232 -0.79080462
-2.6405816 3.9674575 -0.53120798
-2.6766748 4.0216875 -0.26984119
-9.3455687 14.041658 0
-10.391581 15.613285 1.0475969
-2.6158502 3.9200211 -0.78566897
-2.6353281 3.9492102 -0.52919078
-2.6858606 4.0249367 -0.27027676
-9.3451939 14.004379 0
-10.40611 15.594231 1.0471613
-2.6120226 3.9040601 -0.78310204
-2.6329026 3.9352682 -0.52774847
-2.699389 4.0346422 -0.27114731
-9.3418503 13.962799 0
-10.410499 15.560054 1.0457102
-2.6095891 3.890244 -0.78096259
-2.6318922 3.9234922 -0.52659529
-2.7172885 4.0507965 -0.27245343
-9.3326216 13.912601 0
-10.419158 15.532355 1.0446942
-2.6142879 3.8870878 -0.78096259
-2.6323047 3.9138765 -0.52573127
-2.7265329 4.0539808 -0.27288899
-9.3334475 13.877559 0
-8.6398382 12.846255 0.86473066
-2.6008613 3.8620839 -0.77625453
-2.6274464 3.9015608 -0.52429008
-2.7594604 4.0975919 -0.27593678
-9.3243856 13.846013 0
-8.6490479 12.843186 0.86487567
-2.5997801 3.8504283 -0.77454269
-2.6263695 3.8898089 -0.52313691
-0 0 -0
-9.3236389 13.808862 0
-8.6689234 12.83919 0.86531121
-2.607306 3.8515317 -0.77539778
-2.6296134 3.8844845 -0.52284777
-2.7300293 4.0328197 -0.27201843
-9.3140545 13.75879 0
-8.6873407 12.833005 0.86560124
-2.6119578 3.8483784 -0.77539778
-2.631403 3.8770282 -0.52227175
-2.8034806 4.1305623 -0.27883956
-9.3189802 13.730299 0
-8.7057619 12.826802 0.86589181
-2.59639 3.8155115 -0.76940703
-2.6229911 3.8546026 -0.5196774
-0 0 -0
-9.3267813 13.706123 0
-8.7417173 12.846345 0.86792344
-2.5836375 3.7869248 -0.76427144
-2.6247284 3.8471532 -0.51910025
-0 0 -0
-8.6422796 12.667282 0
-8.8011637 12.900164 0.87227738
-2.5940087 3.7922754 -0.76598334
-2.6191573 3.8290412 -0.51708305
-0 0 -0
-8.6825562 12.693345 0
-8.8710232 12.968871 0.8776474
-2.5884299 3.7743251 -0.76298881
-2.6223149 3.8237345 -0.51679391
-0 0 -0
-8.6802244 12.657089 0
-8.8719883 12.936709 0.87619573
-2.588624 3.7648468 -0.76170444
-2.6225412 3.8141754 -0.51592988
-0 0 -0
-8.6645489 12.60156 0
-8.8876133 12.925981 0.87619573
-2.5931711 3.7617161 -0.76170444
-2.6198094 3.8003583 -0.5144887
-0 0 -0
-8.6546602 12.554657 0
-8.9032249 12.915232 0.87619573
-2.5904183 3.7480233 -0.75956506
-2.614104 3.7822938 -0.51247036
-0 0 -0
-8.6579857 12.527062 0
-8.9232578 12.910879 0.87663126
-2.5861697 3.7322264 -0.75699639
-2.6172006 3.7770083 -0.51218235
-0 0 -0
-8.6805258 12.527286 0
-8.9447718 12.908631 0.87721181
-2.5921464 3.7312131 -0.75742561
-2.6114311 3.7589719 -0.51016402
-0 0 -0
-8.7387161 12.578769 0
-8.9707413 12.912754 0.87822795
-2.5790467 3.7028005 -0.75229001
-2.6144943 3.7536933 -0.50987601
-0 0 -0
-8.7881212 12.61732 0
-8.9967289 12.916824 0.87924349
-2.5732296 3.6849468 -0.7492938
-2.6101401 3.7378037 -0.50814569
-0 0 -0
-8.8167686 12.625894 0
-9.0138216 12.908081 0.87938905
-2.5894582 3.6986582 -0.75271755
-2.6116905 3.7304137 -0.50756967
-0 0 -0
-8.8170948 12.593916 0
-9.0353737 12.905694 0.8799696
-2.5821271 3.6787174 -0.7492938
-2.6087677 3.7166722 -0.50612849
-0 0 -0
-8.808383 12.54917 0
-9.0509605 12.894768 0.8799696
-2.5791848 3.6651001 -0.74715441
-2.611764 3.711396 -0.50583935
-0 0 -0
-8.7890911 12.489565 0
-9.0769987 12.898691 0.8809852
-2.5791705 3.6556861 -0.74587011
-2.6087925 3.6976721 -0.50439817
-0 0 -0
-8.7621727 12.419401 0
-9.0985699 12.896206 0.88156575
-0 0 -0
-2.5687644 3.6316133 -0.74159122
-2.6072841 3.6860709 -0.503245
-0 0 -0
-2.7900198 3.9444149 0
-9.1186485 12.891569 0.88200128
-2.5790904 3.6368828 -0.74330312
-2.6042566 3.6723707 -0.50180382
-0 0 -0
-2.7782283 3.9176953 0
-9.1402311 12.88902 0.88258183
-2.5760472 3.6233048 -0.74116367
-2.6041944 3.6628952 -0.50093865
-0 0 -0
-0 0 0
-9.1633253 12.888554 0.8833074
-2.5588777 3.5945551 -0.73559886
-2.6019113 3.6550059 -0.50007463
-0 0 -0
-2.8004143 3.9338508 0
-9.1696043 12.8809 0.88316238
-2.5632191 3.5914605 -0.73559886
-2.6018167 3.6455414 -0.49920946
-0 0 -0
-2.7930708 3.9135175 0
-9.1896858 12.87615 0.88359743
-2.5630798 3.5821037 -0.73431623
-2.6032124 3.6381922 -0.49863344
-0 0 -0
-2.7917397 3.9016738 0
-9.2082644 12.869267 0.88388795
-2.559926 3.5685766 -0.73217678
-2.5985579 3.6224301 -0.49690312
-0 0 -0
-0 0 0
-9.232893 12.870795 0.88475853
-2.5627329 3.5633907 -0.73174757
-2.5999155 3.6150918 -0.4963271
-0 0 -0
-2.7844501 3.8716807 0
-9.2605753 12.876507 0.88591963
-2.5610313 3.5519626 -0.73003572
-2.5936913 3.5972598 -0.49430877
-0 0 -0
-2.7815175 3.8577607 0
-9.2700481 12.856876 0.88533908
-2.5653214 3.5488656 -0.73003572
-2.5919752 3.5857384 -0.4931556
-0 0 -0
-2.7785492 3.8438449 0
-9.2764454 12.833035 0.8844685
-2.5620773 3.535372 -0.72789627
-2.5947897 3.5805116 -0.49286759
-0 0 -0
-2.7831917 3.8404849 0
-9.2949915 12.826021 0.88475853
-2.5708752 3.5385063 -0.72918057
-2.5915141 3.5669131 -0.49142641
-0 0 -0
-2.7817113 3.8286972 0
-9.310483 12.81478 0.88475853
-2.5660777 3.5229433 -0.72661197
-2.5866823 3.5512311 -0.48969609
-2.7341661 3.7537103 -0.2593917
-2.7771449 3.8127155 0
-9.3229036 12.799324 0.8844685
-2.5748758 3.5260615 -0.72789627
-2.5894475 3.5460162 -0.48940808
-0 0 -0
-2.8001673 3.8345783 0
-9.344492 12.796444 0.8850491
-2.5730689 3.5146625 -0.72618443
-2.5891452 3.5366218 -0.48854294
-0 0 -0
-2.7648311 3.7765985 0
-9.3538074 12.776757 0.8844685
-0 0 -0
-2.5888298 3.5272415 -0.48767889
-0 0 -0
-2.8001838 3.815208 0
-9.3846102 12.786389 0.88591963
-2.5815549 3.5084341 -0.72618443
-2.5884898 3.5178587 -0.48681372
-0 0 -0
-2.7554407 3.7447517 0
-12.265849 16.669769 1.1560102
-2.5766518 3.4929214 -0.72361743
-2.5835228 3.5022359 -0.48508343
-0 0 -0
-2.75842 3.7393272 0
-12.284441 16.652847 1.1558651
-2.5732398 3.4794877 -0.72147799
-2.5846798 3.4949565 -0.48450738
-2.7072353 3.6606739 -0.25431225
-0 0 0
-12.304554 16.637993 1.1558651
-0 0 -0
-2.5796611 3.4793687 -0.48277819
-2.7008219 3.6427865 -0.25329614
-2.7658939 3.7305536 0
-0 0 0
-2.5709198 3.4588351 -0.71848184
-2.5823159 3.4741673 -0.48248908
-2.6866202 3.614495 -0.25155446
-2.806109 3.7752512 0
-12.316827 16.570675 1.1532528
-2.5689616 3.4474924 -0.71676993
-2.5834241 3.4669006 -0.48191303
-2.6909859 3.6112461 -0.25155446
-2.7811213 3.7322061 0
-12.333733 16.551609 1.1529623
-2.5746603 3.4464405 -0.71719754
-2.5767739 3.4492695 -0.4798947
-2.6906805 3.6017449 -0.2511189
-2.7513657 3.6829779 0
-12.345948 16.526287 1.1522368
-2.5772855 3.4412742 -0.71676993
-2.5778418 3.4420171 -0.47931868
-0 0 -0
-2.7838922 3.7171421 0
-12.356565 16.498882 1.1513662
-2.5768163 3.4319971 -0.71548563
-2.5819991 3.4388998 -0.47931868
-0 0 -0
-2.7586968 3.6742392 0
-12.354647 16.454844 1.149334
-2.5778766 3.424783 -0.71463054
-2.5752625 3.4213099 -0.47730035
-0 0 -0
-2.7631342 3.6709032 0
-9.4618568 12.570348 0.8788085
-2.573765 3.4150245 -0.71291864
-2.5695469 3.4094276 -0.47585917
-0 0 -0
-2.7966788 3.7107999 0
-11.339802 15.046324 1.0523858
-2.5763435 3.4098661 -0.7124911
-2.5705433 3.402189 -0.47528204
-0 0 -0
-2.7697833 3.665889 0
-11.378343 15.059568 1.054273
-2.5789075 3.4046984 -0.71206188
-2.5715318 3.3949611 -0.47470599
-0 0 -0
-2.7569239 3.6397176 0
-11.390255 15.037524 1.0536925
-2.5721567 3.3872745 -0.70906734
-2.5725007 3.3877275 -0.47412887
-2.6088936 3.4356534 -0.24095997
-2.7550242 3.628093 0
-11.402131 15.015472 1.0531119
-2.5762477 3.3841641 -0.70906734
-2.5703254 3.3763847 -0.4729757
-2.6759944 3.5151918 -0.24676499
-2.6979315 3.5440083 0
-11.41397 14.993414 1.0525314
-2.6552737 3.4792423 -0.96957201
-2.5725493 3.3708475 -0.70692796
-2.5681326 3.3650601 -0.47182363
-2.6565979 3.4809773 -0.24458832
-2.7211585 3.5655718 0
-11.422617 14.967214 1.0516603
-2.6764607 3.4982314 -0.97576427
-2.5719395 3.361618 -0.70564365
-2.5706205 3.3598943 -0.47153452
-2.6229079 3.4282358 -0.24110498
-2.7697437 3.6201553 0
-11.435961 14.947216 1.0512253
-2.6760452 3.4889445 -0.97407508
-2.5681894 3.3483255 -0.7035042
-2.5652366 3.3444757 -0.4698053
-2.6365399 3.4374387 -0.24197608
-2.7297671 3.5589855 0
-11.444522 14.921012 1.0503541
-2.6740634 3.4776514 -0.97182357
-2.5675373 3.3391128 -0.7022199
-2.5661197 3.3372691 -0.46922818
-2.6406913 3.4342504 -0.24197608
-2.7435806 3.5680592 0
-11.456207 14.898933 1.0497736
-2.6627541 3.4542975 -0.96619576
-2.5684388 3.3319457 -0.70136476
-2.5622563 3.3239255 -0.467787
-0 0 -0
-2.7685437 3.5915349 0
-11.474201 14.885079 1.0497736
-2.6467295 3.4249427 -0.95887882
-2.5677521 3.3227441 -0.70008045
-2.5646906 3.3187823 -0.46749896
-0 0 -0
-2.7410603 3.5470097 0
-11.481061 14.856818 1.048758
-2.64253 3.4024825 -0.95437574
-2.5710492 3.3104448 -0.69879615
-2.5584264 3.2941918 -0.46490461
-0 0 -0
-2.7464283 3.5362604 0
-11.500989 14.808503 1.0473064
-2.6372764 3.3872616 -0.9509995
-2.565588 3.2951865 -0.69622916
-2.5608175 3.2890592 -0.4646166
-0 0 -0
-2.7459011 3.526777 0
-11.515684 14.790499 1.0470164
-2.6397996 3.3820639 -0.95043498
-2.5664058 3.288033 -0.6953724
-2.553648 3.2716882 -0.46259826
-2.6383414 3.3801956 -0.23950885
-2.7517664 3.5255139 0
-11.527152 14.76838 1.0464358
-2.6344924 3.366869 -0.9470588
-2.5624685 3.274823 -0.69323301
-2.5544147 3.2645302 -0.46202224
-2.6408179 3.374953 -0.2393633
-2.7159317 3.470948 0
-11.536983 14.744211 1.0457102
-2.6275795 3.3496869 -0.94311804
-2.5585034 3.2616274 -0.69109356
-2.5487761 3.2492268 -0.46029192
-2.6416895 3.3676746 -0.23907329
-2.7426081 3.4963274 0
-11.548375 14.722082 1.0451297
-2.6253424 3.3385203 -0.94086653
-2.5560954 3.2504621 -0.68938172
-2.5542977 3.2481761 -0.46057996
-2.6409366 3.3583505 -0.23863775
-2.7468307 3.4930108 0
-11.561336 14.701988 1.0446942
-2.6278028 3.3333521 -0.94030416
-2.5568395 3.2433352 -0.68852496
-2.5454104 3.2288377 -0.45827362
-2.6433854 3.3531184 -0.23849274
-2.7333307 3.4672136 0
-11.574264 14.681884 1.0442586
-2.6145031 3.3082516 -0.93411404
-2.5543897 3.2321873 -0.68681306
-2.54931 3.2257595 -0.45827362
-2.6409905 3.3417673 -0.23791218
-2.7246089 3.4475737 0
-11.580722 14.653623 1.0432431
-2.6106048 3.2951264 -0.93129802
-2.5567007 3.2270882 -0.68638551
-2.5419672 3.2084913 -0.45625639
-2.6401839 3.3324616 -0.23747662
-2.7320018 3.4483547 0
-11.591966 14.631473 1.0426625
-2.6078622 3.2875824 -0.92961097
-2.5522685 3.2174985 -0.68467367
-2.543905 3.2069552 -0.45625639
-2.637357 3.3247645 -0.23704162
-2.7049754 3.410007 0
-10.774048 13.582224 0.96835494
-2.6086669 3.2804475 -0.92848414
-2.5561543 3.2144122 -0.68467367
-2.5365076 3.1897061 -0.45423806
-2.6316655 3.3093688 -0.2361705
-2.710712 3.4087713 0
-10.796921 13.577331 0.96893549
-2.6047108 3.2673609 -0.92567027
-2.5392354 3.1852283 -0.67911047
-2.5419707 3.1886594 -0.4545261
-2.6356623 3.3061864 -0.2361705
-2.7196972 3.4116004 0
-10.805215 13.55411 0.96820939
-2.6086569 3.2642112 -0.92567027
-2.5446835 3.1841612 -0.67953801
-2.5425954 3.1815484 -0.45395005
-2.6347871 3.2969079 -0.23573495
-2.7026973 3.3818841 0
-10.819963 13.539016 0.96806443
-2.6014769 3.2471738 -0.92172951
-2.5437186 3.1750796 -0.67825538
-2.5383534 3.1683829 -0.45250887
-2.6582646 3.3180568 -0.23747662
-2.7246761 3.4009519 0
-10.824941 13.511735 0.96704829
-2.6022193 3.2400699 -0.92060483
-2.5443351 3.1679969 -0.67739862
-2.5373194 3.1592617 -0.45164371
-2.650887 3.3006666 -0.23646106
-0 0 0
-10.847768 13.506749 0.96762884
-2.6045406 3.2349458 -0.92004246
-2.5385051 3.1529269 -0.67483163
-2.5411351 3.1561937 -0.45164371
-2.6385746 3.2772174 -0.23500939
-0 0 0
-10.857562 13.485536 0.96704829
-2.6020641 3.2238874 -0.91779095
-2.5390851 3.1458583 -0.67397487
-2.5368259 3.1430593 -0.45020252
-2.683331 3.3245749 -0.23863775
-0 0 0
-10.886905 13.488583 0.96820939
-2.596365 3.2088857 -0.91441256
-2.5412712 3.1407943 -0.67354733
-2.5341141 3.1319489 -0.44904935
-2.6955168 3.3314285 -0.2393633
-0 0 0
-10.896657 13.467338 0.96762884
-2.593838 3.1978526 -0.91216099
-2.5337431 3.1237638 -0.67055112
-2.5346348 3.1248631 -0.44847223
-2.6946342 3.3221207 -0.2389283
-0 0 0
-10.914563 13.456185 0.96777439
-2.6009092 3.1986628 -0.91328788
-2.5407579 3.1246872 -0.67140788
-2.5384088 3.1217983 -0.44847223
-2.700284 3.3208766 -0.23907329
-2.7164295 3.3407326 0
-9.0604458 11.142761 0.80217874
-2.591929 3.1797619 -0.90878481
-2.5364234 3.1116679 -0.66926849
-2.5356424 3.1107097 -0.44731906
-2.7272761 3.3458049 -0.24110498
-0 0 0
-9.0739031 11.131805 0.80217874
-2.5973754 3.1785934 -0.90934712
-2.5353069 3.1026356 -0.66798413
-2.5344939 3.1016407 -0.446455
-2.7346084 3.3465352 -0.24139553
-2.7179079 3.3260972 0
-9.0692587 11.098698 0.80058211
-2.5996058 3.1734889 -0.90878481
-2.5358036 3.095602 -0.66712904
-2.5316837 3.0905726 -0.44530183
-2.7468817 3.3532772 -0.24212109
-2.715328 3.3147578 0
-9.0760765 11.079691 0.80000156
-2.5889273 3.1526744 -0.90371937
-2.5313919 3.0826106 -0.66498798
-2.5337763 3.0855143 -0.44501382
-2.7476301 3.3459353 -0.24183053
-2.7127247 3.3034294 0
-9.0911055 11.070723 0.80014652
-2.5895019 3.1456168 -0.90259248
-2.5334847 3.0775697 -0.66456044
-2.5259941 3.0684702 -0.44299549
-2.7450652 3.3345885 -0.24124996
-2.7100983 3.2921121 0
-9.0945692 11.047696 0.79927599
-2.5900693 3.1385698 -0.9014678
-2.5355692 3.0725281 -0.66413283
-2.5329893 3.0694017 -0.44357154
-2.7408245 3.3212504 -0.24052441
-2.7091031 3.2828114 0
-9.1145277 11.044716 0.79985654
-2.5873814 3.1276066 -0.89921629
-2.5311 3.0595744 -0.66199344
-2.5350492 3.064348 -0.4432835
-2.7514608 3.3259449 -0.24110498
-2.7014539 3.2654967 0
-9.1228952 11.027686 0.79942095
-2.5846705 3.1166546 -0.89696473
-2.5282402 3.0486097 -0.66028154
-2.5337951 3.0553079 -0.44241837
-2.7223029 3.2826149 -0.23820218
-2.7087235 3.2662406 0
-9.1345568 11.014657 0.79927599
-2.5851889 3.1096253 -0.89584005
-2.5302825 3.0435805 -0.65985399
-2.5275671 3.0403144 -0.44068915
-0 0 -0
-2.7209852 3.2729695 0
-9.1594887 11.0176 0.80029207
-2.5856879 3.1025918 -0.89471322
-2.5191622 3.0227671 -0.65600109
-2.5279303 3.033288 -0.44011313
-0 0 -0
-2.7249379 3.2696793 0
-9.1744566 11.008519 0.80043709
-2.5794239 3.0912764 -0.89189935
-2.5242805 3.0251904 -0.65685785
-2.5314178 3.0337443 -0.44040114
-2.6922586 3.2265015 -0.2347194
-2.7269127 3.2680326 0
-9.1944237 11.018935 0.80159819
-2.5798936 3.0842557 -0.89077246
-2.5213459 3.014262 -0.65514594
-2.5317595 3.0267117 -0.43982401
-2.726161 3.2591181 -0.23733163
-2.6841059 3.2088413 0
-11.508312 13.758156 1.00188
-2.5754569 3.071403 -0.88795859
-2.524986 3.0112133 -0.65514594
-2.5287673 3.0157225 -0.43867084
-2.7618208 3.2936542 -0.24008942
-2.7030356 3.2235491 0
-11.534949 13.756191 1.0027512
-2.5758996 3.0644026 -0.88683391
-2.5236657 3.0022631 -0.65386164
-2.5274212 3.0067308 -0.43780679
-2.7156358 3.2306387 -0.23573495
-2.6684115 3.174459 0
-11.568279 13.76213 1.0042024
-2.5697734 3.0496259 -0.88345551
-2.5239863 2.9952891 -0.65300655
-2.5277159 2.9997151 -0.43722966
-2.7413092 3.2531924 -0.23762219
-2.6823103 3.183177 0
-11.62006 13.789868 1.0072501
-2.5701802 3.0426402 -0.88233083
-2.5193226 2.9824338 -0.6508671
-2.5330062 2.9986327 -0.43751767
-2.7217598 3.2220836 -0.23558995
-2.6660018 3.1560762 0
-11.65516 13.797654 1.0088468
-2.5754952 3.0414698 -0.88289315
-2.5229244 2.9793875 -0.6508671
-2.526602 2.9837306 -0.43578845
-2.7609124 3.2604337 -0.23863775
-2.6529922 3.132988 0
-11.700368 13.81727 1.011314
-2.5643709 3.0209236 -0.87782776
-2.5198777 2.9685087 -0.64915526
-2.5235102 2.9727881 -0.43463528
-2.7732563 3.2669981 -0.2393633
-2.6938314 3.1734331 0
-11.743954 13.83481 1.0136356
-2.5663741 3.0158896 -0.87726539
-2.516808 2.9576416 -0.64744335
-2.5220702 2.9638255 -0.43377015
-2.7687833 3.253752 -0.23863775
-2.6639321 3.1305354 0
-11.801077 13.868105 1.0171191
-2.5683627 3.0108478 -0.87670088
-2.5220444 2.9565496 -0.6478709
-2.5256493 2.9607759 -0.43377015
-2.7676523 3.2444715 -0.23820218
-2.6913555 3.15503 0
-11.839746 13.879533 1.0190057
-2.5637436 2.9980884 -0.873887
-2.5156081 2.9417977 -0.64530396
-2.5191424 2.945931 -0.43204093
-2.7969034 3.2707498 -0.24037941
-2.6630342 3.1142008 0
-11.888597 13.902741 1.0217634
-2.5590975 2.9853446 -0.87107313
-2.5158162 2.9348543 -0.64444721
-2.5243819 2.9448469 -0.43232897
-2.8126931 3.2811794 -0.24139553
-2.6769545 3.1228323 0
-11.92737 13.914011 1.0236502
-2.5660181 2.9861083 -0.87219995
-2.5093253 2.9201341 -0.64188021
-2.5262542 2.9398346 -0.43204093
-2.8064914 3.26595 -0.24052441
-2.685816 3.1255188 0
-11.976345 13.937027 1.0264074
-2.5580144 2.969528 -0.86825925
-2.5145257 2.9190431 -0.64230776
-2.5230522 2.9289415 -0.43088776
-2.8019576 3.2527149 -0.23979886
-2.6573167 3.0848053 0
-12.027095 13.961921 1.0293102
-2.5549579 2.9587424 -0.86600769
-2.5113399 2.908231 -0.64059591
-2.5265894 2.9258907 -0.43088776
-2.7956994 3.2375307 -0.2389283
-2.6270304 3.0422051 0
-12.079618 13.988676 1.0323579
-2.5552084 2.9518147 -0.86488301
-2.5165305 2.9071333 -0.64102346
-2.5284319 2.920882 -0.43059975
-2.8268132 3.2655766 -0.24124996
-2.6766884 3.0921502 0
-12.128819 14.011393 1.0351152
-2.5537755 2.9429657 -0.86319381
-2.5082691 2.8905241 -0.63802892
-2.5200913 2.9041481 -0.42858142
-2.8120286 3.240576 -0.23965386
-0 0 0
-12.166177 14.020277 1.0368569
-2.5539913 2.9360402 -0.86206698
-2.5083871 2.8836138 -0.63717216
-2.5235987 2.9011011 -0.42858142
-2.8449323 3.2705026 -0.24212109
-2.6636567 3.0621102 0
-12.217216 14.044777 1.0397596
-2.5491891 2.9233785 -0.85925311
-2.5034354 2.8709087 -0.63503271
-2.5186043 2.8883045 -0.42714024
-2.8044834 3.2161469 -0.23834774
-2.6656458 3.0569298 0
-12.268333 14.069173 1.0426625
-2.5560672 2.9241259 -0.86037993
-2.5069025 2.8678818 -0.63503271
-2.5203919 2.8833137 -0.42685223
-2.8134928 3.2186193 -0.23878273
-3.7243655 4.2606521 0
-12.310971 14.083679 1.0448391
-2.5545733 2.9153004 -0.85869074
-2.5035987 2.8571277 -0.63332087
-2.5204616 2.8763716 -0.4262751
-2.8464906 3.2484388 -0.24124996
-0 0 0
-12.357091 14.102015 1.0473064
-2.5479572 2.9042082 -0.85587686
-2.5019352 2.8517516 -0.63246411
-2.5136716 2.865129 -0.42483389
-2.8021884 3.1939857 -0.23733163
-3.6788733 4.1932473 0
-12.399881 14.133612 1.0502092
-2.5464287 2.8954017 -0.85418767
-2.5036855 2.8468006 -0.63203657
-2.5137186 2.8582089 -0.42425787
-2.8386519 3.2276721 -0.24008942
-2.6424587 3.0045919 0
-12.451271 14.157643 1.0531119
-2.5415254 2.8827946 -0.85137379
-2.5054274 2.8418496 -0.63160896
-2.5137463 2.8512855 -0.42368072
-2.8648872 3.2495766 -0.24197608
-2.6305995 2.9838293 0
-12.501013 14.179616 1.0558692
-2.5416384 2.87591 -0.85024691
-2.503758 2.8330476 -0.63032466
-2.5120494 2.8424299 -0.42281559
-2.8860157 3.2655795 -0.2434272
-2.6634994 3.013798 0
-12.55599 14.207332 1.059062
-2.5451114 2.8728371 -0.85024691
-2.4986694 2.8204148 -0.62818527
-2.5051944 2.82778 -0.42108637
-2.9002945 3.2737558 -0.24429776
-3.7353368 4.2163239 0
-12.600717 14.223269 1.0613842
-2.543524 2.8640654 -0.84855992
-2.5020757 2.8173935 -0.62818527
-2.5120413 2.8286152 -0.42166242
-2.847317 3.2061431 -0.23950885
-3.7110522 4.1787286 0
-12.65585 14.250772 1.064577
-2.5385303 2.8514955 -0.84574383
-2.5020676 2.8105373 -0.62733012
-2.5120208 2.8217177 -0.42108637
-2.890923 3.2473333 -0.24284664
-3.7507081 4.2131176 0
-12.695519 14.260699 1.0664637
-2.5385938 2.8446383 -0.84461915
-2.4969106 2.79793 -0.62518907
-2.5119808 2.8148172 -0.42050925
-2.8671625 3.2128184 -0.24052441
-3.7124772 4.1600413 0
-12.752537 14.289941 1.069802
-2.545414 2.8453526 -0.84574383
-2.4985795 2.7929995 -0.62476152
-2.5067594 2.8021431 -0.41906807
-2.9074228 3.2500186 -0.24357221
-3.7088268 4.1458564 0
-12.804443 14.313253 1.0727048
-2.5420711 2.8347154 -0.84349447
-2.4968092 2.7842431 -0.62347722
-2.5066931 2.7952647 -0.41849202
-2.9338984 3.2716503 -0.24545887
-3.7346838 4.1646223 0
-12.852952 14.332589 1.075317
-2.5319052 2.8165247 -0.8389914
-2.4933136 2.7735951 -0.62176698
-2.5117962 2.7941556 -0.41878003
-2.9117973 3.2391219 -0.2432822
-0 0 0
-12.896313 14.346029 1.0774937
-2.5336006 2.8115704 -0.83842689
-2.4966631 2.7705803 -0.62176698
-2.5047851 2.7795935 -0.41705084
-2.9035311 3.2220871 -0.24226609
-3.4834185 3.8655961 0
-12.962343 14.384485 1.0815576
-2.5352759 2.7997944 -0.83673984
-2.496459 2.7569275 -0.62005508
-2.506285 2.7677786 -0.41618568
-2.897356 3.1996522 -0.24110498
-3.4089074 3.7645764 0
-13.056364 14.418602 1.0864921
-2.5420694 2.8004882 -0.83786452
-2.4928868 2.7463059 -0.61834323
-2.5044105 2.759001 -0.41532055
-2.908206 3.203845 -0.24168552
-3.3837192 3.7276974 0
-13.113947 14.44707 1.0898304
-2.5522916 2.8049319 -0.84011608
-2.4927447 2.7394907 -0.61748648
-2.5042644 2.7521505 -0.4147445
-2.8508723 3.1330678 -0.23660606
-0 0 0
-13.162868 14.465804 1.0924426
-2.5659564 2.8131132 -0.84349447
-2.496053 2.7364767 -0.61748648
-2.5006158 2.7414789 -0.41359133
-2.6637933 2.9203742 -0.22078656
-0 0 0
-13.21886 14.49212 1.0956354
-2.5985 2.841887 -0.85306299
-2.4958966 2.7296734 -0.61663139
-2.5056701 2.7403624 -0.41387933
-2.5831623 2.8251128 -0.21382043
-2.6649256 2.9145343 0
-13.278443 14.522161 1.0991188
-2.6019318 2.8387451 -0.85306299
-2.4922547 2.7190859 -0.61491948
-2.5037348 2.7316108 -0.4130142
-2.5883281 2.8239033 -0.21396542
-0 0 0
-13.329334 14.542496 1.101876
-2.6139541 2.8449526 -0.85587686
-2.4938033 2.714184 -0.61449194
-2.5105369 2.7323964 -0.41359133
-2.589982 2.8188622 -0.21382043
-2.6790042 2.9157515 0
-13.392603 14.576124 1.1056494
-2.6225488 2.8473935 -0.85756391
-2.4831681 2.696063 -0.61106819
-2.5085783 2.7236516 -0.41272616
-0 0 -0
-2.6560838 2.8838036 0
-13.44013 14.592422 1.1081166
-2.6225479 2.8439424 -0.85700154
-2.4900124 2.7002184 -0.61235088
-2.5067198 2.7183363 -0.41215014
-0 0 -0
-2.6648827 2.8898513 0
-13.482414 14.620595 1.1108744
-2.6294351 2.8445067 -0.85812837
-2.4845622 2.6877842 -0.61021143
-2.5082419 2.7134006 -0.41186103
-2.5931921 2.8052993 -0.21338487
-2.6630712 2.8808942 0
-13.533578 14.640542 1.1136316
-2.6363208 2.8450515 -0.85925311
-2.4825718 2.6791296 -0.60892713
-2.5062497 2.7046819 -0.41099697
-2.5877509 2.7926359 -0.2126593
-0 0 0
-13.593646 14.669922 1.117115
-2.6449461 2.8474507 -0.8609423
-2.4875596 2.678014 -0.60935634
-2.5042334 2.6959646 -0.41013181
-2.5822828 2.7799897 -0.21193375
-2.6753407 2.8801723 0
-13.65203 14.697268 1.1204528
-2.6241469 2.8182223 -0.85306299
-2.4820416 2.6656075 -0.60721529
-2.4951494 2.6796844 -0.40811351
-2.9627845 3.1819046 -0.24284664
-0 0 0
-13.689259 14.701683 1.1220495
-2.5772729 2.7611842 -0.83673984
-2.4852607 2.6626062 -0.60721529
-2.5036817 2.6823418 -0.40897864
-2.9737191 3.1859205 -0.2434272
-2.6645317 2.8546698 0
-13.714106 14.692729 1.12263
-2.5337334 2.7079711 -0.82154143
-2.4762039 2.6464853 -0.60422075
-2.5016177 2.6736467 -0.40811351
-3.0183938 3.22596 -0.24676499
-2.6555376 2.8381512 0
-11.699205 12.503726 0.9564538
-2.5161448 2.682668 -0.81478679
-2.4776454 2.6416209 -0.60379314
-2.5066211 2.672514 -0.40840262
-3.0116272 3.2109425 -0.24589443
-2.6482792 2.8235474 0
-11.714305 12.48958 0.9564538
-2.5054672 2.6648235 -0.81028587
-2.484349 2.6423621 -0.60464829
-2.5098484 2.6694834 -0.40840262
-3.0439835 3.237591 -0.24821666
-2.6641693 2.8336196 0
-13.971952 14.860616 1.13932
-2.5156562 2.6691904 -0.81253743
-2.4734547 2.6244133 -0.60122454
-2.5024247 2.6551516 -0.40667233
-3.0674922 3.2547059 -0.24981278
-2.6390319 2.800096 0
-14.005936 14.86074 1.1406262
-2.5101497 2.6569088 -0.80972141
-2.4801531 2.6251583 -0.6020813
-2.5003006 2.6464839 -0.40580717
-0 0 -0
-2.6531334 2.8082521 0
-14.045296 14.866471 1.1423678
-2.5133584 2.6538737 -0.80972141
-2.4797895 2.6184282 -0.60122454
-2.5070572 2.6472204 -0.40638429
-3.0539143 3.2246509 -0.24807167
-2.6565247 2.8050442 0
-14.100769 14.889107 1.1454157
-2.5095656 2.6434639 -0.80746984
-2.4794202 2.6117101 -0.60036945
-2.5031307 2.6366858 -0.40523112
-3.0077155 3.1681929 -0.24400777
-2.6419973 2.7829616 0
-14.159899 14.915403 1.148754
-0 0 -0
-2.5075078 2.634913 -0.80578279
-2.4754953 2.601274 -0.59865755
-2.5045335 2.6317875 -0.40494311
-0 0 -0
-2.6507421 2.7854247 0
-14.215527 14.93781 1.1518018
-0 0 -0
-2.5036745 2.6245272 -0.80353129
-2.4750896 2.5945625 -0.59780079
-2.4952128 2.6156571 -0.40292478
-0 0 -0
-2.6325493 2.7596228 0
-14.283779 14.973259 1.1558651
-0 0 -0
-2.5138681 2.6288457 -0.80578279
-2.4764502 2.5897164 -0.59737325
-2.5090935 2.6238527 -0.404654
-4.0032597 4.186358 -0.3235403
-2.648474 2.769608 0
-14.332389 14.987913 1.1583323
-2.5117662 2.6203017 -0.8040936
-2.472472 2.5793095 -0.5956614
-2.4997385 2.607754 -0.40263677
-3.9633639 4.134624 -0.31991193
-2.6482134 2.7626448 0
-14.379258 15.000598 1.1606545
-2.5043707 2.6062753 -0.80071741
-2.4649184 2.5652175 -0.59309441
-2.4992998 2.6009982 -0.40205964
-3.9539537 4.1148429 -0.31875083
-2.6335211 2.7406809 0
-8.8956747 9.2576456 0.7171312
-2.5145621 2.6105604 -0.80296677
-2.4715743 2.5659316 -0.5939495
-2.4916782 2.5868027 -0.40033042
-3.9517121 4.1025763 -0.31817028
-2.6566856 2.7581096 0
-8.9086552 9.2487602 0.71727622
-2.5171473 2.6069326 -0.99980342
-2.5141883 2.603868 -0.80184209
-2.469322 2.5574012 -0.5926652
-2.4894104 2.5782063 -0.39946529
-3.9692955 4.110878 -0.31918582
-2.6744781 2.769875 0
-8.928854 9.2473412 0.71800232
-2.5084987 2.591701 -0.79902822
-2.468843 2.5507302 -0.59181011
-2.4853284 2.5677624 -0.39831212
-3.9507685 4.0818086 -0.31729916
-2.6470549 2.734853 0
-8.9400206 9.2365456 0.71800232
-2.5100641 2.5901852 -0.79902822
-2.466814 2.5455546 -0.59095496
-2.4868793 2.5662606 -0.39831212
-3.9478142 4.0738282 -0.31686416
-2.650516 2.7351205 0
-8.9474058 9.2330065 0.71814734
-2.5250108 2.5993171 -0.99980342
-2.5078788 2.581681 -0.79733902
-2.4663074 2.5388861 -0.5900982
-2.4827695 2.5558326 -0.39715895
-3.9617846 4.0783725 -0.3175897
-2.6918981 2.7711155 0
-8.9495049 9.2128716 0.71742177
-2.5228972 2.5908701 -0.99772626
-2.5145452 2.582293 -0.79846585
-2.4693732 2.5359042 -0.5900982
-2.4786382 2.5454187 -0.39600578
-3.9558294 4.0624089 -0.31671858
-2.6843543 2.7566772 0
-14.712338 15.108725 1.1779252
-2.5120134 2.5734646 -0.99219161
-2.5105641 2.5719798 -0.79621434
-2.4670546 2.5274057 -0.5888139
-2.4817121 2.5424218 -0.39600578
-3.9861493 4.083662 -0.31875083
-2.6295111 2.6938365 0
-14.723324 15.083498 1.1773447
-2.499325 2.5542839 -0.98596019
-2.5154455 2.5707588 -0.79677665
-2.4665194 2.5207567 -0.58795881
-2.4721251 2.5264857 -0.39398855
-3.9638195 4.050982 -0.31657359
-2.6364079 2.6943812 0
-14.739723 15.063842 1.1771996
-2.5006545 2.5494728 -0.98526865
-2.5078709 2.5568302 -0.79339826
-2.4677675 2.5159438 -0.58753127
-2.4787948 2.5271864 -0.3945646
-2.5349948 2.5844836 -0.20220982
-2.6578817 2.7097695 0
-14.757914 15.046021 1.1771996
-2.5142901 2.5571864 -0.98942298
-2.5252099 2.5682926 -0.79790133
-2.4690008 2.5111244 -0.58710206
-2.4782233 2.5205042 -0.39398855
-2.5472231 2.5906811 -0.20293538
-2.622839 2.667587 0
-14.78337 15.035589 1.1777802
-2.5015302 2.5380671 -0.98319417
-2.5122607 2.5489542 -0.79283595
-2.4684327 2.5044861 -0.58624691
-2.4758184 2.5119798 -0.39312339
-2.5375817 2.574645 -0.20191926
-2.6059701 2.6440325 0
-8.7607126 8.88867 0.69710338
-2.504595 2.5350425 -0.98319417
-2.5206978 2.5513411 -0.79452515
-2.4660428 2.4960215 -0.58496261
-2.4770358 2.5071483 -0.39283538
-2.5571253 2.5882113 -0.20322537
-2.614645 2.6464303 0
-8.7659664 8.8725309 0.69666779
-2.5076563 2.5320144 -0.98319417
-2.509475 2.5338507 -0.79002202
-2.4636359 2.4875665 -0.58367831
-2.4764197 2.5004745 -0.39225826
-2.5565972 2.5814307 -0.20293538
-2.6398168 2.6654587 0
-8.7949619 8.8803911 0.69811893
-2.503644 2.5218611 -0.98042554
-2.5125349 2.5308166 -0.79002202
-2.46664 2.4845877 -0.58367831
-2.4776187 2.4956465 -0.39197025
-0 0 -0
-0 0 0
-8.833148 8.8974199 0.70029616
-2.5119932 2.5241637 -0.98250002
-2.5155909 2.5277789 -0.79002202
-2.462404 2.4743342 -0.58196807
-2.4788096 2.4908195 -0.39168221
-0 0 -0
-0 0 0
-8.8273973 8.8701658 0.69899005
-2.5044138 2.5104733 -0.97834837
-2.5204363 2.5265346 -0.79058439
-2.4653919 2.4713571 -0.58196807
-2.4763358 2.4823272 -0.39081708
-0 0 -0
-0 0 0
-8.827095 8.8484516 0.69811893
-2.5092177 2.5092177 -0.97903991
-2.5198972 2.5198972 -0.78945971
-2.462929 2.462929 -0.58068377
-2.4701905 2.4701905 -0.38937587
-2.56353 2.56353 -0.20249982
-2.6305857 2.6305857 0
-8.8249235 8.8249235 0.69710338
-2.5015945 2.4955564 -0.97488827
-2.5139477 2.5078797 -0.78664583
-2.462265 2.4563217 -0.57982701
-2.4695077 2.463547 -0.38879874
-2.5537539 2.5475898 -0.20148426
-2.6227112 2.6163807 0
-8.83006 8.8087463 0.69666779
-2.4992716 2.4872212 -0.9728111
-2.5133705 2.5012522 -0.78551894
-2.4652312 2.4533448 -0.57982701
-2.4614861 2.4496179 -0.38706952
-2.5457759 2.5335011 -0.20061314
-2.6184919 2.6058664 0
-8.8278027 8.7852383 0.69565171
-2.5040538 2.4859653 -0.97350258
-2.5127881 2.4946365 -0.78439426
-2.4645536 2.4467506 -0.57897192
-2.4681118 2.4502828 -0.38764557
-2.5414591 2.5231004 -0.20003259
-2.6234837 2.6045325 0
-8.8347263 8.7709074 0.69536167
-2.4927955 2.4688148 -0.9679653
-2.5085793 2.4844465 -0.78214276
-2.4620347 2.43835 -0.57768756
-2.4637268 2.4400256 -0.3864935
-2.5463502 2.5218544 -0.2001776
-2.6340253 2.608686 0
-0 0 0
-2.4939938 2.4640393 -0.96727377
-2.5188093 2.4885569 -0.78439426
-2.4613304 2.4317682 -0.57683247
-2.4666731 2.4370468 -0.3864935
-2.5493956 2.5187757 -0.2001776
-2.626071 2.5945303 0
-8.8706846 8.764142 0.69652283
-2.5059016 2.4698277 -0.97073394
-2.4946678 2.4587557 -0.77595049
-2.4624333 2.4269853 -0.57640326
-2.4677687 2.4322438 -0.38620439
-2.5542932 2.5175228 -0.20032315
-2.6440325 2.6059701 0
-8.8942165 8.76618 0.69753838
-2.5053096 2.4632835 -0.96935093
-2.5103214 2.4682112 -0.77989119
-2.4543848 2.413213 -0.57383627
-2.4688632 2.4274485 -0.38591638
-2.5499218 2.5071476 -0.19974259
-2.6323333 2.5881765 0
-8.8881283 8.7390318 0.69623226
-2.5082843 2.4602547 -0.96935093
-2.4933465 2.4456029 -0.77369893
-2.4554679 2.4084496 -0.57340872
-2.4681051 2.4208448 -0.38534033
-2.562223 2.5131605 -0.20046815
-2.7004817 2.6487718 0
-8.8578739 8.6882601 0.69303948
-2.502291 2.4484508 -0.96589082
-2.4890351 2.4354801 -0.77144736
-2.4657156 2.4126625 -0.57512063
-2.4673274 2.4142394 -0.38476321
-2.529968 2.4755323 -0.19771037
-0 0 0
-8.8015041 8.6121283 0.68781441
-2.4983854 2.4416766 -0.96381366
-2.4868753 2.4304276 -0.77032268
-2.4543197 2.3986108 -0.57212442
-2.4669375 2.4109423 -0.38447517
-0 0 -0
-3.8759437 3.7879665 0
-8.7788363 8.5795717 0.68563777
-2.4995394 2.4369063 -0.96312219
-2.48981 2.4274209 -0.77032268
-2.4590523 2.397434 -0.57255197
-2.4735491 2.4115674 -0.38505122
-0 0 -0
-3.7929413 3.6978984 0
-8.7780294 8.5580711 0.68476665
-2.4988818 2.4303827 -0.9617365
-2.4781694 2.4102383 -0.76581961
-2.4582705 2.3908846 -0.57169688
-2.4671924 2.3995619 -0.38361004
-0 0 -0
-3.825386 3.720525 0
-8.7958145 8.5547047 0.6853472
-2.4928155 2.4186282 -0.95827639
-2.4810801 2.4072421 -0.76581961
-2.4500997 2.3771837 -0.56912822
-2.464519 2.3911741 -0.38274488
-0 0 -0
-3.8522928 3.7376471 0
-8.8154745 8.5531225 0.6860733
-2.4903264 2.4103785 -0.95619923
-2.482163 2.402477 -0.7652573
-2.4621983 2.3831534 -0.57126933
-2.4711273 2.3917956 -0.383322
-0 0 -0
-3.8511941 3.7275579 0
-8.8388672 8.55511 0.68708891
-2.4914339 2.4056265 -0.9555077
-2.4868901 2.4012392 -0.76581961
-2.4558372 2.3712559 -0.56912822
-2.4702904 2.3852112 -0.38274488
-0 0 -0
-3.8388474 3.7066338 0
-8.8604174 8.5552568 0.68795997
-2.4744616 2.3834679 -0.94789326
-2.4586811 2.368268 -0.7562511
-2.4624019 2.3718519 -0.56998497
-2.4694486 2.3786395 -0.38216883
-0 0 -0
-0 0 0
-8.8726177 8.5463448 0.68810499
-2.4646821 2.3683136 -0.94305015
-2.4615409 2.3652954 -0.7562511
-2.4504578 2.3546457 -0.56656128
-2.4629977 2.3666952 -0.38072765
-0 0 -0
-0 0 0
-8.8679495 8.5212145 0.68694389
-2.4820304 2.3792224 -0.94858742
-2.4809039 2.3781424 -0.76131654
-2.4570041 2.3552325 -0.56741637
-2.460252 2.358346 -0.37986252
-0 0 -0
-0 0 0
-8.8669872 8.4997082 0.6860733
-2.4903378 2.3814182 -0.9506619
-2.4672499 2.35934 -0.7562511
-2.4579945 2.3504896 -0.56698883
-2.4631 2.3553717 -0.37986252
-0 0 -0
-0 0 0
-8.8603439 8.4728203 0.68476665
-2.4859524 2.3714807 -0.94789326
-2.4700987 2.3563571 -0.7562511
-2.4515474 2.3386598 -0.56484938
-2.4659443 2.3523939 -0.37986252
-3.378999 3.2234049 -0.26084283
-0 0 0
-8.8649406 8.4567327 0.68433166
-2.4880407 2.3620148 -0.94651026
-2.4720969 2.3468788 -0.75512427
-2.4497449 2.3256588 -0.56313753
-2.4622445 2.3375254 -0.37842131
-0 0 -0
-2.5923407 2.4610317 0
-8.9588404 8.5050516 0.68999165
-2.4963591 2.3641837 -0.94858742
-2.4657083 2.3351557 -0.7523104
-2.4525533 2.3226972 -0.56313753
-2.4613078 2.3309882 -0.37784418
-0 0 -0
-2.5480745 2.4131608 0
-8.9898653 8.5138769 0.69158834
-2.4791524 2.3422122 -0.94097298
-2.4759159 2.3391545 -0.7545619
-2.4534938 2.3179708 -0.56270999
-2.4641223 2.3280125 -0.37784418
-3.4323151 3.2427254 -0.26374561
-2.5926034 2.4493964 0
-9.0246992 8.5262041 0.69347501
-2.4911075 2.3478167 -0.94443315
-2.469497 2.3274491 -0.75174803
-2.4562929 2.3150046 -0.56270999
-2.4594045 2.3179374 -0.37669101
-3.4381199 3.2403562 -0.26389062
-2.5785177 2.4301989 0
-9.0463371 8.5259829 0.69434559
-2.4939425 2.344805 -0.94443315
-2.470458 2.3227248 -0.75118572
-2.4572198 2.3102782 -0.56228238
-2.4603209 2.3131938 -0.376403
-3.4041779 3.2006083 -0.26098838
-2.6269577 2.4698658 0
-9.1058493 8.5613203 0.69811893
-2.4931178 2.3383605 -0.94305015
-2.4769657 2.3232112 -0.7523104
-2.4525199 2.3002827 -0.56057054
-2.4574599 2.3049161 -0.37553895
-3.406142 3.1947098 -0.26084283
-2.6242437 2.4613471 0
-9.1654606 8.5965261 0.70189226
-2.4739585 2.3147779 -0.93474418
-2.4742031 2.315007 -0.7506212
-2.4552977 2.2973177 -0.56057054
-2.4583492 2.300173 -0.37524983
-0 0 -0
-2.6006143 2.4332845 0
-9.1967144 8.6049757 0.70348895
-2.480418 2.3152072 -0.93612719
-2.4677129 2.3033485 -0.74780732
-2.4580717 2.2943494 -0.56057054
-2.4611266 2.2972009 -0.37524983
-2.4869215 2.3212776 -0.19001867
-0 0 0
-9.1995068 8.5867643 0.7029084
-2.4520023 2.2831466 -0.92436111
-2.4779327 2.307291 -0.75005883
-2.4458125 2.2773829 -0.55714679
-2.4639006 2.2942255 -0.37524983
-2.5049381 2.3324368 -0.19117978
-2.5931528 2.4145765 0
-9.1946621 8.5614767 0.70174724
-2.4492502 2.2750647 -0.92228663
-2.4695523 2.2939229 -0.74668264
-2.4523203 2.2779167 -0.55800194
-2.4609911 2.2859707 -0.37438577
-2.5306005 2.3506298 -0.19292146
-2.6094177 2.4238415 0
-9.2011967 8.5468273 0.70145726
-2.4414303 2.2650549 -0.91882646
-2.4299617 2.2544148 -0.73430026
-2.4536963 2.2764347 -0.55800194
-2.4642661 2.2862411 -0.37467378
-2.5186841 2.3367276 -0.19190533
-2.6089756 2.4204962 0
-9.2158813 8.5501013 0.70218283
-2.4294357 2.2484708 -0.91328919
-2.4214916 2.2411184 -0.73092186
-2.4526806 2.2699842 -0.55714679
-2.4594338 2.2762344 -0.37352061
-2.536762 2.3478024 -0.19306645
-0 0 0
-9.2357388 8.5477829 0.7029084
-2.4376752 2.2506342 -0.91536367
-2.4279351 2.2416413 -0.73204869
-2.4478772 2.2600534 -0.55543494
-2.4564793 2.2679956 -0.37265548
-2.5224164 2.3288732 -0.19176033
-2.59761 2.3982971 0
-9.2632408 8.5524788 0.70421451
-2.4477742 2.2544856 -0.91813231
-2.423166 2.2318206 -0.72979712
-2.4506063 2.2570939 -0.55543494
-2.4687288 2.2737854 -0.37409666
-2.5194929 2.3205409 -0.19132479
-2.5851917 2.3810518 0
-9.2945948 8.5606461 0.70581114
-2.4560404 2.2566199 -0.92020947
-2.4071469 2.2116964 -0.72416723
-2.4419863 2.2437069 -0.55286628
-2.4600503 2.2603042 -0.37236744
-2.5165529 2.3122189 -0.19088922
-2.6072273 2.3955309 0
-9.3278923 8.5705051 0.70755285
-2.4476724 2.2434831 -0.91605783
-2.4472799 2.2431235 -0.73542494
-2.4522653 2.2476928 -0.55457819
-2.4570577 2.2520854 -0.37150231
-2.5155175 2.3056684 -0.19059922
-2.592855 2.3765543 0
-9.4052801 8.6206741 0.7126323
-2.4466748 2.2371349 -0.91467214
-2.4068646 2.2007341 -0.72248018
-2.4417231 2.2326074 -0.55158365
-2.4445064 2.2351522 -0.36919597
-2.5221331 2.3061306 -0.19088922
-2.5842044 2.362886 0
-9.5307417 8.7145023 0.72134012
-2.458642 2.2426286 -0.91813231
-2.42454 2.2115228 -0.72698325
-2.4520054 2.2365751 -0.55329549
-2.4567657 2.240917 -0.37063825
-0 0 -0
-2.6005116 2.3720336 0
-9.5643024 8.7239933 0.72308177
-2.4390833 2.2193949 -0.9098264
-2.4121759 2.1949112 -0.72248018
-2.4471114 2.2267001 -0.55158365
-2.4594715 2.237947 -0.37063825
-2.5238588 2.2965348 -0.19059922
-2.5975993 2.3636334 0
-9.5536938 8.6931925 0.72148514
-2.4380515 2.2130771 -0.90844339
-2.388483 2.1680827 -0.71459872
-2.4459949 2.2202876 -0.55072689
-2.4545133 2.2280197 -0.36948508
-2.5304761 2.296973 -0.19088922
-2.5908201 2.3517487 0
-9.4891596 8.6135349 0.71582508
-2.4388659 2.2084472 -0.90775186
-2.4061687 2.1788392 -0.71910179
-2.4429729 2.2121661 -0.5494442
-2.4514501 2.2198424 -0.36861992
-2.5371058 2.2974055 -0.19117978
-2.6071656 2.3608463 0
-9.4360008 8.544508 0.71103561
-2.4322262 2.1970918 -0.90429175
-2.3710966 2.1418722 -0.70784628
-2.4437337 2.2074869 -0.54901499
-2.4483707 2.2116756 -0.36775479
-2.532167 2.2873709 -0.19059922
-2.6080868 2.3559513 0
-9.4193268 8.5087185 0.70900398
-2.4404647 2.1991849 -0.90636623
-2.3887763 2.1526065 -0.71234721
-2.4425888 2.2010989 -0.5481599
-2.464493 2.2208376 -0.36977309
-2.5330005 2.2825718 -0.19045421
-2.6051297 2.3475699 0
-9.4160872 8.4851522 0.70798784
-2.4207315 2.1761081 -0.89806026
-2.3781536 2.1378329 -0.70840859
-2.4299738 2.1844165 -0.54473615
-2.4633241 2.2143965 -0.36919597
-2.5357566 2.2795095 -0.19045421
-2.6118317 2.3478968 0
-9.4244022 8.4720335 0.70784283
-2.4233592 2.1731815 -0.89806026
-2.3939712 2.1468275 -0.71234721
-2.4383469 2.1866219 -0.54602045
-2.4525242 2.1993356 -0.36717874
-2.5346363 2.2729709 -0.19016366
-2.6030452 2.3343174 0
-9.4307671 8.4571733 0.70755285
-2.4259832 2.1702518 -0.89806026
-2.390888 2.1388559 -0.71066016
-2.4409871 2.1836741 -0.54602045
-2.4493949 2.1911955 -0.36631361
-2.5373809 2.2699068 -0.19016366
-2.5825882 2.3103485 0
-9.4467831 8.450964 0.70798784
-2.4061494 2.1472805 -0.88975698
-2.3991523 2.141036 -0.71234721
-2.4417031 2.179009 -0.54559129
-2.4481847 2.1847932 -0.36573756
-2.532367 2.2599187 -0.18958311
-2.5912051 2.3124263 0
-9.4686232 8.4499273 0.70885897
-2.4106143 2.1460381 -0.89044851
-2.4169202 2.1516516 -0.71685028
-2.4328339 2.1658187 -0.5430243
-2.4527531 2.1835518 -0.36602557
-2.5312181 2.2534049 -0.1892931
-2.5978811 2.3127513 0
-9.490468 8.448844 0.70972949
-2.4075763 2.1381245 -0.88837135
-2.4176202 2.1470442 -0.71628791
-2.4412091 2.1679931 -0.5443086
-2.4515181 2.1771481 -0.36544845
-2.5300493 2.2468905 -0.18900254
-2.5851064 2.2957857 0
-9.5045595 8.4408245 0.71002007
-2.4251807 2.1485226 -0.89390862
-2.3973901 2.1239023 -0.70953327
-2.4457467 2.1667423 -0.54473615
-2.4502785 2.1707573 -0.3648724
-2.5405424 2.2507241 -0.18958311
-2.5859325 2.2909362 0
-9.5322542 8.4448404 0.71132618
-2.4146144 2.1339598 -0.88906282
-2.3885348 2.1109114 -0.70615709
-2.4387469 2.1552875 -0.54259676
-2.4490199 2.1643662 -0.36429527
-2.5315814 2.2373316 -0.18871255
-2.5926027 2.2912602 0
-9.5638628 8.452239 0.71292233
-2.4510682 2.1609073 -0.90152311
-2.4120436 2.1265025 -0.71234721
-2.4317234 2.1438525 -0.54045731
-2.4516332 2.1614053 -0.36429527
-2.5323358 2.2325544 -0.18856755
-2.5856104 2.2795222 0
-9.5799179 8.4458342 0.71335787
-2.4216535 2.1297798 -0.88975698
-2.4203372 2.1286221 -0.71403641
-2.4381635 2.1443 -0.5413124
-2.4464743 2.1516089 -0.3631421
-2.5428364 2.236357 -0.1891481
-2.6059492 2.291863 0
-9.5862179 8.4308233 0.71306789
-2.4204497 2.1235399 -0.88837135
-2.4248154 2.1273701 -0.71459872
-2.4426806 2.1430438 -0.54174
-2.4432449 2.143539 -0.36227804
-2.5338132 2.2229974 -0.18827699
-2.6087165 2.2887125 0
-9.5885849 8.4123793 0.71248728
-2.4330571 2.1320007 -0.89252567
-2.4261003 2.1259048 -0.71459872
-2.4362521 2.1348004 -0.5400281
-2.4445395 2.1420624 -0.36227804
-2.5332034 2.2197554 -0.18813199
-2.6042249 2.2819889 0
-9.5897532 8.4031572 0.71219677
-2.4299631 2.1241045 -0.89044851
-2.4076293 2.1045818 -0.70840859
-2.4310987 2.1250973 -0.53831625
