# .PCD v0.7 - Point Cloud Data file format
VERSION 0.7
FIELDS x y z
SIZE 4 4 4
TYPE F F F
COUNT 1 1 1
WIDTH 1569
HEIGHT 1
VIEWPOINT 0 0 0 1 0 0 0
POINTS 1569
DATA ascii
3.2601438 -1.3365711 -0.97211957
3.9884777 -1.6351684 -0.95493811
5.1418509 -2.1080203 -0.92646325
7.3531084 -3.0145762 -0.88578939
7.8236799 -3.2074981 -0.47230029
7.8148532 -3.2038794 0
21.346743 -8.7515888 1.2886612
2.7799447 -1.1357808 -0.99018681
3.2478173 -1.3269359 -0.9679653
3.9904506 -1.630348 -0.95493811
5.1467686 -2.1027758 -0.92689079
7.366323 -3.0096023 -0.88694257
7.8155251 -3.1931295 -0.47157475
7.8163118 -3.1934509 0
21.350082 -8.7228403 1.2882257
2.7652977 -1.1258994 -0.98448437
3.2285085 -1.3144971 -0.9617365
3.9853644 -1.6226534 -0.95325106
5.1397953 -2.0926833 -0.92517895
7.3627648 -2.9977722 -0.8860774
7.8025289 -3.1768236 -0.47055861
7.8153396 -3.1820395 0
21.36301 -8.6980152 1.2883706
2.7231388 -1.1049004 -0.96899927
3.2696121 -1.3266293 -0.97350258
3.9967401 -1.621658 -0.95550257
5.151835 -2.090332 -0.92689079
7.3639874 -2.9879022 -0.88578939
7.789505 -3.1605539 -0.4695425
7.8071232 -3.1677024 0
21.378326 -8.6741514 1.2886612
2.7382159 -1.1071664 -0.9738875
3.2502823 -1.3142146 -0.96727377
3.9939809 -1.6149207 -0.95437574
5.1496019 -2.0821829 -0.9260357
7.3771839 -2.9828804 -0.88694257
7.8029542 -3.1550355 -0.47012308
7.8061242 -3.1563175 0
21.396011 -8.6512337 1.2890962
2.7487216 -1.1075518 -0.97714734
3.2658253 -1.3159102 -0.97142541
4.0053563 -1.6138921 -0.95662731
5.1544929 -2.0769174 -0.92646325
7.3831797 -2.9749298 -0.88723058
7.8260422 -3.153374 -0.47128418
7.8099322 -3.146883 0
21.411274 -8.6273184 1.2893867
2.7615325 -1.1088371 -0.98122454
3.2557747 -1.3072901 -0.9679653
4.0096593 -1.609997 -0.95718962
5.1498499 -2.0678172 -0.92517895
7.3819728 -2.964081 -0.88665456
7.8322649 -3.1448865 -0.47142974
7.8016467 -3.1325924 0
21.409628 -8.5966005 1.2886612
2.7536914 -1.1018269 -0.97796464
3.2550249 -1.3024241 -0.96727377
4.0092449 -1.604208 -0.95662731
5.1547256 -2.062546 -0.92560649
7.387948 -2.9561191 -0.88694257
7.8288193 -3.1325235 -0.47099417
7.8078494 -3.1241329 0
21.422411 -8.5716896 1.2888062
2.7412415 -1.0930046 -0.9730733
3.2449467 -1.2938451 -0.96381366
4.0064645 -1.5974821 -0.95550257
5.1572142 -2.0563159 -0.92560649
7.3963242 -2.9491076 -0.88751972
7.8350101 -3.1240232 -0.47113919
7.8067789 -3.1127667 0
21.418264 -8.5400219 1.287935
2.7402654 -1.0887797 -0.9722591
3.248837 -1.2908487 -0.96450514
4.0131102 -1.5945145 -0.95662731
5.1668539 -2.0529275 -0.92689079
7.4022837 -2.9411228 -0.88780773
7.8363667 -3.1135952 -0.47099417
7.8226252 -3.1081355 0
21.43099 -8.5150986 1.2880806
2.7323868 -1.0818285 -0.96899927
3.248064 -1.2859995 -0.96381366
4.010313 -1.5877954 -0.95550257
5.1669464 -2.0457387 -0.92646325
7.4058323 -2.9321764 -0.88780773
7.8352861 -3.1022093 -0.47070363
7.8288016 -3.0996418 0
14.457032 -5.7239442 0.86850405
2.7244954 -1.0748978 -0.96573943
3.2589502 -1.2857568 -0.9665823
4.0193129 -1.5857433 -0.95718962
5.1741858 -2.0413766 -0.92731833
7.4093695 -2.9232256 -0.88780773
7.8245311 -3.0870197 -0.46983308
7.839797 -3.0930426 0
14.444601 -5.6988425 0.86734289
2.771138 -1.0913655 -0.98203874
3.2690635 -1.2874649 -0.96935093
4.0108137 -1.5795904 -0.95493811
5.1587057 -2.0316682 -0.9243238
7.4207606 -2.9225399 -0.8889609
7.7804556 -3.0641997 -0.46707529
7.8489308 -3.0911674 0
14.450457 -5.6910658 0.86748791
2.7586455 -1.082597 -0.97714734
3.2519338 -1.2761821 -0.96381366
4.0127192 -1.574743 -0.95493811
5.1683187 -2.028244 -0.92560649
7.4242864 -2.9135714 -0.8889609
7.7623849 -3.0462539 -0.46576917
7.857501 -3.083581 0
14.462165 -5.6755013 0.86777848
2.7714677 -1.0837662 -0.98122454
3.2744997 -1.2804739 -0.97004247
4.0146189 -1.5698932 -0.95493811
5.1755519 -2.0238693 -0.92646325
7.4302082 -2.9055395 -0.88924891
7.7757401 -3.0406578 -0.46634972
7.8806114 -3.0816669 0
21.498751 -8.4069605 1.2893867
2.7290168 -1.0633661 -0.96573943
3.2666941 -1.272873 -0.96727377
4.0307226 -1.5705781 -0.9583165
5.1779933 -2.0176141 -0.92646325
7.4409456 -2.8993773 -0.89011407
7.7963591 -3.0378647 -0.46736583
7.8891835 -3.074034 0
21.51615 -8.3838053 1.2898217
2.7464302 -1.0663307 -0.97144496
3.2658932 -1.2680178 -0.9665823
4.0231428 -1.5620281 -0.95606494
5.1756368 -2.009496 -0.92560649
7.4468527 -2.8913195 -0.89040208
7.8339314 -3.0416069 -0.46939752
7.9147243 -3.0729759 0
21.521423 -8.3559217 1.2895317
2.7523224 -1.0647932 -0.9730733
3.2650855 -1.2631663 -0.96589082
4.0297623 -1.5589975 -0.95718962
5.185246 -2.0060203 -0.92689079
7.4527507 -2.8832517 -0.89069009
7.8618393 -3.0415163 -0.47084919
14.046775 -5.4342875 0
21.531506 -8.3299112 1.2895317
2.751303 -1.0605787 -0.9722591
3.2595847 -1.2565122 -0.96381366
4.0221596 -1.5504714 -0.95493811
5.192461 -2.0016019 -0.92774755
7.4562292 -2.8742445 -0.89069009
0 -0 -0
14.05333 -5.4173107 0
21.546398 -8.3057556 1.2898217
2.7848797 -1.0696588 -0.98366708
3.2517326 -1.2489746 -0.96104503
4.0240302 -1.5456103 -0.95493811
5.1948757 -1.9953264 -0.92774755
7.4548721 -2.86338 -0.89011407
7.8691669 -3.0225084 -0.47084919
14.050148 -5.3965936 0
21.551573 -8.277854 1.2895317
2.783864 -1.0654104 -0.98285288
3.2743244 -1.2531141 -0.96727377
4.0425086 -1.5471052 -0.95887882
5.1900883 -1.9862945 -0.92646325
7.4607401 -2.8552938 -0.89040208
7.8873692 -3.0185688 -0.47171974
14.049365 -5.376821 0
21.563984 -8.2527342 1.2896768
2.7228022 -1.0382713 -0.96085119
3.2734945 -1.2482637 -0.9665823
4.0325065 -1.5376937 -0.95606494
5.1996827 -1.9827666 -0.92774755
7.4690132 -2.8481181 -0.8909781
7.881299 -3.0053327 -0.47113919
14.038836 -5.353353 0
21.559376 -8.2211199 1.2888062
2.7425385 -1.0420033 -0.96737093
3.2562387 -1.2371792 -0.96104503
4.0391073 -1.5346233 -0.95718962
5.2020745 -1.9764824 -0.92774755
7.474874 -2.8400126 -0.89126724
7.8824978 -2.9948857 -0.47099417
14.047726 -5.3373094 0
21.564432 -8.1932154 1.2885157
2.7622788 -1.0456858 -0.9738875
3.2718043 -1.2385713 -0.96519667
4.0362105 -1.5279442 -0.95606494
5.2044592 -1.9701953 -0.92774755
7.4831333 -2.8328083 -0.89184326
7.8763905 -2.9816792 -0.47041363
8.4369278 -3.1938756 0
8.47649 -3.2088523 0.50625432
2.7496693 -1.0371155 -0.96899927
3.2826879 -1.2381585 -0.9679653
4.0428042 -1.5248579 -0.95718962
5.2020273 -1.9620916 -0.92689079
7.4865508 -2.8237643 -0.89184326
7.8726912 -2.969408 -0.46997806
8.4505205 -3.1873527 0
0 -0 0
2.7879386 -1.0477036 -0.98203874
3.2677493 -1.2280159 -0.96312219
4.0422678 -1.5190789 -0.95662731
5.2019939 -1.9549024 -0.92646325
7.4923763 -2.8156252 -0.89213127
7.8738437 -2.9589801 -0.46983308
8.4275751 -3.1670716 0
0 -0 0
2.7845685 -1.0425992 -0.98040724
3.2833233 -1.2293431 -0.96727377
4.0464773 -1.5150836 -0.95718962
5.2115664 -1.9513166 -0.92774755
7.4933529 -2.8056638 -0.89184326
7.8725414 -2.9476397 -0.4695425
8.4265165 -3.1550593 0
0 -0 0
2.8298273 -1.0556481 -0.99589235
3.275404 -1.2218674 -0.96450514
4.053071 -1.5119709 -0.9583165
5.2091055 -1.9432218 -0.92689079
7.5064311 -2.8002236 -0.89299643
7.8663683 -2.9344959 -0.46896252
8.4156971 -3.1394193 0
8.4821711 -3.164217 0.5056743
2.763917 -1.0272579 -0.9722591
3.2745287 -1.2170358 -0.96381366
4.0429888 -1.5026473 -0.95550257
5.2138538 -1.9378197 -0.92731833
7.5073872 -2.7902513 -0.89270842
7.8699083 -2.9249887 -0.46896252
8.40728 -3.1247125 0
8.4786787 -3.1512489 0.50523871
2.7373424 -1.0136184 -0.96247953
3.2948182 -1.2200476 -0.96935093
4.0400314 -1.4959947 -0.95437574
5.2210107 -1.9333029 -0.92817509
7.5155993 -2.7829728 -0.89328444
7.8612461 -2.9109633 -0.46823639
8.4037352 -3.1118431 0
8.462986 -3.1337833 0.50407761
2.7895751 -1.0291287 -0.98040724
3.2986414 -1.216933 -0.97004247
4.0537529 -1.4955084 -0.95718962
5.2113032 -1.9225513 -0.9260357
7.5189567 -2.7738895 -0.89328444
7.864758 -2.9014623 -0.46823639
8.3879557 -3.0944803 0
8.4594507 -3.1208563 0.50364208
2.7925224 -1.0282997 -0.98122454
3.2828941 -1.2088708 -0.96519667
4.0498915 -1.4913048 -0.95606494
5.2148705 -1.9202887 -0.92646325
7.527915 -2.7720287 -0.8941496
7.859201 -2.8940191 -0.46780139
8.3800554 -3.085815 0
8.4418278 -3.1085618 0.50248092
2.7403917 -1.0053449 -0.96247953
3.2843523 -1.2049031 -0.96519667
4.0683818 -1.4925334 -0.9600035
5.2244191 -1.9166394 -0.92774755
7.5264072 -2.7611506 -0.89357358
7.8578086 -2.8827291 -0.46751085
8.3666725 -3.0694118 0
8.4358196 -3.0947793 0.50190037
2.7810664 -1.0164559 -0.97633314
3.2740266 -1.1966286 -0.9617365
4.0630298 -1.4850023 -0.9583165
5.2243133 -1.9094416 -0.92731833
7.5321646 -2.7529414 -0.89386159
7.8588481 -2.8723414 -0.46736583
8.3703747 -3.0593002 0
8.4200287 -3.0774481 0.50073928
2.7822926 -1.0130947 -0.97633314
3.2896187 -1.1978235 -0.96589082
4.0624356 -1.4792234 -0.95775414
5.2266169 -1.9031276 -0.92731833
7.5403419 -2.7456064 -0.89443761
7.8525462 -2.859287 -0.46678528
0 -0 0
8.4090958 -3.0619392 0.49986872
2.7347243 -0.99203318 -0.95921969
3.3004973 -1.1972698 -0.96865946
4.0809331 -1.4803765 -0.96169269
5.2385654 -1.9003124 -0.92903024
7.5533795 -2.7400215 -0.89559078
7.8462248 -2.8462524 -0.46620473
8.3263693 -3.020427 0
8.403019 -3.0482318 0.49928817
2.7638147 -0.9988085 -0.96899927
3.3208077 -1.200099 -0.97419411
4.0731606 -1.47199 -0.95944118
5.2408576 -1.8939813 -0.92903024
7.5518246 -2.7291362 -0.89501476
7.8472166 -2.8358874 -0.46605971
8.3202229 -3.0068259 0
8.3822632 -3.0292466 0.49783704
2.7975719 -1.0071878 -0.98040724
3.3057392 -1.1901393 -0.96935093
4.0749364 -1.4670672 -0.95944118
5.2310681 -1.8833004 -0.92689079
7.557548 -2.7208846 -0.89530277
7.8408585 -2.8228827 -0.46547917
8.3140554 -2.9932442 0
8.3859167 -3.0191159 0.49783704
2.7732019 -0.99463063 -0.97144496
3.2953696 -1.1819102 -0.96589082
4.0671391 -1.4587113 -0.95718962
5.240591 -1.8795791 -0.92817509
7.5583978 -2.7108786 -0.89501476
7.8442636 -2.8134065 -0.46547917
8.3127708 -2.9814405 0
8.3822193 -3.0063484 0.49740148
2.7906876 -0.99709785 -0.97714734
3.3180556 -1.1855236 -0.97211957
4.0641174 -1.4520876 -0.95606494
5.2476888 -1.8749713 -0.92903024
7.5665345 -2.7034824 -0.89559078
7.8134046 -2.791688 -0.46344748
8.3090134 -2.9687662 0
8.3834009 -2.9953444 0.49725649
2.7918904 -0.99372512 -0.97714734
3.321847 -1.182354 -0.9728111
4.0802274 -1.4522864 -0.95944118
5.2402763 -1.8651859 -0.92731833
7.5746737 -2.6960742 -0.89616793
7.8069801 -2.7787595 -0.46286693
8.3076954 -2.9569805 0
8.3870144 -2.9852126 0.49725649
2.7861073 -0.9878754 -0.9747048
3.3067191 -1.1724697 -0.9679653
4.0771942 -1.4456586 -0.9583165
5.2473702 -1.8605701 -0.92817509
7.5827966 -2.6886468 -0.89674395
7.7784967 -2.7580364 -0.46098027
8.3063517 -2.945199 0
8.3857117 -2.9733379 0.49696591
2.7523391 -0.97215998 -0.96247953
3.3034067 -1.1668038 -0.9665823
4.0813317 -1.4415764 -0.95887882
5.2568784 -1.856794 -0.92945939
7.5909224 -2.6812069 -0.89732111
7.7009726 -2.720078 -0.45619079
8.3148165 -2.9368954 0
8.3892984 -2.9632034 0.49696591
2.7954743 -0.98359823 -0.97714734
3.2977123 -1.1603127 -0.96450514
4.0806761 -1.4358014 -0.9583165
5.2566895 -1.8495862 -0.92903024
7.5843968 -2.6685989 -0.89616793
7.6625862 -2.6961102 -0.45372355
8.325717 -2.9294353 0
8.38062 -2.9487529 0.49624038
2.7943304 -0.97940302 -0.97633314
3.3038516 -1.1579884 -0.96589082
4.082408 -1.4308696 -0.9583165
5.2613502 -1.8440847 -0.92945939
7.5998182 -2.6637096 -0.89760911
7.6584792 -2.6842701 -0.45328802
8.3169727 -2.9150698 0
8.3719177 -2.9343278 0.49551481
2.8036947 -0.97508377 -0.97877884
3.3113749 -1.1516474 -0.96727377
4.0810494 -1.4193289 -0.95718962
5.2633595 -1.8305191 -0.92903024
7.611114 -2.6470337 -0.89818513
0 -0 -0
8.3436584 -2.9018016 0
8.3642635 -2.908968 0.49464425
2.8095372 -0.97331196 -0.98040724
3.3388424 -1.1566799 -0.97488827
4.0875678 -1.4160619 -0.9583165
5.2801261 -1.8292015 -0.93159884
7.6020894 -2.6336026 -0.89674395
0 -0 -0
8.3594513 -2.8959765 0
8.3726788 -2.9005587 0.49493426
2.8247342 -0.97475547 -0.98529857
3.3046622 -1.1403683 -0.96450514
4.0868764 -1.4102937 -0.95775414
5.2653437 -1.8169576 -0.92860264
7.615046 -2.62779 -0.89789712
0 -0 -0
8.3727856 -2.8892694 0
8.3712692 -2.8887463 0.49464425
2.7855976 -0.95936733 -0.97144496
3.3266966 -1.1457232 -0.97073394
4.0901275 -1.408651 -0.9583165
5.2712994 -1.8154497 -0.92945939
7.6141891 -2.6223474 -0.89760911
7.697525 -2.6510484 -0.45473912
8.3794556 -2.8859069 0
8.3803759 -2.8862243 0.49507925
2.8194804 -0.96722734 -0.98285288
3.3067236 -1.134377 -0.96450514
4.0942278 -1.4045315 -0.95887882
5.2759147 -1.8099113 -0.929887
7.617352 -2.6131451 -0.89760911
7.7056432 -2.6434336 -0.45502967
8.3927832 -2.879158 0
8.381402 -2.8752537 0.49493426
2.8066185 -0.95902628 -0.97796464
3.3009677 -1.1279463 -0.96242803
4.095922 -1.3995835 -0.95887882
5.2805247 -1.8043642 -0.93031454
7.6278491 -2.6064489 -0.89847428
7.7309589 -2.6416817 -0.45633578
8.406106 -2.8723807 0
8.3897829 -2.8668032 0.49522424
2.7796977 -0.94607806 -0.96818507
3.3237097 -1.1312342 -0.96865946
4.09761 -1.3946333 -0.95887882
5.282701 -1.7979825 -0.93031454
7.6309929 -2.5972302 -0.89847428
7.7636638 -2.6423852 -0.45807746
8.4144936 -2.8638971 0
8.3907833 -2.8558271 0.49507925
2.822968 -0.95700067 -0.98285288
3.3298216 -1.1288266 -0.97004247
4.1089177 -1.3929442 -0.96113038
5.2800121 -1.7899512 -0.92945939
7.6365728 -2.5888374 -0.89876229
7.7865381 -2.6396763 -0.45923859
14.00272 -4.746994 0
20.985939 -7.1143413 1.2377199
2.8451955 -0.96070451 -0.99018681
3.3264337 -1.1231987 -0.96865946
4.1105976 -1.3879783 -0.96113038
5.2991891 -1.7893164 -0.93245393
7.6347895 -2.5779517 -0.89818513
7.7971005 -2.6327574 -0.45967358
14.010909 -4.7309027 0
15.86666 -5.357513 0.93540984
2.8088715 -0.94466001 -0.97714734
3.3230281 -1.1175776 -0.96727377
4.1002326 -1.3789614 -0.9583165
5.2794514 -1.7755481 -0.92860264
7.645256 -2.5711989 -0.8990503
7.8027458 -2.6241648 -0.45981914
14.00182 -4.7089939 0
15.860809 -5.3341966 0.93468428
2.8334515 -0.94911724 -0.98529857
3.3267527 -1.1143576 -0.9679653
4.1163468 -1.3788469 -0.96169269
5.2986341 -1.7748759 -0.93159884
7.6483569 -2.5619593 -0.8990503
7.8083725 -2.6155593 -0.45996416
14.002559 -4.6904173 0
14.472751 -4.8479166 0.85253954
2.7712908 -0.92457253 -0.96329373
3.3114448 -1.1047816 -0.96312219
4.1035528 -1.3690488 -0.9583165
5.2958999 -1.7668458 -0.93074208
7.6538982 -2.5535336 -0.8993383
11.333673 -3.7811992 -0.66735774
13.995875 -4.6693773 0
14.485994 -4.8328934 0.85297507
2.7911701 -0.92745829 -0.96981347
3.3437252 -1.111063 -0.97211957
4.1052041 -1.3640895 -0.9583165
5.3004742 -1.7612573 -0.9311713
7.6618919 -2.5459163 -0.89991546
11.345634 -3.7699609 -0.66779327
14.001507 -4.6524625 0
14.472096 -4.8088312 0.85181397
2.7969861 -0.92563963 -0.97144496
3.3307703 -1.1022911 -0.9679653
4.0947905 -1.3551373 -0.95550257
5.2977195 -1.7532369 -0.93031454
7.6625094 -2.5358448 -0.89962745
11.347706 -3.7554305 -0.66764772
13.997235 -4.6322703 0
14.472958 -4.7897067 0.8515234
2.7910581 -0.91993749 -0.96899927
3.3249586 -1.095912 -0.96589082
4.1133103 -1.3557541 -0.95944118
5.309586 -1.7500486 -0.93202639
7.6729302 -2.5290108 -0.90049148
11.352236 -3.7417161 -0.66764772
14.000353 -4.6145401 0
14.478735 -4.7722154 0.8515234
2.7851202 -0.91425103 -0.96655357
3.3453403 -1.0981503 -0.97142541
4.1028771 -1.3468213 -0.95662731
5.3043776 -1.7412291 -0.93074208
7.6809001 -2.5213528 -0.90106863
11.334531 -3.7207034 -0.6663416
13.998498 -4.5951843 0
14.523992 -4.767684 0.85384566
2.805017 -0.91702932 -0.9730733
3.3275971 -1.0878737 -0.96589082
4.1189876 -1.3465986 -0.9600035
5.2991648 -1.7324277 -0.92945939
7.6814756 -2.5112641 -0.90077949
11.334084 -3.7053919 -0.66605163
14.001569 -4.5774584 0
14.564315 -4.7614341 0.85587728
2.8249245 -0.91976082 -0.97959304
3.3265169 -1.0830731 -0.96519667
4.0988693 -1.3345417 -0.95493811
5.311018 -1.7292024 -0.9311713
7.6845045 -2.5019805 -0.90077949
11.350904 -3.6957157 -0.66677713
13.992247 -4.5557041 0
15.928919 -5.1862612 0.93569982
2.8401449 -0.92092234 -0.98448437
3.3230548 -1.0775068 -0.96381366
4.1149855 -1.3342918 -0.9583165
5.3082151 -1.7211988 -0.93031454
7.6826057 -2.4910996 -0.90020347
11.343005 -3.6779909 -0.66605163
14.000215 -4.5395961 0
15.893156 -5.1533861 0.93323261
2.8412554 -0.91748989 -0.98448437
3.3386741 -1.0781149 -0.9679653
4.1190104 -1.3300987 -0.95887882
5.3176217 -1.7171508 -0.93159884
7.6954556 -2.4849939 -0.90135664
11.3326 -3.6594901 -0.6651805
13.998257 -4.5202761 0
15.862288 -5.1222034 0.9310559
2.8047152 -0.90194952 -0.97144496
3.3614669 -1.0809915 -0.97419411
4.1133556 -1.3227865 -0.95718962
5.3099174 -1.7075807 -0.929887
7.6959929 -2.4749026 -0.90106863
11.35186 -3.6505685 -0.66605163
13.988849 -4.49858 0
15.843724 -5.095077 0.92960423
2.8170242 -0.90403032 -0.975519
3.3239081 -1.066698 -0.96312219
4.1214142 -1.3226311 -0.95887882
5.3133903 -1.7051561 -0.93031454
7.6999469 -2.4710422 -0.90135664
11.346639 -3.6413269 -0.66561604
13.989088 -4.4893332 0
15.846799 -5.0855041 0.92960423
2.8628395 -0.91491926 -0.99100095
3.3395281 -1.0672616 -0.96727377
4.1181736 -1.3161047 -0.95775414
5.3252273 -1.7018604 -0.93202639
7.7103205 -2.4640994 -0.9022218
11.365876 -3.6323586 -0.66648662
13.989539 -4.4708409 0
15.847987 -5.0647721 0.92931426
2.8192005 -0.89722008 -0.975519
3.3384271 -1.0624655 -0.9665823
4.119761 -1.3111277 -0.95775414
5.3150516 -1.691533 -0.929887
7.7132926 -2.4547813 -0.9022218
11.395022 -3.6265042 -0.66793829
13.985012 -4.4507771 0
14.52451 -4.6224742 0.85137838
2.7849388 -0.88261163 -0.96329373
3.3420975 -1.0591881 -0.96727377
4.1261816 -1.3076826 -0.95887882
5.3195362 -1.6858844 -0.93031454
7.7162528 -2.4454594 -0.9022218
11.426637 -3.621366 -0.66953439
13.990379 -4.4338756 0
14.549901 -4.6112008 0.85253954
2.819006 -0.88966137 -0.9747048
3.3481646 -1.0566607 -0.96865946
4.1301794 -1.30346 -0.95944118
5.3240151 -1.6802273 -0.93074208
7.7241306 -2.4376893 -0.90279782
11.443401 -3.6114688 -0.67026049
13.988278 -4.4146171 0
14.560413 -4.5951796 0.85282952
2.8625166 -0.89959133 -0.98937261
3.3422563 -1.0503571 -0.9665823
4.1220555 -1.2954214 -0.95718962
5.3358374 -1.6768715 -0.93245393
7.7270703 -2.4283545 -0.90279782
11.482456 -3.6085441 -0.67229217
13.983671 -4.3945909 0
14.573394 -4.5799203 0.85326505
2.8329394 -0.88653648 -0.97877884
3.3219769 -1.0395752 -0.96035349
4.1284723 -1.2919589 -0.9583165
5.3231649 -1.6658245 -0.929887
7.7374067 -2.4213343 -0.90366298
11.511602 -3.6024263 -0.67374331
13.979046 -4.3745852 0
14.566521 -4.5584288 0.85253954
2.8505287 -0.88826066 -0.98448437
3.342392 -1.0415314 -0.96589082
4.1324539 -1.2877247 -0.95887882
5.3276224 -1.6601542 -0.93031454
7.7304492 -2.4089055 -0.90250981
11.548195 -3.598563 -0.67562997
13.986804 -4.3584642 0
14.581941 -4.5439167 0.85312009
2.8539581 -0.88554746 -0.98529857
3.3508294 -1.0397204 -0.9679653
4.1388555 -1.284235 -0.9600035
5.3345327 -1.6552386 -0.9311713
7.7457032 -2.4033947 -0.90395099
11.582314 -3.593847 -0.67737162
13.974659 -4.3361616 0
14.614713 -4.5347624 0.85471618
2.8715496 -0.88720351 -0.99100095
3.3568819 -1.0371534 -0.96935093
4.150115 -1.2822334 -0.96225506
5.3389792 -1.6495488 -0.93159884
7.7510705 -2.3947966 -0.904239
11.621401 -3.5905867 -0.67940331
13.977404 -4.3185053 0
14.625152 -4.5186353 0.85500675
2.7497866 -0.84594482 -0.94862592
3.3365541 -1.026458 -0.96312219
4.1298065 -1.2704943 -0.95718962
5.323791 -1.6378119 -0.92860264
7.7589078 -2.3869517 -0.90481615
11.655535 -3.5857105 -0.68114501
13.975146 -4.2993164 0
14.623148 -4.4986677 0.85457116
2.8642323 -0.87736589 -0.98774111
3.3545763 -1.0275671 -0.9679653
4.1337752 -1.2662498 -0.95775414
5.328218 -1.6321291 -0.92903024
7.7568355 -2.3760583 -0.904239
11.692155 -3.5815175 -0.68303168
13.982818 -4.2831888 0
14.593795 -4.4703417 0.85253954
2.8109229 -0.85732251 -0.96899927
3.3606193 -1.0249782 -0.96935093
4.1450143 -1.2642161 -0.9600035
5.3351016 -1.627189 -0.929887
7.7646532 -2.3681943 -0.90481615
11.731275 -3.5780013 -0.6850639
13.973052 -4.2617359 0
14.581785 -4.4473977 0.8515234
2.8308766 -0.85967094 -0.975519
3.3570497 -1.0194575 -0.9679653
4.1343846 -1.2555158 -0.95718962
5.3444352 -1.6229799 -0.9311713
7.7699814 -2.3595614 -0.90510416
11.772877 -3.5751472 -0.68724054
13.965742 -4.2410688 0
15.942131 -4.8412519 0.93062037
2.827177 -0.85481769 -0.9738875
3.3510818 -1.0132241 -0.96589082
4.1456275 -1.2534609 -0.95944118
5.3463926 -1.616521 -0.9311713
7.7753005 -2.350919 -0.90539217
11.807035 -3.5699437 -0.68898225
13.975834 -4.2256961 0
14.704413 -4.4459872 0.85805452
2.861346 -0.86137688 -0.98529857
3.3691127 -1.0142344 -0.97073394
4.1374068 -1.2455211 -0.95718962
5.3483419 -1.6100597 -0.9311713
7.7707124 -2.339288 -0.90452814
11.831245 -3.5616667 -0.69014335
13.968472 -4.2050557 0
14.781929 -4.4499378 0.86226344
2.7866232 -0.83521146 -0.95921969
3.3583224 -1.0065621 -0.96727377
4.1510758 -1.2441677 -0.9600035
5.3478174 -1.602857 -0.93074208
7.7784839 -2.3313806 -0.90510416
11.865409 -3.5563207 -0.69188505
13.973543 -4.1881742 0
15.986957 -4.7916384 0.93221706
2.8421059 -0.84809959 -0.97796464
3.3667505 -1.0046563 -0.96935093
4.1525764 -1.239151 -0.9600035
5.3595896 -1.5993302 -0.93245393
7.7812953 -2.32198 -0.90510416
11.904552 -3.552382 -0.69391668
13.966126 -4.1675668 0
15.801011 -4.715106 0.92104143
2.8307669 -0.84285378 -0.9738875
3.3817787 -1.0069163 -0.97350258
4.1581993 -1.2380935 -0.96113038
5.3482556 -1.5924299 -0.93031454
7.7901359 -2.3194935 -0.90596932
11.916657 -3.5481551 -0.69449729
13.956173 -4.1554155 0
15.736623 -4.6855402 0.91712308
3.3637505 -0.99712521 -0.9679653
4.1523819 -1.2309011 -0.95944118
5.3600206 -1.5888847 -0.93202639
7.7904553 -2.3093445 -0.90568131
11.960796 -3.5455697 -0.69681948
13.963676 -4.1392884 0
15.739784 -4.6657844 0.91697812
2.8351727 -0.83671206 -0.9747048
3.3697698 -0.99448162 -0.96935093
4.1587448 -1.2273227 -0.96056801
5.354548 -1.5802264 -0.93074208
7.7981968 -2.3013926 -0.90625733
11.997468 -3.5406754 -0.69870615
13.963671 -4.1209383 0
16.368423 -4.8306255 0.95326102
2.8930855 -0.85000437 -0.99426085
3.3661504 -0.98899341 -0.9679653
4.1504731 -1.2194318 -0.9583165
5.3589234 -1.5744811 -0.9311713
7.8034511 -2.2926965 -0.90654534
12.056581 -3.5422893 -0.70189893
13.966146 -4.1033301 0
16.439064 -4.8298869 0.95703435
2.8087199 -0.82153183 -0.96492523
3.37938 -0.98844612 -0.97142541
4.164135 -1.2179817 -0.96113038
5.3534284 -1.565842 -0.929887
7.8086953 -2.2839913 -0.90683335
12.088287 -3.5357435 -0.70349562
13.958606 -4.0827994 0
16.452372 -4.8122091 0.95746994
2.8761468 -0.83748251 -0.98774111
3.3516765 -0.97594821 -0.96312219
4.1656036 -1.2129493 -0.96113038
5.3701 -1.5636771 -0.93245393
7.81394 -2.2752795 -0.90712249
12.137453 -3.5342095 -0.70610785
13.96353 -4.0659299 0
16.390812 -4.7727113 0.95355099
3.367306 -0.97608715 -0.96727377
4.1524282 -1.2036719 -0.95775414
5.3719854 -1.5571872 -0.93245393
7.8191652 -2.2665558 -0.9074105
12.164174 -3.5260513 -0.70741397
13.965935 -4.0483308 0
16.301735 -4.7254133 0.94803602
2.8805439 -0.83121681 -0.98855841
3.3708911 -0.97271258 -0.9679653
4.175849 -1.2049931 -0.96281958
5.376327 -1.5514061 -0.93288153
7.8119578 -2.2542377 -0.90625733
12.185905 -3.5163944 -0.70843011
13.955809 -4.0271225 0
16.215071 -4.6790605 0.94266653
2.8079021 -0.80658108 -0.96329373
3.3672462 -0.96725488 -0.9665823
4.1553249 -1.1936336 -0.95775414
5.3658638 -1.5413657 -0.93074208
7.8196435 -2.2462237 -0.90683335
12.227598 -3.5124264 -0.71060675
13.953168 -4.0081029 0
14.662378 -4.2118268 0.85210395
2.8492706 -0.81473875 -0.97714734
3.3925285 -0.97008145 -0.97350258
4.1592045 -1.1893097 -0.9583165
5.3751287 -1.536999 -0.93202639
7.8322988 -2.2396181 -0.90798652
12.259317 -3.5055082 -0.71220344
13.9605 -3.9919553 0
14.679946 -4.1976781 0.85282952
2.8383694 -0.80791283 -0.9730733
3.3623326 -0.9570536 -0.96450514
4.1777382 -1.1891506 -0.96225506
5.3745155 -1.5298009 -0.93159884
7.8349996 -2.2301526 -0.90798652
12.296031 -3.4999397 -0.71409011
13.955301 -3.9722338 0
14.687513 -4.1806507 0.85297507
2.8274558 -0.80111438 -0.96899927
3.3755529 -0.95640904 -0.9679653
4.1742878 -1.1827177 -0.96113038
5.3738928 -1.5226066 -0.9311713
7.8401842 -2.221391 -0.90827566
12.337754 -3.4957056 -0.71626735
13.952577 -3.9532397 0
14.685052 -4.1607747 0.85253954
2.8307981 -0.79836762 -0.96981347
3.3911982 -0.95641685 -0.97211957
4.190382 -1.1818099 -0.96450657
5.3781967 -1.5168084 -0.93159884
7.835392 -2.2098091 -0.9074105
12.38698 -3.4934897 -0.71887958
13.947324 -3.933552 0
14.685062 -4.1416159 0.85224897
3.3706152 -0.94621658 -0.96589082
4.172236 -1.1712518 -0.9600035
5.3874331 -1.5123882 -0.93288153
7.8505049 -2.2038345 -0.90885168
12.413706 -3.4848402 -0.7201857
13.94706 -3.9152913 0
17.086605 -4.7966404 0.99128562
0 -0 -0
3.4055784 -0.95159394 -0.97557974
4.1834369 -1.1689448 -0.96225506
5.3966761 -1.5079507 -0.93416584
7.8431978 -2.1915629 -0.90769851
12.412898 -3.4684381 -0.71989512
13.944259 -3.8963342 0
17.039835 -4.7613068 0.9882378
2.8598692 -0.79538661 -0.97877884
3.3994722 -0.94546092 -0.97350258
4.1652718 -1.158445 -0.95775414
5.3886013 -1.4986773 -0.93245393
7.8458405 -2.1820843 -0.90769851
12.427094 -3.4562221 -0.72047567
13.946452 -3.8787858 0
15.801431 -4.3946924 0.916107
2.9108486 -0.80577695 -0.99589235
3.3981967 -0.94068396 -0.9728111
4.1764545 -1.1561202 -0.9600035
5.3829932 -1.4901125 -0.9311713
7.8509617 -2.1732919 -0.90798652
12.43126 -3.4412038 -0.72047567
13.946107 -3.8605416 0
15.799224 -4.3735185 0.915672
2.9094396 -0.80160326 -0.99507815
3.4017472 -0.93724298 -0.97350258
4.1851997 -1.1530983 -0.96169269
5.39468 -1.4863321 -0.93288153
7.8535819 -2.1638041 -0.90798652
12.442927 -3.4282517 -0.72091126
13.945748 -3.8423064 0
15.809503 -4.355804 0.91596198
2.9242179 -0.80377454 -0.99996638
3.3853865 -0.93053508 -0.96865946
4.1810002 -1.149224 -0.96056801
5.405478 -1.4857941 -0.93459338
7.8548875 -2.1590588 -0.90798652
12.447499 -3.4214218 -0.72105628
13.930499 -3.8290513 0
15.822153 -4.3490067 0.91654253
2.8560531 -0.78132772 -0.97633314
3.3865082 -0.92644387 -0.96865946
4.1774793 -1.1428291 -0.95944118
5.3948913 -1.4758753 -0.93245393
7.8624849 -2.1509326 -0.90856367
12.441599 -3.4036362 -0.72047567
13.932608 -3.8115301 0
15.94018 -4.3607397 0.92307365
2.8140736 -0.76618987 -0.96166533
3.3706784 -0.91773713 -0.96381366
4.1862144 -1.1397837 -0.96113038
5.4065781 -1.4720531 -0.93416584
7.8650784 -2.1414306 -0.90856367
12.455731 -3.391331 -0.72105628
13.94223 -3.7960613 0
15.955466 -4.3442063 0.92365426
2.7816038 -0.75374031 -0.95025742
3.3838897 -0.91694373 -0.96727377
4.1924887 -1.1360525 -0.96225506
5.4009175 -1.4635043 -0.93288153
7.8701544 -2.1326015 -0.90885168
12.45982 -3.3762782 -0.72105628
13.93173 -3.7751267 0
15.958188 -4.3242426 0.92350864
2.8779576 -0.77611804 -0.98285288
3.3849952 -0.91285431 -0.96727377
4.1938586 -1.1309859 -0.96225506
5.4002056 -1.4563096 -0.93245393
7.8777246 -2.1244388 -0.90942883
12.461384 -3.3605447 -0.72091126
13.936281 -3.7582901 0
15.948354 -4.300899 0.92263812
2.9123085 -0.78160805 -0.99426085
3.4103212 -0.9152652 -0.97419411
4.2050381 -1.1285521 -0.96450657
5.3970075 -1.4484539 -0.93159884
7.8802857 -2.1149185 -0.90942883
12.467942 -3.3461578 -0.72105628
13.938301 -3.7407742 0
23.256207 -6.2415223 1.344972
2.8879201 -0.76758587 -0.98529857
3.4125233 -0.90702111 -0.97419411
4.1979303 -1.1157761 -0.96225506
5.4153728 -1.4393624 -0.93416584
7.8928657 -2.0978599 -0.91029286
12.498591 -3.3220246 -0.7223624
13.929692 -3.7023997 0
23.273741 -6.1859722 1.3451176
3.3942232 -0.89776748 -0.96865946
4.1845417 -1.1068058 -0.95887882
5.4270349 -1.4354435 -0.93587768
7.8979025 -2.0889847 -0.91058201
12.530231 -3.3142295 -0.72395903
13.934155 -3.6855657 0
23.283707 -6.1585097 1.3452625
2.8467479 -0.74928182 -0.97063076
3.4074337 -0.89685786 -0.97211957
4.2006149 -1.105628 -0.96225506
5.4138751 -1.4249657 -0.93331069
7.9004207 -2.0794401 -0.91058201
12.574432 -3.3096693 -0.72628129
13.938599 -3.6687262 0
23.296152 -6.1316929 1.3455526
2.9241526 -0.76587838 -0.99670655
3.406081 -0.89210248 -0.97142541
4.1921158 -1.0979764 -0.9600035
5.4180741 -1.4190729 -0.93373829
7.9029274 -2.0698924 -0.91058201
12.618641 -3.305007 -0.72860348
13.932951 -3.6492438 0
23.298521 -6.1022239 1.3452625
0 -0 -0
3.3998804 -0.88608998 -0.96935093
4.2032743 -1.0954735 -0.96225506
5.4272394 -1.4144681 -0.93502259
7.9104238 -2.0616453 -0.91115803
12.657823 -3.2989306 -0.73063517
13.922245 -3.6284692 0
13.977726 -3.6429288 0.80682266
2.8853252 -0.74826258 -0.98285288
3.4058008 -0.88323957 -0.97073394
4.1996803 -1.0891194 -0.96113038
5.4239697 -1.4066192 -0.93416584
7.912909 -2.0520854 -0.91115803
12.699531 -3.2934186 -0.7328124
13.926619 -3.6116443 0
13.967031 -3.6221244 0.80595213
2.9053729 -0.74971616 -0.98937261
3.399585 -0.87724495 -0.96865946
4.2034516 -1.0846784 -0.96169269
5.4281487 -1.4007052 -0.93459338
7.9228988 -2.0444622 -0.91202319
12.748785 -3.2897565 -0.73542464
13.930973 -3.5948141 0
13.941205 -3.5974543 0.80421042
2.8655818 -0.73575634 -0.975519
3.3982055 -0.87251091 -0.9679653
4.2096858 -1.0808636 -0.96281958
5.4248695 -1.3928697 -0.93373829
7.9228506 -2.0342424 -0.91173404
12.795534 -3.2853346 -0.73789185
13.93026 -3.5766828 0
13.920379 -3.5741456 0.80275935
2.9383049 -0.75064522 -0.99996638
3.3944006 -0.86716342 -0.9665823
4.210989 -1.0757762 -0.96281958
5.4364972 -1.3888553 -0.93545014
7.9227996 -2.0240281 -0.91144603
12.827181 -3.2769444 -0.73948801
13.927014 -3.5579176 0
13.884405 -3.5470324 0.80043709
2.8505812 -0.72456646 -0.96981347
3.3905783 -0.8618241 -0.96519667
4.217206 -1.071938 -0.96394426
5.448123 -1.384815 -0.93716198
7.9327621 -2.0163655 -0.9123112
12.861351 -3.2691243 -0.74122965
13.921214 -3.5385225 0
13.866018 -3.5244927 0.79913098
2.9085176 -0.73742247 -0.98937261
3.4373055 -0.87149078 -0.97834837
4.1981492 -1.0643942 -0.95944118
5.4414916 -1.37963 -0.93587768
7.926455 -2.009665 -0.91144603
12.90614 -3.2722092 -0.74369687
13.893077 -3.5224361 0
13.845479 -3.5103681 0.79782486
2.8830423 -0.72725707 -0.98040724
3.3872743 -0.85445136 -0.96381366
4.2018933 -1.0599418 -0.9600035
5.4481373 -1.374311 -0.93673444
7.9364038 -2.0019844 -0.9123112
12.94788 -3.2661462 -0.74587411
13.872093 -3.4992821 0
13.837105 -3.4904563 0.79709876
2.883919 -0.723773 -0.98040724
3.4175041 -0.85768604 -0.97211957
4.2056427 -1.0554841 -0.96056801
5.4497938 -1.3677269 -0.93673444
7.9388165 -1.9923934 -0.9123112
12.98206 -3.2580891 -0.74761581
13.866215 -3.4799838 0
13.828713 -3.4705722 0.79637319
2.8656075 -0.71549785 -0.9738875
3.4014971 -0.84930128 -0.96727377
4.2143035 -1.0522465 -0.96225506
5.4514427 -1.361141 -0.93673444
7.9437256 -1.9834254 -0.91259921
13.016231 -3.2499516 -0.74935693
13.86031 -3.460705 0
13.835425 -3.4544919 0.79651874
2.9096513 -0.72276115 -0.98855841
3.4293058 -0.85184401 -0.97488827
4.2155719 -1.0471535 -0.96225506
5.4431181 -1.3520775 -0.93502259
7.9411006 -1.9725796 -0.91202319
13.055458 -3.2429926 -0.75138915
13.854378 -3.4414454 0
13.839589 -3.4377718 0.79651874
2.8553333 -0.70560658 -0.96981347
3.4084153 -0.84228355 -0.96865946
4.2143698 -1.04145 -0.96169269
5.4447474 -1.3454996 -0.93502259
7.9484954 -1.9642228 -0.91259921
13.094679 -3.2359414 -0.75342083
13.853468 -3.4234526 0
13.831113 -3.4179282 0.79579264
2.853786 -0.70156646 -0.96899927
3.4216094 -0.84115857 -0.97211957
4.2254949 -1.0387834 -0.96394426
5.4588313 -1.3419833 -0.93716198
7.9558911 -1.9558532 -0.91317636
13.116244 -3.2244596 -0.75443691
13.837377 -3.4017406 0
13.82767 -3.3993545 0.79535764
2.8810432 -0.70457685 -0.97796464
3.4104409 -0.83404428 -0.96865946
4.2168741 -1.0312625 -0.96169269
5.4554567 -1.3341656 -0.93630522
7.9657788 -1.9480802 -0.91404039
13.137793 -3.2129278 -0.75545251
13.844012 -3.3856382 0
13.824193 -3.3807914 0.79492205
2.9083028 -0.70752013 -0.98692691
3.4016955 -0.82755071 -0.96589082
4.2107081 -1.0243641 -0.9600035
5.4645505 -1.3293937 -0.93758959
7.9706473 -1.9390669 -0.91432953
13.146719 -3.1982808 -0.75574303
13.845557 -3.3682911 0
13.840889 -3.3671556 0.79564762
2.9307737 -0.70923704 -0.99426085
3.427072 -0.8293395 -0.9728111
4.2316999 -1.0240567 -0.96450657
5.4586649 -1.3209779 -0.93630522
7.9654403 -1.9276088 -0.91346437
13.160676 -3.1848378 -0.75632364
13.836971 -3.3484991 0
13.817174 -3.343708 0.79405153
2.9220166 -0.70338148 -0.99100095
3.4085588 -0.82050091 -0.96727377
4.232934 -1.0189427 -0.96450657
5.4677472 -1.3161842 -0.93758959
7.9828467 -1.9216135 -0.91519356
13.169562 -3.1701486 -0.75661361
13.851129 -3.3342135 0
13.8313 -3.3294404 0.79463154
2.8363416 -0.6791333 -0.96166533
3.4266288 -0.82047158 -0.97211957
4.224278 -1.0114607 -0.96225506
5.4718275 -1.3101737 -0.93801713
7.9801369 -1.9107629 -0.91461754
13.16581 -3.1524198 -0.75617862
13.85009 -3.3162639 0
13.827739 -3.3109121 0.79419649
2.8852475 -0.68715823 -0.97796464
3.4007697 -0.8099364 -0.96450514
4.235384 -1.0087104 -0.96450657
5.4833956 -1.3059402 -0.93972898
7.9874673 -1.9023165 -0.91519356
13.154438 -3.1328959 -0.7553075
13.859145 -3.3007312 0
13.826669 -3.2929964 0.79390597
2.8764553 -0.68139255 -0.9747048
3.4530089 -0.81797016 -0.97903991
4.24649 -1.0059348 -0.96675813
5.4724822 -1.2963555 -0.93758959
7.9922838 -1.8932617 -0.9154827
13.145574 -3.1140049 -0.75458193
13.837805 -3.2779849 0
13.817998 -3.2732928 0.79318041
2.8580308 -0.67338192 -0.96818507
3.4271314 -0.807468 -0.97142541
4.2180238 -0.99381053 -0.9600035
5.4840393 -1.292097 -0.93930143
7.9970808 -1.8841958 -0.91577071
13.134157 -3.0945446 -0.7537114
13.836684 -3.2600672 0
13.81689 -3.2554035 0.79289037
2.9358385 -0.68797094 -0.99426085
3.4232242 -0.80218273 -0.97004247
4.2390127 -0.99335086 -0.96450657
5.4806023 -1.2842994 -0.93844634
8.0018673 -1.8751211 -0.91605872
13.130294 -3.0768931 -0.75327581
13.850748 -3.2457211 0
13.828395 -3.240483 0.79332542
0 -0 -0
3.4290729 -0.79918361 -0.97142541
4.2476363 -0.98995888 -0.96619576
5.4821501 -1.2776761 -0.93844634
8.00916 -1.866624 -0.91663474
13.128936 -3.0598447 -0.75298524
13.859735 -3.2301652 0
13.81965 -3.2208233 0.79259986
2.9158249 -0.67585188 -0.98692691
3.4422629 -0.79787368 -0.97488827
4.2265539 -0.9796626 -0.96113038
5.4786839 -1.2698907 -0.93758959
8.0189714 -1.8586978 -0.9174999
13.11744 -3.0404594 -0.75211471
13.868692 -3.2145903 0
13.821003 -3.2035363 0.79245484
2.8853319 -0.66511136 -0.97633314
3.4456668 -0.79427683 -0.97557974
4.2401123 -0.97740811 -0.96394426
5.487721 -1.2650003 -0.93887389
8.0212116 -1.8490071 -0.9174999
13.128703 -3.0263591 -0.75255024
0 -0 0
13.829923 -3.1880002 0.79274482
0 -0 -0
3.4564054 -0.79235512 -0.97834837
4.2264347 -0.96887863 -0.96056801
5.4967542 -1.2600899 -0.94015819
8.0184031 -1.838159 -0.91692388
13.119689 -3.0075908 -0.75182474
13.856127 -3.1764138 0
13.848966 -3.174772 0.79361594
2.8985775 -0.66263425 -0.98040724
3.4446573 -0.78747183 -0.97488827
4.2369275 -0.96859008 -0.96281958
5.4925051 -1.2556235 -0.93930143
8.0220308 -1.8338901 -0.91721189
13.113902 -2.9979262 -0.75138915
13.847896 -3.1657219 0
13.848351 -3.1658261 0.79347098
0 -0 -0
3.4456065 -0.78330904 -0.97488827
4.2455206 -0.96515805 -0.96450657
5.4940181 -1.248986 -0.93930143
8.0242405 -1.8241957 -0.91721189
13.135244 -2.9861088 -0.75240469
13.856791 -3.1501422 0
23.518106 -5.3465033 1.3471491
0 -0 -0
3.4440963 -0.77859038 -0.97419411
4.2466836 -0.96002746 -0.96450657
5.475492 -1.2378182 -0.93587768
8.0239191 -1.8139288 -0.91692388
13.128715 -2.9679456 -0.75182474
13.908811 -3.1442981 0
23.489071 -5.3100619 1.3451176
0 -0 -0
3.4254625 -0.77002853 -0.96865946
4.2379246 -0.95266634 -0.96225506
5.4920158 -1.2345805 -0.93844634
8.0286255 -1.804799 -0.91721189
13.147497 -2.9554982 -0.75269526
13.965919 -3.1394758 0
23.477722 -5.2776861 1.3441014
2.8728106 -0.64214921 -0.97063076
3.4533153 -0.77190739 -0.97627121
4.2390723 -0.94754499 -0.96225506
5.4909911 -1.2273819 -0.93801713
8.0434189 -1.7979171 -0.91865307
13.138382 -2.9367764 -0.7519697
14.017961 -3.1333854 0
23.491692 -5.2510152 1.3445369
0 -0 -0
3.4370999 -0.76392347 -0.97142541
4.2476578 -0.94407654 -0.96394426
5.4974871 -1.2218612 -0.93887389
8.0405407 -1.7870756 -0.91807705
13.129241 -2.9180808 -0.75124413
13.955688 -3.1017654 0
23.495476 -5.2220607 1.3443913
0 -0 -0
3.4502759 -0.76247817 -0.97488827
4.2413502 -0.937298 -0.96225506
5.5064816 -1.2168801 -0.94015819
8.0376387 -1.7762417 -0.9174999
13.125143 -2.9005318 -0.7508086
13.992459 -3.0922005 0
23.491619 -5.1914244 1.3438108
0 -0 -0
3.4511945 -0.75830865 -0.97488827
4.2474475 -0.93326414 -0.96338189
5.4954042 -1.2074696 -0.93801713
8.0498838 -1.7687488 -0.91865307
13.11087 -2.8807666 -0.74979246
13.988557 -3.0736151 0
23.490269 -5.1613646 1.3433758
0 -0 -0
3.4447532 -0.75253117 -0.9728111
4.2535319 -0.92921478 -0.96450657
5.4993744 -1.201378 -0.93844634
8.0520144 -1.7590207 -0.91865307
13.104187 -2.8627043 -0.74921191
13.96938 -3.051712 0
23.372099 -5.105804 1.3362641
0 -0 -0
3.4652729 -0.75262809 -0.97834837
4.2670741 -0.92677253 -0.96732265
5.5133624 -1.1974559 -0.94058573
8.0591946 -1.7503891 -0.91923022
13.102563 -2.8457663 -0.74892193
14.034095 -3.0480871 0
23.121799 -5.0218601 1.3216058
0 -0 -0
3.4490116 -0.74473333 -0.97350258
4.253284 -0.91839719 -0.96394426
5.4972382 -1.187 -0.93758959
8.0613031 -1.7406499 -0.91923022
13.121226 -2.8332219 -0.74979246
13.984348 -3.019593 0
23.064356 -4.9802079 1.3179774
0 -0 -0
3.4400973 -0.73845917 -0.97073394
4.2618461 -0.91485763 -0.96563345
5.5112157 -1.1830502 -0.93972898
8.0634012 -1.7309082 -0.91923022
13.122103 -2.8168206 -0.7496475
13.995613 -3.0043304 0
22.95858 -4.9283414 1.3115919
0 -0 -0
3.455713 -0.73744446 -0.97488827
4.2579737 -0.90864575 -0.96450657
5.5226831 -1.1785331 -0.94144088
8.065486 -1.7211637 -0.91923022
13.140738 -2.8042157 -0.75051802
13.981424 -2.9836168 0
22.794264 -4.864265 1.3018678
2.9182992 -0.61907524 -0.98366708
3.466418 -0.73535079 -0.9776569
4.2665277 -0.90508252 -0.96619576
5.5165768 -1.1702626 -0.94015819
8.0726156 -1.7124895 -0.91980624
13.139039 -2.7872584 -0.75022805
13.964652 -2.9624004 0
22.558662 -4.7854962 1.2880806
0 -0 -0
3.4623899 -0.73012549 -0.97627121
4.2676182 -0.8999266 -0.96619576
5.5129585 -1.1625355 -0.93930143
8.0746794 -1.702734 -0.91980624
13.129686 -2.7687001 -0.74950248
13.98604 -2.9492819 0
22.467817 -4.7378621 1.2825656
0 -0 -0
3.4730911 -0.72800004 -0.97903991
4.2612391 -0.89320499 -0.96450657
5.5168691 -1.1563996 -0.93972898
8.0742016 -1.692446 -0.91951823
13.117759 -2.7496338 -0.74863136
13.956483 -2.9254401 0
22.44809 -4.705379 1.281114
0 -0 -0
3.4592369 -0.72073364 -0.97488827
4.2623153 -0.8880555 -0.96450657
5.5132408 -1.1486864 -0.93887389
8.0914288 -1.685853 -0.92124742
13.136339 -2.7369626 -0.74950248
13.998227 -2.9165373 0
22.425783 -4.6724229 1.2795178
0 -0 -0
3.471951 -0.72119427 -0.97834837
4.2553949 -0.88393146 -0.96281958
5.5139341 -1.1453553 -0.93887389
8.0873852 -1.6799132 -0.9206714
13.130356 -2.7274399 -0.74906689
13.966864 -2.9011993 0
22.398073 -4.6525316 1.2777761
0 -0 -0
3.4580734 -0.71395403 -0.97419411
4.2639179 -0.88032877 -0.96450657
5.5303936 -1.1418054 -0.94144088
8.1020718 -1.6727543 -0.92211258
13.123463 -2.7094707 -0.74848634
13.970359 -2.884321 0
22.355324 -4.6154819 1.2750183
2.95625 -0.60662413 -0.99507815
3.4638534 -0.71078467 -0.97557974
4.2550225 -0.873133 -0.96225506
5.5217104 -1.1330581 -0.93972898
8.0990248 -1.6619245 -0.92153656
13.121641 -2.6925681 -0.74819636
13.984031 -2.8695312 0
22.154718 -4.5461607 1.2632627
2.944865 -0.60058075 -0.99100095
3.4597886 -0.70559514 -0.97419411
4.2809758 -0.87306941 -0.96788496
5.5331364 -1.1284373 -0.94144088
8.0959539 -1.6511025 -0.92095941
13.132516 -2.6782675 -0.74863136
13.997688 -2.8547122 0
22.0991 -4.506928 1.2597799
0 -0 -0
3.4508035 -0.69942075 -0.97142541
4.2670813 -0.86486667 -0.96450657
5.5395327 -1.1227715 -0.94229764
8.1030178 -1.6423475 -0.92153656
13.125555 -2.6603327 -0.74805081
13.955211 -2.8284903 0
22.0867 -4.4766088 1.2587638
2.8881664 -0.58175123 -0.97144496
3.4664071 -0.69822383 -0.97557974
4.2731094 -0.86071455 -0.96563345
5.5358472 -1.1150625 -0.94144088
8.1125956 -1.6340861 -0.92240059
13.123671 -2.643446 -0.74776077
13.966274 -2.813168 0
22.08955 -4.4494052 1.2586188
2.9421802 -0.58893263 -0.98937261
3.4647906 -0.69354296 -0.97488827
4.2866015 -0.85804379 -0.96844733
5.5371904 -1.1083727 -0.94144088
8.1247091 -1.6263131 -0.92355376
13.12431 -2.6270771 -0.74761581
13.982421 -2.7988441 0
22.082163 -4.4201598 1.2578927
0 -0 -0
3.4680843 -0.68984485 -0.97557974
4.2776666 -0.8508808 -0.96619576
5.5284548 -1.099678 -0.93972898
8.1241331 -1.6159906 -0.92326576
13.14276 -2.6142576 -0.74848634
13.973032 -2.7794089 0
22.084942 -4.3929682 1.2577478
0 -0 -0
3.4812188 -0.68808573 -0.97903991
4.2786918 -0.84571147 -0.96619576
0 -0 -0
8.1260805 -1.606173 -0.92326576
13.120423 -2.5933378 -0.74703526
13.984042 -2.7640376 0
22.10043 -4.3682947 1.2583283
3.4426599 -0.67614305 -0.9679653
4.2797103 -0.84054089 -0.96619576
5.526063 -1.0853262 -0.93887389
8.1305504 -1.5968511 -0.92355376
13.131189 -2.5789833 -0.74747026
13.98226 -2.7461345 0
22.126089 -4.3455939 1.2594894
0 -0 -0
3.4681022 -0.67678881 -0.97488827
4.2732391 -0.83390862 -0.96450657
5.5399656 -1.0811062 -0.94101328
8.1426287 -1.5890073 -0.92470694
13.131748 -2.5626175 -0.74732524
13.970246 -2.7262478 0
22.141525 -4.3208461 1.26007
0 -0 -0
3.4516749 -0.66925454 -0.97004247
4.2817292 -0.83019608 -0.96619576
5.543786 -1.0748997 -0.94144088
8.1369228 -1.5776899 -0.92384177
13.134835 -2.5467486 -0.74732524
13.97353 -2.7093656 0
22.248758 -4.3138719 1.265875
0 -0 -0
3.454942 -0.6655575 -0.97073394
4.2802367 -0.82454163 -0.96563345
5.5450807 -1.0682002 -0.94144088
8.1464443 -1.5693251 -0.92470694
13.130245 -2.5294008 -0.74688971
13.97424 -2.6919875 0
22.468273 -4.3282719 1.2780662
0 -0 -0
3.4927068 -0.66845661 -0.98111701
4.2862163 -0.82032353 -0.96675813
5.5539336 -1.0629474 -0.94272518
8.1534204 -1.5604539 -0.92528409
13.130742 -2.5130458 -0.74674469
13.982591 -2.6760778 0
22.570463 -4.3196802 1.2835811
2.9647346 -0.56369728 -0.99507815
3.4516158 -0.65627003 -0.96935093
4.2946954 -0.8165682 -0.96844733
5.547646 -1.0547968 -0.94144088
8.1553001 -1.550601 -0.92528409
13.149091 -2.5000911 -0.74761581
13.99604 -2.6611252 0
22.588438 -4.2948332 1.2843072
0 -0 -0
3.4819884 -0.65768647 -0.9776569
4.2856917 -0.80949193 -0.96619576
5.5514364 -1.0485688 -0.94186842
8.1597071 -1.5412253 -0.9255721
13.136777 -2.4813066 -0.74674469
13.973678 -2.6393824 0
22.593611 -4.2675362 1.2843072
0 -0 -0
3.5156271 -0.65524524 -0.98665434
4.2951317 -0.80052984 -0.96788496
5.5539541 -1.0351502 -0.94186842
8.1659479 -1.5219755 -0.92586011
13.150401 -2.4509816 -0.74718022
13.985127 -2.6065586 0
22.588526 -4.2100663 1.2834362
0 -0 -0
3.4843497 -0.6450603 -0.9776569
4.3060894 -0.79718959 -0.97013652
5.5602541 -1.029374 -0.94272518
8.1703215 -1.5125778 -0.92614812
13.145685 -2.4336705 -0.74674469
13.962682 -2.5849216 0
22.585928 -4.1813498 1.2830006
0 -0 -0
3.4925218 -0.64220947 -0.97973138
4.2970533 -0.79014784 -0.96788496
5.5640159 -1.0231186 -0.94315273
8.174695 -1.5031736 -0.92643726
13.138394 -2.415905 -0.74616414
13.97859 -2.5704014 0
22.590965 -4.1540561 1.2830006
0 -0 -0
3.4855132 -0.638744 -0.9776569
4.2825298 -0.78480268 -0.96450657
5.5696883 -1.0206832 -0.94400948
8.1781425 -1.4987003 -0.92672527
13.150075 -2.4098406 -0.74674469
13.982698 -2.5624244 0
22.642035 -4.1493068 1.2857584
2.9155693 -0.53065747 -0.97714734
3.4961553 -0.63632888 -0.98042554
4.3084779 -0.78417826 -0.97013652
5.5759635 -1.0148711 -0.94486457
8.1824903 -1.4892802 -0.92701328
13.142751 -2.3920884 -0.74616414
13.980668 -2.5445962 0
22.649586 -4.1224103 1.2859035
0 -0 -0
3.4697628 -0.62719482 -0.9728111
4.2969227 -0.77671236 -0.96732265
5.5696049 -1.0067625 -0.94358027
8.1893692 -1.4803115 -0.9275893
13.140523 -2.3752828 -0.74587411
13.981174 -2.5272388 0
22.651995 -4.0945778 1.2857584
0 -0 -0
3.5050836 -0.62920672 -0.98250002
4.2903528 -0.77017254 -0.96563345
5.5783997 -1.0013932 -0.94486457
8.1886082 -1.4699585 -0.92730129
13.148494 -2.3603206 -0.74616414
13.971402 -2.5080431 0
22.654371 -4.0667458 1.2856134
0 -0 -0
3.5206649 -0.6276136 -0.98665434
4.3087835 -0.76810807 -0.96957201
5.5745564 -0.99375188 -0.94400948
8.2031078 -1.4623324 -0.92874247
13.143669 -2.3430645 -0.74572915
13.976992 -2.4916174 0
19.576893 -3.4898875 1.1107293
2.9497366 -0.52216005 -0.98774111
3.5140073 -0.62204683 -0.98457718
4.2922015 -0.75980216 -0.96563345
5.5883894 -0.98925227 -0.94614893
8.2048693 -1.4524194 -0.92874247
13.13369 -2.3249154 -0.74500299
13.94668 -2.4688303 0
19.573418 -3.4648709 1.1102939
0 -0 -0
3.5073414 -0.61649698 -0.98250002
4.3131371 -0.75813437 -0.97013652
5.5794673 -0.98072147 -0.94443703
8.2066183 -1.4425044 -0.92874247
13.156963 -2.3126431 -0.74616414
13.975281 -2.4564812 0
19.564796 -3.4389689 1.1095682
0 -0 -0
3.5031457 -0.61139679 -0.98111701
4.3065381 -0.75161123 -0.96844733
5.5882373 -0.97530353 -0.94572133
8.2109098 -1.4330332 -0.92903161
13.154634 -2.295851 -0.74587411
13.983361 -2.4404871 0
19.558697 -3.4135392 1.1089877
0 -0 -0
3.4717491 -0.6015954 -0.97211957
4.3149562 -0.74770898 -0.97013652
5.5666399 -0.96460456 -0.94186842
8.2228298 -1.4248774 -0.93018478
13.152272 -2.2790663 -0.74558359
13.988872 -2.4240348 0
19.552567 -3.3881292 1.1084071
0 -0 -0
3.4452741 -0.59272069 -0.96450514
4.3158569 -0.74249464 -0.97013652
5.5829859 -0.96048993 -0.94443703
8.2194424 -1.4140627 -0.92960763
13.160143 -2.2640548 -0.74587411
13.958449 -2.4013944 0
19.548962 -3.3631792 1.1079715
0 -0 -0
3.4731927 -0.59320378 -0.97211957
4.3067322 -0.73556811 -0.96788496
5.5613708 -0.94985408 -0.94058573
8.2236919 -1.4045651 -0.92989564
13.137251 -2.2437761 -0.74442244
13.974166 -2.3867171 0
19.581188 -3.3443682 1.1095682
0 -0 -0
3.4763782 -0.58942568 -0.9728111
4.3276591 -0.73376179 -0.97238809
5.5068383 -0.93369359 -0.9311713
5.3464837 -0.90650517 -0.60443038
13.155328 -2.2305076 -0.74529356
13.969339 -2.3685246 0
19.598022 -3.3228772 1.1102939
0 -0 -0
3.4795594 -0.58564073 -0.97350258
4.3009777 -0.72389275 -0.96619576
5.4269557 -0.91340476 -0.91747636
5.345027 -0.89961541 -0.60414237
13.170823 -2.2167664 -0.74601912
13.974754 -2.3520751 0
19.599463 -3.2987635 1.1101488
0 -0 -0
3.5025322 -0.58515614 -0.97973138
4.3068666 -0.7195335 -0.96732265
5.3698273 -0.89711869 -0.90763432
5.3486586 -0.89358217 -0.60443038
11.230896 -1.8763075 -0.63600928
13.967319 -2.3334723 0
19.593184 -3.2733662 1.1095682
0 -0 -0
3.4859192 -0.57805187 -0.97488827
4.3152456 -0.7155748 -0.9690097
5.3430476 -0.88600981 -0.90292627
5.344636 -0.88627326 -0.60385436
11.21777 -1.8601844 -0.63513815
13.967564 -2.3161685 0
17.5798 -2.9151669 0.99534953
0 -0 -0
3.4569094 -0.56895036 -0.9665823
4.3136024 -0.70994788 -0.96844733
5.3314514 -0.87746912 -0.90078682
5.3431535 -0.87939501 -0.60356635
11.217447 -1.846207 -0.63499314
13.970351 -2.2992897 0
17.6192 -2.8998299 0.99738115
0 -0 -0
3.509587 -0.57326555 -0.98111701
4.326993 -0.70678288 -0.9712612
5.3249049 -0.86978459 -0.89950252
5.3365517 -0.87168694 -0.60270119
11.219669 -1.8326516 -0.63499314
13.978262 -2.2832475 0
17.614994 -2.8772814 0.99694562
0 -0 -0
3.4904656 -0.565813 -0.97557974
4.3253379 -0.70114785 -0.97069889
5.3310251 -0.86417216 -0.90035927
5.3324895 -0.86440957 -0.60212404
11.219314 -1.818678 -0.63484812
13.973301 -2.2651062 0
17.605637 -2.8539164 0.99622005
0 -0 -0
3.4561381 -0.55810571 -0.96589082
4.3307729 -0.69934392 -0.97182357
5.3239408 -0.85972315 -0.89907497
5.3304601 -0.86077589 -0.60183603
11.212712 -1.8106564 -0.63441259
13.974667 -2.2566638 0
17.617617 -2.8449364 0.9968006
0 -0 -0
3.4766178 -0.55710334 -0.97142541
4.3240952 -0.69290555 -0.97013652
5.3123045 -0.85125911 -0.89693552
5.323842 -0.85310787 -0.600972
11.220028 -1.7979299 -0.63470316
13.96196 -2.2373049 0
17.574863 -2.8162472 0.99418837
0 -0 -0
3.5119801 -0.55841821 -0.98111701
4.3299432 -0.68847746 -0.9712612
5.3183947 -0.84564501 -0.89779067
5.3274207 -0.84708017 -0.60126001
11.211927 -1.7827392 -0.63412261
13.964653 -2.220433 0
17.560287 -2.7921526 0.99317229
0 -0 -0
3.4903517 -0.55065596 -0.97488827
4.3232398 -0.68205678 -0.96957201
5.3118033 -0.83801764 -0.89650637
5.3233256 -0.83983552 -0.60068285
11.208935 -1.7683798 -0.63383204
13.964758 -2.2031527 0
17.56365 -2.7709324 0.99317229
0 -0 -0
3.5009289 -0.54799002 -0.9776569
4.3391275 -0.67919087 -0.9729504
5.3153553 -0.83199692 -0.89693552
5.3243365 -0.83340269 -0.60068285
11.211063 -1.7548347 -0.63383204
13.949419 -2.1834614 0
