# .PCD v0.7 - Point Cloud Data file format
VERSION 0.7
FIELDS x y z
SIZE 4 4 4
TYPE F F F
COUNT 1 1 1
WIDTH 1555
HEIGHT 1
VIEWPOINT 0 0 0 1 0 0 0
POINTS 1555
DATA ascii
6.9280419 -4.0185313 -0.89270842
7.6941209 -4.4628863 -0.49682763
7.6977148 -4.4649711 0
8.0334053 -4.6596847 0.518736
2.5845056 -1.4949421 -0.98448437
3.0478311 -1.7629411 -0.97142541
3.7797902 -2.1863244 -0.96732265
4.821538 -2.7888973 -0.92860264
6.9328928 -4.0101571 -0.89270842
7.7040019 -4.4561858 -0.49711761
7.703104 -4.4556665 0
8.0210352 -4.6395659 0.51757491
2.5905879 -1.4942857 -0.98611277
3.0716946 -1.7717946 -0.97834837
3.7890258 -2.1855607 -0.9690097
4.8293557 -2.7856371 -0.92945939
6.933248 -3.9991901 -0.89213127
7.7138867 -4.4494729 -0.49740818
7.7107344 -4.4476547 0
8.0266352 -4.6298709 0.51757491
2.6073906 -1.499782 -0.99181831
3.0694797 -1.7655776 -0.97696275
3.7850626 -2.1771836 -0.96732265
4.8349414 -2.7810783 -0.929887
6.9380751 -3.9908097 -0.89213127
7.7215075 -4.4414434 -0.49755317
7.7228727 -4.4422288 0
8.0322237 -4.6201687 0.51757491
2.5899074 -1.4855636 -0.98448437
3.0716109 -1.7618674 -0.97696275
3.7920945 -2.1751347 -0.96844733
4.8360734 -2.7739582 -0.92945939
6.9428921 -3.9824235 -0.89213127
7.7358847 -4.4372816 -0.49813372
7.7304902 -4.4341874 0
8.0580845 -4.6220946 0.51888102
2.6045692 -1.4897939 -0.98937261
3.0563161 -1.7481897 -0.97142541
3.790313 -2.1680303 -0.96732265
4.843874 -2.7706594 -0.93031454
6.945456 -3.9727485 -0.89184326
7.7412405 -4.4279313 -0.49813372
7.7471356 -4.431303 0
8.0433655 -4.6007442 0.51757491
2.610657 -1.4890925 -0.99100095
3.0693283 -1.7507141 -0.97488827
3.7951348 -2.1647067 -0.96788496
4.8472185 -2.7648046 -0.93031454
6.9524956 -3.9656336 -0.89213127
7.7465854 -4.4185743 -0.49813372
7.7547512 -4.4232321 0
8.0647211 -4.6000357 0.51859099
2.5544541 -1.4529469 -0.96899927
3.0714417 -1.747004 -0.97488827
3.795541 -2.1588643 -0.96732265
4.8483262 -2.7576778 -0.929887
6.9617834 -3.95979 -0.89270842
7.7564402 -4.4117827 -0.49842429
7.7533016 -4.4099975 0
8.0747862 -4.5928545 0.51888102
2.6013529 -1.4754652 -0.98611277
3.0670016 -1.7395772 -0.9728111
3.802563 -2.1567814 -0.96844733
4.851655 -2.7518175 -0.929887
6.9665627 -3.951375 -0.89270842
7.7617655 -4.4024072 -0.49842429
7.7676792 -4.4057617 0
8.0825882 -4.5843749 0.51902598
2.5859232 -1.4625866 -0.97959304
3.077836 -1.7408104 -0.97557974
3.7985291 -2.1484313 -0.96675813
4.8527441 -2.7446907 -0.92945939
6.9735813 -3.9442267 -0.89299643
7.7670789 -4.3930254 -0.49842429
7.7843213 -4.4027777 0
8.0994282 -4.5810003 0.51975155
2.6285939 -1.4825317 -0.99507815
3.0886779 -1.7420199 -0.97834837
3.8033419 -2.1450918 -0.96732265
4.8560572 -2.7388251 -0.92945939
6.9715815 -3.9319844 -0.89213127
7.781426 -4.3887382 -0.4990043
7.7896357 -4.3933687 0
8.1072273 -4.5724907 0.5198971
2.580833 -1.4514868 -0.97633314
3.0864029 -1.7358246 -0.97696275
3.8059311 -2.1404946 -0.96732265
4.8548837 -2.7304361 -0.92860264
6.9830928 -3.9273627 -0.89299643
7.7889948 -4.38061 -0.49914986
7.8040118 -4.3890562 0
8.1172714 -4.5652366 0.52018714
2.5912077 -1.4532033 -0.97959304
3.0753734 -1.7247335 -0.9728111
3.8085146 -2.1358943 -0.96732265
4.8604159 -2.7258224 -0.92903024
6.987833 -3.9189222 -0.89299643
7.7988105 -4.373735 -0.49943984
7.8115773 -4.3808951 0
8.1499777 -4.5706773 0.52192879
2.5726793 -1.4407696 -0.9722591
3.1048684 -1.7388098 -0.98180854
3.8075809 -2.1323478 -0.96675813
4.8643084 -2.7241435 -0.92945939
6.9901991 -3.9146998 -0.89299643
7.8105197 -4.3741012 -0.50002038
7.8142223 -4.3761749 0
8.1391392 -4.5581369 0.52105826
2.6132567 -1.4593489 -0.98692691
3.0938292 -1.7277201 -0.9776569
3.8123796 -2.128988 -0.96732265
4.8720746 -2.7207649 -0.93031454
6.9971805 -3.9075105 -0.89328444
7.8180661 -4.3659263 -0.5001654
7.8240533 -4.3692698 0
8.1627817 -4.5584297 0.52221882
2.6171753 -1.4573916 -0.98774111
3.1068716 -1.7300822 -0.98111701
3.8127229 -2.1231401 -0.96675813
4.8798485 -2.717376 -0.9311713
7.0064206 -3.901572 -0.89386159
7.8278804 -4.3590074 -0.50045598
7.8429651 -4.3674073 0
8.1592112 -4.5435114 0.52163881
2.6383882 -1.4650303 -0.99507815
3.0936043 -1.7178004 -0.97627121
3.8241711 -2.1234655 -0.9690097
4.8741512 -2.7064929 -0.92945939
7.0179157 -3.8968713 -0.89472675
7.8399591 -4.3533311 -0.50089151
7.8436904 -4.3554029 0
8.1851387 -4.545001 0.52294493
2.6012313 -1.4402885 -0.98040724
3.0956779 -1.7140611 -0.97627121
3.8200719 -2.1151545 -0.96732265
4.8841486 -2.7043283 -0.93074208
7.02035 -3.8871322 -0.89443761
7.8406625 -4.3413353 -0.50060099
7.851222 -4.3471818 0
8.1906242 -4.5351076 0.52294493
2.6051397 -1.4383426 -0.98122454
3.0779824 -1.6994072 -0.97004247
3.8337445 -2.1166766 -0.97013652
4.8829226 -2.6959457 -0.929887
7.0318365 -3.8823984 -0.89530277
7.8459024 -4.3318582 -0.50060099
7.8746953 -4.347755 0
8.2097425 -4.5327406 0.52381545
2.5960436 -1.4292302 -0.97714734
3.1151972 -1.7150458 -0.98111701
3.8251722 -2.1059167 -0.96732265
4.897418 -2.6962328 -0.93202639
7.0455856 -3.8788886 -0.89645594
7.853405 -4.3236265 -0.50074595
7.8799429 -4.3382368 0
8.2129393 -4.5215654 0.52367049
2.6302698 -1.4439344 -0.98937261
3.08868 -1.6955869 -0.97211957
3.8232551 -2.0988452 -0.96619576
4.8871751 -2.6829035 -0.92945939
7.0457287 -3.8678808 -0.89587879
7.8722949 -4.3216391 -0.50161707
7.8760538 -4.3237028 0
8.2252321 -4.5153909 0.52410603
2.6059961 -1.4265139 -0.97959304
3.1017275 -1.6978756 -0.97557974
3.8324769 -2.0978854 -0.96788496
4.892663 -2.6782279 -0.929887
7.0549388 -3.8618507 -0.89645594
7.8797879 -4.3133702 -0.50176209
7.8949652 -4.3216786 0
8.2466307 -4.5141792 0.52512157
2.5795169 -1.407971 -0.96899927
3.1280019 -1.7073493 -0.98319417
3.8260877 -2.0883837 -0.96563345
4.8913846 -2.669852 -0.92903024
7.0618682 -3.8545616 -0.89674395
7.8827157 -4.3026023 -0.50161707
7.9001813 -4.3121357 0
8.2475224 -4.5017238 0.52483159
2.6398244 -1.4367512 -0.99100095
3.1102245 -1.6927713 -0.97696275
3.8330677 -2.0861862 -0.96675813
4.8991208 -2.6663964 -0.929887
7.0597029 -3.8423152 -0.89587879
7.9107275 -4.3054938 -0.50306821
7.9168129 -4.3088059 0
8.262085 -4.4967237 0.52541214
2.6154988 -1.4194181 -0.98122454
3.1100647 -1.6878165 -0.97627121
3.8378253 -2.0827684 -0.96732265
4.8933144 -2.6555769 -0.92817509
7.0666203 -3.8350194 -0.89616793
7.9136424 -4.2946939 -0.50292319
7.9426064 -4.3104129 0
8.2972002 -4.5028486 0.52729881
2.6237271 -1.4197822 -0.98366708
3.116519 -1.6864476 -0.9776569
3.8358655 -2.0757089 -0.96619576
4.9032946 -2.6533289 -0.92945939
7.071249 -3.826478 -0.89616793
7.9188256 -4.2851286 -0.50292319
7.9455137 -4.2995706 0
8.3094835 -4.4965262 0.5277338
2.6232677 -1.4154384 -0.98285288
3.1163402 -1.6814859 -0.97696275
3.83166 -2.0674517 -0.96450657
4.9132681 -2.6510556 -0.93074208
7.0826898 -3.8216121 -0.89703196
7.9171352 -4.2718544 -0.50248766
7.9530001 -4.2912059 0
8.3080568 -4.4827843 0.52729881
3.1073251 -1.6717771 -0.97350258
3.8431058 -2.0676358 -0.96675813
4.9119511 -2.6426868 -0.929887
7.0895867 -3.8142803 -0.89732111
7.9428835 -4.2733641 -0.50379378
7.9604688 -4.282825 0
8.313468 -4.4727426 0.52729881
2.6375685 -1.4149357 -0.98692691
3.1093428 -1.6680213 -0.97350258
3.8411276 -2.0605905 -0.96563345
4.9106121 -2.6343203 -0.92903024
7.0941901 -3.805711 -0.89732111
7.9365945 -4.2576227 -0.50306821
7.9748116 -4.2781243 0
12.845512 -6.8910341 0.81422436
2.6471376 -1.4180102 -0.99018681
3.1037135 -1.6625875 -0.97142541
3.8423717 -2.0582695 -0.96563345
4.9144721 -2.6325688 -0.92945939
7.1033216 -3.8050847 -0.89818513
7.9712281 -4.2700024 -0.50509989
7.9796867 -4.2745333 0
0 -0 0
2.6357725 -1.4078262 -0.98529857
3.1212125 -1.6671109 -0.97627121
3.844856 -2.0536253 -0.96563345
4.9199114 -2.6278369 -0.929887
7.0987883 -3.7916248 -0.89703196
7.9763818 -4.2603674 -0.50509989
8.0055037 -4.2759223 0
0 -0 0
2.6636498 -1.4185822 -0.99507815
3.1254368 -1.6645164 -0.97696275
3.8518157 -2.0513644 -0.96675813
4.9208193 -2.6206849 -0.92945939
7.1056538 -3.7842638 -0.89732111
7.9952888 -4.2580576 -0.50597101
7.9830999 -4.2515659 0
0 -0 0
2.6020594 -1.3817476 -0.97144496
3.1318815 -1.6630942 -0.97834837
3.8520496 -2.0455184 -0.96619576
4.9171786 -2.611124 -0.92817509
7.1102214 -3.7756753 -0.89732111
7.9912486 -4.2435188 -0.50539041
8.0181093 -4.2577829 0
0 -0 0
2.6299388 -1.392481 -0.98122454
3.1627097 -1.6745687 -0.98734581
3.8612571 -2.0444305 -0.96788496
4.9225965 -2.6063807 -0.92860264
7.1193457 -3.7694995 -0.89789712
8.0078497 -4.2399383 -0.50611597
8.0301504 -4.2517462 0
12.84146 -6.7992029 0.81161213
2.6185009 -1.3823766 -0.97633314
3.1225758 -1.648491 -0.97419411
3.8659694 -2.0409484 -0.96844733
4.9325547 -2.6040273 -0.929887
7.1238952 -3.7608943 -0.89789712
8.0428381 -4.2460284 -0.50800264
8.0398893 -4.2444725 0
12.84737 -6.7824697 0.81146711
2.6332963 -1.3861214 -0.98122454
3.1401074 -1.652898 -0.97903991
3.8774264 -2.0410099 -0.97069889
4.9356976 -2.5980654 -0.929887
7.1307206 -3.7534873 -0.89818513
8.0341702 -4.2290478 -0.50713211
8.0565252 -4.2408147 0
12.844062 -6.760891 0.8107416
2.6371555 -1.384086 -0.98203874
3.1687591 -1.6630931 -0.98734581
3.866395 -2.0292406 -0.96732265
4.9365625 -2.5909078 -0.92945939
7.1329627 -3.7436678 -0.89789712
8.0415735 -4.2205434 -0.50727713
8.073163 -4.237123 0
12.845317 -6.7417426 0.81030601
2.6585331 -1.3912112 -0.98937261
3.1663165 -1.6569345 -0.98596019
3.868844 -2.0245674 -0.96732265
4.9351363 -2.5825584 -0.92860264
7.1397705 -3.7362442 -0.89818513
8.042058 -4.2084117 -0.50698656
8.0828838 -4.2297759 0
12.839644 -6.7189903 0.80943549
2.636106 -1.3754202 -0.98040724
3.1549752 -1.6461465 -0.98180854
3.8780391 -2.0234139 -0.9690097
4.9428091 -2.5789707 -0.92945939
7.1419892 -3.7264192 -0.89789712
8.070179 -4.2107134 -0.50843823
8.0995321 -4.2260289 0
12.847754 -6.7034712 0.80943549
2.6399651 -1.3733779 -0.98122454
3.168088 -1.6481211 -0.98526865
3.8669608 -2.011693 -0.96563345
4.9436378 -2.5718081 -0.92903024
7.141902 -3.7154016 -0.89732111
8.06604 -4.1961622 -0.50785768
8.1092463 -4.2186389 0
12.837402 -6.6783485 0.80827433
2.6591663 -1.3792869 -0.98774111
3.1634023 -1.6408299 -0.98319417
3.8716421 -2.0081878 -0.96619576
4.9444652 -2.564652 -0.92860264
7.1509733 -3.7091489 -0.89789712
8.0895576 -4.1959844 -0.50901878
8.1166449 -4.2100348 0
12.840845 -6.6604371 0.80798376
2.6871758 -1.3896972 -0.99752069
3.1364071 -1.6220213 -0.97419411
3.8853483 -2.0093431 -0.9690097
4.9544034 -2.5622144 -0.929887
7.1577454 -3.7016926 -0.89818513
8.0969276 -4.1873994 -0.5091638
8.1263542 -4.2026176 0
12.841967 -6.6413388 0.80754876
2.6471207 -1.3649309 -0.98203874
3.1628945 -1.6308787 -0.98180854
3.8810048 -2.0011568 -0.96732265
4.9529281 -2.5538709 -0.92903024
7.1599164 -3.6918571 -0.89789712
8.1135263 -4.1835656 -0.5098893
8.1429892 -4.1987576 0
12.843051 -6.6222434 0.80711323
2.650964 -1.3628603 -0.98285288
3.1559381 -1.6224675 -0.97903991
3.8721147 -1.9906539 -0.96450657
4.9628615 -2.5514066 -0.93031454
7.1781778 -3.6903007 -0.89962745
8.1255112 -4.1773243 -0.5103249
8.1573153 -4.193675 0
12.844108 -6.6031551 0.8066777
2.6812003 -1.3743113 -0.99344665
3.1556659 -1.6175097 -0.97834837
3.8858294 -1.9917722 -0.96732265
4.9682231 -2.5465779 -0.93074208
7.1734247 -3.6769054 -0.89847428
8.1236134 -4.1639462 -0.5098893
8.183218 -4.1944985 0
12.845138 -6.5840735 0.80624211
2.6710312 -1.367062 -0.98937261
3.1834416 -1.6293191 -0.98665434
3.8847637 -1.9882631 -0.96675813
4.9606199 -2.5388978 -0.92903024
7.1802454 -3.6749256 -0.8990503
8.1423206 -4.167326 -0.51090544
8.1903801 -4.1919227 0
12.842181 -6.5727639 0.80580711
2.6814873 -1.3683273 -0.99263245
3.1630573 -1.614066 -0.97973138
3.8962164 -1.9881873 -0.9690097
4.9705462 -2.5364034 -0.93031454
7.1869822 -3.6674213 -0.8993383
8.1519747 -4.1598444 -0.51119542
8.2093525 -4.1891232 0
12.843167 -6.5536976 0.80537158
2.6721263 -1.3594835 -0.98855841
3.1851273 -1.6204803 -0.98596019
3.8986158 -1.9834781 -0.9690097
4.9690356 -2.52807 -0.92945939
7.1844993 -3.6552196 -0.89847428
8.1616316 -4.1523499 -0.51148599
8.2283211 -4.1862788 0
12.839499 -6.5322838 0.80464602
2.6693542 -1.3540154 -0.98692691
3.2027469 -1.6245759 -0.99080598
3.9123378 -1.984512 -0.97182357
4.9812441 -2.5267091 -0.9311713
7.1935196 -3.6488736 -0.8990503
8.1712732 -4.144834 -0.51177603
8.2449846 -4.1822233 0
12.842744 -6.5144119 0.80435544
2.6599624 -1.3452129 -0.98285288
3.1576958 -1.5969297 -0.97627121
3.905663 -1.9751965 -0.96957201
4.9751306 -2.5160542 -0.92945939
7.2002292 -3.641345 -0.8993383
8.1901932 -4.1419959 -0.51264715
8.2477026 -4.1710801 0
12.841331 -6.4941983 0.80377489
2.696897 -1.3598021 -0.99589235
3.1753061 -1.6010206 -0.98111701
3.9057803 -1.9693329 -0.9690097
4.9850368 -2.5135047 -0.93074208
7.2046237 -3.6326425 -0.8993383
8.2091084 -4.1391134 -0.51351768
8.275979 -4.1728306 0
12.825971 -6.4669809 0.80232376
2.64996 -1.3321226 -0.97796464
3.1749988 -1.5960571 -0.98042554
3.903621 -1.9623319 -0.96788496
4.9834876 -2.5051758 -0.929887
7.2090077 -3.6239343 -0.8993383
8.2071371 -4.125689 -0.51308215
8.2717142 -4.1581521 0
12.787343 -6.4281373 0.79942095
2.6847057 -1.3455278 -0.99018681
3.2150514 -1.6113278 -0.99219161
3.9037197 -1.9564763 -0.96732265
4.9888039 -2.5003016 -0.93031454
7.2157001 -3.6163833 -0.89962745
8.2237377 -4.121594 -0.51380825
8.2790575 -4.1493192 0
12.755611 -6.3928905 0.79695374
2.6951735 -1.3467019 -0.99344665
3.2035265 -1.6007115 -0.98803735
3.9106224 -1.9540273 -0.96844733
4.9918213 -2.4942718 -0.93031454
7.2177444 -3.6065025 -0.8993383
8.2426538 -4.1186209 -0.51467878
8.2887163 -4.1416368 0
12.74241 -6.3670211 0.79564762
2.6481326 -1.3192006 -0.975519
3.1919892 -1.5901296 -0.98388571
3.9038835 -1.9447687 -0.96619576
4.9902406 -2.4859512 -0.92945939
7.2220969 -3.5977786 -0.8993383
8.2476244 -4.1086578 -0.51467878
8.3030329 -4.1362605 0
12.745446 -6.3493047 0.79535764
2.6585791 -1.3203975 -0.97877884
3.2051406 -1.5918502 -0.98734581
3.9130597 -1.943442 -0.96788496
4.9886379 -2.4776337 -0.92860264
7.2171726 -3.5844474 -0.89818513
8.2572327 -4.1009989 -0.51496881
8.3266716 -4.1354856 0
12.746125 -6.330431 0.79492205
2.6690323 -1.3215711 -0.98203874
3.2048156 -1.5868641 -0.98665434
3.9108467 -1.9364552 -0.96675813
4.9962335 -2.4738843 -0.92945939
7.2145514 -3.5722845 -0.89732111
8.306428 -4.112927 -0.5177266
12.77438 -6.3252325 0
12.744451 -6.3104134 0.7943415
2.6300819 -1.2943801 -0.96655357
3.1816299 -1.5658213 -0.97834837
3.9178011 -1.9281238 -0.96732265
5.0114102 -2.4663374 -0.9311713
7.2231631 -3.5548394 -0.89732111
8.3140144 -4.0916953 -0.51758158
0 -0 0
12.748008 -6.2738605 0.79361594
2.6649299 -1.3075327 -0.97877884
3.1880198 -1.5641837 -0.97973138
3.9201281 -1.9233886 -0.96732265
5.005168 -2.4557574 -0.92945939
7.2251248 -3.5449662 -0.89703196
8.1999865 -4.0232768 -0.51017988
12.783201 -6.2720046 0
12.748579 -6.2550178 0.79318041
2.6909239 -1.3162547 -0.98774111
3.2124479 -1.5713561 -0.98665434
3.9201603 -1.9175308 -0.96675813
5.0242672 -2.4576004 -0.93245393
7.2270818 -3.5350981 -0.89674395
7.8383975 -3.834121 -0.48739424
12.783763 -6.2531271 0
12.749123 -6.2361827 0.79274482
2.6725206 -1.3032533 -0.98040724
3.1850321 -1.5531793 -0.9776569
3.9361815 -1.919477 -0.97013652
5.0156984 -2.4459028 -0.93031454
7.2336702 -3.5274956 -0.89703196
7.7963138 -3.8018684 -0.48449147
12.77727 -6.2308292 0
12.747307 -6.2162175 0.79216427
2.6799762 -1.3048855 -0.98285288
3.2175441 -1.5666282 -0.98734581
3.9396229 -1.9182098 -0.97069889
5.0217957 -2.4451218 -0.9311713
7.2334771 -3.5219936 -0.89674395
7.7869301 -3.791471 -0.4837659
12.783379 -6.2242513 0
12.739381 -6.2028284 0.7914387
2.7082329 -1.314598 -0.99263245
3.2216895 -1.5638338 -0.98803735
3.9167914 -1.9012419 -0.96450657
5.0224304 -2.437928 -0.93074208
7.2423854 -3.515512 -0.89732111
7.7424183 -3.7582319 -0.48071811
12.779177 -6.203115 0
12.737515 -6.1828923 0.79085815
2.7142646 -1.3134757 -0.99426085
3.1874447 -1.5424551 -0.97696275
3.9190857 -1.8965079 -0.96450657
5.0230641 -2.4307404 -0.93031454
7.2489538 -3.507884 -0.89760911
7.7469535 -3.7488739 -0.48071811
12.781982 -6.1854043 0
12.74264 -6.1663661 0.79071319
2.6735604 -1.2897936 -0.97877884
3.2073827 -1.5473231 -0.98250002
3.9213746 -1.891771 -0.96450657
5.0398655 -2.4313595 -0.93288153
7.2555146 -3.5002451 -0.89789712
7.7702003 -3.7485428 -0.48187923
12.782413 -6.1665616 0
12.743059 -6.1475763 0.7902776
2.706296 -1.3015574 -0.99018681
3.1911628 -1.5347477 -0.97696275
3.9374008 -1.8936411 -0.96788496
5.0289235 -2.4185946 -0.93031454
7.25741 -3.4903557 -0.89760911
7.774724 -3.7391512 -0.48187923
12.775786 -6.1443462 0
12.74346 -6.128799 0.78984261
2.6588399 -1.2747806 -0.9722591
3.2156413 -1.5417389 -0.98388571
3.9259348 -1.8822891 -0.96450657
5.0341549 -2.413625 -0.93074208
7.2592921 -3.4804668 -0.89732111
7.7440882 -3.7129025 -0.479702
12.785546 -6.1300292 0
12.746165 -6.1111479 0.78955203
2.6826737 -1.2822235 -0.98040724
3.2016551 -1.5302781 -0.97903991
3.9488366 -1.8874044 -0.96957201
5.048646 -2.4130745 -0.93288153
7.2634921 -3.471693 -0.89732111
7.7415333 -3.7001798 -0.47926643
12.781205 -6.1089654 0
12.737136 -6.0879016 0.78853649
2.6931462 -1.2832336 -0.98366708
3.2465353 -1.5469131 -0.99219161
3.9373558 -1.8760761 -0.96619576
5.051558 -2.4069724 -0.93288153
7.2700143 -3.4640255 -0.89760911
7.760078 -3.6975315 -0.48013756
12.781528 -6.090158 0
12.737443 -6.0691524 0.78810096
2.6768343 -1.2714949 -0.97714734
3.2438655 -1.5408343 -0.99080598
3.9327321 -1.8680456 -0.96450657
5.047513 -2.3975658 -0.93159884
7.2718606 -3.4541299 -0.89732111
7.7551513 -3.6836927 -0.47955701
12.772419 -6.0668921 0
12.742422 -6.0526433 0.78795594
2.729749 -1.2925889 -0.99589235
3.2230551 -1.5261791 -0.98388571
3.9395835 -1.8654692 -0.96563345
5.0527239 -2.3925626 -0.93202639
7.2736845 -3.4442306 -0.89703196
7.7760291 -3.6821005 -0.48057255
12.775041 -6.0492291 0
12.745025 -6.0350161 0.78766537
2.6888397 -1.2692425 -0.98040724
3.2112803 -1.5158559 -0.97973138
3.9533215 -1.8661298 -0.96844733
5.0602498 -2.3886452 -0.93288153
7.2731676 -3.4332333 -0.89645594
7.7687259 -3.6671569 -0.47984698
12.777629 -6.0315647 0
12.752308 -6.0196118 0.78766537
2.6635435 -1.2533684 -0.97063076
3.2358139 -1.5226585 -0.98665434
3.9509797 -1.8591899 -0.96732265
5.0654616 -2.3836253 -0.93331069
7.2749724 -3.4233422 -0.89616793
7.7567 -3.6500261 -0.47883144
12.782556 -6.0150137 0
12.783079 -6.0152602 0.7891165
2.6739979 -1.2543437 -0.9738875
3.2376513 -1.5187476 -0.98665434
3.9555213 -1.8554926 -0.96788496
5.0636854 -2.3753204 -0.93245393
7.2767553 -3.4134479 -0.89587879
7.7752151 -3.64727 -0.479702
12.806309 -6.0073018 0
12.813867 -6.0108476 0.79056817
2.7023785 -1.2636752 -0.98366708
3.2190332 -1.5052711 -0.98042554
3.9439461 -1.8442519 -0.96450657
5.0688753 -2.3702867 -0.93288153
7.2808743 -3.4046526 -0.89587879
7.7419553 -3.6202614 -0.47737977
12.837129 -6.0028458 0
12.835238 -6.0019617 0.7914387
2.6658227 -1.2426578 -0.96981347
3.2231214 -1.5024394 -0.98111701
3.9461715 -1.839485 -0.96450657
5.074069 -2.365248 -0.93331069
7.2920179 -3.399132 -0.89674395
7.734551 -3.6054161 -0.4766542
12.856164 -5.9928265 0
12.882517 -6.0051107 0.79390597
2.6942194 -1.2519343 -0.97959304
3.234035 -1.5027726 -0.98388571
3.9483914 -1.8347156 -0.96450657
5.0792489 -2.3601959 -0.93373829
7.2820506 -3.383781 -0.89501476
7.767179 -3.6092076 -0.47839588
12.868121 -5.9794836 0
12.998157 -6.0399079 0.80058211
2.686007 -1.2461456 -0.97633314
3.2303863 -1.4987048 -0.98250002
3.9494991 -1.8323298 -0.96450657
5.0760121 -2.354964 -0.93288153
7.2911258 -3.3826435 -0.89587879
7.7528563 -3.5968585 -0.47737977
12.878816 -5.9749951 0
13.166798 -6.1086016 0.8107416
2.7144306 -1.2553488 -0.98611277
3.2549698 -1.5053331 -0.98942298
3.9517102 -1.8275563 -0.96450657
5.0811906 -2.3499095 -0.93331069
7.2999077 -3.3760045 -0.89645594
7.7642741 -3.5907612 -0.47781533
0 -0 0
13.247274 -6.1264963 0.8152405
2.6935041 -1.2417225 -0.97796464
3.2590623 -1.5024483 -0.99011445
3.9631455 -1.8270352 -0.96675813
5.0770302 -2.340543 -0.93202639
7.3016348 -3.3660998 -0.89616793
0 -0 -0
0 -0 0
13.294781 -6.1289778 0.81770772
2.6927502 -1.2374319 -0.97714734
3.2312429 -1.4848919 -0.98111701
3.9699724 -1.8243691 -0.96788496
5.0775242 -2.3333359 -0.93159884
7.3080444 -3.3583536 -0.89645594
0 -0 -0
7.4144344 -3.4072442 0
13.347039 -6.1335258 0.82046551
2.6785204 -1.226975 -0.97144496
3.2695284 -1.4977036 -0.99219161
3.9744816 -1.820628 -0.96844733
5.0920072 -2.3325434 -0.93373829
7.3144464 -3.3505969 -0.89674395
0 -0 -0
7.4327378 -3.404784 0
13.411129 -6.1433616 0.82394826
2.6957328 -1.230921 -0.97714734
3.2485101 -1.4833293 -0.98526865
3.9697423 -1.8126571 -0.96675813
5.0948215 -2.3263888 -0.93373829
7.3208404 -3.3428297 -0.89703196
0 -0 -0
7.4108124 -3.3839126 0
13.439814 -6.1368651 0.82525438
2.7219653 -1.2389268 -0.98611277
3.2388854 -1.4742075 -0.98180854
3.9765594 -1.8099663 -0.96788496
5.1022973 -2.322356 -0.93459338
7.3272347 -3.3350561 -0.89732111
0 -0 -0
7.4219947 -3.3781869 0
13.499253 -6.1443052 0.82844776
2.70996 -1.2295117 -0.98122454
3.2201049 -1.460965 -0.97557974
3.9787436 -1.8051602 -0.96788496
5.1074443 -2.3172529 -0.93502259
7.3336124 -3.3272679 -0.89760911
0 -0 -0
7.4237037 -3.3681421 0
13.546892 -6.1462393 0.83091497
2.7181931 -1.2292888 -0.98366708
3.221868 -1.4570731 -0.97557974
3.9786088 -1.7993053 -0.96732265
5.1008844 -2.3068485 -0.93331069
7.330555 -3.3152056 -0.89674395
7.7801661 -3.5185399 -0.47694477
7.4135447 -3.3527372 0
13.580345 -6.1416411 0.83251113
2.7151744 -1.223974 -0.98203874
3.2350595 -1.4583331 -0.97903991
3.9738286 -1.7913629 -0.96563345
5.1013212 -2.2996254 -0.93288153
7.3345556 -3.3063457 -0.89674395
7.7725606 -3.5037942 -0.47621864
7.4175906 -3.3437769 0
13.620916 -6.1401753 0.83454275
2.7301738 -1.2267685 -0.98692691
3.2596986 -1.4647037 -0.98596019
3.9875762 -1.7917662 -0.96844733
5.1087837 -2.2955661 -0.93373829
7.3338313 -3.2953627 -0.89616793
7.82656 -3.5167642 -0.47926643
7.4097581 -3.3294797 0
13.633071 -6.125845 0.83483332
2.7136085 -1.2153864 -0.98040724
3.2385743 -1.450511 -0.97903991
3.9897385 -1.7869467 -0.96844733
5.1115537 -2.2893915 -0.93373829
7.3425245 -3.2886114 -0.89674395
7.7952385 -3.4913757 -0.47708976
7.4090209 -3.3183942 0
7.4655132 -3.3436961 0.45690966
2.7489309 -1.227221 -0.99263245
3.2494881 -1.4506876 -0.98180854
3.9988575 -1.7852329 -0.97013652
5.119 -2.2853045 -0.93459338
7.3441329 -3.2786834 -0.89645594
0 -0 -0
7.4130254 -3.3094394 0
7.4244728 -3.3145499 0.45415244
2.7233143 -1.2118405 -0.98285288
3.2672853 -1.4539008 -0.98665434
3.9986835 -1.7793638 -0.96957201
5.1217575 -2.2791176 -0.93459338
7.3480892 -3.2698071 -0.89645594
0 -0 -0
7.4146433 -3.2994227 0
7.3952312 -3.2907848 0.45212018
2.7292995 -1.2105552 -0.98448437
3.2644486 -1.4479156 -0.98526865
4.0170918 -1.7817433 -0.97351277
5.1127768 -2.267724 -0.93245393
7.3473015 -3.2588267 -0.89587879
0 -0 -0
7.4091086 -3.2862406 0
7.3992023 -3.2818468 0.45212018
2.7013667 -1.1942617 -0.9738875
3.2547252 -1.438899 -0.98180854
4.0029716 -1.7696954 -0.96957201
5.1155133 -2.2615447 -0.93245393
7.3536062 -3.2509954 -0.89616793
0 -0 -0
7.413074 -3.2772858 0
7.4031625 -3.2729039 0.45212018
2.7118547 -1.1949834 -0.97714734
3.2518744 -1.4329439 -0.98042554
4.012085 -1.7679319 -0.9712612
5.1229448 -2.2574341 -0.93331069
7.3575292 -3.2421076 -0.89616793
0 -0 -0
7.412261 -3.2662251 0
7.3976002 -3.2597649 0.45153964
2.728415 -1.2003127 -0.98285288
3.2458482 -1.4279474 -0.97834837
4.0131521 -1.7655077 -0.9712612
5.1243076 -2.2543387 -0.93331069
7.3594866 -3.2376618 -0.89616793
0 -0 -0
7.4285302 -3.2680364 0
7.3876781 -3.2500644 0.45081407
3.2797332 -1.4381269 -0.98803735
4.0082994 -1.7575953 -0.96957201
5.1199727 -2.2450519 -0.93202639
7.3633933 -3.2287672 -0.89616793
0 -0 -0
7.4300928 -3.258014 0
7.382081 -3.2369614 0.45023352
2.6973429 -1.1788714 -0.97063076
3.2768753 -1.4321555 -0.98665434
4.0057683 -1.7507175 -0.96844733
5.1250315 -2.2398906 -0.93245393
7.360177 -3.216759 -0.89530277
0 -0 -0
7.3982511 -3.2333994 0
13.830971 -6.0448141 0.84310561
2.6964929 -1.1746213 -0.96981347
3.2717011 -1.4251883 -0.98457718
4.0032263 -1.7438486 -0.96732265
5.1277342 -2.2336965 -0.93245393
7.3687963 -3.2099273 -0.89587879
0 -0 -0
7.3973856 -3.2223809 0
13.831125 -6.0249877 0.84267056
2.7591252 -1.1979403 -0.99181831
3.2803266 -1.4242325 -0.98665434
4.007659 -1.7400211 -0.96788496
5.1233721 -2.2244349 -0.9311713
7.3726697 -3.2010212 -0.89587879
0 -0 -0
7.4179773 -3.2206926 0
13.831243 -6.0051651 0.84223503
2.77191 -1.1995126 -0.99589235
3.2705352 -1.415287 -0.98319417
4.0074286 -1.7341692 -0.96732265
5.149611 -2.2284358 -0.93545014
7.3741603 -3.1910841 -0.89559078
0 -0 -0
7.6009908 -3.2892423 0
13.833723 -5.9863868 0.84194505
2.7370453 -1.1805007 -0.98285288
3.2791471 -1.414312 -0.98526865
4.0165138 -1.7323418 -0.9690097
5.145226 -2.2191608 -0.93416584
7.3803835 -3.1831951 -0.89587879
7.5065866 -3.237627 -0.45662579
7.9012642 -3.4078534 0
13.824243 -5.9624624 0.84092891
2.7407382 -1.1781679 -0.98366708
3.2762485 -1.4083691 -0.98388571
4.0069346 -1.7224709 -0.96619576
5.1384702 -2.2088869 -0.93245393
7.3866076 -3.1752994 -0.89616793
7.4508238 -3.2029042 -0.45299801
7.9173379 -3.4034457 0
13.838601 -5.9488335 0.84136444
2.7330723 -1.170962 -0.98040724
3.2871718 -1.4083613 -0.98665434
4.0230217 -1.7236301 -0.96957201
5.1458592 -2.2047005 -0.93331069
7.390439 -3.1663718 -0.89616793
7.4928946 -3.2102683 -0.45531967
7.9094768 -3.3887491 0
13.82189 -5.9218731 0.83991277
2.7594907 -1.1783364 -0.98937261
3.3073289 -1.4122701 -0.99219161
4.032114 -1.7217622 -0.9712612
5.150878 -2.1994882 -0.93373829
7.3847446 -3.1533766 -0.89501476
7.6066899 -3.2481499 -0.46199581
7.8920269 -3.3699925 0
13.836206 -5.9082298 0.84034836
2.7427189 -1.1672583 -0.98285288
3.2697923 -1.3915726 -0.98042554
4.0201683 -1.7109208 -0.96788496
5.144084 -2.1892416 -0.93202639
7.3980694 -3.1485028 -0.89616793
7.6249595 -3.2450635 -0.46286693
7.900887 -3.3624942 0
13.828994 -5.8854041 0.83947778
2.7509556 -1.1668397 -0.98529857
3.2783935 -1.3905567 -0.98250002
4.0245695 -1.7070532 -0.96844733
5.1490865 -2.184026 -0.93245393
7.4018683 -3.1395614 -0.89616793
7.7556477 -3.2896197 -0.47055861
7.9432693 -3.3692009 0
13.828917 -5.8656449 0.83904225
2.7386997 -1.1577388 -0.98040724
3.2846973 -1.3885499 -0.98388571
4.024291 -1.7012006 -0.96788496
5.1611795 -2.1818008 -0.93416584
7.4127965 -3.1336336 -0.89703196
7.9223576 -3.3490419 -0.48042756
7.9473348 -3.3596005 0
13.831203 -5.8469057 0.83875167
2.7788155 -1.1707414 -0.99426085
3.2771249 -1.3806838 -0.98111701
4.0357099 -1.7002829 -0.97013652
5.1590853 -2.1735716 -0.93331069
7.4118152 -3.122668 -0.89645594
7.9503493 -3.3495576 -0.48187923
7.9537935 -3.3510087 0
13.838257 -5.8301892 0.83875167
2.739213 -1.150161 -0.97959304
3.2857323 -1.3796377 -0.98319417
4.0354118 -1.6944188 -0.96957201
5.1617079 -2.1673362 -0.93331069
7.4132004 -3.1127095 -0.89616793
7.9543905 -3.3399487 -0.48187923
7.9290419 -3.3293052 0
13.828528 -5.8064251 0.83773613
2.767961 -1.1582998 -0.98937261
3.3012784 -1.3814754 -0.98734581
4.032773 -1.6875817 -0.96844733
5.1595821 -2.1591139 -0.93245393
7.4121795 -3.1017511 -0.89559078
7.9224629 -3.3152878 -0.479702
7.9474592 -3.325748 0
13.825946 -5.7856994 0.83715558
2.754981 -1.1509128 -0.98448437
3.2720211 -1.3669099 -0.97834837
4.04317 -1.6890628 -0.97069889
5.1585193 -2.1550076 -0.93202639
7.4235983 -3.1012604 -0.89674395
7.890902 -3.2964799 -0.47767031
8.1319628 -3.3971846 0
13.834229 -5.7793469 0.83744556
2.7289886 -1.1361833 -0.9747048
3.2806208 -1.365849 -0.98042554
4.0381684 -1.6812454 -0.9690097
5.1658545 -2.1507444 -0.93288153
7.4225693 -3.090302 -0.89616793
7.8061242 -3.2499907 -0.47230029
8.2705965 -3.4433687 0
13.817219 -5.7526412 0.83599442
2.7782981 -1.1527758 -0.99181831
3.2590921 -1.3522675 -0.97350258
4.0355077 -1.6744192 -0.96788496
5.1755648 -2.1474533 -0.93416584
7.4191284 -3.0783563 -0.89530277
7.7836428 -3.2296009 -0.47070363
8.2915802 -3.4403553 0
13.860153 -5.7508764 0.83817112
2.7248721 -1.1267508 -0.9722591
3.2769544 -1.3550401 -0.97834837
4.0422196 -1.6714818 -0.9690097
5.175786 -2.1402183 -0.93373829
7.4300156 -3.0723555 -0.89616793
7.7779341 -3.2162218 -0.47012308
8.302949 -3.4333184 0
13.881504 -5.7400842 0.83904225
2.7422299 -1.1300503 -0.97796464
3.2878675 -1.354903 -0.98111701
4.0489392 -1.6685344 -0.97013652
5.1688743 -2.1300504 -0.93202639
7.4337225 -3.0633755 -0.89616793
7.7866244 -3.2088034 -0.47041363
8.3840799 -3.4550099 0
13.90284 -5.7292452 0.83991277
2.7778816 -1.1408174 -0.99018681
3.303422 -1.3566458 -0.98526865
4.0485954 -1.6626728 -0.96957201
5.1761889 -2.1257517 -0.93288153
7.4374185 -3.0543911 -0.89616793
7.7952986 -3.2013648 -0.47070363
8.3954735 -3.447844 0
13.924179 -5.7183671 0.84078389
2.790693 -1.14214 -0.99426085
3.2981 -1.3498052 -0.98319417
4.0482521 -1.6568182 -0.9690097
5.1835098 -2.1214423 -0.93373829
7.4506788 -3.0493209 -0.89732111
7.873713 -3.2224553 -0.4752031
0 -0 0
13.919047 -5.6966143 0.84005779
2.7669034 -1.1285024 -0.98529857
3.2904365 -1.3420293 -0.98042554
4.0455503 -1.6500081 -0.96788496
5.1765618 -2.1112998 -0.93202639
7.4471707 -3.0373847 -0.89645594
8.2432985 -3.3620915 -0.49726316
0 -0 0
13.918709 -5.6768503 0.8396228
2.7568185 -1.1205059 -0.98122454
3.3129706 -1.3465534 -0.98665434
4.0545959 -1.6479861 -0.96957201
5.1862454 -2.107944 -0.93331069
7.4484415 -3.027411 -0.89616793
8.2906799 -3.3697381 -0.4998754
0 -0 0
13.927963 -5.6610055 0.83976781
2.7787857 -1.125524 -0.98855841
3.3099403 -1.3406639 -0.98526865
4.0518785 -1.6411798 -0.96844733
5.2006831 -2.1064935 -0.93545014
7.4496899 -3.0174351 -0.89587879
8.2923393 -3.3587434 -0.49973041
0 -0 0
13.929981 -5.6422234 0.83947778
2.7379272 -1.1012802 -0.9730733
3.2968845 -1.3261104 -0.98042554
4.0487585 -1.6285377 -0.96675813
5.1747994 -2.0814667 -0.929887
7.4641614 -3.0023198 -0.89674395
8.3221264 -3.3474205 -0.50103652
0 -0 0
12.718975 -5.1159706 0.76575029
2.7805464 -1.1145216 -0.98774111
3.3147783 -1.3286568 -0.98526865
4.0648789 -1.6293182 -0.97013652
5.1892223 -2.079987 -0.93202639
7.4605789 -2.9904108 -0.89587879
8.3454609 -3.3450963 -0.50219762
0 -0 0
12.720328 -5.0986667 0.76546031
2.7727189 -1.1074973 -0.98448437
3.3070621 -1.3209282 -0.98250002
4.0621209 -1.6225187 -0.9690097
5.1964955 -2.075618 -0.93288153
7.471395 -2.9842732 -0.89674395
8.3639698 -3.3407912 -0.50306821
8.4187412 -3.3626685 0
12.724069 -5.0823302 0.76531529
3.3016698 -1.3141507 -0.98042554
4.0664368 -1.6185479 -0.96957201
5.1966166 -2.0683889 -0.93245393
7.4629822 -2.9704616 -0.89530277
8.351099 -3.3239553 -0.50205207
8.4397268 -3.3592315 0
8.4451447 -3.3613882 0.50770599
2.7776825 -1.101704 -0.98529857
3.2915883 -1.3055329 -0.97696275
4.06603 -1.6126974 -0.9690097
5.1991119 -2.0621085 -0.93245393
7.4809871 -2.9671617 -0.89703196
8.3647709 -3.3176942 -0.50263262
0 -0 0
8.4443655 -3.3492634 0.50741541
2.7254903 -1.079098 -0.96655357
3.3040462 -1.3081645 -0.98042554
4.071733 -1.6121131 -0.97013652
5.200357 -2.0589671 -0.93245393
7.4827781 -2.9626415 -0.89703196
8.3643599 -3.3116844 -0.50248766
0 -0 0
0 -0 0
2.7796748 -1.0966678 -0.98529857
3.3266256 -1.3124568 -0.98665434
4.0784006 -1.6090553 -0.9712612
5.1932893 -2.0489135 -0.93074208
7.4791412 -2.9507527 -0.89616793
8.3586864 -3.2977607 -0.50190711
8.4328871 -3.327035 0
0 -0 0
2.7763929 -1.0914979 -0.98366708
3.3375483 -1.3121078 -0.98942298
4.0637956 -1.5976212 -0.96732265
5.2101002 -2.048274 -0.93331069
7.4875112 -2.9436045 -0.89674395
8.3554077 -3.2848053 -0.50147152
8.4199533 -3.3101804 0
0 -0 0
2.7616072 -1.0818343 -0.97796464
3.3181102 -1.2998393 -0.98319417
4.0704503 -1.5945616 -0.96844733
5.2197351 -2.0447836 -0.93459338
7.5006952 -2.9383287 -0.89789712
8.3811531 -3.2832398 -0.50277817
8.4287891 -3.3019009 0
8.4729748 -3.3192105 0.50828654
2.7974417 -1.0919752 -0.99018681
3.312665 -1.2930914 -0.98111701
4.0771031 -1.5914881 -0.96957201
5.2174239 -2.0366099 -0.93373829
7.5066476 -2.9302032 -0.89818513
8.3802681 -3.271219 -0.50248766
8.4497452 -3.2983391 0
8.4600334 -3.3023551 0.5072704
2.7734272 -1.0787412 -0.98122454
3.3188968 -1.2909049 -0.98250002
4.0719256 -1.5838001 -0.96788496
5.2174907 -2.0293744 -0.93331069
7.5053658 -2.9192572 -0.89760911
8.4035883 -3.2686262 -0.50364876
8.4537249 -3.2881269 0
12.718749 -4.9470339 0.76226747
2.7539809 -1.0673481 -0.9738875
3.3181174 -1.285988 -0.98180854
4.0785704 -1.5807134 -0.9690097
5.2295136 -2.0267794 -0.93502259
7.5112972 -2.9111202 -0.89789712
8.3881493 -3.2509577 -0.50248766
8.4140072 -3.2609794 0
12.712605 -4.9269681 0.76154196
2.7737138 -1.0711429 -0.98040724
3.3266919 -1.2846899 -0.98388571
4.0662603 -1.5702938 -0.96563345
5.2271647 -2.0186076 -0.93416584
7.51722 -2.9029729 -0.89818513
8.3944931 -3.241755 -0.50263262
8.4907694 -3.278935 0
12.711275 -4.9087949 0.76110637
2.7680926 -1.0651304 -0.97796464
3.318876 -1.2770655 -0.98111701
4.0776401 -1.5690293 -0.96788496
0 -0 -0
7.5231428 -2.8948193 -0.89847428
8.3887033 -3.2278769 -0.50205207
8.4267254 -3.2425077 0
12.70992 -4.8906317 0.76067084
2.7716832 -1.0626688 -0.97877884
3.322757 -1.2739516 -0.98180854
4.0747833 -1.5622802 -0.96675813
5.2200451 -2.0013757 -0.93202639
7.529048 -2.886652 -0.89876229
0 -0 -0
12.729114 -4.8803678 0
12.706115 -4.8715496 0.76009029
2.7383299 -1.0460877 -0.96655357
3.3360095 -1.2744114 -0.98526865
4.0814199 -1.5591706 -0.96788496
5.2152634 -1.9923177 -0.93074208
7.5349445 -2.8784747 -0.8990503
0 -0 -0
12.73744 -4.8659148 0
12.711992 -4.8561935 0.76009029
2.7650034 -1.0524507 -0.975519
3.3422408 -1.2721661 -0.98665434
4.078547 -1.5524284 -0.96675813
5.212873 -1.98419 -0.929887
7.5384169 -2.8693681 -0.8990503
8.3080711 -3.1623237 -0.49653706
12.74574 -4.8514457 0
12.712998 -4.8389831 0.75980026
2.8148017 -1.0675135 -0.99263245
3.3250096 -1.2610098 -0.98111701
4.085176 -1.5493029 -0.96788496
5.2104616 -1.9760674 -0.92903024
7.5491362 -2.8630097 -0.89991546
7.954762 -3.0168433 -0.4752031
0 -0 0
12.711545 -4.8208532 0.75936472
2.774477 -1.0483875 -0.97796464
3.3335736 -1.2596525 -0.98319417
4.091794 -1.5461602 -0.9690097
5.2176528 -1.9715867 -0.929887
7.555007 -2.8547993 -0.90020347
7.8125591 -2.9521201 -0.46649471
0 -0 0
12.712503 -4.8036547 0.75907469
2.7919269 -1.0511278 -0.98366708
3.3468304 -1.2600425 -0.98665434
4.074636 -1.5340527 -0.96450657
5.2176313 -1.9643772 -0.92945939
7.551187 -2.8429337 -0.8993383
7.8404431 -2.9518352 -0.46794641
12.743757 -4.7978759 0
12.711001 -4.7855434 0.75863916
2.7700577 -1.0390747 -0.975519
3.3530438 -1.2577581 -0.98803735
4.0907655 -1.5344844 -0.96788496
5.2079763 -1.9535607 -0.92731833
7.5691514 -2.8392596 -0.90106863
7.8342724 -2.938709 -0.46736583
12.742233 -4.7797308 0
12.716774 -4.7701812 0.75863916
2.8060327 -1.0487032 -0.98774111
3.3498657 -1.2519509 -0.98665434
4.0926166 -1.5295403 -0.96788496
5.2175493 -1.9499633 -0.92860264
7.5604649 -2.8255851 -0.89962745
7.8621531 -2.9383357 -0.46881697
12.750434 -4.7652411 0
12.715224 -4.7520819 0.75820357
2.7557242 -1.0280044 -0.96981347
3.3294687 -1.242036 -0.98042554
4.0863957 -1.5244024 -0.96619576
5.2211294 -1.9477072 -0.92903024
7.5718546 -2.8246295 -0.90077949
7.8760972 -2.9381251 -0.4695425
12.753311 -4.7575369 0
12.713228 -4.7425847 0.75791359
2.777813 -1.0324227 -0.97714734
3.3450723 -1.2432544 -0.98457718
4.1001406 -1.5238888 -0.9690097
5.2258921 -1.9422939 -0.92945939
7.5873914 -2.8199863 -0.9022218
7.867466 -2.9240808 -0.46881697
12.744418 -4.7366853 0
12.709208 -4.7235985 0.75733304
2.7883296 -1.0324985 -0.98040724
3.3465719 -1.2392117 -0.98457718
4.1043596 -1.519815 -0.96957201
5.2306399 -1.9368685 -0.929887
7.5835142 -2.8081212 -0.90135664
7.8563776 -2.9091604 -0.46794641
12.742808 -4.7185707 0
12.707593 -4.7055306 0.75689745
2.7872586 -1.0282739 -0.97959304
3.3410034 -1.2325612 -0.98250002
4.1085839 -1.5157366 -0.97013652
5.2305703 -1.9296594 -0.92945939
7.5844774 -2.7980614 -0.90106863
7.852571 -2.8969665 -0.46751085
12.748501 -4.7031703 0
12.710834 -4.6892743 0.75675249
2.8000963 -1.0291679 -0.98366708
3.335433 -1.2259295 -0.98042554
4.1008725 -1.5072647 -0.96788496
5.2280746 -1.9215649 -0.92860264
7.5902781 -2.7897866 -0.90135664
7.8389907 -2.8812001 -0.46649471
12.749293 -4.6859689 0
12.706735 -4.6703262 0.75617194
2.8036652 -1.026636 -0.98448437
3.3321958 -1.2201715 -0.97903991
4.100307 -1.5014358 -0.96732265
5.2279844 -1.9143646 -0.92817509
7.5936437 -2.7806132 -0.90135664
7.8400288 -2.8708336 -0.46634972
12.742729 -4.6660867 0
12.707484 -4.6531806 0.75588137
2.8072233 -1.0240939 -0.98529857
3.3548768 -1.2238815 -0.98526865
4.0997243 -1.4956069 -0.96675813
5.2327032 -1.9089251 -0.92860264
7.5994253 -2.7723212 -0.90164465
7.8190856 -2.8524547 -0.46489862
12.748358 -4.6506863 0
12.70822 -4.6360435 0.75559139
2.7852249 -1.012257 -0.97714734
3.3445661 -1.215543 -0.98180854
4.1063094 -1.4923896 -0.96788496
5.2253551 -1.8990936 -0.92689079
7.6003413 -2.7622542 -0.90135664
7.7492666 -2.8163793 -0.46054471
12.744184 -4.6317229 0
12.708923 -4.6189079 0.75530082
2.8213077 -1.0215133 -0.98937261
3.3601813 -1.2166238 -0.98596019
4.1009398 -1.4848309 -0.96619576
5.2373009 -1.8962741 -0.92860264
7.6061029 -2.7539482 -0.90164465
7.5498824 -2.7335925 -0.44849855
12.744873 -4.6145473 0
12.712054 -4.6026645 0.7551558
2.7992945 -1.0097189 -0.98122454
3.3474939 -1.2074569 -0.98180854
4.1146793 -1.4841845 -0.9690097
5.2371759 -1.8890743 -0.92817509
7.6118555 -2.7456326 -0.90193266
7.4334211 -2.6812704 -0.44138741
12.747993 -4.5982618 0
12.702945 -4.5820127 0.75428528
2.8098166 -1.009679 -0.98448437
3.3465917 -1.2025638 -0.98111701
4.1140809 -1.4783533 -0.96844733
5.2467046 -1.88535 -0.92945939
7.6176085 -2.7373104 -0.9022218
7.3975296 -2.6582272 -0.43906519
12.741297 -4.5784554 0
12.718254 -4.5701752 0.75486583
2.8133593 -1.0071154 -0.98529857
3.3504021 -1.1993638 -0.98180854
4.1134744 -1.4725255 -0.96788496
5.2393112 -1.8755482 -0.92774755
7.6282091 -2.7307167 -0.90308583
7.3762674 -2.6405275 -0.43761349
12.744371 -4.5621805 0
12.704195 -4.5477982 0.75370467
2.7912896 -0.99541169 -0.97714734
3.3518488 -1.1953146 -0.98180854
4.1128597 -1.4667015 -0.96732265
5.2464046 -1.870939 -0.92860264
7.6290693 -2.7206295 -0.90279782
7.372117 -2.6289968 -0.43717849
12.749875 -4.5467782 0
12.694991 -4.5272059 0.75283355
2.8251009 -1.0036231 -0.98855841
3.3627467 -1.194623 -0.98457718
4.1194129 -1.4634303 -0.96844733
5.2462449 -1.86374 -0.92817509
7.6396651 -2.7140076 -0.90366298
7.3752885 -2.6200871 -0.43717849
12.740641 -4.5261402 0
12.673526 -4.5022974 0.75123745
2.7983513 -0.99031401 -0.97877884
3.3452675 -1.1838632 -0.97903991
4.1235709 -1.4592986 -0.9690097
5.2557554 -1.8599696 -0.92945939
7.6526923 -2.7082262 -0.90481615
7.371098 -2.6085722 -0.43674293
12.736287 -4.5072694 0
8.6398067 -3.0575581 0.51191485
2.7902219 -0.98364502 -0.975519
3.3443317 -1.1789869 -0.97834837
4.1277256 -1.4551591 -0.96957201
5.2458868 -1.8493477 -0.92731833
7.6657162 -2.7024171 -0.90596932
7.3889437 -2.6048458 -0.43761349
12.731906 -4.4884157 0
8.6189842 -3.0384753 0.51046318
2.8380482 -0.99665159 -0.99181831
3.3646903 -1.1815951 -0.98388571
4.1246905 -1.4484882 -0.96844733
5.2505469 -1.8438607 -0.92774755
7.67629 -2.6957211 -0.90683335
7.3651242 -2.5864475 -0.43601739
12.734867 -4.472167 0
8.6103926 -3.0237548 0.50973767
2.8246505 -0.99003005 -0.98692691
3.3559332 -1.1762428 -0.98111701
4.1159735 -1.4426342 -0.96619576
5.24681 -1.8389884 -0.92689079
7.6681633 -2.6876643 -0.90568131
7.3838439 -2.5880113 -0.43703294
7.405838 -2.5957203 0
8.6318359 -3.0254281 0.51089877
2.8211823 -0.98498845 -0.98529857
3.3763006 -1.1788026 -0.98665434
4.1345081 -1.4435235 -0.97013652
5.2490282 -1.8326473 -0.92689079
7.6738448 -2.6792486 -0.90596932
7.3747015 -2.5748057 -0.43630737
7.4138875 -2.5884871 0
8.61831 -3.0089996 0.50988263
2.8457103 -0.9896962 -0.99344665
3.3658769 -1.1706024 -0.98319417
4.1362495 -1.4385267 -0.97013652
5.2488165 -1.8254611 -0.92646325
7.6843982 -2.6725206 -0.90683335
7.3949895 -2.5718687 -0.43732351
7.3776808 -2.5658488 0
8.6194878 -2.9977312 0.50973767
2.8539126 -0.98868501 -0.99589235
3.3506927 -1.1607852 -0.97834837
4.1427817 -1.4351897 -0.9712612
5.2558651 -1.8207967 -0.92731833
7.6754041 -2.6590011 -0.90539217
7.3686285 -2.5527244 -0.43558183
8.7283049 -3.0237589 0
8.6132822 -2.9839115 0.50915706
2.8107111 -0.96991646 -0.98040724
3.3734345 -1.1641003 -0.98457718
4.1373048 -1.4276955 -0.96957201
5.2629189 -1.8161211 -0.92817509
7.683506 -2.6514139 -0.90596932
7.364336 -2.5412753 -0.43514627
8.707346 -3.004719 0
8.6168814 -2.9735019 0.50915706
2.809546 -0.9657169 -0.97959304
3.3724685 -1.1592085 -0.98388571
4.1390266 -1.4226954 -0.96957201
5.2651095 -1.8097606 -0.92817509
7.6818075 -2.640445 -0.90539217
7.3649464 -2.5315311 -0.43500125
8.6912899 -2.9874313 0
8.6180134 -2.962244 0.5090121
2.8340898 -0.97032583 -0.98774111
3.3738666 -1.1551328 -0.98388571
4.1431537 -1.4185185 -0.97013652
5.2648664 -1.8025666 -0.92774755
7.6849923 -2.631161 -0.90539217
7.3753772 -2.525156 -0.43543682
8.6875048 -2.9743977 0
8.6289635 -2.9543545 0.50944763
2.8352602 -0.96690071 -0.98774111
3.3752599 -1.1510552 -0.98388571
4.1448646 -1.4135114 -0.97013652
5.2743225 -1.7986871 -0.92903024
7.6881661 -2.6218734 -0.90539217
7.3808804 -2.5170805 -0.43558183
8.6763086 -2.9588566 0
8.6448221 -2.9481189 0.5101732
2.8668568 -0.97381067 -0.99833804
3.3695195 -1.1445546 -0.98180854
4.1441569 -1.4076824 -0.96957201
5.2716355 -1.7906631 -0.92817509
7.6888819 -2.6117506 -0.90510416
7.4085155 -2.516516 -0.43703294
8.6577015 -2.9408381 0
8.650836 -2.9385061 0.51031822
2.8329105 -0.95846343 -0.98611277
3.3875375 -1.1461112 -0.98665434
4.1434503 -1.4018605 -0.9690097
5.2762246 -1.7851139 -0.92860264
7.6993847 -2.6049459 -0.90596932
7.4312415 -2.5142245 -0.43819407
8.6612482 -2.9303749 0
8.6666842 -2.932214 0.51104379
2.8410954 -0.95740831 -0.98855841
3.3841605 -1.1404134 -0.98526865
4.1427355 -1.3960422 -0.96844733
5.2881083 -1.7820165 -0.93031454
7.6927223 -2.5923369 -0.90481615
7.4736724 -2.5185201 -0.44051629
8.6869764 -2.9273863 0
8.6874599 -2.9275494 0.51205987
2.8141325 -0.94453728 -0.97877884
3.3712702 -1.1315353 -0.98111701
4.1420126 -1.3902278 -0.96788496
5.2853951 -1.7739934 -0.92945939
7.6982985 -2.5838621 -0.90510416
7.5087318 -2.5202358 -0.44240296
7.6814675 -2.5782127 0
8.7057667 -2.9220092 0.51293045
2.8176136 -0.94191915 -0.97959304
3.3964238 -1.1354135 -0.98803735
4.1533289 -1.3884444 -0.97013652
5.2899671 -1.7684189 -0.929887
7.6940536 -2.5720973 -0.904239
7.5536642 -2.5251656 -0.4448702
7.7166619 -2.5796552 0
8.7166872 -2.9139602 0.51336598
2.8304725 -0.94241709 -0.98366708
3.3787508 -1.1249685 -0.98250002
4.1550035 -1.3834249 -0.97013652
5.2945333 -1.7628359 -0.93031454
7.7045202 -2.5652506 -0.90510416
7.5838313 -2.5250669 -0.44646686
7.7345839 -2.5752604 0
8.7128029 -2.9009624 0.51293045
2.8151941 -0.93355292 -0.97796464
3.3824959 -1.121677 -0.98319417
4.156672 -1.3784034 -0.97013652
5.2893472 -1.7540123 -0.92903024
7.7027092 -2.5543127 -0.90452814
7.6066079 -2.5224445 -0.44762799
7.7401581 -2.5667312 0
8.7015085 -2.8855269 0.51205987
2.8045788 -0.92627275 -0.9738875
3.3933685 -1.1207333 -0.98596019
4.1438537 -1.3685971 -0.96675813
5.2987776 -1.7500359 -0.93031454
7.7082434 -2.545814 -0.90481615
7.6441884 -2.5246584 -0.44965965
7.7506695 -2.5598261 0
8.7049885 -2.8750107 0.51205987
2.8338702 -0.93215072 -0.98366708
3.3780448 -1.1111472 -0.98111701
4.155159 -1.3667649 -0.9690097
5.2960162 -1.7420294 -0.92945939
7.7186871 -2.5389235 -0.90568131
7.6793194 -2.5259743 -0.45154634
7.7587061 -2.5520871 0
8.7035151 -2.862865 0.51176929
2.8156462 -0.92427152 -0.97714734
3.4001658 -1.1161475 -0.98734581
4.1608167 -1.3658408 -0.97013652
5.3068237 -1.7420321 -0.9311713
7.7251301 -2.5358717 -0.90625733
7.7104702 -2.5310595 -0.45328802
7.7750778 -2.5522678 0
8.6706839 -2.8462617 0.50973767
2.8332081 -0.92624563 -0.98285288
3.3848178 -1.1065805 -0.98250002
4.1672897 -1.3623898 -0.9712612
5.30404 -1.7340215 -0.93031454
7.7355661 -2.5289474 -0.90712249
7.7357488 -2.5290072 -0.45459414
7.7855797 -2.5452981 0
8.6765842 -2.8365893 0.50988263
3.3861525 -1.1024898 -0.98250002
4.1616821 -1.3549929 -0.96957201
5.3085699 -1.7284054 -0.93074208
7.7410731 -2.5203986 -0.9074105
7.7758632 -2.5317259 -0.45677134
7.8133912 -2.5439446 0
8.677537 -2.8252997 0.50973767
2.8565958 -0.9262566 -0.99018681
3.3803296 -1.0960783 -0.98042554
4.1633167 -1.3499633 -0.96957201
5.3082151 -1.7211988 -0.93031454
7.744113 -2.5110433 -0.9074105
7.8011599 -2.529541 -0.45807746
7.8560691 -2.5473452 0
8.6809444 -2.8148127 0.50973767
2.8224394 -0.91141385 -0.97796464
3.3935862 -1.0958469 -0.98388571
4.162529 -1.3441516 -0.9690097
5.3176217 -1.7171508 -0.93159884
7.7471414 -2.5016842 -0.9074105
7.8412948 -2.5320878 -0.46025413
7.8715215 -2.5418487 0
8.6793985 -2.8027258 0.50944763
2.8705881 -0.92313319 -0.99426085
3.3925219 -1.0909783 -0.98319417
4.1641502 -1.3391211 -0.9690097
5.3123589 -1.7083658 -0.93031454
7.7378492 -2.488363 -0.90596932
7.8715615 -2.5313625 -0.46185082
7.9340482 -2.5514574 0
8.6877213 -2.7938259 0.50973767
2.8740621 -0.92041993 -0.99507815
3.3818843 -1.0830504 -0.97973138
4.1706095 -1.33564 -0.97013652
5.329083 -1.7066418 -0.93288153
7.735919 -2.4774323 -0.90539217
7.8993559 -2.529773 -0.46330193
7.9693437 -2.5521865 0
8.6886187 -2.7825348 0.50959265
2.8008969 -0.88953161 -0.96899927
3.3892787 -1.0763947 -0.98111701
4.1738248 -1.3255574 -0.97013652
5.3234148 -1.6906533 -0.9311713
7.7591419 -2.4642115 -0.9074105
7.9376392 -2.5209 -0.46518859
8.0325308 -2.5510364 0
12.679881 -4.0269799 0.74310964
2.8161044 -0.89061689 -0.9738875
3.3881872 -1.0715429 -0.98042554
4.1705737 -1.3189793 -0.9690097
5.3254538 -1.6842198 -0.9311713
7.7695146 -2.4571748 -0.90827566
7.9704094 -2.5207095 -0.46693027
8.1249361 -2.5695798 0
12.677312 -4.0093074 0.74267465
2.8384025 -0.89389759 -0.98122454
3.4014416 -1.0712154 -0.98388571
4.1770163 -1.315467 -0.97013652
5.3299308 -1.6785542 -0.93159884
7.7774072 -2.4493375 -0.90885168
7.9982386 -2.5188839 -0.46838194
8.3141918 -2.6183867 0
12.677186 -3.9924238 0.74238408
2.8111804 -0.88159227 -0.97144496
3.4170918 -1.0716075 -0.98803735
4.1713266 -1.3081372 -0.96844733
5.3221574 -1.6690402 -0.929887
7.7803612 -2.4399381 -0.90885168
8.0384598 -2.5208786 -0.47055861
8.5234518 -2.6729732 0
12.677047 -3.9755495 0.7420941
2.8051634 -0.87598395 -0.96899927
3.3944414 -1.060001 -0.98111701
4.1729045 -1.3030961 -0.96844733
5.333972 -1.665669 -0.93159884
7.7857699 -2.4313056 -0.90913969
8.0613432 -2.5173602 -0.47171974
8.5515127 -2.6704283 0
12.67192 -3.9571307 0.74151355
2.843982 -0.88433599 -0.98203874
3.390924 -1.0544075 -0.97973138
4.181757 -1.300317 -0.97013652
5.3286242 -1.6569352 -0.93031454
7.7862349 -2.421129 -0.90885168
8.0891867 -2.5153317 -0.47317085
8.58953 -2.6709135 0
12.681649 -3.9433577 0.74180353
2.8592103 -0.88528371 -0.98692691
3.3993874 -1.0525362 -0.98180854
4.180891 -1.2945095 -0.96957201
5.3306227 -1.6504954 -0.93031454
7.7693882 -2.4055989 -0.90654534
8.1071177 -2.5101686 -0.47404197
8.6573839 -2.6805449 0
12.65414 -3.9180412 0.73991686
2.8413825 -0.87600285 -0.98040724
3.4054561 -1.0499077 -0.98319417
4.1800265 -1.2887089 -0.9690097
5.332613 -1.6440532 -0.93031454
7.7599335 -2.3924 -0.90510416
8.1424227 -2.5103223 -0.47592863
8.6879759 -2.6785169 0
12.658864 -3.9027483 0.73991686
2.8188157 -0.86531711 -0.9722591
3.3923278 -1.0413733 -0.97903991
4.18887 -1.285895 -0.97069889
5.3468633 -1.6413746 -0.93245393
7.7504578 -2.3792274 -0.90366298
8.1529045 -2.5027702 -0.4763642
8.6862249 -2.6664884 0
12.680962 -3.8927884 0.740933
3.3977585 -1.0407946 -0.98042554
4.1823554 -1.2811307 -0.9690097
5.350306 -1.638895 -0.93288153
7.7716784 -2.380605 -0.90596932
8.1668358 -2.5016487 -0.47708976
8.6330948 -2.6444724 0
12.668408 -3.8805616 0.74006242
2.8369303 -0.8652547 -0.97796464
3.4014108 -1.0374194 -0.98111701
4.1814723 -1.2753357 -0.96844733
5.3449235 -1.6301845 -0.93159884
7.7794924 -2.3727202 -0.90654534
8.1872435 -2.4970829 -0.47810534
8.5367126 -2.6036699 0
12.678054 -3.866766 0.74035239
2.8829012 -0.87546957 -0.99344665
3.4098659 -1.0354964 -0.98319417
4.1830101 -1.2702823 -0.96844733
5.3444352 -1.6229799 -0.9311713
7.7897806 -2.3655741 -0.9074105
8.1852865 -2.4856799 -0.47781533
12.708246 -3.8591969 0
12.675256 -3.8491783 0.73991686
2.8863204 -0.87270015 -0.99426085
3.4303164 -1.0371814 -0.98872882
4.1894016 -1.2666963 -0.96957201
5.3537569 -1.6187477 -0.93245393
