# .PCD v0.7 - Point Cloud Data file format
VERSION 0.7
FIELDS x y z
SIZE 4 4 4
TYPE F F F
COUNT 1 1 1
WIDTH 1602
HEIGHT 1
VIEWPOINT 0 0 0 1 0 0 0
POINTS 1602
DATA ascii
-1.8806754 4.8179483 0.28888807
-2.129319 5.4355292 -0.97323132
-1.8612628 4.7512603 -0.5687663
-1.8827481 4.8061061 -0.28831419
-1.8783441 4.7948637 0
-1.8883893 4.8205066 0.28917807
-2.1349432 5.4305563 -0.9728021
-1.8651079 4.7441888 -0.5681892
-1.8895037 4.8062439 -0.28845921
-1.883185 4.7901711 0
-1.8980154 4.8278942 0.28975862
-2.1471579 5.4423051 -0.97537071
-1.8727392 4.7467484 -0.5687663
-1.8924479 4.7967033 -0.28802365
-1.8899258 4.7903104 0
-1.8981277 4.8110995 0.28888807
-2.1565645 5.4468603 -0.9766534
-1.8803759 4.7492871 -0.56934237
-1.901113 4.8016634 -0.28845921
-1.8928375 4.7807617 0
-1.9058508 4.8136296 0.28917807
-2.1517735 5.4156318 -0.97151941
-1.8870709 4.7494226 -0.56963146
-1.9021171 4.787291 -0.28773364
-1.9005365 4.7833133 0
-1.9145451 4.8185701 0.28961363
-2.1659181 5.4320946 -0.97494155
-1.8908905 4.7423291 -0.56905431
-1.9175223 4.8091211 -0.28918475
-1.914989 4.8027678 0
-1.9184431 4.8114305 0.28932363
-2.16676 5.4151783 -0.97237456
-1.9014226 4.7520456 -0.57049555
-1.9242998 4.8092203 -0.2893303
-1.9169235 4.7907853 0
-1.9252197 4.8115191 0.28946862
-2.1780834 5.4244647 -0.97451395
-1.9119811 4.7617431 -0.57193673
-1.9291384 4.8044734 -0.28918475
-1.9217421 4.7860527 0
-1.9271592 4.7995439 0.28888807
-2.19327 5.4432564 -0.97836524
-1.9129009 4.7474365 -0.57049555
-1.940771 4.8166041 -0.29005587
-1.9255764 4.7788949 0
-1.9339273 4.7996197 0.28903306
-2.1873367 5.4096656 -0.9728021
-1.9302706 4.7738962 -0.573955
-1.9456125 4.8118396 -0.28991032
-1.9284256 4.7693334 0
-1.9387522 4.7948728 0.28888807
-2.1944594 5.4178605 -0.97451395
-1.9312142 4.7679391 -0.57337898
-1.9485193 4.8106637 -0.28991032
-1.9361908 4.7802258 0
-1.9494526 4.8129678 0.29004917
-2.2000387 5.4128294 -0.9740864
-1.9340513 4.7584119 -0.57251382
-1.9474846 4.7914619 -0.28889474
-1.9507838 4.7995791 0
-1.9562442 4.8130136 0.29019418
-2.2046404 5.4054174 -0.97323132
-1.9388237 4.7536788 -0.57222581
-1.9522923 4.7867017 -0.28874975
-1.9555998 4.7948112 0
-1.9620584 4.8106465 0.29019418
-2.2150557 5.4122438 -0.97494155
-1.9445661 4.7513323 -0.57222581
-1.9708687 4.8155999 -0.29063642
-1.9594185 4.7876229 0
-1.968853 4.8106747 0.29033917
-2.2264726 5.4214435 -0.97708261
-1.9561994 4.7633305 -0.573955
-1.9737236 4.8060017 -0.29020086
-1.9652021 4.7852516 0
-1.9766405 4.8131042 0.29062974
-2.2356439 5.406558 -0.97537071
-1.9647387 4.7514162 -0.5730899
-1.9922836 4.8180289 -0.291217
-1.9727825 4.7708688 0
-1.9833024 4.7963095 0.28990418
-2.248076 5.4180746 -0.9779377
-1.9774182 4.7657638 -0.57510817
-1.9891384 4.7940106 -0.28991032
-1.9805424 4.7732935 0
-1.9940745 4.8059072 0.29062974
-2.2526495 5.4106188 -0.97708261
-1.9921215 4.7848592 -0.57770252
-1.9979267 4.7988029 -0.29034588
-1.991309 4.7829075 0
-1.9978807 4.7986922 0.29033917
-2.2453301 5.3747268 -0.97109026
-1.9929174 4.7705178 -0.57626134
-2.0047243 4.7987804 -0.29049087
-1.9970868 4.780498 0
-2.007684 4.8058648 0.29091975
-2.2200699 5.2962594 -0.95739692
-1.9986802 4.768106 -0.57626134
-2.0085142 4.7915664 -0.29020086
-2.006886 4.7876821 0
-2.0134895 4.8034358 0.29091975
-2.2224867 5.2841082 -0.95568508
-2.0054419 4.7680697 -0.57654941
-2.0223618 4.8082976 -0.29136199
-2.0076256 4.7732615 0
-2.0172791 4.7962132 0.29062974
-2.2657993 5.3689246 -0.97151941
-2.0061743 4.7537303 -0.57510817
-2.0251381 4.798666 -0.29092643
-2.0204718 4.7876091 0
-2.0250916 4.7985559 0.29091975
-2.2953043 5.4205451 -0.98136145
-2.0129244 4.7536821 -0.57539624
-2.036 4.8081775 -0.29165199
-2.0293007 4.792356 0
-2.024811 4.7817535 0.29004917
-2.3159039 5.4508405 -0.98735219
-2.0237229 4.7631469 -0.57683742
-2.0326643 4.7841921 -0.29034588
-2.0289857 4.7755337 0
-2.0305872 4.7793031 0.29004917
-2.3204772 5.4433198 -0.98649704
-2.0345511 4.7726016 -0.57827967
-2.0465956 4.8008552 -0.29150698
-2.0418956 4.7898297 0
-2.0302448 4.7624998 0.28917807
-2.337146 5.4641099 -0.99077588
-2.0352278 4.7582426 -0.57683742
-2.0595491 4.8151045 -0.29252312
-2.0425653 4.7753973 0
-2.0268021 4.7385435 0.28787196
-2.3376744 5.4471321 -0.98820895
-2.051178 4.7795529 -0.57972085
-2.064338 4.8102174 -0.29237753
-2.0503886 4.7777138 0
-2.0274034 4.7241545 0.28714639
-2.3483152 5.4537349 -0.98992079
-2.0487683 4.7580662 -0.57741451
-2.0670686 4.8005667 -0.29194254
-2.0582166 4.7800088 0
-2.0464685 4.7527246 0.28903306
-2.3650823 5.4744544 -0.99419963
-2.0637472 4.7769542 -0.58000886
-2.0780194 4.8099904 -0.2926681
-2.0670881 4.784688 0
-2.0429358 4.7287827 0.28772694
-2.3798628 5.4904351 -0.99762338
-2.0664306 4.7673354 -0.57914376
-2.0796962 4.7979393 -0.29208755
-2.0801103 4.7988944 0
-2.0527818 4.735847 0.28830752
-2.3813772 5.4757876 -0.99548393
-2.069098 4.7577262 -0.57827967
-2.0854919 4.795423 -0.29208755
-2.0807188 4.7844472 0
-2.0761187 4.7738695 0.29077473
-2.3869662 5.4705553 -0.99505639
-2.0769119 4.7599592 -0.57885569
-2.0975177 4.8071847 -0.29295811
-2.0917013 4.7938538 0
-2.0787668 4.7642102 0.29033917
-2.3954101 5.4808712 -0.99719584
-2.0839307 4.7681837 -0.58000886
-2.1035445 4.8130617 -0.29339367
-2.0925145 4.7878242 0
-2.0816448 4.7629538 0.29033917
-2.4040906 5.4826703 -0.99805093
-2.094883 4.777504 -0.5814501
-2.1072736 4.8057618 -0.29310367
-2.0920255 4.770987 0
-2.0759232 4.7342649 0.28874305
-2.4138157 5.4868131 -0.99933523
-2.087115 4.7441936 -0.57770252
-2.1172645 4.8127255 -0.29368421
-2.0998869 4.7732248 0
-2.0900128 4.7507806 0.28990418
-2.4162977 5.4744983 -0.99762338
-2.1074655 4.7747912 -0.58173811
-2.1241262 4.8125386 -0.29382923
-2.1088064 4.7778292 0
-2.0999486 4.7577605 0.29048473
-2.1100948 4.7651534 -0.58087403
-2.130991 4.8123422 -0.29397422
-2.1093061 4.7633724 0
-2.1099043 4.7647233 0.29106531
-2.1169 4.7649617 -0.58116204
-2.1336381 4.8026376 -0.29353866
-2.1235132 4.7798471 0
-2.1030004 4.7336745 0.28932363
-2.123708 4.7647605 -0.5814501
-2.144732 4.8119297 -0.29426476
-2.1356461 4.7915449 0
-2.1267009 4.7714753 0.29179084
-2.1305184 4.7645497 -0.58173811
-2.1558471 4.8211932 -0.29499033
-2.1371846 4.7794576 0
-2.1292815 4.7617836 0.29135528
-2.1341586 4.7572565 -0.58116204
-2.1563542 4.8067327 -0.29426476
-2.1450865 4.7816162 0
-2.1360962 4.7615757 0.2915003
-2.143091 4.7617526 -0.5820272
-2.1706879 4.823071 -0.29542533
-2.1530011 4.783772 0
-2.1482487 4.7732129 0.29237142
-2.1467121 4.7544403 -0.5814501
-2.172241 4.8109808 -0.29484534
-2.1652033 4.7953939 0
-2.1561513 4.7753458 0.2926614
-2.1599269 4.7683377 -0.58346838
-2.182337 4.817811 -0.29542533
-2.1699233 4.7904058 0
-2.1619198 4.772737 0.2926614
-2.1635449 4.7610102 -0.58289129
-2.187083 4.8128071 -0.29528034
-2.1703274 4.7759361 0
-2.1666112 4.7677579 0.29251641
-2.170372 4.7607527 -0.58318037
-2.190743 4.8054371 -0.29499033
-2.1814935 4.7851481 0
-2.1745241 4.7698607 0.29280642
-2.1782722 4.7628264 -0.58375639
-2.2019506 4.8145995 -0.2957159
-2.1916034 4.7919755 0
-2.1846089 4.7766819 0.29338697
-2.1818705 4.7554941 -0.58318037
-2.201267 4.7977695 -0.29484534
-2.1908784 4.7751269 0
-2.1892965 4.7716789 0.29324198
-2.1800439 4.7364049 -0.58116204
-2.1896794 4.7573395 -0.29252312
-2.2097042 4.8008451 0
-2.193975 4.7666721 0.29309696
-2.1901026 4.7431602 -0.58231521
-2.2019598 4.7688403 -0.29339367
-2.2078695 4.7816391 0
-2.2019095 4.7687311 0.29338697
-0 0 -0
-2.1882212 4.7240801 -0.58029693
-2.2077203 4.7661762 -0.29339367
-2.2114558 4.7742405 0
-2.2098565 4.7707872 0.29367754
-0 0 -0
-2.1982875 4.7308149 -0.5814501
-2.2189517 4.7752848 -0.29411921
-2.2205141 4.7786474 0
-2.2156193 4.7681136 0.29367754
-0 0 -0
-2.2072816 4.7351904 -0.58231521
-2.2291114 4.782021 -0.29469979
-2.2229869 4.7688823 0
-2.2246695 4.7724919 0.29411253
-2.2173839 4.7418919 -0.58346838
-2.2414942 4.7934513 -0.29557088
-2.2375667 4.7850528 0
-2.2304344 4.7698002 0.29411253
-2.2329969 4.7602816 -0.58606273
-2.2494893 4.7954397 -0.29586089
-2.2411385 4.7776375 0
-2.2417169 4.7788711 0.29483864
-2.2365468 4.7529039 -0.58548671
-2.2586021 4.7997742 -0.29629645
-2.252449 4.7866979 0
-2.2452748 4.771452 0.29454809
-2.235007 4.7421932 -0.58433354
-2.2570705 4.7890067 -0.2957159
-2.2642167 4.8041697 0
-2.254806 4.7842021 0.29541919
-2.2473664 4.7535143 -0.58606273
-2.2639649 4.7886229 -0.29586089
-2.2733538 4.8084817 0
-2.2683563 4.7979112 0.29643476
-2.2442417 4.7320995 -0.58375639
-2.2775447 4.8023205 -0.296877
-2.2858555 4.8198447 0
-2.2652442 4.7763844 0.29527363
-2.248848 4.7270513 -0.58346838
-2.2799957 4.7925234 -0.29644147
-2.2782612 4.7888775 0
-2.2777138 4.7877269 0.29614475
-2.2523279 4.7196574 -0.58289129
-2.2824264 4.7827277 -0.2960059
-2.2761989 4.7696776 0
-2.2767801 4.7708964 0.29527363
-2.2624962 4.726264 -0.58404446
-2.2938168 4.7916918 -0.29673201
-2.295445 4.7950926 0
-2.2903981 4.7845502 0.29628977
-2.2693281 4.7258654 -0.58433354
-2.2973533 4.7842274 -0.29644147
-2.3001118 4.7899718 0
-2.3029242 4.7958288 0.29716033
-2.2761581 4.7254477 -0.58462155
-2.3110268 4.7978373 -0.29745758
-2.3081543 4.7918739 0
-2.3008273 4.7766623 0.29614475
-2.2863672 4.7320094 -0.58577472
-2.3190811 4.799716 -0.29774755
-2.3252671 4.8125191 0
-2.3111191 4.7832375 0.2967253
-2.2943373 4.7338939 -0.5863508
-2.3305442 4.8085999 -0.29847312
-2.3254063 4.7979984 0
-2.3293598 4.8061562 0.29832143
-2.6129963 5.3748245 -0.99633908
-2.3079727 4.7474036 -0.58836907
-2.3352177 4.8034458 -0.29832813
-2.322099 4.7764606 0
-2.3351655 4.8033381 0.29832143
-2.6071153 5.3462892 -0.99163264
-2.3080401 4.7329898 -0.58692789
-2.3433001 4.8052959 -0.29861867
-2.3415573 4.8017216 0
-2.335274 4.7888374 0.29759589
-2.6271088 5.3708067 -0.9967683
-2.3126218 4.7278762 -0.58663988
-2.3445377 4.7931242 -0.29803813
-2.3404939 4.7848577 0
-2.344485 4.7930169 0.29803142
-2.6392491 5.3791494 -0.99890769
-2.3217475 4.732038 -0.58750391
-2.3480363 4.7856178 -0.29774755
-2.3669059 4.8240771 0
-2.3628619 4.8158345 0.29962754
-2.3274636 4.729229 -0.58750391
-2.3515244 4.7781191 -0.29745758
-2.3819268 4.8398938 0
-2.3595042 4.7943335 0.29846698
-2.3377559 4.7356906 -0.58865708
-2.3572962 4.7752743 -0.29745758
-2.3716474 4.8043456 0
-2.3664448 4.793807 0.298612
-2.333148 4.7120032 -0.58606273
-2.3676765 4.7817369 -0.29803813
-2.3635929 4.7734895 0
-2.3664713 4.7793031 0.29788643
-2.3422925 4.7161326 -0.58692789
-2.3746073 4.7811975 -0.29818311
-2.3600979 4.7519832 0
-2.3733993 4.7787652 0.29803142
-2.6488059 5.3171515 -0.99034834
-2.3537548 4.7248721 -0.58836907
-2.3919668 4.8015785 -0.29963425
-2.3751216 4.7677636 0
-2.3791716 4.7758937 0.29803142
-2.6208081 5.2450604 -0.97751015
-2.3687108 4.7405348 -0.59067541
-2.4024127 4.8079824 -0.3002148
-2.3878627 4.7788634 0
-2.3953927 4.7939334 0.29933754
-2.6271439 5.24189 -0.97751015
-2.384866 4.7584777 -0.59326977
-2.4117143 4.8120475 -0.30065036
-2.3913007 4.7713165 0
-2.3837185 4.7561879 0.29716033
-2.6657591 5.3029318 -0.98949325
-2.3801599 4.7347965 -0.59067541
-2.4256976 4.8253832 -0.30166647
-2.4216096 4.8172517 0
-2.3894637 4.753304 0.29716033
-2.6831958 5.3056288 -0.99120349
-2.4032657 4.7521076 -0.59355778
-2.4443853 4.8334155 -0.30253702
-2.437942 4.8206749 0
-2.4021196 4.7498412 0.29730588
-2.6675439 5.2588911 -0.98307329
-2.4125171 4.7561226 -0.59442294
-2.4455218 4.8211889 -0.30195647
-2.4343467 4.7991576 0
-2.4219627 4.7747436 0.29904756
-2.62538 5.1680264 -0.96638381
-2.4165604 4.7569675 -0.59471095
-2.44961 4.8220253 -0.30210146
-2.456105 4.8348107 0
-2.4213152 4.7663274 0.298612
-2.6817327 5.2631965 -0.9847852
-2.4223065 4.7540445 -0.59471095
-2.4577963 4.8236966 -0.30239204
-2.4465866 4.8016963 0
-2.4306128 4.7703462 0.29904756
-2.4280491 4.7511139 -0.59471095
-2.4671714 4.8276672 -0.3028276
-2.4630444 4.8195915 0
-2.4316452 4.7581506 0.29846698
-2.4385073 4.7573838 -0.59586412
-2.4824805 4.8431726 -0.30398816
-2.4641178 4.8073478 0
-2.4433179 4.7667685 0.29919255
-2.4418912 4.7498374 -0.5952881
-2.4835784 4.8309255 -0.30340758
-2.4770617 4.8182497 0
-2.4526365 4.7707391 0.29962754
-2.4499969 4.7514768 -0.59586412
-2.4917979 4.8325448 -0.30369815
-2.475728 4.8013787 0
-2.4607832 4.7723956 0.29991812
-2.4509838 4.7393231 -0.59471095
-2.4988277 4.8318362 -0.30384314
-2.487504 4.8099399 0
-2.4725149 4.7809567 0.30064365
-2.4567087 4.7363582 -0.59471095
-2.503469 4.826509 -0.30369815
-2.4969101 4.8138638 0
-2.4818804 4.7848878 0.30107921
-2.4803362 4.767807 -0.59903562
-2.509299 4.8234806 -0.30369815
-2.4931161 4.7923732 0
-2.4984519 4.8026299 0.30238533
-2.4837003 4.7602158 -0.59845847
-2.5187325 4.8273582 -0.30413371
-2.5097387 4.8101206 0
-2.5054541 4.801909 0.30253035
-2.4858513 4.7503343 -0.59759337
-2.5221517 4.8197021 -0.30384314
-2.5252023 4.8255315 0
-2.5136662 4.8034868 0.30282089
-2.5024109 4.7679453 -0.60018879
-2.5328038 4.8258548 -0.30442369
-2.5249851 4.810957 0
-2.5194685 4.800446 0.30282089
-2.7191677 5.1657629 -0.97323132
-2.5009391 4.7511816 -0.59845847
-2.5386331 4.8227906 -0.30442369
-2.5307963 4.8079028 0
-2.5288947 4.8042898 0.30325589
-2.6846573 5.0852842 -0.95867962
-2.5127149 4.7595901 -0.59989971
-2.5517397 4.8335114 -0.30529481
-2.5366039 4.804841 0
-2.5334859 4.7989349 0.3031109
-2.6787901 5.0593543 -0.95440072
-2.5208869 4.761127 -0.6004768
-2.5600076 4.8350129 -0.30558482
-2.5424078 4.8017726 0
-2.5417166 4.8004675 0.30340144
-2.6764727 5.0402408 -0.95140457
-2.5242095 4.7535043 -0.59989971
-2.5719402 4.8433886 -0.30631039
-2.5433257 4.7895031 0
-2.5450757 4.7927985 0.3031109
-2.697041 5.0641928 -0.95654017
-2.5214441 4.734477 -0.59788245
-2.5631332 4.8127561 -0.30456871
-2.5540044 4.7956147 0
-2.5606363 4.8080678 0.30427203
-2.6971123 5.0496106 -0.95440072
-2.541786 4.7588038 -0.60134196
-2.5787404 4.8279915 -0.30572981
-0 0 0
-2.5652211 4.80268 0.30412701
-2.7104871 5.0599294 -0.95696938
-2.545089 4.7511649 -0.60076481
-2.5821204 4.8202953 -0.30543983
-2.5840158 4.8238335 0
-2.5771561 4.8110275 0.30485258
-2.716599 5.0566506 -0.95696938
-2.5569472 4.7594767 -0.60220605
-2.5940905 4.8286147 -0.30616537
-2.5935388 4.8275876 0
-2.5841959 4.8101969 0.30499756
-2.7312269 5.0691776 -0.95996392
-2.5565634 4.7450008 -0.60076481
-2.5949931 4.8163266 -0.30558482
-2.593199 4.8129969 0
-2.5863123 4.8002148 0.30456257
-2.7446744 5.0794287 -0.96253252
-2.5647564 4.7464633 -0.60134196
-2.610693 4.8314757 -0.30674595
-2.5977767 4.8075724 0
-2.5958128 4.8039379 0.30499756
-2.7752669 5.1212392 -0.97109026
-2.5791125 4.7592726 -0.60335916
-2.6128137 4.8214622 -0.30631039
-2.6184633 4.8318877 0
-2.6028523 4.8030801 0.30514258
-2.7839069 5.1223974 -0.97194701
-2.5848613 4.7561531 -0.60335916
-2.6186376 4.8183012 -0.30631039
-2.6230536 4.826427 0
-2.608654 4.7999315 0.30514258
-2.802953 5.1500244 -0.97751015
-2.5889695 4.7568603 -0.60364723
-2.6277578 4.8281279 -0.30703592
-2.6234832 4.8202739 0
-2.6177678 4.809773 0.30586869
-2.798106 5.1263566 -0.97365886
-2.5860445 4.7378426 -0.60162997
-2.6385694 4.8340726 -0.3076165
-2.6317968 4.8216648 0
-2.622329 4.8043189 0.30572313
-2.8055296 5.1252213 -0.9740864
-2.5992167 4.748323 -0.60335916
-2.6419156 4.8263264 -0.3073265
-2.6338758 4.8116393 0
-2.6268857 4.7988696 0.30557811
-2.8104861 5.1195793 -0.97365886
-2.6061957 4.7474442 -0.60364723
-2.6427436 4.8140197 -0.30674595
-2.6446974 4.8175788 0
-0 0 0
-2.8191438 5.1206732 -0.97451395
-2.6131811 4.7465639 -0.60393631
-2.656075 4.8244762 -0.3076165
-2.6592989 4.8303318 0
-2.6622868 4.8357592 0.30833593
-2.8216105 5.1105275 -0.97323132
-2.6276619 4.7592463 -0.60595357
-2.6619027 4.8212633 -0.3076165
-2.6638768 4.8248386 0
-2.6693828 4.8348112 0.30848092
-2.8427005 5.1340556 -0.97836524
-2.6334107 4.7560678 -0.60595357
-2.6803155 4.8407803 -0.30906817
-2.683573 4.8466635 0
-2.6777377 4.8361244 0.30877092
-2.8451669 5.1238904 -0.97708261
-2.6416693 4.7574091 -0.60653067
-2.6735458 4.8148165 -0.3076165
-2.6856358 4.8365893 0
-2.6835792 4.8328853 0.30877092
-2.8563516 5.1294198 -0.97879446
-2.6537063 4.7655106 -0.60797185
-2.6831555 4.8183951 -0.30805206
-2.6851485 4.8219743 0
-2.6894169 4.8296394 0.30877092
-0 0 -0
-2.847528 5.0990696 -0.97365886
-2.6594625 4.7623005 -0.60797185
-2.6877098 4.8128829 -0.30790704
-2.6947761 4.8255363 0
-2.7015889 4.8377361 0.30949703
-2.8612108 5.1090593 -0.97622585
-2.6551044 4.7410297 -0.6056655
-2.698602 4.8187008 -0.30848759
-2.6942477 4.8109255 0
-2.7010803 4.8231258 0.30877092
-2.8598423 5.0921736 -0.97365886
-2.660831 4.7378182 -0.6056655
-2.7069647 4.819963 -0.3087776
-2.7000589 4.8076668 0
-2.7094533 4.8243942 0.30906147
-2.8533933 5.0663424 -0.96937835
-2.676708 4.7526288 -0.60797185
-2.7153394 4.8212214 -0.30906817
-2.7122505 4.8157363 0
-2.7203813 4.830173 0.30964205
-2.8468909 5.0405436 -0.96509951
-2.6811779 4.7471414 -0.60768384
-2.7173283 4.8111472 -0.30863261
-2.7231867 4.8215199 0
-2.7236574 4.8223534 0.30935147
-2.8112311 4.9633908 -0.95097703
-2.6945577 4.7573972 -0.60941303
-2.7295413 4.8191628 -0.30935818
-2.7238803 4.8091679 0
-2.7346046 4.8281026 0.30993202
-2.76018 4.8595548 -0.93172055
-2.700304 4.7541375 -0.60941303
-2.7289469 4.8045664 -0.30863261
-2.7386878 4.8217158 0
-2.7455699 4.8338323 0.3105126
-2.7482598 4.8249836 -0.92572814
-2.7060466 4.7508717 -0.60941303
-2.7450387 4.8193283 -0.30979371
-2.7419381 4.8138847 0
-2.7552681 4.8372874 0.31094813
-2.7477231 4.8105159 -0.92358875
-2.7220478 4.7655659 -0.61171937
-2.7495725 4.8137541 -0.30964872
-2.7477529 4.8105679 0
-2.761111 4.8339543 0.31094813
-2.7395022 4.7826958 -0.91888231
-2.7200933 4.7488112 -0.60999018
-2.7644238 4.8262048 -0.3106643
-2.761322 4.8207898 0
-2.7695303 4.8351197 0.31123814
-2.7427194 4.7749262 -0.91802555
-2.7335565 4.7589736 -0.61171937
-2.7676673 4.8183589 -0.31037429
-2.771035 4.8242221 0
-2.7753706 4.8317699 0.31123814
-2.7318313 4.7426929 -0.91246241
-2.7431788 4.762393 -0.61258453
-2.7747831 4.8172607 -0.31051928
-0 0 0
-2.7838032 4.8329206 0.31152871
-2.7221522 4.7127137 -0.90732682
-2.7437565 4.7501163 -0.61143136
-2.7806017 4.8139043 -0.31051928
-2.761858 4.7814541 0
-2.7909393 4.8318014 0.3116737
-2.7046871 4.6694417 -0.89962423
-2.7559748 4.7579861 -0.61287254
-2.7877176 4.8127875 -0.3106643
-2.7767656 4.79388 0
-2.8032863 4.8396654 0.31239927
-2.6972036 4.6500421 -0.89620048
-2.7536578 4.7473707 -0.61171937
-2.7958398 4.8200932 -0.31124485
-2.7757428 4.7854457 0
-2.8036046 4.8334799 0.31210926
-2.7645941 4.7529831 -0.61287254
-2.8029671 4.8189554 -0.31138983
-2.7880642 4.793334 0
-2.8107481 4.8323331 0.31225425
-2.7742457 4.7563438 -0.6137377
-2.8127165 4.8223009 -0.31182539
-2.7951641 4.7922077 0
-2.817893 4.8311753 0.31239927
-2.7825999 4.7574492 -0.61431372
-2.8237889 4.8278704 -0.31240594
-2.794384 4.7775965 0
-2.8250442 4.8300166 0.31254482
-2.790966 4.7585502 -0.61489087
-2.8283069 4.822216 -0.31226096
-2.8027906 4.7787108 0
-2.8348181 4.8333173 0.31297982
-2.8032687 4.7663193 -0.61633205
-2.8407168 4.8299918 -0.31298652
-2.8125169 4.7820439 0
-2.8419724 4.8321261 0.31312484
-2.8037701 4.7540174 -0.61517888
-2.8425896 4.819839 -0.31255096
-2.8235815 4.7876086 0
-2.8517702 4.8354053 0.31356037
-2.8095124 4.7506261 -0.61517888
-2.8497379 4.8186436 -0.31269652
-2.8280406 4.7819557 0
-2.8629017 4.8409023 0.31414095
-2.8152504 4.7472277 -0.61517888
-2.8582065 4.8196626 -0.31298652
-2.8378005 4.7852526 0
-2.8674247 4.8352065 0.31399593
-2.8196638 4.7416015 -0.61489087
-2.8693407 4.825139 -0.31356707
-2.8422463 4.7795768 0
-2.8785775 4.840672 0.31457651
-2.8306899 4.747077 -0.61604404
-2.8738391 4.8194389 -0.31342208
-2.8520193 4.7828469 0
-2.8817601 4.8327222 0.31428593
-2.8390758 4.7480888 -0.61662006
-2.8823249 4.8204188 -0.31371206
-2.8564622 4.7771659 0
-2.8862653 4.8270087 0.31414095
-2.8461397 4.746871 -0.61690813
-2.8894873 4.8191676 -0.31385764
-2.8649063 4.7781706 0
-2.8961055 4.8302054 0.31457651
-2.8572042 4.7522955 -0.61806124
-2.9020014 4.8268051 -0.31458318
-2.8706777 4.7747054 0
-2.9019396 4.8267026 0.31457651
-2.8686802 4.7453766 -0.61806124
-2.9136574 4.8197784 -0.31458318
-2.8929789 4.7855716 0
-2.9203155 4.830792 0.31530204
-2.879775 4.7507544 -0.61921442
-2.9221704 4.820694 -0.31487319
-2.8960638 4.7776256 0
-2.9261506 4.82726 0.31530204
-2.8868556 4.7494793 -0.61950248
-2.9266448 4.8149414 -0.3147282
-2.9072413 4.7830186 0
-2.9400766 4.837039 0.3161726
-2.8925922 4.7459879 -0.61950248
-2.9284024 4.8047428 -0.31429264
-2.915725 4.7839427 0
-2.9432168 4.8290496 0.31588262
-0 0 -0
-2.9037197 4.751317 -0.62065566
-2.9193046 4.7768183 -0.31269652
-2.9269316 4.7892985 0
-2.9504035 4.8277049 0.31602761
-0 0 -0
-2.9148643 4.7566266 -0.62180883
-2.9169257 4.7599902 -0.31182539
-2.9299996 4.7813249 0
-2.960309 4.8307853 0.31646317
-0 0 -0
-2.9219677 4.755311 -0.62209791
-2.9308398 4.7697496 -0.31269652
-2.9384971 4.7822113 0
-2.9498196 4.8006377 0.31472149
-0 0 -0
-2.9249954 4.7473683 -0.62152076
-2.9379628 4.768415 -0.3128415
-2.9429095 4.7764435 0
-2.9515276 4.790431 0.31428593
-2.9375253 4.7548308 -0.62296194
-2.9396238 4.7582273 -0.31240594
-2.95415 4.7817402 0
-2.9600477 4.7912869 0.31457651
-2.941762 4.7552609 -0.62325108
-2.9466004 4.763082 -0.3128415
-2.9474528 4.7644601 0
-2.9643075 4.7917051 0.31472149
-2.9529541 4.7604866 -0.62440318
-2.9496114 4.7550979 -0.31255096
-2.9600656 4.7719507 0
-2.9755743 4.7969527 0.31530204
-2.9532452 4.748138 -0.62325108
-2.9594734 4.758152 -0.31298652
-2.9768255 4.7860498 0
-2.9813681 4.7933536 0.31530204
-2.9576075 4.7423654 -0.62296194
-2.9817209 4.7810302 -0.3147282
-2.9743459 4.7692046 0
-2.9789102 4.7765231 0.31443149
-2.970191 4.7497511 -0.62440318
-2.9861195 4.7752228 -0.31458318
-2.9939022 4.7876687 0
-2.9957011 4.7905455 0.31559262
-2.9786787 4.7505455 -0.62498027
-3.0001667 4.7848158 -0.31545374
-2.9983039 4.7818446 0
-3.0125251 4.8045254 0.31675318
-2.9857919 4.7491307 -0.62526828
-3.0128598 4.7921844 -0.31617931
-2.9929981 4.7605925 0
-3.0197153 4.8030882 0.31689873
-2.9887722 4.7411475 -0.62469226
-3.0117209 4.7775517 -0.31545374
-2.9918103 4.7459669 0
-3.0199738 4.7906432 0.31631818
-2.9917321 4.7331557 -0.62411511
-0 0 -0
-3.0100558 4.762145 0
-3.0299213 4.7935739 0.31675318
-2.9932992 4.7229896 -0.62325108
-3.0190833 4.7636733 -0.31501818
-0 0 0
-3.0384958 4.7943029 0.31704372
-2.9948409 4.7128181 -0.62238592
-3.0164778 4.7468672 -0.31414762
-0 0 0
-3.0456789 4.792819 0.31718874
-2.9991448 4.7070169 -0.62209791
-3.0166261 4.7344532 -0.31356707
-3.0203073 4.7402306 0
-0 0 0
-2.9978635 4.6924853 -0.62065566
-3.0223446 4.7308049 -0.31356707
-3.0190287 4.7256141 0
-3.05865 4.7876325 0.31733373
-5.2242303 8.1556273 -0.54098904
-5.1822157 8.0900373 0
-3.0644326 4.7839332 0.31733373
-5.2312698 8.1449318 -0.54069853
-5.1835513 8.0706348 0
-3.0603852 4.7649288 0.31631818
-5.2354803 8.1298666 -0.54011792
-5.1820269 8.0468616 0
-5.4309607 8.4334164 0.56028467
-5.2382536 8.1126213 -0.53939241
-5.1818628 8.0252876 0
-5.4284625 8.4072037 0.55897856
-5.2381659 8.0910158 -0.53837627
-5.176002 7.9949961 0
-5.4329686 8.3919134 0.55839801
-5.2352066 8.0650673 -0.53707016
-5.1757383 7.973453 0
-8.0320158 12.373673 0.82398957
-5.2406998 8.0522079 -0.53663516
-5.1825271 7.9628272 0
-4.9344902 7.5817242 0.50528002
-5.2376413 8.0262785 -0.53532845
-5.1949921 7.9609222 0
-5.4193354 8.3047113 0.55389911
-5.237381 8.0047293 -0.5343129
-5.2046075 7.9546394 0
-5.4279447 8.2959843 0.55375409
-5.2279735 7.9798245 -0.53286123
-5.217967 7.964551 0
-4.9630661 7.5754776 0.50586057
-5.2262044 7.9561357 -0.53170067
-5.2304468 7.9625945 0
-4.9707851 7.5672975 0.50571501
-5.2286634 7.9389582 -0.53097457
-5.2414947 7.9584403 0
-4.9699249 7.5461011 0.50469947
-5.2325249 7.9239612 -0.53039402
-5.2568431 7.9607882 0
-4.946105 7.4902163 0.50136107
-5.2334919 7.9046373 -0.52952343
-5.2678938 7.9565983 0
-4.933639 7.4517417 0.49918443
-5.2344193 7.885323 -0.52865291
-5.2760658 7.948061 0
-4.9469466 7.4522634 0.49961942
-5.2367406 7.8681707 -0.5279268
-5.2827849 7.9373512 0
-4.9948211 7.5046873 0.50353831
-5.2332644 7.8423867 -0.52662069
-5.2837014 7.9179697 0
-5.0586905 7.5807757 0.50905335
-5.2326264 7.8209462 -0.52560508
-5.2845845 7.8986053 0
-5.0721774 7.5811305 0.50948834
-5.2290406 7.7951903 -0.52429843
-5.2999239 7.9008594 0
-5.0639691 7.5491095 0.50774723
-5.2312064 7.7780876 -0.52357286
-5.3022003 7.883646 0
-5.0875854 7.5645428 0.50919837
-5.2260766 7.7502213 -0.52212179
-5.2971749 7.85566 0
-5.1228685 7.5971651 0.5118106
-5.2267022 7.7309809 -0.52125067
-5.2979202 7.8363218 0
-5.1393199 7.6017308 0.51253617
-5.2258387 7.7096095 -0.52023506
-5.3030033 7.8234496 0
-5.1441317 7.5890689 0.51210111
-5.227849 7.6925459 -0.51950955
-5.2919755 7.7869058 0
-5.1299291 7.5484614 0.50977892
-5.234211 7.6819248 -0.51921898
-5.294055 7.7697544 0
-5.1170979 7.5100451 0.50760168
-5.2361622 7.6648688 -0.51849341
-5.2946286 7.7504539 0
-5.1027222 7.4695354 0.50528002
-5.2351398 7.6435275 -0.51747727
-5.293694 7.7290187 0
-5.0809107 7.4183464 0.50223219
-5.2296653 7.6157799 -0.5160262
-5.285356 7.6968803 0
-5.0854564 7.4057732 0.50179666
-5.228548 7.5944715 -0.51501006
-5.2400494 7.611177 0
-5.1135554 7.4274445 0.50368333
-5.2244372 7.5689039 -0.51370394
-5.2034163 7.5384498 0
-5.134335 7.4383683 0.50484443
-5.2230997 7.5571957 -0.51312339
-5.1842947 7.50105 0
-5.1417799 7.4395361 0.50513446
-5.2263074 7.542336 -0.51254284
-5.1814966 7.4776673 0
-5.1507654 7.4333177 0.50513446
-5.2220755 7.5168114 -0.51123673
-5.1712265 7.4436178 0
-5.1434393 7.4036207 0.50353831
-5.2237301 7.4998369 -0.51051116
-5.172781 7.4266882 0
-5.1494083 7.3931317 0.5032478
-5.2268376 7.4849982 -0.50993061
-5.1787682 7.4161611 0
-5.1434636 7.3656044 0.50179666
-5.2269392 7.4659095 -0.50906003
-5.1772757 7.3949723 0
-5.1627932 7.3742862 0.5028128
-5.2225165 7.4404407 -0.50775337
-5.1832199 7.3844552 0
-5.180654 7.3807998 0.50368333
-5.2255273 7.425633 -0.50717336
-5.175662 7.354773 0
-5.1880746 7.3724113 0.50353831
-5.2225118 7.4023275 -0.50601226
-5.1830463 7.3463893 0
-5.1984754 7.3682585 0.50368333
-3.240972 4.581953 -0.62555635
-5.2209473 7.3811603 -0.50499612
-5.1783948 7.3210011 0
-5.2103786 7.3662186 0.5039739
-3.2465062 4.5780334 -0.62555635
-5.2268586 7.3706112 -0.50470614
-5.1782069 7.3020053 0
-5.2538424 7.4086618 0.5073117
-3.2650707 4.5807114 -0.6269986
-2.8859253 4.0487919 -0.27771971
-5.1762023 7.2619224 0
-5.2159281 7.317656 0.50194168
-3.2615774 4.5641327 -0.62526828
-2.8877909 4.0410695 -0.27742916
-5.177403 7.2450695 0
-5.2051277 7.2838664 0.50005496
-3.2625694 4.5538788 -0.62440318
-2.8866184 4.0291281 -0.27684858
-5.1755481 7.2240052 0
-5.2003069 7.258563 0.49874887
-5.2084146 7.2513566 -0.99512893
-5.2152071 7.2608137 -0.49933612
-5.1797171 7.2114029 0
-5.2090735 7.2522745 0.49874887
-5.2186823 7.2471552 -0.99541694
-5.2148628 7.2418509 -0.498465
-5.1762605 7.1882439 0
-5.2284632 7.2607374 0.49976498
-5.2138114 7.221972 -0.99282259
-5.2205706 7.2313347 -0.498175
-5.1803708 7.1756516 0
-7.037971 9.7487288 0.67160118
-5.2149525 7.2051926 -0.99138141
-5.22016 7.2123876 -0.49730387
-5.1768303 7.1525211 0
-7.0375576 9.7233782 0.67044008
-5.2160554 7.1884131 -0.98993909
-5.2181931 7.191359 -0.49628833
-5.1793609 7.1378431 0
-5.395134 7.4352069 0.51311672
-5.2171311 7.1716495 -0.98849791
-5.2207642 7.1766438 -0.49570778
-5.1772633 7.1168461 0
-5.3995328 7.4223847 0.51268172
-5.218174 7.1548934 -0.98705673
-5.2217779 7.1598353 -0.49498221
-5.1781926 7.1000738 0
-7.0314155 9.641118 0.66652119
-5.2163939 7.1433845 -0.98590356
-5.2123122 7.1377945 -0.4936761
-5.1732697 7.0843291 0
-7.035708 9.6347713 0.66637617
-5.2127986 7.1203804 -0.98359722
-5.220933 7.1314912 -0.4936761
-5.1772184 7.0717797 0
-7.0258579 9.5969143 0.66434449
-5.2198696 7.1119933 -0.98330921
-5.2157044 7.1063185 -0.49236941
-5.1734405 7.0487342 0
-5.2971182 7.2172437 0.50005496
-5.2238588 7.0994291 -0.98244405
-5.2196717 7.0937386 -0.49193442
-5.1696143 7.0257087 0
-5.2981367 7.2003751 0.49932942
-5.217082 7.0723014 -0.97956169
-5.2143583 7.0686088 -0.4906283
-5.1688275 7.006887 0
-5.3376837 7.2357893 0.50223219
-5.2240872 7.0639148 -0.97927368
-5.2167153 7.0539465 -0.49004775
-5.1726522 6.9943652 0
-7.0258112 9.5001726 0.65999061
-3.2994504 4.4501987 -0.61748523
-5.20821 7.0246754 -0.48845106
-5.1748996 6.9797473 0
-7.0279965 9.4791489 0.65911949
-3.3094556 4.4524384 -0.61835039
-5.2120423 7.0121188 -0.48801553
-5.1771193 6.9651346 0
-7.0332451 9.4623079 0.65853894
-3.3210089 4.4567242 -0.61950248
-5.2065392 6.9870653 -0.48670942
-5.1715379 6.9400945 0
-7.0369115 9.443387 0.65781337
-3.3248453 4.4506378 -0.61921442
-2.9601476 3.9624536 -0.27626804
-5.1690154 6.9192443 0
-7.0343223 9.4161434 0.65650725
-3.3317695 4.4486856 -0.61950248
-2.9618211 3.9547184 -0.27597803
-5.1695733 6.9025798 0
-7.0301208 9.3868427 0.65505612
-3.3340394 4.4405236 -0.61892641
-2.9697146 3.9552886 -0.27626804
-5.1575975 6.8692751 0
-3.5593569 4.7406182 0.33112156
-3.3518462 4.4530239 -0.62123275
-2.9963722 3.9807661 -0.27830029
-3.5633085 4.7339573 0
-3.5572705 4.7259359 0.330396
-3.3665693 4.4613543 -0.62296194
-2.980828 3.9501727 -0.27641305
-3.5627556 4.7213387 0
-3.5676694 4.7278504 0.33083099
-5.2163329 6.8953042 -0.96370643
-2.9652205 3.9196305 -0.27452636
-3.5668831 4.7149491 0
-3.5702472 4.7193956 0.33054101
-5.2215319 6.884871 -0.96312928
-2.9778099 3.9264026 -0.27525249
-3.5725777 4.7106357 0
-3.5775156 4.7171469 0.330686
-3.5392575 4.6550083 -0.65179008
-2.9888427 3.9310753 -0.27583304
-3.5703926 4.6959591 0
-3.5753508 4.7024803 0.32996044
-3.5495851 4.6569018 -0.65265524
-2.9935906 3.9274611 -0.27583304
-3.5807986 4.6978526 0
-3.5857573 4.7043581 0.330396
-3.5489278 4.6443887 -0.65150207
-3.0030625 3.9300292 -0.27626804
-3.5848939 4.6914568 0
-3.5882807 4.695889 0.33010545
-3.5859478 4.6811008 -0.98307329
-3.5498168 4.6339355 -0.65063691
-3.0093875 3.9284585 -0.27641305
-3.5953033 4.6933136 0
-3.5955307 4.6936107 0.33025044
-3.5869091 4.6706548 -0.98178899
-3.5569873 4.6316924 -0.65092492
-3.0252123 3.9392474 -0.27742916
-3.6041451 4.6930981 0
-3.6106985 4.7016315 0.33112156
-3.5834711 4.6603465 -0.98007715
-3.5629411 4.633647 -0.65150207
-3.2033951 4.1660533 -0.29353866
-3.6085646 4.6929808 0
-3.6151206 4.7015071 0.33126655
-3.568727 4.6295848 -0.97451395
-3.5637984 4.6231914 -0.65063691
-3.389267 4.3967776 -0.31008372
-3.6158197 4.6906767 0
-3.6160381 4.6909599 0.33083099
-3.5758865 4.6272984 -0.97494155
-3.5725422 4.6229711 -0.65121299
-3.3866343 4.3824005 -0.30935818
-3.621485 4.6863041 0
-5.046864 6.5307851 0.46101484
-0 0 -0
-3.5830517 4.6250095 -0.97537071
-3.5765431 4.6166081 -0.65092492
-3.3616955 4.3392825 -0.30660093
-5.1587577 6.6589332 0
-5.0213346 6.4815474 0.45796704
-0 0 -0
-3.5870583 4.6186433 -0.97494155
-3.5852947 4.6163726 -0.65150207
-3.3637457 4.331109 -0.30631039
-5.1620092 6.6465268 0
-5.0020685 6.4405894 0.45549983
-3.594218 4.6163373 -0.97537071
-3.5861018 4.6059127 -0.65063691
-3.364186 4.3208885 -0.30587482
-5.162044 6.6300192 0
-4.9811101 6.3976316 0.45288703
-3.5934753 4.6038961 -0.97365886
-3.5980301 4.6097317 -0.65179008
-3.3726051 4.3209214 -0.30616537
-5.1684456 6.6217198 0
-4.984045 6.385469 0.45245203
-3.6021965 4.6035905 -0.97451395
-5.1942296 6.6382012 -0.93949097
-3.3794234 4.3188872 -0.30631039
-5.1652207 6.6011286 0
-4.9821463 6.3671598 0.45158091
-3.614094 4.6073136 -0.97622585
-5.1942663 6.6217465 -0.93804979
-3.3766222 4.3045802 -0.30558482
-5.1651635 6.5846462 0
-5.0138936 6.3918042 0.45375815
-3.6196585 4.6029434 -0.97622585
-5.1990628 6.6113954 -0.93747264
-3.3770008 4.2943678 -0.30514926
-5.1650677 6.5681658 0
-5.0312476 6.3979926 0.45462871
-3.6331623 4.6086445 -0.97836524
-5.2038484 6.6010499 -0.93689662
-3.3564544 4.2576423 -0.3028276
-5.1665559 6.5537448 0
-5.0277123 6.3776226 0.4536126
-3.7135332 4.698905 -0.99847847
-5.2054057 6.5866404 -0.93574345
-3.3519266 4.2413478 -0.30195647
-5.1631799 6.5332103 0
-5.0273604 6.3613515 0.45288703
-5.210145 6.5762873 -0.9351663
-3.357049 4.2372942 -0.30195647
-5.1613703 6.5147233 0
-5.0431099 6.3654542 0.4536126
-5.2052245 6.5537915 -0.93286109
-5.2027736 6.5507054 -0.46726155
-5.1595297 6.4962583 0
-5.0427189 6.349184 0.45288703
-5.2066956 6.5394034 -0.93170792
-5.2090678 6.5423832 -0.46711653
-5.1625109 6.4839096 0
-5.0358214 6.3247929 0.45158091
-5.2081389 6.5250216 -0.93055475
-5.2104855 6.5279608 -0.46653599
-5.1622257 6.4674988 0
-5.056428 6.3349504 0.45274201
-5.2111702 6.5126634 -0.92968959
-5.2053819 6.5054293 -0.46537489
-5.1635327 6.4531283 0
-5.0640788 6.328836 0.45274201
-5.2060885 6.490221 -0.92738324
-3.2053735 3.9960101 -0.28613696
-5.1664395 6.4407921 0
-5.0766015 6.328795 0.45317757
-5.2090626 6.4778771 -0.92651808
-3.226486 4.0123878 -0.28758863
-5.1611776 6.4183278 0
-5.0565648 6.2882338 0.45071036
-5.216886 6.4715781 -0.92651808
-3.2769873 4.0651221 -0.29165199
-5.1672912 6.4100547 0
-5.0152392 6.2214336 0.44635645
-3.4485729 4.2726893 -0.61200744
-3.3936799 4.2046781 -0.30181149
-5.1629915 6.3968081 0
-5.0140991 6.2123346 0.44592088
-3.4667485 4.284605 -0.61431372
-3.4772048 4.2975283 -0.3087776
-5.1576209 6.3743796 0
-5.0150642 6.1981912 0.44534034
-3.4735508 4.2824202 -0.61460179
-3.4954901 4.3094683 -0.30993873
-5.152204 6.3519731 0
-5.4612093 6.7329354 0.48423547
-3.4819894 4.2822371 -0.61517888
-3.5039763 4.3092775 -0.31022927
-5.1565948 6.3417087 0
-5.4906507 6.7525387 0.48612216
-3.4691834 4.2559719 -0.61200744
-3.5042539 4.298996 -0.30979371
-5.1560335 6.3253889 0
-5.4626904 6.7015929 0.48292935
-3.4399562 4.2097192 -0.60595357
-3.5012267 4.2847004 -0.30906817
-5.1554408 6.3090801 0
-5.475718 6.701026 0.48336491
-5.1921601 6.3383698 -0.91325718
-3.4520645 4.2141342 -0.3042787
-5.153162 6.2907624 0
-5.4903975 6.702445 0.48394549
-5.1965351 6.3280973 -0.91268116
-3.3351276 4.0613623 -0.29353866
-5.1607594 6.2845316 0
-5.529819 6.7339549 0.48670271
-3.5242324 4.2810879 -0.61806124
-3.2987473 4.0071783 -0.28991032
-5.1584282 6.2662392 0
-5.5676813 6.7633824 0.48931551
-3.5310538 4.2788272 -0.61835039
-3.2969778 3.9951804 -0.2893303
-5.156054 6.2479544 0
-5.5659227 6.7446213 0.48844439
-3.5395155 4.2785392 -0.61892641
-3.2951775 3.9831853 -0.28874975
-5.1619425 6.2397165 0
-5.5922894 6.7599168 0.49004105
-3.5496376 4.2802339 -0.61979157
-3.2883751 3.9651978 -0.28773364
-5.1611729 6.2234602 0
-5.6153803 6.7711539 0.49134716
-3.5434086 4.2517705 -0.61690813
-5.2009654 6.2406888 -0.45376483
-5.1562037 6.1869788 0
-5.6799688 6.8154497 0.49555609
-3.55352 4.2534423 -0.61777323
-5.2051673 6.2304082 -0.45347428
-5.1620088 6.1787486 0
-5.6748719 6.7926288 0.49439496
-3.5586569 4.2491455 -0.61777323
-5.2060184 6.2161455 -0.4528937
-5.1594419 6.160532 0
-5.6613884 6.7598715 0.49250829
-3.5637887 4.2448425 -0.61777323
-5.2118564 6.2078624 -0.45274872
-5.136764 6.1184196 0
-5.6277838 6.7032757 0.48887995
-3.562253 4.2326179 -0.61662006
-5.2193532 6.2015605 -0.45274872
-5.1391244 6.1062331 0
-5.5639372 6.61099 0.48263937
-3.5623596 4.2223778 -0.61575496
-5.2301908 6.1992178 -0.45303872
-5.1381092 6.0900755 0
-5.5769429 6.6102142 0.48307437
-3.5607779 4.2101707 -0.61460179
-5.2460723 6.2028193 -0.45376483
-5.1353836 6.0719438 0
-5.5815735 6.5995069 0.48278436
-5.1849003 6.1154885 -0.89365441
-5.2569213 6.2004361 -0.45405483
-5.1393476 6.0617599 0
-5.503849 6.4916825 0.47538266
-3.5984581 4.2391167 -0.9270125
-5.1818986 6.1044674 -0.89250124
-5.2606659 6.1972589 -0.45405483
-5.1345892 6.0487356 0
-5.4943171 6.4725084 0.47422156
-3.5852761 4.2132583 -0.92230445
-3.548341 4.1698537 -0.61027819
-5.256361 6.1770434 -0.45303872
-5.1300864 6.0286512 0
-5.4566712 6.4124393 0.47030321
-3.5020745 4.105422 -0.89962423
-3.5449855 4.155726 -0.60883701
-5.2469606 6.1509223 -0.45158759
-5.1289239 6.0125499 0
-5.4576702 6.397934 0.46972266
-3.4686587 4.0563126 -0.88978058
-3.5180643 4.1140885 -0.60335916
-5.2290559 6.114953 -0.44941038
-5.1311159 6.0004201 0
-5.4451318 6.3676362 0.46798098
-3.4752328 4.0540729 -0.89020973
-3.5095658 4.0941248 -0.60105288
-5.2076931 6.0750947 -0.44694313
-5.1332793 5.9882865 0
-5.4206886 6.3235669 0.46522319
-3.4818003 4.051816 -0.89063734
-3.440345 4.0035739 -0.58836907
-5.2031803 6.0550079 -0.44592759
-5.1337266 5.974184 0
-5.4215512 6.3091292 0.46464261
-3.4917214 4.0534425 -0.89192164
-3.3911612 3.9367051 -0.57914376
-5.2020149 6.0388746 -0.44520202
-5.1307473 5.9561419 0
-5.4156103 6.2868314 0.46348208
-3.551975 4.1133275 -0.90604252
-3.3959155 3.9326048 -0.57914376
-5.2008114 6.0227456 -0.44447592
-5.1396461 5.9519138 0
-5.4028234 6.2566833 0.4617404
-3.6157482 4.1769657 -0.92102176
-3.3617349 3.8835261 -0.57251382
-5.2029881 6.0105691 -0.44404089
-5.1297979 5.9260182 0
-5.3763661 6.2108579 0.4588376
-3.6207926 4.1725941 -0.92102176
-3.3460827 3.856019 -0.56905431
-5.2017269 5.9944592 -0.44331479
-5.1318421 5.9139247 0
-5.324266 6.135673 0.45375815
-3.5971918 4.1352916 -0.91374671
-3.3439493 3.844167 -0.56790113
-5.1970334 5.9744515 -0.44229925
-5.1321521 5.8998652 0
-5.3129148 6.1076679 0.45216146
-3.5549459 4.0767679 -0.90176362
-3.3570898 3.849869 -0.56934237
-5.2042484 5.9681678 -0.44229925
-5.1324358 5.8858137 0
-5.3219972 6.1032004 0.45230648
-3.5480413 4.0589385 -0.89876747
-3.3753572 3.8613887 -0.57164872
-5.2029071 5.952095 -0.44157368
-5.1326923 5.8717704 0
-5.3669939 6.1398096 0.45549983
-3.546176 4.0469255 -0.89705557
-3.3851359 3.8631454 -0.57251382
-5.1998167 5.9340744 -0.44070256
-5.1312094 5.8557792 0
-5.5319448 6.3131013 0.46885154
-3.5612314 4.0542135 -0.89962423
-3.3966291 3.8668251 -0.57366699
-5.2001238 5.9199781 -0.44012201
-5.1296887 5.8397927 0
-5.6218815 6.4001198 0.47581822
-3.5746083 4.0595388 -0.90176362
-3.4047141 3.8665967 -0.57424307
-5.2004046 5.90589 -0.43954143
-5.1281433 5.8238263 0
-5.6776857 6.4479194 0.47988158
-3.5931013 4.0706129 -0.90518737
-3.4059637 3.8586056 -0.57366699
-5.2006583 5.8918095 -0.43896088
-5.1317353 5.8137269 0
-5.6579599 6.4098849 0.47755933
-3.6014161 4.0701098 -0.90604252
-5.1793642 5.8534145 -0.87116927
-5.2008862 5.8777375 -0.43838033
-5.1301351 5.7977786 0
-5.6192141 6.3505068 0.47364101
-3.6250708 4.0868821 -0.91075057
-5.1898627 5.8510184 -0.87174529
-5.2010875 5.8636732 -0.43779978
-5.1371369 5.7915759 0
-5.6096439 6.3242769 0.47218987
-3.6309452 4.0885262 -0.91160566
-5.1779408 5.8304782 -0.86915094
-5.1942797 5.848876 -0.43692923
-5.1319895 5.7787361 0
-5.6100097 6.3169975 0.47189933
-3.6461277 4.095644 -0.91417426
-5.1884251 5.8280849 -0.86972809
-5.1927056 5.8328934 -0.43620366
-5.1285887 5.7608714 0
-5.6124597 6.3043976 0.47146431
-3.6391075 4.0778265 -0.91117811
-3.4510009 3.8670423 -0.57770252
-5.1928296 5.8188601 -0.43562311
-5.1303453 5.7488432 0
-5.59412 6.2685289 0.4692871
-3.6474583 4.0772562 -0.91203487
-3.453948 3.8609438 -0.57741451
-5.191196 5.8028998 -0.43489754
-5.1320877 5.7368269 0
-5.5479884 6.201735 0.46478817
-3.6489513 4.0690203 -0.91117811
-3.4810579 3.8817987 -0.58116204
-5.1964707 5.7946906 -0.43475252
-5.1285872 5.7189927 0
-5.5225148 6.1582694 0.46203038
-3.6555798 4.0665154 -0.91160566
-3.5151393 3.9102876 -0.58606273
-5.1982555 5.7826085 -0.43431699
-5.1302724 5.7069831 0
-5.5195322 6.1400008 0.46115983
-3.6604908 4.0620952 -0.91160566
-3.5406394 3.9290948 -0.58952224
-5.2035012 5.7743945 -0.43417197
-5.1249743 5.6872525 0
-5.5286851 6.1352558 0.46130484
-3.661958 4.053863 -0.91075057
-3.5557837 3.936326 -0.59125149
-5.2017603 5.7584562 -0.43344587
-5.1283503 5.6771894 0
-7.0078492 7.757834 0.5839414
-3.6272278 4.0056753 -0.90090853
-3.564013 3.9358649 -0.59182858
-5.1947613 5.7367578 -0.43228474
-5.1247282 5.6594176 0
-7.0189605 7.7512851 0.58408642
-3.6010051 3.967072 -0.89320427
-3.5496418 3.9104872 -0.58865708
-5.1999445 5.7285547 -0.43213975
-5.1228185 5.6435881 0
-7.0213356 7.7351022 0.58350587
-3.5677905 3.9209507 -0.88378984
-3.5456622 3.896632 -0.5872159
-5.1963735 5.7107396 -0.4312692
-5.1331339 5.6412401 0
-5.6841798 6.2468319 0.47175431
-3.543118 3.8843966 -0.87651479
-3.5590816 3.9018977 -0.58865708
-5.1945157 5.6948595 -0.43054363
-5.1294265 5.6235008 0
-5.6742158 6.2207651 0.47030321
-3.5585558 3.891866 -0.58779198
-5.1978831 5.6847401 -0.43025309
-5.1327024 5.6134539 0
-5.6887422 6.2215748 0.47088376
-5.1815038 5.6530952 -0.85473686
-5.1924629 5.6650519 -0.42923751
-5.1342106 5.6014977 0
-5.7015176 6.2204375 0.47131875
-5.1883307 5.6468301 -0.85473686
-5.2010608 5.6606851 -0.4293825
-5.1339321 5.5876245 0
-5.7318826 6.2384167 0.47320545
-5.189898 5.6348548 -0.85387284
-5.1955724 5.6410155 -0.42836639
-5.1318593 5.5718403 0
-5.7711062 6.265893 0.47581822
-5.196703 5.6285796 -0.85387284
-3.4486148 3.7352152 -0.28396028
-5.126235 5.5522556 0
-5.791007 6.272274 0.47683379
-3.6364677 3.9291437 -0.59672928
-3.4619486 3.7405787 -0.28468585
-5.1294012 5.5422339 0
-4.8596587 5.2507811 0.39962348
-3.628897 3.9114721 -0.59471095
-3.4682314 3.738296 -0.28483084
-5.1272459 5.5264945 0
-4.8836756 5.263958 0.40107515
-3.6336205 3.9070845 -0.59471095
-3.4815922 3.7436147 -0.28555641
-5.1303787 5.5164876 0
-4.9041891 5.2732754 0.40223628
-3.6412697 3.9105692 -0.59557611
-3.5051022 3.7643309 -0.28729808
-5.1301599 5.5095739 0
-4.9162264 5.2798181 0.40296182
-3.614228 3.8721356 -0.5903874
-3.5256035 3.7771869 -0.2886042
-5.1243882 5.4900589 0
-4.9332371 5.2852678 0.40383241
-3.5764925 3.8224375 -0.58346838
-5.18646 5.5431175 -0.42401248
-5.1239057 5.4762616 0
-4.934299 5.2736163 0.40339738
-3.5775664 3.8143365 -0.58289129
-5.1984882 5.5425344 -0.42444804
-5.1305189 5.4700665 0
-4.9264464 5.2524881 0.40223628
-3.5786326 3.8062458 -0.58231521
-5.194499 5.5248866 -0.42357695
-5.1317749 5.4581733 0
-4.9043112 5.2162418 0.39991406
-3.5991933 3.8188574 -0.58490956
-3.5420377 3.7582138 -0.28845921
-5.1258698 5.4387093 0
-4.885663 5.1838422 0.39788237
-3.6091354 3.820148 -0.58577472
-3.5519314 3.7595994 -0.28889474
-5.1270809 5.4268417 0
-4.8829956 5.1684856 0.39715627
-3.6155255 3.8176603 -0.58606273
-3.5671887 3.7666211 -0.28976533
-5.1246815 5.4111896 0
-4.8624411 5.1342874 0.3949796
-3.6237009 3.817044 -0.58663988
-3.5771062 3.7679634 -0.29020086
-5.1186786 5.3917866 0
-4.8650594 5.1246357 0.39468902
-5.1901889 5.4538999 -0.83917075
-5.1883774 5.4519958 -0.42038414
-5.1180134 5.378057 0
-4.8855786 5.1338124 0.39585015
-5.1914177 5.442008 -0.83830559
-5.196753 5.4476008 -0.42052916
-5.1245079 5.3718691 0
-4.9240661 5.1617517 0.39846292
-5.1765385 5.4132991 -0.83484608
-5.1889648 5.4262938 -0.41936803
-5.132792 5.3675523 0
-4.9680109 5.1952343 0.40151072
-5.1759162 5.3995719 -0.83369291
-5.1937213 5.4181461 -0.41922304
-5.1266656 5.3481932 0
-5.0030475 5.2192335 0.40383241
-5.1734781 5.3839903 -0.83225173
-5.205667 5.4174891 -0.4196586
-5.1349325 5.3438768 0
-5.0291562 5.2337961 0.40542907
-5.1745949 5.3721452 -0.83138657
-5.2158108 5.4149346 -0.41994858
-5.1323533 5.3282909 0
-5.0498981 5.2426877 0.40659019
-5.1810822 5.3658886 -0.83138657
-5.2349863 5.4217153 -0.42096472
-5.1279449 5.3108559 0
-5.058032 5.2384491 0.40673518
-5.1778264 5.336647 -0.82879221
-5.2553105 5.4165082 -0.42154527
-5.1226454 5.2797737 0
-5.1141028 5.2709689 0.41021854
-5.1806674 5.3266821 -0.8282162
-5.2618518 5.4101539 -0.42154527
-5.1272016 5.271709 0
-5.1530747 5.2983112 0.41283077
-5.1762633 5.3093028 -0.82648587
-5.2538733 5.3889079 -0.42038414
-5.1263003 5.2580562 0
-5.1304502 5.2623124 0.41050854
-5.1790624 5.2993484 -0.82590985
-5.2258792 5.3472524 -0.41762692
-5.1217399 5.240694 0
-5.0786943 5.1966491 0.40586463
-5.1695991 5.2832761 -0.82389152
-5.2054858 5.3199515 -0.41574025
-5.1194429 5.2320166 0
-5.0436716 5.1545792 0.40281683
-5.1633062 5.2641053 -0.82187432
-5.1864328 5.2876835 -0.413708
-5.1221194 5.2221146 0
-5.0608101 5.1596079 0.40368739
-5.169663 5.2578626 -0.82187432
-5.1873584 5.2758598 -0.41327301
-5.1193047 5.206645 0
-5.096189 5.183135 0.40600961
-5.1687498 5.2442436 -0.82072115
-5.1846042 5.2603292 -0.4125469
-5.1182847 5.1930413 0
-5.1188626 5.1936274 0.40731573
-5.1696277 5.2324729 -0.81985599
-5.1873074 5.2503676 -0.4122569
-5.120894 5.183147 0
-5.1360884 5.1985259 0.40818629
-5.1759462 5.2262225 -0.81985599
-5.1863337 5.236711 -0.41167635
-5.1253233 5.175108 0
-5.1460261 5.196012 0.40847686
-5.1694994 5.2071142 -0.81783766
-5.1908283 5.2285981 -0.41153133
-5.1187363 5.1559811 0
-5.1486359 5.1860986 0.40818629
-5.173965 5.1990323 -0.81754965
-5.1861415 5.2112679 -0.41066021
-5.1212945 5.1461067 0
-5.1640687 5.1890883 0.40891242
-5.1765862 5.1891112 -0.81697249
-5.1906009 5.2031598 -0.41051522
-5.1183205 5.1307044 0
-5.1611538 5.1736412 0.40818629
-5.1737094 5.1737094 -0.81553131
-5.1858635 5.1858635 -0.40964466
-5.1226707 5.1226707 0
-5.1655655 5.1655655 0.4080413
-5.1689739 5.1564975 -0.81380212
-5.1847672 5.1722527 -0.40906411
-5.1233344 5.1109681 0
-5.1773243 5.1648278 0.40847686
-5.1641974 5.1392975 -0.8120718
-5.1836457 5.1586528 -0.40848354
-5.1221275 5.0974307 0
-5.2277646 5.2025585 0.41196021
-5.1685696 5.1312337 -0.81178379
-5.188026 5.1505494 -0.40833798
-5.1301279 5.0930696 0
-5.2580175 5.2200356 0.41384688
-5.1692581 5.1195297 -0.81091976
-5.1887121 5.1387968 -0.40790299
-5.1270347 5.0777125 0
-5.2550845 5.2045307 0.41312075
-5.1699185 5.1078248 -0.8100546
-5.1893706 5.1270428 -0.40746742
-5.1183558 5.056881 0
-5.2299476 5.1671329 0.41065353
-5.1705585 5.0961256 -0.80918944
-5.1937127 5.1189466 -0.40732244
-5.1226101 5.0488677 0
-6.9923706 6.8917117 0.54838407
-5.17487 5.0880623 -0.80890143
-5.1961851 5.1090202 -0.40703186
-5.121284 5.0353756 0
-5.292448 5.2036686 0.41457245
-5.1699314 5.0709357 -0.80717111
-5.1930809 5.0936418 -0.40630633
-5.1199331 5.0218945 0
-5.3135724 5.2118263 0.41573355
-5.1686602 5.0574493 -0.80601794
-5.1955209 5.0837321 -0.40601632
-5.1222734 5.0120606 0
-5.3347239 5.2199402 0.41689467
-0 0 -0
-5.16922 5.0457854 -0.80515391
-5.1960797 5.0720038 -0.40558076
-5.1227441 5.0004191 0
-5.3614759 5.2334509 0.41849077
-0 0 -0
-5.1697521 5.0341206 -0.80428874
-5.1910381 5.0548487 -0.4047102
-5.1194544 4.9851427 0
-5.3696556 5.2287798 0.41863579
-0 0 -0
-5.1672282 5.0255847 -0.80342358
-5.1829114 5.0408378 -0.40383908
-5.1206012 4.9802361 0
-5.3579187 5.2110481 0.41747522
-5.1677332 5.0139394 -0.80255955
-5.1834016 5.0291419 -0.40340352
-5.119144 4.9667959 0
-5.3325095 5.1738119 0.41500798
-5.1663537 5.0004959 -0.80140638
-5.1838789 5.0174584 -0.40296853
-5.1214051 4.9569902 0
-5.3219481 5.1510954 0.41370133
-5.1649494 4.9870634 -0.80025321
-5.1880631 5.0093813 -0.40282297
-5.1217723 4.9453735 0
-5.3393874 5.1554937 0.41457245
-5.1672421 4.9772267 -0.79967606
-5.1847563 4.9940972 -0.4020974
-5.1146216 4.9265413 0
-5.3493524 5.1526403 0.41486242
-5.163929 4.9620209 -0.79823488
-5.1870432 4.9842315 -0.4018074
-5.1186957 4.9185562 0
-5.3724351 5.1623745 0.41616854
-5.1699209 4.9557776 -0.79823488
-5.1893067 4.9743605 -0.40151685
-5.1152434 4.9033651 0
-5.3955569 5.1720676 0.41747522
-5.1702952 4.9441628 -0.79736972
-5.1896849 4.9627042 -0.40108186
-5.1174064 4.8935866 0
-5.3079066 5.0757551 0.41021854
-5.1706567 4.9325609 -0.79650569
-5.1881571 4.9492555 -0.40050128
-5.1176643 4.882009 0
-5.3027511 5.0585728 0.40934741
-5.1653671 4.9156079 -0.79477537
-5.186604 4.9358177 -0.39992073
-5.1179018 4.8704376 0
-5.0980535 4.8515491 0.3930929
-5.1694293 4.9075842 -0.79448736
-5.1887918 4.9259658 -0.39963019
-5.1181192 4.8588729 0
-5.0115738 4.7577243 0.3859812
-5.1640911 4.8906665 -0.79275817
-5.1871934 4.9125457 -0.39904961
-5.1258812 4.8544798 0
-4.9833627 4.7195072 0.38336897
-5.1643548 4.8790927 -0.79189301
-5.1912384 4.9044914 -0.39890462
-5.1279564 4.8447046 0
-5.0022855 4.7259755 0.38438511
-5.1627173 4.8657532 -0.79073983
-5.1858187 4.8875256 -0.39803407
-5.1319141 4.8367219 0
-5.091187 4.7983375 0.39077067
-5.1667104 4.8577414 -0.79045182
-5.1879306 4.8776927 -0.39774349
-5.1396489 4.8322983 0
-5.363894 5.0431333 0.41123408
-5.1706839 4.84972 -0.79016268
-5.1881328 4.866086 -0.39730796
-5.1511807 4.8314276 0
-5.2771249 4.949554 0.40412295
-5.168993 4.8364072 -0.78901064
-5.1940088 4.8598137 -0.39730796
-5.1570148 4.8251996 0
-5.0895767 4.7621007 0.38931957
-5.1691585 4.8248615 -0.78814548
-5.1960816 4.8499913 -0.39701796
-5.1742525 4.8296161 0
-5.0345411 4.6992106 0.38467509
-5.1730938 4.8168511 -0.78785747
-5.1962314 4.8383956 -0.39658239
-5.1858006 4.8286829 0
-4.9907756 4.6470881 0.38090175
-5.161849 4.7947493 -0.78526199
-5.1868434 4.817966 -0.39542127
