# .PCD v0.7 - Point Cloud Data file format
VERSION 0.7
FIELDS x y z
SIZE 4 4 4
TYPE F F F
COUNT 1 1 1
WIDTH 1737
HEIGHT 1
VIEWPOINT 0 0 0 1 0 0 0
POINTS 1737
DATA ascii
-1.383952 52.049854 2.9083335
-0.29272115 10.530232 -0.58840573
-0.30194688 10.862114 0
-1.4448216 51.975426 2.9042702
-0.30559552 10.53507 -0.5886963
-0.31575048 10.885152 0
-1.5058898 51.913898 2.9009318
-0.31777543 10.51651 -0.58768016
-0.3296887 10.91077 0
-1.5673608 51.870487 2.8986096
-0.33089036 10.529101 -0.58840573
-0.34426162 10.954582 0
-1.627342 51.78286 2.8938208
-0.34395149 10.539083 -0.58898628
-0.35945037 11.013986 0
-1.6864352 51.674377 2.8878701
-0.35694945 10.546453 -0.58942187
-0.37284631 11.016142 0
-1.7463235 51.596992 2.8836613
-0.3699657 10.553806 -0.5898574
-1.7104983 48.794437 0
-1.8054812 51.503963 2.8785818
-0.38271764 10.553352 -0.5898574
-1.7683238 48.761127 0
-1.8655463 51.442017 2.8752434
-0.39576066 10.560664 -0.59029239
-1.8327955 48.907181 0
-1.925562 51.382603 2.8720505
-0.40912375 10.575762 -0.59116352
-1.8963155 49.019356 0
-1.9833275 51.268597 2.8658099
-0.42242 10.58824 -0.59188908
-1.9601088 49.131435 0
-2.0436168 51.224621 2.8634877
-0.43574703 10.6007 -0.59261465
-2.0222518 49.196636 0
-2.1026292 51.152023 2.8595695
-0.44921452 10.615738 -0.59348524
-2.0840056 49.248756 0
-2.1614685 51.079346 2.8556504
-0.46158969 10.604814 -0.59290522
-2.143738 49.251408 0
-2.2219439 51.048149 2.8540545
-0.46879813 10.622697 -0.59392077
-2.1755581 49.296898 0
-2.2500348 50.984497 2.8505712
-0.48245725 10.640295 -0.59493691
-2.2377155 49.351425 0
-2.3110495 50.968765 2.8498454
-0.49567622 10.647494 -0.59537244
-2.2978294 49.359081 0
-2.3715463 50.942577 2.8485394
-0.51164001 10.711762 -0.59900022
-2.3610692 49.431656 0
-2.4317348 50.911121 2.8469427
-0.52623546 10.744883 -0.60088748
-2.4232149 49.478157 0
-2.4941392 50.926315 2.8479588
-0.54117143 10.783159 -0.60306412
-2.484302 49.501179 0
-2.5561926 50.933643 2.8485394
-0.55286688 10.756553 -0.60161304
-2.5473187 49.56052 0
-2.6176009 50.927925 2.8483944
-0 0 -0
-2.6078846 49.570396 0
-2.6805005 50.950668 2.8498454
-2.671555 49.637367 0
-2.7434585 50.973335 2.8512967
-2.7318163 49.639305 0
-2.8071899 51.008904 2.8534739
-0 0 -0
-2.7945702 49.685329 0
-2.8718863 51.059952 2.8565216
-2.8557973 49.702705 0
-2.9356666 51.092758 2.8585534
-0 0 -0
-2.9192045 49.756371 0
-2.9993784 51.122894 2.86044
-0 0 -0
-2.9855456 49.85672 0
-3.0640996 51.168518 2.8631978
-3.0516577 49.949184 0
-3.130044 51.232208 2.866971
-0 0 -0
-3.1228516 50.119476 0
-3.1950157 51.277657 2.8697283
-0 0 -0
-3.195287 50.302658 0
-3.2645493 51.39304 2.8764045
-0 0 -0
-3.2557297 50.293571 0
-3.3331914 51.490177 2.8820646
-0 0 -0
-3.3175244 50.305176 0
-3.3986537 51.535381 2.8848224
-0 0 -0
-3.3788292 50.308926 0
-3.4628365 51.559746 2.8864183
-0 0 -0
-3.4444082 50.374901 0
-3.5311611 51.643673 2.8913534
-0 0 -0
-3.1663554 45.50045 0
-3.59374 51.641956 2.8914983
-0 0 -0
-3.2128768 45.377182 0
-3.6605403 51.699772 2.8949811
-0 0 -0
-3.2650869 45.336929 0
-3.7248735 51.721233 2.8964329
-0 0 -0
-3.2849362 45.231121 0
-3.7570612 51.73193 2.8971584
-0 0 -0
-3.3321133 45.125904 0
-3.8247323 51.797314 2.9010768
-0 0 -0
-3.3823516 45.064758 0
-3.8935399 51.875572 2.9057212
-3.4306655 44.98019 0
-3.9601707 51.922649 2.9086242
-3.9353521 50.787891 0
-4.0231066 51.920414 2.9087691
-4.0012083 50.840172 0
-4.0866551 51.925877 2.9093497
-4.0661602 50.879398 0
-4.1516709 51.949383 2.9109457
-4.1307921 50.913361 0
-4.21696 51.97541 2.9126873
-4.1942301 50.931675 0
-4.2844505 52.027245 2.9158802
-4.2592354 50.968063 0
-4.3509912 52.066055 2.9183481
-4.3245549 51.006962 0
-4.4128013 52.04781 2.9176219
-3.9825859 46.308743 0
-3.9707515 46.171135 2.5884628
-4.0392156 46.311668 0
-4.0265374 46.166306 2.5884628
-4.0944843 46.298985 0
-4.0804863 46.140697 2.5873017
-4.1487975 46.275856 0
-4.6907573 52.320896 2.9341669
-4.7833605 52.63858 0
-4.7563257 52.341076 2.9356186
-0 0 -0
-4.8476768 52.640541 0
-4.8233776 52.376678 2.9379404
-0 0 -0
-4.9834456 52.719345 0
-4.9587407 52.458 2.9431653
-0 0 -0
-5.0620246 52.868717 0
-5.0273232 52.506287 2.946213
-0 0 -0
-5.1286659 52.891056 0
-5.0937724 52.531208 2.9479547
-0 0 -0
-5.1976566 52.936623 0
-5.1640973 52.59483 2.9518731
-0 0 -0
-5.2598143 52.912174 0
-5.2366395 52.679043 2.9569526
-0 0 -0
-5.3276529 52.944622 0
-5.3099136 52.768333 2.9623227
-0 0 -0
-5.3559685 52.90514 0
-5.3438869 52.785801 2.9634838
-0 0 -0
-5.4209509 52.908985 0
-5.4171987 52.87236 2.9687088
-0 0 -0
-5.4883661 52.936047 0
-5.4837599 52.891617 2.9701598
-5.5566692 52.970787 0
-5.5522733 52.928883 2.9726272
-0 0 -0
-5.6289086 53.041668 0
-5.6249981 53.004822 2.9772716
-5.6979942 53.081402 0
-5.6943088 53.047066 2.9800289
-5.7772965 53.214188 0
-5.7558775 53.016903 2.9787226
-0 0 0
-5.8264556 53.069309 2.9820604
-5.9320068 53.435444 0
-5.9008965 53.155201 2.9872854
-6.0046954 53.500645 0
-5.9778705 53.261642 2.9936709
-6.0716829 53.514034 0
-6.0395865 53.231144 2.9923649
-6.1431603 53.566132 0
-6.1172237 53.339973 2.9988961
-0 0 0
-6.1840639 53.353195 3.0000572
-6.3025627 53.807011 0
-6.2585006 53.430836 3.0048461
-6.3715496 53.832951 0
-6.3401599 53.567741 3.012974
-6.4276304 53.750275 0
-6.4125943 53.624538 3.0166023
-6.4935093 53.750225 0
-6.4780073 53.621906 3.0168922
-6.5575051 53.734585 0
-6.556644 53.727531 3.0232785
-6.6237016 53.736954 0
-6.6193328 53.701511 3.0222623
-6.689271 53.734081 0
-6.6848569 53.698627 3.0225523
-6.755816 53.738869 0
-6.7533021 53.718872 3.0241489
-6.8184495 53.712593 0
-6.8250775 53.764805 3.0271966
-0 0 -0
-6.8744135 53.634624 0
-6.8877239 53.738476 3.0261807
-1.7776662 13.737811 -0.77373922
-6.9368773 53.608208 0
-6.9499836 53.709496 3.0250194
-1.795947 13.748533 -0.77446479
-7.0036702 53.615276 0
-7.005116 53.626343 3.0208106
-1.8001965 13.716539 -0.77272367
-7.0387702 53.63168 0
-7.0368376 53.616951 3.0205207
-1.8024375 13.606169 -0.76662809
-7.1104026 53.674725 0
-7.1070776 53.649628 3.0228429
-1.8071693 13.516418 -0.76169366
-7.1787024 53.691895 0
-7.1780953 53.687355 3.025455
-1.8262783 13.534816 -0.76285422
-7.2435732 53.683178 0
-7.2481732 53.71727 3.0276322
-1.8584068 13.648458 -0.76938534
-2.925245 21.4835 0
-7.3207865 53.76511 3.0308251
-0 0 -0
-2.9320734 21.340729 0
-7.3903437 53.789688 3.0327117
-0 0 -0
-2.0091331 14.493335 0
-7.4703174 53.888817 3.0388074
-0 0 -0
-2.026644 14.490897 0
-7.5447826 53.946655 3.0425806
-1.922536 13.626454 -0.76865977
-2.0437887 14.485863 0
-7.6070571 53.916916 3.0414195
-1.8954332 13.318007 -0.75138915
-2.0572567 14.455038 0
-6.5321469 45.897255 2.589479
-0 0 -0
-2.0754616 14.457699 0
-6.585753 45.876461 2.5887527
-0 0 -0
-2.0914376 14.444879 0
-6.6393194 45.855614 2.5880272
-0 0 -0
-2.1088898 14.442341 0
-6.6902165 45.816704 2.5862856
-1.9495583 13.239279 -0.74747026
-2.1255801 14.434628 0
-6.7433019 45.793167 2.5854151
-1.9647914 13.231778 -0.74718022
-2.1449323 14.444927 0
-6.7990103 45.787556 2.5855601
-1.9800076 13.22425 -0.74688971
-2.1627696 14.444897 0
-5.2611003 35.138302 1.9845688
-1.9990882 13.242402 -0.74805081
-3.0783293 20.391535 0
-5.3004513 35.111362 1.9834077
-2.0135236 13.229702 -0.74747026
-3.1057062 20.405804 0
-5.3413086 35.094658 1.9828272
-2.0299029 13.229835 -0.74761581
-0 0 0
-5.3868628 35.108727 1.9839883
-2.045887 13.227372 -0.74761581
-0 0 0
-5.4348402 35.138138 1.98602
-2.0610669 13.219751 -0.74732524
-0 0 0
-5.4824972 35.164917 1.9879067
-2.0794599 13.232657 -0.74819636
-0 0 0
-5.5298238 35.189072 1.9896483
-2.0862389 13.223697 -0.74776077
-3.2162085 20.386047 0
-7.5651317 47.951843 2.7115345
-2.1034403 13.228867 -0.74819636
-3.2404304 20.379578 0
-7.6165395 47.901615 2.7092128
-2.1194232 13.226315 -0.74819636
-3.2667 20.385925 0
-7.7007246 48.056576 2.7185011
-2.1354032 13.223745 -0.74819636
-3.2909138 20.379387 0
-7.778254 48.167793 2.7253222
-2.1522136 13.226279 -0.74848634
-3.315536 20.375397 0
-7.8468828 48.222473 2.7289505
-2.1681936 13.223669 -0.74848634
-3.3414168 20.379082 0
-7.9106097 48.246288 2.7308373
-2.1888294 13.249243 -0.75008303
-3.3647656 20.367325 0
-7.9777942 48.290531 2.733885
-2.2086761 13.269655 -0.75138915
-3.3889463 20.36068 0
-8.0318727 48.25523 2.732434
-2.2178328 13.225974 -0.74906689
-3.4144073 20.361708 0
-8.111228 48.371048 2.7395451
-2.1952927 12.995265 -0.73615021
-3.439441 20.36013 0
-0 0 0
-2.2482021 13.115414 -0.74326187
-3.489953 20.359457 0
-8.3808985 48.891937 2.7707486
-2.2750986 13.176689 -0.74688971
-3.5176492 20.373171 0
-0 0 0
-2.2963607 13.204651 -0.74863136
-3.5422635 20.368904 0
-8.6365871 49.662544 2.8155942
-2.3145554 13.214662 -0.74935693
-3.5668728 20.364611 0
-8.6782093 49.547138 2.8096437
-2.3309736 13.214421 -0.74950248
-3.5932853 20.370537 0
-8.7430363 49.564766 2.8112404
-2.3469391 13.211596 -0.74950248
-3.6183512 20.36874 0
-8.4638958 47.645706 2.7029722
-2.3642724 13.216416 -0.74993747
-3.6466265 20.384848 0
-8.5091057 47.56638 2.6990533
-2.380702 13.216114 -0.75008303
-3.674485 20.398357 0
-8.5412388 47.415421 2.691071
-2.3966694 13.213228 -0.75008303
-3.7023814 20.411831 0
-8.589715 47.356495 2.6883137
-2.4126332 13.210322 -0.75008303
-3.736392 20.458536 0
-10.184619 55.765667 3.1663785
-2.4290631 13.20995 -0.75022805
-3.7653468 20.477049 0
-10.260451 55.799316 3.1689906
-2.4469149 13.217226 -0.7508086
-3.7881916 20.462248 0
-10.332123 55.809868 3.1702967
-2.4530015 13.205526 -0.75022805
-3.788671 20.39599 0
-10.372007 55.836826 3.1721835
-2.468956 13.202553 -0.75022805
-4.118988 22.025972 0
-10.929984 58.447254 3.321234
-2.4853873 13.202111 -0.75037301
-10.428595 55.39558 0
-11.013577 58.502941 3.3251524
-2.5042415 13.214421 -0.75124413
-10.470326 55.249985 0
-11.086679 58.502365 3.3258784
-2.5192318 13.206276 -0.75095361
-10.527324 55.186165 0
-10.872536 56.995831 3.2409759
-2.5361681 13.208331 -0.75124413
-10.583693 55.119736 0
-0 0 0
-2.5506463 13.1976 -0.7508086
-10.634485 55.02515 0
-5.6705952 29.340897 1.6691971
-2.5685759 13.204712 -0.75138915
-10.686555 54.938179 0
-5.7105083 29.356976 1.6705033
-2.5925169 13.242399 -0.7537114
-10.74393 54.879257 0
-5.7479734 29.360254 1.6710838
-2.6381509 13.389667 -0.76227421
-10.795141 54.789639 0
-5.7804303 29.337986 1.6702126
-10.826409 54.600414 0
-5.8219404 29.361567 1.6719543
-10.779835 54.023293 0
-5.8685989 29.410566 1.6751471
-10.859449 54.081669 0
-5.9010634 29.388172 1.6742766
-10.94025 54.145031 0
-5.9381132 29.388664 1.6747121
-11.015516 54.180222 0
-9.1676979 45.09166 2.5701761
-11.070022 54.113331 0
-9.2195721 45.067822 2.5694506
-11.123857 54.043842 0
-9.2792587 45.082096 2.5709016
-11.171735 53.946266 0
-6.07587 29.339266 1.673551
-11.235319 53.925091 0
-6.1038971 29.296293 1.6715193
-11.299933 53.90892 0
-6.1430216 29.306692 1.6725348
-11.352715 53.836666 0
-6.1821818 29.317049 1.673551
-11.409116 53.782177 0
-6.2224541 29.332432 1.6748571
-11.47192 53.758171 0
-6.2530117 29.302023 1.673551
-11.510388 53.779224 0
-9.6042223 44.873173 2.56321
-11.581386 53.793259 0
-7.6355557 35.465656 2.0263667
-6.6451311 30.685081 0
-7.6795025 35.461479 2.0266569
-6.68331 30.682112 0
-7.719028 35.436943 2.0257862
-2.6337318 12.021216 -0.68738556
-11.843696 54.058517 0
-7.499928 34.232136 1.9574287
-2.6471379 12.012955 -0.68709558
-11.905086 54.026375 0
-7.5418458 34.225594 1.9575742
-2.6616511 12.009748 -0.68709558
-11.992319 54.111046 0
-7.8637371 35.4823 2.0299952
-2.6693771 11.976089 -0.68535388
-12.063354 54.12191 0
-7.9054732 35.467693 2.0297046
-2.6730485 11.924686 -0.68259668
-11.258398 50.224628 0
-7.965373 35.534176 2.0340586
-2.6828837 11.90117 -0.68143553
-12.231882 54.260155 0
-8.0100183 35.532131 2.0344942
-2.693814 11.88271 -0.6805644
-2.7252116 12.021207 0
-8.0632858 35.568039 2.0371063
-2.7018187 11.851584 -0.67896831
-2.7275879 11.964622 0
-8.1149206 35.596272 2.0392835
-2.7120721 11.83058 -0.67795223
-2.7432046 11.966386 0
-8.1805687 35.685211 2.0449436
-2.7228642 11.812107 -0.67708164
-2.7559073 11.955453 0
-6.6315007 28.768234 1.6490237
-0 0 -0
-2.7715278 11.95719 0
-6.6510029 28.694391 1.6452503
-2.7508099 11.802955 -0.67693609
-0 0 0
-6.6750522 28.640778 1.6426375
-2.7632926 11.79204 -0.6765011
-2.7980404 11.940321 0
-6.7001705 28.592222 1.6403159
-2.776346 11.783628 -0.67621052
-2.811271 11.931861 0
-6.7210073 28.525932 1.6369776
-2.7905822 11.780266 -0.67621052
-2.8268871 11.933524 0
-6.744092 28.469755 1.6342202
-2.8036115 11.771834 -0.67592055
-0 0 0
-6.7845063 28.486858 1.6356714
-2.8184378 11.770963 -0.6760655
-0 0 0
-6.8382845 28.559505 1.6403159
-2.8326588 11.767549 -0.6760655
-2.8628178 11.892837 0
-6.8819079 28.589109 1.6424925
-2.8505414 11.779265 -0.67693609
-0 0 0
-6.923171 28.608555 1.6440892
-0 0 -0
-2.8647721 11.775813 -0.67693609
-2.8977003 11.911166 0
-6.98353 28.706207 1.6501848
-0 0 -0
-2.871886 11.77408 -0.67693609
-2.901197 11.894248 0
-7.0039496 28.714602 1.6509104
-0 0 -0
-2.8885858 11.780696 -0.67751664
-2.9186649 11.903369 0
-7.0466843 28.738924 1.652797
-0 0 -0
-2.9046845 11.784768 -0.67795223
-2.9286876 11.882153 0
-7.082026 28.732908 1.6529421
-2.9245455 11.803947 -0.67925829
-2.9436681 11.881129 0
-7.1242375 28.754597 1.6546837
-2.9711063 11.868927 0
-7.2555389 28.984308 1.6689066
-6.2035842 24.655472 0
-7.315917 29.076317 1.6747121
-6.2269917 24.622732 0
-7.3663321 29.127905 1.6781949
-6.2522502 24.59753 0
-7.4104853 29.154245 1.6802272
-6.284544 24.600044 0
-7.1607985 28.030031 1.6159335
-6.3123212 24.584867 0
-7.1804466 27.965994 1.6127408
-6.3459253 24.592348 0
-7.1798234 27.82395 1.6050485
-6.3782492 24.594738 0
-7.2095251 27.800167 1.604178
-6.4099298 24.594563 0
-7.2581816 27.84926 1.6075157
-6.4422803 24.596869 0
-7.3221102 27.956093 1.6141919
-6.4733224 24.594105 0
-7.3730798 28.012556 1.6179652
-6.5083585 24.606394 0
-7.4275203 28.081503 1.6224647
-6.5380855 24.598511 0
-7.4694529 28.102633 1.6242058
-6.5651174 24.580536 0
-7.5449739 28.249229 1.6332042
-6.6002097 24.592693 0
-7.5777564 28.235079 1.6329142
-6.6333079 24.597261 0
-7.6098371 28.218372 1.6324786
-6.6596212 24.576672 0
-7.6446071 28.211662 1.6326237
-6.6744685 24.572643 0
-7.6500711 28.164412 1.6301564
-6.7096338 24.584637 0
-7.5869546 27.799212 1.609548
-6.738647 24.574003 0
-7.5937386 27.692289 1.6038874
-0 0 -0
-6.7676444 24.563337 0
-7.611321 27.625483 1.6005496
-0 0 -0
-6.8014841 24.570187 0
-7.6370692 27.588717 1.5989529
-6.8325634 24.566969 0
-7.6641335 27.55694 1.5976468
-6.8622427 24.558695 0
-7.6946282 27.537649 1.5970663
-0 0 -0
-6.8940229 24.557905 0
-7.7215762 27.505819 1.5957601
-0 0 -0
-6.9272227 24.562078 0
-7.7611532 27.518974 1.5970663
-0 0 -0
-6.9540582 24.543674 0
-7.7851911 27.477077 1.5951796
-6.9851332 24.540257 0
-8.4813461 29.796772 1.7304429
-0 0 -0
-7.0190744 24.546816 0
-8.5544891 29.916405 1.7379895
-0 0 -0
-7.0501652 24.543314 0
-8.6236305 30.020924 1.7446657
-7.0841465 24.549786 0
-8.6987972 30.145283 1.7525024
-7.1174269 24.553703 0
-4.6675439 16.102097 0.93642592
-7.1456337 24.540083 0
-4.697166 16.131369 0.93845761
-0 0 -0
-7.1767426 24.536432 0
-4.7159252 16.123188 0.93831259
-0 0 -0
-7.2005162 24.507767 0
-4.736867 16.122459 0.93860263
-0 0 -0
-7.2212839 24.469095 0
-4.7475185 16.086819 0.93686092
-7.2212615 24.360554 0
-8.1897316 27.627636 1.609548
-0 0 -0
-7.2202425 24.249548 0
-8.2045708 27.555464 1.6059196
-7.2014046 24.132961 0
-8.2160149 27.53307 1.6049035
-7.2014213 24.027025 0
-3.7532251 12.522366 0.73019296
-7.2049427 23.933582 0
-3.7691042 12.520317 0.73033851
-7.2059884 23.832689 0
-3.7782137 12.495855 0.72917736
-7.2022653 23.716892 0
-3.7895353 12.478852 0.72845179
-7.2066216 23.628515 0
-3.8008182 12.46183 0.72772568
-7.205442 23.522751 0
-3.812829 12.44729 0.72714514
-0 0 -0
-7.2124357 23.444389 0
-3.8187008 12.412881 0.72540402
-3.0958672 10.020177 -0.5857935
-7.2161746 23.356089 0
-3.8336964 12.408257 0.72540402
-0 0 -0
-3.1102831 10.023876 -0.58622909
-7.2235689 23.280249 0
-3.8479145 12.401127 0.72525847
-0 0 -0
-3.1293495 10.042436 -0.5875352
-7.2253704 23.187029 0
-3.8590314 12.384068 0.7245329
-0 0 -0
-3.142257 10.041124 -0.58768016
-7.2316189 23.108738 0
-3.8732171 12.376918 0.72438788
-0 0 -0
-3.1411445 9.9951811 -0.58521295
-7.2353506 23.023024 0
-3.8811586 12.349921 0.72308177
-0 0 -0
-3.1719882 10.05085 -0.5886963
-7.2396679 22.939814 0
-3.8976409 12.350173 0.7233718
-3.1613653 9.9751787 -0.58448738
-7.2469368 22.866541 0
-3.910208 12.338031 0.72293681
-3.1923256 10.030767 -0.5879702
-7.2508855 22.783375 0
-3.9235356 12.328341 0.72264624
-0 0 -0
-3.2052367 10.029386 -0.58811575
-7.2641506 22.72998 0
-3.9368486 12.318645 0.72235626
-3.2046487 9.985918 -0.5857935
-7.2717299 22.659237 0
-3.9485545 12.303983 0.72177565
-3.2302606 10.024081 -0.58826077
-3.9858096 12.368686 0
-3.9642148 12.301673 0.72192067
-3.2423704 10.02017 -0.58826077
-3.9959459 12.349009 0
-3.9790761 12.296874 0.72192067
-3.2633088 10.043432 -0.5898574
-3.9963901 12.299624 0
-3.9939315 12.292057 0.72192067
-3.2738285 10.034536 -0.58956689
-4.0055976 12.277465 0
-4.0079761 12.284755 0.72177565
-3.2899947 10.042917 -0.59029239
-4.0155702 12.257781 0
-4.0268607 12.292247 0.72250122
-3.2952521 10.038462 -0.59014744
-4.0148563 12.230621 0
-4.0334768 12.287345 0.72235626
-0 0 -0
-3.3203936 10.073958 -0.59246963
-4.0255589 12.213406 0
-4.0499458 12.287394 0.72264624
-4.0501399 12.188828 0
-4.079628 12.277571 0.72264624
-4.0599217 12.169108 0
-4.0961061 12.277567 0.72293681
-4.0771031 12.171599 0
-4.1117625 12.27507 0.72308177
-4.0884891 12.156797 0
-4.1290774 12.277484 0.72351736
-4.1505947 12.292285 -0.7246846
-4.1040068 12.154311 0
-4.1414146 12.265098 0.72308177
-4.157937 12.265115 -0.72337848
-4.1111708 12.127164 0
-4.1570654 12.262543 0.72322679
-4.1610346 12.225649 -0.7213468
-4.1283374 12.12958 0
-4.1710424 12.255054 0.72308177
-4.1665606 12.193562 -0.71975017
-4.1387839 12.112272 0
-4.1900477 12.262297 0.72380733
-4.1753917 12.171321 -0.71873456
-4.1500382 12.097416 0
-4.2048612 12.257225 0.72380733
-3.7044365 10.75612 -0.63542873
-4.1629562 12.087466 0
-4.2247438 12.266871 0.72467792
-3.7191272 10.756542 -0.6357187
-4.1733069 12.070131 0
-4.2438107 12.274044 0.72540402
-0 0 -0
-3.7278621 10.739769 -0.63499314
-4.1887412 12.067536 0
-4.2611923 12.276264 0.72583902
-0 0 -0
-4.2196345 12.109287 -0.71626735
-4.2076001 12.074752 0
-4.2726026 12.261292 0.72525847
-0 0 -0
-4.2282562 12.087008 -0.71525121
-3.7573085 10.740745 0
-7.9474607 22.718828 1.3443913
-0 0 -0
-4.240274 12.074533 -0.71481568
-3.7745979 10.748481 0
-9.0553617 25.785894 1.5265321
-0 0 -0
-4.246223 12.044899 -0.71336454
-3.7841215 10.734095 0
-9.0649147 25.713671 1.5229038
-0 0 -0
-4.2529726 12.017715 -0.71205842
-4.2667813 12.056735 0
-3.8221109 10.80022 0.63992089
-0 0 -0
-4.2527041 11.970945 -0.70959121
-4.2804728 12.049111 0
-3.8316786 10.785799 0.63934034
-0 0 -0
-4.2636743 11.956008 -0.70901066
-4.2950287 12.04393 0
-3.8447082 10.781161 0.63934034
-0 0 -0
-4.2737398 11.938618 -0.70828509
-4.3051934 12.026484 0
-3.8638637 10.793635 0.64035648
-4.2828884 11.918768 -0.70741397
-4.3267627 12.040866 0
-3.8619654 10.74739 0.63788927
-4.2900882 11.916179 -0.70741397
-4.3366818 12.045598 0
-9.7355242 27.04146 1.6053391
-4.3027186 11.906103 -0.70712399
-4.3476954 12.030559 0
-9.773489 27.044334 1.6062096
-4.3126688 11.888675 -0.70639789
-4.3675523 12.039971 0
-9.7973003 27.008083 1.6047585
-2.9040077 7.9753633 -0.94604003
-4.3252544 11.878576 -0.70610785
-4.3927822 12.06403 0
-8.1470423 22.374466 1.3300235
-2.8932197 7.9159722 -0.93940902
-4.3387132 11.870904 -0.70596284
-4.4082484 12.061155 0
-8.1571255 22.318243 1.3272663
-2.9072359 7.9246097 -0.9408502
-4.3539476 11.86809 -0.70610785
-4.4281988 12.070484 0
-8.1733475 22.279097 1.3255247
-2.9114482 7.9065328 -0.93912101
-4.3664908 11.857948 -0.70581788
-4.4418817 12.062685 0
-8.1894865 22.239944 1.323783
-2.869889 7.7647252 -0.9226886
-4.377212 11.842914 -0.70523733
-4.4573555 12.059748 0
-8.218153 22.234901 1.324073
-2.7749197 7.4799714 -0.88924891
-4.3924217 11.84005 -0.70538229
-4.4845948 12.088509 0
-8.234169 22.195721 1.3223313
-2.7586844 7.4087439 -0.88117671
-4.4003768 11.817686 -0.70436621
-4.5046487 12.097719 0
-8.2546377 22.168716 1.3213158
-2.7667298 7.4029846 -0.8808887
-4.4273868 11.846432 -0.70639789
-4.5219936 12.099574 0
-8.2832355 22.163589 1.3216058
-2.7684054 7.3802624 -0.87858236
-2.8830407 7.6858668 -0.45851246
-7.3809319 19.676746 0
-8.3145723 22.165728 1.3223313
-2.7846117 7.396277 -0.8808887
-2.900568 7.7042708 -0.45981914
-7.3918662 19.63372 0
-8.3331099 22.133781 1.3210253
-2.7917199 7.3880725 -0.88031268
-2.9080362 7.6958947 -0.4595286
-7.4027071 19.590696 0
-8.3552561 22.111544 1.3202996
-2.7969763 7.37502 -0.87915951
-2.906276 7.6632199 -0.45778692
-7.4079161 19.53307 0
-8.3773613 22.089287 1.3195741
-2.8068047 7.3740501 -0.87944752
-2.9136865 7.6548505 -0.45749691
-7.4120717 19.473028 0
-8.4031229 22.076723 1.319429
-2.8184826 7.3779044 -0.88031268
-2.9470415 7.7144308 -0.46127027
-7.41888 19.420303 0
-8.4242268 22.051985 1.318558
-2.8264668 7.3720713 -0.88002354
-2.970315 7.7472601 -0.46344748
-7.4069386 19.318989 0
-8.449007 22.036942 1.3182679
-2.8363039 7.3710713 -0.88031268
-2.9927363 7.7776122 -0.46547917
-7.3975639 19.22501 0
-3.4312527 8.9172421 0.53368437
-2.848001 7.3748703 -0.88117671
-3.0077465 7.7885299 -0.46634972
-7.3532887 19.041269 0
-3.4392159 8.9058151 0.53324884
-2.8550425 7.3666053 -0.88060069
-3.0209112 7.7945814 -0.46693027
-7.3386755 18.935314 0
-3.4443419 8.8871212 0.53237826
-2.8761294 7.394485 -0.88434821
-3.0293863 7.788506 -0.46678528
-7.3417392 18.8755 0
-3.4494281 8.8684273 0.53150773
-2.8907034 7.4054561 -0.8860774
-3.0331275 7.7703209 -0.46591473
-7.3456144 18.818129 0
-3.4516346 8.8424606 0.53020108
-2.961113 7.5723238 -0.90625733
-3.0293019 7.7467003 -0.46460804
-7.3342385 18.755526 0
-3.4484603 8.8185959 0.52889496
-3.007108 7.6626344 -0.9174999
-2.983609 7.6027546 -0.45619079
-7.3378811 18.698196 0
-3.4581649 8.812006 0.52874994
-3.0495343 7.7432184 -0.9275893
-2.9918382 7.5967193 -0.45604524
-7.3499775 18.66268 0
-3.4650013 8.7981501 0.52816939
-3.0693469 7.7659898 -0.9307608
-2.9924202 7.571352 -0.45473912
-7.3505239 18.598124 0
-3.4718091 8.7842903 0.52758884
-3.0844517 7.7767057 -0.93249106
-3.0034845 7.572566 -0.45502967
-7.3614764 18.560198 0
-3.4814637 8.7776766 0.52744383
-3.0890608 7.7609506 -0.93104881
-3.0107086 7.5640984 -0.45473912
-7.3810091 18.544033 0
-3.4882236 8.7638063 0.52686328
-3.0715764 7.6899667 -0.92297775
-3.019846 7.5604548 -0.45473912
-7.4043751 18.537516 0
-3.4901366 8.7378693 0.52555716
-3.0625813 7.6406322 -0.9174999
-3.0251122 7.547153 -0.45415857
-7.434515 18.547882 0
-3.4987566 8.7288179 0.52526659
-3.1094515 7.730505 -0.92874247
-3.0332603 7.5410838 -0.45401356
-7.4569211 18.538885 0
-3.5083325 8.7221756 0.52512157
-3.1555765 7.8178792 -0.93969703
-3.0413985 7.535006 -0.45386857
-7.481266 18.534693 0
-3.5110884 8.6986532 0.52396047
-3.1931787 7.8835802 -0.94805723
-3.0563519 7.5457711 -0.45473912
-7.5065885 18.532877 0
-3.5274513 8.7088594 0.52483159
-3.2007563 7.8749285 -0.94748122
-3.0752532 7.5661492 -0.45619079
-7.5368118 18.543072 0
-3.5291669 8.6829281 0.52352548
-3.1897573 7.8207636 -0.94142735
-3.096169 7.5913005 -0.45793247
-7.5621614 18.541183 0
-3.5416167 8.683465 0.52381545
-3.1737349 7.7546706 -0.9339323
-3.1112428 7.6019783 -0.45880303
-7.5806165 18.522398 0
-3.5550599 8.6863966 0.52425104
-3.1595206 7.693408 -0.92701328
-3.1372063 7.6390729 -0.46127027
-7.607934 18.525259 0
-3.5596285 8.6676674 0.52337992
-3.163888 7.6776304 -0.9255721
-4.0928545 9.9319019 -0.60001636
-7.6184173 18.487188 0
-3.57307 8.6705704 0.52381545
-3.1711838 7.6690168 -0.92499495
-4.1356301 10.001381 -0.60451525
-7.6337876 18.461132 0
-3.5736167 8.6422386 0.52236438
-3.1745026 7.6508498 -0.92326576
-4.1327772 9.9603825 -0.60233855
-7.6501026 18.437468 0
-3.5830579 8.6355066 0.52221882
-3.1916978 7.666111 -0.9255721
-4.1597877 9.9913578 -0.60451525
-7.6723752 18.428211 0
-3.5934896 8.6311712 0.52221882
-3.2542062 7.7633238 -0.93825585
-4.1859317 9.9860735 -0.60480583
-7.7400274 18.464821 0
-3.6083121 8.6080885 0.52134824
-3.3056993 7.8595171 -0.95036358
-4.2080669 10.004955 -0.6062569
-7.7734327 18.481846 0
-3.6237469 8.615696 0.52207381
-3.3435855 7.9361739 -0.95987695
-4.2342882 10.050303 -0.60915971
-7.7835841 18.474741 0
-3.6198723 8.5919552 0.52076769
-3.3612292 7.9511871 -0.9621833
-4.2605915 10.078683 -0.61119139
-7.8221149 18.503677 0
-3.6302514 8.587575 0.52076769
-3.494046 8.2376051 -0.99735332
-4.2920461 10.11898 -0.61394918
-7.8637767 18.539736 0
-3.632508 8.564045 0.51960659
-4.306303 10.118565 -0.61423916
-7.5559907 17.754389 0
-3.6418369 8.5572615 0.51946157
-4.3164873 10.108579 -0.61394918
-7.5529094 17.687803 0
-3.6552362 8.5600262 0.5198971
-4.314374 10.069921 -0.6119175
-7.5640287 17.654747 0
-3.654319 8.5293274 0.51830047
-7.5761061 17.624079 0
-3.6677022 8.5320702 0.518736
-7.5623546 17.533667 0
-3.6728644 8.5157042 0.51801044
-8.1674738 18.873917 0
-3.6862442 8.5184078 0.51844543
-8.1871662 18.85688 0
-3.6996398 8.5211 0.51888102
-8.2151413 18.858902 0
-3.7088964 8.5142431 0.518736
-8.2400045 18.853725 0
-3.7150192 8.5002317 0.51815546
-7.5354242 17.184978 0
-3.7305038 8.5076332 0.51888102
-3.7021148 8.4152279 -0.51351768
-7.5540853 17.171091 0
-3.7334552 8.4864683 0.51786488
-3.7248712 8.4392748 -0.51525933
-8.338768 18.892776 0
-3.7437067 8.4819508 0.51786488
-3.728755 8.420517 -0.5143888
-8.3447304 18.844614 0
-3.7529018 8.4750471 0.51771986
-2.9913006 6.7331629 -0.82121521
-3.7589681 8.4611168 -0.51714605
-8.3696089 18.839277 0
-3.7568116 8.4562626 0.51684934
-3.0015421 6.734273 -0.82179236
-3.7617831 8.4399529 -0.51612991
-8.3891869 18.822018 0
-3.7723148 8.463582 0.51757491
-3.0054538 6.7211967 -0.82063919
-3.7804642 8.4543781 -0.51729101
-8.4151125 18.818996 0
-3.784658 8.4637575 0.51786488
-3.0114534 6.7128358 -0.82006204
-3.7789805 8.4237318 -0.51569492
-8.4410419 18.815941 0
-3.7938194 8.45681 0.51771986
-3.0163808 6.7021232 -0.81919801
-3.7902217 8.4215269 -0.51583993
-3.785738 8.4115648 0
-3.8029697 8.449852 0.51757491
-3.0297978 6.710258 -0.82063919
-3.804672 8.4264145 -0.51642048
-3.7819774 8.3761511 0
-3.8131769 8.4452505 0.51757491
-3.0325685 6.6948142 -0.81919801
-3.8148508 8.4218111 -0.51642048
-3.7910187 8.3691978 0
-3.8190899 8.4311695 0.51699436
-3.0408871 6.7024026 -0.82035118
-3.8102767 8.3982105 -0.51511437
-3.790699 8.3550587 0
-3.8252556 8.4312248 0.51713932
-3.0489836 6.6987233 -0.82035118
-3.8225725 8.3983259 -0.51540434
-3.786777 8.3196821 0
-3.839746 8.4360561 0.51771986
-3.0559978 6.6926746 -0.82006204
-3.8294785 8.3866072 -0.51496881
-3.805475 8.3340387 0
-3.8413022 8.4125013 0.51655877
-3.0597737 6.6795712 -0.81890887
-3.8493519 8.4032421 -0.51627547
-3.8101239 8.3176069 0
-11.126451 24.289354 1.4922808
-3.0656846 6.6711736 -0.81833285
-3.8540745 8.3867731 -0.51554936
-3.8125634 8.2964411 0
-11.807856 25.694834 1.5795057
-0 0 -0
-3.8587673 8.3703127 -0.51482379
-3.8214967 8.2894669 0
-11.799731 25.595596 1.5742806
-0 0 -0
-3.8590629 8.3444204 -0.51351768
-3.8271406 8.2753954 0
-11.845918 25.614332 1.5763123
-0 0 -0
-3.8636758 8.3279686 -0.51279211
-3.8327558 8.261322 0
-11.884515 25.616503 1.5773284
-0 0 -0
-3.8449295 8.2613993 0
-11.905592 25.580923 1.5760223
-0 0 -0
-3.72001 7.9678102 -0.4911676
-3.8494051 8.2449589 0
-12.776284 27.365252 1.6869032
-0 0 -0
-3.7296348 7.9633093 -0.4911676
-3.8538465 8.2285194 0
-12.813749 27.359205 1.6874838
-3.128597 6.6590466 -0.82006204
-3.7149432 7.9070525 -0.48797426
-3.8604653 8.2167883 0
-12.834642 27.317831 1.6858871
-3.1344376 6.6505866 -0.81948602
-3.7433302 7.942523 -0.49044204
-3.8737204 8.219182 0
-6.4993067 13.790098 0.8515234
-3.1491022 6.6608195 -0.82121521
-3.7495916 7.9309444 -0.49000648
-3.8791995 8.2050848 0
-6.50597 13.761095 0.85021728
-3.1493931 6.6406579 -0.81919801
-3.769192 7.9475355 -0.49131259
-3.8924575 8.207448 0
-6.5070066 13.72036 0.8481856
-3.1607449 6.6438475 -0.82006204
-3.7665119 7.9171624 -0.48971593
-3.8945444 8.186285 0
-6.519115 13.703101 0.84760505
-3.1743393 6.6516929 -0.82150322
-3.7648861 7.8891592 -0.4882648
-3.9044333 8.1815739 0
-6.5479751 13.721004 0.84920114
-3.1879613 6.659524 -0.82294554
-3.7766578 7.889287 -0.48855481
-3.9176884 8.1838942 0
-6.5555735 13.694331 0.84804004
-3.2105596 6.6859756 -0.82669306
-4.4250426 9.2151299 -0.57099015
-3.925319 8.1744585 0
-6.5743675 13.69109 0.84833062
-3.2309797 6.7077174 -0.82986343
-4.4361739 9.2097769 -0.57099015
-3.9340649 8.167367 0
-6.5988002 13.699525 0.8493467
-3.2739661 6.7760062 -0.83880079
-4.4552088 9.2207804 -0.57200569
-3.9473286 8.1696396 0
-6.6130857 13.686858 0.84905618
-3.3080933 6.8255715 -0.84543067
-4.4878807 9.25982 -0.57476348
-3.9662774 8.1835995 0
-6.6284866 13.676521 0.84891117
-3.319732 6.8285499 -0.84629583
-4.5161042 9.2894382 -0.57694012
-3.9647818 8.1553907 0
-6.655231 13.689532 0.85021728
-3.3295171 6.8381681 -0.84773701
-4.5558434 9.3567991 -0.5812946
-3.9742653 8.1623535 0
-6.6600866 13.678498 0.84978175
-3.3389113 6.836462 -0.84802502
-4.5808258 9.3792973 -0.58303571
-3.981843 8.152873 0
-6.6948547 13.707798 0.85210395
-3.350584 6.8393931 -0.84889019
-4.6047311 9.3994255 -0.5846324
-3.9905474 8.1457205 0
-6.7068405 13.690365 0.8515234
-3.361125 6.8399777 -0.8494662
-4.6057725 9.3728685 -0.58332628
-4.0038271 8.1478939 0
-6.7268167 13.68925 0.85195893
-3.3796821 6.8567982 -0.85206169
-4.6113515 9.3556452 -0.58260071
-4.0079174 8.1313801 0
-6.7433529 13.681111 0.85195893
-3.3879647 6.8527093 -0.85206169
-6.3304 12.804262 -0.797831
-4.0258145 8.1428642 0
-6.7794552 13.71255 0.85442621
-3.4019868 6.8601947 -0.85350287
-6.3539486 12.812901 -0.79884708
-4.0368056 8.1403236 0
-6.7890902 13.690376 0.85355508
-3.4114244 6.8583927 -0.85379088
-6.3694258 12.805215 -0.79884708
-4.0408449 8.1237907 0
-6.8137293 13.698451 0.85457116
-3.4208624 6.8565779 -0.85407889
-6.3698144 12.767285 -0.79696041
-4.0506577 8.1189032 0
-6.3291626 12.685805 0.79187429
-3.4279885 6.8501282 -0.85379088
-6.3840747 12.757257 -0.79681545
-4.0616283 8.1163273 0
-6.3549509 12.699059 0.79318041
-3.4617872 6.8968325 -0.86013275
-6.3948221 12.740245 -0.79623491
-4.0702662 8.1090899 0
-6.3784513 12.70763 0.79419649
-3.6736505 7.2969179 -0.91058201
-6.3973575 12.706977 -0.79463822
-4.0765495 8.0971899 0
-6.3867884 12.685984 0.79332542
-3.7559073 7.4379134 -0.92874247
-3.9801033 7.8818946 -0.49319926
-4.0816379 8.0829659 0
-6.3833761 12.641154 0.7910037
-3.747365 7.3987656 -0.92441893
-3.9802315 7.8585348 -0.49203816
-4.1090412 8.1128559 0
-6.3904266 12.617203 0.78998762
-3.7633288 7.4080634 -0.92614812
-4.0014906 7.8768821 -0.49348927
-4.1094117 8.089323 0
-6.4009595 12.600205 0.78940707
-3.7953444 7.4265852 -0.92960763
-4.0086918 7.8440557 -0.49203816
-4.1336856 8.0886383 0
-6.4006486 12.524546 0.78563368
-3.8196516 7.4519143 -0.93335515
-4.025281 7.8530846 -0.49290928
-4.1446419 8.0859509 0
-6.4062953 12.498303 0.78447258
-3.8582165 7.5047989 -0.94056219
-4.0181317 7.8158574 -0.49087703
-4.1615462 8.09482 0
-6.413075 12.474375 0.78345644
-3.8779488 7.5208192 -0.94315654
-4.0144768 7.7855988 -0.48928091
-4.1534371 8.0550957 0
-6.4198108 12.450457 0.7824409
-3.9096093 7.5597811 -0.94863439
-4.016717 7.7668896 -0.48840982
-4.1703382 8.0639372 0
-6.4181366 12.410374 0.78040868
-0 0 -0
-3.9139771 7.5458679 -0.94748122
-4.0308847 7.7712569 -0.48899037
-4.1812801 8.0612087 0
-6.4127893 12.363399 0.77794147
-3.9388034 7.5825195 -0.95238191
-4.0415668 7.7803473 -0.48971593
-4.1813512 8.0494432 0
-6.4130731 12.345692 0.77707088
-0 0 -0
-3.9682777 7.6167474 -0.9572826
-4.0569715 7.7869873 -0.49044204
-4.1982865 8.0582294 0
-6.4063773 12.296457 0.77445865
-4.0038285 7.6623755 -0.96362448
-4.0639687 7.7774692 -0.49015149
-4.2068162 8.0508461 0
-6.4103966 12.267974 0.77315199
-4.0286908 7.6873121 -0.967372
-4.0781879 7.7817593 -0.49073204
-4.2129159 8.0388393 0
-6.4107456 12.23261 0.77141088
-4.0596352 7.7236447 -0.9725607
-4.1008873 7.8021288 -0.4923287
-4.2202067 8.0291405 0
-6.4049706 12.185756 0.76894361
-4.1284838 7.8316407 -0.49450538
-4.2359724 8.0355434 0
-6.4209008 12.180304 0.76908863
-4.1525178 7.8542123 -0.49624705
-7.5334296 14.248982 0
-6.4173951 12.138077 0.76691139
-4.1632214 7.8514829 -0.49639207
-7.5433283 14.226078 0
-6.4235392 12.114251 0.76589584
-4.1690488 7.8395705 -0.49595705
-7.5495157 14.196275 0
-6.4186516 12.069773 0.76357359
-4.1821833 7.8413987 -0.49639207
-7.5531907 14.161881 0
-6.4258914 12.048247 0.76270252
-4.1916547 7.83634 -0.49639207
-7.5457468 14.106848 0
-6.4269667 12.015277 0.76110637
-4.1974387 7.8244066 -0.49595705
-0 0 0
-6.4365668 11.998343 0.76052582
-4.1769967 7.7637658 -0.98265123
-4.2056556 7.8170342 -0.49581149
-7.563787 14.05878 0
-6.4350562 11.960812 0.75863916
-4.2121658 7.8065124 -0.98870504
-4.2138653 7.8096623 -0.4956665
-7.5523486 13.996958 0
-6.4420981 11.939302 0.75776803
-4.2105131 7.7809377 -0.98610961
-4.2195873 7.7977066 -0.49523094
-7.522192 13.900849 0
-6.439209 11.89952 0.75573635
-4.2149816 7.7667599 -0.98495752
-4.2327256 7.7994561 -0.4956665
-7.4632621 13.752223 0
-6.4337521 11.855189 0.75341415
-3.5159111 6.4599824 -0.81977403
-4.2297273 7.7715173 -0.4942154
-7.4301143 13.651769 0
-6.4393802 11.831437 0.75239855
-3.526195 6.4602742 -0.82035118
-4.2515616 7.7892046 -0.4956665
-7.4029675 13.562835 0
-6.4412198 11.800836 0.75094688
-0 0 -0
-4.2609701 7.7840614 -0.4956665
-7.3968544 13.512784 0
-6.4417534 11.767979 0.74935079
-0 0 -0
-4.2653708 7.7697964 -0.49508595
-7.4056644 13.490153 0
-6.4434609 11.737404 0.74789912
-0 0 -0
-4.2760081 7.7669106 -0.49523094
-6.4254274 11.671102 0
-6.4363356 11.690915 0.7454319
-3.5335038 6.4090633 -0.8157385
-4.2844644 7.7711549 -0.4956665
-6.4249411 11.653547 0
-6.4233246 11.650616 0.74310964
-3.5362391 6.3957348 -0.81458533
-4.2938514 7.7659721 -0.4956665
-6.4478283 11.661712 0
-6.4311123 11.631478 0.74238408
-0 0 -0
-4.3032317 7.760778 -0.4956665
-6.459393 11.649364 0
-6.4388628 11.612339 0.74165851
-0 0 -0
-4.3163958 7.7623878 -0.49610206
-6.4684052 11.632453 0
-6.4554172 11.609097 0.74194908
-3.5480635 6.362546 -0.81199098
-4.3194451 7.745822 -0.4953765
-7.3658719 13.20881 0
-6.4719687 11.605823 0.74223912
-3.5481718 6.3447046 -0.81026065
-4.3351417 7.7519341 -0.49610206
-6.538415 11.691743 0
-6.4935946 11.611597 0.74310964
-3.5507748 6.3313894 -0.80910748
-4.3394213 7.7376251 -0.49552152
-6.5665369 11.708797 0
-6.5088949 11.606015 0.7432552
-3.5533509 6.3180766 -0.80795431
-4.355135 7.7436981 -0.49624705
-6.5755768 11.69178 0
-6.5369215 11.623049 0.74485129
-3.5635262 6.3182883 -0.80853146
-4.3593826 7.7293768 -0.4956665
-6.5948133 11.692894 0
-6.5471349 11.608358 0.7444163
-3.5584221 6.2914605 -0.80564797
-4.3699965 7.7263632 -0.49581149
-0 0 0
-6.5688295 11.614005 0.74528688
-3.5800593 6.3119059 -0.80881947
-4.3806152 7.7233438 -0.49595705
-0 0 0
-6.5854244 11.610584 0.74557745
-3.5940762 6.3188148 -0.81026065
-4.3899441 7.7180452 -0.49595705
-0 0 0
-6.6122932 11.6252 0.74702853
-3.5978677 6.3077335 -0.80939662
-4.4057026 7.7240186 -0.49668261
-0 0 0
-6.6301985 11.623976 0.74746412
-3.5926423 6.2809258 -0.80651313
-4.4111605 7.7119207 -0.49624705
-6.6821322 11.682203 0
-6.6442389 11.615956 0.74746412
-3.6131005 6.2990208 -0.80939662
-4.4140124 7.6953173 -0.49552152
-6.6923618 11.667355 0
-6.6673164 11.623691 0.74847966
-3.6168389 6.2879219 -0.80853146
-6.7228751 11.687807 -0.75313085
-6.6973701 11.643466 0
-6.6891327 11.629145 0.74935079
-0 0 -0
-3.6283123 6.2902708 -0.80939662
-6.7408838 11.686421 -0.75356585
-6.7153363 11.642131 0
-6.7070704 11.6278 0.74978578
-0 0 -0
-3.6229572 6.2634888 -0.80651313
-6.7615089 11.689521 -0.75429195
-6.7489409 11.667793 0
-6.7276244 11.630939 0.75051188
-0 0 -0
-3.6447992 6.2837195 -0.80968463
-5.1277685 8.8403931 -0.57084513
-6.7643437 11.661887 0
-6.744278 11.627294 0.75080192
-0 0 -0
-3.6419857 6.2614245 -0.80737829
-5.1384468 8.8341904 -0.57084513
-6.7836642 11.662704 0
-6.7726951 11.643846 0.75239855
-0 0 -0
-3.6417274 6.2436099 -0.80564797
-0 0 -0
-6.8082361 11.672475 0
-6.7906833 11.642381 0.75283355
-0 0 -0
-3.6558018 6.2503748 -0.80709028
-0 0 -0
-6.8236527 11.666492 0
-6.81393 11.64987 0.75384969
-0 0 -0
-3.6556544 6.241467 -0.80622512
-0 0 -0
-6.8175445 11.639907 0
-6.82622 11.654719 0.75443023
-3.6592624 6.2303524 -0.80535996
-5.1533909 8.7742929 -0.56837791
-5.2566695 8.9501381 0
-6.8481908 11.659903 0.75530082
-0 0 -0
-3.6628489 6.2192383 -0.8044948
-5.15344 8.7501478 -0.56721675
-5.258234 8.9280806 0
-6.8728237 11.669531 0.75646192
-0 0 -0
-3.6690471 6.2125831 -0.80420679
-5.1534381 8.7260151 -0.56605566
-5.2703404 8.9239588 0
-6.89749 11.679117 0.75762302
-3.6752343 6.2059216 -0.80391878
-5.1560311 8.7063627 -0.56518453
-5.2731647 8.9041529 0
-6.9274859 11.697604 0.75936472
-3.6866934 6.2081504 -0.80478394
-5.1625705 8.6934309 -0.56474954
-5.28126 8.8932953 0
-6.9562106 11.713803 0.76096141
-0 0 -0
-3.6902208 6.197022 -0.80391878
-5.1677532 8.678256 -0.56416899
-5.2840152 8.8734951 0
-6.978334 11.718781 0.76183194
-0 0 -0
-3.6990309 6.194777 -0.80420679
-5.1768994 8.6697683 -0.56402344
-6.9717865 11.675671 0
-7.0018148 11.725959 0.76284808
-0 0 -0
-3.7118282 6.1991796 -0.80535996
-5.1806984 8.6523619 -0.56329787
-6.9858894 11.667238 0
-7.0279908 11.737553 0.7641542
-0 0 -0
-3.71 6.1791739 -0.80334276
-5.1831264 8.6327333 -0.56242734
-6.9986434 11.656559 0
-7.0608916 11.760236 0.76618582
-0 0 -0
-3.7227948 6.1835418 -0.8044948
-0 0 -0
-5.2959657 8.7965698 0
-7.0911794 11.778409 0.76792753
-3.7342751 6.1856837 -0.80535996
-5.1905413 8.5979328 -0.56097561
-0 0 0
-7.1080894 11.774278 0.7682175
-3.7457662 6.1878071 -0.80622512
-5.2022762 8.5938845 -0.56112123
-0 0 0
-7.137114 11.790133 0.76981419
-3.7572677 6.1899118 -0.80709028
-5.2166972 8.5942497 -0.56155622
-5.3143163 8.7550716 0
-7.1594419 11.794825 0.77068478
-3.7776053 6.1896448 -0.80824345
-5.2320366 8.5727453 -0.56097561
-5.3232574 8.7222128 0
-7.2014642 11.799673 0.77213645
-3.7891278 6.1916881 -0.80910748
-5.2356105 8.5553379 -0.5602501
-5.3297162 8.7091122 0
-7.222497 11.802043 0.77286196
-3.789844 6.1760845 -0.8076663
-5.2391505 8.5379333 -0.55952454
-5.3307114 8.6871452 0
-7.248982 11.813237 0.77416807
-3.8189907 6.2067471 -0.81227899
-5.2412953 8.5183229 -0.55865395
-5.331656 8.6651802 0
-7.2659764 11.8089 0.77445865
-3.8346334 6.2153311 -0.81400818
-5.250216 8.5097656 -0.5585084
-5.3298254 8.6387997 0
-7.2952442 11.824431 0.7760548
-3.8448648 6.215097 -0.81458533
-5.2604947 8.5034161 -0.5585084
-5.3306742 8.6168585 0
-7.3231993 11.83771 0.77750647
-3.8523717 6.2104464 -0.81458533
-5.2830968 8.5169325 -0.55981511
-5.3355947 8.6015654 0
-7.3429713 11.837677 0.77808642
-3.8629453 6.2191014 -0.81602651
-5.3046889 8.5402184 -0.56155622
-5.3421621 8.6005487 0
-7.3638349 11.855315 0.77953809
-3.8745606 6.2210178 -0.81689167
-5.3191266 8.5404215 -0.56199175
-5.3470469 8.5852509 0
-7.3960114 11.87508 0.78142482
-3.8848121 6.220715 -0.81746769
-5.3432031 8.5560236 -0.56344289
-5.3656907 8.5920324 0
-7.4117298 11.868337 0.78156978
-3.8964453 6.2225952 -0.81833285
-5.3728466 8.5803976 -0.56547511
-5.3760686 8.5855427 0
-7.4384747 11.879191 0.7828759
-3.9039612 6.2178826 -0.81833285
-5.3776836 8.5650969 -0.56489456
-5.3933563 8.5900593 0
-7.4500623 11.865798 0.78258592
-3.91836 6.224103 -0.81977403
-7.3634014 11.696365 -0.77199757
-5.3995709 8.5769262 0
-7.4713149 11.86778 0.78331149
-3.9244983 6.2171788 -0.81948602
-7.3900161 11.707241 -0.77330422
-7.3810697 11.693069 0
-7.4911971 11.867533 0.78389204
-3.9333897 6.2146158 -0.81977403
-7.4027629 11.696101 -0.77315867
-7.3979793 11.688544 0
-7.5180368 11.878231 0.78519815
-3.9519832 6.2273293 -0.82208037
-7.4238501 11.698116 -0.77388424
-7.4288259 11.705956 0
-7.5379534 11.877913 0.7857787
-3.960892 6.2247295 -0.82236838
-7.4393787 11.691336 -0.77402979
-7.4415689 11.694778 0
-7.5481138 11.862218 0.78534317
-3.9725854 6.2264824 -0.82323354
-7.4618826 11.695477 -0.77490038
-7.4668927 11.70333 0
-7.5666356 11.859663 0.7857787
-3.9801061 6.2216778 -0.82323354
-7.4774079 11.68864 -0.77504534
-7.4740176 11.68334 0
-7.5767579 11.843943 0.78534317
-3.9987924 6.2342811 -0.82553989
-7.5027494 11.697093 -0.77620649
-7.4993701 11.691825 0
-7.5896621 11.832594 0.78519815
-4.0091176 6.2337914 -0.82611591
-7.5239038 11.698944 -0.776932
-7.5275664 11.704639 0
-7.6025496 11.821231 0.78505313
-3.9886186 6.1854763 -0.82035118
-7.5450792 11.70077 -0.77765816
-7.5543957 11.715219 0
-7.608376 11.798929 0.78418201
-0 0 -0
-3.9020035 6.0351319 -0.80103642
-7.5620308 11.696005 -0.77794814
-7.5657225 11.701715 0
-7.6452003 11.824641 0.78650427
-3.8009591 5.8632984 -0.77883816
-7.5775695 11.689037 -0.77809316
-7.5784364 11.690374 0
-7.6976471 11.874268 0.79042315
-3.7854931 5.8240118 -0.77422661
-7.6016021 11.695126 -0.77910924
-7.5996523 11.692125 0
-7.7162337 11.871488 0.79085815
-3.7685218 5.7825975 -0.76932591
-7.6256604 11.701173 -0.78012538
-7.6393485 11.722177 0
-7.7305722 11.862155 0.79085815
-3.7514558 5.7412329 -0.76442522
-7.6596894 11.7224 -0.78215706
-7.6648955 11.730367 0
-7.730689 11.831058 0.78940707
-3.7342954 5.6999183 -0.75952452
-7.6852398 11.730524 -0.78331816
-7.7033076 11.758101 0
-7.7364378 11.80867 0.78853649
-3.7320633 5.6890106 -0.75837135
-7.6880484 11.719358 -0.78288263
-7.7203984 11.768672 0
-7.7307386 11.784434 0.78722984
-3.7389345 5.6844969 -0.75837135
-7.695065 11.699208 -0.78215706
-7.7303267 11.752818 0
-7.7364073 11.762063 0.78635925
-3.74295 5.6756525 -0.7577942
-7.6934581 11.666038 -0.78056037
-7.7273288 11.717398 0
-7.7377405 11.733186 0.78505313
-3.7440989 5.6624956 -0.75664103
-7.6946516 11.637228 -0.77925426
-7.7328715 11.695031 0
-7.736146 11.699983 0.78345644
-3.7437937 5.6471906 -0.75519985
-7.6943521 11.606269 -0.77780312
-7.7383661 11.67266 0
-7.7387915 11.673301 0.78229535
-3.7248452 5.6038942 -0.75001115
-7.7040539 11.590469 -0.77736759
-7.7337379 11.635127 0
-7.7370725 11.640143 0.78069925
-3.7258763 5.5907798 -0.74885798
-7.7022061 11.557373 -0.77577144
-7.7405763 11.614947 0
-7.7381639 11.611328 0.77939314
-0 0 -0
-3.7283165 5.5798202 -0.74799281
-7.706059 11.532932 -0.77475536
-7.7358098 11.577457 0
-7.7363071 11.578201 0.77779645
-0 0 -0
-3.7321796 5.5710177 -0.74741679
-7.7040787 11.499864 -0.77315867
-7.7410998 11.555125 0
-7.7387214 11.551575 0.77663535
-0 0 -0
-3.7417901 5.5707941 -0.74799281
-7.7049303 11.471135 -0.77185255
-7.7463522 11.532804 0
-7.7425303 11.527115 0.77561921
-0 0 -0
-3.7441828 5.5598307 -0.74712765
-7.7086234 11.446728 -0.77083647
-7.7472 11.50401 0
-7.7433915 11.498355 0.77431309
-0 0 -0
-3.7552414 5.5617352 -0.74799281
-7.7093639 11.418025 -0.76953036
-7.7479892 11.475231 0
-7.745647 11.471763 0.77315199
-3.7648616 5.5614815 -0.74856997
-7.7144179 11.395795 -0.76865977
-7.7472572 11.444305 0
-7.7449389 11.440881 0.77170086
-3.7541485 5.5312471 -0.74511045
-7.7165079 11.369266 -0.76749867
-7.7508531 11.419868 0
-7.7441678 11.410019 0.77024972
-3.7622828 5.5288434 -0.74539846
-7.711237 11.332008 -0.76561201
-7.754396 11.395432 0
-7.7491751 11.387759 0.76937866
-3.7806222 5.5413861 -0.7477048
-7.7161403 11.309808 -0.76474142
-7.7520242 11.362404 0
-7.7541451 11.365513 0.76850808
-3.8033795 5.5602989 -0.75087631
-7.7180638 11.283319 -0.76358032
-7.7539988 11.335853 0
-7.7517338 11.332541 0.76691139
-3.791074 5.5279632 -0.74712765
-7.7258134 11.265412 -0.76299977
-7.7618027 11.31789 0
-7.7507281 11.301742 0.76546031
-3.791889 5.5148535 -0.74597448
-7.7261715 11.236801 -0.76169366
-7.7592516 11.284912 0
-7.7555423 11.279517 0.76458919
-3.8000221 5.512403 -0.74626362
-7.7279449 11.210342 -0.7605325
-7.7566319 11.251956 0
-7.7544203 11.248748 0.76313806
-3.8033519 5.5101061 -0.74626362
-7.7199526 11.184282 -0.75908083
-7.7545609 11.234421 0
-7.7508812 11.22909 0.76212192
-3.7997024 5.4906168 -0.74424529
-7.7216315 11.157852 -0.75791973
-7.7548027 11.205785 0
-7.7511368 11.200488 0.7608158
-3.8225541 5.5093994 -0.74741679
-5.1578674 7.43397 -0.50539041
-7.7534986 11.17502 0
-7.7543006 11.176176 0.75980026
-3.8336351 5.5111403 -0.74828082
-5.1534934 7.408536 -0.50408429
-7.7640262 11.161374 0
-7.7559285 11.149734 0.75863916
-3.8447316 5.5128708 -0.74914598
-0 0 -0
-5.2051249 7.4635067 0
-7.7575035 11.123302 0.75747806
-3.8602855 5.5209432 -0.75087631
-5.1684008 7.3917975 -0.50379378
-5.2066841 7.4465499 0
-7.7620015 11.10114 0.75660694
-3.8728867 5.5247383 -0.75202835
-5.1639061 7.3663993 -0.50248766
-5.2097025 7.4317288 0
-7.7619867 11.072606 0.75530082
-3.8795595 5.5200548 -0.75202835
-5.1653342 7.3495269 -0.50176209
-5.2321453 7.4445896 0
-7.7619147 11.044087 0.7539947
-3.8847382 5.5132508 -0.75174034
-5.1712146 7.3390279 -0.50147152
-5.2471328 7.4467721 0
-7.7602897 11.013464 0.75254357
-3.8749855 5.485321 -0.74856997
-5.1695881 7.317924 -0.50045598
-5.2666397 7.4553075 0
-7.7660966 10.993469 0.751818
-3.8950634 5.4996295 -0.75116432
-5.1634054 7.2904634 -0.4990043
-5.2696276 7.4404435 0
-7.7613525 10.958632 0.75007635
-3.9166772 5.5160041 -0.75404668
-5.1571698 7.2630367 -0.49755317
-5.278614 7.4340706 0
-7.7670679 10.938654 0.74935079
-3.9218409 5.5091624 -0.75375867
-5.1418309 7.22293 -0.49523094
-5.2830634 7.4213247 0
-7.771235 10.916556 0.74847966
-3.9330039 5.5107374 -0.75462383
-5.1384788 7.1997914 -0.49406981
-5.2920265 7.4149356 0
-7.7647977 10.879664 0.746593
-3.9411633 5.5080829 -0.75491184
-5.1456642 7.1914663 -0.49392483
-5.2934117 7.3979554 0
-7.7718897 10.861821 0.74601245
-3.9574802 5.502738 -0.75548786
-5.1569595 7.1705723 -0.49334428
-5.3112741 7.3851414 0
-7.7708101 10.80504 0.74340022
-3.9565642 5.487464 -0.75404668
-5.1656199 7.1643357 -0.49334428
-5.3171525 7.3745008 0
-7.773221 10.780887 0.74238408
-3.9631917 5.4826794 -0.75404668
-5.1697106 7.1517773 -0.49290928
-5.3169088 7.3554115 0
-7.7755904 10.756752 0.74136853
-3.9971306 5.5155807 -0.75923538
-5.1798716 7.1476274 -0.49305427
-0 0 0
-7.7794304 10.73472 0.74049741
-3.9655287 5.4650221 -0.7526055
-5.1872382 7.1486988 -0.49334428
-5.3164768 7.3268075 0
-7.7752366 10.715302 0.73948187
-3.9553905 5.4372172 -0.74943399
-5.2035136 7.1529303 -0.49406981
-5.3237967 7.3182755 0
-7.7835908 10.699594 0.73904628
-3.9238567 5.3801923 -0.74222696
-5.2044983 7.1361427 -0.49334428
-5.3265014 7.3034267 0
-7.7812052 10.669191 0.7375952
-3.8967724 5.3295169 -0.73588508
-5.2238545 7.1445336 -0.49436039
-5.3353224 7.2969851 0
-7.7756872 10.63461 0.73585349
-3.8894484 5.3060322 -0.73329073
-3.9021959 5.3234224 -0.36867601
-3.9302299 5.3616667 0
-7.7916007 10.629395 0.73614353
-3.8897302 5.2929916 -0.73213756
-3.9070883 5.3166118 -0.36853102
-3.9336262 5.3527236 0
-3.9393294 5.3604841 0.37157211
-3.9037924 5.2986975 -0.73357874
-3.9258397 5.3286228 -0.36969212
-3.9231093 5.3249168 0
-3.9303939 5.3348045 0.370121
-0 0 -0
-3.93536 5.3280516 -0.36998212
-3.9310911 5.3222718 0
-3.9491873 5.3467722 0.3712821
-3.9150481 5.2871718 -0.73329073
-3.9417951 5.3232927 -0.36998212
-3.9406137 5.3216972 0
-3.9525495 5.3378162 0.37099156
-3.9276006 5.2907443 -0.7344439
-3.9513249 5.3227024 -0.3702727
-3.9377365 5.3043981 0
-3.9651916 5.341382 0.37157211
-3.9293566 5.279768 -0.73357874
-3.9453425 5.3012481 -0.36911157
-3.9410324 5.2954564 0
-3.9669871 5.3303313 0.37113655
-3.9450164 5.2874584 -0.73530906
-3.9626179 5.3110495 -0.37012714
-3.948983 5.2927747 0
-3.9734249 5.3255343 0.37113655
-3.9514024 5.2826881 -0.73530906
-3.9394655 5.2667294 -0.36736989
-3.9772017 5.3171792 0
-3.9736314 5.3124061 0.370556
-4.0260525 5.3689513 -0.74799281
-0 0 -0
-3.9773781 5.3040414 0
-7.7726727 10.365265 0.72366238
-4.1288962 5.4922595 -0.7658664
-4.7968645 6.3807912 -0.44588631
-7.7821779 10.351856 0
-7.7805057 10.349632 0.72322679
-4.1557655 5.5141168 -0.76961392
-4.756094 6.3106685 -0.44138741
-7.7837205 10.327903 0
-7.7914429 10.33815 0.72308177
-4.1764565 5.5276623 -0.77220827
-7.741344 10.245895 -0.71728289
-7.7867775 10.306027 0
-7.7960982 10.318364 0.72235626
-4.1784458 5.5164247 -0.77134311
-7.7505836 10.232395 -0.71699291
-7.7945151 10.290394 0
-7.7991438 10.296505 0.72148514
-0 0 -0
-4.186677 5.5134373 -0.77163225
-7.7613721 10.220955 -0.7168479
-7.7927737 10.262308 0
-7.7990079 10.270518 0.72032398
-4.2105651 5.5310068 -0.77480263
-7.7768612 10.215701 -0.71713793
-7.794138 10.238396 0
