# .PCD v0.7 - Point Cloud Data file format
VERSION 0.7
FIELDS x y z
SIZE 4 4 4
TYPE F F F
COUNT 1 1 1
WIDTH 1710
HEIGHT 1
VIEWPOINT 0 0 0 1 0 0 0
POINTS 1710
DATA ascii
14.996705 -3.811893 0.86429513
0 -0 -0
2.9197946 -0.73840451 -0.83092391
3.4746101 -0.87871522 -0.79396278
4.2826428 -1.0830635 -0.73645562
5.721149 -1.446856 -0.65776199
8.3864975 -2.1209121 -0.48318535
7.8098745 -1.9750865 0
14.988707 -3.7905848 0.86356956
2.4280932 -0.61093467 -0.82557166
2.9255552 -0.73610145 -0.83230954
3.480593 -0.87575495 -0.79508746
4.2914195 -1.0797677 -0.73773992
5.720387 -1.4393115 -0.65747398
8.3890533 -2.1107771 -0.48318535
7.8097339 -1.9650139 0
15.003356 -3.7750072 0.86415011
0 -0 -0
2.9264424 -0.73256594 -0.83230954
3.4791861 -0.87093228 -0.79452515
4.2852478 -1.0727109 -0.73645562
5.7196155 -1.431771 -0.65718597
8.3865519 -2.0993757 -0.48289478
7.8146248 -1.9562073 0
14.965057 -3.7461498 0.86168289
0 -0 -0
2.9394951 -0.73206013 -0.83576971
3.4728367 -0.86488503 -0.79283595
4.2915182 -1.0687717 -0.73731077
5.7238488 -1.4254833 -0.65747398
8.3941298 -2.0904977 -0.48318535
7.8068814 -1.9442477 0
7.8544512 -1.9560947 0.45212018
0 -0 -0
2.9330697 -0.72669727 -0.83369255
3.4714153 -0.86007768 -0.79227358
4.2828393 -1.0611161 -0.73559886
5.7356091 -1.4210542 -0.65862715
8.3865614 -2.0778539 -0.48260477
7.8092251 -1.9348133 0
7.7962861 -1.9316076 0.4486374
0 -0 -0
2.938822 -0.72435462 -0.83507824
3.4749167 -0.85649002 -0.79283595
4.2940884 -1.0583978 -0.73731077
5.7297854 -1.4122653 -0.65776199
8.3915863 -2.0683403 -0.48274979
7.8090324 -1.9247537 0
7.7910433 -1.9203197 0.44820186
0 -0 -0
2.915334 -0.7148298 -0.8281579
3.4833548 -0.85410655 -0.79452515
4.310328 -1.0568775 -0.73987937
5.7264686 -1.4041102 -0.65718597
8.3940792 -2.0581992 -0.48274979
7.8012419 -1.9128375 0
7.8337369 -1.9208052 0.45052409
0 -0 -0
2.9576275 -0.7214126 -0.83992404
3.4868505 -0.8504985 -0.79508746
4.2916503 -1.046802 -0.73645562
5.7206202 -1.3953506 -0.65632081
8.3839407 -2.0449769 -0.48202422
7.8060832 -1.9040283 0
7.9445958 -1.9378138 0.45676467
0 -0 -0
2.9365478 -0.71251267 -0.83369255
3.4779985 -0.84388816 -0.79283595
4.2978969 -1.0428251 -0.73731077
5.7273245 -1.3896558 -0.65689683
8.3914509 -2.0360692 -0.48231423
7.8033152 -1.8933663 0
8.0984325 -1.9649725 0.46547246
0 -0 -0
2.9081511 -0.70190287 -0.82538927
3.4913633 -0.8426652 -0.79564983
4.2941675 -1.0364277 -0.73645562
5.7315207 -1.3833431 -0.65718597
8.3888578 -2.0247102 -0.48202422
7.8612494 -1.8973682 0
8.0982771 -1.9545766 0.46532747
0 -0 -0
2.9260662 -0.70248634 -0.83023244
3.4874423 -0.83726078 -0.79452515
4.2979107 -1.031837 -0.73688316
5.7331882 -1.3764167 -0.65718597
8.3887739 -2.0139663 -0.48187923
8.1596031 -1.9589474 0
8.1208467 -1.9496428 0.4664886
0 -0 -0
2.9375188 -0.69773221 -0.83300108
3.491925 -0.82941717 -0.79508746
4.2954011 -1.0202624 -0.73602808
5.7264318 -1.3601669 -0.6560328
8.3936167 -1.9936882 -0.48187923
8.3617992 -1.9861308 0
8.1533365 -1.9366158 0.46808469
0 -0 -0
2.9407988 -0.69475853 -0.83369255
3.4855039 -0.82344413 -0.79339826
4.3041186 -1.0168403 -0.73731077
5.7431693 -1.3568135 -0.65776199
8.3909569 -1.9823487 -0.48158866
8.4047174 -1.9855995 0
8.1657858 -1.9291524 0.46866527
0 -0 -0
2.9465253 -0.69235349 -0.83507824
3.4939194 -0.82097614 -0.79508746
4.3028474 -1.0110524 -0.73688316
5.7397738 -1.348691 -0.65718597
8.3908186 -1.9716146 -0.48144367
8.4881821 -1.9944924 0
8.1782293 -1.9216617 0.46924582
0 -0 -0
2.937588 -0.68650901 -0.83230954
3.4874835 -0.81501859 -0.79339826
4.3190689 -1.0093586 -0.73945183
5.7439151 -1.3423426 -0.65747398
8.4007883 -1.963249 -0.48187923
8.5488653 -1.9978545 0
8.2741623 -1.9336568 0.47461584
0 -0 -0
2.933111 -0.68359417 -0.83092391
3.4929292 -0.81406605 -0.79452515
4.3096776 -1.0044184 -0.73773992
5.7447252 -1.3388722 -0.65747398
8.3893118 -1.9552226 -0.4811531
8.5652838 -1.9962347 0
8.3942614 -1.9563762 0.48143697
0 -0 -0
2.9412692 -0.68174958 -0.83300108
3.4963832 -0.81041813 -0.79508746
4.305882 -0.99804986 -0.73688316
5.7362599 -1.3295937 -0.65632081
8.4043331 -1.9480197 -0.48187923
8.6158524 -1.9970474 0
8.462429 -1.9614859 0.48521033
0 -0 -0
2.9494271 -0.67988628 -0.83507824
3.49736 -0.80619282 -0.79508746
4.3170905 -0.99515277 -0.73859507
5.7428985 -1.3238224 -0.65689683
8.4016113 -1.9366949 -0.48158866
8.6563015 -1.9954046 0
8.5154343 -1.9629327 0.48811311
0 -0 -0
2.9257977 -0.6707173 -0.8281579
3.4785182 -0.79742432 -0.79058439
4.3082814 -0.98764127 -0.73688316
5.7470222 -1.3174618 -0.65718597
8.3963442 -1.9247993 -0.4811531
8.6942148 -1.993084 0
14.963318 -3.4302289 0.85747397
0 -0 -0
2.9877446 -0.68111938 -0.84545863
3.4992981 -0.79773873 -0.79508746
4.3244934 -0.98585945 -0.73945183
5.7511292 -1.3110911 -0.65747398
8.3961334 -1.9140756 -0.48100811
8.7093019 -1.9854689 0
14.98772 -3.4167666 0.85863507
0 -0 -0
2.9200675 -0.66198027 -0.8260808
3.4953082 -0.79238749 -0.79396278
4.3156672 -0.97836322 -0.73773992
5.7501888 -1.3035698 -0.65718597
8.3984404 -1.9039291 -0.48100811
8.7472229 -1.9829983 0
14.989305 -3.3980803 0.85849011
0 -0 -0
2.9551237 -0.66617429 -0.83576971
3.4987392 -0.78872174 -0.79452515
4.3143349 -0.97258168 -0.73731077
5.7492294 -1.2960503 -0.65689683
8.4032669 -1.8943506 -0.4811531
8.7978516 -1.9833021 0
14.983261 -3.3776805 0.85790956
0 -0 -0
2.9681642 -0.66534638 -0.83922988
3.4872954 -0.78171527 -0.79171121
4.3155069 -0.96736795 -0.73731077
5.7533226 -1.28967 -0.65718597
8.4030161 -1.8836278 -0.48100811
8.8332529 -1.98007 0
14.977189 -3.3573003 0.85732895
0 -0 -0
2.9493766 -0.6573931 -0.83369255
3.5006351 -0.78026438 -0.79452515
4.3216887 -0.96327078 -0.73816752
5.7498226 -1.2815908 -0.65660882
8.400219 -1.8723435 -0.48071811
8.8534222 -1.9733591 0
14.978691 -3.338634 0.8571834
0 -0 -0
2.9575191 -0.65545791 -0.83576971
3.506532 -0.77713245 -0.79564983
4.327857 -0.959158 -0.73902261
5.7564225 -1.2757627 -0.65718597
8.3973961 -1.8610666 -0.48042756
8.8583393 -1.9632226 0
14.995406 -3.3233454 0.85790956
0 -0 -0
2.9558613 -0.65134448 -0.83507824
3.5000315 -0.77125615 -0.79396278
4.3214993 -0.9522723 -0.73773992
5.752903 -1.267692 -0.65660882
8.3971033 -1.8503599 -0.48028255
8.8861151 -1.9581169 0
0 -0 0
0 -0 -0
2.9468436 -0.64562476 -0.83230954
3.4935124 -0.76539463 -0.79227358
4.317627 -0.94595009 -0.73688316
5.7620125 -1.262401 -0.65747398
8.4044046 -1.8413235 -0.48057255
11.791517 -2.5834069 0
0 -0 0
0 -0 -0
2.9868422 -0.65060681 -0.84338415
3.5167763 -0.76603943 -0.79733902
4.3313055 -0.94346362 -0.73902261
5.7635336 -1.2554377 -0.65747398
8.3888588 -1.8272973 -0.47955701
11.756495 -2.5608504 0
0 -0 0
0 -0 -0
2.9778183 -0.64487338 -0.84061551
3.5052853 -0.75910109 -0.79452515
4.314887 -0.93442768 -0.73602808
5.7625213 -1.2479259 -0.65718597
8.3961344 -1.8182586 -0.47984698
11.751947 -2.5449901 0
14.978271 -3.2436798 0.8560223
0 -0 -0
2.9614251 -0.63757813 -0.83576971
3.496264 -0.7527259 -0.79227358
4.3436112 -0.93515497 -0.74073446
5.7640247 -1.240962 -0.65718597
8.4059486 -1.8097534 -0.48028255
11.76519 -2.5329792 0
14.977104 -3.2244861 0.85573232
0 -0 -0
2.9450183 -0.63032341 -0.83092391
3.5021353 -0.7495634 -0.79339826
4.3321891 -0.92722011 -0.73859507
5.7655201 -1.2339965 -0.65718597
8.4081297 -1.7995951 -0.48028255
11.763158 -2.517673 0
14.975913 -3.2053003 0.85544229
0 -0 -0
2.9678695 -0.63146484 -0.83715534
3.5030384 -0.74533117 -0.79339826
4.3257713 -0.92038161 -0.73731077
5.7695341 -1.2275668 -0.65747398
8.4153757 -1.7905147 -0.48057255
11.750913 -2.5002072 0
14.977226 -3.1866603 0.85529673
0 -0 -0
2.9882567 -0.63202935 -0.84268999
3.508913 -0.74215049 -0.79452515
4.3193531 -0.91356206 -0.73602808
5.7659473 -1.2195231 -0.65689683
8.4124537 -1.7792708 -0.48028255
11.748838 -2.4849305 0
14.970897 -3.1664102 0.85471618
0 -0 -0
2.9542758 -0.62297779 -0.83300108
3.5267668 -0.74370086 -0.79846585
4.3399987 -0.91518974 -0.73945183
5.7666831 -1.2160394 -0.65689683
8.4135275 -1.774188 -0.48028255
11.755425 -2.478905 0
14.960096 -3.1546845 0.85399061
0 -0 -0
2.9550264 -0.61940765 -0.83300108
3.5177155 -0.7373538 -0.79621434
4.3235116 -0.90625805 -0.73645562
5.7706871 -1.2096027 -0.65718597
8.4131241 -1.7634881 -0.48013756
11.743134 -2.4614966 0
14.974071 -3.1387382 0.85457116
0 -0 -0
2.9582262 -0.61634785 -0.83369255
3.498704 -0.72895664 -0.79171121
4.3296251 -0.90207946 -0.73731077
5.7746739 -1.2031561 -0.65747398
8.420332 -1.7543801 -0.48042756
11.75119 -2.4483662 0
14.967676 -3.1185226 0.85399061
0 -0 -0
2.9417794 -0.60921323 -0.82884943
3.5219727 -0.72936547 -0.79677665
4.3382554 -0.89840955 -0.73859507
5.7735934 -1.1956537 -0.65718597
8.4199028 -1.7436781 -0.48028255
11.746502 -2.4325836 0
14.96635 -3.0993819 0.85370064
0 -0 -0
2.9720004 -0.61172754 -0.83715534
3.515383 -0.72357208 -0.79508746
4.3368258 -0.89264989 -0.73816752
5.7699623 -1.1876327 -0.65660882
8.4194613 -1.7329797 -0.48013756
11.754526 -2.4194369 0
14.970084 -3.081296 0.85370064
0 -0 -0
2.9899354 -0.61165422 -0.84199852
3.5162547 -0.71932393 -0.79508746
4.3278413 -0.88535106 -0.73645562
5.7713928 -1.1806599 -0.65660882
8.4266357 -1.7238457 -0.48042756
11.76764 -2.4073184 0
14.971243 -3.0626829 0.85355508
0 -0 -0
2.9513369 -0.60004365 -0.83092391
3.512146 -0.71406317 -0.79396278
4.3414836 -0.88267785 -0.73859507
5.7778897 -1.1747171 -0.65718597
8.4210711 -1.7121089 -0.479992
11.752686 -2.3894677 0
14.972389 -3.0440736 0.85341007
0 -0 -0
2.9717321 -0.60045201 -0.83646119
3.5030441 -0.70780599 -0.79171121
4.3450608 -0.87793928 -0.73902261
5.776762 -1.1672211 -0.65689683
8.433322 -1.7039909 -0.48057255
11.755564 -2.3752651 0
14.970967 -3.0249519 0.85312009
0 -0 -0
2.9601595 -0.59439182 -0.83300108
3.5188391 -0.70657307 -0.79508746
4.3486423 -0.87319535 -0.73945183
5.7807117 -1.1607507 -0.65718597
8.4379292 -1.6943127 -0.48071811
11.74567 -2.3584979 0
14.972066 -3.0063491 0.85297507
0 -0 -0
2.9559598 -0.58983368 -0.83161807
3.5147114 -0.70132726 -0.79396278
4.3396249 -0.86593086 -0.73773992
5.774498 -1.1522462 -0.65632081
8.4348688 -1.683098 -0.48042756
11.740852 -2.3427756 0
14.973132 -2.9877462 0.85282952
0 -0 -0
2.9960346 -0.59406692 -0.84268999
3.5105667 -0.69609058 -0.79283595
4.3456993 -0.86168426 -0.73859507
5.7758861 -1.145268 -0.65632081
8.4394426 -1.6734097 -0.48057255
7.7691731 -1.5405058 0
14.976731 -2.9696519 0.85282952
0 -0 -0
2.9696815 -0.58511299 -0.83507824
3.5138958 -0.69233894 -0.79339826
4.3391786 -0.85494351 -0.73731077
5.7721853 -1.1372871 -0.65574366
8.4414587 -1.6632111 -0.48057255
0 -0 0
14.970111 -2.9495442 0.85224897
0 -0 -0
2.9703863 -0.58152431 -0.83507824
3.5097475 -0.68711716 -0.79227358
4.345252 -0.85068721 -0.73816752
5.7786369 -1.1313066 -0.65632081
8.4511147 -1.6545082 -0.48100811
0 -0 0
14.976221 -2.9319541 0.85239452
0 -0 -0
2.9563065 -0.57505965 -0.83092391
3.5230436 -0.68530118 -0.79508746
4.3538384 -0.84690714 -0.73945183
5.7799997 -1.1243235 -0.65632081
8.4454536 -1.6428065 -0.48057255
0 -0 0
14.977195 -2.9133587 0.85224897
0 -0 -0
2.9742436 -0.57481992 -0.83576971
3.5163825 -0.67959684 -0.79339826
4.3397312 -0.83872211 -0.73688316
5.786428 -1.1183193 -0.65689683
8.4448833 -1.6321081 -0.48042756
7.7765279 -1.5029378 0
14.975607 -2.8942742 0.85195893
0 -0 -0
2.9675424 -0.56980604 -0.83369255
3.5197036 -0.67582804 -0.79396278
4.3432603 -0.83396143 -0.73731077
5.7903223 -1.1118158 -0.65718597
8.4442997 -1.6214134 -0.48028255
7.7783384 -1.4935403 0
14.971435 -2.8747067 0.8515234
0 -0 -0
2.9460523 -0.56198949 -0.82746375
3.527998 -0.67300165 -0.79564983
4.3493128 -0.82967579 -0.73816752
5.7814989 -1.1028799 -0.6560328
8.4513531 -1.6121818 -0.48057255
7.785255 -1.4851168 0
14.972347 -2.856128 0.85137838
0 -0 -0
2.9689109 -0.56263298 -0.83369255
3.5188229 -0.66684586 -0.79339826
4.3528318 -0.82489741 -0.73859507
5.7879047 -1.0968555 -0.65660882
8.4532948 -1.6019688 -0.48057255
7.7793703 -1.4742546 0
14.970676 -2.8370662 0.85108787
0 -0 -0
2.979111 -0.5627017 -0.83646119
3.5167308 -0.66424865 -0.79283595
4.3482895 -0.82131547 -0.73773992
5.7885666 -1.0933585 -0.65660882
8.4466085 -1.5954159 -0.48013756
7.7828145 -1.470037 0
14.972388 -2.828021 0.85108787
0 -0 -0
2.9797885 -0.55910164 -0.83646119
3.5150359 -0.65953076 -0.79227358
4.3442278 -0.81511313 -0.73688316
5.787344 -1.0858868 -0.65632081
8.4536333 -1.5861663 -0.48042756
7.7820296 -1.4601524 0
14.96814 -2.8084917 0.85065281
0 -0 -0
2.9558039 -0.55090493 -0.82954091
3.5333178 -0.65854239 -0.79621434
4.3527827 -0.81127489 -0.73816752
5.7886515 -1.0788932 -0.65632081
8.4580956 -1.5764261 -0.48057255
7.7837882 -1.4507483 0
14.974074 -2.7908792 0.85079783
0 -0 -0
2.9540029 -0.54687679 -0.82884943
3.5316052 -0.65380871 -0.79564983
4.3588033 -0.80694848 -0.73902261
5.7848597 -1.0709554 -0.65574366
8.4599943 -1.566205 -0.48057255
7.7880921 -1.4418154 0
14.967216 -2.7708919 0.85021728
0 -0 -0
2.9842703 -0.54875153 -0.83715534
3.529896 -0.64908195 -0.79508746
4.3572526 -0.80121732 -0.73859507
5.7912421 -1.0649011 -0.65632081
8.4593267 -1.5555122 -0.48042756
7.7898288 -1.4324039 0
14.975669 -2.7537456 0.85050786
0 -0 -0
2.9454441 -0.53793359 -0.8260808
3.5131881 -0.64162207 -0.7911489
4.3556948 -0.7954911 -0.73816752
5.7874308 -1.0569725 -0.65574366
8.4560928 -1.5443568 -0.48013756
7.7838707 -1.4215872 0
14.96109 -2.7323802 0.84949172
0 -0 -0
2.9436257 -0.5339269 -0.82538927
3.526459 -0.63964355 -0.79396278
4.3490729 -0.78885263 -0.73688316
5.791256 -1.0504417 -0.6560328
8.4630613 -1.5350647 -0.48042756
7.7830248 -1.4117169 0
7.7624435 -1.4079838 0.44065514
0 -0 -0
2.971421 -0.5352608 -0.83300108
3.5372319 -0.6371839 -0.79621434
4.3576045 -0.78496277 -0.73816752
5.789968 -1.0429835 -0.65574366
8.4623556 -1.5243775 -0.48028255
7.7872834 -1.4027725 0
0 -0 0
0 -0 -0
2.9794767 -0.53299576 -0.83507824
3.5204885 -0.6297769 -0.79227358
4.3585496 -0.77969688 -0.73816752
5.7937775 -1.0364435 -0.6560328
8.4590702 -1.5132352 -0.479992
7.7812948 -1.3919885 0
0 -0 0
0 -0 -0
2.9850538 -0.53027201 -0.83646119
3.5162482 -0.62463462 -0.7911489
4.3670735 -0.77577728 -0.73945183
5.7950258 -1.0294421 -0.6560328
8.4634581 -1.5034688 -0.48013756
7.7932205 -1.3844061 0
7.8007526 -1.3857442 0.44254184
0 -0 -0
2.9856925 -0.52666479 -0.83646119
3.5370088 -0.6239149 -0.79564983
4.3553605 -0.768269 -0.73731077
5.7937107 -1.0219885 -0.65574366
8.4678259 -1.4936922 -0.48028255
7.7820654 -1.3727268 0
7.7614784 -1.3690953 0.44021961
0 -0 -0
2.9888048 -0.52349085 -0.83715534
3.5302589 -0.61832684 -0.79396278
4.3638735 -0.76433492 -0.73859507
5.7923961 -1.0145414 -0.65545565
8.4645004 -1.4825619 -0.479992
0 -0 0
7.7580032 -1.3588187 0.43992904
0 -0 -0
2.969662 -0.51644039 -0.83161807
3.5209901 -0.61231941 -0.79171121
4.3597407 -0.75818264 -0.73773992
5.7987194 -1.0084289 -0.6560328
8.468853 -1.4727796 -0.48013756
0 -0 0
7.7724471 -1.3516709 0.44065514
0 -0 -0
2.9603949 -0.51114434 -0.82884943
3.5342443 -0.61022568 -0.79452515
4.3657079 -0.75378692 -0.73859507
5.7948313 -1.0005405 -0.65545565
8.4706259 -1.4625456 -0.48013756
0 -0 0
7.7689486 -1.3413934 0.4403646
0 -0 -0
2.9535899 -0.50629491 -0.82677227
3.539983 -0.60681254 -0.79564983
4.3590226 -0.74720967 -0.73731077
5.7985826 -0.99397445 -0.65574366
8.4723873 -1.4523095 -0.48013756
0 -0 0
7.7705636 -1.3320051 0.4403646
0 -0 -0
2.969034 -0.50525016 -0.83092391
3.5457282 -0.60338807 -0.79677665
4.3725829 -0.74409664 -0.73945183
5.7997794 -0.98696727 -0.65574366
8.4690075 -1.4411985 -0.47984698
7.7773914 -1.3235039 0
7.769608 -1.3221794 0.44021961
0 -0 -0
2.9943843 -0.50584197 -0.83784688
3.518893 -0.59444731 -0.79058439
4.3785367 -0.73966706 -0.74030691
5.8009677 -0.97995865 -0.65574366
8.4681835 -1.4305319 -0.479702
7.7584558 -1.3106375 0
7.7712002 -1.3127904 0.44021961
0 -0 -0
2.9724259 -0.50028569 -0.83161807
3.5392966 -0.59569502 -0.79508746
4.3764534 -0.73659593 -0.73987937
5.8092132 -0.97774208 -0.65660882
8.4767361 -1.4267098 -0.48013756
7.7618198 -1.3063831 0
7.7771115 -1.3089569 0.44050959
0 -0 -0
2.9903426 -0.49958634 -0.83646119
3.5324929 -0.59016156 -0.79339826
4.3748107 -0.73088473 -0.73945183
5.8052931 -0.96987051 -0.6560328
8.4733229 -1.4156091 -0.47984698
7.7864923 -1.3008628 0
7.7761273 -1.299131 0.4403646
0 -0 -0
2.9810441 -0.49433106 -0.83369255
3.5507526 -0.58880287 -0.79733902
4.378221 -0.72601765 -0.73987937
5.8115587 -0.96370065 -0.65660882
8.4750271 -1.4053698 -0.47984698
7.7777891 -1.2897503 0
7.7725692 -1.2888849 0.44007459
0 -0 -0
2.97422 -0.48950762 -0.83161807
3.538928 -0.58244926 -0.79452515
4.3714933 -0.71947581 -0.73859507
5.8101692 -0.95625818 -0.65632081
8.4869747 -1.3968163 -0.48042756
7.7793417 -1.2803515 0
7.7818055 -1.280757 0.44050959
0 -0 -0
2.9896603 -0.4883393 -0.83576971
3.5270932 -0.57612509 -0.79171121
4.3824935 -0.71584851 -0.74030691
5.8113208 -0.94923705 -0.65632081
8.4707127 -1.3836293 -0.47941199
7.7885909 -1.2722098 0
7.7756615 -1.2700979 0.44007459
0 -0 -0
2.9927223 -0.48512757 -0.83646119
3.5302925 -0.57226902 -0.79227358
4.3909597 -0.71178532 -0.74159122
5.8073521 -0.94138592 -0.65574366
8.4775028 -1.3742239 -0.479702
7.7772703 -1.2607144 0
7.7797527 -1.2611169 0.44021961
0 -0 -0
2.9938858 -0.47789392 -0.83646119
3.5492315 -0.56654006 -0.79621434
4.3850598 -0.69995767 -0.74030691
5.8147235 -0.92816532 -0.65632081
8.4756718 -1.3529147 -0.47941199
7.7623119 -1.2390457 0
7.7802143 -1.2419034 0.44007459
0 -0 -0
2.9870346 -0.4730998 -0.83438671
3.5423822 -0.56105822 -0.79452515
4.380836 -0.6938563 -0.73945183
5.8132882 -0.92073441 -0.6560328
8.4798651 -1.3430786 -0.47955701
7.7483754 -1.2272221 0
7.7791352 -1.2320939 0.43992904
0 -0 -0
2.9603398 -0.46520573 -0.82677227
3.5430577 -0.55677754 -0.79452515
4.3867383 -0.68935865 -0.74030691
5.8169494 -0.91411066 -0.65632081
8.4686489 -1.3308148 -0.47883144
7.7370005 -1.2158391 0
7.7754893 -1.2218875 0.43963903
0 -0 -0
2.9980845 -0.46742579 -0.83715534
3.5437279 -0.55249608 -0.79452515
4.3850341 -0.68366259 -0.73987937
5.8180494 -0.90708137 -0.65632081
8.4548416 -1.3181787 -0.47796032
7.7410331 -1.2068901 0
7.774395 -1.2120916 0.43949404
0 -0 -0
2.9416211 -0.45498261 -0.821235
3.5293314 -0.54588419 -0.7911489
4.3807783 -0.67757809 -0.73902261
5.8140244 -0.89925927 -0.65574366
8.3614178 -1.2932664 -0.4725903
7.7193408 -1.1939559 0
7.7809849 -1.2034905 0.43978405
0 -0 -0
2.9520876 -0.45294982 -0.82400364
3.5626357 -0.54662848 -0.79846585
4.3866735 -0.6730637 -0.73987937
5.8227787 -0.89341068 -0.65660882
7.8262119 -1.2008049 -0.44225797
7.7207775 -1.1846277 0
7.7798676 -1.1936941 0.43963903
0 -0 -0
3.0195913 -0.45957336 -0.84268999
3.5482168 -0.54002869 -0.79508746
4.3900189 -0.66814864 -0.74030691
5.823854 -0.88637429 -0.65660882
7.7814226 -1.1843108 -0.43964574
7.7376456 -1.1776481 0
7.786437 -1.185074 0.43992904
0 -0 -0
2.9829416 -0.45030826 -0.83230954
3.5689662 -0.53877521 -0.79959053
4.4009762 -0.66437638 -0.74201882
5.8223658 -0.87895095 -0.65632081
7.7700038 -1.1729686 -0.43892017
7.7287698 -1.1667439 0
7.7827296 -1.1748897 0.43963903
0 -0 -0
2.9760377 -0.44558883 -0.83023244
3.5470011 -0.53107655 -0.79452515
4.3941569 -0.6579175 -0.74073446
5.8183026 -0.87114841 -0.65574366
7.7739825 -1.1639637 -0.43906519
7.7250214 -1.1566328 0
7.7789989 -1.1647147 0.43934849
0 -0 -0
2.9964266 -0.44494042 -0.83576971
3.5476401 -0.52679032 -0.79452515
4.3873386 -0.65147746 -0.73945183
5.814239 -0.86335844 -0.65516764
7.7625346 -1.1526614 -0.43833962
7.7444353 -1.149974 0
7.7881136 -1.1564598 0.43978405
0 -0 -0
3.0242662 -0.44534025 -0.84338415
3.5633519 -0.52472365 -0.79790133
4.3982811 -0.64767164 -0.74116367
5.8280702 -0.85821611 -0.65660882
7.7793412 -1.1455518 -0.43921018
7.7303662 -1.1383399 0
7.7817907 -1.1459125 0.43934849
0 -0 -0
3.0322425 -0.44277209 -0.84545863
3.5614717 -0.52005082 -0.79733902
4.4066739 -0.64346838 -0.74244636
5.829103 -0.8511734 -0.65660882
7.7704349 -1.1346493 -0.43862963
7.7368913 -1.1297512 0
7.780601 -1.1361338 0.43920347
0 -0 -0
2.972935 -0.43227771 -0.82884943
3.556761 -0.51716858 -0.79621434
4.3740396 -0.63600439 -0.73688316
5.8219347 -0.84653473 -0.65574366
7.7711191 -1.1299546 -0.43862963
7.722115 -1.1228292 0
7.7812862 -1.1314329 0.43920347
0 -0 -0
3.0156655 -0.43477067 -0.84061551
3.542289 -0.51069438 -0.79283595
4.3951311 -0.63364923 -0.74030691
5.830636 -0.84060699 -0.65660882
7.7699094 -1.1201935 -0.43848461
7.7286224 -1.1142411 0
7.7800779 -1.1216595 0.43905848
0 -0 -0
2.9640369 -0.42367208 -0.8260808
3.5630262 -0.50929016 -0.79733902
4.3933549 -0.62797523 -0.73987937
5.8290892 -0.83319557 -0.65632081
7.7661076 -1.1100681 -0.43819407
7.7299633 -1.1049018 0
7.7865672 -1.1129926 0.43934849
0 -0 -0
2.9844184 -0.42290622 -0.83161807
3.5611258 -0.50462836 -0.79677665
4.399189 -0.62338591 -0.74073446
5.8224068 -0.82506263 -0.65545565
7.7674432 -1.1006835 -0.43819407
7.7261343 -1.0948298 0
7.7879066 -1.1035832 0.43934849
0 -0 -0
3.0420606 -0.42732549 -0.84753579
3.5667603 -0.50103134 -0.79790133
4.4126468 -0.61985505 -0.74287391
5.8336449 -0.81946599 -0.65660882
7.7764897 -1.092382 -0.43862963
7.7351856 -1.0865799 0
7.7840929 -1.0934501 0.43905848
0 -0 -0
3.0202141 -0.42053592 -0.84130698
3.5422018 -0.49321774 -0.79227358
4.4057722 -0.61346167 -0.74159122
5.8397593 -0.81313062 -0.65718597
7.7778039 -1.0829848 -0.43862963
7.741653 -1.0779512 0
7.7879796 -1.0844017 0.43920347
0 -0 -0
3.0082963 -0.41517171 -0.83784688
3.5729997 -0.49310583 -0.79902822
4.3963385 -0.60673392 -0.73987937
5.8304887 -0.80465943 -0.6560328
7.7739635 -1.0728763 -0.43833962
7.7352133 -1.0675284 0
7.7815595 -1.0739247 0.43876791
0 -0 -0
2.9913938 -0.40915629 -0.83300108
3.5509381 -0.48568952 -0.79396278
4.4072418 -0.60281289 -0.74159122
5.8314567 -0.7976138 -0.6560328
7.7778263 -1.063834 -0.43848461
7.7339215 -1.0578288 0
7.7905774 -1.0655781 0.43920347
0 -0 -0
3.0515509 -0.41362888 -0.84961295
3.5641093 -0.48310468 -0.79677665
4.3876166 -0.59472871 -0.73816752
5.8298454 -0.79021865 -0.65574366
7.7791061 -1.0544353 -0.43848461
7.7326078 -1.0481325 0
7.7867146 -1.0554665 0.43891349
0 -0 -0
3.0172431 -0.4052664 -0.83992404
3.5722477 -0.47981286 -0.79846585
4.4112277 -0.59250194 -0.74201882
5.8333669 -0.78351915 -0.6560328
7.772646 -1.0439968 -0.43804905
7.7364554 -1.0391358 0
7.7879839 -1.046057 0.43891349
0 -0 -0
3.0028048 -0.39963394 -0.83576971
3.5501494 -0.47247836 -0.79339826
4.4144826 -0.58750975 -0.74244636
5.8471265 -0.77817589 -0.65747398
7.776475 -1.0349468 -0.43819407
7.7402825 -1.0301301 0
7.7866592 -1.0363022 0.43876791
0 -0 -0
3.0231833 -0.39862904 -0.84130698
3.5482011 -0.4678565 -0.79283595
4.3973813 -0.57982719 -0.73945183
5.8378053 -0.76975769 -0.65632081
7.7699986 -1.0245317 -0.43775907
7.7389441 -1.0204369 0
7.7930627 -1.0275729 0.43905848
0 -0 -0
2.9962964 -0.39140099 -0.83369255
3.5664027 -0.46587297 -0.79677665
4.4133463 -0.57650775 -0.74201882
5.8412933 -0.76303798 -0.65660882
7.7660732 -1.0144686 -0.4374685
7.7427492 -1.0114219 0
7.7839928 -1.0168095 0.43847793
0 -0 -0
3.0092144 -0.38939095 -0.83715534
3.57956 -0.46319339 -0.79959053
4.3962164 -0.56886834 -0.73902261
5.8396487 -0.75564778 -0.65632081
7.7776008 -1.0064179 -0.43804905
7.7465444 -1.0023992 0
7.7903643 -1.0080695 0.43876791
0 -0 -0
2.917614 -0.37395403 -0.81154603
3.5725539 -0.45789847 -0.79790133
4.4147267 -0.56584078 -0.74201882
5.8405571 -0.74859113 -0.65632081
7.7710767 -0.99602813 -0.43761349
7.7477498 -0.9930383 0
7.7838521 -0.99766558 0.43833292
0 -0 -0
3.0424986 -0.38622457 -0.84615278
3.5756326 -0.4539023 -0.79846585
4.4230494 -0.56147617 -0.74330312
5.8465843 -0.74218422 -0.65689683
7.7722745 -0.98663753 -0.43761349
7.7463646 -0.98334849 0
7.792778 -0.98924029 0.43876791
0 -0 -0
3.0305102 -0.38098249 -0.84268999
3.5761783 -0.4495815 -0.79846585
4.4186258 -0.55549037 -0.74244636
5.8500504 -0.73544282 -0.65718597
7.7683096 -0.97659796 -0.43732351
7.7397981 -0.97301364 0
7.7913918 -0.97949976 0.43862292
0 -0 -0
2.9983804 -0.37510332 -0.83369255
3.561317 -0.44552779 -0.79508746
4.4215055 -0.55313909 -0.74287391
5.845356 -0.7312656 -0.65660882
7.7766356 -0.9728725 -0.43775907
7.7481341 -0.96930689 0
7.7894063 -0.97447014 0.43847793
0 -0 -0
3.0212462 -0.37425673 -0.83992404
3.5795064 -0.44341117 -0.79902822
4.4170804 -0.54716557 -0.74201882
5.8513741 -0.72483861 -0.65718597
7.7674909 -0.96219748 -0.43717849
7.7544603 -0.96058339 0
7.7880015 -0.96473831 0.43833292
0 -0 -0
2.9893177 -0.36663467 -0.83092391
3.5724711 -0.43815747 -0.79733902
4.4202838 -0.54214019 -0.74244636
5.8368373 -0.71587807 -0.65545565
7.778964 -0.95407659 -0.43775907
7.7401214 -0.94931263 0
7.7891617 -0.95532733 0.43833292
0 -0 -0
3.0096822 -0.36544159 -0.83646119
3.5830874 -0.4350656 -0.79959053
4.4132977 -0.53587139 -0.74116367
5.8454032 -0.70976043 -0.65632081
7.7517343 -0.94123095 -0.43616238
7.7490158 -0.94090086 0
7.7954645 -0.94654077 0.43862292
0 -0 -0
2.9926929 -0.35970986 -0.83161807
3.5709994 -0.42921999 -0.79677665
4.4062934 -0.52961904 -0.73987937
5.8488221 -0.70300525 -0.65660882
7.7786598 -0.93496412 -0.43761349
7.7604828 -0.93277931 0
7.79918 -0.93743056 0.43876791
0 -0 -0
3.0529046 -0.36320546 -0.84822732
3.5841284 -0.4264054 -0.79959053
4.4222198 -0.52611351 -0.74244636
5.8471012 -0.69563234 -0.65632081
7.7823715 -0.92587233 -0.43775907
7.7460938 -0.92155629 0
7.7899957 -0.92677939 0.43818793
0 -0 -0
2.9910548 -0.35218242 -0.83092391
3.5745473 -0.42088589 -0.79733902
4.4101076 -0.51926911 -0.74030691
5.8453712 -0.68826455 -0.6560328
7.7912192 -0.91737884 -0.43819407
7.7446194 -0.91189194 0
7.7936883 -0.91766959 0.43833292
0 -0 -0
2.9740419 -0.3465364 -0.8260808
3.5700104 -0.41597885 -0.79621434
4.4183836 -0.5148316 -0.74159122
5.8513317 -0.68179923 -0.65660882
7.7897434 -0.90766358 -0.43804905
7.7457156 -0.90253341 0
7.7896242 -0.9076497 0.43804237
0 -0 -0
3.0417423 -0.35070014 -0.84476715
3.5806072 -0.41282898 -0.79846585
4.424098 -0.51007992 -0.74244636
5.8444405 -0.67383951 -0.65574366
7.8089061 -0.90033412 -0.43906519
7.7468004 -0.89317358 0
7.793304 -0.89853531 0.43818793
0 -0 -0
2.9574201 -0.33735767 -0.821235
3.5861475 -0.40907761 -0.79959053
4.4400191 -0.50648016 -0.74501497
5.8503952 -0.667364 -0.65632081
7.9390688 -0.90562236 -0.44632187
7.7452908 -0.8835178 0
7.8047009 -0.89029479 0.43876791
0 -0 -0
3.0525527 -0.34447369 -0.84753579
3.5613954 -0.40189543 -0.79396278
4.4202209 -0.49881199 -0.74159122
5.8486295 -0.66000468 -0.6560328
8.4281349 -0.951096 -0.47375143
7.7515197 -0.87474155 0
7.800612 -0.88028151 0.43847793
0 -0 -0
2.9681997 -0.331323 -0.82400364
3.5770247 -0.3992826 -0.79733902
4.4335742 -0.49489427 -0.74373066
5.8571267 -0.65379727 -0.65689683
8.4680166 -0.94523573 -0.47592863
7.7474031 -0.86479789 0
7.7965102 -0.87027937 0.43818793
0 -0 -0
3.0384192 -0.3354446 -0.84338415
3.5699255 -0.39412344 -0.79564983
4.4265118 -0.48869142 -0.74244636
5.8450608 -0.64530075 -0.65545565
8.4691525 -0.9350031 -0.47592863
7.7458582 -0.8551507 0
7.7975559 -0.8608582 0.43818793
0 -0 -0
3.0712414 -0.33531249 -0.85238159
3.6057665 -0.39367095 -0.80353129
4.4322076 -0.48390025 -0.74330312
5.8561211 -0.63936049 -0.65660882
8.4831886 -0.92617893 -0.4766542
7.7494707 -0.84607291 0
7.7985902 -0.85143572 0.43818793
0 -0 -0
3.0367196 -0.32783091 -0.84268999
3.573401 -0.38576868 -0.79621434
4.4404383 -0.47937024 -0.74458575
5.8517513 -0.63172936 -0.6560328
8.4817209 -0.91564935 -0.47650921
7.7479019 -0.83642954 0
7.7892799 -0.84089643 0.43760738
0 -0 -0
3.0196586 -0.32229838 -0.83784688
3.5915432 -0.38333756 -0.8001529
4.4384642 -0.47373232 -0.74415821
5.8627977 -0.62575626 -0.65718597
8.4828215 -0.90540016 -0.47650921
7.7566633 -0.82789487 0
7.8032064 -0.83286262 0.43833292
0 -0 -0
3.0125585 -0.31785947 -0.83576971
3.5743229 -0.37713206 -0.79621434
4.4135094 -0.46567586 -0.73987937
5.8584003 -0.61812842 -0.65660882
8.4813271 -0.89487731 -0.4763642
7.757658 -0.81852186 0
7.7964525 -0.82261515 0.43789735
0 -0 -0
3.0154333 -0.31447914 -0.83646119
3.5773008 -0.37307623 -0.79677665
4.4370456 -0.46273887 -0.74373066
5.8540025 -0.61051315 -0.6560328
8.4824018 -0.88462859 -0.4763642
7.7871165 -0.8121174 0
7.8155341 -0.815081 0.43891349
0 -0 -0
2.9833713 -0.30749184 -0.82746375
3.5651138 -0.36745119 -0.79396278
4.4324894 -0.45685035 -0.74287391
5.8598766 -0.60396916 -0.65660882
8.4731264 -0.87331301 -0.47578365
7.8036199 -0.804308 0
7.8113389 -0.80510354 0.43862292
0 -0 -0
3.0010288 -0.30747956 -0.83230954
3.5830214 -0.36710936 -0.79790133
4.4353256 -0.45443478 -0.74330312
5.8628111 -0.60069215 -0.65689683
8.4943314 -0.87031257 -0.47694477
7.7989316 -0.79906327 0
7.8144064 -0.80064875 0.43876791
0 -0 -0
3.033844 -0.30713788 -0.84130698
3.5809369 -0.36252403 -0.79733902
4.4384232 -0.44933352 -0.74373066
5.8635325 -0.59360766 -0.65689683
8.490201 -0.85952425 -0.4766542
7.7947078 -0.78911442 0
7.8153682 -0.791206 0.43876791
0 -0 -0
3.0092545 -0.30097559 -0.83438671
3.5687332 -0.35693279 -0.79452515
4.4287453 -0.44294834 -0.74201882
5.8719692 -0.58729476 -0.65776199
8.4834747 -0.84848881 -0.47621864
7.8034272 -0.78047276 0
7.8266606 -0.78279644 0.43934849
0 -0 -0
3.0495522 -0.30128485 -0.84545863
3.5716882 -0.35286999 -0.79508746
4.4343815 -0.43810102 -0.74287391
5.8675313 -0.57969111 -0.65718597
8.4948368 -0.83925951 -0.47679922
7.8043642 -0.77104324 0
7.8457041 -0.77512747 0.4403646
0 -0 -0
3.0149622 -0.29418933 -0.83576971
3.58729 -0.3500351 -0.79846585
4.43747 -0.43299264 -0.74330312
5.8579307 -0.57159615 -0.6560328
8.4984388 -0.82924759 -0.47694477
7.8027024 -0.76136011 0
7.8673244 -0.76766568 0.44152573
0 -0 -0
3.0078213 -0.28982404 -0.83369255
3.5927639 -0.34618723 -0.79959053
4.4405427 -0.4278765 -0.74373066
5.8534632 -0.56402093 -0.65545565
8.5046024 -0.81947625 -0.47723475
7.8165669 -0.75317937 0
7.881176 -0.7594049 0.44225127
0 -0 -0
2.9956844 -0.28500167 -0.83023244
3.5957067 -0.34208626 -0.8001529
4.4461627 -0.42299643 -0.74458575
5.8567128 -0.5571925 -0.65574366
8.5081701 -0.80944538 -0.47737977
7.8148828 -0.74348778 0
7.9079604 -0.75234294 0.44370294
0 -0 -0
2.9810445 -0.2799747 -0.8260808
3.5885353 -0.33702919 -0.79846585
4.4211173 -0.4152239 -0.74030691
5.8548088 -0.54987377 -0.65545565
8.503973 -0.79867882 -0.47708976
7.8235412 -0.73477381 0
7.9398985 -0.74570191 0.44544405
0 -0 -0
3.0338376 -0.28123519 -0.84061551
3.5813475 -0.33198908 -0.79677665
4.4446182 -0.41201386 -0.74415821
5.8631978 -0.54351544 -0.65632081
8.502347 -0.78816324 -0.47694477
7.8322001 -0.72604096 0
8.0261745 -0.74402225 0.45023352
0 -0 -0
3.0566578 -0.27962592 -0.84684432
3.5792181 -0.32743022 -0.79621434
4.4323335 -0.40547401 -0.74201882
5.8689966 -0.53690135 -0.65689683
8.5162287 -0.77907264 -0.47767031
7.8408494 -0.71728826 0
8.1098719 -0.74189872 0.454878
0 -0 -0
3.0020287 -0.27097109 -0.83161807
3.5770731 -0.32287613 -0.79564983
4.445601 -0.40127176 -0.74415821
5.8619208 -0.52911252 -0.6560328
8.4990463 -0.76714647 -0.4766542
7.846889 -0.70828104 0
13.858252 -1.2508825 0.7772159
0 -0 -0
2.9998479 -0.26712036 -0.83092391
3.5850558 -0.31922999 -0.79733902
4.4358549 -0.39498907 -0.74244636
5.8651295 -0.52225834 -0.65632081
8.5180874 -0.75848997 -0.47767031
7.8632979 -0.70018452 0
13.875277 -1.2355191 0.77808642
0 -0 -0
3.0651512 -0.26920268 -0.84892148
3.5879676 -0.31512001 -0.79790133
4.446558 -0.39052731 -0.74415821
5.8605981 -0.51471806 -0.65574366
8.5112295 -0.74751472 -0.47723475
7.8719082 -0.69136512 0
13.887114 -1.219662 0.77866703
0 -0 -0
3.0204799 -0.26160192 -0.83646119
3.5883458 -0.31078443 -0.79790133
4.4393516 -0.38448951 -0.74287391
5.8689489 -0.50830609 -0.65660882
8.5198946 -0.73790288 -0.47767031
7.9194131 -0.6858955 0
13.950707 -1.2082622 0.78215033
0 -0 -0
3.105778 -0.26520905 -0.8599934
3.5912576 -0.30666518 -0.79846585
4.442378 -0.37934417 -0.74330312
5.8669839 -0.50099438 -0.65632081
8.5181837 -0.727386 -0.47752476
8.0498838 -0.68739688 0
14.179981 -1.2108591 0.79492205
0 -0 -0
3.0664165 -0.25438502 -0.84892148
3.5894487 -0.29777497 -0.79790133
4.4407163 -0.36839473 -0.74287391
5.8707528 -0.48702833 -0.65660882
8.5199165 -0.70679873 -0.47752476
8.4068213 -0.69741654 0
14.245016 -1.1817439 0.79840541
0 -0 -0
3.0342185 -0.24802281 -0.83992404
3.6100655 -0.29509366 -0.8024044
4.4411578 -0.36302873 -0.74287391
5.8661861 -0.47951329 -0.6560328
8.518177 -0.6962921 -0.47737977
11.805426 -0.96499801 0
14.256792 -1.1653775 0.79898596
0 -0 -0
3.0193596 -0.24497198 -0.83576971
3.5596013 -0.28880382 -0.7911489
4.4413762 -0.36034554 -0.74287391
5.8638892 -0.47575936 -0.65574366
8.5237818 -0.69156635 -0.47767031
11.793038 -0.95681345 0
14.30152 -1.160336 0.80145323
0 -0 -0
2.9971488 -0.23952496 -0.82954091
3.5954025 -0.28733596 -0.79902822
4.4341393 -0.35436583 -0.74159122
5.8721972 -0.46929199 -0.65660882
8.5142498 -0.68043852 -0.47708976
11.796778 -0.9427703 0
14.313272 -1.1438826 0.80203378
0 -0 -0
3.0699635 -0.24161136 -0.84961295
3.5982776 -0.28319058 -0.79959053
4.4422345 -0.34961143 -0.74287391
5.8727598 -0.46219623 -0.65660882
8.5202417 -0.67055756 -0.47737977
11.803093 -0.92892355 0
14.312047 -1.1263825 0.80188823
0 -0 -0
2.9752097 -0.23053719 -0.8233121
3.5834222 -0.27766517 -0.79621434
4.4452205 -0.34444249 -0.74330312
5.870738 -0.45490021 -0.65632081
8.5262318 -0.6606639 -0.47767031
11.801614 -0.91446024 0
14.310809 -1.1088878 0.80174321
0 -0 -0
3.0630314 -0.23361921 -0.84753579
3.5938892 -0.27410805 -0.79846585
4.4456334 -0.33907107 -0.74330312
5.8738599 -0.44800273 -0.65660882
8.5244255 -0.65016294 -0.47752476
11.797525 -0.89980417 0
14.294 -1.0902117 0.80072707
0 -0 -0
3.0132768 -0.2261626 -0.83369255
3.5663438 -0.26767322 -0.79227358
4.448597 -0.33389106 -0.74373066
5.8615031 -0.43993726 -0.65516764
8.5252056 -0.63986236 -0.47752476
11.801197 -0.88574314 0
14.277176 -1.0715786 0.79971153
0 -0 -0
3.0160573 -0.22270675 -0.83438671
3.5742691 -0.26392531 -0.79396278
4.4541125 -0.32889327 -0.74458575
5.8671846 -0.43323502 -0.65574366
8.5233831 -0.62936968 -0.47737977
11.823022 -0.87301624 0
14.18517 -1.047438 0.79448652
0 -0 -0
3.0238235 -0.21960692 -0.83646119
3.5669804 -0.25905401 -0.79227358
4.4391499 -0.3223958 -0.74201882
5.8702908 -0.42633325 -0.6560328
8.5267267 -0.61925846 -0.47752476
11.837044 -0.85967213 0
14.002427 -1.0169344 0.78418201
0 -0 -0
3.0165865 -0.21541747 -0.83438671
3.559685 -0.25420067 -0.79058439
4.4523363 -0.31794581 -0.74415821
5.8759565 -0.41960797 -0.65660882
8.5274687 -0.60895509 -0.47752476
11.838074 -0.84536874 0
13.894794 -0.99224114 0.77808642
0 -0 -0
2.9617825 -0.20790718 -0.81915784
3.5904055 -0.2520344 -0.79733902
4.4501591 -0.31238621 -0.74373066
5.8764591 -0.41250771 -0.65660882
8.5230188 -0.59828734 -0.47723475
11.836493 -0.83088207 0
13.864887 -0.97326851 0.77634531
0 -0 -0
3.0396214 -0.20968063 -0.84061551
3.5755031 -0.24664709 -0.79396278
4.4479747 -0.30683234 -0.74330312
5.8872747 -0.40611884 -0.65776199
8.523736 -0.5879885 -0.47723475
11.855656 -0.81783259 0
13.866053 -0.95651478 0.77634531
0 -0 -0
3.0598967 -0.20736471 -0.84615278
3.5986118 -0.24387263 -0.79902822
4.4534597 -0.30180442 -0.74415821
5.8696947 -0.3977806 -0.65574366
8.5166597 -0.57716155 -0.47679922
11.861833 -0.803859 0
13.882749 -0.94081348 0.7772159
0 -0 -0
3.0851724 -0.20533296 -0.85307312
3.5989039 -0.23952423 -0.79902822
4.4435754 -0.29574117 -0.74244636
5.8830824 -0.39154723 -0.65718597
8.5199509 -0.56704348 -0.47694477
11.870588 -0.79004437 0
13.966842 -0.92956007 0.78186035
0 -0 -0
3.0453634 -0.19898775 -0.84199852
3.5941148 -0.23484382 -0.79790133
4.4490576 -0.29070684 -0.74330312
5.8783841 -0.38410079 -0.65660882
8.5284014 -0.5572561 -0.47737977
11.853354 -0.77451253 0
14.141664 -0.92403346 0.79158372
0 -0 -0
3.0205703 -0.19370267 -0.83507824
3.6020055 -0.23098885 -0.79959053
4.4468365 -0.28516605 -0.74287391
5.881423 -0.37716299 -0.65689683
8.5290689 -0.54695082 -0.47737977
11.864669 -0.76085567 0
14.217967 -0.91176766 0.79579264
0 -0 -0
0 -0 -0
3.5769279 -0.22504123 -0.79396278
4.4471779 -0.2797927 -0.74287391
5.8844633 -0.37021905 -0.65718597
8.5167589 -0.53582907 -0.4766542
11.873374 -0.7470094 0
14.237214 -0.8957296 0.79680872
0 -0 -0
0 -0 -0
3.5645192 -0.21993679 -0.7911489
4.4475126 -0.27441895 -0.74287391
5.8849063 -0.36310855 -0.65718597
8.5277748 -0.52617794 -0.47723475
11.871663 -0.73250145 0
14.240877 -0.87868595 0.79695374
0 -0 -0
0 -0 -0
3.5850627 -0.21685635 -0.79564983
4.4427209 -0.26873511 -0.74201882
5.877593 -0.35552886 -0.65632081
8.5102453 -0.51477504 -0.47621864
11.867349 -0.7178424 0
14.249712 -0.86194879 0.79738933
0 -0 -0
0 -0 -0
3.5902708 -0.21499445 -0.79677665
4.4480028 -0.26635757 -0.74287391
5.8726377 -0.35166833 -0.65574366
8.5183392 -0.51009959 -0.4766542
11.878172 -0.71129483 0
14.234673 -0.85240799 0.79651874
0 -0 -0
3.0215788 -0.17727593 -0.83507824
3.5879936 -0.21050747 -0.79621434
4.4457612 -0.26083264 -0.74244636
5.8782277 -0.3448754 -0.65632081
8.5163574 -0.49965441 -0.47650921
11.889415 -0.69755155 0
14.207156 -0.83353335 0.79492205
0 -0 -0
0 -0 -0
3.5882454 -0.20617193 -0.79621434
4.4512033 -0.25575539 -0.74330312
5.8889689 -0.33836594 -0.65747398
8.5221386 -0.48966151 -0.47679922
11.87726 -0.68243873 0
14.202959 -0.81606776 0.79463154
0 -0 -0
0 -0 -0
3.5783443 -0.20126532 -0.79396278
4.4438176 -0.2499442 -0.74201882
5.8919535 -0.33139512 -0.65776199
8.5279179 -0.47965592 -0.47708976
11.883268 -0.66837889 0
14.198751 -0.79861408 0.7943415
0 -0 -0
3.0998487 -0.17059499 -0.85653323
3.6014161 -0.19819792 -0.79902822
4.4518085 -0.24499784 -0.74330312
5.8923492 -0.32427561 -0.65776199
8.5232973 -0.4690654 -0.47679922
11.891866 -0.65444893 0
14.212676 -0.78217089 0.79506707
0 -0 -0
0 -0 -0
3.573741 -0.19234391 -0.79283595
4.4444089 -0.23920451 -0.74201882
5.8901567 -0.31701675 -0.65747398
8.521265 -0.45862681 -0.4766542
11.882253 -0.63951999 0
14.226582 -0.76569521 0.79579264
0 -0 -0
0 -0 -0
3.566366 -0.18762551 -0.7911489
4.4498167 -0.23410361 -0.74287391
5.8879552 -0.30976367 -0.65718597
8.5244055 -0.44846657 -0.47679922
11.88042 -0.62502557 0
14.243071 -0.74932396 0.79666376
0 -0 -0
3.0027409 -0.15433532 -0.82954091
3.5970309 -0.18488072 -0.79790133
4.4552288 -0.2289905 -0.74373066
5.8960667 -0.30304691 -0.65805
8.5145607 -0.43763265 -0.47621864
11.899353 -0.61160469 0
14.230993 -0.73144668 0.79593819
0 -0 -0
0 -0 -0
3.5896459 -0.18015257 -0.79621434
4.4529409 -0.22347851 -0.74330312
5.8886867 -0.29553387 -0.65718597
8.5124912 -0.42721403 -0.47607365
11.902679 -0.5973565 0
14.192936 -0.71229696 0.79376096
0 -0 -0
0 -0 -0
3.5974672 -0.17618757 -0.79790133
4.4532075 -0.21809784 -0.74330312
5.8942008 -0.28867114 -0.65776199
8.5155935 -0.41705504 -0.47621864
11.892995 -0.58246475 0
14.131498 -0.69209647 0.7902776
0 -0 -0
0 -0 -0
3.5875254 -0.17135569 -0.79564983
4.4534678 -0.21271685 -0.74330312
5.8997173 -0.28179598 -0.65833914
8.5316696 -0.40750936 -0.47708976
11.901491 -0.5684666 0
14.018133 -0.66956651 0.78389204
0 -0 -0
0 -0 -0
3.5877299 -0.16702075 -0.79564983
4.4511499 -0.20721582 -0.74287391
5.889719 -0.27418599 -0.65718597
8.5217733 -0.39671686 -0.47650921
11.88398 -0.55323875 0
13.933278 -0.64864039 0.77910256
0 -0 -0
0 -0 -0
3.577776 -0.16222519 -0.79339826
4.4462729 -0.20160499 -0.74201882
5.8900461 -0.26706922 -0.65718597
8.5248394 -0.38653725 -0.4766542
11.866438 -0.53805357 0
13.887333 -0.62968594 0.77649033
0 -0 -0
0 -0 -0
3.5982766 -0.15879823 -0.79790133
4.464468 -0.19702476 -0.74501497
5.898109 -0.26029384 -0.65805
8.5201139 -0.37600747 -0.4763642
11.851475 -0.52302623 0
13.89327 -0.61313426 0.77678031
0 -0 -0
0 -0 -0
3.5756214 -0.15346979 -0.79283595
4.4518719 -0.19107945 -0.74287391
5.9010105 -0.25327817 -0.65833914
8.5257492 -0.36593494 -0.4766542
11.883299 -0.51004487 0
13.919967 -0.59746099 0.77823198
0 -0 -0
0 -0 -0
3.5707316 -0.14893766 -0.79171121
4.4546719 -0.18580739 -0.74330312
5.8806386 -0.24528544 -0.6560328
8.5339756 -0.35595796 -0.47708976
11.889112 -0.49590299 0
14.066055 -0.58670473 0.78635925
0 -0 -0
0 -0 -0
3.5988288 -0.14575377 -0.79790133
4.4497581 -0.18021668 -0.74244636
5.8912683 -0.23859833 -0.65718597
8.5240145 -0.34522545 -0.47650921
11.939102 -0.48353764 0
14.245888 -0.57696319 0.79637319
0 -0 -0
0 -0 -0
3.5710812 -0.14030816 -0.79171121
4.4602327 -0.17524303 -0.74415821
5.894134 -0.23158115 -0.65747398
8.542593 -0.33563939 -0.47752476
11.973482 -0.47043937 0
14.290711 -0.56148356 0.7988404
0 -0 -0
0 -0 -0
3.6092429 -0.1396237 -0.8001529
4.4680357 -0.17284612 -0.74544251
5.8942728 -0.22802016 -0.65747398
8.5168343 -0.32947403 -0.47607365
11.984166 -0.46360791 0
14.301434 -0.5532515 0.79942095
0 -0 -0
0 -0 -0
3.5789397 -0.13412069 -0.79339826
4.4477191 -0.16667819 -0.74201882
5.8816233 -0.2204137 -0.6560328
8.5250187 -0.31947488 -0.47650921
11.969118 -0.44854248 0
14.299498 -0.53587335 0.79927599
0 -0 -0
0 -0 -0
3.5740254 -0.12961215 -0.79227358
4.455616 -0.16158305 -0.74330312
5.8948069 -0.21377535 -0.65747398
8.5331907 -0.30945644 -0.47694477
11.98786 -0.4347401 0
14.292342 -0.51831222 0.7988404
0 -0 -0
0 -0 -0
3.5944943 -0.12600568 -0.79677665
4.4378471 -0.15556957 -0.74030691
5.8976431 -0.206743 -0.65776199
8.5283594 -0.29896328 -0.4766542
11.967569 -0.41952541 0
14.295562 -0.50113362 0.79898596
0 -0 -0
0 -0 -0
3.5971808 -0.12174821 -0.79733902
4.4662561 -0.15116245 -0.74501497
5.8978887 -0.1996167 -0.65776199
8.5209217 -0.28839442 -0.47621864
11.986267 -0.4056806 0
14.301346 -0.48403552 0.79927599
0 -0 -0
0 -0 -0
3.6201789 -0.11814747 -0.8024044
4.4561725 -0.1454308 -0.74330312
5.9033008 -0.19265901 -0.65833914
8.5264626 -0.27826804 -0.47650921
11.989357 -0.39128238 0
14.291533 -0.46641573 0.79869545
0 -0 -0
0 -0 -0
3.5822315 -0.11257616 -0.79396278
4.471735 -0.14052993 -0.74587011
5.9035292 -0.18552588 -0.65833914
8.5267925 -0.26796526 -0.47650921
11.987212 -0.37671331 0
14.297285 -0.44931027 0.79898596
0 -0 -0
0 -0 -0
3.6052203 -0.10893826 -0.79902822
4.456511 -0.13466156 -0.74330312
5.8934078 -0.17808001 -0.65718597
8.5219107 -0.257505 -0.47621864
11.990268 -0.36230767 0
14.300412 -0.43211287 0.79913098
0 -0 -0
0 -0 -0
3.5926526 -0.10421368 -0.79621434
4.4540973 -0.12920199 -0.74287391
5.8962016 -0.17103377 -0.65747398
8.5248203 -0.24728329 -0.4763642
12.003701 -0.34819674 0
14.300923 -0.41483331 0.79913098
0 -0 -0
0 -0 -0
3.6003883 -0.1000842 -0.79790133
4.4619508 -0.12403405 -0.74415821
5.8938208 -0.16383743 -0.65718597
8.5251131 -0.23698254 -0.4763642
11.980701 -0.33304158 0
14.28843 -0.39719218 0.79840541
0 -0 -0
0 -0 -0
3.5852714 -0.095328674 -0.79452515
4.4390044 -0.11802855 -0.74030691
5.8914218 -0.15664683 -0.65689683
8.5201931 -0.22654317 -0.47607365
11.973289 -0.31835741 0
14.288899 -0.37992713 0.79840541
0 -0 -0
0 -0 -0
3.6006196 -0.091383182 -0.79790133
4.4442811 -0.11279518 -0.74116367
5.8941998 -0.1495939 -0.65718597
8.5204611 -0.21624801 -0.47607365
11.994477 -0.30441803 0
14.291944 -0.36272737 0.79855043
0 -0 -0
0 -0 -0
3.5880289 -0.08672554 -0.79508746
4.4623709 -0.10785909 -0.74415821
5.9021258 -0.14265911 -0.65805
8.5207157 -0.20595254 -0.47607365
11.981831 -0.28961048 0
14.292371 -0.34545809 0.79855043
0 -0 -0
0 -0 -0
3.6008298 -0.082681634 -0.79790133
4.4650617 -0.10252598 -0.74458575
5.8893676 -0.13523063 -0.65660882
8.5313492 -0.19589537 -0.4766542
11.989969 -0.27531159 0
14.295373 -0.32824787 0.79869545
0 -0 -0
0 -0 -0
3.590766 -0.078109637 -0.79564983
4.4703202 -0.097242512 -0.74544251
5.8998699 -0.12833938 -0.65776199
8.5367804 -0.1856999 -0.47694477
11.974688 -0.2604844 0
14.269786 -0.31040949 0.79724431
0 -0 -0
0 -0 -0
3.5832441 -0.073614426 -0.79396278
4.4601684 -0.091630027 -0.74373066
5.9077811 -0.12136988 -0.65862715
8.5214062 -0.17506438 -0.47607365
11.993209 -0.24638936 0
14.20261 -0.29177946 0.79347098
0 -0 -0
0 -0 -0
3.598568 -0.069579341 -0.79733902
4.4525738 -0.086091787 -0.74244636
5.8949957 -0.11398143 -0.65718597
8.5190163 -0.16471763 -0.47592863
12.001297 -0.23204851 0
13.995126 -0.27059975 0.78186035
0 -0 -0
0 -0 -0
3.5732496 -0.064770713 -0.79171121
4.4629412 -0.080897763 -0.74415821
5.8951292 -0.1068584 -0.65718597
8.516614 -0.15437689 -0.47578365
11.988561 -0.21731134 0
13.883724 -0.25166413 0.77561921
0 -0 -0
0 -0 -0
3.563163 -0.060281172 -0.78945971
4.4579072 -0.075418346 -0.74330312
5.8952541 -0.099735215 -0.65718597
8.5141888 -0.14404203 -0.47563809
11.994023 -0.20291348 0
13.858043 -0.23444873 0.77416807
0 -0 -0
0 -0 -0
3.6012998 -0.05875003 -0.79790133
4.4476848 -0.072557583 -0.74159122
5.8901362 -0.096089102 -0.65660882
8.5168791 -0.13894065 -0.47578365
11.975926 -0.19537003 0
13.850385 -0.22594912 0.77373254
0 -0 -0
0 -0 -0
3.6064544 -0.054475345 -0.79902822
4.4657292 -0.067454658 -0.74458575
5.8954253 -0.089050159 -0.65718597
8.5170412 -0.12864956 -0.47578365
11.970944 -0.18082063 0
13.853253 -0.20925283 0.7738781
0 -0 -0
0 -0 -0
3.6014314 -0.050046932 -0.79790133
4.4555402 -0.061915971 -0.74287391
5.8825898 -0.081746824 -0.65574366
8.5041914 -0.11817765 -0.47505754
11.986773 -0.16657299 0
13.79114 -0.1916472 0.77039474
0 -0 -0
0 -0 -0
3.6091137 -0.04579201 -0.79959053
4.4530478 -0.056499742 -0.74244636
5.8852782 -0.074671715 -0.6560328
8.512126 -0.10800084 -0.4754931
11.989565 -0.15212218 0
13.245755 -0.16806059 0.73991686
0 -0 -0
0 -0 -0
3.5710628 -0.040993661 -0.7911489
4.4505482 -0.051089626 -0.74201882
5.895709 -0.067679204 -0.65718597
8.5122499 -0.097715527 -0.4754931
11.99234 -0.13766487 0
13.245949 -0.15205555 0.73991686
0 -0 -0
0 -0 -0
3.6041372 -0.037017923 -0.79846585
4.4583097 -0.04579109 -0.74330312
5.8957868 -0.060555346 -0.65718597
8.4993725 -0.08729665 -0.47476754
11.987298 -0.12312096 0
13.248729 -0.13607706 0.74006242
0 -0 -0
0 -0 -0
3.5915046 -0.028208192 -0.79564983
4.4584074 -0.035016969 -0.74330312
5.890738 -0.046266701 -0.65660882
8.5021544 -0.06677714 -0.47491252
11.984961 -0.094131596 0
13.282795 -0.10432497 0.74194908
0 -0 -0
0 -0 -0
3.5889978 -0.02385167 -0.79508746
4.4481783 -0.029561592 -0.74159122
5.9011354 -0.039217617 -0.65776199
8.4970369 -0.056469396 -0.47462255
11.972046 -0.079563513 0
13.254327 -0.088085271 0.74035239
0 -0 -0
0 -0 -0
3.5610819 -0.019363116 -0.78889734
4.4738765 -0.024326369 -0.74587011
5.8856649 -0.032002863 -0.6560328
8.5178871 -0.046315376 -0.47578365
11.953923 -0.064998567 0
13.254423 -0.072069943 0.74035239
0 -0 -0
0 -0 -0
3.5712662 -0.015103213 -0.7911489
4.4790416 -0.01894228 -0.74672687
5.8986287 -0.024945846 -0.65747398
8.4997454 -0.035946205 -0.47476754
11.961793 -0.050587527 0
13.254501 -0.056054506 0.74035239
0 -0 -0
0 -0 -0
3.5941472 -0.010857097 -0.79621434
4.4662185 -0.013491425 -0.74458575
5.896071 -0.017810682 -0.65718597
8.5075798 -0.025699453 -0.4752031
11.961845 -0.036134001 0
13.24157 -0.039999753 0.73962688
0 -0 -0
0 -0 -0
3.6093984 -0.0065418873 -0.79959053
4.4585376 -0.0080809183 -0.74330312
5.8857422 -0.010667668 -0.6560328
8.5102005 -0.015424392 -0.47534809
11.95928 -0.02167571 0
15.089005 -0.027348207 0.84281558
0 -0 -0
0 -0 -0
3.5916147 -0.0021698831 -0.79564983
4.4585443 -0.0026936408 -0.74330312
5.8909187 -0.0035590134 -0.65660882
8.5050116 -0.0051383241 -0.47505754
11.995738 -0.0072472552 0
15.091623 -0.0091176424 0.8429606
0 0 -0
0 0 -0
3.6043265 0.002177563 -0.79846585
4.48421 0.0027091466 -0.74758196
5.8960967 0.0035621414 -0.65718597
8.4972239 0.0051336191 -0.47462255
11.972308 0.0072331 0
15.086432 0.0091145057 0.84267056
0 0 -0
0 0 -0
3.5941577 0.0065142647 -0.79621434
4.4611025 0.0080855666 -0.74373066
5.8857422 0.010667668 -0.6560328
8.5049992 0.015414964 -0.47505754
11.99051 0.021732312 0
15.094197 0.027357617 0.84310561
0 0 -0
0 0 -0
3.6195512 0.010933837 -0.80184209
4.4482565 0.013437166 -0.74159122
5.8676171 0.01772473 -0.65401447
8.5049744 0.025691582 -0.47505754
11.985275 0.036204778 0
15.070769 0.04552535 0.8417995
0 0 -0
0 0 -0
3.5915833 0.015189137 -0.79564983
4.4430981 0.018790271 -0.74073446
5.8779373 0.024858339 -0.65516764
8.5075426 0.035979182 -0.4752031
11.977413 0.050653584 0
15.04732 0.063636504 0.84049338
0 0 -0
0 0 -0
3.5839581 0.017322192 -0.79396278
4.4815936 0.021660695 -0.74715441
5.9037809 0.028534491 -0.65805
8.4867325 0.041018557 -0.47404197
11.96957 0.057852011 0
14.93815 0.072199926 0.83439779
0 0 -0
0 0 -0
3.5813866 0.021637296 -0.79339826
4.3994198 0.026579523 -0.73345947
5.8908124 0.035589918 -0.65660882
8.4892721 0.051288769 -0.47418699
11.956482 0.072236255 0
14.802945 0.089433447 0.82685107
0 0 -0
0 0 -0
3.6194727 0.026241018 -0.80184209
4.4635568 0.032360591 -0.74415821
5.9166341 0.042895339 -0.65949231
