# .PCD v0.7 - Point Cloud Data file format
VERSION 0.7
FIELDS x y z
SIZE 4 4 4
TYPE F F F
COUNT 1 1 1
WIDTH 1590
HEIGHT 1
VIEWPOINT 0 0 0 1 0 0 0
POINTS 1590
DATA ascii
2.7587416 1.3022391 -0.84166604
0 0 -0
0 0 -0
0 0 -0
0 0 -0
7.4344025 3.5093427 0
7.4197354 3.5024192 0.45829105
2.3511786 1.1133286 -0.85777879
2.7798445 1.3163102 -0.848589
3.2886176 1.5572242 -0.8060748
0 0 -0
5.7671952 2.7308786 -0.71124315
6.3799887 3.0210483 -0.39429474
7.4301567 3.5183232 0
7.4225454 3.514719 0.45872661
2.3833134 1.1320726 -0.87000096
2.7669148 1.314283 -0.84512621
3.2316504 1.5350322 -0.79256558
0 0 -0
5.7662253 2.7389538 -0.71153116
6.371635 3.0265231 -0.39400417
7.4470549 3.5373471 0
7.4206381 3.5247991 0.45887163
2.3328602 1.1115642 -0.85207325
2.7019188 1.2874136 -0.82574832
3.2527356 1.5498675 -0.79819548
0 0 -0
5.7885985 2.7581584 -0.71470267
6.3234105 3.0129864 -0.39124694
7.4498167 3.5496979 0
7.4281092 3.5393546 0.45959774
2.3426633 1.1197103 -0.85614729
2.7637308 1.3209658 -0.84512621
3.2531509 1.5548913 -0.79875785
0 0 -0
5.7805896 2.762918 -0.71412551
6.3455558 3.0329518 -0.39284363
7.4525685 3.5620649 0
7.4261694 3.5494471 0.45974272
2.3413086 1.1225402 -0.85614729
2.7576125 1.3221371 -0.84374321
3.3841534 1.622532 -0.83140409
0 0 -0
5.763258 2.7631936 -0.71239632
6.3137698 3.0271363 -0.39110196
7.4482594 3.5710673 0
7.4218755 3.5584176 0.45974272
2.3555443 1.1328681 -0.86185282
2.7537541 1.3243818 -0.84305173
3.3524158 1.6123003 -0.82408494
0 0 -0
5.7948809 2.7869718 -0.716721
6.3662996 3.0617878 -0.39458475
7.4509773 3.5834494 0
7.4316158 3.5741379 0.46061331
2.3274608 1.1228263 -0.85207325
2.7770007 1.3396959 -0.85066348
3.3047037 1.5942733 -0.81282943
4.088541 1.9724163 -0.75679088
5.8008275 2.7984672 -0.71787417
6.3485575 3.062706 -0.39371419
7.4489837 3.5935795 0
7.4319768 3.5853751 0.46090385
2.3483546 1.1364061 -0.86022449
2.7279587 1.3201026 -0.83612877
3.2913413 1.5927323 -0.81001556
4.1832008 2.0243173 -0.77476466
5.7741556 2.7942054 -0.71499068
6.363564 3.0794299 -0.39487529
7.4376059 3.5991757 0
7.439332 3.6000109 0.46162942
2.3091824 1.1208956 -0.84637088
2.7399077 1.3299731 -0.84028304
3.3122683 1.6078016 -0.81564331
4.1276426 2.0035908 -0.76492268
5.7893896 2.8102162 -0.71729702
6.3388023 3.0769055 -0.39356917
7.4496427 3.6161163 0
7.4349766 3.6089973 0.46162942
2.330044 1.1345028 -0.85451895
2.7360451 1.3321856 -0.83959156
3.3103232 1.6118027 -0.81564331
4.143683 2.0175672 -0.76834637
5.7906451 2.8194761 -0.71787417
6.3093791 3.0720487 -0.39197251
7.4476056 3.6262531 0
7.4352784 3.6202512 0.46191943
2.3286715 1.1373174 -0.85451895
2.7750061 1.3553061 -0.85204917
3.3243575 1.623608 -0.81958401
4.141242 2.0225725 -0.76834637
5.789556 2.827605 -0.71816218
6.3360133 3.0944934 -0.39385918
7.4712801 3.6489549 0
7.4332404 3.6303763 0.46206498
2.3494868 1.1510018 -0.86266702
2.7328179 1.3387936 -0.83959156
3.3109777 1.6220312 -0.81676799
4.1042132 2.0106335 -0.76192647
5.8023877 2.8425605 -0.72017938
6.3602715 3.1158648 -0.39560086
7.4621959 3.6556921 0
7.4381824 3.6439278 0.46264553
2.2948649 1.1276832 -0.84311098
2.7266905 1.3398798 -0.83820593
3.2816586 1.6125878 -0.81001556
4.1271267 2.0280457 -0.76663452
5.8152003 2.8575554 -0.72219771
6.3378453 3.1143799 -0.39443973
7.4671164 3.6692972 0
7.4454322 3.6586416 0.4633711
2.3422689 1.1544929 -0.86103868
2.7070675 1.3343003 -0.8326686
3.2911012 1.6221676 -0.81282943
4.1569042 2.0489178 -0.77262521
5.8140612 2.8657222 -0.72248572
6.3200974 3.1151452 -0.39356917
7.4696736 3.6817656 0
7.4549856 3.6745257 0.46424165
2.3142848 1.1441774 -0.85125911
2.741436 1.3553602 -0.84374321
3.2777522 1.6205136 -0.81001556
4.1452208 2.0493884 -0.77091336
5.8059616 2.870455 -0.7219097
6.3466082 3.1377492 -0.39545584
7.4582272 3.6873314 0
7.4621844 3.6892879 0.46496719
2.33726 1.1590528 -0.86022449
2.735297 1.3564403 -0.84235758
3.2735088 1.6233408 -0.80945104
4.1496434 2.0578179 -0.77219766
5.811758 2.8820646 -0.72306287
6.3311744 3.1396446 -0.3947303
7.4630837 3.7009611 0
7.446084 3.6925309 0.46424165
2.3181541 1.1530701 -0.85370475
2.7403967 1.3630973 -0.84443468
3.2760992 1.6295605 -0.81057787
4.13796 2.0582576 -0.77048582
0 0 -0
6.3390069 3.1530774 -0.39545584
7.4539504 3.7076602 0
7.4346352 3.6980524 0.46380609
2.3211782 1.1580751 -0.85533315
2.7477274 1.3708876 -0.84720337
3.2832224 1.6380552 -0.81282943
4.1331754 2.0621109 -0.77005827
0 0 -0
6.339838 3.1630523 -0.39574584
7.4517918 3.7178249 0
7.4394617 3.7116733 0.46438664
2.3087277 1.1553495 -0.85125911
2.7213964 1.36186 -0.83959156
3.2857809 1.6442932 -0.81395411
4.1283784 2.0659516 -0.76962906
0 0 -0
6.3360114 3.1707106 -0.39574584
7.4682379 3.7373071 0
7.4535613 3.7299626 0.46554777
2.3559229 1.1825289 -0.86918676
2.7309577 1.3707733 -0.84305173
3.2679021 1.6402866 -0.81001556
4.1557021 2.0859079 -0.7751922
5.7954512 2.9089611 -0.72277486
6.3135972 3.1690388 -0.39458475
7.4590693 3.7439954 0
7.456018 3.7424641 0.46598333
2.330215 1.1731522 -0.86022449
2.7225747 1.3706867 -0.84097457
3.2795303 1.6510873 -0.81339175
4.1371355 2.0828505 -0.77219766
5.79424 2.9171238 -0.72306287
6.330658 3.1871848 -0.3958914
7.456862 3.7541747 0
7.449172 3.750303 0.46583831
2.3272924 1.1734438 -0.85940719
2.7015872 1.3621669 -0.83474576
3.2671905 1.6473496 -0.81057787
4.1335864 2.0841949 -0.77177012
5.7924762 2.9206238 -0.72306287
6.3078427 3.1804767 -0.39458475
7.4871216 3.7750807 0
7.4608216 3.7618198 0.46670887
2.321466 1.1740264 -0.85777879
2.7290411 1.3801478 -0.84374321
3.2765324 1.6570286 -0.81339175
4.1219015 2.084554 -0.77005827
5.8050933 2.9357882 -0.72508007
6.2831283 3.1775432 -0.39327863
7.4779143 3.7817779 0
7.4655457 3.7755227 0.46728945
2.3244498 1.1790645 -0.85940719
2.7117076 1.3754989 -0.83889741
3.2631998 1.6552403 -0.81057787
4.1376863 2.0988188 -0.77348036
5.7969327 2.9404626 -0.72450405
6.2816086 3.1863117 -0.39342418
7.4756579 3.7919869 0
7.4586635 3.7833662 0.46714443
2.2789741 1.1594615 -0.84311098
2.7078097 1.377638 -0.83820593
3.2566638 1.6568755 -0.80945104
4.1191378 2.0956719 -0.77048582
5.7772365 2.9392538 -0.72248572
6.2800674 3.1950767 -0.39356917
7.4989057 3.8151784 0
7.458714 3.7947302 0.46743444
2.2863777 1.166708 -0.84637088
2.7329588 1.3945925 -0.84651184
3.2569292 1.6619676 -0.81001556
4.1166024 2.1006474 -0.77048582
5.7852063 2.9521139 -0.72392803
6.262311 3.1955738 -0.39269805
7.4896584 3.8218729 0
7.4587564 3.8061042 0.46772498
2.3267632 1.1908621 -0.86185282
2.7089434 1.3864658 -0.83959156
3.2526503 1.6647408 -0.80945104
4.1254849 2.1114669 -0.77262521
5.7885361 2.9626338 -0.72479206
6.2676973 3.2078738 -0.39327863
7.4757681 3.8261771 0
7.4772787 3.8269503 0.46917611
2.3143306 1.18803 -0.85777879
2.7050278 1.388589 -0.83889741
3.2551615 1.6709927 -0.81057787
4.1252122 2.1176214 -0.77305281
5.787251 2.9708061 -0.72508007
6.2638168 3.2154446 -0.39327863
7.4734526 3.8363945 0
7.4703398 3.8347967 0.4690311
2.3041036 1.1863 -0.85451895
2.7189636 1.3998964 -0.84374321
3.2486176 1.6725962 -0.80945104
4.1203704 2.1214304 -0.77262521
0 0 -0
6.2691679 3.2277687 -0.39385918
7.4826899 3.8525677 0
7.4726334 3.8473899 0.46946666
2.2960782 1.1856799 -0.85207325
2.7261865 1.4077852 -0.84651184
3.2488585 1.6776896 -0.81001556
4.1018357 2.1181614 -0.76962906
5.7800546 2.9847829 -0.72508007
6.2652631 3.2353415 -0.39385918
7.4803486 3.8628037 0
7.4748988 3.8599896 0.46990165
2.2902586 1.1861823 -0.85044491
2.7066617 1.4018478 -0.84097457
3.2535913 1.6851163 -0.81170255
4.1152315 2.1313815 -0.77262521
5.7695603 2.9881997 -0.72421604
6.2705789 3.2476895 -0.39443973
7.4756756 3.8718395 0
7.4771538 3.8726051 0.47033721
2.3261085 1.2083166 -0.86429852
2.7138712 1.4097432 -0.84374321
3.2493 1.6878762 -0.81114024
4.1058168 2.1328011 -0.77134091
5.7613506 2.9927819 -0.72363889
6.2597299 3.2516694 -0.39400417
7.4709916 3.8808694 0
7.4747729 3.8828335 0.47048223
2.2895753 1.1928544 -0.85125911
2.7010434 1.4072267 -0.84028304
3.2472582 1.6918011 -0.81114024
4.1100688 2.1413202 -0.77262521
5.7623219 3.0021336 -0.72421604
6.2511921 3.2568316 -0.39371419
7.4870672 3.9007151 0
7.4700756 3.8918624 0.47048223
2.329747 1.2173649 -0.86674106
2.7015624 1.4116501 -0.84097457
3.2519698 1.6992549 -0.81282943
4.1211252 2.1534157 -0.7751922
5.7632709 3.0114875 -0.72479206
6.256464 3.2691963 -0.39429474
7.4869571 3.9121671 0
7.4791899 3.9081085 0.47135335
2.3020124 1.206416 -0.85696465
2.6998549 1.4149133 -0.84097457
3.2499142 1.7031831 -0.81282943
4.0980587 2.1476703 -0.77134091
5.7550502 3.0160501 -0.72421604
6.2594161 3.2803733 -0.3947303
7.4845276 3.9224176 0
7.4744625 3.9171426 0.47135335
2.2983589 1.2080435 -0.85614729
2.6959245 1.4170084 -0.84028304
3.2501009 1.7082897 -0.81339175
4.1113691 2.1609821 -0.77433711
5.7628469 3.0290177 -0.72565722
6.2577457 3.2891419 -0.39487529
7.5005136 3.9423547 0
7.4766173 3.9297945 0.47178835
2.288152 1.2062093 -0.85288745
2.7008619 1.4237713 -0.84235758
3.2435431 1.709848 -0.81226707
4.1087551 2.1659484 -0.77433711
5.7546024 3.0335641 -0.72508007
6.2629614 3.3015478 -0.39545584
7.4934444 3.9502022 0
7.4718637 3.9388258 0.47178835
2.2582896 1.1939565 -0.84229368
2.7102354 1.4329 -0.84582037
3.230237 1.7078246 -0.80945104
4.1015916 2.1685092 -0.77348036
5.762372 3.0465631 -0.72652239
6.2543688 3.3066814 -0.39516529
7.5001674 3.9653347 0
7.4739923 3.9514959 0.47222391
2.2852302 1.2117354 -0.85288745
2.6929846 1.4279457 -0.84097457
3.2304223 1.7129202 -0.81001556
4.0967026 2.1722624 -0.77305281
5.758687 3.0535235 -0.72652239
6.2618537 3.3203261 -0.3958914
7.4999738 3.9768348 0
7.4738083 3.9629607 0.47251445
2.2881331 1.2168189 -0.85451895
2.6801844 1.42531 -0.8375144
3.2395651 1.7227863 -0.81282943
4.1167445 2.1892662 -0.77733326
5.7572746 3.061693 -0.7268104
6.2624211 3.3303277 -0.3961814
7.4905629 3.983448 0
7.4690142 3.9719884 0.47251445
2.26267 1.2067872 -0.84555352
2.6961689 1.4379925 -0.84305173
3.2374811 1.7266994 -0.81282943
4.1005015 2.1869884 -0.77476466
5.7604194 3.0723 -0.72767556
6.2583928 3.3378923 -0.3961814
7.4995265 3.9998467 0
7.4779615 3.9883451 0.47338501
2.2808228 1.2200111 -0.85288745
2.6745219 1.4306006 -0.83682293
3.2421074 1.7342019 -0.81451643
4.0955944 2.1907318 -0.77433711
5.7589817 3.0804768 -0.72796357
6.2658091 3.3515787 -0.39690697
7.494688 4.0089054 0
7.4708476 3.9961534 0.47324002
2.2902434 1.2286116 -0.85696465
2.6971033 1.4468734 -0.84443468
3.2355359 1.735718 -0.81339175
4.0929446 2.1956789 -0.77433711
5.7552552 3.0874331 -0.72796357
6.2663388 3.3616064 -0.39719751
7.5035944 4.0253377 0
7.4660139 4.0051775 0.47324002
2.3148677 1.2454258 -0.86674106
2.6732643 1.4382473 -0.8375144
3.2334361 1.7396263 -0.81339175
4.1015897 2.2067029 -0.7764765
5.7674584 3.1029596 -0.72998077
6.2714252 3.3741 -0.39777809
7.4918561 4.0307059 0
7.4726081 4.0203505 0.47396559
2.2481103 1.2130145 -0.84229368
2.7046361 1.4593425 -0.84789485
3.2290978 1.7423266 -0.81282943
4.096663 2.2104394 -0.77604896
5.7682614 3.112385 -0.73055792
6.2696285 3.3829081 -0.39792308
7.4938445 4.0434589 0
7.4746075 4.0330791 0.47440112
2.2640328 1.2251403 -0.84881341
2.6962578 1.459031 -0.84582037
3.2247577 1.745019 -0.81226707
4.0985003 2.217829 -0.77690411
5.7713232 3.1230466 -0.73142308
6.2723947 3.3941922 -0.39835864
7.4912491 4.0537534 0
7.481153 4.0482903 0.47512668
2.3306587 1.2630146 -0.87407809
2.6909602 1.4582667 -0.84443468
3.2281663 1.7493858 -0.81339175
4.0949049 2.2190828 -0.7764765
5.7785316 3.1314621 -0.73257625
6.2703428 3.3979812 -0.39835864
7.500237 4.064477 0
7.4924088 4.060235 0.47599724
2.3037255 1.2556307 -0.86511272
2.6764164 1.4587635 -0.84097457
3.2217004 1.755967 -0.81282943
4.0827661 2.2252853 -0.7751922
5.7641315 3.1417029 -0.73171109
6.2712393 3.4180984 -0.39893919
7.5040989 4.0900607 0
7.4939809 4.0845456 0.47672281
2.3022068 1.2584134 -0.86511272
2.6966612 1.4740269 -0.84789485
3.2351768 1.768386 -0.81676799
4.0913434 2.2363768 -0.77733326
5.771677 3.1548669 -0.73315227
6.2716603 3.4281638 -0.3992292
7.5105672 4.1053648 0
7.5004468 4.099833 0.47744891
2.3071885 1.2647597 -0.86755842
2.6706855 1.4640223 -0.84028304
3.2196736 1.7649677 -0.81339175
4.0796342 2.2363827 -0.77562141
5.7701268 3.1630807 -0.73344028
6.2743511 3.4394877 -0.39966476
7.5033212 4.1131873 0
7.5000401 4.1113887 0.47773892
2.2904954 1.2592105 -0.86185282
2.682101 1.4744976 -0.84443468
3.2153141 1.7676339 -0.81282943
4.0904217 2.2487283 -0.77818841
5.7821684 3.1787741 -0.73545861
6.2770152 3.4508183 -0.40009975
7.4983459 4.1222506 0
7.5041752 4.1254549 0.47831947
2.3041253 1.2703315 -0.86755842
2.6913004 1.4837924 -0.84789485
3.2153988 1.7727432 -0.81339175
4.0899472 2.2549074 -0.77861595
5.7715259 3.1820109 -0.73459345
6.2751231 3.4596584 -0.40024531
7.5047526 4.1375895 0
7.5014582 4.1357727 0.47846448
2.2874455 1.264742 -0.86185282
2.6829252 1.483405 -0.84582037
3.2221491 1.781545 -0.81564331
4.0917172 2.2623343 -0.77947271
5.7744699 3.1927381 -0.73545861
6.27321 3.4684944 -0.40039033
7.5111332 4.1529493 0
7.4941835 4.1435776 0.47831947
2.2707827 1.259114 -0.85614729
2.6942909 1.4939427 -0.84997201
3.2222142 1.7866681 -0.81620562
4.0822434 2.263541 -0.77818841
5.7683477 3.1984599 -0.7351706
6.2712846 3.4773307 -0.40053532
7.5061097 4.1620221 0
7.4846306 4.1501122 0.47802949
2.3189442 1.2894847 -0.87489229
2.6771336 1.4886615 -0.84512621
3.220053 1.7905601 -0.81620562
4.0795054 2.268472 -0.77818841
5.7735209 3.2104554 -0.73632377
6.2716246 3.4874337 -0.40082586
7.5033565 4.1723571 0
7.495501 4.1679888 0.47904503
2.3044283 1.2850609 -0.87000096
2.6643796 1.485787 -0.84166604
3.2090104 1.7894995 -0.81395411
4.0700331 2.2696476 -0.77690411
5.7764082 3.2212048 -0.7371878
6.2696733 3.4962735 -0.40097088
7.4983096 4.1814203 0
7.490459 4.177043 0.47904503
2.2877798 1.2794032 -0.86429852
2.7041874 1.5122722 -0.85481781
3.2112854 1.7958585 -0.81508094
4.0762496 2.2795756 -0.77861595
5.7680011 3.2256596 -0.73661178
6.2767816 3.5101869 -0.40169644
7.5046067 4.1968279 0
7.4854064 4.1860905 0.47904503
2.2668326 1.271287 -0.85696465
2.6848528 1.5057213 -0.84928048
3.2157552 1.8034624 -0.81676799
4.075738 2.2857587 -0.77904516
5.7686067 3.2351546 -0.7371878
6.2725358 3.5177686 -0.40169644
7.5086098 4.2109847 0
7.4939456 4.2027607 0.47991616
2.3040676 1.2958312 -0.87163246
2.6895938 1.512655 -0.85135764
3.2113612 1.8061024 -0.81620562
4.0729728 2.2906816 -0.77904516
5.7692065 3.2446609 -0.73776495
6.2750773 3.5291677 -0.40213197
7.5035162 4.2200541 0
7.5024467 4.2194529 0.48078671
2.293889 1.2937576 -0.86837256
2.6571672 1.4986472 -0.84166604
3.2180293 1.8149743 -0.81845719
4.0702024 2.2956014 -0.77904516
5.7652817 3.2516294 -0.73776495
6.2685385 3.5354671 -0.40198642
7.5052142 4.2329545 0
7.4973426 4.2285147 0.48078671
2.2041211 1.2466412 -0.83495981
2.6728239 1.5117373 -0.84720337
3.2158337 1.8188614 -0.81845719
4.0808277 2.3080981 -0.78161216
5.7545924 3.2547719 -0.73689979
6.2755775 3.5494387 -0.40271255
7.5091462 4.2471399 0
7.5012751 4.2426877 0.48136726
2.2692614 1.2871057 -0.86022449
2.6819043 1.5211533 -0.85066348
3.2114258 1.8214933 -0.81789482
4.0802665 2.3142924 -0.7820397
5.7506557 3.261723 -0.73689979
6.2803249 3.5621467 -0.4032931
7.5175958 4.2639165 0
7.5051837 4.2568765 0.48194781
2.2891841 1.3020642 -0.86837256
2.7018754 1.5367987 -0.85758644
3.1959665 1.8178325 -0.81451643
4.0663128 2.3128765 -0.77990025
5.7512112 3.271229 -0.73747694
6.269238 3.5658774 -0.40285754
7.5305352 4.2832904 0
7.5113258 4.2723641 0.48267338
2.2618463 1.2901343 -0.85859299
2.6542556 1.5139606 -0.84305173
3.2025959 1.8267285 -0.81676799
4.0657425 2.3190587 -0.7803278
5.7427564 3.2756104 -0.73689979
6.2807264 3.582463 -0.40387365
7.5321298 4.2962508 0
7.4971294 4.2762871 0.48209283
2.3010511 1.3161838 -0.87407809
2.6480649 1.514673 -0.84166604
3.1937761 1.8268158 -0.81508094
4.0651722 2.3252478 -0.78075701
5.7477751 3.287684 -0.73805296
6.2809 3.5926273 -0.40416366
7.5246763 4.3040581 0
7.5009789 4.2905035 0.48267338
2.3016009 1.3201919 -0.87489229
2.6767035 1.5353496 -0.85135764
3.2047865 1.8382565 -0.81845719
4.0645843 2.3314342 -0.78118455
5.7393155 3.2920551 -0.73747694
6.2810664 3.6028023 -0.40445423
7.5217252 4.3144407 0
7.5003018 4.3021522 0.48296395
2.2721541 1.3069525 -0.86429852
2.6661475 1.5335792 -0.848589
3.1959534 1.8383256 -0.81676799
4.0595412 2.3350649 -0.78075701
5.7330847 3.2976942 -0.7371878
6.2857099 3.6155665 -0.40503421
7.5232768 4.3274202 0
7.5086083 4.3189826 0.48383451
2.2384565 1.2911717 -0.85207325
2.6621132 1.5355425 -0.84789485
3.1915307 1.8409176 -0.81620562
4.0589385 2.3412499 -0.78118455
5.7335815 3.3072064 -0.73776495
6.2970943 3.6322484 -0.40605032
7.5225554 4.3391104 0
7.5011353 4.326755 0.48368949
2.2304826 1.2901665 -0.84963071
2.6667728 1.5425276 -0.84997201
3.198102 1.8498615 -0.81845719
4.0472178 2.3410113 -0.77947271
5.7318177 3.3154256 -0.73805296
6.297204 3.6424592 -0.4063409
7.5218081 4.3508005 0
7.5071459 4.3423195 0.48441505
2.2909131 1.3288178 -0.8732608
2.6605709 1.5432336 -0.848589
3.1892686 1.8498986 -0.81676799
4.071033 2.361356 -0.7846083
5.7188582 3.317158 -0.73689979
6.2995348 3.6539729 -0.40677589
7.530057 4.367723 0
7.5063848 4.3539925 0.48470506
2.2551303 1.3117067 -0.86022449
2.6652038 1.5502278 -0.85066348
3.1980193 1.8601422 -0.81958401
4.0659513 2.3649788 -0.78417909
5.7193217 3.3266692 -0.73747694
6.3063436 3.668113 -0.40750146
7.5225182 4.3755064 0
7.5123553 4.3695951 0.48543116
2.2671478 1.3205304 -0.86511272
2.6729381 1.5568885 -0.85343212
3.1946929 1.8607914 -0.81901956
4.0645218 2.367435 -0.78417909
5.7061296 3.323611 -0.73603463
6.3176026 3.6797719 -0.40837258
7.5288687 4.3852897 0
7.5164437 4.3780527 0.48586616
2.2506089 1.3145417 -0.85940719
2.6818845 1.5664424 -0.85689229
3.1880581 1.8620896 -0.81789482
4.057229 2.3697574 -0.783324
5.7021093 3.3305035 -0.73603463
0 0 -0
7.5347981 4.4009452 0
7.520123 4.392374 0.48644674
2.2468882 1.3160123 -0.85859299
2.6496871 1.5519333 -0.84720337
3.1879964 1.8672234 -0.81845719
4.0499287 2.3720608 -0.78246725
5.702549 3.3400078 -0.73661178
6.2952342 3.6871462 -0.40750146
7.5362144 4.4139938 0
7.5237789 4.4067101 0.48702729
2.2857914 1.3425101 -0.87407809
2.6456487 1.5538645 -0.84651184
3.1901238 1.8736502 -0.81958401
4.0514908 2.3795552 -0.783324
5.6918159 3.3429649 -0.73574662
6.2862978 3.6921208 -0.40721145
7.5331173 4.4244132 0
7.5184488 4.4157982 0.48702729
2.2756488 1.3402538 -0.87081826
2.6329627 1.5506955 -0.84305173
3.1834745 1.874922 -0.81845719
4.0419745 2.3805394 -0.7820397
5.6877728 3.3498399 -0.73574662
6.2818317 3.6997137 -0.40721145
7.5389848 4.4401197 0
7.526546 4.4327941 0.48789841
2.2633808 1.3367146 -0.86674106
2.6591673 1.5704595 -0.85204917
3.1965239 1.8878132 -0.82239795
4.04352 2.3880351 -0.78289646
5.685946 3.3580239 -0.73603463
6.2706428 3.703336 -0.40677589
7.5425777 4.4545193 0
7.5144701 4.4379196 0.48746285
2.2553902 1.3356738 -0.86429852
2.6421552 1.5647216 -0.84720337
3.1833112 1.8852017 -0.81958401
4.0538802 2.4007649 -0.78546345
5.6841159 3.3662136 -0.73632377
6.2684054 3.7122381 -0.40692145
7.5416641 4.4662795 0
7.5158119 4.4509697 0.48789841
2.2133949 1.3144188 -0.84881341
2.6639926 1.582005 -0.85481781
3.2006912 1.900722 -0.82464945
4.046566 2.4030426 -0.7846083
5.677814 3.3717549 -0.73603463
6.2728434 3.7251115 -0.40750146
7.5340261 4.4740615 0
7.5215969 4.4666805 0.48862395
2.2606502 1.3461785 -0.86755842
2.6405196 1.5723845 -0.84789485
3.1962028 1.9032842 -0.82408494
4.0436597 2.4079304 -0.7846083
5.684854 3.3852334 -0.73747694
6.2772684 3.7380061 -0.40808201
7.5330825 4.4858222 0
7.5295858 4.4837399 0.48949453
2.2844868 1.3641148 -0.87733799
2.6278501 1.5691441 -0.84443468
3.1764565 1.8967285 -0.81958401
4.0385365 2.4114947 -0.78417909
5.6718764 3.386796 -0.73632377
6.2749844 3.7469244 -0.40822756
7.5365949 4.500258 0
7.5241623 4.4928346 0.48949453
2.2764733 1.3630638 -0.87489229
2.6345618 1.5774734 -0.84720337
3.1697981 1.8979522 -0.81845719
4.0312195 2.4137378 -0.783324
5.6677799 3.3936467 -0.73632377
6.2682166 3.753165 -0.40808201
7.5400829 4.514709 0
7.5254183 4.5059285 0.48993006
2.2472794 1.3492754 -0.86429852
2.6305051 1.5793655 -0.84651184
3.1849298 1.9122443 -0.82296026
4.0326972 2.4212472 -0.78417909
5.6836305 3.4124739 -0.73891813
6.2703624 3.76475 -0.40851757
7.5502429 4.533195 0
7.5177426 4.5136819 0.48978508
2.2647026 1.3634619 -0.87163246
2.6264474 1.58125 -0.84582037
3.1804423 1.914782 -0.82239795
4.0429688 2.4340651 -0.78674775
5.6706395 3.4140027 -0.73776495
6.2569046 3.7669628 -0.40793702
7.5514421 4.5463381 0
7.5278602 4.5321403 0.49080065
2.2503538 1.3585306 -0.86674106
2.656745 1.6038674 -0.85620081
3.1672521 1.9120588 -0.81958401
4.0378289 2.437623 -0.78632021
5.6665106 3.4208522 -0.73776495
6.2590241 3.7785504 -0.40837258
7.5392661 4.5514278 0
7.5312762 4.5466046 0.4913812
2.2614012 1.3689308 -0.87163246
2.6247628 1.5888904 -0.84651184
3.1736341 1.9211477 -0.82183558
4.0260963 2.4371827 -0.7846083
5.6822844 3.43975 -0.74035931
6.2611246 3.7901487 -0.40880811
7.5515718 4.5713162 0
7.5168858 4.5503192 0.49080065
2.2132671 1.3434501 -0.85370475
2.6635821 1.6167907 -0.85966092
3.1713104 1.924981 -0.82183558
4.0297256 2.4460378 -0.785891
5.6759152 3.4452727 -0.7400713
6.2654252 3.8031044 -0.40938869
7.5415888 4.577734 0
7.5224948 4.5661435 0.49152675
2.2411962 1.3641114 -0.86511272
2.6359186 1.6043606 -0.85135764
3.1668055 1.9274867 -0.82127106
4.0267673 2.4509051 -0.785891
5.667325 3.4494362 -0.73949414
6.2608256 3.8106723 -0.40938869
7.5582876 4.6003766 0
7.5302854 4.583333 0.49239731
2.2690783 1.3848423 -0.87652063
2.6296911 1.604928 -0.84997201
3.1709828 1.935284 -0.82296026
4.0216136 2.454433 -0.78546345
5.67419 3.4630175 -0.74093533
6.2673044 3.8250015 -0.41011423
7.559381 4.6135693 0
7.5269575 4.593781 0.4925423
2.2463257 1.3746841 -0.86837256
2.6277499 1.6081042 -0.84997201
3.1686423 1.9391142 -0.82296026
4.0295911 2.4659891 -0.78760284
5.6766219 3.4739227 -0.74180049
6.2648921 3.8339264 -0.41025925
7.5538011 4.6227002 0
7.5302668 4.6082978 0.49312288
2.2236009 1.364473 -0.86022449
2.6300855 1.613905 -0.85135764
3.1749594 1.9482571 -0.82521182
4.0244226 2.4695148 -0.7871753
5.6768336 3.4834874 -0.74237764
6.269114 3.8469298 -0.4108398
7.5592985 4.6386285 0
7.5468445 4.6309862 0.49457455
2.2577343 1.3891764 -0.87407809
2.6324029 1.6197087 -0.85274065
3.1639469 1.9467659 -0.82296026
4.0236197 2.4757197 -0.78760284
5.66821 3.4876306 -0.74180049
6.2733135 3.8599486 -0.41142035
7.5514741 4.6463966 0
7.5323911 4.634655 0.49399397
2.2244999 1.3724356 -0.86185282
2.6176372 1.614987 -0.848589
3.1594319 1.9492546 -0.82239795
4.0228167 2.4819314 -0.78803205
5.6661911 3.4958339 -0.7420885
6.270854 3.8688891 -0.41156536
7.5525007 4.6596184 0
7.5245681 4.642385 0.49384841
2.2291477 1.3790246 -0.86429852
2.6476805 1.6379429 -0.85896945
3.1549156 1.9517353 -0.82183558
4.0154443 2.4840868 -0.7871753
5.6641688 3.5040424 -0.74237764
6.2661748 3.8764634 -0.41156536
7.5557179 4.6742172 0
7.5300083 4.6583123 0.49457455
2.2493215 1.3933845 -0.8724466
2.6274981 1.6276531 -0.85274065
3.1753318 1.9670191 -0.82746333
4.0161228 2.4878628 -0.78760284
5.6642475 3.5088246 -0.74266565
6.2726674 3.8857219 -0.41214591
7.5573134 4.68152 0
7.5382352 4.6697016 0.49530008
2.2350428 1.3882791 -0.86755842
2.6340539 1.6361216 -0.85550928
3.1556857 1.960129 -0.82296026
4.0153008 2.4940722 -0.78803205
5.6621985 3.5170295 -0.74295366
6.2745919 3.8974128 -0.41258147
7.5604939 4.6961408 0
7.5480318 4.6883998 0.49631566
2.2039881 1.372683 -0.85614729
2.6342025 1.6406282 -0.85620081
3.1640968 1.9706557 -0.82577413
4.0209918 2.5043452 -0.78974229
5.6601381 3.5252347 -0.74324167
6.2764883 3.9091086 -0.41301647
7.5702796 4.7149048 0
7.5401578 4.6961446 0.49617067
2.2777982 1.4224759 -0.88548607
2.6003058 1.6238806 -0.84582037
3.1595602 1.9731328 -0.82521182
4.0070782 2.5024045 -0.78760284
5.6580749 3.5334454 -0.74353081
6.2761726 3.919445 -0.41330704
7.5756121 4.7309399 0
7.5366797 4.7066269 0.49631566
2.2299957 1.3963718 -0.86755842
2.6302302 1.6469892 -0.85620081
3.1485596 1.9715551 -0.82296026
4.0062337 2.5086107 -0.78803205
5.6494126 3.5375314 -0.74295366
6.2714324 3.9270258 -0.41330704
7.5787134 4.745615 0
7.5486059 4.7267623 0.49747679
2.228307 1.3990653 -0.86755842
2.6303608 1.6514989 -0.85689229
3.16769 1.9888664 -0.82858801
4.0075436 2.5161772 -0.78888714
5.6517076 3.5484824 -0.74381882
6.2732868 3.9387472 -0.4137426
7.5751753 4.7561512 0
7.5472946 4.738646 0.49776733
2.1994257 1.3846399 -0.85696465
2.6092577 1.642648 -0.85066348
3.1566834 1.9872777 -0.8263365
4.0153604 2.5278544 -0.79102659
5.6496024 3.5566854 -0.74410683
6.277319 3.9518619 -0.41432315
7.5672226 4.763916 0
7.5415635 4.7477622 0.49776733
2.2604482 1.4268731 -0.88141203
2.6051514 1.6444618 -0.84997201
3.1542799 1.9910905 -0.8263365
4.001451 2.5258543 -0.78888714
5.6409307 3.5607507 -0.74353081
6.2725391 3.9594438 -0.41432315
7.5724626 4.7800002 0
7.5468054 4.7638049 0.4984929
2.252455 1.4256366 -0.87896633
2.624357 1.6610229 -0.85689229
3.1432838 1.9894649 -0.82408494
3.9983962 2.5306876 -0.78888714
5.6431746 3.5717099 -0.74439484
6.2721376 3.9697967 -0.41461316
7.5644846 4.7877564 0
7.5476327 4.7770905 0.49892846
2.2131715 1.4045213 -0.86429852
2.6054103 1.6534437 -0.85135764
3.1494589 1.9987074 -0.8263365
4.0018401 2.539645 -0.7901715
5.636673 3.5771413 -0.74410683
6.2783036 3.9843328 -0.4153387
7.5674834 4.8024707 0
7.5484304 4.7903795 0.49936345
2.2406623 1.4257683 -0.87570649
2.6203353 1.6673601 -0.85689229
3.1384668 1.9970552 -0.82408494
3.9901052 2.5389659 -0.7884596
5.6214375 3.5770082 -0.74266565
6.2822537 3.9974959 -0.41591927
7.5726509 4.8185954 0
7.5404468 4.7981033 0.49921843
2.22644 1.4205008 -0.87081826
2.597173 1.6570338 -0.84997201
3.1510479 2.0104139 -0.8280257
4.0000148 2.552067 -0.79102659
5.6214685 3.5865777 -0.74324167
6.2774191 4.0050836 -0.41591927
7.569015 4.8291407 0
7.5455942 4.814198 0.499944
2.2434583 1.4351759 -0.87815213
2.6036222 1.6655785 -0.85274065
3.1486163 2.0142198 -0.8280257
3.9926076 2.5541344 -0.7901715
5.6062388 3.5863998 -0.74180049
6.2813306 4.0182667 -0.41649982
7.5697536 4.8424916 0
7.5529094 4.8317161 0.50081509
2.2084358 1.4165348 -0.86511272
2.6206112 1.6809124 -0.85896945
3.141907 2.0152819 -0.82690102
3.9851928 2.5561824 -0.78931475
5.5953674 3.5889804 -0.74093533
6.2655368 4.0188403 -0.41577426
7.5814214 4.862875 0
7.5558143 4.8464503 0.5013957
2.2399836 1.4405932 -0.87815213
2.614362 1.6813661 -0.85758644
3.1394696 2.0190768 -0.82690102
3.9907377 2.56655 -0.79102659
5.6040835 3.604136 -0.74266565
6.2759771 4.0362487 -0.41679037
7.5799136 4.874845 0
7.5586948 4.8611984 0.50197625
2.2423916 1.4459751 -0.87978053
2.6060014 1.6804438 -0.85550928
3.1284859 2.0173607 -0.82464945
3.989789 2.5727601 -0.79145414
5.5888581 3.6038976 -0.74122447
6.2710953 4.043829 -0.41679037
7.5762115 4.8854146 0
7.5506253 4.868916 0.5018307
2.2534103 1.4608024 -0.88548607
2.5808854 1.6730924 -0.848589
3.13852 2.0345862 -0.82858801
3.9792559 2.5796041 -0.79059905
5.569283 3.6103597 -0.73978329
6.2700262 4.0646257 -0.41737095
7.5818534 4.9150348 0
7.5497456 4.8942199 0.5025568
2.2122674 1.4379305 -0.87000096
2.6125095 1.6980799 -0.85966092
3.1296742 2.0342269 -0.82690102
3.9868958 2.5914042 -0.79273844
5.5822573 3.6283576 -0.7420885
6.2585721 4.0679493 -0.41693538
7.5780892 4.9256091 0
7.5634322 4.9160824 0.50386292
2.2312393 1.4540998 -0.87815213
2.5915415 1.6889088 -0.85343212
3.1378558 2.0449421 -0.82971489
3.9794645 2.5934191 -0.79188335
5.5692015 3.6294513 -0.74093533
6.2536526 4.0755086 -0.41693538
7.5830317 4.9418654 0
7.5727191 4.9351449 0.50487846
2.2129283 1.445979 -0.87163246
2.5978994 1.6975282 -0.85620081
3.118366 2.0376132 -0.82521182
3.9698792 2.5940118 -0.79059905
5.5604854 3.6333511 -0.74035931
6.2552514 4.087327 -0.41737095
7.5944839 4.9624133 0
7.5580492 4.9386058 0.50429791
2.1925745 1.4364629 -0.86429852
2.5832596 1.6924196 -0.85204917
3.1265266 2.0483406 -0.8280257
3.9753308 2.6044338 -0.79231089
5.5582528 3.6414833 -0.74064732
6.2481279 4.0934544 -0.41722539
7.5863075 4.970161 0
7.5738158 4.9619775 0.50574958
2.2300813 1.4648896 -0.87978053
2.5854023 1.6982919 -0.85343212
3.1304224 2.0563033 -0.82971489
3.9764681 2.6120512 -0.79316604
5.5538487 3.6481967 -0.74064732
6.2496948 4.1052823 -0.41766092
7.5911703 4.9864669 0
7.5743237 4.9754009 0.50618458
2.191159 1.4431155 -0.86511272
2.5875428 1.704177 -0.85481781
3.1215675 2.0558901 -0.8280257
3.9754591 2.6182702 -0.79359519
5.5515943 3.6563261 -0.74093533
6.2490745 4.1156921 -0.41795149
7.5960045 5.0027914 0
7.5726509 4.9874105 0.50647515
2.1820333 1.4389961 -0.86185282
2.6221147 1.7292186 -0.86658388
3.1266904 2.0619736 -0.82971489
3.9781585 2.6234953 -0.79445034
5.5407557 3.6539891 -0.73978329
6.2422438 4.1166029 -0.41766092
7.5951514 5.008811 0
7.5761461 4.9962778 0.50691068
2.2009058 1.455261 -0.87000096
2.5886312 1.7116288 -0.85620081
3.1241965 2.0657501 -0.82971489
3.9685595 2.6240513 -0.79316604
5.5363364 3.6606812 -0.73978329
6.2481008 4.1313066 -0.41838649
7.5890937 5.0179849 0
7.5679297 5.0039911 0.50676513
2.1950297 1.4551905 -0.86837256
2.58865 1.7161403 -0.85689229
3.1216981 2.0695236 -0.82971489
3.9782276 2.637358 -0.79573464
5.5275936 3.6645072 -0.73920614
6.243104 4.1388535 -0.41838649
7.600378 5.0386553 0
7.5748768 5.021749 0.50763625
2.215914 1.4728931 -0.87733799
2.5865746 1.7192669 -0.85689229
3.1255455 2.0775149 -0.83140409
3.9729023 2.6407433 -0.7953071
5.5145454 3.6654563 -0.73805296
6.2424307 4.1492734 -0.41867706
7.6072927 5.0564818 0
7.5688033 5.0308981 0.50763625
2.1750529 1.4495255 -0.86185282
2.5803239 1.7196112 -0.85550928
3.123033 2.08129 -0.83140409
3.9718425 2.6469641 -0.79573464
5.5165715 3.6764214 -0.73891813
6.2417331 4.1596923 -0.41896704
7.6011772 5.06567 0
7.5756884 5.0486832 0.50850683
2.2102871 1.4768666 -0.87652063
2.5886722 1.7296953 -0.85896945
3.1036146 2.0737689 -0.82690102
3.9686415 2.6517613 -0.79573464
5.518579 3.6873968 -0.73978329
6.2410274 4.1701212 -0.41925761
7.6015363 5.0791841 0
7.5674238 5.0563912 0.50836182
2.2105603 1.4809159 -0.87733799
2.5865803 1.7328221 -0.85896945
3.1116593 2.0845871 -0.82971489
3.9633038 2.6551273 -0.7953071
5.5033693 3.6868601 -0.73834097
6.2381411 4.1791043 -0.4194026
7.6040421 5.0941596 0
7.5656223 5.0684209 0.50865179
2.2026122 1.4794501 -0.87489229
2.5657432 1.7233579 -0.85274065
3.1112454 2.0897608 -0.8302772
3.9622216 2.6613443 -0.79573464
5.4967651 3.6920664 -0.73805296
6.2330866 4.1866388 -0.4194026
7.6043644 5.1076984 0
7.5832219 5.0934973 0.51024848
2.1987748 1.4807312 -0.87407809
2.5844641 1.7404677 -0.85966092
3.0981824 2.0864234 -0.82746333
3.9568758 2.6646974 -0.7953071
5.5030251 3.7059278 -0.73949414
6.2366447 4.1999731 -0.41998318
7.6003442 5.1183352 0
7.5813766 5.1055622 0.51053905
2.1928833 1.4806181 -0.8724466
2.5698879 1.7351688 -0.85550928
3.10829 2.0986938 -0.83083957
3.9430094 2.6622901 -0.79316604
5.4921184 3.7082367 -0.73863012
6.2272539 4.2045946 -0.41969261
7.6049361 5.1347952 0
7.579505 5.1176243 0.51082903
2.1726739 1.4707983 -0.86511272
2.5781748 1.7453033 -0.85896945
3.1015477 2.099602 -0.82971489
3.9504247 2.6742518 -0.7953071
5.4876337 3.71487 -0.73863012
6.2393832 4.2237692 -0.42085373
7.6116614 5.1527371 0
7.5862222 5.1355162 0.51169962
2.1790755 1.4789745 -0.86837256
2.5760641 1.7484171 -0.85896945
3.1011088 2.1047738 -0.8302772
3.9471905 2.6790233 -0.7953071
5.4831409 3.721498 -0.73863012
6.2342749 4.2313051 -0.42085373
7.6204967 5.1721568 0
7.5778637 5.1432209 0.5115546
2.1793282 1.4829955 -0.86918676
2.5739496 1.7515286 -0.85896945
3.1048675 2.1128089 -0.8319664
3.9418221 2.6823423 -0.79487789
5.4871936 3.7339411 -0.73978329
6.237751 4.2446823 -0.42143428
7.6099429 5.1784353 0
7.5909758 5.1655288 0.51286072
2.1775348 1.4856277 -0.86918676
2.5863402 1.764536 -0.86381525
3.1002152 2.1151285 -0.83140409
3.9428234 2.6899996 -0.79573464
5.4719887 3.7332759 -0.73834097
6.2347617 4.2536793 -0.42157927
7.6122794 5.1934938 0
7.5890255 5.177629 0.51315129
2.1981802 1.5036087 -0.87815213
2.5779922 1.7634093 -0.86173809
3.0955541 2.1174343 -0.83083957
3.9395702 2.6947618 -0.79573464
5.4781542 3.7471907 -0.73978329
6.2403474 4.2685494 -0.42230541
7.6145906 5.2085652 0
7.587049 5.1897264 0.51344126
2.1943254 1.5048671 -0.87733799
2.5613747 1.7565893 -0.85689229
3.0908999 2.1197374 -0.8302772
3.938426 2.7009704 -0.79616219
5.4821463 3.7596529 -0.74093533
6.233036 4.2746124 -0.42215985
7.6082916 5.217762 0
7.5936346 5.2077103 0.51431239
2.178247 1.4977137 -0.87163246
2.5530546 1.7554228 -0.85481781
3.0925279 2.1263525 -0.83140409
3.9393942 2.7086389 -0.79701895
5.4648161 3.7574844 -0.73920614
6.2342916 4.2865586 -0.42259541
7.6105595 5.2328496 0
7.6023183 5.2271833 0.51532793
2.1805017 1.5031475 -0.8732608
2.5612574 1.7656245 -0.85827792
3.0920463 2.1315284 -0.8319664
3.9318874 2.7104802 -0.79616219
5.4645348 3.7670238 -0.73978329
6.235528 4.2985144 -0.42303094
7.6149426 5.2494254 0
7.6002798 5.2393179 0.5156185
2.180723 1.5071905 -0.87407809
2.5756326 1.7801292 -0.86381525
3.0831957 2.1309276 -0.8302772
3.9180527 2.7079327 -0.7940228
5.4557195 3.77068 -0.73920614
6.2346005 4.3089976 -0.42332095
7.6150188 5.2630634 0
7.5982146 5.2514491 0.51590848
2.1748333 1.5070062 -0.8724466
2.5672915 1.778952 -0.86173809
3.0889726 2.1404402 -0.83252877
3.9232178 2.7185135 -0.79573464
5.4617872 3.7846336 -0.74064732
6.2272558 4.3150492 -0.42317596
7.6129279 5.2752223 0
7.5982733 5.2650676 0.51634407
2.1750386 1.5110418 -0.8732608
2.5527818 1.7734673 -0.85758644
3.0842993 2.1427228 -0.8319664
3.9283631 2.7291105 -0.79744649
5.4550881 3.7897561 -0.74035931
6.2263012 4.3255329 -0.42346597
7.6172328 5.2918401 0
7.6004419 5.2801752 0.51692462
2.1650987 1.5080183 -0.87000096
2.5691628 1.7894539 -0.86381525
3.083791 2.1478989 -0.83252877
3.9187412 2.7294521 -0.79616219
5.4547458 3.7992985 -0.74093533
6.2232084 4.3345423 -0.42361152
7.6193752 5.3069901 0
7.5940561 5.2893548 0.51692462
2.1815186 1.523373 -0.87733799
2.5546534 1.783936 -0.85966092
3.0749416 2.1472578 -0.83083957
3.9175429 2.7356534 -0.79658973
5.4543962 3.8088512 -0.74151248
6.2286167 4.3494954 -0.42433706
7.6150975 5.317687 0
7.6047029 5.3104286 0.51808572
2.1745193 1.5204405 -0.87489229
2.545351 1.7797288 -0.85689229
3.0778127 2.15203 -0.8319664
3.9179995 2.739495 -0.79701895
5.4457331 3.807698 -0.74064732
6.2259874 4.3532577 -0.42433706
7.6332078 5.3371968 0
7.5993657 5.3135343 0.51794076
2.1605334 1.5145516 -0.87000096
2.5514159 1.7885634 -0.85966092
3.0752101 2.1557474 -0.8319664
3.9230864 2.7501156 -0.79872918
5.4495997 3.820214 -0.74180049
6.2228489 4.3622675 -0.42448208
7.6331482 5.3508992 0
7.6120872 5.3361354 0.51924688
2.1506133 1.5114763 -0.86674106
2.5472023 1.7902038 -0.85896945
3.0746799 2.1609211 -0.83252877
3.9239652 2.7578089 -0.79958594
5.4513302 3.8312593 -0.74266565
6.2175732 4.3697834 -0.42448208
7.6309314 5.3631086 0
7.607758 5.3468218 0.51939183
2.1770751 1.5340073 -0.87815213
2.5532405 1.7990603 -0.86173809
3.0762167 2.1675591 -0.83365345
3.9143326 2.758111 -0.79830164
5.4361277 3.8303957 -0.74122447
6.2207851 4.3832798 -0.42506263
7.6499748 5.3903131 0
7.6097884 5.3619971 0.51997244
2.169162 1.5323572 -0.87570649
2.5408216 1.794908 -0.85827792
3.0673754 2.1668806 -0.8319664
3.9089024 2.761359 -0.79787409
5.4399452 3.8429308 -0.74237764
6.2197328 4.3937945 -0.4253532
7.6455798 5.401053 0
7.6139131 5.3786831 0.52069795
2.1289921 1.5078396 -0.86022449
2.5427415 1.800874 -0.85966092
3.0668266 2.1720524 -0.83252877
3.8992765 2.7616277 -0.79658973
5.4458494 3.8569741 -0.74381882
6.2122927 4.3998008 -0.42520764
7.6411695 5.4117899 0
7.6201358 5.396893 0.52156907
2.1493306 1.5261472 -0.86918676
2.5344329 1.7995919 -0.85758644
3.0662696 2.1772261 -0.83309108
3.9105902 2.776742 -0.79958594
5.4348564 3.8590579 -0.74295366
6.2133298 4.4118185 -0.42564318
7.6473608 5.4300623 0
7.6242003 5.4136167 0.52229464
2.1756704 1.5488077 -0.88059473
2.5261233 1.7982867 -0.85550928
3.0739844 2.1882958 -0.83590502
3.9114108 2.7844398 -0.80044103
5.444941 3.8761234 -0.74497199
6.2164621 4.4253507 -0.42622375
7.6471567 5.4438276 0
7.6218829 5.4258361 0.52258462
2.1617305 1.5428233 -0.87570649
2.5361969 1.8100793 -0.85966092
3.0672057 2.1890593 -0.83478028
3.8996856 2.7831988 -0.79872918
5.427618 3.8736815 -0.74324167
6.2089972 4.4313507 -0.42607874
7.6490383 5.4591055 0
7.6280155 5.4441018 0.52345574
2.1538327 1.5411181 -0.8732608
2.5238085 1.8058445 -0.85620081
3.0645583 2.1927638 -0.83478028
3.9004991 2.7908993 -0.79958594
5.4187303 3.8772297 -0.74266565
6.2057495 4.4403605 -0.42622375
7.6382079 5.4653182 0
7.6108599 5.4457502 0.52272964
2.1620164 1.5509269 -0.87733799
2.5257056 1.8118203 -0.85758644
3.0639691 2.1979449 -0.83534265
3.8971241 2.7956102 -0.79958594
5.4350543 3.8988476 -0.74554801
6.2003798 4.4478555 -0.42622375
7.6442823 5.4836421 0
7.6127195 5.4610009 0.52331018
2.1300402 1.5318904 -0.86511272
2.5194371 1.8119384 -0.85620081
3.0571895 2.1986811 -0.83421797
3.8937433 2.800317 -0.79958594
5.4219398 3.8993714 -0.74439484
6.2013316 4.459897 -0.42665932
7.637651 5.4928746 0
7.622992 5.4823322 0.52447134
2.148232 1.5489155 -0.8732608
2.519279 1.8164471 -0.85689229
3.0462863 2.1964295 -0.8319664
3.8903568 2.8050199 -0.79958594
5.4256163 3.9119706 -0.74554801
6.1959381 4.4673872 -0.42665932
7.6436782 5.5112348 0
7.6290126 5.5006604 0.52534246
2.1723971 1.5703318 -0.88385457
2.5170822 1.8194898 -0.85689229
3.0539246 2.2075498 -0.83478028
3.8848863 2.8082161 -0.79915839
5.4250817 3.9215569 -0.74612516
6.1947432 4.4779119 -0.42694929
7.6306839 5.5158911 0
7.6202483 5.508348 0.52519685
2.1484892 1.5570059 -0.87489229
2.5148818 1.8225299 -0.85689229
3.043025 2.2052743 -0.83252877
3.8877201 2.8174231 -0.80044103
5.4161468 3.9250708 -0.74554801
6.1935401 4.4884462 -0.42723987
7.6366615 5.5342736 0
7.6241136 5.5251799 0.52592301
2.1646006 1.5726743 -0.88222623
2.5268872 1.8358911 -0.86173809
3.0444655 2.2119336 -0.83365345
3.8801632 2.8191037 -0.79958594
5.4134908 3.9331312 -0.74583602
6.1902122 4.4974527 -0.42738485
7.632072 5.5450249 0
7.6237321 5.5389657 0.52635801
2.1467161 1.5636472 -0.87570649
2.5185816 1.8345103 -0.85966092
3.0479541 2.2201002 -0.83534265
3.8850541 2.8298357 -0.80129778
5.4150081 3.9442394 -0.74670118
6.1931748 4.5110483 -0.42796543
7.6316714 5.558835 0
7.6233368 5.5527644 0.52679354
2.1448252 1.56624 -0.87570649
2.5163631 1.8375522 -0.85966092
3.0391114 2.2192845 -0.83365345
3.8795607 2.8330154 -0.80087024
5.3997965 3.9431541 -0.74526
6.1961136 4.5246577 -0.42854598
7.6333561 5.5741916 0
7.6250157 5.5681014 0.52737409
2.168855 1.5878091 -0.88630027
2.5303352 1.8524472 -0.86519819
3.0405319 2.2259598 -0.83478028
3.8802733 2.8407309 -0.80172539
5.4138088 3.9634254 -0.74785435
6.1948314 4.5352082 -0.42883599
7.6392188 5.592638 0
7.6224718 5.5803776 0.52766412
2.149004 1.5772682 -0.87896633
2.515964 1.8465996 -0.86104661
3.043987 2.2341437 -0.83646947
3.8727031 2.8423824 -0.80087024
5.4090157 3.969964 -0.74785435
6.2061052 4.5549903 -0.42999709
7.6324553 5.6018643 0
7.6303887 5.6003475 0.52868021
2.1431191 1.5769368 -0.87733799
2.5096858 1.8466618 -0.85966092
3.0371883 2.2348056 -0.83534265
3.8651266 2.8440142 -0.80001348
5.4062963 3.9780283 -0.74814236
6.1964149 4.5594087 -0.42970708
7.6361599 5.618793 0
7.6215253 5.6080246 0.52853525
2.1471732 1.5839227 -0.87978053
2.5135112 1.8541622 -0.86173809
3.0283496 2.2339473 -0.83365345
3.8575597 2.8456373 -0.79915839
5.407732 3.9891655 -0.74900752
6.1992655 4.5730624 -0.43028766
7.6398349 5.6357388 0
7.6335611 5.6311111 0.52984136
2.1273749 1.5732907 -0.8724466
2.5052156 1.8527213 -0.85966092
3.0379095 2.2466726 -0.83703184
3.8623743 2.8564019 -0.80087024
5.396667 3.9910815 -0.74814236
6.2104406 4.5929041 -0.43144822
7.6372085 5.6480641 0
7.6267514 5.6403308 0.52984136
2.1413558 1.5876364 -0.87896633
2.5110364 1.8617237 -0.86242956
3.0351927 2.2503419 -0.83703184
3.8568521 2.8595335 -0.80044103
5.3918405 3.9975994 -0.74814236
6.200716 4.5973129 -0.43115821
7.6429176 5.666585 0
7.6387148 5.6634688 0.53114748
2.1483343 1.5948228 -0.88222623
2.5058863 1.8602525 -0.86104661
3.0297482 2.2491431 -0.83590502
3.8633685 2.8679838 -0.80215293
5.4018893 4.0101094 -0.74987268
6.2146287 4.6134491 -0.43231931
7.6520348 5.680512 0
7.6373758 5.6696301 0.53129244
2.1265819 1.5826639 -0.87407809
2.511687 1.8692702 -0.86381525
3.037226 2.2603917 -0.83872104
3.8578429 2.8711185 -0.80172539
5.3991127 4.0181761 -0.75016069
6.2090497 4.6209545 -0.43231931
7.6556025 5.6975212 0
7.6430311 5.6881652 0.53216356
2.1107993 1.5748848 -0.86837256
2.4852972 1.8543009 -0.85550928
3.0182004 2.2519042 -0.83421797
3.8584898 2.8788512 -0.80258214
5.3901114 4.0216064 -0.74958467
6.2076225 4.6315584 -0.43260932
7.654964 5.711432 0
7.6319828 5.6942854 0.53187299
2.142539 1.6025997 -0.88222623
2.5011334 1.8708251 -0.86173809
3.0297141 2.2661986 -0.83815652
3.852947 2.8819692 -0.80215293
5.3852482 4.0281167 -0.74958467
6.2082663 4.6437263 -0.43304488
7.6647291 5.7331476 0
7.6375856 5.7128444 0.53274411
2.1129212 1.5844309 -0.87081826
2.4848194 1.8633087 -0.85689229
3.0168114 2.2622373 -0.83534265
3.8433065 2.8820069 -0.80087024
5.3907218 4.0423779 -0.75102586
6.2047276 4.652782 -0.43318987
7.6619644 5.7455306 0
7.6556239 5.7407756 0.53448582
2.109024 1.5854933 -0.87000096
2.4966052 1.8768638 -0.86173809
3.0201707 2.2704628 -0.83703184
3.8500788 2.8943601 -0.80300969
5.3920298 4.0535469 -0.75188988
6.203259 4.6634016 -0.43348044
7.6799793 5.7735505 0
7.6549067 5.7547016 0.53492081
2.1189535 1.5969689 -0.87489229
2.4803092 1.8693081 -0.85689229
3.0275688 2.2817554 -0.83984572
3.854779 2.90519 -0.80472153
5.3871279 4.0600591 -0.75188988
6.207993 4.6787119 -0.43420601
7.6792269 5.7875204 0
7.6583209 5.7717648 0.53564638
2.1071639 1.5920796 -0.87081826
2.4840555 1.8768423 -0.85896945
3.0126498 2.2762246 -0.83646947
3.853312 2.9113917 -0.80514908
5.3760328 4.061892 -0.75102586
6.2023354 4.6862097 -0.43420601
7.6846905 5.8062115 0
7.6554918 5.7841501 0.53593689
2.1091754 1.5976064 -0.8724466
2.505784 1.8980198 -0.86727536
3.0240693 2.2905979 -0.84040809
3.8416061 2.9098456 -0.80343723
5.3773007 4.0730658 -0.75188988
6.1987376 4.6952677 -0.434351
7.6776695 5.8154926 0
7.6505666 5.7949634 0.53608191
2.1230059 1.6161714 -0.87978053
2.4872148 1.8934309 -0.86242956
3.0084183 2.2902052 -0.83759421
3.8406925 2.9237871 -0.80472153
5.3736176 4.0907502 -0.75275505
6.1977086 4.7181025 -0.43507656
7.6760139 5.8434849 0
7.6468759 5.8213034 0.53680748
2.1131923 1.6127374 -0.87652063
2.4769478 1.8903469 -0.85966092
3.0036309 2.2922988 -0.83703184
3.8269556 2.9206402 -0.80258214
5.3871741 4.111361 -0.7553494
6.1982021 4.7303185 -0.43551213
7.6792898 5.8606486 0
7.6522341 5.8400002 0.5376786
2.126946 1.6273046 -0.88304037
2.5025606 1.9146833 -0.86935252
3.0089312 2.3021021 -0.83928341
3.831579 2.9315016 -0.80429399
5.3657684 4.1052942 -0.75304306
6.1904202 4.7362266 -0.43536711
7.6763406 5.8730888 0
7.6658053 5.8650284 0.53912973
2.103411 1.6133312 -0.87407809
2.4783463 1.9009091 -0.86173809
3.0000968 2.3010955 -0.83759421
3.832104 2.9392507 -0.80514908
5.3628626 4.1133537 -0.7533322
6.1908803 4.7484488 -0.43580267
7.6836877 5.8934426 0
7.6566529 5.8727069 0.53898472
2.0799055 1.5992976 -0.86511272
2.4700792 1.8993131 -0.85966092
3.0013466 2.3078196 -0.83872104
3.8224425 2.9391832 -0.80386478
5.3763399 4.1340184 -0.75592655
6.1954355 4.763844 -0.43652824
7.6910048 5.9138288 0
7.6557331 5.8867078 0.53942025
2.1269076 1.6395321 -0.88548607
2.4677825 1.9022963 -0.85966092
2.9965377 2.3098886 -0.83815652
3.8188884 2.9437997 -0.80386478
5.36724 4.1373506 -0.7553494
6.185555 4.7681508 -0.43623766
7.6879797 5.9262986 0
7.6609583 5.9054689 0.54029083
2.1249251 1.6421009 -0.88548607
2.4734225 1.911413 -0.86242956
3.0017865 2.3197224 -0.84040809
3.8234534 2.9546907 -0.80557668
5.3704233 4.1501589 -0.75650257
6.1880136 4.7819767 -0.43681824
7.6808133 5.9355836 0
7.6640954 5.9226646 0.5410164
2.1053565 1.6310456 -0.87815213
2.4572341 1.9036496 -0.85758644
2.9989815 2.3233478 -0.84040809
3.8077085 2.9498787 -0.80300969
5.3654046 4.1566453 -0.75650257
6.1842828 4.7910399 -0.43696323
7.7003789 5.9655786 0
7.6754189 5.9462414 0.54232252
2.1170428 1.6441962 -0.88385457
2.4806883 1.9266207 -0.86658388
2.9941671 2.3254128 -0.83984572
3.8102255 2.9592025 -0.80429399
5.3501663 4.1551943 -0.75506139
6.1825976 4.8017001 -0.4372538
7.6993256 5.9796629 0
7.6702867 5.9571099 0.54246807
2.1209071 1.6513097 -0.88630027
2.4664776 1.9203663 -0.86242956
2.9893522 2.3274693 -0.83928341
3.8066471 2.9638042 -0.80429399
5.3594298 4.17278 -0.75707972
6.1808882 4.8123565 -0.43754378
7.6941543 5.9905653 0
7.6774292 5.9775434 0.54348361
2.1072237 1.6447495 -0.88141203
2.4562447 1.9171706 -0.85966092
2.9905398 2.3342035 -0.84040809
3.8091283 2.9731357 -0.80557668
5.356421 4.1808429 -0.75736773
6.1771231 4.821425 -0.43768933
7.695116 6.0062628 0
7.6783943 5.9932108 0.54406416
2.1071794 1.6488162 -0.88222623
2.4480047 1.9155036 -0.85758644
2.9977286 2.345649 -0.84322411
3.8075528 2.9793165 -0.80600423
5.3534002 4.1889043 -0.75765574
6.173337 4.8304849 -0.43783435
7.7001472 6.025176 0
7.6752439 6.0056896 0.54435474
2.1061828 1.6500889 -0.88222623
2.4606655 1.9278082 -0.86242956
2.9863043 2.3396199 -0.84040809
3.8017144 2.9784532 -0.80514908
5.3345804 4.1793766 -0.7553494
6.1826863 4.8438253 -0.43870491
7.7026534 6.0346437 0
7.6797957 6.0167356 0.54493529
2.0983543 1.6480513 -0.87978053
2.454392 1.9276838 -0.86104661
2.9874754 2.3463686 -0.84153491
3.8102219 2.9925551 -0.80771607
5.3498712 4.2017984 -0.75823289
6.1809201 4.8545055 -0.43899545
7.7055874 6.0519819 0
7.6786447 6.0308213 0.54537028
2.0885937 1.6444696 -0.87652063
2.4559994 1.9337491 -0.86242956
2.9806416 2.3468299 -0.84040809
3.7985356 2.9908047 -0.80600423
5.3407221 4.2050567 -0.75765574
6.1791291 4.8651824 -0.43928546
7.7044058 6.0661197 0
7.6836057 6.0497427 0.5462414
2.1079478 1.6638381 -0.88548607
2.455636 1.938274 -0.86312371
2.979804 2.3520086 -0.8409726
3.792906 2.9938033 -0.80557668
5.3336091 4.2099056 -0.75736773
6.1691709 4.8694282 -0.43899545
7.7154536 6.0899348 0
7.6844487 6.0654621 0.54682195
2.0943029 1.657179 -0.88059473
2.4670579 1.9521325 -0.86796689
2.9829319 2.3603327 -0.84265959
3.791297 2.9999754 -0.80600423
5.3346052 4.2211637 -0.75823289
6.1816196 4.8913889 -0.44030157
7.7203307 6.1089392 0
7.6913719 6.0860248 0.5478375
2.0729392 1.6443511 -0.8724466
2.4725595 1.9613484 -0.87073553
2.9840627 2.3670964 -0.84378648
3.7896862 3.0061543 -0.80643344
5.3335495 4.2308183 -0.75880891
6.1879153 4.9085407 -0.44117212
7.7210994 6.124733 0
7.6880879 6.0985465 0.54812807
2.1038353 1.6730052 -0.88630027
2.454479 1.9518427 -0.86519819
2.9812005 2.3707004 -0.84378648
3.792073 3.0155199 -0.80771607
5.3264112 4.235651 -0.7585209
6.1799479 4.9143982 -0.44102713
7.7218409 6.1405373 0
7.6969838 6.1207705 0.54928917
2.1037433 1.6770853 -0.88711441
2.4462392 1.95012 -0.86312371
2.9684014 2.3663831 -0.8409726
3.7803974 3.0136988 -0.80600423
5.3293791 4.2485332 -0.75967407
6.1841626 4.9299588 -0.4417527
7.7164488 6.1514835 0
7.6814551 6.1235871 0.54870862
2.076617 1.6595682 -0.87652063
2.4556363 1.9624687 -0.86727536
2.9794285 2.3810675 -0.84491116
3.7847745 3.0246751 -0.80771607
5.3141408 4.2468977 -0.75823289
6.1842928 4.942296 -0.44218826
7.7232432 6.1721778 0
5.946722 4.7524366 0.42520151
2.0668945 1.6558948 -0.8732608
2.4493511 1.9623003 -0.86589241
2.9646552 2.3751366 -0.84153491
3.7851276 3.0324593 -0.80857283
5.3150554 4.2581625 -0.75909692
6.1762905 4.9481416 -0.44204324
7.7198381 6.1847568 0
5.9308295 4.7514906 0.42447537
2.074533 1.6661339 -0.87733799
2.4450166 1.9636829 -0.86519819
2.9657414 2.3818963 -0.84265959
3.7814608 3.0370305 -0.80857283
5.315958 4.2694421 -0.75996208
6.168283 4.9539752 -0.44189826
7.7204757 6.2005987 0
5.9109082 4.7472682 0.42345983
2.095613 1.6872334 -0.88711441
2.442642 1.9666358 -0.86519819
2.9628613 2.385478 -0.84265959
3.7797861 3.0432057 -0.80900037
5.3087831 4.2742414 -0.75967407
6.1501451 4.9516444 -0.44102713
7.7170362 6.2131901 0
5.9031382 4.7527728 0.42331427
2.055114 1.6587236 -0.87081826
2.4363632 1.9664375 -0.86381525
2.9599767 2.3890564 -0.84265959
3.7721148 3.0445492 -0.80814528
5.3076358 4.2838988 -0.76025009
6.1077652 4.9296994 -0.4384149
7.7277474 6.2372193 0
