# .PCD v0.7 - Point Cloud Data file format
VERSION 0.7
FIELDS x y z
SIZE 4 4 4
TYPE F F F
COUNT 1 1 1
WIDTH 1675
HEIGHT 1
VIEWPOINT 0 0 0 1 0 0 0
POINTS 1675
DATA ascii
0 0 -0
8.0646362 3.42643 0
8.0465441 3.4187429 0.4883334
2.374886 1.0124094 -0.85125911
2.8178337 1.2012373 -0.84512621
0 0 -0
0 0 -0
0 0 -0
6.6705451 2.843641 -0.40503421
8.0580978 3.4351523 0
8.042407 3.4284632 0.4883334
2.3668413 1.0123614 -0.84881341
2.8163803 1.2046412 -0.84512621
0 0 -0
0 0 -0
0 0 -0
6.7077165 2.8690698 -0.40750146
8.0539417 3.4448864 0
8.0334854 3.4361365 0.4880434
2.3451772 1.0064489 -0.84147948
2.8103161 1.2060665 -0.84374321
0 0 -0
0 0 -0
0 0 -0
0 0 -0
8.0521622 3.455641 0
8.0317125 3.4468648 0.48818842
2.3938973 1.0307845 -0.85940719
2.8434224 1.224345 -0.85412627
0 0 -0
0 0 -0
0 0 -0
6.7365646 2.9006872 -0.4096787
8.0647068 3.4725697 0
8.0418663 3.4627349 0.48905951
2.3881164 1.0317178 -0.85777879
2.8580556 1.2347416 -0.85896945
0 0 -0
0 0 -0
0 0 -0
6.7879114 2.932524 -0.41301647
8.0629005 3.4833469 0
8.0400591 3.4734788 0.48920453
2.3483188 1.0178932 -0.84392518
2.8335478 1.2282186 -0.85204917
0 0 -0
0 0 -0
0 0 -0
6.7033076 2.9055898 -0.40808201
8.0515203 3.4899807 0
8.0358562 3.4831913 0.48920453
2.3833518 1.0365012 -0.85696465
2.8504665 1.2396457 -0.85758644
0 0 -0
0 0 -0
0 0 -0
6.7093234 2.9178324 -0.40866256
8.0544596 3.5028214 0
8.0292616 3.491863 0.48905951
2.3374062 1.0181994 -0.84066534
2.8106191 1.224336 -0.84582037
0 0 -0
0 0 -0
0 0 -0
6.7790222 2.9530153 -0.41301647
8.0594931 3.510802 0
8.0342903 3.4998236 0.48949453
2.3610888 1.0319118 -0.84963071
2.8390198 1.2407912 -0.85481781
0 0 -0
0 0 -0
0 0 -0
6.6825976 2.9206235 -0.40735644
8.0719395 3.5278344 0
8.0419579 3.5147309 0.49022007
2.3711557 1.0397258 -0.85370475
2.8352232 1.2432142 -0.85412627
0 0 -0
0 0 -0
0 0 -0
6.7599697 2.9641724 -0.4122909
8.0724335 3.5396733 0
8.0353279 3.5234029 0.49007508
2.3065517 1.0147222 -0.83088571
2.813045 1.2375441 -0.84789485
0 0 -0
0 0 -0
0 0 -0
6.7540069 2.971293 -0.41214591
8.0633907 3.5473309 0
8.0382023 3.5362496 0.49051064
2.3505471 1.0374688 -0.84718502
2.82303 1.2460102 -0.85135764
0 0 -0
0 0 -0
0 0 -0
6.7694292 2.9878457 -0.41330704
8.0543413 3.5549715 0
8.0386734 3.5480561 0.49080065
2.3583314 1.0443112 -0.85044491
2.8146384 1.246372 -0.84928048
0 0 -0
0 0 -0
0 0 -0
6.7800651 3.0023336 -0.4141776
8.0666904 3.5720742 0
8.0415106 3.5609241 0.49123618
2.3344762 1.0371233 -0.84229368
2.8337624 1.2589381 -0.85550928
0 0 -0
0 0 -0
0 0 -0
6.6410885 2.9503953 -0.40590534
8.0599928 3.5807631 0
8.0348291 3.5695839 0.49109119
2.3715971 1.0570477 -0.85614729
2.8047416 1.2501053 -0.84720337
0 0 -0
0 0 -0
0 0 -0
6.7395673 3.0039017 -0.41214591
8.0723019 3.5979168 0
8.0281391 3.578233 0.4909462
2.3590388 1.0548689 -0.85207325
2.8329997 1.2668056 -0.85620081
0 0 -0
0 0 -0
0 0 -0
6.7027278 2.9971952 -0.41011423
8.0774517 3.6119175 0
8.0261793 3.5889907 0.49109119
2.375803 1.0658119 -0.85859299
2.8291802 1.2692019 -0.85550928
0 0 -0
0 0 -0
0 0 -0
6.7156901 3.0127339 -0.4111298
8.0801983 3.6248674 0
8.0218372 3.598686 0.49109119
2.320421 1.0443367 -0.83903384
2.7933261 1.257174 -0.84512621
0 0 -0
0 0 -0
0 0 -0
6.7262669 3.027247 -0.41200092
8.0758123 3.6346281 0
8.0269613 3.612642 0.49167174
2.3732204 1.0715501 -0.85859299
2.7940981 1.2615837 -0.84582037
0 0 -0
0 0 -0
0 0 -0
6.7510228 3.0482037 -0.4137426
8.0737848 3.6454535 0
8.0320635 3.6266155 0.49225232
2.3449073 1.0621791 -0.84881341
2.8039958 1.2701337 -0.84928048
0 0 -0
0 0 -0
0 0 -0
6.6857896 3.0284805 -0.40996867
8.0670052 3.6541336 0
8.0324049 3.6384604 0.4925423
2.3323734 1.0598999 -0.84473938
2.7819052 1.2641805 -0.84305173
0 0 -0
0 0 -0
0 0 -0
6.7152491 3.051609 -0.41200092
8.0720615 3.668185 0
8.0303659 3.6492374 0.49268731
2.3265975 1.0606688 -0.84311098
2.7963483 1.2748228 -0.84789485
0 0 -0
0 0 -0
0 0 -0
6.6997375 3.0543327 -0.41127536
8.062892 3.6757789 0
8.0306835 3.6610956 0.49297786
2.3657682 1.0819808 -0.85777879
2.794806 1.2782007 -0.84789485
0 0 -0
0 0 -0
0 0 -0
6.6511421 3.0418909 -0.40851757
8.0750046 3.6930923 0
8.0357065 3.6751194 0.49355844
2.3419991 1.0745337 -0.84963071
2.8183441 1.2930858 -0.85550928
0 0 -0
0 0 -0
0 0 -0
6.7560968 3.0997682 -0.41519371
8.0752716 3.7050195 0
8.0359783 3.6869912 0.49384841
2.3541658 1.0835612 -0.85451895
2.7939944 1.2860029 -0.848589
0 0 -0
0 0 -0
0 0 -0
6.7499881 3.1068439 -0.41504872
8.0755129 3.7169483 0
8.031518 3.6966987 0.49384841
2.3797822 1.0988384 -0.86429852
2.7673817 1.2778083 -0.84097457
0 0 -0
0 0 -0
0 0 -0
6.6613016 3.075783 -0.40982369
8.0710154 3.7267032 0
8.0388479 3.7118499 0.49457455
2.3784528 1.1017131 -0.86429852
2.7908785 1.2927511 -0.848589
0 0 -0
0 0 -0
0 0 -0
6.6929493 3.1002131 -0.41200092
8.0641479 3.7353599 0
8.0296364 3.7193742 0.49428397
2.3659148 1.0993795 -0.86022449
2.8097885 1.3056362 -0.85481781
0 0 -0
0 0 -0
0 0 -0
6.7033324 3.1148655 -0.41287148
8.0690689 3.7494879 0
8.0298538 3.7312658 0.49457455
2.3152964 1.079262 -0.84229368
2.8104804 1.3100892 -0.85550928
0 0 -0
0 0 -0
0 0 -0
6.7160521 3.1306489 -0.41388759
8.0668888 3.7603335 0
8.0300455 3.7431593 0.49486455
2.3430943 1.0956682 -0.85288745
2.7907147 1.3049827 -0.84997201
0 0 -0
0 0 -0
0 0 -0
6.7452135 3.1541691 -0.41591927
8.0599842 3.7689769 0
8.03022 3.7550585 0.49515453
2.3804805 1.1149037 -0.86674106
2.7740202 1.2992189 -0.84512621
0 0 -0
0 0 -0
0 0 -0
6.7221303 3.1483257 -0.41461316
8.0742054 3.7815733 0
8.0303097 3.7610145 0.49530008
2.3411047 1.0999131 -0.85288745
2.7679114 1.3004383 -0.84374321
0 0 -0
0 0 -0
0 0 -0
6.6595283 3.1288233 -0.41098478
8.0696306 3.7913268 0
8.0328083 3.7740264 0.49573511
2.3621356 1.1132802 -0.86103868
2.7799497 1.3101971 -0.84789485
0 0 -0
0 0 -0
0 0 -0
6.7004042 3.1579168 -0.4137426
8.07446 3.8055127 0
8.0258932 3.7826231 0.49559009
2.3473775 1.1097931 -0.85614729
2.8055813 1.3264227 -0.85620081
3.5008831 1.6551473 -0.85785806
0 0 -0
0 0 -0
6.7036242 3.1693392 -0.4141776
8.0816174 3.820827 0
8.030714 3.7967606 0.49617067
2.3415728 1.1105125 -0.85451895
2.7563767 1.307237 -0.84166604
0 0 -0
0 0 -0
0 0 -0
6.7256179 3.1896861 -0.41577426
8.0581837 3.8216677 0
8.0331659 3.8098028 0.4966062
2.3179145 1.1027249 -0.84637088
2.804631 1.3342755 -0.85689229
0 0 -0
0 0 -0
6.476902 3.0813222 -0.79945564
6.6842155 3.1799495 -0.41345203
8.072361 3.8403459 0
8.023859 3.8172717 0.49631566
2.3232658 1.1087153 -0.84881341
2.7577422 1.3160573 -0.84305173
3.5292511 1.6842389 -0.86629969
4.4026427 2.1010411 -0.81327927
6.3844752 3.0468168 -0.78850108
6.7366509 3.2148831 -0.41693538
8.0677147 3.8500969 0
8.0333157 3.8336813 0.49718678
2.3353047 1.117927 -0.85370475
2.7810349 1.3313012 -0.85066348
3.4332592 1.6435256 -0.84322411
0 0 -0
6.4647751 3.0947337 -0.79887962
6.7233863 3.2185328 -0.41635481
8.065402 3.860965 0
8.0357113 3.8467522 0.49762234
2.3629148 1.1346555 -0.86429852
2.8020442 1.3455224 -0.85758644
3.4518831 1.6575707 -0.84828955
0 0 -0
6.461031 3.1025429 -0.79887962
6.6984134 3.2165322 -0.41504872
8.0630741 3.8718331 0
8.0310574 3.8564589 0.49762234
2.3259139 1.1203485 -0.85125911
2.7687685 1.3336631 -0.84789485
3.4796348 1.6760738 -0.8556065
4.3672533 2.1036227 -0.80814528
6.4130096 3.0890245 -0.79340291
6.7366557 3.2449188 -0.41766092
8.072463 3.8883514 0
8.0380945 3.8717971 0.49834788
2.326782 1.1242323 -0.85207325
2.7716773 1.3391926 -0.84928048
3.427279 1.65596 -0.84322411
4.3647084 2.1088982 -0.80814528
6.3836527 3.0843923 -0.79023141
6.7023168 3.2383614 -0.41577426
8.0771313 3.9026315 0
8.033411 3.8815067 0.49834788
2.3320963 1.1302779 -0.85451895
2.7610269 1.338164 -0.84651184
3.4595666 1.6767195 -0.85166579
4.4014258 2.1332026 -0.81542033
6.3938818 3.0988698 -0.7919606
6.7171054 3.2555237 -0.41693538
8.0911455 3.9214687 0
8.0427399 3.8980081 0.49921843
2.286272 1.111482 -0.83821964
2.786483 1.3546619 -0.85481781
3.4438314 1.674235 -0.84828955
4.3526707 2.1160715 -0.80686098
6.408742 3.1156402 -0.79426694
6.7201796 3.2670472 -0.41737095
8.0653296 3.9209981 0
8.0310106 3.904314 0.49878287
2.3404636 1.141326 -0.85859299
2.7668047 1.3492309 -0.84928048
3.4783382 1.6962099 -0.85729355
4.3454919 2.1190767 -0.80600423
6.4235711 3.1324511 -0.79657328
6.7185602 3.2763026 -0.41751593
8.062932 3.9318848 0
8.0403051 3.9208508 0.499654
2.3080039 1.128951 -0.84718502
2.7877042 1.3635944 -0.85620081
3.4260762 1.6758516 -0.84491116
4.3682961 2.1367347 -0.81071228
6.373313 3.1174808 -0.79080743
6.7239332 3.2889853 -0.41809648
8.0745335 3.9496257 0
8.0425663 3.9339895 0.50008959
2.3421407 1.149158 -0.86022449
2.7973137 1.372486 -0.85966092
3.4263277 1.6811082 -0.84547347
4.3657112 2.1420114 -0.81071228
6.3788295 3.1297364 -0.7919606
6.7292857 3.3016858 -0.41867706
8.0650864 3.9570887 0
8.0261364 3.9379783 0.49936345
2.3030536 1.1334349 -0.84637088
2.750643 1.3537135 -0.84582037
3.424294 1.6852471 -0.84547347
4.3700318 2.1506865 -0.81199658
6.3796892 3.1397281 -0.79253775
6.7299495 3.3121068 -0.41896704
8.0649643 3.9691272 0
8.0330362 3.9534137 0.50008959
2.3393569 1.1548147 -0.86022449
2.7647462 1.3648065 -0.85066348
3.4495962 1.7028801 -0.85222811
4.3766375 2.1605105 -0.81370842
6.3851676 3.152014 -0.79369092
6.711967 3.3133373 -0.41809648
0 0 0
8.0259171 3.9619637 0.499944
2.3135931 1.1455754 -0.85125911
2.781081 1.3770519 -0.85620081
3.4407113 1.7036679 -0.85054106
4.3625231 2.1601028 -0.81156904
6.358171 3.1482477 -0.79080743
6.7195992 3.327209 -0.41882205
8.0786762 4.0001559 0
8.0281115 3.9751186 0.50037956
2.2856438 1.1351773 -0.84147948
2.7502074 1.3659053 -0.84720337
3.4204447 1.6987822 -0.84603798
4.3806 2.1756485 -0.81542033
6.3497338 3.1536293 -0.79023141
6.7318673 3.3434179 -0.41983816
8.0808229 4.0133839 0
8.0256281 3.985971 0.50052458
2.3063977 1.1489611 -0.84963071
2.7755017 1.3826512 -0.85550928
3.4161088 1.7017777 -0.84547347
4.3756633 2.1797919 -0.81499112
6.3505445 3.1636038 -0.79080743
6.7161865 3.345753 -0.41911206
8.0876217 4.0289507 0
8.0440683 4.0072541 0.50197625
2.2961638 1.147328 -0.84637088
2.7670944 1.3826386 -0.85343212
3.4276922 1.7127206 -0.84885186
4.3569584 2.1770487 -0.81199658
6.3559723 3.1758993 -0.7919606
6.7400322 3.3678031 -0.42085373
8.0827475 4.0387201 0
8.0368891 4.0158062 0.5018307
2.3146603 1.1600674 -0.85370475
2.778883 1.3927277 -0.85758644
3.4119864 1.7100281 -0.84547347
4.3703828 2.1903598 -0.81499112
6.3105125 3.162719 -0.78677189
0 0 -0
0 0 0
8.0297108 4.0243511 0.50168568
2.3037236 1.1598151 -0.85044491
2.7584276 1.388737 -0.85204917
3.4088814 1.7162093 -0.84547347
4.3824582 2.2063589 -0.81798732
6.3440413 3.1939225 -0.79167259
0 0 -0
0 0 0
8.0224037 4.038898 0.50168568
2.3177581 1.1703932 -0.85614729
2.7657053 1.3965924 -0.85481781
3.3954668 1.7146015 -0.84265959
4.3729124 2.2081802 -0.81670296
6.3286357 3.1957576 -0.79023141
6.7280464 3.3974471 -0.42099872
8.0748873 4.0775585 0
8.0291128 4.0544438 0.50241125
2.3031168 1.1664945 -0.85125911
2.7461114 1.3908647 -0.84928048
3.3911278 1.717556 -0.84209728
4.3633776 2.209986 -0.81542033
6.3339992 3.2080767 -0.79138458
6.7077165 3.3973591 -0.41998318
8.0769129 4.090837 0
8.0288486 4.0664926 0.50270182
2.3369627 1.1871873 -0.86429852
2.7377164 1.390772 -0.84720337
3.3867869 1.7205026 -0.84153491
4.3629904 2.2164183 -0.81584787
6.3255019 3.2133827 -0.79080743
6.7267685 3.417228 -0.42143428
8.0835638 4.1064858 0
8.0308809 4.0797229 0.50313735
2.2848735 1.1642011 -0.84555352
2.7427421 1.3974969 -0.84928048
3.3937614 1.7292078 -0.84378648
4.348875 2.2158625 -0.81370842
6.3331442 3.2268982 -0.79224974
6.6994867 3.413559 -0.41998318
8.0693207 4.1115241 0
8.0305719 4.0917807 0.50342733
2.3384845 1.1950787 -0.86592692
2.7388198 1.3996694 -0.848589
3.3916695 1.7333072 -0.84378648
4.3484778 2.2222826 -0.81413603
6.3200278 3.22984 -0.79109657
6.7161794 3.4322927 -0.42128929
8.0713015 4.1248255 0
8.0418205 4.1097593 0.50444347
2.3084474 1.1832483 -0.85533315
2.7639089 1.4167056 -0.85689229
3.3895726 1.7374041 -0.84378648
4.3594918 2.2345588 -0.81670296
6.3023057 3.2303932 -0.78936625
6.7050877 3.4368484 -0.42085373
8.0686245 4.1357608 0
8.02528 4.1135435 0.50371736
2.3070159 1.1860367 -0.85533315
2.7510412 1.41431 -0.85343212
3.3942437 1.7449803 -0.84547347
4.3545079 2.2386522 -0.81627542
6.3214054 3.2498338 -0.79224974
6.703239 3.4461346 -0.42099872
8.0728798 4.1502671 0
8.0364828 4.1315551 0.50473344
2.2902102 1.1808977 -0.84963071
2.744875 1.4153358 -0.85204917
3.3921328 1.7490804 -0.84547347
4.3472409 2.2415614 -0.81542033
6.3289661 3.2633953 -0.79369092
6.7083082 3.4589951 -0.42157927
8.0609264 4.1564436 0
8.0314846 4.1412625 0.50473344
2.3282945 1.2040986 -0.86429852
2.745389 1.4198028 -0.85274065
3.3742247 1.7450109 -0.84153491
4.3490853 2.2491689 -0.81627542
6.3319039 3.2746015 -0.79455495
6.708744 3.4694877 -0.42186984
8.0697641 4.1733513 0
8.0357075 4.1557388 0.50531405
2.3465819 1.2171521 -0.87163246
2.7414465 1.421965 -0.85204917
3.3878961 1.7572727 -0.84547347
4.3509264 2.2567883 -0.81713217
6.3394294 3.2882078 -0.79599726
6.7045469 3.4775915 -0.42186984
8.0647154 4.1830993 0
8.0283756 4.1642499 0.50516903
2.3078368 1.2005962 -0.85777879
2.7397263 1.4252764 -0.85204917
3.3812664 1.759022 -0.84434879
4.341362 2.2584887 -0.81584787
0 0 -0
6.6980371 3.4844918 -0.42172486
8.0619612 4.1940408 0
8.0394678 4.1823387 0.50618458
2.2735133 1.186233 -0.84555352
2.7246528 1.4216205 -0.84789485
3.3903997 1.7689821 -0.84716266
4.3477335 2.2684827 -0.81755972
6.3429279 3.3094993 -0.79743844
6.7030368 3.4973907 -0.42230541
8.0592022 4.2049861 0
8.0413218 4.1956568 0.50662017
2.3005447 1.2038758 -0.85614729
2.7273829 1.4272404 -0.84928048
3.3792546 1.768365 -0.84491116
4.349534 2.2761126 -0.81841487
6.343503 3.3195572 -0.79801446
6.6988063 3.5054874 -0.42230541
8.0656424 4.2207532 0
8.0362463 4.2053699 0.50662017
2.3078423 1.2112491 -0.85940719
2.7678566 1.4526832 -0.86242956
3.3793631 1.7736266 -0.84547347
4.3513308 2.2837546 -0.81927162
0 0 -0
6.7037687 3.5184093 -0.42288595
8.0628386 4.2317042 0
8.038063 4.2187014 0.5070557
2.2495165 1.1841063 -0.83821964
2.7194815 1.4314878 -0.84789485
3.383965 1.7812604 -0.84716266
4.332665 2.2806394 -0.81627542
6.3583546 3.3469272 -0.80089796
6.6995125 3.5265069 -0.42288595
8.0623207 4.2438655 0
8.0375547 4.2308288 0.50734568
2.3223941 1.2260538 -0.86592692
2.7354984 1.4441427 -0.85343212
3.3773205 1.7829777 -0.84603798
4.3389869 2.2906668 -0.81798732
6.3588762 3.3570204 -0.80147398
6.6975422 3.5358114 -0.42303094
8.0663929 4.2584643 0
8.0370369 4.2429662 0.50763625
2.3012543 1.2184514 -0.85859299
2.7293215 1.4451014 -0.85204917
3.3706684 1.784677 -0.84491116
4.3316827 2.2935078 -0.81713217
6.3525314 3.3634923 -0.80118597
6.6978536 3.5463309 -0.42332095
8.0612421 4.2682076 0
8.0341978 4.2538891 0.50778127
2.3172436 1.2305045 -0.86511272
2.7076337 1.4378098 -0.84582037
3.3707514 1.789939 -0.84547347
4.3243694 2.29633 -0.81627542
6.3644557 3.3796582 -0.8032043
6.7050362 3.5605135 -0.42404652
8.0721703 4.2864904 0
8.0336466 4.2660332 0.50807184
2.3026702 1.2263349 -0.86022449
2.7147517 1.4457976 -0.848589
3.3708353 1.7952085 -0.84603798
4.3397179 2.3112071 -0.81969917
6.3717794 3.3934238 -0.80464548
6.7053204 3.5710578 -0.42433706
8.0577965 4.2913475 0
8.0376511 4.2806182 0.50865179
2.2815595 1.2186329 -0.85288745
2.7174244 1.4514384 -0.84997201
3.3731418 1.801672 -0.84716266
4.3210697 2.307982 -0.81670296
6.3585491 3.396246 -0.80349231
6.7078786 3.5828311 -0.42477262
8.0526056 4.3010807 0
8.0393515 4.2940011 0.50908738
2.3105915 1.2377303 -0.86429852
2.7267239 1.4606428 -0.85343212
3.3776839 1.809347 -0.84885186
4.3318591 2.3204768 -0.81927162
6.3726802 3.4136972 -0.80579865
6.7035446 3.5909336 -0.42477262
8.0565796 4.3157229 0
8.0272827 4.3000298 0.50865179
2.3025601 1.2370111 -0.86185282
2.7337971 1.4686856 -0.85620081
3.368778 1.8098183 -0.84716266
4.3335705 2.3281367 -0.82012671
6.377665 3.4262912 -0.80695182
6.7060614 3.6027167 -0.42520764
8.058239 4.3291507 0
8.0220814 4.3097258 0.50865179
2.3083444 1.2419161 -0.86429852
2.7130275 1.4596404 -0.84997201
3.3743989 1.8154659 -0.84885186
4.3208623 2.3246741 -0.81798732
6.3847046 3.4350455 -0.80810499
6.7061787 3.6080022 -0.4253532
8.0624905 4.3377137 0
8.0240574 4.3170362 0.50894237
2.3068419 1.2447044 -0.86429852
2.7200935 1.4676827 -0.85274065
3.3722029 1.8195419 -0.84885186
4.3225727 2.3323338 -0.81884408
6.4010339 3.4538105 -0.81069934
6.7063832 3.6185679 -0.42564318
8.0595407 4.3486919 0
8.0325518 4.3341298 0.50981295
2.2944696 1.2416105 -0.86022449
2.7205224 1.4721612 -0.85343212
3.3722343 1.8248234 -0.84941423
4.3129764 2.3338888 -0.81755972
6.401401 3.4640019 -0.81127536
6.7088642 3.6303799 -0.42607874
8.0657225 4.3646188 0
8.0273085 4.3438325 0.50981295
2.3125167 1.2549912 -0.86755842
2.7143357 1.4730564 -0.85204917
3.3633251 1.8252597 -0.84772503
4.3214321 2.3452194 -0.81969917
6.4222193 3.485306 -0.81444687
6.7021909 3.6372454 -0.42593375
8.0558634 4.3718767 0
8.0334797 4.3597293 0.51053905
2.2740953 1.2376995 -0.85370475
2.734585 1.4883257 -0.85896945
3.3655851 1.8317538 -0.84885186
4.3231091 2.352896 -0.82055593
6.4361777 3.5029552 -0.81675321
6.7023516 3.6478229 -0.42622375
8.0642948 4.3890743 0
8.0167875 4.3632183 0.50981295
2.2639201 1.2357098 -0.85044491
2.7129681 1.4808123 -0.85274065
3.3544481 1.8309498 -0.84660035
4.3202629 2.3581181 -0.82055593
6.4342084 3.5119674 -0.81704122
6.7024961 3.6584063 -0.42651376
8.0612679 4.4000611 0
8.0366011 4.3865972 0.51140958
2.2407408 1.2265743 -0.84229368
2.7177808 1.4877044 -0.85481781
3.3633752 1.8411007 -0.84941423
4.3174105 2.3633363 -0.82055593
6.4390354 3.5247071 -0.81819439
6.7049108 3.6702464 -0.42694929
8.0650768 4.4147968 0
8.026741 4.3938117 0.5111196
2.295593 1.2602075 -0.86348432
2.7137842 1.4897811 -0.85412627
3.3544641 1.841494 -0.84772503
4.3032937 2.3623712 -0.81841487
6.446106 3.538707 -0.81963557
6.7004709 3.6783454 -0.42694929
8.0642948 4.4270411 0
8.0214262 4.4035072 0.5111196
2.2810736 1.255826 -0.85859299
2.7053869 1.4894282 -0.85204917
3.36114 1.8504475 -0.8499766
4.3094311 2.3725214 -0.82012671
6.4440889 3.5477395 -0.81992358
6.7051268 3.6914515 -0.42752987
8.0566616 4.4355278 0
8.0320263 4.4219651 0.51213515
2.2773926 1.2573878 -0.85777879
2.7277377 1.5060309 -0.85966092
3.350004 1.8495951 -0.84772503
4.3110604 2.3802106 -0.82098347
6.4352736 3.5530255 -0.81934756
6.7029343 3.7008054 -0.42767486
8.064971 4.4528093 0
8.0221329 4.4291577 0.51184517
2.2607338 1.2517568 -0.85207325
2.7083659 1.4996085 -0.85412627
3.3522167 1.8561054 -0.84885186
4.3104248 2.3866603 -0.82141101
6.4377661 3.5645585 -0.82021266
6.6984577 3.7089019 -0.42767486
8.0641336 4.4650698 0
8.0349607 4.4489169 0.51300627
2.2721887 1.2616889 -0.85696465
2.7240901 1.5126184 -0.85966092
3.3477523 1.8589224 -0.84828955
4.3030534 2.3893769 -0.82055593
6.4379725 3.5748434 -0.82078874
6.6962495 3.7182581 -0.42782041
8.0564594 4.4735484 0
8.0227623 4.4548368 0.51257074
2.2900949 1.2752546 -0.86429852
2.7091136 1.508588 -0.85550928
3.3499393 1.8654361 -0.84941423
4.3046446 2.3970699 -0.82141101
6.4449449 3.5889106 -0.82222992
6.6962876 3.7288725 -0.42811042
8.0692377 4.4934092 0
8.0287218 4.4708476 0.51329631
2.266969 1.2659677 -0.85614729
2.6963391 1.5057455 -0.85204917
3.3565567 1.8744378 -0.85166579
4.3017449 2.4022696 -0.82141101
6.4406037 3.5966954 -0.82222992
6.6917772 3.7369609 -0.42811042
8.0592537 4.5006156 0
8.0278559 4.4830813 0.51358682
2.2374055 1.2530073 -0.84555352
2.7164023 1.5212585 -0.85896945
3.3476362 1.8747665 -0.8499766
4.3033142 2.4099717 -0.82226616
6.4385076 3.6057374 -0.82251793
6.6963258 3.7501225 -0.42869097
8.0515413 4.5090799 0
8.0246983 4.4940467 0.51373184
2.250977 1.264183 -0.85125911
2.6948776 1.5134844 -0.85274065
3.3498037 1.8813008 -0.85110343
4.3003993 2.4151697 -0.82226616
6.4228725 3.607183 -0.82107675
6.6917892 3.7582109 -0.42869097
8.0574303 4.525176 0
8.0328512 4.5113716 0.51460242
2.2709792 1.2790285 -0.85940719
2.7214618 1.532743 -0.86173809
3.3519516 1.8878385 -0.85222811
4.2974777 2.4203641 -0.82226616
6.4117546 3.6111372 -0.82021266
6.6940379 3.7701206 -0.42912653
8.0564966 4.5374651 0
8.0205994 4.5172482 0.51416683
2.2844987 1.2902812 -0.86511272
2.69995 1.5249275 -0.85550928
3.351887 1.8931404 -0.85279262
4.2967916 2.4268212 -0.82269537
6.4006281 3.6150646 -0.81934756
6.6985273 3.7833178 -0.42970708
8.0532722 4.5484753 0
8.0355053 4.5384402 0.51547348
2.2678816 1.2845129 -0.85940719
2.7046564 1.5318991 -0.85758644
3.3407533 1.8921802 -0.85054106
4.2849216 2.4269507 -0.82098347
6.3940072 3.6215224 -0.81905949
6.6962099 3.7926881 -0.4298521
8.0613527 4.565896 0
8.0345325 4.5507054 0.51576352
2.3179071 1.3165487 -0.87896633
2.6918983 1.528972 -0.85412627
3.3450863 1.8999765 -0.85222811
4.2931447 2.4384644 -0.82312292
6.3828773 3.6254122 -0.81819439
6.6916223 3.8007765 -0.4298521
8.0513086 4.5730648 0
8.0267715 4.5591278 0.5156185
2.2411528 1.2765371 -0.85044491
2.7031243 1.5396712 -0.85827792
3.3427882 1.9040171 -0.85222811
4.2991176 2.4487321 -0.82483476
6.3762465 3.6318431 -0.81790638
6.6915364 3.8114288 -0.4301421
8.0525627 4.5866556 0
8.0235119 4.5701084 0.51576352
2.2760916 1.3000829 -0.86429852
2.6969008 1.5404453 -0.85689229
3.3426979 1.9093187 -0.85279262
4.2850122 2.4475601 -0.82269537
6.3718538 3.639545 -0.81790638
6.6846719 3.818224 -0.42999709
8.0492725 4.5976715 0
8.0292635 4.5862427 0.51648909
2.2852404 1.3089733 -0.86837256
2.7102783 1.5524327 -0.86173809
3.3403883 1.9133562 -0.85279262
4.2865024 2.4552853 -0.82355046
6.3629584 3.6446679 -0.81732923
6.6958389 3.83534 -0.4310132
8.0527449 4.6125684 0
8.023716 4.5959411 0.51648909
2.2686527 1.303115 -0.86266702
2.6866503 1.543213 -0.85481781
3.3490884 1.9237177 -0.8556065
4.2902126 2.4642999 -0.82483476
6.3473377 3.6459134 -0.81588805
6.6799359 3.8369579 -0.43028766
8.0584469 4.6287751 0
8.018157 4.6056328 0.51648909
2.2443042 1.2909331 -0.85370475
2.7226849 1.5660998 -0.86658388
3.328105 1.9143398 -0.85054106
4.2954011 2.4707325 -0.82611907
6.3249578 3.6381421 -0.8132937
6.6573386 3.8293288 -0.42898098
8.0466251 4.6284523 0
8.0243826 4.6156583 0.51706964
2.2919788 1.322044 -0.8724466
2.7099268 1.563122 -0.86312371
3.3345933 1.923438 -0.85279262
4.2857394 2.4720716 -0.82483476
6.2914329 3.6289828 -0.80954617
6.6076984 3.8114088 -0.42607874
8.059062 4.6485744 0
8.0187998 4.625351 0.51706964
2.2368948 1.2938755 -0.85207325
2.6884851 1.5550865 -0.85689229
3.3344641 1.9287368 -0.85335493
4.287189 2.4798167 -0.82568991
6.2534575 3.6171551 -0.8052215
6.427649 3.7179117 -0.41475815
8.0466785 4.6543984 0
8.0222025 4.6402407 0.51765019
2.2738094 1.318897 -0.86674106
2.6952846 1.5633689 -0.85966092
3.3409228 1.9378639 -0.8556065
4.2775345 2.4811347 -0.82440722
6.2378979 3.618221 -0.80378032
6.3242617 3.6683154 -0.40837258
8.0478039 4.6680365 0
8.0368166 4.6616631 0.5189563
2.2529879 1.3104604 -0.85940719
2.6695452 1.552753 -0.85204917
3.3385789 1.9418994 -0.8556065
4.2811837 2.4901698 -0.82568991
6.2223444 3.6192546 -0.80233914
6.3063436 3.668113 -0.40750146
8.0421581 4.6777573 0
8.0177059 4.6635346 0.51808572
2.2514026 1.3131818 -0.85940719
2.6741705 1.5597707 -0.85412627
3.3318362 1.9433692 -0.85447967
4.2715259 2.4914646 -0.82440722
6.2134943 3.6241617 -0.80176198
0 0 -0
6.2628818 3.6529682 0
8.0232849 4.6797633 0.51881129
2.2476828 1.3146546 -0.85859299
2.6766107 1.5655315 -0.85550928
3.3294857 1.9473937 -0.85447967
4.2685122 2.496624 -0.82440722
6.2091107 3.6316669 -0.80176198
6.2660637 3.6649783 -0.40546978
0 0 0
8.0243559 4.6933918 0.51924688
2.1714802 1.273608 -0.83007157
2.6812112 1.5725734 -0.85758644
3.3315177 1.9539887 -0.8556065
4.2765617 2.5082722 -0.82654667
6.2047176 3.6391666 -0.80176198
6.2930055 3.6909487 -0.40750146
0 0 0
8.0186787 4.703084 0.51924688
2.2423708 1.3188307 -0.85777879
2.6857903 1.5796239 -0.85966092
3.3379149 1.9631653 -0.85785806
4.2801685 2.5173433 -0.82783097
6.200316 3.6466613 -0.80176198
6.3221402 3.7183108 -0.4096787
6.2294116 3.6637735 0
6.2458882 3.6734643 0.40473753
2.2450294 1.3240479 -0.85940719
2.6968496 1.5905172 -0.86381525
3.326786 1.962034 -0.8556065
4.2793326 2.5238161 -0.82825851
6.1981397 3.6554682 -0.80205113
6.3243594 3.7299087 -0.41011423
6.2249804 3.6712978 0
6.252634 3.6876073 0.4054631
2.2561965 1.334311 -0.86429852
2.6819651 1.5861098 -0.85966092
3.3265977 1.9673444 -0.85616887
4.2674417 2.5237579 -0.82654667
6.1914854 3.6616342 -0.80176198
6.2505112 3.696542 -0.40561476
6.2138171 3.6748412 0
0 0 0
2.2567065 1.3382957 -0.86511272
2.6800468 1.5893493 -0.85966092
3.3242183 1.9713626 -0.85616887
4.2776327 2.5367665 -0.8291136
6.1826115 3.6664767 -0.80118597
6.2304015 3.6948178 -0.40459922
6.2384791 3.6996078 0
6.228066 3.6934326 0.40444753
2.2210979 1.3208089 -0.85207325
2.6889122 1.5990015 -0.86312371
3.3196521 1.9740803 -0.8556065
4.2679515 2.5380008 -0.82783097
6.1715055 3.6699772 -0.8003208
6.2772942 3.7328863 -0.40793702
6.2563686 3.7204425 0
6.2548618 3.7195463 0.40647921
2.2640779 1.3500733 -0.86918676
2.6826644 1.5996772 -0.86173809
3.3128953 1.9754848 -0.85447967
4.2670846 2.5444694 -0.82825851
6.1692858 3.678755 -0.80060881
6.5539713 3.9081438 -0.42622375
6.2429276 3.7226679 0
6.2168837 3.7071378 0.40430197
2.3006246 1.3756372 -0.88385457
2.6828806 1.6042037 -0.86242956
3.3170505 1.9833996 -0.85616887
4.27282 2.554893 -0.82997036
6.1670623 3.6875379 -0.80089796
6.6027684 3.9480643 -0.42970708
6.2227874 3.7208581 0
6.196795 3.7053163 0.4032864
2.2290182 1.3364798 -0.85696465
2.6809404 1.6074443 -0.86242956
3.3255453 1.993938 -0.85898274
4.2587237 2.5534551 -0.82783097
6.153729 3.6896667 -0.79974478
6.4353104 3.8584979 -0.41911206
6.1959705 3.714994 0
6.1967664 3.715471 0.4035764
2.2575264 1.3610003 -0.86918676
2.6792028 1.6152173 -0.86312371
3.3076651 1.9941 -0.8556065
4.2569332 2.5663874 -0.82868606
6.1447945 3.7045271 -0.79974478
6.2012281 3.7385492 -0.40445423
6.2315507 3.75683 0
6.1877694 3.7304354 0.4035764
2.2685752 1.3714015 -0.87407809
2.6772492 1.6184535 -0.86312371
3.3074255 1.9994084 -0.85616887
4.253829 2.5715294 -0.82868606
6.149168 3.7173016 -0.80089796
6.212266 3.7554457 -0.40546978
6.2314568 3.7670469 0
6.2054987 3.7513547 0.40502807
2.2669165 1.3741417 -0.87407809
2.6774349 1.6229864 -0.86381525
3.3115277 2.0073559 -0.85785806
4.2573066 2.5806606 -0.82997036
6.1513009 3.7287474 -0.80176198
6.2388287 3.7818041 -0.40750146
6.2068729 3.7624335 0
6.2165093 3.768275 0.40604365
2.2758126 1.3832973 -0.87815213
2.6797554 1.6288241 -0.86519819
3.3004148 2.0060768 -0.8556065
4.2563767 2.5871351 -0.83039796
6.1445827 3.7348351 -0.80147398
6.2187176 3.779896 -0.40648589
6.1978788 3.7672296 0
6.1697698 3.7501442 0.4032864
2.2530305 1.3731806 -0.87000096
2.6499383 1.6150886 -0.85620081
3.3153458 2.0206423 -0.86010957
4.2576275 2.5949454 -0.83125305
6.142272 3.7436016 -0.80176198
6.2097039 3.7847002 -0.40619534
6.2333188 3.799093 0
6.1541419 3.7508361 0.40256086
2.236613 1.3668836 -0.86429852
2.6736727 1.6339883 -0.86450672
3.3020554 2.018018 -0.85729355
4.2523007 2.5987508 -0.83082551
6.1355391 3.7496731 -0.80147398
6.2361712 3.8111734 -0.40822756
6.228724 3.806622 0
6.1385126 3.7514906 0.40183473
2.2644591 1.3876624 -0.87570649
2.6631401 1.6319743 -0.86173809
3.2931213 2.0180273 -0.8556065
4.2447839 2.601207 -0.82997036
6.1332073 3.7584343 -0.80176198
6.3135257 3.8689337 -0.41359702
6.1841822 3.7896717 0
6.1428375 3.7643356 0.40241531
2.2648847 1.3916903 -0.87652063
2.6611662 1.6351911 -0.86173809
3.3036656 2.0299838 -0.85898274
4.2503862 2.6117098 -0.83168226
6.1352744 3.7699058 -0.80262715
6.3509126 3.9024076 -0.41635481
6.1507664 3.7794251 0
6.1316495 3.7676783 0.40198028
2.2703607 1.3969452 -0.87896633
2.6516311 1.6315397 -0.85896945
3.3024385 2.0319793 -0.85898274
4.2466154 2.6129282 -0.83125305
6.1329961 3.7736118 -0.80262715
6.4149418 3.9470923 -0.42070872
6.1750803 3.7995062 0
6.1205196 3.7659352 0.40139973
2.2223985 1.371139 -0.86103868
2.6517909 1.6360584 -0.85966092
3.3043098 2.0386391 -0.86010957
4.2478285 2.6207557 -0.83210981
6.1262326 3.7796628 -0.80233914
6.2023063 3.8265975 -0.40706646
6.199276 3.824728 0
6.1270199 3.7801485 0.4021253
2.2291477 1.3790246 -0.86429852
2.6903508 1.6643401 -0.87281269
3.2996771 2.0412896 -0.85954505
4.2424779 2.6245372 -0.83168226
6.1216612 3.7870624 -0.80233914
6.1645293 3.8135819 -0.40488923
6.181375 3.8240035 0
6.1290793 3.7916515 0.40256086
2.2358813 1.3869286 -0.86755842
2.656357 1.6477518 -0.86242956
3.2928939 2.042599 -0.85842037
4.2414827 2.6310134 -0.83210981
6.1148849 3.7930944 -0.80205113
6.166543 3.8251383 -0.40532479
6.1634851 3.8232412 0
6.1311111 3.8031597 0.40299585
2.2530906 1.4013764 -0.87489229
2.6437144 1.6443365 -0.85896945
3.2990539 2.0519443 -0.86067194
4.2448421 2.6402051 -0.83339411
6.1102972 3.8004801 -0.80205113
6.1861901 3.8476839 -0.40692145
6.1588607 3.8306856 0
6.1441631 3.8215442 0.40415698
2.2639747 1.4119428 -0.87978053
2.6353376 1.6435456 -0.85689229
3.2987261 2.0572722 -0.86123425
4.2394643 2.64397 -0.8329649
6.1034999 3.8064878 -0.80176198
6.1749196 3.8510296 -0.40648589
6.187345 3.8587785 0
6.1659989 3.8454659 0.40589863
2.2580798 1.4120589 -0.87815213
2.6631334 1.6653535 -0.86658388
3.2897727 2.0572138 -0.85954505
4.2384496 2.6504557 -0.83339411
6.0945139 3.8111198 -0.80118597
6.1592484 3.8516006 -0.40576035
6.2047396 3.8800478 0
6.1899867 3.8708224 0.40778533
2.1809874 1.3675189 -0.84881341
2.6398602 1.6552404 -0.85966092
3.2829833 2.0584903 -0.85842037
4.2374167 2.6569374 -0.83382165
6.1008592 3.8253498 -0.80262715
6.1479836 3.8548977 -0.40532479
6.182416 3.8764875 0
6.1566877 3.8603556 0.40589863
2.2316422 1.4030398 -0.86918676
2.6442318 1.6624361 -0.86173809
3.2890978 2.0678651 -0.86067194
4.2385454 2.6647856 -0.8346768
6.0962324 3.8327188 -0.80262715
6.1389174 3.8595548 -0.40503421
6.1402745 3.8604081 0
6.1190195 3.8470452 0.40372142
2.2194932 1.3991463 -0.86511272
2.6443415 1.6669664 -0.86242956
3.2994895 2.0799654 -0.86404812
4.2309833 2.6671698 -0.83382165
6.0806589 3.8331869 -0.80118597
6.1540389 3.8794448 -0.4063409
6.1223917 3.8594947 0
6.101182 3.8461244 0.40285087
2.2031741 1.3925818 -0.85940719
2.6338427 1.6647987 -0.85966092
3.2883825 2.0785203 -0.86179662
4.2255898 2.6709099 -0.83339411
6.0935135 3.8515871 -0.80349231
6.15593 3.8910389 -0.40677589
6.1243258 3.8710625 0
6.0899391 3.8493273 0.40241531
2.253679 1.428319 -0.87978053
2.6699758 1.6921563 -0.87212116
3.2772839 2.0770514 -0.85954505
4.228858 2.6801324 -0.8346768
6.0888553 3.858947 -0.80349231
6.1446457 3.8943055 -0.4063409
6.1372294 3.889605 0
6.0918698 3.8608575 0.40285087
2.1831141 1.3872972 -0.85288745
2.6382813 1.676541 -0.86242956
3.2790651 2.0837379 -0.86067194
4.2234521 2.6838648 -0.83424926
6.0907307 3.8704591 -0.80435634
6.1465087 3.9059041 -0.40677589
6.1522918 3.9095788 0
6.0915904 3.8710053 0.40314141
2.2127047 1.4098573 -0.86511272
2.6447167 1.68512 -0.86519819
3.2829757 2.0917959 -0.86236113
4.2223687 2.6903441 -0.8346768
6.1078672 3.891717 -0.80723983
6.1461716 3.9161234 -0.40706646
6.1321974 3.9072192 0
6.1175842 3.8979084 0.40517309
2.2588987 1.443131 -0.88385457
2.6384544 1.6856157 -0.86381525
3.276159 2.0930228 -0.86123425
4.2169538 2.6940634 -0.83424926
6.1205974 3.9102342 -0.80954617
6.1589532 3.9347384 -0.40822756
6.1208987 3.9104266 0
6.1325755 3.9178867 0.40647921
2.2155368 1.4192011 -0.86755842
2.6427555 1.6928635 -0.86589241
3.2757652 2.0983491 -0.86179662
4.2245016 2.7060788 -0.83638865
6.1376438 3.9315755 -0.81242853
6.1629467 3.9477837 -0.40880811
6.116169 3.9178197 0
8.0160131 5.134798 0.53172803
2.205502 1.4165344 -0.86429852
2.6618128 1.7096105 -0.87281269
3.2775073 2.1050544 -0.86292344
4.2255526 2.7139585 -0.8372454
6.1176524 3.9292033 -0.8104102
6.1712856 3.9636502 -0.4096787
6.1179934 3.9294221 0
8.0076189 5.1430774 0.53158301
2.2308009 1.4365935 -0.87489229
2.6492009 1.7060353 -0.86935252
3.2642822 2.1021359 -0.86010957
4.2179494 2.7162797 -0.83638865
6.0911589 3.9225912 -0.80752784
7.4160404 4.7757897 -0.49269399
8.0561266 5.187993 0
8.0101366 5.1583767 0.53216356
2.2228322 1.4352646 -0.8724466
2.6070912 1.6833774 -0.85620081
3.2660048 2.1088326 -0.86123425
4.2125101 2.7199831 -0.8359611
6.0820732 3.9271448 -0.80695182
7.4495611 4.8101211 -0.49530679
8.0585976 5.2033706 0
8.0191727 5.1779141 0.5331791
2.2169509 1.4352655 -0.87081826
2.6282227 1.7015251 -0.86381525
3.2698553 2.1169214 -0.86292344
4.2178397 2.7306516 -0.83767295
6.0729771 3.9316771 -0.80637467
7.4262938 4.8078213 -0.49414566
8.0632257 5.2201743 0
8.0107307 5.1861892 0.53303415
2.2048433 1.4312108 -0.86674106
2.6198499 1.7006004 -0.86173809
3.2672949 2.1208708 -0.86292344
4.2102265 2.7329478 -0.83681619
6.0508661 3.9277461 -0.80406833
7.4379153 4.8281093 -0.49530679
8.0678329 5.2370024 0
8.0044584 5.1958647 0.53303415
2.2093289 1.4379199 -0.86918676
2.6283045 1.7106059 -0.86519819
3.2626023 2.1234324 -0.86236113
4.2112284 2.7408364 -0.83767295
6.0612922 3.944932 -0.80608666
7.4255404 4.8328395 -0.49487123
8.0527744 5.2410684 0
8.0025349 5.2083702 0.53332466
2.1889629 1.4284331 -0.86185282
2.6283426 1.7151555 -0.86589241
3.2600341 2.127373 -0.86236113
4.2014623 2.7417128 -0.83638865
6.0716858 3.9621489 -0.80810499
7.4240437 4.844646 -0.49516124
8.0595083 5.2593255 0
8.0114622 5.2279725 0.53434026
2.2253387 1.4540882 -0.87652063
2.6356986 1.722227 -0.86865836
3.2544901 2.1265597 -0.86123425
4.206254 2.7484646 -0.83767295
6.0671196 3.9643974 -0.80781585
7.4406905 4.8619208 -0.49646735
8.069397 5.2727323 0
8.0126562 5.2356567 0.53463078
2.1946399 1.437816 -0.86511272
2.6168356 1.714417 -0.86312371
3.2540414 2.1318817 -0.86179662
4.20293 2.753545 -0.83767295
6.0688176 3.9759791 -0.80868101
7.4413333 4.8751812 -0.49690291
8.0630198 5.2824788 0
8.0106678 5.2481799 0.53492081
2.2197545 1.458106 -0.87570649
2.6315289 1.7285914 -0.86865836
3.2642095 2.1441848 -0.86517501
4.1995997 2.7586215 -0.83767295
6.0575213 3.9790478 -0.80781585
7.4419546 4.8884501 -0.49733847
8.0479393 5.2865076 0
8.0130072 5.2635622 0.53550136
2.1973534 1.4471952 -0.86755842
2.6168714 1.7234931 -0.86450672
3.2531283 2.1425371 -0.86292344
4.1941218 2.7622833 -0.8372454
6.0570331 3.9892123 -0.808393
7.4425545 4.9017282 -0.49777403
8.0611048 5.3091102 0
8.0066414 5.2732401 0.53550136
2.2244742 1.4689139 -0.87896633
2.6315348 1.7377132 -0.87004399
3.244174 2.1422646 -0.86123425
4.2014894 2.7744205 -0.83938485
6.0565214 3.9993758 -0.80896902
7.440959 4.913578 -0.49806401
8.0525055 5.3174081 0
8.0089369 5.2886381 0.53608191
2.2206388 1.4702375 -0.87815213
2.6168864 1.7325846 -0.86589241
3.2500577 2.1517937 -0.86348581
4.1981344 2.779495 -0.83938485
6.0538473 4.0081229 -0.8092581
7.4285145 4.9182611 -0.49762845
8.0590992 5.3357573 0
8.0090427 5.3026166 0.5365175
2.2168036 1.471554 -0.87733799
2.6189673 1.7385176 -0.86727536
3.2495701 2.1571231 -0.86404812
4.1990461 2.7874024 -0.84023994
6.0446858 4.0125713 -0.80868101
7.4398851 4.9387298 -0.49878958
8.0569782 5.3483672 0
8.0091267 5.3166027 0.53695303
2.1841586 1.4536889 -0.86511272
2.6335726 1.7528009 -0.87281269
3.2427349 2.1582351 -0.86292344
4.1999531 2.7953215 -0.8410967
6.0678225 4.0385008 -0.81242853
7.4295902 4.9448395 -0.49849957
8.0678415 5.3696342 0
8.0135107 5.3334732 0.5376786
2.2173486 1.4796481 -0.87896633
2.6084957 1.7406626 -0.86519819
3.2464674 2.1663842 -0.86461264
4.1922979 2.7975416 -0.84023994
6.0435772 4.0329099 -0.80983418
7.4322557 4.9595823 -0.49908015
8.0656815 5.3822703 0
8.0049009 5.341711 0.53753358
2.1539361 1.4410971 -0.85451895
2.612648 1.7479997 -0.86727536
3.2396197 2.1674769 -0.86348581
4.1846514 2.799753 -0.83938485
6.0193543 4.0272665 -0.80723983
7.4478498 4.9830055 -0.50053126
8.054842 5.3891153 0
8.0200329 5.3658261 0.53898472
2.2014549 1.4767436 -0.87407809
2.6126153 1.7525516 -0.86796689
3.2454388 2.1770515 -0.86573732
4.1919227 2.8119562 -0.84152424
6.0509973 4.0590301 -0.81214052
7.4504552 4.9977913 -0.50111181
8.0612965 5.4075456 0
8.0092239 5.3726149 0.53869414
2.1771071 1.4642284 -0.86511272
2.6167431 1.7599087 -0.87004399
3.2364786 2.1767161 -0.86404812
4.1863937 2.815588 -0.8410967
6.0396476 4.062007 -0.81127536
7.4357862 5.0009894 -0.50053126
8.0590715 5.4201841 0
8.0027266 5.3822889 0.53869414
2.1937773 1.4792931 -0.8724466
2.6229351 1.7686796 -0.87281269
3.2380636 2.1834691 -0.86517501
4.1872411 2.8235121 -0.84195185
6.043313 4.0750856 -0.81242853
7.4512782 5.0244951 -0.50198239
8.063303 5.4371915 0
7.9962168 5.3919544 0.53869414
2.2042778 1.4902512 -0.87733799
2.5979321 1.75639 -0.86519819
3.23332 2.1859581 -0.86461264
4.1795774 2.8256967 -0.8410967
6.0298138 4.0765905 -0.81127536
7.4581213 5.0422297 -0.50285351
8.0524197 5.4440179 0
8.0133772 5.4176226 0.54029083
2.2004237 1.4915228 -0.87652063
2.612421 1.7707889 -0.87073553
3.2348788 2.1927121 -0.86573732
4.1761599 2.8307447 -0.8410967
6.0270224 4.0853229 -0.81156337
7.4627757 5.058526 -0.50357902
8.0566044 5.4610434 0
8.0046759 5.4258447 0.54014581
2.190443 1.4886235 -0.8732608
2.5833073 1.7556137 -0.86173809
3.2343264 2.198046 -0.86629969
4.1727366 2.8357887 -0.8410967
6.0413408 4.105691 -0.8141588
7.4502087 5.0631566 -0.50314349
8.05861 5.4766254 0
8.0045643 5.4398961 0.54058141
2.2029424 1.5010124 -0.87896633
2.5998411 1.7714463 -0.86796689
3.2295704 2.2005231 -0.86573732
4.1693072 2.8408287 -0.8410967
6.0449171 4.1188078 -0.8153109
7.4526749 5.0780077 -0.50372404
8.0584412 5.4907565 0
8.0087194 5.4568782 0.54130691
2.1643956 1.4785806 -0.86429852
2.6163406 1.7873213 -0.87419564
3.222717 2.20156 -0.86461264
4.1616278 2.8429656 -0.84023994
6.042078 4.1275721 -0.81560004
7.4443903 5.0855446 -0.50357902
8.0603962 5.5063615 0
8.0107031 5.472414 0.54188752
2.2095025 1.5133137 -0.88304037
2.6079757 1.7862326 -0.87212116
3.2242432 2.2083213 -0.86573732
4.1730175 2.8581476 -0.84323615
6.0648255 4.1538687 -0.81934756
7.4318061 5.0901299 -0.50314349
8.0515833 5.5146222 0
8.0040846 5.4820895 0.54188752
2.189337 1.5033916 -0.87570649
2.6058154 1.7893825 -0.87212116
3.223665 2.2136524 -0.86629969
4.1610961 2.8573751 -0.84152424
6.0512733 4.1553373 -0.81819439
7.4235106 5.0976362 -0.50299847
8.0577908 5.5331893 0
8.0081625 5.4991102 0.54261303
2.1997297 1.5144427 -0.88059473
2.6098447 1.7967936 -0.87419564
3.2251778 2.2204304 -0.86742651
4.1660981 2.8682237 -0.84323615
6.0611629 4.1729145 -0.82021266
7.4280448 5.1139684 -0.50372404
8.0532408 5.5443959 0
8.0079355 5.5132041 0.54304862
2.175529 1.5016592 -0.87163246
2.5994129 1.7942452 -0.871427
3.2183061 2.2214363 -0.86629969
4.1647401 2.8747125 -0.84366369
6.0561161 4.1802354 -0.82021266
7.4261413 5.125895 -0.50401461
8.0593824 5.5629897 0
8.0055408 5.5258255 0.5433386
2.1859033 1.5127231 -0.87652063
2.5972431 1.7973849 -0.871427
3.2177069 2.226768 -0.86686206
4.1654892 2.8826671 -0.84452045
6.0616932 4.1949077 -0.8216539
7.4092607 5.1274724 -0.50328904
8.054801 5.5742092 0
8.0095396 5.5428867 0.54406416
2.1800165 1.512548 -0.87489229
2.6094999 1.810534 -0.8762728
3.2129283 2.2292073 -0.86629969
4.1577806 2.8847685 -0.84366369
6.0757437 4.2154975 -0.82424825
7.4158649 5.1453061 -0.50415963
8.056612 5.5898719 0
7.9942961 5.5466356 0.54348361
2.1831579 1.5166824 -0.87652063
2.6104641 1.8135402 -0.87696433
3.2053268 2.2268031 -0.86461264
4.1602578 2.8902121 -0.84452045
6.0923114 4.2324471 -0.82684261
7.4170194 5.1527476 -0.50444961
8.0510902 5.5932493 0
8.0144196 5.5677738 0.5450803
2.1752453 1.5150855 -0.87407809
2.5918019 1.8052223 -0.871427
3.2109656 2.2364776 -0.86686206
4.1588669 2.8967025 -0.84494799
6.121151 4.2634583 -0.83145529
7.4150562 5.1646791 -0.50474018
8.0571432 5.6119008 0
8.0076866 5.5774536 0.5450803
2.1997545 1.5361073 -0.88467187
2.5793362 1.8011723 -0.86796689
3.2040985 2.2374492 -0.86573732
4.1511583 2.8987889 -0.84409291
6.1605258 4.3019476 -0.83750916
7.4088101 5.173635 -0.50474018
8.0503569 5.6216321 0
8.0051985 5.5900979 0.54537028
2.1736002 1.5217539 -0.87489229
2.5853784 1.8100429 -0.87073553
3.2055516 2.2442307 -0.86686206
4.1497536 2.9052737 -0.84452045
6.1913414 4.3346047 -0.84240985
7.4068069 5.1855612 -0.50503016
8.0456877 5.6328468 0
8.0048256 5.6042385 0.54580587
2.175802 1.5272163 -0.87652063
2.5852411 1.8146055 -0.871427
3.2028377 2.2481024 -0.86686206
4.1441412 2.9088123 -0.84409291
6.1966825 4.3495107 -0.84385103
7.4047933 5.1974955 -0.50532073
8.0537891 5.6530318 0
8.002306 5.6168952 0.54609638
2.1699164 1.5270022 -0.87489229
2.5912533 1.823503 -0.87419564
3.1980429 2.25051 -0.86629969
4.1532154 2.9226787 -0.8466599
6.214684 4.3733644 -0.8470214
7.4091306 5.2139144 -0.5060463
8.0639791 5.6747408 0
8.0040054 5.6325364 0.5466764
2.1882615 1.5438688 -0.88304037
2.5829041 1.822298 -0.87212116
3.2036259 2.2602317 -0.86855125
4.139195 2.9202969 -0.84452045
6.2051721 4.3778911 -0.84644538
7.4070759 5.225862 -0.50633681
8.0656223 5.6904817 0
8.0035648 5.646699 0.54711199
2.178323 1.5408025 -0.87978053
2.5684073 1.8167224 -0.86796689
3.1988201 2.262635 -0.86798888
4.1440463 2.931226 -0.8462323
6.2040968 4.38837 -0.8470214
7.407114 5.2393055 -0.50677186
8.0396128 5.6866932 0
8.0052223 5.6623673 0.54769254
2.1524408 1.5303125 -0.87081826
2.5967243 1.8461831 -0.87904143
3.1933429 2.2703588 -0.86798888
4.136951 2.941232 -0.8462323
6.2061257 4.4123454 -0.84875172
7.4071417 5.2662272 -0.50764292
8.0597839 5.7302332 0
8.0148125 5.6982603 0.54928917
2.1546116 1.5357786 -0.8724466
2.5720177 1.8333001 -0.871427
3.2009408 2.2815883 -0.87080276
4.129209 2.9432456 -0.84537554
6.1944695 4.4153357 -0.84788656
7.4198146 5.2887459 -0.50894904
8.0655737 5.7490339 0
8.0248489 5.720006 0.55045033
2.1587889 1.5426934 -0.87489229
2.5698006 1.8364066 -0.871427
3.1919777 2.2810209 -0.86911356
4.1277361 2.949724 -0.84580314
6.1891298 4.4228172 -0.84788656
7.4113069 5.2961979 -0.50880408
8.0776758 5.7723923 0
8.0031309 5.7191215 0.54943419
2.1569233 1.5453007 -0.87489229
2.5573847 1.8322062 -0.86796689
3.1850922 2.2819195 -0.86798888
4.1304317 2.9591959 -0.84708744
6.1879902 4.4333081 -0.84846371
7.3943343 5.2975783 -0.50807792
8.068573 5.7806282 0
8.013113 5.7408943 0.55059528
2.1731198 1.5608814 -0.88222623
2.57147 1.8470035 -0.87350416
3.1823325 2.2857664 -0.86798888
4.1226869 2.9611924 -0.8462323
6.1721191 4.4332333 -0.8470214
7.3900442 5.3080292 -0.50822353
8.0552473 5.7858229 0
8.0209455 5.7611847 0.55161142
2.1592019 1.5548429 -0.87733799
2.5468478 1.8339872 -0.86589241
3.1816282 2.2910931 -0.86855125
4.1253495 2.9706676 -0.84751499
6.1625643 4.4376678 -0.84644538
7.3941665 5.3245454 -0.50894904
8.0482502 5.7955518 0
8.0181913 5.7739062 0.5519014
2.1593235 1.5588962 -0.87815213
2.5649669 1.8517452 -0.87281269
3.1747413 2.2919643 -0.86742651
4.121757 2.9756501 -0.84751499
6.1467142 4.4375424 -0.8450042
7.3856225 5.3319564 -0.50880408
8.0560064 5.8159313 0
8.0133133 5.78511 0.55204642
2.15343 1.558603 -0.87652063
2.5688264 1.8592573 -0.87488979
3.180203 2.3017576 -0.86967808
4.120244 2.9821377 -0.8479442
6.1581101 4.457098 -0.84731054
7.3812776 5.3423986 -0.50894904
8.038434 5.8180332 0
8.0063181 5.7947884 0.55204642
2.1595471 1.5670102 -0.87978053
2.5564194 1.8549888 -0.871427
3.1897547 2.3145494 -0.87305433
4.1187134 2.9886203 -0.84837174
6.1359725 4.4523835 -0.8450042
7.3748169 5.3513136 -0.50894904
8.0440407 5.8369155 0
7.99931 5.8044581 0.55204642
2.1656468 1.5754343 -0.88304037
2.5460613 1.852173 -0.86865836
3.1725705 2.3079371 -0.86911356
4.119247 2.9966121 -0.84922683
6.1389546 4.4658809 -0.84615737
7.37885 5.3678622 -0.50967461
8.0475025 5.8542843 0
7.9838853 5.8080053 0.55146587
2.1477661 1.5663989 -0.87652063
2.5600371 1.8670744 -0.87419564
3.1718385 2.3132706 -0.86967808
4.1114788 2.9985647 -0.84837174
6.133554 4.4732952 -0.84615737
7.3723583 5.3767743 -0.50967461
8.0446243 5.8670678 0
7.99786 5.832962 0.55291754
2.1378911 1.5631576 -0.8732608
2.5598102 1.8716513 -0.87488979
3.1751883 2.3215961 -0.87136513
4.1099229 3.0050442 -0.84879929
6.1427536 4.491385 -0.84817457
7.3868279 5.4010124 -0.51112574
8.0438337 5.8813939 0
7.9991965 5.8487563 0.55349809
2.1838427 1.6008089 -0.89281994
2.5555177 1.8732555 -0.87419564
3.1682863 2.3224297 -0.87024045
4.1021523 3.0069757 -0.8479442
6.1602707 4.515626 -0.85134608
7.3949685 5.4206886 -0.51214188
8.0472136 5.8988004 0
7.9963107 5.8614874 0.55378813
2.1799171 1.6019843 -0.8920058
2.5471933 1.8718894 -0.87212116
3.1613789 2.3232439 -0.86911356
4.1088567 3.0195293 -0.85008359
6.1610646 4.5276628 -0.85221124
7.3946967 5.434238 -0.51257741
8.0505638 5.9162235 0
8.0017815 5.8803744 0.55465865
2.1670005 1.5945091 -0.88711441
2.5541446 1.8793753 -0.87488979
3.1640718 2.3281682 -0.87024045
4.0966954 3.0144057 -0.8479442
6.1583281 4.531384 -0.85221124
7.3935032 5.4402428 -0.51272243
8.0469885 5.9210863 0
8.0003262 5.8867521 0.55480421
2.1272871 1.5692532 -0.87163246
2.5316792 1.8675644 -0.86796689
3.1735208 2.3410368 -0.87361664
4.1013131 3.025449 -0.84965605
6.1653333 4.5480313 -0.85394043
7.3931994 5.4538016 -0.51315796
8.0544901 5.9416213 0
8.0036612 5.9041257 0.55552977
2.1591702 1.5968049 -0.88548607
2.5516107 1.8870325 -0.87558132
3.162518 2.3388264 -0.87136513
4.0997167 3.0319276 -0.85008359
6.1577554 4.5539412 -0.85365242
7.3907785 5.4658179 -0.51344794
8.0493956 5.9528952 0
8.0027905 5.9184289 0.5559653
2.1433392 1.589107 -0.87978053
2.5372331 1.8811464 -0.871427
3.1515255 2.3365929 -0.86911356
4.1022387 3.0414672 -0.85136795
6.1480889 4.5582943 -0.85307527
7.3820834 5.4731984 -0.51330298
8.0401087 5.9610686 0
7.9914551 5.9249964 0.55567479
2.1414175 1.5916957 -0.87978053
2.5631509 1.905166 -0.8811186
3.1568568 2.3464622 -0.87136513
4.0944362 3.0433559 -0.85051119
6.1321993 4.5580068 -0.85163409
7.379632 5.4852114 -0.51359296
8.0496092 5.9831991 0
8.0009737 5.9470487 0.55683589
2.1335528 1.5898557 -0.87733799
2.5367069 1.8902733 -0.87281269
3.1560626 2.3517976 -0.87192965
4.0886993 3.0467687 -0.85008359
6.1412077 4.5762324 -0.85365242
7.3750882 5.4956813 -0.51373851
8.0486364 5.9975877 0
8.0041981 5.9644737 0.55756146
2.1217241 1.5850322 -0.8732608
2.5303974 1.8903313 -0.871427
3.1450763 2.3495264 -0.86967808
4.0850148 3.0517068 -0.85008359
6.1294551 4.5790043 -0.85278726
7.4017415 5.5294647 -0.51606017
8.0518064 6.0150948 0
8.005312 5.9803615 0.55814201
2.1257441 1.592041 -0.87570649
2.5441759 1.9054185 -0.87696433
3.1524019 2.3609393 -0.87249196
4.0895433 3.0627959 -0.85179549
6.1239181 4.5864072 -0.85278726
7.3867354 5.5321736 -0.51547962
8.0424509 6.0232611 0
7.9960022 5.9884739 0.55799699
2.1534684 1.6168698 -0.88793176
2.5458879 1.9115068 -0.87834996
3.1536067 2.367795 -0.87361664
4.0858397 3.0677352 -0.85179549
6.1287117 4.6015668 -0.85422844
7.3842053 5.5442185 -0.5157702
8.0434923 6.0392246 0
7.9908366 5.9996896 0.55814201
2.1297894 1.603119 -0.87896633
2.5355589 1.9085467 -0.87558132
3.140595 2.3639648 -0.87080276
4.08213 3.0726697 -0.85179549
6.114881 4.602747 -0.85307527
7.381649 5.5562592 -0.51606017
8.0507383 6.0598907 0
8.002264 6.0234032 0.55944812
2.1317928 1.6086659 -0.88059473
2.5212317 1.9025391 -0.871427
3.1438229 2.3723509 -0.87249196
4.0886579 3.08533 -0.85393488
6.1113853 4.6116948 -0.85336441
7.3956757 5.5808291 -0.5175119
8.0475693 6.072752 0
8.0032759 6.0393286 0.56002867
2.137732 1.6172053 -0.88385457
2.516932 1.904072 -0.87073553
3.1368976 2.3730791 -0.87136513
4.078783 3.0856202 -0.85265058
6.0913677 4.608151 -0.85134608
7.3847785 5.5866227 -0.51722133
8.0526743 6.0918894 0
8.0021915 6.053699 0.56046426
2.1278992 1.6138129 -0.88059473
2.5246222 1.9146904 -0.87419564
3.1360581 2.3784075 -0.87192965
4.0689216 3.0858972 -0.85136795
6.0857954 4.6155076 -0.85134608
7.3821673 5.5986853 -0.5175119
8.0473795 6.1031861 0
7.9928031 6.0617952 0.56031924
2.1397221 1.6268557 -0.88630027
2.5223069 1.9177395 -0.87419564
3.1372235 2.3852677 -0.87305433
4.0733557 3.0970201 -0.85307813
6.069921 4.6150322 -0.84990489
7.3898706 5.6186051 -0.51852745
8.0482855 6.119206 0
8.0020208 6.0840302 0.56148034
2.1357908 1.6279432 -0.88548607
2.5140078 1.9162277 -0.87212116
3.136358 2.3905957 -0.87361664
4.073698 3.1050551 -0.85393488
6.0663953 4.6239295 -0.8501929
7.3851485 5.6291103 -0.518673
8.0408859 6.1289263 0
8.0008574 6.0984154 0.56191534
2.1259668 1.6245199 -0.88222623
2.5216558 1.9268787 -0.87558132
3.1213572 2.3851302 -0.87024045
4.071981 3.1115322 -0.85436249
6.0690246 4.637538 -0.85134608
7.3845296 5.6427579 -0.519108
8.0438118 6.1465368 0
8.0058746 6.1175475 0.56278646
