# .PCD v0.7 - Point Cloud Data file format
VERSION 0.7
FIELDS x y z
SIZE 4 4 4
TYPE F F F
COUNT 1 1 1
WIDTH 1581
HEIGHT 1
VIEWPOINT 0 0 0 1 0 0 0
POINTS 1581
DATA ascii
4.1616955 2.740927 -0.55543453
5.9355493 3.9092016 -0.39698225
0 0 0
9.2121038 6.0671678 0.61612529
2.0626204 1.362035 -0.81501234
2.3646674 1.5614893 -0.78181165
2.7258208 1.7999742 -0.72362649
3.2258234 2.130147 -0.64446366
4.154068 2.7431059 -0.55485851
5.9308214 3.9163709 -0.39698225
0 0 0
9.2112656 6.0825858 0.61656028
2.0527296 1.3590685 -0.81175244
2.3293095 1.542186 -0.77073711
2.723644 1.8032665 -0.72362649
3.2104087 2.1255429 -0.64189667
4.1550598 2.7509763 -0.55543453
5.9325867 3.927839 -0.39741781
0 0 0
9.2104111 6.0980163 0.61699587
2.0510859 1.3615478 -0.81175244
2.3399894 1.5533271 -0.77489138
2.7172332 1.8037484 -0.72250181
3.2206662 2.1379364 -0.64446366
4.1538935 2.7574294 -0.55572367
5.9321704 3.9378815 -0.39770836
7.7133727 5.1202755 0
9.2030363 6.1091409 0.61699587
2.0391457 1.357174 -0.80767524
2.3381107 1.5561534 -0.77489138
2.7108173 1.804212 -0.72137499
3.2202239 2.1432526 -0.64489281
4.15271 2.7638783 -0.55601168
5.9144249 3.9364054 -0.39683726
7.7093449 5.1310325 0
9.206461 6.1274538 0.61772144
2.0477896 1.3665005 -0.81175244
2.3466609 1.5659387 -0.77835155
2.7149777 1.8117186 -0.72306418
3.2154903 2.1457131 -0.64446366
4.142911 2.7645855 -0.55514652
5.9183097 3.9493182 -0.39741781
7.7161322 5.1490145 0
9.2055368 6.1429019 0.61815697
2.0338078 1.3607249 -0.8068611
2.3635311 1.5813272 -0.78458035
2.7064493 1.8107576 -0.72137499
3.2107637 2.1481707 -0.64403605
4.1438708 2.7724688 -0.55572367
5.9178567 3.9593592 -0.39770836
7.7228789 5.1670141 0
9.2067461 6.1598001 0.61873752
2.0136907 1.3507907 -0.79952717
2.3741152 1.5925647 -0.78873199
2.7148161 1.821108 -0.72419101
3.1996384 2.1463284 -0.64232421
4.1340718 2.7731497 -0.55485851
5.9087481 3.963609 -0.39741781
7.725275 5.1821413 0
9.2036161 6.1738181 0.61902809
2.0325623 1.3670138 -0.80767524
2.3388891 1.5730361 -0.77766001
2.710499 1.8229649 -0.72362649
3.2162118 2.1630855 -0.6461755
4.1371589 2.7824748 -0.55572367
5.9061089 3.9721944 -0.3975628
7.7341266 5.2016401 0
9.2026119 6.1892805 0.61946309
2.0677993 1.3943443 -0.82234621
2.3224244 1.5660415 -0.77281421
2.7040851 1.8234003 -0.72250181
3.2072167 2.1626685 -0.64489281
4.1359363 2.7889163 -0.55601168
5.9013047 3.9793279 -0.3975628
7.7256718 5.2095222 0
9.197279 6.2018471 0.6196081
1.9964997 1.3497782 -0.79463893
2.3392336 1.5814912 -0.77904302
2.7039828 1.828088 -0.72306418
3.204601 2.1665423 -0.64489281
4.1347041 2.7953591 -0.55629969
5.8986511 3.987915 -0.39770836
7.7279954 5.2246838 0
9.2113094 6.2275119 0.62105978
2.0398729 1.382696 -0.81256664
2.3103266 1.5660187 -0.77004558
2.6933589 1.8256513 -0.72081262
3.2062266 2.1732907 -0.64574796
4.1334624 2.8018029 -0.5565877
5.9002748 3.9994092 -0.39814338
7.7302938 5.2398586 0
9.2037783 6.2386374 0.62105978
2.0157125 1.3698767 -0.80360121
2.3167324 1.5744498 -0.77281421
2.7079632 1.8403299 -0.72531569
3.1929846 2.16995 -0.64360851
4.1343565 2.8097057 -0.55716485
5.8954382 4.0065355 -0.39814338
7.7239566 5.2491956 0
9.2112713 6.259973 0.62207532
2.0222259 1.3778782 -0.8068611
2.3645864 1.6111513 -0.78942615
2.6931429 1.835019 -0.7219395
3.1967266 2.1781445 -0.64489281
4.1266794 2.8117836 -0.5565877
5.8970366 4.0180469 -0.39857894
7.7348142 5.2702479 0
9.2015553 6.2696371 0.6219303
2.0123961 1.3747439 -0.80360121
2.321207 1.5857043 -0.77558291
2.6951158 1.8411356 -0.72306418
3.1962099 2.1834521 -0.64532042
4.1232786 2.8167679 -0.5565877
5.8878903 4.0222406 -0.39828894
7.7262936 5.2781234 0
9.2025547 6.2866135 0.62251085
1.993207 1.363402 -0.79626733
2.3471656 1.6055182 -0.78458035
2.7044868 1.8499348 -0.72587806
3.1970069 2.1868305 -0.64574796
4.1194434 2.8177996 -0.55629969
5.8854594 4.0257974 -0.39828894
7.7295494 5.2872 0
9.2094765 6.2995062 0.62323642
2.0200908 1.3853772 -0.80767524
2.3141873 1.5870683 -0.77419722
2.7022498 1.8532013 -0.72587806
3.1964774 2.1921425 -0.6461755
4.130969 2.8330164 -0.55831802
5.8805904 4.0329056 -0.39828894
7.7252994 5.2980061 0
9.2061481 6.3135715 0.62352699
2.0489669 1.4088235 -0.81990051
2.2998683 1.5813377 -0.77004558
2.7000084 1.8564651 -0.72587806
3.198061 2.1989148 -0.64703226
4.1190181 2.832144 -0.55716485
5.8757133 4.0400081 -0.39828894
7.7274704 5.3132348 0
9.2092161 6.3320503 0.62425256
2.0208108 1.3930632 -0.80930674
2.3041546 1.5883886 -0.77212274
2.6893954 1.8539577 -0.72362649
3.1869476 2.1969495 -0.64532042
4.1177201 2.8385856 -0.55745286
5.8708272 4.0471048 -0.39828894
7.7253261 5.3255191 0
9.2165365 6.353498 0.62526864
2.0333607 1.4053421 -0.81501234
2.3228679 1.6054327 -0.77904302
2.6871533 1.8572059 -0.72362649
3.1927376 2.2066369 -0.64703226
4.1164131 2.8450282 -0.55774087
5.8744836 4.0601053 -0.39886948
7.7274489 5.3407688 0
9.210988 6.3661056 0.62541366
2.0133715 1.3951244 -0.80767524
2.3106177 1.6010952 -0.77558291
2.6890881 1.8633486 -0.72475338
3.1921771 2.2119536 -0.64745981
4.1193523 2.8544209 -0.55860603
5.8695731 4.0672007 -0.39886948
7.7274094 5.3545504 0
9.2075567 6.380188 0.62570369
2.0056005 1.3933297 -0.8052327
2.3148646 1.6081815 -0.77766001
2.6910043 1.8694931 -0.72587806
3.189502 2.2158091 -0.64745981
4.1137781 2.8579218 -0.55831802
5.8603826 4.071322 -0.39857894
7.7273479 5.3683391 0
9.2062454 6.3957577 0.62613922
1.9856641 1.3830398 -0.79789883
2.3211462 1.6167073 -0.78042603
2.6866603 1.8712925 -0.72531569
3.1826053 2.2167242 -0.64660305
4.1039529 2.8584542 -0.55745286
5.8618574 4.0828567 -0.39901447
7.7208557 5.3776722 0
9.2049093 6.411334 0.62657475
2.008301 1.4024136 -0.80767524
2.3171363 1.6180758 -0.77973455
2.6802349 1.8716307 -0.72419101
3.1778219 2.2191 -0.6461755
4.104733 2.8663697 -0.55802888
5.8590484 4.091423 -0.39915949
7.7271509 5.3959346 0
9.2120619 6.4328609 0.62759036
1.9944606 1.3963368 -0.80278707
2.3254533 1.6280673 -0.78319466
2.6738045 1.8719505 -0.72306418
3.1814489 2.2273562 -0.64745981
4.1033916 2.8728151 -0.55831802
5.8562269 4.0999885 -0.39930448
7.722755 5.4067588 0
9.2064171 6.4454818 0.62773591
2.0170479 1.4157852 -0.81256664
2.327595 1.6337613 -0.78458035
2.6902561 1.8883165 -0.72812957
3.1703508 2.2252996 -0.64574796
4.0956793 2.8747964 -0.55774087
5.8470187 4.1040788 -0.39901447
7.7247372 5.4220667 0
9.2071295 6.4625726 0.62831646
2.0315061 1.4296007 -0.81908637
2.3153629 1.629355 -0.78112018
2.6734328 1.8813339 -0.72419101
3.1760571 2.235038 -0.64745981
4.1006637 2.8856974 -0.55889404
5.8526788 4.1186161 -0.39974004
7.7266932 5.4373879 0
9.21206 6.4826627 0.62918699
2.0136206 1.4206555 -0.81256664
2.3051927 1.6263664 -0.77835155
2.6670012 1.8816305 -0.72306418
3.1733541 2.2388742 -0.64745981
4.0971737 2.89065 -0.55889404
5.8434472 4.1226864 -0.3994495
7.7243748 5.4497232 0
9.1999779 6.4907956 0.62889701
2.0119026 1.4230876 -0.81256664
2.3134649 1.6363928 -0.78181165
2.6709509 1.889255 -0.72475338
3.1706464 2.2427068 -0.64745981
4.0894585 2.8926141 -0.55831802
5.8448281 4.1342468 -0.39988506
7.7220292 5.4620557 0
9.1900015 6.5004025 0.62875146
2.0162318 1.429808 -0.81501234
2.3033001 1.6333822 -0.77904302
2.6769567 1.8983603 -0.72700489
3.1679344 2.2465363 -0.64745981
4.0943999 2.903538 -0.55947119
5.8440714 4.1443152 -0.4001756
7.7217946 5.4759002 0
9.2054577 6.5280375 0.63034815
2.0084577 1.4279454 -0.81256664
2.3156395 1.6463413 -0.78388882
2.6746609 1.9015934 -0.72700489
3.1756766 2.2577984 -0.64959925
4.0866685 2.9054828 -0.55889404
5.8305883 4.1453509 -0.39959505
7.7257757 5.4927649 0
9.1869764 6.5316291 0.62962258
2.0147815 1.4361095 -0.81582648
2.2952642 1.636034 -0.77766001
2.6682191 1.9018713 -0.72587806
3.1624961 2.2541854 -0.64745981
4.0831547 2.9104187 -0.55889404
5.8403811 4.1629462 -0.4006106
7.7233677 5.5051141 0
9.1960049 6.5547905 0.63078368
1.9949483 1.4256111 -0.8084926
2.2851212 1.6329716 -0.77489138
2.672123 1.9095273 -0.72756726
3.15977 2.2580049 -0.64745981
4.0796351 2.9153502 -0.55889404
5.8205538 4.1594291 -0.39959505
7.7209487 5.5174718 0
9.1944141 6.5704255 0.63121867
2.0032682 1.4352164 -0.81256664
2.3014989 1.6488801 -0.78112018
2.6739488 1.9157171 -0.72869408
3.1653864 2.2678015 -0.64917171
4.0740089 2.9187727 -0.55860603
5.8303037 4.1770482 -0.4006106
7.7248526 5.5343738 0
9.1991463 6.5906129 0.63208979
2.0015326 1.437636 -0.81256664
2.2872753 1.6428757 -0.77696586
2.6675007 1.9159793 -0.72756726
3.1626439 2.2716246 -0.64917171
4.0788822 2.9297287 -0.5597592
5.8189268 4.1795464 -0.4001756
7.7223911 5.5467429 0
9.2080593 6.6138506 0.63325089
2.0078168 1.4458306 -0.81582648
2.3097186 1.6632304 -0.78527182
2.6610637 1.9162343 -0.72644258
3.1682296 2.2814448 -0.65088356
4.0753393 2.9346552 -0.5597592
5.811758 4.1850519 -0.40003005
7.7072358 5.5499868 0
9.2084961 6.6310458 0.6338315
2.0060685 1.4482557 -0.81582648
2.2812662 1.6469312 -0.77627438
2.6566803 1.9179567 -0.72587806
3.1592245 2.280762 -0.64959925
4.0717902 2.9395773 -0.5597592
5.8109145 4.195116 -0.40032059
7.7068481 5.5638614 0
9.2131138 6.6512904 0.63470203
1.9782903 1.431841 -0.8052327
2.269115 1.6423331 -0.77281421
2.6502483 1.9181887 -0.72475338
3.1543889 2.2830739 -0.64917171
4.072422 2.9475253 -0.56033522
5.8079443 4.2036562 -0.40046561
7.7001195 5.5731692 0
9.2050705 6.6624179 0.63470203
2.0165601 1.463256 -0.82152891
2.2854016 1.6583328 -0.77904302
2.6623263 1.9318368 -0.72869408
3.1537037 2.2883899 -0.64959925
4.0646744 2.9494085 -0.5597592
5.7986584 4.2076216 -0.4001756
7.7228732 5.6038704 0
9.2096281 6.6826887 0.63557261
1.938844 1.4104431 -0.7905618
2.2894845 1.6655221 -0.78112018
2.6599901 1.9350523 -0.72869408
3.1488624 2.2906902 -0.64917171
4.0590181 2.9527977 -0.55947119
5.7977686 4.2176795 -0.40046561
7.6992602 5.6009502 0
9.2036533 6.6953449 0.63571817
1.985939 1.4465387 -0.81012094
2.3006411 1.6757646 -0.78527182
2.667028 1.9426372 -0.73094344
3.1557777 2.2986379 -0.65088356
4.0634995 2.9598136 -0.56033522
5.797318 4.2227097 -0.4006106
7.7232199 5.6255183 0
9.2164097 6.7131433 0.63687927
1.9981641 1.4591419 -0.81582648
2.2763336 1.6622728 -0.77766001
2.6564784 1.9398702 -0.72869408
3.152998 2.3024492 -0.65088356
4.0620151 2.9662511 -0.56062436
5.8048062 4.2389092 -0.40148172
7.7269239 5.642519 0
9.2187815 6.731935 0.63760483
1.9983919 1.4630138 -0.81664068
2.2682486 1.6605748 -0.77558291
2.6602774 1.9475771 -0.73038113
3.1460669 2.3032217 -0.6500268
4.0584278 2.9711571 -0.56062436
5.7975855 4.2443867 -0.40133673
7.6928034 5.6318674 0
9.2043495 6.7384629 0.63716924
1.9866619 1.4581168 -0.81256664
2.284441 1.6766726 -0.78181165
2.6620228 1.9538 -0.73150796
3.1557026 2.3161378 -0.6525954
4.0548348 2.9760587 -0.56062436
5.7861662 4.2467747 -0.40090117
7.6964812 5.6488562 0
9.2045794 6.7557297 0.63774985
2.0187397 1.4854168 -0.82642025
2.2824132 1.6794316 -0.78181165
2.6514738 1.9509914 -0.72925645
3.1529016 2.3199492 -0.6525954
4.0553985 2.9840188 -0.56120038
5.7956753 4.2645388 -0.40191671
7.7252831 5.6843715 0
9.2131529 6.7791667 0.63891095
1.9970573 1.4731854 -0.81827217
2.2904749 1.6896333 -0.78527182
2.6634219 1.964748 -0.73319501
3.1376975 2.3146107 -0.6500268
4.0455437 2.9843092 -0.56033522
5.7821617 4.2653742 -0.40133673
7.6995621 5.6797986 0
9.2300482 6.8088045 0.6406526
1.9932828 1.4741236 -0.81745487
2.2662494 1.6759949 -0.77766001
2.6467512 1.9573933 -0.72925645
3.1390302 2.321456 -0.65088356
4.0440202 2.9907374 -0.56062436
5.7770038 4.2723579 -0.40133673
7.7052445 5.6983795 0
9.2113695 6.8122282 0.63992703
1.9954748 1.4794779 -0.81908637
2.2702627 1.6832101 -0.77973455
2.6464233 1.9621018 -0.72981876
3.1341627 2.3237197 -0.65045601
4.0487146 3.0017836 -0.56177753
5.7801785 4.2855196 -0.40191671
7.6983533 5.7076859 0
9.2052174 6.8248997 0.64007205
1.9718636 1.4656678 -0.81012094
2.2601733 1.6799657 -0.77696586
2.6440506 1.9652981 -0.72981876
3.1395938 2.3336308 -0.65216786
4.0409288 3.0035846 -0.56120038
5.7770877 4.294055 -0.40206227
7.6977191 5.7216425 0
9.2094727 6.845315 0.64094263
1.9861348 1.4837403 -0.81745487
2.2601304 1.6884285 -0.77835155
2.6392934 1.971682 -0.72981876
3.1359997 2.342746 -0.6525954
4.0378065 3.0164402 -0.56177753
5.762526 4.3048902 -0.40177172
7.7151461 5.7635932 0
9.20331 6.8753247 0.64166814
1.9665377 1.472806 -0.81012094
2.270133 1.7001787 -0.78250319
2.6430125 1.9794405 -0.73150796
3.1290534 2.3434527 -0.65173864
4.0362272 3.0228658 -0.56206554
5.7718811 4.3227549 -0.40278783
7.7081761 5.7729111 0
9.2199535 6.9051318 0.64340985
1.9608076 1.4722159 -0.8084926
2.2720935 1.705936 -0.78388882
2.638581 1.9811026 -0.73094344
3.1262195 2.3472319 -0.65173864
4.0325718 3.0277405 -0.56206554
5.7541823 4.3203621 -0.40191671
7.7074327 5.7869043 0
9.2116032 6.9162674 0.64340985
1.9373035 1.4582324 -0.79952717
2.2580001 1.6996248 -0.77973455
2.6260369 1.9766506 -0.72812957
3.1295359 2.3556406 -0.653023
4.0289106 3.0326109 -0.56206554
5.7572618 4.3335624 -0.40249729
7.7087517 5.8024731 0
9.2219219 6.9414554 0.64471596
1.959215 1.4784374 -0.80930674
2.255945 1.7023519 -0.77973455
2.6337857 1.9874732 -0.73094344
3.120538 2.35478 -0.65173864
4.0190473 3.0328014 -0.56120038
5.749949 4.3389521 -0.40235227
7.7308226 5.8337331 0
9.2114563 6.9510293 0.64457095
2.0027571 1.5150961 -0.82804865
2.2678936 1.7156731 -0.78458035
2.6273334 1.9875913 -0.72981876
3.1197436 2.3601019 -0.65216786
4.0195093 3.0407794 -0.56177753
5.7509212 4.3506012 -0.40278783
7.7071643 5.8305092 0
9.211339 6.9684253 0.6451515
1.9615463 1.4876499 -0.81175244
2.257823 1.7123481 -0.78181165
2.6229074 1.9892305 -0.72925645
3.118933 2.3654196 -0.6525954
4.0220089 3.0503182 -0.56264156
5.7435918 4.3559785 -0.40264285
7.6980419 5.8382463 0
9.2194757 6.9921122 0.64631265
1.9754875 1.5019863 -0.81827217
2.2517543 1.7120353 -0.78042603
2.6306133 2.0000861 -0.73207033
3.1140311 2.3676343 -0.65216786
4.0224419 3.0583098 -0.56321871
5.750731 4.3723483 -0.4035134
7.6992688 5.8538442 0
9.2110205 7.0032468 0.64631265
1.9500828 1.4863926 -0.8084926
2.2616594 1.7238827 -0.78458035
2.6201115 1.997102 -0.72981876
3.1132076 2.3729498 -0.6525954
4.0166883 3.0616014 -0.5629307
5.747508 4.3808675 -0.40365839
7.7170196 5.8820686 0
9.2190838 7.0269728 0.64747375
1.9463158 1.4872428 -0.80767524
2.2575834 1.7250924 -0.78388882
2.6217303 2.0033491 -0.73094344
3.1083002 2.3751528 -0.65216786
4.008872 3.0633087 -0.56235355
5.7422104 4.3878088 -0.40365839
7.720252 5.8992944 0
9.2105865 7.0381074 0.64747375
1.9562935 1.4986147 -0.81256664
2.275409 1.7430724 -0.79080909
2.6112473 2.0003405 -0.72869408
3.1033843 2.3773413 -0.65173864
4.0031166 3.0665791 -0.56206554
5.7389731 4.3963289 -0.40380394
7.7172461 5.9117804 0
9.2103271 7.055552 0.6480543
1.9289999 1.4814085 -0.80197287
2.2792723 1.7504061 -0.79288626
2.6148682 2.0081327 -0.73038113
3.1086533 2.3873436 -0.65345055
4.0035067 3.0745616 -0.56264156
5.7336569 4.4032598 -0.40380394
7.6915226 5.9068365 0
9.2120972 7.0745873 0.64877987
1.964413 1.5123816 -0.81745487
2.2453496 1.7286718 -0.78181165
2.6164703 2.0143938 -0.73150796
3.0935659 2.381705 -0.65088356
4.0059395 3.084132 -0.56350672
5.7345033 4.4149356 -0.40423894
7.7070575 5.9335852 0
9.2220707 7.0999784 0.65008599
1.9488935 1.5041875 -0.81175244
2.2512033 1.737515 -0.78458035
2.6200631 2.0222068 -0.73319501
3.1008449 2.3932819 -0.653023
3.9981186 3.0858123 -0.5629307
5.7373924 4.4282122 -0.40481952
7.697824 5.9413047 0
9.2196579 7.1158805 0.65052152
1.9587996 1.5156133 -0.81664068
2.2570388 1.7463748 -0.78734899
2.6156099 2.0238178 -0.73263264
3.0979507 2.397027 -0.653023
3.9943871 3.090641 -0.5629307
5.7217641 4.4271922 -0.40409395
7.7029934 5.9601603 0
9.2069387 7.1238322 0.650231
1.9667298 1.5255519 -0.82071471
2.2608759 1.7537152 -0.78942615
2.6191878 2.0316503 -0.73432183
3.1031656 2.4070621 -0.65473485
3.9906497 3.0954652 -0.5629307
5.7266746 4.4420643 -0.40481952
7.691669 5.96627 0
9.2168007 7.1492839 0.65153712
1.9384829 1.5055182 -0.80930674
2.2499034 1.7473822 -0.7859633
2.6099327 2.026998 -0.73207033
3.0976598 2.4057901 -0.65387976
3.9908197 3.0994606 -0.56321871
5.7178392 4.4407463 -0.40438449
7.7065601 5.9852815 0
9.216588 7.1580415 0.65182763
1.9600648 1.5260801 -0.81908637
2.2418575 1.7454802 -0.78388882
2.6054788 2.0285907 -0.73150796
3.0866487 2.4032233 -0.65216786
3.9850328 3.1026931 -0.5629307
5.7227187 4.4556317 -0.40511006
7.7095957 6.0025878 0
9.2181826 7.1771526 0.6525532
1.9367855 1.5117176 -0.81012094
2.2338119 1.7435554 -0.78181165
2.6170409 2.0426767 -0.73544657
3.0958803 2.416425 -0.65473485
3.9914734 3.1154616 -0.56437188
5.7132301 4.4593425 -0.40481952
7.7269478 6.0311084 0
9.2115498 7.1898832 0.65269822
1.9446882 1.5216708 -0.81419498
2.2297297 1.7447087 -0.78112018
2.6085732 2.0411444 -0.73375952
3.0949781 2.4217443 -0.65516239
3.9877062 3.1202822 -0.56437188
5.7119346 4.4694486 -0.40511006
7.7135119 6.0356336 0
9.2192268 7.2138186 0.65385932
1.9311838 1.5148697 -0.80930674
2.2374876 1.7551421 -0.78458035
2.6021028 2.0411553 -0.73263264
3.0900319 2.4238994 -0.65473485
3.9818921 3.1234972 -0.56408274
5.7085724 4.4779491 -0.40525508
7.726686 6.0610089 0
9.2227745 7.2345786 0.65473044
1.9371233 1.5233133 -0.81256664
2.2176187 1.7438889 -0.77835155
2.5956438 2.0411599 -0.73150796
3.0911326 2.4308019 -0.65558994
3.980154 3.1299098 -0.56437188
5.6990685 4.4816279 -0.40496451
7.7173133 6.0687337 0
9.2181072 7.2489266 0.65502042
1.9333422 1.524124 -0.81175244
2.2312713 1.7589924 -0.78388882
2.5971625 2.0474377 -0.73263264
3.0922289 2.4377167 -0.6564467
3.9723029 3.1315112 -0.56379473
5.6977344 4.4917316 -0.40525508
7.7406254 6.1022172 0
9.2154655 7.2648873 0.65545601
1.9528241 1.5433121 -0.82071471
2.2311106 1.7632413 -0.78458035
2.5986774 2.0537283 -0.73375952
3.0792129 2.4334943 -0.65430731
3.9766333 3.1427236 -0.5649479
5.6943393 4.5002222 -0.40540007
0 0 0
9.2168722 7.284071 0.65618157
1.9412733 1.5379978 -0.81664068
2.2368443 1.7721676 -0.78734899
2.5941966 2.0552845 -0.73319501
3.0823009 2.4419911 -0.65558994
3.9748585 3.1491308 -0.56523591
5.692975 4.5103297 -0.40569061
0 0 0
9.2223225 7.3064995 0.65719765
1.9297383 1.532658 -0.81256664
2.2347012 1.7748691 -0.78734899
2.5937068 2.0600023 -0.73375952
3.0793478 2.4457135 -0.65558994
3.969027 3.1523244 -0.5649479
5.6895537 4.5188198 -0.40583563
0 0 0
9.2195854 7.3224812 0.65763265
1.9182189 1.5272924 -0.8084926
2.2423663 1.7853798 -0.79080909
2.6011529 2.0710468 -0.7365734
3.0824172 2.454231 -0.6568743
3.9652152 3.1571178 -0.5649479
5.6881509 4.5289254 -0.40612563
0 0 0
9.2168322 7.3384728 0.65806824
1.9260287 1.5373169 -0.81256664
2.2127607 1.7661804 -0.78112018
2.5867293 2.0646746 -0.73319501
3.0794494 2.4579539 -0.6568743
3.9573584 3.1586828 -0.56437188
5.6887693 4.5406594 -0.4065612
7.7259941 6.1667309 0
9.2120237 7.3528495 0.65835881
1.9222418 1.5381004 -0.81175244
2.2223744 1.7782543 -0.78527182
2.5941582 2.0757406 -0.73601103
3.0744748 2.4600706 -0.6564467
3.961617 3.1699259 -0.56552505
5.6812515 4.545908 -0.40641618
7.7225971 6.1793103 0
9.2153015 7.3737125 0.65922934
1.9319462 1.549698 -0.81664068
2.2221792 1.7825065 -0.7859633
2.5896604 2.0772793 -0.73544657
3.0694995 2.4621789 -0.65601915
3.9597995 3.1763275 -0.56581306
5.6757545 4.5527697 -0.40641618
7.7273097 6.198411 0
9.2084103 7.386466 0.65937436
1.8973302 1.5257024 -0.80278707
2.2200236 1.7851902 -0.7859633
2.5792282 2.0740378 -0.73319501
3.0765228 2.473928 -0.6581586
3.9559586 3.1811097 -0.56581306
5.6742954 4.5628777 -0.40670618
7.7259007 6.2126374 0
9.2075787 7.4041009 0.65995491
1.9243507 1.5512629 -0.81501234
2.2276366 1.7957485 -0.78942615
2.5806804 2.0803452 -0.73432183
3.0715346 2.4760339 -0.65773106
3.9501002 3.1842656 -0.56552505
5.6728277 4.5729952 -0.40699673
7.7244606 6.2268634 0
9.2208796 7.4331608 0.66155159
1.8936375 1.530283 -0.80278707
2.2235081 1.7968574 -0.78873199
2.5801392 2.0850573 -0.7348842
3.0665383 2.4781253 -0.65730184
3.9482596 3.1906605 -0.56581306
5.6672978 4.5798464 -0.40699673
7.7230058 6.2411013 0
9.2260332 7.4557252 0.66256714
1.9263521 1.5605717 -0.81745487
2.203793 1.7853314 -0.78250319
2.5795903 2.0897713 -0.73544657
3.0535703 2.4737508 -0.65516239
3.9464092 3.1970553 -0.56610107
5.6577182 4.5834165 -0.40670618
7.7255678 6.2586179 0
9.2089491 7.460331 0.66198713
1.9340563 1.5706874 -0.82152891
2.2055328 1.7911592 -0.78388882
2.5770633 2.0928867 -0.73544657
3.0585499 2.483912 -0.6568743
3.9465628 3.2050858 -0.56667823
5.6562138 4.5935287 -0.40699673
7.7220445 6.2712326 0
9.2079887 7.4779992 0.66256714
1.932157 1.5730232 -0.82152891
2.1994722 1.7906519 -0.78250319
2.5784774 2.0992105 -0.7365734
3.0674946 2.4973333 -0.6594429
3.9426873 3.209852 -0.56667823
5.662746 4.6101999 -0.40786731
7.7184935 6.2838416 0
9.2150669 7.502244 0.66372824
1.9072843 1.5566094 -0.81175244
2.2109141 1.8044136 -0.78734899
2.5779057 2.1039298 -0.73713577
3.0545251 2.4929175 -0.65730184
3.9428096 3.2178812 -0.56725425
5.6511297 4.6121082 -0.40743175
7.7189603 6.2997456 0
9.2120361 7.5183034 0.66416383
1.9264389 1.5761242 -0.82071471
2.2126119 1.8102579 -0.78873199
2.5714321 2.1038282 -0.73601103
3.0535033 2.4982369 -0.65773106
3.9369187 3.2210069 -0.56696624
5.6576238 4.628809 -0.40830284
7.7153673 6.3123608 0
9.2150078 7.5392981 0.66503435
1.9245331 1.5784508 -0.82071471
2.206547 1.8097513 -0.78734899
2.5669179 2.1053178 -0.73544657
3.0584219 2.5084362 -0.6594429
3.9290202 3.2224779 -0.56638908
5.6419826 4.6274042 -0.40757731
7.7157831 6.32828 0
9.2139282 7.5570188 0.6656149
1.9130805 1.5729281 -0.81664068
2.1985433 1.8076347 -0.78527182
2.5702622 2.1132605 -0.73713577
3.0474572 2.5056086 -0.65773106
3.9231277 3.2255819 -0.56610107
5.6403975 4.6375151 -0.40786731
7.7242131 6.350821 0
9.2108135 7.5730987 0.66605049
1.9340656 1.5941026 -0.82642025
2.1905479 1.8055013 -0.78319466
2.5696657 2.117979 -0.73769808
3.0582881 2.5207133 -0.66072559
3.9252169 3.2352567 -0.56696624
5.6408072 4.6492867 -0.40830284
7.7245669 6.3667707 0
9.2116804 7.5924845 0.66677606
1.9073702 1.5759739 -0.81582648
2.1922364 1.8113459 -0.78458035
2.5592694 2.1146088 -0.73544657
3.0394084 2.5113261 -0.65730184
3.9292805 3.246587 -0.56811941
5.6251717 4.6478252 -0.40757731
7.7168684 6.3760996 0
9.2145214 7.613543 0.66764718
1.9435337 1.6098096 -0.83212578
2.1997046 1.8219936 -0.78804046
2.5586751 2.1193252 -0.73601103
3.0462625 2.5231891 -0.6594429
3.9193771 3.2463813 -0.56725425
5.6315546 4.6645608 -0.40844786
7.7171755 6.3920598 0
9.2113132 7.6296396 0.66808218
1.9254327 1.5967791 -0.82478875
2.1908791 1.8169162 -0.78527182
2.5593481 2.1224909 -0.7365734
3.0447376 2.5250289 -0.6594429
3.9174151 3.2487485 -0.56725425
5.6387343 4.6762543 -0.4091734
7.7193241 6.4017067 0
9.2147026 7.6418381 0.66866273
1.9158995 1.5927842 -0.82152891
2.1906095 1.8211645 -0.7859633
2.5587337 2.1272047 -0.73713577
3.0397046 2.5270603 -0.65901369
3.9194555 3.2584417 -0.56811941
5.6390762 4.6880493 -0.40960896
7.7275929 6.4243393 0
9.2074661 7.6546326 0.66880828
1.9234724 1.6030143 -0.82560605
2.19034 1.8254209 -0.78665745
2.5503037 2.1254132 -0.73544657
3.0425668 2.5356634 -0.66029799
3.9234631 3.2697988 -0.56927258
5.6274171 4.6898675 -0.4091734
7.7198248 6.4336715 0
9.2101831 7.6757307 0.66967881
1.8949757 1.5831492 -0.81419498
2.1881328 1.8280661 -0.78665745
2.5594373 2.1382706 -0.73882496
3.0276845 2.5294659 -0.65773106
3.9115696 3.2679038 -0.56811941
5.6177616 4.6933346 -0.40888342
7.718039 6.4480023 0
9.216855 7.7001815 0.67083997
1.8930614 1.5854378 -0.81419498
2.1916869 1.8355365 -0.78873199
2.5568516 2.1413617 -0.73882496
3.0324979 2.5397153 -0.6594429
3.9056373 3.2709687 -0.5678314
5.6140771 4.701786 -0.40902841
7.7222095 6.4673457 0
9.2175026 7.7196527 0.67156553
1.8949338 1.5909055 -0.81582648
2.1798623 1.8301193 -0.78527182
2.5464783 2.1379144 -0.7365734
3.0372913 2.5499799 -0.66115475
3.9056401 3.2790086 -0.56840742
5.6123757 4.7119107 -0.40931898
7.7283435 6.4883871 0
9.2300606 7.7491651 0.67316216
1.9270447 1.6218382 -0.83049428
2.1776493 1.8327519 -0.78527182
2.5555537 2.1508036 -0.73994964
3.0283139 2.5486877 -0.65987045
3.9056292 3.2870531 -0.56898344
5.6046844 4.717011 -0.4091734
7.7204981 6.4977207 0
9.2147245 7.755291 0.67272663
1.8891964 1.5938879 -0.81501234
2.1754332 1.8353817 -0.78527182
2.5490725 2.1506159 -0.73882496
3.0271921 2.5539987 -0.66029799
3.9095621 3.2984414 -0.57013661
5.6089091 4.7321558 -0.40989897
7.7126412 6.5070448 0
9.2212353 7.7798243 0.67388773
1.8816059 1.5913798 -0.81256664
2.1904519 1.8525882 -0.79150063
2.5484104 2.1553338 -0.73938727
3.026062 2.5593107 -0.66072559
3.8937283 3.2931447 -0.56840742
5.5952587 4.7322245 -0.40931898
7.7087436 6.5197172 0
9.2257185 7.8027081 0.67490387
1.8928801 1.6048422 -0.81827217
2.1863 1.8536127 -0.79080909
2.5458043 2.1584115 -0.73938727
3.0347195 2.5729289 -0.6632942
3.8976376 3.3045375 -0.56956059
5.5915165 4.7406602 -0.40946397
7.7088003 6.535759 0
9.2162838 7.8138499 0.67490387
1.9003541 1.6151298 -0.82234621
2.1821489 1.8546299 -0.79011762
2.5373843 2.1565478 -0.73769808
3.0276926 2.5732658 -0.66243744
3.8857586 3.3025446 -0.56840742
5.5897403 4.7507753 -0.40975398
7.7207241 6.5619197 0
9.2187109 7.8350735 0.6757744
1.8984013 1.6174248 -0.82234621
2.1856298 1.8621416 -0.7921921
2.5483172 2.1711488 -0.74163884
3.0323973 2.5835817 -0.66414928
3.8916075 3.3156228 -0.5698486
5.5820198 4.7558427 -0.40960896
7.7108107 6.5695577 0
9.2112131 7.8478904 0.67591941
1.8738924 1.6004553 -0.81256664
2.1814723 1.8631535 -0.79150063
2.5360332 2.165977 -0.73882496
3.0234153 2.5822406 -0.66286498
3.8974304 3.3287199 -0.57128978
5.5802174 4.7659559 -0.40989897
7.7147446 6.5890141 0
9.207653 7.864079 0.67635494
1.9038726 1.6300435 -0.82642025
2.1811235 1.8674179 -0.7921921
2.5353425 2.1706905 -0.73938727
3.0222485 2.5875664 -0.6632942
3.8796577 3.3216565 -0.56927258
5.5744543 4.7726951 -0.40989897
7.7008448 6.5932517 0
9.2139349 7.8887186 0.6775161
1.8793951 1.6130261 -0.81664068
2.1693485 1.861884 -0.78873199
2.5250053 2.1671331 -0.73713577
3.013274 2.5861988 -0.66200989
3.887414 3.3364458 -0.57100177
5.5785484 4.7878938 -0.4106251
7.7027445 6.6110249 0
9.2142534 7.9083061 0.67824167
1.8605843 1.6007895 -0.80930674
2.1594901 1.857959 -0.7859633
2.5300894 2.1768112 -0.73938727
3.0179307 2.596535 -0.66372174
3.879462 3.33777 -0.57042575
5.5609365 4.7844591 -0.40975398
7.7046132 6.6288128 0
9.2106028 7.9245195 0.6786772
1.9054379 1.6433911 -0.82968014
2.1705439 1.8720382 -0.79080909
2.5274572 2.1798668 -0.73938727
3.0031312 2.5901232 -0.66115475
3.8812964 3.3475182 -0.57128978
5.5649881 4.7996588 -0.41047952
7.6965981 6.6381173 0
9.2147884 7.9475179 0.67969275
1.8772787 1.6230643 -0.81827217
2.1720724 1.877938 -0.7921921
2.5248215 2.182919 -0.73938727
3.0077596 2.6004593 -0.66286498
3.8792109 3.3539021 -0.57157892
5.5572209 4.8046818 -0.41033453
7.6846375 6.6440115 0
9.2189407 7.9705439 0.68070889
1.8977219 1.6447504 -0.82804865
2.1792862 1.8887814 -0.79565489
2.5241003 2.1876307 -0.73994964
3.0026772 2.6024122 -0.66243744
3.8771083 3.3602793 -0.57186693
5.5514112 4.8113928 -0.41033453
7.7139649 6.6856723 0
9.2250118 7.9952922 0.68186998
1.878943 1.6324546 -0.82071471
2.1675277 1.8831816 -0.7921921
2.5176225 2.1873493 -0.73882496
3.0053458 2.6110909 -0.66372174
3.8652353 3.358176 -0.57071376
5.5593262 4.8300285 -0.41135064
7.703918 6.6932831 0
9.2173033 8.0081358 0.682015
1.8842999 1.6451166 -0.82478875
2.1610825 1.8867657 -0.79150063
2.5142415 2.1950965 -0.73938727
2.9893601 2.6099062 -0.66158235
3.8687952 3.3777101 -0.57244295
5.5535116 4.8485775 -0.4117862
7.7014456 6.7238636 0
9.209672 8.0406437 0.68288612
1.8785945 1.6441398 -0.82316041
2.1531429 1.8844236 -0.78942615
2.5154076 2.2014766 -0.74051195
3.0016582 2.6270413 -0.66500604
3.866663 3.3840907 -0.57273209
5.5515561 4.8587036 -0.41207621
7.7011495 6.7400203 0
9.2116785 8.0620308 0.68375665
1.8803189 1.6496654 -0.82478875
2.1584005 1.8936356 -0.7921921
2.5165694 2.2078688 -0.74163884
2.9965465 2.6289685 -0.66457689
3.8489594 3.3768182 -0.57071376
5.5417786 4.8619838 -0.4117862
7.6949539 6.7510357 0
9.2077923 8.0782976 0.68419224
1.8838938 1.6568345 -0.82723445
2.1448114 1.8863046 -0.78804046
2.5081742 2.2058725 -0.73994964
2.9837315 2.6241124 -0.66243744
3.8468168 3.383173 -0.57100177
5.5397983 4.8721051 -0.41207621
7.708282 6.7792292 0
9.2116766 8.1014252 0.68520778
1.8689108 1.6476666 -0.82152891
2.1331232 1.880601 -0.78458035
2.507411 2.2105801 -0.74051195
2.9901845 2.6362023 -0.66457689
3.8504865 3.3946605 -0.57215494
5.5358543 4.8805122 -0.41222119
7.6981349 6.786819 0
9.2077303 8.1177063 0.68564332
1.8761839 1.6581119 -0.82560605
2.1646829 1.9130783 -0.7970379
2.5142632 2.2220263 -0.74332803
2.9850755 2.6381152 -0.66414928
3.8386297 3.3924594 -0.57100177
5.528008 4.8854785 -0.41207621
7.6996775 6.8047309 0
9.2134914 8.1425924 0.68680447
1.8612272 1.6489034 -0.81990051
2.1548584 1.9090379 -0.79426926
2.5058689 2.2200062 -0.74163884
2.9895716 2.6485293 -0.66586119
3.8422718 3.4039557 -0.57215494
5.5337672 4.9024897 -0.41294676
7.7031412 6.8243876 0
9.2192059 8.1675034 0.68796557
1.8546817 1.6451056 -0.81745487
2.1480725 1.9053437 -0.7921921
2.5045273 2.2215197 -0.74163884
2.9841337 2.6469312 -0.66500604
3.8402145 3.4062765 -0.57215494
5.5346956 4.9092841 -0.41323733
7.6990166 6.8290401 0
9.2162113 8.1747942 0.68811059
1.8397685 1.6358539 -0.81175244
2.1345232 1.8979388 -0.78804046
2.5056353 2.2279179 -0.74276352
2.9828496 2.6522393 -0.66543365
3.836096 3.4109142 -0.57215494
5.5306997 4.9176931 -0.41338232
7.6829801 6.8314209 0
9.2102146 8.1893816 0.6884011
1.8451709 1.6446539 -0.81501234
2.1528311 1.9188803 -0.79565489
2.5029414 2.2309437 -0.74276352
2.9777284 2.654135 -0.66500604
3.841624 3.4241502 -0.57359612
5.5189323 4.9191837 -0.41294676
7.6999745 6.8632088 0
9.2080717 8.2074194 0.68898171
1.8634508 1.6649922 -0.82397455
2.1448967 1.916464 -0.79357779
2.5040371 2.2373557 -0.74389035
2.9821761 2.6645727 -0.66671795
3.8355567 3.4270678 -0.57330811
5.5187993 4.9310441 -0.41338232
7.7091403 6.8881121 0
9.2117062 8.2306538 0.68999726
1.8651233 1.6705438 -0.82560605
2.1351044 1.912359 -0.79080909
2.4937611 2.2335987 -0.74163884
2.9751263 2.6647453 -0.66586119
3.8275635 3.4282517 -0.57273209
5.5205793 4.9446435 -0.41396287
7.7124395 6.9078369 0
9.2075624 8.2469816 0.69043279
1.8483907 1.6595863 -0.81908637
2.1290622 1.9115885 -0.78942615
2.4929492 2.2383063 -0.74220115
2.9738126 2.6700516 -0.66628873
3.8234184 3.4328742 -0.57273209
5.5087986 4.9461007 -0.41352731
7.7098985 6.9223685 0
9.2130594 8.2719889 0.69159395
1.8518901 1.6667742 -0.82152891
2.1397986 1.9259031 -0.79426926
2.4921296 2.2430151 -0.74276352
2.9782164 2.6805122 -0.66800058
3.8307989 3.44787 -0.57446128
5.5028181 4.9527535 -0.41352731
7.7208757 6.9490929 0
9.2146416 8.293541 0.69246447
1.857215 1.6756332 -0.82478875
2.1393309 1.9301662 -0.79496074
2.4913094 2.2477317 -0.74332803
2.9673514 2.6772304 -0.66628873
3.8247113 3.4507654 -0.57417327
5.4987645 4.9611444 -0.41367286
7.7221332 6.9671321 0
9.2239103 8.3220787 0.69391614
1.8460253 1.6695882 -0.82071471
2.1332793 1.9293873 -0.79357779
2.492357 2.2541456 -0.74445271
2.9660237 2.6825409 -0.66671795
3.8224554 3.4571176 -0.57446128
5.4985418 4.9730091 -0.41410789
7.7059884 6.9694753 0
9.2176991 8.3367004 0.69420618
1.8183749 1.6485792 -0.80930674
2.1309464 1.9319636 -0.79357779
2.4858704 2.2537456 -0.74332803
2.9703875 2.6930196 -0.66842979
3.8182755 3.4617336 -0.57446128
5.4983063 4.9848871 -0.41454342
7.7206984 6.9997573 0
9.2172422 8.3565578 0.69493169
1.8639342 1.6939923 -0.83049428
2.1304653 1.9362227 -0.79426926
2.4831452 2.2567475 -0.74332803
2.9671314 2.6966069 -0.66842979
3.8121774 3.464607 -0.57417327
5.4941998 4.9932728 -0.41468844
7.7295666 7.0248327 0
9.2186794 8.3781776 0.69580281
1.8929445 1.7245386 -0.84434795
2.1336896 1.9438659 -0.79634643
2.4860461 2.2648749 -0.74501503
2.9638708 2.7001901 -0.66842979
3.8079884 3.4692106 -0.57417327
5.4881625 4.999908 -0.41468844
7.7191505 7.0324163 0
9.2162323 8.3963099 0.69638336
1.8379344 1.678491 -0.82071471
2.1387494 1.9532098 -0.79911506
2.4776845 2.2627418 -0.74332803
2.9568114 2.7003038 -0.66757303
3.8076098 3.4772944 -0.57474929
5.4917088 5.0152955 -0.41541401
7.7106481 7.041738 0
9.20224 8.4039326 0.69609284
1.8523105 1.6957294 -0.82804865
2.1197352 1.9405479 -0.79288626
2.482445 2.2725968 -0.74557954
2.9573369 2.7073445 -0.66842979
3.8053114 3.4836373 -0.5750373
5.4856448 5.0219274 -0.41541401
7.7232437 7.0703754 0
9.2054968 8.4273291 0.69710892
1.8593706 1.7063267 -0.83212578
2.1284759 1.9532821 -0.7970379
2.4871857 2.2824667 -0.74783111
2.9521666 2.7091753 -0.66800058
3.8010993 3.4882329 -0.5750373
5.4776602 5.0267968 -0.41526899
7.7319503 7.0955372 0
9.2048779 8.4472284 0.69783449
1.8536659 1.7052222 -0.83049428
2.1002688 1.9320768 -0.78734899
2.4732022 2.2751455 -0.74445271
2.9432287 2.7075317 -0.66671795
3.8044958 3.4998276 -0.57619047
5.4734926 5.0351691 -0.41541401
7.7176304 7.0995941 0
9.2099628 8.4724188 0.69899559
1.8425211 1.6990848 -0.82642025
2.1292839 1.963524 -0.79911506
2.4797893 2.2867432 -0.74726659
2.9380624 2.7093406 -0.66628873
3.7926586 3.4974084 -0.5750373
5.4654965 5.0400195 -0.41526899
7.7377391 7.1353731 0
9.1939859 8.4782543 0.69856006
1.8386534 1.6996337 -0.82560605
2.1195409 1.9592835 -0.79634643
2.4695611 2.2828386 -0.74501503
2.9423268 2.7198589 -0.66800058
3.7941296 3.5072575 -0.57590246
5.4594026 5.0466199 -0.41526899
7.7501354 7.1641512 0
9.2142649 8.5175791 0.70088232
1.8148433 1.6816951 -0.81582648
2.1153336 1.9601396 -0.79565489
2.4742558 2.2927291 -0.74726659
2.9446888 2.7286482 -0.66928494
3.7898891 3.5118392 -0.57590246
5.4628286 5.0620418 -0.41599455
7.7395587 7.1717367 0
9.2153988 8.5393 0.70175284
1.8435935 1.712481 -0.82968014
2.1148 1.9643999 -0.79634643
2.4603174 2.2853448 -0.74389035
2.9395106 2.730459 -0.66885734
3.7875361 3.5181746 -0.57619047
5.4624214 5.0739455 -0.41643012
0 0 0
9.2050734 8.5504284 0.70175284
1.8505656 1.7231272 -0.83375418
2.1160934 1.9703697 -0.79772943
2.4594119 2.2900457 -0.74445271
2.9418399 2.7392519 -0.67014003
3.7795 3.5192268 -0.57561445
5.4562864 5.0805421 -0.41643012
0 0 0
9.2004423 8.5668583 0.70218837
1.8015081 1.6815168 -0.81256664
2.1155503 1.9746419 -0.79842359
2.4659286 2.3016829 -0.74726659
2.9366531 2.7410545 -0.66971248
3.7771339 3.5255542 -0.57590246
5.4539466 5.0906811 -0.41672066
0 0 0
9.2052803 8.5921535 0.70334953
1.8301547 1.7123979 -0.82642025
2.1131628 1.9771967 -0.79842359
2.4594386 2.3011923 -0.74614191
2.9370916 2.748112 -0.67056924
3.7728713 3.5301156 -0.57590246
5.4477916 5.0972672 -0.41672066
7.7314148 7.2339563 0
9.2138624 8.6210203 0.70480061
1.8262832 1.7129189 -0.82560605
2.1071091 1.9763128 -0.7970379
2.4659209 2.3128519 -0.74895579
2.9300206 2.7481432 -0.66971248
3.7686031 3.5346718 -0.57590246
5.4397278 5.1020632 -0.4165751
7.73595 7.2557507 0
9.2318697 8.6588125 0.70697784
1.8242121 1.7151244 -0.82560605
2.1028934 1.9771405 -0.79634643
2.4649737 2.3175685 -0.74951816
2.9248295 2.7499249 -0.66928494
3.7699845 3.5445397 -0.57676762
5.4373488 5.1121955 -0.41686568
7.7214947 7.2597499 0
9.2365456 8.6842003 0.708139
1.8275292 1.7224081 -0.82804865
2.0950241 1.9745164 -0.79426926
2.4566298 2.3153222 -0.74783111
2.9327097 2.7640176 -0.67185187
3.7638183 3.5473201 -0.57647961
5.4349461 5.122323 -0.41715565
7.7278681 7.2833543 0
9.2260456 8.6953545 0.708139
1.8056892 1.7059488 -0.81908637
2.1126983 1.9959998 -0.8018837
2.4482877 2.3130522 -0.74614191
2.9219038 2.7605073 -0.67014003
3.7595294 3.5518653 -0.57647961
5.4249787 5.1253209 -0.41686568
7.728519 7.301621 0
9.2174187 8.7082787 0.70828396
1.7974759 1.7002456 -0.81582648
2.0969114 1.9834839 -0.79634643
2.4524293 2.3197708 -0.74783111
2.9202354 2.7622721 -0.67014003
3.7517438 3.5488021 -0.57561445
5.4294324 5.1357398 -0.41744623
7.7316689 7.3134427 0
9.2064915 8.7084875 0.70784843
1.8241166 1.7296262 -0.82886595
2.1036139 1.9946455 -0.79980654
2.4496245 2.3227324 -0.74783111
2.9187639 2.76757 -0.67056924
3.7530856 3.5586734 -0.57647961
5.4288812 5.1476617 -0.41788179
7.7341537 7.3335199 0
9.224247 8.7464256 0.71002567
1.8166492 1.726719 -0.82642025
2.103019 1.9989125 -0.80049807
2.4468162 2.3256907 -0.74783111
2.9172766 2.7728617 -0.67099679
3.7487829 3.5632057 -0.57647961
5.4226575 5.1542177 -0.41788179
7.7271719 7.3446512 0
9.2099018 8.7539816 0.7097351
1.8074038 1.722093 -0.82316041
2.1096818 2.0101035 -0.80395818
2.436646 2.3216345 -0.74557954
2.9176373 2.7799227 -0.67185187
3.7444746 3.5677328 -0.57647961
5.4145389 5.1589684 -0.41773623
7.7333651 7.3683443 0
9.2181339 8.7830315 0.71118677
1.8106854 1.7293986 -0.82560605
2.0891128 1.9953266 -0.7970379
2.4466958 2.3368566 -0.74951816
2.9161379 2.7852244 -0.67228109
3.7495112 3.5811851 -0.57792079
5.4101858 5.1673074 -0.41788179
7.7338715 7.3866763 0
9.2169075 8.8031349 0.71191233
1.8318014 1.7538041 -0.83619982
2.1011972 2.0117292 -0.80257523
2.4383698 2.3345449 -0.74783111
2.9090586 2.785192 -0.67142433
3.7395749 3.5803452 -0.57705563
5.4095635 5.1792264 -0.41831678
7.7324524 7.4032078 0
9.2137718 8.8214531 0.71249288
1.8225482 1.7491704 -0.83293998
2.0915248 2.007318 -0.79980654
2.4447114 2.3462849 -0.75064498
2.9112489 2.7940392 -0.67270863
3.7352459 3.5848613 -0.57705563
5.4033012 5.1857591 -0.41831678
7.7310123 7.419754 0
9.2087326 8.8379793 0.71292841
1.8222127 1.7530833 -0.83375418
2.0963297 2.0168011 -0.80257523
2.4272258 2.335144 -0.74614191
2.9041674 2.7939918 -0.67185187
3.7365053 3.5947533 -0.57792079
5.4007802 5.1958904 -0.41860735
7.7351713 7.4417219 0
9.2036591 8.8544989 0.71336347
1.8147541 1.7501349 -0.83130848
2.086668 2.0123665 -0.79980654
2.4353728 2.3486547 -0.74951816
2.9081805 2.8046269 -0.67356378
3.7284319 3.5956712 -0.57734364
5.3963666 5.2042146 -0.41875234
7.7299242 7.4546795 0
9.206048 8.8782415 0.71437955
1.8126382 1.7523265 -0.83130848
2.0896478 2.0201192 -0.8018837
2.4215755 2.3410029 -0.74614191
2.9029458 2.8063564 -0.67313623
3.729665 3.6055684 -0.5782088
5.3919406 5.2125354 -0.41889733
7.7283883 7.4712424 0
9.2139921 8.9074154 0.71583068
1.8247188 1.7682756 -0.83782822
2.0799987 2.0156591 -0.79911506
2.424221 2.3492336 -0.74783111
2.8958693 2.8062925 -0.67228109
3.7253058 3.6100724 -0.5782088
5.3875027 5.2208533 -0.41904235
7.7305722 7.4914455 0
9.2032223 8.9185429 0.71583068
1.7676278 1.7170969 -0.81256664
2.0775619 2.0181708 -0.79911506
2.4268432 2.3574674 -0.74951816
2.9016809 2.8187313 -0.67442054
3.7190874 3.6127706 -0.57792079
5.3811903 5.2273593 -0.41904235
7.7233796 7.5025926 0
9.2073498 8.9441404 0.71699178
1.785025 1.738194 -0.82152891
2.0733261 2.0189312 -0.79842359
2.4185369 2.3550851 -0.74783111
2.898273 2.8222353 -0.67442054
3.7165706 3.6190643 -0.5782088
5.3897634 5.2483602 -0.42020345
7.7236295 7.5209956 0
9.209569 8.9679508 0.71800792
1.7829235 1.7403495 -0.82152891
2.0708849 2.021435 -0.79842359
2.4320519 2.3739777 -0.75289655
2.889348 2.820354 -0.67313623
3.7121952 3.6235526 -0.5782088
5.3797026 5.2512422 -0.41991347
7.7257137 7.5412335 0
9.2043066 8.984519 0.71844345
1.794952 1.7563312 -0.82804865
2.0666428 2.022176 -0.79772943
2.4273603 2.3751326 -0.75233203
2.8914444 2.829231 -0.67442054
3.7059669 3.6262281 -0.57792079
5.3733535 5.2577386 -0.41991347
7.7296119 7.5632987 0
9.215724 9.0174351 0.72018456
1.803419 1.7688864 -0.83293998
2.071362 2.0316987 -0.80049807
2.4172328 2.3709469 -0.75008047
2.8898544 2.8345184 -0.67484808
3.7034276 3.6325128 -0.5782088
5.3651433 5.2624097 -0.41976845
7.7223306 7.5744605 0
9.2141018 9.0376663 0.72091067
1.7818921 1.7520013 -0.82397455
2.0778482 2.0429928 -0.80395818
2.4216135 2.3809915 -0.75233203
2.8845987 2.8362103 -0.67442054
3.7027278 3.6406155 -0.57878596
5.362483 5.2725286 -0.42005846
7.7243037 7.5947299 0
9.2216997 9.067008 0.7223618
1.7780153 1.7524197 -0.82316041
2.0718081 2.0419834 -0.80257523
2.4241655 2.3892684 -0.75402123
2.8866563 2.8451014 -0.67570484
3.6983261 3.6450868 -0.57878596
5.3579569 5.2808266 -0.42020345
7.7336531 7.622323 0
9.2181396 9.0854397 0.72294235
1.8092974 1.7875667 -0.83864236
2.0729051 2.0480082 -0.80395818
2.4104352 2.3814843 -0.75064498
2.8722563 2.8377585 -0.67313623
3.6975954 3.6531849 -0.57936198
5.3645134 5.3000822 -0.42121956
7.7281437 7.6353235 0
9.2163954 9.1057005 0.72366792
1.7772839 1.7601864 -0.82478875
2.0846891 2.0646343 -0.80949551
2.4075558 2.3843951 -0.75064498
2.876121 2.8484526 -0.67484808
3.6950145 3.6594684 -0.57964998
5.3544092 5.3028998 -0.42092901
7.7300034 7.6556406 0
9.2238455 9.1351118 0.72511905
1.8049724 1.7919338 -0.83864236
2.0608351 2.0459483 -0.80119222
2.4136872 2.3962517 -0.75345886
2.8726771 2.8519258 -0.67484808
3.6924238 3.665751 -0.57993799
5.3516893 5.3130307 -0.42121956
7.7244444 7.6686459 0
9.2109585 9.1444216 0.72497404
1.8203282 1.8115515 -0.84679359
2.0619147 2.0519729 -0.80257523
2.4125893 2.4009569 -0.75402123
2.8746896 2.8608289 -0.67613238
3.6879919 3.6702099 -0.57993799
5.3489456 5.3231554 -0.42150956
7.7225518 7.6853166 0
9.2201643 9.1757088 0.72657073
1.7708918 1.7666174 -0.82478875
2.0736425 2.0686374 -0.8081125
2.4150848 2.4092555 -0.75571042
2.8657768 2.8588595 -0.67484808
3.6798956 3.6710136 -0.57936198
5.3461928 5.3332887 -0.42180014
7.7151003 7.6964784 0
9.1961908 9.1739941 0.72555459
1.7512823 1.7512823 -0.81664068
2.0604942 2.0604942 -0.80395818
2.4013884 2.4013884 -0.75233203
2.8659542 2.8659542 -0.67570484
3.6809459 3.6809459 -0.58022714
5.3323951 5.3323951 -0.42121956
7.7113175 7.7113175 0
9.2144976 9.2144976 0.72787684
1.7718558 1.7761428 -0.82723445
2.0438354 2.0487804 -0.79842359
2.3966923 2.4024911 -0.75176966
2.8643003 2.8712306 -0.67613238
3.6746633 3.6835544 -0.57993799
5.3314552 5.3443546 -0.42165512
7.7295594 7.7482615 0
9.2106981 9.2329836 0.72845739
1.7853979 1.794048 -0.83456832
2.0431263 2.053025 -0.79911506
2.3991663 2.4107902 -0.75345886
2.8553948 2.8692291 -0.67484808
3.6702099 3.6879919 -0.57993799
5.3249936 5.3507929 -0.42165512
7.7183576 7.7557526 0
9.2086973 9.2533131 0.72918296
1.7860544 1.7968776 -0.83538252
2.034811 2.0471418 -0.79634643
2.3994989 2.4140396 -0.75402123
2.8681386 2.885519 -0.67827183
3.6698098 3.6920483 -0.58022714
5.3309174 5.3632221 -0.42238069
7.7265148 7.7733364 0
9.2250872 9.2809896 0.73092461
1.7577827 1.7727134 -0.82316041
2.0499971 2.06741 -0.8032667
2.3965802 2.4169371 -0.75402123
2.8682613 2.8926246 -0.67912692
3.6671653 3.6983147 -0.58051515
5.3207703 5.3659654 -0.42209014
7.7152791 7.7808132 0
9.226675 9.305048 0.73194075
1.7625921 1.7818648 -0.82642025
2.0580869 2.0805905 -0.80742103
2.3865106 2.4126053 -0.75176966
2.8629603 2.8942649 -0.67869937
3.6663284 3.7064171 -0.58109117
5.3197665 5.3779345 -0.42252567
7.7296629 7.8141813 0
9.2245607 9.3254242 0.73266631
1.7704198 1.7984502 -0.83212578
2.0336914 2.0658901 -0.79980654
2.3878033 2.4256086 -0.75402123
2.8559577 2.901175 -0.67869937
3.6537352 3.7115834 -0.58051515
5.3085756 5.3926244 -0.42267069
7.7344961 7.8569536 0
9.2184019 9.3643532 0.73397243
1.7924871 1.8252732 -0.84353375
2.0557997 2.0934019 -0.80949551
2.3955562 2.4393728 -0.75739962
2.8542471 2.9064536 -0.67912692
3.6510584 3.7178392 -0.58080316
5.3038821 5.4008942 -0.42281625
7.7377563 7.8792863 0
9.2107182 9.3791895 0.73426241
1.7677965 1.8044873 -0.83293998
2.0515149 2.094094 -0.80880398
2.3872707 2.4368188 -0.75571042
2.8507333 2.9099004 -0.67912692
3.6519952 3.7277927 -0.58166832
5.3009853 5.4110079 -0.42310625
7.7355151 7.8960662 0
9.199378 9.3903122 0.73426241
1.7742507 1.8154585 -0.83701402
2.0524933 2.1001632 -0.81018966
2.3860989 2.4415169 -0.75627273
2.8490145 2.915184 -0.67955613
3.6492944 3.7340508 -0.58195633
5.3017082 5.4248424 -0.4236868
7.7314272 7.9109926 0
9.2098188 9.4237213 0.73600411
1.7634306 1.8087541 -0.83293998
2.0394428 2.0918603 -0.80603534
2.3778241 2.4389386 -0.75458354
2.8436928 2.9167809 -0.67912692
3.642976 3.7366073 -0.58166832
5.2969618 5.4331036 -0.42383179
7.7309446 7.9296446 0
9.2111254 9.4478683 0.73702019
1.7664086 1.8161938 -0.83538252
2.0596509 2.1177011 -0.81503278
2.3677893 2.4345241 -0.75233203
2.8348022 2.9146996 -0.67784429
3.64026 3.7428586 -0.58195633
5.2867732 5.4357777 -0.42354181
7.7249899 7.9427147 0
9.2123785 9.4720249 0.73803574
1.8072385 1.8626723 -0.85575587
2.037879 2.1003873 -0.80742103
2.3719232 2.4446778 -0.75458354
2.843786 2.9310141 -0.68083882
3.6375341 3.749109 -0.58224434
5.2820086 5.444025 -0.4236868
7.7335062 7.9707179 0
9.2099791 9.4924793 0.7387619
1.775766 1.8346649 -0.84190226
2.0301034 2.0974386 -0.80534387
2.3795738 2.4584999 -0.75796193
2.8348916 2.9289198 -0.67955613
3.6366026 3.7572222 -0.58282149
5.2826557 5.4578719 -0.42426735
7.7311096 7.9875364 0
9.2183762 9.5241337 0.740358
1.789004 1.8528168 -0.84923929
2.0327973 2.1053059 -0.80742103
2.3695416 2.454062 -0.75571042
2.8295622 2.930491 -0.67912692
3.6320601 3.7616136 -0.58282149
5.2832766 5.4717278 -0.42484793
7.7106028 7.9856353 0
9.2140818 9.5427427 0.74093854
1.7541839 1.8211533 -0.83375418
2.030252 2.1077607 -0.80742103
2.3736255 2.4642434 -0.75796193
2.8367078 2.9450047 -0.68169558
3.62392 3.7622702 -0.58224434
5.2784619 5.4799776 -0.42499292
7.7153916 8.0099411 0
9.2133636 9.5651016 0.74180967
1.7108821 1.7804991 -0.81419498
2.0242238 2.106591 -0.80603534
2.358321 2.4542828 -0.75402123
2.8331473 2.9484301 -0.68169558
3.6247494 3.772243 -0.5831095
5.2700381 5.4844794 -0.42484793
7.7111187 8.0248899 0
9.203598 9.5780983 0.74195468
1.7446451 1.8200326 -0.83130848
2.021677 2.1090353 -0.80603534
2.3553538 2.4571304 -0.75402123
2.8313575 2.9537027 -0.68212312
3.6148176 3.7710168 -0.58224434
5.2705998 5.4983468 -0.42542848
7.696012 8.0285635 0
9.211792 9.6098413 0.74355078
1.750984 1.8310692 -0.83538252
2.0277948 2.1205406 -0.80949551
2.3664317 2.4746659 -0.7585243
2.8206897 2.9497004 -0.68041122
3.612051 3.7772565 -0.58253348
5.2621584 5.5028353 -0.42528349
7.6701193 8.0209303 0
9.2055626 9.6266003 0.74398637
1.7555943 1.8403372 -0.83864236
2.0235009 2.1211758 -0.80880398
2.3599355 2.47385 -0.75739962
2.8188937 2.9549623 -0.68083882
3.609268 3.783488 -0.58282149
5.2555051 5.5091891 -0.42528349
7.6496472 8.0188971 0
9.2082729 9.6527576 0.74514747
1.7244053 1.8120214 -0.82478875
2.0226643 2.1254349 -0.80949551
2.3569446 2.4766996 -0.75739962
2.8135531 2.9565082 -0.68041122
3.6136074 3.7972128 -0.58426267
5.2452583 5.5117674 -0.42499292
7.6166306 8.0036278 0
9.2073469 9.6751671 0.74601799
1.7528484 1.846372 -0.83945972
2.018369 2.1260595 -0.80880398
2.3661911 2.4924397 -0.76133817
2.8188143 2.9692125 -0.68255067
3.6036725 3.7959471 -0.58339751
5.2439637 5.5237565 -0.42542848
7.5693278 7.9731908 0
9.2081747 9.6994791 0.74703413
1.7251215 1.8215686 -0.82723445
2.0295994 2.143069 -0.81434131
2.3579412 2.4897678 -0.75965112
2.8099339 2.9670303 -0.68126798
3.607981 3.8096938 -0.58483982
5.2462177 5.5395203 -0.42615405
7.5471597 7.9691024 0
9.1928778 9.7068281 0.74674416
1.7398896 1.8416144 -0.83538252
2.0028913 2.1199927 -0.80465233
2.3636541 2.501848 -0.762465
2.8116305 2.9760158 -0.68255067
3.5944886 3.8046446 -0.58339751
5.2395201 5.545855 -0.42615405
7.5196562 7.9593019 0
9.1668673 9.7028189 0.745583
1.7444439 1.8509099 -0.83864236
2.0003283 2.1224113 -0.80465233
2.3571408 2.5010006 -0.76133817
2.8045146 2.9756784 -0.68169558
3.5934403 3.8127532 -0.58397466
5.2310348 5.550293 -0.42600903
7.5046768 7.9626985 0
7.478178 7.9345822 0.60901362
1.7777579 1.8908294 -0.85575587
2.0097866 2.1376159 -0.80949551
2.3489006 2.4982986 -0.75965112
2.8044305 2.9828019 -0.68255067
3.5888307 3.8170924 -0.58397466
5.2261028 5.5585008 -0.42615405
7.5039616 7.9812388 0
7.4579091 7.9322577 0.60814303
1.7416615 1.8569281 -0.83945972
2.0277975 2.1620009 -0.81780142
2.3389273 2.493722 -0.75739962
2.8008244 2.9861882 -0.68255067
3.5859835 3.8233109 -0.58426267
5.2247171 5.5704989 -0.42658958
7.4978766 7.9941006 0
7.4678679 7.9621058 0.60973918
1.7613676 1.8824917 -0.85005349
2.0114713 2.1497943 -0.81226414
2.3497937 2.5113821 -0.76190048
2.7954619 2.9876976 -0.68212312
3.5848989 3.8314219 -0.58483982
5.2233033 5.5824947 -0.4270246
7.5202141 8.0373573 0
7.4529209 7.9654365 0.60930413
1.7068092 1.8286053 -0.82478875
2.0225668 2.1668952 -0.81780142
2.3415611 2.5086524 -0.76021349
2.7988563 2.9985797 -0.68383497
3.5802667 3.8357508 -0.58483982
5.2112403 5.5831089 -0.42658958
7.6117086 8.1548719 0
7.4326491 7.9630351 0.60843307
1.7045984 1.8306663 -0.82478875
