# .PCD v0.7 - Point Cloud Data file format
VERSION 0.7
FIELDS x y z
SIZE 4 4 4
TYPE F F F
COUNT 1 1 1
WIDTH 1768
HEIGHT 1
VIEWPOINT 0 0 0 1 0 0 0
POINTS 1768
DATA ascii
-2.6515248 4.1559014 0.2753551
-2.5989635 4.0626845 -0.53756207
-2.4913862 3.8945198 -0.25823617
-2.5068662 3.9187183 0
-2.6663475 4.1680188 0.27637121
-2.598285 4.0508327 -0.5364089
-2.4918854 3.8849514 -0.25780118
-2.5144124 3.9200718 0
-2.7050517 4.2172861 0.27985457
-2.5036042 3.8928628 -0.25852671
-2.52196 3.9214044 0
-2.7944729 4.3451357 0.28856236
-2.5087667 3.8957148 -0.25881672
-2.5186923 3.9111278 0
-2.8167911 4.3740277 0.29059404
-2.5148854 3.8948698 -0.25896227
-2.5332997 3.923388 0
-2.8389883 4.3968163 0.29233572
-3.2572961 5.0313096 -0.99923003
-2.5266492 3.9027321 -0.25968784
-2.5337939 3.9137683 0
-2.8471258 4.3977494 0.29262626
-3.2591841 5.0209169 -0.99794734
-2.5455081 3.9214675 -0.26113895
-2.541358 3.9150739 0
-2.8595102 4.4052014 0.29335183
-3.2624452 5.0126677 -0.99709058
-2.5899322 3.9793677 -0.26520285
-2.5432446 3.9076335 0
-2.8648307 4.4017429 0.29335183
-3.2713082 5.0130258 -0.99794734
-2.624558 4.0219316 -0.26825064
-2.5394337 3.891485 0
-2.8701475 4.3982782 0.29335183
-2.6678238 4.0774593 -0.27216899
-2.5427103 3.8862381 0
-2.874033 4.3926263 0.29320627
-0 0 -0
-2.6841509 4.0916142 -0.27333012
-2.5474043 3.8831627 0
-2.887893 4.4021907 0.2940774
-3.2894585 5.0011349 -0.99794734
-2.6962311 4.0992208 -0.27405566
-2.5463738 3.8713846 0
-2.8860719 4.387845 0.29335183
-3.2827809 4.9778714 -0.99409604
-2.698324 4.0916257 -0.27376568
-2.549613 3.8661263 0
-2.8970938 4.3930316 0.29393238
-3.2873733 4.9717536 -0.99366683
-2.7046978 4.0905275 -0.27391067
-2.5571561 3.8673885 0
-9.9961805 15.118011 1.0123352
-3.299052 4.9763365 -0.99537873
-2.7110727 4.0894203 -0.27405566
-2.5560751 3.8556194 0
-10.014441 15.105922 1.0123352
-3.3079073 4.9766264 -0.99623549
-2.716012 4.0861411 -0.27405566
-2.5708179 3.8677018 0
-9.2862015 13.970752 0.93701208
-3.3181849 4.9790277 -0.99751812
-2.7238321 4.0871854 -0.27434623
-2.5870299 3.8819096 0
-9.3059549 13.963841 0.93730205
-2.7330954 4.0903664 -0.27478123
-2.6336474 3.9415319 0
-9.3199358 13.94827 0.93701208
-2.740931 4.0913825 -0.2750718
-2.6862066 4.0096955 0
-9.3252134 13.919728 0.93585098
-4.9993529 7.4430594 -0.99938267
-2.7444253 4.0859127 -0.27492678
-2.7244263 4.056138 0
-10.150435 15.112015 1.0168346
-5.0054507 7.4327188 -0.99880552
-2.7435546 4.0739727 -0.27434623
-2.7351401 4.0614777 0
-10.159977 15.086802 1.0159634
-5.0161495 7.4098935 -0.99736434
-2.7504756 4.0630231 -0.27405566
-2.7493196 4.0613155 0
-10.215341 15.090178 1.0178502
-5.0265503 7.4059649 -0.99765235
-3.5798168 5.2743921 -0.35605544
-2.7396126 4.0364609 0
-10.245241 15.095023 1.0190113
-5.0223036 7.3900957 -0.99592316
-3.5669353 5.2485857 -0.35445875
-0 0 0
-10.258741 15.09528 1.0194468
-5.0283141 7.3797426 -0.99534607
-3.5615695 5.2270932 -0.35329765
-0 0 0
-10.281364 15.089317 1.0198824
-5.0372272 7.3736615 -0.99534607
-3.5517638 5.1991906 -0.35170153
-5.1225219 7.4985185 0
-10.308381 15.089753 1.0207529
-5.040287 7.3590341 -0.9941929
-3.5580435 5.1948953 -0.35170153
-5.1580467 7.5309682 0
-10.331013 15.083719 1.0211885
-5.0506434 7.3550768 -0.99448198
-3.529016 5.139183 -0.34821817
-5.1023273 7.4303417 0
-10.359529 15.086222 1.0222046
-5.0551257 7.3425751 -0.99361682
-3.4689169 5.0386052 -0.34168705
-5.1378632 7.4627519 0
-10.383638 15.082247 1.0227846
-5.0595846 7.3300738 -0.99275166
-3.4823871 5.0451088 -0.34241316
-5.1350498 7.439404 0
-10.422523 15.099631 1.0248169
-5.0625505 7.3154473 -0.99159849
-3.4973497 5.0537133 -0.34328371
-5.1721749 7.4738564 0
-10.442238 15.089162 1.0249618
-5.0728593 7.3114481 -0.99188656
-3.4916036 5.0324044 -0.34212261
-5.184166 7.4718738 0
-10.469347 15.089338 1.0258324
-5.0772629 7.2989492 -0.99102247
-3.4917464 5.0196495 -0.34154204
-5.2110243 7.4912415 0
-10.490542 15.080948 1.0261229
-5.0786824 7.2822037 -0.98958129
-3.4948392 5.011168 -0.34125203
-5.2230468 7.4892044 0
-10.517673 15.081045 1.0269935
-5.0845108 7.2718182 -0.98900414
-3.514291 5.0261054 -0.34255815
-5.2291126 7.4786267 0
-10.540356 15.074716 1.0274291
-5.0873547 7.2571979 -0.98785096
-3.524832 5.0282326 -0.34299317
-5.2486038 7.4872222 0
-10.571985 15.081117 1.0287352
-5.088685 7.2404666 -0.98640978
-3.5324035 5.0261016 -0.34313872
-5.256146 7.4787393 0
-10.594685 15.074711 1.0291708
-5.110837 7.2533398 -0.98900414
-3.5519428 5.0409451 -0.34444484
-5.2681799 7.4766417 0
-10.623369 15.076769 1.0301869
-5.1076589 7.2302585 -0.98669779
-3.5820191 5.0706062 -0.34676707
-5.2787099 7.4723945 0
-10.655071 15.08302 1.0314929
-5.1163912 7.224082 -0.98669779
-3.5836365 5.0599108 -0.34633151
-5.2952547 7.4766273 0
-10.67779 15.07649 1.0319279
-5.1161346 7.205245 -0.9849686
-3.5551457 5.0068455 -0.34299317
-5.3118167 7.4808316 0
-10.697507 15.065702 1.0320735
-5.1203356 7.1927342 -0.98410344
-3.5551708 4.9940867 -0.34241316
-5.328403 7.4850149 0
-10.736797 15.082397 1.0341052
-5.1245136 7.1802244 -0.98323834
-3.5687487 5.0003605 -0.34313872
-5.3344164 7.4743304 0
-8.9210739 12.499784 0.85777009
-5.1377025 7.1803398 -0.98410344
-3.5687399 4.9875917 -0.34255815
-5.3495016 7.4763451 0
-8.9346552 12.486876 0.85762453
-5.137332 7.1615205 -0.98237425
-3.5793033 4.989604 -0.34299317
-5.3661146 7.4804473 0
-8.9482231 12.473962 0.85747957
-5.1489992 7.1595035 -0.98295027
-3.5913982 4.9937139 -0.34357372
-5.3827457 7.48452 0
-8.9450827 12.437826 0.85573786
-5.144258 7.1438022 -0.98122108
-3.5944145 4.9915433 -0.34357372
-5.3827085 7.474937 0
-8.9358978 12.40923 0.85414177
-5.1543984 7.1396761 -0.98150909
-3.6019685 4.9893093 -0.34371927
-5.3993516 7.4789758 0
-8.9371977 12.379465 0.85283566
-5.1630216 7.1334429 -0.98150909
-3.6201825 5.0017929 -0.3448804
-5.4038057 7.4661198 0
-8.9430056 12.356024 0.85196453
-5.1655612 7.1188254 -0.98035592
-3.6246932 4.995306 -0.34473485
-5.4219966 7.4722271 0
-8.9380913 12.31787 0.85007787
-5.1635065 7.0979352 -0.97833765
-3.6291993 4.9888234 -0.34458983
-5.4447985 7.4846091 0
-8.937686 12.286053 0.84862673
-5.1751304 7.0958748 -0.97891474
-3.6413493 4.9928322 -0.34517038
-5.4446344 7.4654045 0
-8.9341507 12.250051 0.84688509
-5.1837006 7.0896163 -0.97891474
-0 0 -0
-5.4551911 7.460927 0
-8.936677 12.222466 0.84572393
-5.1677971 7.0499706 -0.97430205
-3.6687634 5.004971 -0.34662151
-5.4657393 7.4564271 0
-8.9376144 12.1928 0.84441781
-3.8560958 5.2472234 -0.72580677
-3.6763515 5.002634 -0.34676707
-5.4870744 7.4665942 0
-8.9369497 12.161049 0.84296614
-3.7351074 5.0697384 -0.7018804
-3.6947236 5.0149245 -0.34792817
-8.8719206 12.042041 0
-8.9362278 12.129326 0.84151506
-3.778105 5.1151457 -0.70879835
-3.6868818 4.9916391 -0.34662151
-8.8818245 12.025029 0
-8.9400692 12.103887 0.84049892
-5.2079673 7.033226 -0.97545522
-3.6913657 4.9850945 -0.3464765
-8.8839579 11.997557 0
-8.9330425 12.063844 0.83846724
-5.2102952 7.018621 -0.97430205
-3.7066827 4.9931526 -0.34734762
-8.8875942 11.972192 0
-8.9398699 12.042611 0.83774167
-5.2110524 7.0019474 -0.97286087
-3.7127132 4.9886703 -0.34734762
-8.8958387 11.953094 0
-8.934248 12.004704 0.83585501
-5.2287865 7.00808 -0.97459012
-3.7109644 4.9737616 -0.34662151
-8.8962698 11.923565 0
-8.9347639 11.975158 0.83454889
-5.229506 6.9914031 -0.97314888
-3.7278678 4.9838409 -0.34763762
-8.8982 11.896134 0
-8.9414463 11.953951 0.83382332
-5.2317429 6.9768019 -0.97199571
-3.7354445 4.98141 -0.34778261
-8.8985176 11.866637 0
-8.9434128 11.926507 0.83266222
-5.2370639 6.9663444 -0.97141969
-3.7461464 4.9831257 -0.34821817
-8.8956451 11.832992 0
-8.9390802 11.890768 0.83092058
-5.243916 6.9579401 -0.97113061
-3.7740569 5.0076432 -0.35024986
-8.8942766 11.801455 0
-8.9409294 11.863358 0.82975942
-5.2492042 6.947475 -0.97055453
-3.7895064 5.0155225 -0.35112098
-8.8959789 11.774088 0
-8.9333305 11.823524 0.82772779
-5.251348 6.9328804 -0.96940136
-3.7939906 5.008863 -0.35097542
-8.9023438 11.752959 0
-8.9429026 11.806505 0.8272922
-5.2581587 6.9244723 -0.96911335
-3.8063257 5.0125527 -0.35155597
-8.8992233 11.719393 0
-8.9398746 11.772925 0.82569551
-5.260777 6.9192371 -0.96882534
-3.815644 5.0185261 -0.35213652
-8.8968487 11.70158 0
-8.9296904 11.744775 0.82409942
-5.265995 6.9087572 -0.96824819
-3.8154044 5.0056453 -0.35155597
-8.9015179 11.678407 0
-8.9312735 11.717444 0.82293832
-5.2837586 6.9147162 -0.96997744
-3.8088348 4.9845223 -0.35039541
-0 0 0
-8.9375381 11.696322 0.82221276
-5.2873955 6.902173 -0.96911335
-3.8101127 4.9737263 -0.34995985
-0 0 0
-8.9516649 11.685514 0.82221276
-5.2799749 6.8752618 -0.96622992
-3.8271937 4.9835386 -0.35097542
-8.9453764 11.648125 0
-8.9657774 11.67469 0.82221276
-5.2788143 6.8565841 -0.96450067
-3.8506508 5.0015612 -0.35257208
-8.9562721 11.633187 0
-8.9846287 11.670019 0.82264775
-5.2855163 6.848155 -0.96421266
-3.8693926 5.0133605 -0.35373321
-8.9671392 11.618233 0
-8.9971371 11.657099 0.82250273
-5.287456 6.833581 -0.96305948
-3.8659098 4.9963551 -0.35286266
-8.9795799 11.605332 0
-9.012804 11.648273 0.82264775
-5.2988768 6.8312707 -0.96363556
-3.886276 5.0101566 -0.35416877
-8.987215 11.586248 0
-9.0300608 11.641484 0.82293832
-5.300776 6.8166957 -0.96248239
-3.9034879 5.0198102 -0.35518432
-9.0411463 11.62674 0
-9.0313597 11.614155 0.82177716
-5.3090091 6.810286 -0.96248239
-3.9191389 5.02739 -0.35605544
-9.0567875 11.617858 0
-9.0405922 11.597083 0.82134163
-5.3140516 6.7997942 -0.96190631
-3.934808 5.0349312 -0.35692599
-9.09165 11.633561 0
-9.0514011 11.58206 0.82105166
-5.3190708 6.7892923 -0.96132922
-3.9408889 5.0301728 -0.35692599
-9.1040964 11.620521 0
-0 0 0
-5.3240781 6.7787957 -0.96075314
-3.9277041 5.000885 -0.35518432
-9.0683031 11.54607 0
-0 0 0
-5.3306665 6.7703276 -0.96046513
-3.9337437 4.9961357 -0.35518432
-9.15308 11.625066 0
-9.1688719 11.645122 0.82787275
-5.3308263 6.7537246 -0.95902288
-3.9800241 5.0423679 -0.35881266
-9.1735697 11.622169 0
-9.1604004 11.605484 0.82584113
-5.3374906 6.7286682 -0.95729363
-4.0018902 5.0449533 -0.35968378
-9.1919279 11.587736 0
-0 0 0
-5.3472252 6.724236 -0.9575817
-4.0484142 5.0909567 -0.36331213
-9.244792 11.625501 0
-0 0 0
-3.9623964 4.9704475 -0.70851034
-4.0205493 5.043395 -0.36026433
-5.9884887 7.5119872 0
-0 0 0
-5.3448834 6.696342 -0.95498735
-4.0106277 5.0247183 -0.35910323
-5.9491897 7.4534473 0
-0 0 0
-5.3497424 6.6858435 -0.95441127
-4.0004587 4.9995756 -0.35765156
-0 0 0
-0 0 0
-5.3578167 6.6793747 -0.95441127
-4.0146308 5.0048785 -0.35837767
-0 0 0
-0 0 0
-5.369122 6.6769233 -0.95498735
-4.0271821 5.0081162 -0.35895768
-0 0 0
-0 0 0
-5.3755641 6.6684194 -0.95469928
-4.0446477 5.0174093 -0.35997379
-0 0 0
-0 0 0
-5.3787394 6.6558819 -0.95383418
-4.0490756 5.0104995 -0.35982877
-6.0022883 7.4274883 0
-0 0 0
-5.3900371 6.6534014 -0.95441127
-4.0747547 5.0298319 -0.36157045
-6.0325541 7.446517 0
-0 0 0
-5.4013305 6.6508951 -0.95498735
-4.1004868 5.0491095 -0.36331213
-0 0 0
-0 0 0
-5.3946676 6.6263137 -0.95239294
-4.0983772 5.03407 -0.36258602
-0 0 0
-8.9983397 11.052733 0.79608876
-5.4059439 6.6238017 -0.95297009
-4.1241727 5.0532713 -0.3643277
-0 0 0
-9.0067577 11.03581 0.79565322
-5.410665 6.6132574 -0.95239294
-4.1385007 5.0583382 -0.36505324
-9.0050039 11.006487 0
-9.0217352 11.026937 0.79579878
-5.4104524 6.5967174 -0.95095176
-4.1231894 5.0272169 -0.36316657
-9.0083981 10.983528 0
-9.0366993 11.018035 0.79594374
-5.4167781 6.5881791 -0.95066375
-4.1408143 5.036283 -0.36418268
-9.0299253 10.982685 0
-9.0269051 10.979012 0.79391211
-5.4230847 6.5796275 -0.95037466
-4.1320243 5.0132318 -0.36287656
-9.0233259 10.947667 0
-9.0038023 10.92398 0.79071873
-4.3355141 5.2471876 -0.75867045
-4.1430454 5.0142465 -0.36331213
-9.4774694 11.470395 0
-0 0 0
-4.2709107 5.1562982 -0.74627471
-4.1673293 5.0312438 -0.36490825
-9.5195417 11.493005 0
-0 0 0
-4.173048 5.025774 -0.72811311
-4.1883435 5.0441952 -0.36621436
-9.5151329 11.459468 0
-0 0 0
-5.4233875 6.5155749 -0.94489789
-4.1877856 5.0311418 -0.36563382
-9.5489521 11.471965 0
-0 0 0
-5.4428577 6.5229206 -0.94691622
-4.1971946 5.0300722 -0.36592436
-9.6194935 11.528355 0
-0 0 0
-5.4424329 6.5064139 -0.94547397
-4.2116036 5.0349607 -0.36664993
-9.6284056 11.510733 0
-0 0 0
-5.4496875 6.5070944 -0.94605106
-4.226325 5.0463619 -0.36766604
-9.6403723 11.5109 0
-9.0509529 10.807116 0.78738093
-5.4558845 6.4985256 -0.94576305
-4.2357578 5.045228 -0.36795604
-9.689414 11.541099 0
-9.0105391 10.732489 0.78273648
-5.4620624 6.489944 -0.94547397
-4.2518935 5.0520382 -0.36882716
-9.6949739 11.519428 0
-9.0251789 10.723587 0.78288203
-5.4615626 6.4734569 -0.94403279
-4.2764211 5.0687375 -0.37042326
-9.7105627 11.509693 0
-9.8658228 11.693719 0.85457677
-5.4760618 6.4747524 -0.9451859
-4.3127432 5.0992751 -0.37303549
-9.7160616 11.488017 0
-9.8447084 11.640127 0.851529
-5.4805388 6.4641891 -0.94460988
-4.2937007 5.0643363 -0.37085882
-9.7433996 11.492149 0
-9.8184433 11.580663 0.84804618
-5.4782925 6.4457331 -0.94287962
-4.2930856 5.0512247 -0.37027827
-7.0607724 8.3076715 0
-9.859354 11.600471 0.85036844
-4.5451035 5.334672 -0.78115666
-4.3092937 5.0578976 -0.37114882
-10.513735 12.340163 0
-10.501898 12.326271 0.90450251
-4.5397863 5.3154068 -0.77913839
-4.3120303 5.048739 -0.37085882
-10.510044 12.30568 0
-10.498219 12.291836 0.90290582
-4.5512538 5.3158135 -0.78000349
-4.3029199 5.0257621 -0.3695527
-10.526603 12.294954 0
-10.533343 12.302828 0.90464753
-4.5357761 5.2847967 -0.77625597
-4.3056011 5.0166121 -0.36926216
-10.556704 12.299998 0
-10.56174 12.305865 0.90580863
-4.5303483 5.2655859 -0.77423769
-4.3235245 5.0251961 -0.37027827
-10.576646 12.293146 0
-10.56813 12.283248 0.90508306
-4.5096793 5.2287698 -0.76962501
-4.3499579 5.0435805 -0.37201995
-10.59829 12.28824 0
-10.601626 12.292109 0.90667921
-5.539381 6.4069934 -0.94403279
-4.3866363 5.0736985 -0.37463218
-10.616538 12.279366 0
-10.611378 12.273398 0.90624416
-5.5403428 6.3924775 -0.94287962
-4.3893633 5.0644712 -0.37434217
-10.650112 12.288157 0
-10.65683 12.295908 0.90885639
-4.5269089 5.2104378 -0.769337
-4.397182 5.0611234 -0.37448716
-10.673491 12.285109 0
-10.675085 12.286942 0.90914643
-4.5501852 5.2244649 -0.77221936
-4.4169469 5.0714822 -0.37564829
-10.690036 12.274163 0
-10.695045 12.279915 0.90958196
-4.5752077 5.240397 -0.77539086
-4.4076924 5.0485268 -0.37434217
-10.728818 12.28868 0
-10.71671 12.274813 0.91016251
-0 0 -0
-4.4052281 5.0334148 -0.37361607
-10.75737 12.291374 0
-10.740089 12.271629 0.91088808
-4.7055492 5.363471 -0.79528165
-4.4130254 5.0300474 -0.37376162
-10.77565 12.282284 0
-9.0310459 10.293752 0.76488531
-4.7087884 5.3606272 -0.79528165
-4.4177766 5.0293307 -0.37390661
-10.801956 12.297274 0
-9.0424099 10.294152 0.76532084
-4.696465 5.3335862 -0.79211122
-4.4169817 5.0161881 -0.37332606
-10.823687 12.292026 0
-9.037672 10.263721 0.76386976
-4.6361504 5.2522802 -0.78086758
-4.4333534 5.0225325 -0.37419662
-10.850589 12.292598 0
-9.0259905 10.225516 0.76183754
-4.5773654 5.1730704 -0.76991302
-4.4583616 5.0385795 -0.37579328
-10.880954 12.297018 0
-10.861757 12.275322 0.91553253
-4.5784683 5.1617365 -0.76904893
-4.4747891 5.0448489 -0.37666383
-10.895804 12.283861 0
-10.874852 12.26024 0.91538697
-4.5623612 5.1310749 -0.76530141
-4.5551276 5.1229391 -0.38290498
-10.910639 12.270687 0
-0 0 0
-4.5651126 5.1216931 -0.76472431
-4.5993481 5.1601024 -0.38609776
-10.960091 12.29635 0
-9.1410036 10.255479 0.76735252
-4.5644045 5.108458 -0.76357114
-4.5796084 5.1254745 -0.38392055
-11.000946 12.312202 0
-9.224371 10.323869 0.77330309
-2.7535515 3.0742762 -0.460015
-4.6118045 5.1489725 -0.38609776
-11.010604 12.293083 0
-9.1917667 10.262394 0.76952976
-2.7434404 3.0555503 -0.45770866
-4.5485835 5.0660572 -0.38029218
-11.035885 12.291393 0
-9.1937408 10.239676 0.76865864
-2.7523229 3.0580025 -0.45857382
-4.5477481 5.0528321 -0.37971163
-11.047243 12.274177 0
-0 0 0
-2.738693 3.0354745 -0.45569143
-4.5660362 5.0608401 -0.38072774
-8.9997845 9.9750566 0
-0 0 0
-2.7267392 3.0148928 -0.45309597
-4.5721483 5.0553193 -0.38072774
-2.7259164 3.013983 0
-0 0 0
-2.7338579 3.0154321 -0.45367312
-4.5974531 5.0709686 -0.38232443
-2.740041 3.0222518 0
-0 0 0
-2.7305412 3.0044701 -0.45251995
-4.5895963 5.0500259 -0.3811633
-0 0 0
-0 0 0
-2.7306824 2.9973409 -0.4519428
-4.5991912 5.0483146 -0.38145331
-0 0 0
-9.0717545 9.9576349 0.75240415
-2.7116292 2.9692125 -0.44819528
-4.5842605 5.0197291 -0.37971163
-0 0 0
-9.0452328 9.904458 0.74921137
-2.7187114 2.969753 -0.44877243
-4.5850639 5.0084419 -0.37927663
-0 0 0
-9.0378914 9.8724375 0.74761468
-2.7170496 2.960747 -0.44790727
-4.5788121 4.9894948 -0.37826052
-0 0 0
-9.0498142 9.8615093 0.74761468
-2.7118711 2.9479461 -0.44646609
-4.5778008 4.9763093 -0.37767997
-0 0 0
-9.0793114 9.8696871 0.74906582
-2.7703192 3.0005491 -0.68083882
-2.6838715 2.9069171 -0.44098824
-4.5832906 4.9641895 -0.37738997
-0 0 0
-0 0 0
-2.7774334 3.0009711 -0.68169558
-2.687382 2.903672 -0.44098824
-2.8438082 3.0726881 -0.23385441
-0 0 0
-3.4384902 3.7152321 0.28275681
-2.7601061 2.9750302 -0.67655993
-2.6750579 2.8833594 -0.43839389
-2.8333807 3.0540104 -0.2326933
-0 0 0
-3.4571152 3.7263141 0.2839179
-2.756706 2.9641738 -0.67484808
-2.6961577 2.8990686 -0.44127738
-2.8423724 3.0562875 -0.23312829
-0 0 0
-3.4616151 3.7221341 0.2839179
-2.7585368 2.9589648 -0.67442054
-2.7102375 2.9071565 -0.44300658
-2.8354354 3.0414507 -0.23225774
-0 0 0
-3.4767447 3.7293561 0.28478903
-2.7515903 2.9443727 -0.67185187
-2.6960917 2.8849857 -0.44012421
-2.8408809 3.0399191 -0.23240274
-0 0 0
-3.4652824 3.7080679 0.28348291
-2.7516391 2.9373024 -0.67099679
-2.6730494 2.85341 -0.43579954
-2.842777 3.0345898 -0.23225774
-0 0 0
-3.467979 3.7019761 0.28333735
-2.7446461 2.9227512 -0.66842979
-2.6888912 2.8633783 -0.43781787
-2.8322115 3.0159991 -0.23109663
-0 0 0
-3.4760103 3.701575 0.2836279
-2.7428954 2.9138234 -0.66714549
-2.674624 2.8412974 -0.43493548
-2.8305089 3.0068967 -0.23066106
-0 0 0
-3.4662321 3.682236 0.2824668
-2.7376068 2.9011734 -0.66500604
-2.681602 2.8418224 -0.43551153
-2.8305769 2.9996982 -0.23037106
-0 0 0
-3.465327 3.6723735 0.28203124
-2.7234664 2.8792105 -0.66072559
-2.6814823 2.8348258 -0.43493548
-2.8431258 3.0057127 -0.23109663
-0 0 0
-3.4715526 3.6700768 0.28217679
-2.7198782 2.8684666 -0.65901369
-2.6849058 2.8315835 -0.43493548
-2.8324523 2.9871907 -0.2299355
-0 0 0
-3.4563162 3.6451366 0.2805801
-2.7233422 2.8651779 -0.65901369
-2.6794105 2.8189583 -0.4334932
-2.8432205 2.9912996 -0.23051606
-0 0 0
-3.4571342 3.637187 0.28028956
-2.7126358 2.847017 -0.65558994
-2.6703305 2.8026159 -0.431476
-2.8396628 2.9803369 -0.2299355
-0 0 0
-3.4615266 3.6330073 0.28028956
-2.7213948 2.8493083 -0.6568743
-2.6719234 2.7975116 -0.43118685
-2.8486478 2.9825428 -0.23037106
-0 0 0
-11.73555 12.287155 0.9490577
-2.7053125 2.8256266 -0.65216786
-2.6824565 2.801754 -0.43234003
-2.8486521 2.9753411 -0.2300805
-0 0 0
-3.4667056 3.6208813 0.27999955
-2.7033904 2.8167975 -0.65088356
-2.6607697 2.7723889 -0.42830449
-2.8540497 2.9737768 -0.23022605
-0 0 0
-3.467483 3.6129439 0.27970955
-2.7156892 2.822777 -0.653023
-2.6677077 2.7729034 -0.42888165
-2.8576407 2.9703262 -0.23022605
-0 0 0
-3.4520276 3.5881515 0.27811289
-2.7119699 2.8121023 -0.6513111
-2.6710563 2.7696779 -0.42888165
-2.870245 2.9762213 -0.23095162
-0 0 0
-3.46718 3.5951965 0.27898344
-2.6976221 2.7938447 -0.64745981
-2.6817102 2.7773652 -0.43032283
-2.8720424 2.9744866 -0.23095162
-0 0 0
-3.4603286 3.5837564 0.27825788
-2.7081373 2.7979615 -0.64917171
-2.6796658 2.7685456 -0.42945766
-2.8756344 2.9710143 -0.23095162
-0 0 0
-9.0322504 9.3318338 0.72540963
-2.70258 2.7854769 -0.64703226
-2.6722062 2.7541714 -0.42772847
-2.8792224 2.9675374 -0.23095162
-0 0 0
-9.0417118 9.3190508 0.72526461
-2.7005725 2.7766869 -0.64574796
-2.671922 2.7472286 -0.42715132
-2.879179 2.9603271 -0.23066106
-0 0 0
-3.4569933 3.5544267 0.27695176
-2.700345 2.7697489 -0.64489281
-2.6842656 2.7532563 -0.4285925
-2.8754983 2.949404 -0.2300805
-0 0 0
-12.00442 12.312956 0.96052331
-2.6893361 2.751797 -0.64146912
-2.6713219 2.7333643 -0.42599815
-2.8627162 2.929204 -0.22877438
-0 0 0
-11.995681 12.274285 0.95863658
-2.6908574 2.7467062 -0.64103991
-2.6728144 2.7282889 -0.42571014
-2.8498895 2.909039 -0.22746827
-0 0 0
-12.054145 12.30433 0.96211994
-2.6815886 2.7306373 -0.63804537
-2.6815476 2.7305954 -0.4265753
-2.8788881 2.9315453 -0.22949995
-0 0 0
-12.012561 12.232281 0.9576205
-2.6848862 2.7273951 -0.63804537
-2.6812124 2.7236631 -0.42599815
-2.8769646 2.9225147 -0.22906494
-0 0 0
-12.069262 12.260349 0.96095884
-2.6917825 2.7277999 -0.63890046
-2.6826866 2.7185822 -0.42571014
-2.8877945 2.9264345 -0.22964551
-0 0 0
-12.084066 12.245757 0.96095884
-2.7077153 2.7373223 -0.64189667
-2.6841524 2.7135017 -0.42542213
-2.8986378 2.9303324 -0.23022605
-0 0 0
-3.1159976 3.1500688 0.24748999
-2.6586051 2.6811876 -0.62948602
-2.6837833 2.7065797 -0.42484498
-2.8966858 2.9212906 -0.22979051
-0 0 0
-3.0521083 3.0780332 0.24211997
-2.6618428 2.6779733 -0.62948602
-2.6779366 2.6941643 -0.4234038
-2.9002135 2.9177885 -0.22979051
-0 0 0
-3.0375104 3.0559173 0.24066885
-3.1322994 3.1436744 -0.98310286
-2.6995046 2.7093079 -0.63761783
-2.6866684 2.6964252 -0.42426896
-2.9055693 2.9161208 -0.2299355
-0 0 0
-3.0210245 3.0319953 0.23907217
-3.1037784 3.1075308 -0.97297204
-2.670119 2.6733475 -0.62991357
-2.675302 2.6785367 -0.42196262
-2.9090908 2.9126079 -0.2299355
-0 0 0
-3.0246859 3.0283427 0.23907217
-3.1021359 3.0983899 -0.97128284
-2.6896923 2.6864443 -0.63376486
-2.6840284 2.6807873 -0.42282778
-2.9052539 2.9017456 -0.22935495
-0 0 0
-3.03386 3.0301964 0.23950773
-3.0914848 3.0802987 -0.96678191
-2.6602073 2.6505816 -0.62606227
-2.6854281 2.6757114 -0.42253864
-2.9105971 2.9000654 -0.22949995
-0 0 0
-3.0338414 3.0228639 0.23921774
-3.0970049 3.0783505 -0.96734428
-2.6452048 2.6292717 -0.62178344
-2.6904991 2.6742933 -0.42282778
-2.914099 2.8965464 -0.22949995
-0 0 0
-3.0356433 3.0173588 0.23907217
-3.0953076 3.0692372 -0.96565509
-2.6392672 2.6170378 -0.61964399
-2.6973982 2.6746793 -0.4234038
-2.9323578 2.90766 -0.23066106
-0 0 0
-3.0356004 3.0100329 0.23878218
-3.0935929 3.0601325 -0.96396589
-2.6624978 2.6336999 -0.62435043
-2.6951098 2.6659594 -0.42253864
-2.9155536 2.8840189 -0.22906494
-0 0 0
-3.0318458 2.9990532 0.23820162
-3.0846334 3.0439043 -0.96002728
-2.672987 2.6376934 -0.62606227
-2.7001755 2.6645229 -0.42282778
-2.9208841 2.8823173 -0.22920994
-0 0 0
-3.0336196 2.9935644 0.23805663
-3.0810661 3.0330448 -0.95777577
-2.7017801 2.6596704 -0.63205302
-2.703393 2.6612582 -0.42282778
-2.9336216 2.8878984 -0.2299355
-0 0 0
-3.0168633 2.9698429 0.23645996
-3.0937653 3.041868 -0.96115202
-2.6338317 2.5896497 -0.61579108
-2.7050004 2.6596246 -0.42282778
-2.9261034 2.8770185 -0.22920994
-0 0 0
-3.0093946 2.9589126 0.23573439
-3.0793023 3.0203388 -0.95552421
-2.6846113 2.6332054 -0.62691903
-2.7026706 2.650919 -0.42196262
-2.9277241 2.8716631 -0.22906494
-0 0 0
-2.9999804 2.9425356 0.23471828
-3.0774994 3.0112829 -0.95383501
-2.6786118 2.6209776 -0.62477797
-2.7095656 2.6512656 -0.42253864
-2.9256184 2.8626697 -0.2286294
-0 0 0
-2.9998229 2.9352777 0.23442827
-3.0829523 3.0093353 -0.95439738
-2.7166812 2.6518104 -0.63290977
-2.7127671 2.6479897 -0.42253864
-2.9049041 2.8355386 -0.22674271
-0 0 0
-2.9884918 2.9171305 0.23326716
-3.0683856 2.987885 -0.94876963
-2.7033329 2.6324093 -0.62905848
-2.723377 2.6519277 -0.42369181
-2.8524826 2.7776463 -0.2223888
-0 0 0
-2.9864278 2.9080772 0.2328316
-3.0738144 2.9859438 -0.94933194
-2.640224 2.5647485 -0.61365163
-2.721019 2.6432338 -0.42282778
-2.809243 2.7289355 -0.21876046
-0 0 0
-2.9824841 2.8972242 0.23225105
-3.0737743 2.9786944 -0.94820726
-2.6543856 2.5722785 -0.61622024
-2.7297778 2.6453388 -0.42369181
-2.7901461 2.7038395 -0.21701878
-0 0 0
-2.9785185 2.8863852 0.23167048
-3.0755463 2.9732139 -0.94764495
-2.6888659 2.5993996 -0.62349528
-2.747849 2.6564202 -0.42599815
-2.7597871 2.6679611 -0.21440655
-0 0 0
-2.9726648 2.8737557 0.23094493
-3.1029112 2.9924238 -0.9549619
-2.7252614 2.6282213 -0.63119787
-2.7566438 2.6584861 -0.42686331
-2.7723589 2.6736417 -0.21513212
-0 0 0
-2.9723978 2.8665576 0.23065493
-3.0955346 2.9780991 -0.9515835
-2.6784921 2.5768778 -0.61964399
-2.771034 2.6659093 -0.4285925
-2.769968 2.6648836 -0.21469656
-0 0 0
-2.9721105 2.8593576 0.23036437
-3.0863037 2.9620459 -0.94764495
-2.6593785 2.5523093 -0.61450839
-2.7985108 2.6858399 -0.43234003
-2.771313 2.6597371 -0.21455155
-0 0 0
-2.9736905 2.8539667 0.23021936
-3.0898805 2.9583144 -0.94764495
-2.6457741 2.5331182 -0.6106571
-2.8577983 2.7361143 -0.44098824
-2.7670171 2.6491985 -0.213971
-0 0 0
-2.9658718 2.839586 0.22934826
-3.1044738 2.9651053 -0.95102113
-2.6506877 2.5316908 -0.61108464
-2.9209557 2.7898259 -0.45021361
-2.7608225 2.6368814 -0.21324544
-0 0 0
-2.9655461 2.8324144 0.22905825
-3.113575 2.9666119 -0.95271033
-2.6946287 2.5674403 -0.62049913
-2.9861178 2.845171 -0.45972699
-2.7790565 2.6478832 -0.21440655
-0 0 0
-2.9614415 2.8216593 0.2284777
-3.1097903 2.9558456 -0.95045882
-2.6530731 2.5217371 -0.61022788
-3.0307941 2.8807597 -0.46606886
-2.7803724 2.6427348 -0.21426156
-0 0 0
-2.957315 2.8109181 0.22789714
-3.1152017 2.9538324 -0.95102113
-2.6691597 2.5308955 -0.61322409
-3.0286403 2.8717549 -0.4652037
-2.7929897 2.6483111 -0.21498711
-0 0 0
-2.9625931 2.809129 0.22804214
-3.1224568 2.9535549 -0.95214581
-2.6461103 2.5029752 -0.60723335
-2.9719861 2.8112235 -0.45597947
-2.8131754 2.6610031 -0.21629323
-0 0 0
-2.9678783 2.807338 0.2281877
-3.1352689 2.958504 -0.9549619
-2.7032757 2.5508664 -0.61964399
-2.9133036 2.749053 -0.44646609
-2.8296196 2.6700871 -0.21730934
-0 0 0
-2.9637089 2.7966166 0.22760713
-3.1388414 2.9547136 -0.9549619
-2.6988792 2.54056 -0.61793214
-2.8751936 2.7065318 -0.44012421
-2.90095 2.730777 -0.22253381
-0 0 0
-2.9651883 2.7912471 0.22746158
-3.1331427 2.9422169 -0.95214581
-2.6888459 2.5249944 -0.61493593
-2.8445272 2.6711888 -0.43493548
-2.9743304 2.7930822 -0.22790383
-0 0 0
-2.9590898 2.7787702 0.22673602
-3.1386299 2.9438033 -0.9532727
-2.660413 2.4952712 -0.60808849
-2.857456 2.680083 -0.4366647
-2.9968598 2.8108335 -0.22949995
-0 0 0
-2.9664555 2.7823164 0.22717158
-3.1421845 2.9400086 -0.9532727
-2.693418 2.5201168 -0.61493593
-2.8531375 2.6695597 -0.43551153
-2.9926717 2.8001158 -0.22891995
-0 0 0
-2.9622257 2.7716289 0.22659102
-3.1511381 2.9341366 -0.95383501
-2.6581719 2.4751182 -0.6055215
-2.8501177 2.6538458 -0.43407035
-2.9880159 2.7822478 -0.22804883
-0 0 0
-2.9518015 2.7485273 0.2252849
-3.1565409 2.9320545 -0.95439738
-2.7044146 2.5120823 -0.61536348
-2.8533223 2.6504002 -0.43407035
-2.9818583 2.7697947 -0.22732328
-0 0 0
-2.9494071 2.7396514 0.22484934
-3.1675365 2.9351463 -0.95664889
-2.6472008 2.4529858 -0.60167021
-2.858418 2.6487067 -0.43435836
-2.9832985 2.7644253 -0.22717828
-2.7269468 2.5268812 0
-2.9469955 2.7307856 0.2244138
-3.1710806 2.9313169 -0.95664889
-2.6765499 2.4741774 -0.60766089
-2.8540192 2.6382282 -0.43320519
-2.9828169 2.7572875 -0.22688772
-2.7223539 2.5165181 0
-2.9502931 2.7272229 0.2244138
-3.1690218 2.9223206 -0.9549619
-2.7059541 2.4953015 -0.61365163
-2.8438931 2.6225021 -0.43118685
-2.9937873 2.7607274 -0.22746827
-2.7196584 2.5079391 0
-2.9421284 2.7130902 0.22354323
-3.1818988 2.9270887 -0.95777577
-2.6560752 2.4433737 -0.60167021
-2.8432562 2.6155651 -0.43061084
-2.9971209 2.757108 -0.22746827
-2.7092776 2.4923155 0
-2.933934 2.6989813 0.22267267
-3.1873035 2.9249582 -0.95833808
-2.6401083 2.4228024 -0.5973897
-2.8368881 2.6033852 -0.42916965
-3.0138533 2.7657845 -0.22848439
-2.7161257 2.4925628 0
-2.9391057 2.6971896 0.22281767
-3.192708 2.9228191 -0.95890045
-2.6543982 2.4300144 -0.5999583
-2.8381257 2.5982108 -0.42888165
-3.0229447 2.7674065 -0.22891995
-2.7210534 2.4910347 0
-2.9193635 2.6725812 0.221076
-3.2056165 2.9275248 -0.96171433
-2.6762843 2.444113 -0.6042372
-2.8450792 2.5982645 -0.42945766
-3.0186114 2.7567427 -0.22833939
-2.7144544 2.4789717 0
-2.9264243 2.6725528 0.221366
-3.2091515 2.9236493 -0.96171433
-2.6944168 2.4547079 -0.60766089
-2.8405688 2.5878575 -0.42830449
-3.0084925 2.7408419 -0.22732328
-2.7059011 2.4651706 0
-2.9085279 2.6497705 0.21976988
-3.2202034 2.9266052 -0.96396589
-2.6441884 2.4031079 -0.59567785
-2.8456059 2.5861611 -0.4285925
-3.0021892 2.7284682 -0.22659771
-2.7127335 2.4654033 0
-2.9098063 2.6445084 0.21962489
-3.2199759 2.919302 -0.96284121
-2.6642048 2.4154274 -0.59952915
-2.8487287 2.582721 -0.4285925
-2.9746828 2.696914 -0.22427548
-2.7079983 2.4551315 0
-2.8995223 2.6287715 0.21860877
-3.2348044 2.9256322 -0.9662174
-2.674737 2.4190943 -0.60124099
-2.8633606 2.58969 -0.43032283
-2.972156 2.688087 -0.22383992
-2.7109628 2.4518578 0
-2.9084799 2.6304967 0.21904433
-3.2345676 2.9183204 -0.96509272
-2.6643217 2.4038281 -0.59824646
-2.8607247 2.5810287 -0.42945766
-2.942606 2.6549044 -0.22137269
-2.6965346 2.4328918 0
-2.8904324 2.6078317 0.21744765
-3.2418649 2.9178064 -0.9662174
-2.6576858 2.3920221 -0.59610701
-2.8753724 2.5879486 -0.43118685
-2.8917408 2.6026809 -0.21730934
-2.7207451 2.4487779 0
-2.8974478 2.6078172 0.21773821
-3.2491732 2.9172854 -0.96734428
-2.6777635 2.4042425 -0.5999583
-2.8804276 2.5862055 -0.431476
-2.8310807 2.5418992 -0.21251988
-2.715956 2.438534 0
-2.8986576 2.6025734 0.21759266
-3.2640483 2.9235256 -0.97072047
-2.6634586 2.3855925 -0.59610701
-2.891257 2.5896256 -0.43262917
-2.7760868 2.4864707 -0.20816597
-2.7189004 2.4352505 0
-2.9018002 2.5990691 0.21759266
-3.2675784 2.9195795 -0.97072047
-2.6510251 2.3686893 -0.59268332
-2.8808808 2.5740654 -0.43061084
-2.7480865 2.4554136 -0.20584375
-2.7121396 2.423295 0
-2.8913805 2.5834467 0.2165771
-3.2711039 2.9156291 -0.97072047
-2.6596289 2.3706038 -0.59396595
-2.8666134 2.5550952 -0.42801648
-2.7374711 2.4399869 -0.20482764
-2.7208958 2.4252129 0
-2.8750987 2.5626583 0.21512543
-3.2880471 2.9271684 -0.9752236
-2.6457291 2.3553476 -0.59054387
-2.8372469 2.5258455 -0.4234038
-2.7311816 2.4314215 -0.20424707
-0 0 0
-2.8805318 2.5643797 0.21541598
-3.2877855 2.9198222 -0.97409886
-2.6389704 2.3436213 -0.58840281
-2.8074217 2.4932199 -0.41850311
-2.7380071 2.4315739 -0.20453763
-0 0 0
-2.8739157 2.5522718 0.21469042
-3.2951114 2.919214 -0.9752236
-2.6610188 2.3574569 -0.59268332
-2.8084981 2.4881122 -0.4182151
-2.7370496 2.4248142 -0.20424707
-0 0 0
-2.8828268 2.5539618 0.21512543
-3.3024478 2.9185989 -0.97635043
-0 0 -0
-2.8115025 2.4847169 -0.4182151
-2.7497182 2.430114 -0.20497319
-2.6219306 2.3171794 0
-2.8761773 2.5418744 0.21439986
-3.3135958 2.9213276 -0.97860193
-0 0 -0
-2.8048038 2.4727671 -0.41677392
-2.7487504 2.4233496 -0.20468263
-2.6637645 2.3484242 0
-2.8733974 2.5332403 0.21396431
-3.3113973 2.912286 -0.97691274
-0 0 -0
-2.7941923 2.4574177 -0.41475558
-2.7516768 2.4200265 -0.20468263
-2.721319 2.3933277 0
-2.8745067 2.5280523 0.21381931
-3.3263702 2.9183338 -0.98028898
-0 0 -0
-2.7991018 2.4557438 -0.41504359
-2.7545989 2.4166999 -0.20468263
-2.6948621 2.364291 0
-2.8736565 2.5211532 0.2135293
-3.3356321 2.9193342 -0.98197818
-2.6481647 2.3176651 -0.5866909
-2.7864964 2.4387326 -0.41273725
-2.7477422 2.4048147 -0.20395707
-2.7055504 2.3678889 0
-2.8727863 2.5142531 0.21323875
-3.3506377 2.9253249 -0.98535442
-2.6509633 2.3144636 -0.5866909
-2.7836015 2.4302654 -0.41187322
-2.7604311 2.4100361 -0.20468263
-2.6848841 2.3440788 0
-2.8660371 2.5022371 0.21251319
-3.3560915 2.9229479 -0.98591894
-2.6479561 2.3062057 -0.58540827
-2.786536 2.4269001 -0.41187322
-2.771179 2.4135251 -0.20526318
-2.7053828 2.356221 0
-2.871016 2.5004771 0.2126582
-3.3538649 2.9138894 -0.98422974
-2.6487973 2.301316 -0.58497906
-2.783607 2.4184408 -0.41100806
-2.7760527 2.4118776 -0.20540819
-0 0 0
-2.8681562 2.4918985 0.21222319
-3.3746624 2.9248106 -0.98929513
-2.6302431 2.2796245 -0.58027267
-2.7806618 2.409992 -0.4101429
-2.7770033 2.4068213 -0.20526318
-2.7090967 2.3479667 0
-2.8672342 2.485024 0.21193263
-3.3743534 2.9174104 -0.98817044
-2.6174603 2.2630131 -0.57684892
-2.7796624 2.4032502 -0.40956688
-2.7818732 2.4051619 -0.20540819
-0 0 0
-2.8623722 2.4747598 0.21135208
-3.3721018 2.9083509 -0.98648125
-2.6396284 2.2766116 -0.58112776
-2.7668951 2.3863757 -0.40726054
-2.7867432 2.4034941 -0.20555319
-2.704911 2.332916 0
-2.8535581 2.4611201 0.21048151
-3.3813937 2.9092474 -0.98817044
-2.6423774 2.2734203 -0.58112776
-2.7619338 2.3762832 -0.40610737
-2.766016 2.3797953 -0.20381208
-2.7037861 2.3262546 0
-2.8506186 2.4525847 0.21004596
-3.3945453 2.9134321 -0.99098432
-2.6470761 2.2719026 -0.58155698
-0 0 -0
-2.7491677 2.3595247 -0.20236039
-2.694742 2.3128128 0
-2.8594973 2.4542172 0.21048151
-3.3961275 2.9076712 -0.99041986
-2.6361673 2.257014 -0.57856077
-2.7539132 2.3578248 -0.40408903
-2.7382057 2.3443766 -0.20134485
-2.7093999 2.3197138 0
-2.8624606 2.4507601 0.21048151
-3.3938475 2.8986197 -0.98873281
-2.6408427 2.2554927 -0.57898831
-2.7528303 2.3511393 -0.40351301
-2.7192998 2.3225014 -0.19974817
-2.6825144 2.2910838 0
-2.8535607 2.437171 0.2096104
-3.4050839 2.901108 -0.99098432
-2.6396618 2.2489738 -0.57813323
-2.7517278 2.3444531 -0.40293586
-2.7082567 2.3074162 -0.19873205
-2.695184 2.2962782 0
-2.8466158 2.425297 0.20888485
-3.4163313 2.9035735 -0.99323589
-2.6345532 2.2391329 -0.57642138
-2.7466753 2.3344264 -0.40178269
-2.7328241 2.3226542 -0.20032872
-2.6622658 2.262686 0
-2.8495443 2.4218557 0.20888485
-3.4295256 2.9076579 -0.99604976
-2.6431253 2.2409232 -0.57770401
-2.7435811 2.3260927 -0.40091866
-2.7277007 2.312629 -0.19974817
-0 0 0
-2.8504884 2.4167321 0.20873985
-3.4388585 2.9084358 -0.99773896
-2.643873 2.2360718 -0.57727647
-2.7384903 2.3160951 -0.39976549
-2.7344573 2.3126841 -0.20003816
-2.6736894 2.2612891 0
-2.8434882 2.4048977 0.20801428
-3.4501386 2.9108324 -0.99999052
-2.6348042 2.2229466 -0.57470948
-2.7472117 2.3177831 -0.40062952
-2.765058 2.3328397 -0.2020704
-2.636637 2.2244928 0
-2.8463922 2.4014602 0.20801428
-3.4458771 2.9001169 -0.99773896
-2.6237381 2.2081888 -0.57171333
-2.7341793 2.3011382 -0.39832318
-2.7778132 2.3378615 -0.20279595
-2.6552522 2.2347116 0
-2.8472979 2.3963411 0.20786873
-3.4493787 2.8959513 -0.99773896
-2.6303403 2.2083213 -0.57257009
-2.7429023 2.3028235 -0.39918834
-2.7846124 2.3378417 -0.20308596
-2.6699057 2.2415388 0
-2.8482032 2.3912299 0.20772372
-3.4530728 2.8954978 -0.99830133
-2.6316741 2.2067318 -0.57257009
-2.744293 2.3011661 -0.39918834
-2.7919993 2.3411694 -0.20352152
-2.6692672 2.2382548 0
-2.8476582 2.3878405 0.20757873
-3.4624178 2.8962157 -0.99999052
-2.6481161 2.215075 -0.57556462
-2.7371538 2.2895525 -0.39774716
-2.7808802 2.3261285 -0.20250596
-2.6879394 2.2483861 0
-2.8405776 2.3760638 0.20685317
-3.4600601 2.8871446 -0.99830133
-2.6448832 2.2069442 -0.57428193
-0 0 -0
-2.7996421 2.3360784 -0.20366651
-2.7026398 2.2551377 0
-2.8394525 2.369297 0.20656261
-2.6357059 2.1938901 -0.57171333
-2.7327411 2.2746594 -0.39630598
-2.7785051 2.312752 -0.2019254
-2.6533604 2.208585 0
-2.8503017 2.3725138 0.20714317
-2.630455 2.1841443 -0.57000142
-2.7315037 2.268048 -0.39572883
-2.7133307 2.2529583 -0.19699094
-2.6540267 2.2037163 0
-2.833179 2.3524718 0.20569205
-2.6350672 2.1826 -0.57042897
-2.7362399 2.2664003 -0.39601797
-2.698035 2.2347555 -0.19568425
-2.6787362 2.2187707 0
-2.8360193 2.3490467 0.20569205
-2.6377027 2.1794145 -0.57042897
-2.7409685 2.2647386 -0.39630598
-2.7007332 2.2314939 -0.19568425
-0 0 0
-2.8208294 2.3307238 0.20438594
-2.6264734 2.1648014 -0.56743443
-2.7337253 2.253201 -0.3948648
-2.7034276 2.228229 -0.19568425
-0 0 0
-2.8316641 2.3339245 0.2049665
-2.63503 2.1665125 -0.56871712
-2.7324464 2.2466078 -0.39428765
-2.7021077 2.2216635 -0.19539426
-0 0 0
-2.8324692 2.3288462 0.20482093
-2.6455855 2.1698389 -0.57042897
-2.7431583 2.2498655 -0.39544082
-2.700768 2.2150981 -0.1951037
-2.6693022 2.1892908 0
-2.8192158 2.3122458 0.20366038
-2.6303258 2.1520123 -0.56657767
-2.7378676 2.2399981 -0.39428765
-2.7034426 2.211833 -0.1951037
-2.6941044 2.2041929 0
-2.826026 2.3121252 0.20395038
-2.6388924 2.1537035 -0.56786203
-2.7345586 2.2317805 -0.39342248
-2.7141654 2.2151368 -0.19568425
-2.6907151 2.195998 0
-2.8227763 2.3037784 0.20351483
-2.6414928 2.1505134 -0.56786203
-2.7372534 2.2284746 -0.39342248
-2.7349818 2.2266252 -0.19699094
-2.6772206 2.1796002 0
-2.8154845 2.2921648 0.20278926
-2.6201768 2.1279001 -0.56272638
-2.7319207 2.2186496 -0.39227045
-2.7255638 2.2134871 -0.19611982
-2.6697533 2.1681621 0
-2.8243053 2.2936771 0.20322482
-2.6347179 2.1344311 -0.56529504
-2.7345994 2.2153471 -0.39227045
-2.7302535 2.2118263 -0.19626482
-2.6723711 2.1649346 0
-2.8230326 2.2869883 0.20293427
-2.6293087 2.1247921 -0.56358314
-2.7312372 2.2071624 -0.39140528
-2.7389891 2.2134268 -0.19670038
-2.6527171 2.1437089 0
-2.825794 2.2835755 0.20293427
-2.6398683 2.128058 -0.56529504
-2.7278593 2.1989894 -0.39054012
-2.7457116 2.2133806 -0.19699094
-2.6168146 2.1094737 0
-2.8204591 2.2736363 0.2023537
-2.6324294 2.1168187 -0.56315398
-2.7426119 2.2054198 -0.39227045
-2.7544529 2.2149415 -0.19742593
-2.6639762 2.1421864 0
-2.8232043 2.2702267 0.2023537
-2.6289837 2.1088221 -0.56187129
-2.7372043 2.1956306 -0.39111727
-2.7510524 2.2067387 -0.19699094
-2.6300251 2.1096575 0
-2.8218956 2.2635651 0.20206371
-2.6360767 2.1040626 -0.56229883
-2.7384555 2.1857793 -0.39054012
-2.7644928 2.2065618 -0.19757093
-2.6859641 2.1438818 0
-2.8293862 2.2583585 0.20220871
-2.6466501 2.1072719 -0.56401074
-2.7289579 2.1728055 -0.38881093
-2.7793577 2.212934 -0.19844206
-2.6396892 2.1017294 0
-2.8219509 2.2468469 0.20148315
-2.6532109 2.1072624 -0.56486583
-2.7275264 2.1662862 -0.38823378
-2.7922013 2.217653 -0.19916761
-2.6789057 2.1276698 0
-2.8246636 2.2434356 0.20148315
-2.6444297 2.0976839 -0.56272638
-2.7268105 2.1630321 -0.38794577
-2.752826 2.1836689 -0.19626482
-2.6740797 2.1212037 0
-2.8158419 2.2336559 0.20075759
-2.636899 2.086524 -0.56058699
-2.7253616 2.1565228 -0.38736862
-2.7330537 2.1626093 -0.19466871
-2.6827576 2.1228111 0
-2.8226101 2.2334735 0.20104758
-2.6434443 2.0865142 -0.56144208
-2.7320297 2.1564362 -0.38794577
-2.713227 2.1415949 -0.19307204
-0 0 0
-2.8191938 2.2252362 0.20061259
-2.6419334 2.0801456 -0.56058699
-2.7305651 2.1499302 -0.38736862
-2.7198997 2.1415329 -0.19336259
-0 0 0
-2.8116667 2.2137864 0.19988647
-2.6444452 2.0769517 -0.56058699
-2.7250321 2.1402452 -0.38621658
-2.7572231 2.1655281 -0.19582982
-0 0 0
-2.8204722 2.2152038 0.20032203
-2.6469526 2.073755 -0.56058699
-0 0 -0
-2.800739 2.1942389 -0.19873205
-0 0 0
-2.810878 2.2021823 0.19945148
-2.6393452 2.0626531 -0.55844754
-2.7363043 2.138427 -0.38708061
-2.8197675 2.2036536 -0.19989316
-2.7078409 2.1161828 0
-2.8114836 2.1971796 0.19930592
-2.6357598 2.0547261 -0.55716324
-2.7205293 2.1208088 -0.38448626
-2.8613672 2.2306001 -0.20265095
-2.7083454 2.1113107 0
-2.8223336 2.2001712 0.19988647
-2.6321592 2.0468109 -0.55587894
-2.731257 2.1238708 -0.38563943
-2.8456011 2.2127867 -0.20134485
-2.7047293 2.1032424 0
-2.8208914 2.193572 0.19959648
-2.6346304 2.0436289 -0.55587894
-2.7297378 2.1174016 -0.38506341
-2.862639 2.2204905 -0.20236039
-2.6825922 2.0808318 0
-2.8132761 2.1822004 0.19887091
-2.6431906 2.0451581 -0.55716324
-2.7241118 2.1077707 -0.38391024
-2.8550465 2.2090807 -0.20163484
-2.6604047 2.0584776 0
-2.8076904 2.1724391 0.19829036
-2.6436298 2.040396 -0.55673569
-2.7246032 2.1028926 -0.3836211
-2.8618317 2.2088077 -0.2019254
-2.652591 2.0473125 0
-2.8103132 2.169045 0.19829036
-2.6318529 2.0262365 -0.55373949
-2.7189443 2.0932875 -0.38246793
-2.8603766 2.2021749 -0.20163484
-2.6365054 2.0298188 0
-2.8088102 2.1624744 0.19799981
-2.6180115 2.0105467 -0.55031574
-2.7235289 2.0915806 -0.38275707
-2.8486075 2.1876369 -0.20061873
-2.6513364 2.0361392 0
-2.8217313 2.1669967 0.19872591
-0 0 -0
-2.7260542 2.0882881 -0.38275707
-2.8429978 2.1778727 -0.20003816
-2.6104114 1.9997003 0
-2.8181574 2.1588438 0.19829036
-0 0 -0
-2.7326818 2.0881305 -0.38333309
-2.8394392 2.1697073 -0.19960317
-2.6107597 1.994966 0
-2.8207638 2.155437 0.19829036
-2.5905766 1.9745901 -0.54304075
-2.7310927 2.0816944 -0.38275707
-2.8461878 2.1694221 -0.19989316
-2.6276588 2.0028551 0
-2.8151 2.1457262 0.1977098
-0 0 -0
-2.7212484 2.0689971 -0.38102674
-2.8426077 2.161268 -0.19945817
-2.6300771 1.9996785 0
-2.8218236 2.1454656 0.19799981
-0 0 -0
-2.7299309 2.0703979 -0.38189191
-2.8369355 2.1515508 -0.1988776
-2.6179743 1.9854891 0
-2.8078508 2.1294928 0.19683869
-0 0 -0
-2.7303698 2.0655389 -0.3816039
-2.8457441 2.1528199 -0.19931261
-2.6286733 1.9886049 0
-2.8042109 2.1214001 0.19640368
-0 0 -0
-2.7225425 2.0544498 -0.38016272
-2.8379743 2.1415555 -0.19858705
-2.6331496 1.9869933 0
-2.8109167 2.1211374 0.19669369
-0 0 -0
-2.729152 2.0542667 -0.38073874
-2.838486 2.1365635 -0.19844206
-2.6397111 1.9869435 0
-2.8093295 2.1146171 0.19640368
-0 0 -0
-2.7241883 2.0479531 -0.37987357
-2.8418512 2.1364083 -0.19858705
-2.6492321 1.9916037 0
-2.8085315 2.1113596 0.19625868
-0 0 -0
-2.7287362 2.0462162 -0.38016272
-2.834038 2.1251798 -0.19786149
-0 0 0
-2.8089957 2.106401 0.19611312
-0 0 -0
-2.7208447 2.035167 -0.3787204
-2.8053904 2.0984066 -0.19568425
-0 0 0
-2.8094599 2.1014504 0.19596812
-2.58603 1.9294584 -0.5379051
-2.7212307 2.0303328 -0.37843239
-2.7516985 2.0530651 -0.19176592
-0 0 0
-2.8078358 2.0949495 0.19567813
-0 0 -0
-0 0 -0
-2.7416742 2.0404334 -0.19089535
-0 0 0
-2.8061922 2.0884495 0.19538757
-2.5989301 1.9293238 -0.539617
-2.7282043 2.025291 -0.3787204
-2.7274466 2.0247285 -0.18973424
-0 0 0
-2.8066292 2.0835099 0.19524257
-0 0 -0
-2.720258 2.0142984 -0.37727922
-2.7215378 2.0152462 -0.18915369
-0 0 0
-2.8049641 2.0770216 0.19495201
-0 0 -0
-2.718533 2.0079396 -0.3767032
-2.7072499 1.9996058 -0.18799257
-0 0 0
-2.8137441 2.0782638 0.19538757
-0 0 -0
-2.7251179 2.0077188 -0.37727922
-2.7389479 2.0179079 -0.19002424
-0 0 0
-2.8078852 2.0686972 0.19480701
-0 0 -0
-2.7192049 1.9982979 -0.37612605
-2.7078826 1.9899772 -0.18770202
-0 0 0
-2.8061991 2.0622284 0.19451702
-0 0 -0
-2.7299619 2.0011272 -0.37727922
-2.7228634 1.995924 -0.18857312
-0 0 0
-2.7898295 2.0450118 0.1932109
-0 0 -0
-0 0 -0
-2.7336633 1.9987671 -0.18915369
-0 0 0
-2.8006806 2.0477681 0.1937909
-0 0 -0
-2.7243431 1.9869052 -0.37583804
-2.7423687 2.0000517 -0.18958868
-0 0 0
-2.8073559 2.0474477 0.19408146
-0 0 -0
-0 0 -0
-2.7468905 1.9982696 -0.18973424
-0 0 0
-2.8077285 2.042527 0.19393645
-0 0 -0
-0 0 -0
-2.7787428 2.0163109 -0.19176592
-0 0 0
-2.7933695 2.0269244 0.19277534
-0 0 -0
-2.7168586 1.9663998 -0.37381971
-2.7938027 2.02209 -0.19263647
-0 0 0
-2.7894998 2.0189757 0.19233978
-0 0 -0
-2.7234309 1.9661463 -0.37439686
-2.827848 2.0415289 -0.1948137
-0 0 0
-2.7898326 2.0140841 0.19219477
-0 0 -0
-2.7237077 1.9613442 -0.37410885
-2.821878 2.0320368 -0.19423315
-0 0 0
-2.7796082 2.0015981 0.19132367
-0 0 -0
-2.7260756 1.9580517 -0.37410885
-2.8433235 2.0422671 -0.19553927
-0 0 0
-2.8010249 2.0118854 0.19263034
-0 0 -0
-2.7221298 1.9502358 -0.37324369
-2.8373399 2.0327766 -0.1949587
-0 0 0
-2.7865555 1.9963928 0.19146922
-0 0 -0
-2.7265866 1.9484476 -0.3735317
-2.8419061 2.0308561 -0.1951037
-0 0 0
-2.7889657 1.9930243 0.19146922
-0 0 -0
-2.7235568 1.9437978 -0.37295568
-2.8410196 2.0276308 -0.1949587
-0 0 0
-2.7838223 1.9868091 0.19103366
-0 0 -0
-2.7216852 1.9375026 -0.37237853
-2.8371148 2.0196743 -0.19452314
-0 0 0
-2.8031557 1.9954995 0.19219477
-0 0 -0
-2.7198105 1.9312205 -0.37180251
-2.8395531 2.0162446 -0.19452314
-0 0 0
-2.7928488 1.9830818 0.19132367
-0 0 -0
-2.7242508 1.9294262 -0.37209052
-2.8504694 2.0188193 -0.1951037
-0 0 0
-2.7931244 1.9782053 0.19117866
-0 0 -0
-2.7265801 1.9261332 -0.37209052
-2.8359363 2.0033853 -0.19394314
-0 0 0
-2.7785342 1.962835 0.19001755
-0 0 -0
-2.7310178 1.9243256 -0.37237853
-2.8298585 1.9939705 -0.19336259
-0 0 0
-2.7936525 1.9684592 0.19088866
-0 0 -0
-0 0 -0
-2.8407695 1.9965262 -0.19394314
-0 0 0
-2.8024008 1.9695603 0.19132367
-0 0 -0
-0 0 -0
-2.8367946 1.9886161 -0.19350758
-0 0 0
-2.7898905 1.955736 0.19030811
-0 0 -0
-0 0 -0
-2.8328047 1.9807186 -0.19307204
-0 0 0
-2.7922516 1.9523636 0.19030811
-0 0 -0
-2.729681 1.9037071 -0.37093735
-2.8394628 1.9802699 -0.19336259
-0 0 0
-2.7924795 1.9475033 0.19016311
-0 0 -0
-0 0 -0
-2.8290505 1.9679317 -0.19249147
-0 0 0
-2.7884293 1.9396749 0.18972754
-0 0 -0
-0 0 -0
-2.8250196 1.9600668 -0.19205591
-0 0 0
-2.7971776 1.9407493 0.19016311
-0 0 -0
-2.7238069 1.8849714 -0.36920816
-2.8359327 1.9625665 -0.19263647
-0 0 0
-2.7866962 1.9284931 0.18929198
-0 0 -0
-2.7175679 1.8758017 -0.36805499
-2.8254752 1.9502847 -0.19176592
-0 0 0
-2.7997148 1.9325036 0.19001755
-0 0 -0
-2.7262175 1.8769126 -0.36891901
-2.8149922 1.9380311 -0.19089535
-0 0 0
-2.7892103 1.9202811 0.189147
-0 0 -0
-2.7306218 1.8750855 -0.36920816
-2.8237519 1.9390368 -0.19133036
-0 0 0
-2.7936685 1.9183789 0.18929198
-0 0 -0
-2.7286134 1.8688588 -0.36863101
-2.8282428 1.937096 -0.19147591
-0 0 0
-2.789551 1.9105957 0.18885644
-0 0 -0
-2.7203012 1.8535237 -0.36690181
-2.7921138 1.9024545 -0.18871813
-0 0 0
-2.7855706 1.8979962 0.18827587
-0 0 -0
-2.7203934 1.8487774 -0.36661267
-2.7815199 1.8903189 -0.18784757
-0 0 0
-2.7835679 1.8917108 0.18798587
-0 0 -0
-2.7193718 1.8456824 -0.36632466
-2.7912614 1.8944751 -0.18842812
-0 0 0
-2.797606 1.8987813 0.18885644
-0 0 -0
-2.7215998 1.8423952 -0.36632466
-2.7935483 1.891101 -0.18842812
-0 0 0
-2.7912912 1.889573 0.18827587
-0 0 -0
-2.7173994 1.8347675 -0.36546063
-2.774292 1.873181 -0.18697645
-0 0 0
-2.7785039 1.8760247 0.18726031
-0 0 -0
-2.723901 1.8343694 -0.36603665
-2.7744002 1.8683773 -0.18683144
-0 0 0
-2.7893898 1.8784719 0.18784088
-0 0 -0
-2.7196722 1.826749 -0.36517149
-2.7529261 1.849085 -0.18523477
-0 0 0
-2.7895026 1.8736527 0.18769588
-0 0 -0
-2.7197306 1.8220232 -0.36488348
-2.7400532 1.8356378 -0.18421923
-0 0 0
-2.7917645 1.8702807 0.18769588
-0 0 -0
-0 0 -0
-2.7163429 1.8150022 -0.18247755
-0 0 0
-2.7853801 1.8611315 0.18711531
-0 0 -0
-0 0 -0
-2.712045 1.8073944 -0.18204199
-0 0 0
-2.787627 1.8577646 0.18711531
-0 0 -0
-0 0 -0
-2.725045 1.8113066 -0.18276754
-0 0 0
-2.7812138 1.8486414 0.18653476
-0 0 -0
-0 0 -0
-2.7142413 1.7994007 -0.18189698
-0 0 0
-2.7899363 1.8495827 0.18696976
-0 0 -0
-0 0 -0
-2.7120743 1.7932507 -0.18160643
-0 0 0
-2.7900038 1.8447784 0.18682475
-0 0 -0
-0 0 -0
-2.7185817 1.7928362 -0.18189698
-0 0 0
-2.7900636 1.8399768 0.18667977
-0 0 -0
-0 0 -0
-2.7098935 1.7824118 -0.18117143
-0 0 0
-2.792285 1.8366041 0.18667977
-0 0 -0
-0 0 -0
-2.7076955 1.7762828 -0.18088087
-0 0 0
-2.7901525 1.8303756 0.18638921
-0 0 -0
-0 0 -0
-2.7315879 1.7872392 -0.18233255
-0 0 0
-2.7880175 1.8241602 0.1860992
-2.6956356 1.7590681 -0.53662246
-2.7220545 1.7763082 -0.36228913
-2.7250412 1.7782571 -0.18175198
-0 0 0
-2.7923937 1.8222089 0.1862442
-0 0 -0
-0 0 -0
-2.7206521 1.7707095 -0.18131644
-0 0 0
-2.7945933 1.8188335 0.1862442
-0 0 -0
-0 0 -0
-2.7184265 1.7645886 -0.18102588
-0 0 0
-2.8033297 1.8197011 0.18667977
-2.5770144 1.6683726 -0.51180118
-0 0 -0
-2.7118402 1.7556595 -0.18044586
-0 0 0
-2.7946224 1.8092531 0.1859542
-0 0 -0
-0 0 -0
-2.7205021 1.756606 -0.18088087
-0 0 0
-2.7902555 1.8016452 0.18551864
-2.6943753 1.7374305 -0.53448302
-0 0 -0
-2.7368515 1.7648207 -0.18189698
-0 0 0
-2.7935252 1.801366 0.18566364
-2.5928359 1.6675221 -0.51394057
-0 0 -0
-2.7280567 1.7544861 -0.18117143
-0 0 0
-2.7935164 1.796585 0.18551864
-0 0 -0
-0 0 -0
-2.7345448 1.7539916 -0.18146142
-0 0 0
-2.7956851 1.7932082 0.18551864
-2.6595671 1.7013671 -0.52635121
-0 0 -0
-2.741044 1.7534894 -0.18175198
-0 0 0
-2.7934763 1.7870311 0.18522865
-2.5858829 1.6498305 -0.51137364
-0 0 -0
-2.7475376 1.7529685 -0.18204199
-0 0 0
-2.7956336 1.7836545 0.18522865
-2.5835388 1.6439459 -0.51051688
-0 0 -0
-2.7584229 1.7552273 -0.18262255
-0 0 0
-2.8021669 1.7830623 0.18551864
-2.6223679 1.6642052 -0.51779187
-0 0 -0
-2.7627335 1.753284 -0.18276754
-0 0 0
-2.7933519 1.772715 0.18479308
-0 0 -0
-0 0 -0
-0 0 -0
-0 0 0
-2.7845156 1.7623914 0.18406753
-2.6176989 1.6523821 -0.51608002
-0 0 -0
-2.7713614 1.7493792 -0.1830581
-0 0 0
-2.8020179 1.7687308 0.18508309
-0 0 -0
-2.7287822 1.7178942 -0.35940677
-2.7668741 1.7418748 -0.18262255
-0 0 0
-2.8041532 1.7653437 0.18508309
-0 0 -0
-2.7264707 1.7118424 -0.35882962
