# .PCD v0.7 - Point Cloud Data file format
VERSION 0.7
FIELDS x y z
SIZE 4 4 4
TYPE F F F
COUNT 1 1 1
WIDTH 1529
HEIGHT 1
VIEWPOINT 0 0 0 1 0 0 0
POINTS 1529
DATA ascii
0.70112455 9.4951391 0
0.69174558 9.3681231 0.52469218
0.40923527 5.6348643 -0.94188648
0.58314544 8.0294781 -0.89733213
0.68099833 9.3768387 -0.52513385
0.69078171 9.511549 0
0.68117845 9.3793182 0.52527273
0.40260902 5.6379128 -0.94231403
0.57325894 8.0275993 -0.89704412
0.66948289 9.3750658 -0.52498883
0.67891794 9.5071898 0
0.66891962 9.367178 0.52454716
0.39525697 5.6307101 -0.94102973
0.5635587 8.028286 -0.89704412
0.65760839 9.3680887 -0.5245533
0.6657899 9.4846411 0
0.6592381 9.3913059 0.52585328
0.38986635 5.6516714 -0.94445348
0.55492532 8.0444384 -0.89877337
0.64610976 9.3662872 -0.52440828
0.65719402 9.5269699 0
0.64789009 9.3920956 0.52585328
0.38216946 5.6393352 -0.94231403
0.54485536 8.0399466 -0.89819729
0.63461643 9.3644705 -0.52426332
0.64603436 9.5329542 0
0.63654107 9.3928709 0.52585328
0.37433264 5.6244292 -0.9397471
0.53531188 8.0431776 -0.8984853
0.62261063 9.3548603 -0.52368271
0.63451517 9.5337286 0
0.62501812 9.3910332 0.52570772
0.36854029 5.6402421 -0.94231403
0.52592981 8.048975 -0.89906138
0.61028975 9.3400431 -0.52281165
0.62214679 9.5215054 0
0.6148566 9.409935 0.52672386
0.36123186 5.6329956 -0.94102973
0.51570773 8.0418692 -0.89819729
0.60116595 9.3744917 -0.52469885
0.61197382 9.5430279 0
0.60431737 9.4236336 0.52744937
0.35474792 5.638557 -0.94188648
0.50599033 8.0424862 -0.89819729
0.50222701 7.9826694 -0.44676301
0.5999521 9.5359659 0
0.59211469 9.4113932 0.52672386
0.34761807 5.633852 -0.94102973
0.49674961 8.0508289 -0.89906138
0.49178055 7.9702954 -0.44603688
0.58923054 9.5496693 0
0.58154237 9.4250669 0.52744937
0.34096527 5.6368279 -0.94145727
0.48702139 8.0514231 -0.89906138
0.48293453 7.9838595 -0.44676301
0.5778482 9.552969 0
0.56952602 9.4153881 0.52686882
0.33430636 5.6398058 -0.94188648
0.47652736 8.0390987 -0.8976202
0.47451672 8.0051785 -0.44792357
0.56615102 9.5510654 0
0.55845678 9.4212618 0.52715939
0.33014739 5.6271958 -0.9397471
0.47136775 8.0342255 -0.89704412
0.47333282 8.0677195 -0.4514069
0.56038064 9.551405 0
0.55382967 9.4397478 0.52817494
0.32349488 5.6301508 -0.94017464
0.46047267 8.0141315 -0.89473778
0.46701261 8.1279545 -0.45474526
0.54854089 9.5468845 0
0.5422743 9.4378185 0.52802998
0.31712377 5.6382194 -0.94145727
0.44977194 7.996603 -0.89271951
0.46098489 8.195961 -0.45851859
0.53890473 9.5813169 0
0.53101587 9.4410591 0.52817494
0.310029 5.6334767 -0.94060218
0.43996727 7.9945607 -0.89243144
0.45308006 8.23283 -0.46055028
0.52618313 9.5611725 0
0.52003634 9.4494791 0.52861053
0.30280778 5.6261549 -0.93931788
0.43002883 7.9899158 -0.89185435
0.44187522 8.210022 -0.45924416
0.51449019 9.5592051 0
0.50833905 9.4449167 0.52832049
0.29520053 5.6111403 -0.93675089
0.42037424 7.9904294 -0.89185435
0.42867833 8.1482725 -0.45576081
0.50307602 9.5624161 0
0.49733552 9.4533014 0.52875549
0.28881577 5.6191864 -0.93803519
0.41071907 7.9909315 -0.89185435
0.4160316 8.0942917 -0.45271301
0.49218914 9.5760098 0
0.48617971 9.4590902 0.52904606
0.28228298 5.6246543 -0.93889034
0.40093377 7.9888415 -0.89156634
0.40091154 7.9883986 -0.44676301
0.48074836 9.5791941 0
0.47474989 9.459671 0.52904606
0.27523556 5.6198683 -0.93803519
0.392546 8.0151587 -0.89444977
0.38820824 7.926589 -0.44327965
0.46980983 9.592762 0
0.46382779 9.4706192 0.52962661
0.26770976 5.6048069 -0.93546659
0.3822436 8.0027018 -0.89300752
0.37677053 7.8881173 -0.44110242
0.4584671 9.598527 0
0.45275563 9.4789515 0.5300616
0.26189226 5.6256404 -0.93889034
0.37269425 8.0057497 -0.8932966
0.36397681 7.8184924 -0.43718407
0.44723198 9.6068754 0
0.44118112 9.4768982 0.52991664
0.25497842 5.6233907 -0.93846273
0.36290309 8.003603 -0.89300752
0.35299945 7.7851834 -0.4352974
0.43597695 9.615201 0
0.43043622 9.4930038 0.53078777
0.24818346 5.6236949 -0.93846273
0.35346034 8.0092077 -0.89358461
0.3430196 7.7726274 -0.43457183
0.42367029 9.6001263 0
0.41896549 9.4935169 0.53078777
0.24127817 5.6214285 -0.93803519
0.34389332 8.0122108 -0.89387268
0.33284757 7.7548614 -0.43355572
0.41407868 9.6474276 0
0.40771675 9.4992037 0.53107774
0.2344856 5.621716 -0.93803519
0.33431956 8.0152025 -0.89416069
0.32326072 7.7500706 -0.43326572
0.40231302 9.6453228 0
0.39667168 9.5100746 0.53165829
0.22779647 5.6245575 -0.93846273
0.32432079 8.0078545 -0.8932966
0.31336999 7.7374663 -0.43253961
0.39044741 9.6405964 0
0.38518032 9.5105467 0.53165829
0.22110081 5.6273913 -0.93889034
0.31505081 8.0185785 -0.89444977
0.30422476 7.7430372 -0.43283018
0.37900287 9.6462669 0
0.37389264 9.5162029 0.53194886
0.2140079 5.6199565 -0.93760598
0.30546004 8.0215359 -0.89473778
0.29486859 7.7433991 -0.43283018
0.36675259 9.6311092 0
0.36219594 9.5114498 0.53165829
0.20759545 5.6304722 -0.93931788
0.29605296 8.0296459 -0.89560187
0.28465042 7.7203822 -0.43152407
0.35569054 9.6471548 0
0.35118157 9.5248613 0.53238386
0.20097512 5.6358547 -0.94017464
0.28644294 8.0325899 -0.89589095
0.27393252 7.681766 -0.42934683
0.34412622 9.650176 0
0.33995026 9.5330715 0.53281939
0.19398822 5.6309571 -0.93931788
0.2766476 8.0303373 -0.89560187
0.26232451 7.6145763 -0.42557347
0.3322866 9.6453876 0
0.3282524 9.5282869 0.53252941
0.18718415 5.6311874 -0.93931788
0.26694432 8.0306664 -0.89560187
0.25001618 7.5214052 -0.420349
0.32045868 9.6405754 0
0.31734312 9.5468483 0.53354496
0.18021563 5.6262832 -0.93846273
0.25732368 8.0335751 -0.89589095
0.23926407 7.4697595 -0.41744623
0.2694023 8.4106665 0
0.30580738 9.547224 0.53354496
0.17357524 5.6316233 -0.93931788
0.24817401 8.0519695 -0.89790821
0.22615582 7.3375926 -0.41004452
0.25923944 8.4109859 0
0.29443148 9.5527859 0.53383553
0.1667704 5.6318293 -0.93931788
0.23813838 8.0419226 -0.89675504
0.21398263 7.2261839 -0.40380394
0.24853721 8.3930912 0
0.28311908 9.5609198 0.53427052
0.15996531 5.6320267 -0.93931788
0.22827438 8.0370388 -0.89617896
0.20443946 7.1978631 -0.40220729
0.23676993 8.3361483 0
0.27149269 9.5586596 0.53412551
0.15295085 5.6245246 -0.93803519
0.20007259 7.3573518 -0.82036221
0.19666028 7.2318697 -0.40409395
0.22606052 8.3130169 0
0.26008412 9.5641804 0.53441608
0.14962092 5.6271796 -0.93846273
0.19418396 7.3031769 -0.81430835
0.19146231 7.2008171 -0.40235227
0.22013897 8.2793341 0
0.25451285 9.5721216 0.53485107
0.14295159 5.632484 -0.93931788
0.18476881 7.280138 -0.81171399
0.18230009 7.1828671 -0.40133673
0.20987073 8.269187 0
0.24321033 9.5828123 0.53543162
0.13552555 5.6069942 -0.93503904
0.17553449 7.2622533 -0.80969572
0.17318128 7.164896 -0.40032059
0.19868422 8.2200089 0
0.2316312 9.5830994 0.53543162
0.12910396 5.6225476 -0.93760598
0.16658117 7.2547002 -0.80883056
0.16434477 7.1573043 -0.39988506
0.18701933 8.1447935 0
0.22029032 9.5937634 0.53601223
0.12247765 5.6304011 -0.93889034
0.15770277 7.2497296 -0.80825448
0.15575291 7.1600928 -0.40003005
0.17700796 8.1372051 0
0.20869797 9.5940218 0.53601223
0.11541074 5.6177149 -0.93675089
0.14857084 7.2318106 -0.80623621
0.14544687 7.0797482 -0.39553115
0.16557206 8.0593596 0
0.19747898 9.6124554 0.53702831
0.1087219 5.6229787 -0.93760598
0.1397326 7.2268181 -0.80566013
0.13689226 7.0799189 -0.39553115
0.15613574 8.0751705 0
0.18641646 9.6412573 0.53862447
0.10188107 5.6205416 -0.93717843
0.13071895 7.2114601 -0.80392987
0.12843174 7.0852799 -0.39582169
0.14505769 8.0024958 0
0.17467266 9.6362839 0.53833443
0.088459417 5.6310382 -0.93889034
0.11288511 7.1858983 -0.8010475
0.11110483 7.0725718 -0.39509559
0.12653595 8.0548658 0
0.15297669 9.737998 0.54399449
0.081580974 5.6260123 -0.93803519
0.1040148 7.1731009 -0.79960626
0.10240823 7.0623083 -0.39451504
0.11635032 8.0237865 0
0.14121011 9.7381754 0.54399449
0.074953541 5.6389389 -0.94017464
0.094969258 7.1447701 -0.79643482
0.09435831 7.0988069 -0.39654726
0.10655125 8.0161123 0
0.12933968 9.7305412 0.5435589
0.06807784 5.6338863 -0.93931788
0.086054891 7.1216054 -0.79384047
0.08556091 7.0807252 -0.39553115
0.096362144 7.9745979 0
0.11761362 9.7332964 0.54370445
0.061437886 5.6493711 -0.94188648
0.077084139 7.0880842 -0.79009295
0.076863922 7.0678344 -0.39480558
0 0 0
0.10590921 9.7386236 0.54399449
0.054586794 5.6468668 -0.94145727
0.068369463 7.0726495 -0.78836262
0.068373956 7.0731139 -0.39509559
0 0 0
0.094091721 9.733552 0.54370445
0.047872242 5.659771 -0.94359839
0.059714135 7.0597973 -0.78692144
0.059959337 7.0887866 -0.39596671
0.067850597 8.0217428 0
0.082330555 9.7336588 0.54370445
0.041052073 5.6623893 -0.94402593
0.051033694 7.0391731 -0.7846151
0.051525693 7.1070347 -0.39698225
0.057705019 7.9593606 0
0.070663445 9.7467403 0.54443002
0.034210153 5.6624346 -0.94402593
0.042496972 7.0340614 -0.78403908
0.043314956 7.1694536 -0.40046561
0.048229136 7.9828444 0
0.059011947 9.7676067 0.54559112
0.027392972 5.6676011 -0.94488102
0.033922669 7.0185938 -0.78230983
0.035091564 7.260438 -0.40554506
0.03853308 7.972487 0
0.047146879 9.7546806 0.54486555
0.020544766 5.6676302 -0.94488102
0.025479512 7.028966 -0.78346193
0.026591863 7.3358269 -0.40975398
0.028814962 7.9491076 0
0.035360221 9.7547312 0.54486555
0.013721341 5.6779189 -0.94659293
0.016973874 7.0238233 -0.78288591
0.017790737 7.3618431 -0.41120565
0.019272879 7.9751568 0
0.023598626 9.7651596 0.54544616
0.0068575768 5.6753669 -0.94616532
0.0084681977 7.0083251 -0.78115666
0.0088859526 7.3540616 -0.41077009
0.0095924279 7.9387441 0
0.011805596 9.7703733 0.54573613
-0 5.68051 -0.94702208
-0 7.0212598 -0.78259784
-0 7.3514709 -0.4106251
-0 7.9986 0
-0 9.7729769 0.54588115
-0.0068575768 5.6753669 -0.94616532
-0.0084431954 6.9876332 -0.77885032
-0.0088671083 7.3384657 -0.40989897
-0.0097779511 8.0922842 0
-0.011821291 9.7833633 0.5464617
-0.01373376 5.6830578 -0.94744968
-0.01691138 6.9979639 -0.78000349
-0.01770911 7.3280659 -0.40931898
-0.019612486 8.1156864 0
-0.023636291 9.7807455 0.54631668
-0.020591319 5.6804729 -0.94702208
-0.025310766 6.9824142 -0.77827322
-0.026544776 7.3228374 -0.40902841
-0.02946585 8.1286669 0
-0.03549207 9.7911034 0.54689723
-0.027442602 5.6778693 -0.94659293
-0.033822663 6.9979024 -0.78000349
-0.035330191 7.3098102 -0.40830284
-0.039275169 8.1260252 0
-0.047398008 9.8066397 0.54776782
-0.030817064 5.6675835 -0.94488102
-0.037980095 6.984941 -0.77856123
-0.039661627 7.2941923 -0.40743175
-0.044127915 8.1155901 0
-0.053181447 9.7806301 0.54631668
-0.037665207 5.667542 -0.94488102
-0.046471588 6.9926519 -0.7794264
-0.048302554 7.2681599 -0.40598062
-0.053933989 8.115531 0
-0.065189354 9.8091431 0.54791337
-0.044573799 5.6751957 -0.94616532
-0.054758295 6.9718995 -0.77712005
-0.056901019 7.2447138 -0.4046745
-0.074327275 9.4634485 0
-0.077082515 9.814249 0.54820335
-0.040906809 4.5138373 -0.99999052
-0.05133808 5.6648698 -0.94445348
-0.075792097 8.3632345 -0.93221414
-0.06539575 7.2160554 -0.40307784
-0.086021312 9.4919701 0
-0.08889401 9.8089571 0.54791337
-0.058077473 5.6545362 -0.94274163
-0.085897379 8.3631363 -0.93221414
-0.073874734 7.1925888 -0.40177172
-0.097677566 9.5100784 0
-0.10095955 9.8296185 0.54907393
-0.065086685 5.669868 -0.94531024
-0.096091516 8.3707781 -0.93307823
-0.082177803 7.1587191 -0.39988506
-0.10943739 9.5333719 0
-0.11295596 9.8398829 0.54965448
-0.057172038 4.5060349 -0.99830133
-0.071807295 5.6595178 -0.94359839
-0.10636993 8.383585 -0.93451941
-0.090728723 7.1508174 -0.3994495
-0.12128665 9.5592508 0
-0.12501037 9.8527374 0.55038059
-0.062687203 4.5110388 -0.99942601
-0.07875257 5.66712 -0.94488102
-0 0 -0
-0.099152461 7.135118 -0.39857894
-0.13272865 9.5512981 0
-0.13687918 9.8499737 0.55023503
-0.068176351 4.5135078 -0.99999052
-0.085561387 5.6644564 -0.94445348
-0.12698114 8.4065866 -0.93711483
-0.1076168 7.1246004 -0.39799836
-0.14446594 9.5641394 0
-0.14870244 9.8446102 0.54994506
-0.073588431 4.5108743 -0.99942601
-0.092489533 5.6694875 -0.94531024
-0.13713877 8.4064264 -0.93711483
-0.11609822 7.1166687 -0.3975628
-0.15589483 9.5561485 0
-0.16102138 9.8703995 0.55139613
-0.078860827 4.5006199 -0.99717444
-0.099429801 5.6745 -0.94616532
-0.14756799 8.4217663 -0.93884403
-0.12487933 7.1269155 -0.39814338
-0.1673959 9.5533533 0
-0.1729477 9.8701973 0.55139613
-0.084203809 4.4954453 -0.99604976
-0.10614198 5.6666732 -0.94488102
-0.15779233 8.4241657 -0.93913209
-0.13329607 7.1163673 -0.3975628
-0.17820801 9.5141115 0
-0.18482517 9.8673859 0.55125117
-0.089635618 4.4953403 -0.99604976
-0.113245 5.6793809 -0.94702208
-0.16797118 8.4239683 -0.93913209
-0.14173946 7.1084146 -0.39712781
-0.1898077 9.5190983 0
-0.19679959 9.869751 0.55139613
-0.094959736 4.4901433 -0.99492294
-0.1204329 5.694634 -0.94958907
-0.17825925 8.428936 -0.93970919
-0.14857037 7.0251064 -0.39248335
-0.20031914 9.4720316 0
-0.20916465 9.8902884 0.55255729
-0.10038513 4.4900255 -0.99492294
-0.1267973 5.6713891 -0.94573778
-0.1885016 8.4312983 -0.9399972
-0.15583912 6.9703703 -0.38943556
-0.21129873 9.4509678 0
-0.22099893 9.8848381 0.55226725
-0.10563096 4.4822874 -0.99323589
-0.1335289 5.6660938 -0.94488102
-0.19850618 8.4233046 -0.93913209
-0.16401646 6.9597859 -0.38885501
-0.22265674 9.4480972 0
-0.23337102 9.9027405 0.55328286
-0.11123546 4.4897695 -0.99492294
-0.14043894 5.6685023 -0.94531024
-0.20887619 8.4308176 -0.9399972
-0.17300503 6.9829593 -0.39016113
-0.23387957 9.4400234 0
-0.24533637 9.9024515 0.55328286
-0.11666039 4.4896321 -0.99492294
-0.14722124 5.6657548 -0.94488102
-0.21933177 8.4409018 -0.94115037
-0.18090247 6.9619646 -0.389
-0.24602924 9.4683437 0
-0.25797647 9.9281282 0.55473453
-0.12173986 4.4767904 -0.99210906
-0.15392767 5.6604457 -0.94402593
-0.22924955 8.4302883 -0.9399972
-0.1889614 6.9487557 -0.38827443
-0.25725767 9.4602432 0
-0.54840106 20.166578 1.1268445
-0.12714911 4.4766397 -0.99210906
-0.16054837 5.652555 -0.94274163
-0.23936239 8.4274225 -0.93970919
-0.19787396 6.9667068 -0.38929057
-0.26876217 9.4625244 0
-0.57365334 20.197071 1.1285862
-0.13270871 4.4815674 -0.99323589
-0.16707434 5.6420927 -0.94102973
-0.24931535 8.4193687 -0.93884403
-0.20644541 6.971652 -0.38958055
-0.27950236 9.4387827 0
-0.59798026 20.193768 1.1284411
-0.1378888 4.4737825 -0.99154669
-0.17420791 5.6521502 -0.94274163
-0.25956795 8.4216442 -0.93913209
-0.21486913 6.9713979 -0.38958055
-0.29074657 9.4332304 0
-0.6227802 20.206015 1.1291667
-0.14329439 4.4736123 -0.99154669
-0.18029773 5.6288462 -0.93889034
-0.26999214 8.4290819 -0.9399972
-0.22395806 6.99191 -0.39074168
-0.30264464 9.4484844 0
-0.6471948 20.205246 1.1291667
-0.14836213 4.4632783 -0.98929513
-0.18718415 5.6311874 -0.93931788
-0.279919 8.4209919 -0.93913209
-0.23232001 6.9890399 -0.39059669
-0.31397438 9.4455032 0
-0.67178088 20.209639 1.1294568
-0.15392981 4.4681697 -0.99041986
-0.19469528 5.6514816 -0.94274163
-0.29036114 8.4284048 -0.9399972
-0.2410332 6.9965472 -0.39103225
-0.32529765 9.4425182 0
-0.69682616 20.226994 1.1304728
-0.15887594 4.455286 -0.98760593
-0.20097512 5.6358547 -0.94017464
-0.30091372 8.4383879 -0.94115037
-0.25004241 7.0118265 -0.3919028
-0.33624321 9.4291162 0
-0.72172892 20.239119 1.1311984
-0.16435306 4.4576373 -0.98817044
-0.20769031 5.6330447 -0.9397471
-0.31158605 8.4509392 -0.94259155
-0.25918493 7.0296988 -0.39291891
-0.34782782 9.4338999 0
-0.74637508 20.243429 1.1314889
-0.16685563 4.4524541 -0.98704362
-0.21051651 5.6175218 -0.93717843
-0.31678841 8.453331 -0.94287962
-0.4711749 12.573052 -0.70277566
-0.35381973 9.441493 0
-0.75889671 20.250757 1.1319239
-0.17223543 4.4522495 -0.98704362
-0.2172049 5.6147008 -0.93675089
-0.32730243 8.4606981 -0.94374472
-0.48596483 12.562088 -0.70219511
-0.36573058 9.4540586 0
-0.78396809 20.265409 1.1327951
-0.17751378 4.4495015 -0.98648125
-0.22501214 5.6400795 -0.94102973
-0.3376283 8.4628782 -0.94403279
-0.61932576 15.523814 -0.86779076
-0.37715372 9.4536095 0
-0.80876476 20.272228 1.1332301
-0.18215941 4.43151 -0.98254055
-0.23151091 5.6321158 -0.9397471
-0.34753498 8.4547091 -0.94316763
-0.63861632 15.536033 -0.86851627
-0.38825592 9.4453535 0
-0.83229882 20.247873 1.1319239
-0.18740657 4.4287505 -0.98197818
-0.2385329 5.6369567 -0.94060218
-0.35764137 8.4517012 -0.94287962
-0.65760761 15.540438 -0.8688063
-0.39977843 9.4474754 0
-0.90905344 21.48255 1.201007
-0.19319968 4.4386749 -0.98422974
-0.24523237 5.6341023 -0.94017464
-0.36774096 8.4486818 -0.94259155
-0.67604607 15.531851 -0.86837131
-0.41198587 9.465188 0
-0.93388051 21.455481 1.1995559
-0.19833547 4.4333568 -0.98310286
-0.25215453 5.636364 -0.94060218
-0.37760237 8.4404764 -0.94172645
-0.69585782 15.554383 -0.86967742
-0.42318955 9.4594784 0
-0.96003658 21.459522 1.1998459
-0.20345914 4.4280424 -0.98197818
-0.25790444 5.6129785 -0.93675089
-0.38697007 8.421936 -0.93970919
-0.71453261 15.550938 -0.86953241
-0.76238209 16.592325 0
-0.98548847 21.447964 1.1992654
-0.20880942 4.427793 -0.98197818
-0.26541176 5.6280432 -0.93931788
-0.39690214 8.4162893 -0.93913209
-0.73344463 15.552656 -0.86967742
-0 0 0
-1.0123826 21.467522 1.2004265
-0.21452779 4.435154 -0.98366737
-0.27159196 5.6149001 -0.93717843
-0.4060716 8.3951359 -0.93682575
-0.752864 15.564733 -0.87040293
-0 0 0
-1.0392001 21.484453 1.2014425
-0.21963476 4.429811 -0.98254055
-0.27863076 5.6197009 -0.93803519
-0.4158313 8.3868971 -0.93596166
-0.7716704 15.563812 -0.87040293
-0.82020319 16.542669 0
-1.0658023 21.496157 1.2021681
-0.22601829 4.4498434 -0.98704362
-0.28568107 5.6244826 -0.93889034
-0.42465264 8.3605518 -0.93307823
-0.79087126 15.570656 -0.87083852
-0.83781511 16.494886 0
-1.0926983 21.513021 1.2031842
-0.22967957 4.4165821 -0.97972667
-0.29194367 5.6138787 -0.93717843
-0.43408293 8.3471203 -0.93163699
-0.80968475 15.569689 -0.87083852
-0.85463661 16.434082 0
-1.1192311 21.522055 1.2037642
-0.23474619 4.411232 -0.97860193
-0.29859045 5.610961 -0.93675089
-0.44320619 8.3285074 -0.92961872
-0.82891095 15.576476 -0.87127352
-0.8743552 16.430441 0
-1.1453739 21.523289 1.2039098
-0.24104236 4.4286976 -0.98254055
-0.30620679 5.6259708 -0.93931788
-0.45228568 8.3098946 -0.92760146
-0.84843796 15.588444 -0.87199962
-0.89265162 16.400785 0
-1.171803 21.529665 1.2043447
-0.2463934 4.4284034 -0.98254055
-0.31257704 5.6179147 -0.93803519
-0.46146384 8.2938423 -0.92587119
-0.86712813 15.584805 -0.87185407
-0.91304642 16.410089 0
-1.1992604 21.554184 1.2057965
-0.25087902 4.4128861 -0.9791643
-0.32009336 5.6303453 -0.94017464
-0.47031051 8.2726202 -0.92356485
-0.88595873 15.583746 -0.87185407
-0.93316984 16.414175 0
-1.2253035 21.552719 1.2057965
-0.25680009 4.4227266 -0.98141587
-0.32511064 5.5992012 -0.93503904
-0.47970632 8.2617168 -0.92241168
-0.90599293 15.603416 -0.87301517
-0.95390731 16.428619 0
-1.2519474 21.561598 1.206377
-0.26579961 4.3941917 -0.9752236
-0.33879563 5.6009593 -0.93546659
-0.4977968 8.2295628 -0.91895324
-0.94338417 15.596 -0.87272519
-0.99439156 16.439253 0
-0.64294714 10.629184 0.59479076
-0.27126527 4.3964009 -0.97578591
-0.34572098 5.6031055 -0.93589413
-0.50598794 8.2005548 -0.91578174
-0.96094799 15.5741 -0.87156409
-1.0164987 16.474409 0
-0 0 0
-0.27562031 4.3808594 -0.97240967
-0.3520079 5.595005 -0.93461144
-0.51475936 8.1818657 -0.91376346
-0.97927594 15.565145 -0.8711285
-1.0362401 16.470566 0
-0.66781622 10.614635 0.59406519
-0.28123844 4.3855896 -0.97353441
-0.3572897 5.5715218 -0.93076015
-0.5243144 8.1760807 -0.91318738
-0.82963854 12.937259 -0.72411019
-1.0564742 16.474501 0
-0.68047529 10.61123 0.59392023
-0.2875317 4.4004645 -0.97691274
-0.36485827 5.5838919 -0.93289959
-0.53301257 8.1573715 -0.91116911
-0.84493089 12.931056 -0.72381961
-1.0762101 16.470617 0
-0.69329643 10.610399 0.59392023
-0.29099235 4.3722234 -0.97072047
-0.37109345 5.5757599 -0.93161529
-0.54149467 8.136075 -0.90886277
-0.86055493 12.930025 -0.72381961
-1.0955923 16.461512 0
-0.70542628 10.599183 0.59333962
-0.29627511 4.3718686 -0.97072047
-0.37835127 5.5829935 -0.93289959
-0.55010146 8.1173582 -0.90684551
-0.87512392 12.913426 -0.72294909
-1.1149539 16.452383 0
-0.71875936 10.606093 0.59377468
-0.29891634 4.3716888 -0.97072047
-0.38032326 5.5622754 -0.92947584
-0.55429971 8.1067028 -0.90569234
-0.8815074 12.892156 -0.72178793
-1.1252488 16.456905 0
-0.72516692 10.605657 0.59377468
-0.30455157 4.3763986 -0.97184736
-0.38811284 5.5771723 -0.93204284
-0.5628376 8.0879631 -0.90367407
-0.89582151 12.872933 -0.72077185
-1.1449518 16.45293 0
-0.73906392 10.620331 0.59464574
-0.31019792 4.3810916 -0.97297204
-0.39521444 5.5818253 -0.93289959
-0.57187921 8.0769567 -0.9025209
-0.90880632 12.835559 -0.71874017
-1.1659343 16.467115 0
-0.75299674 10.634977 0.59551632
-0.31366655 4.3553753 -0.96734428
-0.40158954 5.5762177 -0.93204284
-0.58089507 8.0659409 -0.90136772
-0.92319465 12.818896 -0.71786904
-1.186952 16.481264 0
-0.76771337 10.659982 0.596968
-0.31837204 4.3473883 -0.96565509
-0.4079524 5.5706129 -0.93118775
-0.58969641 8.0523376 -0.89992648
-0.93792397 12.807405 -0.71728849
-1.2078158 16.492794 0
-0.78211087 10.679769 0.59812856
-0.32419088 4.3546047 -0.96734428
-0.41411114 5.5624337 -0.92990339
-0.59846568 8.0387249 -0.8984853
-0.95127702 12.777766 -0.71569234
-1.226971 16.480951 0
-0.79578638 10.689181 0.59870911
-0.32926083 4.3516784 -0.96678191
-0.42199364 5.5772829 -0.93247038
-0.6068123 8.0199394 -0.89646703
-0.96553916 12.761056 -0.71482128
-1.2453134 16.458694 0
-0.80928993 10.695987 0.5991447
-0.33412883 4.3462057 -0.96565509
-0.42774874 5.5639739 -0.93033099
-0.61689925 8.0243635 -0.89704412
-0.97936505 12.739163 -0.71366072
-1.2640023 16.441605 0
-1.6736492 21.770117 1.2195837
-0.33839118 4.3331351 -0.96284121
-0.43427172 5.5608959 -0.92990339
-0.62558722 8.0107117 -0.89560187
-0.99414998 12.730197 -0.71322513
-1.2824501 16.421911 0
-1.7007622 21.77844 1.2201643
-0.34402806 4.3377843 -0.96396589
-0.4418025 5.5706034 -0.93161529
-0.63485759 8.0047979 -0.89502579
-1.0085043 12.716038 -0.71249956
-1.3010569 16.404778 0
-1.7260488 21.763422 1.2194387
-0.34865794 4.3297744 -0.96227884
-0.44791481 5.5623865 -0.93033099
-0.64452934 8.0040255 -0.89502579
-1.0217823 12.688904 -0.71104789
-1.3198336 16.390226 0
-1.7540129 21.78204 1.2205999
-0.35306132 4.3192205 -0.96002728
-0.45484528 5.5644073 -0.93076015
-0.65335727 7.992929 -0.89387268
-1.034997 12.661767 -0.70959681
-1.3385772 16.375652 0
-1.7811779 21.790264 1.2211804
-0.35890961 4.3263798 -0.96171433
-0.45965776 5.5408216 -0.92690724
-0.66344279 7.9972939 -0.89444977
-1.0490071 12.644975 -0.70872623
-1.3590077 16.381796 0
-1.8092244 21.808813 1.2223415
-0.36349815 4.3183546 -0.96002728
-0.46635243 5.5402622 -0.92690724
-0.67223763 7.986177 -0.8932966
-1.0640666 12.641101 -0.70858067
-1.379456 16.387924 0
-1.8370998 21.824728 1.2233571
-0.36849898 4.3153729 -0.95946282
-0.47370186 5.5473704 -0.92819154
-0.6816662 7.9827743 -0.89300752
-1.0769089 12.611335 -0.70698458
-1.3999212 16.394028 0
-1.8645755 21.835445 1.2240832
-0.37327492 4.3098669 -0.95833808
-0.48018312 5.544239 -0.927764
-0.69019568 7.9690628 -0.89156634
-1.0908008 12.594486 -0.70611346
-1.4213012 16.410477 0
-1.8914059 21.838348 1.2243732
-0.37781516 4.3018165 -0.95664889
-0.48800465 5.5564384 -0.92990339
-0.69982421 7.9682231 -0.89156634
-0.79912692 9.0988874 -0.51018548
-1.4411291 16.408747 0
-1.9187013 21.846401 1.2249538
-0.38233733 4.2937717 -0.9549619
-0.4933525 5.5405078 -0.92733645
-0.70945174 7.9673719 -0.89156634
-0.80942893 9.090148 -0.50974989
-1.4609548 16.406994 0
-1.9457886 21.851833 1.2253892
-0.38752526 4.2933064 -0.9549619
-0.49958479 5.5347896 -0.9264797
-0.71814817 7.9562049 -0.89041317
-0.81854331 9.0684605 -0.50858879
-1.4805437 16.402617 0
-1.9731252 21.859819 1.2259699
-0.39479566 4.3156056 -0.96002728
-0.50603849 5.5316277 -0.92605215
-0.72823286 7.9604874 -0.89099026
-0.82784379 9.0493584 -0.50757325
-1.4996514 16.393047 0
-2.0019038 21.883289 1.2274209
-0.39789936 4.2923574 -0.9549619
-0.5134331 5.5386829 -0.92733645
-0.73761159 7.9570189 -0.89070117
-0.83709842 9.0302372 -0.50655711
-0.84735578 9.1408892 0
-2.0290639 21.88862 1.2278565
-0.40427327 4.3045201 -0.95777577
-0.51820481 5.517612 -0.9239127
-0.74746811 7.9587045 -0.89099026
-0.84776634 9.0266352 -0.50641215
-0.85450649 9.0984011 0
-2.0581825 21.914602 1.2294526
-0.40730855 4.2812657 -0.95271033
-0.52584392 5.527204 -0.92562455
-0.75683844 7.9552131 -0.89070117
-0.85571945 8.9945631 -0.50467044
-0.86475986 9.0895872 0
-2.0858917 21.925041 1.2301787
-0.41345614 4.2908869 -0.9549619
-0.53202915 5.5214491 -0.92476779
-0.76545882 7.9440045 -0.88954908
-0.86658698 8.9935226 -0.50467044
-0.87324655 9.0626354 0
-2.1133783 21.93284 1.2307588
-0.41790003 4.282795 -0.9532727
-0.5394485 5.5284696 -0.92605215
-0.77505708 7.9430737 -0.88954908
-0.87745327 8.9924688 -0.50467044
-0.88444883 9.0641613 0
-2.1398783 21.930271 1.2307588
-0.42382431 4.2898755 -0.9549619
-0.5448665 5.5150433 -0.9239127
-0.78439915 7.9395504 -0.88925999
-0.88576406 8.9655485 -0.50321931
-0.8938657 9.0475521 0
-2.1676533 21.940605 1.2314849
-0.42875388 4.2868247 -0.95439738
-0.5520404 5.5194845 -0.92476779
-0.79270518 7.9257307 -0.88781881
-0.89633715 8.9618778 -0.50307375
-0.90376127 9.0361071 0
-2.1954553 21.950895 1.2322104
-0.43316633 4.2787266 -0.95271033
-0.5587092 5.5188131 -0.92476779
-0.79993689 7.9016099 -0.8852244
-0.90585685 8.9478645 -0.50234824
-0.91284382 9.016881 0
-2.2232854 21.961151 1.232936
-0.43472144 4.268353 -0.95045882
-0.56204331 5.5184746 -0.92476779
-0.80313855 7.8856912 -0.88349521
-0.91152555 8.9498987 -0.5024932
-0.91908258 9.0240974 0
-2.237606 21.970144 1.2335166
-0.43857631 4.2551894 -0.94764495
-0.56976366 5.5280056 -0.9264797
-0.81027895 7.8615518 -0.88089979
-0.92207295 8.946208 -0.50234824
-0.9283843 9.0074425 0
-2.2670817 21.995859 1.2351133
-0.44424418 4.259706 -0.94876963
-0.57511169 5.5145497 -0.92434025
-0.8170951 7.8348465 -0.87801743
-0.93180388 8.9347496 -0.50176764
-0.93899769 9.0037289 0
-2.2947359 22.003441 1.2356938
-0.44939086 4.2591658 -0.94876963
-0.5798887 5.4959779 -0.9213441
-0.82439023 7.8132758 -0.87571108
-0 0 -0
-0.94823825 8.9870634 0
-2.3235013 22.021315 1.2368543
-0.45561558 4.2687259 -0.95102113
-0.58816427 5.5105934 -0.9239127
-0.83410466 7.8148432 -0.87599909
-0.95284194 8.92731 -0.50147766
-0.95771593 8.9729748 0
-2.3517632 22.033998 1.2377255
-0.4580465 4.2429152 -0.94539338
-0.59372026 5.49967 -0.92220086
-0.84215897 7.8009748 -0.87455791
-0.96334845 8.9235611 -0.5013321
-0.9685573 8.9718113 0
-2.3789425 22.036303 1.2380154
-0.46455148 4.2549853 -0.94820726
-0.60175788 5.5117054 -0.92434025
-0.85046142 7.7896667 -0.87340474
-0.97243857 8.9068966 -0.50046152
-0.97967947 8.9732189 0
-2.4072602 22.048916 1.2388866
-0.46774042 4.2367396 -0.94426656
-0.60700905 5.498219 -0.92220086
-0.86072487 7.7963481 -0.87426984
-0.98320013 8.905715 -0.50046152
-0.99023587 8.9694443 0
-2.4356105 22.061483 1.2397572
-0.47370526 4.2437496 -0.94595575
-0.61194289 5.4821692 -0.9196322
-0.8692835 7.7875886 -0.87340474
-0.99367225 8.9019403 -0.50031656
-0.99905169 8.9501333 0
-2.4648597 22.081764 1.2410632
-0.4779776 4.2355971 -0.94426656
-0.61971802 5.4916296 -0.9213441
-0.87782341 7.7788296 -0.87254065
-1.0038444 8.8955641 -0.50002599
-1.0110328 8.9592638 0
-2.4924138 22.086517 1.2414988
-0.48338285 4.2375383 -0.94482887
-0.62606245 5.4883285 -0.9209165
-0.88780767 7.7828979 -0.87311673
-1.0145923 8.8943453 -0.50002599
-1.0212671 8.9528599 0
-2.5211611 22.101564 1.242515
-0.4873386 4.2268548 -0.94257736
-0.63210613 5.4824724 -0.92006141
-0.8957302 7.7689743 -0.87167549
-1.0241481 8.8827868 -0.49944544
-1.0326809 8.9567947 0
-2.5493524 22.111406 1.2432405
-0.49068168 4.2111244 -0.93920112
-0.6384322 5.4791479 -0.9196322
-0.9051168 7.7678866 -0.87167549
-1.03458 8.8789644 -0.49930042
-1.0404911 8.9296951 0
-2.5775712 22.121212 1.243966
-0.49487799 4.2029557 -0.93751192
-0.64385146 5.4681745 -0.91792035
-0.91480428 7.7693534 -0.87196356
-1.0459161 8.8828745 -0.49959099
-1.0540189 8.9516907 0
-2.6033866 22.110336 1.2435305
-0.50265735 4.2250605 -0.94257736
-0.65045822 5.4673924 -0.91792035
-0.92358083 7.7631106 -0.87138748
-1.0563407 8.8790169 -0.49944544
-1.0639118 8.9426556 0
-2.6337845 22.138138 1.2452722
-0.50897503 4.2345409 -0.94482887
-0.65828937 5.4767976 -0.9196322
-0.93110776 7.7465758 -0.86965722
-1.0667586 8.8751564 -0.49930042
-1.0747164 8.9413633 0
-2.5120065 20.899244 1.1757541
-0.51164114 4.2137437 -0.9403258
-0.66490656 5.4759979 -0.9196322
-0.94015586 7.7428803 -0.86936915
-1.0781088 8.8790245 -0.49959099
-1.0867743 8.9503927 0
-2.5372572 20.896193 1.1757541
-0.52013505 4.2408671 -0.94651806
-0.67152274 5.4751906 -0.9196322
-0.94856602 7.7340341 -0.86850405
-1.087254 8.8648129 -0.49886486
-1.0979049 8.9516535 0
-2.5602899 20.875055 1.174738
-0.52182257 4.2124949 -0.9403258
-0.67656034 5.4616399 -0.91749281
-0.9569574 7.7251892 -0.86763996
-1.0992424 8.873807 -0.49944544
-1.10904 8.9528999 0
-2.5813589 20.838427 1.1728513
-0.52817386 4.2219462 -0.94257736
-0.68220407 5.4531841 -0.91621011
-0.96468478 7.7111874 -0.86619771
-1.1102873 8.8750582 -0.49959099
-1.1188889 8.9438143 0
-2.6033113 20.809513 1.1714002
-0.53295672 4.2187867 -0.94201499
-0.69072253 5.4676318 -0.91877711
-0.97302997 7.7023253 -0.86533362
-1.1206837 8.8711252 -0.49944544
-1.1309996 8.9527836 0
-2.6238935 20.770256 1.169368
-0.54255432 4.2534213 -0.94989431
-0.69538027 5.4515195 -0.91621011
-0.98037177 7.6857452 -0.86360335
-1.1317316 8.8723488 -0.49959099
-1.1418165 8.9514103 0
-2.643729 20.72584 1.1670463
-0.54574668 4.2376471 -0.94651806
-0.70163804 5.4481215 -0.9157809
-0.98833627 7.6742935 -0.86245018
-1.1424513 8.8709755 -0.49959099
-1.1519662 8.9448566 0
-2.6654506 20.696854 1.1655946
-0.55053937 4.2344675 -0.94595575
-0.70689666 5.4370875 -0.91406906
-0.99727529 7.6705313 -0.86216217
-1.1538386 8.8747368 -0.49988097
-1.1651225 8.9615259 0
-2.6867726 20.665279 1.1639985
-0.55598581 4.2363157 -0.94651806
-0.71146214 5.4209628 -0.91150206
-1.0038503 7.6488047 -0.85985583
-1.164899 8.8759098 -0.50002599
-1.1745954 8.949791 0
-2.7059927 20.618223 1.1615313
-0.39762905 3.0016065 -0.99836934
-0.47492367 3.5850849 -0.99775553
-0.56177217 4.2406836 -0.94764495
-0.7180118 5.4200993 -0.91150206
-1.0151304 7.6629758 -0.86158609
-1.1756229 8.8744965 -0.50002599
-1.1860914 8.9535198 0
-2.7240789 20.563419 1.1586285
-0.56352788 4.2148118 -0.94201499
-0.72422057 5.4166856 -0.91107452
-1.0240451 7.6591725 -0.86129701
-1.1870346 8.8782253 -0.50031656
-1.1965646 8.9495029 0
-2.7372165 20.472549 1.153694
-0.482088 3.5891864 -0.99913853
-0.56505913 4.2069135 -0.9403258
-0.72407496 5.3908 -0.90679401
-1.0293615 7.6636844 -0.8618741
-1.1927438 8.8800793 -0.50046152
-1.2023174 8.951355 0
-2.7315986 20.336985 1.1461474
-0.48634085 3.5557001 -0.99014109
-0.57729059 4.2206454 -0.94370419
-0.73605764 5.3814116 -0.90551132
-1.0450745 7.6406732 -0.85956776
-1.2141999 8.8771706 -0.50046152
-1.2260625 8.9638996 0
-2.7582006 20.165558 1.1368583
-0.58308411 4.2249742 -0.94482887
-0.74220753 5.3779678 -0.90508217
-1.0560737 7.6522136 -0.861009
-1.2249254 8.8756971 -0.50046152
-1.2365372 8.959836 0
-2.7790132 20.136475 1.1354073
-0.49770004 3.5743928 -0.99567837
-0.58713847 4.2167239 -0.94314182
-0.74799782 5.3719869 -0.90422702
-1.0631796 7.6355662 -0.85927975
-1.2392318 8.8999424 -0.50191265
-1.2480797 8.9634857 0
-2.8015506 20.120237 1.1346817
-0.59187865 4.2134876 -0.94257736
-0.75413156 5.3685398 -0.90379947
-1.0709658 7.6240306 -0.85812658
-1.2492626 8.8932972 -0.50162268
-1.2607192 8.9748545 0
-2.8218837 20.08853 1.133085
-0.50844771 3.5880785 -0.99983001
-0.59839541 4.2228327 -0.94482887
-0.75809628 5.3498302 -0.90080327
-1.0823537 7.6380916 -0.85985583
-1.2603717 8.894351 -0.50176764
-1.2744837 8.9939384 0
-2.8414156 20.051662 1.1311984
-0.51136291 3.5775275 -0.99706137
-0.60313821 4.2195935 -0.94426656
-0.76455998 5.3489103 -0.90080327
-1.0912164 7.6342201 -0.85956776
-1.2711178 8.8928213 -0.50176764
-1.2842451 8.9846611 0
-2.8601279 20.009638 1.1290218
-0.51139075 3.5471194 -0.98875809
-0.6064238 4.2062898 -0.94145262
-0.77138847 5.3505211 -0.90123087
-1.098225 7.6175308 -0.8578375
-1.2840875 8.9067154 -0.50263876
-1.2980713 9.0037088 0
-2.879854 19.975304 1.12728
-0.51928562 3.5713208 -0.99567837
-0.6166237 4.2407513 -0.94933194
-0.78006995 5.3648319 -0.90379947
-1.1074284 7.6161985 -0.8578375
-1.2959692 8.9128637 -0.50307375
-1.3108215 9.0150089 0
-2.9006236 19.948669 1.1259739
-0.52542007 3.5830994 -0.99913853
-0.62322199 4.2500591 -0.9515835
-0.78692383 5.3664231 -0.90422702
-1.1140046 7.5969481 -0.85582024
-1.3097538 8.931859 -0.50423491
-1.3220922 9.0160007 0
-2.9171855 19.89373 1.1230711
-0.52571332 3.5551693 -0.99152672
-0.62687016 4.2392488 -0.94933194
-0.79340756 5.3654685 -0.90422702
-1.1246966 7.6058311 -0.85697341
-1.3213062 8.9354162 -0.50452542
-1.3402175 9.0633049 0
-2.9347596 19.846497 1.1206039
-0.53148866 3.5644569 -0.99429536
-0.63086891 4.2309561 -0.94764495
-0.7972396 5.3467302 -0.90123087
-1.1319791 7.5916781 -0.85553223
-1.3332505 8.9415159 -0.50496042
-1.3788006 9.2469997 0
-2.9541395 19.812094 1.1188623
-0.5346759 3.5563672 -0.9922182
-0.63862395 4.2477722 -0.9515835
-0.80293697 5.3406906 -0.90037572
-1.1423038 7.597971 -0.85639632
-1.3479174 8.9655991 -0.50641215
-1.4050616 9.3456898 0
-2.9773045 19.803377 1.1185722
-0.54235613 3.5780401 -0.998447
-0.6403293 4.22439 -0.94651806
-0.80938953 5.3397169 -0.90037572
-1.1507092 7.5914755 -0.85582024
-1.3591387 8.9665298 -0.50655711
-1.4311733 9.4417582 0
-2.9926627 19.743238 1.1153789
-0.54099405 3.54018 -0.98806393
-0.64428133 4.2160754 -0.94482887
-0.81739211 5.3488851 -0.90208763
-1.1587086 7.5824065 -0.85495514
-1.3735044 8.9879971 -0.50786322
-1.4402227 9.4245911 0
-3.0121996 19.711361 1.1137828
-0.54527128 3.5395238 -0.98806393
-0.6509226 4.2253389 -0.94708043
-0.82346261 5.3453493 -0.90165842
-1.1662943 7.5707755 -0.85380197
-1.3906937 9.027421 -0.51018548
-1.4527986 9.430563 0
-3.0300801 19.669182 1.1116055
-0.55031836 3.5438251 -0.98944956
-0.65524858 4.2195325 -0.94595575
-0.8307094 5.3494287 -0.90251517
-1.1742502 7.5616908 -0.8529368
-1.4227315 9.161808 -0.51787716
-1.4629941 9.4210825 0
-3.0490594 19.634695 1.1098639
-0.55382335 3.5381956 -0.98806393
-0.66270345 4.2337952 -0.94933194
-0.83399665 5.3281312 -0.89909142
-1.1849861 7.570488 -0.85408998
-1.4603211 9.3295126 -0.5274561
-1.4743766 9.4193087 0
-3.0651481 19.582228 1.1071066
-0.56161791 3.5598342 -0.99429536
-0.66861135 4.2380157 -0.95045882
-0.84083372 5.3296533 -0.89951897
-1.1925204 7.5588312 -0.8529368
-1.4796916 9.3790751 -0.53035885
-1.4853517 9.4149513 0
-3.0835435 19.545145 1.10522
-0.56237215 3.5368471 -0.98806393
-0.67452896 4.2422185 -0.9515835
-0.84928811 5.3413067 -0.90165842
-1.2008414 7.5522809 -0.85236079
-1.4914309 9.3798437 -0.53050387
-1.4942739 9.3977242 0
-3.1018536 19.508045 1.1033332
-0.56704342 3.5386493 -0.98875809
-0.67362499 4.2037745 -0.94314182
-0.85452408 5.3326797 -0.90037572
-1.2091483 7.5457215 -0.85178471
-1.5023528 9.3754721 -0.53035885
-1.506041 9.398489 0
-1.7588713 10.976282 0.62091476
-0.57091767 3.5354776 -0.98806393
-0.68356317 4.2330484 -0.94989431
-0.8626039 5.3417802 -0.90208763
-1.2199126 7.5544586 -0.8529368
-1.5120232 9.363389 -0.5297783
-1.5153205 9.3838081 0
-1.7746173 10.989535 0.62178534
-0.57559329 3.5372686 -0.98875809
-0.68745434 4.2247033 -0.94820726
-0.86988157 5.3457971 -0.90294272
-1.2269632 7.5402169 -0.85149562
-1.5208311 9.3461618 -0.52890718
-1.5245684 9.3691292 0
-1.7874779 10.984821 0.62164032
-0.57945985 3.5340877 -0.98806393
-0.69296932 4.2263741 -0.94876963
-0.87509382 5.3371396 -0.90165842
-1.2343992 7.5285196 -0.85034245
-1.5304413 9.3340607 -0.52832663
-1.5400999 9.3929672 0
-1.8003296 10.980091 0.62149531
-0.58168548 3.5210111 -0.98460376
-0.70097506 4.2430849 -0.95271033
-0.88154209 5.3360786 -0.90165842
-1.2426527 7.5219235 -0.84976637
-1.5412954 9.3296432 -0.52818167
-1.5510229 9.388525 0
-1.8144418 10.98303 0.62178534
-0.58176094 3.5082867 -0.98114365
-0.70104355 4.2276158 -0.94933194
-0.88434619 5.333015 -0.90123087
-1.2484666 7.5288286 -0.85063154
-1.544382 9.3133345 -0.52731109
-1.5554186 9.3798914 0
-1.8198012 10.974239 0.62134975
-0.58641261 3.5100532 -0.98183513
-0.70740777 4.2342863 -0.95102113
-0.89375091 5.3496685 -0.90422702
-1.2567096 7.5222077 -0.85005444
-1.554777 9.3063307 -0.52702051
-1.569752 9.3959656 0
-1.834345 10.979724 0.62178534
-0.58940542 3.5019274 -0.97976065
-0.71336621 4.2384353 -0.95214581
-0.90021425 5.3485847 -0.90422702
-1.2653689 7.5181355 -0.84976637
-1.5642956 9.2941961 -0.52643996
-1.5789447 9.3812323 0
-1.8558035 11.026177 0.62454253
-0.59992588 3.5383074 -0.99014109
-0.7180627 4.2350674 -0.9515835
-0.90495986 5.3373694 -0.90251517
-1.2744522 7.5166011 -0.84976637
-1.5759603 9.2948685 -0.52658552
-1.5894097 9.3741913 0
-1.8808537 11.093101 0.62846148
-0.50601178 2.9626858 -0.9910354
-0.6096912 3.569726 -0.99913853
-0.72146827 4.2241778 -0.94933194
-0.91313708 5.3463936 -0.90422702
-1.2826618 7.5099516 -0.84918928
-1.5867515 9.2903881 -0.52643996
-1.6033634 9.3876514 0
-1.8942561 11.09082 0.62846148
-0.60464704 3.5145977 -0.98391229
-0.72872549 4.2358212 -0.95214581
-0.92351323 5.368053 -0.90807831
-1.2899811 7.4981999 -0.84803611
-1.597976 9.2884645 -0.52643996
-1.6160296 9.393404 0
-1.9072157 11.085965 0.62831646
-0.6097492 3.5188036 -0.9852953
-0.73167437 4.2224221 -0.94933194
-0.92736983 5.3517618 -0.90551132
-1.2990402 7.4966359 -0.84803611
-1.606537 9.2711697 -0.52556944
-1.6273785 9.3914442 0
-3.2767951 18.910069 1.0719848
-0.61313868 3.5131261 -0.98391229
-0.73721224 4.2240357 -0.94989431
-0.93515855 5.3582168 -0.90679401
-1.3054302 7.4797778 -0.84630692
-1.6177382 9.2692223 -0.52556944
-1.6409618 9.4022875 0
-3.2947271 18.877935 1.0703882
-0.61781704 3.5148513 -0.98460376
-0.73967719 4.2081313 -0.94651806
-0.93941057 5.3444438 -0.90465456
-1.3131233 7.4705505 -0.84544176
-1.6302871 9.2749405 -0.52600497
-1.6491672 9.3823528 0
-3.3094387 18.827879 1.067776
-0.62118983 3.5091662 -0.98322076
-0.75051868 4.239758 -0.95383501
-0.9490003 5.3610015 -0.90765077
-1.3230517 7.4740567 -0.84601885
-1.6414928 9.2729635 -0.52600497
-1.66504 9.4059849 0
-3.329922 18.811075 1.0670503
-0.62763053 3.5207598 -0.98668092
-0.75207365 4.2188368 -0.94933194
-0.95862967 5.3775344 -0.91064531
-1.3316282 7.4699087 -0.84573084
-1.6545203 9.2812061 -0.52658552
-1.6773167 9.4090853 0
-3.3444395 18.760988 1.0644375
-0.62567931 3.4854336 -0.97699201
-0.75761926 4.2204232 -0.94989431
-0.96558154 5.3789062 -0.91107452
-1.3392817 7.4606547 -0.84486568
-1.668946 9.2970963 -0.52760106
-1.6882252 9.4044924 0
-3.3625159 18.731361 1.0629865
-0.63435197 3.5093579 -0.98391229
-0.76497942 4.2320137 -0.95271033
-0.97253639 5.380259 -0.91150206
-1.3496761 7.4666691 -0.84573084
-1.6806421 9.297637 -0.52774668
-1.7046782 9.4306097 0
-3.3791385 18.694046 1.0610998
-0.63320106 3.4789701 -0.97560632
-0.77191234 4.2410855 -0.9549619
-0.97857744 5.3765569 -0.91107452
-1.3586972 7.4650326 -0.84573084
-1.6937346 9.3058157 -0.52832663
-1.7184035 9.4413519 0
-3.3984666 18.672052 1.0600836
-0.64283091 3.5078146 -0.98391229
-0.776577 4.2376432 -0.95439738
-0.9859978 5.3804159 -0.91192961
-1.3653837 7.4506578 -0.84428859
-1.7082568 9.3216553 -0.52934277
-1.730279 9.4418268 0
-3.4158747 18.639826 1.0584875
-0.6457029 3.4996316 -0.98183513
-0.77985269 4.226707 -0.95214581
-0.99016982 5.3666005 -0.90979022
-1.3715705 7.4337459 -0.8425594
-1.7218759 9.3323593 -0.53006834
-1.7445186 9.45508 0
-3.4317932 18.599905 1.0564554
-0.55072057 2.9647577 -0.9942953
-0.64672512 3.4815898 -0.97699201
-0.78867161 4.2457471 -0.95664889
-1.001341 5.3906345 -0.91406906
-1.3800797 7.429543 -0.84227133
-1.7350491 9.3404903 -0.53064889
-1.7587947 9.4683228 0
-3.4480963 18.562534 1.0545686
-0.66107607 3.5350535 -0.9922182
-0.7956695 4.2547812 -0.95890045
-1.0059662 5.3793273 -0.91235715
-1.3895309 7.4304099 -0.8425594
-1.7492008 9.3537169 -0.53152001
-1.7735813 9.4840899 0
-3.4561946 18.481735 1.0502148
-0.65513682 3.4800169 -0.97699201
-0.79516894 4.2238526 -0.95214581
-1.0134162 5.3831582 -0.91321391
-1.396594 7.4185581 -0.84140623
-1.7643476 9.3720255 -0.53268111
-3.467247 18.417645 0
-3.4684286 18.423922 1.0471669
-0.66027462 3.4841478 -0.97837496
-0.79648912 4.2029266 -0.94764495
-1.0246987 5.4071465 -0.91749281
-1.4065192 7.4219427 -0.84198225
-1.7795392 9.3903008 -0.53384167
-3.4972517 18.454353 0
-3.4839153 18.38398 1.0451353
-0.66166437 3.4685662 -0.97422332
-0.8015669 4.201961 -0.94764495
-1.0278656 5.3882604 -0.91449827
-1.4154861 7.420238 -0.84198225
-1.794293 9.4060135 -0.53485781
-3.5395393 18.554914 0
-3.4997971 18.346579 1.0432487
-0.6663276 3.4702256 -0.97491485
-0.81047481 4.2209425 -0.95214581
-1.0358264 5.3945704 -0.9157809
-1.4234765 7.4134469 -0.84140623
-1.8100665 9.4268026 -0.53616393
-3.5653925 18.568518 0
-3.5185323 18.324471 1.0422325
-0.6700446 3.4669571 -0.97422332
-0.81027216 4.1925249 -0.94595575
-1.040884 5.3857608 -0.91449827
-1.4309602 7.4041004 -0.84054106
-1.8239205 9.4373627 -0.53688943
-3.568568 18.46455 0
-3.5367267 18.299797 1.0410714
-0.57766461 2.9696982 -0.99755514
-0.68141729 3.503077 -0.98460376
-0.82261342 4.2289481 -0.95439738
-1.0503309 5.3996134 -0.9170652
-1.4394122 7.3998294 -0.84025306
-1.8427651 9.4734135 -0.53906667
-2.5349681 13.031939 0
-3.5568514 18.285307 1.0404909
-0.67552799 3.4505508 -0.97006905
-0.82430691 4.2105031 -0.95045882
-1.0583346 5.4059005 -0.91834956
-1.4508365 7.4107742 -0.84169424
-2.3504207 12.005789 -0.68332779
-2.5467126 13.008434 0
-2.5500808 13.025639 0.74137414
-0.68309212 3.4669645 -0.97491485
-0.82841057 4.2045135 -0.94933194
-1.0613916 5.3869848 -0.91535336
-1.4592905 7.4064803 -0.84140623
-2.3674369 12.015684 -0.68405336
-2.5609212 12.997694 0
-2.5633068 13.009803 0.74064857
-0.58938622 2.9724288 -0.99918354
-0.68972003 3.4784386 -0.97837496
-0.83299655 4.2010193 -0.94876963
-1.0683987 5.3882141 -0.9157809
-1.4677361 7.4021769 -0.84111816
-2.3814487 12.010269 -0.68390834
-2.5730805 12.976719 0
-2.5749817 12.986305 0.73948741
-0.68986368 3.468179 -0.97560632
-0.8350392 4.1980257 -0.94820726
-1.0701529 5.3800216 -0.91449827
-1.4696854 7.3886075 -0.83967698
-2.5782883 12.96193 -0.73818803
-2.5763512 12.952191 0
-2.5797842 12.969451 0.73861635
-0.70045465 3.49932 -0.98460376
-0.84060931 4.1995025 -0.94876963
-1.0721166 5.3560634 -0.91064531
-1.4801335 7.3944273 -0.84054106
-2.5862978 12.920585 -0.73601079
-2.5874026 12.926105 0
-2.5898447 12.938305 0.73702019
-0.59836251 2.9706349 -0.99918354
-0.69329005 3.4419127 -0.96868604
-0.84468049 4.1935067 -0.94764495
-1.0811236 5.3673534 -0.91278636
-1.488557 7.3901005 -0.84025306
-2.5967779 12.891982 -0.73455966
-2.5994217 12.905107 0
-2.5993192 12.904599 0.73527855
-0.69744843 3.4410725 -0.96868604
-0.84974694 4.1924834 -0.94764495
-1.0906668 5.381134 -0.91535336
-1.4985139 7.3933711 -0.84083015
-2.6123536 12.888835 -0.73455966
-2.6124287 12.889207 0
-2.6123297 12.888718 0.73455298
-0.60257721 2.9546542 -0.9942953
-0.70411187 3.4525156 -0.97214621
-0.85836488 4.2088737 -0.9515835
-1.0930642 5.3596897 -0.91192961
-1.506928 7.3890133 -0.84054106
-2.6289628 12.890757 -0.73484969
-2.6274815 12.883492 0
-2.6247847 12.870271 0.73368186
-0.70979643 3.4590375 -0.97422332
-0.86038631 4.192904 -0.94820726
-1.0985086 5.3533406 -0.91107452
-1.5137753 7.3770523 -0.83938789
-2.6476696 12.902838 -0.73572022
-2.6430466 12.880309 0
-2.6387687 12.859461 0.73324686
-0.70941061 3.4360671 -0.96799457
-0.86236846 4.1769261 -0.94482887
-1.1049762 5.3520093 -0.91107452
-1.5226879 7.3752179 -0.83938789
-2.6658869 12.91236 -0.73644632
-2.6622901 12.894939 0
-2.6595578 12.881706 0.734698
-0.71713203 3.4523947 -0.97283769
-0.87465054 4.2107148 -0.95271033
-1.1161406 5.3732886 -0.91492581
-1.5347556 7.3885722 -0.84111816
-2.6830707 12.916755 -0.73688132
-2.6805151 12.904451 0
-2.6777627 12.891201 0.73542351
-0.72079039 3.4490724 -0.97214621
-0.87817788 4.2021914 -0.95102113
-1.1194805 5.3568549 -0.91235715
-1.5415658 7.376585 -0.83996499
-2.7039926 12.938944 -0.73833299
-2.6939762 12.891013 0
-2.6938684 12.890497 0.73556852
-0.62295884 2.9630513 -0.99836934
-0.73218268 3.4825654 -0.98183513
-0.88011914 4.1862125 -0.94764495
-1.1211995 5.332891 -0.90850586
-1.5488808 7.3671212 -0.83909988
-2.7212272 12.943288 -0.73876798
-2.7111573 12.895391 0
-2.7110465 12.894864 0.73600411
-0.62551475 2.9574554 -0.99673784
-0.73379499 3.4694083 -0.97837496
-0.88622725 4.1901131 -0.94876963
-1.1297672 5.3415785 -0.91021776
-1.5593876 7.372838 -0.83996499
-2.7417054 12.962878 -0.74007469
-2.7337372 12.925204 0
-2.7325404 12.919545 0.73760074
-0.62548876 2.9397821 -0.9910354
-0.732243 3.4415245 -0.97076052
-0.89446121 4.2039461 -0.95214581
-1.1340837 5.3301663 -0.90850586
-1.5666797 7.3633566 -0.83909988
-2.7579067 12.962094 -0.74021971
-2.7498939 12.924435 0
-2.7486894 12.918774 0.73774576
-0.63675284 2.9575918 -0.99755514
-0.73211133 3.4005132 -0.9596886
-0.90141022 4.186873 -0.94876963
-1.1458818 5.3223958 -0.90765077
-1.5850133 7.3620753 -0.83938789
-2.7925034 12.970629 -0.74109024
-2.7849538 12.935563 0
-2.7831812 12.92733 0.73861635
-0.74524593 3.4413064 -0.97145468
-0.91292202 4.2155809 -0.95552421
-1.1539404 5.3285265 -0.90893346
-1.5933609 7.3576293 -0.83909988
-2.8109231 12.97994 -0.74181581
-2.8038881 12.947454 0
-2.8037508 12.946821 0.739923
-0.63916248 2.9343026 -0.9902181
-0.74780118 3.4330473 -0.96937752
-0.91098535 4.1822023 -0.94820726
-1.1587406 5.3196111 -0.90765077
-1.60115 7.3506489 -0.83852381
-2.8299241 12.991773 -0.74268693
-2.821744 12.954219 0
-2.8221571 12.956116 0.74064857
-0.64535385 2.9456069 -0.9942953
-0.75570768 3.4492979 -0.97422332
-0.91494942 4.1761298 -0.94708043
-1.1657163 5.3207121 -0.90807831
-1.6100307 7.3487091 -0.83852381
-2.8472888 12.995961 -0.74312246
-2.8379531 12.95335 0
-2.8389211 12.957768 0.74093854
-0.65104008 2.9544797 -0.99755514
-0.75771546 3.4385824 -0.97145468
-0.92327654 4.1899142 -0.95045882
-1.1693829 5.3067675 -0.90593892
-1.6216915 7.359385 -0.83996499
-2.8680217 13.015347 -0.74442858
-2.8586423 12.972782 0
-2.8579321 12.969559 0.74180967
-0.77109736 3.4793007 -0.98322076
-0.92723793 4.1838293 -0.94933194
-1.1774611 5.3128719 -0.90722322
-1.6305827 7.3574204 -0.83996499
-2.8820589 13.004259 -0.74399304
-2.8754406 12.974396 0
-2.8747244 12.971165 0.74209964
-0.6538763 2.9335985 -0.9910354
-0.75838077 3.4024551 -0.96176308
-0.93229258 4.1827059 -0.94933194
-1.181646 5.3014226 -0.90551132
-1.6422844 7.3680649 -0.84140623
-2.9045537 13.031201 -0.74573469
-2.8911154 12.970912 0
-2.8966143 12.995583 0.74369633
-0.65201324 2.908684 -0.98288423
-0.7674318 3.4235754 -0.96799457
-0.94068164 4.1964574 -0.95271033
-1.1931038 5.3225331 -0.90936261
-1.6511861 7.366075 -0.84140623
-2.9220028 13.035292 -0.74617028
-2.909632 12.980104 0
-2.9145885 13.002215 0.74427688
-0.66531205 2.9512987 -0.99755514
-0.78039312 3.4617939 -0.97906649
-0.94128138 4.175488 -0.94820726
-1.194454 5.2985516 -0.90551132
-1.6600853 7.3640747 -0.84140623
-2.9394639 13.039349 -0.74660528
-2.9321816 13.007044 0
-2.9320095 13.006281 0.74471188
-0.78013813 3.4412749 -0.97352916
-0.94744837 4.1792989 -0.94933194
-1.2031256 5.3071189 -0.90722322
-1.6712695 7.3721533 -0.8425594
-2.9603872 13.058592 -0.74791139
-2.9496226 13.011108 0
-2.9500208 13.012866 0.74529248
-0.78931588 3.4623508 -0.97976065
-0.9558872 4.1930199 -0.95271033
-1.2089651 5.3031511 -0.90679401
-1.6813248 7.3751674 -0.84313542
-2.9761636 13.055006 -0.74791139
-2.9699695 13.027834 0
-2.9697857 13.027028 0.74630857
-0.6765576 2.9512744 -0.99836934
-0.78340745 3.4173739 -0.96730042
-0.95413989 4.1621418 -0.94595575
-1.2125045 5.2891779 -0.90465456
-1.6908146 7.3756585 -0.8434245
-2.9913559 13.04887 -0.74776638
-2.9862897 13.026771 0
-2.9866843 13.028491 0.74659854
-0.66846484 2.8998797 -0.98125583
-0.78415602 3.4017615 -0.96314877
-0.95859814 4.1585121 -0.94539338
-1.2142816 5.2676973 -0.90123087
-1.6991428 7.3710828 -0.84313542
-3.0141249 13.07563 -0.74950802
-3.0037823 13.030763 0
-3.0041759 13.032471 0.74703413
-0.68134946 2.9476376 -0.99755514
-0.78903556 3.4135065 -0.96660888
-0.96225375 4.162879 -0.94651806
-1.2186213 5.2719698 -0.90208763
-1.7047619 7.3750997 -0.84371251
-2.7259254 11.792832 -0.67607111
-3.0110688 13.026413 0
-3.010293 13.023056 0.74659854
