# .PCD v0.7 - Point Cloud Data file format
VERSION 0.7
FIELDS x y z
SIZE 4 4 4
TYPE F F F
COUNT 1 1 1
WIDTH 1523
HEIGHT 1
VIEWPOINT 0 0 0 1 0 0 0
POINTS 1523
DATA ascii
8.6609182 -4.8297472 0
8.6263018 -4.8104434 0.5516867
2.3870218 -1.3273402 -0.90057659
2.8010557 -1.5575702 -0.88424629
3.3344524 -1.8541737 -0.84520316
4.3723159 -2.431294 -0.83404368
6.8325572 -3.7993488 -0.87138748
7.7034345 -4.2836137 -0.49233428
8.666748 -4.8192787 0
8.6343765 -4.8012781 0.55183172
2.4664397 -1.3676028 -0.92991537
2.8182962 -1.5627017 -0.88909209
3.3389189 -1.851379 -0.84576762
4.3730078 -2.4247653 -0.83361614
6.8484507 -3.7973604 -0.87282866
7.6972446 -4.2680035 -0.49160874
8.6725645 -4.8088031 0
8.6469908 -4.7946229 0.55226725
2.4096956 -1.3323348 -0.90791368
2.8135936 -1.5556523 -0.88701493
3.3322589 -1.8424253 -0.84351611
4.3781786 -2.4207206 -0.83404368
6.8439798 -3.7840765 -0.87167549
7.6932998 -4.2536702 -0.49102816
8.6783686 -4.7983208 0
8.6323137 -4.7728567 0.55096114
2.4264486 -1.337772 -0.91361606
2.8022852 -1.5449816 -0.88286066
3.3456061 -1.8445303 -0.84632999
4.385601 -2.4179099 -0.83490044
6.8485475 -3.775804 -0.87167549
7.6938787 -4.2418599 -0.49073762
8.6841602 -4.7878308 0
8.6517239 -4.769948 0.55183172
2.4193997 -1.3300763 -0.91035622
2.8063548 -1.5428065 -0.88355482
3.3522813 -1.8429323 -0.84745467
4.3817687 -2.4088976 -0.83361614
6.8644352 -3.7737553 -0.87311673
7.692174 -4.2288084 -0.49030262
8.6899385 -4.7773342 0
8.6529312 -4.756989 0.55154169
2.4751861 -1.356853 -0.93072957
2.8192143 -1.5454431 -0.88701493
3.3411415 -1.8315543 -0.84407842
4.3981781 -2.4110029 -0.83618313
6.8599176 -3.7604849 -0.87196356
7.6904402 -4.2157626 -0.48986706
8.6934252 -4.7655811 0
8.6518354 -4.7427821 0.55110615
2.4551404 -1.3420088 -0.92258149
2.8210795 -1.5420355 -0.88701493
3.3522704 -1.8323907 -0.84632999
4.3965874 -2.4032266 -0.83532798
6.8621893 -3.7509539 -0.87167549
7.6909642 -4.2039719 -0.48957649
8.6991768 -4.7550731 0
8.6507168 -4.7285843 0.55067062
2.4567602 -1.3390412 -0.92258149
2.82074 -1.5374261 -0.88632345
3.3522532 -1.827124 -0.84576762
4.3949757 -2.395453 -0.83447123
6.8780699 -3.7488475 -0.87311673
7.6914792 -4.1921911 -0.48928651
8.7071991 -4.7458029 0
8.6655502 -4.7231026 0.55125117
2.4258001 -1.3183674 -0.91035622
2.820385 -1.5328153 -0.8856293
3.3589191 -1.8254964 -0.84689236
4.4001288 -2.3913701 -0.83490044
6.8757744 -3.7368276 -0.87225157
7.7033906 -4.1866179 -0.48972204
8.7129269 -4.7352786 0
8.6758213 -4.7151122 0.55154169
2.4512968 -1.32839 -0.9193216
2.8266509 -1.5317992 -0.88701493
3.3521867 -1.816594 -0.84464079
4.3984966 -2.3836031 -0.83404368
6.8848372 -3.7309837 -0.87282866
7.7061524 -4.1760654 -0.48957649
8.7186422 -4.7247472 0
8.6723747 -4.6996737 0.55096114
2.4202812 -1.3078014 -0.90709633
2.8086374 -1.51765 -0.88078618
3.3521459 -1.8113354 -0.84407842
4.4081511 -2.3819489 -0.83532798
6.8802381 -3.7177436 -0.87167549
7.7111931 -4.1667509 -0.48957649
8.7243452 -4.7142086 0
8.6780462 -4.6891913 0.55096114
2.4849579 -1.3388728 -0.93072957
2.8325508 -1.5261526 -0.88770646
3.3453846 -1.8024629 -0.84182692
4.4065018 -2.3741832 -0.83447123
6.8847256 -3.7094276 -0.87167549
7.7116513 -4.1549678 -0.48928651
8.727746 -4.7024302 0
8.6699762 -4.6713047 0.55009001
2.4386775 -1.3101377 -0.91280186
2.8343928 -1.5227289 -0.88770646
3.367703 -1.8092407 -0.84689236
4.4048491 -2.3664296 -0.83361614
6.8846412 -3.6986556 -0.8710984
7.7189531 -4.1468754 -0.4894315
8.7288322 -4.6894155 0
8.6870575 -4.6669731 0.55081558
2.4576886 -1.3165269 -0.9193216
2.8472857 -1.525225 -0.89116657
3.3721242 -1.8063688 -0.84745467
4.4167566 -2.3659542 -0.83532798
6.9005117 -3.6964443 -0.87254065
7.7125077 -4.1314116 -0.48870593
8.7344923 -4.678865 0
8.6926908 -4.6564732 0.55081558
2.4650238 -1.3185402 -0.92176729
2.8393581 -1.5187714 -0.88839793
3.3709767 -1.803134 -0.84689236
4.422708 -2.3657045 -0.83618313
6.893621 -3.6873949 -0.87138748
7.7172914 -4.1279759 -0.48885095
8.7373171 -4.6735873 0
8.6955023 -4.6512203 0.55081558
2.4578919 -1.3109082 -0.9185074
2.8566885 -1.523605 -0.89324373
3.3731527 -1.7990595 -0.84689236
4.4278259 -2.3615658 -0.83661067
6.9094801 -3.6851473 -0.87282866
7.7268634 -4.1210961 -0.48914149
8.7475548 -4.6654782 0
8.6965351 -4.638267 0.55052561
2.4682031 -1.3125794 -0.92176729
2.8319468 -1.5060167 -0.88493782
3.3708417 -1.7925986 -0.84576762
4.4193459 -2.3501885 -0.83447123
6.9047933 -3.6719382 -0.87167549
7.7249522 -4.1080952 -0.48870593
8.7531862 -4.6549053 0
8.7090178 -4.6314168 0.55096114
2.4719687 -1.3107527 -0.92258149
2.8470676 -1.5096476 -0.88909209
3.3819847 -1.7932856 -0.84801918
4.4289885 -2.3484557 -0.83575553
6.9206481 -3.6696496 -0.87311673
7.7367997 -4.1024113 -0.48914149
8.7588043 -4.6443253 0
8.7054243 -4.6160212 0.55038059
2.4713678 -1.3066108 -0.92176729
2.8244908 -1.4933069 -0.88147765
3.379652 -1.7868203 -0.84689236
4.4363575 -2.3454998 -0.83661067
6.9136467 -3.6552413 -0.87167549
7.7394476 -4.0918417 -0.48899594
8.7667074 -4.634954 0
8.7155857 -4.6079254 0.55067062
2.4882433 -1.3116884 -0.92746967
2.8396046 -1.4969101 -0.8856293
3.3840542 -1.7839191 -0.84745467
4.4232988 -2.3317614 -0.83361614
6.9294963 -3.6529143 -0.87311673
7.7374969 -4.0788555 -0.48856094
8.7700024 -4.6231451 0
8.7073603 -4.5901232 0.54980004
2.4635727 -1.2948817 -0.9176901
2.8502941 -1.4981468 -0.88839793
3.3907099 -1.7821954 -0.84858155
4.4306531 -2.3288014 -0.83447123
6.9270344 -3.6409276 -0.87225157
7.7424197 -4.0695033 -0.48856094
8.7640572 -4.6064873 0
8.7105932 -4.5783863 0.54965448
2.4673312 -1.2930546 -0.9185074
2.8609908 -1.4993598 -0.89116657
3.3928609 -1.7780972 -0.84858155
4.4334641 -2.3234463 -0.83447123
6.9337258 -3.633759 -0.87254065
7.7473311 -4.0601449 -0.48856094
8.7765341 -4.5995197 0
8.7276335 -4.5738921 0.55038059
2.4907932 -1.3015167 -0.92665553
2.8472421 -1.4877722 -0.88632345
3.3950069 -1.7739962 -0.84858155
4.4499235 -2.325223 -0.83703989
6.9449821 -3.6289682 -0.87340474
7.7568331 -4.0531855 -0.48885095
8.7774763 -4.586503 0
8.7331533 -4.563343 0.55038059
2.4463351 -1.2745252 -0.90954202
2.8623829 -1.4912835 -0.89047509
3.3881342 -1.7651967 -0.84632999
4.4458981 -2.3162849 -0.83575553
6.9378953 -3.6145997 -0.87196356
7.7594223 -4.0426102 -0.48870593
8.7783918 -4.5734868 0
8.740963 -4.553987 0.55052561
2.4544554 -1.2749875 -0.91198772
2.8953469 -1.5040122 -0.90016401
3.3902647 -1.7611015 -0.84632999
4.4509692 -2.3120935 -0.83618313
6.9537315 -3.6121745 -0.87340474
7.759685 -4.0308337 -0.48841539
8.7839108 -4.5628767 0
8.7510672 -4.5458155 0.55081558
2.4647729 -1.2765676 -0.91524756
2.8748891 -1.4889771 -0.89324373
3.3968983 -1.7593386 -0.84745467
4.446928 -2.3031752 -0.83490044
6.9649835 -3.6073394 -0.87426984
7.7622452 -4.0202608 -0.48827037
8.7917271 -4.5534554 0
8.7519426 -4.5328503 0.55052561
2.4707017 -1.2758543 -0.9168759
2.849937 -1.4716891 -0.88493782
3.3945107 -1.7529033 -0.84632999
4.4542651 -2.3001537 -0.83575553
6.9601445 -3.5941739 -0.87311673
7.771719 -4.0132656 -0.48856094
8.7995415 -4.5440264 0
8.7597198 -4.5234628 0.55067062
2.4436767 -1.2581612 -0.90628219
2.8628635 -1.4739853 -0.88839793
3.40114 -1.7511245 -0.84745467
4.4638901 -2.2982965 -0.83703989
6.9713836 -3.5893142 -0.87398183
7.7765627 -4.0038719 -0.48856094
8.8050251 -4.5333905 0
8.7490053 -4.5045481 0.54965448
2.4847696 -1.2755226 -0.92095
2.860183 -1.4682359 -0.88701493
3.3964784 -1.7435358 -0.84576762
4.4620924 -2.290554 -0.83618313
6.978014 -3.5820682 -0.87426984
7.7767673 -3.9920971 -0.48827037
8.8058615 -4.5203686 0
8.7590704 -4.4963489 0.54994506
2.4247124 -1.2409935 -0.89813405
2.8865144 -1.4773486 -0.89462674
3.4121497 -1.7463742 -0.84914386
4.4625735 -2.2839923 -0.83575553
6.9823375 -3.5736339 -0.87426984
7.7862158 -3.9850674 -0.48856094
8.8159552 -4.5120988 0
8.7598658 -4.4833918 0.54965448
2.4944515 -1.2728854 -0.92339563
2.9039421 -1.481843 -0.89947253
3.3961511 -1.7330108 -0.84464079
4.4653301 -2.2785985 -0.83575553
6.9958658 -3.5698972 -0.87542301
7.7887039 -3.9744718 -0.48841539
8.8167601 -4.4990754 0
8.7768564 -4.4787126 0.55038059
2.4930201 -1.2702571 -0.92258149
2.8534307 -1.4538956 -0.88355482
3.3971975 -1.7309586 -0.84464079
4.4644208 -2.2747359 -0.83532798
6.9980211 -3.5656698 -0.87542301
7.8026867 -3.9756675 -0.48914149
8.8148432 -4.4913869 0
8.7911339 -4.4793067 0.55110615
2.4945531 -1.2672439 -0.92258149
2.8753135 -1.4606719 -0.88978362
3.4196725 -1.7372086 -0.84970623
4.4694529 -2.2705016 -0.83575553
7.0069318 -3.5595522 -0.87599909
7.8097992 -3.9674122 -0.48928651
8.8272181 -4.4842653 0
8.7803211 -4.4604416 0.55009001
2.4630065 -1.2474763 -0.91035622
2.8905005 -1.4639957 -0.89393526
3.4081731 -1.7261891 -0.84632999
4.4699049 -2.2639406 -0.83532798
7.0181522 -3.5545902 -0.87686425
7.8145871 -3.9579728 -0.48928651
8.8326302 -4.4735961 0
8.7857046 -4.4498291 0.55009001
2.4799581 -1.2522991 -0.91606176
2.8989878 -1.4638957 -0.89601237
3.4034498 -1.7186327 -0.84464079
4.4749265 -2.2596941 -0.83575553
7.0201359 -3.5449429 -0.87657619
7.8332767 -3.9555528 -0.49015707
8.8380289 -4.4629207 0
8.7933922 -4.4403801 0.55023503
2.4902999 -1.2537473 -0.9193216
2.8693876 -1.4445999 -0.88632345
3.414602 -1.7190894 -0.84689236
4.4799442 -2.2554386 -0.83618313
7.0221057 -3.5352957 -0.87628818
7.8403778 -3.9472568 -0.49030262
8.8364477 -4.4487305 0
8.7987509 -4.4297519 0.55023503
2.4542627 -1.2318895 -0.90546799
2.8688824 -1.440003 -0.8856293
3.4166768 -1.7149622 -0.84689236
4.4826665 -2.2500238 -0.83618313
7.0194354 -3.5233264 -0.87542301
7.8428125 -3.9366112 -0.49015707
8.8418169 -4.4380503 0
8.7994566 -4.4167881 0.54994506
2.469007 -1.2355576 -0.91035622
2.8997838 -1.4511298 -0.89462674
3.4164762 -1.7096967 -0.84632999
4.4876752 -2.2457533 -0.83661067
7.0329394 -3.5194721 -0.87657619
7.849894 -3.928298 -0.49030262
8.8471737 -4.4273634 0
8.8071089 -4.4073143 0.55009001
2.5080938 -1.2513304 -0.92420983
2.8948071 -1.4442681 -0.89255226
3.4208112 -1.7067004 -0.84689236
4.4926891 -2.2414787 -0.83703989
7.0394993 -3.5121253 -0.87686425
7.8662581 -3.9246092 -0.49102816
8.8594961 -4.4201522 0
8.8008041 -4.3908701 0.54936451
2.4963305 -1.2416966 -0.9193216
2.8830683 -1.4340634 -0.88839793
3.4365251 -1.7093577 -0.85027075
4.5045881 -2.2406216 -0.83875173
7.0460515 -3.5047677 -0.87715226
7.8803005 -3.9197304 -0.49160874
8.86483 -4.4094443 0
8.8061037 -4.3802328 0.54936451
2.4756818 -1.2276965 -0.91117036
2.8915439 -1.4339235 -0.89047509
3.4385881 -1.705204 -0.85027075
4.4865961 -2.2249136 -0.83490044
7.0618739 -3.5020001 -0.87859452
7.8943429 -3.9148235 -0.49218929
8.8608255 -4.3941045 0
8.816041 -4.3718958 0.54965448
2.4838123 -1.2279915 -0.91361606
2.8707893 -1.4193121 -0.88355482
3.4406459 -1.701048 -0.85027075
4.5053825 -2.2274516 -0.83789498
7.0591421 -3.4900246 -0.87772936
7.9013944 -3.9064324 -0.49233428
8.8684683 -4.3845515 0
8.8213177 -4.3612404 0.54965448
2.5163357 -1.2402896 -0.92502713
2.8837514 -1.421387 -0.88701493
3.4358594 -1.6935183 -0.84858155
4.5126805 -2.224278 -0.83875173
7.0749516 -3.4872088 -0.87917054
7.8967862 -3.892287 -0.49175373
8.8737593 -4.3738327 0
8.8335752 -4.3540258 0.55009001
2.5037866 -1.2265924 -0.9193216
2.8646529 -1.403379 -0.88009465
3.4330943 -1.6818556 -0.84689236
4.5065093 -2.2077162 -0.83661067
7.0879993 -3.4723749 -0.87974662
7.9085002 -3.8743343 -0.49189875
8.8843031 -4.3523755 0
8.8300743 -4.325809 0.54921949
2.5119317 -1.2268212 -0.92176729
2.8821199 -1.4076203 -0.88493782
3.4351242 -1.6777061 -0.84689236
4.5045648 -2.2000184 -0.83575553
7.0898681 -3.4626739 -0.87945861
7.9201827 -3.8681977 -0.49233428
8.8802023 -4.337069 0
8.8422928 -4.3185539 0.54965448
2.5067434 -1.2205381 -0.9193216
2.8747962 -1.3997437 -0.88216913
3.439431 -1.6746655 -0.84745467
4.5164518 -2.199069 -0.83746743
7.0940466 -3.4541047 -0.87945861
7.9388638 -3.865448 -0.49320486
8.890111 -4.3286119 0
8.8615265 -4.3146939 0.55052561
2.5015438 -1.2142694 -0.9168759
2.9058235 -1.4105099 -0.89116657
3.4391685 -1.6693999 -0.84689236
4.5191059 -2.1936102 -0.83746743
7.1028733 -3.4477916 -0.8800357
7.938858 -3.8535852 -0.49291486
8.8953352 -4.3178668 0
8.8527031 -4.297173 0.54965448
2.5111735 -1.2170696 -0.9201358
2.8886142 -1.4000008 -0.8856293
3.4470379 -1.6706474 -0.84858155
4.5273623 -2.1942394 -0.83875173
7.1096053 -3.4457536 -0.88061178
7.945857 -3.8510528 -0.49320486
8.8979425 -4.3124919 0
8.8576431 -4.2929606 0.54980004
2.5015171 -1.2086592 -0.91606176
2.9061184 -1.4041506 -0.89047509
3.4536254 -1.6686898 -0.84970623
4.5323195 -2.189883 -0.83917928
7.1114373 -3.4360363 -0.88032371
7.9505043 -3.8414488 -0.49320486
8.9008055 -4.3006063 0
8.8628235 -4.2822547 0.54980004
2.5230143 -1.2152879 -0.92339563
2.891989 -1.393016 -0.8856293
3.4533522 -1.663414 -0.84914386
4.5257115 -2.179949 -0.83746743
7.1085906 -3.4240727 -0.87945861
7.957479 -3.8329661 -0.49334985
8.9059954 -4.2898483 0
8.8609657 -4.2681584 0.54936451
2.5066566 -1.2036793 -0.9168759
2.8981977 -1.3916947 -0.88701493
3.4461975 -1.6548405 -0.84689236
4.5375986 -2.1789238 -0.83917928
7.11972 -3.4188409 -0.88032371
7.9574242 -3.8211007 -0.49305984
8.9182129 -4.2824645 0
8.8567476 -4.2529497 0.5487839
2.5237167 -1.2081211 -0.92258149
2.9428647 -1.4087702 -0.90016401
3.4504843 -1.6517713 -0.84745467
4.5332794 -2.1701131 -0.83789498
7.1285071 -3.412467 -0.88089979
7.9620357 -3.8114829 -0.49305984
8.9257259 -4.2728086 0
8.8759375 -4.2489743 0.54965448
2.5028641 -1.1944237 -0.91443026
2.9174037 -1.3922514 -0.89186072
3.4524777 -1.6476009 -0.84745467
4.542851 -2.1679518 -0.83917928
7.1372986 -3.4060812 -0.88147688
7.9736729 -3.805218 -0.4934954
8.9261799 -4.2597761 0
8.8834171 -4.2393689 0.54980004
2.5154715 -1.1967107 -0.9185074
2.9100218 -1.3844142 -0.88909209
3.4521737 -1.6423374 -0.84689236
4.5338788 -2.1569481 -0.83703989
7.1343994 -3.3941202 -0.88061178
7.9759116 -3.794461 -0.49334985
8.9289732 -4.2478704 0
8.8814917 -4.2252817 0.54936451
2.5213776 -1.1957866 -0.9201358
2.9434228 -1.3959454 -0.89878106
3.4380915 -1.6305466 -0.84295374
4.5480766 -2.1569672 -0.83917928
7.1478434 -3.3899305 -0.88176495
7.9851904 -3.78705 -0.49364039
8.9388065 -4.2393112 0
8.8912811 -4.2167721 0.54965448
2.5474019 -1.2043606 -0.92910117
2.940567 -1.3902411 -0.89739537
3.4538374 -1.6329051 -0.84632999
4.5413966 -2.1470814 -0.83746743
7.1589513 -3.3846087 -0.88263005
7.9897609 -3.7773988 -0.49364039
8.9345112 -4.2240577 0
8.8940229 -4.204916 0.54950947
2.4907303 -1.1738873 -0.90791368
2.953598 -1.3920379 -0.90085816
3.467298 -1.6341459 -0.84914386
4.5370193 -2.138308 -0.83618313
7.1630359 -3.3759561 -0.88263005
8.0037212 -3.7721732 -0.49422097
8.9396086 -4.2132592 0
8.8944016 -4.1919527 0.54921949
2.559253 -1.2024051 -0.93236107
2.9121335 -1.3681976 -0.88770646
3.4715674 -1.6310346 -0.84970623
4.5558658 -2.1404667 -0.83917928
7.1624236 -3.3650968 -0.88205296
8.0129719 -3.7647071 -0.49451095
8.9399776 -4.2002387 0
8.9112167 -4.1867261 0.54994506
2.4980323 -1.1699593 -0.90954202
2.9046967 -1.3604217 -0.88493782
3.4643316 -1.622528 -0.84745467
4.5561261 -2.1338725 -0.83875173
7.1618042 -3.354248 -0.88147688
8.0104628 -3.7517192 -0.49407595
8.9568281 -4.1949515 0
8.9068565 -4.1715474 0.54936451
2.5173604 -1.1753049 -0.91606176
2.9427099 -1.3738919 -0.89601237
3.4593892 -1.6151191 -0.84576762
4.5656729 -2.1316206 -0.84003443
7.1752262 -3.3499687 -0.88263005
8.022047 -3.745332 -0.49451095
8.9595346 -4.1830263 0
8.91189 -4.1607823 0.54936451
2.5277419 -1.1764338 -0.9193216
2.9284441 -1.3629242 -0.89116657
3.4613383 -1.610938 -0.84576762
4.5635948 -2.1239381 -0.83917928
7.1792688 -3.3412964 -0.88263005
8.0242128 -3.7345407 -0.49436596
8.9645824 -4.1721973 0
8.9051342 -4.1445298 0.54863894
2.5336413 -1.1754571 -0.92095
2.9528511 -1.369945 -0.89808953
3.472502 -1.6110318 -0.84801918
4.5708108 -2.1205809 -0.84003443
7.1856451 -3.3337066 -0.88291812
8.0310745 -3.725935 -0.49451095
8.9696169 -4.1613622 0
8.9242744 -4.140326 0.54950947
2.5238454 -1.1672084 -0.9168759
2.9203463 -1.350579 -0.88770646
3.4767499 -1.6079004 -0.84858155
4.5687141 -2.1129034 -0.83917928
7.1920133 -3.3261063 -0.88320613
8.0355701 -3.7162282 -0.49451095
8.9699192 -4.1483383 0
8.9269142 -4.1284499 0.54936451
2.5162756 -1.1600189 -0.91361606
2.9128628 -1.3428481 -0.88493782
3.4786904 -1.6036981 -0.84858155
4.5712638 -2.1073816 -0.83917928
7.1960268 -3.3174138 -0.88320613
8.0447788 -3.708694 -0.49480152
8.974925 -4.1374969 0
8.9295387 -4.1165738 0.54921949
2.5304515 -1.164701 -0.9185074
2.9273515 -1.3473837 -0.88909209
3.4704258 -1.5973467 -0.84632999
4.572536 -2.1046193 -0.83917928
7.1956825 -3.3119853 -0.88291812
8.051734 -3.7060037 -0.49509153
8.9868793 -4.1364264 0
8.9343824 -4.1122637 0.54936451
2.5677915 -1.1781297 -0.93154377
2.9266906 -1.3427964 -0.88839793
3.4700463 -1.5920937 -0.84576762
4.5750756 -2.0990927 -0.83917928
7.211431 -3.3086803 -0.8843593
8.0538473 -3.6951895 -0.49494651
8.9847717 -4.1223078 0
8.9393444 -4.1014652 0.54936451
2.5220139 -1.1534396 -0.91443026
2.9488423 -1.348649 -0.89462674
3.4812102 -1.5921268 -0.84801918
4.5682707 -2.0892925 -0.83746743
7.208374 -3.2967401 -0.88349521
8.0677586 -3.6897783 -0.49552709
8.9968491 -4.1146965 0
8.9466543 -4.0917401 0.54950947
2.4784358 -1.1298901 -0.89813405
2.9641705 -1.351331 -0.89878106
3.4738836 -1.5837033 -0.84576762
4.5801353 -2.0880306 -0.83917928
7.2076411 -3.2858799 -0.88291812
8.0603914 -3.674639 -0.49480152
9.006546 -4.1059799 0
8.9397726 -4.0755386 0.5487839
2.5585485 -1.1626806 -0.92665553
2.9201212 -1.32699 -0.88493782
3.4711637 -1.5774002 -0.84464079
4.5896683 -2.0856819 -0.84046358
7.2092533 -3.2760994 -0.88263005
8.0719242 -3.668123 -0.49523708
9.0091333 -4.0940185 0
8.9517899 -4.0679598 0.54921949
2.5419402 -1.1514297 -0.9201358
2.9628525 -1.3420914 -0.89739537
3.4938955 -1.5826395 -0.84970623
4.5828319 -2.0758979 -0.83875173
7.2202773 -3.2705889 -0.88349521
8.0645094 -3.653003 -0.49451095
9.0259247 -4.0884976 0
8.9495955 -4.0539231 0.5487839
2.5140476 -1.135136 -0.90954202
2.982764 -1.3467696 -0.9029327
3.4772792 -1.5700517 -0.84520316
4.59937 -2.0766952 -0.84131873
7.2265787 -3.2629254 -0.88378322
8.0760241 -3.6464648 -0.49494651
9.019001 -4.0722351 0
8.9686928 -4.04952 0.54965448
2.5334482 -1.1402125 -0.91606176
2.9454997 -1.3256618 -0.89116657
3.4953952 -1.5731497 -0.84914386
4.6065621 -2.0732453 -0.84217548
7.2234383 -3.2510056 -0.88291812
8.0733137 -3.6335037 -0.49451095
9.028657 -4.0634685 0
8.9664774 -4.0354838 0.54921949
2.5258038 -1.1331038 -0.91280186
2.9631245 -1.3292909 -0.89601237
3.4833882 -1.5626869 -0.84576762
4.6043749 -2.0655742 -0.84131873
7.2344427 -3.2454522 -0.88378322
8.0705929 -3.6205583 -0.49407595
9.0264435 -4.0493636 0
8.9689693 -4.0235801 0.54907393
2.5429676 -1.1371146 -0.9185074
2.930373 -1.3103471 -0.8856293
3.5015039 -1.5657343 -0.84970623
4.5951524 -2.0547707 -0.83917928
7.2336321 -3.2345946 -0.88320613
8.0773315 -3.6118636 -0.49422097
9.0313292 -4.0384541 0
8.9714546 -4.0116801 0.54892892
2.5375648 -1.1310215 -0.91606176
2.9411199 -1.3108906 -0.88839793
3.4987562 -1.5594355 -0.84858155
4.5859108 -2.0439925 -0.83703989
7.2375355 -3.2258518 -0.88320613
8.0935545 -3.6073892 -0.49494651
9.0433273 -4.0307136 0
8.9834175 -4.0040116 0.54936451
2.5750694 -1.1440102 -0.92910117
2.9450009 -1.3083574 -0.88909209
3.4959893 -1.5531416 -0.84745467
4.6001048 -2.0436602 -0.83917928
7.2367048 -3.2150061 -0.88263005
8.0907812 -3.5944412 -0.49451095
9.0363016 -4.0145016 0
8.985877 -3.9920998 0.54921949
2.5018737 -1.1078743 -0.90220809
2.9695146 -1.3149539 -0.89601237
3.4932213 -1.5468606 -0.84632999
4.6166496 -2.0443347 -0.84174627
7.2453098 -3.2083521 -0.88320613
8.0975008 -3.5857177 -0.49465653
9.0340042 -4.0004177 0
8.990694 -3.9812393 0.54921949
2.5642552 -1.1317939 -0.92420983
2.9458525 -1.3002207 -0.88839793
3.5020638 -1.5457176 -0.84801918
4.6120777 -2.0356481 -0.84046358
7.2515545 -3.2006426 -0.88349521
8.1065779 -3.5780272 -0.49494651
9.0459766 -3.9926527 0
8.9883642 -3.9672241 0.5487839
2.5045438 -1.101825 -0.90220809
2.9382358 -1.2926193 -0.8856293
3.4899697 -1.5353438 -0.84464079
4.6074824 -2.0269716 -0.83917928
7.2530422 -3.1908338 -0.88320613
8.1299229 -3.5766003 -0.49610764
9.0436449 -3.9785745 0
9.0026646 -3.960546 0.54936451
2.5352974 -1.1117001 -0.91280186
2.9627759 -1.2991447 -0.89255226
3.5034552 -1.5362266 -0.84745467
4.6169834 -2.0244966 -0.84046358
7.2592678 -3.1831093 -0.88349521
8.1199646 -3.5605152 -0.49523708
9.0555983 -3.9707804 0
9.0050659 -3.9486227 0.54921949
2.5185208 -1.1007173 -0.90628219
2.9505463 -1.2895337 -0.88839793
3.5076437 -1.5330127 -0.84801918
4.6264763 -2.0219975 -0.84174627
7.2536287 -3.1701922 -0.88234204
8.1313972 -3.5538201 -0.49567208
9.0532331 -3.956708 0
9.0098305 -3.9377389 0.54921949
2.5667555 -1.1199518 -0.92339563
2.967423 -1.294775 -0.89324373
3.5178847 -1.5349579 -0.85027075
4.6135845 -2.0130444 -0.83917928
7.2626476 -3.1689095 -0.88320613
8.1383104 -3.5509872 -0.49596265
9.0556221 -3.9512377 0
8.9955349 -3.9250197 0.54820335
2.5341065 -1.1020632 -0.91117036
2.9804862 -1.2961901 -0.8967039
3.4987593 -1.5215832 -0.84520316
4.6160135 -2.0074682 -0.83917928
7.275959 -3.1642578 -0.8843593
8.1545067 -3.5463314 -0.49668819
9.0508528 -3.9361453 0
9.0193338 -3.9224379 0.54936451
2.5694544 -1.1137458 -0.92339563
2.9613359 -1.2836092 -0.89047509
3.5122585 -1.52241 -0.84801918
4.6184359 -2.0018892 -0.83917928
7.2750354 -3.1534085 -0.88378322
8.137331 -3.5271761 -0.49538207
9.0556021 -3.9252062 0
9.0121479 -3.9063709 0.54863894
2.5458381 -1.0998569 -0.91443026
2.9651854 -1.281024 -0.89116657
3.5117564 -1.5171545 -0.84745467
4.6137795 -1.993252 -0.83789498
7.2764683 -3.1435909 -0.88349521
8.153512 -3.5224929 -0.49610764
9.0555553 -3.9121952 0
9.0335522 -3.9026892 0.54965448
2.5426292 -1.0948268 -0.91280186
2.9874671 -1.2863688 -0.89739537
3.513587 -1.51291 -0.84745467
4.6279712 -1.992751 -0.84003443
7.3016396 -3.1440017 -0.88608956
8.1601467 -3.513665 -0.49625263
9.0722256 -3.9063957 0
9.0311089 -3.8886912 0.54921949
2.52578 -1.0839559 -0.90628219
2.9682727 -1.2738546 -0.89116657
3.5084143 -1.5056602 -0.84576762
4.637455 -1.9901956 -0.84131873
7.3030496 -3.1341538 -0.88580048
8.1667719 -3.5048263 -0.49639764
9.0769386 -3.8954308 0
9.0358009 -3.8777759 0.54921949
2.5225475 -1.078961 -0.90465379
3.0021069 -1.2840815 -0.90085816
3.5195758 -1.5054168 -0.84801918
4.6351404 -1.9825736 -0.84046358
7.3139677 -3.1283798 -0.88666564
8.1638403 -3.4918931 -0.49596265
9.0864296 -3.8865092 0
9.0285368 -3.8617468 0.54849392
2.5556757 -1.0894798 -0.91606176
2.9782679 -1.2696301 -0.89324373
3.5143778 -1.4981728 -0.84632999
4.642251 -1.9789829 -0.84131873
7.3106022 -3.1164961 -0.88580048
8.1680536 -3.4820261 -0.49596265
9.0959024 -3.8775663 0
9.047533 -3.8569467 0.54936451
2.5501637 -1.0834906 -0.91361606
2.9913428 -1.2709347 -0.8967039
3.5255399 -1.4978995 -0.84858155
4.6304674 -1.9673512 -0.83875173
7.3215065 -3.1106956 -0.88666564
8.1698656 -3.471139 -0.49581763
9.0957947 -3.8645394 0
9.0593643 -3.849061 0.54980004
2.5583012 -1.0833006 -0.91606176
2.9536052 -1.2506902 -0.88493782
3.517988 -1.4896755 -0.84632999
4.6352024 -1.9627547 -0.83917928
7.332407 -3.1048734 -0.88753074
8.188406 -3.4673419 -0.49668819
9.1076403 -3.8565876 0
9.0663986 -3.839124 0.54994506
2.5755503 -1.0869365 -0.92176729
2.9666688 -1.2519968 -0.88839793
3.5221241 -1.4864106 -0.84689236
4.649394 -1.9621422 -0.84131873
7.3480659 -3.1010387 -0.88897198
8.1806221 -3.4523947 -0.49596265
9.1075029 -3.8435581 0
9.0542707 -3.8210931 0.54892892
2.5859749 -1.0876566 -0.92502713
2.9543087 -1.2425772 -0.88424629
3.5309463 -1.4851099 -0.84858155
4.6470332 -1.9545343 -0.84046358
7.347044 -3.0901539 -0.88839591
8.1967611 -3.4475436 -0.49668819
9.1145372 -3.8335588 0
9.0708551 -3.815186 0.54965448
2.4983866 -1.0472661 -0.89324272
2.9720063 -1.2457964 -0.88909209
3.5303972 -1.4798611 -0.84801918
4.6399217 -1.9449482 -0.83875173
7.3579216 -3.0842712 -0.88925999
8.2009211 -3.4376371 -0.49668819
9.1191626 -3.8225427 0
9.0682755 -3.8012121 0.54921949
2.5771863 -1.0766377 -0.92095
2.9966538 -1.2518733 -0.89601237
3.5321827 -1.4755943 -0.84801918
4.6493678 -1.9423062 -0.84003443
7.3688049 -3.0783703 -0.8901251
8.2218542 -3.4347377 -0.4977043
9.121376 -3.810519 0
9.0752573 -3.7912529 0.54936451
2.5670788 -1.068774 -0.9168759
2.9796357 -1.2405374 -0.89047509
3.5175407 -1.4644879 -0.84407842
4.6446085 -1.9337296 -0.83875173
7.3677483 -3.0674779 -0.88954908
8.2259989 -3.4248006 -0.4977043
9.1307735 -3.8014934 0
9.0846252 -3.78228 0.54965448
2.6048946 -1.0808269 -0.92991537
2.9811325 -1.2369361 -0.89047509
3.5380831 -1.4680269 -0.84858155
4.6635323 -1.9350001 -0.84174627
7.373836 -3.0595634 -0.88983709
8.2277241 -3.4138598 -0.49755874
9.1353607 -3.790458 0
9.0891886 -3.7713001 0.54965448
2.5856445 -1.0691793 -0.92258149
3.0058043 -1.2429179 -0.89739537
3.5469007 -1.4666644 -0.85027075
4.6658669 -1.9293636 -0.84174627
7.3823032 -3.0526261 -0.89041317
8.2294436 -3.4029238 -0.49741375
9.1375313 -3.7784233 0
9.0865421 -3.757339 0.54921949
2.5588746 -1.0563 -0.91280186
3.0042379 -1.2401454 -0.8967039
3.547786 -1.4645213 -0.85027075
4.6622906 -1.9245872 -0.84089118
7.3841462 -3.0481656 -0.89041317
8.2363062 -3.3999362 -0.4977043
9.1374092 -3.7719102 0
9.0984173 -3.7558146 0.54980004
2.6355765 -1.0842371 -0.93969494
2.9802196 -1.2260182 -0.88909209
3.5542483 -1.462165 -0.85139543
4.6551166 -1.9150459 -0.83917928
7.3902135 -3.0402241 -0.89070117
8.2259855 -3.3840485 -0.49683321
9.1419601 -3.7608666 0
9.1053495 -3.7458057 0.54994506
2.6025794 -1.0669874 -0.92746967
3.0049071 -1.231931 -0.89601237
3.5419109 -1.4520881 -0.84801918
4.6621728 -1.9113653 -0.84003443
7.4034543 -3.0352168 -0.89185435
8.21805 -3.369179 -0.49610764
9.151309 -3.75179 0
9.1002522 -3.7308583 0.54936451
2.5718389 -1.0507566 -0.91606176
2.9808447 -1.2178609 -0.88839793
3.5554214 -1.4526114 -0.85083306
4.6597309 -1.9037906 -0.83917928
7.4119101 -3.0282273 -0.89243144
8.2197113 -3.3582649 -0.49596265
9.1558361 -3.7407298 0
9.1071568 -3.7208416 0.54950947
2.6005764 -1.0588326 -0.92584133
2.9706986 -1.209529 -0.88493782
3.5548229 -1.4473571 -0.85027075
4.6739135 -1.9029981 -0.84131873
7.4155636 -3.0192695 -0.89243144
8.2213593 -3.3473516 -0.49581763
9.1579409 -3.7286837 0
9.1140509 -3.7108135 0.54965448
2.5674977 -1.0417497 -0.91361606
3.0046992 -1.2191421 -0.89462674
3.54479 -1.4382814 -0.84745467
4.6762094 -1.8973491 -0.84131873
7.4263988 -3.0132251 -0.8932966
8.2157669 -3.3335073 -0.49523708
9.1672668 -3.7195742 0
9.1040859 -3.6939385 0.5487839
2.5779202 -1.0423527 -0.9168759
3.0015228 -1.2136315 -0.89324373
3.5488877 -1.4349524 -0.84801918
4.6666012 -1.8868871 -0.83917928
7.4348254 -3.006187 -0.89387268
8.2318316 -3.3284471 -0.49596265
9.1717548 -3.7084947 0
9.1181784 -3.6868315 0.54936451
2.6204383 -1.0558622 -0.93154377
2.9960039 -1.2071902 -0.89116657
3.5600462 -1.4344616 -0.85027075
4.6831594 -1.8870015 -0.84174627
7.4528422 -3.0029993 -0.89560187
8.2262068 -3.3146136 -0.49538207
9.1713972 -3.6954625 0
9.1226263 -3.6758113 0.54936451
2.5908606 -1.0366738 -0.9201358
2.9965856 -1.1990154 -0.89047509
3.5564229 -1.4230216 -0.84858155
4.6924772 -1.8775878 -0.84260303
7.4624858 -2.9859436 -0.89589095
8.2486629 -3.3005145 -0.49625263
9.1803007 -3.6732881 0
9.1218328 -3.6498935 0.5487839
2.6150651 -1.0426948 -0.92828387
2.9933758 -1.1935371 -0.88909209
3.5534148 -1.4168394 -0.84745467
4.6875868 -1.8690633 -0.84131873
7.473289 -2.9797955 -0.89675504
8.2454109 -3.2876606 -0.49581763
9.1968174 -3.6670113 0
9.135891 -3.6427183 0.54936451
2.6117337 -1.0377108 -0.92665553
2.9924777 -1.1889904 -0.88839793
3.5740149 -1.4200504 -0.85195774
4.692225 -1.8643448 -0.84174627
7.4937119 -2.9774497 -0.89877337
8.25179 -3.2786539 -0.49596265
9.1988249 -3.6549358 0
9.1451111 -3.6335938 0.54965448
2.6083939 -1.0327363 -0.92502713
3.0032425 -1.1890678 -0.89116657
3.5662782 -1.4119895 -0.84970623
4.69209 -1.8577298 -0.84131873
7.4973044 -2.9683928 -0.89877337
8.2484951 -3.2658103 -0.49552709
9.1887207 -3.6380718 0
9.1470804 -3.6215856 0.54950947
2.5475609 -1.0050917 -0.90302229
3.0210152 -1.191884 -0.89601237
3.5679817 -1.4076792 -0.84970623
4.6871648 -1.8492317 -0.84003443
7.505702 -2.9612319 -0.89935046
8.2524347 -3.2558413 -0.49552709
9.1979465 -3.6288748 0
9.1538649 -3.6114831 0.54965448
2.5878754 -1.017385 -0.9168759
3.013114 -1.1845613 -0.89324373
3.574414 -1.4052281 -0.85083306
4.7013483 -1.8482656 -0.84217548
7.5020509 -2.9493206 -0.8984853
8.2466898 -3.2420645 -0.49494651
9.2120132 -3.621567 0
9.1582222 -3.6004198 0.54965448
2.5983081 -1.0178634 -0.9201358
3.0028656 -1.1763451 -0.88978362
3.5761094 -1.4009081 -0.85083306
4.703578 -1.8425837 -0.84217548
7.5200543 -2.9459124 -0.90021455
8.2530184 -3.2330444 -0.49509153
9.2091103 -3.6075847 0
9.1577311 -3.5874574 0.54936451
2.5580971 -0.99854749 -0.90546799
2.9902582 -1.1672406 -0.8856293
3.5825288 -1.3984321 -0.85195774
4.7010136 -1.8350303 -0.84131873
7.5139709 -2.9330616 -0.89906138
8.2569189 -3.2230699 -0.49509153
9.2207384 -3.5992947 0
9.1644783 -3.5773335 0.54950947
2.5955472 -1.0113595 -0.9185074
3.0166783 -1.175454 -0.89324373
3.5762773 -1.3935026 -0.85027075
4.6997318 -1.8312587 -0.84089118
7.5181584 -2.9294634 -0.89935046
8.2612925 -3.219027 -0.49523708
9.2132111 -3.5899439 0
9.1569529 -3.5680225 0.54892892
2.5622046 -0.99480313 -0.90628219
3.0368061 -1.1790721 -0.89878106
3.5779586 -1.3891804 -0.85027075
4.6971507 -1.8237187 -0.84003443
7.5072212 -2.9147582 -0.8976202
8.2603273 -3.2071598 -0.49494651
9.2199659 -3.5797498 0
9.1709461 -3.5607173 0.54950947
2.6141129 -1.0113239 -0.92420983
3.0265319 -1.1708769 -0.89532089
3.5820019 -1.385772 -0.85083306
4.7137203 -1.8236009 -0.84260303
7.5131474 -2.9066174 -0.89790821
8.2641964 -3.1971765 -0.49494651
9.2194347 -3.5667305 0
9.1703997 -3.5477602 0.54921949
2.5853546 -0.9966085 -0.91361606
3.0068789 -1.1590986 -0.88909209
3.581305 -1.3805298 -0.85027075
4.7135272 -1.8169814 -0.84217548
7.5142431 -2.8966079 -0.8976202
8.2632093 -3.1853211 -0.49465653
9.2261639 -3.5565231 0
9.1843786 -3.5404155 0.54980004
2.5934811 -0.99614334 -0.91606176
3.0035887 -1.1536638 -0.88770646
3.5853403 -1.3771117 -0.85083306
4.713316 -1.8103616 -0.84174627
7.5080795 -2.8838165 -0.89646703
8.2718983 -3.1771958 -0.49494651
9.2353182 -3.5472407 0
9.1789465 -3.5255885 0.54921949
2.6454616 -1.0124425 -0.93398941
3.021384 -1.1563115 -0.89255226
3.5822511 -1.3709604 -0.84970623
4.7202997 -1.8065021 -0.84260303
7.5139718 -2.8756661 -0.89675504
8.2805901 -3.1690578 -0.49523708
9.2444544 -3.5379376 0
9.1929073 -3.5182102 0.54980004
2.5473855 -0.97138059 -0.89894825
3.0157444 -1.1499773 -0.89047509
3.5910296 -1.3693477 -0.85139543
4.715281 -1.7980524 -0.84131873
7.5150266 -2.865664 -0.89646703
8.2771273 -3.1562717 -0.49480152
9.2438641 -3.5249121 0
9.2020025 -3.5089495 0.55009001
2.6040084 -0.98937005 -0.9185074
3.0499601 -1.1588055 -0.90016401
3.5808077 -1.3604963 -0.84858155
4.7294464 -1.7969114 -0.84345812
7.5208993 -2.8574994 -0.89675504
8.2882242 -3.1490376 -0.49523708
9.245676 -3.5128131 0
9.1965199 -3.4941366 0.54950947
2.5843916 -0.97834492 -0.91117036
3.0232117 -1.1444643 -0.89186072
3.5919542 -1.359767 -0.85083306
4.7220111 -1.7875601 -0.84174627
7.5243464 -2.8484097 -0.89675504
8.2944508 -3.1399398 -0.49538207
9.2572184 -3.5044041 0
9.2128839 -3.4876208 0.55023503
2.5786409 -0.97260725 -0.90872782
3.038672 -1.146121 -0.89601237
3.5983448 -1.3572174 -0.85195774
4.7265763 -1.7827617 -0.84217548
7.5181026 -2.8356647 -0.89560187
8.2982388 -3.1299152 -0.49538207
9.2517052 -3.4895422 0
9.2170906 -3.4764862 0.55023503
2.5960028 -0.97557443 -0.91443026
3.0330071 -1.1398001 -0.89393526
3.6094961 -1.3564439 -0.8542093
4.7311273 -1.7779515 -0.84260303
7.5166855 -2.8247604 -0.89502579
8.292285 -3.1162298 -0.49480152
9.2559156 -3.4783607 0
9.2188549 -3.4644334 0.55009001
2.5532076 -0.95597291 -0.89894825
3.0484836 -1.1414143 -0.89808953
3.6016142 -1.3485177 -0.85195774
4.7236562 -1.768633 -0.84089118
7.5200934 -2.815676 -0.89502579
8.3009062 -3.1080284 -0.49509153
9.2674255 -3.4699128 0
9.2181721 -3.4514713 0.54980004
2.6307774 -0.98139387 -0.92584133
3.0122519 -1.1237003 -0.88701493
3.5961061 -1.3415031 -0.85027075
4.7305951 -1.7647169 -0.84174627
7.5331836 -2.8102036 -0.89617896
8.304656 -3.097996 -0.49509153
9.2740479 -3.4596212 0
9.2198944 -3.4394195 0.54965448
2.6528101 -0.98596311 -0.93317521
3.0253632 -1.124429 -0.89047509
3.6048627 -1.3398101 -0.85195774
4.7351375 -1.7598964 -0.84217548
7.5365734 -2.8010991 -0.89617896
8.3010931 -3.0852461 -0.49465653
9.2806578 -3.4493186 0
9.2386618 -3.4337099 0.55052561
2.6215546 -0.97074294 -0.92176729
3.0243692 -1.1199023 -0.88978362
3.6040983 -1.3345718 -0.85139543
4.7420707 -1.7559547 -0.84303057
7.5496545 -2.7955832 -0.89733213
8.3072491 -3.0761151 -0.49480152
9.2897053 -3.4399114 0
9.233057 -3.4189351 0.54994506
2.6088083 -0.96244013 -0.9168759
3.0186567 -1.1136413 -0.88770646
3.6033268 -1.3293374 -0.85083306
4.7321491 -1.7457819 -0.84089118
7.5433207 -2.7828779 -0.89617896
8.3133955 -3.0669737 -0.49494651
9.2865276 -3.4259808 0
9.246933 -3.4113736 0.55052561
2.6146133 -0.96099418 -0.9185074
3.0341332 -1.1151875 -0.89186072
3.6120875 -1.3276131 -0.85252225
4.7366624 -1.7409475 -0.84131873
7.5539632 -2.776439 -0.89704412
8.3195324 -3.0578218 -0.49509153
9.2882195 -3.4138603 0
9.241292 -3.3966124 0.54994506
2.6157727 -0.95783424 -0.9185074
3.037832 -1.1123824 -0.89255226
3.6089125 -1.3214985 -0.85139543
4.7484045 -1.7387537 -0.84303057
7.5597386 -2.768198 -0.89733213
8.3232212 -3.0477672 -0.49509153
9.2996721 -3.4053204 0
9.2429523 -3.384551 0.54980004
2.5745609 -0.9409799 -0.90383649
3.0455656 -1.1131281 -0.89462674
3.6144876 -1.3210641 -0.85252225
4.751863 -1.736765 -0.84345812
7.5516925 -2.7600787 -0.89617896
8.3323851 -3.0454149 -0.49552709
9.296834 -3.397913 0
9.2571955 -3.3834252 0.55052561
2.6105349 -0.95055389 -0.91606176
3.0280588 -1.1025836 -0.88909209
3.6136868 -1.3158239 -0.85195774
4.7515483 -1.7301445 -0.84303057
7.5525942 -2.7500677 -0.89589095
8.3384981 -3.0362327 -0.49567208
9.3082714 -3.3893492 0
9.2515106 -3.3686812 0.54994506
2.6163239 -0.94908297 -0.9176901
3.0270236 -1.098066 -0.88839793
3.6128879 -1.3105909 -0.85139543
4.751224 -1.7235274 -0.84260303
7.563199 -2.7435834 -0.89675504
8.3446102 -3.0270438 -0.49581763
9.3172483 -3.3798728 0
9.2677851 -3.3619297 0.55067062
2.6616361 -0.96188247 -0.93317521
3.0590184 -1.1054915 -0.89739537
3.6240273 -1.3096788 -0.85364693
4.7508912 -1.7169136 -0.84217548
7.5738082 -2.7370808 -0.8976202
8.3507032 -3.0178411 -0.49596265
9.3188801 -3.3677285 0
9.2693996 -3.3498466 0.55052561
2.6000061 -0.93605977 -0.91117036
3.0461936 -1.0966972 -0.89324373
3.6184328 -1.302716 -0.85195774
4.7577887 -1.7129092 -0.84303057
7.5771098 -2.7279274 -0.8976202
8.3567858 -3.0086281 -0.49610764
9.3204966 -3.3555853 0
9.2685461 -3.3368819 0.55023503
2.6081169 -0.93542153 -0.91361606
3.0451574 -1.0921695 -0.89255226
3.617615 -1.2974858 -0.85139543
4.7526035 -1.7045584 -0.84174627
7.5779681 -2.7178977 -0.89733213
8.3579712 -2.9976518 -0.49596265
9.3122978 -3.3399286 0
9.2701273 -3.3248038 0.55009001
2.7093213 -0.96802604 -0.94865721
3.0441146 -1.087646 -0.89186072
3.6143992 -1.2914056 -0.85027075
4.7594991 -1.7005436 -0.84260303
7.5861135 -2.7104781 -0.89790821
8.3689213 -2.990171 -0.49639764
9.3236723 -3.3312986 0
9.283926 -3.3170974 0.55067062
2.6452997 -0.94154865 -0.92584133
3.0477879 -1.0848074 -0.89255226
3.6183484 -1.2878885 -0.85083306
4.7518764 -1.6913483 -0.84089118
7.5772018 -2.696974 -0.89646703
8.3725281 -2.9800568 -0.49639764
9.3325987 -3.3217773 0
9.2830362 -3.304136 0.55038059
2.6371174 -0.93504775 -0.92258149
3.0301802 -1.0744168 -0.88701493
3.6222944 -1.2843639 -0.85139543
4.7587509 -1.6873194 -0.84174627
7.5755839 -2.6860893 -0.89589095
8.3785791 -2.9708087 -0.4965432
9.3316956 -3.3087571 0
9.284565 -3.2920461 0.55023503
2.654552 -0.9376204 -0.92828387
3.0433016 -1.0749315 -0.89047509
3.6238437 -1.279986 -0.85139543
4.7753139 -1.6866995 -0.84431487
7.5934525 -2.6821005 -0.8976202
8.3846102 -2.9615474 -0.49668819
9.3479633 -3.3018155 0
9.3056898 -3.2868838 0.55125117
2.6230466 -0.92292893 -0.9168759
3.0753613 -1.0820775 -0.89947253
3.6277821 -1.276449 -0.85195774
4.7579761 -1.6741121 -0.84089118
7.5796065 -2.6669133 -0.89560187
8.3783779 -2.9479642 -0.49610764
9.3396645 -3.2861965 0
9.3121033 -3.276499 0.55139613
2.6428196 -0.92629904 -0.92339563
3.0482557 -1.0684029 -0.89116657
3.6293218 -1.2720646 -0.85195774
4.7842169 -1.6768512 -0.84517002
7.5803847 -2.6568983 -0.89531386
8.3868332 -2.9395556 -0.49639764
9.3509989 -3.277492 0
9.3160553 -3.2652447 0.55139613
2.6252692 -0.91658735 -0.9168759
3.054286 -1.0663744 -0.89255226
3.6284597 -1.2668415 -0.85139543
4.776545 -1.6676844 -0.84345812
7.5909176 -2.6502955 -0.89617896
8.3928394 -2.9302788 -0.4965432
9.3549519 -3.266191 0
9.317543 -3.25313 0.55125117
2.6147048 -0.90935588 -0.91280186
3.0579398 -1.0635065 -0.89324373
3.6299877 -1.2624564 -0.85139543
4.7737122 -1.6602268 -0.84260303
7.5941143 -2.6411214 -0.89617896
8.4012785 -2.9218409 -0.49683321
9.3564358 -3.2540309 0
9.3239193 -3.2427218 0.55139613
2.618135 -0.90700418 -0.91361606
3.0592225 -1.0598108 -0.89324373
3.6387155 -1.2605654 -0.85308462
4.780561 -1.6561365 -0.84345812
7.5948586 -2.6310976 -0.89589095
8.4072552 -2.9125373 -0.49697819
9.3603611 -3.242723 0
9.3302927 -3.2323065 0.55154169
2.6519432 -0.91512901 -0.92502713
3.0581315 -1.0552959 -0.89255226
3.6282289 -1.2520243 -0.85027075
4.7801342 -1.6495224 -0.84303057
7.5931373 -2.6202297 -0.89531386
8.4058609 -2.9006829 -0.49668819
9.3642721 -3.2314105 0
9.3268204 -3.2184865 0.55110615
2.5946147 -0.89183921 -0.90465379
3.0404241 -1.045076 -0.88701493
3.6417513 -1.2517684 -0.85308462
4.7772732 -1.642078 -0.84217548
7.6036382 -2.6135759 -0.89617896
8.4142694 -2.8922117 -0.49697819
9.3780146 -3.2234771 0
9.3356123 -3.2089024 0.55139613
2.6611552 -0.91111708 -0.92746967
3.0606728 -1.0479026 -0.89255226
3.6480644 -1.2490115 -0.8542093
4.7841067 -1.6379658 -0.84303057
7.601892 -2.6027093 -0.89560187
8.4030123 -2.8769941 -0.49610764
9.3892822 -3.2146699 0
9.3493166 -3.2009864 0.55197674
2.6295083 -0.8967337 -0.91606176
3.0666811 -1.0458215 -0.89393526
3.6495707 -1.2446027 -0.8542093
4.7982283 -1.6363261 -0.84517002
7.6050315 -2.5935221 -0.89560187
8.4212341 -2.8718693 -0.49697819
9.3759241 -3.1974447 0
9.3630142 -3.193042 0.55255729
2.6557896 -0.90390557 -0.92502713
3.0506945 -1.0383126 -0.88909209
3.6551375 -1.2440366 -0.85533613
4.7919326 -1.6309479 -0.84388733
7.6041508 -2.5880945 -0.89531386
8.4278917 -2.8684571 -0.49726877
9.3852482 -3.1942959 0
9.3501873 -3.182363 0.5516867
2.6568799 -0.90069592 -0.92502713
3.0733283 -1.0418741 -0.89532089
3.6470125 -1.236356 -0.85308462
4.7866039 -1.6226834 -0.84260303
7.6121759 -2.5805669 -0.89589095
8.4165821 -2.8532646 -0.49639764
9.4014215 -3.1871305 0
9.3515673 -3.1702294 0.55154169
2.6345446 -0.88957644 -0.9168759
3.0508111 -1.0301323 -0.88839793
3.6485038 -1.2319484 -0.85308462
4.7934208 -1.6185395 -0.84345812
7.6128311 -2.5705373 -0.89560187
8.4249516 -2.8447568 -0.49668819
9.3880033 -3.1699395 0
9.3627701 -3.1614189 0.55197674
2.6566992 -0.89348251 -0.92420983
3.0639498 -1.0304462 -0.89186072
3.6403563 -1.2242991 -0.85083306
4.7978129 -1.613567 -0.84388733
7.6183901 -2.5621636 -0.89589095
8.4209919 -2.8320889 -0.49625263
9.4140253 -3.166059 0
9.3641224 -3.149276 0.55183172
2.6460612 -0.88634729 -0.9201358
3.0675693 -1.0275393 -0.89255226
3.6562841 -1.2247403 -0.8542093
4.8143597 -1.6126592 -0.84645432
7.6165705 -2.5513117 -0.89531386
8.4268694 -2.8227365 -0.49639764
9.4030418 -3.1497238 0
9.3753147 -3.1404359 0.55226725
2.6447878 -0.88236797 -0.9193216
3.0783279 -1.0270078 -0.89532089
3.636071 -1.2130851 -0.84914386
4.7943907 -1.5995297 -0.84260303
7.6220989 -2.5429246 -0.89560187
8.430274 -2.8125522 -0.49639764
9.4043751 -3.1375368 0
9.3815651 -3.1299269 0.55241227
2.6435089 -0.87839299 -0.9185074
3.0605204 -1.0169588 -0.88978362
3.6592333 -1.2159009 -0.8542093
4.8084984 -1.5977821 -0.84474248
7.6202617 -2.5320833 -0.89502579
8.4509296 -2.8081002 -0.49741375
9.4205055 -3.1302736 0
9.3828764 -3.1177702 0.55226725
2.653954 -0.87830436 -0.92176729
3.0831802 -1.0203532 -0.89601237
3.6510508 -1.2082853 -0.85195774
4.81286 -1.5927765 -0.84517002
7.6257687 -2.5236857 -0.89531386
8.4518518 -2.7970712 -0.49726877
9.4242811 -3.1188886 0
9.3816986 -3.1047962 0.55197674
2.6409245 -0.87045324 -0.9168759
3.0748801 -1.0134857 -0.89324373
3.6452754 -1.201489 -0.85027075
4.8147812 -1.5869601 -0.84517002
7.6312666 -2.5152786 -0.89560187
8.4576912 -2.7876694 -0.49741375
9.4329815 -3.1091266 0
9.3755722 -3.0902045 0.55139613
2.5762305 -0.84568024 -0.89406002
3.0927901 -1.0152475 -0.89808953
3.65396 -1.1994586 -0.85195774
4.8142586 -1.5803412 -0.84474248
7.6343002 -2.5060558 -0.89560187
8.4413023 -2.7709644 -0.49625263
9.4169493 -3.091233 0
9.3694239 -3.0756319 0.55081558
2.6477234 -0.86560613 -0.9185074
3.0916231 -1.0107279 -0.89739537
3.6457462 -1.1918844 -0.84970623
4.8259244 -1.5777138 -0.84645432
7.632411 -2.4952235 -0.89502579
8.4397097 -2.7591493 -0.49596265
9.4602566 -3.0927913 0
0 -0 0
2.6417146 -0.86010993 -0.91606176
3.0856924 -1.0046637 -0.89532089
3.659271 -1.1914139 -0.85252225
4.8229408 -1.5702904 -0.84559757
7.6403341 -2.4875994 -0.89560187
7.7710118 -2.5301464 -0.45648637
7.7194548 -2.51336 0
7.7585464 -2.5260878 0.45575413
2.6286409 -0.85234177 -0.91117036
3.0821266 -0.99938542 -0.89393526
3.6558692 -1.1854225 -0.85139543
4.8175159 -1.5620886 -0.84431487
7.6384187 -2.4767716 -0.89502579
7.7641764 -2.5175488 -0.45590582
7.7695251 -2.5192831 0
7.7146368 -2.5014856 0.45299688
2.6437855 -0.85372347 -0.91606176
3.0737824 -0.99257684 -0.89116657
3.6645551 -1.1833475 -0.85308462
4.8291712 -1.5594218 -0.84602678
7.6291013 -2.463567 -0.89358461
7.7598014 -2.5057724 -0.4554708
7.7106509 -2.4899008 0
7.7300148 -2.4961538 0.45372245
2.6612878 -0.85582566 -0.92176729
3.0845327 -0.99193424 -0.89393526
3.6514642 -1.1742499 -0.84970623
4.8237181 -1.5512272 -0.84474248
7.6369925 -2.455929 -0.89416069
7.7826133 -2.5027583 -0.45663193
7.7409096 -2.4893472 0
7.7330256 -2.4868116 0.45372245
2.6246583 -0.84054828 -0.90872782
3.0594544 -0.97979194 -0.88632345
3.6674042 -1.1744882 -0.85308462
4.8280315 -1.5461797 -0.84517002
7.6399541 -2.4466994 -0.89416069
7.7732511 -2.489388 -0.45590582
7.7538161 -2.4831638 0
7.7310801 -2.4758825 0.45343244
2.6468627 -0.84413433 -0.91606176
3.0654118 -0.97761756 -0.88770646
3.6591375 -1.1669679 -0.85083306
4.8323393 -1.5411241 -0.84559757
7.6404433 -2.4366813 -0.89387268
7.7737803 -2.4792049 -0.45576081
7.7394619 -2.46826 0
7.7192078 -2.4618006 0.45256132
2.6826935 -0.85377622 -0.92828387
3.0970776 -0.98565537 -0.8967039
3.6671081 -1.1670694 -0.85252225
4.8308258 -1.5374266 -0.84517002
7.6419139 -2.4320648 -0.89387268
7.770329 -2.4729333 -0.4554708
7.7310319 -2.4604268 0
7.7281241 -2.4595015 0.45299688
2.6376178 -0.83241642 -0.91198772
3.0779207 -0.97137338 -0.89047509
3.6674876 -1.1574371 -0.85195774
4.8296356 -1.5242041 -0.84431487
7.6305008 -2.4081404 -0.89185435
7.8084941 -2.464314 -0.4573575
7.7568097 -2.4480028 0
9.428895 -2.9757028 0.55226725
2.6739836 -0.84034175 -0.92420983
3.0886657 -0.97066224 -0.89324373
3.6737361 -1.1545299 -0.85308462
4.8388138 -1.520674 -0.84559757
7.6334047 -2.3989186 -0.89185435
7.8486423 -2.4665606 -0.45953417
7.8044477 -2.4526715 0
9.4448757 -2.9682021 0.55299282
2.679719 -0.83858788 -0.92584133
3.0730741 -0.96168393 -0.88839793
3.677551 -1.1508482 -0.85364693
4.8431048 -1.5155951 -0.84602678
7.6437054 -2.3920116 -0.89271951
8.5137129 -2.6642706 -0.49828488
9.4813442 -2.9670799 0
9.4558973 -2.9591165 0.55342841
2.7066803 -0.84343565 -0.93480361
3.0933952 -0.96394092 -0.89393526
3.671659 -1.1441352 -0.85195774
4.8424745 -1.5089761 -0.84559757
7.6367126 -2.3796959 -0.89156634
8.5268402 -2.6570706 -0.49886486
9.4923792 -2.9579449 0
9.449543 -2.9445965 0.5528478
2.7124231 -0.84163088 -0.9364351
3.0897701 -0.95871699 -0.89255226
3.6803215 -1.1419576 -0.85364693
4.841845 -1.5023638 -0.84517002
7.6321692 -2.3681664 -0.89070117
8.5350122 -2.6483073 -0.49915543
9.4860039 -2.943388 0
9.4456463 -2.9308655 0.55241227
2.7370481 -0.84564751 -0.94458318
3.1053035 -0.95942491 -0.8967039
3.6768479 -1.1360111 -0.85252225
4.8436565 -1.4965123 -0.84517002
7.6375036 -2.3597085 -0.89099026
8.5382061 -2.6379926 -0.49915543
9.4895535 -2.9319239 0
9.4566307 -2.9217522 0.5528478
2.7097199 -0.83361864 -0.93480361
3.0896823 -0.95051044 -0.89186072
3.6830704 -1.1330603 -0.85364693
4.8430099 -1.4899045 -0.84474248
7.6304607 -2.3474362 -0.88983709
8.5413876 -2.6276739 -0.49915543
9.495574 -2.9212201 0
9.4551821 -2.9087939 0.55255729
2.6989112 -0.82672513 -0.93072957
3.0932252 -0.94751054 -0.89255226
3.6917274 -1.1308426 -0.85533613
4.859529 -1.4885613 -0.84730941
7.6382327 -2.3397281 -0.89041317
8.5495205 -2.6188719 -0.49944544
9.5090504 -2.9127934 0
9.4611721 -2.8981273 0.55270225
2.6857283 -0.81913853 -0.92584133
3.0799654 -0.93937957 -0.88839793
3.6857977 -1.1241566 -0.85364693
4.8539653 -1.4804438 -0.84602678
7.6460071 -2.3320076 -0.89099026
8.5526781 -2.6085396 -0.49944544
9.5051022 -2.8990259 0
9.4696426 -2.8882108 0.55299282
2.6725216 -0.81158227 -0.92095
3.095506 -0.94003266 -0.89255226
3.6944494 -1.1219178 -0.85533613
4.8557506 -1.4745777 -0.84602678
7.6389198 -2.319761 -0.88983709
8.55334 -2.5974491 -0.49930042
9.5011253 -2.8852694 0
9.4780941 -2.8782752 0.55328286
2.6593099 -0.80406189 -0.91606176
3.1158507 -0.94210029 -0.89808953
3.6714761 -1.1100978 -0.84970623
4.8550644 -1.4679643 -0.84559757
7.6441908 -2.3112772 -0.8901251
8.5689058 -2.5908716 -0.50002599
9.5195465 -2.8783047 0
9.4815645 -2.8668206 0.55328286
2.6815774 -0.80725956 -0.92339563
3.0953686 -0.93182683 -0.89186072
3.6874177 -1.1100568 -0.85308462
4.8617554 -1.4635782 -0.84645432
7.659359 -2.3057661 -0.89156634
8.5770121 -2.5820155 -0.50031656
9.5205278 -2.8660507 0
9.4850216 -2.8553619 0.55328286
2.6138942 -0.78344089 -0.89976245
3.0964923 -0.92808598 -0.89186072
3.6936195 -1.107058 -0.8542093
4.8684335 -1.4591753 -0.84730941
7.6646147 -2.2972515 -0.89185435
8.582612 -2.5723953 -0.50046152
9.5289745 -2.8560407 0
9.4909611 -2.8446472 0.55342841
2.6787882 -0.79936475 -0.92176729
3.1168342 -0.93008 -0.89739537
3.6949546 -1.1025941 -0.8542093
4.8578963 -1.4496222 -0.84517002
7.6748223 -2.2902081 -0.89271951
8.5906982 -2.5635104 -0.50075209
9.5423937 -2.8475013 0
9.5043516 -2.8361492 0.55400896
2.6797521 -0.79612738 -0.92176729
3.1035311 -0.92202783 -0.89324373
3.7011602 -1.0995774 -0.85533613
4.8571858 -1.4430209 -0.84474248
7.6825476 -2.2824075 -0.8932966
8.5987663 -2.5546069 -0.50104213
9.5383415 -2.833745 0
9.4978075 -2.821703 0.55342841
2.6641192 -0.78798103 -0.91606176
3.0998361 -0.91685539 -0.89186072
3.6903057 -1.0915017 -0.85252225
4.866313 -1.4393359 -0.84602678
7.6728916 -2.2694528 -0.89185435
8.6093245 -2.5464268 -0.50147766
9.5467443 -2.8236926 0
9.5012102 -2.8102248 0.55342841
2.6479988 -0.78147358 -0.91035622
3.1196296 -0.92066056 -0.89739537
3.6958337 -1.0907091 -0.85364693
4.8745608 -1.4385734 -0.84730941
7.6866717 -2.2684793 -0.8932966
8.6158409 -2.5426946 -0.50176764
9.5584335 -2.8208709 0
9.5078859 -2.8059535 0.55371839
2.6513102 -0.77896947 -0.91117036
3.1038976 -0.91194206 -0.89255226
3.6922779 -1.0848114 -0.85252225
4.8738351 -1.4319594 -0.84688187
7.6894073 -2.2591901 -0.8932966
8.621398 -2.5330141 -0.50191265
9.5668335 -2.8107879 0
9.5062885 -2.7929995 0.55342841
2.6736062 -0.78201199 -0.9185074
3.1170342 -0.91171175 -0.89601237
3.6984587 -1.0817745 -0.85364693
4.8780231 -1.4267893 -0.84730941
7.6970916 -2.251348 -0.89387268
8.6219606 -2.5218661 -0.50176764
9.562727 -2.7970338 0
9.5121479 -2.7822397 0.55357337
2.7006459 -0.78637981 -0.92746967
3.1084986 -0.90513921 -0.89324373
3.6948886 -1.0758855 -0.85252225
4.8723564 -1.4187431 -0.84602678
7.6973252 -2.2413235 -0.89358461
8.6324883 -2.5136263 -0.50220323
9.5685959 -2.7862039 0
9.5179949 -2.7714698 0.55371839
2.6707358 -0.77417111 -0.9168759
3.1216357 -0.90487421 -0.8967039
3.7010622 -1.0728337 -0.85364693
4.8765306 -1.4135689 -0.84645432
7.6950545 -2.2305796 -0.89300752
8.6280298 -2.5010228 -0.50176764
9.5669613 -2.7731924 0
9.5288267 -2.7621384 0.55415392
2.6289291 -0.75861025 -0.90220809
