# .PCD v0.7 - Point Cloud Data file format
VERSION 0.7
FIELDS x y z
SIZE 4 4 4
TYPE F F F
COUNT 1 1 1
WIDTH 1528
HEIGHT 1
VIEWPOINT 0 0 0 1 0 0 0
POINTS 1528
DATA ascii
-0.58379549 3.5740523 -0.99913853
-0.69614959 4.2618947 -0.95664889
-0.87145579 5.3351364 -0.90123087
-1.239441 7.5879774 -0.85697341
-1.5268974 9.3478136 -0.52905273
-1.5335848 9.3887548 0
-1.7945325 10.986301 0.62178534
-0.58281755 3.5411656 -0.99014109
-0.70088649 4.2585459 -0.95608658
-0.88123673 5.3543434 -0.90465456
-1.2490283 7.5890236 -0.85726148
-1.5373465 9.3408289 -0.52876222
-1.5440837 9.3817635 0
-1.8099155 10.996943 0.62251085
-0.58381265 3.5206592 -0.98460376
-0.70353836 4.2426605 -0.95271033
-0.88518685 5.3380847 -0.90208763
-1.2569275 7.5798516 -0.85639632
-1.5469316 9.3287106 -0.52818167
-1.5571216 9.3901606 0
-1.8215015 10.984493 0.6219303
-0.59716028 3.5743847 -0.99983001
-0.71117568 4.2568398 -0.95608658
-0.89121205 5.3344717 -0.90165842
-1.2639546 7.5655742 -0.85495514
-1.5552064 9.3089008 -0.52716607
-1.5714674 9.4062338 0
-1.8377705 11.000227 0.62294644
-0.59898126 3.5588214 -0.99567837
-0.71716297 4.260993 -0.9572134
-0.89765704 5.3333912 -0.90165842
-1.2748125 7.574244 -0.85610831
-1.5655899 9.3018856 -0.52687556
-1.5824003 9.4017639 0
-1.8558035 11.026177 0.62454253
-0.60537744 3.5704601 -0.99913853
-0.72231102 4.2601237 -0.9572134
-0.90839285 5.3576169 -0.90593892
-1.2843955 7.5752459 -0.85639632
-1.5742228 9.2846203 -0.52600497
-1.5933247 9.3972816 0
-1.8791162 11.082853 0.62788087
-0.6096912 3.569726 -0.99913853
-0.72702903 4.2567358 -0.95664889
-0.91616279 5.364109 -0.90722322
-1.2905008 7.5558486 -0.85437906
-1.5845646 9.2775841 -0.5257144
-1.6055537 9.4004755 0
-1.8942561 11.09082 0.62846148
-0.60847485 3.5368474 -0.99014109
-0.72786468 4.2308178 -0.95102113
-0.92177224 5.3579335 -0.90636647
-1.2991898 7.5517273 -0.85408998
-1.5957736 9.2756624 -0.5257144
-1.6155888 9.3908415 0
-1.9098582 11.101325 0.62918699
-0.61017877 3.5212827 -0.98598945
-0.73818225 4.2599783 -0.95777577
-0.92780775 5.3542891 -0.90593892
-1.3091978 7.555254 -0.85466707
-1.6083117 9.2814112 -0.52614999
-1.6295998 9.4042635 0
-3.2878859 18.974073 1.0756131
-0.62133271 3.560076 -0.99706137
-0.74376547 4.2615838 -0.95833808
-0.93604207 5.3632793 -0.90765077
-1.3183259 7.5536666 -0.85466707
-1.6190789 9.2769041 -0.52600497
-1.6405149 9.3997259 0
-3.3041084 18.931688 1.0734359
-0.62085772 3.5321498 -0.98944956
-0.74935371 4.2631822 -0.95890045
-0.94296587 5.3646703 -0.90807831
-1.3287958 7.5597129 -0.85553223
-1.6302871 9.2749405 -0.52600497
-1.6518713 9.3977365 0
-3.3229332 18.904652 1.0721298
-0.62687433 3.5412786 -0.9922182
-0.75450438 4.2622738 -0.95890045
-0.9503414 5.3685775 -0.90893346
-1.3374771 7.5555477 -0.85524315
-1.6428503 9.280633 -0.52643996
-1.6645851 9.4034147 0
-3.337167 18.852005 1.0693721
-0.63115281 3.5405185 -0.9922182
-0.75876296 4.256361 -0.95777577
-0.95637751 5.3649006 -0.90850586
-1.3456985 7.5488381 -0.85466707
-1.6563444 9.2914391 -0.52716607
-1.677773 9.4116449 0
-3.3499119 18.791685 1.0661793
-0.63285041 3.5376694 -0.99152672
-0.75999153 4.2483959 -0.95608658
-0.96278328 5.3820128 -0.91150206
-1.3502589 7.5480237 -0.85466707
-1.6614987 9.2878714 -0.52702051
-1.687125 9.4311247 0
-3.3557734 18.758963 1.0644375
-0.64201558 3.5640543 -0.99913853
-0.76602614 4.2524805 -0.9572134
-0.96883106 5.3783216 -0.91107452
-1.3584603 7.5412908 -0.85408998
-1.6736422 9.2909765 -0.52731109
-1.696213 9.416275 0
-3.373832 18.729326 1.0629865
-0.63736671 3.5139062 -0.9852953
-0.77252299 4.2590446 -0.95890045
-0.97670209 5.3847175 -0.91235715
-1.3689568 7.5472813 -0.85495514
-1.6899672 9.3170643 -0.52890718
-1.7122333 9.4398203 0
-3.3881135 18.67922 1.0603743
-0.64071149 3.5082023 -0.98391229
-0.77812475 4.2606053 -0.95946282
-0.98413104 5.3885889 -0.91321391
-1.3766806 7.5379858 -0.85408998
-1.7030911 9.3252401 -0.52948779
-1.7236383 9.4377451 0
-3.407413 18.657217 1.0593581
-0.64994127 3.5345695 -0.99152672
-0.7809751 4.2471695 -0.95664889
-0.98878437 5.3772969 -0.91150206
-1.3848532 7.5312343 -0.8535139
-1.714829 9.325738 -0.52963334
-1.7406886 9.4663706 0
-3.4238455 18.619865 1.0574714
-0.6514706 3.5189757 -0.9873724
-0.78610641 4.246223 -0.95664889
-1.0004219 5.4038663 -0.91621011
-1.3930097 7.5244641 -0.8529368
-1.7294058 9.3415375 -0.53064889
-1.7535473 9.47194 0
-3.4425573 18.595276 1.0563103
-0.66307682 3.5576468 -0.998447
-0.79728836 4.27774 -0.96396589
-1.0027161 5.3799338 -0.91235715
-1.4030492 7.5278654 -0.8535139
-1.7440251 9.3573246 -0.53166497
-1.7697586 9.4953938 0
-3.4588346 18.557896 1.0544237
-0.65488487 3.4902749 -0.97976065
-0.79777175 4.2518048 -0.95833808
-1.0139509 5.4039536 -0.91663766
-1.4126207 7.5287042 -0.85380197
-1.7567683 9.362874 -0.53210056
-3.4585185 18.432524 0
-3.4726312 18.507738 1.0518115
-0.66049725 3.4968696 -0.98183513
-0.80621022 4.2683177 -0.96227884
-1.018098 5.3901148 -0.91449827
-1.4202759 7.5193648 -0.8529368
-1.7738657 9.3913746 -0.53384167
-3.4861019 18.456463 0
-3.4829352 18.439699 1.0481831
-0.66659647 3.5059273 -0.98460376
-0.8051976 4.2348924 -0.9549619
-1.0284443 5.4090462 -0.91792035
-1.4308105 7.5252686 -0.85380197
-1.78861 9.4070959 -0.53485781
-3.5239542 18.534042 0
-3.4964781 18.389534 1.0455709
-0.67460489 3.5248318 -0.99014109
-0.81461221 4.2563744 -0.96002728
-1.032567 5.3951955 -0.9157809
-1.4399022 7.5235343 -0.85380197
-1.8053488 9.4330034 -0.53645444
-3.5556417 18.578339 0
-3.5108805 18.344461 1.0432487
-0.5727483 2.973165 -0.99836934
-0.67743933 3.5166214 -0.98806393
-0.81783205 4.2454071 -0.95777577
-1.0415128 5.4065447 -0.91792035
-1.4504602 7.5294108 -0.85466707
-1.8187114 9.441021 -0.53703499
-3.5692251 18.528025 0
-3.5310776 18.33 1.042668
-0.67500335 3.4813242 -0.97837496
-0.82392758 4.2493997 -0.95890045
-1.0480448 5.4052825 -0.91792035
-1.4595569 7.5276527 -0.85466707
-1.8330845 9.4541178 -0.53790557
-3.5732834 18.42918 0
-3.5487721 18.302763 1.0413619
-0.68977976 3.5346725 -0.9936012
-0.82760298 4.2409267 -0.9572134
-1.0560508 5.4115734 -0.91920465
-1.4726148 7.5461922 -0.85697341
-2.3426697 12.004659 -0.68318278
-2.5448346 13.040622 0
-3.568397 18.285713 1.0406364
-0.6834144 3.4796829 -0.97837496
-0.82782894 4.2149863 -0.9515835
-1.0645678 5.4203691 -0.9209165
-1.4802359 7.5367908 -0.85610831
-2.35467 11.989073 -0.68245727
-2.5555754 13.012005 0
-2.5559468 13.013896 0.74079353
-0.69151014 3.4985437 -0.98391229
-0.83735508 4.2364144 -0.95664889
-1.0716137 5.4215946 -0.9213441
-1.4923497 7.5502167 -0.8578375
-2.3721769 12.001509 -0.68332779
-2.5702858 13.003797 0
-2.5721729 13.013345 0.74093854
-0.69329023 3.4854052 -0.98045212
-0.84544855 4.2503567 -0.96002728
-1.0781639 5.4202957 -0.9213441
-1.5004635 7.5433393 -0.85726148
-2.3831277 11.980792 -0.68231165
-2.5819347 12.980262 0
-2.5828269 12.984747 0.73948741
-0.70193231 3.5067024 -0.98668092
-0.84559554 4.2244124 -0.95439738
-1.0847125 5.4189892 -0.9213441
-1.5090698 7.5389867 -0.85697341
-2.5868073 12.92313 -0.73615581
-2.5935304 12.956717 0
-2.5964744 12.971425 0.73890686
-0.7007193 3.4787962 -0.97906649
-0.85320938 4.2358494 -0.9572134
-1.0912595 5.4176745 -0.9213441
-1.5186883 7.539691 -0.85726148
-2.5962634 12.889428 -0.7344141
-2.6045597 12.930615 0
-2.605989 12.937711 0.73716521
-0.70292884 3.4681118 -0.97629786
-0.85832697 4.2348151 -0.9572134
-1.0998446 5.4264154 -0.92305595
-1.5272841 7.5353179 -0.85697341
-2.6082242 12.868462 -0.73339856
-2.6155295 12.904506 0
-2.6174903 12.91418 0.73600411
-0.71413833 3.5016789 -0.98598945
-0.86242682 4.2287912 -0.95608658
-1.1064006 5.4250827 -0.92305595
-1.5394882 7.5486679 -0.85870266
-2.6258483 12.875485 -0.73397911
-2.6285205 12.888588 0
-2.6284201 12.888096 0.734698
-0.60813415 2.9636087 -0.99755514
-0.72240329 3.5204742 -0.99152672
-0.86549282 4.2177896 -0.95383501
-1.1145034 5.4312882 -0.92434025
-1.5512072 7.5594683 -0.86014384
-2.6393147 12.862122 -0.73339856
-2.6419992 12.875205 0
-2.6403341 12.86709 0.73368186
-0.72158295 3.4950244 -0.98460376
-0.87521189 4.2391343 -0.95890045
-1.1184705 5.4173698 -0.92220086
-1.5624321 7.5677209 -0.86129701
-2.6622086 12.894545 -0.73543024
-2.6596594 12.882198 0
-2.6564064 12.866442 0.73382741
-0.7201944 3.4671373 -0.97699201
-0.87981719 4.2355881 -0.95833808
-1.1239704 5.4109826 -0.9213441
-1.5710496 7.5632973 -0.861009
-2.6772592 12.888777 -0.73528522
-2.6778691 12.891713 0
-2.6761768 12.883567 0.73498797
-0.72228897 3.4667017 -0.97699201
-0.88082063 4.227591 -0.95664889
-1.1272392 5.4103026 -0.9213441
-1.5772018 7.5699453 -0.8618741
-2.6903446 12.91259 -0.73673636
-2.6888433 12.905385 0
-2.6866114 12.894673 0.73571408
-0.73471022 3.5051033 -0.98806393
-0.88905686 4.2414494 -0.96002728
-1.1332495 5.4064269 -0.9209165
-1.5858173 7.5655055 -0.86158609
-2.7048798 12.904249 -0.73644632
-2.7060351 12.90976 0
-2.7043226 12.90159 0.73629463
-0.74153465 3.516494 -0.99152672
-0.88998693 4.2204823 -0.95552421
-1.1403105 5.4075627 -0.9213441
-1.5944225 7.5610456 -0.86129701
-2.7242215 12.918761 -0.73746192
-2.7221706 12.909035 0
-2.72259 12.911024 0.73702019
-0.73745328 3.4763291 -0.98045212
-0.89403033 4.2144279 -0.95439738
-1.1431162 5.3886099 -0.91834956
-1.6024848 7.5540581 -0.86072093
-2.7419863 12.925628 -0.73804247
-2.7426267 12.928647 0
-2.7408841 12.920432 0.73774576
-0.63139129 2.9587409 -0.99755514
-0.7364164 3.4508955 -0.97352916
-0.90124315 4.2232847 -0.95664889
-1.1501616 5.3897328 -0.91877711
-1.6137705 7.5622344 -0.8618741
-2.7624824 12.945174 -0.73934859
-2.7593317 12.930408 0
-2.7586629 12.927276 0.73832631
-0.75059038 3.4966104 -0.98668092
-0.90688032 4.2246838 -0.9572134
-1.1609836 5.4084187 -0.92220086
-1.6212777 7.5526896 -0.861009
-2.7830319 12.964699 -0.74065524
-2.7771382 12.937243 0
-2.7764626 12.934095 0.73890686
-0.7548148 3.4957008 -0.98668092
-0.9130559 4.2285476 -0.95833808
-1.1626419 5.3844309 -0.91834956
-1.6304024 7.550725 -0.861009
-2.7992432 12.963864 -0.74080026
-2.7938681 12.938971 0
-2.7942824 12.94089 0.73948741
-0.64211231 2.9564328 -0.99755514
-0.75424641 3.4727242 -0.98045212
-0.91870338 4.2299218 -0.95890045
-1.1686007 5.3805065 -0.91792035
-1.6395248 7.5487494 -0.861009
-2.8171115 12.97063 -0.74138081
-2.814471 12.958472 0
-2.8143291 12.957819 0.74064857
-0.75148189 3.43995 -0.97145468
-0.92869383 4.2511477 -0.96396589
-1.1767453 5.3866167 -0.91920465
-1.6497499 7.5518217 -0.86158609
-2.8350003 12.97737 -0.74196136
-2.8334582 12.970312 0
-2.830538 12.956944 0.74079353
-0.75509793 3.4365821 -0.97076052
-0.93055916 4.235137 -0.96058965
-1.1821523 5.3801813 -0.91834956
-1.6605372 7.557394 -0.86245018
-2.8501196 12.97139 -0.74181581
-2.8457782 12.951632 0
-2.8495367 12.968738 0.74166411
-0.75816816 3.4307728 -0.96937752
-0.93183732 4.2166395 -0.95664889
-1.1880969 5.376235 -0.91792035
-1.6696677 7.5553823 -0.86245018
-2.8680336 12.978086 -0.74239635
-2.8681648 12.978679 0
-2.8674476 12.975434 0.74224466
-0.77592027 3.4910769 -0.98668092
-0.93472648 4.2055893 -0.95439738
-1.1957071 5.3798122 -0.91877711
-1.6771138 7.5457921 -0.86158609
-2.8904781 13.00505 -0.744138
-2.8861012 12.985356 0
-2.887634 12.992252 0.74340576
-0.77521312 3.4681041 -0.98045212
-0.93814617 4.1970248 -0.95271033
-1.2033255 5.383369 -0.9196322
-1.6867938 7.5462818 -0.8618741
-2.907325 13.006624 -0.74442858
-2.9046297 12.994566 0
-2.9027641 12.98622 0.7432608
-0.76839846 3.418211 -0.96660888
-0.94878846 4.2206736 -0.95833808
-1.2120816 5.3919296 -0.9213441
-1.6976131 7.5518112 -0.86273926
-2.9247468 13.0107 -0.74486357
-2.9248953 13.01136 0
-2.920733 12.992844 0.74384135
-0.78580463 3.4760087 -0.98322076
-0.95220625 4.2120867 -0.95664889
-1.2106723 5.3554115 -0.91535336
-1.7061648 7.547224 -0.86245018
-2.9461963 13.032506 -0.74631524
-2.9434834 13.020506 0
-2.9410138 13.009582 0.74500245
-0.78055024 3.433471 -0.97145468
-0.95278895 4.1911116 -0.95214581
-1.2211263 5.3714695 -0.91834956
-1.7164308 7.5502062 -0.86302727
-2.9636679 13.03653 -0.74675024
-2.9603667 13.022011 0
-2.9613392 13.026289 0.74616355
-0.67834049 2.950865 -0.99836934
-0.78828162 3.4291227 -0.97076052
-0.96462274 4.196228 -0.95383501
-1.2352526 5.3735018 -0.91920465
-1.7311938 7.5309072 -0.86129701
-2.9974918 13.03946 -0.74733084
-2.9953268 13.030042 0
-2.9963019 13.034284 0.74703413
-0.7963801 3.4452803 -0.97560632
-0.97140962 4.2024889 -0.95552421
-1.2388544 5.3595018 -0.9170652
-1.7391282 7.5237746 -0.86072093
-3.0109046 13.025702 -0.74675024
-3.0151699 13.044155 0
-3.0126338 13.033183 0.74717915
-0.79713577 3.4296584 -0.97145468
-0.97361118 4.1889396 -0.95271033
-1.2482346 5.3705006 -0.91920465
-1.7470458 7.516624 -0.86014384
-2.7413504 11.794597 -0.67636168
-3.0268064 13.022765 0
-3.0248511 13.014352 0.74630857
-0.80584657 3.4482362 -0.97699201
-0.98329777 4.2075539 -0.9572134
-1.256476 5.3764901 -0.92048895
-1.7590715 7.5271077 -0.86158609
-2.7573721 11.79886 -0.67679667
-3.0401707 13.008961 0
-3.038209 13.000566 0.74572802
-0.68920141 2.933111 -0.993478
-0.81689662 3.4765577 -0.9852953
-0.98314846 4.184094 -0.95214581
-1.2612094 5.3674684 -0.91920465
-1.7687564 7.5274925 -0.8618741
-2.766278 11.772756 -0.67549056
-3.0523143 12.990072 0
-3.0479727 12.971596 0.74427688
-0.810139 3.4291854 -0.97214621
-0.99579746 4.2150474 -0.95946282
-1.2688756 5.3709421 -0.92006141
-1.7796352 7.5329037 -0.86273926
-3.0606828 12.955368 -0.74355745
-3.0638211 12.968653 0
-3.0594616 12.950199 0.7432608
-0.8035357 3.3920748 -0.96176308
-0.99366051 4.1946745 -0.9549619
-1.2733026 5.3751655 -0.9209165
-1.7853771 7.5368562 -0.86331534
-3.0649166 12.938351 -0.74268693
-3.0644569 12.93641 0
-3.0612965 12.923068 0.74180967
-0.81925857 3.4399116 -0.97560632
-1.0016711 4.2058272 -0.95777577
-1.2815813 5.3811173 -0.92220086
-1.796281 7.542244 -0.86418045
-3.071517 12.896719 -0.74050969
-3.076467 12.917502 0
-3.0726945 12.901663 0.74079353
-0.81815732 3.4169633 -0.96937752
-1.0067523 4.2046142 -0.95777577
-1.2821035 5.3545947 -0.91792035
-1.805393 7.5400681 -0.86418045
-3.0864935 12.890474 -0.74036467
-3.0878327 12.896067 0
-3.0846522 12.882784 0.739923
-0.82404739 3.4232919 -0.97145468
-1.0094534 4.1935134 -0.95552421
-1.2903755 5.3605318 -0.91920465
-1.8175284 7.5504518 -0.86562163
-3.0941617 12.853896 -0.738478
-3.0991488 12.874612 0
-3.0965662 12.863885 0.73905188
-0.71216774 2.9428842 -0.99836934
-0.82346255 3.4027867 -0.96591741
-1.0169102 4.2021689 -0.95777577
-1.2950398 5.351481 -0.91792035
-1.8266503 7.5482502 -0.86562163
-3.1096909 12.850147 -0.738478
-3.1116428 12.858213 0
-3.1059968 12.834883 0.73760074
-0.71396983 2.9348145 -0.99592364
-0.82875842 3.4066598 -0.96730042
-1.0237871 4.2083364 -0.95946282
-1.3039323 5.3598895 -0.9196322
-1.8363804 7.5485482 -0.8659097
-3.1166177 12.811038 -0.73644632
-3.1197951 12.824099 0
-3.1178167 12.815967 0.73672962
-0.838835 3.4300301 -0.97422332
-1.0240448 4.1873608 -0.9549619
-1.3067499 5.3433533 -0.9170652
-1.84673 7.5513535 -0.86648679
-3.1271567 12.78707 -0.73528522
-3.1309597 12.802622 0
-3.1302142 12.799572 0.73600411
-0.83339626 3.3900344 -0.96314877
-1.0284953 4.1836457 -0.95439738
-1.3138176 5.3442612 -0.91749281
-1.8546169 7.5440884 -0.8659097
-3.1382623 12.765617 -0.73426908
-3.1427004 12.78367 0
-3.1407151 12.775594 0.73484296
-0.84110183 3.4036334 -0.96730042
-1.0365993 4.1947403 -0.9572134
-1.3208895 5.3451591 -0.91792035
-1.8600092 7.5267811 -0.86418045
-3.1493206 12.744156 -0.733253
-3.1525261 12.757128 0
-3.1505399 12.749089 0.73353684
-0.72278404 2.9097435 -0.98858976
-0.84823728 3.4147861 -0.97076052
-1.0410527 4.1910119 -0.95664889
-1.324874 5.3336034 -0.91621011
-1.8703485 7.5295439 -0.86475652
-3.159708 12.720176 -0.73209244
-3.1635461 12.735626 0
-3.1628108 12.732666 0.73281127
-0.85054123 3.4064634 -0.96868604
-1.0399619 4.1651034 -0.95102113
-1.3294514 5.3245244 -0.91492581
-1.8781931 7.5222645 -0.86418045
-3.1757045 12.718867 -0.73223746
-3.1757805 12.719172 0
-3.1725287 12.706148 0.73150516
-0.84916109 3.3835359 -0.96245724
-1.0462297 4.1687679 -0.95214581
-1.3383837 5.3328738 -0.91663766
-1.8866495 7.5174737 -0.86389136
-3.1790521 12.667133 -0.72947967
-3.1867118 12.697654 0
-3.1834512 12.684661 0.73048908
-0.86060995 3.4116888 -0.97076052
-1.0537521 4.1773558 -0.95439738
-1.3429421 5.3237829 -0.91535336
-1.8957314 7.5151882 -0.86389136
-3.1956279 12.668326 -0.72977018
-3.1975982 12.676137 0
-3.1949637 12.665693 0.72961849
-0.73319554 2.8918459 -0.98370153
-0.85980159 3.3912013 -0.96522593
-1.0606728 4.1834707 -0.95608658
-1.3537908 5.3395772 -0.91834956
-1.9035406 7.5078826 -0.86331534
-2.1687875 8.55406 -0.49291486
-3.2077956 12.652082 0
-3.207711 12.651749 0.72903794
-0.74828362 2.9364572 -0.99918354
-0.85212743 3.343967 -0.95207417
-1.0613343 4.164948 -0.95214581
-1.3570727 5.3255019 -0.91621011
-1.9132491 7.508081 -0.86360335
-2.1804037 8.5564642 -0.49320486
-3.2185817 12.630542 0
-3.2146549 12.615132 0.72715127
-0.74447262 2.9068189 -0.9894039
-0.86425841 3.3745267 -0.96107161
-1.0701497 4.1784363 -0.95552421
-1.3590477 5.3064485 -0.91321391
-1.9203964 7.4982543 -0.86273926
-2.1894529 8.5487938 -0.49291486
-3.2299681 12.611522 0
-3.2260261 12.59613 0.72628015
-0.86833525 3.3734801 -0.96107161
-1.0745649 4.1746817 -0.9549619
-1.3705777 5.3246903 -0.91663766
-1.9300994 7.4984307 -0.86302727
-2.1997809 8.5461426 -0.49291486
-3.2400143 12.587446 0
-3.2380056 12.579643 0.72555459
-0.87429637 3.3797171 -0.96314877
-1.0776987 4.165998 -0.9532727
-1.3795822 5.3329716 -0.91834956
-1.9365673 7.4860768 -0.8618741
-2.2094555 8.5409651 -0.49276984
-3.2506583 12.565884 0
-3.2466969 12.55057 0.72410351
-0.75002956 2.8849645 -0.98288423
-0.88406003 3.4005084 -0.96937752
-1.0782559 4.1474767 -0.94933194
-1.3853773 5.3288093 -0.91792035
-1.9443085 7.4787202 -0.86129701
-2.220427 8.540801 -0.49291486
-3.2625659 12.549355 0
-3.2572823 12.529032 0.72308737
-0.879291 3.3654604 -0.9596886
-1.085194 4.1535482 -0.95102113
-1.3911668 5.3246498 -0.91749281
-1.9533436 7.4763656 -0.86129701
-2.2294304 8.5330791 -0.49262428
-2.2245307 8.5143261 0
-3.2697914 12.515031 0.72250682
-0.7601369 2.8950942 -0.98695827
-0.88717824 3.3789499 -0.96384025
-1.0908566 4.1546888 -0.9515835
-1.3995559 5.3304162 -0.91877711
-1.962376 7.474 -0.86129701
-2.2397394 8.5303793 -0.49262428
-2.2341568 8.5091171 0
-3.2756739 12.475889 0.72047514
-0.88294053 3.346343 -0.95484281
-1.0958759 4.153368 -0.9515835
-1.403376 5.3187928 -0.9170652
-1.9714054 7.4716229 -0.86129701
-2.2507098 8.5301867 -0.49276984
-2.239125 8.4862804 0
-3.2907462 12.471923 0.72047514
-0.75590467 2.857877 -0.97473609
-0.88432115 3.3433859 -0.95415133
-1.1009839 4.1625309 -0.95383501
-1.4072449 5.3204231 -0.91749281
-1.9745976 7.4654346 -0.86072093
-2.2598484 8.5438929 -0.49364039
-2.2429221 8.4798994 0
-3.2903073 12.439787 0.71873349
-0.76634169 2.8832393 -0.98370153
-0.88900417 3.3447373 -0.95484281
-1.104054 4.1538281 -0.95214581
-1.4176303 5.3336096 -0.92006141
-1.9842803 7.4655404 -0.861009
-3.1465173 11.838272 -0.68419892
-2.2545025 8.4822083 0
-3.3026659 12.425757 0.71815288
-0.77046216 2.8846967 -0.98451573
-0.88657254 3.3194273 -0.94792253
-1.1110399 4.1598577 -0.95383501
-1.4187746 5.3120513 -0.91663766
-1.9926327 7.4606409 -0.86072093
-3.1608191 11.834462 -0.68419892
-2.2553494 8.4442816 0
-3.3136559 12.4067 0.71728235
-0.7688219 2.8646667 -0.97799599
-0.89448333 3.3328869 -0.95207417
-1.1206764 4.175693 -0.95777577
-1.4258569 5.3128104 -0.9170652
-2.0023158 7.4607234 -0.861009
-3.1724224 11.820596 -0.68361837
-2.2621789 8.4289846 0
-3.3225834 12.380102 0.71597624
-0.77292567 2.8661196 -0.97881019
-0.90438813 3.3536017 -0.95830297
-1.1230748 4.1645231 -0.95552421
-1.4302695 5.3036456 -0.9157809
-2.0086355 7.4483094 -0.85985583
-3.1826422 11.801696 -0.68274724
-2.2649074 8.3986034 0
-3.3328032 12.358515 0.7149601
-0.77057099 2.8437159 -0.97147626
-0.90843964 3.3525064 -0.95830297
-1.118137 4.1263738 -0.94708043
-1.4360062 5.299438 -0.91535336
-2.0162821 7.4408889 -0.85927975
-2.3345301 8.6153517 -0.49857488
-3.2680869 12.060551 0
-3.3443363 12.341941 0.71423453
-0.78893876 2.8976259 -0.9902181
-0.90721726 3.332041 -0.95276564
-1.1271285 4.1397343 -0.95045882
-1.4403846 5.290266 -0.91406906
-2.0286684 7.450923 -0.86072093
-2.3333342 8.5699043 -0.49610764
-3.2689836 12.006371 0
-3.3551495 12.322844 0.71336347
-0.7924394 2.8966706 -0.9902181
-0.90859473 3.3212631 -0.94999701
-1.1321298 4.1383696 -0.95045882
-1.4515182 5.3058567 -0.9170652
-2.0342579 7.4359946 -0.85927975
-2.3587708 8.6222134 -0.49930042
-3.2848632 12.007438 0
-3.3652391 12.301243 0.71234787
-0.79593891 2.8957109 -0.9902181
-0.91393828 3.3250055 -0.9513827
-1.136454 4.1345415 -0.94989431
-1.4558864 5.2966709 -0.9157809
-2.0466683 7.4459987 -0.86072093
-2.3705661 8.6243734 -0.49959099
-3.3021286 12.013497 0
-3.3745909 12.277123 0.71118677
-0.79022717 2.8613977 -0.97881019
-0.91928965 3.3287306 -0.95276564
-1.1441545 4.142962 -0.95214581
-1.4616027 5.2924356 -0.91535336
-2.0529099 7.4335475 -0.85956776
-2.3851342 8.6365261 -0.50046152
-3.3187211 12.017027 0
-3.386656 12.263019 0.71060622
-0.79632735 2.8699675 -0.98207003
-0.92599416 3.3372872 -0.95553434
-1.1478022 4.1366844 -0.95102113
-1.4666251 5.2857232 -0.91449827
-2.0598149 7.4235826 -0.85870266
-2.3872311 8.6035919 -0.49871987
-3.3353245 12.020524 0
-3.3986921 12.248901 0.71002567
-0.80244941 2.8785264 -0.98532987
-0.92261738 3.3095899 -0.94792253
-1.1534814 4.1377397 -0.9515835
-1.4750768 5.2913585 -0.9157809
-2.066699 7.4136114 -0.8578375
-2.3913457 8.5781755 -0.49741375
-3.3512454 12.021504 0
-3.4120932 12.239776 0.7097351
-0.80259466 2.8656569 -0.98125583
-0.92593712 3.3060498 -0.94722837
-1.1612213 4.1461301 -0.95383501
-1.4828552 5.2945209 -0.91663766
-2.0791452 7.4235692 -0.85927975
-2.3904965 8.5352459 -0.49509153
-3.3650675 12.014942 0
-3.4310861 12.250661 0.71060622
-0.81141233 2.8837187 -0.98777556
-0.93197036 3.312176 -0.94930553
-1.1627898 4.1324964 -0.95102113
-1.4857757 5.2803721 -0.91449827
-2.0888135 7.4235387 -0.85956776
-2.3979926 8.5223455 -0.49451095
-3.3802869 12.013371 0
-3.4472923 12.251504 0.71089619
-0.8122068 2.8732226 -0.98451573
-0.9359718 3.3110476 -0.94930553
-1.1712375 4.1433115 -0.95383501
-1.4977386 5.2983255 -0.91792035
-2.093559 7.4060707 -0.8578375
-2.4068761 8.5144463 -0.49422097
-3.394093 12.006775 0
-3.4663358 12.262338 0.71176732
-0.82310325 2.8983858 -0.993478
-0.9406566 3.312325 -0.94999701
-1.1748561 4.1370096 -0.95271033
-1.5020376 5.2891111 -0.91663766
-2.103215 7.4060311 -0.85812658
-2.4157414 8.5065269 -0.4939304
-3.4121525 12.015181 0
-3.4839895 12.268139 0.71234787
-0.81236583 2.8474791 -0.97636449
-0.94603604 3.3160157 -0.9513827
-1.1812468 4.1404691 -0.95383501
-1.5077238 5.2848258 -0.91621011
-2.11358 7.4084539 -0.85870266
-2.4359996 8.5385895 -0.49596265
-3.4252386 12.006039 0
-3.501662 12.273915 0.71292841
-0.82125342 2.8655031 -0.98288423
-0.94243842 3.2883394 -0.9437682
-1.1855495 4.1365986 -0.9532727
-1.5190572 5.3002672 -0.91920465
-2.1211064 7.4009271 -0.85812658
-2.4491787 8.5456314 -0.4965432
-3.439743 12.001891 0
-3.5207841 12.284657 0.713799
-0.83360422 2.8953829 -0.993478
-0.94433075 3.2799728 -0.94169372
-1.1919515 4.1400418 -0.95439738
-1.5183594 5.2737641 -0.91492581
-2.1314771 7.4033246 -0.85870266
-2.4623783 8.5526543 -0.49712375
-3.4564033 12.005231 0
-3.5385008 12.290382 0.71437955
-0.84122354 2.9086239 -0.99836934
-0.94480616 3.2667723 -0.93823093
-1.1877766 4.1068697 -0.94708043
-1.5290085 5.2867169 -0.91749281
-2.1397033 7.3982615 -0.85841465
-2.4712656 8.5446749 -0.49683321
-3.4701846 11.998549 0
-3.5547912 12.291085 0.71466959
-0.82129389 2.8269119 -0.97066206
-0.95855302 3.2993612 -0.94792253
-1.1927381 4.1054316 -0.94708043
-1.5303841 5.2676167 -0.91449827
-2.1486411 7.3956709 -0.85841465
-2.4794128 8.5341949 -0.49639764
-3.4854052 11.996843 0
-3.577615 12.314232 0.71626621
-0.83405745 2.8643842 -0.98370153
-0.95774066 3.2891464 -0.94515389
-1.2023232 4.1291103 -0.95271033
-1.537154 5.2790122 -0.91663766
-2.1538312 7.3968525 -0.85870266
-2.4838426 8.5302029 -0.49625263
-3.4919257 11.992239 0
-3.5915914 12.334519 0.71757233
-0.83959746 2.8704841 -0.98614407
-0.95889711 3.2783554 -0.94238526
-1.2051709 4.1203361 -0.95102113
-1.5420887 5.2722187 -0.9157809
-2.1613164 7.3892841 -0.85812658
-2.4926903 8.522212 -0.49596265
-3.5071433 11.990506 0
-3.6130571 12.352613 0.71887845
-0.84027839 2.859982 -0.98288423
-0.96427065 3.2820039 -0.9437682
-1.2101486 4.1188769 -0.95102113
-1.5470122 5.2654305 -0.91492581
-2.169512 7.3841786 -0.8578375
-2.508111 8.5366383 -0.49697819
-3.5333667 12.026212 0
-3.3357375 11.353558 0.66097105
-0.84863126 2.8755605 -0.98858976
-0.9646858 3.2688076 -0.94030809
-1.2122478 4.1076636 -0.94876963
-1.5533733 5.263557 -0.91492581
-2.1813612 7.3914747 -0.85899067
-2.5257804 8.5585279 -0.49842986
-3.5950375 12.181672 0
-3.3523955 11.359488 0.66155159
-0.84648561 2.8555756 -0.98207003
-0.9721992 3.279664 -0.9437682
-1.2208202 4.1183743 -0.9515835
-1.560461 5.2641354 -0.91535336
-2.1873505 7.3789144 -0.8578375
-2.5331659 8.5455046 -0.49784932
-3.6607864 12.349475 0
-3.3742402 11.382826 0.66314769
-0.85275662 2.8640261 -0.98532987
-0.96685505 3.2472312 -0.93477076
-1.2199949 4.097414 -0.94708043
-1.5646223 5.2548623 -0.91406906
-2.1962647 7.376266 -0.8578375
-2.5427489 8.5399494 -0.4977043
-3.682389 12.367489 0
-3.3917012 11.391199 0.66387379
-0.84347081 2.8203745 -0.97066206
-0.97796762 3.2701011 -0.94169372
-1.2264024 4.1008105 -0.94820726
-1.5687661 5.2455969 -0.91278636
-2.2074001 7.381043 -0.85870266
-2.5575316 8.5518036 -0.49857488
-3.6965849 12.360539 0
-3.4099286 11.402025 0.66474438
-0.85541052 2.8477588 -0.98044163
-0.98552608 3.2809284 -0.94515389
-1.2262391 4.0822887 -0.94426656
-1.5787951 5.2559876 -0.91492581
-2.2155735 7.375896 -0.85841465
-2.570853 8.5586615 -0.49915543
-3.7190032 12.380983 0
-3.4251969 11.402869 0.66503435
-0.84814173 2.8112268 -0.96821642
-0.98369271 3.2605205 -0.93961656
-1.2348397 4.0929651 -0.94708043
-1.5829196 5.2467012 -0.91364151
-2.2229886 7.3682561 -0.8578375
-2.5894492 8.5829153 -0.50075209
-3.7377212 12.388946 0
-3.444227 11.416138 0.66605049
-0.87662226 2.892982 -0.99673784
-0.99417877 3.2809358 -0.94584537
-1.2449429 4.1084943 -0.95102113
-1.5907483 5.2497029 -0.91449827
-2.2356427 7.3779483 -0.85927975
-2.6020765 8.5872335 -0.50118709
-3.75495 12.391886 0
-3.4647996 11.434347 0.66735661
-0.86644667 2.8470016 -0.98125583
-0.98426348 3.2341282 -0.93269366
-1.2499063 4.106987 -0.95102113
-1.5993305 5.2551374 -0.9157809
-2.2430482 7.3702884 -0.85870266
-2.6154766 8.5940266 -0.50176764
-3.7714374 12.392323 0
-3.4846656 11.450039 0.66851771
-0.85832661 2.8081338 -0.96821642
-1.0087039 3.3001142 -0.95207417
-1.2556099 4.1079011 -0.9515835
-1.6041799 5.2482958 -0.91492581
-2.2519522 7.3675723 -0.85870266
-2.6273797 8.5958347 -0.50205821
-3.794014 12.412641 0
-3.5060952 11.470675 0.66996938
-0.8725996 2.8425388 -0.98044163
-1.0104814 3.2916956 -0.94999701
-1.2501348 4.0723796 -0.94370419
-1.6037409 5.2242699 -0.91107452
-2.2600944 7.3623757 -0.85841465
-2.6324255 8.575263 -0.50104213
-3.8113015 12.415514 0
-3.5283384 11.493747 0.67156553
-0.86947793 2.8202183 -0.9731046
-1.0092862 3.2736971 -0.94515389
-1.2610433 4.090291 -0.94820726
-1.6176138 5.2468548 -0.91535336
-2.2705114 7.3645782 -0.85899067
-2.635896 8.5497303 -0.49973598
-3.8301334 12.423332 0
-3.5437565 11.494447 0.67185605
-0.89317077 2.8723943 -0.9918496
-1.0112351 3.2520835 -0.93961656
-1.2769599 4.1066418 -0.95271033
-1.6295272 5.2404814 -0.91492581
-2.2852302 7.3491902 -0.8578375
-2.6557786 8.5408573 -0.49959099
-3.8701897 12.446344 0
-3.5830946 11.523061 0.67403275
-0.89811289 2.8760271 -0.993478
-1.0121726 3.2412806 -0.93684793
-1.273589 4.0784144 -0.94651806
-1.6327974 5.2287068 -0.91321391
-2.2979655 7.3587756 -0.85927975
-2.6707425 8.5525188 -0.50046152
-3.8836758 12.436695 0
-3.5985661 11.523688 0.67432332
-0.89271522 2.8466485 -0.98370153
-1.0153383 3.2376635 -0.93615645
-1.2807978 4.0841484 -0.94820726
-1.639114 5.2267303 -0.91321391
-2.3053062 7.3510528 -0.85870266
-2.675631 8.5319271 -0.49944544
-3.9064863 12.456821 0
-3.6148179 11.526763 0.67475832
-0.89986563 2.8573527 -0.98777556
-1.0079451 3.2005384 -0.92577332
-1.2880193 4.0898614 -0.94989431
-1.6485127 5.23454 -0.91492581
-2.3219576 7.3729367 -0.86158609
-2.690623 8.5435638 -0.50031656
-3.9246621 12.462021 0
-3.6310854 11.529824 0.67519385
-0.90704322 2.8680439 -0.9918496
-1.0254269 3.2423697 -0.93823093
-1.2868336 4.0689301 -0.94539338
-1.6540631 5.2300987 -0.91449827
-2.3300827 7.3676529 -0.86129701
-2.7017272 8.5427818 -0.50046152
-3.9444242 12.472153 0
-3.6512825 11.545248 0.67635494
-0.90302813 2.8433938 -0.98370153
-1.0354189 3.2602568 -0.9437682
-1.2963624 4.0818982 -0.94876963
-1.6564941 5.2158561 -0.91235715
-2.3389833 7.3648319 -0.86129701
-2.7191253 8.5617971 -0.50176764
-3.9634323 12.479787 0
-3.6660159 11.543303 0.67649996
-0.91547203 2.8705487 -0.993478
-1.0241151 3.2112093 -0.92992765
-1.2966629 4.0658088 -0.94539338
-1.6698173 5.2358694 -0.91621011
-2.3463104 7.3570766 -0.86072093
-2.7365735 8.5807838 -0.50307375
-3.9840419 12.492338 0
-3.6846995 11.553722 0.67737108
-0.90818018 2.8417525 -0.98370153
-1.0329276 3.232095 -0.93615645
-1.3029858 4.0771236 -0.94820726
-1.673761 5.2373023 -0.91663766
-2.3515413 7.358119 -0.861009
-2.7465045 8.5939846 -0.50394487
-3.9923799 12.492406 0
-3.6948433 11.561395 0.67795163
-0.89801741 2.7982874 -0.96903056
-1.0406646 3.2427862 -0.93961656
-1.3040299 4.0634518 -0.94539338
-1.677734 5.227941 -0.91535336
-2.3635917 7.3651233 -0.86216217
-2.754504 8.5832348 -0.50350934
-4.0082693 12.490058 0
-3.71119 11.564337 0.67838663
-0.91049498 2.8254302 -0.97881019
-1.0453508 3.243912 -0.94030809
-1.314392 4.0787954 -0.94933194
-1.6801137 5.2136955 -0.91321391
-2.3693161 7.3524151 -0.861009
-2.7656693 8.5823708 -0.50365436
-4.0257502 12.492629 0
-3.729944 11.574688 0.67925775
-0.91619182 2.8313849 -0.98125583
-1.0392296 3.2116189 -0.93131065
-1.3068032 4.0385242 -0.9403258
-1.6864122 5.2116618 -0.91321391
-2.3805881 7.3569317 -0.8618741
-2.7872388 8.6136389 -0.50568658
-3.7452064 11.574127 0
-3.747926 11.582532 0.67998332
-0.91350216 2.8114705 -0.97473609
-1.0493114 3.2294486 -0.93684793
-1.318751 4.0586982 -0.94539338
-1.6935008 5.212059 -0.91364151
-2.3926728 7.3638892 -0.86302727
-2.8000512 8.617671 -0.50612158
-0 0 0
-3.7627208 11.580463 0.68012834
-0.90003473 2.7586756 -0.95680845
-1.0345377 3.1709373 -0.92023605
-1.3197113 4.0450168 -0.94257736
-1.704576 5.2246566 -0.91621011
-2.3991613 7.3536139 -0.86216217
-2.8177147 8.6365118 -0.50742769
-3.7707431 11.557617 0
-3.781548 11.590735 0.68099946
-0.93876046 2.8656256 -0.9942953
-1.0453967 3.1911397 -0.92646486
-1.3277621 4.0530777 -0.94482887
-1.7020962 5.1957564 -0.91150206
-2.4056284 7.3433332 -0.86129701
-2.8354309 8.6553326 -0.50873435
-3.7725549 11.515963 0
-3.7995942 11.598502 0.68172497
-0.92986578 2.8269236 -0.98125583
-1.0516043 3.1970258 -0.92854202
-1.3326585 4.0514703 -0.94482887
-1.7107801 5.201014 -0.91278636
-2.412885 7.3355117 -0.86072093
-2.8458872 8.6519003 -0.50873435
-4.135303 12.571907 0
-3.818476 11.608707 0.68259555
-0.91933018 2.7835579 -0.96658802
-1.0656937 3.2267191 -0.93753946
-1.3399442 4.0570979 -0.94651806
-1.7170633 5.1989427 -0.91278636
-2.4217467 7.3325911 -0.86072093
-2.8620412 8.665719 -0.50974989
-4.143146 12.544662 0
-3.8308718 11.599155 0.68230557
-0.91880089 2.7707083 -0.96251088
-1.0766979 3.2468581 -0.9437682
-1.3464465 4.0603037 -0.94764495
-1.7217264 5.1919866 -0.91192961
-2.4289751 7.3247447 -0.86014384
-2.87251 8.6622543 -0.50974989
-4.1574826 12.537179 0
-3.8497901 11.609311 0.6831761
-0.92839438 2.7883565 -0.96903056
-1.0608079 3.1860497 -0.92646486
-1.3497447 4.0538478 -0.94651806
-1.7296221 5.1947784 -0.91278636
-2.4435441 7.338985 -0.86216217
-2.872304 8.62673 -0.50786322
-4.1726279 12.532146 0
-3.8605313 11.59479 0.68259555
-0.94038349 2.81302 -0.97799599
-1.0916991 3.2656586 -0.94999701
-1.3490021 4.0353427 -0.94257736
-1.7342683 5.1878104 -0.91192961
-2.4524102 7.3360271 -0.86216217
-2.7954035 8.3620415 -0.49247929
-4.1877675 12.527096 0
-3.8761878 11.59505 0.68288612
-1.0772861 3.2096412 -0.93407929
-1.357922 4.0457611 -0.94539338
-1.7429868 5.1930146 -0.91321391
-2.4579806 7.3232503 -0.861009
-2.7674735 8.2453461 -0.48580316
-4.2053862 12.52943 0
-3.8819256 11.56572 0.68143445
-0.96059579 2.8505542 -0.9918496
-1.0971866 3.2558854 -0.94792253
-1.35875 4.0320711 -0.94257736
-1.7476192 5.1860347 -0.91235715
-2.4734352 7.3398833 -0.86331534
-2.7707961 8.2222977 -0.48464203
-2.9290819 8.692009 0
-3.8917496 11.548711 0.68070889
-0.93790042 2.7721329 -0.96495652
-1.0794104 3.1903911 -0.92923349
-1.3652512 4.0352449 -0.94370419
-1.7588221 5.198514 -0.91492581
-2.4781585 7.3246417 -0.8618741
-2.7757339 8.2041798 -0.48377147
-2.9345796 8.6736765 0
-4.2679358 12.61465 0.74384135
-0.95317423 2.8061039 -0.97718179
-1.08488 3.19384 -0.93061912
-1.370126 4.0335922 -0.94370419
-1.7601466 5.1817961 -0.91235715
-2.4886692 7.3265352 -0.86245018
-2.7864799 8.2032776 -0.48391649
-2.9383616 8.6504107 0
-4.283175 12.609484 0.74384135
-0.95576406 2.8026042 -0.97636449
-1.0798301 3.1664052 -0.92300469
-1.3733569 4.0271192 -0.94257736
-1.7664065 5.1796656 -0.91235715
-2.4950178 7.3161855 -0.86158609
-2.7871666 8.1728592 -0.48232037
-2.9420917 8.6271486 0
-4.3034387 12.619051 0.74471188
-0.96235216 2.8108008 -0.97962433
-1.0828434 3.1627269 -0.92231321
-1.3823395 4.0374832 -0.94539338
-1.77599 5.187242 -0.91406906
-2.5088816 7.3278432 -0.86331534
-2.7810471 8.1227741 -0.47956258
-2.9440854 8.5989695 0
-4.3203683 12.618763 0.74500245
-0.95851773 2.7886016 -0.97229046
-1.1005269 3.2017469 -0.93407929
-1.3822597 4.0213881 -0.94201499
-1.7822565 5.1850924 -0.91406906
-2.5152109 7.3174658 -0.86245018
-2.7689006 8.055522 -0.47578922
-2.957854 8.6052418 0
-4.3415227 12.630728 0.74601799
-0.96108109 2.7851071 -0.97147626
-1.112577 3.2241256 -0.94099957
-1.3920925 4.0341311 -0.94539338
-1.7901967 5.1877933 -0.91492581
-2.5240507 7.3144212 -0.86245018
-2.7693074 8.0251484 -0.47419256
-2.9657054 8.5942879 0
-4.3559346 12.623019 0.74587303
-0.93936688 2.7115521 -0.94621468
-1.0992267 3.1729996 -0.92646486
-1.400293 4.0420494 -0.94764495
-1.7905807 5.1686444 -0.91192961
-2.5278084 7.2967072 -0.86072093
-2.77475 8.0095224 -0.47346699
-2.9701233 8.5734816 0
-4.3762889 12.632483 0.74674416
-1.1211916 3.2238038 -0.94169372
-1.3984988 4.0211554 -0.94314182
-1.7917669 5.1519341 -0.90936261
-2.5425715 7.3107505 -0.86273926
-2.7793064 7.9914427 -0.47259644
-2.9830461 8.5772638 0
-4.397522 12.644359 0.7477597
-0.96465284 2.7629373 -0.96495652
-1.1110286 3.1821835 -0.92992765
-1.4058667 4.0266523 -0.94482887
-1.8047601 5.1691542 -0.91278636
-2.547138 7.2954559 -0.86129701
-0 0 -0
-2.9882591 8.5589056 0
-4.417079 12.651299 0.74848527
-0.96063364 2.7407796 -0.95762265
-1.118189 3.1903 -0.93269366
-1.4124136 4.0297513 -0.94595575
-1.8152494 5.17908 -0.91492581
-2.5550964 7.2899346 -0.861009
-0 0 -0
-2.9615858 8.449687 0
-4.4358001 12.655762 0.74906582
-0.95655596 2.7238727 -0.95191711
-1.1342498 3.2298706 -0.94446236
-1.4249507 4.0576658 -0.95271033
-1.8158256 5.1707139 -0.91364151
-2.5543599 7.2737517 -0.85927975
-0 0 -0
-2.7942386 7.9568267 0
-4.4477525 12.665345 0.74979192
-0.96313357 2.7320387 -0.95517695
-1.1256392 3.1930046 -0.93407929
-1.4180238 4.0223875 -0.94482887
-1.8169527 5.1539946 -0.91107452
-2.5536866 7.243825 -0.85610831
-2.7983918 7.9379592 -0.47012919
-2.7951999 7.928905 0
-4.4665089 12.669765 0.75037247
-1.0018882 2.8310566 -0.9902181
-1.1345167 3.205828 -0.93823093
-1.425427 4.0278592 -0.94651806
-1.8240346 5.154213 -0.91150206
-2.5098052 7.0920095 -0.83852381
-2.8097134 7.9394665 -0.4704192
-2.8004346 7.9132476 0
-4.4861479 12.676603 0.75109804
-1.0053082 2.8298438 -0.9902181
-1.1224352 3.1595449 -0.92508185
-1.4302928 4.026134 -0.94651806
-1.8259652 5.1399131 -0.90936261
-2.4742172 6.9646788 -0.82382172
-2.8114767 7.9140315 -0.46911308
-2.805639 7.8975987 0
-4.5075483 12.688306 0.75211358
-0.99295539 2.7844017 -0.97473609
-1.1321517 3.1747298 -0.92992765
-1.4317427 4.0148296 -0.94426656
-1.8330358 5.1401186 -0.90979022
-2.4695983 6.9251385 -0.81949711
-2.8219092 7.9130735 -0.4692581
-2.8160529 7.8966517 0
-4.5237517 12.685305 0.75225914
-0.99631906 2.7831998 -0.97473609
-1.1528944 3.2205901 -0.9437682
-1.4460136 4.0394139 -0.95045882
-1.8409741 5.1427288 -0.91064531
-0 0 -0
-2.8375998 7.9267855 -0.47027421
-2.8203313 7.8785467 0
-4.546957 12.701845 0.75356525
-0.98045659 2.7284939 -0.95599115
-1.1499978 3.2003071 -0.93823093
-1.4474564 4.0280986 -0.94820726
-1.8463194 5.1380873 -0.91021776
-2.4845788 6.9142871 -0.81892103
-2.842783 7.9111266 -0.46954864
-2.827208 7.8677831 0
-4.5649352 12.703671 0.75400025
-0.9812392 2.7203391 -0.95354861
-1.1479077 3.1824024 -0.93338782
-1.4531838 4.0287347 -0.94876963
-1.8420742 5.1068749 -0.90508217
-2.4902978 6.9039783 -0.81805587
-2.8549824 7.9150114 -0.46998364
-3.078655 8.5351105 0
-4.5899806 12.725036 0.75559694
-0.98957253 2.7330906 -0.95843679
-1.1397933 3.1479838 -0.92369622
-1.4580507 4.0269761 -0.94876963
-1.8604803 5.1384425 -0.91107452
-2.495116 6.8912363 -0.81690276
-2.8583541 7.8944607 -0.46896809
-3.0854218 8.521596 0
-4.6080079 12.726812 0.75603253
-1.14274 3.1442487 -0.92300469
-1.4620483 4.0228252 -0.94820726
-1.862301 5.1241202 -0.90893346
-2.5034409 6.8882165 -0.81690276
-2.8803153 7.9251866 -0.47099978
-3.1188273 8.5814524 0
-4.628706 12.735883 0.75690305
-0.99871641 2.7376592 -0.96088248
-1.1585739 3.1758568 -0.93269366
-1.4642948 4.0138927 -0.94651806
-1.8693734 5.1242847 -0.90936261
-2.5037851 6.8633204 -0.81430835
-2.8987927 7.9461064 -0.47245088
-3.1247354 8.5654554 0
-4.6503263 12.747371 0.75791919
-1.0292158 2.8107104 -0.98695827
-1.187426 3.2427704 -0.95276564
-1.4691437 4.0121202 -0.94651806
-1.8790945 5.1316648 -0.91107452
-2.5094073 6.8530011 -0.81344324
-2.9182212 7.9694405 -0.47404754
-3.1315033 8.551898 0
-4.6710844 12.756378 0.75878972
-1.0343182 2.8141091 -0.98858976
-1.1870168 3.2295618 -0.94930553
-1.4792483 4.0246472 -0.94989431
-1.8799784 5.1149287 -0.90850586
-2.5167944 6.8475385 -0.81315517
-2.9332254 7.9805374 -0.4749181
-3.1463225 8.5603189 0
-4.6882892 12.755607 0.75908029
-1.0180446 2.7595305 -0.96984792
-1.1718167 3.1763482 -0.93407929
-1.4797138 4.0109396 -0.94708043
-1.8852699 5.1102476 -0.90807831
-2.5223801 6.8372102 -0.81229007
-2.9482641 7.9916191 -0.47578922
-3.1647732 8.5784931 0
-4.7090931 12.764555 0.75995082
-0.99820417 2.6957154 -0.94784302
-1.1956882 3.2290342 -0.94999701
-1.4986764 4.0472736 -0.95608658
-1.8950088 5.1175952 -0.90979022
-2.5270472 6.8244553 -0.8111369
-2.9561119 7.9831729 -0.47549868
-3.1769421 8.5795393 0
-4.7308302 12.775915 0.76096696
-1.0505406 2.8265607 -0.9942953
-1.1751201 3.1617513 -0.93061912
-1.4973683 4.0287852 -0.95214581
-1.9056618 5.1273303 -0.91192961
-2.5289862 6.8044329 -0.80911964
-2.9720933 7.9966474 -0.47651479
-3.1891179 8.5805683 0
-4.7507892 12.782366 0.76169252
-1.0271746 2.7534997 -0.96903056
-1.1955973 3.2049828 -0.9437682
-1.498683 4.0174503 -0.94989431
-1.9109595 5.1226215 -0.91150206
-2.5353963 6.7965207 -0.80854255
-2.979939 7.9881859 -0.47622478
-3.1994836 8.5767088 0
-4.767138 12.779048 0.76183754
-1.0365684 2.7684615 -0.97473609
-1.2021089 3.2105863 -0.94584537
-1.5115573 4.0370598 -0.9549619
-1.919849 5.1275229 -0.91278636
-2.5427008 6.7910323 -0.80825448
-2.9850307 7.972405 -0.47549868
-3.2089329 8.5704021 0
-4.7935095 12.802481 0.76357919
-1.0286106 2.7371321 -0.96414232
-1.1848066 3.1527696 -0.92923349
-1.5092835 4.0162024 -0.95045882
-1.9224311 5.1155877 -0.91107452
-2.546356 6.7758517 -0.8068133
-2.9800398 7.9298835 -0.47317699
-3.2275248 8.5884409 0
-4.8126316 12.806409 0.76415974
-1.0249391 2.7173865 -0.95762265
-1.1859617 3.1443005 -0.92715901
-1.5105485 4.0048661 -0.94820726
-1.9349499 5.1300673 -0.91406906
-2.5545416 6.7727699 -0.8068133
-2.9951196 7.9408598 -0.47404754
-3.2397387 8.5894098 0
-4.8381901 12.827331 0.76575643
-1.0325962 2.7277014 -0.96169668
-1.1986405 3.1663234 -0.93407929
-1.5243804 4.0267968 -0.95383501
-1.929333 5.0965176 -0.90850586
-2.5590603 6.7600026 -0.80566013
-3.0001135 7.925087 -0.473322
-3.256562 8.60252 0
-4.8527632 12.819037 0.76561087
-1.0516908 2.7680357 -0.97636449
-1.1962273 3.148454 -0.92923349
-1.5373662 4.0463266 -0.95890045
-1.9400476 5.1061788 -0.91064531
-2.5626307 6.7448092 -0.80421788
-3.0235281 7.9578843 -0.47549868
-3.2715783 8.6107492 0
-4.8719406 12.822881 0.76619142
-1.0524845 2.7650921 -0.97555029
-1.1972377 3.1453884 -0.92854202
-1.5271578 4.012156 -0.95102113
-1.938567 5.0930123 -0.90850586
-2.5657859 6.7408447 -0.80392987
-3.0375805 7.9803457 -0.47695035
-3.2869611 8.635519 0
-4.8870816 12.839363 0.76735252
-1.0373031 2.7153344 -0.95843679
-1.1956674 3.1298823 -0.92439038
-1.5338163 4.0150504 -0.95214581
-1.9483839 5.1002584 -0.91021776
-2.5683928 6.7232471 -0.80220068
-3.0537095 7.9936543 -0.47796589
-3.3187549 8.6874599 0
-4.9081573 12.848018 0.76822364
-1.0388154 2.7094679 -0.95680845
-1.2075306 3.1495156 -0.93061912
-1.5459436 4.0321741 -0.95664889
-1.9582211 5.1074882 -0.91192961
-2.5774395 6.7225513 -0.80248868
-3.0615072 7.9851108 -0.47767588
-3.3385644 8.7077389 0
-4.9283285 12.854206 0.76894921
-1.061614 2.7589543 -0.97473609
-1.2059278 3.1340013 -0.92646486
-1.5416915 4.0065937 -0.95102113
-1.9625491 5.1003313 -0.91107452
-2.5837047 6.7146091 -0.80191261
-3.0534227 7.9353261 -0.4749181
-3.3612328 8.7352724 0
-4.9438567 12.848242 0.76894921
-1.0498111 2.7184756 -0.96088248
-1.2512858 3.2401922 -0.95830297
-1.5483605 4.0094643 -0.95214581
-1.9668591 5.0931621 -0.91021776
-2.58902 6.7042413 -0.8010475
-3.054585 7.9098172 -0.47361198
-3.3802221 8.7530518 0
-4.9378467 12.786505 0.76561087
-1.0736356 2.7702038 -0.97962433
-1.2416036 3.2035961 -0.94792253
-1.5486138 3.9957466 -0.94933194
-1.9730117 5.0907817 -0.91021776
-2.5915089 6.6866336 -0.79931718
-3.06602 7.9109712 -0.47390255
-3.4067831 8.7902117 0
-5.2978935 13.66967 0.81887442
-1.04921 2.6975026 -0.95436275
-1.2218301 3.1413066 -0.92992765
-1.5460721 3.9749279 -0.94482887
-1.9791615 5.0883942 -0.91021776
-2.5939627 6.6690388 -0.79758799
-3.0595646 7.8660936 -0.47143531
-3.4268379 8.8103476 0
-5.3087568 13.648733 0.81800383
-1.0839219 2.7768106 -0.98288423
-1.2520759 3.2075908 -0.94999701
-1.5591885 3.9943573 -0.94989431
-1.9834433 5.0812211 -0.90936261
-2.6010795 6.6634922 -0.79729998
-3.0813494 7.8938565 -0.473322
-3.4355865 8.8013477 0
-5.326189 13.644727 0.81814885
-1.0800642 2.7570884 -0.97636449
-1.2248398 3.1266584 -0.92646486
-1.5593807 3.9806435 -0.94708043
-1.9942623 5.0907693 -0.91150206
-2.6044128 6.6483054 -0.79585874
-3.0814054 7.8659286 -0.47187033
-3.465204 8.8456535 0
-5.3322453 13.611666 0.81655216
-1.0888224 2.7695873 -0.98125583
-1.2469749 3.1718726 -0.94030809
-1.5632606 3.9763939 -0.94651806
-2.0032306 5.0955257 -0.91278636
-2.6124442 6.6451535 -0.79585874
-3.0757 7.8235164 -0.46954864
-3.4616058 8.8051271 0
-5.3467889 13.600381 0.81626219
-1.0991516 2.77614 -0.98451573
-1.2417086 3.136198 -0.93061912
-1.5747379 3.977334 -0.94764495
-2.009867 5.076344 -0.91021776
-2.6170695 6.6099629 -0.79239929
-3.123292 7.8885355 -0.47390255
-3.4742527 8.7749605 0
-5.36625 13.553601 0.8142305
-1.0769514 2.7104955 -0.96169668
-1.2538335 3.1556764 -0.93684793
-1.5729742 3.9588966 -0.94370419
-2.0074692 5.0524435 -0.90636647
-2.6288745 6.6164107 -0.7935524
-3.1193871 7.8509436 -0.47187033
-3.4992685 8.8070374 0
-5.375906 13.530201 0.81321436
-1.0848019 2.7206693 -0.96577072
-1.2715806 3.1891077 -0.94722837
-1.5909297 3.9900315 -0.9515835
-2.0202289 5.0667081 -0.90936261
-2.6301606 6.5964093 -0.79153413
-3.1298363 7.8495893 -0.47201589
-3.5368927 8.8704815 0
-5.3912892 13.521284 0.8130694
-1.0908439 2.7262428 -0.96821642
-1.2474753 3.1176965 -0.92646486
-1.5844227 3.9597976 -0.94482887
-2.0187204 5.0451961 -0.90593892
-2.6362092 6.588428 -0.79095805
-3.1383507 7.8433824 -0.47187033
-3.553411 8.8807039 0
-5.4037619 13.50511 0.81248885
-1.0876898 2.7088654 -0.96251088
-1.2512414 3.1161869 -0.92646486
-1.6015134 3.9885309 -0.95214581
-2.0334227 5.0641909 -0.90979022
-2.6518784 6.6044397 -0.79326439
-3.1691282 7.8926382 -0.47506368
-3.5777135 8.9102097 0
-5.4191089 13.496161 0.81234384
-1.1011239 2.7327688 -0.97147626
-1.2568828 3.1193311 -0.92785048
-1.5892402 3.9441755 -0.94201499
-2.0270691 5.0307789 -0.90422702
-2.6569557 6.5940313 -0.79239929
-3.1825471 7.8984437 -0.47564423
-0 0 0
-4.1118259 10.204728 0.6145286
-1.1164687 2.7612221 -0.98207003
-1.2756978 3.1550236 -0.93892509
-1.5987662 3.9540281 -0.94482887
-2.035069 5.0330811 -0.90508217
-2.6668584 6.5956073 -0.79297531
-3.1823463 7.8704982 -0.47419256
-3.6011884 8.9063683 0
-4.1183109 10.185303 0.61365807
-1.097502 2.7049048 -0.96251088
-1.266302 3.1209297 -0.92923349
-1.5920789 3.9238398 -0.93807423
-2.0411489 5.0306187 -0.90508217
-2.6777444 6.5995722 -0.79384047
-3.1840382 7.8473849 -0.47303143
-3.5894415 8.8465424 0
-4.1276832 10.173094 0.61322248
-1.091451 2.6806896 -0.95436275
-1.2606136 3.0961661 -0.92231321
-1.5987371 3.9266243 -0.93920112
-2.0510981 5.0376587 -0.90679401
-2.686691 6.5987253 -0.79412848
-3.2091959 7.8820376 -0.47535366
-4.0966868 10.061786 0
-4.1340952 10.153664 0.61235195
-1.0984285 2.6885209 -0.95762265
-1.2785838 3.1294701 -0.93269366
-1.5957925 3.9058723 -0.93469805
-2.0571837 5.0351768 -0.90679401
-2.7044468 6.619422 -0.79701191
-3.2206848 7.8829699 -0.47564423
-4.0980134 10.030325 0
-4.1493063 10.15587 0.61278695
-1.1101134 2.7077715 -0.96495652
-1.268092 3.0931108 -0.92231321
-1.593763 3.8874822 -0.93075728
-2.0700836 5.0493159 -0.90979022
-2.7114592 6.6137495 -0.79672283
-3.2272494 7.8718572 -0.47520867
-4.1061811 10.015734 0
-4.1497502 10.122007 0.61104584
-1.1183225 2.7231066 -0.97066206
-1.3014106 3.1689246 -0.94515389
-1.5854962 3.8606708 -0.92456716
-2.0653322 5.0290675 -0.90636647
-2.713491 6.6073294 -0.79614681
-3.2241077 7.850677 -0.47404754
-4.104322 9.9939919 0
-4.1538887 10.114686 0.61075526
-1.1018372 2.6737669 -0.95354861
-1.3090621 3.1766279 -0.94792253
-1.5707978 3.8117673 -0.91330951
-2.0714071 5.0265684 -0.90636647
-2.7273836 6.6183896 -0.797876
-3.2444825 7.8732047 -0.47564423
-4.1044998 9.9601603 0
-4.163136 10.10245 0.61031973
-1.1220657 2.7135417 -0.96821642
-1.3148149 3.1796761 -0.94930553
-1.5676349 3.7910821 -0.90880638
-2.0843468 5.0406699 -0.90936261
-2.7403195 6.627038 -0.79931718
-3.2529976 7.8668704 -0.47549868
-4.1105628 9.9407587 0
-4.1713681 10.087808 0.60973918
-1.134814 2.7350087 -0.97636449
-1.3205807 3.182724 -0.95069116
-1.5556613 3.7492902 -0.89923793
-2.0924017 5.0428853 -0.91021776
-2.7493191 6.6261182 -0.79960626
-3.2664843 7.8725343 -0.47607923
-4.1165891 9.9213667 0
-4.1755877 10.06356 0.60857803
-1.1362197 2.7290764 -0.97473609
-1.2926058 3.1046984 -0.92785048
-1.5514019 3.7262986 -0.89417249
-2.0935612 5.0285063 -0.90807831
-2.760303 6.6299477 -0.80047035
-3.2759943 7.8685818 -0.47607923
-4.1235733 9.9043751 0
-4.188746 10.060912 0.60872358
-1.1271318 2.6980557 -0.96414232
-1.2934541 3.0961874 -0.92577332
-1.5451283 3.6986291 -0.88798022
-2.1045823 5.0378141 -0.91021776
-2.7732999 6.6385474 -0.80191261
-3.2794917 7.8502364 -0.47520867
-4.1204891 9.8633623 0
-4.1918859 10.034267 0.60741746
-1.1399442 2.7194819 -0.97229046
-1.3253192 3.1617179 -0.94584537
-1.5417418 3.6780214 -0.8834793
-2.1047156 5.0210667 -0.90765077
-2.7813194 6.6351914 -0.80191261
-3.2939963 7.8582478 -0.47593424
-2.98753 7.1271334 0
-4.1999893 10.019609 0.60683692
-1.1393963 2.7089894 -0.96903056
-1.3087138 3.111553 -0.93131065
-1.5363319 3.6527297 -0.87784934
-2.1187429 5.0374503 -0.91107452
-2.7933457 6.6413627 -0.80306578
-3.3085253 7.8662357 -0.47665977
-3.0052195 7.1451063 0
-4.2090697 10.007339 0.60640138
-1.1330607 2.6848438 -0.96088248
-1.3241779 3.1377058 -0.93961656
-1.5437092 3.657896 -0.87953854
-2.1238272 5.0325146 -0.91064531
-2.8023732 6.6403632 -0.80335379
-3.316009 7.8574491 -0.4763698
-2.9976606 7.1031065 0
-4.2161078 9.9902782 0.60567582
-1.1594338 2.738096 -0.98044163
-1.3074262 3.0875916 -0.92508185
-1.543175 3.6443315 -0.87672466
-2.1249025 5.0181279 -0.90850586
-2.8204782 6.6607852 -0.80623621
-3.3457649 7.9012918 -0.47927257
