# .PCD v0.7 - Point Cloud Data file format
VERSION 0.7
FIELDS x y z
SIZE 4 4 4
TYPE F F F
COUNT 1 1 1
WIDTH 1622
HEIGHT 1
VIEWPOINT 0 0 0 1 0 0 0
POINTS 1622
DATA ascii
1.267033 3.7227042 -0.65558994
1.2631044 3.7111616 -0.43695271
1.5080364 4.4308028 -0.26142952
3.1079297 9.1314926 0
8.13095 23.889765 1.4095616
1.2625339 3.7242324 -0.65558994
1.274398 3.7592289 -0.44243056
1.5060153 4.4424558 -0.2620095
3.0977285 9.1377039 0
0 0 0
1.2670674 3.7525113 -0.66029799
1.2739911 3.7730165 -0.44387174
1.4973245 4.4344339 -0.26142952
3.0800278 9.1217241 0
3.0782974 9.1165991 0.5374639
1.2608973 3.7491779 -0.6594429
1.2842705 3.8186762 -0.44906044
1.4927927 4.4387007 -0.26157451
3.0648534 9.1130981 0
3.0730753 9.1375456 0.53847945
1.2604423 3.7628672 -0.66158235
1.2771901 3.8128653 -0.44819528
1.4833025 4.428184 -0.26084897
3.0604527 9.1365366 0
3.0570817 9.1264734 0.53760886
1.255083 3.7619545 -0.66115475
1.5860764 4.754066 -0.55860603
1.4812402 4.4398327 -0.26142952
3.047765 9.1352949 0
3.0550954 9.1572676 0.53920501
1.5623894 4.7019844 -0.55226415
1.472597 4.4317555 -0.26084897
3.0342617 9.1315594 0
3.0415728 9.1535616 0.53877002
1.5485789 4.6793089 -0.54938066
1.4664222 4.4310579 -0.26070338
3.0207722 9.1278048 0
3.0182636 9.120224 0.53659278
1.5453535 4.6885486 -0.55024582
1.4586293 4.4254298 -0.26026839
3.0105577 9.1339264 0
3.0039878 9.1139936 0.53601223
1.5340395 4.6732078 -0.54822749
1.4581419 4.4419975 -0.26113895
3.0051985 9.1548595 0
7.0675859 21.530277 1.2657355
0 0 -0
1.5283918 4.6750579 -0.54822749
1.4455073 4.4215302 -0.25983283
0 0 0
7.0617509 21.600544 1.2693639
1.5279745 4.6833596 -0.54909265
1.4460596 4.4322839 -0.26041341
0 0 0
7.0511184 21.612221 1.2697995
0 0 -0
1.5207175 4.6802874 -0.54851663
1.4390955 4.4290805 -0.26012284
0 0 0
7.0241971 21.618256 1.2696545
1.5102819 4.6673512 -0.54678631
1.4297436 4.4184575 -0.2593973
0 0 0
6.994071 21.614368 1.2689289
0 0 -0
1.5038487 4.6667132 -0.5464983
1.4252 4.4226527 -0.25954229
0 0 0
6.9671502 21.620323 1.2687833
1.4942578 4.6562157 -0.54505712
1.4182686 4.4194279 -0.25925228
2.9331605 9.1399412 0
6.9306998 21.596563 1.2668967
1.4894172 4.6604791 -0.54534513
1.4137177 4.4236112 -0.2593973
2.9229059 9.1459551 0
6.9014354 21.595022 1.2663162
1.47908 4.6474919 -0.54361594
1.4091589 4.4277897 -0.25954229
2.9197469 9.174284 0
6.8461843 21.511742 1.2609466
1.4750246 4.6542025 -0.54419196
1.4006706 4.4195905 -0.25896227
2.9118013 9.1877193 0
6.767592 21.354044 1.2512227
1.4655085 4.643651 -0.54275078
1.3953295 4.4212799 -0.25896227
2.8999152 9.1887522 0
6.6315217 21.012823 1.2307588
1.4661 4.6651583 -0.54505712
1.3923211 4.4303923 -0.2593973
2.8864717 9.1848078 0
6.5399122 20.810125 1.2184227
1.4519641 4.639771 -0.54188561
1.3861915 4.4295936 -0.25925228
2.8621559 9.1460581 0
6.4650989 20.659311 1.2091342
1.448666 4.6489325 -0.54275078
1.3839303 4.4411888 -0.25983283
2.8588467 9.1743612 0
6.3504639 20.379354 1.1922991
2.4294837 7.8297834 -0.91376346
1.3762522 4.43541 -0.2593973
6.2457056 20.128771 0
6.2988849 20.300159 1.1872197
0 0 -0
1.3701255 4.4345894 -0.25925228
5.7973285 18.763809 0
5.7988048 18.768585 1.0972377
0 0 -0
1.3632395 4.4312792 -0.25896227
5.7616439 18.728516 0
5.7723026 18.763163 1.0965121
2.3942683 7.8162837 -0.91116911
2.3342562 7.6203694 -0.44516632
5.7336764 18.718052 0
5.734406 18.720434 1.0936093
2.3205001 7.6082764 -0.44429576
5.6928334 18.665224 0
5.7004104 18.690065 1.0914321
0 0 -0
5.6657405 18.657152 0
5.6687655 18.667114 1.089691
0 0 -0
5.6439452 18.666473 0
5.6447001 18.66897 1.0894004
0 0 -0
5.6236377 18.680758 0
5.6198902 18.66831 1.0889649
2.2777324 7.5994906 -0.44313467
5.5973234 18.675068 0
5.6003137 18.685043 1.0895455
0 0 -0
2.2603743 7.5748453 -0.44153798
5.5799642 18.699276 0
5.5769897 18.68931 1.0894004
2.2444253 7.5714536 -0.44110242
5.5445852 18.704372 0
5.5408907 18.69191 1.0889649
2.235275 7.5741601 -0.44110242
5.5249271 18.721043 0
5.5205083 18.70607 1.0894004
2.2217281 7.5619016 -0.44023186
5.5081687 18.747671 0
5.4869142 18.675329 1.0872232
2.2162361 7.5770478 -0.44095743
5.4862442 18.756819 0
5.4592404 18.664495 1.0862076
2.2056274 7.5747356 -0.44066742
5.4679403 18.778421 0
5.4352298 18.666082 1.0859171
2.197196 7.5798883 -0.44081244
5.4459705 18.787512 0
5.4119487 18.670143 1.085772
2.1880357 7.5825377 -0.44081244
5.4247098 18.799084 0
5.3944292 18.694147 1.0867882
2.1774359 7.5801764 -0.44052187
5.4012733 18.803127 0
5.37112 18.698156 1.0866432
2.1682751 7.5828018 -0.44052187
5.3821259 18.822147 0
5.3506641 18.712122 1.0870782
2.1576898 7.5804224 -0.44023186
5.3593793 18.828638 0
5.3301854 18.726072 1.0875138
2.1478212 7.5805264 -0.44008687
5.3344955 18.827585 0
5.3068471 18.730001 1.0873687
2.1400692 7.5881133 -0.44037688
5.3103309 18.829012 0
5.2842116 18.736401 1.0873687
2.1316006 7.5931931 -0.44052187
5.2784295 18.802834 0
5.2615685 18.742771 1.0873687
2.1217256 7.5932627 -0.44037688
5.2543068 18.80419 0
5.2375178 18.744106 1.0870782
2.1132445 7.5983219 -0.44052187
5.2378569 18.83309 0
5.2183456 18.762936 1.0878037
2.1047571 7.6033812 -0.44066742
5.2199578 18.856964 0
5.1998315 18.784258 1.0886749
2.0962579 7.6084218 -0.44081244
5.2006249 18.875801 0
5.1771302 18.790527 1.0886749
2.0870631 7.610949 -0.44081244
5.1791887 18.887085 0
5.1537356 18.794266 1.0885298
2.0785489 7.6159697 -0.44095743
5.1570506 18.895847 0
5.1330729 18.807991 1.0889649
2.0720694 7.6285062 -0.44153798
5.1328492 18.897038 0
5.1117072 18.819201 1.0892555
2.0648851 7.6385317 -0.44197354
2.0153146 7.4551578 0
5.0862517 18.815329 1.0886749
2.0576773 7.6485415 -0.44240853
2.0036006 7.4475346 0
5.0641875 18.823969 1.0888199
2.0544841 7.6736202 -0.44371521
0 0 0
5.0421104 18.832581 1.0889649
2.0478864 7.6861401 -0.44429576
1.9755484 7.4146404 0
5.0200219 18.841177 1.0891105
2.0445762 7.6923938 -0.44458577
1.9710685 7.4158325 0
5.0139751 18.864288 1.090271
2.4365797 9.2120676 -0.53224558
1.9581124 7.4031081 0
4.9918442 18.872852 1.0904166
2.4241228 9.2099743 -0.531955
1.9451923 7.3903732 0
4.9710188 18.8864 1.0908515
2.4116771 9.2078743 -0.53166497
1.9349436 7.3876877 0
4.9481945 18.892393 1.0908515
2.4012041 9.213294 -0.53180999
1.9214206 7.3723893 0
4.9260206 18.900881 1.0909971
2.3907216 9.2187014 -0.531955
1.9112031 7.3696623 0
4.8992639 18.891722 1.090126
2.379581 9.2215834 -0.531955
1.9016473 7.3694487 0
4.8777332 18.902666 1.0904166
2.3690848 9.2269764 -0.53210056
1.8914483 7.3667045 0
4.8574743 18.918613 1.0909971
2.3553615 9.2197618 -0.53152001
1.8819021 7.3664656 0
4.837184 18.934538 1.0915776
2.3448589 9.2251167 -0.53166497
1.8742808 7.3737736 0
4.8162203 18.947918 1.0920126
2.3337104 9.2279434 -0.53166497
1.8634548 7.3684616 0
4.7965064 18.966316 1.0927383
2.3212893 9.2257118 -0.53137445
1.8539157 7.3681865 0
4.7735858 18.972097 1.0927383
2.3095098 9.2259912 -0.53122944
1.84438 7.3678989 0
4.7506585 18.977852 1.0927383
2.2996173 9.2338228 -0.53152001
1.8361043 7.3726449 0
4.7283535 18.986107 1.0928838
2.2865832 9.2290258 -0.53108442
1.8259439 7.3698106 0
4.7035336 18.984238 1.0924482
2.2748086 9.2292614 -0.53093946
1.8170377 7.3720117 0
4.6805916 18.989906 1.0924482
2.2636552 9.2320032 -0.53093946
1.8099862 7.3817773 0
4.6594996 19.003122 1.0928838
2.2518833 9.2322102 -0.53079444
1.8004494 7.381433 0
4.6402283 19.02388 1.0937543
2.2401121 9.2323914 -0.53064889
1.7927575 7.3886662 0
4.619689 19.039574 1.094335
2.2295661 9.2376251 -0.53079444
1.781996 7.383235 0
4.5954618 19.040094 1.0940449
2.2184026 9.2403126 -0.53079444
1.7742875 7.390439 0
4.5718436 19.0431 1.0938994
0 0 -0
2.2090449 9.2505608 -0.53122944
1.7701921 7.4128284 0
4.5530558 19.066305 1.0949155
2.196666 9.2481718 -0.53093946
1.7648436 7.4301591 0
4.5276127 19.06168 1.094335
2.1884763 9.2634611 -0.53166497
1.7606491 7.4525385 0
4.5021873 19.05702 1.0937543
2.1894348 9.2926054 -0.53326166
1.7579373 7.4612026 0
4.4888849 19.052147 1.0933188
2.1847246 9.3230658 -0.53485781
1.7471387 7.4557176 0
4.4658608 19.057558 1.0933188
2.1787655 9.3484716 -0.53616393
1.7399014 7.4654293 0
1.6915966 7.2581668 0.41627842
2.1627743 9.3308468 -0.53500277
1.7338173 7.4802003 0
1.6834115 7.2627344 0.41642341
2.1409931 9.2878819 -0.53239053
1.7224393 7.4721456 0
1.6734685 7.2597041 0.4161334
2.119319 9.2448769 -0.5297783
1.7151545 7.4818339 0
0 0 0
2.1058366 9.2372971 -0.52919775
4.3975201 19.289816 0
1.6507223 7.2409282 0.41482729
2.0929496 9.2322302 -0.52876222
4.3747835 19.297649 0
1.635078 7.2125077 0.41308564
2.0800779 9.2271452 -0.52832663
4.3526063 19.307995 0
1.6240761 7.204339 0.41250506
2.0706329 9.2372608 -0.52876222
4.3315506 19.323399 0
1.6125286 7.1936207 0.41177952
1.9511904 8.7539625 -0.99967068
2.0589051 9.2372227 -0.5286172
4.3104634 19.338778 0
1.6032705 7.1930304 0.4116345
1.939491 8.7512589 -0.99909359
2.0477421 9.2397032 -0.5286172
4.2882204 19.34906 0
1.5928907 7.1873493 0.41119894
1.9244627 8.7333889 -0.99678725
2.0382545 9.2497864 -0.52905273
4.2653971 19.356766 0
1.5814098 7.1765833 0.41047341
1.9128027 8.7306595 -0.99621117
2.0270765 9.2522421 -0.52905273
4.2414489 19.359365 0
1.5705127 7.1683359 0.40989283
1.903904 8.7405481 -0.99707633
2.0142357 9.2470655 -0.5286172
4.2213759 19.379728 0
1.562955 7.1753011 0.41018283
1.9929761 9.2569818 -0.52890718
4.1756272 19.394966 0
1.5439694 7.1714339 0.40974727
1.981246 9.2568445 -0.52876222
3.8929348 18.188702 0
1.5342163 7.1682177 0.40945727
1.9705998 9.2617712 -0.52890718
3.868788 18.18321 0
0 0 0
1.9588701 9.2616053 -0.52876222
3.8451982 18.180231 0
1.5125875 7.1515665 0.40829617
1.9487481 9.2690563 -0.52905273
3.8269768 18.202694 0
1.5044793 7.1559296 0.40844116
1.9436804 9.2727728 -0.52919775
3.8149121 18.199913 0
1.4990907 7.1517553 0.40815115
1.9314137 9.2700224 -0.52890718
3.7918556 18.199409 0
1.490448 7.1535616 0.40815115
1.9207397 9.2749004 -0.52905273
3.7714462 18.211624 0
1.4807484 7.1502633 0.40786061
1.9095314 9.277215 -0.52905273
3.7499626 18.218716 0
1.472633 7.1546001 0.40800616
1.8983202 9.2795153 -0.52905273
3.7305534 18.235979 0
1.4629444 7.1512775 0.40771562
1.8871064 9.2818022 -0.52905273
3.70748 18.235378 0
1.4553388 7.1581378 0.40800616
1.7752606 8.786046 -0.99909359
1.8779483 9.2942638 -0.52963334
3.6869884 18.24749 0
0 0 0
1.7646431 8.7881851 -0.99909359
1.8656925 9.2914257 -0.52934277
3.6669865 18.262138 0
1.4436617 7.1896501 0.40960228
1.7530117 8.7852421 -0.99851751
1.8549722 9.2962189 -0.52948779
3.6474652 18.279324 0
1.4349734 7.1913891 0.40960228
1.7408855 8.7797403 -0.99765235
1.8427284 9.2933607 -0.52919775
3.6223376 18.268396 0
1.4277996 7.200767 0.41003785
1.7312765 8.7869177 -0.9982295
1.830996 9.2930336 -0.52905273
3.6032808 18.288084 0
1.4216089 7.2152314 0.41076338
1.7196633 8.7839222 -0.99765235
1.8202646 9.2977867 -0.52919775
3.5816801 18.294977 0
1.4143879 7.2245965 0.41119894
1.7065794 8.7733011 -0.99621117
1.8105177 9.3076344 -0.52963334
3.5605645 18.304396 0
1.4071462 7.2339549 0.4116345
1.6969581 8.7804308 -0.99678725
1.7997625 9.3123636 -0.5297783
3.5399265 18.316353 0
1.4008693 7.2484035 0.41236007
1.6873238 8.7875605 -0.99736434
1.7889985 9.3170815 -0.52992332
3.5187728 18.325724 0
3.528332 18.375507 1.0451353
1.6762203 8.7870541 -0.99707633
1.7757918 9.3090258 -0.52934277
3.4971163 18.332525 0
3.5007699 18.351679 1.0435386
1.6641564 8.7814474 -0.99621117
1.7659942 9.3188267 -0.5297783
3.4773848 18.34952 0
3.4756908 18.340582 1.042668
1.6511524 8.7707453 -0.99476999
1.7552133 9.3235044 -0.52992332
3.4547293 18.351152 0
3.4621797 18.390728 1.0452802
1.6424552 8.7829027 -0.99592316
1.7429919 9.3205156 -0.52963334
3.4339869 18.362982 0
3.4308817 18.346376 1.042523
1.6290065 8.769619 -0.9941929
1.7322028 9.3251667 -0.5297783
3.4117963 18.367117 0
3.4129817 18.373499 1.0438292
1.6174712 8.7664986 -0.99361682
1.717633 9.3093634 -0.52876222
3.3910179 18.378906 0
3.3865356 18.354614 1.042523
1.6092081 8.7811642 -0.995058
2.1827056 11.910639 -0.67636168
3.3711531 18.395788 0
3.3587346 18.328022 1.0407814
1.5962813 8.7703819 -0.99361682
2.1683123 11.913267 -0.67636168
3.3451948 18.379364 0
3.5487502 19.497749 1.1069616
1.5847617 8.7672081 -0.99303973
2.1520669 11.905651 -0.67578113
3.5535102 19.658705 0
3.5251882 19.502024 1.1069616
1.5794648 8.7681646 -0.99303973
2.1462562 11.914623 -0.67621666
3.5434783 19.671093 0
3.5180111 19.529716 1.1084127
1.568869 8.7700663 -0.99303973
2.1336868 11.927429 -0.67679667
3.519249 19.672802 0
3.4957838 19.54163 1.1088483
1.5582709 8.7719555 -0.99303973
1.3939624 7.8470154 -0.44516632
3.4977512 19.689848 0
3.4721692 19.545839 1.1088483
1.5481212 8.7763863 -0.99332881
1.3876399 7.8666091 -0.44618246
3.4721491 19.683809 0
3.4499021 19.55769 1.1092833
1.537068 8.7756958 -0.99303973
1.3696156 7.8196473 -0.44342464
3.4506071 19.700806 0
3.4262679 19.561844 1.1092833
1.5233624 8.759716 -0.99102247
1.3655086 7.8520169 -0.44516632
3.4299216 19.72291 0
3.4012945 19.558298 1.1088483
1.3719603 7.9459834 -0.89877337
1.3564615 7.8562193 -0.44531134
3.4056454 19.724478 0
3.377218 19.559835 1.1087033
1.3636695 7.9552855 -0.89963847
1.3452119 7.8476081 -0.44473076
3.3840079 19.741402 0
3.357532 19.586948 1.1100094
1.3501514 7.9339814 -0.89704412
1.3352931 7.8466687 -0.44458577
3.3588417 19.737778 0
3.3325543 19.583303 1.1095738
1.3414246 7.9407029 -0.8976202
1.3279746 7.8610845 -0.44531134
3.3358576 19.746958 0
3.3114853 19.602684 1.1104444
1.3331125 7.9499731 -0.8984853
1.3180457 7.8601232 -0.44516632
3.3102734 19.740707 0
3.2890866 19.614361 1.11088
1.3239298 7.9541268 -0.89877337
1.3085474 7.8617101 -0.44516632
3.2885542 19.757526 0
3.2658103 19.620882 1.111025
1.30968 7.9276476 -0.89560187
1.3007412 7.8735404 -0.4457469
2.5588558 15.489056 0
3.2370174 19.594049 1.1092833
1.305122 7.9598532 -0.89906138
1.2929083 7.8853631 -0.44632745
2.5304544 15.433075 0
2.5385759 15.482608 0.87634683
1.2963347 7.9665351 -0.89963847
1.2808746 7.8715262 -0.44545633
2.5030274 15.382181 0
2.5106859 15.429246 0.87315404
1.288769 7.9808602 -0.90107965
1.2713625 7.8730683 -0.44545633
2.4773865 15.34152 0
2.4837561 15.380963 0.8702513
1.1047952 6.8945036 -0.77827322
1.2573272 7.8463831 -0.4438602
2.4555533 15.323944 0
2.458591 15.342902 0.86792904
1.1013377 6.926486 -0.78173274
1.1152399 7.0139194 -0.39669225
2.4329495 15.301203 0
2.4363785 15.322768 0.86662292
1.0929675 6.9278116 -0.78173274
1.1010958 6.9793329 -0.39466059
2.4059427 15.25015 0
2.417053 15.320572 0.86633295
1.0833955 6.9214587 -0.78086758
1.0870354 6.9447126 -0.39262834
1.2240589 7.8201103 0
2.3993423 15.328611 0.86662292
1.0742384 6.9176559 -0.78029156
1.0810364 6.961432 -0.39349946
1.2150078 7.8241529 0
2.3812172 15.334064 0.86676794
1.0666659 6.924057 -0.78086758
1.0564036 6.8574414 -0.38754889
1.1984212 7.7793217 0
2.3630824 15.339496 0.8669129
1.0628759 6.9272637 -0.78115666
1.0471379 6.8246918 -0.38566223
1.1960886 7.7954736 0
2.3546035 15.346063 0.86720347
1.0560616 6.9387712 -0.78230983
1.0388908 6.8259521 -0.38566223
1.1866684 7.7969131 0
2.3368404 15.35403 0.86749345
1.0480624 6.9425974 -0.78259784
1.0279268 6.8092146 -0.38464609
1.1756926 7.7880478 0
2.3194504 15.364552 0.86792904
1.046566 6.9898973 -0.7877866
1.0185453 6.8027496 -0.38421109
1.16397 7.774025 0
2.3012679 15.369911 0.86807406
1.0487566 7.0627928 -0.79585874
1.0099419 6.8013978 -0.38406554
1.1549575 7.7779975 0
2.2834587 15.377826 0.86836457
1.0428584 7.0819597 -0.797876
1.0013448 6.8000445 -0.38392055
1.1425254 7.7587895 0
2.2663903 15.390857 0.86894518
1.0361687 7.0960088 -0.79931718
0.98712045 6.7601109 -0.38159829
1.1316454 7.7498636 0
2.2477918 15.393583 0.86894518
0.85480732 5.9038758 -0.99452358
1.0279655 7.0998225 -0.79960626
0.9800688 6.7690158 -0.38203385
1.118552 7.7254739 0
2.2314234 15.411714 0.86981571
0.84621394 5.8947401 -0.99281174
1.0223262 7.1215415 -0.80191261
0.97078103 6.7624764 -0.38159829
1.1066273 7.7087846 0
2.2131684 15.416968 0.86996073
0.83836657 5.8906708 -0.99195498
1.0148128 7.1304464 -0.80277669
0.96260917 6.7636447 -0.38159829
1.0929117 7.6791978 0
2.1941726 15.417061 0.86981571
0.82873887 5.8738933 -0.98896044
1.0051132 7.1239915 -0.80191261
0.95734006 6.7853866 -0.38275942
1.0847231 7.6882463 0
2.1748173 15.41456 0.86952573
0.8237735 5.8901396 -0.99152744
0.99614531 7.1226315 -0.80162352
0 0 -0
1.0757928 7.6921263 0
2.1547506 15.406883 0.86894518
0.80779016 5.8793998 -0.98938799
0.97329825 7.0840292 -0.79701191
0 0 -0
1.054013 7.6715012 0
1.2874517 9.3705568 0.52832049
0.79930013 5.8701968 -0.98767614
0.96020168 7.0518861 -0.79326439
0 0 -0
1.0457964 7.6805081 0
1.273674 9.3540802 0.52730441
0.79220653 5.8711586 -0.98767614
0.95168018 7.053041 -0.79326439
0 0 -0
1.0344279 7.666296 0
1.2595907 9.3350115 0.52614325
0.78443205 5.8670273 -0.986821
0.93904406 7.0234218 -0.78980488
0.9074344 6.7870026 -0.38246942
1.0248179 7.6649532 0
1.2465888 9.3236513 0.52541775
0.77734232 5.8679709 -0.986821
0.92342418 6.9707079 -0.78375101
0.90162069 6.8061185 -0.38348499
1.0158985 7.6687737 0
1.2353221 9.3251505 0.52541775
0.76991647 5.8663535 -0.98639178
0.91028816 6.9359107 -0.77971441
0.89069241 6.786602 -0.38232443
1.0066315 7.6699953 0
1.220673 9.3008776 0.52396661
0.76315951 5.8698325 -0.986821
0.89590496 6.8908424 -0.7745257
0.8818208 6.7825146 -0.38203385
0.99769825 7.6737847 0
1.2084284 9.2946129 0.52353108
0.75606638 5.8707504 -0.986821
0.88394493 6.863709 -0.77135527
0.87229723 6.7732663 -0.38145331
0.98742765 7.6672382 0
1.1958692 9.285758 0.52295047
0.7479974 5.864018 -0.98553669
0.87237746 6.8391104 -0.76847184
0.86148214 6.753695 -0.38029218
0.97849154 7.6710048 0
1.1839901 9.2820358 0.52265996
0.7418769 5.87256 -0.986821
0.86443692 6.8427229 -0.76875985
0.85592633 6.7753549 -0.38145331
0.96824437 7.664443 0
1.1727737 9.2834597 0.52265996
0.73446095 5.8708978 -0.98639178
0.85103232 6.8027086 -0.76414824
0.84709454 6.7712321 -0.3811633
0.96059763 7.6785169 0
1.1609111 9.2797184 0.52236992
0.72673601 5.8666906 -0.98553669
0.84026819 6.7831974 -0.76184195
0.83891219 6.7722507 -0.3811633
0.9493987 7.6641707 0
1.149058 9.2759523 0.52207935
0.71933448 5.8650188 -0.98510915
0.82608861 6.7354274 -0.75636411
0.83325928 6.7938924 -0.38232443
0.94140464 7.6756449 0
1.1372169 9.2721806 0.52178937
0.71255636 5.8684297 -0.98553669
0.81701517 6.728725 -0.75550002
0.82097697 6.7613535 -0.3804372
0.93150264 7.6716146 0
1.1241339 9.2580757 0.52091885
0.70747167 5.8561192 -0.98339725
0.80891615 6.6958284 -0.75175142
0.81782717 6.7695899 -0.38087276
0.92624277 7.6670036 0
1.1194744 9.2664843 0.52135384
0.70008951 5.854413 -0.98296809
0.80082494 6.6968012 -0.75175142
0.80717856 6.7499323 -0.37971163
0.91666931 7.6655354 0
1.1070428 9.2575102 0.52077323
0.69271368 5.8527079 -0.98254049
0.79212517 6.6926317 -0.7511754
0.79993856 6.7586465 -0.38014719
0.90862989 7.6769753 0
1.0961623 9.2614288 0.52091885
0.68593967 5.8560882 -0.98296809
0.78253359 6.6807418 -0.74973422
0.79177147 6.7596083 -0.38014719
0.89723343 7.6599712 0
1.0843657 9.2575798 0.52062827
0.67709041 5.8416176 -0.9804011
0.77654439 6.6996598 -0.75175142
0.78360319 6.76056 -0.38014719
0.8894763 7.6739831 0
1.0734779 9.2614622 0.52077323
0.66973925 5.8398833 -0.97997355
0.76992297 6.713449 -0.75319368
0.77691382 6.7744069 -0.38087276
0.87990576 7.6724596 0
0 0 0
0.66268241 5.8406882 -0.97997355
0.76880753 6.7760444 -0.76011163
0.76931417 6.7805095 -0.3811633
0.87151492 7.6812773 0
1.0505081 9.2588711 0.52048326
0.65533853 5.8389363 -0.97954595
0.76840883 6.8463702 -0.76789576
0.75967073 6.7685156 -0.3804372
0.86020076 7.6642184 0
1.0401895 9.2678823 0.52091885
0.64686584 5.8269596 -0.97740489
0.77012324 6.9372606 -0.77798522
0.75177932 6.7720184 -0.38058275
0.85151428 7.6704302 0
0 0 0
0.63926488 5.8226385 -0.9765498
0.7659747 6.9767537 -0.78230983
0.74444598 6.7806635 -0.38101774
0.84139311 7.6636901 0
1.0160877 9.2548666 0.52004772
0.63195205 5.820857 -0.97612226
0.7575441 6.9776745 -0.78230983
0.73569196 6.7763963 -0.38072774
0.8385933 7.7242117 0
1.0037824 9.2457542 0.51946712
0.62491822 5.8216162 -0.97612226
0.74993974 6.9862924 -0.78317392
0.72778058 6.7798615 -0.38087276
0.82314801 7.6682863 0
0.99260998 9.2469606 0.51946712
0.61652821 5.8095961 -0.97398114
0.74067956 6.9794846 -0.78230983
0.71821707 6.7678189 -0.38014719
1.0020014 9.4419413 0
0.98171008 9.2507343 0.51961213
0.60870528 5.8026848 -0.97269851
0.7311663 6.9700851 -0.78115666
0.7108525 6.7764368 -0.38058275
0.98516268 9.3913889 0
0.97161597 9.2622509 0.52019268
0.60010457 5.7880912 -0.97012985
0.72407722 6.9838243 -0.78259784
0.70239526 6.7746987 -0.3804372
0.97247261 9.379632 0
0.96042365 9.2634182 0.52019268
0.5933727 5.7913728 -0.97055906
0.71590149 6.9872646 -0.78288591
0.69394422 6.7729602 -0.38029218
0.96193343 9.3885593 0
0.94896531 9.2619896 0.52004772
0.58740783 5.8022919 -0.9722693
0.70719796 6.9855537 -0.78259784
0.68628389 6.7789693 -0.38058275
0.95085037 9.3923016 0
0.93777335 9.2631292 0.52004772
0.58039647 5.8029976 -0.9722693
0.70055789 7.0044112 -0.7846151
0.67860901 6.7849598 -0.38087276
0.93924218 9.3908567 0
0.92632163 9.261673 0.51990271
0.57187039 5.7883716 -0.9697023
0.69438326 7.0284257 -0.78721052
0.67526448 6.8349085 -0.38363054
0.92738324 9.3868103 0
0.9166624 9.2782955 0.52077323
0.56537491 5.7941732 -0.97055906
0.68563837 7.0266781 -0.78692144
0.66902411 6.8564086 -0.38479164
0.91452348 9.3723774 0
0.90570378 9.2819901 0.52091885
0.5571416 5.7820687 -0.968418
0.79646623 8.2658024 -0.92558312
0.66248286 6.8753099 -0.38580722
0.9044469 9.3864355 0
0.89448762 9.2830772 0.52091885
0.55088431 5.7904067 -0.9697023
0.78157872 8.2152615 -0.91981733
0.65368319 6.8709369 -0.38551721
0.72846299 7.6569562 0
0.8825317 9.2763891 0.52048326
0.54714459 5.7881851 -0.96927476
0.77831942 8.2337599 -0.9218356
0.64782 6.8532195 -0.3845011
0.72261161 7.6444325 0
0.87766099 9.2846832 0.52091885
0.53967285 5.7837253 -0.968418
0.76788986 8.2295485 -0.92125958
0.64074552 6.866931 -0.38522667
0.71313274 7.6427112 0
0.86740726 9.2960863 0.5214994
0.5333904 5.7920442 -0.9697023
0.7577076 8.2278872 -0.9209705
0.63506907 6.8961649 -0.38682333
0.70007902 7.6021028 0
0.85617417 9.2971277 0.5214994
0.52615935 5.7901306 -0.96927476
0.74682897 8.2184935 -0.91981733
0.85435599 9.4017763 -0.52731109
0.69183493 7.6133103 0
0.84493977 9.2981548 0.5214994
0.51824582 5.7805347 -0.96756291
0.7385149 8.2374249 -0.9218356
0.84415507 9.4157391 -0.52803665
0.68472654 7.6374674 0
0.83393592 9.301755 0.52164435
0.51080811 5.7760377 -0.96670616
0.72764969 8.2280054 -0.92068243
0.83117485 9.398632 -0.52702051
0 0 0
0.82315332 9.3079271 0.52193439
0.5033828 5.7715406 -0.96585101
0.71838164 8.2366114 -0.92154759
0 0 -0
0 0 0
0.81213146 9.3115015 0.52207935
0.49618894 5.7695894 -0.96542346
0.70865017 8.2400484 -0.9218356
0 0 -0
0 0 0
0.80221605 9.3280144 0.52295047
0.48834968 5.7599535 -0.96371162
0.69803745 8.2331638 -0.9209705
0 0 -0
0.80543733 9.499917 0
0.79050493 9.3237934 0.52265996
0.48203027 5.7682061 -0.96499425
0.68873513 8.2417364 -0.9218356
0 0 -0
0.79222417 9.4801359 0
0.77945542 9.3273392 0.52280551
0.47527146 5.7713504 -0.96542346
0.67792702 8.2322521 -0.92068243
0 0 -0
0.78226405 9.4992447 0
0.76818454 9.3282738 0.52280551
0.46788198 5.766798 -0.96456671
0.66818839 8.2356405 -0.9209705
0.76238531 9.3966484 -0.52658552
0.76931208 9.4820223 0
0.75796306 9.3421421 0.52353108
0.46091357 5.7673593 -0.96456671
0.65782505 8.2312899 -0.92039442
0.75144434 9.4027376 -0.52687556
0.75785434 9.4829454 0
0.74625999 9.3378658 0.52324051
0.4539445 5.7679119 -0.96456671
0.6486904 8.2423935 -0.92154759
0.73987877 9.4010506 -0.52673054
0.74557877 9.4734764 0
0.73477274 9.3361731 0.52309549
0.44519013 5.7454243 -0.96071541
0.63833058 8.2380085 -0.9209705
0.72871941 9.4045267 -0.52687556
0.73473471 9.4821568 0
0.72449481 9.3500051 0.52382106
0.43824759 5.7459579 -0.96071541
0.62857336 8.2413597 -0.92125958
0.71696055 9.4002228 -0.52658552
0.72367227 9.4882221 0
0.71359223 9.35606 0.52411163
0.43188098 5.7541652 -0.96199971
0.61842072 8.2395267 -0.9209705
0.70501804 9.3933067 -0.52614999
0.71181792 9.4839048 0
0.70248103 9.3595047 0.52425659
0.42492786 5.754683 -0.96199971
0.60713166 8.2222195 -0.91895324
0.69366753 9.3941517 -0.52614999
0.70227408 9.5107069 0
0.69174558 9.3681231 0.52469218
0.41815993 5.75775 -0.96242726
0.59794569 8.2332659 -0.92010641
0.68193924 9.3897943 -0.52585942
0.68965101 9.4959793 0
0.68098968 9.3767195 0.52512717
0.41138518 5.7608094 -0.96285486
0.58707523 8.2210751 -0.91866416
0.66985339 9.3802547 -0.5252794
0.68002987 9.5227604 0
0.66984487 9.3801346 0.52527273
0.40244725 5.7331409 -0.95814842
0.57677937 8.2166233 -0.91808808
0.65833622 9.3784571 -0.52513385
0.66779405 9.5131903 0
0.65851033 9.3809376 0.52527273
0.39516592 5.7284961 -0.95729166
0.56774056 8.2302132 -0.91952932
0.64646775 9.3714762 -0.52469885
0.6557619 9.5062084 0
0.64735347 9.3843164 0.52541775
0.38980579 5.752018 -0.96114296
0.55709606 8.2205715 -0.91837615
0.6351437 9.3722506 -0.52469885
0.64462662 9.5121822 0
0.6367166 9.3954611 0.52599829
0.38495445 5.7317619 -0.95771921
0.55264962 8.228651 -0.91924125
0.62895876 9.3648529 -0.52426332
0.63992572 9.5281448 0
0.63016975 9.382884 0.52527273
0.37853542 5.7399096 -0.95900357
0.54236573 8.2241459 -0.91866416
0.61747187 9.3630152 -0.5241183
0.6282413 9.5263166 0
0.6195159 9.3940096 0.52585328
0.37159958 5.7403631 -0.95900357
0.53175974 8.2144709 -0.91751099
0.60632575 9.3663454 -0.52426332
0.61757058 9.5400515 0
0.60900372 9.4077139 0.52657884
0.36450061 5.7382483 -0.95857596
0.52216202 8.2202749 -0.91808808
0.50820225 8.0005093 -0.44777855
0.60637313 9.5459909 0
0.59813023 9.4162254 0.52701437
0.35031906 5.733983 -0.95771921
0.50229532 8.2215128 -0.91808808
0.48950049 8.0120888 -0.44835913
0.5823499 9.5318375 0
0.57521427 9.4150419 0.52686882
0.34323713 5.731842 -0.95729166
0.49112397 8.2014589 -0.91578174
0.48478946 8.0956764 -0.45300359
0.57192123 9.5507212 0
0.56476986 9.4312983 0.52773994
0.33631104 5.7322526 -0.95729166
0.48227432 8.2201233 -0.91780007
0.47728944 8.1351585 -0.45518026
0.56099033 9.5617971 0
0.55276477 9.4215975 0.52715939
0.3289426 5.7249637 -0.95600736
0.47174808 8.210371 -0.9166469
0.47342154 8.2394962 -0.46098584
0.54958546 9.5650644 0
0.54212534 9.4352264 0.52788496
0.32274607 5.7381797 -0.95814842
0.46110103 8.1980257 -0.91520572
0.46434063 8.2556229 -0.4618564
0.53773558 9.5605297 0
0.53116226 9.4436607 0.52832049
0.31595328 5.7411261 -0.95857596
0.45204747 8.2140665 -0.91693491
0.45465082 8.2613726 -0.46214694
0.52646887 9.5663643 0
0.51889402 9.4287233 0.52744937
0.30887818 5.7389426 -0.95814842
0.44198316 8.2120266 -0.9166469
0.44466823 8.2619152 -0.46214694
0.51421022 9.5540018 0
0.50847858 9.4475088 0.52846551
0.30059466 5.7136717 -0.95386791
0.43219596 8.2151356 -0.91693491
0.4348214 8.2650394 -0.46229196
0.5034858 9.5702047 0
0.49678946 9.4429216 0.52817494
0.29461309 5.7319789 -0.95686412
0.42187083 8.2079 -0.91606981
0.42510089 8.2707434 -0.46258196
0.49085352 9.550024 0
0.4864462 9.4642754 0.52933609
0.28678608 5.7143812 -0.95386791
0.4120824 8.2109842 -0.91635782
0.41523761 8.2738543 -0.46272752
0.4798356 9.5610065 0
0.47540098 9.4726439 0.52977163
0.28000709 5.7172952 -0.95429713
0.40254042 8.2192287 -0.91722298
0.40460408 8.2613649 -0.46200138
0.46815497 9.5589724 0
0.46357334 9.4654236 0.52933609
0.27285346 5.7124958 -0.95344037
0.39273208 8.22229 -0.91751099
0.39424998 8.2540693 -0.46156639
0.45648044 9.5569344 0
0.45250791 9.4737654 0.52977163
0.26642835 5.7230787 -0.95515227
0.38255644 8.217597 -0.91693491
0.38222218 8.2104158 -0.45909917
0.44396421 9.5366812 0
0.44154373 9.4846878 0.53035218
0.25916398 5.7157006 -0.95386791
0.37321246 8.2309694 -0.91837615
0.36618084 8.0758915 -0.45155191
0.43361974 9.5632143 0
0.43031821 9.4904013 0.53064221
0.25237098 5.7185817 -0.95429713
0.36315274 8.2288332 -0.91808808
0.35103834 7.9543271 -0.44473076
0.42126086 9.5455294 0
0.41907993 9.4961109 0.53093272
0.24469034 5.7009268 -0.95130098
0.35332036 8.2318478 -0.91837615
0.33763856 7.8664842 -0.4397963
0.41039601 9.5616264 0
0.40760544 9.4966106 0.53093272
0.23780172 5.7012186 -0.95130098
0.34315816 8.2271051 -0.91780007
0.32575107 7.8097754 -0.43660352
0.39971003 9.5829172 0
0.39602214 9.4945021 0.53078777
0.23101652 5.7040644 -0.95172852
0.33342618 8.2326775 -0.91837615
0.31273925 7.7218933 -0.43166906
0.38855192 9.5937948 0
0.38486478 9.5027552 0.53122276
0.2240234 5.7017765 -0.95130098
0.32337692 8.2304916 -0.91808808
0.30065453 7.6521688 -0.42775071
0.37716395 9.5994635 0
0.37399456 9.5187969 0.53209388
0.22097556 5.7121716 -0.95301282
0.31870443 8.2384424 -0.91895324
0.29412284 7.603013 -0.42499292
0.37186727 9.61269 0
0.36824366 9.519021 0.53209388
0.2138809 5.7072988 -0.95215607
0.30874965 8.238821 -0.91895324
0.28337893 7.5618167 -0.42267069
0.36073914 9.626133 0
0.35703355 9.5272512 0.53252941
0.20670576 5.6998644 -0.95087337
0.29879442 8.2391882 -0.91895324
0.27405357 7.5569654 -0.42238069
0.34957907 9.6395636 0
0.34589779 9.5380526 0.53310943
0.19981843 5.70011 -0.95087337
0.28874788 8.2369509 -0.91866416
0.26537734 7.5702724 -0.42310625
0.33875176 9.6633844 0
0.33419079 9.5332756 0.53281939
0.19284374 5.6977739 -0.95044422
0.27862009 8.2321291 -0.91808808
0.25693312 7.5913634 -0.42426735
0.32637095 9.6429787 0
0.32328677 9.5518532 0.53383553
0.18621023 5.7057028 -0.95172852
0.26858869 8.2298765 -0.91780007
0.24826863 7.6072459 -0.42513791
0.3154833 9.6667833 0
0.31174499 9.5522366 0.53383553
0.17907389 5.6982236 -0.95044422
0.25823787 8.2172613 -0.91635782
0.23915844 7.6101451 -0.42528349
0.30347568 9.6567526 0
0.30036584 9.5577955 0.53412551
0.17218857 5.6984358 -0.95044422
0.2486212 8.2279091 -0.91751099
0.22972737 7.602634 -0.42484793
0.29204273 9.6649084 0
0.28913081 9.5685406 0.53470612
0.165452 5.7037764 -0.95130098
0.23785445 8.1997719 -0.91434056
0.21933542 7.5613484 -0.42252567
0.24180619 8.3360033 0
0.27756891 9.5688829 0.53470612
0.15841718 5.6988354 -0.95044422
0.20394254 7.3365459 -0.81805587
0.20666091 7.4343357 -0.41541401
0.23180611 8.3388987 0
0.26607871 9.5718069 0.53485107
0.15159957 5.7015963 -0.95087337
0.19507761 7.3367872 -0.81805587
0.19477746 7.3254986 -0.40931898
0.22089994 8.3079538 0
0.2546511 9.5773211 0.53514165
0.14529631 5.7248688 -0.95472467
0.18614684 7.334434 -0.81776786
0.18421166 7.2581854 -0.40554506
0.21053115 8.2952089 0
0.24327619 9.5854073 0.53557664
0.1377584 5.6993718 -0.95044422
0.17703447 7.3243108 -0.81661469
0.17431135 7.2116494 -0.40293282
0.19987887 8.2694349 0
0.23181963 9.5908947 0.53586721
0.13146113 5.725203 -0.95472467
0.16806549 7.3193426 -0.8160376
0.16547817 7.2066641 -0.40264285
0.18857251 8.2124357 0
0.22034992 9.5963583 0.53615719
0.12431993 5.7150922 -0.95301282
0.15922137 7.3195405 -0.8160376
0.15654416 7.1964674 -0.40206227
0.17672502 8.124198 0
0.20915006 9.6148052 0.53717333
0.11730871 5.7101002 -0.95215607
0.15043008 7.3223109 -0.8163256
0.14736824 7.1732726 -0.40075615
0.16621351 8.0905828 0
0.1975323 9.6150503 0.53717333
0.11105417 5.7436008 -0.95771921
0.14163254 7.3250809 -0.81661469
0.13799728 7.1370692 -0.39872393
0.1556828 8.0517454 0
0.1863161 9.6360664 0.53833443
0.10434683 5.7565713 -0.95986032
0.13268767 7.3200698 -0.8160376
0.12861994 7.0956621 -0.3964017
0.14571793 8.0389194 0
0.17490809 9.649272 0.53906
0.097911969 5.7874842 -0.96499425
0.123974 7.3279853 -0.81690276
0.12026601 7.1088104 -0.39712781
0.13622443 8.0520973 0
0.16395196 9.6910448 0.54138225
0.09172529 5.838933 -0.9735536
0.11491637 7.3152018 -0.81546152
0.11143135 7.0933566 -0.39625669
0.12563655 7.9976134 0
0.15260939 9.7146168 0.54268837
0.084744528 5.8441782 -0.97441036
0.10577728 7.2946453 -0.81315517
0.10274742 7.0856991 -0.39582169
0.1154824 7.963933 0
0.14128554 9.7433767 0.544285
0.078160517 5.8802071 -0.9804011
0.096516185 7.2611489 -0.80940765
0.094151028 7.0832124 -0.39567614
0.10751976 8.0889759 0
0.12930518 9.7279463 0.54341388
0.070869334 5.8649011 -0.97783411
0.087086171 7.2069507 -0.80335379
0.085749231 7.0963097 -0.3964017
0.097336978 8.0552721 0
0.11783331 9.7514772 0.54471999
0.063782692 5.8649821 -0.97783411
0.090668648 8.3372145 -0.92933071
0.077174664 7.0964084 -0.3964017
0.087320626 8.029355 0
0.10596578 9.743825 0.544285
0.056671079 5.8624806 -0.97740489
0.080469705 8.3243885 -0.92788947
0.068549797 7.0913048 -0.3961117
0.077643879 8.0320644 0
0.094267473 9.7517328 0.54471999
0.053129237 5.862514 -0.97740489
0.07551083 8.3321972 -0.92875463
0.064406797 7.1069298 -0.39698225
0.073097847 8.0659389 0
0.088399537 9.7543945 0.54486555
0.046025351 5.8600092 -0.97697735
0.065442942 8.332283 -0.92875463
0.055880658 7.1148 -0.39741781
0.063842162 8.1284695 0
0.076674357 9.7622814 0.5453006
0.03885936 5.8472281 -0.9748379
0.055426475 8.3401079 -0.92961872
0.04802626 7.2265859 -0.40365839
0.054660354 8.2248287 0
0.064861238 9.7597713 0.54515558
0.031877819 5.862668 -0.97740489
0.038275417 7.0392537 -0.7846151
0.040579978 7.4630866 -0.41686568
0.044736356 8.2274885 0
0.053068414 9.7598429 0.54515558
0.024728792 5.8473048 -0.9748379
0.029704219 7.0237813 -0.78288591
0.031869914 7.5358758 -0.42092901
0.034750987 8.2171268 0
0.041319471 9.7702932 0.54573613
0.017717738 5.8653026 -0.97783411
0.021201719 7.0186439 -0.78230983
0.02272502 7.5229192 -0.42020345
0.024869353 8.2327824 0
0.029474713 9.7573462 0.54501057
0.010598079 5.8473477 -0.9748379
0.012688224 7.0005565 -0.78029156
0.013545556 7.4735785 -0.41744623
0.014869736 8.2041769 0
0.017736636 9.7859497 0.54660672
0.0035326949 5.8473563 -0.9748379
0.0042340993 7.0083289 -0.78115666
0.0044822223 7.4190245 -0.41439843
0.0049487208 8.1911783 0
0.005912215 9.785964 0.54660672
-0.0035373492 5.8550596 -0.97612226
-0.0042231595 6.990221 -0.77913839
-0.0044586728 7.3800449 -0.41222119
-0.0049361424 8.1703587 0
-0.0059232055 9.8041563 0.5476228
-0.010607376 5.8524766 -0.97569305
-0.012664789 6.9876266 -0.77885032
-0.013319497 7.3488531 -0.41047952
-0.014742393 8.1339169 0
-0.017736636 9.7859497 0.54660672
-0.01763243 5.8370624 -0.97312605
-0.021139214 6.997952 -0.78000349
-0.022089265 7.3124585 -0.40844786
-0.024476292 8.102663 0
-0.029576745 9.7911234 0.54689723
-0.024750484 5.8524342 -0.97569305
-0.02956203 6.9901595 -0.77913839
-0.030891947 7.3046284 -0.4080123
-0.034244727 8.0974178 0
-0.041473296 9.8066664 0.54776782
-0.031821989 5.8523998 -0.97569305
-0.03800825 6.990119 -0.77913839
-0.039675795 7.2967982 -0.40757731
-0.043958109 8.0843601 0
-0.053350989 9.8118105 0.54805839
-0.038808163 5.8395247 -0.9735536
-0.046420004 6.98489 -0.77856123
-0.048302554 7.2681599 -0.40598062
-0.053674608 8.0765018 0
-0.065275677 9.8221331 0.54863894
-0.045924563 5.847177 -0.9748379
-0.054859847 6.9848289 -0.77856123
-0.056962259 7.252511 -0.40511006
-0.063147247 8.0399923 0
-0.077204928 9.829834 0.54907393
-0.052966461 5.8445525 -0.97441036
-0.063299604 6.9847574 -0.77856123
-0.065560609 7.2342463 -0.40409395
-0.086257197 9.5179987 0
-0.089011729 9.8219461 0.54863894
-0.060133882 5.8547521 -0.97612226
-0.071845531 6.9950213 -0.77971441
-0.074248411 7.2289701 -0.40380394
-0.097410224 9.4840498 0
-0.10098631 9.8322248 0.54921949
-0.067031302 5.8392687 -0.9735536
-0.080297597 6.9949293 -0.77971441
-0.082804136 7.2132802 -0.40293282
-0.10961658 9.5489807 0
-0.11283665 9.8294897 0.54907393
-0.073956601 5.8289161 -0.97184175
-0.10679649 8.4172039 -0.93826693
-0.091388047 7.2027822 -0.40235227
-0.12155078 9.5800686 0
-0.12497731 9.850132 0.55023503
-0.088081315 5.8312845 -0.9722693
-0 0 -0
-0.10859789 7.1895518 -0.40162671
-0.14505541 9.6031647 0
-0.14889862 9.8575983 0.55067062
-0.094917901 5.8183427 -0.97012985
-0 0 -0
-0.11762405 7.2102003 -0.40278783
-0.15665886 9.6029825 0
-0.1607248 9.8522196 0.55038059
-0.1018583 5.8130956 -0.96927476
-0 0 -0
-0.12651818 7.2204452 -0.40336838
-0.16803414 9.5897779 0
-0.1729477 9.8701973 0.55139613
-0.10902648 5.8206706 -0.97055906
-0.15740483 8.4034777 -0.93682575
-0.1345614 7.1839199 -0.40133673
-0.17986503 9.6025753 0
-0.18506844 9.880373 0.55197674
-0.11605955 5.8205342 -0.97055906
-0.16755867 8.4032812 -0.93682575
-0.14168751 7.1058092 -0.39698225
-0.19105268 9.5815353 0
-0.19679959 9.869751 0.55139613
-0.11941779 5.8127613 -0.96927476
-0.17306051 8.4238653 -0.93913209
-0.14475308 7.0459781 -0.39364445
-0.19646733 9.5632124 0
-0.20308273 9.8852224 0.55226725
-0.12638551 5.8100486 -0.96884722
-0.18329518 8.4262342 -0.9394201
-0.1523625 7.0042329 -0.39132223
-0.20717342 9.5239372 0
-0.21513985 9.8901606 0.55255729
-0.1334646 5.8124557 -0.96927476
-0.19341718 8.4234228 -0.93913209
-0.16100463 7.0118394 -0.39175779
-0.21844211 9.5132723 0
-0.22714961 9.8924885 0.55270225
-0.14042574 5.8097262 -0.96884722
-0.20372021 8.428359 -0.93970919
-0.16928853 7.0038438 -0.39132223
-0.23075435 9.5468216 0
-0.23922828 9.8974075 0.55299282
-0.14764076 5.8172436 -0.97012985
-0.21410078 8.4358568 -0.94057328
-0.17735575 6.9880538 -0.39045167
-0.24334612 9.5881624 0
-0.25151676 9.9100962 0.55371839
-0.15507919 5.8324628 -0.97269851
-0.22422501 8.4330091 -0.94028521
-0.18607558 6.9982243 -0.39103225
-0.25417066 9.5592518 0
-0.29891977 11.242247 0.62817091
-0.16169833 5.8168697 -0.97012985
-0.2344145 8.4327316 -0.94028521
-0.19453143 6.9979944 -0.39103225
-0.2654317 9.5485315 0
-0.31228721 11.234093 0.62773591
-0.16872677 5.8166704 -0.97012985
-0.24497855 8.4453669 -0.94172645
-0.20336364 7.0107384 -0.39175779
-0.27530876 9.4909678 0
-0.32555979 11.223317 0.62715536
-0.17552258 5.8087721 -0.96884722
-0.25533932 8.4502401 -0.94230354
-0.21238405 7.0286713 -0.3927739
-0.28661948 9.4854307 0
-0.33919916 11.225511 0.62730032
-0.1823798 5.8034191 -0.96799046
-0.26628071 8.4731894 -0.94489789
-0.22038679 7.0128212 -0.3919028
-0.2988162 9.5084858 0
-0.35292584 11.230282 0.62759036
-0.19006182 5.82372 -0.97141421
-0.2767719 8.4806194 -0.94576305
-0.22996202 7.0463095 -0.39378947
-0.31013551 9.5029202 0
-0.36674953 11.237641 0.62802589
-0.1964906 5.8055243 -0.968418
-0.2877188 8.5009594 -0.94806939
-0.23838812 7.0434318 -0.39364445
-0.32100141 9.4843292 0
-0.38015214 11.232 0.62773591
-0.20359549 5.8078556 -0.96884722
-0.29880577 8.5238667 -0.95066375
-0.24762683 7.0639133 -0.39480558
-0.33173174 9.4631271 0
-0.39408767 11.24192 0.62831646
-0.20996167 5.7896452 -0.96585101
-0.30957356 8.5364208 -0.95210493
-0 0 -0
-0.34212825 9.4341087 0
-0.40776512 11.244031 0.62846148
-0.21753378 5.8047743 -0.968418
-0.31969404 8.5308666 -0.95152783
-0 0 -0
-0.35411221 9.449297 0
-0.42164305 11.251322 0.62889701
-0.22484536 5.8122048 -0.9697023
-0.33040163 8.5408115 -0.95268101
-0 0 -0
-0.36593199 9.4592648 0
-0.43523777 11.250804 0.62889701
-0.23053789 5.7785859 -0.96413916
-0.34051526 8.535243 -0.95210493
-0 0 -0
-0.37725776 9.4562178 0
-0.80866128 20.269636 1.133085
-0.23867986 5.8065195 -0.96884722
-0.351147 8.5425806 -0.95297009
-0 0 -0
-0.38889703 9.4609509 0
-0.83315259 20.268644 1.133085
-0.24461021 5.7805743 -0.96456671
-0.36201543 8.555068 -0.95441127
-0 0 -0
-0.40065867 9.468277 0
-0.90894365 21.479956 1.2008619
-0.25170624 5.7828369 -0.96499425
-0.37212712 8.5494518 -0.95383418
-0.30894649 7.0979052 -0.39683726
-0.41198587 9.465188 0
-0.93433249 21.465864 1.2001364
-0.25926748 5.7953582 -0.96713531
-0.38222623 8.5438328 -0.9532581
-0.3175227 7.0975266 -0.39683726
-0.74698544 16.697229 0
-0.95992059 21.45693 1.1997008
-0.26603395 5.789907 -0.96627855
-0.39314297 8.5562811 -0.95469928
-0.32645634 7.1049275 -0.39727283
-0.76727957 16.698912 0
-0.98572725 21.453161 1.1995559
-0.27230442 5.7742009 -0.96371162
-0.40287217 8.5428839 -0.9532581
-0.73540312 15.594185 -0.87199962
-0 0 0
-1.0126277 21.472719 1.200717
-0.21808769 4.5087514 -0.99999052
-0.27965292 5.7815528 -0.96499425
-0.41294414 8.537219 -0.95268101
-0.75374293 15.582903 -0.87141907
-0 0 0
-1.0398277 21.497429 1.2021681
-0.22068697 4.5060735 -0.99942601
-0.2833972 5.7865157 -0.96585101
-0.41797546 8.5343876 -0.95239294
-0.76430106 15.605801 -0.87272519
-0.81326413 16.605547 0
-1.0537051 21.514967 1.2031842
-0.22587705 4.5007334 -0.99830133
-0.29038885 5.7861691 -0.96585101
-0.42789823 8.526124 -0.95152783
-0.78341734 15.610051 -0.87301517
-0.83084947 16.555164 0
-1.0799612 21.518862 1.2034742
-0.23157574 4.505527 -0.99942601
-0.29738009 5.7858138 -0.96585101
-0.43793479 8.5204391 -0.95095176
-0.80321223 15.627261 -0.87403131
-0.84978384 16.533356 0
-1.106362 21.52533 1.2039098
-0.23635229 4.4925594 -0.99661213
-0.30464038 5.7905726 -0.96670616
-0.44809401 8.5173235 -0.95066375
-0.82113838 15.608112 -0.87301517
-0.86716312 16.482944 0
-1.1327795 21.531754 1.2043447
-0.2417805 4.4922705 -0.99661213
-0.3106716 5.772264 -0.96371162
-0.45810691 8.5116053 -0.95008659
-0.84167296 15.638245 -0.87475687
-0.88595992 16.461096 0
-1.1596338 21.545942 1.2052159
-0.24678935 4.4843616 -0.99492294
-0.3180688 5.7795668 -0.96499425
-0.46697018 8.4852247 -0.94720423
-0.86242419 15.670943 -0.87664354
-0.90570647 16.457417 0
-1.1860955 21.552313 1.2056514
-0.25249329 4.4891386 -0.99604976
-0.32461998 5.7714963 -0.96371162
-0.47780356 8.4949837 -0.9483574
-0.88223463 15.68546 -0.87751466
-0.92486018 16.443312 0
-1.2130116 21.566423 1.206522
-0.25718874 4.4761496 -0.99323589
-0.33188769 5.7762208 -0.96456671
-0.48673257 8.4711628 -0.94576305
-0.9029749 15.715503 -0.87925577
-0.94517606 16.449978 0
-1.2395169 21.572727 1.2069576
-0.26304314 4.4834375 -0.99492294
-0.33826548 5.7655649 -0.96285486
-0.49711931 8.4731483 -0.94605106
-0.92485505 15.763689 -0.88201356
-0.96550936 16.456621 0
-0.62748575 10.695179 0.59841913
-0.26967534 4.5034075 -0.99942601
-0.34538567 5.7677217 -0.96328402
-0.50720263 8.4699621 -0.94576305
-0.94374657 15.759969 -0.88186854
-0.98570412 16.460632 0
-0.63963187 10.681446 0.59769356
-0.27294767 4.4675765 -0.99154669
-0.35235459 5.7673001 -0.96328402
-0.51743656 8.4693432 -0.94576305
-0.96389747 15.776964 -0.88288414
-1.0070211 16.482807 0
-0.65237951 10.678075 0.59754854
-0.2786614 4.4723105 -0.99267137
-0.35964197 5.7719893 -0.96413916
-0.52686501 8.4557972 -0.9443208
-0.98457634 15.801727 -0.88433582
-1.0277462 16.494572 0
-0 0 0
-0.28374326 4.4669042 -0.99154669
-0.36645344 5.7689915 -0.96371162
-0.53708184 8.4551544 -0.9443208
-1.0044924 15.81349 -0.88506132
-1.0480056 16.498508 0
-0.67488784 10.624602 0.59464574
-0.28881183 4.461482 -0.99041986
-0.37159958 5.7403631 -0.95900357
-0.54729784 8.4544992 -0.9443208
-1.0242707 15.822637 -0.88564193
-1.066763 16.479048 0
-0.68688601 10.610817 0.59392023
-0.29437014 4.4636722 -0.99098432
-0.37971807 5.757843 -0.96199971
-0.5570029 8.4460964 -0.94345671
-1.0430461 15.816197 -0.88535136
-1.086674 16.477747 0
-0.69953507 10.607379 0.59377468
-0.29908234 4.4531727 -0.98873281
-0.38547069 5.7394481 -0.95900357
-0.56772745 8.4531517 -0.9443208
-1.0633751 15.833076 -0.88636744
-1.1071067 16.484215 0
-0.71304804 10.616896 0.59435523
-0.30446291 4.4528079 -0.98873281
-0.39398128 5.7620258 -0.96285486
-0.57635319 8.4292374 -0.94172645
-1.0835688 15.847329 -0.88723803
-1.1279113 16.495844 0
-0.7262308 10.621217 0.59464574
-0.30966681 4.4499044 -0.98817044
-0.39916152 5.7359414 -0.95857596
-0.58599973 8.4208021 -0.94086236
-1.1034379 15.856377 -0.88781857
-1.1507332 16.536009 0
-0.73942435 10.62551 0.59493577
-0.3143256 4.4393888 -0.98591894
-0.40554792 5.7277708 -0.95729166
-0.59635669 8.4226656 -0.94115037
-1.1229639 15.860221 -0.88810915
-1.1708965 16.537199 0
-0.75299674 10.634977 0.59551632
-0.32114893 4.459271 -0.99041986
-0.41246849 5.7272763 -0.95729166
-0.60523266 8.4038773 -0.93913209
-1.142127 15.858852 -0.88810915
-1.1906909 16.53318 0
-0.76640666 10.641837 0.59595186
-0.32598066 4.4512844 -0.98873281
-0.4193885 5.7267737 -0.95729166
-0.61595356 8.410881 -0.9399972
-1.1599598 15.839317 -0.88709301
-1.2093364 16.513557 0
-0.77983421 10.648681 0.59638745
-0.33022672 4.435679 -0.98535442
-0.42802295 5.7493005 -0.96114296
-0.62534791 8.3998137 -0.93884403
-1.1802555 15.853457 -0.88796413
-1.2289028 16.506899 0
-1.6198773 21.758554 1.2187132
-0.33443627 4.4200797 -0.98197818
-0.43342012 5.728301 -0.95771921
-0.63510633 8.3938885 -0.93826693
-1.1988221 15.844244 -0.8875286
-1.2478658 16.492428 0
-1.6451871 21.743629 1.2179877
-0.34114036 4.4374089 -0.98591894
-0.43935767 5.7149777 -0.95557982
-0.64445597 8.3828096 -0.93711483
-0.98115742 12.762479 -0.71496683
-1.2669948 16.48053 0
-1.6736492 21.770117 1.2195837
-0.34283912 4.4245281 -0.98310286
-0.4440006 5.7300725 -0.95814842
-0.65151817 8.4082012 -0.9399972
-0.98926884 12.76706 -0.71525681
-1.2761471 16.469381 0
-1.6876043 21.779465 1.2201643
-0.34778672 4.4190493 -0.98197818
-0.4501183 5.7192955 -0.95643657
-0.65985113 8.3842039 -0.93740284
-1.0046946 12.765855 -0.71525681
-1.2956374 16.462635 0
-1.7149385 21.790359 1.2208898
-0.35474536 4.4388885 -0.98648125
-0.45641494 5.7110682 -0.95515227
-0.66833293 8.3627739 -0.9350965
-1.0211537 12.77758 -0.71598238
-1.3159434 16.466249 0
-1.7414742 21.790869 1.2210354
-0.35825953 4.4156661 -0.98141587
-0.4639383 5.7181911 -0.95643657
-0.67864621 8.3645363 -0.93538451
-1.0384831 12.799644 -0.71728849
-1.3366805 16.475023 0
-1.7686435 21.799109 1.2216159
-0.36338562 4.4126902 -0.98085135
-0.47021499 5.7099485 -0.95515227
-0.68811554 8.3559742 -0.93451941
-1.0577874 12.844999 -0.71990126
-1.3595762 16.509705 0
-1.7960483 21.809902 1.2223415
-0.36808303 4.4046588 -0.9791643
-0.47690046 5.7068205 -0.95472467
-0.69778126 8.3499861 -0.93394333
-1.0769857 12.88773 -0.72236848
-1.3812579 16.528797 0
-1.8243473 21.831018 1.2236476
-0.37361938 4.4067402 -0.97972667
-0.48357901 5.7036848 -0.95429713
-0.70765179 8.3465624 -0.93365532
-1.0962888 12.930432 -0.72483575
-1.4034269 16.553043 0
-1.8516024 21.839153 1.2242281
-0.37829044 4.3986888 -0.97803748
-0.49090993 5.7082067 -0.95515227
-0.71773642 8.3457012 -0.93365532
-0.78396976 9.1158495 -0.51105601
-1.4238733 16.556526 0
-1.87888 21.847256 1.2248087
-0.38316399 4.3931704 -0.97691274
-0.49780685 5.7076092 -0.95515227
-0.72939259 8.3628578 -0.93567258
-0.79453278 9.1097231 -0.51076603
-1.4443295 16.559973 0
-1.905728 21.850142 1.2250987
-0.38780031 4.3851089 -0.9752236
-0.50447708 5.7044487 -0.95472467
-0.73767412 8.3413591 -0.93336624
-0.80370831 9.0880499 -0.50960493
-1.465484 16.571177 0
-1.9330438 21.858177 1.2256793
-0.39655668 4.363915 -0.97072047
-0.51779592 5.6980953 -0.95386791
-0.75806451 8.3421345 -0.93365532
-0.82214063 9.0472612 -0.50742769
-1.5055257 16.567585 0
-1.9893883 21.892262 1.2278565
-0.40415981 4.3887396 -0.97635043
-0.52397507 5.6898041 -0.95258528
-0.76743203 8.3334837 -0.93279016
-0.83188069 9.0333271 -0.50670213
-1.5248281 16.557987 0
-2.0167925 21.900192 1.2284371
-0.40662971 4.3578892 -0.96959579
-0.53013396 5.6814961 -0.95130098
-0.77846205 8.3428516 -0.93394333
-0.84158826 9.0193815 -0.50597656
-0.85456991 9.1585073 0
-2.045908 21.926191 1.2300332
-0.41500339 4.3902774 -0.97691274
-0.53941393 5.7064033 -0.95557982
-0.78562123 8.3110046 -0.93048382
-0.85175198 9.0105944 -0.50554103
-0.86392182 9.1393385 0
-2.0748458 21.949577 1.2314849
-0.41788566 4.3644743 -0.97128284
-0.5438624 5.6801987 -0.95130098
-0.79467684 8.2997503 -0.92933071
-0.86140084 8.9966278 -0.50481546
-0.87248337 9.1123762 0
-2.1003754 21.936707 1.2309043
-0.42364991 4.369029 -0.97240967
-0.54923838 5.6642017 -0.94873232
-0.80295718 8.2807608 -0.92731237
-0.87076664 8.9800682 -0.50394487
-0.88299137 9.1061401 0
-2.1276319 21.941904 1.2313393
-0.42942479 4.3735666 -0.97353441
-0.55708545 5.6737533 -0.95044422
-0.81245732 8.274641 -0.9267363
-0.88136297 8.9764252 -0.50379992
-0.89424777 9.1076536 0
-2.1554132 21.952255 1.2320654
-0.43395579 4.3654666 -0.97184736
-0.56368697 5.6705236 -0.95001662
-0.82271057 8.2762251 -0.92702436
-0.89195079 8.9727612 -0.50365436
-0.90242088 9.0780869 0
-2.1832213 21.962561 1.2327909
-0.43897516 4.3624039 -0.97128284
-0.57233763 5.6877203 -0.95301282
-0.83322865 8.2803764 -0.92760146
-0.90149146 8.9587526 -0.50292879
-0.91260737 9.0692196 0
-2.210798 21.970249 1.2333715
-0.44527575 4.3719816 -0.97353441
-0.57712889 5.6665936 -0.94958907
-0.84061199 8.2536268 -0.92471802
-0.91126251 8.9473162 -0.50234824
-0.92330164 9.0655231 0
-2.237869 21.972727 1.2336615
-0.45029786 4.3689151 -0.97297204
-0.58476526 5.6735554 -0.95087337
-0.85058427 8.2526054 -0.92471802
-0.92100734 8.9358692 -0.50176764
-0.93345416 9.056632 0
