# .PCD v0.7 - Point Cloud Data file format
VERSION 0.7
FIELDS x y z
SIZE 4 4 4
TYPE F F F
COUNT 1 1 1
WIDTH 1603
HEIGHT 1
VIEWPOINT 0 0 0 1 0 0 0
POINTS 1603
DATA ascii
7.7835646 -2.5654759 -0.91347545
8.7513494 -2.8844595 -0.51468438
9.4230947 -3.1058679 0
9.3755722 -3.0902045 0.55139613
2.7030261 -0.88730258 -0.93806344
3.1118591 -1.0215071 -0.90362686
3.752938 -1.2319494 -0.87503546
4.9849854 -1.6363845 -0.87469935
7.7768288 -2.5528424 -0.91232228
8.7622366 -2.8763151 -0.51511991
9.4342604 -3.0969155 0
9.352149 -3.0699613 0.54980004
2.7416842 -0.89632428 -0.95110291
3.1345501 -1.0247618 -0.9098556
3.7447636 -1.2242557 -0.87278396
4.986959 -1.6303599 -0.87469935
7.7749953 -2.5418379 -0.9117462
8.7434797 -2.8584595 -0.51381379
9.4157352 -3.0782363 0
9.3607864 -3.060272 0.55009001
2.6981187 -0.87847447 -0.9356209
3.1286271 -1.0186427 -0.9077785
3.7438264 -1.2189441 -0.87222159
4.988925 -1.624333 -0.87469935
7.7731376 -2.5308385 -0.91116911
8.7740993 -2.8567393 -0.51540995
9.4342909 -3.0716896 0
7.7066622 -2.5091949 0.45270634
2.771512 -0.90051883 -0.96088248
3.1149306 -1.0121024 -0.90362686
3.7324817 -1.2127569 -0.86940771
4.9923449 -1.6221111 -0.8751269
7.757453 -2.5205493 -0.90915185
7.737946 -2.5142109 -0.45445469
7.7531457 -2.5191498 0
7.7279468 -2.5109622 0.45386744
2.6808941 -0.86749536 -0.92910117
3.1137576 -1.0075632 -0.9029327
3.7387748 -1.2098089 -0.87053239
4.9869714 -1.613706 -0.8738426
7.7580252 -2.5103755 -0.90886277
7.7533369 -2.5088584 -0.45518026
7.7165761 -2.4969633 0
7.7458134 -2.506424 0.45473856
2.698401 -0.86955982 -0.93480361
3.1269097 -1.0076468 -0.90639281
3.7499075 -1.2084079 -0.87278396
5.001132 -1.6116151 -0.87598199
7.7561336 -2.4994144 -0.90828669
7.7761483 -2.5058641 -0.45634139
7.7493029 -2.4972131 0
7.7414145 -2.4946711 0.454303
2.6923962 -0.86403513 -0.93236107
3.128125 -1.0038677 -0.90639281
3.7441044 -1.201546 -0.87109476
5.0104108 -1.6079251 -0.87726635
7.7616086 -2.4908304 -0.90857476
7.7766991 -2.4956732 -0.45619637
7.7473631 -2.486259 0
7.741951 -2.4845221 0.45415801
2.6816599 -0.8570171 -0.92828387
3.1388943 -1.0031422 -0.90916145
3.7552347 -1.2001151 -0.87334627
4.9976835 -1.5971825 -0.87469935
7.7572188 -2.4790874 -0.9077096
7.7698083 -2.4831107 -0.45561582
7.7454085 -2.4753129 0
7.7251468 -2.4688375 0.45299688
2.7156711 -0.8642714 -0.93969494
3.1138144 -0.99098182 -0.9015497
3.7591105 -1.1963495 -0.87391078
4.9996099 -1.5911425 -0.87469935
7.7602091 -2.4697125 -0.9077096
7.7752767 -2.4745078 -0.45576081
7.7310319 -2.4604268 0
7.7107892 -2.4539845 0.45198077
2.7143595 -0.86024344 -0.9388808
3.1221864 -0.98949319 -0.90362686
3.7557042 -1.1902697 -0.87278396
4.9990745 -1.5843226 -0.87427014
7.7656603 -2.4611177 -0.90799868
7.768353 -2.461971 -0.45518026
7.7488799 -2.4557996 0
7.7236567 -2.4478059 0.45256132
2.7130332 -0.85621703 -0.93806344
3.1353397 -0.98949444 -0.90708697
3.7498679 -1.1834359 -0.87109476
5.0034404 -1.5790558 -0.87469935
7.7710924 -2.4525104 -0.90828669
7.778758 -2.4549296 -0.45561582
7.7642484 -2.4503503 0
9.4412823 -2.9796121 0.55299282
2.7423606 -0.86183035 -0.94784302
3.1245685 -0.98194522 -0.90362686
3.7488735 -1.178143 -0.87053239
5.0102377 -1.5745468 -0.87555444
7.7641802 -2.4400167 -0.90713352
7.7990737 -2.4509828 -0.45663193
7.7771344 -2.444088 0
9.4250441 -2.9619699 0.55183172
2.7292516 -0.8540886 -0.94295484
3.1329286 -0.98041469 -0.90570134
3.759994 -1.1766478 -0.87278396
5.0194888 -1.5707926 -0.87683874
7.7695889 -2.4314053 -0.90742159
7.7276387 -2.4182775 -0.45227802
9.4987326 -2.9725215 0
9.436058 -2.9529083 0.55226725
2.7633128 -0.86108309 -0.95436275
3.1269324 -0.97439152 -0.90362686
3.7638366 -1.172859 -0.87334627
5.0140285 -1.5624344 -0.87555444
7.772521 -2.4220154 -0.90742159
8.8121243 -2.7459688 -0.5155555
9.4973536 -2.9594948 0
9.4420977 -2.9422767 0.55241227
2.6958966 -0.83650297 -0.93072957
3.1376824 -0.97358352 -0.90639281
3.7531195 -1.164546 -0.87053239
5.0159125 -1.5563748 -0.87555444
7.7754416 -2.4126222 -0.90742159
8.817915 -2.7360885 -0.51570052
9.4959459 -2.9464731 0
9.4406776 -2.9293242 0.5521217
2.7653856 -0.85440278 -0.95436275
3.1340673 -0.96831185 -0.90500981
3.76666 -1.1637598 -0.87334627
5.0104289 -1.5480388 -0.87427014
7.7857676 -2.4055166 -0.90828669
8.8137636 -2.7231297 -0.51526493
9.4920378 -2.9326916 0
9.4367695 -2.9156158 0.5516867
2.7546067 -0.84742767 -0.95028871
3.1544178 -0.97042567 -0.91054714
3.7656372 -1.1584612 -0.87278396
5.019659 -1.5442488 -0.87555444
7.7886682 -2.3961072 -0.90828669
8.8195295 -2.7132413 -0.51540995
9.5204535 -2.928874 0
9.4502201 -2.9072673 0.55226725
2.6999083 -0.82346338 -0.93072957
3.1471553 -0.95987231 -0.9077785
3.7635696 -1.1478767 -0.87165928
5.0233765 -1.5321137 -0.87555444
7.8043318 -2.3802962 -0.90943986
8.8235769 -2.6911628 -0.51526493
9.5200338 -2.9035797 0
9.4597015 -2.8851788 0.55241227
2.6796188 -0.81373751 -0.92339563
3.1387107 -0.95315295 -0.90500981
3.7649539 -1.1433283 -0.87165928
5.027678 -1.526788 -0.87598199
7.8146296 -2.3731201 -0.91030502
8.8293066 -2.6812537 -0.51540995
9.5210466 -2.891319 0
9.4656649 -2.8745008 0.55255729
2.7610338 -0.83481884 -0.95110291
3.1638694 -0.95661914 -0.91193014
3.7711923 -1.1402477 -0.87278396
5.0221543 -1.5184852 -0.87469935
7.8174911 -2.3636758 -0.91030502
8.8225908 -2.6675751 -0.5148294
9.5220451 -2.87906 0
9.4666462 -2.8623099 0.55241227
2.6981466 -0.81224751 -0.92910117
3.1482141 -0.94773537 -0.90708697
3.7652657 -1.133492 -0.87109476
5.0288968 -1.5138943 -0.87555444
7.8302388 -2.3572075 -0.91145712
8.8208361 -2.655416 -0.51453936
9.5404644 -2.8720522 0
9.475069 -2.8523657 0.55270225
2.6494098 -0.79408568 -0.91198772
3.1541586 -0.94536984 -0.90846997
3.7642012 -1.1282128 -0.87053239
5.0233431 -1.5056051 -0.87427014
7.8429914 -2.3507149 -0.91261029
8.8190651 -2.6432652 -0.51424938
9.5389462 -2.8590295 0
9.4834919 -2.8424084 0.55299282
2.7398677 -0.81939423 -0.94295484
3.1571305 -0.94418222 -0.90916145
3.76245 -1.1252111 -0.86997008
5.0390134 -1.5069845 -0.87683874
7.8617592 -2.3511646 -0.91462857
8.8156767 -2.6364462 -0.51395881
9.5531368 -2.8569937 0
9.4852076 -2.8366785 0.55299282
2.745589 -0.81749231 -0.94458318
3.1462491 -0.93678784 -0.90570134
3.7711148 -1.12284 -0.87165928
5.0334473 -1.4986964 -0.87555444
7.8745098 -2.3446157 -0.91578174
8.8313055 -2.6294992 -0.51468438
9.5341358 -2.8387651 0
9.4911156 -2.8259561 0.55313784
2.6849675 -0.79591179 -0.92339563
3.1497817 -0.93369782 -0.90639281
3.7773364 -1.1197255 -0.87278396
5.0327954 -1.4918845 -0.8751269
7.862463 -2.3306901 -0.91405255
8.8120565 -2.6121805 -0.51337826
9.5525246 -2.8316793 0
9.4970121 -2.8152237 0.55328286
2.7238557 -0.80386037 -0.9364351
3.1412921 -0.92705357 -0.90362686
3.7738173 -1.1137235 -0.87165928
5.0542912 -1.4916151 -0.87855065
7.8727083 -2.3233824 -0.91491663
8.8226852 -2.6037383 -0.51381379
9.550952 -2.8186631 0
9.5029068 -2.8044839 0.55342841
2.8030782 -0.8235597 -0.96332818
3.1399961 -0.922548 -0.9029327
3.7751603 -1.1091628 -0.87165928
5.038847 -1.4804407 -0.87555444
7.8779988 -2.3145993 -0.91520572
8.8183441 -2.5908778 -0.51337826
9.5593405 -2.8085864 0
9.503788 -2.7922649 0.55328286
2.7708557 -0.81045681 -0.95191711
3.1483343 -0.92086685 -0.90500981
3.7862527 -1.1074537 -0.87391078
5.0406318 -1.4743512 -0.87555444
7.8882298 -2.3072548 -0.91606981
8.8214674 -2.5802205 -0.51337826
9.5602312 -2.796304 0
9.5121479 -2.7822397 0.55357337
2.7338731 -0.79605496 -0.9388808
3.1614861 -0.92056823 -0.90846997
3.7875881 -1.1028779 -0.87391078
5.0498061 -1.4704132 -0.87683874
7.9009457 -2.3006141 -0.91722298
8.8370504 -2.5731912 -0.51410383
9.5685959 -2.7862039 0
9.5229893 -2.7729242 0.55400896
2.7656913 -0.801696 -0.94947451
3.1433196 -0.91115975 -0.9029327
3.7913558 -1.0990072 -0.87447315
5.051579 -1.4643105 -0.87683874
7.9111748 -2.2932267 -0.91808808
8.832674 -2.5603433 -0.51366884
9.569458 -2.7739162 0
9.5213366 -2.7599673 0.55371839
0 -0 -0
3.1323683 -0.90388387 -0.89947253
3.7755897 -1.0894934 -0.87053239
5.0360775 -1.4532229 -0.8738426
7.9238801 -2.2865343 -0.91924125
8.828269 -2.5475068 -0.51323324
9.5728025 -2.7623515 0
9.5246649 -2.7484605 0.55371839
2.6939766 -0.77385551 -0.92420983
3.1551573 -0.90633148 -0.90570134
3.7793431 -1.0856314 -0.87109476
5.0575681 -1.4528066 -0.87726635
7.9465246 -2.282671 -0.92154759
8.8388348 -2.5389907 -0.51366884
9.5886383 -2.7543745 0
9.5279789 -2.7369499 0.55371839
0 -0 -0
3.1610789 -0.90389925 -0.90708697
3.7806523 -1.081064 -0.87109476
5.0519128 -1.4445765 -0.87598199
7.9492769 -2.2730675 -0.92154759
8.8443928 -2.5290225 -0.51381379
9.591959 -2.7427864 0
9.5287828 -2.7247214 0.55357337
2.7124813 -0.77208012 -0.92991537
3.1742311 -0.90351242 -0.91054714
3.7746313 -1.0744102 -0.86940771
5.0413122 -1.434958 -0.8738426
7.9644537 -2.2670004 -0.92298877
8.8549414 -2.5204687 -0.51424938
9.5977669 -2.7319062 0
9.5395679 -2.7153406 0.55400896
2.7704842 -0.78497243 -0.94947451
3.1511877 -0.89283866 -0.90362686
3.79059 -1.0740031 -0.87278396
5.0529218 -1.4316647 -0.87555444
7.9771414 -2.2601955 -0.92414194
8.8604784 -2.5104752 -0.5143944
0 -0 0
9.537837 -2.7023938 0.55371839
2.8213835 -0.79571241 -0.96658802
3.1860635 -0.89856285 -0.91331577
3.7918849 -1.0694221 -0.87278396
5.0595942 -1.4269531 -0.8764112
7.967422 -2.2470455 -0.92270076
8.8685026 -2.5011764 -0.51468438
9.5968332 -2.7065871 0
9.5385971 -2.6901627 0.55357337
2.7747505 -0.77894235 -0.95028871
3.1654108 -0.88861054 -0.90708697
3.8005159 -1.0669005 -0.87447315
5.0662527 -1.4222249 -0.87726635
7.980092 -2.2402129 -0.92385393
8.8640203 -2.4883537 -0.51424938
9.5925779 -2.6928782 0
9.5443401 -2.6793368 0.55371839
2.7114158 -0.75762957 -0.92828387
3.1544034 -0.88141006 -0.90362686
3.8018022 -1.0623076 -0.87447315
5.080327 -1.4195557 -0.87940574
7.9877706 -2.2319598 -0.92443001
8.8795309 -2.4811373 -0.51497495
9.6033468 -2.6833873 0
9.5500708 -2.6685009 0.55386341
2.7551961 -0.76627487 -0.94295484
3.1699636 -0.88163 -0.9077785
3.7957366 -1.0556699 -0.87278396
5.069675 -1.4099776 -0.87726635
7.9904618 -2.2223065 -0.92443001
8.8875246 -2.4717975 -0.51526493
9.6065817 -2.6717815 0
9.5583 -2.6583536 0.55415392
2.7656479 -0.76558274 -0.94621468
3.1734421 -0.87846774 -0.90846997
3.7970095 -1.0510827 -0.87278396
5.0787992 -1.4059061 -0.87855065
7.9856606 -2.2105792 -0.92356485
8.8880024 -2.4603643 -0.51511991
9.6098032 -2.660172 0
9.5539894 -2.6447217 0.55371839
2.7355967 -0.7537064 -0.9356209
3.1817596 -0.87663239 -0.91054714
3.7982767 -1.046494 -0.87278396
5.0582232 -1.3936321 -0.87469935
7.9983001 -2.2036765 -0.92471802
8.8959742 -2.4510021 -0.51540995
9.6180239 -2.6499398 0
9.5646963 -2.635247 0.55415392
2.7412679 -0.75170642 -0.9372493
3.1731386 -0.87013334 -0.9077785
3.8019865 -1.0425751 -0.87334627
5.0747528 -1.3915912 -0.87726635
8.0009565 -2.1940105 -0.92471802
8.9039459 -2.441627 -0.51570052
9.6212187 -2.6383162 0
9.567873 -2.623688 0.55415392
2.8108556 -0.76896304 -0.96088248
3.1784987 -0.86953884 -0.90916145
3.8026156 -1.040278 -0.87334627
5.0656881 -1.3858155 -0.87555444
7.9972959 -2.1878126 -0.92414194
8.9254704 -2.4417324 -0.51686162
9.6203032 -2.6318171 0
9.5669527 -2.6172221 0.55400896
2.7617042 -0.75193125 -0.94376898
3.1843932 -0.86701703 -0.91054714
3.8185844 -1.0396888 -0.87672466
5.059926 -1.3776698 -0.87427014
8.0124092 -2.1815445 -0.92558312
8.9309196 -2.431628 -0.51700658
9.6460733 -2.6263435 0
9.5801277 -2.6083884 0.55458897
2.7220583 -0.73760509 -0.92991537
3.1830192 -0.86251318 -0.9098556
3.7977681 -1.0290937 -0.87165928
5.0640717 -1.3722281 -0.87469935
8.0100517 -2.1705101 -0.9250071
8.9413776 -2.4228745 -0.51744217
9.6944494 -2.6269367 0
9.5933037 -2.599529 0.55516952
2.7014728 -0.72852421 -0.92258149
3.1695211 -0.85474592 -0.90570134
3.7940977 -1.0231797 -0.87053239
5.0731544 -1.3681115 -0.87598199
8.0101643 -2.1601543 -0.92471802
8.9442987 -2.4120686 -0.51744217
9.7654629 -2.6335175 0
9.631566 -2.5974088 0.55720174
2.7548633 -0.73935276 -0.94050914
3.1972072 -0.85806942 -0.91331577
3.7977829 -1.0192525 -0.87109476
5.0772905 -1.3626479 -0.8764112
8.0152731 -2.1511464 -0.9250071
8.9522209 -2.4026053 -0.51773214
9.7937679 -2.6284606 0
9.6773596 -2.5972185 0.55966896
0 -0 -0
3.1691558 -0.84643722 -0.90500981
3.8039262 -1.0159755 -0.87222159
5.0888443 -1.3591591 -0.87812144
8.0103674 -2.1394572 -0.92414194
8.9676676 -2.3951385 -0.51845771
9.8195639 -2.622668 0
9.6955481 -2.5895452 0.56053954
2.7829196 -0.73967755 -0.94947451
3.1871507 -0.84711891 -0.9098556
3.8026977 -1.0107263 -0.87165928
5.0880041 -1.3523505 -0.87769389
8.0254431 -2.1330979 -0.92558312
8.9655371 -2.3829672 -0.51816773
9.8277607 -2.6121395 0
9.6836071 -2.5738246 0.55966896
2.661957 -0.7040841 -0.90791368
3.1857398 -0.84262389 -0.90916145
3.8063703 -1.0067799 -0.87222159
5.0970821 -1.3481715 -0.87897819
8.0230188 -2.1220777 -0.9250071
8.9759483 -2.3741264 -0.51860327
9.8158092 -2.5962684 0
9.6414881 -2.5501609 0.55705619
2.7942598 -0.73546666 -0.95273441
3.1746271 -0.83558172 -0.90570134
3.797755 -0.9995929 -0.86997008
5.0912576 -1.3400508 -0.87769389
8.0280752 -2.1130397 -0.92529511
8.9762907 -2.3626158 -0.51845771
9.7937765 -2.5777831 0
9.6244698 -2.5332205 0.55589563
2.79036 -0.73083615 -0.95110291
3.1683607 -0.82984006 -0.90362686
3.818624 -1.0001535 -0.87447315
5.0928731 -1.3338979 -0.87769389
8.0206146 -2.1007164 -0.92414194
8.9866819 -2.3537436 -0.5188933
9.7415018 -2.5514419 0
9.6199799 -2.5196137 0.55546004
2.7051485 -0.70502627 -0.92176729
3.1936331 -0.83233702 -0.91054714
3.8149076 -0.9942559 -0.87334627
5.094481 -1.3277433 -0.87769389
8.0331583 -2.0936327 -0.92529511
8.9920311 -2.343538 -0.51903826
9.7118406 -2.5311375 0
9.6205053 -2.5073333 0.55531508
0 -0 -0
3.2067764 -0.83162582 -0.91400725
3.8284013 -0.99283421 -0.8761602
5.0911164 -1.320299 -0.87683874
8.0281687 -2.0819762 -0.92443001
8.9998922 -2.333977 -0.51932883
9.6922226 -2.5135217 0
9.6335888 -2.498316 0.55589563
2.7403448 -0.70713151 -0.93317521
3.1810555 -0.82085454 -0.90639281
3.8271403 -0.98757339 -0.87559783
5.1001577 -1.3160689 -0.87812144
8.0457106 -2.076153 -0.92616028
8.9976683 -2.3218009 -0.51903826
9.6851721 -2.4992077 0
9.6315641 -2.4853742 0.55560505
2.7483814 -0.7056644 -0.9356209
3.2136414 -0.82512283 -0.91539294
3.8234134 -0.9816857 -0.87447315
5.1017447 -1.3099053 -0.87812144
8.0356798 -2.0632119 -0.92471802
9.0004673 -2.3109274 -0.51903826
9.6907034 -2.4881499 0
9.6395979 -2.475028 0.55589563
2.7540169 -0.70356536 -0.9372493
3.1806016 -0.81254447 -0.90570134
3.8245969 -0.97706515 -0.87447315
5.1008387 -1.3031051 -0.87769389
8.0356636 -2.0528612 -0.92443001
9.003253 -2.3000503 -0.51903826
9.6886549 -2.4751492 0
9.6425819 -2.4633787 0.55589563
2.8315189 -0.7197212 -0.96332818
3.18401 -0.80931813 -0.90639281
3.8208447 -0.97119004 -0.87334627
5.0999241 -1.296309 -0.87726635
8.0406418 -2.0437868 -0.92471802
9.016099 -2.2917304 -0.51961881
9.6966877 -2.4647238 0
9.6480675 -2.4523654 0.55604064
2.7485182 -0.6950894 -0.93480361
3.1922846 -0.80731618 -0.90846997
3.8269467 -0.96781975 -0.87447315
5.0890455 -1.2869995 -0.8751269
8.0456209 -2.0347056 -0.9250071
9.0138283 -2.2795615 -0.51932883
9.7047005 -2.4542804 0
9.6585836 -2.4426177 0.55647618
0 -0 -0
3.2005589 -0.80529541 -0.91054714
3.8330369 -0.96443373 -0.87559783
5.095571 -1.282101 -0.87598199
8.0606127 -2.0281377 -0.92644829
9.0190935 -2.2693019 -0.51947385
9.7101898 -2.4431894 0
9.6640453 -2.4315786 0.55662119
0 -0 -0
3.1893635 -0.79838204 -0.90708697
3.8341994 -0.95980155 -0.87559783
5.1070771 -1.2784365 -0.87769389
8.0655642 -2.0190239 -0.9267363
9.0218296 -2.2584026 -0.51947385
9.7080812 -2.4301894 0
9.6694946 -2.4205303 0.55676615
0 -0 -0
3.1878846 -0.79391974 -0.90639281
3.8230307 -0.95209837 -0.87278396
5.1061296 -1.2716449 -0.87726635
8.0755291 -2.0111525 -0.92760146
9.0371561 -2.2506387 -0.52019942
9.7084875 -2.417829 0
9.6698933 -2.4082174 0.55662119
0 -0 -0
3.1937165 -0.79127502 -0.9077785
3.8463731 -0.95297718 -0.87784934
5.11514 -1.2673268 -0.87855065
8.0804615 -2.0020149 -0.92788947
9.0323095 -2.2378447 -0.51976442
9.7164488 -2.407347 0
9.6778355 -2.3977802 0.55691117
2.7954514 -0.69080859 -0.94947451
3.1966271 -0.78994668 -0.90846997
3.8321526 -0.94699699 -0.87447315
5.1084261 -1.2623882 -0.87726635
8.0791616 -1.9965128 -0.92760146
9.0336599 -2.2323873 -0.51976442
9.7254839 -2.4033501 0
9.6843319 -2.3931806 0.55720174
2.7578816 -0.67798966 -0.9364351
3.1975791 -0.78608364 -0.90846997
3.848094 -0.94600427 -0.87784934
5.1124382 -1.256827 -0.87769389
8.096633 -1.9904529 -0.92933071
9.0439138 -2.2233295 -0.52019942
9.7258558 -2.3909762 0
9.6821651 -2.3802354 0.55691117
0 -0 -0
3.1936574 -0.78102857 -0.90708697
3.8443027 -0.94014788 -0.87672466
5.1089706 -1.2494302 -0.87683874
8.0914927 -1.9788243 -0.92846555
9.0440722 -2.2117834 -0.5200544
9.7262125 -2.3786051 0
9.6850348 -2.3685348 0.55691117
2.8003364 -0.68125451 -0.95028871
3.1970341 -0.77776158 -0.9077785
3.8380268 -0.93369961 -0.87503546
5.1004992 -1.2408289 -0.8751269
8.1014194 -1.9708806 -0.92933071
9.0543146 -2.202697 -0.52048993
9.7366581 -2.3686948 0
9.6878891 -2.3568306 0.55691117
0 -0 -0
3.2004077 -0.7744875 -0.90846997
3.8391521 -0.92906147 -0.87503546
5.1169605 -1.2382866 -0.87769389
8.1037951 -1.9610902 -0.92933071
9.0594921 -2.1923656 -0.52063495
9.7395134 -2.3569283 0
9.6957855 -2.3463464 0.55720174
2.7683375 -0.66638821 -0.9388808
3.1793916 -0.76533622 -0.90224117
3.8452079 -0.92561007 -0.8761602
5.1359258 -1.2363089 -0.88069004
8.1111927 -1.9525087 -0.9299078
9.0596113 -2.18081 -0.52048993
9.737298 -2.3439412 0
9.7011375 -2.3352368 0.55734676
0 -0 -0
3.1827517 -0.76207763 -0.9029327
3.8463235 -0.92096323 -0.8761602
5.1249356 -1.227114 -0.87855065
8.1185722 -1.9439099 -0.93048382
9.0698137 -2.171675 -0.52092493
9.7527761 -2.3352034 0
9.7140608 -2.3259335 0.55792731
0 -0 -0
3.190994 -0.75997561 -0.90500981
3.8400252 -0.91455066 -0.87447315
5.1014376 -1.214972 -0.87427014
8.1234283 -1.9346975 -0.93077189
9.0850773 -2.1637261 -0.52165109
9.7631874 -2.3252268 0
9.7168636 -2.3141942 0.55792731
0 -0 -0
3.1870322 -0.75496393 -0.90362686
3.8386574 -0.90932494 -0.87391078
5.1203899 -1.2129498 -0.87726635
8.1383524 -1.9278632 -0.93221414
9.0800972 -2.1509495 -0.5212155
9.7609205 -2.3122272 0
9.7247047 -2.3036482 0.55821729
0 -0 -0
3.2318916 -0.76146746 -0.91608441
3.8496366 -0.90701461 -0.8761602
5.1318464 -1.2091167 -0.87897819
8.1406755 -1.9180282 -0.93221414
9.0852156 -2.1405718 -0.52136052
9.7687788 -2.3016262 0
9.7274809 -2.2918963 0.55821729
2.7049334 -0.63386172 -0.91606176
3.2034981 -0.75069314 -0.9077785
3.8507297 -0.90236241 -0.8761602
5.1308069 -1.2023299 -0.87855065
8.1505346 -1.9099591 -0.93307823
9.0903234 -2.1301849 -0.52150553
9.7690115 -2.2892253 0
9.7277164 -2.2795486 0.55807227
0 -0 -0
3.2068439 -0.74739069 -0.90846997
3.8691416 -0.90174657 -0.88010091
5.1222558 -1.1937987 -0.87683874
8.1478033 -1.8989363 -0.93250215
9.0954285 -2.1197908 -0.52165109
9.779376 -2.2791924 0
9.7279348 -2.2672036 0.55792731
2.7160883 -0.62955546 -0.9193216
3.2004104 -0.74181527 -0.90639281
3.8553815 -0.89362943 -0.87672466
5.1236944 -1.1876086 -0.87683874
8.1475744 -1.8885064 -0.93221414
9.1030407 -2.1099715 -0.52194107
9.7770576 -2.2662003 0
9.7331963 -2.2560339 0.55807227
0 -0 -0
3.2037561 -0.73851281 -0.90708697
3.8515017 -0.88782775 -0.87559783
5.1226263 -1.1808406 -0.8764112
8.144805 -1.8774972 -0.93163699
9.0979853 -2.0972192 -0.52150553
9.7873888 -2.2561369 0
9.7384453 -2.2448547 0.55821729
2.8573258 -0.65502059 -0.96658802
3.2242088 -0.73912579 -0.9126243
3.8575299 -0.88430989 -0.87672466
5.1265492 -1.1752231 -0.87683874
8.1672363 -1.872278 -0.93394333
9.113184 -2.0891292 -0.52223164
9.795186 -2.2454734 0
9.7411499 -2.2330859 0.55821729
0 -0 -0
3.2079749 -0.73132551 -0.9077785
3.8660204 -0.88134086 -0.87841171
5.1154537 -1.1661755 -0.87469935
8.1720123 -1.8629824 -0.9342314
9.1207638 -2.0792704 -0.52252162
9.8080425 -2.23595 0
9.7463818 -2.2218933 0.55836284
2.8299751 -0.64155626 -0.95680845
3.2357721 -0.73355061 -0.91539294
3.8596556 -0.87498516 -0.87672466
5.1443911 -1.1662351 -0.87940574
8.1641674 -1.8508193 -0.93307823
9.1232691 -2.068248 -0.52252162
9.8056555 -2.2229452 0
9.7541237 -2.2112629 0.55865288
2.8363361 -0.63579565 -0.95843679
3.2179513 -0.72133887 -0.9098556
3.8617587 -0.86565536 -0.87672466
5.1371746 -1.1515538 -0.87769389
8.1837645 -1.8344799 -0.93480849
9.1257076 -2.0456269 -0.5223766
9.816083 -2.200382 0
9.7569056 -2.1871169 0.55850786
2.8467519 -0.63451886 -0.96169668
3.2016776 -0.71362901 -0.90500981
3.870235 -0.86264533 -0.87841171
5.1385622 -1.1453456 -0.87769389
8.1758766 -1.8223393 -0.93365532
9.1484623 -2.0391212 -0.52353776
9.8136492 -2.187386 0
9.7671518 -2.1770222 0.55894339
2.7916489 -0.62046671 -0.94295484
3.2143507 -0.71441561 -0.90846997
3.8633215 -0.85865468 -0.87672466
5.1367497 -1.1416845 -0.87726635
8.1921206 -1.8207655 -0.93538451
9.1471491 -2.0330284 -0.5233922
9.8149691 -2.1814568 0
9.7709999 -2.1716843 0.55908841
2.7730894 -0.61282641 -0.9364351
3.1956143 -0.70620036 -0.9029327
3.8742802 -0.85617912 -0.87897623
5.1406298 -1.1360303 -0.87769389
8.1892681 -1.8097504 -0.93480849
9.1572132 -2.0236571 -0.52382773
9.8175974 -2.1695957 0
9.7761517 -2.1604366 0.55923343
2.7786512 -0.61053503 -0.93806344
3.2185159 -0.7071836 -0.90916145
3.8703439 -0.85040557 -0.87784934
5.1394939 -1.1292677 -0.87726635
8.1939726 -1.8004085 -0.9350965
9.1571159 -2.0120337 -0.52368271
9.8253002 -2.1588495 0
9.7838354 -2.1497388 0.55952394
0 -0 -0
3.219368 -0.70329416 -0.90916145
3.876338 -0.84681398 -0.87897623
5.1383491 -1.1225094 -0.87683874
8.1809759 -1.7871932 -0.93336624
9.1570044 -2.0004137 -0.52353776
9.8304424 -2.147531 0
9.7864256 -2.1379154 0.55952394
0 -0 -0
3.2202153 -0.69940364 -0.90916145
3.8848002 -0.84374589 -0.88066328
5.1497359 -1.1184793 -0.87855065
8.2084103 -1.7827975 -0.93624967
9.1619511 -1.9898987 -0.52368271
9.8279486 -2.1345475 0
9.7991495 -2.1282926 0.56010395
2.7880964 -0.6020242 -0.94050914
3.2161584 -0.69445413 -0.9077785
3.8734009 -0.83637035 -0.87784934
5.1460605 -1.1111714 -0.87769389
8.2054968 -1.771785 -0.93567258
9.1592646 -1.9777288 -0.5233922
9.8381443 -2.1243172 0
9.8042612 -2.1170008 0.56024951
0 -0 -0
3.2292571 -0.69319975 -0.91123861
3.8768907 -0.83222222 -0.87841171
5.1473989 -1.1049525 -0.87769389
8.2126942 -1.7629558 -0.93624967
9.146409 -1.963389 -0.52252162
9.8432465 -2.1129737 0
9.8169737 -2.1073341 0.56083006
0 -0 -0
3.2350042 -0.69034547 -0.9126243
3.8654711 -0.82488626 -0.87559783
5.1487308 -1.0987321 -0.87769389
8.2097549 -1.7519504 -0.93567258
9.1487741 -1.952336 -0.52252162
9.8407068 -2.0999935 0
9.8271294 -2.097096 0.56126511
0 -0 -0
3.2137415 -0.68174911 -0.90639281
3.8788905 -0.82285088 -0.87841171
5.1500545 -1.09251 -0.87769389
8.2194586 -1.7436399 -0.93653768
9.1434984 -1.9396619 -0.52208608
9.8534203 -2.0902615 0
9.8296566 -2.0852203 0.56126511
0 -0 -0
3.2170248 -0.67838454 -0.90708697
3.8724306 -0.8165921 -0.87672466
5.1589084 -1.087876 -0.87897819
8.2240877 -1.7342403 -0.93682575
9.1432953 -1.9280767 -0.52194107
9.8635807 -2.0799656 0
9.8321686 -2.0733416 0.56126511
2.8207109 -0.59125364 -0.95028871
3.2276638 -0.67655563 -0.9098556
3.8957937 -0.81660336 -0.8817901
5.1476593 -1.0790089 -0.87683874
8.2236481 -1.7237717 -0.93653768
9.1456184 -1.9170274 -0.52194107
9.8609877 -2.066977 0
9.8422985 -2.0630596 0.56170064
0 -0 -0
3.2161915 -0.67009509 -0.90639281
3.8743925 -0.80723155 -0.87672466
5.1590118 -1.0748826 -0.87855065
8.2257252 -1.7138338 -0.93653768
9.1504698 -1.9065049 -0.52208608
9.868578 -2.056123 0
9.8473253 -2.0516951 0.56184566
0 -0 -0
3.2194626 -0.66671866 -0.90708697
3.8853176 -0.80461055 -0.87897623
5.1552744 -1.0676061 -0.87769389
8.2353907 -1.7054673 -0.93740284
9.1425886 -1.8933392 -0.52150553
9.8634081 -2.0426135 0
9.8447132 -2.0387421 0.56155562
2.8470397 -0.58600682 -0.95843679
3.2251756 -0.66383868 -0.90846997
3.8813047 -0.79888988 -0.87784934
5.149025 -1.0598251 -0.8764112
8.2399759 -1.6960362 -0.93769085
9.1423273 -1.8817674 -0.52136052
9.8760653 -2.0327928 0
9.8497124 -2.0273685 0.56170064
0 -0 -0
3.2161441 -0.65792996 -0.90570134
3.8747966 -0.79267126 -0.8761602
5.1553268 -1.0546306 -0.87726635
8.2394876 -1.6855607 -0.93740284
9.1547775 -1.8728024 -0.52194107
9.870862 -2.0192926 0
9.8597946 -2.0170286 0.56213617
0 -0 -0
3.2243145 -0.65554339 -0.9077785
3.8956714 -0.79203862 -0.88066328
5.1666598 -1.0504465 -0.87897819
8.2339125 -1.6740571 -0.93653768
9.172307 -1.8648446 -0.52281165
9.8911495 -2.0109942 0
9.8571272 -2.004077 0.56184566
2.8055422 -0.56687254 -0.94376898
3.227561 -0.65214336 -0.90846997
3.8891609 -0.78582269 -0.87897623
5.1603742 -1.042677 -0.87769389
8.2333965 -1.6635951 -0.93624967
9.1771078 -1.8542763 -0.52295721
9.8935728 -1.9990413 0
9.8646402 -1.9931954 0.56213617
0 -0 -0
3.2258892 -0.6477496 -0.9077785
3.8776445 -0.77862024 -0.8761602
5.1691833 -1.0379577 -0.87897819
8.2430105 -1.6551735 -0.93711483
9.184432 -1.8442084 -0.52324718
9.89853 -1.9875972 0
9.869586 -1.9817855 0.56228119
0 -0 -0
3.2192864 -0.64237803 -0.90570134
3.8810816 -0.77443296 -0.87672466
5.1603642 -1.0297016 -0.87726635
8.2424603 -1.6447047 -0.93682575
9.1917543 -1.8341273 -0.52353776
9.9085836 -1.9771637 0
9.8770657 -1.9708745 0.56257123
0 -0 -0
3.2372885 -0.64190376 -0.91054714
3.8894844 -0.77122402 -0.87841171
5.1666355 -1.0244632 -0.87812144
8.244442 -1.634744 -0.93682575
9.1990566 -1.8240293 -0.52382773
9.9084148 -1.9646839 0
9.876893 -1.9584337 0.56242621
2.8103368 -0.55548149 -0.94458318
3.2376759 -0.63994783 -0.91054714
3.8899496 -0.76887405 -0.87841171
5.1773272 -1.0233326 -0.87983328
8.2428932 -1.6292619 -0.93653768
9.1950636 -1.8174647 -0.52353776
9.9147015 -1.9597057 0
9.8831778 -1.9534749 0.56271678
2.827985 -0.5554201 -0.95028871
3.2384467 -0.63603526 -0.91054714
3.9008489 -0.76613194 -0.88066328
5.1785598 -1.0170761 -0.87983328
8.2423201 -1.6188027 -0.93624967
9.2099991 -1.8088562 -0.52426332
9.9145107 -1.9472232 0
9.8855305 -1.9415315 0.56271678
0 -0 -0
3.2219741 -0.62875772 -0.90570134
3.8917964 -0.7594713 -0.87841171
5.1646724 -1.0078689 -0.87726635
8.2366514 -1.6073556 -0.93538451
9.2198315 -1.7992201 -0.52469885
9.9219599 -1.9362381 0
9.8904171 -1.9300826 0.56286174
2.8050504 -0.54387879 -0.94213748
3.2227316 -0.62486416 -0.90570134
3.887727 -0.75380188 -0.87728703
5.1835299 -1.0050486 -0.88026249
8.2385874 -1.5974021 -0.93538451
9.2168922 -1.7870882 -0.52440828
9.9242926 -1.9242479 0
9.9003973 -1.9196149 0.56329733
0 -0 -0
3.2382698 -0.62381792 -0.9098556
3.9160829 -0.75439131 -0.8834793
5.1847405 -0.9987846 -0.88026249
8.2430496 -1.587935 -0.93567258
9.2343588 -1.7789001 -0.5252794
9.9342794 -1.9137323 0
9.90271 -1.9076508 0.56329733
0 -0 -0
3.2168472 -0.61566085 -0.90362686
3.8995197 -0.74631512 -0.87953854
5.1808963 -0.99155313 -0.87940574
8.2398863 -1.5770023 -0.9350965
9.2441511 -1.7692049 -0.5257144
9.9391375 -1.902216 0
9.9075575 -1.8961719 0.56344229
0 -0 -0
3.2175887 -0.61177349 -0.90362686
3.8979249 -0.74112862 -0.87897623
5.1720028 -0.9833743 -0.87769389
8.2494106 -1.5684947 -0.93596166
9.2539425 -1.7594904 -0.52614999
9.9414291 -1.890205 0
9.9098415 -1.8841991 0.56344229
2.8173609 -0.53214997 -0.94539738
3.24051 -0.61207539 -0.9098556
3.9013119 -0.7368893 -0.87953854
5.1681471 -0.97617221 -0.87683874
8.2487516 -1.5580442 -0.93567258
9.2560616 -1.7483075 -0.52614999
9.9488249 -1.8791584 0
9.9197731 -1.8736709 0.56387788
0 -0 -0
3.2437105 -0.60862166 -0.91054714
3.909694 -0.73358101 -0.88122773
5.1743641 -0.9708727 -0.87769389
8.2531776 -1.5485544 -0.93596166
9.2632704 -1.7380795 -0.52643996
9.9485235 -1.8666545 0
9.9322453 -1.8636003 0.56445843
0 -0 -0
3.2395062 -0.60378158 -0.90916145
3.9030814 -0.72745919 -0.87953854
5.1831069 -0.96603131 -0.87897819
8.2448711 -1.5366853 -0.93480849
9.280695 -1.729743 -0.52731109
9.9456596 -1.8536795 0
9.9293766 -1.8506446 0.56416786
2.8387139 -0.5255332 -0.95191711
3.2205081 -0.59621507 -0.90362686
3.9089496 -0.72366679 -0.88066328
5.1842704 -0.95976782 -0.87897819
8.2441721 -1.5262498 -0.93451941
9.2904463 -1.7199473 -0.52774668
9.950449 -1.842134 0
9.9367199 -1.8395925 0.56445843
0 -0 -0
3.2360258 -0.59504467 -0.9077785
3.9048278 -0.71802491 -0.87953854
5.1930027 -0.95489615 -0.88026249
8.253644 -1.5176909 -0.93538451
9.3001776 -1.7101288 -0.52818167
9.9654627 -1.8324624 0
9.9389353 -1.8275845 0.56445843
0 -0 -0
3.2589514 -0.59519023 -0.91400725
3.9031956 -0.71285009 -0.87897623
5.1890974 -0.94769746 -0.87940574
8.2580137 -1.5081811 -0.93567258
9.3022366 -1.6988901 -0.52818167
9.9676695 -1.8204197 0
9.9436903 -1.8160403 0.56460345
0 -0 -0
3.2300465 -0.58587903 -0.90570134
3.9065516 -0.70858634 -0.87953854
5.1902385 -0.94142675 -0.87940574
8.2547445 -1.4972794 -0.9350965
9.3042822 -1.6876489 -0.52818167
9.974988 -1.8093042 0
9.9407587 -1.8030956 0.56431288
0 -0 -0
3.223352 -0.58064276 -0.90362686
3.9049067 -0.70341551 -0.87897623
5.1938963 -0.93560934 -0.87983328
8.2540054 -1.486846 -0.93480849
9.3139896 -1.6777877 -0.5286172
9.9720402 -1.7963265 0
9.9557142 -1.7933856 0.56503844
0 -0 -0
3.2363968 -0.57895601 -0.90708697
3.9157586 -0.70048642 -0.88122773
5.1899738 -0.9284296 -0.87897819
8.2557955 -1.4768716 -0.93480849
9.3160095 -1.6665323 -0.5286172
9.9818907 -1.7856512 0
9.9502077 -1.7799834 0.56460345
0 -0 -0
3.2247458 -0.57285148 -0.90362686
3.9241002 -0.69708645 -0.88291478
5.1936173 -0.92260641 -0.87940574
8.2626619 -1.4677988 -0.93538451
9.3231287 -1.6561826 -0.52890718
9.9866009 -1.7740434 0
9.9651413 -1.7702312 0.56532902
2.7457054 -0.484332 -0.9193216
3.2624879 -0.57549047 -0.91400725
3.9124308 -0.69013786 -0.88010091
5.1922026 -0.91588479 -0.87897819
8.2593403 -1.4569162 -0.93480849
9.3251228 -1.6449162 -0.52890718
9.9938679 -1.7628803 0
9.9672728 -1.758189 0.56532902
0 -0 -0
3.2458804 -0.5685178 -0.90916145
3.9132617 -0.68540996 -0.88010091
5.1831913 -0.90783882 -0.87726635
8.2509041 -1.4451505 -0.93365532
9.3347845 -1.6349927 -0.52934277
9.9959908 -1.7508035 0
9.9693899 -1.7461442 0.56532902
0 -0 -0
3.2268012 -0.5611583 -0.90362686
3.9215994 -0.68198752 -0.8817901
5.1944008 -0.90333462 -0.87897819
8.2500887 -1.4347354 -0.93336624
9.3367538 -1.6237123 -0.52934277
9.9980993 -1.738724 0
9.9817324 -1.7358776 0.56590956
0 -0 -0
3.2423053 -0.55981922 -0.9077785
3.932436 -0.67897779 -0.88404167
5.18537 -0.89531046 -0.87726635
8.2441769 -1.4234468 -0.93250215
9.3489504 -1.6141979 -0.52992332
10.010451 -1.7284131 0
9.9940653 -1.7255839 0.56649011
0 -0 -0
3.2376933 -0.55700874 -0.90639281
3.9027963 -0.67143226 -0.87728703
5.1909647 -0.89304715 -0.87812144
8.2373857 -1.4171498 -0.93163699
9.3473663 -1.6081092 -0.5297783
10.011494 -1.722365 0
9.9951057 -1.7195456 0.56649011
0 -0 -0
3.238364 -0.55309623 -0.90639281
3.9236417 -0.67013818 -0.8817901
5.2046995 -0.8889364 -0.88026249
8.2441969 -1.4080672 -0.93221414
9.3672342 -1.5998763 -0.53079444
10.013567 -1.7102668 0
9.9946175 -1.7070302 0.5663451
2.83658 -0.48094684 -0.94865721
3.2340877 -0.54834491 -0.90500981
3.914428 -0.66369778 -0.87953854
5.1905794 -0.88007134 -0.87769389
8.2382393 -1.3968071 -0.93134898
9.3589125 -1.5868192 -0.53021389
10.02589 -1.6999063 0
10.004351 -1.6962543 0.56678009
0 -0 -0
3.2199087 -0.5419392 -0.90085816
3.9252496 -0.66065437 -0.8817901
5.1992354 -0.87507749 -0.87897819
8.2475748 -1.3881401 -0.93221414
9.365943 -1.5763713 -0.53050387
10.027937 -1.6877908 0
9.9987135 -1.6828722 0.5663451
0 -0 -0
3.2354033 -0.54052782 -0.90500981
3.9310527 -0.65674752 -0.88291478
5.1876316 -0.86667997 -0.87683874
8.2492466 -1.3781735 -0.93221414
9.3729725 -1.5659105 -0.53079444
10.029969 -1.6756727 0
10.008421 -1.6720728 0.56678009
0 -0 -0
3.2607989 -0.54072136 -0.91193014
3.9268348 -0.65116662 -0.8817901
5.1937351 -0.86125016 -0.87769389
8.2611027 -1.3698957 -0.93336624
9.3748569 -1.5545839 -0.53079444
10.031986 -1.6635522 0
10.005312 -1.6591289 0.56649011
0 -0 -0
3.318388 -0.546152 -0.92785048
3.9225996 -0.64559525 -0.88066328
5.1947722 -0.85497391 -0.87769389
8.2602024 -1.3594931 -0.93307823
9.3844137 -1.5445199 -0.53122944
10.046826 -1.6535422 0
10.017565 -1.6487262 0.56707066
0 -0 -0
3.2150602 -0.52515674 -0.89878106
3.9133461 -0.63921666 -0.87841171
5.2034044 -0.84993833 -0.87897819
8.2567387 -1.3486782 -0.93250215
9.3811483 -1.5323426 -0.53093946
10.038543 -1.6397231 0
10.022112 -1.6370392 0.56721568
0 -0 -0
3.2478838 -0.52648991 -0.9077785
3.9191368 -0.63530165 -0.87953854
5.2044277 -0.8436504 -0.87897819
8.2609129 -1.3391141 -0.93279016
9.3804312 -1.5205908 -0.53079444
10.04565 -1.6284244 0
10.026645 -1.6253437 0.56736064
0 -0 -0
3.2633743 -0.52495497 -0.91193014
3.9274299 -0.63177669 -0.88122773
5.2079754 -0.83776855 -0.87940574
8.2650757 -1.3295418 -0.93307823
9.3873873 -1.5100797 -0.53108442
10.050187 -1.6166995 0
10.036301 -1.6144657 0.56779623
0 -0 -0
3.3086042 -0.52813035 -0.92439038
3.9382269 -0.62863272 -0.8834793
5.198844 -0.82985657 -0.87769389
8.2615728 -1.3187394 -0.93250215
9.3943319 -1.4995543 -0.53137445
10.059835 -1.6057842 0
10.040808 -1.6027467 0.56794125
0 -0 -0
3.3018041 -0.5229544 -0.92231321
3.9414909 -0.6242708 -0.88404167
5.2125177 -0.82558167 -0.87983328
8.2657127 -1.3091602 -0.93279016
9.4064035 -1.4898279 -0.531955
10.072051 -1.5952561 0
10.042737 -1.5906132 0.56794125
0 -0 -0
3.2553425 -0.51156425 -0.90916145
3.9296942 -0.61753595 -0.88122773
5.1983004 -0.81689245 -0.87726635
8.2723932 -1.2999741 -0.93336624
9.4107704 -1.4788655 -0.53210056
10.071403 -1.5826812 0
10.047216 -1.5788804 0.56808621
0 -0 -0
3.2262218 -0.5029943 -0.90085816
3.9304376 -0.61278725 -0.88122773
5.217041 -0.81337923 -0.88026249
8.2586298 -1.2875876 -0.93163699
9.4151154 -1.4678932 -0.53224558
10.073307 -1.5705107 0
10.046552 -1.5663393 0.56794125
0 -0 -0
3.2491384 -0.50254655 -0.90708697
3.9361923 -0.60881364 -0.88235247
5.2027941 -0.80471981 -0.87769389
8.265296 -1.2783992 -0.93221414
9.4322853 -1.4588982 -0.5331161
10.072628 -1.5579405 0
10.053577 -1.554994 0.56823176
0 -0 -0
3.2373469 -0.4967182 -0.90362686
3.9570172 -0.60713989 -0.88685554
5.2189918 -0.80076933 -0.88026249
8.2642708 -1.2680179 -0.93192506
9.426343 -1.446319 -0.53268111
10.084793 -1.5473474 0
10.063147 -1.5440261 0.56866676
0 -0 -0
3.2503433 -0.49469319 -0.90708697
3.922585 -0.5970065 -0.87897623
5.2123394 -0.79330349 -0.87897819
8.270916 -1.2588103 -0.93250215
9.4434919 -1.4372731 -0.53355169
10.086656 -1.5351608 0
10.057306 -1.5306939 0.56823176
0 -0 -0
3.2385378 -0.48889336 -0.90362686
3.9408834 -0.59492022 -0.88291478
5.2107582 -0.78662199 -0.87855065
8.2775412 -1.2495871 -0.93307823
9.4400883 -1.4250865 -0.53326166
10.101367 -1.5249139 0
10.071992 -1.5204794 0.56895733
0 -0 -0
3.2515295 -0.48683694 -0.90708697
3.9265268 -0.58790129 -0.87953854
5.2117047 -0.78032523 -0.87855065
8.2867212 -1.2407337 -0.93394333
9.4392262 -1.413293 -0.5331161
10.110926 -1.5138637 0
10.068678 -1.507538 0.56866676
0 -0 -0
3.2223365 -0.47848588 -0.89878106
3.9347768 -0.58427638 -0.88122773
5.2050238 -0.77289581 -0.87726635
8.2856588 -1.2303404 -0.93365532
9.4537754 -1.4037945 -0.53384167
10.110167 -1.5012622 0
10.091054 -1.4984242 0.56982791
0 -0 -0
3.2405765 -0.47519305 -0.90362686
3.9232519 -0.5752995 -0.87841171
5.2318106 -0.76718444 -0.88154519
8.282752 -1.2145697 -0.93307823
9.4511671 -1.3859043 -0.53355169
10.118026 -1.4836913 0
10.091185 -1.4797555 0.5696829
0 -0 -0
3.2783811 -0.47669089 -0.91400725
3.9415479 -0.57311821 -0.88235247
5.2022591 -0.75643116 -0.8764112
8.2842131 -1.2045608 -0.93307823
9.4605522 -1.3756055 -0.53398722
10.122384 -1.4718387 0
10.087828 -1.466814 0.56939292
0 -0 -0
3.2566092 -0.46950769 -0.9077785
3.952297 -0.5698055 -0.88460398
5.2133226 -0.75160849 -0.87812144
8.2933455 -1.1956576 -0.93394333
9.464777 -1.3645437 -0.53413224
10.121581 -1.4592357 0
10.092162 -1.4549943 0.56953788
0 -0 -0
3.254693 -0.46521774 -0.90708697
3.9353728 -0.56251246 -0.88066328
5.2066107 -0.74422002 -0.87683874
8.2819843 -1.1838063 -0.93250215
9.4664183 -1.3531064 -0.53413224
10.133642 -1.4484777 0
10.093913 -1.4427989 0.56953788
0 -0 -0
3.2155094 -0.45565292 -0.89601237
3.9410861 -0.55847061 -0.8817901
5.1998787 -0.73684746 -0.87555444
8.2808504 -1.1734357 -0.93221414
9.4783373 -1.3431253 -0.53471279
10.127652 -1.4351363 0
10.098219 -1.4309654 0.5696829
0 -0 -0
3.2905841 -0.4622362 -0.91677594
3.9316933 -0.55229431 -0.87953854
5.2109337 -0.73199224 -0.87726635
8.2771339 -1.1627088 -0.93163699
9.4876757 -1.3327564 -0.53514832
10.131954 -1.4232597 0
10.115375 -1.4209307 0.57055342
0 -0 -0
3.2737443 -0.45583761 -0.91193014
3.9424243 -0.54894489 -0.8817901
5.2092743 -0.72534162 -0.87683874
8.2708454 -1.1516361 -0.93077189
9.484127 -1.320574 -0.53485781
10.141401 -1.4120933 0
10.122236 -1.4094247 0.57084399
0 -0 -0
3.2519283 -0.44879508 -0.90570134
3.9455993 -0.54452789 -0.88235247
5.2228594 -0.72080112 -0.87897819
8.2748003 -1.1419963 -0.93106097
9.4857159 -1.3091134 -0.53485781
10.143101 -1.3998383 0
10.134229 -1.3986139 0.57142454
0 -0 -0
3.2077317 -0.43874648 -0.89324373
3.9462543 -0.53975999 -0.88235247
5.2160935 -0.71344584 -0.87769389
8.2659235 -1.1305948 -0.9299078
9.4872904 -1.2976507 -0.53485781
10.144785 -1.3875813 0
10.138483 -1.3867195 0.57156956
0 -0 -0
3.2704079 -0.44329429 -0.91054714
3.9544597 -0.53601551 -0.88404167
5.2271271 -0.7085219 -0.87940574
8.2672834 -1.1206063 -0.9299078
9.4940062 -1.286885 -0.53514832
10.154193 -1.3763714 0
10.140151 -1.374468 0.57156956
0 -0 -0
3.2386198 -0.43500102 -0.9015497
3.962652 -0.5322507 -0.88572866
5.2356148 -0.70323098 -0.88069004
8.2814465 -1.1123374 -0.93134898
9.498127 -1.2757579 -0.53529334
10.158425 -1.3644471 0
10.14696 -1.3629071 0.57186013
0 -0 -0
3.3187125 -0.44167712 -0.92369622
3.9607761 -0.52712733 -0.88516635
5.2339182 -0.69656587 -0.88026249
8.2930403 -1.1036949 -0.93250215
9.5048084 -1.2649653 -0.53558332
10.178127 -1.3545753 0
10.1486 -1.3506455 0.57186013
0 -0 -0
3.2421465 -0.42750093 -0.90224117
3.9664531 -0.52300608 -0.88629317
5.219481 -0.68822706 -0.87769389
8.3046246 -1.095026 -0.93365532
9.508913 -1.2538204 -0.53572887
10.18749 -1.3432957 0
10.157945 -1.3393999 0.57229513
0 -0 -0
3.2451458 -0.42390776 -0.9029327
3.9595213 -0.51722538 -0.88460398
5.2254047 -0.68258548 -0.87855065
8.3238878 -1.087335 -0.93567258
9.5129957 -1.242666 -0.53587389
10.181372 -1.3299748 0
10.156981 -1.3267889 0.57215011
0 -0 -0
3.3277581 -0.43061033 -0.92577332
3.9475462 -0.51081061 -0.8817901
5.2287688 -0.67660022 -0.87897819
8.3303299 -1.0779408 -0.93624967
9.522213 -1.23217 -0.53630888
10.18555 -1.3180053 0
10.166311 -1.3155159 0.5725857
2.8831375 -0.36953515 -0.95843679
3.3307621 -0.42690772 -0.92646486
3.9557238 -0.5070098 -0.8834793
5.2244854 -0.66962844 -0.87812144
8.3495779 -1.0701753 -0.93826693
9.5314302 -1.2216547 -0.53674448
10.184556 -1.3053665 0
10.167893 -1.3032309 0.5725857
0 -0 -0
3.2591028 -0.413721 -0.90639281
3.9538057 -0.50190884 -0.88291478
5.2380309 -0.66493255 -0.88026249
8.3713923 -1.0626915 -0.94057328
9.5354748 -1.2104638 -0.53688943
10.193863 -1.2940419 0
10.177197 -1.291926 0.57302123
0 -0 -0
3.269557 -0.41103444 -0.90916145
3.9493721 -0.49649778 -0.8817901
5.2388306 -0.65860289 -0.88026249
8.3624048 -1.051285 -0.9394201
9.5420914 -1.19959 -0.53718001
10.195419 -1.2817236 0
10.181326 -1.2799518 0.57316625
0 -0 -0
3.2650769 -0.40646425 -0.9077785
3.9474499 -0.49141181 -0.88122773
5.2268782 -0.65068579 -0.87812144
8.3739357 -1.0424579 -0.94057328
9.5435333 -1.1880594 -0.53718001
10.207291 -1.2706895 0
10.175126 -1.2666854 0.57273066
0 -0 -0
3.2755253 -0.4037464 -0.91054714
3.9757736 -0.49006009 -0.88741785
5.2353063 -0.64531207 -0.87940574
8.3777637 -1.0326563 -0.94086236
9.5372229 -1.1755731 -0.53674448
10.206239 -1.258037 0
10.189542 -1.2559789 0.57345623
0 -0 -0
3.2757688 -0.4017674 -0.91054714
3.9458048 -0.4839462 -0.88066328
5.2458873 -0.64339906 -0.88111764
8.3783855 -1.0275947 -0.94086236
9.5301914 -1.1688616 -0.53630888
10.204416 -1.2515541 0
10.185145 -1.2491906 0.57316625
0 -0 -0
3.2563281 -0.3953898 -0.90500981
3.9791751 -0.48315933 -0.88798022
5.2339215 -0.63551313 -0.87897819
8.3847513 -1.0180932 -0.94143838
9.5470791 -1.1592252 -0.53718001
10.22917 -1.2420461 0
10.194379 -1.2378217 0.57360125
0 -0 -0
3.2692552 -0.39295155 -0.90846997
3.9747155 -0.47774509 -0.88685554
5.239778 -0.62980062 -0.87983328
8.3936825 -1.0088874 -0.94230354
9.5484724 -1.1476886 -0.53718001
10.2255 -1.2290647 0
10.198454 -1.2258139 0.5737468
0 -0 -0
3.214926 -0.38248122 -0.89324373
3.9677181 -0.47204125 -0.88516635
5.2328954 -0.62255996 -0.87855065
8.4051685 -0.9999668 -0.94345671
9.5550079 -1.1367637 -0.53747004
10.22956 -1.2170154 0
10.202505 -1.2137967 0.57389182
0 -0 -0
3.2876384 -0.38710374 -0.91331577
3.9657645 -0.46694985 -0.88460398
5.2234459 -0.61503583 -0.87683874
8.4063711 -0.98981005 -0.94345671
9.5434742 -1.1236985 -0.53674448
10.233605 -1.2049582 0
10.206543 -1.2017717 0.57403678
0 -0 -0
3.2582009 -0.37964669 -0.90500981
3.9511878 -0.46039376 -0.88122773
5.2318273 -0.60961431 -0.87812144
8.4049845 -0.97935164 -0.94316763
9.5499916 -1.1127683 -0.53703499
10.242811 -1.1934959 0
10.205409 -1.1891378 0.57389182
0 -0 -0
3.3109922 -0.38174352 -0.91954458
3.9643595 -0.45707405 -0.88404167
5.2453184 -0.60476321 -0.88026249
8.4138718 -0.97008419 -0.94403279
9.5590658 -1.1021203 -0.53747004
10.249412 -1.1817142 0
10.211996 -1.1774004 0.5741818
0 -0 -0
3.2690792 -0.37290913 -0.9077785
3.9724753 -0.45314667 -0.88572866
5.2409396 -0.5978424 -0.87940574
8.4253178 -0.96108955 -0.9451859
9.5603905 -1.0905691 -0.53747004
10.266352 -1.1710992 0
10.218579 -1.1656498 0.57447237
0 -0 -0
3.2520745 -0.36698928 -0.9029327
3.9351542 -0.44407329 -0.87728703
5.2493129 -0.59237319 -0.88069004
8.4316177 -0.95148909 -0.94576305
9.564291 -1.0793087 -0.5376156
10.265165 -1.1584008 0
10.22514 -1.1538841 0.57476234
0 -0 -0
3.2699709 -0.36500797 -0.9077785
3.9760914 -0.44382811 -0.88629317
5.2347126 -0.58432072 -0.87812144
8.4250479 -0.9404394 -0.94489789
9.573328 -1.0686153 -0.53805059
10.266558 -1.1459966 0
10.223947 -1.1412401 0.57461739
0 -0 -0
3.3028243 -0.3646352 -0.91677594
3.9740918 -0.43874383 -0.88572866
5.2379737 -0.57827771 -0.87855065
8.4338923 -0.93111044 -0.94576305
9.5642815 -1.0559064 -0.53747004
10.26535 -1.1333052 0
10.235649 -1.1300262 0.57519794
0 -0 -0
3.2883036 -0.35901093 -0.9126243
3.9897792 -0.43559676 -0.88910705
5.2386689 -0.57194823 -0.87855065
8.4478655 -0.92232233 -0.94720423
9.5733013 -1.0451955 -0.53790557
10.277061 -1.1220306 0
10.237007 -1.1176575 0.57519794
0 -0 -0
3.3311353 -0.35961473 -0.92439038
4.0004077 -0.43186644 -0.89135861
5.2495651 -0.56672001 -0.88026249
8.4489737 -0.91211408 -0.94720423
9.5771389 -1.0339059 -0.53805059
10.288759 -1.1107292 0
10.246103 -1.1061243 0.57563347
0 -0 -0
3.2766814 -0.34973127 -0.90916145
3.975656 -0.42433524 -0.88572866
5.2476859 -0.5601033 -0.87983328
8.4552078 -0.90245295 -0.94778031
9.5757999 -1.0220575 -0.53790557
10.279742 -1.0971917 0
10.247432 -1.0937431 0.57563347
0 -0 -0
3.3170202 -0.34998369 -0.92023605
3.9787002 -0.41979849 -0.88629317
5.2355971 -0.55241555 -0.87769389
8.461442 -0.89277917 -0.9483574
9.569273 -1.009668 -0.53747004
10.291413 -1.0858622 0
10.248746 -1.0813602 0.57563347
0 -0 -0
3.3074598 -0.34493455 -0.91746742
3.9792044 -0.41499072 -0.88629317
5.2541356 -0.54795313 -0.88069004
8.4702244 -0.8833586 -0.94922149
9.5679035 -0.99783546 -0.53732502
10.295303 -1.0736959 0
10.257792 -1.0697837 0.57606846
0 -0 -0
3.3153632 -0.34170976 -0.91954458
3.9872782 -0.41096309 -0.88798022
5.2573452 -0.54186708 -0.88111764
8.4661446 -0.87259352 -0.94864541
9.5716848 -0.9865399 -0.53747004
10.301776 -1.0617894 0
10.264251 -1.0579216 0.57635903
0 -0 -0
3.2908199 -0.33516204 -0.9126243
3.9700844 -0.40434352 -0.88404167
5.2605472 -0.53577405 -0.88154519
8.4774857 -0.86341149 -0.94979858
9.5728703 -0.97497368 -0.53747004
10.315994 -1.0506592 0
10.275862 -1.0465717 0.57693958
0 -0 -0
3.2712531 -0.32917604 -0.90708697
3.9655089 -0.39903685 -0.88291478
5.243319 -0.52761894 -0.87855065
8.4630871 -0.85161418 -0.94806939
9.584383 -0.96444666 -0.53805059
10.319843 -1.0384538 0
10.284878 -1.0349354 0.57737517
0 -0 -0
3.2916203 -0.32720846 -0.9126243
3.9862158 -0.39625576 -0.88741785
5.2490568 -0.52179039 -0.87940574
8.4821186 -0.8431778 -0.95008659
9.5907173 -0.95337969 -0.5383411
10.313319 -1.025211 0
10.28612 -1.0225073 0.57737517
0 -0 -0
3.2945075 -0.32347584 -0.91331577
3.9866917 -0.39143893 -0.88741785
5.2496834 -0.51544756 -0.87940574
8.4702635 -0.83166474 -0.94864541
9.5918627 -0.94179046 -0.5383411
10.32491 -1.0137658 0
10.289932 -1.0103314 0.57752013
0 -0 -0
3.289897 -0.31901011 -0.91193014
3.9770455 -0.38564056 -0.88516635
5.2503023 -0.50910395 -0.87940574
8.4789877 -0.8221786 -0.94951057
9.6007547 -0.93095249 -0.5387767
10.328726 -1.0015414 0
10.301491 -0.99890047 0.57810068
0 -0 -0
3.2476392 -0.3129321 -0.90016401
3.9848678 -0.3839691 -0.88685554
5.2480564 -0.50568593 -0.87897819
8.474329 -0.8165592 -0.94893348
9.5987215 -0.92490208 -0.53863114
10.331917 -0.99555045 0
10.307261 -0.99317461 0.57839072
0 -0 -0
3.3029644 -0.31423551 -0.91539294
3.9777379 -0.37843171 -0.88516635
5.2537694 -0.49983007 -0.87983328
8.483036 -0.80705416 -0.94979858
9.6024265 -0.91355002 -0.5387767
10.338289 -0.98355812 0
10.303285 -0.98022783 0.57810068
0 -0 -0
3.2758639 -0.30766362 -0.9077785
3.9680731 -0.37267476 -0.88291478
5.2697096 -0.49492225 -0.88240194
8.489151 -0.79728675 -0.95037466
9.6061077 -0.90218943 -0.53892171
10.347245 -0.97179586 0
10.304461 -0.96777761 0.57810068
0 -0 -0
3.3386822 -0.30949414 -0.92508185
3.9710579 -0.36811504 -0.8834793
5.2473011 -0.48642215 -0.87855065
8.4849625 -0.78655165 -0.94979858
9.6175404 -0.89154106 -0.53950226
10.3536 -0.95977342 0
10.310793 -0.95580524 0.57839072
0 -0 -0
3.2840953 -0.30043212 -0.9098556
3.9664345 -0.36285314 -0.88235247
5.2478852 -0.48008144 -0.87855065
8.4833326 -0.77606326 -0.94951057
9.6160154 -0.87968212 -0.53935671
10.354752 -0.94726241 0
10.32229 -0.94429284 0.57897127
0 -0 -0
3.3069408 -0.29849327 -0.91608441
3.9769924 -0.35897389 -0.88460398
5.2407889 -0.47304752 -0.87726635
8.4997158 -0.76720691 -0.95123976
9.6248379 -0.86876339 -0.53979224
10.361068 -0.9352175 0
10.33119 -0.93252069 0.5794068
0 -0 -0
3.3397822 -0.29738969 -0.92508185
3.9647713 -0.35304162 -0.8817901
5.2541389 -0.46785289 -0.87940574
8.4903316 -0.75601846 -0.95008659
9.6414146 -0.85851628 -0.54066336
10.36478 -0.92292809 0
10.334895 -0.92026699 0.57955182
0 -0 -0
3.3251395 -0.29203662 -0.92092752
3.9651949 -0.34825072 -0.8817901
5.2495909 -0.46105519 -0.87855065
8.496397 -0.74621207 -0.95066375
9.6424446 -0.84686583 -0.54066336
10.373668 -0.91108692 0
10.338586 -0.90800577 0.57969683
0 -0 -0
3.2755113 -0.28369001 -0.90708697
3.9757385 -0.34433627 -0.88404167
5.2680392 -0.45626163 -0.88154519
8.4921331 -0.73549849 -0.95008659
9.6538162 -0.83611107 -0.54124391
10.36439 -0.89765346 0
10.342272 -0.89573777 0.57984239
0 -0 -0
3.2433584 -0.27695733 -0.89808953
3.9812102 -0.33996406 -0.88516635
5.2532449 -0.44858587 -0.87897819
8.5033245 -0.72611713 -0.95123976
9.6548195 -0.82444572 -0.54124391
10.37843 -0.88623637 0
10.356289 -0.88434571 0.58056796
0 -0 -0
3.3461757 -0.28166485 -0.92646486
3.9866867 -0.33557996 -0.88629317
5.2614598 -0.44288418 -0.88026249
8.5119305 -0.71649301 -0.95210493
9.6635685 -0.8134324 -0.54167891
10.384685 -0.87413245 0
10.36512 -0.87248558 0.58100349
0 -0 -0
3.3115158 -0.27471808 -0.91677594
3.9870894 -0.33076259 -0.88629317
5.2491922 -0.43546465 -0.87812144
8.5050545 -0.70556581 -0.95123976
9.6541862 -0.80089593 -0.54109836
10.377951 -0.86093825 0
10.366167 -0.85996073 0.58100349
0 -0 -0
3.3093472 -0.27051237 -0.91608441
3.9900162 -0.32615155 -0.88685554
5.2650709 -0.43037695 -0.88069004
8.4981642 -0.69465619 -0.95037466
9.6655064 -0.79007697 -0.54167891
10.39195 -0.8494578 0
10.367199 -0.84743464 0.58100349
0 -0 -0
3.294663 -0.26530486 -0.91193014
3.972676 -0.31990233 -0.88291478
5.2630305 -0.42380896 -0.88026249
8.5015831 -0.68459553 -0.95066375
9.6794014 -0.77944016 -0.54240447
10.400753 -0.83752745 0
10.368215 -0.83490729 0.58100349
0 -0 -0
3.2499692 -0.25775388 -0.89947253
3.9781303 -0.31550404 -0.88404167
5.2635388 -0.41744933 -0.88026249
8.5152941 -0.67534482 -0.95210493
9.6958838 -0.76897693 -0.54327559
10.401757 -0.82495958 0
