# .PCD v0.7 - Point Cloud Data file format
VERSION 0.7
FIELDS x y z
SIZE 4 4 4
TYPE F F F
COUNT 1 1 1
WIDTH 1561
HEIGHT 1
VIEWPOINT 0 0 0 1 0 0 0
POINTS 1561
DATA ascii
-1.4996595 2.4307098 -0.94174606
-1.7059239 2.7650313 -0.89637142
-2.0120072 3.2611439 -0.8488735
-2.4051545 3.8983731 -0.76365477
-3.4415677 5.5782342 -0.73056901
-3.3327706 5.4018912 -0.35453406
-5.2404056 8.493865 0
-5.357337 8.6833916 0.56990373
-1.4947962 2.4162884 -0.93685782
-1.7119058 2.7672393 -0.89775711
-2.0146108 3.2565517 -0.84831119
-2.4098632 3.8954642 -0.76365477
-3.4483054 5.5740719 -0.73056901
-3.3502316 5.4155388 -0.35569516
-5.2534008 8.4919481 0
-5.3719225 8.6835356 0.57033873
-1.4885935 2.3997762 -0.93115228
-1.720538 2.7736964 -0.90052575
-2.0172062 3.2519579 -0.84774882
-2.4118645 3.8881907 -0.76279968
-0 0 -0
-3.3608832 5.4181132 -0.35613072
-5.2554293 8.4723291 0
-5.379674 8.6726255 0.57004875
-1.4862704 2.3895807 -0.92789245
-1.7331595 2.7865217 -0.90536886
-2.0211339 3.2495182 -0.84774882
-2.4233387 3.8961706 -0.76493907
-3.4426434 5.5349779 -0.72653341
-3.3591957 5.4008136 -0.35526016
-5.2505417 8.4416618 0
-5.3983812 8.6793537 0.57091928
-1.4878501 2.3856878 -0.92707825
-1.7205942 2.7588809 -0.89706296
-2.0304372 3.2556975 -0.85000038
-2.4198966 3.8801746 -0.76237214
-3.4534364 5.5374002 -0.72739857
-3.3739669 5.4099755 -0.35613072
-5.2469687 8.4132338 0
-5.4143643 8.6816435 0.57149988
-1.5063093 2.4120398 -0.93767202
-1.7289089 2.7684865 -0.90052575
-2.0256705 3.2436883 -0.8471843
-2.4195182 3.8743532 -0.76151538
-3.4540384 5.530921 -0.72682148
-3.3772347 5.4079361 -0.35613072
-5.2589417 8.4210968 0
-5.4209838 8.6805735 0.57164484
-1.4989939 2.3874643 -0.92952394
-1.7302581 2.7558014 -0.89775711
-2.0389078 3.2473912 -0.84943587
-2.434334 3.8771911 -0.76322722
-3.4673944 5.5225577 -0.72682148
-3.3972008 5.4107599 -0.35685629
-5.2654409 8.3863268 0
-5.400497 8.6014318 0.56729096
-1.503193 2.3877409 -0.93033814
-1.7228941 2.7367241 -0.89221978
-2.0374153 3.2363241 -0.8471843
-2.4362845 3.8699062 -0.76237214
-3.4782 5.5249329 -0.72768658
-3.3829749 5.3736725 -0.35467961
-5.2727947 8.3755493 0
-5.3873534 8.5575199 0.56482375
-1.5232267 2.4130914 -0.94093192
-1.7462829 2.7664561 -0.90260023
-2.0413241 3.2338598 -0.8471843
-2.4464397 3.8756425 -0.76408398
-3.4807301 5.5141625 -0.72682148
-3.3783693 5.3520026 -0.35351849
-5.2856922 8.3735781 0
-5.4101715 8.5707779 0.56612986
-1.5301082 2.4175165 -0.94337755
-1.7469435 2.7601085 -0.90121722
-2.0452302 3.231391 -0.8471843
-2.4524925 3.8748507 -0.76451153
-3.4887724 5.512136 -0.72710949
-3.3737164 5.3303518 -0.35235739
-5.2846713 8.3495922 0
-5.4205236 8.5642347 0.56612986
-1.5158129 2.3885388 -0.93278378
-1.7395232 2.74105 -0.89567995
-2.0504987 3.2310688 -0.84774882
-2.4502964 3.8610494 -0.76237214
-3.4954302 5.5079165 -0.72710949
-3.3773673 5.3218794 -0.35206681
-5.2933578 8.3409977 0
-5.4308677 8.5576782 0.56612986
-1.5319639 2.4075539 -0.94093192
-1.7482212 2.7474124 -0.89844859
-2.055764 3.2307305 -0.84831119
-2.4590905 3.8645771 -0.76365477
-3.4757044 5.462234 -0.72163272
-3.3949549 5.3353324 -0.35322794
-5.2922606 8.3170385 0
-5.4439969 8.5554991 0.56642038
-1.5348719 2.4057012 -0.94093192
-1.744794 2.7347252 -0.89498842
-2.0541997 3.219676 -0.84605962
-2.45962 3.8551168 -0.76237214
-3.4767373 5.4493084 -0.72047955
-3.426559 5.3706608 -0.35584071
-5.3246975 8.3457327 0
-5.4613171 8.559865 0.56714594
-1.5111446 2.3622122 -0.92463571
-1.7494478 2.7347262 -0.89567995
-2.0608244 3.2214682 -0.8471843
-2.4587429 3.8434923 -0.76066023
-3.4707761 5.4254966 -0.7178852
-3.4442427 5.3840194 -0.35700127
-0 0 0
-5.4730549 8.5554466 0.56729096
-1.5353434 2.3936632 -0.93767202
-1.7662932 2.7537234 -0.90260023
-2.0633447 3.2168391 -0.84662199
-2.4647698 3.8426771 -0.76108778
-3.4633622 5.3995233 -0.71500176
-3.4451339 5.3711052 -0.35642073
-0 0 0
-5.4875989 8.5553913 0.56772649
-1.5221913 2.3668606 -0.92789245
-1.7709801 2.7537034 -0.90329438
-2.0713549 3.220757 -0.84831119
-2.468024 3.8375392 -0.76066023
-4.037879 6.278512 -0.8320424
-3.4389729 5.347271 -0.35511461
-0 0 0
-5.4951239 8.5443878 0.56743652
-1.5411235 2.389946 -0.93767202
-1.762066 2.7325795 -0.89706296
-2.0738692 3.2161183 -0.84774882
-2.4782238 3.843184 -0.76237214
-4.0328484 6.2540669 -0.82944804
-3.4440246 5.34093 -0.35496962
-0 0 0
-5.5167041 8.5552034 0.56859708
-1.5359609 2.3756325 -0.93278378
-1.7653664 2.7304485 -0.89706296
-2.0722356 3.205075 -0.84549731
-2.478683 3.8337173 -0.76108778
-4.0389991 6.2470193 -0.82915998
-3.4490662 5.3345847 -0.3548246
-0 0 0
-5.5284524 8.5507193 0.56874263
-1.5347956 2.3675511 -0.93033814
-1.7632056 2.7198927 -0.89429426
-2.0761068 3.2025688 -0.84549731
-2.4847085 3.8328714 -0.76151538
-4.0507665 6.2486477 -0.83002514
-3.4540973 5.3282351 -0.35467961
-0 0 0
-5.5359507 8.5396681 0.56845206
-1.5322673 2.3574057 -0.92707825
-1.7678621 2.7198699 -0.89498842
-2.0882807 3.2128363 -0.8488735
-2.4893379 3.8298664 -0.76151538
-4.0484457 6.2285662 -0.8280068
-3.4492042 5.3066282 -0.35351849
-0 0 0
-5.5490999 8.5373344 0.56874263
-1.5351148 2.3555524 -0.92707825
-1.7793632 2.7303388 -0.89914006
-2.0879979 3.2039225 -0.8471843
-2.4897578 3.8204017 -0.76023102
-4.0630283 6.2345023 -0.82944804
-3.4712155 5.3263969 -0.35511461
-4.1391354 6.3512845 0
-5.566504 8.5415058 0.5694682
-1.5501263 2.3723154 -0.93441218
-1.7826608 2.7281866 -0.89914006
-2.0863082 3.192889 -0.84493279
-2.4971831 3.8216927 -0.76108778
-4.0648994 6.2209272 -0.82829487
-3.5956173 5.5027375 -0.36716077
-0 0 0
-5.5825057 8.5434752 0.57004875
-1.5394496 2.3497703 -0.92626411
-1.7873296 2.7281272 -0.89983159
-2.0901647 3.1903658 -0.84493279
-2.5017991 3.8186724 -0.76108778
-4.0795045 6.2268353 -0.82973713
-3.6335886 5.5462027 -0.37035355
-4.1459117 6.328198 0
-5.5999436 8.5475883 0.57077432
-1.554499 2.3664987 -0.93359798
-1.7782297 2.7070959 -0.89360279
-2.0912306 3.1835945 -0.84380811
-2.5064113 3.8156466 -0.76108778
-4.0799208 6.2110863 -0.82829487
-3.6474192 5.5526648 -0.37107912
-4.1549826 6.3253565 0
-5.6188245 8.5538425 0.57164484
-1.5681511 2.3841417 -0.94093192
-1.7826247 2.7102172 -0.89498842
-2.1057191 3.2014341 -0.8488735
-2.5087161 3.8141317 -0.76108778
-4.0822525 6.206461 -0.8280068
-3.6379232 5.5309238 -0.369773
-0 0 0
-5.6182795 8.5417624 0.57106429
-1.560145 2.3657386 -0.93441218
-1.7789937 2.6975915 -0.89152831
-2.1011953 3.1861646 -0.84549731
-2.518976 3.8196697 -0.76279968
-4.0854759 6.195044 -0.8271417
-3.6374521 5.5156803 -0.36904743
-0 0 0
-5.6328893 8.5414772 0.57149988
-1.5561877 2.3535454 -0.93033814
-1.7933162 2.7121735 -0.89706296
-2.1022382 3.1793804 -0.84437042
-2.5207551 3.8123367 -0.76194292
-4.0958142 6.1944222 -0.82771879
-3.6297853 5.4896102 -0.36759633
-0 0 0
-5.6446381 8.5368309 0.57164484
-1.5644932 2.3599033 -0.93359798
-1.7855076 2.6932845 -0.89152831
-2.1032729 3.1726062 -0.84324574
-2.5239427 3.8071504 -0.76151538
-4.107585 6.1959381 -0.82858396
-3.604826 5.4375696 -0.36440298
-4.234901 6.3879843 0
-5.6635661 8.5430021 0.57251596
-1.556398 2.3415442 -0.92707825
-1.7943102 2.6994743 -0.89429426
-2.10851 3.1721766 -0.84380811
-2.5271213 3.8019621 -0.76108778
-4.1222258 6.2017388 -0.83002514
-3.5926957 5.4050798 -0.36251631
-4.2599044 6.4088712 0
-5.6652517 8.5231647 0.57164484
-1.5797876 2.3705149 -0.93930352
-1.7989659 2.699398 -0.89498842
-2.1137493 3.1717391 -0.84437042
-2.5302913 3.7967718 -0.76066023
-4.1311493 6.1989036 -0.83031315
-3.5920205 5.3899255 -0.36179075
-4.22435 6.3387537 0
-5.6510501 8.479557 0.56917763
-1.5565596 2.329556 -0.92381841
-1.809194 2.7076502 -0.89844859
-2.1147594 3.1649613 -0.84324574
-2.5363019 3.7958438 -0.76108778
-4.1429486 6.2003613 -0.83117831
-3.5956459 5.3812647 -0.36150074
-0 0 0
-5.3740268 8.042799 0.54029638
-1.5910141 2.3749037 -0.94256335
-1.7957085 2.6804507 -0.89014262
-2.1256518 3.1729565 -0.84605962
-2.5351715 3.7842457 -0.75937593
-4.1475558 6.1910486 -0.83060122
-3.5978055 5.3704376 -0.36106518
-4.2512441 6.3458238 0
-5.3880811 8.042778 0.54073197
-1.5552953 2.3155308 -0.91974437
-1.8017464 2.6824481 -0.89152831
-2.1110678 3.1429675 -0.83874267
-2.5426021 3.7854376 -0.76023102
-4.1622429 6.1967664 -0.8320424
-3.60864 5.3725595 -0.36150074
-4.2342415 6.3039579 0
-5.7034845 8.491374 0.57135487
-1.5788023 2.344403 -0.93196964
-1.8091863 2.686506 -0.89360279
-2.1120226 3.1361952 -0.83761579
-2.5457416 3.7802353 -0.75980347
-4.1668406 6.1874461 -0.83146632
-3.6035175 5.3509531 -0.36033964
-4.2607522 6.3268971 0
-2.7152116 4.0318856 0.27151203
-1.5733328 2.3301992 -0.92707825
-1.8152416 2.6884804 -0.89498842
-2.1186571 3.1378567 -0.83874267
-2.5503075 3.7771566 -0.75980347
-4.174314 6.1824064 -0.83146632
-3.6157966 5.3552089 -0.36092019
-4.2946048 6.3605642 0
-2.7477098 4.069521 0.27426982
-1.5816895 2.3364835 -0.93033814
-1.8212987 2.6904361 -0.89637142
-2.1181724 3.1289799 -0.83705348
-2.5591881 3.7804515 -0.76108778
-4.1875811 6.1859255 -0.83261949
-3.6280913 5.3594432 -0.36150074
-4.2366371 6.2583919 0
-2.7628174 4.081254 0.27528539
-1.5997809 2.3570681 -0.93930352
-1.8301839 2.6965365 -0.89914006
-2.1233771 3.1285186 -0.83761579
-2.5579877 3.7688603 -0.75937593
-4.1906934 6.174439 -0.83175439
-3.6447749 5.3700995 -0.36251631
-4.2427359 6.2511168 0
-2.7502413 4.0521212 0.27354428
-1.5789909 2.3203979 -0.92544991
-1.8306206 2.6901791 -0.89775711
-2.1328738 3.1343534 -0.83986735
-2.5625398 3.7657669 -0.75937593
-4.1966972 6.1672344 -0.83146632
-3.6439531 5.3549523 -0.36179075
-4.2136846 6.1921978 0
-2.7887537 4.0981984 0.27688205
-1.6082556 2.3572745 -0.94093192
-1.8352824 2.6900356 -0.89844859
-2.1266396 3.1170874 -0.8359288
-2.5757658 3.775387 -0.76194292
-4.2041459 6.162159 -0.83146632
-3.6665311 5.3741589 -0.36338741
-4.2035627 6.161304 0
-2.8142028 4.1248722 0.27891374
-1.5831997 2.3145373 -0.92463571
-1.8201196 2.6608989 -0.88945115
-2.1332707 3.118706 -0.83705348
-2.5745285 3.7637968 -0.76023102
-4.2174296 6.1656141 -0.83261949
-3.6803558 5.380446 -0.36411297
-4.241859 6.2013273 0
-2.7839818 4.070004 0.27543095
-1.5915815 2.3207681 -0.92789245
-1.8332617 2.6731746 -0.89429426
-2.1485341 3.1328897 -0.84155655
-2.5819809 3.7649214 -0.76108778
-4.2277994 6.1647754 -0.83319557
-3.6868544 5.3759952 -0.36411297
-4.2493486 6.1961975 0
-2.794776 4.0752091 0.2760115
-1.5803837 2.2984807 -0.91974437
-1.8265446 2.6564927 -0.88945115
-2.1436832 3.117733 -0.8381803
-2.5807104 3.7533376 -0.75937593
-4.2323174 6.1554041 -0.83261949
-3.6962891 5.3758144 -0.36440298
-4.2966456 6.2489619 0
-2.8085284 4.084672 0.27688205
-1.5915793 2.3087831 -0.92463571
-1.8368713 2.6646094 -0.89291131
-2.1503303 3.1193204 -0.83930498
-2.5837882 3.748105 -0.75894839
-4.2382855 6.1481581 -0.83233148
-3.7145803 5.3884592 -0.36556408
-4.3411188 6.2973313 0
-2.8119886 4.0791378 0.27673706
-1.6013929 2.3170226 -0.92870975
-1.8301035 2.6479394 -0.88806552
-2.1454325 3.1041825 -0.8359288
-2.5810189 3.7344234 -0.75680894
-4.2515936 6.1515436 -0.83348465
-3.7269981 5.3925176 -0.36614466
-4.4182658 6.3926983 0
-2.8346438 4.1013885 0.27847874
-1.6126337 2.3302755 -0.93441218
-1.8445503 2.6653979 -0.89429426
-2.148752 3.1049731 -0.83649111
-2.5905771 3.7434158 -0.75894839
-4.2523627 6.1447163 -0.8329075
-0 0 -0
-4.4206476 6.3878899 0
-2.841553 4.1060791 0.27891374
-1.6084049 2.3181739 -0.93033814
-1.8549243 2.6734791 -0.89775711
-2.1597431 3.1128106 -0.83930498
-2.5965605 3.7423902 -0.75937593
-4.2627358 6.1438274 -0.83348465
-0 0 -0
-3.7682085 5.4310718 0
-2.8479979 4.1047835 0.27905929
-1.5942681 2.2918808 -0.92055851
-1.8524228 2.662998 -0.89498842
-2.1562493 3.0997713 -0.83649111
-2.598146 3.7350311 -0.75851917
-4.2657237 6.1323004 -0.83261949
-3.7581117 5.4025698 -0.36759633
-3.8134108 5.4820662 0
-2.8752089 4.1333299 0.28123596
-1.5970361 2.2899528 -0.92055851
-1.8455921 2.6463513 -0.89014262
-2.1599932 3.0971637 -0.83649111
-2.6026571 3.731889 -0.75851917
-4.2760868 6.1313806 -0.83319557
-3.764637 5.398025 -0.36759633
-3.8200319 5.4774542 0
-2.8861465 4.1383781 0.28181651
-1.6040522 2.2941 -0.92300421
-1.8502246 2.6461735 -0.89083415
-2.1739273 3.1091299 -0.84043187
-2.6012862 3.7203343 -0.75680894
-4.2849784 6.1283355 -0.83348465
-3.7681758 5.3892088 -0.36730576
-3.8117316 5.4515018 0
-2.8941257 4.1391511 0.28210708
-1.6224306 2.3144245 -0.93196964
-1.8606195 2.6542053 -0.89429426
-2.1703858 3.096092 -0.83761579
-2.6116679 3.7255886 -0.75851917
-4.2968302 6.1295009 -0.83434874
-3.776175 5.3867774 -0.36745077
-3.8123405 5.4383683 0
-2.9050856 4.1441536 0.28268707
-1.6124365 2.294265 -0.92463571
-1.8638253 2.6519551 -0.89429426
-2.1770501 3.0976288 -0.83874267
-2.6132183 3.7182336 -0.75766408
-3.8342936 5.4556479 -0.74325383
-3.7886577 5.3907146 -0.36803132
-3.8069372 5.4167237 0
-2.9026215 4.130013 0.28196153
-1.6280189 2.310497 -0.93196964
-1.8612537 2.641506 -0.89152831
-2.1778615 3.090838 -0.83761579
-2.6191864 3.7171698 -0.75809163
-3.8230054 5.4256392 -0.73979431
-3.7906828 5.3797665 -0.36759633
-3.7954912 5.386591 0
-2.9165928 4.1392512 0.28283265
-1.6136966 2.2843037 -0.92219001
-1.8586541 2.6310587 -0.88875967
-2.1830647 3.0902855 -0.8381803
-2.626641 3.7181997 -0.75894839
-3.8191106 5.4062262 -0.73777604
-3.7986782 5.3773026 -0.36774132
-3.8410413 5.4372706 0
-2.9320827 4.1505742 0.2838482
-1.6250238 2.2944503 -0.92707825
-1.8545778 2.6185687 -0.88529682
-2.1823902 3.0814228 -0.83649111
-2.6326141 3.7171161 -0.75937593
-3.8002281 5.3657269 -0.73287535
-3.884762 5.4850845 -0.37543303
-3.8235419 5.3986449 0
-2.9401021 4.1512733 0.28413877
-1.6235063 2.2864451 -0.92463571
-1.8664579 2.628603 -0.88945115
-2.1890512 3.0829232 -0.83761579
-2.6341283 3.7097423 -0.75851917
-3.832164 5.3969808 -0.73777604
-3.9244862 5.5270014 -0.37862638
-3.8119817 5.3685575 0
-2.9496307 4.1540756 0.2845743
-1.6348654 2.2965591 -0.92952394
-1.8812722 2.6426961 -0.89498842
-2.1839361 3.0678599 -0.8342396
-2.6311667 3.6961021 -0.75637972
-3.837184 5.3902416 -0.73748797
-3.9522557 5.5518875 -0.38065803
-3.8335557 5.3851447 0
-2.9606698 4.158968 0.28515431
-1.6347648 2.2905545 -0.92789245
-1.8713489 2.6220448 -0.88875967
-2.1935456 3.0734916 -0.83649111
-2.6415958 3.7012782 -0.75809163
-4.3364997 6.0760965 -0.8320424
-3.9800913 5.576714 -0.38268971
-3.8400598 5.3805089 0
-2.9732449 4.1659689 0.28588042
-1.6217148 2.2664728 -0.91893017
-1.8672122 2.6095746 -0.88529682
-2.1972578 3.0708389 -0.83649111
-2.6415892 3.6918266 -0.75680894
-4.3408308 6.0666494 -0.83146632
-3.9974124 5.5866952 -0.38370582
-3.8541348 5.3864536 0
-2.9873457 4.1750484 0.28675097
-1.6489421 2.298651 -0.93278378
-1.8718305 2.6093607 -0.88599098
-2.2054112 3.0743775 -0.8381803
-2.6490378 3.6927998 -0.75766408
-4.3481584 6.0613999 -0.83146632
-4.0071864 5.5860801 -0.38399583
-3.8530512 5.371213 0
-2.9984467 4.1798811 0.28733155
-1.6445043 2.2866259 -0.92870975
-1.8852314 2.6213484 -0.89083415
-2.2046723 3.06552 -0.83649111
-2.6505032 3.6854322 -0.75680894
-4.3539701 6.0540438 -0.83117831
-4.0200019 5.5896721 -0.38457638
-3.8565023 5.3623319 0
-3.0065324 4.1804781 0.28762209
-1.6212441 2.2485466 -0.91403884
-1.8781308 2.6048295 -0.88599098
-2.2039154 3.0566688 -0.83480191
-2.6534486 3.6801386 -0.75637972
-4.3627934 6.0508742 -0.83146632
-4.0389104 5.6016722 -0.38573751
-3.8599317 5.3534422 0
-3.0146179 4.1810536 0.2879121
-1.6369953 2.2646194 -0.92137587
-1.8915606 2.6167848 -0.89083415
-2.210587 3.058126 -0.8359288
-2.6624064 3.6831732 -0.75766408
-4.368588 6.0435042 -0.83117831
-4.0471969 5.5988917 -0.3858825
-3.8877451 5.3783064 0
-3.0257566 4.1858315 0.28849265
-1.6440774 2.2686379 -0.92381841
-1.8873616 2.6043422 -0.88737398
-2.2127852 3.0533893 -0.83536428
-2.6623344 3.6737156 -0.75637972
-4.35919 6.0151815 -0.8280068
-0 0 -0
-3.8911836 5.3693862 0
-3.0384347 4.1926908 0.28921822
-1.6511772 2.2726502 -0.92626411
-1.8964056 2.6101785 -0.89014262
-2.2134888 3.0466061 -0.8342396
-2.6622491 3.6642716 -0.75509709
-4.3086867 5.9303985 -0.81705225
-0 0 -0
-3.9068499 5.3773174 0
-3.0511336 4.1995254 0.28994378
-1.6569132 2.2776504 -0.92870975
-1.8920789 2.6009173 -0.88737398
-2.2242947 3.0575926 -0.83761579
-2.665971 3.6647363 -0.75552464
-4.2072883 5.7834849 -0.79716146
-0 0 -0
-3.9192808 5.3875794 0
-3.0552034 4.1997886 0.29008934
-1.6378168 2.2456908 -0.91648448
-1.8922664 2.5945792 -0.88599098
-2.2235003 3.0487499 -0.8359288
-2.6749365 3.6677365 -0.75680894
-4.1365495 5.6718254 -0.78245938
-0 0 -0
-3.9257879 5.3828397 0
-3.0663943 4.2044835 0.29066932
-1.6346939 2.2357295 -0.91322464
-1.8909564 2.5862134 -0.88391387
-2.2286806 3.0481102 -0.83649111
-2.6793664 3.6645017 -0.75680894
-4.1174488 5.631331 -0.77755868
-4.0576439 5.5495367 -0.38399583
-0 0 0
-3.0822096 4.2154603 0.29168546
-1.6549287 2.2576735 -0.92300421
-1.898531 2.5899987 -0.88599098
-2.2308614 3.0433679 -0.8359288
-2.6822703 3.6591852 -0.75637972
-4.1135449 5.6117473 -0.77554041
-4.0843153 5.5718722 -0.3858825
-0 0 0
-3.0949805 4.2222095 0.292411
-1.6605855 2.2596593 -0.92463571
-1.9001691 2.5856755 -0.88529682
-2.2345371 3.0406699 -0.8359288
-2.6836524 3.6518083 -0.75552464
-4.1356363 5.6276107 -0.77842277
-5.2865839 7.1937752 -0.49865016
-0 0 0
-3.10008 4.2184668 0.292411
-1.6660414 2.2556398 -0.92463571
-1.901945 2.5750277 -0.88322234
-2.2328181 3.022994 -0.83255041
-2.6955168 3.6494381 -0.75637972
-4.3428373 5.8797317 -0.81474596
-5.2931509 7.1663537 -0.49763459
-3.9412327 5.3360028 0
-3.1272485 4.2339559 0.29400769
-1.6761184 2.2635546 -0.92870975
-1.9274449 2.6029646 -0.89360279
-2.2410069 3.026422 -0.8342396
-2.6999245 3.6461785 -0.75637972
-4.4222765 5.9721704 -0.82829487
-5.2894359 7.1432467 -0.49647349
-3.9507718 5.3354158 0
-3.1400921 4.2406135 0.29473323
-1.6876888 2.2734313 -0.93359798
-1.9246072 2.5925763 -0.89083415
-2.244662 3.0237119 -0.8342396
-2.7012708 3.6387951 -0.75552464
-4.4479899 5.9917436 -0.83175439
-4.215476 5.6785316 -0.39502588
-3.9727254 5.3515306 0
-3.15451 4.2493386 0.29560435
-1.6712527 2.2456162 -0.92300421
-1.9322332 2.5962887 -0.89291131
-2.2513452 3.0250704 -0.83536428
-2.7056656 3.6355283 -0.75552464
-4.456769 5.9884377 -0.8320424
-4.2052736 5.6505103 -0.39342976
-3.9760842 5.3425546 0
-3.1720469 4.2621922 0.29676491
-1.6695294 2.2376504 -0.92055851
-1.9338702 2.591943 -0.89221978
-2.2489207 3.0142016 -0.83311272
-2.7100565 3.6322565 -0.75552464
-4.4640017 5.9830484 -0.8320424
-4.2058825 5.6370945 -0.39284921
-3.973196 5.3252273 0
-3.1818578 4.264606 0.29720047
-1.669274 2.2316768 -0.91893017
-1.9279816 2.5775471 -0.88806552
-2.2525611 3.0114822 -0.83311272
-2.7113652 3.6248641 -0.75466788
-4.4712276 5.9776502 -0.8320424
-4.2235813 5.6465678 -0.39386475
-3.9640424 5.2995863 0
-3.1854537 4.2586799 0.29705548
-1.6675195 2.2237241 -0.91648448
-1.9175502 2.5571532 -0.88183671
-2.2607729 3.0148587 -0.83480191
-2.7157433 3.6215854 -0.75466788
-4.4768972 5.9701757 -0.83175439
-4.2272859 5.6373062 -0.39357474
-3.9501472 5.2677274 0
-3.2061832 4.2756124 0.29850659
-1.6895113 2.2473886 -0.92707825
-1.9266688 2.5628557 -0.88460535
-2.2613635 3.0080667 -0.83367723
-2.7262876 3.626509 -0.75637972
-4.4856606 5.9668274 -0.8320424
-4.2122378 5.6031203 -0.39154309
-3.9377429 5.2379875 0
-3.2051013 4.2634273 0.29792604
-1.6803249 2.2295551 -0.92055851
-1.9358039 2.5685396 -0.88737398
-2.2634628 3.0032971 -0.83311272
-2.7275803 3.6191158 -0.75552464
-4.4913116 5.9593396 -0.83175439
-4.1986752 5.5710521 -0.38965639
-3.9722607 5.2706318 0
-3.2258928 4.2803063 0.29937771
-1.6860005 2.2314711 -0.92219001
-1.9222744 2.5441864 -0.87976223
-2.2670901 3.0005598 -0.83311272
-2.7350433 3.6199098 -0.75637972
-4.5016303 5.9580398 -0.83233148
-4.1834707 5.5369458 -0.38762417
-3.9754918 5.2616796 0
-3.240458 4.2888408 0.30024827
-1.7051071 2.2510989 -0.93115228
-1.9344329 2.5538568 -0.88391387
-2.2661159 2.9917479 -0.83142573
-2.72857 3.6022842 -0.75338519
-4.5072603 5.9505281 -0.8320424
-4.1791801 5.5173936 -0.38660863
-3.988132 5.2651701 0
-3.2534809 4.2952766 0.30097383
-1.6958739 2.2332971 -0.92463571
-1.9435861 2.5595098 -0.88668251
-2.2774107 2.9991236 -0.8342396
-2.7329206 3.5989847 -0.75338519
-4.5207038 5.9533172 -0.83319557
-0 0 -0
-4.0180945 5.2914314 0
-3.2665243 4.3016877 0.30169937
-1.6910812 2.2214077 -0.92055851
-1.9542739 2.5671382 -0.89014262
-2.2748766 2.9882827 -0.83198804
-2.7372673 3.5956798 -0.75338519
-4.5184965 5.9355063 -0.83146632
-4.1814823 5.4928036 -0.38559249
-4.0244856 5.2865725 0
-3.2811663 4.3101468 0.30257049
-1.7042619 2.2331183 -0.92626411
-1.9680301 2.5787373 -0.89498842
-2.2800257 2.9875495 -0.83255041
-2.7416098 3.5923698 -0.75338519
-3.413177 4.4723334 -0.62707728
-4.2070332 5.5125346 -0.38733417
-4.0387692 5.2920561 0
-3.284797 4.3041153 0.3024255
-1.7011073 2.2261946 -0.92381841
-1.9467378 2.5476446 -0.88460535
-2.2833714 2.9881885 -0.83311272
-2.7453368 3.5927505 -0.75381279
-3.4190221 4.4743848 -0.62765443
-4.2592664 5.5739903 -0.39183307
-4.0388026 5.2854753 0
-3.2952836 4.3124514 0.30315104
-1.703796 2.2241375 -0.92381841
-1.9437121 2.5373244 -0.88183671
-2.2885301 2.9874504 -0.83367723
-2.7434316 3.5812793 -0.75210088
-3.4244261 4.4702501 -0.62765443
-4.2976017 5.610095 -0.39473587
-4.0499353 5.2867908 0
-3.3004918 4.3084664 0.30315104
-1.7109998 2.2279599 -0.92626411
-1.9513621 2.5409451 -0.88391387
-2.2890401 2.9806485 -0.83255041
-2.7493191 3.5799959 -0.75252843
-3.4361265 4.4743147 -0.62880754
-4.3059587 5.606957 -0.39488086
-4.0690017 5.2984061 0
-3.3294308 4.335382 0.30532771
-1.7076596 2.2180572 -0.92300421
-1.9697325 2.5584602 -0.89083415
-2.2910914 2.9758692 -0.83198804
-2.7520781 3.5746391 -0.75210088
-0 0 -0
-4.3079734 5.5955715 -0.3944453
-4.0754008 5.2934856 0
-3.3267426 4.3210635 0.30460218
-1.7103384 2.2159922 -0.92300421
-1.9682283 2.5501261 -0.88875967
-2.2946854 2.9730988 -0.83198804
-2.7626693 3.5794399 -0.75381279
-3.456408 4.4782791 -0.63053679
-4.2845707 5.5512843 -0.39168808
-4.1072359 5.3215213 0
-3.3605359 4.354063 0.30721441
-1.7220869 2.2256489 -0.92789245
-1.9574866 2.5298827 -0.88252819
-2.2951694 2.9663086 -0.83086336
-2.7638474 3.5720346 -0.75295603
-3.4602354 4.4720559 -0.63024879
-4.2690167 5.5173359 -0.38965639
-4.1598406 5.3762355 0
-3.372155 4.3582196 0.30779496
-1.7096292 2.2040405 -0.91974437
-1.9682347 2.5374329 -0.88599098
-2.2987518 2.9635332 -0.83086336
-2.7602961 3.5585525 -0.75081658
-3.4656365 4.4678717 -0.63024879
-4.2470102 5.4752126 -0.38704363
-4.1982355 5.4123325 0
-3.3821979 4.3603034 0.30823052
-1.7153285 2.2058792 -0.92137587
-1.965139 2.5271308 -0.88322234
-2.3101285 2.9707804 -0.83367723
-2.7708974 3.5633204 -0.75252843
-3.4710326 4.4636807 -0.63024879
-4.2105598 5.4146991 -0.38312528
-4.2079706 5.4113688 0
-3.3890576 4.3582625 0.30837551
-1.7195107 2.2057524 -0.92219001
-1.9743609 2.5326691 -0.88599098
-2.3059068 2.9579692 -0.83086336
-2.7783604 3.5640228 -0.75338519
-3.4780121 4.4615216 -0.63053679
-0 0 -0
-4.206501 5.3960118 0
-7.1212492 9.1349897 0.64696848
-1.7176074 2.1978288 -0.91974437
-1.9696912 2.5203922 -0.88252819
-2.3047841 2.9491727 -0.82917416
-2.7795002 3.5566139 -0.75252843
-3.4818094 4.4552798 -0.63024879
-0 0 -0
-4.2210355 5.4011841 0
-7.1418848 9.1386671 0.64783961
-1.7126417 2.1860256 -0.91567034
-2.0052249 2.5594804 -0.89706296
-2.3146138 2.9543862 -0.83142573
-2.7774632 3.5451698 -0.75081658
-3.4839969 4.4469934 -0.62967163
-0 0 -0
-4.2066951 5.3694491 0
-7.1577249 9.1361609 0.6482746
-1.7152818 2.1839547 -0.91567034
-1.9835286 2.5254955 -0.88599098
-2.318182 2.9515874 -0.83142573
-2.7785766 3.5377774 -0.7499615
-3.4957581 4.4509168 -0.6308248
-0 0 -0
-4.2260337 5.3807282 0
-7.175179 9.1356792 0.64885515
-1.7301514 2.1974158 -0.92219001
-1.9834718 2.519151 -0.88460535
-2.3107424 2.9348078 -0.82748497
-2.7860224 3.5384474 -0.75081658
-3.4931347 4.4365306 -0.62938362
-0 0 -0
-4.2132187 5.3510885 0
-7.1846066 9.1249638 0.64871013
-1.7266799 2.1875634 -0.91893017
-1.9911788 2.5226619 -0.88668251
-2.3237352 2.943984 -0.83086336
-2.7998416 3.5471723 -0.75338519
-3.5017011 4.4363713 -0.62996072
-4.2786798 5.4207406 -0.38573751
-4.2309637 5.3602877 0
-7.198844 9.1203508 0.64900017
-1.7231872 2.1777227 -0.91567034
-2.0020077 2.5300891 -0.89014262
-2.3209841 2.9332039 -0.82861185
-2.8025281 3.5417678 -0.75295603
-3.5054493 4.4301028 -0.62967163
-4.3513327 5.4991097 -0.39168808
-4.2390509 5.3572106 0
-7.2114758 9.1136894 0.64914572
-1.745784 2.2008097 -0.92626411
-2.0050633 2.5276682 -0.89014262
-2.3324206 2.9403486 -0.83142573
-2.7924492 3.5202804 -0.74910474
-3.5075879 4.4218149 -0.62909561
-4.3595877 5.495882 -0.39183307
-4.2406735 5.3459735 0
-7.2321687 9.1171799 0.65001625
-1.7407517 2.189028 -0.92219001
-2.0034301 2.519351 -0.88806552
-2.3312256 2.9315603 -0.82973653
-2.804688 3.526948 -0.75124413
-3.5145366 4.4195957 -0.62938362
-4.3629937 5.4865465 -0.39154309
-4.2406507 5.3326979 0
-7.2367101 9.1002989 0.6494357
-1.73107 2.1714618 -0.91567034
-1.9970927 2.505162 -0.88391387
-2.3347661 2.9287412 -0.82973653
-2.8041515 3.5175405 -0.7499615
-3.5214851 4.4173665 -0.62967163
-3.5824587 4.4938521 -0.32100892
-4.2292442 5.3051829 0
-7.2412219 9.0834208 0.64885515
-1.7383231 2.1751628 -0.91811597
-2.0001183 2.5027471 -0.88391387
-2.3367186 2.9239349 -0.82917416
-2.8148103 3.522171 -0.75167334
-3.5235937 4.409071 -0.62909561
-3.5813973 4.481401 -0.32042837
-4.2454033 5.3122711 0
-3.5878112 4.4894266 0.32100222
-1.7458136 2.1818316 -0.92137587
-1.9937943 2.4917457 -0.88045371
-2.3384848 2.9225228 -0.82917416
-2.8073118 3.5084395 -0.74910474
-3.5230217 4.4028988 -0.62851846
-0 0 -0
-3.5429766 4.4278374 0
-3.6035104 4.5034895 0.32216334
-1.7468977 2.1777871 -0.92055851
-2.0109301 2.5069456 -0.88668251
-2.340426 2.9177148 -0.82861185
-2.8195786 3.5150552 -0.75124413
-3.533196 4.4046931 -0.62938362
-0 0 -0
-0 0 0
-0 0 0
-1.7619187 2.1910837 -0.92707825
-2.0060987 2.4947405 -0.88322234
-2.3423529 2.912899 -0.82804734
-2.8141749 3.4996464 -0.74867713
-3.5336516 4.394372 -0.62851846
-0 0 -0
-0 0 0
-0 0 0
-1.7490561 2.1697145 -0.91893017
-2.0091116 2.4923148 -0.88322234
-2.3458707 2.9100666 -0.82804734
-2.8232362 3.5022411 -0.7499615
-3.5438299 4.396142 -0.62938362
-3.6003172 4.4662147 -0.32042837
-0 0 0
-0 0 0
-1.7392485 2.1522205 -0.91241044
-2.0105402 2.4879284 -0.88252819
-2.350987 2.9092119 -0.82861185
-2.8242359 3.4948304 -0.74910474
-3.545891 4.3878374 -0.62880754
-3.6057112 4.4618611 -0.32042837
-3.5921423 4.4450707 0
-0 0 0
-1.7496253 2.159718 -0.91648448
-2.0151286 2.4874523 -0.88322234
-2.3560984 2.9083414 -0.82917416
-2.8268423 3.4894223 -0.74867713
-3.5544434 4.3875651 -0.62938362
-3.6209106 4.4696116 -0.32129893
-3.607337 4.4528561 0
-3.586488 4.4271207 0.31824443
-1.750677 2.1556854 -0.91567034
-2.0165467 2.4830625 -0.88252819
-2.3580105 2.903522 -0.82861185
-2.83429 3.4899857 -0.74953228
-3.5564845 4.3792553 -0.62880754
-0 0 -0
-3.5979502 4.4303141 0
-7.3920374 9.1021404 0.65495074
-1.7470387 2.1459017 -0.91241044
-2.0369701 2.5020268 -0.89014262
-2.367934 2.9085524 -0.83086336
-2.8433688 3.4925327 -0.75081658
-3.5650361 4.3789625 -0.62938362
-4.4847374 5.5086393 -0.39676756
-4.3574452 5.3522854 0
-7.411231 9.1032753 0.65567631
-1.7746346 2.1744266 -0.92544991
-2.0352316 2.493731 -0.88806552
-2.3730516 2.9076557 -0.83142573
-2.8427157 3.4831262 -0.74953228
-3.5670569 4.3706479 -0.62880754
-4.5373936 5.5595832 -0.40083146
-4.3523893 5.332901 0
-7.4419408 9.1184702 0.65741795
-1.7663037 2.1588881 -0.91974437
-2.0334818 2.4854505 -0.88599098
-2.36852 2.8949552 -0.82861185
-2.8485525 3.4816813 -0.7499615
-3.5690565 4.3623271 -0.62823045
-4.5161376 5.5199094 -0.39836422
-4.3571835 5.3256254 0
-7.4397902 9.0933828 0.65625685
-1.7704768 2.1586616 -0.92055851
-2.034888 2.4810462 -0.88529682
-2.3720162 2.8920913 -0.82861185
-2.8527575 3.4782369 -0.7499615
-3.5710475 4.3540154 -0.62765443
-4.5211577 5.5124412 -0.39821923
-4.3652639 5.3223672 0
-7.4573636 9.0924234 0.6568374
-1.7730838 2.1565208 -0.92055851
-2.0378845 2.4785857 -0.88529682
-2.3803456 2.8951054 -0.83029884
-2.8569582 3.4747875 -0.7499615
-3.5730176 4.3456979 -0.62707728
-4.5311122 5.5109849 -0.3985092
-4.3221102 5.2567849 0
-7.4452438 9.0553102 0.65480572
-1.7835529 2.1639185 -0.92463571
-2.0297129 2.4625754 -0.88045371
-2.3854628 2.8941934 -0.83086336
-2.8562548 3.4653881 -0.74867713
-3.5799158 4.343379 -0.62736636
-4.5328083 5.4994884 -0.39807367
-5.8363247 7.0809965 0
-10.872099 13.190715 0.95479357
-1.7767173 2.150326 -0.91974437
-2.0278916 2.4543173 -0.87837654
-2.380861 2.8815095 -0.82804734
-2.857173 3.4579802 -0.74782205
-3.583509 4.3370504 -0.62707728
-4.5311761 5.4839935 -0.39734811
-5.8299527 7.0558772 0
-10.921131 13.217631 0.95769632
-1.7556696 2.1196313 -0.9075222
-2.0404544 2.463454 -0.88252819
-2.3859665 2.8805931 -0.82861185
-2.8678927 3.4624257 -0.74953228
-3.5920498 4.3367052 -0.62765443
-4.5361433 5.4765153 -0.39720309
-5.8384738 7.0488276 0
-10.953667 13.224433 0.95914745
-1.7850695 2.149833 -0.92137587
-2.0386262 2.4552019 -0.88045371
-2.3894455 2.877708 -0.82861185
-2.8720744 3.4589579 -0.74953228
-3.5890274 4.3224139 -0.62621319
-4.5527139 5.4830213 -0.39807367
-5.9084988 7.115849 0
-7.6233706 9.1811399 0.66656131
-1.7718507 2.1286745 -0.91322464
-2.0383782 2.4488766 -0.87906808
-2.3896668 2.8709092 -0.82748497
-2.8664012 3.4436507 -0.74696529
-3.5992069 4.3240323 -0.62707728
-4.5477037 5.463542 -0.3970581
-0 0 0
-7.6394472 9.1779156 0.6669969
-1.7997575 2.1568956 -0.92626411
-2.0429478 2.4483438 -0.87976223
-2.3947601 2.8699687 -0.82804734
-2.8754957 3.4460998 -0.74824959
-3.6027734 4.3176961 -0.62678927
-4.5592918 5.4640226 -0.39749309
-0 0 0
-7.6372132 9.1527166 0.6658358
-1.7991939 2.1509314 -0.92463571
-2.0523369 2.4535632 -0.88252819
-2.394969 2.8631787 -0.82692266
-2.8813031 3.4445899 -0.74867713
-3.61131 4.3173113 -0.62736636
-4.5742311 5.4684811 -0.39821923
-0 0 0
-7.6449294 9.139492 0.66554523
-1.7877976 2.134685 -0.91811597
-2.0554345 2.4542518 -0.88322234
-2.3950684 2.8597853 -0.82636029
-2.8850303 3.4448147 -0.74910474
-3.6105931 4.3111591 -0.62678927
-4.5858746 5.4756751 -0.39894477
-0 0 0
-7.6504498 9.1348715 0.66554523
-1.7697172 2.1079171 -0.9075222
-2.0535574 2.4460003 -0.88114518
-2.4034188 2.8627217 -0.82804734
-2.8891904 3.4413261 -0.74910474
-3.6174612 4.3087721 -0.62707728
-4.5841351 5.4601812 -0.39821923
-5.9353938 7.0696707 0
-7.6564741 9.1196566 0.66511023
-1.780219 2.1152303 -0.91159624
-2.066201 2.4550302 -0.88529682
-2.4036069 2.855931 -0.82692266
-2.891695 3.4358704 -0.74867713
-3.621001 4.3024211 -0.62678927
-4.6007652 5.4665627 -0.39908978
-5.9271708 7.0425787 0
-7.6641383 9.1064186 0.66481966
-1.801899 2.135747 -0.92137587
-2.0610788 2.4429462 -0.88183671
-2.4103298 2.856905 -0.82804734
-2.890877 3.4264858 -0.74739283
-3.6195254 4.2901349 -0.6256361
-4.6140695 5.4689441 -0.39967033
-0 0 0
-7.6835122 9.1070795 0.66554523
-1.8012831 2.1297901 -0.91974437
-2.0737526 2.451951 -0.88599098
-2.4121408 2.8520525 -0.82748497
-2.8999898 3.4288723 -0.74867713
-3.6213694 4.2818127 -0.62506002
-4.6139622 5.4554286 -0.39908978
-0 0 0
-7.7247176 9.1335049 0.66815799
-1.7974617 2.1200712 -0.91648448
-2.0621138 2.4322231 -0.87976223
-2.412302 2.8452632 -0.82636029
-2.8941734 3.4136212 -0.7461102
-3.6282115 4.2794046 -0.62534809
-4.6356726 5.4676857 -0.4003959
-5.9038548 6.9634819 0
-7.7542276 9.1459608 0.66975415
-1.8128272 2.1329641 -0.92300421
-2.0569229 2.420166 -0.87629938
-2.4173822 2.8442807 -0.82692266
-2.9032786 3.4159842 -0.74739283
-3.6317062 4.2730484 -0.62506002
-4.6389136 5.4581242 -0.40010589
-5.8650799 6.9008255 0
-7.7921977 9.1682634 0.67207634
-1.791358 2.1025498 -0.91077894
-2.0712364 2.4310482 -0.88114518
-2.4158721 2.8355534 -0.82523346
-2.9090736 3.4144332 -0.74782205
-3.6385424 4.2706242 -0.62534809
-5.6009459 6.5739336 -0.48239565
-0 0 0
-7.8116941 9.1687288 0.67280191
-1.8131593 2.122937 -0.92055851
-2.0676551 2.420913 -0.87837654
-2.4242487 2.8384304 -0.82692266
-2.9148629 3.4128659 -0.74824959
-3.6437001 4.2662249 -0.62534809
-5.6021352 6.5592575 -0.4818151
-5.8901887 6.8965249 0
-7.8193951 9.1553354 0.67251194
-1.8205471 2.1263788 -0.92300421
-2.0836318 2.4336586 -0.88391387
-2.4276764 2.835499 -0.82692266
-2.9173164 3.4073932 -0.74782205
-3.6522133 4.2657447 -0.62592411
-5.6032968 6.5445881 -0.48123452
-5.9459095 6.944756 0
-7.8236923 9.1379852 0.67193133
-1.8054067 2.1035447 -0.91403884
-2.0816674 2.4254262 -0.88183671
-2.4294477 2.8306375 -0.82636029
-2.9180846 3.399966 -0.74696529
-3.6573651 4.2613282 -0.62592411
-5.6128912 6.539783 -0.48137954
-5.9254775 6.9039884 0
-7.8228798 9.1147203 0.67091525
-1.8282431 2.1197655 -0.92300421
-2.0891597 2.4222865 -0.88252819
-2.4296432 2.8170617 -0.82410872
-2.9212611 3.3870704 -0.74568099
-3.6592076 4.2426863 -0.62448293
-5.6184998 6.5143971 -0.48050898
-5.9897366 6.9448299 0
-6.008729 6.9668503 0.5138824
-1.8275732 2.1138191 -0.92137587
-2.0920849 2.4197605 -0.88252819
-2.4347055 2.8160441 -0.82467109
-2.9371057 3.3971336 -0.74867713
-3.6677179 4.2421789 -0.62506002
-5.6280651 6.5095673 -0.48065397
-6.0015311 6.9415283 0
-6.0222425 6.9654837 0.51431799
-1.8382182 2.1209462 -0.92544991
-2.0933657 2.4153366 -0.88183671
-2.4431005 2.8188624 -0.82636029
-2.9328036 3.3838847 -0.74653774
-3.6711421 4.2357836 -0.62477094
-5.6359262 6.5027623 -0.48065397
-5.9962783 6.9185386 0
-6.0272479 6.9542713 0.51402742
-1.8326761 2.1093965 -0.92137587
-2.1094458 2.4279561 -0.88737398
-2.4398386 2.8082359 -0.82410872
-2.9368901 3.3803384 -0.74653774
-3.6745629 4.229394 -0.62448293
-5.6369629 6.4881015 -0.48007342
-6.0114613 6.9191465 0
-6.0373554 6.9489503 0.51417297
-1.8189877 2.0885386 -0.91322464
-2.1057873 2.4178381 -0.88460535
-2.4432302 2.8052859 -0.82410872
-2.9426568 3.3787212 -0.74696529
-3.6813676 4.2268996 -0.62477094
-5.6379719 6.4734478 -0.47949287
-6.0369062 6.9314995 0
-6.0594001 6.9573264 0.51533407
-1.8166319 2.0807519 -0.91077894
-2.0889077 2.3926139 -0.87629938
-2.4516265 2.8080683 -0.82579577
-2.9433639 3.3712993 -0.7461102
-3.6881783 4.2244024 -0.62506002
-5.6440825 6.4646749 -0.47934785
-6.0486975 6.9281168 0
-6.0865955 6.9715252 0.51693022
-1.8337994 2.0952997 -0.91811597
-2.0984061 2.3976395 -0.87906808
-2.453346 2.8031938 -0.82523346
-2.9491243 3.3696702 -0.74653774
-3.6847579 4.2102056 -0.62361777
-5.6587348 6.465672 -0.47992843
-6.077632 6.944304 0
-6.110415 6.9817619 0.51823634
-1.8122573 2.0681632 -0.9067049
-2.1031642 2.4001486 -0.88045371
-2.4516931 2.7978926 -0.82410872
-2.9528496 3.3698168 -0.74696529
-3.6924164 4.2138162 -0.62448293
-5.6489401 6.4466176 -0.47876731
-6.0989809 6.9602079 0
-6.1266212 6.9917512 0.51925242
-1.8245449 2.077117 -0.91159624
-2.1027484 2.3938322 -0.87906808
-2.4550719 2.7949283 -0.82410872
-2.9552269 3.3643196 -0.74653774
-3.6957998 4.2074103 -0.62419492
-5.6567254 6.4397874 -0.47876731
-6.1417308 6.9919319 0
-6.1230593 6.9706755 0.51823634
-1.8270533 2.0749109 -0.91159624
-2.1122711 2.3988211 -0.88183671
-2.4550858 2.788142 -0.82298189
-2.9609847 3.3626711 -0.74696529
-3.6991735 4.2010021 -0.62390685
-5.6645026 6.4329476 -0.47876731
-6.1587787 6.994277 0
-6.1297617 6.9613237 0.51809132
-1.8344612 2.0782554 -0.91403884
-2.1035511 2.3831065 -0.87699354
-2.4651787 2.7927933 -0.82523346
-2.9599476 3.3533154 -0.74568099
-3.6991103 4.1907105 -0.62304175
-5.6705532 6.4241519 -0.47862232
-6.182724 7.0043888 0
-6.1381688 6.9539123 0.51809132
-1.8336985 2.0723388 -0.91241044
-2.103101 2.3768017 -0.87560791
-2.4668694 2.7879114 -0.82467109
-2.9622977 3.3478158 -0.74525344
-3.7093148 4.1920505 -0.62390685
-5.6662564 6.4036717 -0.47760618
-6.2273979 7.0378408 0
-6.1362386 6.9348178 0.51722074
-1.8427615 2.0775177 -0.91567034
-2.1159632 2.3855236 -0.87976223
-2.4651763 2.7792244 -0.82298189
-2.9714527 3.349997 -0.74653774
-3.7160921 4.1894989 -0.62419492
-5.6826096 6.406538 -0.47833174
-6.2531633 7.049777 0
-6.1446133 6.9273982 0.51722074
-1.8469112 2.0771348 -0.91648448
-2.118844 2.3829651 -0.87976223
-2.4752862 2.783839 -0.82523346
-2.9703794 3.3406472 -0.74525344
-3.7108362 4.1734042 -0.6224646
-5.6851649 6.3938398 -0.47789618
-6.2772393 7.0597181 0
-6.1495228 6.9160814 0.51693022
-1.8313344 2.0546114 -0.9075222
-2.1100352 2.3672917 -0.87491643
-2.4769592 2.7789509 -0.82467109
-2.9727073 3.3351412 -0.74482584
-3.721041 4.1747117 -0.62332976
-5.6894321 6.38309 -0.47760618
-6.3065448 7.0754414 0
-6.156148 6.9067078 0.5167852
-1.8403964 2.0597622 -0.91077894
-2.1162341 2.3684783 -0.87629938
-2.4769258 2.7721629 -0.82354426
-2.9784439 3.3334591 -0.74525344
-3.7260826 4.1702127 -0.62332976
-5.6884856 6.3665242 -0.47688064
-6.3046889 7.0561757 0
-6.1644888 6.8992643 0.5167852
-1.8577297 2.0741122 -0.91811597
-2.1207728 2.3677938 -0.87699354
-2.4802737 2.7691681 -0.82354426
-2.9773297 3.3241193 -0.74396908
-3.7328427 4.1676321 -0.62361777
-5.6961741 6.3596463 -0.47688064
-6.3305702 7.0679345 0
-6.1624222 6.8802009 0.51591462
-1.8701388 2.0828969 -0.92300421
-2.1269813 2.3689594 -0.87837654
-2.4785302 2.7605026 -0.82185721
-2.9933507 3.3338921 -0.74696529
-3.7378757 4.1631188 -0.62361777
-5.6951761 6.3430934 -0.47615507
-6.3304143 7.0505996 0
-6.1464238 6.8456779 0.5138824
-1.844547 2.0494068 -0.9091506
-2.1281655 2.3645246 -0.87768507
-2.4886632 2.7650602 -0.82410872
-2.9836385 3.3150084 -0.74354154
-3.7377174 4.1528373 -0.62275374
-5.7028365 6.3362074 -0.47615507
-6.3354435 7.039073 0
-0 0 0
-1.8569528 2.0581837 -0.91403884
-2.131021 2.3619514 -0.87768507
-2.4868946 2.7563896 -0.82241952
-2.997963 3.3228405 -0.7461102
-3.739264 4.1444736 -0.62217659
-5.7122273 6.3312392 -0.47630006
-6.3456926 7.0333505 0
-6.0567784 6.7131276 0.50502962
-1.8461816 2.0412805 -0.9075222
-2.1271422 2.351932 -0.87491643
-2.4936287 2.757148 -0.82354426
-2.9950879 3.3116 -0.7443983
-3.7477422 4.1437926 -0.62275374
-5.718132 6.3224072 -0.47615507
-6.3472037 7.0179572 0
-6.0596547 6.7000213 0.50459403
-1.8469819 2.0372119 -0.9067049
-2.1367226 2.3567946 -0.87768507
-2.4969585 2.754133 -0.82354426
-3.0042548 3.3136785 -0.74568099
-3.7440617 4.1296821 -0.6213125
-5.7135487 6.3020163 -0.47513896
-6.3626709 7.0179949 0
-6.153264 6.7870202 0.51170576
-1.8511091 2.0368133 -0.9075222
-2.1361909 2.3504944 -0.87629938
-2.4968698 2.7473567 -0.82241952
-3.0065317 3.3081481 -0.74525344
-3.7542627 4.1308918 -0.62217659
-5.7264037 6.3008785 -0.47557452
-6.3536391 6.9910388 0
-6.1999049 6.8218818 0.51489854
-1.8435786 2.0236089 -0.90263087
-2.1407239 2.3497715 -0.87699354
-2.5001876 2.7443378 -0.82241952
-3.0087998 3.3026171 -0.74482584
-3.7575111 4.1244421 -0.62188858
-5.7252579 6.2843447 -0.47484839
-6.362082 6.9833565 0
-6.2098918 6.8163042 0.51504356
-1.8743552 2.0524042 -0.91648448
-2.1350977 2.3379152 -0.87353075
-2.5000782 2.737566 -0.82129484
-3.017983 3.3046677 -0.7461102
-3.7607493 4.117991 -0.62160057
-5.7363553 6.2812638 -0.47513896
-6.368762 6.9737439 0
-6.2181234 6.8087959 0.51504356
-1.8801749 2.0537875 -0.91811597
-2.168417 2.3686454 -0.88599098
-2.5085263 2.7401602 -0.82298189
-3.0150404 3.2934446 -0.7443983
-3.7639778 4.1115379 -0.6213125
-5.740428 6.2704906 -0.47484839
-6.3824573 6.9718041 0
-6.2175746 6.7916965 0.51431799
-1.8730603 2.0435357 -0.91403884
-2.1478124 2.3432941 -0.87699354
-2.5067511 2.7349014 -0.82185721
-3.013557 3.2878342 -0.74354154
-3.7734449 4.1168828 -0.6224646
-5.7407074 6.2631941 -0.47455841
-6.3778706 6.9583488 0
-6.2216768 6.7879386 0.51431799
-1.8755282 2.041271 -0.91403884
-2.1421504 2.331455 -0.87353075
-2.5100539 2.7318707 -0.82185721
-3.0262101 3.2936401 -0.74568099
-3.7801716 4.1142302 -0.62275374
-5.7394824 6.2466879 -0.47383285
-6.3827558 6.9468083 0
-6.2333865 6.7842393 0.51460797
-1.8830183 2.0444591 -0.91648448
-2.1517644 2.3362463 -0.87629938
-2.5150726 2.7307029 -0.82241952
-3.0214937 3.2805419 -0.74354154
-3.7746232 4.0982413 -0.62102342
-5.7505431 6.243567 -0.47412285
-6.3840923 6.9314337 0
-6.2292619 6.763329 0.51359242
-1.8636925 2.0185764 -0.9058907
-2.1545856 2.3336444 -0.87629938
-2.5200922 2.729527 -0.82298189
-3.0237157 3.2750044 -0.74311399
-3.7778194 4.0917788 -0.62073541
-5.7545614 6.2327995 -0.47383285
-6.3854012 6.9160662 0
-6.2374296 6.7557974 0.51359242
-1.8711684 2.0217667 -0.9083364
-2.1625175 2.3365648 -0.87837654
-2.5251129 2.728343 -0.82354426
-3.0398779 3.2845383 -0.7461102
-3.7810056 4.0853143 -0.6204474
-5.760325 6.2239366 -0.47368783
-6.4008245 6.9159856 0
-6.2420549 6.7444377 0.51330185
-1.8887374 2.0358098 -0.91567034
-2.1551049 2.3229187 -0.8742249
-2.5232282 2.719707 -0.82185721
-3.0316212 3.2676878 -0.74311399
-3.7947333 4.0902219 -0.62188858
-5.7696066 6.2188749 -0.47383285
-6.3967843 6.8948894 0
-6.2466683 6.7330842 0.51301187
-1.8743671 2.0154307 -0.9075222
-2.1613238 2.3239837 -0.87560791
-2.5282414 2.7185152 -0.82241952
-3.0268281 3.2546251 -0.74097455
-3.7908671 4.0761652 -0.6204474
-5.7700386 6.204288 -0.4732523
-6.4051108 6.8871551 0
-6.2565675 6.7274327 0.51315683
-1.8936516 2.0312395 -0.91567034
-2.1624212 2.3195372 -0.87491643
-2.5263247 2.7098808 -0.82073033
-3.034256 3.2547171 -0.74182969
-3.7940276 4.0696917 -0.62015933
-5.773984 6.1935062 -0.47296172
-6.4063292 6.8717966 0
-6.2593741 6.7141643 0.5127213
-1.8758538 2.0072801 -0.9058907
-2.1720741 2.3242545 -0.87768507
-2.5330703 2.7105427 -0.82185721
-3.0434463 3.2566769 -0.74311399
-3.8007066 4.0669923 -0.6204474
-5.7761459 6.1808352 -0.47252673
-6.4093022 6.8583517 0
-6.2657099 6.7046995 0.51257628
-1.8749015 2.0014081 -0.90426236
-2.1645868 2.3106394 -0.87353075
-2.538079 2.7093325 -0.82241952
-3.0456259 3.2511253 -0.74268645
-3.8109245 4.0680618 -0.6213125
-5.7889342 6.1795349 -0.47296172
-6.4175844 6.8506026 0
-6.2720318 6.6952291 0.51243132
-1.9026926 2.0261617 -0.91648448
-2.1656613 2.3061953 -0.87283927
-2.5378754 2.7025628 -0.82129484
-3.0460341 3.2436967 -0.74182969
-3.8087549 4.055912 -0.62015933
-5.7857275 6.1611743 -0.47209117
-6.4205112 6.8371496 0
-6.280117 6.6876454 0.51243132
-1.898363 2.0166626 -0.91322464
-2.1753247 2.3108838 -0.87560791
-2.5428791 2.7013428 -0.82185721
-3.0587473 3.2493579 -0.74396908
-3.8189664 4.0569515 -0.62102342
-5.782485 6.1428299 -0.47122061
-6.437685 6.83886 0
-6.2810693 6.6724844 0.51185071
-1.9058888 2.0197618 -0.91567034
-2.1695082 2.2991319 -0.87214774
-2.5496256 2.7019608 -0.82298189
-3.055624 3.2381916 -0.74225724
-3.8238657 4.0523343 -0.62102342
-5.7970295 6.1433907 -0.4718006
-6.4405909 6.8254032 0
-6.2909088 6.6667781 0.51199573
-1.8930435 2.0012991 -0.9083364
-2.1843541 2.3092687 -0.87699354
-2.5424154 2.6878061 -0.81960565
-3.0560098 3.2307708 -0.74140215
-3.8145401 4.0326786 -0.61871707
-5.7973127 6.1288381 -0.47122061
-6.4309459 6.7987056 0
-6.2900333 6.649735 0.51127017
-1.8903568 1.9936279 -0.9058907
-2.1785069 2.2975199 -0.87353075
-2.5509079 2.6902652 -0.82129484
-3.0669765 3.2345271 -0.74311399
-3.8300915 4.0393314 -0.6204474
-5.8047142 6.1218286 -0.47122061
-6.4409447 6.7928171 0
-6.2944913 6.6383624 0.51098019
-1.9080877 2.0074639 -0.91322464
-2.1985686 2.3130734 -0.88045371
-2.5524011 2.685334 -0.82073033
-3.067342 3.2270939 -0.74225724
-3.8260615 4.0253286 -0.61900616
-5.8121071 6.1148105 -0.47122061
-6.4366026 6.7718306 0
-6.3060846 6.6345148 0.51127017
-1.9019889 1.9962115 -0.9091506
-2.1927106 2.3013353 -0.87699354
-2.5574017 2.6840928 -0.82129484
-3.074784 3.2271059 -0.74311399
-3.8416243 4.0319343 -0.62073541
-5.8123217 6.1002584 -0.47064006
-6.4483671 6.7678127 0
-6.3087173 6.6212449 0.51083463
-1.9180564 2.0082107 -0.91567034
-2.2006831 2.3041217 -0.87906808
-2.5553765 2.6754866 -0.81960565
-3.0769098 3.2215335 -0.74268645
-3.8393474 4.0198078 -0.61958224
-5.8214812 6.095108 -0.47078505
-6.4385681 6.7412 0
-6.3167133 6.6136174 0.51083463
-1.9153521 2.0005341 -0.91322464
-2.1982658 2.2960298 -0.87699354
-2.5638807 2.6779048 -0.82129484
-3.0790198 3.2159538 -0.74225724
-3.8495696 4.0207725 -0.6204474
-5.8234491 6.082437 -0.47034949
-6.4341087 6.7202544 0
-6.319314 6.6003547 0.51039964
-1.9268256 2.0100853 -0.91811597
-2.2013869 2.2965107 -0.87768507
-2.5707679 2.6818528 -0.82298189
-3.0756381 3.208539 -0.74097455
-3.8466268 4.0128427 -0.61958224
-5.8343153 6.0864205 -0.47093004
-6.443572 6.7220044 0
-6.3214974 6.5946546 0.51025409
-1.9001422 1.9774604 -0.90426236
-2.2076333 2.2974634 -0.87906808
-2.5634468 2.6677554 -0.81960565
-3.0866272 3.2122242 -0.74268645
-3.8550603 4.0119257 -0.62015933
-4.9271173 5.127605 -0.39720309
-6.4516897 6.7142134 0
-6.3258638 6.5832677 0.50996405
-1.9128149 1.9858402 -0.9091506
-2.1964843 2.2803392 -0.87353075
-2.5666685 2.6646559 -0.81960565
-3.0887203 3.2066383 -0.74225724
-3.8509283 3.9979448 -0.61871707
-0 0 -0
-4.9469028 5.1357603 0
-6.3284039 6.570003 0.50952852
-1.9289473 1.9977518 -0.91567034
-2.2044675 2.2830997 -0.87560791
-2.5698862 2.6615527 -0.81960565
-3.0872486 3.1973689 -0.74097455
-3.857558 3.9951549 -0.61900616
-0 0 -0
-0 0 0
-4.9718957 5.1492405 0.39980865
-1.9124497 1.9758823 -0.9067049
-2.2107174 2.2840431 -0.87699354
-2.5731003 2.6584456 -0.81960565
-3.0803943 3.1825655 -0.73840594
-3.867774 3.9960611 -0.61987025
-0 0 -0
-0 0 0
-4.987155 5.1525702 0.40053475
-1.9182813 1.9771212 -0.9083364
-2.2082331 2.2759669 -0.87491643
-2.5798459 2.6589782 -0.82073033
-3.0913877 3.1862106 -0.74011779
-3.8653951 3.9839594 -0.61871707
-4.993454 5.1466193 -0.40054089
-0 0 0
-5.0078459 5.1614528 0.40169531
-1.9275618 1.9818891 -0.91159624
-2.2144766 2.2768903 -0.87629938
-2.5830569 2.655859 -0.82073033
-3.1041827 3.1916723 -0.74225724
-3.8720148 3.9811454 -0.61900616
-4.9779358 5.1182361 -0.39879978
-0 0 0
-5.003212 5.1442251 0.40082476
-1.940304 1.9901735 -0.91648448
-2.2049718 2.2616439 -0.87145627
-2.5809481 2.6472831 -0.81904334
-3.108037 3.1879191 -0.74225724
-3.8696001 3.9690559 -0.61785305
-4.9822974 5.1103516 -0.39865422
-4.9796553 5.1076417 0
-5.0003567 5.1288748 0.40009919
-1.9254355 1.9701546 -0.9083364
-2.2252345 2.2769165 -0.87837654
-2.5841448 2.6441627 -0.81904334
-3.0975397 3.1694813 -0.73883516
-3.8761992 3.9662254 -0.61814106
-5.8856111 6.0223069 -0.47034949
-4.9840059 5.0997615 0
-6.3613396 6.5090842 0.50836742
-1.9433799 1.9837149 -0.91567034
-2.2209616 2.2670577 -0.87560791
-2.5891144 2.6428516 -0.81960565
-3.101367 3.1657362 -0.73883516
-3.882797 3.9633849 -0.61842906
-5.8819766 6.0040574 -0.46947894
-6.4816842 6.6162124 0
-6.3710165 6.5032473 0.50851238
-1.9509724 1.9866573 -0.91811597
-2.2149117 2.2554243 -0.87214774
-2.5923059 2.6397212 -0.81960565
-3.1033862 3.1601496 -0.73840594
-3.8893936 3.9605339 -0.61871707
-5.8673792 5.9746985 -0.46773726
-6.4787364 6.5972381 0
-6.371594 6.4881358 0.50793236
-1.9395002 1.9702076 -0.91159624
-2.2299569 2.2652631 -0.87699354
-2.5990551 2.6402051 -0.82073033
-3.1072023 3.1563973 -0.73840594
-3.8941765 3.9558315 -0.61871707
-5.8800645 5.9731617 -0.46817282
-6.5104361 6.6135135 0
-6.3757796 6.4767251 0.50764185
-1.9505579 1.9766573 -0.91567034
-2.2362134 2.266135 -0.87837654
-2.5986774 2.6334491 -0.81960565
-3.1218359 3.1636076 -0.74097455
-3.9007754 3.9529696 -0.61900616
-5.8781466 5.956799 -0.46744671
-6.5220819 6.6093507 0
-6.3872547 6.4727192 0.50793236
-1.9529449 1.974299 -0.91567034
-2.2301302 2.2545149 -0.87491643
-2.6000724 2.6285024 -0.81904334
-3.1184349 3.1525328 -0.7392627
-3.9037247 3.9464092 -0.61871707
-5.8871727 5.9515448 -0.46759227
-6.5300632 6.6014652 0
-6.3895869 6.4594526 0.50749683
-1.9553291 1.9719378 -0.91567034
-2.2346175 2.2535985 -0.87560791
-2.6050339 2.6271613 -0.81960565
-3.1276662 3.154233 -0.740547
-3.9030321 3.9361849 -0.61785305
-5.9016781 5.9518075 -0.46817282
-6.5307055 6.5861778 0
-6.3992152 6.4535708 0.50764185
-1.9542221 1.9660645 -0.91403884
-2.2373388 2.2508967 -0.87560791
-2.6082063 2.6240118 -0.81960565
-3.1278522 3.1468067 -0.73969024
-3.9096069 3.9332986 -0.61814106
-5.897871 5.9336109 -0.4673017
-6.527647 6.5672035 0
-6.3996811 6.4384623 0.5070613
-1.9565964 1.9637017 -0.91403884
-2.2276599 2.2357497 -0.87076211
-2.6113751 2.6208582 -0.81960565
-3.1352797 3.1466653 -0.740547
-3.9088781 3.9230733 -0.61727589
-5.905036 5.9264803 -0.4673017
-6.5466022 6.5703764 0
-6.4001198 6.4233623 0.50648069
-1.9572227 1.959589 -0.91322464
-2.2374513 2.2401567 -0.87353075
-2.612746 2.615905 -0.81904334
-3.1372602 3.1410532 -0.74011779
-3.9136155 3.9183474 -0.61727589
-5.9048476 5.9119868 -0.46672115
-6.5361419 6.5440445 0
-6.4060421 6.4137874 0.50633574
-1.9461966 1.9391545 -0.9058907
