# .PCD v0.7 - Point Cloud Data file format
VERSION 0.7
FIELDS x y z
SIZE 4 4 4
TYPE F F F
COUNT 1 1 1
WIDTH 1555
HEIGHT 1
VIEWPOINT 0 0 0 1 0 0 0
POINTS 1555
DATA ascii
1.0270669 7.6817737 0
1.2484889 9.337862 0.52621859
0.75735766 5.690701 -0.95708615
0.92849422 6.9766016 -0.78447664
0.90248293 6.7811561 -0.38210917
1.0196791 7.6617551 0
1.2394198 9.3128624 0.52476746
0.75148809 5.6992493 -0.95837045
0.91127318 6.9110518 -0.77698159
0.89292985 6.7719369 -0.38152859
1.0076989 7.6423402 0
1.2268075 9.3040485 0.52418691
0.74293888 5.6874285 -0.956231
0.89756149 6.8711128 -0.77236891
0.88340032 6.7627048 -0.38094804
1.0014974 7.6667747 0
1.2145544 9.2977924 0.52375132
0.73507756 5.6806822 -0.9549467
0.8859399 6.8465462 -0.76948655
0.87356132 6.750885 -0.38022247
0.99356884 7.6783032 0
1.2023195 9.2915297 0.52331632
0.72853911 5.6841097 -0.95537424
0.87306362 6.8116999 -0.76545095
0.86276078 6.7313166 -0.37906137
0.98263639 7.6665936 0
1.1894389 9.2800808 0.52259022
0.72102451 5.6798978 -0.95451915
0.86222661 6.7922225 -0.76314461
0.85397285 6.7272034 -0.37877136
0.96812826 7.6264668 0
1.177898 9.2789364 0.5224452
0.71448082 5.6833091 -0.9549467
0.85111558 6.7701654 -0.76055026
0.8455199 6.7256546 -0.37862638
0.96443069 7.6715255 0
1.1663616 9.2777767 0.52230024
0.70729631 5.6816235 -0.95451915
0.83718383 6.7249937 -0.75536156
0.83835477 6.7343998 -0.37906137
0.94937408 7.626204 0
1.1541871 9.2714415 0.52186465
0.70043063 5.6824741 -0.95451915
0.82968956 6.7311296 -0.75593758
0.8295818 6.7302547 -0.37877136
0.94302368 7.6505899 0
1.1423483 9.2676764 0.52157468
0.68546474 5.6739559 -0.95280725
0.81155998 6.7177129 -0.75420839
0 0 -0
0.92234844 7.634768 0
1.1193248 9.2652454 0.5212841
0.67799819 5.6696773 -0.95195049
0.80528444 6.7340927 -0.75593758
0 0 -0
0.91188657 7.6255403 0
1.1078205 9.2640133 0.52113909
0.67114699 5.6704922 -0.95195049
0.79653955 6.729929 -0.75536156
0 0 -0
0.90175396 7.6188807 0
1.0960157 9.26019 0.52084911
0.66369814 5.6662049 -0.9510954
0.78900844 6.7360191 -0.75593758
0.78799868 6.7273989 -0.3783358
0.89496952 7.6406436 0
1.0848258 9.261507 0.52084911
0.65507716 5.6516976 -0.9485268
0.78503728 6.7729325 -0.75997317
0.78016829 6.7309251 -0.37848079
0.88483745 7.6339612 0
1.0733342 9.2602224 0.52070355
0.64912546 5.6601386 -0.9498111
0.78245246 6.8227019 -0.76545095
0.77440315 6.7525148 -0.37964192
0.87917089 7.6660514 0
1.0621443 9.2615128 0.52070355
0.64228582 5.6609187 -0.9498111
0.78003979 6.8750424 -0.77121681
0.76624352 6.7534456 -0.37964192
0.86609346 7.6334939 0
0 0 0
0.63429993 5.6514864 -0.9480992
0.7772125 6.924809 -0.77669352
0.75779319 6.7517867 -0.37949693
0.85570812 7.6241899 0
1.0394702 9.2614727 0.52055854
0.62662184 5.6446018 -0.94681656
0.77141279 6.9488769 -0.77928793
0.75049478 6.760448 -0.37993249
0.84563345 7.617456 0
0 0 0
0.61980098 5.6453552 -0.94681656
0.76442695 6.9626565 -0.78072912
0.74345988 6.7716813 -0.38051304
1.0301204 9.3826809 0
0 0 0
0.61380965 5.6537485 -0.9480992
0.75740999 6.9764395 -0.78217137
0.73443544 6.7648225 -0.38007748
1.0190642 9.3865137 0
1.0036477 9.2445135 0.51939744
0.60533434 5.6391768 -0.94553226
0.74980718 6.9850574 -0.78303546
0.72459745 6.7502084 -0.37920693
1.0088327 9.3980885 0
0.9927538 9.2483006 0.51954246
0.59933305 5.6475649 -0.94681656
0.74191296 6.991107 -0.78361255
0.71726245 6.7588234 -0.37964192
0.99500477 9.3760118 0
0.98103046 9.2443304 0.51925242
0.59170491 5.6406231 -0.94553226
0.7321161 6.9791389 -0.78217137
0.71072233 6.7751956 -0.38051304
0.98503226 9.3901463 0
0.97148579 9.2610102 0.520123
0.58749795 5.6333175 -0.9442479
0.72655725 6.9667101 -0.78072912
0.70689821 6.7782059 -0.38065803
0.97854888 9.3829718 0
0.96589053 9.2615948 0.520123
0.58095366 5.6365743 -0.94467551
0.71575248 6.9444294 -0.77813476
0.69870752 6.7790551 -0.38065803
0.96614337 9.3737917 0
0.95523232 9.26793 0.52041358
0.5728423 5.6245055 -0.94253606
0.80903959 7.9436307 -0.88998663
0.69920397 6.8651991 -0.3854475
0.95718926 9.3982525 0
0.94350606 9.2639027 0.520123
0.56758833 5.6405234 -0.94510466
0.80073524 7.9574671 -0.89142781
0.68986756 6.8556976 -0.38486695
0.94583261 9.3994017 0
0.93309253 9.2727947 0.52055854
0.56077248 5.6412048 -0.94510466
0.78958499 7.9429913 -0.88969862
0.6833818 6.8746185 -0.3858825
0.93524718 9.408309 0
0.9226588 9.2816744 0.52099413
0.5537042 5.6393166 -0.94467551
0.78074437 7.9516544 -0.89056271
0.67278969 6.8521676 -0.38457638
0.92362434 9.4068451 0
0.91144305 9.2827826 0.52099413
0.54639477 5.6348758 -0.94382036
0.77113575 7.9525919 -0.89056271
0.66476125 6.8555694 -0.38472193
0.91200542 9.4053564 0
0.89972389 9.2786999 0.52070355
0.53909588 5.6304164 -0.9429636
0.76127976 7.9509454 -0.89027464
0.65697199 6.861536 -0.38501194
0.90163237 9.4168139 0
0.88975078 9.2927208 0.52142966
0.53277588 5.6361799 -0.94382036
0.75288886 7.9647322 -0.89171588
0.64843637 6.8597403 -0.38486695
0.890499 9.420495 0
0.87901032 9.2989578 0.52171969
0.52596527 5.6368194 -0.94382036
0.7432645 7.9656363 -0.89171588
0.63869834 6.8449907 -0.38399583
0.87814838 9.4111996 0
0.86729133 9.2948437 0.52142966
0.51938903 5.6400046 -0.9442479
0.73363906 7.9665284 -0.89171588
0.63209522 6.8638725 -0.38501194
0.86534375 9.396699 0
0.85725087 9.3088198 0.52215523
0.51187664 5.632956 -0.9429636
0.72377867 7.9648356 -0.89142781
0.8528316 9.3850012 -0.52637029
0.69125122 7.6068869 0
0.84576654 9.3072538 0.52200967
0.50461197 5.6284618 -0.94210851
0.71438491 7.9682779 -0.89171588
0.84195554 9.3912058 -0.5266608
0.68252361 7.612896 0
0.83405632 9.3030977 0.52171969
0.49781069 5.6290674 -0.94210851
0.70521241 7.9742932 -0.89229298
0.83083618 9.3948021 -0.52680582
0.67194933 7.5981655 0
0.8241877 9.3196239 0.52259022
0.49056217 5.6245451 -0.94125175
0.69580108 7.9777136 -0.89258099
0 0 -0
0.66028029 7.5704503 0
0.81292617 9.3206129 0.52259022
0.48420599 5.6302543 -0.94210851
0.68616104 7.9785485 -0.89258099
0 0 -0
0.81770045 9.5080633 0
0.8016634 9.3215885 0.52259022
0.4771859 5.6282797 -0.94168097
0.67673832 7.9819465 -0.89286906
0 0 -0
0.80467194 9.4908895 0
0.79171705 9.3380899 0.52346134
0.47123998 5.6390848 -0.94339281
0.66709322 7.9827585 -0.89286906
0 0 -0
0.79320347 9.4918547 0
0.77956766 9.3286819 0.52288079
0.46337187 5.6268506 -0.94125175
0.65766001 7.9861441 -0.89315814
0.77299637 9.3867044 -0.52608025
0.78152049 9.4902153 0
0.76936132 9.3425627 0.52360636
0.45678079 5.6299725 -0.94168097
0.64759111 7.9817719 -0.89258099
0.76123315 9.3824472 -0.52578968
0.76794863 9.4652176 0
0.75807208 9.3434858 0.52360636
0.45038635 5.635633 -0.94253606
0.63856459 7.9902859 -0.89344615
0.75031012 9.388545 -0.52608025
0.75734049 9.4765158 0
0.74678177 9.3443947 0.52360636
0.44277081 5.6259365 -0.94082421
0.62890941 7.9910517 -0.89344615
0.73835355 9.381671 -0.52564472
0.74629742 9.4826078 0
0.7361021 9.3530645 0.52404189
0.4387728 5.6185327 -0.93954152
0.62428266 7.9940062 -0.89373416
0.73228121 9.3769398 -0.52535468
0.73975784 9.4726782 0
0.73146266 9.3664579 0.52476746
0.43296725 5.6318536 -0.94168097
0.61541605 8.0050697 -0.89488733
0.72055173 9.3726311 -0.52506417
0.72950876 9.4891396 0
0.71954685 9.35956 0.52433187
0.42558071 5.624691 -0.94039661
0.60554808 8.003231 -0.89459932
0.70922625 9.3734941 -0.52506417
0.71804243 9.4900141 0
0.70882547 9.3681984 0.52476746
0.41935599 5.6328835 -0.94168097
0.59664541 8.0142746 -0.89575249
0.69751424 9.3691673 -0.52477413
0.70696115 9.4960604 0
0.69769806 9.3716364 0.52491248
0.41236141 5.6308188 -0.94125175
0.58714998 8.0175667 -0.8960405
0.68638247 9.372592 -0.52491915
0.6962468 9.5072899 0
0.68656337 9.375062 0.52505744
0.40518892 5.6261969 -0.94039661
0.5774619 8.0182705 -0.8960405
0.67449689 9.3656368 -0.52448356
0.68457186 9.5055313 0
0.67579508 9.3836622 0.52549303
0.39875275 5.6317987 -0.94125175
0.56777298 8.0189619 -0.8960405
0.66299653 9.3638554 -0.5243386
0.67363667 9.5141315 0
0.66463959 9.3870611 0.52563798
0.39176947 5.6297178 -0.94082421
0.558442 8.0247974 -0.89661658
0.65132123 9.3594704 -0.52404857
0.66232139 9.5175428 0
0.65437937 9.4034157 0.52650911
0.38531736 5.6353145 -0.94168097
0.54927468 8.0332108 -0.89748168
0.64018875 9.3628407 -0.52419358
0.65188569 9.5339098 0
0.64213055 9.3912401 0.5257836
0.37799165 5.6280894 -0.94039661
0.53991467 8.0390348 -0.89805883
0.6276561 9.3454561 -0.52317744
0.64106292 9.5450764 0
0.63200098 9.4101496 0.52679914
0.37152848 5.6336603 -0.94125175
0.53003001 8.0370932 -0.89776975
0.61670578 9.3513985 -0.52346802
0.62850189 9.5302687 0
0.62028855 9.4057255 0.52650911
0.36488733 5.6366739 -0.94168097
0.52148807 8.0557976 -0.89978802
0.60607743 9.3625088 -0.52404857
0.61715388 9.5336151 0
0.60959452 9.4168406 0.52708972
0.35840139 5.6422296 -0.94253606
0.51077038 8.0409393 -0.89805883
0.50729966 7.9863005 -0.44698328
0.6069538 9.5551319 0
0.59903914 9.4305344 0.52781522
0.35110453 5.6349697 -0.94125175
0.50073212 8.0363827 -0.89748168
0.49781084 7.9894986 -0.4471283
0.59427476 9.537674 0
0.58715886 9.4234676 0.52737969
0.34492168 5.6456394 -0.9429636
0.49196801 8.0524769 -0.899212
0.48863226 7.9978776 -0.44756386
0.5832262 9.5461807 0
0.57561368 9.4215794 0.52723467
0.3376399 5.6383719 -0.94168097
0.48177382 8.0453167 -0.89834684
0.48114225 8.03477 -0.44959551
0.57184649 9.5494738 0
0.5650056 9.435235 0.52796024
0.33082676 5.6387758 -0.94168097
0.47174901 8.0407248 -0.89776975
0.4731077 8.0638819 -0.4511922
0.56076485 9.5579538 0
0.55360454 9.4359102 0.52796024
0.32401317 5.6391711 -0.94168097
0.4618848 8.0387087 -0.89748168
0.46858019 8.1552362 -0.45627165
0.55011094 9.5742092 0
0.5423516 9.4391642 0.52810526
0.31734312 5.6421194 -0.94210851
0.45173538 8.0315113 -0.89661658
0.46091479 8.1947145 -0.45844889
0.53883457 9.5800686 0
0.5312379 9.4450064 0.52839583
0.30996123 5.632246 -0.94039661
0.44160455 8.0243111 -0.89575249
0.45229769 8.2186136 -0.459755
0.52654308 9.5677118 0
0.52011037 9.4508257 0.52868581
0.3028799 5.6274943 -0.93954152
0.43232504 8.0325794 -0.89661658
0.44348395 8.239912 -0.46091613
0.51568168 9.5813427 0
0.508551 9.4488544 0.52854079
0.29715836 5.6483545 -0.9429636
0.42275521 8.0356865 -0.89690566
0.43229881 8.2170906 -0.45961002
0.50410414 9.5819588 0
0.497816 9.4624338 0.52926636
0.29267979 5.6280341 -0.93954152
0.41857183 8.0488529 -0.89834684
0.42504039 8.1732388 -0.45714277
0.49926081 9.6004467 0
0.4922345 9.4653358 0.52941191
0.28600931 5.6309452 -0.93996906
0.4085834 8.0441818 -0.89776975
0.41358256 8.1426048 -0.45540109
0.4876602 9.6010437 0
0.4818511 9.4866743 0.53057247
0.2788237 5.6235924 -0.93868476
0.39886329 8.0446692 -0.89776975
0.40129855 8.0937862 -0.45264331
0.47541457 9.5886316 0
0.46987328 9.4768686 0.52999192
0.27202851 5.6239252 -0.93868476
0.38964245 8.055479 -0.89892286
0.38536766 7.9671021 -0.44553217
0.46420559 9.5970001 0
0.45892414 9.4878111 0.53057247
0.26547498 5.6293831 -0.93954152
0.38003087 8.0585356 -0.899212
0.37182376 7.8845038 -0.44088772
0.4519963 9.5845585 0
0.44758239 9.490962 0.53071803
0.25175512 5.6274362 -0.93911231
0.36090189 8.067174 -0.90007603
0.34858868 7.7919388 -0.43566325
0.42987955 9.6090193 0
0.42534173 9.5075855 0.53158861
0.24439724 5.6149154 -0.93697292
0.35092929 8.0624409 -0.89950001
0.3383823 7.7741799 -0.43464714
0.41883436 9.622529 0
0.41396624 9.5106859 0.53173357
0.23815508 5.6280284 -0.93911231
0.34151492 8.0706043 -0.9003641
0.32832953 7.7590113 -0.43377659
0.4072071 9.6230278 0
0.40225461 9.5059919 0.5314436
0.23135453 5.6283116 -0.93911231
0.33197558 8.0761852 -0.90094119
0.31788665 7.7334347 -0.43232492
0.39568603 9.626111 0
0.3908748 9.5090647 0.53158861
0.22455364 5.6285872 -0.93911231
0.32221684 8.07658 -0.90094119
0.30812773 7.7234278 -0.43174434
0.38405448 9.6265821 0
0.37979901 9.5199156 0.53216916
0.21745503 5.6211662 -0.93782967
0.31215757 8.0692072 -0.90007603
0.29769066 7.69524 -0.43014821
0.37272426 9.6348429 0
0.36839613 9.5229616 0.53231412
0.21114336 5.6342487 -0.93996906
0.30250406 8.0721607 -0.9003641
0.28644606 7.643662 -0.42724544
0.36127689 9.6404829 0
0.35708404 9.5285988 0.53260469
0.20414907 5.6293645 -0.93911231
0.29340646 8.0906162 -0.90238237
0.27419651 7.5609064 -0.42260098
0.35000527 9.6513157 0
0.345947 9.5394096 0.53318524
0.19770667 5.6398687 -0.94082421
0.28344926 8.0858002 -0.90180635
0.26269373 7.4937191 -0.41882762
0.33879942 9.6647434 0
0.33469307 9.5476036 0.53362024
0.19054452 5.6298413 -0.93911231
0.27385375 8.0913019 -0.90238237
0.25232068 7.4550838 -0.41665095
0.32764924 9.680747 0
0.32359615 9.5609941 0.5343464
0.18399309 5.6377668 -0.94039661
0.26390824 8.086462 -0.90180635
0.24195637 7.4138303 -0.41432872
0.27376366 8.3884439 0
0.31195831 9.558773 0.53420085
0.17710026 5.6354218 -0.93996906
0.25462443 8.1022806 -0.90353554
0.23079422 7.3439913 -0.41040981
0.26460862 8.4199829 0
0.3006531 9.5669374 0.53463638
0.17013562 5.6304951 -0.93911231
0.2444437 8.0896587 -0.90209436
0.22097881 7.3131075 -0.4086687
0.2549063 8.4359093 0
0.28901473 9.5646992 0.53449136
0.16348115 5.6358333 -0.93996906
0.23526871 8.110631 -0.90440071
0.21078587 7.2666121 -0.40605593
0.24380745 8.404995 0
0.27775881 9.5754309 0.53507191
0.15674248 5.6385903 -0.94039661
0.20340484 7.317203 -0.81589913
0.20099472 7.2305021 -0.40402424
0.23343445 8.3974762 0
0.26618856 9.5757589 0.53507191
0.14986107 5.6362119 -0.93996906
0.19408226 7.2993522 -0.81388187
0.19170539 7.2099595 -0.40286312
0.22142009 8.3275166 0
0.25482494 9.5838585 0.53550696
0.14645591 5.6363015 -0.93996906
0.18900032 7.2736068 -0.81099844
0.18734945 7.2100739 -0.40286312
0.21442859 8.2522049 0
0.24883248 9.5762262 0.53507191
0.13970895 5.6390381 -0.94039661
0.18040369 7.2815895 -0.81186354
0.17857304 7.2076998 -0.40271813
0.2023302 8.166604 0
0.23764732 9.5921001 0.53594249
0.13289517 5.6392026 -0.94039661
0.17123944 7.2662826 -0.81013328
0.16882315 7.1637516 -0.40025088
0.19154277 8.1278229 0
0.22617953 9.5975809 0.53623307
0.1262534 5.6470609 -0.94168097
0.16245943 7.2664843 -0.81013328
0.15999275 7.1561542 -0.39981532
0.18032566 8.0656042 0
0.21481489 9.6082382 0.53681362
0.1193755 5.6446357 -0.94125175
0.15351528 7.258925 -0.80926919
0.15052186 7.117382 -0.39763865
0.17030473 8.0528097 0
0.20331483 9.6136818 0.53710359
0.11275968 5.6550417 -0.9429636
0.14464095 7.2539282 -0.8086921
0.14155912 7.0993705 -0.39662254
0.16052233 8.0503998 0
0.19216458 9.6372995 0.53840971
0.10602283 5.6603122 -0.94382036
0.13592447 7.2566915 -0.80898118
0.13220221 7.0579686 -0.39430031
0.15035628 8.0271721 0
0.18056828 9.6401196 0.53855473
0.099318333 5.6681385 -0.94510466
0.12720135 7.2594337 -0.80926919
0.12399265 7.0763121 -0.39531642
0.14061135 8.0247478 0
0.16978493 9.6896963 0.54131252
0.092553087 5.6733832 -0.94595981
0.11834519 7.254405 -0.8086921
0.11548456 7.079052 -0.39546144
0.13066028 8.009304 0
0.15862766 9.7236671 0.54319918
0.085775465 5.6786294 -0.94681656
0.10942332 7.2441978 -0.80753893
0.10720558 7.0973763 -0.39647755
0.12102178 8.0120564 0
0.14750631 9.7654228 0.54552144
0.079056427 5.6889863 -0.9485268
0.10056233 7.2365737 -0.80667484
0.098232515 7.0689178 -0.39488086
0.11068984 7.9653611 0
0.1353094 9.737011 0.54392475
0.072345279 5.7019191 -0.95066786
0.10431987 8.2220087 -0.91650844
0.089855835 7.0820203 -0.39560643
0.10169242 8.014925 0
0.12347816 9.7319756 0.54363477
0.065632313 5.7173991 -0.95323485
0.094889797 8.2660933 -0.92140913
0.081328444 7.0847292 -0.39575198
0.091978028 8.0124416 0
0.11177848 9.7373095 0.54392475
0.058829363 5.7277417 -0.9549467
0.084981382 8.2739534 -0.92227322
0.072874516 7.0952058 -0.396332
0 0 0
0.10014617 9.7504263 0.54465032
0.052001517 5.7380767 -0.95665854
0.063593127 7.0171456 -0.78217137
0.064277776 7.0926929 -0.39618698
0.072661959 8.0178404 0
0.088482417 9.7635393 0.54537642
0.045189064 5.7535324 -0.95922554
0.055195406 7.0275531 -0.78332347
0.055727981 7.0953608 -0.396332
0.063505307 8.0855808 0
0.076542147 9.7454481 0.54436028
0.038322363 5.7664251 -0.96136659
0.046635251 7.0172787 -0.78217137
0.047448196 7.1396031 -0.39879978
0.054617491 8.2183781 0
0.064818442 9.7533312 0.54479587
0.031354737 5.7664671 -0.96136659
0.038142104 7.0147362 -0.78188229
0.039146263 7.1994114 -0.40213758
0.044672955 8.2158289 0
0.053146429 9.7741899 0.54595697
0.024332751 5.7536583 -0.95922554
0.029622385 7.0044312 -0.78072912
0.030886671 7.3033805 -0.40794259
0.034701675 8.2054663 0
0.041336194 9.7742472 0.54595697
0.017396087 5.7588224 -0.96008229
0.021135461 6.9967098 -0.77986503
0.022187527 7.3449874 -0.41026482
0.024802685 8.2107124 0
0.029518023 9.7716837 0.54581141
0.010419051 5.7485709 -0.95837045
0.012681289 6.9967303 -0.77986503
0.013350206 7.3657966 -0.41142595
0.014895781 8.2185469 0
0.01772026 9.7769146 0.54610199
0.0034730188 5.7485795 -0.95837045
0.004220848 6.9863944 -0.77871186
0.0044532139 7.3710093 -0.41171649
0.0049495366 8.1925287 0
0.0059083244 9.7795248 0.54624701
-0.003474568 5.7511439 -0.95879799
-0.0042161583 6.9786325 -0.77784669
-0.0044469344 7.3606153 -0.41113594
-0.0049432474 8.1821184 0
-0.0059255944 9.8081102 0.54784364
-0.0069553447 5.7562799 -0.95965475
-0.0084291929 6.9760447 -0.77755868
-0.0088561904 7.3294301 -0.40939426
-0.0098581947 8.1586943 0
-0.011841764 9.8003063 0.5474081
-0.013885864 5.7459993 -0.9579429
-0.016852105 6.9734359 -0.7772696
-0.01768725 7.3190203 -0.40881371
-0.019640904 8.1274462 0
-0.023721175 9.8158712 0.54827863
-0.02085666 5.7536721 -0.95922554
-0.025334399 6.988934 -0.77899987
-0.02647431 7.3033977 -0.40794259
-0.029348115 8.0961866 0
-0.035553489 9.8080473 0.54784364
-0.027808834 5.7536426 -0.95922554
-0.033679135 6.9682064 -0.77669352
-0.035261378 7.2955728 -0.4075076
-0.039181065 8.106555 0
-0.047492448 9.8261786 0.54885924
-0.034792013 5.7587438 -0.96008229
-0.042130049 6.9733286 -0.7772696
-0.043919612 7.269536 -0.40605593
-0.048929103 8.0987024 0
-0.059318379 9.818326 0.54842418
-0.041750304 5.7586975 -0.96008229
-0.050630927 6.9836183 -0.77842277
-0.05257158 7.251296 -0.40504035
-0.068185717 9.4049826 0
-0.071389027 9.8468218 0.55002034
-0.048730224 5.7612071 -0.96050984
-0.058981724 6.9732065 -0.7772696
-0.061223447 7.2382383 -0.40431479
-0.079307675 9.3762751 0
-0.08315511 9.8311434 0.54914975
-0.055592228 5.7508764 -0.95879799
-0.067382462 6.9705462 -0.77698159
-0.069642805 7.2043729 -0.40242755
-0.090486027 9.3605528 0
-0.094958693 9.8232384 0.54871422
-0.062624767 5.7585082 -0.96008229
-0.091105171 8.3773537 -0.93380487
-0.078150108 7.1861033 -0.40141201
-0.10188129 9.3682461 0
-0.10702591 9.8413067 0.5497303
-0.06967584 5.7661314 -0.96136659
-0.10113371 8.3694763 -0.93293971
-0.086738832 7.178206 -0.40097645
-0.11332669 9.3785257 0
-0.11904272 9.8515635 0.55031091
-0.076404169 5.7480726 -0.95837045
-0.11128086 8.371932 -0.93322778
-0.095343225 7.1729045 -0.40068644
-0.12462417 9.375782 0
-0.13098082 9.8540087 0.55045587
-0.083349533 5.7479763 -0.95837045
-0.12192172 8.4080029 -0.93726438
-0.10389715 7.1649871 -0.40025088
-0.13614151 9.3886328 0
-0.1430757 9.8668308 0.55118144
-0.090456069 5.7581382 -0.96008229
-0.13187796 8.3949213 -0.9358232
-0.11255456 7.1648564 -0.40025088
-0.14728139 9.375453 0
-0.15503852 9.8692465 0.55132645
-0.0973702 5.7554607 -0.95965475
-0.1420652 8.3973398 -0.93611121
-0.12129963 7.1699061 -0.40054089
-0.15887374 9.3908758 0
-0.16700754 9.8716574 0.55147201
-0.10455706 5.7681694 -0.9617942
-0.15225847 8.399745 -0.93639922
-0.12939803 7.1385884 -0.39879978
-0.17012641 9.385478 0
-0.17898244 9.8740444 0.55161703
-0.1110801 5.7449422 -0.9579429
-0.1626078 8.4098988 -0.93755239
-0.13721982 7.0968595 -0.39647755
-0.18161759 9.3930645 0
-0.19091316 9.8738213 0.55161703
-0.11823257 5.7550697 -0.95965475
-0.17282249 8.4122801 -0.9378404
-0.14472745 7.0447302 -0.39357474
-0.19275352 9.3824406 0
-0.20273675 9.8683825 0.55132645
-0.12513037 5.7523489 -0.95922554
-0.18321195 8.4224081 -0.93899357
-0.15210931 6.9925938 -0.39067197
-0.20448627 9.4004059 0
-0.2151127 9.8889132 0.55248755
-0.13208087 5.7521935 -0.95922554
-0.19338866 8.4221811 -0.93899357
-0.16085657 7.0053911 -0.39139754
-0.21596427 9.4053612 0
-0.22706136 9.8886452 0.55248755
-0.13921733 5.7597313 -0.96050984
-0.2034402 8.4167747 -0.93841755
-0.16881904 6.9844198 -0.39023697
-0.22732864 9.4050932 0
-0.23932357 9.90135 0.55321312
-0.14572075 5.7415924 -0.95751369
-0.21387257 8.4268656 -0.93957072
-0.17719211 6.981606 -0.39009142
-0.2388906 9.4126091 0
-0.25148508 9.9088488 0.55364865
-0.15313593 5.759378 -0.96050984
-0.2243983 8.4395256 -0.94101191
-0.18618041 7.0021667 -0.39125252
-0.25074801 9.4305267 0
-0.26359609 9.9137383 0.55393922
-0.1562666 5.7464561 -0.95837045
-0.22949703 8.4393892 -0.94101191
-0.19034018 6.9994583 -0.39110753
-0.2565161 9.4329729 0
-0.30906829 11.365496 0.63506788
-0.16350149 5.7565274 -0.96008229
-0.23991458 8.4468641 -0.94187707
-0.19887123 7.0018177 -0.39125252
-0.26769239 9.424859 0
-0.32213715 11.341741 0.63376176
-0.17772861 5.7663789 -0.9617942
-0.26032662 8.4462595 -0.94187707
-0.21611148 7.0117059 -0.39183307
-0.29078817 9.4345798 0
-0.34898433 11.322745 0.63274562
-0.18403855 5.7456336 -0.95837045
-0.27102879 8.4614449 -0.94360626
-0.22524911 7.0322165 -0.3929942
-0.3021878 9.4342213 0
-0.36166713 11.29115 0.63100398
-0.19140723 5.7582331 -0.96050984
-0.28185415 8.4792089 -0.94562459
-0.23348695 7.0241456 -0.39255863
-0.31427869 9.4546585 0
-0.37531 11.290705 0.63100398
-0.19845308 5.7605605 -0.96093744
-0.29245564 8.4892025 -0.94677776
-0.24313703 7.0576158 -0.3944453
-0.3250756 9.4360723 0
-0.38850513 11.277261 0.63027841
-0.16082475 4.5099359 -0.99972016
-0.20532206 5.7577538 -0.96050984
-0.30317375 8.5017643 -0.94821894
-0.2515721 7.0547223 -0.39430031
-0.33684799 9.4460754 0
-0.40166828 11.263802 0.62955284
-0.21218453 5.7549386 -0.96008229
-0.31373188 8.5091391 -0.94908297
-0.26067078 7.0699983 -0.39517143
-0.34845307 9.4508581 0
-0.74757361 20.275936 1.1333059
-0.21923569 5.7572408 -0.96050984
-0.32411197 8.5113459 -0.94937211
-0.26950964 7.0774603 -0.39560643
-0.35967445 9.4452343 0
-0.77286363 20.295792 1.134467
-0.2256882 5.7441487 -0.95837045
-0.3342942 8.5083561 -0.94908297
-0 0 -0
-0.3714956 9.4551945 0
-0.7978965 20.307823 1.1351926
-0.1826203 4.5091057 -0.99972016
-0.2327325 5.7464342 -0.95879799
-0.34499332 8.5182829 -0.95023614
-0 0 -0
-0.38355178 9.470336 0
-0.82064646 20.262709 1.1327254
-0.2395689 5.7435865 -0.95837045
-0.35496268 8.5101147 -0.94937211
-0 0 -0
-0.39434403 9.4542694 0
-0.84361315 20.225349 1.1306931
-0.24694905 5.7535515 -0.96008229
-0.36457956 8.4941702 -0.94764179
-0.30349064 7.070888 -0.39531642
-0.40643674 9.4693813 0
-0.92153275 21.470366 1.2003567
-0.19896418 4.5084143 -0.99972016
-0.25390092 5.7532492 -0.96008229
-0.37518504 8.5014772 -0.94850695
-0.64195734 14.546386 -0.81329638
-0.4174194 9.4584837 0
-0.9472459 21.464048 1.2000667
-0.20429616 4.5056248 -0.99915564
-0.26131752 5.7631955 -0.9617942
-0.38557419 8.5035992 -0.94879496
-0.65976852 14.550786 -0.81358635
-0 0 0
-0.97365111 21.473272 1.2006472
-0.20903143 4.4901505 -0.9957794
-0.26756454 5.7474852 -0.95922554
-0.39548835 8.4953833 -0.94793093
-0.67771244 14.557767 -0.81402194
-0 0 0
-1.0003215 21.487648 1.2015178
-0.21469897 4.494966 -0.99690408
-0.27475423 5.7522907 -0.96008229
-0.40538275 8.4871464 -0.94706577
-0.69530219 14.556938 -0.81402194
-0 0 0
-1.0275239 21.512375 1.202969
-0.21988176 4.4896326 -0.9957794
-0.28170455 5.7519546 -0.96008229
-0.4165228 8.5047264 -0.94908297
-0.71225548 14.543113 -0.81329638
-0.81243891 16.588697 0
-1.0536441 21.51372 1.2031145
-0.22556092 4.4944339 -0.99690408
-0.28852591 5.7490487 -0.95965475
-0.42576215 8.4835615 -0.94677776
-0.72943658 14.534453 -0.81286079
-0.83091712 16.556513 0
-1.0809406 21.538378 1.2045656
-0.2316439 4.5068531 -0.99972016
-0.29613101 5.7615118 -0.9617942
-0.43574679 8.47787 -0.94620061
-0.74593109 14.512801 -0.81169969
-0.8493188 16.524307 0
-1.1068314 21.534464 1.2044206
-0.23602144 4.4862709 -0.99521708
-0.30241826 5.7483344 -0.95965475
-0.44585454 8.4747562 -0.9459126
-0.76319367 14.506704 -0.81140971
-0.86832786 16.505085 0
-1.13326 21.540888 1.2048556
-0.24116868 4.4809031 -0.9940902
-0.30963945 5.7530866 -0.96050984
-0.45581603 8.4690409 -0.94533545
-0.7782082 14.459072 -0.80879748
-0.88631195 16.467636 0
-1.1598457 21.549881 1.2054362
-0.24630383 4.4755392 -0.99296552
-0.3168731 5.7578397 -0.96136659
-0.46548036 8.4581537 -0.94418228
-0.86506867 15.718995 -0.87933159
-0.90549433 16.453562 0
-1.1871686 21.571812 1.2067423
-0.2487251 4.4703107 -0.99183869
-0.32006615 5.7525163 -0.96050984
-0.47015965 8.4501314 -0.94331825
-0.87355453 15.700306 -0.87831551
-0.91471189 16.440023 0
-1.2006342 21.578876 1.2071779
-0.25470331 4.480154 -0.9940902
-0.32628831 5.7393131 -0.95837045
-0.48066297 8.4547167 -0.94389427
-0.892672 15.701831 -0.87846053
-0.93516666 16.449299 0
-1.2270025 21.582603 1.2074684
-0.25893822 4.4595499 -0.98958713
-0.33292502 5.7337842 -0.95751369
-0.49012899 8.4412212 -0.94245309
-0.91375297 15.737063 -0.88049275
-0.95594656 16.463741 0
-0.6220063 10.712471 0.59936553
-0.26522893 4.4744577 -0.99296552
-0.3409164 5.751318 -0.96050984
-0.4995631 8.4277153 -0.94101191
-0.93292105 15.738539 -0.88063771
-0.97599351 16.465179 0
-0.63479555 10.70911 0.59921998
-0.27048138 4.47159 -0.992401
-0.34771064 5.748342 -0.96008229
-0.51021463 8.4348536 -0.94187707
-0.9525649 15.747775 -0.88121831
-0.99730182 16.487364 0
-0.64742148 10.703153 0.59892994
-0.27557155 4.4661927 -0.99127632
-0.35386583 5.7351093 -0.9579429
-0.52040613 8.4342308 -0.94187707
-0.97271204 15.76476 -0.88223386
-1.0180241 16.499132 0
-0.65747356 10.655684 0.59631771
-0.28096789 4.4658566 -0.99127632
-0.36047265 5.7295485 -0.95708615
-0.5309214 8.4387541 -0.94245309
-0.9932282 15.78691 -0.88353997
-1.0382859 16.50308 0
-0 0 0
-0.28652623 4.4680471 -0.99183869
-0.36690241 5.7214208 -0.95580178
-0.54128295 8.4406853 -0.9427411
-1.0133009 15.801262 -0.8844111
-1.0572268 16.486237 0
-0.6805616 10.612575 0.59399551
-0.29209033 4.4702306 -0.992401
-0.3739832 5.7235422 -0.956231
-0.55046993 8.4245434 -0.94101191
-1.0334091 15.815578 -0.88528162
-1.0771464 16.484947 0
-0.69304514 10.606554 0.59370494
-0.29698578 4.462276 -0.99071401
-0.38140965 5.730763 -0.95751369
-0.55961806 8.4083824 -0.93928158
-1.0542444 15.840251 -0.88673329
-1.0970645 16.483633 0
-0.70655078 10.616079 0.59428549
-0.30254897 4.4644465 -0.99127632
-0.38781369 5.7226219 -0.956231
-0.57030231 8.4154444 -0.94014674
-1.0747889 15.859705 -0.88789445
-1.1180364 16.497869 0
-0.71972948 10.620408 0.59457606
-0.30671898 4.446331 -0.98733562
-0.39490455 5.7247076 -0.95665854
-0.5808267 8.4199152 -0.9407239
-1.0943089 15.863575 -0.88818443
-1.1399403 16.525068 0
-0.73291892 10.62471 0.59486604
-0.31173575 4.4408927 -0.98621088
-0.40218064 5.7293429 -0.95751369
-0.59045655 8.4114647 -0.93985873
-1.1127483 15.851872 -0.88760388
-1.1608179 16.536657 0
-0.74684834 10.639374 0.59573716
-0.31692067 4.4379807 -0.98564857
-0.40800637 5.7134943 -0.9549467
-0.59932989 8.392683 -0.9378404
-1.1331971 15.868662 -0.88861996
-1.180613 16.53265 0
-0.75988829 10.641053 0.59588218
-0.32246676 4.4401264 -0.98621088
-0.41546774 5.7206807 -0.956231
-0.61040694 8.4048481 -0.93928158
-1.1506766 15.843959 -0.88731384
-1.1996464 16.518234 0
-0.77368629 10.653083 0.59660774
-0.32764462 4.437202 -0.98564857
-0.42256862 5.7227321 -0.95665854
-0.61922944 8.3860559 -0.93726438
-1.1709678 15.858101 -0.88818443
-1.218838 16.506392 0
-1.6062566 21.753098 1.2183529
-0.33186445 4.4215956 -0.98227018
-0.43082821 5.740139 -0.95965475
-0.62936187 8.3853016 -0.93726438
-1.1897398 15.851497 -0.88789445
-1.2381972 16.497118 0
-1.6339014 21.769281 1.2193691
-0.33855969 4.4389286 -0.98621088
-0.43737292 5.7344899 -0.95879799
-0.6404767 8.3974276 -0.93870556
-0.97473454 12.779954 -0.71591264
-1.2569427 16.480045 0
-1.6605989 21.772469 1.219659
-0.34215653 4.4157186 -0.9811455
-0.44350833 5.7237196 -0.95708615
-0.65082252 8.3992233 -0.93899357
-0.9901759 12.778767 -0.71591264
-1.2760506 16.468136 0
-1.6877085 21.780809 1.2202395
-0.34789014 4.4203634 -0.98227018
-0.45062521 5.7257361 -0.95751369
-0.66097087 8.3984308 -0.93899357
-1.0037812 12.75425 -0.71460652
-1.2961521 16.469173 0
-1.7146369 21.786528 1.2206751
-0.35221913 4.4072781 -0.97945631
-0.45754331 5.7251878 -0.95751369
-0.66988236 8.3821621 -0.93726438
-1.0191915 12.753027 -0.71460652
-1.3166732 16.475382 0
-1.7409604 21.784439 1.2206751
-0.35630956 4.4247956 -0.98339701
-0.45956039 5.707006 -0.95451915
-0.67577678 8.3920679 -0.93841755
-1.0291905 12.780902 -0.71620321
-1.3280882 16.492733 0
-1.7564156 21.811876 1.2222718
-0.36206943 4.4294219 -0.98452169
-0.46791923 5.724349 -0.95751369
-0.68633747 8.3963966 -0.93899357
-1.3009834 15.915745 -0.89195776
-1.3503479 16.519651 0
-1.7834042 21.817501 1.2227068
-0.36490044 4.3985949 -0.97776711
-0.47419956 5.7161121 -0.956231
-0.69626874 8.3929853 -0.93870556
-1.3197843 15.908987 -0.89166778
-1.372244 16.541348 0
-1.8116992 21.838644 1.2240134
-0.3723467 4.4234753 -0.98339701
-0.48067495 5.7104139 -0.95537424
-0.70510823 8.3766794 -0.93697637
-1.3383522 15.899611 -0.89123219
-1.3937582 16.557833 0
-1.8391751 21.849382 1.2247391
-0.3750971 4.392642 -0.97664243
-0.48670086 5.6995978 -0.9536624
-0.71588886 8.3835449 -0.9378404
-0.78122991 9.1487331 -0.51287299
-1.4142065 16.561319 0
-1.8660163 21.852318 1.225029
-0.38128147 4.4023113 -0.97889394
-0.49535939 5.7194657 -0.95708615
-0.72557229 8.3775253 -0.93726438
-0.7886973 9.1063719 -0.51055133
-1.4355644 16.575159 0
-1.8939888 21.86817 1.2260451
-0.38682261 4.404376 -0.97945631
-0.50092274 5.7035241 -0.95451915
-0.73592043 8.3792162 -0.93755239
-0.79879063 9.0950584 -0.50997078
-1.4567294 16.586372 0
-1.9201837 21.863279 1.2259002
-0.39259443 4.4089622 -0.98058099
-0.50917965 5.7182517 -0.95708615
-0.74673301 8.3860521 -0.93841755
-0.80816615 9.0759668 -0.50895464
-1.4765391 16.58201 0
-1.9484435 21.881649 1.2270613
-0.39632323 4.3907776 -0.97664243
-0.51493502 5.7048512 -0.9549467
-0.75570297 8.3722658 -0.93697637
-0.81702995 9.0516949 -0.50764853
-1.4965742 16.580215 0
-1.9769839 21.902567 1.2283673
-0.40093368 4.3827019 -0.97495323
-0.52159423 5.7016711 -0.95451915
-0.76628947 8.3764935 -0.93755239
-0.82654583 9.0351696 -0.50677741
-1.516607 16.578394 0
-2.0046308 21.913099 1.229093
-0.4071672 4.3923345 -0.97720474
-0.52800882 5.6959195 -0.9536624
-0.77641028 8.3755617 -0.93755239
-0.83650398 9.0238247 -0.50619739
-0.84868127 9.1551876 0
-2.0320663 21.921011 1.2296735
-0.41176116 4.3842478 -0.97551554
-0.53609079 5.7080541 -0.95580178
-0.78580415 8.366889 -0.93668723
-0.84570587 9.0046959 -0.50518131
-0.85876948 9.1437912 0
-2.0600095 21.934055 1.2305441
-0.41489276 4.3609843 -0.97045016
-0.54055667 5.6818519 -0.95152295
-0.79542387 8.3607893 -0.93611121
-0.85658568 9.0036669 -0.50518131
-0.86636704 9.1064806 0
-2.0872498 21.939314 1.2309796
-0.42138013 4.3731232 -0.97326404
-0.5503763 5.7118573 -0.95665854
-0.80527782 8.3572493 -0.9358232
-0.86696529 8.997448 -0.50489074
-0.87761921 9.1080151 0
-2.1147544 21.947121 1.2315601
-0.42863798 4.3928418 -0.97776711
-0.55553222 5.6933012 -0.9536624
-0.81411868 8.3433914 -0.93438089
-0.87632269 8.9808817 -0.50402015
-0.88736033 9.0939999 0
-2.1430383 21.962656 1.2325763
-0.43044862 4.3569255 -0.96988779
-0.56342059 5.7028441 -0.95537424
-0.82267416 8.3269634 -0.9326517
-0.88640702 8.9720564 -0.50358462
-0.8955332 9.0644293 0
-2.1705952 21.970385 1.2331563
-0.43621805 4.361454 -0.97101247
-0.56852335 5.6842861 -0.9523797
-0.83222073 8.3208208 -0.93207568
-0.89647228 8.9632292 -0.50314963
-0.90778089 9.0762968 0
-2.198175 21.978086 1.2337369
-0.44327942 4.3786216 -0.97495323
-0.57616621 5.6912498 -0.9536624
-0.84253448 8.3223801 -0.93236369
-0.90573114 8.9466228 -0.50227851
-0.91586345 9.0467081 0
-2.2247295 21.975416 1.2337369
-0.44986448 4.3907189 -0.97776711
-0.5817346 5.6777835 -0.95152295
-0.85153532 8.3110638 -0.93121052
-0.91601151 8.9403572 -0.50198853
-0.92705899 9.0481815 0
-2.2555184 22.014071 1.2360591
-0.45333597 4.372488 -0.97382855
-0.58727121 5.6643119 -0.94938356
-0.86077654 8.3023081 -0.93034536
-0 0 -0
-0.93664962 9.0341139 0
-2.2823842 22.01391 1.236204
-0.45941344 4.3795109 -0.97551554
-0.59331131 5.6559367 -0.9480992
-0.87026846 8.2961226 -0.92976934
-0.93842667 8.9458628 -0.50242352
-0.94756484 9.0329762 0
-2.3116934 22.036983 1.2376558
-0.47026762 4.3809214 -0.97608006
-0.60643029 5.6493864 -0.94724411
-0.89197022 8.3094206 -0.93149853
-0.95948845 8.9384069 -0.50213349
-0.96800268 9.017724 0
-2.3679914 22.059746 1.2392519
-0.47583476 4.3828735 -0.97664243
-0.61242455 5.6409907 -0.94595981
-0.90173095 8.305768 -0.93121052
-0.96916622 8.9269075 -0.50155294
-0.97861749 9.0139627 0
-2.3949258 22.05946 1.2393974
-0.47765502 4.3750052 -0.97495323
-0.61388195 5.6227541 -0.9429636
-0.90843254 8.3206434 -0.93293971
-0.97286767 8.9108267 -0.50068241
-0.98377985 9.0107756 0
-2.4107907 22.081253 1.2407036
-0.48266244 4.371902 -0.97439086
-0.62180227 5.6322145 -0.94467551
-0.91820222 8.3169718 -0.9326517
-0.98277831 8.9018946 -0.50024682
-0.99438161 9.0069962 0
-2.4408913 22.109318 1.2424452
-0.48822629 4.3738384 -0.97495323
-0.62689912 5.6161566 -0.94210851
-0.92997199 8.331274 -0.93438089
-0.99353379 8.9007006 -0.50024682
-1.0055525 9.0083714 0
-2.4684684 22.114092 1.2428802
-0.49465057 4.3833447 -0.97720474
-0.63454854 5.6230502 -0.94339281
-0.9403289 8.3327217 -0.93467003
-1.0042878 8.8994932 -0.50024682
-1.0152693 8.9968061 0
-2.4957705 22.116262 1.2431707
-0.4987947 4.3726454 -0.97495323
-0.64105064 5.6197214 -0.9429636
-0.94980985 8.3264351 -0.93409288
-1.0132728 8.8827782 -0.4993757
-1.0261394 8.9955721 0
-2.5236697 22.123558 1.2437513
-0.50553268 4.3846583 -0.97776711
-0.64989895 5.6367965 -0.94595981
-0.96046311 8.3304253 -0.93467003
-1.024601 8.8867149 -0.49966627
-1.037008 8.9943256 0
-2.5524824 22.138554 1.2447668
-0.50965405 4.3739491 -0.97551554
-0.65581787 5.628355 -0.94467551
-0.96933067 8.3189821 -0.93351686
-1.0350376 8.8828917 -0.49952129
-1.0481772 8.9956589 0
-2.5810356 22.150944 1.245638
-0.51612723 4.3834238 -0.97776711
-0.66081762 5.6122665 -0.94210851
-0.98119599 8.3332119 -0.93524605
-1.0448582 8.8738909 -0.49908572
-1.0581328 8.9866295 0
-2.609925 22.165867 1.2466536
-0.51962286 4.3676629 -0.97439086
-0.6694175 5.6267538 -0.94467551
-0.98881984 8.3114738 -0.93293971
-1.0552732 8.8700438 -0.49894071
-1.0689906 8.9853439 0
-2.4930506 20.955208 1.1787322
-0.52823454 4.3947749 -0.98058099
-0.67560369 5.6208482 -0.94382036
-1.0000966 8.3205452 -0.93409288
-1.0666097 8.8739166 -0.49923071
-1.080157 8.9866276 0
-2.5189886 20.957335 1.1790222
-0.5323205 4.3840537 -0.97833163
-0.68115723 5.6098342 -0.94210851
-1.0107738 8.3244705 -0.93467003
-1.0770184 8.8700447 -0.49908572
-1.0919563 8.9930687 0
-2.5399253 20.918167 1.1769905
-0.53916365 4.3960147 -0.9811455
-0.6873095 5.6039062 -0.94125175
-1.0205157 8.3206682 -0.93438089
-1.0877353 8.8687372 -0.49908572
-1.1028218 8.9917431 0
-2.5629845 20.897026 1.1759744
-0.54322553 4.3852735 -0.97889394
-0.69376493 5.6005268 -0.94082421
-1.0289793 8.3065977 -0.93293971
-1.0978112 8.8622541 -0.49879515
-1.112406 8.980073 0
-2.5875943 20.888762 1.1756845
-0.54820877 4.3820953 -0.97833163
-0.6986202 5.5844059 -0.93825722
-1.039979 8.3130503 -0.93380487
-1.1088421 8.8635063 -0.49894071
-1.1248709 8.9916315 0
-1.3533124 10.817675 0.60894388
-0.55636913 4.4041147 -0.98339701
-0.70504594 5.5810132 -0.93782967
-1.045809 8.2784309 -0.93005735
-1.1205273 8.8698864 -0.4993757
-1.1357347 8.9902658 0
-1.3667078 10.818606 0.6090889
-0.5610466 4.3983936 -0.98227018
-0.71048969 5.5699716 -0.93611777
-1.055811 8.2771606 -0.93005735
-1.1315737 8.8711109 -0.49952129
-1.147585 8.9966335 0
-1.3774785 10.798912 0.60807335
-0.56636077 4.3977127 -0.98227018
-0.717547 5.5716524 -0.93654531
-1.0648202 8.2681808 -0.92919219
-1.1426234 8.8723125 -0.49966627
-1.1581228 8.9926624 0
-1.3898613 10.79208 0.60778278
-0.57396764 4.4146652 -0.98621088
-0.7232855 5.5631423 -0.93526101
-1.0731429 8.2540665 -0.927751
-1.1530083 8.868351 -0.49952129
-1.1699934 8.998991 0
-1.4032365 10.792977 0.60792834
-0.57764858 4.4013743 -0.98339701
-0.73468292 5.5978928 -0.94125175
-1.0841255 8.2604589 -0.92861617
-1.1640611 8.869525 -0.49966627
-1.1805278 8.9949932 0
-1.417967 10.804153 0.6086539
-0.58530116 4.4182982 -0.98733562
-0.74077278 5.5919161 -0.94039661
-1.0927472 8.2488871 -0.927463
-1.1751182 8.8706856 -0.49981126
-1.1927627 9.0038795 0
-1.4310206 10.802432 0.6086539
-0.5899666 4.4125557 -0.98621088
-0.74888974 5.6011944 -0.94210851
-1.1040847 8.2578154 -0.92861617
-1.1868691 8.8769884 -0.50024682
-1.2036413 9.0024319 0
-1.4454496 10.810997 0.60923445
-0.59869492 4.4370155 -0.99183869
-0.75428408 5.5901093 -0.94039661
-1.1126784 8.2462225 -0.927463
-1.1975944 8.8755474 -0.50024682
-1.2127783 8.9880781 0
-1.459553 10.81696 0.60966945
-0.60405576 4.4362888 -0.99183869
-0.75826734 5.5688453 -0.93697292
-1.1236874 8.252553 -0.92832708
-1.2086681 8.8766661 -0.50039184
-1.2278513 9.0175505 0
-1.4729737 10.817771 0.609815
-0.60260385 4.4057136 -0.98508406
-0.76545864 5.5963659 -0.94168097
-1.1272709 8.241622 -0.92717391
-1.2157911 8.8888044 -0.50111741
-1.233299 9.0168066 0
-1.479509 10.816879 0.609815
-0.60931635 4.4150505 -0.98733562
-0.77222019 5.595437 -0.94168097
-1.1379364 8.2453833 -0.927751
-1.2265307 8.8873291 -0.50111741
-1.2438364 9.0127249 0
-1.4947088 10.830523 0.61068559
-0.61710387 4.4319296 -0.99127632
-0.7803967 5.60467 -0.94339281
-1.1475421 8.2414427 -0.927463
-1.2383437 8.8935633 -0.50155294
-1.2572383 9.0292606 0
-1.5085117 10.833861 0.6109761
-0.61963087 4.4110513 -0.98677325
-0.78466827 5.5859256 -0.94039661
-1.15534 8.2246771 -0.92573267
-1.2501737 8.8997831 -0.50198853
-1.2681475 9.0277357 0
-1.5212386 10.82945 0.61083055
-0.62674248 4.4228759 -0.98958713
-0.79033637 5.5773458 -0.93911231
-1.1685427 8.2463207 -0.92832708
-1.2605608 8.8956852 -0.50184298
-1.2823406 9.0493851 0
-1.5368751 10.845615 0.61184669
-0.63208616 4.4221153 -0.98958713
-0.79780209 5.5814743 -0.93996906
-1.1774091 8.2372293 -0.927463
-1.2724119 8.9018755 -0.50227851
-1.2965881 9.0710135 0
-1.5507134 10.84889 0.61213666
-0.63851708 4.4288955 -0.99127632
-0.8071087 5.5982842 -0.9429636
-1.1847774 8.2178774 -0.92544466
-1.2850208 8.913188 -0.50300407
-1.3086622 9.0771694 0
-1.5645634 10.852158 0.61242723
-0.64459854 4.4331446 -0.992401
-0.81239504 5.5871439 -0.94125175
-1.1943344 8.2138834 -0.92515665
-1.2976602 8.9244938 -0.50373018
-1.3248712 9.1116323 0
-1.578797 10.857976 0.61286277
-0.64995468 4.4323626 -0.992401
-0.81840128 5.5810833 -0.94039661
-1.2042584 8.2124338 -0.92515665
-1.3114574 8.9434767 -0.50489074
-2.8714528 19.581858 0
-1.5938002 10.868913 0.61358833
-0.65456718 4.4265518 -0.99127632
-0.82702154 5.5927849 -0.94253606
-1.2149366 8.2160854 -0.92573267
-1.3230238 8.947032 -0.50518131
-2.8924477 19.56036 0
-1.606171 10.861833 0.61329782
-0.6565432 4.403142 -0.98621088
-0.83605093 5.6070204 -0.94510466
-1.2229564 8.2018223 -0.92429149
-1.3372821 8.9685545 -0.50648743
-2.9137769 19.541401 0
-1.62121 10.872732 0.61402333
-0.66639614 4.4324975 -0.99296552
-0.84167999 5.5983882 -0.94382036
-1.23325 8.2028942 -0.9245795
-1.3500491 8.9797773 -0.507213
-2.9335182 19.512135 0
-1.636665 10.886188 0.61489445
-0.66984642 4.4191208 -0.9901495
-0.84767377 5.5922861 -0.9429636
-1.244324 8.2090721 -0.92544466
-1.3644029 9.0012589 -0.50851911
-2.9524124 19.477699 0
-1.6505958 10.889335 0.61518449
-0.67058104 4.3881769 -0.98339701
-0.85908377 5.6217089 -0.9480992
-1.2515067 8.1896629 -0.92342639
-1.3831286 9.0509768 -0.51142186
-2.9712274 19.443245 0
-1.66336 10.884767 0.61503947
-0.68168467 4.4250255 -0.99183869
-0.86235857 5.5978351 -0.9442479
-1.263765 8.2034874 -0.92515665
-1.4181955 9.2059431 -0.5202747
-2.9899638 19.408775 0
-1.6788855 10.898163 0.61591059
-0.6889801 4.4367499 -0.99465257
-0.86754614 5.5866423 -0.94253606
-1.2716923 8.1891775 -0.92371547
-1.4556336 9.3736849 -0.52985358
-3.007823 19.36915 0
-1.6940458 10.908962 0.61663616
-0.6911971 4.4158316 -0.9901495
-0.87548721 5.5932012 -0.94382036
-1.2815864 8.1876354 -0.92371547
-1.4717809 9.4027252 -0.53159529
-3.0267973 19.337215 0
-1.70602 10.899203 0.61620057
-0.69732493 4.4200177 -0.99127632
-0.88144404 5.5870628 -0.9429636
-1.2930908 8.1963005 -0.92486864
-1.4815214 9.3906736 -0.53101474
-3.045295 19.302706 0
-1.7216172 10.912529 0.61707115
-0.70106918 4.4091344 -0.98902482
-0.88658184 5.5758529 -0.94125175
-1.3029935 8.1947317 -0.92486864
-1.4916426 9.381175 -0.53057915
-3.0686164 19.299011 0
-1.7352108 10.913014 0.61721671
-0.70800436 4.4183197 -0.99127632
-0.8925069 5.5697126 -0.94039661
-1.3116663 8.1854868 -0.92400348
-1.5037999 9.3845024 -0.53086972
-1.7594849 10.980111 0
-1.7492173 10.916037 0.61750668
-0.71253163 4.4124393 -0.9901495
-0.90005386 5.5736938 -0.94125175
-1.3244425 8.2017727 -0.92602181
-1.5109949 9.3570213 -0.52941805
-1.7739959 10.985687 0
-1.7640629 10.924175 0.61808723
-0.71641737 4.4195347 -0.99183869
-0.90547609 5.5858264 -0.94339281
-1.3293974 8.2009706 -0.92602181
-1.5149846 9.3458471 -0.5288375
-1.7793829 10.976904 0
-1.7723255 10.933368 0.61866784
-0.72175699 4.4186659 -0.99183869
-0.91388011 5.594862 -0.94510466
-1.3393056 8.1993589 -0.92602181
-1.5241821 9.3311901 -0.52811193
-1.7913877 10.967048 0
-1.7851166 10.928656 0.61852282
-0.72750783 4.4202952 -0.992401
-0.91980517 5.5886831 -0.9442479
-1.3479515 8.1900759 -0.92515665
-1.5337679 9.3190851 -0.52753139
-1.8037918 10.959735 0
-1.7987421 10.929052 0.61866784
-0.73160255 4.4119005 -0.99071401
-0.92739803 5.5926375 -0.94510466
-1.3569995 8.1833324 -0.9245795
-1.5437531 9.3095427 -0.52709639
-1.8191615 10.970382 0
-1.814496 10.942247 0.61953837
-0.73651302 4.4084997 -0.9901495
-0.93288553 5.5839143 -0.94382036
-1.366035 8.17659 -0.92400348
-1.5528586 9.2948484 -0.52637029
-3.156198 18.891857 0
-1.8298584 10.952868 0.62026447
-0.74015403 4.3975935 -0.98790008
-0.93877894 5.5777154 -0.9429636
-1.3763427 8.1774817 -0.92429149
-1.5640885 9.2929649 -0.52637029
-3.1738412 18.857243 0
-1.842659 10.94808 0.62011892
-0.74461681 4.3916812 -0.98677325
-0.94551784 5.5765767 -0.9429636
-1.3857906 8.1732645 -0.92400348
-1.5727106 9.2757025 -0.5254997
-3.1931438 18.832867 0
-1.8571898 10.953533 0.62055451
-0.75291759 4.4083128 -0.99071401
-0.95312059 5.5804958 -0.94382036
-1.3969721 8.1792355 -0.92486864
-1.5852302 9.2814817 -0.52593529
-3.2110772 18.800774 0
-1.8721734 10.961527 0.62113506
-0.75953478 4.4149051 -0.992401
-0.96421438 5.6046343 -0.9480992
-1.4051 8.167345 -0.92371547
-1.5960021 9.2769909 -0.52578968
-3.2324677 18.789183 0
-1.8849769 10.956698 0.62099004
-0.76443541 4.4114828 -0.99183869
-0.96485049 5.568059 -0.94210851
-1.412317 8.1503458 -0.92198515
-1.6085417 9.2827396 -0.52622527
-3.2507257 18.759624 0
-1.8995459 10.962096 0.62142563
-0.77151269 4.420568 -0.9940902
-0.97113675 5.5643625 -0.94168097
-1.4226084 8.1511784 -0.92227322
-1.6184163 9.2731075 -0.52578968
-3.271601 18.745428 0
-1.9145753 10.970022 0.62200558
-0.77333444 4.3996124 -0.98958713
-0.9778595 5.5631852 -0.94168097
-1.4324565 8.1494541 -0.92227322
-1.6318704 9.2839479 -0.52651584
-3.2892923 18.713264 0
-1.9314278 10.988174 0.62316674
-0.78086406 4.4111824 -0.992401
-0.98279095 5.5518885 -0.93996906
-1.4364419 8.1146097 -0.91852564
-1.643087 9.28197 -0.52651584
-3.3073659 18.683655 0
-1.9456102 10.990954 0.62345725
-0.78753173 4.4177427 -0.9940902
-0.99265093 5.5683804 -0.9429636
-1.4485166 8.1256075 -0.91996795
-1.6579494 9.3004427 -0.52767694
-3.3258288 18.656588 0
-1.9602576 10.996273 0.62389284
-0.79376793 4.4217944 -0.99521708
-0.9980191 5.5596037 -0.94168097
-1.4601618 8.1340342 -0.92112112
-1.6710206 9.3086529 -0.52825695
-3.3433106 18.624376 0
-1.9744605 10.999006 0.62418282
-0.79820538 4.4158263 -0.9940902
-1.0070187 5.571022 -0.94382036
-1.4676875 8.1195307 -0.91967881
-1.6831925 9.3117456 -0.52854747
-3.363498 18.607521 0
-1.9891362 11.004286 0.62461841
-0.80217505 4.4073567 -0.992401
-1.0128292 5.5647454 -0.9429636
-1.4765718 8.1126671 -0.91910279
-1.6967686 9.322485 -0.52927303
-3.3822508 18.582958 0
-2.0042925 11.0121 0.62519896
-0.8146677 4.4154005 -0.99465257
-1.024411 5.5521836 -0.94125175
-1.4980499 8.1192493 -0.92025596
-1.7249502 9.349021 -0.53101474
-3.4210105 18.541462 0
-2.0351412 11.03022 0.62650508
-0.82046765 4.4169183 -0.99521708
-1.0334644 5.5635686 -0.94339281
-1.5050241 8.10217 -0.91852564
-1.7395678 9.3648157 -0.53203082
-3.4372332 18.504055 0
-2.0508401 11.040524 0.62723064
-0.82533562 4.4134188 -0.99465257
-1.037354 5.5471711 -0.94082421
-1.5152897 8.1028957 -0.91881478
-1.7527926 9.3729239 -0.53261137
-3.4500215 18.448725 0
-2.0632246 11.032934 0.62694061
-0.83254808 4.4224062 -0.99690408
-1.0483298 5.5686159 -0.94467551
-1.5236434 8.0934305 -0.91794962
-1.7694033 9.398881 -0.53420752
-3.4713485 18.439432 0
-2.0770345 11.032985 0.62708563
-0.83174121 4.3889456 -0.98958713
-1.0574489 5.5799632 -0.94681656
-1.5334216 8.0915833 -0.91794962
-1.7860812 9.4248219 -0.53580421
-3.5071945 18.506821 0
-2.0927827 11.043229 0.62781119
-0.83676529 4.4009209 -0.992401
-1.0565029 5.5566192 -0.9429636
-1.5387925 8.093194 -0.91823763
-1.7946861 9.4390526 -0.53667474
-3.5358732 18.596729 0
-2.0999391 11.044514 0.62795621
-0.68097967 3.5581403 -0.99949753
-0.84399283 4.4098887 -0.99465257
-1.060804 5.5427341 -0.94082421
-1.5466256 8.0811672 -0.91708446
-1.8114634 9.4649534 -0.53827143
-3.5510044 18.55411 0
-2.1162143 11.057285 0.62882727
-0.85172528 4.4213481 -0.99746859
-1.0728425 5.5691791 -0.94553226
-1.5559002 8.0767555 -0.91679645
-2.3099751 11.991196 -0.68209696
-2.5150459 13.055728 0
-2.1310463 11.062367 0.62926233
-0.85851657 4.4277921 -0.99915564
-1.0746837 5.5426722 -0.94125175
-1.5651665 8.0723324 -0.91650844
-2.3229802 11.980751 -0.68166196
-2.528343 13.039907 0
-2.1449075 11.062343 0.62940788
-0.86143315 4.4142847 -0.99634176
-1.0872803 5.5716043 -0.94638735
-1.5764039 8.0780439 -0.91737252
-2.3409371 11.99578 -0.68267751
-2.5396116 13.013857 0
-2.1572764 11.054638 0.62911731
-0.86627716 4.4107494 -0.9957794
-1.0920328 5.5602107 -0.94467551
-1.5811797 8.0507584 -0.9144901
-2.3569329 12.000594 -0.6831131
-2.5523241 12.995452 0
-2.1741381 11.069874 0.63013339
-0.86421514 4.3723073 -0.98733562
-1.0992496 5.5614128 -0.94510466
-1.5929126 8.0589914 -0.91564327
-2.3674006 11.977345 -0.681952
-2.5629792 12.966832 0
-2.1880157 11.069785 0.63027841
-0.87495083 4.398675 -0.99352789
-1.1049662 5.5550399 -0.9442479
-1.6016408 8.0519924 -0.91506726
-2.5648637 12.89444 -0.73434442
-2.5755999 12.948416 0
-2.2034173 11.077328 0.63085896
-0.87777203 4.3851595 -0.99071401
-1.1126862 5.5587397 -0.94510466
-1.6103526 8.0449743 -0.9144901
-2.5814631 12.896432 -0.73463494
-2.5881779 12.929977 0
-2.2188406 11.084848 0.63143951
-1.1183872 5.5523534 -0.9442479
-1.619562 8.0404892 -0.91420209
-2.5939646 12.878016 -0.73376381
-2.5986614 12.901334 0
-2.2327454 11.084704 0.63158453
-0.89442348 4.4129086 -0.99746859
-1.1250954 5.5509982 -0.9442479
-1.6333865 8.0588055 -0.91650844
-2.6105566 12.87997 -0.73405439
-2.6142483 12.898184 0
-2.2482023 11.092185 0.63216507
-0.72292042 3.5447407 -0.99811459
-0.89823127 4.4043531 -0.9957794
-1.1287251 5.5345478 -0.94168097
-1.6415718 8.049221 -0.91564327
-2.6271551 12.881893 -0.73434442
-2.6282706 12.887363 0
-2.2647178 11.104732 0.63303566
-0.90712816 4.4206905 -0.99972016
-1.1385067 5.5482631 -0.9442479
-1.6502576 8.0421686 -0.91506726
-2.6453316 12.891443 -0.73507053
-2.6443632 12.886725 0
-2.2776122 11.099444 0.63289064
-0.91195381 4.4170957 -0.99915564
-1.1441728 5.5418601 -0.94339281
-1.6599739 8.0401688 -0.91506726
-2.6651075 12.908587 -0.73623109
-2.6641421 12.903911 0
-2.2941754 11.111958 0.63376176
-0.91470701 4.403554 -0.99634176
-1.1524329 5.5480065 -0.94467551
-1.6744214 8.0609474 -0.91766161
-2.6838748 12.920627 -0.73710221
-2.6818492 12.910874 0
-2.3097143 11.119354 0.63434231
-0.73542613 3.5191061 -0.99188578
-0.91950792 4.3999605 -0.9957794
-1.161763 5.5591812 -0.94681656
-1.680456 8.041193 -0.91564327
-2.6989539 12.914833 -0.73695719
-2.6974475 12.907624 0
-2.3231483 11.116555 0.63434231
-0.74380708 3.5378559 -0.99742305
-0.92377716 4.3938684 -0.99465257
-1.1668942 5.5502343 -0.94553226
