# .PCD v0.7 - Point Cloud Data file format
VERSION 0.7
FIELDS x y z
SIZE 4 4 4
TYPE F F F
COUNT 1 1 1
WIDTH 1578
HEIGHT 1
VIEWPOINT 0 0 0 1 0 0 0
POINTS 1578
DATA ascii
-2.7820139 8.2391348 -0.48573345
-2.6658583 7.8951306 0
-3.9324083 11.646111 0.68658972
-0.94236803 2.7798045 -0.96782494
-1.0648447 3.1410873 -0.91506046
-1.3526146 3.989953 -0.933303
-1.7285994 5.0990357 -0.89760154
-2.4265492 7.1578536 -0.84242088
-2.7786193 8.196393 -0.48341122
-2.6745613 7.8894415 0
-3.9531515 11.661037 0.68775088
-0.94643289 2.7862577 -0.97027063
-1.0893322 3.2069473 -0.93443835
-1.3493035 3.9722917 -0.92936224
-1.7349823 5.1077132 -0.89931339
-2.4325352 7.1612797 -0.84299695
-2.7635162 8.1356726 -0.47992843
-2.6759789 7.8779674 0
-3.9627006 11.66602 0.68818587
-0.95618099 2.8038266 -0.97679037
-1.0843014 3.1795163 -0.92682654
-1.3541023 3.9706585 -0.92936224
-1.7336962 5.0837483 -0.8954621
-2.4411864 7.1583352 -0.84299695
-2.7515395 8.0683889 -0.47615507
-2.6846569 7.8722672 0
-3.9726012 11.64893 0.6874603
-0.96917224 2.8307204 -0.98656684
-1.0857036 3.1710808 -0.92474937
-1.3621912 3.9786351 -0.9316138
-1.7398376 5.0816498 -0.8954621
-2.4489973 7.1529355 -0.84270889
-2.7511864 8.0355577 -0.47441339
-2.6975358 7.8788571 0
-3.9706841 11.59742 0.68470305
-0.94608289 2.752425 -0.95967686
-1.0936112 3.181627 -0.92820954
-1.364519 3.9697752 -0.92992461
-1.7518185 5.09654 -0.8984583
-2.4559584 7.1450839 -0.84213287
-2.7516017 8.0051947 -0.47281674
-2.7079022 7.8780599 0
-4.3478742 12.649206 0.74710941
-0.97520471 2.826036 -0.98575264
-1.0933638 3.168448 -0.92474937
-1.3734581 3.9801307 -0.93273848
-1.756299 5.0895615 -0.89760154
-2.4645901 7.1421108 -0.84213287
-2.7587287 7.9944925 -0.47238117
-2.725059 7.8969212 0
-4.3640051 12.646407 0.74725497
-0.93574202 2.7010887 -0.94256335
-1.1070462 3.1955712 -0.93305534
-1.3807625 3.9856732 -0.93442768
-1.7607685 5.0825891 -0.89674646
-2.4740639 7.1415696 -0.84242088
-2.7717888 8.0009747 -0.47296172
-2.7388575 7.9059157 0
-4.3801322 12.643578 0.74739999
-0.98284239 2.8260033 -0.98656684
-1.1010175 3.1657965 -0.92474937
-1.3797339 3.9672003 -0.93048692
-1.767751 5.08288 -0.897174
-2.4801416 7.1312437 -0.84155577
-2.7720678 7.9706297 -0.4713656
-2.7501197 7.9075217 0
-4.400526 12.652997 0.74827051
-1.0998785 3.1502478 -0.92059511
-1.3853664 3.967936 -0.93105143
-1.773046 5.0783191 -0.89674646
-2.4870532 7.1233625 -0.8409797
-2.7782707 7.9574618 -0.47078505
-2.7613866 7.9091024 0
-4.4200935 12.659934 0.74899608
-0.97168481 2.7723095 -0.96863914
-1.1202806 3.1962676 -0.93443835
-1.3952011 3.9806418 -0.93442768
-1.777481 5.0713234 -0.8958897
-2.4956584 7.1203523 -0.8409797
-2.7853045 7.9467402 -0.47034949
-2.770081 7.9033065 0
-4.440546 12.669302 0.7498672
-0.96929383 2.7548196 -0.96293676
-1.111654 3.1594203 -0.9240579
-1.3941057 3.962173 -0.93048692
-1.7793481 5.0570664 -0.89375025
-2.4999685 7.1051345 -0.83953851
-2.7940428 7.9409199 -0.4702045
-2.7787657 7.897501 0
-4.4618888 12.681087 0.75088334
-0.97755915 2.7676251 -0.96782494
-1.1229899 3.1793623 -0.93028671
-1.4031258 3.9724717 -0.933303
-1.7897313 5.0670128 -0.8958897
-2.4835715 7.0313849 -0.83117831
-2.8010387 7.9301853 -0.46976894
-2.7943711 7.9113078 0
-4.4806666 12.685478 0.75146329
-0.98916078 2.7897325 -0.97597307
-1.1226394 3.1661828 -0.92682654
-1.4070731 3.9683716 -0.93273848
-1.7932812 5.0575953 -0.89460701
-2.469594 6.9650016 -0.82368326
-2.8071454 7.9169989 -0.46918836
-2.8030593 7.9054751 0
-4.4985971 12.687405 0.75189888
-0.99336207 2.7908704 -0.97679037
-1.1281452 3.1695464 -0.92820954
-1.4135728 3.9714606 -0.93386531
-1.801111 5.060257 -0.8954621
-0 0 -0
-2.8236802 7.9331851 -0.47034949
-2.8056281 7.8824677 0
-4.5191536 12.696652 0.75277001
-0.96762663 2.7082033 -0.94826579
-1.1395704 3.1894412 -0.93443835
-1.4115311 3.9506078 -0.92936224
-1.809816 5.0653315 -0.89674646
-0 0 -0
-2.8341372 7.9322124 -0.47049448
-2.8169036 7.8839784 0
-4.5388622 12.703415 0.75349557
-0.9992668 2.7861285 -0.97597307
-1.1290258 3.1479192 -0.92267227
-1.4214488 3.9632449 -0.93273848
-1.8176668 5.0679693 -0.89760154
-2.4834745 6.924356 -0.81993574
-2.855123 7.9605761 -0.47238117
-2.8299387 7.8903584 0
-4.5612268 12.717488 0.75465667
-0.98840052 2.745388 -0.9621194
-1.1464257 3.1843197 -0.93374681
-1.4314024 3.9758732 -0.93611687
-1.8177047 5.0488691 -0.89460701
-2.4892101 6.9140468 -0.81907058
-2.8700225 7.9717941 -0.4732523
-2.8447616 7.9016294 0
-4.5792279 12.719295 0.75509167
-0.97911894 2.7093313 -0.94989729
-1.1408923 3.1569765 -0.92613238
-1.4327512 3.9645822 -0.93386531
-1.8281655 5.0587378 -0.89674646
-2.4905298 6.8915739 -0.81676424
-2.882303 7.9756541 -0.47368783
-0 0 0
-4.6034265 12.738194 0.75654334
-0.99166077 2.7336977 -0.95885956
-1.1421419 3.1485271 -0.9240579
-1.4384061 3.9652345 -0.93442768
-1.8342767 5.0565252 -0.89674646
-2.4988551 6.8885598 -0.81676424
-2.8972528 7.9868169 -0.47455841
-0 0 0
-4.6197 12.735064 0.75668836
-1.014414 2.7859156 -0.97760457
-1.1390786 3.1282859 -0.91852063
-1.4397188 3.9539433 -0.93217611
-1.8412626 5.056715 -0.897174
-2.5071769 6.8855352 -0.81676424
-2.9131255 8.0004044 -0.47557452
-0 0 0
-4.6395288 12.741678 0.75741392
-1.0118394 2.7684357 -0.97189903
-1.1609423 3.1763878 -0.93305534
-1.4453667 3.9545851 -0.93273848
-1.8403215 5.0351977 -0.89375025
-2.5101657 6.8679204 -0.81503397
-2.9165454 7.9797921 -0.47455841
-2.928479 8.0124426 0
-4.6611662 12.753149 0.75843
-1.0160342 2.7695293 -0.97271317
-1.1474984 3.127877 -0.9192121
-1.4580194 3.9743023 -0.93780392
-1.850824 5.0450182 -0.8958897
-2.5131192 6.8503175 -0.81330472
-2.9324508 7.993341 -0.47557452
-2.960566 8.0699778 0
-4.6810465 12.759703 0.75915557
-0.98778367 2.6824946 -0.94256335
-1.1738148 3.1876936 -0.93720698
-1.4575541 3.958236 -0.93442768
-1.8560324 5.0403714 -0.8954621
-2.519609 6.8424263 -0.8127287
-2.942107 7.9897919 -0.47557452
-2.946033 8.0004539 0
-4.7009492 12.766227 0.75988114
-1.0175846 2.7531605 -0.96782494
-1.1594018 3.1368585 -0.92267227
-1.4632158 3.958853 -0.93498999
-1.8603431 5.0333142 -0.89460701
-2.5224929 6.8248158 -0.81099844
-2.9616656 8.0130339 -0.47717062
-2.9926889 8.0969706 0
-4.7226782 12.7776 0.76089728
-1.0105945 2.7241213 -0.95804536
-1.1850052 3.1942563 -0.93997562
-1.4724163 3.968991 -0.93780392
-1.8735665 5.0503168 -0.89803076
-2.5298388 6.8193402 -0.81071037
-2.9704428 8.0070162 -0.47702563
-3.0432034 8.2031469 0
-4.7408261 12.779196 0.76133281
-1.03635 2.7883797 -0.98086441
-1.1755735 3.1629713 -0.93097818
-1.4668479 3.9466677 -0.93273848
-1.8703562 5.0323381 -0.89503455
-2.5285535 6.8032684 -0.80898118
-2.972563 7.9979105 -0.47659007
-3.0481586 8.2013063 0
-4.7557845 12.795805 0.76249337
-1.0319445 2.7662861 -0.97353053
-1.1943001 3.2015054 -0.94274426
-1.4733934 3.9496582 -0.93386531
-1.8809208 5.042098 -0.897174
-2.5313461 6.7856636 -0.80725086
-2.9676971 7.9553695 -0.47426841
-3.167213 8.490202 0
-4.7776003 12.807094 0.76350945
-1.0257522 2.7395737 -0.9645651
-1.1726574 3.1319273 -0.92267227
-1.4826187 3.9597704 -0.93667918
-1.8843105 5.0326071 -0.8958897
-2.5422652 6.7898688 -0.80811602
-2.9654601 7.9201355 -0.47238117
-3.1938937 8.5302353 0
-4.7958059 12.808615 0.76394504
-1.0203687 2.7152004 -0.95641702
-1.1676172 3.1070285 -0.91575199
-1.4838269 3.9484622 -0.93442768
-1.8849735 5.015913 -0.89332271
-2.546828 6.7771077 -0.80696285
-2.9658887 7.8922276 -0.47093004
-3.2032838 8.5239353 0
-4.8185916 12.822269 0.76510614
-1.0410905 2.7602081 -0.97271317
-1.1793381 3.1267393 -0.92198074
-1.4930794 3.9585512 -0.93724155
-1.8910329 5.0136318 -0.89332271
-2.5513637 6.7643452 -0.80580968
-2.9690027 7.8716168 -0.46991393
-3.2328675 8.5711927 0
-4.839582 12.83102 0.76597673
-1.0505511 2.775131 -0.97841871
-1.1991012 3.1675403 -0.93443835
-1.4987602 3.9591184 -0.93780392
-1.8998169 5.018548 -0.89460701
-2.5558724 6.7515812 -0.80465651
-2.9867942 7.8899021 -0.47122061
-3.2340095 8.5429459 0
-4.8596811 12.837312 0.76670229
-1.0310813 2.7137921 -0.95723122
-1.2100559 3.1848509 -0.93997562
-1.4963268 3.9383116 -0.933303
-1.9086121 5.0234408 -0.8958897
-2.560354 6.7388167 -0.80350333
-2.9972475 7.8887143 -0.4713656
-3.2452531 8.5414619 0
-4.8770366 12.836293 0.76699281
-1.0704647 2.8072274 -0.99064398
-1.180831 3.0966561 -0.9143663
-1.5047057 3.9459972 -0.9355545
-1.9119393 5.0139422 -0.89460701
-2.567574 6.7333035 -0.80321532
-3.006777 7.8850865 -0.4713656
-3.2416615 8.5010567 0
-4.8999496 12.849814 0.76815397
-1.0358679 2.7066712 -0.95559973
-1.1944364 3.1210027 -0.92198074
-1.5103798 3.946547 -0.93611687
-1.9161594 5.0068288 -0.89375025
-2.5664613 6.7060356 -0.80033189
-3.0172305 7.8838725 -0.47151062
-3.2565849 8.5092936 0
-4.9219713 12.860865 0.76916951
-1.0666111 2.7769451 -0.98086441
-1.2107984 3.1523402 -0.93166971
-1.5242561 3.9684341 -0.94174463
-1.9194455 4.9973183 -0.89246595
-2.5782721 6.7125878 -0.80148506
-3.0230277 7.8705182 -0.47093004
-3.322849 8.6511106 0
-4.9356456 12.850061 0.76887947
-1.0584096 2.745676 -0.97027063
-1.1938548 3.0970416 -0.91575199
-1.5126014 3.9239187 -0.9316138
-1.9301018 5.0069785 -0.89460701
-2.5798714 6.6925807 -0.7994678
-3.0269294 7.8523169 -0.47005948
-3.4128618 8.8534851 0
-4.946497 12.831968 0.76815397
-1.0519159 2.7190366 -0.96130526
-1.2048376 3.114315 -0.92128927
-1.5274235 3.9481485 -0.93780392
-1.9333707 4.997458 -0.89332271
-2.5870204 6.6870394 -0.79917872
-3.0336015 7.8413811 -0.46962392
-3.4254334 8.8542042 0
-5.3323092 13.783177 0.82548082
-1.0417846 2.6832097 -0.94908309
-1.2449169 3.2063951 -0.94897306
-1.5331153 3.9486756 -0.93836838
-1.9375477 4.9903278 -0.89246595
-2.5904186 6.6718554 -0.79773754
-3.0440137 7.8401299 -0.46976894
-3.4483774 8.8816051 0
-5.3414359 13.757346 0.82431972
-1.0620731 2.7256985 -0.9645651
-1.2387737 3.1791818 -0.94136131
-1.5240468 3.9113052 -0.92992461
-1.9417139 4.9832039 -0.8916108
-2.5975401 6.6663127 -0.79744947
-3.0525422 7.8340273 -0.46962392
-3.4704413 8.9065208 0
-5.3561697 13.746044 0.82402974
-1.0644665 2.7221134 -0.9637509
-1.2197734 3.1192729 -0.9240579
-1.5241458 3.8976309 -0.92711073
-1.9449282 4.9736791 -0.8903265
-2.6037111 6.6583562 -0.79687345
-3.0714674 7.8545284 -0.47107506
-3.4887831 8.9217119 0
-5.3708811 13.734717 0.82373917
-1.0677549 2.7208252 -0.9637509
-1.239121 3.157496 -0.93582398
-1.5409203 3.926533 -0.93442768
-1.9499996 4.9689384 -0.88989896
-2.607975 6.6455741 -0.79572028
-3.0970922 7.8919296 -0.47354227
-3.5043135 8.9296007 0
-5.3855762 13.723385 0.82344913
-1.079192 2.7402282 -0.97108483
-1.226386 3.1139753 -0.92336375
-1.5521821 3.9412196 -0.93836838
-1.9578853 4.9713602 -0.89075571
-2.6141057 6.6376004 -0.79514319
-3.0990083 7.8688402 -0.47238117
-3.5074749 8.9059973 0
-5.3964391 13.702356 0.82257801
-1.0834099 2.7412186 -0.97189903
-1.2246168 3.0984967 -0.9192121
-1.5429331 3.9038935 -0.92992461
-1.9657761 4.9737606 -0.8916108
-2.619271 6.6272182 -0.79427803
-3.1247499 7.9061689 -0.47484839
-3.515363 8.8944893 0
-5.4082174 13.683745 0.82185251
-1.0666757 2.6893671 -0.95397133
-1.2616578 3.180968 -0.94412994
-1.5307885 3.8595166 -0.91979373
-1.9821962 4.9976325 -0.89631885
-2.623466 6.6144409 -0.79312593
-3.1180153 7.8613281 -0.47238117
-3.5299456 8.8999119 0
-5.4218726 13.669952 0.82141691
-1.0900311 2.7385924 -0.97189903
-1.2348852 3.1025231 -0.92128927
-1.5382708 3.8647487 -0.92148292
-1.9825357 4.9809189 -0.89375025
-2.6314564 6.6112661 -0.79312593
-3.136163 7.8792901 -0.47368783
-3.5483963 8.9149837 0
-5.4326224 13.648911 0.82054639
-1.0676726 2.6730142 -0.94908309
-1.2609634 3.156935 -0.93789846
-1.5325711 3.8369288 -0.91529065
-1.9856951 4.9713655 -0.89246595
-2.6317675 6.5888658 -0.79081959
-3.1476071 7.8803163 -0.47397783
-0 0 0
-5.4442921 13.630273 0.81982082
-1.0874522 2.7130127 -0.9637509
-1.2367769 3.0855534 -0.91713494
-1.5372062 3.8350742 -0.91529065
-1.9907465 4.9665823 -0.8920384
-2.6416497 6.5904779 -0.7913956
-3.1590621 7.8813357 -0.47426841
-0 0 0
-4.0957603 10.218243 0.61489445
-1.0932904 2.7133276 -0.9645651
-1.2414306 3.080982 -0.91644347
-1.5128179 3.7545106 -0.896716
-1.9968694 4.9558296 -0.89075571
-2.6622894 6.6072683 -0.79399002
-3.1762521 7.8828206 -0.4747034
-0 0 0
-4.1074753 10.19393 0.61387837
-1.0937878 2.7051282 -0.9621194
-1.2479748 3.0864594 -0.91852063
-1.503069 3.7173524 -0.88827437
-2.0047789 4.9581685 -0.8916108
-2.6693025 6.6016512 -0.79370195
-3.1886976 7.8862062 -0.47513896
-3.5890131 8.876256 0
-4.1197896 10.188959 0.61387837
-1.1063501 2.7267118 -0.97027063
-1.2837714 3.1639845 -0.94205278
-1.5018259 3.7014022 -0.88489598
-2.0098042 4.9533658 -0.89118326
-2.6792204 6.60321 -0.79427803
-3.207016 7.9040155 -0.47644508
-3.5811439 8.8260918 0
-4.127214 10.171937 0.6131528
-1.1068469 2.7185032 -0.96782494
-1.2648884 3.1066656 -0.92544091
-1.4947994 3.671345 -0.87814134
-2.0167549 4.9533091 -0.8916108
-2.6891496 6.6047635 -0.79485512
-3.215585 7.8977304 -0.47630006
-4.0520539 9.9521637 0
-4.1365614 10.15972 0.61271721
-1.1045239 2.7034402 -0.96293676
-1.2610505 3.0865557 -0.91990358
-1.4953903 3.6601274 -0.87588984
-2.019825 4.943737 -0.8903265
-2.7000639 6.6086946 -0.79572028
-3.2388825 7.9275107 -0.47833174
-4.0522642 9.9183502 0
-4.1429396 10.140286 0.61184669
-1.099349 2.6815152 -0.95559973
-1.301891 3.1755524 -0.9468959
-1.4901751 3.6348124 -0.87026203
-2.0277464 4.9460483 -0.89118326
-2.7119718 6.6150002 -0.79687345
-3.2484589 7.9235911 -0.47833174
-4.060297 9.9038143 0
-4.1512465 10.125656 0.61126614
-1.1101109 2.6984708 -0.9621194
-1.2961843 3.1507804 -0.93997562
-1.4926345 3.628314 -0.86913735
-2.0346971 4.9459662 -0.8916108
-2.7219288 6.6164975 -0.79744947
-3.2540765 7.910048 -0.4777512
-4.0692935 9.8916874 0
-4.1565571 10.103809 0.61025
-1.0954547 2.6537266 -0.94663745
-1.295205 3.1376193 -0.93651551
-1.4892614 3.6077187 -0.86463428
-2.0367537 4.9340124 -0.88989896
-2.7407787 6.6395049 -0.80062097
-3.2556999 7.8868957 -0.47659007
-4.064362 9.84587 0
-4.165791 10.091581 0.609815
-1.1147388 2.6912177 -0.96049106
-1.2749946 3.0781093 -0.9192121
-1.4984804 3.6176517 -0.86744815
-2.0436954 4.933917 -0.8903265
-2.7438474 6.6242337 -0.79917872
-3.2781534 7.9141622 -0.47847673
-4.0742621 9.8361387 0
-4.1769843 10.084132 0.60966945
-1.0990179 2.6442223 -0.94419175
-1.2912292 3.1066804 -0.92820954
-1.4989498 3.6064532 -0.86519665
-2.0506437 4.9338217 -0.89075571
-2.7578075 6.6352482 -0.80090898
-3.2737536 7.8766079 -0.47644508
-4.0831504 9.8240061 0
-4.1811876 10.059882 0.60850835
-1.1374114 2.7272937 -0.97434467
-1.2785668 3.0657573 -0.91644347
-1.5218861 3.6491899 -0.87588984
-2.0496862 4.914753 -0.88775951
-2.7688105 6.6390753 -0.80177414
-3.2952707 7.9014254 -0.47818676
-2.9771326 7.1385908 0
-4.1913419 10.050031 0.60821831
-1.1206706 2.6780391 -0.95723122
-1.3016394 3.110496 -0.93028671
-1.5164876 3.6239135 -0.87026203
-2.0655308 4.9359488 -0.8920384
-2.7788255 6.640492 -0.80235016
-3.2987952 7.8830509 -0.47731563
-2.9857559 7.1349883 0
-4.1944556 10.023388 0.6069122
-1.1306046 2.6926372 -0.96293676
-1.3083079 3.1158538 -0.93236119
-1.5149649 3.6080265 -0.86688584
-2.0724864 4.9358144 -0.89246595
-2.7938576 6.6538253 -0.8043685
-3.3173747 7.9006286 -0.47862232
-2.9903448 7.1217775 0
-4.2005258 10.003933 0.60604107
-1.1348159 2.6935449 -0.9637509
-1.30136 3.0888457 -0.92474937
-1.5163629 3.5991664 -0.86519665
-2.0754616 4.9262161 -0.89118326
-2.8018954 6.6504445 -0.8043685
-3.324899 7.8918204 -0.47833174
-3.0039992 7.1301484 0
-4.2116027 9.9964581 0.60589612
-1.1332588 2.6807909 -0.95967686
-1.3109505 3.1011314 -0.92890102
-1.5246681 3.606693 -0.86744815
-2.0754132 4.9095135 -0.88861465
-2.8189921 6.6684933 -0.80696285
-3.3374684 7.89498 -0.47876731
-3.0014646 7.100143 0
-4.2176099 9.977006 0.60502553
-1.1345651 2.6748645 -0.95804536
-1.3107781 3.0903068 -0.92613238
-1.5310074 3.6095219 -0.86857283
-2.0873604 4.9211864 -0.89118326
-2.8260386 6.6627035 -0.80667484
-3.3551228 7.9100785 -0.47992843
-3.0039461 7.0821404 0
-4.2215447 9.9527655 0.60386443
-1.1397339 2.6780446 -0.95967686
-1.2899516 3.0310125 -0.90882903
-1.5244255 3.5819583 -0.86238277
-2.0953135 4.9233799 -0.8920384
-2.8381386 6.6688032 -0.80782801
-3.3656948 7.9084072 -0.48007342
-3.0104611 7.0737114 0
-4.2345843 9.9500456 0.60400945
-1.1517036 2.6971207 -0.9670108
-1.3133173 3.0755961 -0.92267227
-1.5327438 3.5894608 -0.86463428
-2.0982397 4.9137688 -0.89075571
-2.8512721 6.6772604 -0.80926919
-3.3793297 7.9138937 -0.48065397
-3.0149181 7.0604949 0
-4.2343588 9.9162455 0.60226774
-1.1559342 2.6979969 -0.96782494
-1.3120935 3.062479 -0.9192121
-1.5390793 3.592273 -0.86575896
-2.115293 4.9371791 -0.8954621
-2.8644302 6.6856952 -0.81071037
-3.383774 7.8978648 -0.47992843
-3.0152478 7.0377092 0
-4.2442927 9.9063501 0.60197777
-1.1601685 2.6988666 -0.96863914
-1.3217359 3.0747161 -0.92336375
-1.5424162 3.5880785 -0.86519665
-2.1121337 4.9133964 -0.8916108
-2.879658 6.6988654 -0.8127287
-3.4035747 7.9176378 -0.48137954
-3.0268338 7.0412359 0
-4.2501001 9.8868866 0.60110664
-1.1467892 2.6588833 -0.95478553
-1.3373729 3.1007602 -0.93166971
-1.5366895 3.5628853 -0.85956883
-2.1201005 4.9155502 -0.89246595
-2.8877501 6.6953807 -0.8127287
-3.4182835 7.925447 -0.48210511
-3.0312166 7.0280147 0
-4.2641039 9.8865204 0.60139722
-1.140187 2.6348166 -0.94663745
-1.3381324 3.0922415 -0.92959517
-1.5500746 3.582011 -0.86463428
-2.1290979 4.9200549 -0.89375025
-2.8989167 6.6990013 -0.81359279
-3.4433379 7.9570847 -0.48428231
-3.0273035 6.9956856 0
-4.261601 9.8479786 0.59936553
-1.1466925 2.6454639 -0.95071149
-1.322039 3.0499949 -0.91713494
-1.5471867 3.5694194 -0.8618204
-2.1310501 4.9164147 -0.89332271
-2.9081056 6.7091122 -0.81503397
-3.0410032 7.0157118 -0.42710045
-3.0336015 6.9986358 0
-4.272716 9.8573208 0.6000911
-1.1577739 2.6622088 -0.95723122
-1.3287259 3.0552995 -0.9192121
-1.5525109 3.5698752 -0.86238277
-2.1349397 4.9091234 -0.89246595
-2.9193058 6.7127113 -0.81589913
-3.0619094 7.0406175 -0.42884156
-3.0316787 6.9711037 0
-4.2815137 9.8449993 0.59965551
-1.1540697 2.6449482 -0.95152563
-1.3163638 3.0169013 -0.9081375
-1.5547889 3.5633345 -0.86125588
-2.1470313 4.9206619 -0.89503455
-2.9294853 6.7139249 -0.81647623
-0 0 -0
-3.0515454 6.9936671 0
-4.2840548 9.818387 0.59834939
-1.1731236 2.6797783 -0.9645651
-1.3522028 3.0888507 -0.93028671
-1.5611334 3.566113 -0.86238277
-2.1447399 4.8992515 -0.8916108
-2.9417446 6.7198577 -0.8176294
-0 0 -0
-3.0453842 6.9566026 0
-4.28862 9.7965384 0.59733331
-1.1554896 2.6308389 -0.94745159
-1.3539144 3.0826163 -0.92890102
-1.5725906 3.5805023 -0.86632133
-2.1547873 4.9060578 -0.89332271
-2.9509013 6.7186642 -0.81791741
-0 0 -0
-3.0548332 6.9552984 0
-4.3004541 9.7913494 0.59733331
-1.1845784 2.6882422 -0.96863914
-1.3505597 3.0649142 -0.9240579
-1.573845 3.5716305 -0.86463428
-2.1617479 4.9057975 -0.89375025
-2.9663191 6.7316642 -0.81993574
-0 0 -0
-3.0621867 6.9492226 0
-4.3122816 9.7861462 0.59733331
-1.1748348 2.657424 -0.95804536
-1.3573023 3.0701573 -0.92613238
-1.5761027 3.565074 -0.86350745
-2.1645589 4.8961358 -0.89246595
-2.9796789 6.7399006 -0.82137692
-3.0938847 6.9982295 -0.42739043
-3.0611115 6.9240975 0
-4.3167515 9.7642994 0.59631771
-1.1800511 2.6605253 -0.95967686
-1.3681322 3.0845704 -0.93097818
-1.5762885 3.5538762 -0.86125588
-2.1694336 4.8911724 -0.8920384
-2.986769 6.7339244 -0.82108784
-3.1023386 6.9944859 -0.42739043
-3.071584 6.9251471 0
-4.3137951 9.7258177 0.59428549
-1.1842688 2.6613536 -0.96049106
-1.3606379 3.0576999 -0.92336375
-1.5805814 3.5519691 -0.86125588
-2.1763847 4.8908906 -0.89246595
-2.9970083 6.7350411 -0.82166493
-3.1139579 6.9978566 -0.42782599
-3.072542 6.9047842 0
-4.318152 9.7039871 0.59326994
-1.1854666 2.6554024 -0.95885956
-1.3530847 3.0308609 -0.91575199
-1.5941935 3.570936 -0.86632133
-2.1854334 4.8952918 -0.89375025
-3.0083084 6.7385025 -0.82253009
-3.1245277 6.9988298 -0.42811599
-3.0819468 6.90345 0
-4.3383484 9.7177439 0.59443104
-1.1886743 2.6539681 -0.95885956
-1.3598233 3.0360947 -0.9178291
-1.5964319 3.5643737 -0.86519665
-2.1871495 4.8832765 -0.8920384
-3.0217335 6.7466631 -0.82397127
-3.124485 6.9760776 -0.4269549
-3.0934744 6.9068398 0
-4.3384027 9.6864071 0.59283435
-1.1746598 2.6142061 -0.94500595
-1.3665726 3.0413079 -0.91990358
-1.5934466 3.5462162 -0.86125588
-2.1962059 4.8876567 -0.89332271
-3.0415416 6.7689519 -0.8271417
-3.137172 6.9817777 -0.42753544
-3.0954199 6.8888583 0
-4.3479714 9.6764126 0.59254384
-1.1717253 2.5992696 -0.94011772
-1.3815886 3.064815 -0.92751807
-1.5966872 3.5419741 -0.86069357
-2.19789 4.8756385 -0.8916108
-3.0486562 6.7629161 -0.82685369
-3.1413343 6.9685063 -0.4269549
-3.0962536 6.8685026 0
-4.3553891 9.6616764 0.59196329
-1.1870867 2.6248763 -0.94989729
-1.3811557 3.0539999 -0.92474937
-1.6030618 3.544677 -0.8618204
-2.2027228 4.8706427 -0.89118326
-3.0600243 6.7662997 -0.82771879
-3.1497521 6.9647059 -0.4269549
-3.0991895 6.8529024 0
-4.3649206 9.6516762 0.59167325
-1.1943423 2.6324432 -0.95315713
-1.3744814 3.0294869 -0.9178291
-1.6083925 3.545049 -0.86238277
-2.2107258 4.8726482 -0.8920384
-3.0671301 6.7602444 -0.82743078
-3.164609 6.9750972 -0.42782599
-3.1074677 6.8491526 0
-4.3722854 9.6369295 0.59109271
-1.2026407 2.6422436 -0.95723122
-1.3802176 3.0323863 -0.9192121
-1.6063572 3.529223 -0.85900438
-2.2208655 4.8793192 -0.89375025
-3.0817232 6.7706537 -0.82915998
-3.1816463 6.9901881 -0.42898712
-3.1114287 6.8359179 0
-4.3817754 9.626914 0.59080273
-1.206858 2.6430347 -0.95804536
-1.3765852 3.0147395 -0.9143663
-1.6180092 3.5434608 -0.86294508
-2.2235599 4.8696246 -0.89246595
-3.1006432 6.7904487 -0.8320424
-3.1911685 6.9886999 -0.4291321
-3.1132026 6.8179536 0
-4.3826094 9.597971 0.58935106
-1.1976987 2.6146097 -0.94826579
-1.3948563 3.0450101 -0.9240579
-1.6222895 3.5415032 -0.86294508
-2.2315824 4.8716063 -0.89332271
-3.1066935 6.7819986 -0.83146632
-3.2190874 7.0273576 -0.43174434
-3.124691 6.8212876 0
-4.3952847 9.5950289 0.58949602
-1.2132417 2.6401105 -0.95804536
-1.3723465 2.986335 -0.90675455
-1.6223236 3.5303054 -0.86069357
-2.2310379 4.8549156 -0.89075571
-3.1235261 6.7970414 -0.83377266
-3.2221522 7.0116596 -0.4310188
-3.1253231 6.8009515 0
-4.3938594 9.5613871 0.58775491
-1.2143633 2.6341577 -0.95641702
-1.3980095 3.0325172 -0.92128927
-1.6159525 3.5052719 -0.85506576
-2.2347507 4.8475494 -0.88989896
-3.1339004 6.7979555 -0.83434874
-3.2349737 7.0172 -0.43159935
-3.1477015 6.8278928 0
-4.3999667 9.5442648 0.5870288
-1.2185818 2.6349297 -0.95723122
-1.3921962 3.0103345 -0.91506046
-1.6308503 3.5263746 -0.86069357
-2.2406065 4.8448453 -0.88989896
-3.1464548 6.8035541 -0.83550191
-3.2543552 7.0368662 -0.43305045
-3.1461189 6.8028274 0
-4.4114957 9.5389414 0.5870288
-1.212404 2.6132789 -0.94989729
-1.4000558 3.0177531 -0.9178291
-1.6361784 3.5267041 -0.86125588
-2.256181 4.8630905 -0.89375025
-3.1666481 6.8255587 -0.83867335
-3.2366142 6.976367 -0.42956766
-3.1477625 6.7848516 0
-4.4175515 9.521821 0.58630323
-1.2280755 2.6387017 -0.95967686
-1.3888791 2.9842119 -0.9081375
-1.6393675 3.522423 -0.86069357
-2.2523081 4.8394165 -0.88989896
-3.1639817 6.7982821 -0.83579099
-3.2450414 6.9724507 -0.42956766
-0 0 0
-4.4224772 9.502346 0.58543271
-1.2046076 2.5841951 -0.94011772
-1.4012833 3.0061152 -0.91506046
-1.6457893 3.5306439 -0.86294508
-2.2530644 4.833406 -0.88904387
-3.1604378 6.7799573 -0.83377266
-3.8574228 8.2751703 -0.50997078
-3.1501598 6.7579083 0
-4.4271207 9.4973192 0.58528769
-1.2265723 2.6230338 -0.95478553
-1.3953472 2.9839602 -0.90882903
-1.6489789 3.5263534 -0.86238277
-2.2610755 4.8353267 -0.88989896
-3.1675332 6.7737927 -0.83348465
-3.8619165 8.2587366 -0.50924522
-3.1561205 6.7493863 0
-4.4330864 9.4801874 0.58456159
-1.2129463 2.5857475 -0.94174606
-1.3957585 2.9754646 -0.90675455
-1.6543167 3.5266564 -0.86294508
-2.269099 4.8372436 -0.89075571
-3.186698 6.7933726 -0.83636701
-3.882926 8.2775841 -0.51069629
-3.1609566 6.7384973 0
-4.4500589 9.4865932 0.58528769
-1.2276468 2.6088822 -0.95071149
-1.4143052 3.0055516 -0.91644347
-1.6542493 3.5154586 -0.86069357
-2.2814982 4.8484302 -0.89332271
-3.2026141 6.8059015 -0.83838534
-3.8929248 8.2728863 -0.51069629
-3.1668825 6.7299681 0
-4.4416018 9.4388838 0.58267492
-1.2244699 2.5939906 -0.94582325
-1.4104383 2.9879575 -0.91159767
-1.6530737 3.5019705 -0.85787964
-2.2818768 4.834065 -0.89118326
-3.1997924 6.7786322 -0.83550191
-3.9006977 8.2634726 -0.51040578
-3.1727881 6.7214251 0
-3.9217224 8.308013 0.51315683
-1.2392356 2.6170747 -0.95478553
-1.4301537 3.0202644 -0.92198074
-1.6583903 3.502265 -0.85844201
-2.2877162 4.8313046 -0.89118326
-3.2113025 6.7817764 -0.83636701
-3.9184649 8.2751951 -0.51142186
-3.1820199 6.7199364 0
-0 0 0
-1.240278 2.6111147 -0.95315713
-1.417655 2.9845402 -0.91159767
-1.6615317 3.4979656 -0.85787964
-2.2924519 4.82622 -0.89075571
-3.2194946 6.7778912 -0.83636701
-3.9195421 8.2516775 -0.51026076
-3.1812043 6.6972804 0
-4.5437942 9.5658941 0.59152824
-1.249809 2.6229975 -0.95804536
-1.4234205 2.987359 -0.9129833
-1.6613853 3.4867802 -0.85562813
-2.3049049 4.8373466 -0.89332271
-3.2276819 6.7739959 -0.83636701
-3.9362183 8.261014 -0.51113188
-3.1937723 6.7028294 0
-4.518466 9.4829884 0.58673882
-1.2455196 2.6058819 -0.95234299
-1.4335183 2.9992137 -0.91713494
-1.6688854 3.4916499 -0.85731733
-2.2985699 4.8090787 -0.88861465
-3.2358646 6.7700911 -0.83636701
-3.9338701 8.2304611 -0.50953519
-3.2041159 6.7036657 0
-4.5500889 9.5197172 0.58935106
-1.2411866 2.5887723 -0.94663745
-1.4154532 2.952244 -0.90329438
-1.6785946 3.5010843 -0.8601312
-2.3165882 4.8317623 -0.89332271
-3.2440426 6.7661762 -0.83636701
-3.9527991 8.2444468 -0.51069629
-3.206589 6.6880579 0
-4.5469851 9.4837542 0.58746433
-1.2614535 2.6229088 -0.95967686
-1.4483745 3.011569 -0.92198074
-1.6740136 3.4807348 -0.85562813
-2.3224247 4.8289599 -0.89332271
-3.2544558 6.7669086 -0.83694309
-3.9582531 8.2302971 -0.51011574
-3.2270722 6.709971 0
-4.5528111 9.466547 0.58673882
-1.2409934 2.5724044 -0.94174606
-1.4312998 2.9668827 -0.90882903
-1.6815313 3.4855773 -0.85731733
-2.3204489 4.8099632 -0.8903265
-3.2603843 6.758317 -0.83636701
-3.444346 7.1396432 -0.44277439
-3.2295246 6.6943488 0
-4.552958 9.4376402 0.58528769
-1.2505625 2.5842559 -0.94663745
-1.4436262 2.983217 -0.9143663
-1.6957018 3.5041254 -0.86238277
-2.3284976 4.8117819 -0.89118326
-3.2640414 6.7450595 -0.83521384
-3.4767385 7.1845922 -0.44582218
-3.2308114 6.6763906 0
-4.6017046 9.5093069 0.59007657
-1.2504452 2.5760703 -0.94419175
-1.437371 2.9611604 -0.9081375
-1.6943879 3.4906468 -0.85956883
-2.3410339 4.8228168 -0.89375025
-3.2755787 6.7480936 -0.836079
-3.4842834 7.178051 -0.44567719
-3.251374 6.6982288 0
-0 0 0
-1.2654599 2.5990038 -0.95315713
-1.4409479 2.9594214 -0.9081375
-1.6941552 3.479459 -0.85731733
-2.3412418 4.8084464 -0.8916108
-3.28373 6.7441306 -0.836079
-3.488404 7.1644907 -0.44509661
-3.2503507 6.6755762 0
-0 0 0
-1.266428 2.5930269 -0.95152563
-1.4489267 2.9666953 -0.9109062
-1.6938978 3.4682767 -0.85506576
-2.3414183 4.7940831 -0.88947141
-3.2862022 6.7285395 -0.83463782
-3.492497 7.1509309 -0.44451606
-3.2732611 6.7020426 0
-0 0 0
-1.2706506 2.5937207 -0.95234299
-1.4491981 2.9581814 -0.90882903
-1.7047923 3.4799139 -0.85844201
-2.3517268 4.8004718 -0.89118326
-3.292052 6.719914 -0.83406067
-3.4954202 7.1350403 -0.4437905
-3.2882285 6.7121096 0
-0 0 0
-1.2683305 2.5810859 -0.94826579
-1.4439243 2.9384239 -0.90329438
-1.7078763 3.4755733 -0.85787964
-2.3552589 4.793014 -0.8903265
-3.3127182 6.7414684 -0.83723217
-3.501745 7.126143 -0.44349995
-3.297483 6.710465 0
-0 0 0
-1.2778515 2.5846622 -0.95071149
-1.4676958 2.9686534 -0.91367483
-1.714016 3.466876 -0.85675281
-2.3691125 4.7919154 -0.89118326
-3.3244147 6.7241688 -0.836079
-3.5258677 7.1316404 -0.44437107
-3.3286831 6.7328029 0
-4.661243 9.4281216 0.58746433
-1.2853658 2.5919735 -0.95397133
-1.4690548 2.9623868 -0.91229182
-1.7148205 3.4579799 -0.85506576
-2.3840249 4.8074479 -0.89460701
-3.3267927 6.7085633 -0.83463782
-3.5806549 7.2204828 -0.45017609
-3.3472209 6.7497578 0
-0 0 0
-1.2873971 2.5882075 -0.95315713
-1.4648111 2.9448838 -0.90744603
-1.7201281 3.458178 -0.85562813
-2.3829701 4.7907686 -0.8920384
-3.3325901 6.6999025 -0.83406067
-3.6090486 7.2557001 -0.45264331
-3.346102 6.727067 0
-0 0 0
-1.2900616 2.5896394 -0.95397133
-1.4788961 2.9687018 -0.91506046
-1.722217 3.4571383 -0.85562813
-2.3870077 4.7916236 -0.89246595
-3.3389461 6.7025228 -0.83463782
-3.6134315 7.2535181 -0.45264331
-3.3548074 6.7343621 0
-0 0 0
-1.3009241 2.6035576 -0.95967686
-1.4723867 2.9467082 -0.90882903
-1.7207155 3.4436922 -0.85281426
-2.3950927 4.7933331 -0.89332271
-3.3458829 6.6961627 -0.83434874
-3.6396163 7.2840157 -0.45482054
-3.362942 6.7303033 0
-0 0 0
-1.2852437 2.5644224 -0.94582325
-1.4725771 2.938205 -0.90675455
-1.7373952 3.4665914 -0.85900438
-2.396282 4.7812557 -0.8916108
-3.3435426 6.6713066 -0.83175439
-3.6507411 7.2842541 -0.45511055
-3.3850646 6.7541547 0
-0 0 0
-1.3027717 2.5915732 -0.95641702
-1.4851406 2.9543555 -0.91229182
-1.7381623 3.4576855 -0.85731733
-2.4043612 4.7829394 -0.89246595
-3.3423076 6.6487741 -0.82944804
-3.6595402 7.2798376 -0.45511055
-3.4002388 6.7640157 0
-0 0 0
-1.2858702 2.5502679 -0.94174606
-1.4796733 2.9346378 -0.90675455
-1.7411916 3.4533074 -0.85675281
-2.4101386 4.7800307 -0.89246595
-3.3549967 6.6539688 -0.83060122
-3.6659961 7.2707744 -0.45482054
-3.4025476 6.7482762 0
-0 0 0
-1.2844933 2.5398984 -0.93848932
-1.4809515 2.9283659 -0.90536886
-1.738485 3.4376006 -0.85337657
-2.4193892 4.7839894 -0.89375025
-3.3677034 6.6591425 -0.83175439
-3.6712596 7.2593808 -0.45438498
-3.421273 6.7650685 0
-0 0 0
-1.2953849 2.5537679 -0.94419175
-1.4913005 2.9400029 -0.90952319
-1.7529813 3.4558897 -0.85844201
-2.4216831 4.7741923 -0.89246595
-3.3745782 6.6527638 -0.83146632
-3.6906066 7.2757936 -0.4556911
-3.4306209 6.7632484 0
-0 0 0
-1.2951063 2.5455899 -0.94174606
-1.4834735 2.9158344 -0.90260023
-1.7456362 3.4311271 -0.85281426
-2.4204679 4.7575393 -0.88989896
-3.3814428 6.6463785 -0.83117831
-3.685256 7.2435374 -0.45394942
-3.4505892 6.782289 0
-0 0 0
-1.3105398 2.5682423 -0.95071149
-1.4995402 2.938623 -0.91021466
-1.7578619 3.4448514 -0.85675281
-2.4250491 4.752327 -0.88947141
-3.3871176 6.6376758 -0.83060122
-3.6928258 7.2367668 -0.45380443
-3.4623315 6.7850714 0
-0 0 0
-1.3102628 2.5600543 -0.94826579
-1.4916619 2.9144807 -0.90329438
-1.762023 3.4427249 -0.85675281
-2.4378047 4.7630997 -0.8920384
-3.3927808 6.6289778 -0.83002514
-3.6968319 7.2230473 -0.45322388
-3.4693429 6.7785683 0
-0 0 0
-1.2885252 2.5100994 -0.93033814
-1.4940335 2.9104378 -0.90260023
-1.7603807 3.4292932 -0.85393894
-2.4447293 4.7624321 -0.89246595
-3.3972435 6.6179681 -0.82915998
-3.7067423 7.2208848 -0.45336887
-3.4810932 6.7813106 0
-0 0 0
-1.2926875 2.510736 -0.93115228
-1.5032899 2.9197807 -0.9060604
-1.7610371 3.420393 -0.85225189
-2.4540086 4.766324 -0.89375025
-3.4052374 6.6138587 -0.82915998
-3.7000029 7.1863699 -0.45148221
-3.5023899 6.8025537 0
-0 0 0
-1.3013937 2.520159 -0.93522948
-1.5091212 2.9224246 -0.90744603
-1.7686629 3.425029 -0.85393894
-2.4597659 4.7633553 -0.89375025
-3.4132266 6.6097393 -0.82915998
-3.7098792 7.1842093 -0.45162776
-3.5070236 6.7913775 0
-0 0 0
-1.3158027 2.5405276 -0.94337755
-1.5045737 2.9050028 -0.90260023
-1.7763069 3.4296603 -0.85562813
-2.4607973 4.7512617 -0.8920384
-3.4259689 6.6147971 -0.83031315
-3.7305052 7.2027903 -0.45307887
-3.5259979 6.8079314 0
-0 0 0
-1.321148 2.5433183 -0.94500595
-1.5161792 2.9187691 -0.90744603
-1.7757646 3.4184923 -0.85337657
-2.4665365 4.7482848 -0.8920384
-3.4268074 6.5968852 -0.82858396
-3.738009 7.1959739 -0.45293388
-3.545022 6.8244576 0
-0 0 0
-1.3265064 2.546108 -0.94663745
-1.5185468 2.9147122 -0.90675455
-1.7810667 3.4185953 -0.85393894
-2.4734569 4.7475753 -0.89246595
-3.4323835 6.5881476 -0.8280068
-3.7659109 7.228323 -0.4552561
-3.5568695 6.8270869 0
-0 0 0
-1.3261468 2.5379295 -0.94419175
-1.5162594 2.9017599 -0.90329438
-1.7851961 3.4164407 -0.85393894
-2.4756286 4.7377644 -0.89118326
-3.4439363 6.5908747 -0.82887197
-3.7626059 7.2007332 -0.45380443
-3.5627079 6.8181753 0
-0 0 0
-1.3383907 2.553839 -0.95071149
-1.5279129 2.9154739 -0.9081375
-1.784605 3.4052789 -0.85168737
-2.480161 4.7324977 -0.89075571
-3.4434922 6.5706701 -0.82685369
-3.7809534 7.2145939 -0.45496553
-3.5745642 6.8207746 0
-0 0 0
-1.335727 2.5412829 -0.94663745
-1.5326006 2.9158442 -0.90882903
-1.791085 3.4076228 -0.85281426
-2.4930413 4.7431273 -0.89332271
-3.4538379 6.5710878 -0.82743078
-3.8017552 7.2330165 -0.45641667
-3.5840175 6.8187604 0
-0 0 0
-1.3284246 2.5199914 -0.93930352
-1.534954 2.911773 -0.9081375
-1.7916453 3.3987107 -0.85112506
-2.4999666 4.7423801 -0.89375025
-3.4593608 6.5623293 -0.82685369
-3.8129177 7.2330189 -0.45670721
-4.934442 9.3605251 0
-0 0 0
-1.3464853 2.5467877 -0.94989729
-1.5302664 2.8943975 -0.90329438
-1.8005011 3.4055285 -0.85337657
-2.5020943 4.7325454 -0.89246595
-3.4769588 6.576437 -0.82915998
-3.8228681 7.2307014 -0.45685223
-4.8910165 9.2510338 0
-0 0 0
-1.314828 2.4796543 -0.92544991
-1.5278829 2.8814578 -0.89983159
-1.8046148 3.4033506 -0.85337657
-2.505408 4.724987 -0.8916108
-3.4897492 6.5813713 -0.83031315
-3.8352551 7.2329664 -0.45728779
-4.9265699 9.2910938 0
-0 0 0
-1.3429837 2.5290606 -0.94419175
-1.5296235 2.8805342 -0.89983159
-1.8042895 3.3977757 -0.85225189
-2.5142808 4.7348065 -0.89375025
-3.4973652 6.5861173 -0.83117831
-3.8505912 7.2513003 -0.4585939
-4.9260807 9.2766247 0
-0 0 0
-1.3344227 2.505625 -0.93604368
-1.5319248 2.8764715 -0.89914006
-1.809587 3.3978336 -0.85281426
-2.5127621 4.7181749 -0.89118326
-3.5077498 6.5864482 -0.83175439
-3.8605704 7.2489333 -0.45873889
-4.9274993 9.2522898 0
-0 0 0
-1.3351181 2.4996462 -0.93441218
-1.5413079 2.8856809 -0.90260023
-1.8148872 3.3978837 -0.85337657
-2.5245073 4.7264547 -0.89332271
-3.509614 6.5707998 -0.83031315
-3.8668804 7.2396841 -0.45844889
-4.9386754 9.2463293 0
-0 0 0
-1.3346395 2.4915013 -0.93196964
-1.5601927 2.9125633 -0.91159767
-1.8225921 3.4024098 -0.85506576
-2.5302165 4.7234006 -0.89332271
-3.5224364 6.5756741 -0.83146632
-3.3087878 6.176836 -0.39139754
-4.9461608 9.2334795 0
-5.529449 10.322359 0.65408015
-1.3516812 2.516006 -0.94174606
-1.548277 2.8819478 -0.90260023
-1.8242946 3.3957241 -0.85393894
-2.534708 4.718081 -0.89289516
-3.52426 6.5600228 -0.83002514
-3.3482246 6.2323527 -0.39517143
-4.9462256 9.2068558 0
-5.5296173 10.292776 0.65262848
-1.3453461 2.4969723 -0.93522948
-1.5529516 2.8822896 -0.90329438
-1.8259882 3.3890479 -0.85281426
-2.5355368 4.7059751 -0.89118326
-3.5370913 6.564868 -0.83117831
-3.3545167 6.2260079 -0.39502588
-4.9548802 9.1962948 0
-5.5691676 10.336417 0.65582186
-1.3483622 2.4953449 -0.93522948
-1.5516626 2.8715825 -0.90052575
-1.8300819 3.3868389 -0.85281426
-2.5363398 4.6938739 -0.88947141
-3.537641 6.5469317 -0.82944804
-3.3669784 6.2310944 -0.39560643
-3.3738 6.2437191 0
-4.8096476 8.9009686 0.56511426
-1.3607926 2.5110898 -0.94174606
-1.5623007 2.8829355 -0.90467739
-1.8317493 3.3801529 -0.85168737
-2.5456798 4.6975789 -0.89075571
-3.5467851 6.5449328 -0.82973713
-3.3806939 6.2384424 -0.396332
-3.3738997 6.2259049 0
-5.8318186 10.761538 0.68368697
-1.3602885 2.5029352 -0.93930352
-1.5538056 2.8590074 -0.89775711
-1.8370491 3.3801761 -0.85225189
-2.5587065 4.7080283 -0.89332271
-3.5373974 6.5088224 -0.82570052
-2.9428122 5.414784 -0.34423012
-3.3677537 6.1966777 0
-5.8820391 10.82297 0.68804085
-1.3502994 2.4774156 -0.93033814
-1.5740656 2.8879631 -0.90744603
-1.8484257 3.391336 -0.85562813
-2.5545652 4.6869011 -0.88989896
-3.5427861 6.5000057 -0.82512444
-2.9555693 5.4226298 -0.34495568
-3.376483 6.1948867 0
-5.9125195 10.847793 0.69007254
-1.3829274 2.529999 -0.95071149
-1.5835693 2.8970637 -0.9109062
-1.8452122 3.3757269 -0.85225189
-2.5663817 4.6950712 -0.8920384
-3.5332673 6.4639421 -0.82108784
-2.9758251 5.4441285 -0.34655181
-4.9629183 9.0794191 0
-5.9405785 10.868002 0.69181418
-1.3693525 2.4979877 -0.93930352
-1.5738066 2.8709555 -0.90329438
-1.8480649 3.3712604 -0.85168737
-2.5757558 4.6987224 -0.89332271
-3.5311334 6.4415321 -0.81878257
-2.9749091 5.4268618 -0.34568125
-4.9964008 9.1144896 0
-5.9636984 10.879044 0.69297534
-1.383085 2.5158222 -0.94663745
-1.57244 2.8602579 -0.90052575
-1.8509141 3.3668003 -0.85112506
-2.5727735 4.6798577 -0.8903265
-2.9994006 5.4558897 -0.69395781
-2.9764571 5.414155 -0.34510067
-4.9898601 9.0765219 0
-5.9793453 10.876389 0.69326586
-1.3658385 2.4773557 -0.93278378
-1.5843704 2.8737285 -0.90536886
-1.8562065 3.3667843 -0.85168737
-2.5796692 4.6789999 -0.89075571
-3.018481 5.474916 -0.69684124
-2.9855034 5.4151015 -0.34539068
-5.0083604 9.084156 0
-6.008791 10.898735 0.69515258
-1.380788 2.4973295 -0.94093192
-1.5866288 2.8696184 -0.90467739
-1.859045 3.3623176 -0.85112506
-2.5853209 4.6758795 -0.89075571
-3.0150821 5.4531565 -0.6945349
-2.9933054 5.4137707 -0.34553623
-5.0042267 9.0507755 0
-6.0345263 10.914203 0.69660366
-1.3766155 2.4826941 -0.93604368
-1.5815779 2.8523388 -0.89983159
-1.8606443 3.3556287 -0.85000038
-2.5922127 4.6749954 -0.89118326
-3.022922 5.4517694 -0.69482291
-2.9897642 5.3919702 -0.34437513
-3.4339235 6.1930013 0
-6.0439281 10.900084 0.69616812
-1.3808144 2.483187 -0.93685782
-1.5972177 2.8723557 -0.90675455
-1.8634592 3.351151 -0.84943587
-2.5953622 4.6673684 -0.8903265
-3.0244792 5.4390707 -0.6936698
-2.9874363 5.3724546 -0.34335899
-3.4414041 6.1888475 0
-6.069725 10.915486 0.6976198
-1.3994616 2.509577 -0.94745159
-1.5933536 2.8572729 -0.90260023
-1.8699845 3.3533397 -0.85056269
-2.6060009 4.6731968 -0.8920384
-3.0323076 5.4376693 -0.69395781
-3.007848 5.3938069 -0.34495568
-3.4019825 6.1005869 0
-4.1897492 7.5132451 0.48050228
-1.3747498 2.4582748 -0.92870975
-1.5894603 2.842212 -0.89844859
-1.8727961 3.3488622 -0.85000038
-2.6154058 4.6767683 -0.89332271
-3.0350871 5.4272265 -0.69309264
-3.0118241 5.3856282 -0.34466511
-3.4030013 6.0851169 0
-4.1924844 7.4968395 0.47977674
-1.411566 2.5169644 -0.95152563
-1.6051626 2.8621666 -0.90536886
-1.8755946 3.3443742 -0.84943587
-2.6223092 4.6758418 -0.89375025
-3.0441754 5.4280715 -0.6936698
-3.0107057 5.3683915 -0.34379455
-3.386168 6.0378785 0
-4.2040792 7.4962969 0.48006672
-1.3928 2.4764841 -0.93685782
-1.6012434 2.8471091 -0.90121722
-1.8808835 3.3443265 -0.85000038
-2.6266999 4.6704345 -0.89332271
-3.0494654 5.4221373 -0.69338173
-3.0210125 5.3715463 -0.34423012
-3.3960102 6.0383153 0
-4.2220516 7.5070677 0.48108286
-1.399435 2.4812598 -0.93930352
-1.5997525 2.8364315 -0.89844859
-1.8811772 3.3354096 -0.84831119
-2.6323414 4.6672568 -0.89332271
-3.0649054 5.4342122 -0.69539899
-3.0300515 5.3724146 -0.34452012
-3.4058633 6.0387454 0
-4.1864457 7.4227519 0.47600338
-1.4094387 2.4954722 -0.94500595
-1.598996 2.8310916 -0.89706296
-1.8869418 3.3409119 -0.85000038
-2.6313722 4.658958 -0.8920384
-3.0834517 5.4593844 -0.6988585
-3.0294619 5.3637929 -0.34408456
-3.4056702 6.0298862 0
-4.2228699 7.4767733 0.47963116
-1.3966191 2.4658117 -0.93441218
-1.6086012 2.8400784 -0.90052575
-1.8909773 3.3386295 -0.85000038
-2.6369996 4.6557751 -0.8920384
-3.0874991 5.451158 -0.69828242
-3.0282595 5.3465672 -0.34321401
-3.3975625 5.9985929 0
-6.2436218 11.023476 0.70763373
-1.4142457 2.4899118 -0.94419175
-1.6120317 2.8381326 -0.90052575
-1.8937514 3.3341265 -0.84943587
-2.637552 4.6436567 -0.8903265
-3.1043029 5.4654155 -0.70058876
-3.0359998 5.3451614 -0.34335899
-3.40224 5.9899616 0
-6.2749014 11.047551 0.70966536
-1.4038007 2.4645832 -0.93522948
-1.6104932 2.8274629 -0.89775711
-1.9002962 3.3362558 -0.85056269
-2.6457045 4.6449323 -0.89118326
-3.1070628 5.454916 -0.69972366
-3.0347421 5.3279462 -0.34248844
-3.0733063 5.3956513 0
-6.2908201 11.04448 0.70995593
-1.4116812 2.4714699 -0.93848932
-1.6201288 2.836405 -0.90121722
-1.9055852 3.3361614 -0.85112506
-2.650043 4.6395049 -0.89075571
-3.1085205 5.442174 -0.69857049
-3.0579307 5.3536053 -0.34437513
-3.0991867 5.4258332 0
-6.3157587 11.057176 0.71126205
-1.4244894 2.4869115 -0.94500595
-1.6135794 2.81703 -0.89567995
-1.9083531 3.3316538 -0.85056269
-2.6543674 4.6340656 -0.8903265
-3.0996671 5.4114814 -0.69511098
-3.0553555 5.3341212 -0.34335899
-3.1018589 5.4153075 0
-6.3355708 11.060808 0.71198761
-1.3979527 2.4337599 -0.92544991
-1.6269785 2.8324816 -0.90121722
-1.9085795 3.3227334 -0.8488735
-2.6650794 4.6397591 -0.8920384
-3.6807475 6.4079823 -0.82368326
-3.0656824 5.3371873 -0.34379455
-3.1019199 5.4002743 0
-6.3592849 11.071171 0.71314871
-1.4082918 2.4449151 -0.93033814
-1.6253911 2.8218179 -0.89844859
-1.9125929 3.3204248 -0.8488735
-2.6719637 4.6387577 -0.89246595
-3.6859033 6.3990431 -0.82310611
-3.0721292 5.3334789 -0.34379455
-3.0954504 5.3739667 0
-6.3804369 11.076983 0.7140193
-1.417425 2.4539108 -0.93441218
-1.6287994 2.8198519 -0.89844859
-1.9178733 3.3203096 -0.84943587
-2.6737185 4.6288633 -0.89118326
-3.7000997 6.4057813 -0.82454735
-3.0733726 5.3207626 -0.34321401
-3.0615926 5.3003683 0
-6.4016171 11.082771 0.71489042
-1.4352549 2.4778612 -0.94419175
-1.6359791 2.8243964 -0.90052575
-1.923161 3.3201947 -0.85000038
-2.6793096 4.6256294 -0.89118326
-3.7078371 6.4013057 -0.82454735
-3.0915198 5.3372793 -0.34452012
-3.0745156 5.3079228 0
-6.4306326 11.10201 0.71663207
-1.4208707 2.446208 -0.93278378
-1.6330867 2.8115647 -0.89706296
-1.9195118 3.3046815 -0.84662199
-2.6913424 4.6334853 -0.89332271
-3.7129736 6.3923521 -0.82397127
-3.1110153 5.3560052 -0.34597123
-0 0 0
-6.4544835 11.112206 0.71779317
-1.4088975 2.4188604 -0.92300421
-1.6326983 2.803092 -0.89498842
-1.9286189 3.3111422 -0.8488735
-2.2602546 3.8805096 -0.74867713
-3.7272024 6.399034 -0.82541245
-3.1357968 5.3836808 -0.34800348
-3.0807858 5.2892356 0
-6.4796748 11.124605 0.71909928
-1.4255326 2.440635 -0.93196964
-1.657593 2.8379424 -0.90675455
-1.9326184 3.3088095 -0.8488735
-2.2558775 3.862257 -0.74568099
-3.7179744 6.3654933 -0.82166493
-3.1488509 5.3911047 -0.34872901
-0 0 0
-6.5062146 11.139201 0.72055042
-1.4309765 2.443172 -0.93359798
-1.6496109 2.8164566 -0.90052575
-1.9353321 3.3042815 -0.84831119
-2.2462752 3.8351688 -0.74097455
-3.7243574 6.3587666 -0.82137692
-3.1487978 5.3760872 -0.34800348
-2.3123114 3.9479156 0
-6.5249224 11.1403 0.72113097
-1.4139 2.4073417 -0.92055851
-1.6492 2.8079693 -0.89844859
-1.9393232 3.3019404 -0.84831119
-2.2587054 3.8457286 -0.74354154
-2.2506199 3.8319621 -0.49533457
-2.2828567 3.8868494 -0.25178087
-2.2669983 3.8598483 0
-6.5515356 11.15481 0.7225821
-1.4431467 2.4503531 -0.93767202
-1.6615049 2.8211086 -0.90329438
-1.9420233 3.2974076 -0.84774882
-0 0 -0
-2.2709997 3.855984 -0.49879408
-2.2888689 3.8863249 -0.25192589
-2.2980747 3.9019558 0
-6.5742412 11.16256 0.72359824
-1.4440264 2.4383519 -0.93441218
-1.6555314 2.7954948 -0.89637142
-1.9473943 3.2883279 -0.84662199
-2.2830956 3.8551862 -0.74696529
-0 0 -0
-2.3075237 3.896435 -0.252942
-0 0 0
-6.6250281 11.18688 0.72621047
-1.454546 2.4493601 -0.93930352
-1.6627522 2.7999656 -0.89844859
-1.9539634 3.2903461 -0.84774882
-2.2864428 3.8502197 -0.74653774
-0 0 -0
-2.3095741 3.8891714 -0.25265142
-0 0 0
-6.6411967 11.18334 0.72650099
-1.4372714 2.4136231 -0.92626411
-1.6558656 2.7807102 -0.89291131
-1.9592365 3.2901638 -0.84831119
-2.2937176 3.851861 -0.74739283
-0 0 -0
-0 0 -0
-0 0 0
-6.6467252 11.161907 0.72562987
-1.459195 2.443718 -0.93848932
-1.6720836 2.8002431 -0.89983159
-1.9593014 3.2812474 -0.84662199
-2.314163 3.8755352 -0.75252843
-0 0 -0
-0 0 -0
-0 0 0
-6.6402287 11.120409 0.72345322
-1.4697624 2.4546721 -0.94337755
-1.6703109 2.7896109 -0.89706296
-1.9632646 3.2788775 -0.84662199
-2.3386266 3.9057751 -0.75894839
-2.2935801 3.8305421 -0.49764091
-0 0 -0
-0 0 0
-6.6723461 11.143585 0.72548491
-1.4699754 2.4516659 -0.94256335
-1.6616801 2.7713964 -0.89152831
-1.9678609 3.2820535 -0.84774882
-2.3449423 3.91096 -0.76023102
-2.2998853 3.8358128 -0.49850604
-0 0 -0
-0 0 0
-6.6363239 11.068246 0.72084099
-1.4449213 2.4032907 -0.92463571
-1.6779519 2.7908833 -0.89844859
-1.9757491 3.2861998 -0.84943587
-2.357605 3.9213283 -0.76279968
-2.2978561 3.8219497 -0.49706486
-2.3132823 3.8476076 -0.25076476
-2.301157 3.82744 0
-6.6363015 11.037946 0.71938932
-1.4478241 2.4015431 -0.92463571
-1.6761419 2.7802596 -0.89567995
-1.9784079 3.2816362 -0.8488735
-2.3610175 3.9162805 -0.76237214
-3.8060644 6.3132172 -0.82166493
-2.3098826 3.8314619 -0.2498942
-2.3017528 3.8179767 0
-6.6643925 11.054399 0.72098601
-1.4737382 2.4378607 -0.93930352
-1.6769018 2.7739344 -0.89429426
-1.9850031 3.2835963 -0.85000038
-2.3684013 3.9178143 -0.76322722
-3.8243947 6.3263216 -0.82397127
-3.2769608 5.4207554 -0.35380849
-5.2157221 8.6278582 0
-6.6669908 11.028549 0.71982485
-1.4574634 2.404372 -0.92707825
-1.6867584 2.7826393 -0.89775711
-1.9705269 3.250771 -0.84211892
-2.3731334 3.9149497 -0.76322722
-3.8400779 6.3349624 -0.82570052
-3.2821627 5.4145718 -0.3536635
-5.2193995 8.610424 0
-6.7180266 11.082704 0.72388875
-1.459085 2.4004991 -0.92626411
-1.6966336 2.791316 -0.90121722
-1.9691744 3.2397027 -0.83986735
-2.3778622 3.9120793 -0.76322722
-3.842356 6.3214769 -0.82454735
-3.2941012 5.4194837 -0.35424405
-5.2325006 8.6085548 0
-6.6814771 10.992424 0.71851873
-1.4774202 2.4240606 -0.93604368
-1.693478 2.7785549 -0.89775711
-1.9717665 3.2351534 -0.83930498
-2.3865967 3.9157815 -0.76451153
-3.8607602 6.3344984 -0.82685369
-3.3006473 5.4154997 -0.35424405
-5.23071 8.5822277 0
-6.6866379 10.971025 0.71764761
-1.4790605 2.4201667 -0.93522948
-1.6929082 2.7700825 -0.89567995
-1.9849503 3.2479472 -0.84324574
-2.383292 3.8997481 -0.76194292
-3.3896234 5.5463948 -0.72451514
-3.3098958 5.4159374 -0.35453406
-5.2288632 8.5559177 0
-6.6890492 10.9452 0.71648651
-1.4845641 2.4225883 -0.93685782
-1.7067406 2.7851477 -0.90121722
-1.9848893 3.2390449 -0.84155655
-2.3906875 3.9012473 -0.76279968
-3.4152453 5.573174 -0.72855175
-3.3177991 5.414156 -0.35467961
-5.2432785 8.5562525 0
-6.6791902 10.899447 0.7140193
-1.4771386 2.4039462 -0.93033814
-1.7140462 2.7894979 -0.90329438
-1.9874725 3.2344813 -0.84099418
-2.3953996 3.898356 -0.76279968
-3.420619 5.566833 -0.72826266
-3.3311391 5.4212108 -0.35540515
-5.242713 8.5321722 0
-6.70052 10.904657 0.71489042
-1.4722657 2.389538 -0.92544991
-1.7160957 2.7852826 -0.90260023
-1.9940425 3.2363999 -0.84211892
-2.3974125 3.8910832 -0.76194292
-3.43277 5.5715041 -0.72941583
-3.3349586 5.4127526 -0.35511461
-5.2571106 8.5324717 0
-6.7096009 10.889914 0.71445483
-1.49983 2.4277027 -0.94093192
-1.7128683 2.7725375 -0.89914006
-1.9912755 3.223182 -0.83930498
-2.3994164 3.8838201 -0.76108778
-3.4422209 5.5717573 -0.72999293
-3.3496933 5.4219871 -0.35598573
-5.2578454 8.5106211 0
-6.7131929 10.866323 0.71343875
-1.4793364 2.3880723 -0.92626411
-1.7109326 2.761935 -0.89637142
-1.9951687 3.2207735 -0.83930498
-2.4027572 3.8787379 -0.76066023
-0 0 -0
-3.3562422 5.4179358 -0.35598573
-5.2626429 8.4954128 0
-0 0 0
-1.4783071 2.3799825 -0.92381841
-1.7142686 2.7598658 -0.89637142
-2.0044217 3.226994 -0.84155655
-2.4101484 3.8801889 -0.76151538
-3.4379354 5.534862 -0.7262454
-3.3668954 5.4204917 -0.35642073
-5.2674112 8.4802046 0
-0 0 0
-1.4994775 2.4075701 -0.93522948
-1.714952 2.7535374 -0.89498842
-2.0056355 3.2202604 -0.84043187
-2.4243362 3.892529 -0.76451153
-3.4459867 5.532897 -0.72653341
-3.3789375 5.4252424 -0.35700127
-5.2693963 8.4605751 0
-6.6838608 10.731647 0.7061826
-1.4958358 2.3952684 -0.93115228
-1.7209331 2.7557149 -0.89637142
-2.0041413 3.209214 -0.8381803
-2.4140792 3.8656437 -0.75980347
-3.4567811 5.5353131 -0.72739857
-3.3882456 5.4255676 -0.35729185
-5.2796154 8.4542017 0
-0 0 0
-1.5092226 2.4102178 -0.93767202
-1.7255918 2.7557578 -0.89706296
-2.0161061 3.219707 -0.84155655
-2.425559 3.8736005 -0.76194292
-3.4620903 5.5289335 -0.72710949
-3.3879051 5.4104605 -0.35656628
-5.2773976 8.4279661 0
-5.1460218 8.2181606 0.54160249
-1.4937369 2.3790915 -0.92626411
-1.719586 2.7388039 -0.89221978
-2.0172954 3.2129688 -0.84043187
-2.4275103 3.8663228 -0.76108778
-3.4701476 5.5269432 -0.72739857
-3.37924 5.3821535 -0.35496962
-5.282042 8.4127674 0
-5.1766753 8.2449484 0.54377973
-1.4926589 2.3710079 -0.92381841
-1.7282404 2.7452164 -0.89498842
-2.023881 3.2148254 -0.84155655
-2.4349129 3.8677275 -0.76194292
-3.4754415 5.5205507 -0.72710949
-3.3649795 5.345088 -0.35279292
-5.2811165 8.3887682 0
-5.1700215 8.2122993 0.54203808
