# .PCD v0.7 - Point Cloud Data file format
VERSION 0.7
FIELDS x y z
SIZE 4 4 4
TYPE F F F
COUNT 1 1 1
WIDTH 1619
HEIGHT 1
VIEWPOINT 0 0 0 1 0 0 0
POINTS 1619
DATA ascii
1.3601959 4.4309092 -0.25889257
5.7400331 18.698458 0
5.7430601 18.708319 1.0931041
1.354841 4.4325495 -0.25889257
5.7075467 18.673027 0
5.7105775 18.682943 1.0912174
1.3494841 4.4341831 -0.25889257
5.6811919 18.667463 0
5.6804347 18.664974 1.0897663
2.305589 7.6087813 -0.4440805
5.6578779 18.671827 0
5.6556163 18.664362 1.0893307
2.2933915 7.6016111 -0.44349995
5.6330566 18.671171 0
5.63306 18.671183 1.0893307
0 0 -0
5.6112399 18.680454 0
5.6075048 18.66802 1.0887501
0 0 -0
0 0 -0
5.5909019 18.694704 0
5.5871787 18.682253 1.0891857
0 0 -0
0 0 -0
5.5653386 18.691469 0
5.5660825 18.693968 1.0894758
0 0 -0
0 0 -0
5.5457077 18.70816 0
5.5420146 18.695702 1.0891857
0 0 -0
2.2393363 7.5879207 -0.44190383
5.5253096 18.722338 0
5.5179482 18.697395 1.0888952
2.230166 7.590621 -0.44190383
5.4997487 18.719013 0
5.4909582 18.689095 1.0880246
2.2209926 7.5933104 -0.44190383
5.4873533 18.760611 0
5.4581614 18.660805 1.0859929
2.2103617 7.5909939 -0.44161326
5.4654078 18.769722 0
5.4312491 18.652412 1.0851219
2.2019134 7.5961618 -0.44175884
5.4456224 18.786312 0
5.4130492 18.673941 1.0859929
0 0 -0
2.1905713 7.5913248 -0.44132328
5.4265261 18.805378 0
5.391921 18.685457 1.086283
2.1835499 7.6014609 -0.44175884
5.40452 18.81443 0
5.3722091 18.701948 1.0868635
2.1729333 7.5990925 -0.44146827
5.3839269 18.828445 0
5.3524652 18.718418 1.0874441
2.163039 7.5992155 -0.44132328
5.3640223 18.84495 0
5.3284197 18.71987 1.0871536
2.154563 7.6043215 -0.44146827
5.3369927 18.836399 0
5.3065066 18.728802 1.0872991
2.1513834 7.6106272 -0.44175884
5.3249044 18.837116 0
5.2930694 18.724501 1.0868635
2.1421859 7.6132212 -0.44175884
5.2950888 18.818481 0
5.2732558 18.740887 1.0874441
2.1195936 7.603353 -0.44088772
5.2475019 18.823708 0
5.2293453 18.758577 1.0877341
2.1159627 7.6259394 -0.44204882
5.2337985 18.862633 0
5.2094545 18.774897 1.0883147
2.1067469 7.6284904 -0.44204882
5.2123871 18.873957 0
5.1867647 18.781178 1.0883147
2.0975277 7.6310306 -0.44204882
5.192337 18.890278 0
5.1668224 18.797453 1.0888952
2.0917332 7.6460891 -0.44277439
2.0388706 7.4528556 0
5.1441054 18.803682 1.0888952
2.0838594 7.6536298 -0.44306496
2.0305467 7.4578223 0
5.122066 18.812399 1.0890408
2.0780075 7.6686797 -0.4437905
2.0188112 7.4502225 0
5.0966125 18.808542 1.0884602
2.07077 7.6787143 -0.44422606
0 0 0
5.0738826 18.814688 1.0884602
2.0648575 7.6937561 -0.44495162
1.9954045 7.4349713 0
5.0524907 18.825819 1.0887501
2.0595813 7.7113037 -0.44582218
1.9830621 7.4248075 0
5.0337639 18.846977 1.0896213
2.4487221 9.2129288 -0.53246582
1.9687412 7.4070768 0
5.0136547 18.863081 1.0902013
2.4355967 9.2083521 -0.53203082
1.9597898 7.4094501 0
4.9915252 18.871645 1.0903468
0 0 -0
1.9442124 7.3866496 0
4.9687185 18.877663 1.0903468
2.4166279 9.2267761 -0.53275639
1.9339656 7.3839536 0
4.9491963 18.896219 1.0910724
2.4022014 9.2171202 -0.53203082
1.9257003 7.3888106 0
4.9230843 18.889614 1.0903468
2.3917141 9.2225285 -0.53217584
1.9135026 7.3785291 0
4.9022112 18.903088 1.0907818
2.3786204 9.2178612 -0.53174031
1.903936 7.3783183 0
4.8780699 18.903971 1.0904919
2.3687744 9.2257671 -0.53203082
1.8937262 7.375577 0
4.8571639 18.917404 1.0909274
2.3563375 9.2235823 -0.53174031
1.8835233 7.3728118 0
4.8388023 18.940874 1.0919429
2.3432701 9.2188654 -0.53130472
1.8746134 7.375082 0
4.8165545 18.949234 1.0920885
2.3389783 9.2253218 -0.53159529
1.8688794 7.3711729 0
4.8057437 18.954657 1.0922335
2.3265574 9.2230978 -0.53130472
1.8606074 7.3759465 0
4.7847419 18.968 1.0926685
2.3160458 9.2284298 -0.53145027
1.8510607 7.3756676 0
4.7618194 18.973768 1.0926685
2.305522 9.2337399 -0.53159529
1.8415174 7.3753762 0
4.7388897 18.979507 1.0926685
2.2937374 9.2339993 -0.53145027
1.8332312 7.3801193 0
4.7165813 18.987749 1.0928141
2.2813303 9.2317142 -0.5311597
1.8243124 7.382329 0
4.6917644 18.985865 1.0923785
2.2695541 9.2319431 -0.53101474
1.8153909 7.3845282 0
4.6719213 19.004133 1.0931041
2.2571642 9.2296352 -0.5307247
1.8064669 7.3867164 0
4.6495714 19.012287 1.0932491
2.2460103 9.2323561 -0.5307247
1.799384 7.3964725 0
4.6296687 19.030521 1.0939752
2.2342403 9.2325306 -0.53057915
1.792894 7.4087591 0
4.6091151 19.046204 1.0945557
2.2243004 9.2402811 -0.53086972
1.7882047 7.4286342 0
4.5854883 19.049227 1.0944102
2.2131336 9.2429619 -0.53086972
1.7840754 7.4510374 0
4.5630746 19.057287 1.0945557
2.2007585 9.2405691 -0.53057915
1.7780852 7.4658437 0
4.5376363 19.052675 1.0939752
2.1907904 9.2482824 -0.53086972
1.7702638 7.4730563 0
4.5152097 19.060671 1.0941201
2.1843815 9.2711573 -0.53203082
1.761829 7.4777203 0
4.4862151 19.040815 1.0926685
2.1802893 9.3041391 -0.53377193
1.7521992 7.4773126 0
1.7071949 7.2852616 0.41795039
2.1773038 9.3422003 -0.53580421
1.745526 7.4895625 0
1.692494 7.2620177 0.41649926
2.1630809 9.3321695 -0.53507864
1.7341244 7.4815249 0
1.6831297 7.2615185 0.4163537
2.1453822 9.306922 -0.53348196
1.7227448 7.4734707 0
0 0 0
2.1242652 9.2664528 -0.53101474
4.4234524 19.29595 0
0 0 0
2.1055593 9.2360802 -0.52912807
4.3995562 19.298746 0
1.6498656 7.2371707 0.41461203
2.0943978 9.2386179 -0.52912807
4.3762341 19.304049 0
1.638824 7.229032 0.41403204
2.085377 9.2246695 -0.52825695
4.3634219 19.301607 0
1.6344563 7.230021 0.41403204
1.9667808 8.7491999 -0.99953222
2.0753701 9.2322578 -0.52854747
4.3418093 19.314484 0
1.6205883 7.2091665 0.41272536
1.9522576 8.7338982 -0.99751389
2.0642133 9.2347593 -0.52854747
4.3184681 19.319717 0
1.6113099 7.2085862 0.41258037
1.9349688 8.7059526 -0.99405438
2.0541797 9.2423143 -0.5288375
4.2979436 19.33762 0
1.6009067 7.2029157 0.41214481
1.9255654 8.7133398 -0.99463153
2.0435729 9.2473345 -0.52898306
4.2773824 19.355503 0
1.5905217 7.1972404 0.41170979
1.9133698 8.7080793 -0.99376637
2.0312815 9.2447166 -0.52869248
4.2523155 19.353029 0
1.581267 7.1966214 0.4115648
1.9061595 8.7255507 -0.99549669
2.0217738 9.2547817 -0.52912807
4.2300401 19.363243 0
1.5709059 7.1909089 0.41112924
1.8945161 8.7227879 -0.99491954
2.0094857 9.2521353 -0.5288375
4.2077441 19.373423 0
0 0 0
1.8861586 8.7351837 -0.99607271
1.997757 9.2520189 -0.52869248
4.1859803 19.386126 0
1.5496842 7.1769023 0.41011313
1.8788584 8.7526245 -0.9978019
1.987668 9.2595119 -0.52898306
3.9047539 18.190218 0
0 0 0
1.8709818 8.7675438 -0.99924421
1.97702 9.2644453 -0.52912807
3.8800545 18.18219 0
1.5274557 7.1577578 0.40880701
1.9652857 9.2642879 -0.52898306
3.8575425 18.18432 0
1.5198833 7.1646767 0.40909702
1.9535525 9.2641068 -0.5288375
3.8371789 18.196611 0
1.5096182 7.1588879 0.40866202
1.9434243 9.2715511 -0.52912807
3.8162558 18.206324 0
1.5014995 7.1632476 0.40880701
1.9327495 9.2764339 -0.52927303
3.7926633 18.203285 0
1.4912524 7.1574225 0.40837145
1.8179786 8.7786865 -0.99924421
1.921013 9.2762203 -0.52912807
3.7727766 18.218048 0
1.4820766 7.1566772 0.40822646
1.8078909 8.7834082 -0.99953222
1.908231 9.2708979 -0.52869248
3.7512851 18.225142 0
1.4744768 7.163558 0.408517
1.7962388 8.7805138 -0.99895507
1.8985903 9.2808361 -0.52912807
3.7303028 18.234755 0
1.4637369 7.1551514 0.40793645
1.7851132 8.7801447 -0.99866706
1.8868577 9.2805796 -0.52898306
3.708267 18.239248 0
1.4556074 7.1594586 0.40808144
1.7698929 8.7594805 -0.99607271
1.8761567 9.2853966 -0.52912807
3.6877725 18.251371 0
1.4484999 7.1688557 0.408517
1.7587988 8.7590799 -0.9957847
1.8654468 9.2902021 -0.52927303
3.6657166 18.255814 0
0 0 0
1.7371238 8.7607698 -0.99549669
1.8434955 9.2972298 -0.52941805
3.6241193 18.27738 0
1.4310951 7.2173867 0.41098425
1.7318307 8.7618179 -0.99549669
1.8378782 9.2983418 -0.52941805
3.6120679 18.274466 0
1.4277412 7.2233434 0.41127425
1.7182508 8.7486706 -0.99376637
1.8276441 9.3056602 -0.52970862
3.5944977 18.301798 0
1.4210153 7.2352624 0.4118548
1.7061918 8.7431221 -0.99290121
1.8159015 9.3053141 -0.52956361
3.5733769 18.311232 0
1.4117746 7.234426 0.41170979
1.6961199 8.7477245 -0.99319035
1.806139 9.3151464 -0.5299986
3.5492673 18.305317 0
1.4000635 7.2208161 0.41083869
1.6835917 8.7396078 -0.99203718
1.7934089 9.3096752 -0.52956361
3.5301008 18.32493 0
3.5293665 18.321115 1.0421628
1.6710856 8.7314749 -0.99088401
1.7841125 9.3220434 -0.53014416
3.5113792 18.347067 0
3.5106459 18.343235 1.0431789
1.6614994 8.7385645 -0.99146003
1.7723606 9.3216324 -0.5299986
3.487751 18.343634 0
3.4889641 18.350014 1.0433239
1.6499802 8.735487 -0.99088401
1.7610959 9.3237667 -0.5299986
3.4665487 18.352943 0
3.4672709 18.356768 1.0434688
1.6418083 8.7501831 -0.99232519
1.74935 9.3233366 -0.52985358
3.4453311 18.36224 0
3.4455683 18.363504 1.0436144
1.6293385 8.7419891 -0.99117202
1.7366544 9.3177776 -0.52941805
3.4245706 18.374058 0
3.4209952 18.354874 1.0428883
1.616891 8.733779 -0.99001884
1.7272866 9.3300896 -0.5299986
3.4028418 18.380749 0
3.3964498 18.346222 1.0421628
1.6054021 8.7306433 -0.98944283
2.1873262 11.895315 -0.67556638
3.3782752 18.372042 0
3.3709915 18.33243 1.0411472
1.5948517 8.7325764 -0.98944283
2.1734178 11.900503 -0.67571139
3.5912478 19.663801 0
3.5626385 19.507153 1.1076175
1.5847601 8.7370396 -0.98973083
2.1595001 11.905675 -0.67585641
3.5633054 19.645082 0
3.5367472 19.498661 1.1068919
1.5732839 8.7338524 -0.98915368
2.1455729 11.91083 -0.67600137
3.5437176 19.672422 0
3.515487 19.515705 1.1076175
1.5595428 8.7179317 -0.98713648
2.1316385 11.915979 -0.67614692
3.5208621 19.681818 0
3.4941909 19.532724 1.108343
1.5503635 8.7274427 -0.98800051
1.3892001 7.8202076 -0.44364551
3.5007193 19.706556 0
3.470587 19.536932 1.108343
1.5384704 8.7216749 -0.98713648
1.3788463 7.8167577 -0.44335493
3.4732885 19.690269 0
3.4487834 19.551348 1.1089236
1.5265917 8.7158823 -0.98627132
1.3756756 7.8542457 -0.44538662
3.4494941 19.694452 0
3.4238117 19.547819 1.1084881
1.5160592 8.717721 -0.98627132
1.3639586 7.8431048 -0.44466105
3.4270329 19.706299 0
3.4015255 19.559626 1.1089236
1.3765903 7.9727979 -0.90180635
1.3544807 7.8447471 -0.44466105
3.4049888 19.720675 0
3.3783307 19.566278 1.1090686
1.3634597 7.954061 -0.89950001
1.345001 7.8463778 -0.44466105
3.3837967 19.74017 0
3.3564422 19.580591 1.1096492
1.3529791 7.9505982 -0.89892286
1.3350836 7.845438 -0.44451606
3.3590679 19.739107 0
3.3349595 19.597439 1.1103747
1.349473 7.9590669 -0.89978802
1.3329489 7.8616099 -0.44538662
3.3480129 19.746271 0
3.3244226 19.607138 1.1108103
1.3381379 7.9504895 -0.89863485
1.3251739 7.8734641 -0.44596717
3.3219917 19.737473 0
3.3020232 19.61883 1.1112459
1.3298093 7.9597564 -0.89950001
1.3148038 7.8699389 -0.44567719
3.2985687 19.744036 0
3.2766025 19.612555 1.1106652
1.3180753 7.9486012 -0.89805883
1.3031685 7.858707 -0.44495162
2.5688608 15.491414 0
3.2558765 19.634436 1.1116809
1.3088896 7.9527378 -0.89834684
1.2940935 7.8628373 -0.44509661
2.5399971 15.432876 0
2.5485699 15.484963 0.87656713
1.3063673 7.9977064 -0.90324754
1.2866858 7.8772149 -0.44582218
2.5142159 15.392272 0
2.5206428 15.431618 0.87337434
1.2967026 7.999279 -0.90324754
1.2763361 7.8736391 -0.44553217
2.4872868 15.34392 0
2.494096 15.385925 0.87061709
1.2940191 8.0442495 -0.90814823
1.2717737 7.905961 -0.44727385
2.463372 15.313513 0
2.4680741 15.342745 0.86800432
1.1016574 6.901608 -0.77899987
1.1114979 6.9632564 -0.39386475
2.4407654 15.290784 0
2.447077 15.330325 0.8671338
1.09615 6.9208188 -0.7810182
1.1067429 6.9876995 -0.39517143
2.4222875 15.293722 0
2.4252996 15.312738 0.86597264
1.0905963 6.9400167 -0.78303546
1.0805498 6.8760862 -0.3887853
2.4029975 15.291491 0
2.4084089 15.325926 0.86655319
1.0822098 6.9413295 -0.78303546
1.0742416 6.8902216 -0.38951084
1.2179384 7.8118968 0
2.3910899 15.33653 0.86698878
1.0742168 6.9451857 -0.78332347
1.0682993 6.9069266 -0.39038196
1.2069072 7.8030748 0
2.3733506 15.344539 0.86727875
1.0642565 6.9362621 -0.78217137
1.0560113 6.882524 -0.38893029
1.195899 7.7942381 0
2.355597 15.352536 0.86756933
1.0578202 6.950326 -0.78361255
1.0414402 6.8427029 -0.38660863
1.1860892 7.793107 0
2.3370447 15.355371 0.86756933
1.049807 6.954154 -0.78390056
1.0339464 6.8490896 -0.38689861
1.1747298 7.7816701 0
2.3204279 15.371029 0.86829489
1.0471473 6.9937797 -0.78822416
1.0198995 6.8117943 -0.38472193
1.1649413 7.7805128 0
2.3022377 15.376389 0.86843991
1.0470545 7.0513301 -0.79456711
1.0158652 6.8412876 -0.38631806
1.1540102 7.7716174 0
2.2836568 15.379159 0.86843991
0.87225807 5.9234276 -0.99816936
1.041548 7.0730615 -0.79687345
0.99548578 6.7602563 -0.38167414
1.1465143 7.7858772 0
2.2662084 15.389622 0.86887544
0.86176223 5.9016185 -0.99431807
1.0382322 7.1101403 -0.80090898
0.98994368 6.7794452 -0.38268971
1.1277052 7.7228799 0
2.2491131 15.402634 0.86945599
0.85315931 5.8924932 -0.99260616
1.0300106 7.1139469 -0.80119705
0.979146 6.7626424 -0.38167414
1.1124061 7.6830263 0
2.2312443 15.410479 0.86974597
0.84384942 5.8782687 -0.99003756
1.0232513 7.127985 -0.80263823
0.97429669 6.7869668 -0.38298026
1.1064497 7.7075472 0
2.2126222 15.413163 0.86974597
0.83638465 5.8767452 -0.98961002
1.0160955 7.1394591 -0.8037914
0.96353203 6.7701292 -0.38196415
1.0920029 7.672812 0
2.1943626 15.418395 0.86989099
0.82892489 5.8752117 -0.98918241
1.0063851 7.1330056 -0.80292732
0.95752978 6.7867312 -0.38283527
1.082731 7.6741261 0
2.1753683 15.418465 0.86974597
0.82501847 5.8731718 -0.98875487
1.0020756 7.1336122 -0.80292732
0.95089877 6.7692938 -0.38181916
1.0777328 7.672204 0
2.1638846 15.404343 0.86887544
0.81827497 5.8767047 -0.98918241
0.98917478 7.1040769 -0.7994678
0.94451016 6.7833033 -0.38254473
1.0698973 7.6838112 0
1.3053353 9.3746853 0.52868581
0.81047094 5.8725982 -0.98832566
0.97952902 7.0975776 -0.79860264
0 0 -0
1.061323 7.6902494 0
1.2929422 9.3685408 0.52825081
0.80372334 5.8761239 -0.98875487
0.96779799 7.075695 -0.79600829
0 0 -0
1.0470932 7.6554322 0
1.2795076 9.3546438 0.52737969
0.79593235 5.8719983 -0.98789811
0.95785809 7.066607 -0.79485512
0 0 -0
1.0406389 7.6773233 0
1.2661101 9.3407393 0.52650911
0.78849518 5.8704143 -0.98747057
0.94518697 7.0369978 -0.7913956
0 0 -0
1.0313616 7.678575 0
1.2527466 9.3268051 0.52563798
0.7807247 5.8662782 -0.98661548
0.92917728 6.9817343 -0.78505373
0.90454036 6.7966156 -0.38298026
1.0224258 7.6823931 0
1.2401048 9.3180094 0.52505744
0.77296406 5.8621221 -0.98575872
0.91499281 6.9392614 -0.78015304
0.89530796 6.7899723 -0.38254473
1.0114416 7.6707244 0
1.2268075 9.3040485 0.52418691
0.76654595 5.8681479 -0.98661548
0.90091234 6.8967648 -0.77525234
0.8860929 6.7833171 -0.38210917
1.0018355 7.6693625 0
1.2142181 9.2952175 0.52360636
0.76011306 5.8741565 -0.98747057
0.88826364 6.8645043 -0.77150482
0.87722969 6.7792339 -0.38181916
0.99423742 7.6834702 0
1.2016519 9.2863703 0.52302575
0.75203538 5.8674293 -0.98618627
0.88029712 6.8681359 -0.77179283
0.86705494 6.7648196 -0.38094804
0.98263639 7.6665936 0
1.1897702 9.2826662 0.52273577
0.74591535 5.8759761 -0.98747057
0.86808896 6.8384037 -0.76833338
0.85855347 6.7632871 -0.38080305
0.97369951 7.6703548 0
1.17888 9.2866716 0.52288079
0.73881483 5.876873 -0.98747057
0.85659987 6.8137898 -0.76545095
0.85005689 6.761744 -0.38065803
0.96475625 7.6741152 0
1.1666853 9.2803526 0.5224452
0.73139644 5.8752165 -0.98704302
0.84229493 6.7660503 -0.75997317
0.84284937 6.7705045 -0.38109359
0.95323205 7.6571951 0
1.1551504 9.2791796 0.52230024
0.7233544 5.8684502 -0.98575872
0.83127141 6.7439623 -0.75737882
0.83562064 6.7792473 -0.38152859
0.94557071 7.6712532 0
1.143301 9.2754059 0.52200967
0.70947814 5.8727274 -0.98618627
0.8096981 6.702301 -0.75247812
0.81954795 6.783834 -0.38167414
0.92640591 7.6683536 0
1.1196373 9.2678328 0.52142966
0.7005533 5.8582916 -0.98361927
0.79945016 6.6853046 -0.75046086
0.80703038 6.7486935 -0.37964192
0.91806567 7.6772122 0
1.1078205 9.2640133 0.52113909
0.69347417 5.8591337 -0.98361927
0.79076314 6.6811237 -0.74988377
0.79887533 6.7496634 -0.37964192
0.90511787 7.6473026 0
1.0966259 9.2653456 0.52113909
0.68609571 5.8574204 -0.98319173
0.78208846 6.6769414 -0.74930769
0.78950989 6.7403007 -0.37906137
0.89951015 7.6794086 0
1.0842205 9.256341 0.52055854
0.67872125 5.8556876 -0.98276252
0.77521133 6.688159 -0.75046086
0.78316063 6.7567415 -0.37993249
0.89083034 7.6856651 0
1.0739331 9.2653894 0.52099413
0.67223084 5.861609 -0.98361927
0.77096021 6.7224932 -0.75420839
0.77618009 6.7680092 -0.38051304
0.88302535 7.6996613 0
0 0 0
0.66752565 5.8518124 -0.98190743
0.77217466 6.7692099 -0.75939709
0.77179569 6.7658877 -0.38036749
0.87453926 7.6665812 0
1.0559602 9.2569942 0.52041358
0.66045439 5.8526144 -0.98190743
0.76805478 6.8061152 -0.76343268
0.7636199 6.7668152 -0.38036749
0.86702549 7.6831436 0
1.0456486 9.2660122 0.52084911
0.65195853 5.8406544 -0.97976798
0.77274203 6.922709 -0.77640551
0.75515497 6.7651529 -0.38022247
0.8580308 7.68678 0
0 0 0
0.64630896 5.8541932 -0.98190743
0.76863331 6.9621935 -0.78072912
0.74783576 6.7738113 -0.38065803
0.84817052 7.6826324 0
1.0215418 9.2530107 0.51997799
0.63672763 5.8320055 -0.97805613
0.76106274 6.9708333 -0.78159422
0.73767596 6.7566257 -0.37964192
1.0261469 9.3988295 0
1.0086691 9.2387447 0.51910746
0.63023084 5.8378701 -0.97891122
0.75486016 6.9923201 -0.78390056
0.73090559 6.7704268 -0.38036749
1.0147895 9.4000626 0
0.99862075 9.2502899 0.51968801
0.62317646 5.8386273 -0.97891122
0.74558699 6.9855089 -0.78303546
0.72272432 6.7713051 -0.38036749
1.0028777 9.396101 0
0.98771834 9.2540712 0.51983297
0.61342806 5.8138518 -0.97463238
0.73714584 6.9864044 -0.78303546
0.71481544 6.774765 -0.38051304
0.99398208 9.4206066 0
0.97735411 9.2630129 0.52026856
0.6064027 5.814589 -0.97463238
0.72789949 6.9795799 -0.78217137
0.70582008 6.767868 -0.38007748
0.98124784 9.4088516 0
0.96643013 9.2667694 0.52041358
0.59858668 5.8076544 -0.97334808
0.72026026 6.9881659 -0.78303546
0.69764191 6.7687159 -0.38007748
0.96774381 9.3893194 0
0.95416671 9.2575912 0.51983297
0.59182864 5.8109245 -0.97377563
0.71181589 6.9890308 -0.78303546
0.69156897 6.7902346 -0.38123861
0.95587105 9.3853092 0
0.94403315 9.2690773 0.52041358
0.5837788 5.8014188 -0.97206372
0.7069965 7.0259194 -0.78707206
0.68388367 6.7962313 -0.38152859
0.94531202 9.394228 0
0.93335241 9.2753773 0.52070355
0.57651478 5.7995682 -0.97163618
0.69799435 7.021616 -0.78649491
0.67747074 6.815155 -0.38254473
0.93190074 9.3746452 0
0.92163068 9.2713318 0.52041358
0.57000887 5.8053751 -0.97249293
0.69405842 7.0687833 -0.79168367
0.67278969 6.8521676 -0.38457638
0.9200635 9.3705797 0
0.91042739 9.272439 0.52041358
0.56150681 5.7907238 -0.96992433
0.67927611 7.005259 -0.78447664
0.66526234 6.8607368 -0.38501194
0.9094941 9.3794575 0
0.89947337 9.2761154 0.52055854
0.55573255 5.8041725 -0.97206372
0.79431212 8.2959414 -0.92890418
0.65821004 6.8744664 -0.38573751
0.73321754 7.6578584 0
0.88925499 9.2875423 0.52113909
0.54896122 5.8074031 -0.97249293
0.78477389 8.3020401 -0.9294802
0.65137082 6.8907833 -0.38660863
0.72126967 7.6302357 0
0.87778783 9.286026 0.52099413
0.54146624 5.8029451 -0.97163618
0.77402169 8.2952642 -0.92861617
0.64207852 6.8812165 -0.38602805
0.7137422 7.6492429 0
0.86729133 9.2948437 0.52142966
0.53445411 5.8035951 -0.97163618
0.76328617 8.2884645 -0.927751
0.63519269 6.8975072 -0.38689861
0.6999644 7.6008582 0
0.85653579 9.301055 0.52171969
0.52604777 5.7889023 -0.96906918
0.75397307 8.2971106 -0.92861617
0.85518366 9.4108839 -0.52782196
0.69289923 7.6250224 0
0.84553158 9.3046684 0.52186465
0.52019852 5.8023157 -0.97120863
0.74371547 8.2954321 -0.92832708
0.8426519 9.3989725 -0.52709639
0.68415058 7.631043 0
0.83498442 9.3134499 0.52230024
0.5171479 5.8077378 -0.97206372
0.74008048 8.3113422 -0.93005735
0.83858591 9.4175901 -0.52811193
0 0 0
0.82912731 9.311367 0.52215523
0.50945687 5.800694 -0.97078109
0.7293582 8.3044987 -0.92919219
0.82516015 9.3953028 -0.52680582
0 0 0
0.81878507 9.3227158 0.52273577
0.50200409 5.7961855 -0.96992433
0.71887738 8.3002253 -0.92861617
0 0 -0
0.82322025 9.5049772 0
0.80796778 9.3288708 0.52302575
0.49478194 5.7942324 -0.96949679
0.70972788 8.3113956 -0.92976934
0 0 -0
0.8081919 9.4644756 0
0.79669505 9.3298407 0.52302575
0.48713422 5.7871494 -0.96821243
0.69990146 8.3148222 -0.93005735
0 0 -0
0.79762852 9.4758186 0
0.7858575 9.3359795 0.52331632
0.4807781 5.7954111 -0.96949679
0.68985409 8.3156614 -0.93005735
0 0 -0
0.78897512 9.5104904 0
0.7741462 9.3317385 0.52302575
0.47293857 5.7857537 -0.96778488
0.67959523 8.3139143 -0.92976934
0 0 -0
0.77472687 9.4777193 0
0.76329386 9.3378515 0.52331632
0.46615312 5.7888775 -0.96821243
0.66934079 8.3121433 -0.9294802
0.75723308 9.4036255 -0.52695084
0.76223004 9.4656801 0
0.75221866 9.3413544 0.52346134
0.45814347 5.7766438 -0.96607304
0.65929669 8.3129463 -0.9294802
0.7464866 9.4123068 -0.52738637
0.75099766 9.4691858 0
0.74154741 9.3500299 0.52389687
0.4511632 5.7771931 -0.96607304
0.65066147 8.33179 -0.93149853
0.73470891 9.4080257 -0.52709639
0.74178445 9.4986296 0
0.73085552 9.3586836 0.52433187
0.44398567 5.775177 -0.96564549
0.63960254 8.3196774 -0.93005735
0.72314084 9.4063091 -0.52695084
0.73030668 9.4995193 0
0.71894991 9.3517952 0.52389687
0.43700719 5.7757092 -0.96564549
0.62954938 8.3204441 -0.93005735
0.71099043 9.3968115 -0.52637029
0.71863091 9.4977922 0
0.70843375 9.3630209 0.52447748
0.43040884 5.7813482 -0.96650058
0.61949527 8.3211994 -0.93005735
0.69944298 9.3950748 -0.52622527
0.7067681 9.4934673 0
0.6975053 9.3690481 0.52476746
0.422111 5.7639499 -0.96350604
0.60962898 8.3245192 -0.93034536
0.68752086 9.3881359 -0.52578968
0.69738692 9.5228586 0
0.68637377 9.3724728 0.52491248
0.41643634 5.7823715 -0.96650058
0.59938437 8.3226719 -0.93005735
0.67580366 9.3837814 -0.5254997
0.6847586 9.5081244 0
0.67542213 9.3784838 0.52520299
0.40872395 5.7726278 -0.96478873
0.58951014 8.3259678 -0.93034536
0.66409802 9.3794127 -0.52520972
0.67345303 9.5115385 0
0.66445625 9.3844719 0.52549303
0.40174857 5.7731171 -0.96478873
0.57980883 8.3318396 -0.93092251
0.65258342 9.3776083 -0.52506417
0.6630441 9.5279274 0
0.65329665 9.3878574 0.52563798
0.39529809 5.7812843 -0.96607304
0.56991732 8.3351116 -0.93121052
0.64072067 9.3706207 -0.52462918
0.6517083 9.5313158 0
0.64230764 9.3938293 0.52592856
0.38762417 5.7715125 -0.96436113
0.5593254 8.3280497 -0.93034536
0.62887514 9.3636074 -0.52419358
0.6403653 9.5346899 0
0.6307826 9.3920088 0.5257836
0.38132587 5.7822227 -0.96607304
0.54977292 8.3364649 -0.93121052
0.61738974 9.3617697 -0.52404857
0.62833011 9.5276642 0
0.62028855 9.4057255 0.52650911
0.37417322 5.7801199 -0.96564549
0.53919816 8.3293772 -0.93034536
0.60691655 9.3754721 -0.52477413
0.61681736 9.5284166 0
0.60858709 9.4012775 0.52621859
0.36686301 5.7754393 -0.96478873
0.52896953 8.3274441 -0.93005735
0.50861746 8.0070457 -0.44814441
0.6046437 9.5187654 0
0.59772134 9.4097881 0.52665412
0.35924631 5.7656398 -0.9630785
0.5192284 8.3332348 -0.93063337
0.49813434 7.9946904 -0.44741884
0.59314173 9.5194893 0
0.58651245 9.4130945 0.52679914
0.35623676 5.7735348 -0.96436113
0.51355666 8.3232212 -0.9294802
0.4965041 8.0468502 -0.45032108
0.58642906 9.5042658 0
0.5809859 9.416048 0.5269447
0.34879574 5.7662811 -0.9630785
0.50396794 8.331583 -0.93034536
0.49164444 8.1278515 -0.45482054
0.57588708 9.5205488 0
0.57023495 9.4271078 0.52752471
0.34167573 5.7641287 -0.96264929
0.49374756 8.3296061 -0.93005735
0.48705059 8.2166271 -0.459755
0.56330544 9.5030594 0
0.55915153 9.4329834 0.52781522
0.33471066 5.7645373 -0.96264929
0.48398209 8.3353567 -0.93063337
0.47998345 8.26649 -0.46251225
0.55031353 9.477747 0
0.54790372 9.4362431 0.52796024
0.32716227 5.7546859 -0.96093744
0.47376341 8.3333549 -0.93034536
0.46984729 8.264472 -0.46236724
0.53915685 9.4836063 0
0.53650147 9.4368982 0.52796024
0.32077906 5.7653294 -0.96264929
0.46426859 8.3442516 -0.93149853
0.46101579 8.2857895 -0.46352836
0.52668524 9.4660587 0
0.52553159 9.4453259 0.52839583
0.31353381 5.760591 -0.9617942
0.45418584 8.3448067 -0.93149853
0.45072153 8.2811556 -0.46323836
0 0 0
0.51440054 9.4511375 0.52868581
0.30629992 5.7558336 -0.96093744
0.44423977 8.347929 -0.93178654
0.44071504 8.2816944 -0.46323836
0 0 0
0.50353265 9.4621315 0.52926636
0.29881164 5.7459455 -0.95922554
0.43428731 8.3510504 -0.93207568
0.43016812 8.271841 -0.46265781
0 0 0
0.49115491 9.4445763 0.52825081
0.29160839 5.7411795 -0.95837045
0.4245896 8.3593111 -0.93293971
0.41951346 8.2593718 -0.46193168
0 0 0
0.48013768 9.4529409 0.52868581
0.28517956 5.7517834 -0.96008229
0.41512901 8.3727322 -0.93438089
0.40940475 8.2572803 -0.46178669
0.47090429 9.4976635 0
0.46884435 9.4561167 0.52883136
0.27748507 5.7367344 -0.95751369
0.40413752 8.3551512 -0.93236369
0.39930174 8.2551756 -0.46164167
0.45930225 9.4956284 0
0.45741814 9.4566765 0.52883136
0.27079523 5.7421989 -0.95837045
0.3935543 8.3452988 -0.93121052
0.38883707 8.2452698 -0.46106112
0.44807327 9.5013704 0
0.44623584 9.4624081 0.52912134
0.2569178 5.7428365 -0.95837045
0.37350133 8.3488064 -0.93149853
0.3644976 8.1475477 -0.45554611
0.42522708 9.505023 0
0.42394814 9.4764357 0.52984691
0.25009003 5.7457051 -0.95879799
0.36386305 8.3595877 -0.9326517
0.34866402 8.0103979 -0.44785386
0.41408142 9.5133324 0
0.41283652 9.4847317 0.5302825
0.24293044 5.7408781 -0.9579429
0.35474589 8.3832769 -0.93524605
0.32393524 7.6551661 -0.42797101
0.40313616 9.526824 0
0.4014855 9.4878168 0.53042746
0.23662591 5.7565522 -0.96050984
0.34450996 8.3811178 -0.93495804
0.31244421 7.6010332 -0.42492321
0.39162454 9.5273046 0
0.39012766 9.4908886 0.53057247
0.22915851 5.7440109 -0.95837045
0.3345888 8.3866911 -0.93553406
0.30470958 7.6377497 -0.4269549
0.38032007 9.5329762 0
0.37897035 9.4991446 0.53100801
0.22281304 5.7596698 -0.96093744
0.32475492 8.394846 -0.93639922
0.29769066 7.69524 -0.43014821
0.36870015 9.5308208 0
0.36799434 9.5125761 0.53173357
0.21518078 5.7419853 -0.9579429
0.31480506 8.4004059 -0.93697637
0.28965715 7.7293477 -0.43203491
0.35708639 9.5286617 0
0.35669479 9.5182123 0.53202415
0.20889352 5.7601914 -0.96093744
0.30474821 8.4033632 -0.93726438
0.28088239 7.7452679 -0.43290547
0.34745896 9.5811014 0
0.34519362 9.5186357 0.53202415
0.20486473 5.7449288 -0.95837045
0.29985544 8.4087105 -0.9378404
0.27666593 7.7584176 -0.43363103
0.34250507 9.6047153 0
0.33925748 9.5136442 0.53173357
0.19818819 5.7528715 -0.95965475
0.28996217 8.4168234 -0.93870556
0.26693335 7.7483587 -0.43305045
0.33170575 9.6285276 0
0.32838818 9.5322285 0.53274971
0.19123682 5.7531066 -0.95965475
0.27944815 8.4068279 -0.93755239
0.25601706 7.7019343 -0.43043822
0.32136831 9.6679401 0
0.31704259 9.5378065 0.53303969
0.18428518 5.7533336 -0.95965475
0.26986966 8.4252577 -0.93957072
0.24612819 7.6840553 -0.42942211
0.30901971 9.6475124 0
0.30601707 9.553771 0.53391081
0.17725395 5.7509789 -0.95922554
0.25929055 8.4126444 -0.93812847
0.23572278 7.6479912 -0.42739043
0.29784325 9.6634808 0
0.29455298 9.5567284 0.53405583
0.17060882 5.7614527 -0.96093744
0.24981456 8.4362268 -0.9407239
0.22594304 7.6300869 -0.42637432
0.24657449 8.3268099 0
0.28277451 9.549283 0.53362024
0.16393864 5.7719188 -0.96264929
0.20870672 7.3481045 -0.81935859
0.21583842 7.5991955 -0.4246332
0.23621744 8.3166962 0
0.27190003 9.5730019 0.53492695
0.15675513 5.7644215 -0.96136659
0.19968735 7.3431849 -0.81878257
0.20573793 7.5656857 -0.42274654
0.2263802 8.3247728 0
0.26054445 9.5811081 0.53536195
0.14985646 5.7671704 -0.9617942
0.19115025 7.3563466 -0.82022375
0.19490878 7.5009923 -0.4191182
0.21523981 8.2834244 0
0.2491699 9.5892115 0.53579748
0.14358705 5.7955689 -0.96650058
0.18206917 7.3488126 -0.81935859
0.18179081 7.3375773 -0.40997481
0.20555298 8.2966843 0
0.23790476 9.6024914 0.53652304
0.13712864 5.8188429 -0.97035354
0.17312855 7.3464441 -0.81907058
0.17114936 7.2624602 -0.40576592
0.19522139 8.2839203 0
0.22611813 9.5949755 0.53608751
0.13101543 5.8600574 -0.97719938
0.16396268 7.3337212 -0.8176294
0.16127039 7.2133012 -0.40300813
0.18474638 8.2633352 0
0.21469861 9.6030378 0.53652304
0.12409749 5.8679132 -0.97848368
0.15553869 7.3546009 -0.81993574
0.15244463 7.2082996 -0.40271813
0.17305575 8.1828899 0
0.20325994 9.6110868 0.53695863
0.11731413 5.8834534 -0.98105067
0.14660026 7.35219 -0.81964666
0.14321679 7.1825042 -0.40126702
0.16124879 8.086833 0
0.19175017 9.6165161 0.53724861
0.11063786 5.9066978 -0.98490357
0.13718379 7.3239231 -0.81647623
0.13458665 7.1852679 -0.40141201
0.1506488 8.0427895 0
0.18056828 9.6401196 0.53855473
0.1038603 5.9273505 -0.98832566
0.12865122 7.3421788 -0.81849349
0.12526713 7.1490474 -0.39937979
0.14129531 8.0637817 0
0.16937527 9.666317 0.5400064
0.096363366 5.9069481 -0.98490357
0.11977954 7.3423285 -0.81849349
0.11586598 7.1024327 -0.39676756
0.13163653 8.0691462 0
0.15883954 9.7366552 0.54392475
0.089613542 5.932723 -0.98918241
0.11090768 7.3424683 -0.81849349
0.10712701 7.092175 -0.39618698
0.12117901 8.0224648 0
0.1469176 9.7264481 0.5433442
0.082730293 5.9533615 -0.99260616
0.10156849 7.3089781 -0.81474596
0.098629706 7.0975003 -0.39647755
0.11170224 8.0382137 0
0.13559824 9.7577963 0.54508585
0.075536758 5.9534569 -0.99260616
0.092113562 7.259964 -0.80926919
0.090086631 7.1002102 -0.39662254
0.10288105 8.1086073 0
0.12370883 9.7501564 0.54465032
0.068313681 5.9509797 -0.99217862
0.083281815 7.2548923 -0.8086921
0.081417836 7.0925164 -0.39618698
0.093471631 8.1425533 0
0.11192758 9.7502985 0.54465032
0.061123032 5.9510579 -0.99217862
0.07502038 7.3041306 -0.81416988
0.073008031 7.1082048 -0.3970581
0.083846711 8.1634798 0
0.10017293 9.7530327 0.54479587
0.053908966 5.9485531 -0.99174941
0.066804081 7.3714566 -0.82166493
0.064583868 7.1264687 -0.39807367
0.074595824 8.2312317 0
0.088388227 9.7531462 0.54479587
0.050228275 5.9383163 -0.99003756
0.063050553 7.4542503 -0.83088923
0.061377231 7.2564192 -0.40533036
0.069534846 8.2208662 0
0.082495824 9.7531977 0.54479587
0.043015756 5.9332438 -0.98918241
0.054174781 7.4724283 -0.8329075
0.054681309 7.542295 -0.42129487
0.059601482 8.2209444 0
0.070767388 9.7610779 0.54523087
0.035862055 5.9358559 -0.98961002
0.045067653 7.459559 -0.83146632
0.046007436 7.6151109 -0.42535877
0.049557962 8.2027903 0
0.05892593 9.7533684 0.54479587
0.028677311 5.9333305 -0.98918241
0.035429176 7.3302903 -0.81705225
0.036906499 7.6359482 -0.42651987
0.039646454 8.2028446 0
0.047191083 9.7638264 0.54537642
0.021489391 5.9282217 -0.98832566
0.025662525 7.079453 -0.78908932
0.027651656 7.6281896 -0.42608431
0.029640572 8.1768665 0
0.035402782 9.7664719 0.54552144
0.014344895 5.9359469 -0.98961002
0.016927112 7.0044732 -0.78072912
0.018447006 7.633409 -0.42637432
0.019684935 8.1456661 0
0.023664666 9.7924871 0.54697251
0.0071786623 5.9410992 -0.99046677
0.0084479386 6.9915586 -0.77928793
0.0092015415 7.6152444 -0.42535877
0.0097953025 8.1066437 0
0.011816646 9.7795191 0.54624701
-0 5.9308352 -0.98875487
-0 6.9786339 -0.77784669
-0 7.5788665 -0.42332652
-0 8.0806303 0
-0 9.8029099 0.54755312
-0.0071786623 5.9410992 -0.99046677
-0.0084198145 6.9682832 -0.77669352
-0.0090947971 7.5269022 -0.42042431
-0.0097512836 8.0702143 0
-0.011835478 9.795105 0.54711753
-0.014375907 5.9487796 -0.99174941
-0.016820859 6.960506 -0.77582842
-0.018057719 7.4723206 -0.41737652
-0.019502554 8.0701962 0
-0.023721175 9.8158712 0.54827863
-0.021517316 5.9359255 -0.98961002
-0.025250027 6.9656582 -0.77640551
-0.026907573 7.4229207 -0.41461873
-0.029244369 8.0675669 0
-0.035534631 9.802845 0.54755312
-0.028689707 5.935895 -0.98961002
-0.033641618 6.9604449 -0.77582842
-0.035600431 7.3657227 -0.41142595
-0.038967244 8.0623159 0
-0.047479901 9.8235826 0.54871422
-0.035924092 5.9461241 -0.99132186
-0.042098824 6.9681606 -0.77669352
-0.044233583 7.3215036 -0.4089587
-0.048378784 8.0076141 0
-0.059334062 9.8209219 0.5485692
-0.043108791 5.9460764 -0.99132186
-0.050480988 6.9629369 -0.7761175
-0.053004805 7.3110514 -0.40837815
-0.068261184 9.4153929 0
-0.071219504 9.8234396 0.54871422
-0.050206583 5.9357519 -0.98961002
-0.058959868 6.9706225 -0.77698159
-0.061794829 7.3057904 -0.40808815
-0.079615802 9.4127035 0
-0.083111115 9.825942 0.54885924
-0.057527676 5.9510937 -0.99217862
-0.067432508 6.9757242 -0.77755868
-0.070572123 7.300509 -0.40779757
-0.090938896 9.4074001 0
-0.095159627 9.8440247 0.54987532
-0.064271718 5.9099488 -0.98533112
-0.075833052 6.9730439 -0.7772696
-0.079421535 7.3030138 -0.40794259
-0.10261706 9.4359016 0
-0.10688455 9.8283081 0.5490042
-0.071567744 5.922699 -0.98747057
-0.084289901 6.9755406 -0.77755868
-0.088465549 7.3211031 -0.4089587
-0.11408138 9.4409809 0
-0.11910545 9.8567553 0.55060089
-0.078621723 5.9149051 -0.98618627
-0.092649594 6.9702563 -0.77698159
-0.098243974 7.3911352 -0.41287705
-0.12559254 9.4486351 0
-0.13108446 9.8618059 0.55089146
-0.086029254 5.932776 -0.98918241
-0.12252174 8.4493828 -0.94187707
-0.10804121 7.4507718 -0.41621539
-0.13749979 9.4823027 0
-0.14311334 9.8694267 0.55132645
-0.093036503 5.9224005 -0.98747057
-0.13289343 8.4595633 -0.94302917
-0.1178193 7.4999928 -0.41897264
-0.14903903 9.487339 0
-0.15487526 9.8588543 0.5507459
-0.1001925 5.9222841 -0.98747057
-0.14320265 8.4645729 -0.94360626
-0.12679367 7.4946537 -0.41868263
-0.16067861 9.4975605 0
-0.16705145 9.8742533 0.55161703
-0.10716225 5.9118919 -0.98575872
-0.15357101 8.4721546 -0.94447142
-0.13410699 7.3983707 -0.41331261
-0.1720129 9.4895515 0
-0.17907654 9.8792353 0.551907
-0.11410704 5.9014916 -0.98404682
-0 0 -0
-0.13777222 7.1254296 -0.39807367
-0.1835293 9.4919357 0
-0.19121446 9.8894033 0.55248755
-0.11797957 5.9168262 -0.98661548
-0.1690807 8.4796133 -0.94533545
-0.14067854 7.0552082 -0.39415532
-0.18879695 9.4684076 0
-0.19729283 9.8944874 0.55277812
-0.12480304 5.9012752 -0.98404682
-0.17932653 8.4794025 -0.94533545
-0.14870887 7.0316548 -0.39284921
-0.2005678 9.4837894 0
-0.20902848 9.8838501 0.55219758
-0.13210568 5.9088221 -0.98533112
-0.18991908 8.4946995 -0.94706577
-0.15679851 7.0132828 -0.39183307
-0.21167782 9.4679241 0
-0.22155172 9.9095631 0.55364865
-0.13912417 5.9035206 -0.98447436
-0.19993939 8.4841213 -0.9459126
-0.16521142 7.0104928 -0.39168808
-0.22495712 9.5457096 0
-0.2333416 9.9014931 0.55321312
-0.14613028 5.8982205 -0.98361927
-0.21063913 8.5019751 -0.94793093
-0.17400384 7.0232739 -0.39241365
-0.23784463 9.6000643 0
-0.2454986 9.9089994 0.55364865
-0.15352374 5.9083042 -0.98533112
-0.22104619 8.5068808 -0.94850695
-0.18269253 7.0308537 -0.39284921
-0.24937673 9.5971708 0
-0.29142043 11.215207 0.62665009
-0.16045325 5.9004135 -0.98404682
-0.23146543 8.5117741 -0.94908297
-0.19161147 7.0462079 -0.39371976
-0.26040688 9.5760498 0
-0.30475962 11.207051 0.6262145
-0.16714548 5.8848243 -0.98147982
-0.24204381 8.5218296 -0.95023614
-0 0 -0
-0.27072144 9.5315065 0
-0.31859604 11.217065 0.62679505
-0.18176164 5.8972297 -0.98361927
-0.26335439 8.5444946 -0.95283163
-0 0 -0
-0.29575887 9.5958529 0
-0.3455424 11.211073 0.62650508
-0.18946251 5.9149685 -0.98661548
-0.27425793 8.5622587 -0.95484883
-0 0 -0
-0.30693686 9.5824852 0
-0.35967061 11.228819 0.62752062
-0.19626833 5.9044728 -0.98490357
-0.28529099 8.5826015 -0.95715517
-0 0 -0
-0.31704542 9.5378923 0
-0.37323818 11.228376 0.62752062
-0.20296042 5.891396 -0.98276252
-0.29575014 8.5848331 -0.95744318
-0 0 -0
-0.32597145 9.4620771 0
-0.38734215 11.243504 0.62839174
-0.21007887 5.8911467 -0.98276252
-0.30639964 8.592226 -0.95830834
-0 0 -0
-0.33675498 9.4434671 0
-0.4011125 11.248217 0.62868172
-0.21757534 5.9011497 -0.98447436
-0.31659102 8.5866852 -0.95773232
-0 0 -0
-0.34845307 9.4508581 0
-0.41499078 11.255516 0.62911731
-0.2244128 5.8931942 -0.98319173
-0.3268674 8.5837049 -0.95744318
-0 0 -0
-0.35947621 9.4400282 0
-0.4279975 11.239431 0.62824672
-0.23183547 5.9006066 -0.98447436
-0.33734074 8.5858955 -0.95773232
-0 0 -0
-0.37139314 9.4525871 0
-0.79799843 20.310415 1.1353376
-0.23865369 5.8926349 -0.98319173
-0.34750533 8.580308 -0.95715517
-0 0 -0
-0.38270926 9.4495335 0
-0.82148772 20.28348 1.1338865
-0.24577361 5.8923421 -0.98319173
-0.35819617 8.5876369 -0.95802033
-0 0 -0
-0.39434403 9.4542694 0
-0.84491265 20.256504 1.1324347
-0.25278276 5.8894687 -0.98276252
-0.36879402 8.5923605 -0.95859635
-0 0 -0
-0.40587887 9.4563837 0
-0.92286986 21.501518 1.2020984
-0.25933307 5.8763385 -0.98062307
-0.37917593 8.5919094 -0.95859635
-0.31352341 7.1042609 -0.39720309
-0.41707507 9.4506817 0
-0.9473604 21.466642 1.2002118
-0.26678225 5.8837166 -0.98190743
-0.38979185 8.5966167 -0.9591735
-0.3224605 7.1116667 -0.39763865
-0.75960958 16.752718 0
-0.97341549 21.468075 1.2003567
-0.27365237 5.8782568 -0.98105067
-0.4010205 8.6142187 -0.9611907
-0.3314155 7.119051 -0.39807367
-0.77827817 16.717995 0
-0.99959666 21.47208 1.2006472
-0.27792948 5.8934803 -0.98361927
-0.40622473 8.6139746 -0.9611907
-0.3398779 7.2070937 -0.40300813
-0 0 0
-1.013303 21.48704 1.2015178
-0.28430602 5.8777509 -0.98105067
-0.4168829 8.6186495 -0.96176785
-0.76435292 15.802255 -0.88368553
-0 0 0
-1.0405204 21.511749 1.202969
-0.29153541 5.8799744 -0.98147982
-0.42729655 8.6181393 -0.96176785
-0.78331727 15.798717 -0.88353997
-0 0 0
-1.0665123 21.510477 1.202969
-0.29942107 5.8949957 -0.98404682
-0.43875921 8.6382818 -0.96407419
-0.8049109 15.847068 -0.88629776
-0.84250385 16.587198 0
-1.0935574 21.529932 1.2041301
-0.30574414 5.8792529 -0.98147982
-0.44933075 8.6403255 -0.9643622
-0.82459819 15.856463 -0.88687831
-0 0 0
-1.120111 21.538975 1.2047106
-0.31271106 5.8763084 -0.98105067
-0.45977056 8.6397762 -0.9643622
-0.84320468 15.845077 -0.88629776
-0.87954384 16.527945 0
-1.1468261 21.550577 1.2054362
-0.32120657 5.9015636 -0.98533112
-0.47020972 8.6392145 -0.9643622
-0.86333841 15.862211 -0.88731384
-0.89753413 16.490494 0
-1.1728649 21.549177 1.2054362
-0.32719636 5.8806667 -0.98190743
-0.48107937 8.64639 -0.96522737
-0.88235939 15.858555 -0.88716829
-0.91673571 16.476397 0
-1.1997684 21.563314 1.2063073
-0.33444732 5.8828273 -0.98233497
-0.49167317 8.6483822 -0.96551538
-0.90211064 15.867854 -0.8877489
-0.93679166 16.477882 0
-1.2261174 21.567034 1.2065973
-0.34244844 5.8978004 -0.98490357
-0.5021227 8.6477823 -0.96551538
-0.92173523 15.874537 -0.88818443
-0.95670128 16.476738 0
-1.252929 21.578505 1.2073228
-0.34957451 5.8973823 -0.98490357
-0.51348948 8.6626558 -0.96724457
-0.94030076 15.863036 -0.88760388
-0.97660953 16.475571 0
-0.63341188 10.685768 0.59791386
-0.35592467 5.8841362 -0.98276252
-0.52364421 8.6568708 -0.96666855
-0.87977135 14.544353 -0.81387693
-0.99793035 16.497755 0
-0.64569557 10.67462 0.59733331
-0.3631928 5.8862715 -0.98319173
-0.53458196 8.6639786 -0.96753371
-0.89878476 14.566619 -0.81518304
-1.0185051 16.506927 0
-0.65763342 10.658276 0.59646273
-0.37014326 5.8832588 -0.98276252
-0.54553705 8.6710634 -0.96839774
-0.91752726 14.583678 -0.81619912
-1.038613 16.50828 0
-0.66887951 10.631535 0.59501106
-0.37692353 5.8776889 -0.98190743
-0.55601394 8.6703978 -0.96839774
-0.93448299 14.572186 -0.81561857
-1.0582259 16.501814 0
-0.68106061 10.620357 0.59443104
-0.38302135 5.8618641 -0.97934043
-0.5668276 8.6748867 -0.96897489
-0.95124298 14.558084 -0.81489307
-1.078504 16.505722 0
-0.69389272 10.619526 0.59443104
-0.39095619 5.8742018 -0.98147982
-0.5790264 8.6999979 -0.97185725
-0.97349143 14.626921 -0.81881136
-1.0998297 16.525181 0
-0.70689625 10.62127 0.59457606
-0.39787966 5.8711567 -0.98105067
-0.5904125 8.7121925 -0.97329843
-0.99204278 14.638694 -0.81953692
-1.1213799 16.547207 0
-0.71990496 10.622998 0.59472108
-0.31004152 4.4944963 -0.99803096
-0.4033837 5.8476253 -0.97719938
-0.60058337 8.7063169 -0.97272241
-1.0097301 14.637485 -0.81953692
-1.1429849 16.569204 0
-0.73345554 10.632489 0.59530163
-0.41080898 5.8522596 -0.97805613
-0.61128378 8.7081623 -0.97301042
-1.0283254 14.649211 -0.82026249
-1.1626406 16.562624 0
-0.74666589 10.636775 0.5955916
-0.32144517 4.5013394 -0.99972016
-0.41806269 5.8543172 -0.97848368
-0.62291116 8.7229013 -0.97474074
-1.0447303 14.629823 -0.81924695
-1.1828376 16.563801 0
-0.76007324 10.643642 0.5960272
-0.4256942 5.8614912 -0.97976798
-0.63326275 8.7195559 -0.9744516
-1.0612772 14.612995 -0.81837583
-1.2020968 16.551975 0
-0.77274537 10.640127 0.59588218
-0.3284893 4.4855399 -0.99634176
-0.42811003 5.8458667 -0.97719938
-0.63928622 8.7294893 -0.97560477
-1.0693463 14.601985 -0.81779528
-1.2113361 16.540865 0
-0.7805022 10.657802 0.59689832
-0.33447507 4.492744 -0.99803096
-0.4349829 5.8427877 -0.97677177
-0.65079355 8.7416048 -0.97704595
-1.0871826 14.603281 -0.81794083
-1.2305489 16.529007 0
-0.79299331 10.651664 0.59660774
-0.34028646 4.4973989 -0.99915564
-0.44243017 5.8473821 -0.97762853
-0.66291678 8.761445 -0.9793523
-1.1016903 14.5605 -0.81561857
-1.25052 16.527508 0
-0.80801988 10.679201 0.59820437
-0.34591576 4.4995251 -0.99972016
-0.44988844 5.8519573 -0.97848368
-0.6729086 8.7529087 -0.97848827
-1.1184864 14.548795 -0.81503803
-1.2694921 16.513014 0
-0.82211769 10.693757 0.59907496
-0.35075864 4.4915018 -0.99803096
-0.45715871 5.8539667 -0.97891122
-0.68428975 8.7624035 -0.97964144
-1.1358628 14.544845 -0.81489307
-1.2906593 16.527031 0
-1.7030926 21.808283 1.2218362
-0.35658687 4.4961357 -0.99915564
-0.46423176 5.8534098 -0.97891122
-0.69548982 8.7692986 -0.98050547
-1.1519983 14.525327 -0.81387693
-1.3114511 16.535835 0
-0.84713614 10.681377 0.59849441
-0.36222386 4.4982419 -0.99972016
-0.47151077 5.8554106 -0.97934043
-0.70567048 8.7632999 -0.97992945
-1.1687143 14.513564 -0.81329638
-1.3349814 16.578337 0
-1.7562072 21.80929 1.2221268
-0.3662096 4.4800711 -0.9957794
-0.4773303 5.8394809 -0.97677177
-0.71541578 8.7521296 -0.97877628
-1.1854033 14.501782 -0.81271583
-1.3573446 16.605246 0
-1.7840395 21.825274 1.2231424
-0.37141275 4.4770956 -0.99521708
-0.48502272 5.8465772 -0.97805613
-0.72641778 8.7564087 -0.9793523
-1.2022804 14.492568 -0.81228024
-1.3789133 16.621742 0
-1.811269 21.83346 1.2237229
-0.37596965 4.466516 -0.99296552
-0.49165577 5.8408656 -0.97719938
-0.73764873 8.7632599 -0.98021746
-1.2195733 14.488518 -0.81213522
-1.3998696 16.630436 0
-1.8387388 21.844198 1.2244484
-0.38179824 4.471117 -0.9940902
-0.49958661 5.8504982 -0.97891122
-0.74845672 8.7649364 -0.98050547
-0.78034556 9.1383762 -0.51229244
-1.419742 16.626143 0
-1.8682275 21.878212 1.2264807
-0.38632345 4.4605265 -0.99183869
-0.5066554 5.8498902 -0.97891122
-0.75971663 8.771759 -0.98137063
-0.78981811 9.1193132 -0.5112769
-1.4418513 16.647747 0
-1.8930919 21.857815 1.2254646
-0.39237997 4.4676523 -0.99352789
-0.51215202 5.8313808 -0.97591668
-0.76873076 8.7527962 -0.9793523
-0.79901773 9.0976439 -0.51011574
-1.4633323 16.661554 0
-1.9220024 21.883987 1.2270613
-0.39710167 4.4595799 -0.99183869
-0.5191977 5.8307576 -0.97591668
-0.77976549 8.7570181 -0.97992945
-0.8072443 9.0656137 -0.50837409
-1.4841553 16.667542 0
-1.9493654 21.892002 1.2276418
-0.40248993 4.4590969 -0.99183869
-0.52439648 5.8096728 -0.97249293
-0.78964829 8.7483387 -0.97906429
-0.81702995 9.0516949 -0.50764853
-1.5052295 16.676105 0
-1.9748818 21.879278 1.2270613
-0.40764633 4.4560795 -0.99127632
-0.53164959 5.8115888 -0.97292048
-0.80045378 8.7499514 -0.9793523
-0.82654583 9.0351696 -0.50677741
-1.5244298 16.663908 0
-2.0058143 21.926035 1.2298185
-0.41396844 4.4657035 -0.99352789
-0.53772354 5.8007178 -0.97120863
-0.81007087 8.7386761 -0.97819912
-0.83602381 9.0186453 -0.50590688
-1.5460056 16.677607 0
-0.99454379 10.728686 0.60183275
-0.41912672 4.4626727 -0.99296552
-0.54305172 5.7821703 -0.96821243
-0.82183921 8.7505741 -0.97964144
-0.84619135 9.0098648 -0.50547129
-1.3228167 14.084758 0
-1.0058055 10.709365 0.60081661
-0.42331475 4.4495087 -0.9901495
-0.54906541 5.7712879 -0.96650058
-0.83094168 8.7341213 -0.97791111
-0.85535538 8.990736 -0.50445575
-1.3373702 14.057246 0
-1.0216981 10.739183 0.60255831
-0.43039697 4.4667006 -0.9940902
-0.5560385 5.7706203 -0.96650058
-0.84323132 8.7511349 -0.97992945
-0.86522144 8.9793501 -0.5038752
-1.351859 14.02972 0
-1.0351716 10.743109 0.60284829
-0.43579379 4.4661775 -0.9940902
-0.56350982 5.7750587 -0.96735734
-0.85229719 8.7346592 -0.97819912
-0.87556541 8.9731207 -0.50358462
-1.3670406 14.009942 0
-1.0471424 10.731505 0.60226774
-0.44143954 4.4681735 -0.99465257
-0.56846833 5.7539368 -0.96393359
-0.86234254 8.7284803 -0.97762311
-0.88589656 8.9668894 -0.50329465
-0.89809239 9.0903339 0
-1.0616419 10.745752 0.60313886
-0.44658551 4.4651113 -0.9940902
-0.57695282 5.7685666 -0.96650058
-0.87288857 8.7274313 -0.97762311
-0.8954379 8.9528875 -0.50256908
-0.90855712 9.0840578 0
-1.0756596 10.754805 0.60371941
-0.45146903 4.459517 -0.99296552
-0.58599108 5.7882977 -0.96992433
-0.88239127 8.7160769 -0.97646993
-0.90546966 8.9440403 -0.50213349
-0.91769862 9.0648355 0
-1.0889155 10.75608 0.60386443
-0.45390499 4.4567084 -0.992401
-0.58610684 5.7547445 -0.96436113
-0.8868705 8.7078209 -0.97560477
-0.91113609 8.9460745 -0.50227851
-0.92264712 9.0590963 0
-1.0962037 10.763177 0.60429996
-0.45928973 4.4561567 -0.992401
-0.59463954 5.7693586 -0.96692979
-0.89871722 8.7196045 -0.97704595
-0.92087936 8.9346275 -0.50169796
-0.93252528 9.0476198 0
-1.1129372 10.798027 0.60633165
-0.46414715 4.4505491 -0.99127632
-0.60027814 5.7558622 -0.96478873
-0.90630209 8.6902218 -0.97387558
-0.93059635 8.923171 -0.50111741
-0.94318718 9.0439005 0
-2.183296 20.934881 1.1756845
-0.47678897 4.4671025 -0.99521708
-0.61336946 5.7467446 -0.96350604
-0.92812407 8.6957245 -0.97474074
-0 0 -0
-0.96365923 9.0286579 0
-2.2380168 20.968292 1.1778611
-0.48000449 4.4463134 -0.99071401
-0.62003762 5.7434492 -0.9630785
-0.93863046 8.6945963 -0.97474074
-0.96154165 8.9068241 -0.50039184
-0.97484696 9.0300722 0
-2.2641883 20.973326 1.1782967
-0.48703074 4.4608808 -0.9940902
-0.62530476 5.7273798 -0.96050984
-0.95053881 8.7063093 -0.97618192
-0.97314942 8.9134073 -0.50082737
-0.98575735 9.0288877 0
-2.2923484 20.996401 1.1797477
-0.49269903 4.4628119 -0.99465257
-0.63504112 5.7521305 -0.96478873
-0.95878738 8.6845875 -0.97387558
-0.9842037 8.9148054 -0.50097239
-0.99495333 9.0121746 0
-2.3168621 20.985874 1.1793127
-0.49837381 4.464746 -0.99521708
-0.63885927 5.7233028 -0.96008229
-0.96899366 8.6808548 -0.97358757
-0.9952628 8.9161901 -0.50111741
-1.0061305 9.0135498 0
-2.3436589 20.99597 1.1800383
-0.50462216 4.4717078 -0.99690408
-0.64347142 5.7021198 -0.95665854
-0.98064226 8.6899586 -0.97474074
-1.0057445 8.9124012 -0.50097239
-1.0184797 9.0252552 0
-2.3733964 21.031847 1.182215
-0.50887311 4.4609966 -0.99465257
-0.65036082 5.7013383 -0.95665854
-0.99055481 8.6836224 -0.97416359
-1.0162184 8.9085999 -0.50082737
-1.0282044 9.0136747 0
-2.3991029 21.031551 1.1823605
-0.51484555 4.4654317 -0.9957794
-0.65724933 5.7005482 -0.95665854
-1.0007505 8.6798525 -0.97387558
-1.0275766 8.9125233 -0.50111741
-1.0390949 9.0124264 0
-2.4262989 21.044121 1.1832311
-0.52053457 4.4673281 -0.99634176
-0.66384 5.6972027 -0.956231
-1.0100403 8.6683598 -0.97272241
-1.0368415 8.8983727 -0.50039184
-1.04908 9.0034065 0
-2.4529278 21.051498 1.1838117
-0.52593207 4.4666958 -0.99634176
-0.6722241 5.7091413 -0.95837045
-1.0208157 8.6696997 -0.97301042
-1.0485046 8.9048576 -0.50082737
-1.0599581 9.0021324 0
-2.48049 21.066586 1.1848278
-0.53162873 4.4685774 -0.99690408
-0.6785149 5.7032218 -0.95751369
-1.0312907 8.6684599 -0.97301042
-1.0589569 8.9010067 -0.50068241
-1.071143 9.003437 0
-2.5028727 21.037766 1.1833761
-0.53551191 4.4553208 -0.9940902
-0.68571287 5.7049537 -0.9579429
-1.0408378 8.6595011 -0.97214526
-1.0687807 8.8919783 -0.50024682
-1.0823314 9.0047169 0
-2.5298421 21.047632 1.1841022
-0.54365104 4.4773693 -0.99915564
-0.69291478 5.7066669 -0.95837045
-1.0513003 8.6582375 -0.97214526
-1.079524 8.8906803 -0.50024682
-1.0932111 9.0034027 0
-2.5549581 21.041973 1.1839566
-0.5490607 4.4767089 -0.99915564
-0.69762188 5.6879873 -0.95537424
-1.0623916 8.6620998 -0.97272241
-1.090266 8.88937 -0.50024682
-1.1053563 9.0124083 0
-2.5851266 21.07756 1.1861339
-0.55353332 4.4684849 -0.99746859
-0.70607179 5.6998758 -0.95751369
-1.0728574 8.6608095 -0.97272241
-1.1013254 8.8906221 -0.50039184
-1.114646 8.9981546 0
-2.6147451 21.107943 1.1880206
-0.55924731 4.4703317 -0.99803096
-0.7142331 5.7092071 -0.95922554
-1.082358 8.6518049 -0.97185725
-1.1120671 8.8892851 -0.50039184
-1.1264858 9.0045404 0
-2.6450856 21.143436 1.1901972
-0.56560409 4.4772177 -0.99972016
-0.7198441 5.6981525 -0.95751369
-1.0905416 8.6325264 -0.96983892
