# .PCD v0.7 - Point Cloud Data file format
VERSION 0.7
FIELDS x y z
SIZE 4 4 4
TYPE F F F
COUNT 1 1 1
WIDTH 1637
HEIGHT 1
VIEWPOINT 0 0 0 1 0 0 0
POINTS 1637
DATA ascii
1.2584594 3.449661 -0.40928993
1.6352398 4.4824829 -0.26651457
14.291836 39.176464 0
12.05291 33.039169 1.9644066
1.4421221 3.9679985 -0.93528414
1.2792565 3.5198736 -0.62436682
1.2542902 3.451179 -0.40928993
1.632486 4.4917846 -0.2669501
14.227597 39.147228 0
22.796453 62.724434 3.7277601
1.4762487 4.0772371 -0.96061128
1.2837436 3.5455587 -0.62864733
1.2465971 3.4429643 -0.40813676
1.6270573 4.4937539 -0.2669501
14.192691 39.198654 0
8.6540995 23.901672 1.4198717
1.4945998 4.1435542 -0.97580969
1.2707466 3.5229549 -0.62436682
1.2468232 3.4566309 -0.40957794
1.6189805 4.4883814 -0.26651457
0 0 0
8.6119862 23.875444 1.4176944
1.518805 4.2266536 -0.99494672
1.2673595 3.5269105 -0.62479603
1.2470181 3.4703031 -0.41101915
1.6100411 4.4805527 -0.26593399
0 0 0
8.5813751 23.880947 1.4174045
1.5136968 4.2284856 -0.99494672
1.2648257 3.5332685 -0.62565118
1.24544 3.479115 -0.41188428
1.59762 4.4629235 -0.26477289
10.320282 28.829529 0
8.5411301 23.859497 1.4155178
1.5154142 4.2494578 -0.99944979
1.264866 3.5468814 -0.62779057
1.2473143 3.4976637 -0.41390151
1.5922263 4.4648504 -0.26477289
0 0 0
8.5088024 23.86001 1.4149373
1.2502673 3.5193796 -0.62265497
1.2422222 3.4967334 -0.4136135
1.5824817 4.4545312 -0.26404732
9.8080349 27.608658 0
8.4782248 23.865372 1.4146467
1.2631422 3.5692878 -0.63121432
1.2379961 3.4982319 -0.4136135
1.5744967 4.4490886 -0.26361176
9.6991339 27.407049 0
8.4571838 23.897642 1.4159528
1.2579758 3.5683928 -0.63078678
1.2286103 3.4850938 -0.41188428
1.575168 4.4681449 -0.26462787
9.6305361 27.318119 0
8.436079 23.929907 1.4172595
1.259618 3.5868669 -0.63378292
1.2441068 3.5426974 -0.41851419
1.5628803 4.4504313 -0.26346678
1.608662 4.5807986 0
8.4054346 23.935175 1.4169689
1.2646047 3.6150334 -0.63848937
1.2586128 3.5979047 -0.42485607
1.5557873 4.4474158 -0.26317677
9.0600872 25.899412 0
8.3807974 23.957575 1.4176944
1.255169 3.6020186 -0.63592237
1.2729902 3.653161 -0.43119904
1.5478464 4.4419289 -0.26274121
9.0056629 25.843983 0
8.3432941 23.943151 1.4162434
1.2567059 3.6205015 -0.63891691
1.2753603 3.6742444 -0.43350539
1.5475888 4.4585199 -0.26361176
8.9206676 25.699961 0
8.3254337 23.985125 1.41813
1.2506541 3.6171699 -0.63806182
1.2692279 3.6708891 -0.43292823
1.5405039 4.4554796 -0.26332176
8.7552481 25.322124 0
8.292202 23.982889 1.4174045
1.2496263 3.628387 -0.63977367
1.2715293 3.6919842 -0.43523458
1.5342739 4.4548836 -0.26317677
8.6000748 24.970984 0
8.2733707 24.022373 1.4191462
1.2527373 3.6517453 -0.64362496
1.2670673 3.6935177 -0.43523458
1.531417 4.4641004 -0.26361176
8.5057182 24.794279 0
8.2418079 24.024977 1.4187106
1.2748855 3.7309899 -0.6573199
1.2667843 3.7072814 -0.43667579
1.5302221 4.4782395 -0.26433733
8.4547157 24.742973 0
8.2354555 24.101301 1.422629
1.2753376 3.7471039 -0.6598869
1.277303 3.7528787 -0.44186449
1.5223006 4.4727125 -0.26390234
3.1297653 9.1956482 0
8.30093 24.389189 1.439029
1.2774024 3.7680914 -0.66331065
1.2819027 3.7813666 -0.44503596
1.5118879 4.4597788 -0.26303121
3.1027756 9.1525917 0
3.1085284 9.1695614 0.54080725
0 0 -0
1.2736689 3.7720621 -0.66373819
1.2690598 3.7584119 -0.4421536
1.5073317 4.4640713 -0.26317677
3.0875521 9.1440077 0
3.070015 9.0920706 0.53601778
1.278767 3.7947226 -0.66758949
1.2800013 3.7983854 -0.44676518
1.4955059 4.4378924 -0.26158008
3.0720541 9.1162767 0
3.0744789 9.1234722 0.53775948
1.2692814 3.7816677 -0.66502249
1.2712965 3.7876713 -0.445324
1.495931 4.4569426 -0.26259622
3.0693161 9.1446495 0
3.0725486 9.1542797 0.53935611
1.2593287 3.7822907 -0.66459495
1.5644449 4.6986818 -0.55198717
1.4736624 4.4260244 -0.26056397
3.0398097 9.1298199 0
3.0495973 9.159215 0.53921115
1.560393 4.7054744 -0.55256325
1.465862 4.4204097 -0.26012897
3.0271392 9.1285505 0
3.0295303 9.1357613 0.53761446
1.5547062 4.7073565 -0.55256325
1.4694813 4.4493117 -0.2617251
3.0234516 9.1544399 0
3.005451 9.0999374 0.53529221
1.5385115 4.6772928 -0.54881573
1.4576088 4.4313374 -0.26056397
0 0 0
7.0919919 21.560659 1.2677734
1.5376917 4.6939011 -0.55054599
1.450637 4.4281611 -0.26027396
0 0 0
7.0732145 21.591434 1.2690794
0 0 -0
1.5296113 4.6883764 -0.54968089
1.4468957 4.4348469 -0.26056397
0 0 0
7.0479255 21.602434 1.2692245
0 0 -0
1.5207483 4.6803818 -0.54852772
1.4351124 4.4168215 -0.25940287
0 0 0
7.0234256 21.615881 1.269515
0 0 -0
1.5166829 4.6871328 -0.54910374
1.4297744 4.4185524 -0.25940287
0 0 0
6.9925003 21.609514 1.268644
1.5054673 4.6717362 -0.54708648
1.4228419 4.4153352 -0.25911286
2.9482234 9.1488686 0
6.9655881 21.615477 1.2684989
1.5021901 4.6809335 -0.54795057
1.4198886 4.4244761 -0.25954843
2.9355776 9.1474724 0
6.9275575 21.586771 1.2663223
1.4925969 4.6704288 -0.54650939
1.4105872 4.413815 -0.25882286
2.9229364 9.1460505 0
6.8896031 21.557997 1.264145
1.4893064 4.679625 -0.54737455
1.3989488 4.3957076 -0.25766173
2.9252996 9.1917324 0
6.8186359 21.425182 1.2558727
1.4750546 4.6542974 -0.54420304
1.3967764 4.4073029 -0.25824231
2.9134054 9.1927814 0
6.7016826 21.146078 1.2390372
1.4670967 4.6486835 -0.54333895
1.3898845 4.404027 -0.25795174
2.8983803 9.1838884 0
6.6190419 20.973282 1.2284427
1.4638027 4.6578484 -0.54420304
1.3814459 4.3957872 -0.25737119
2.8818185 9.170002 0
6.4955406 20.668934 1.210156
1.4574019 4.6571474 -0.54391503
1.3792377 4.407373 -0.25795174
2.8691833 9.1685143 0
6.3642502 20.337048 1.190273
1.450236 4.6539712 -0.54333895
1.3739113 4.4090362 -0.25795174
2.8596499 9.176939 0
6.3064332 20.238056 1.1840324
2.4333479 7.842237 -0.9152168
1.3708936 4.4181404 -0.2583873
5.8300548 18.789206 0
5.810729 18.726921 1.0952116
2.4177623 7.8254018 -0.91291046
1.3647878 4.4173136 -0.25824231
5.7950559 18.756453 0
5.7880969 18.733929 1.0952116
1.3651811 4.4280696 -0.25882286
5.7714548 18.720158 0
5.77984 18.747355 1.0957922
1.3598297 4.4297161 -0.25882286
5.7389035 18.694777 0
5.7411704 18.702162 1.0927444
1.3537145 4.4288635 -0.2586773
5.7056613 18.666859 0
5.7086949 18.676785 1.0908577
2.312906 7.5998292 -0.44372079
5.6785541 18.658796 0
5.6793156 18.661297 1.0895516
2.3037214 7.6026182 -0.44372079
5.6590233 18.675606 0
5.6529927 18.655704 1.0888255
2.2960329 7.6103668 -0.44401079
5.6334467 18.672464 0
5.6311998 18.665016 1.088971
0 0 -0
5.6078858 18.669289 0
5.6093893 18.674294 1.089116
0 0 -0
0 0 -0
5.586071 18.678551 0
5.5868211 18.681059 1.089116
0 0 -0
0 0 -0
5.5686941 18.70274 0
5.5642443 18.687796 1.089116
0 0 -0
0 0 -0
5.5475721 18.714451 0
5.5431356 18.699482 1.089406
0 0 -0
2.2397177 7.5892134 -0.44197911
5.5279021 18.731123 0
5.5153904 18.688728 1.0883905
2.2298143 7.5894237 -0.44183412
5.5089326 18.750273 0
5.4847469 18.667953 1.0867938
2.2177243 7.5821366 -0.44125357
5.4884648 18.76441 0
5.4563503 18.654615 1.0856327
0 0 -0
2.2092869 7.5873032 -0.44139856
5.4650583 18.768522 0
5.4338059 18.661194 1.0856327
0 0 -0
2.1986721 7.5849805 -0.44110855
5.4481726 18.795109 0
5.4127021 18.672743 1.0859232
2.1902254 7.5901256 -0.44125357
5.4276237 18.809183 0
5.3944569 18.694244 1.0867938
2.1817691 7.5952616 -0.44139856
5.4048924 18.815727 0
5.3732977 18.705738 1.0870838
2.1725903 7.5978923 -0.44139856
5.3828683 18.824743 0
5.349978 18.709721 1.0869387
2.1605625 7.5905151 -0.44081801
5.3601184 18.831234 0
5.3287911 18.721174 1.0872294
2.1542227 7.6031208 -0.44139856
5.3352313 18.830183 0
5.3068743 18.730099 1.0873743
2.1464462 7.6107244 -0.4416891
5.3096519 18.826607 0
5.283534 18.733997 1.0872294
2.1379504 7.6158118 -0.44183412
5.2798648 18.807947 0
5.2573829 18.727861 1.0865037
2.1280479 7.6158895 -0.4416891
5.2578349 18.816816 0
5.236846 18.741701 1.0869387
2.1195397 7.6209564 -0.44183412
5.2357936 18.82567 0
5.2176771 18.76053 1.0876644
2.1089418 7.6184983 -0.44154355
5.2199845 18.857059 0
5.1998582 18.784353 1.0886805
2.1064146 7.6272874 -0.44197911
5.2162123 18.887808 0
5.1891994 18.789993 1.0888255
2.0992637 7.6373463 -0.44241467
5.1892467 18.879036 0
5.1658034 18.793747 1.0886805
2.0893462 7.6373634 -0.44226912
2.0406015 7.4591827 0
5.1430912 18.799974 1.0886805
2.0835316 7.6524258 -0.44299522
2.0302184 7.4566164 0
5.1196895 18.803671 1.0885354
2.0776811 7.6674752 -0.44372079
2.0178044 7.4465065 0
5.1010413 18.824886 1.089406
2.072473 7.6850281 -0.44459134
2.0081284 7.4464293 0
5.0742335 18.815989 1.0885354
2.0658798 7.6975656 -0.44517189
1.9971049 7.4413071 0
5.0521669 18.824614 1.0886805
2.0606015 7.7151237 -0.44604301
1.9807243 7.4160542 0
5.0320997 18.840746 1.0892611
2.4470677 9.2067051 -0.5321061
1.969088 7.4083815 0
5.0126672 18.859367 1.0899866
2.4346113 9.2046261 -0.53181559
1.957473 7.4006915 0
4.9925337 18.875458 1.0905671
0 0 -0
1.9438943 7.3854408 0
4.9697227 18.881477 1.0905671
2.4136782 9.2155142 -0.5321061
1.9349689 7.3877845 0
4.9488802 18.895012 1.0910027
2.4025414 9.2184238 -0.5321061
1.9240712 7.3825593 0
4.9240789 18.893431 1.0905671
2.390095 9.2162857 -0.53181559
1.913844 7.3798456 0
4.9005947 18.896854 1.0904222
2.3796084 9.2216902 -0.53196114
1.9029741 7.3745904 0
4.8764582 18.897726 1.0901315
2.3665247 9.2170057 -0.53152555
1.8921196 7.3693199 0
4.8587899 18.923738 1.0912927
2.3566711 9.2248888 -0.53181559
1.8845035 7.3766484 0
4.8372083 18.934635 1.0915833
2.3436046 9.2201815 -0.53138059
1.8743054 7.3738708 0
4.8175263 18.953056 1.0923088
2.333735 9.2280397 -0.53167057
1.8653942 7.3761301 0
4.7965336 18.966423 1.0927444
2.3101668 9.2286167 -0.53138059
1.8444042 7.3679957 0
4.7500525 18.975431 1.0925988
2.2977569 9.2263536 -0.53109002
1.8361285 7.3727422 0
4.7239814 18.968552 1.0918733
2.2934365 9.2327881 -0.53138059
1.8335567 7.3814297 0
4.7156525 18.984009 1.0925988
2.2816536 9.2330227 -0.53123504
1.8240125 7.3811154 0
4.6920877 18.987173 1.0924538
2.2686365 9.2282104 -0.53079998
1.8150926 7.3833141 0
4.6722431 19.005442 1.0931793
2.2562487 9.2258921 -0.53050947
1.8055524 7.3829765 0
4.6517444 19.02117 1.0937599
2.2469425 9.2361879 -0.530945
1.7972447 7.3876791 0
4.6299872 19.031832 1.0940505
2.2363913 9.2414198 -0.53109002
1.7913768 7.4024901 0
4.6075983 19.039936 1.0941955
2.2227907 9.2340097 -0.53050947
1.78974 7.4350119 0
4.5864139 19.05307 1.0946311
2.2110271 9.2341642 -0.53036445
1.7849952 7.4548788 0
4.5621772 19.053539 1.0943404
2.2016745 9.2444153 -0.53079998
1.7771932 7.4620981 0
4.5385499 19.056513 1.0941955
2.1922979 9.2546463 -0.53123504
1.7693741 7.4693003 0
4.5143237 19.056931 1.0939054
2.1870742 9.2825861 -0.53268671
1.7615424 7.4765038 0
4.4877172 19.047192 1.0930344
2.1841552 9.3206358 -0.53471833
1.751914 7.4760952 0
1.7057233 7.2789817 0.41759011
2.1764312 9.3384562 -0.53558946
1.7422869 7.4756651 0
1.6939784 7.2683868 0.41686454
2.1639714 9.3360119 -0.53529894
1.7344292 7.4828401 0
1.6828479 7.260303 0.41628399
2.1439357 9.3006468 -0.53312224
1.7212937 7.467176 0
1.6717392 7.252203 0.41570345
2.1210837 9.2525749 -0.53021944
4.4179401 19.271904 0
1.6606528 7.2440863 0.41512287
2.1058588 9.2373943 -0.52920336
4.397542 19.289913 0
1.6449701 7.2156959 0.41338176
2.0923977 9.2297955 -0.52862281
4.3753805 19.300283 0
1.633376 7.2050004 0.41265565
1.9717931 8.7467985 -0.99939376
2.079529 9.2247105 -0.52818722
4.3549199 19.318256 0
1.6223832 7.1968293 0.4120751
1.9595251 8.7416 -0.9985286
2.0717924 9.2424345 -0.52905834
4.3315744 19.323505 0
1.6114148 7.188652 0.41149509
1.9450217 8.7262878 -0.99651027
2.0594916 9.2398539 -0.52876776
4.3087883 19.331263 0
1.6021606 7.1880503 0.41134953
1.9300013 8.7084398 -0.99420506
2.0472021 9.2372665 -0.52847779
4.2865524 19.341532 0
1.5923507 7.1849122 0.41105953
1.9189192 8.7082319 -0.99391592
2.0349197 9.2346535 -0.52818722
4.2637382 19.349236 0
1.5819899 7.1792159 0.41062397
1.9136578 8.7093897 -0.99391592
2.0310137 9.2434969 -0.52862281
4.2531657 19.356897 0
1.5754217 7.1700187 0.41004342
1.9075489 8.7319107 -0.99622226
2.0209534 9.2510271 -0.52891332
4.2258849 19.344221 0
1.566757 7.171917 0.41004342
1.8942524 8.7215738 -0.99478108
2.009774 9.2534618 -0.52891332
4.2047176 19.359488 0
1.557539 7.171268 0.4098984
1.8858963 8.7339697 -0.99593425
1.9985915 9.2558832 -0.52891332
4.1939564 19.423065 0
1.5483249 7.1706071 0.40975341
1.8802269 8.7589989 -0.9985286
1.9874061 9.2582912 -0.52891332
3.9028525 18.18136 0
0 0 0
1.975674 9.2581377 -0.52876776
3.8787084 18.175882 0
1.5271952 7.1565371 0.4087373
1.966104 9.2681465 -0.52920336
3.8583643 18.188194 0
1.5185468 7.1583772 0.4087373
1.9532949 9.2628851 -0.52876776
3.8363845 18.192844 0
1.5082873 7.1525769 0.40830174
1.9426358 9.2677889 -0.52891332
3.8143992 18.197466 0
1.4996437 7.1543941 0.40830174
1.8293854 8.7803268 -0.99968177
1.930375 9.2650375 -0.52862281
3.7945318 18.212254 0
1.4909979 7.1562009 0.40830174
1.8182508 8.7800007 -0.99939376
1.9228677 9.2851763 -0.52963889
3.7756886 18.232111 0
1.4807707 7.1503711 0.40786675
1.8071196 8.7796602 -0.99910575
1.9095515 9.2773123 -0.52905834
3.7520814 18.22901 0
1.4726532 7.1546979 0.40801173
1.7959899 8.7792959 -0.99881661
1.8993808 9.2846994 -0.52934831
3.7290101 18.228436 0
1.4645272 7.1590152 0.40815675
1.783836 8.7738628 -0.99795258
1.8860898 9.276803 -0.52876776
3.7080181 18.238024 0
1.4563931 7.1633234 0.40830174
1.7722077 8.770937 -0.99737543
1.8753954 9.2816296 -0.52891332
3.6890719 18.257801 0
1.4487668 7.170177 0.40859228
1.760591 8.7680054 -0.99679941
1.864179 9.2838888 -0.52891332
3.6659825 18.257137 0
0 0 0
1.7474651 8.7574463 -0.99535823
1.8534678 9.2886801 -0.52905834
3.6459565 18.271763 0
1.4380448 7.2067814 0.41047898
1.7404022 8.7773037 -0.99737543
1.842243 9.2909126 -0.52905834
3.6233704 18.273603 0
1.4313573 7.218709 0.41105953
1.7282948 8.7717848 -0.99651027
1.8340282 9.308424 -0.52992892
3.6033001 18.288183 0
1.4231356 7.22298 0.41120452
1.7157087 8.7637224 -0.99535823
1.8207825 9.3004332 -0.52934831
3.5831997 18.30274 0
1.4154065 7.2297997 0.41149509
1.7016608 8.7480145 -0.9933399
1.8110324 9.3102808 -0.5297839
3.5605855 18.304502 0
1.4086523 7.2416973 0.4120751
1.6925621 8.7576857 -0.99420506
1.7992889 9.3099127 -0.52963889
3.5389588 18.311344 0
1.3974363 7.2306404 0.41134953
1.6887372 8.7663183 -0.99506909
1.794646 9.3160963 -0.52992892
3.530848 18.328808 0
3.5330625 18.340303 1.0432541
1.6752273 8.7531157 -0.9933399
1.7819241 9.3106089 -0.52949393
3.5096781 18.338179 0
3.5099235 18.33946 1.0429642
1.6627172 8.7449694 -0.99218673
1.7721274 9.320406 -0.52992892
3.48703 18.339842 0
3.488246 18.346237 1.0431092
1.6531086 8.7520504 -0.99276274
1.7599006 9.3174391 -0.52963889
3.4667993 18.354271 0
3.4680047 18.360653 1.0436897
1.6425322 8.7540407 -0.99276274
1.7495985 9.3246613 -0.52992892
3.4460595 18.366121 0
3.4439001 18.354614 1.0431092
1.6300578 8.7458487 -0.99160957
1.7373788 9.3216648 -0.52963889
3.4243414 18.372829 0
3.4231484 18.366426 1.0435448
1.6209019 8.7554445 -0.99247473
1.7275337 9.3314247 -0.53007448
3.4040341 18.387188 0
3.39575 18.342442 1.0419481
1.6089178 8.7497625 -0.99160957
2.1861596 11.888971 -0.67520612
3.3813441 18.388731 0
3.58833 19.514381 1.1082733
1.5960212 8.7389803 -0.99016839
2.1741264 11.904383 -0.67593169
3.5947638 19.683052 0
3.5624144 19.505924 1.1075478
1.5849996 8.7383604 -0.98988038
2.1606691 11.912119 -0.67622226
3.5695858 19.679707 0
3.5379143 19.505096 1.1072572
1.5753578 8.7453651 -0.99045753
2.1448915 11.907047 -0.67578667
3.5411894 19.658388 0
3.5175686 19.52726 1.1082733
1.5629677 8.7370777 -0.98930436
2.1369078 11.945435 -0.67781836
3.5192666 19.672899 0
3.4958014 19.541727 1.1088538
1.5524095 8.7389603 -0.98930436
1.3985255 7.8727026 -0.44662359
3.4950385 19.674578 0
3.4740045 19.556171 1.1094345
1.5409496 8.7357302 -0.98872721
1.380435 7.8257642 -0.44386581
3.4730713 19.689037 0
3.4508231 19.562912 1.1095794
1.5295014 8.7324953 -0.98815119
1.3745645 7.8479023 -0.4450269
3.4506259 19.700912 0
3.4262869 19.561953 1.1092894
1.5158463 8.7164965 -0.98613286
1.3646361 7.8470001 -0.44488192
3.4286005 19.715315 0
3.4039819 19.573751 1.1097244
1.3649977 7.9630342 -0.90051472
1.3491811 7.8707638 -0.44604301
3.382266 19.731239 0
3.3562312 19.579361 1.1095794
1.3540728 7.9570255 -0.89964956
1.3348743 7.8442078 -0.44444636
3.3601685 19.745575 0
3.3351874 19.598778 1.1104505
1.3405802 7.9357052 -0.89705521
1.3271264 7.8560634 -0.4450269
3.3363075 19.74962 0
3.3149645 19.62328 1.1116111
1.3361236 7.9679298 -0.90051472
1.3197812 7.8704724 -0.44575247
3.3128715 19.756203 0
3.2899632 19.619591 1.1111761
1.3230976 7.9491272 -0.89820838
1.309844 7.8695006 -0.44560745
3.2851522 19.737087 0
3.2654004 19.61842 1.1108855
1.3134916 7.9507203 -0.89820838
1.2982171 7.8582616 -0.44488192
2.5537832 15.458352 0
2.5615327 15.50526 0.87780356
1.3093239 7.9854803 -0.9019559
1.2912427 7.8752046 -0.44575247
2.5329978 15.448588 0
2.539434 15.48784 0.876643
1.3028313 7.976059 -0.90080273
1.2877418 7.8836794 -0.44618803
2.5089798 15.360217 0
2.5191846 15.42269 0.87286907
1.3010553 8.0261297 -0.90627944
1.2769672 7.877532 -0.44575247
2.4833393 15.319568 0
2.4918163 15.371861 0.86982131
1.1077449 6.8862791 -0.77742022
1.2604325 7.8354588 -0.44328523
2.4631734 15.312279 0
2.4674637 15.338949 0.86778963
1.106354 6.9310308 -0.78232092
1.1207221 7.0210433 -0.39713338
2.4385176 15.276702 0
2.4472895 15.331656 0.86720908
1.0959557 6.9195919 -0.78087974
1.1016698 6.9556694 -0.39336005
2.4241273 15.305337 0
2.4283562 15.332038 0.86706406
1.0896012 6.9336843 -0.78232092
1.0936674 6.9595599 -0.39350504
1.2271826 7.8091846 0
2.4110391 15.342664 0.86749959
1.0792305 6.9222202 -0.78087974
1.0776532 6.9121027 -0.39074782
1.2157416 7.7978072 0
2.3916974 15.340426 0.86720908
1.0700742 6.9184022 -0.78030258
1.0569874 6.8337917 -0.38624835
1.2083073 7.8121276 0
2.3755436 15.358717 0.8680802
1.0632828 6.9299164 -0.78145576
1.0577935 6.8941398 -0.38958669
1.1964996 7.7981524 0
2.3558013 15.353868 0.86764461
1.057243 6.9465332 -0.78318501
1.0482892 6.8877034 -0.38915113
1.186685 7.7970219 0
2.3392019 15.369546 0.86837018
1.048463 6.9452505 -0.78289694
1.0298822 6.8221674 -0.38537779
1.1760972 7.7907276 0
2.3210166 15.374928 0.86851519
1.0484953 7.0027828 -0.78923887
1.0204835 6.8156948 -0.38494223
1.1635997 7.7715526 0
2.3032076 15.382866 0.86880571
1.0483916 7.0603352 -0.79558182
1.0084314 6.7912254 -0.38349113
1.1542085 7.772953 0
2.2857625 15.393341 0.8692407
1.044758 7.0948596 -0.79932934
0.99643856 6.7667265 -0.38203943
1.1402658 7.7434449 0
2.2679191 15.401238 0.86953127
0.86380887 5.9156346 -0.99667948
1.0369312 7.1012306 -0.79990536
0.98788649 6.765357 -0.38189444
1.1260206 7.7113423 0
2.2500582 15.409104 0.86982131
0.85592538 5.9115977 -0.99582434
1.0294622 7.1101604 -0.80077052
0.97971112 6.7665458 -0.38189444
1.1170746 7.71527 0
2.2314377 15.411812 0.86982131
0.84622794 5.8948379 -0.99282819
1.0212374 7.1139569 -0.80105853
0.97153437 6.7677245 -0.38189444
1.1051638 7.6985893 0
2.2139218 15.422215 0.87025684
0.83801913 5.8882294 -0.99154389
1.0133704 7.1203117 -0.80163568
0.96262467 6.7637534 -0.38160443
1.0907263 7.6638422 0
2.1949198 15.42231 0.87011182
0.83054543 5.8866982 -0.99111629
1.0054882 7.1266484 -0.8022117
0.95553929 6.7726231 -0.38203943
1.0840107 7.6831961 0
2.176646 15.427521 0.87025684
0.82094264 5.8698988 -0.98812014
0.99508536 7.1150527 -0.80077052
0 0 -0
1.0732844 7.6741905 0
2.1551239 15.409553 0.86909574
0.8152594 5.8810573 -0.98983198
0.98577654 7.1111212 -0.80019343
0 0 -0
1.0636538 7.6729064 0
1.2998577 9.3768167 0.52876163
0.8088522 5.8871293 -0.99068874
0.97225529 7.0764384 -0.79615784
0 0 -0
1.0547358 7.6767621 0
1.287112 9.368084 0.52818108
0.79965943 5.8728361 -0.98812014
0.96265686 7.0699167 -0.79529274
0 0 -0
1.0430009 7.6599774 0
1.2736875 9.3541784 0.52730995
0.79507774 5.865694 -0.98683745
0.95386934 7.0371799 -0.79154515
0 0 -0
1.0390728 7.6657691 0
1.2659423 9.3395023 0.52643943
0.78901386 5.8742757 -0.98812014
0.94192308 7.0126977 -0.78866279
0 0 -0
1.0294633 7.6644421 0
1.2539641 9.3358698 0.52614886
0.78123868 5.8701401 -0.98726499
0.93003738 6.9881968 -0.78578043
0.90197581 6.7773457 -0.38189444
1.0195142 7.6605158 0
1.2389127 9.3090515 0.52455276
0.77481574 5.8761654 -0.98812014
0.91381574 6.9303346 -0.77914941
0.89480543 6.7861614 -0.38233
1.011958 7.6746407 0
1.2259656 9.2976637 0.5238272
0.7673828 5.8745542 -0.98769259
0.89941138 6.8852739 -0.77396071
0.88525873 6.7769313 -0.38174945
1.0026839 7.6758575 0
1.2137202 9.2914066 0.5233916
0.75962573 5.8703904 -0.98683745
0.88843584 6.8658352 -0.77165437
0.8767364 6.7754216 -0.38160443
0.99207252 7.6667395 0
1.2014918 9.2851324 0.52295607
0.75220591 5.8687601 -0.9864099
0.87652177 6.8386807 -0.76848292
0.86590624 6.755857 -0.38044333
0.98280799 7.6679325 0
1.1892803 9.2788429 0.52252048
0.74576008 5.874753 -0.98726499
0.86337304 6.8012538 -0.76415932
0.85446954 6.7311158 -0.37899166
0.97419822 7.674283 0
1.1777408 9.2776985 0.52237552
0.73930079 5.8807392 -0.98812014
0.85386395 6.792027 -0.76300615
0.8486048 6.7501931 -0.38000777
0.96427476 7.6702852 0
1.165557 9.2713776 0.52193993
0.73219454 5.881628 -0.98812014
0.84022492 6.7494226 -0.75810546
0.84397918 6.7795801 -0.38160443
0.95436364 7.6662846 0
1.1530708 9.262475 0.52135998
0.7235173 5.869772 -0.98598069
0.82669014 6.7067957 -0.75320476
0.83101821 6.7419086 -0.37942722
0.94605517 7.6751838 0
1.1415592 9.2612753 0.52121437
0.71642429 5.8706417 -0.98598069
0.81858569 6.7077894 -0.75320476
0.8247593 6.7583785 -0.38029778
0.93614942 7.6711497 0
1.1294246 9.2549171 0.52077937
0.70933026 5.8715034 -0.98598069
0.8079983 6.6882315 -0.75089842
0.81596982 6.7542157 -0.38000777
0.9250074 7.6567779 0
1.1182411 9.2562752 0.52077937
0.70314986 5.8800054 -0.98726499
0.79715258 6.6660914 -0.74830407
0.80749983 6.7526193 -0.37986276
0.91729981 7.6708078 0
1.1073641 9.2601967 0.52092439
0.69483763 5.8706536 -0.98555315
0.78788131 6.6567755 -0.7471509
0.79964519 6.7561679 -0.38000777
0.90925401 7.6822486 0
1.0955627 9.256362 0.52063382
0.68744522 5.8689413 -0.9851256
0.78013796 6.6602893 -0.74743891
0.79178309 6.7597075 -0.38015276
0.89875978 7.6730022 0
1.0834713 9.2499447 0.52019882
0.68035322 5.8697677 -0.9851256
0.77298337 6.6689372 -0.74830407
0.7836147 6.7606592 -0.38015276
0.88828921 7.6637416 0
1.0731905 9.2589827 0.52063382
0.67296809 5.8680377 -0.98469806
0.76846105 6.7007022 -0.75176358
0.77485365 6.756443 -0.37986276
0.88110441 7.6829109 0
1.0625948 9.2654409 0.52092439
0.66500872 5.8611922 -0.9834137
0.76357067 6.7298884 -0.75493395
0.76610279 6.7522058 -0.37957221
0.87211359 7.6865535 0
1.0519838 9.2718763 0.52121437
0.65878534 5.869647 -0.98469806
0.76438171 6.8104892 -0.76387131
0.7585237 6.758296 -0.37986276
0.86021304 7.6643276 0
1.0384612 9.2524834 0.52005327
0.6505596 5.8602333 -0.98298615
0.7649979 6.8910918 -0.77280754
0.74978316 6.7540374 -0.37957221
0.85152531 7.6705298 0
1.0267078 9.2485714 0.51976329
0.64375806 5.863564 -0.9834137
0.75977606 6.9202948 -0.77597904
0.74275595 6.7652702 -0.38015276
1.0311201 9.3917866 0
1.014681 9.242054 0.5193277
0.63556439 5.8541293 -0.98170185
0.75587928 6.9623399 -0.78059059
0.73486114 6.7687435 -0.38029778
1.0169628 9.3671579 0
1.0032328 9.2406921 0.51918274
0.62739438 5.8446836 -0.97999001
0.74912298 6.9786835 -0.78232092
0.72585064 6.7618828 -0.37986276
1.0075883 9.3864956 0
0.99262065 9.2470598 0.51947272
0.62222904 5.829751 -0.97742301
0.7451809 6.9817042 -0.78260893
0.72231632 6.7674828 -0.38015276
1.0041268 9.4078045 0
0.98731035 9.2502489 0.51961827
0.61518449 5.8304987 -0.97742301
0.73782992 6.9928885 -0.7837621
0.71468449 6.7735238 -0.38044333
0.99166632 9.3986588 0
0.9766773 9.2565985 0.51990831
0.60893708 5.8388901 -0.97870564
0.72937983 6.9937749 -0.7837621
0.70569062 6.7666268 -0.38000777
0.9786889 9.3843145 0
0.96549183 9.2577715 0.51990831
0.60082871 5.8294072 -0.9769938
0.72172451 7.0023718 -0.78462726
0.69911188 6.7829781 -0.38087833
0.96788323 9.3906727 0
0.95430493 9.2589321 0.51990831
0.59118402 5.8045955 -0.97271496
0.71483487 7.0186729 -0.78635645
0.69328576 6.8070908 -0.38218501
0.95521754 9.3788919 0
0.94443274 9.2730007 0.52063382
0.58468342 5.8104086 -0.97357005
0.70764822 7.0323963 -0.78779763
0.6816774 6.7743063 -0.38029778
0.94518685 9.3929844 0
0.93244773 9.266387 0.52019882
0.57791692 5.813673 -0.97399926
0.70273286 7.0692844 -0.79183429
0.6745196 6.7854676 -0.38087833
0.93383658 9.3941193 0
0.92176402 9.2726727 0.52048886
0.56988841 5.8041477 -0.97228742
0.69267356 7.0546789 -0.79010397
0.67495275 6.8741975 -0.38581279
0.92299306 9.4004164 0
0.90979713 9.2660198 0.52005327
0.56361741 5.81249 -0.97357005
0.80895793 8.3426456 -0.93424243
0.6653924 6.8620787 -0.38508722
0.74059087 7.6375875 0
0.89960349 9.2774572 0.52063382
0.54860288 5.8036122 -0.9718582
0.78465694 8.3008032 -0.92934173
0.64954138 6.8714299 -0.38552278
0.72115201 7.6289911 0
0.87840426 9.2925463 0.52135998
0.54158998 5.8042712 -0.9718582
0.77582866 8.3146296 -0.93078405
0.6431694 6.8929076 -0.38668391
0.71290046 7.6402221 0
0.86669207 9.2884216 0.52106941
0.53434104 5.8023677 -0.97143066
0.76506972 8.3078318 -0.92991889
0.63555527 6.9014444 -0.38711947
0.7019974 7.6229348 0
0.85546821 9.2894621 0.52106941
0.52732962 5.803009 -0.97143066
0.75549847 8.3138971 -0.9304949
0.85577548 9.4173975 -0.52818722
0.69372821 7.6341448 0
0.84541863 9.3034248 0.52179497
0.51940054 5.7934146 -0.96971875
0.74591458 8.3199606 -0.93107206
0.84300405 9.4029007 -0.52731669
0 0 0
0.83417666 9.3044395 0.52179497
0.51353043 5.8068209 -0.9718582
0.73494959 8.3105507 -0.92991889
0.83164185 9.4039125 -0.52731669
0.6706931 7.583961 0
0.82339168 9.3106232 0.52208549
0.50584513 5.7997723 -0.97057551
0.72603083 8.3243132 -0.93136007
0 0 -0
0.8254618 9.4643402 0
0.8123666 9.3141966 0.52223051
0.49971673 5.8106098 -0.97228742
0.71530694 8.3174515 -0.9304949
0 0 -0
0.81224149 9.4445877 0
0.80133402 9.3177586 0.52237552
0.49161124 5.7984223 -0.97014797
0.70591211 8.3260441 -0.93136007
0 0 -0
0.80522615 9.497426 0
0.78985548 9.3161325 0.52223051
0.48481819 5.801568 -0.97057551
0.69563603 8.3243151 -0.93107206
0 0 -0
0.79266638 9.4854269 0
0.7790305 9.3222542 0.52252048
0.477386 5.7970276 -0.96971875
0.68536514 8.3225746 -0.93078405
0 0 -0
0.7801367 9.4734125 0
0.76861888 9.3335476 0.52310109
0.47017369 5.7950444 -0.96929121
0.67488968 8.3182354 -0.93020689
0.76302397 9.40452 -0.52702665
0.76763648 9.4613705 0
0.75734055 9.3344698 0.52310109
0.46564245 5.7825356 -0.96715176
0.67027968 8.3238029 -0.93078405
0.75713289 9.4023819 -0.5268811
0.76192021 9.461832 0
0.75232685 9.3426981 0.52353662
0.45906058 5.7882075 -0.96800691
0.66103947 8.3349209 -0.93193722
0.74556619 9.4007015 -0.52673608
0.75213295 9.4835014 0
0.74103749 9.3436003 0.52353662
0.45126688 5.7785206 -0.966295
0.65116906 8.3382893 -0.93222523
0.73440886 9.4041834 -0.5268811
0.74128151 9.4921894 0
0.72994918 9.3470774 0.52368164
0.44507143 5.7893 -0.96800691
0.63990343 8.3235922 -0.9304949
0.72264719 9.399888 -0.52659112
0.7314074 9.5138369 0
0.71905321 9.3531389 0.52397221
0.43710765 5.7770371 -0.96586746
0.63082182 8.3372622 -0.93193722
0.71050459 9.3903894 -0.52601057
0.71991128 9.5147133 0
0.708143 9.3591776 0.52426219
0.43127078 5.7929258 -0.96843612
0.620363 8.3328543 -0.93136007
0.69973654 9.3990183 -0.5264461
0.70725513 9.5000095 0
0.69721991 9.3652143 0.52455276
0.42258289 5.7703934 -0.96458316
0.61067212 8.3387623 -0.93193722
0.68724006 9.3843021 -0.52557498
0.69558513 9.4982538 0
0.68552345 9.3608618 0.52426219
0.41634777 5.7811413 -0.966295
0.60040957 8.3369064 -0.93164808
0.67515385 9.3747587 -0.52499443
0.68392104 9.4964943 0
0.67533249 9.3772392 0.52513331
0.40972504 5.7867665 -0.96715176
0.5910663 8.3479462 -0.93280125
0.66419321 9.3807573 -0.52528501
0.67336476 9.5102911 0
0.663634 9.372859 0.52484274
0.40237582 5.7821307 -0.966295
0.58133847 8.3538198 -0.9333784
0.65249681 9.3763628 -0.52499443
0.66313779 9.529274 0
0.65230829 9.3736544 0.52484274
0.39521399 5.7800541 -0.96586746
0.57071459 8.3467722 -0.93251324
0.64081264 9.3719654 -0.52470446
0.65126765 9.5248709 0
0.64186764 9.3873949 0.52556831
0.38719785 5.7651644 -0.96330047
0.55958915 8.3319769 -0.93078405
0.62913942 9.3675423 -0.52441388
0.63906062 9.5152636 0
0.6300025 9.380393 0.52513331
0.38006273 5.7630692 -0.96287292
0.55003124 8.3403816 -0.93164808
0.61799157 9.3708963 -0.52455944
0.62790567 9.5212278 0
0.61986411 9.3992901 0.52614886
0.37392789 5.7763305 -0.96501237
0.53978622 8.3384619 -0.93136007
0.60700363 9.3768167 -0.52484941
0.61690521 9.5297737 0
0.60884249 9.4052229 0.52643943
0.36694807 5.7767777 -0.96501237
0.53020251 8.3468542 -0.93222523
0.50771487 7.992837 -0.44734913
0.60407001 9.5097342 0
0.59731311 9.4033613 0.52629441
0.35932913 5.7669687 -0.96330047
0.5194732 8.337163 -0.93107206
0.50031871 8.029748 -0.44938082
0.5907985 9.4818821 0
0.58643484 9.411849 0.5267294
0.35298678 5.777648 -0.96501237
0.51018745 8.3506908 -0.93251324
0.49473554 8.0977755 -0.45315415
0.57934105 9.4825888 0
0.57537925 9.4177427 0.52701998
0.3450844 5.7626901 -0.96244371
0.49947846 8.3409729 -0.93136007
0.48883352 8.1632099 -0.45678252
0.5672605 9.4728909 0
0.56399935 9.4184313 0.52701998
0.33857223 5.7707934 -0.96372807
0.48939967 8.3415709 -0.93136007
0.48247004 8.2234583 -0.46012086
0 0 0
0.55292267 9.4242887 0.52730995
0.33174625 5.7737589 -0.96415561
0.47961718 8.3473253 -0.93193722
0.47625887 8.2888775 -0.46374863
0 0 0
0.54183328 9.4301434 0.52760053
0.32390487 5.7587824 -0.96158862
0.46982092 8.3530588 -0.93251324
0.46653518 8.2946405 -0.46403921
0 0 0
0.53000051 9.4230051 0.527165
0.31765145 5.7719827 -0.96372807
0.45986953 8.3562002 -0.93280125
0.45551273 8.2770338 -0.4630231
0 0 0
0.51904273 9.4314251 0.52760053
0.30998722 5.7595482 -0.96158862
0.44977236 8.3567495 -0.93280125
0.44565129 8.2801809 -0.46316865
0.51057929 9.4865398 0
0.50750625 9.4294434 0.52745497
0.30664378 5.7622952 -0.96201617
0.44513601 8.3647709 -0.93366641
0.44023433 8.2726612 -0.46273309
0.50415653 9.473855 0
0.5026381 9.445322 0.52832609
0.29848123 5.7395916 -0.95816487
0.43529689 8.3704643 -0.93424243
0.42956352 8.2602148 -0.46200752
0.49257383 9.4718609 0
0.49081993 9.4381351 0.5278905
0.29167593 5.7425094 -0.95859241
0.42596996 8.386488 -0.93597275
0.41918677 8.2529402 -0.46157196
0.48165664 9.4828453 0
0.48007438 9.4516945 0.52861607
0.28473702 5.7428575 -0.95859241
0.41519594 8.3740826 -0.93453157
0.4089568 8.2482452 -0.46128142
0.47097114 9.499012 0
0.46852496 9.4496746 0.52847111
0.27804598 5.7483306 -0.95944917
0.40470219 8.3668251 -0.93366641
0.39911601 8.2513361 -0.46142697
0.4594931 9.4995737 0
0.45773411 9.4632082 0.52919662
0.27110004 5.7486625 -0.95944917
0.39434829 8.3621359 -0.93308926
0.38865599 8.2414303 -0.46084642
0.44752401 9.4897232 0
0.44605476 9.4585686 0.52890664
0.26415369 5.7489858 -0.95944917
0.38448167 8.3677788 -0.93366641
0.37690842 8.2029552 -0.45866919
0.43713215 9.5136528 0
0.43522182 9.4720764 0.52963221
0.2568627 5.7416048 -0.95816487
0.37483296 8.3785725 -0.93481958
0.36304826 8.1151514 -0.45373473
0.42598552 9.5219765 0
0.42412487 9.4803858 0.53006774
0.2507064 5.7598658 -0.96116108
0.36515871 8.3893557 -0.93597275
0.34431618 7.9105082 -0.44226912
0.41527206 9.5406866 0
0.413008 9.4886713 0.53050274
0.24396341 5.7652893 -0.96201617
0.35534969 8.3975458 -0.93683791
0.32531053 7.6876664 -0.42978796
0.40396354 9.5463772 0
0.40154251 9.4891634 0.53050274
0.23646994 5.7527575 -0.95987678
0.34541491 8.4031324 -0.93741393
0.31452736 7.651711 -0.42775628
0.39168 9.5286531 0
0.39029005 9.4948397 0.53079331
0.23003025 5.765862 -0.96201617
0.33577654 8.4164629 -0.93885511
0.30693886 7.6936278 -0.43007851
0.38078886 9.5447273 0
0.37912795 9.5030956 0.5312289
0.2225671 5.7533126 -0.95987678
0.32550675 8.4142809 -0.9385671
0.3004545 7.7666855 -0.43414187
0.36905426 9.5399742 0
0.36744398 9.4983492 0.53093833
0.21551915 5.7510142 -0.95944917
0.31563017 8.4224243 -0.93943226
0.29155621 7.7800231 -0.43486741
0.35781926 9.5482178 0
0.35655084 9.5143709 0.53180945
0.20857 5.7512703 -0.95944917
0.30582803 8.4331388 -0.94058543
0.28206128 7.7777758 -0.43472242
0.34779093 9.5902557 0
0.34533656 9.5225773 0.53224444
0.20189011 5.7592072 -0.96073186
0.29545662 8.4283276 -0.94000828
0.27175298 7.7521472 -0.43327132
0.3370232 9.6140747 0
0.33419427 9.5333748 0.53282499
0.19484434 5.7568841 -0.96030432
0.28544757 8.4338531 -0.94058543
0.26168269 7.7316942 -0.43211019
0.32514206 9.6066694 0
0.32241139 9.5259886 0.53239
0.18822306 5.7673779 -0.96201617
0.27550957 8.4419403 -0.94144946
0.2512385 7.6982455 -0.43022352
0.31480744 9.6460743 0
0.31123954 9.5367489 0.53297001
0.1814156 5.772738 -0.96287292
0.26498395 8.4319258 -0.94029629
0.24128352 7.6777658 -0.4290624
0.3038058 9.6672573 0
0.29955295 9.531929 0.53267998
0.17420757 5.7652526 -0.96158862
0.25534233 8.4503393 -0.94231462
0.23130001 7.6546793 -0.42775628
0.29204607 9.665019 0
0.2887415 9.5556574 0.53398609
0.16709225 5.7603221 -0.96073186
0.21161012 7.2950273 -0.81345427
0.22159846 7.6393638 -0.42688516
0.23984757 8.2684822 0
0.27734599 9.5611982 0.53427666
0.16048877 5.7733574 -0.96287292
0.20408918 7.3418212 -0.81864411
0.21222335 7.6344361 -0.42659518
0.23108587 8.3129883 0
0.26579294 9.5615263 0.53427666
0.15693077 5.7708797 -0.96244371
0.19944257 7.3341842 -0.81777894
0.20605712 7.5774231 -0.42340237
0.22549754 8.2923145 0
0.26029882 9.5720758 0.53485721
0.15115806 5.8172617 -0.97014797
0.19078211 7.3421788 -0.81864411
0.19474123 7.4945445 -0.41875792
0.21601856 8.3133936 0
0.24893492 9.5801687 0.53529221
0.14457381 5.8353968 -0.9731425
0.18171814 7.3346448 -0.81777894
0.18175989 7.3363299 -0.40990511
0.20590864 8.3110399 0
0.23716609 9.5726767 0.53485721
0.13788576 5.8509703 -0.97571111
0.17279465 7.3322754 -0.81749094
0.17130367 7.2690082 -0.40613174
0.19500795 8.2748623 0
0.22615013 9.5963335 0.53616333
0.1316191 5.8870578 -0.98170185
0.16410817 7.340229 -0.81835496
0.16176538 7.2354407 -0.40424508
0.18419497 8.2386713 0
0.21467072 9.6017904 0.53645337
0.12461409 5.8923407 -0.98255694
0.15523882 7.3404222 -0.81835496
0.1526929 7.2200389 -0.40337396
0.17291938 8.1764421 0
0.20328844 9.6124344 0.53703392
0.11075886 5.9131575 -0.98598069
0.13754803 7.343369 -0.81864411
0.13436861 7.1736279 -0.40076172
0.1519412 8.1117868 0
0.18035044 9.6284904 0.53790504
0.1040637 5.9389586 -0.9902612
0.12881072 7.3512807 -0.81950814
0.12510882 7.1400127 -0.39887506
0.14122769 8.0599232 0
0.16994517 9.6988411 0.54182339
0.097306199 5.9647427 -0.99454004
0.12001249 7.3566084 -0.82008529
0.11626954 7.1271706 -0.39814952
0.13204056 8.0939131 0
0.15881918 9.7354078 0.54385501
0.090098903 5.9648557 -0.99454004
0.1109281 7.3438196 -0.81864411
0.10746133 7.1143079 -0.39742339
0.1218283 8.0654497 0
0.14705573 9.7355928 0.54385501
0.082820207 5.9598317 -0.99368495
0.10155123 7.3077359 -0.81460744
0.098648436 7.0988483 -0.39655283
0.11197416 8.0577822 0
0.13536434 9.7409639 0.54414558
0.075586192 5.9573531 -0.99325573
0.092196152 7.2664728 -0.80999482
0.090235591 7.1119509 -0.3972784
0.10316232 8.1307755 0
0.123693 9.748908 0.54458058
0.068476267 5.9651432 -0.99454004
0.083386309 7.2639952 -0.80970675
0.081642129 7.1120548 -0.3972784
0.093726113 8.1647224 0
0.11179395 9.738657 0.54400003
0.061083928 5.9472504 -0.99154389
0.075113878 7.3132339 -0.81518459
0.073128626 7.1199455 -0.39771396
0.083967492 8.1752386 0
0.10016011 9.7517843 0.54472613
0.054014176 5.9601622 -0.99368495
0.06707409 7.4012508 -0.82498598
0.064972848 7.1693897 -0.40047118
0.07449016 8.2195721 0
0.088329777 9.7466965 0.54443562
0.046691436 5.9448161 -0.99111629
0.058659203 7.4685683 -0.83248103
0.058289465 7.4214926 -0.41454902
0.064292662 8.1858273 0
0.076532342 9.7442007 0.5442906
0.03949121 5.9423037 -0.99068874
0.049669199 7.4738016 -0.83305705
0.050237205 7.5592699 -0.42224127
0.05452266 8.2041092 0
0.064913727 9.7676687 0.54559672
0.032338958 5.9474764 -0.99154389
0.040540129 7.4557586 -0.83103985
0.041456468 7.6242828 -0.42586961
0.044524681 8.1885586 0
0.053153757 9.7755375 0.54603225
0.025152573 5.9475112 -0.99154389
0.030864043 7.2980304 -0.81345427
0.032309897 7.6399131 -0.42674017
0.034630373 8.1886072 0
0.041297935 9.7652016 0.5454517
0.017919637 5.9321399 -0.9889769
0.021342641 7.0652947 -0.78750962
0.023062848 7.6347547 -0.42645016
0.02462597 8.1522131 0
0.029584888 9.7938194 0.54704785
0.0107797 5.9475546 -0.99154389
0.012711839 7.013586 -0.78174376
0.013823588 7.6269789 -0.4260146
0.014704838 8.1131964 0
0.017717997 9.7756662 0.54603225
0.0035916858 5.9449987 -0.99111629
0.0042216582 6.9877362 -0.7788614
0.0046015857 7.6165962 -0.42543405
0.0048827478 8.0819788 0
0.0059169861 9.7938623 0.54704785
-0.0035947906 5.9501376 -0.99197304
-0.0042154081 6.9773903 -0.77770823
-0.0045921695 7.6010108 -0.4245635
-0.0048748874 8.0689688 0
-0.0059216972 9.8016596 0.54748338
-0.0071926787 5.9526987 -0.99240065
-0.0084339362 6.9799705 -0.77799624
-0.0091089839 7.5386438 -0.42108014
-0.0097434903 8.0637646 0
-0.011852815 9.8094521 0.54791892
-0.014360532 5.9424176 -0.99068874
-0.016849102 6.9721932 -0.77713114
-0.018067248 7.4762645 -0.41759679
-0.01949325 8.0663462 0
-0.023680495 9.799037 0.54733837
-0.021577993 5.9526644 -0.99240065
-0.02525489 6.967 -0.77655506
-0.026968991 7.4398642 -0.41556513
-0.029202104 8.0559072 0
-0.035577197 9.8145866 0.54820895
-0.028720981 5.9423656 -0.99068874
-0.033623125 6.9566183 -0.77540189
-0.035669778 7.3800702 -0.41222733
-0.038898323 8.0480556 0
-0.047398541 9.8067493 0.54777396
-0.035978679 5.9551592 -0.99282819
-0.0420601 6.9617505 -0.77597904
-0.044414423 7.3514366 -0.41063067
-0.056766905 9.3960085 0
-0.059326522 9.8196745 0.54849952
-0.04319289 5.9576759 -0.99325573
-0.050453179 6.9591007 -0.7756899
-0.053108819 7.3253989 -0.40917954
-0.068120107 9.3959332 0
-0.071248099 9.827383 0.54893452
-0.050369855 5.9550548 -0.99282819
-0.059036866 6.9797258 -0.77799624
-0.062004007 7.3305211 -0.40946954
-0.079473205 9.3958435 0
-0.083122514 9.8272896 0.54893452
-0.057590127 5.9575543 -0.99325573
-0.067495435 6.9822335 -0.77828431
-0.070735902 7.3174515 -0.40874398
-0.090901583 9.4035406 0
-0.095248036 9.8531704 0.55038619
-0.06473285 5.9523511 -0.99240065
-0.07598836 6.9873242 -0.7788614
-0.080114357 7.3667207 -0.41150123
-0.10237706 9.4138336 0
-0.1070688 9.8452511 0.5499506
-0.071614824 5.9265947 -0.98812014
-0.084368557 6.9820499 -0.77828431
-0.089612104 7.415988 -0.41425902
-0.11375176 9.413703 0
-0.11909037 9.8555069 0.55053115
-0.07904885 5.9470387 -0.99154389
-0.092804939 6.9819427 -0.77828431
-0.099021748 7.4496489 -0.41614568
-0.12526466 9.4239674 0
-0.13075696 9.8371658 0.54951507
-0.085974194 5.9289789 -0.98854935
-0.12314123 8.4921036 -0.9466393
-0.10851286 7.4832973 -0.41803235
-0.13684022 9.4368181 0
-0.14313304 9.8707848 0.55140227
-0.092936568 5.9160395 -0.9864099
-0.13323967 8.4816036 -0.94548613
-0.11796296 7.5091372 -0.41948348
-0.1486107 9.4600725 0
-0.1551414 9.8757954 0.55169231
-0.099997953 5.9107842 -0.98555315
-0.14392537 8.5072927 -0.94836849
-0.12686038 7.4985971 -0.4189029
-0.1601292 9.465086 0
-0.16689844 9.8652086 0.55111176
-0.10760506 5.9363208 -0.98983198
-0.15420467 8.5071125 -0.94836849
-0.13253035 7.3113904 -0.40845343
-0.17147155 9.4596863 0
-0.17895982 9.8727961 0.55154729
-0.1144802 5.9207916 -0.98726499
-0.16408373 8.4862318 -0.94606215
-0.13719568 7.0956116 -0.39640784
-0.18264991 9.446454 0
-0.19134107 9.8959522 0.55285341
-0.12126511 5.9026809 -0.98426884
-0.17449699 8.4937878 -0.94692731
-0.14454165 7.0356865 -0.39306948
-0.1944382 9.4644432 0
-0.20303145 9.8827267 0.55212784
-0.12839726 5.9025302 -0.98426884
-0.18487234 8.4987373 -0.94750333
-0.15264738 7.0173292 -0.39205393
-0.20570414 9.4563932 0
-0.2151987 9.8928652 0.55270839
-0.13605952 5.9254656 -0.98812014
-0.19526014 8.503685 -0.94808048
-0.16118594 7.0197349 -0.39219892
-0.2171901 9.4587469 0
-0.22709231 9.8899927 0.55256283
-0.14284712 5.909904 -0.98555315
-0.20590991 8.5189514 -0.94980967
-0.16998167 7.0325208 -0.39292449
-0.22975083 9.5053034 0
-0.23941912 9.905303 0.55343395
-0.14992292 5.9071631 -0.9851256
-0.21613768 8.5161133 -0.94952166
-0.17841312 7.0297151 -0.3927795
-0.24262252 9.5596514 0
-0.25105798 9.8920202 0.55270839
-0.15746972 5.92237 -0.98769259
-0.22670257 8.5261889 -0.95067483
-0.18704502 7.0346847 -0.39306948
-0.25431153 9.5645494 0
-0.29802489 11.208591 0.62629038
-0.16426903 5.9093475 -0.98555315
-0.23714824 8.5310745 -0.95125085
-0.19597828 7.0500431 -0.3939406
-0.26514521 9.5382252 0
-0.3116402 11.210817 0.62643534
-0.17148358 5.9117084 -0.98598069
-0.24790633 8.546299 -0.95298117
-0 0 -0
-0.2744818 9.4624596 0
-0.32511079 11.207838 0.62629038
-0.17482738 5.903913 -0.98469806
-0.25314602 8.5487309 -0.95326918
-0 0 -0
-0.28235543 9.5351305 0
-0.33165115 11.199845 0.62585479
-0.182119 5.9088244 -0.98555315
-0.26363453 8.5535841 -0.9538452
-0 0 -0
-0.29403675 9.5399799 0
-0.34558392 11.21242 0.62658036
-0.18892978 5.8983369 -0.9838413
-0.27421817 8.561017 -0.95471036
-0 0 -0
-0.30523047 9.529213 0
-0.35946444 11.222383 0.62716091
-0.19622737 5.9032407 -0.98469806
-0.284906 8.5710201 -0.95586354
-0 0 -0
-0.31501523 9.4768162 0
-0.37362862 11.240122 0.62817705
-0.20397857 5.9209504 -0.98769259
-0.29544047 8.5758438 -0.95644069
-0 0 -0
-0.32539096 9.4452267 0
-0.38729921 11.242256 0.62832201
-0.21049261 5.9027491 -0.98469806
-0.30617118 8.5858202 -0.95759386
-0 0 -0
-0.33661777 9.43962 0
-0.40143842 11.257356 0.62919259
-0.21762477 5.9024906 -0.98469806
-0.31606847 8.5725126 -0.95615155
-0 0 -0
-0.34821543 9.4444132 0
-0.41484913 11.251675 0.62890261
-0.22475661 5.9022231 -0.98469806
-0.32652515 8.5747166 -0.95644069
-0 0 -0
-0.36002302 9.4543877 0
-0.4284443 11.251165 0.62890261
-0.23188815 5.901947 -0.98469806
-0.33698723 8.5768976 -0.9567287
-0 0 -0
-0.3719573 9.4669456 0
-0.7970314 20.285803 1.1339618
-0.23984997 5.9221725 -0.98812014
-0.34714097 8.571311 -0.95615155
-0 0 -0
-0.38265869 9.4482841 0
-0.82112163 20.274441 1.1333812
-0.24572222 5.8911104 -0.98298615
-0.35792863 8.5812216 -0.95730472
-0 0 -0
-0.39494246 9.4686165 0
-0.84377795 20.229301 1.130914
-0.25350058 5.9061923 -0.98555315
-0.36807549 8.5756197 -0.9567287
-0 0 -0
-0.40616018 9.4629374 0
-0.92181361 21.476908 1.2007226
-0.25973144 5.885365 -0.9821294
-0.37912115 8.5906677 -0.95845789
-0.31358284 7.1056075 -0.3972784
-0.74068838 16.783573 0
-0.94753426 21.470583 1.2004319
-0.26695871 5.887609 -0.98255694
-0.38985261 8.5979576 -0.95932305
-0.32240397 7.1104198 -0.39756894
-0.75978845 16.756664 0
-0.97359461 21.472025 1.2005776
-0.27431154 5.8924155 -0.9834137
-0.40084255 8.6103964 -0.96076423
-0.33027005 7.0944462 -0.39669782
-0.77797776 16.71154 0
-1.0003841 21.488995 1.2015932
-0.28192106 5.9023366 -0.9851256
-0.41136953 8.6124868 -0.96105224
-0.34268531 7.1745048 -0.40119728
-0 0 0
-1.0263487 21.48777 1.2015932
-0.28930357 5.9071145 -0.98598069
-0.42215544 8.6197357 -0.9619174
-0.35440415 7.2363634 -0.40468007
-0 0 0
-1.053583 21.512472 1.2030448
-0.29592627 5.8965054 -0.98426884
-0.43269989 8.6218004 -0.96220541
-0.36431968 7.259284 -0.40598619
-0 0 0
-1.0800964 21.521555 1.2036248
-0.30107468 5.8576956 -0.97785056
-0.4429847 8.6186905 -0.9619174
-0.81548774 15.866093 -0.88738918
-0.85246068 16.585438 0
-1.1066337 21.530615 1.2042054
-0.31004024 5.8932118 -0.9838413
-0.45394194 8.6284809 -0.96307057
-0.83493102 15.87028 -0.88767916
-0.8705864 16.548016 0
-1.1326483 21.529261 1.2042054
-0.31688511 5.887711 -0.98298615
-0.4645063 8.6305056 -0.96335858
-0.8534084 15.856289 -0.88695359
-0.88904214 16.518362 0
-1.1590805 21.535664 1.2046409
-0.32442182 5.8950062 -0.98426884
-0.47479227 8.6273584 -0.96307057
-0.87185323 15.842277 -0.88622802
-0.90742803 16.488699 0
-1.186101 21.552412 1.205657
-0.33793065 5.8813934 -0.9821294
-0.49682677 8.6468439 -0.96537691
-0.91192389 15.871253 -0.88796973
-0.94652522 16.473459 0
-1.2395226 21.572828 1.2069632
-0.34222773 5.8939991 -0.98426884
-0.50190091 8.6439619 -0.9650889
-0.92196441 15.878484 -0.88840526
-0.95662886 16.475491 0
-0.61982495 10.674903 0.59726357
-0.34919748 5.8910213 -0.9838413
-0.51265085 8.6485081 -0.96566492
-0.94161057 15.885133 -0.88884026
-0.97776753 16.495106 0
-0.63395309 10.694898 0.59842467
-0.3564702 5.8931551 -0.98426884
-0.52325654 8.6504622 -0.96595293
-0.88173538 14.576824 -0.81569386
-0.99879742 16.512089 0
-0.64546347 10.670783 0.59711856
-0.36280036 5.8799114 -0.9821294
-0.53339028 8.6446648 -0.96537691
-0.89966834 14.580939 -0.81598443
-1.0182674 16.503075 0
-0.65755653 10.65703 0.59639299
-0.37006587 5.8820286 -0.98255694
-0.54513454 8.6646652 -0.96768326
-0.91549098 14.551313 -0.81438774
-1.0386977 16.509628 0
-0.66831213 10.622517 0.59450632
-0.37733763 5.8841462 -0.98298615
-0.55610043 8.6717463 -0.96854842
-0.93257374 14.542415 -0.81395221
-1.0586456 16.50836 0
-0.68081397 10.61651 0.59421581
-0.38411212 5.8785577 -0.9821294
-0.5674212 8.6839705 -0.9699896
-0.95268625 14.580173 -0.81612945
-1.0780828 16.499275 0
-0.69414991 10.623462 0.59465134
-0.3915562 5.8832169 -0.98298615
-0.57825685 8.6884356 -0.97056562
-0.97358096 14.628265 -0.8188867
-1.0994008 16.518736 0
-0.70698577 10.622615 0.59465134
-0.39744949 5.864809 -0.97999001
-0.58927953 8.6954746 -0.97143078
-0.99195838 14.637448 -0.81946725
-1.121647 16.551147 0
-0.72052336 10.632123 0.59523189
-0.40471217 5.8668828 -0.98041755
-0.60049784 8.7050772 -0.97258395
-1.0103594 14.646608 -0.8200478
-1.1425409 16.562769 0
-0.73336965 10.631245 0.59523189
-0.41180086 5.8663898 -0.98041755
-0.61065322 8.6991806 -0.9720068
-1.0284206 14.650566 -0.82033837
-1.1625531 16.561377 0
-0.74712449 10.643309 0.59595746
-0.41834089 5.8582134 -0.97913486
-0.62208575 8.7113428 -0.97344911
-1.0446414 14.628578 -0.81917721
-1.1829338 16.565147 0
-0.75998431 10.642398 0.59595746
-0.42634866 5.8705029 -0.98127431
-0.63279843 8.7131624 -0.97373712
-1.0619396 14.622117 -0.8188867
-1.2012522 16.540346 0
-0.77416074 10.659616 0.5969736
-0.33223236 4.4993324 -0.99944979
-0.43306327 5.8648582 -0.98041755
-0.64484984 8.7330265 -0.97604346
-1.0782679 14.602691 -0.81787109
-1.220662 16.531094 0
-0.78799677 10.671627 0.59769911
-0.44053411 5.8694553 -0.98127431
-0.65598172 8.7399712 -0.97690749
-1.0949388 14.588413 -0.81714499
-1.2400519 16.52183 0
-0.8016687 10.681031 0.59827971
-0.34291071 4.4959755 -0.99888527
-0.44645414 5.8535562 -0.97870564
-0.66791892 8.7572279 -0.97892582
-1.1115773 14.574128 -0.81641942
-1.2604098 16.525503 0
-0.81437665 10.677466 0.5981347
-0.45293233 5.8453417 -0.97742301
-0.68029797 8.7796211 -0.98152018
-1.1279824 14.557235 -0.8155489
-1.2793717 16.510998 0
-0.82828122 10.689425 0.59886026
-0.35397464 4.497674 -0.99944979
-0.45979294 5.8422236 -0.9769938
-0.6911087 8.7813683 -0.98180819
-1.1453675 14.553273 -0.81540388
-1.1274023 14.325005 0
-0.84119666 10.688417 0.59886026
-0.35940894 4.4972434 -0.99944979
-0.46766981 5.8518991 -0.97870564
-0.70110118 8.7727995 -0.98094416
-1.1615022 14.533745 -0.81438774
-1.1442953 14.318439 0
-0.85411096 10.687393 0.59886026
-0.36484271 4.4968057 -0.99944979
-0.47515595 5.856452 -0.9795624
-0.71190983 8.7745218 -0.98123217
-1.1771716 14.509024 -0.81308168
-1.160123 14.298895 0
-0.86765456 10.694125 0.59929579
-0.48075697 5.8379622 -0.97656626
-0.72272372 8.7762299 -0.98152018
-1.1934221 14.492048 -0.81221056
-0 0 0
-0.88142872 10.703428 0.59987634
-0.37443867 4.4807134 -0.9960714
-0.4884522 5.8450541 -0.97785056
-0.73397392 8.7830858 -0.98238534
-1.211149 14.493193 -0.81235611
-1.1953239 14.303823 0
-0.89414406 10.699759 0.59973079
-0.38006693 4.4827871 -0.99663377
-0.49659857 5.8572469 -0.97999001
-0.74480432 8.7847672 -0.98267335
-1.226684 14.468409 -0.8110494
-1.2130466 14.307559 0
-0.90795004 10.709026 0.60031134
-0.38191038 4.4724302 -0.9943822
-0.4988271 5.8416038 -0.97742301
-0.75011152 8.7843151 -0.98267335
-0.7802394 9.1371326 -0.51222271
-1.2205834 14.29386 0
-0.91464061 10.711062 0.60045636
-0.38797212 4.4795618 -0.9960714
-0.50499916 5.8307672 -0.97571111
-0.76072514 8.7834024 -0.98267335
-0.78836471 9.1025324 -0.51033604
-1.2374043 14.287185 0
-0.92803103 10.715133 0.60074693
-0.39405164 4.4866858 -0.99776059
-0.51181889 5.8275881 -0.97528195
-0.77111149 8.7799034 -0.98238534
-0.7979992 9.0860472 -0.50946552
-1.4639053 16.668077 0
-0.94097751 10.714004 0.60074693
-0.39992291 4.4912634 -0.99888527
