# .PCD v0.7 - Point Cloud Data file format
VERSION 0.7
FIELDS x y z
SIZE 4 4 4
TYPE F F F
COUNT 1 1 1
WIDTH 1602
HEIGHT 1
VIEWPOINT 0 0 0 1 0 0 0
POINTS 1602
DATA ascii
-3.3169839 6.7091393 -0.83421022
-3.5437403 7.1677909 -0.44662359
-3.3258245 6.7270207 0
-4.7055993 9.5178404 0.59305465
-1.2650752 2.5510569 -0.93891209
-1.4529132 2.929837 -0.90226775
-1.7154061 3.4591608 -0.85535777
-2.383477 4.8063431 -0.89440143
-3.3227923 6.7004967 -0.8336342
-3.6043422 7.268249 -0.45315415
-3.3200758 6.6950188 0
-4.7182541 9.5144815 0.59320021
-1.2868685 2.5871446 -0.9527657
-1.4720966 2.9595308 -0.91195935
-1.7229804 3.4639127 -0.85704696
-2.3858519 4.7965622 -0.89311713
-3.3239725 6.6825771 -0.83190387
-3.6131217 7.2638888 -0.45315415
-3.3490233 6.7329402 0
-0 0 0
-1.2741052 2.5576091 -0.94217193
-1.4593428 2.9294508 -0.90296191
-1.7216728 3.4560459 -0.85535777
-2.3864579 4.7905197 -0.89226037
-3.3291657 6.6828899 -0.83219302
-3.6383629 7.303565 -0.45576638
-3.3507719 6.7262616 0
-0 0 0
-1.2860327 2.5737553 -0.94869167
-1.474093 2.9501231 -0.90988225
-1.7247128 3.4516923 -0.85479546
-2.3922446 4.7876329 -0.89226037
-3.3291445 6.6626639 -0.83017468
-3.6413791 7.2875433 -0.45504084
-3.3716893 6.7478094 0
-0 0 0
-1.2946776 2.5832455 -0.9527657
-1.4843988 2.9617925 -0.91403389
-1.7288823 3.4496057 -0.85479546
-2.3899796 4.7686806 -0.88926584
-3.3383503 6.6609464 -0.83046269
-3.6490188 7.2808175 -0.45489582
-3.3821747 6.7483883 0
-0 0 0
-1.2744871 2.5353074 -0.93565226
-1.4744551 2.933099 -0.90572792
-1.7307646 3.4429696 -0.85366857
-2.4026556 4.7795463 -0.89183283
-3.3394284 6.6430469 -0.8287335
-3.6601501 7.2810507 -0.4551864
-3.3996775 6.7628989 0
-0 0 0
-1.2786614 2.5359704 -0.9364664
-1.4994595 2.9738798 -0.91887969
-1.7337806 3.4386091 -0.85310626
-2.4118972 4.7835183 -0.89311713
-3.3509474 6.6459379 -0.82959867
-3.6701138 7.2789407 -0.45533139
-3.4090171 6.7611074 0
-0 0 0
-1.2984571 2.5675097 -0.94869167
-1.4849366 2.9362457 -0.90780509
-1.742521 3.4455814 -0.85535777
-2.4130414 4.7714376 -0.89140528
-3.3601415 6.6441898 -0.82988667
-3.6812494 7.2791338 -0.45562139
-3.4148328 6.7523341 0
-0 0 0
-1.284786 2.5328729 -0.9364664
-1.4873496 2.932214 -0.90711355
-1.7363392 3.4230812 -0.85029233
-2.419965 4.7708054 -0.89183283
-3.362318 6.6285934 -0.82844549
-3.6923952 7.2793198 -0.45591196
-3.4324076 6.7667708 0
-0 0 0
-1.2923286 2.5401304 -0.93972629
-1.4943054 2.937125 -0.90919071
-1.7508426 3.4413602 -0.85535777
-2.4199088 4.7564402 -0.88969338
-3.3726683 6.6291323 -0.82902151
-3.7141459 7.3003216 -0.45750806
-3.4559219 6.7927709 0
-0 0 0
-1.3066289 2.5605781 -0.94787437
-1.4989924 2.9375496 -0.90988225
-1.7492261 3.4279282 -0.85254389
-2.4233229 4.7489443 -0.88883829
-3.3712709 6.6066213 -0.82671517
-3.7064314 7.2634296 -0.4554764
-3.4534819 6.7677288 0
-0 0 0
-1.3007133 2.5413959 -0.94135463
-1.5048246 2.9401984 -0.91126519
-1.7533668 3.425812 -0.85254389
-2.4325647 4.7528615 -0.89012098
-3.3757148 6.5956335 -0.82585001
-3.7045515 7.2381301 -0.45417029
-3.4711425 6.7820849 0
-0 0 0
-1.2970129 2.5266337 -0.9364664
-1.4980659 2.9182932 -0.90503645
-1.7505404 3.4101238 -0.8491655
-2.4465132 4.7659073 -0.89311713
-3.3730524 6.5708427 -0.82325566
-3.7156656 7.2382674 -0.45446026
-3.4757683 6.7709374 0
-0 0 0
-1.2989346 2.5228693 -0.93565226
-1.5004438 2.9142528 -0.90434492
-1.7604785 3.4193079 -0.85198152
-2.4475698 4.753818 -0.89140528
-3.3869126 6.5782666 -0.82469797
-3.7065706 7.1991258 -0.45228359
-3.4922874 6.7829318 0
-0 0 0
-1.3178564 2.5520391 -0.94706017
-1.501664 2.9079838 -0.90296191
-1.7634397 3.4149141 -0.85141706
-2.4497774 4.7440124 -0.89012098
-3.3936687 6.5718646 -0.82440883
-3.7212267 7.2061839 -0.45300916
-3.5040641 6.7856464 0
-0 0 0
-1.332304 2.5723877 -0.95520824
-1.497099 2.8905709 -0.89811611
-1.7628903 3.4037559 -0.8491655
-2.4519694 4.7342172 -0.88883829
-3.3980417 6.5608759 -0.8235448
-3.7335176 7.2086062 -0.45344472
-3.5218358 6.7998953 0
-0 0 0
-1.3285773 2.5576203 -0.95032007
-1.508687 2.9043462 -0.90296191
-1.7752019 3.4174092 -0.85310626
-2.4588702 4.7335267 -0.88926584
-3.4095402 6.5636444 -0.82440883
-3.7326424 7.1856427 -0.45228359
-3.5360467 6.8071799 0
-0 0 0
-1.3008361 2.4968364 -0.92831832
-1.5110328 2.9002898 -0.90226775
-1.7746339 3.4062481 -0.85085469
-2.4728873 4.7464819 -0.89226037
-3.4246414 6.5732875 -0.82613915
-3.7545254 7.2064695 -0.45387971
-3.547878 6.8098288 0
-0 0 0
-1.3278885 2.5412629 -0.94543183
-1.5110539 2.8917978 -0.90019327
-1.7763971 3.3996017 -0.84973001
-2.4714899 4.7298436 -0.88969338
-3.4277902 6.5599751 -0.82498598
-3.7692506 7.2134495 -0.45460585
-3.558512 6.8101454 0
-0 0 0
-1.3126016 2.5046294 -0.93239236
-1.5308483 2.9210751 -0.90988225
-1.7805036 3.3974528 -0.84973001
-2.4783936 4.7291255 -0.89012098
-3.428508 6.5420785 -0.82325566
-3.7803741 7.2134881 -0.45489582
-3.5570736 6.7873998 0
-0 0 0
-1.3294262 2.5292952 -0.94217193
-1.513369 2.8792551 -0.89742464
-1.7893362 3.4042954 -0.85198152
-2.4805264 4.719317 -0.88883829
-3.4388194 6.5425143 -0.82383281
-3.8060102 7.2411118 -0.45692751
-3.5507424 6.7554526 0
-0 0 0
-1.3370917 2.5364327 -0.94543183
-1.5262061 2.8951786 -0.90296191
-1.7910762 3.3976312 -0.85085469
-2.4874229 4.718585 -0.88926584
-3.4394832 6.5246215 -0.82210249
-3.8341446 7.2732859 -0.45924973
-4.9108038 9.3156843 0
-0 0 0
-1.3297596 2.5151522 -0.93809789
-1.5226655 2.8800209 -0.89880764
-1.7951803 3.3954644 -0.85085469
-2.4931226 4.7155762 -0.88926584
-3.4485767 6.5227542 -0.82239163
-3.8405035 7.2640576 -0.45895973
-4.9159756 9.2982416 0
-0 0 0
-1.3293231 2.5069907 -0.93565226
-1.5296712 2.8848302 -0.90088481
-1.7957096 3.3865561 -0.8491655
-2.4940083 4.7034883 -0.88755399
-3.4576662 6.5208654 -0.82267964
-3.8456249 7.2525225 -0.45852417
-4.9174538 9.273901 0
-0 0 0
-1.3404714 2.5206518 -0.94135463
-1.5284441 2.8741198 -0.89811611
-1.8021886 3.388875 -0.85029233
-2.5045109 4.7095375 -0.88926584
-3.4643295 6.5144014 -0.82239163
-3.8641458 7.2662244 -0.4596853
-4.9249887 9.2610569 0
-0 0 0
-1.3493351 2.5299406 -0.94543183
-1.5307363 2.8700595 -0.89742464
-1.8014991 3.3777273 -0.84804082
-2.5053675 4.6974473 -0.88755399
-3.4648929 6.4965129 -0.82066131
-3.8704748 7.2569599 -0.45939475
-4.9324999 9.248208 0
-0 0 0
-1.3415477 2.5116839 -0.93891209
-1.5419257 2.8868372 -0.90296191
-1.8047354 3.3788774 -0.84860313
-2.5069966 4.6936707 -0.88712645
-3.4675996 6.4921393 -0.8203733
-3.3154244 6.2072325 -0.39306948
-4.9196982 9.2107992 0
-5.1736245 9.6862078 0.61337364
-1.3562502 2.5318441 -0.94706017
-1.5359356 2.8672802 -0.89742464
-1.8076183 3.3744564 -0.84804082
-2.5175149 4.6996899 -0.88883829
-3.4742215 6.4856668 -0.82008529
-3.3413281 6.2375817 -0.39524671
-4.9320517 9.20714 0
-5.2822475 9.8608847 0.62483871
-1.3417661 2.4975502 -0.93483806
-1.5453345 2.8764703 -0.90088481
-1.8140969 3.3767424 -0.8491655
-2.5219734 4.6943765 -0.88840908
-3.4796052 6.476903 -0.81950814
-3.3525529 6.2404094 -0.39568228
-4.939477 9.194294 0
-5.2695642 9.8087149 0.6219359
-1.363536 2.5307329 -0.94787437
-1.5547577 2.8856418 -0.90434492
-1.8169718 3.372313 -0.84860313
-2.5264273 4.6890678 -0.88798153
-3.486203 6.4704189 -0.81922013
-3.3588548 6.2340598 -0.39553672
-4.950583 9.1883192 0
-4.7465339 8.8096027 0.55894899
-1.3677713 2.5312643 -0.94869167
-1.5475106 2.8638988 -0.89811611
-1.8198384 3.367882 -0.84804082
-2.5296528 4.6814995 -0.88712645
-3.4927902 6.4639282 -0.81893212
-3.3626828 6.223145 -0.39510173
-3.3521748 6.2036982 0
-4.7979379 8.8792982 0.56373847
-1.3508108 2.4926701 -0.93483806
-1.5497758 2.8598232 -0.89742464
-1.8251159 3.3679123 -0.84860313
-2.5377514 4.6829491 -0.88798153
-3.498131 6.4551511 -0.81835496
-2.9418616 5.428659 -0.34488598
-3.3460274 6.1744719 0
-4.8136153 8.8826332 0.56431901
-1.3538216 2.4910362 -0.93483806
-1.5616126 2.8733721 -0.90226775
-1.8303963 3.3679349 -0.8491655
-2.5397296 4.6731105 -0.88669723
-3.5034606 6.4463787 -0.81777894
-2.9558613 5.4387941 -0.34575653
-3.3671567 6.1955791 0
-5.8926091 10.84242 0.68927729
-1.3698385 2.5132642 -0.94380033
-1.5614849 2.864881 -0.90019327
-1.8308198 3.3590341 -0.84747845
-2.5441468 4.6677866 -0.88626969
-3.5062959 6.4330564 -0.81662577
-0 0 -0
-3.3883374 6.2166357 0
-5.9156542 10.853544 0.69043839
-1.3574643 2.4834156 -0.93320656
-1.5613344 2.8563859 -0.89811611
-1.8348773 3.3568194 -0.84747845
-2.5534801 4.6714687 -0.88755399
-3.5252304 6.4492388 -0.81922013
-0 0 -0
-0 0 0
-5.9349947 10.857786 0.69116396
-1.3580902 2.477443 -0.93157816
-1.5623704 2.8500934 -0.89673048
-1.8328215 3.3434532 -0.84466243
-2.5628259 4.6751351 -0.88883829
-3.5193429 6.4200239 -0.81604862
-0 0 -0
-2.9004719 5.2910728 0
-5.9718432 10.893902 0.69392174
-1.367035 2.4866276 -0.93565226
-1.5754819 2.8657911 -0.90226775
-1.8393106 3.3456936 -0.84578925
-2.5635262 4.6630368 -0.88712645
-2.9950628 5.447999 -0.69295418
-0 0 -0
-2.9532511 5.371944 0
-5.9887538 10.893502 0.69435674
-1.3783885 2.5001187 -0.94135463
-1.5825784 2.8704784 -0.90434492
-1.8384448 3.3345683 -0.84353775
-2.5691588 4.659936 -0.88712645
-3.0053911 5.4511733 -0.69381928
-2.9748693 5.395813 -0.34416041
-2.9509432 5.352416 0
-6.0056767 10.893087 0.69479227
-1.3790188 2.4941297 -0.93972629
-1.5726914 2.8444111 -0.89673048
-1.8486187 3.3434603 -0.84635162
-2.5710599 4.6500864 -0.88584208
-3.0194871 5.4611235 -0.69554961
-2.9750967 5.3808379 -0.3434343
-2.9637034 5.3602319 0
-6.027637 10.901743 0.69580841
-1.3760399 2.4816558 -0.93565226
-1.572481 2.835933 -0.894656
-1.8538883 3.3434443 -0.84691393
-2.5828998 4.6581993 -0.88798153
-3.0210664 5.4484229 -0.69439644
-2.9790785 5.3726988 -0.3431443
-2.9562995 5.3316174 0
-6.0471044 10.905811 0.69653398
-1.3706282 2.4648685 -0.92994666
-1.5795608 2.8406022 -0.89673048
-1.8579268 3.3412018 -0.84691393
-2.5847826 4.6483421 -0.88669723
-3.0238755 5.4379849 -0.69353127
-2.9843066 5.3668265 -0.34299928
-2.975385 5.3507819 0
-6.0741696 10.92348 0.69813061
-1.3760153 2.4675322 -0.93157816
-1.575663 2.8255491 -0.89257884
-1.85949 3.3345203 -0.84578925
-2.5953982 4.6541839 -0.88840908
-3.0367415 5.4456201 -0.69497246
-3.0034423 5.3859062 -0.34445041
-2.9628389 5.3130946 0
-6.0987525 10.936555 0.69943672
-1.3970881 2.4982193 -0.94380033
-1.5925468 2.8477311 -0.90019327
-1.858557 3.3234005 -0.84353775
-2.5960081 4.6420822 -0.88669723
-3.0445805 5.4442019 -0.69526052
-2.9896553 5.3459868 -0.34212819
-2.9603636 5.2936087 0
-4.2007494 7.5116191 0.48072258
-1.3674666 2.4383307 -0.92179859
-1.5910779 2.8370523 -0.89742464
-1.8625712 3.3211522 -0.84353775
-2.6016154 4.6389422 -0.88669723
-3.0423038 5.4247341 -0.69324327
-3.0088253 5.3650389 -0.34357986
-3.4199243 6.0980692 0
-4.2085528 7.5042739 0.48057759
-1.4007003 2.4905314 -0.94217193
-1.5895855 2.826381 -0.894656
-1.8665829 3.3188992 -0.84353775
-2.6109951 4.6425099 -0.88798153
-3.0539279 5.4300718 -0.69439644
-3.0191233 5.368187 -0.34401485
-2.9973831 5.3295317 0
-4.1513863 7.3814206 0.47303087
-1.4097784 2.499599 -0.94624597
-1.5979294 2.833199 -0.89742464
-1.8743377 3.323283 -0.84522694
-2.6077738 4.6236978 -0.88498533
-3.0693777 5.4421415 -0.6964137
-3.0166757 5.3486986 -0.34299928
-3.001266 5.3213768 0
-4.1998701 7.4465547 0.47752979
-1.3884618 2.4548671 -0.92994666
-1.6050532 2.837811 -0.89949912
-1.8758476 3.3165884 -0.84410006
-2.6133587 4.6205435 -0.88498533
-3.08741 5.4586887 -0.69900805
-3.0256925 5.3495688 -0.34328929
-3.0615027 5.4128833 0
-4.2216549 7.4640875 0.4789809
-1.3950864 2.4596393 -0.93239236
-1.6035302 2.8271406 -0.89673048
-1.8786013 3.3121114 -0.84353775
-2.613879 4.608459 -0.88327515
-3.1054916 5.4752088 -0.70160347
-3.0308733 5.3436508 -0.3431443
-3.0629051 5.4001255 0
-6.2612014 11.038956 0.70887011
-1.3943902 2.4515045 -0.92994666
-1.6131504 2.8361108 -0.90019327
-1.882602 3.309839 -0.84353775
-2.6295938 4.6231399 -0.88669723
-3.10443 5.4579582 -0.69987315
-3.037328 5.3399849 -0.3431443
-3.0681424 5.3941603 0
-6.2758188 11.033638 0.70901513
-1.3912297 2.4390852 -0.92587262
-1.6004183 2.8058321 -0.89119583
-1.8840845 3.3031518 -0.84241307
-2.6300907 4.6110396 -0.88498533
-3.1212747 5.472177 -0.70217949
-3.0476415 5.3430843 -0.34357986
-3.068212 5.3791485 0
-6.2981596 11.041849 0.71003121
-1.4074135 2.4639986 -0.93565226
-1.618288 2.8331823 -0.90019327
-1.8923798 3.3130424 -0.84522694
-2.6150532 4.5782475 -0.87899464
-3.1245801 5.4702902 -0.70217949
-3.0560241 5.3502674 -0.34416041
-3.174715 5.558063 0
-6.3177147 11.0606 0.71148235
-1.3931936 2.4322746 -0.92424428
-1.6067469 2.8051016 -0.89188737
-1.8925916 3.304137 -0.84353775
-2.2582426 3.9425001 -0.75745851
-3.1247611 5.4552913 -0.70073831
-3.0599012 5.3420572 -0.34386986
-3.1413331 5.4842229 0
-6.3427019 11.073258 0.712789
-1.4096696 2.4541585 -0.93320656
-1.6101352 2.803158 -0.89188737
-1.8953183 3.2996466 -0.84297538
-2.2693965 3.9508963 -0.75959796
-3.112025 5.4178672 -0.6964137
-3.0702376 5.3451176 -0.3443054
-3.1064823 5.4082174 0
-6.3638401 11.079101 0.71365958
-1.410169 2.448174 -0.93157816
-1.6110142 2.7968585 -0.89050168
-1.9005709 3.2995536 -0.84353775
-2.2703235 3.9414759 -0.7583136
-3.6297746 6.301599 -0.81057191
-3.0909569 5.3661656 -0.34590152
-3.5663326 6.1914582 0
-6.3798137 11.075902 0.71394956
-1.423016 2.4635901 -0.93809789
-1.6181582 2.8014293 -0.89257884
-1.9045564 3.2972548 -0.84353775
-2.2699535 3.9298468 -0.75660342
-3.639971 6.3016834 -0.81114793
-3.107836 5.3804274 -0.34706265
-3.533462 6.1172905 0
-6.4126887 11.101938 0.7161268
-1.4024529 2.421231 -0.92261279
-1.6253155 2.8059866 -0.894656
-1.9047172 3.288353 -0.84184855
-2.2605457 3.9026642 -0.75189537
-3.6436973 6.2905731 -0.8102839
-3.1286626 5.4014034 -0.34865931
-3.5486751 6.126524 0
-6.4391198 11.116663 0.71757793
-1.4066178 2.4216697 -0.92342699
-1.6287049 2.8040209 -0.894656
-1.9074142 3.283854 -0.84128618
-2.2575209 3.8866072 -0.74932671
-3.6422005 6.2705073 -0.80826557
-3.1286623 5.3863869 -0.34793377
-3.5364716 6.0884819 0
-6.4538565 11.111128 0.71772349
-1.4058144 2.4135673 -0.92098445
-1.627041 2.7933793 -0.89188737
-1.9101031 3.2793534 -0.84072387
-2.2557566 3.8727875 -0.74718732
-3.6471734 6.2616363 -0.80768955
-3.1403999 5.3915839 -0.34851432
-3.5425122 6.0819492 0
-6.4803529 11.125771 0.71917462
-1.413716 2.4204037 -0.92424428
-1.6430657 2.8130703 -0.89880764
-1.9153444 3.2792349 -0.84128618
-2.2539623 3.8589778 -0.74504787
-3.65604 6.2594562 -0.80797756
-3.14167 5.3788104 -0.34793377
-3.5761101 6.1226091 0
-6.5055852 11.138124 0.72048074
-1.422062 2.4212387 -0.92587262
-1.6384254 2.7896245 -0.89257884
-1.9206923 3.2702191 -0.8401615
-0 0 -0
-2.2578528 3.8442769 -0.4969264
-2.2848539 3.89025 -0.25200117
-2.3072248 3.9283388 0
-6.5522232 11.15598 0.72265792
-1.4312569 2.4301651 -0.92994666
-1.6328816 2.7725086 -0.88773304
-1.9246423 3.2678959 -0.8401615
-0 0 -0
-0 0 -0
-2.2974675 3.9009247 -0.25287229
-2.2815919 3.8739688 0
-6.5801997 11.172678 0.72425407
-1.4392197 2.4369466 -0.93320656
-1.645162 2.7856567 -0.89257884
-1.9247119 3.2590022 -0.83847231
-2.280422 3.8613055 -0.74761647
-0 0 -0
-2.3008592 3.8959105 -0.25272727
-2.2915647 3.8801727 0
-6.6016259 11.178147 0.72512519
-1.428313 2.4118187 -0.92424428
-1.6434133 2.7750323 -0.8898102
-1.9312354 3.2610426 -0.83959699
-2.277235 3.8452902 -0.74504787
-0 0 -0
-0 0 -0
-2.2272978 3.760967 0
-6.6204238 11.179106 0.72570574
-1.4286997 2.4058368 -0.92261279
-1.6570129 2.7903013 -0.89534748
-1.9403639 3.2674456 -0.84184855
-2.2805703 3.8403306 -0.74462032
-0 0 -0
-0 0 -0
-0 0 0
-6.6339269 11.171098 0.72570574
-1.4341373 2.40836 -0.92424428
-1.651397 2.7732062 -0.89050168
-1.9404142 3.2585554 -0.8401615
-2.286521 3.8397758 -0.74504787
-0 0 -0
-0 0 -0
-0 0 0
-6.6487484 11.165304 0.72585076
-1.4408441 2.4129856 -0.92668682
-1.6637512 2.7862887 -0.89534748
-1.9443501 3.2562084 -0.8401615
-2.2924738 3.8392119 -0.74547541
-2.2843337 3.8255799 -0.49663728
-0 0 -0
-0 0 0
-6.638258 11.117109 0.72323853
-1.4475689 2.4176064 -0.92913252
-1.6619616 2.7756667 -0.89257884
-1.9443661 3.2473147 -0.83847231
-2.297111 3.8364391 -0.74547541
-2.2929418 3.8294764 -0.49750242
-0 0 -0
-0 0 0
-0 0 0
-1.4377689 2.3946695 -0.92098445
-1.6524028 2.752152 -0.88565856
-1.9535201 3.2536767 -0.84072387
-2.3189218 3.8622699 -0.75103861
-2.2909117 3.8156176 -0.49606124
-2.3143289 3.85462 -0.25113061
-0 0 0
-0 0 0
-1.4636056 2.431041 -0.93565226
-1.6647812 2.7651923 -0.89050168
-1.9495842 3.2382486 -0.83734548
-2.3275604 3.8660648 -0.75232291
-0 0 -0
-2.3082628 3.8340116 -0.2499695
-2.2947726 3.8116047 0
-0 0 0
-1.4652659 2.4271567 -0.93483806
-1.6810895 2.7846603 -0.89742464
-1.9548125 3.2380722 -0.83790994
-2.3388624 3.8742359 -0.7544623
-3.3774908 5.5946836 -0.72841328
-3.3589828 5.5640259 -0.36302716
-2.3087931 3.8244271 0
-0 0 0
-1.4720336 2.4317214 -0.9372806
-1.6675649 2.7547288 -0.8884272
-1.9653015 3.2465739 -0.84072387
-2.3422139 3.8692129 -0.75403476
-3.3869245 5.5950198 -0.7289893
-3.3576322 5.5466304 -0.3621566
-5.2068119 8.6013775 0
-0 0 0
-1.4467586 2.3834629 -0.91935295
-1.6813014 2.7698605 -0.89396185
-1.9639492 3.2355084 -0.83847231
-2.348218 3.8685725 -0.7544623
-3.3883142 5.5820789 -0.72783613
-3.3589385 5.5336843 -0.36157602
-5.2185502 8.5973024 0
-0 0 0
-1.464886 2.410043 -0.92994666
-1.6634322 2.7366931 -0.8835814
-1.9645851 3.2321522 -0.83790994
-2.3478906 3.8627698 -0.75360721
-3.3943753 5.5844555 -0.72841328
-3.3325915 5.4828081 -0.35838324
-5.2142801 8.578578 0
-0 0 0
-1.4626517 2.3998291 -0.92668682
-1.6889327 2.7710972 -0.89534748
-1.9645207 3.2232649 -0.83622074
-2.3512216 3.8577402 -0.75317967
-3.3970811 5.5737224 -0.72754812
-3.862535 6.3374104 -0.41454902
-5.2287064 8.5789404 0
-0 0 0
-1.4694182 2.4043891 -0.92913252
-1.6805068 2.7497904 -0.88911867
-1.9776902 3.2360675 -0.8401615
-2.3625731 3.8658464 -0.75531906
-3.4051609 5.5718184 -0.72783613
-3.8607087 6.317225 -0.41353345
-5.2268558 8.5526323 0
-0 0 0
-1.477488 2.4110413 -0.93239236
-1.6785849 2.7392015 -0.88635004
-1.9696465 3.2141709 -0.83509392
-2.3605375 3.852047 -0.75317967
-3.4159465 5.5743179 -0.72870129
-3.8683388 6.3125553 -0.41353345
-5.2344637 8.5418682 0
-0 0 0
-1.4700485 2.3924077 -0.92587262
-1.685835 2.7435858 -0.8884272
-1.9775207 3.2182853 -0.83678311
-2.3678753 3.8535621 -0.75403476
-3.4186158 5.5635729 -0.72783613
-3.8773227 6.3100886 -0.41367847
-5.2352476 8.5200224 0
-0 0 0
-1.4729383 2.3906298 -0.92587262
-1.7023063 2.7629018 -0.89534748
-1.9760766 3.2072406 -0.83453155
-2.37253 3.8506982 -0.75403476
-3.4280519 5.5638466 -0.72841328
-3.8944869 6.3208866 -0.41469458
-5.2455387 8.51369 0
-0 0 0
-1.468034 2.376236 -0.92098445
-1.6885033 2.733099 -0.88635004
-1.9866265 3.2156568 -0.83734548
-2.3731322 3.8412747 -0.75275046
-3.4320507 5.5552955 -0.72783613
-3.3422101 5.4098744 -0.35519046
-5.2462459 8.4918451 0
-0 0 0
-1.4813118 2.3912613 -0.92750102
-1.7063333 2.7545104 -0.89396185
-1.987837 3.2089379 -0.83622074
-2.3750708 3.8340442 -0.75189537
-3.4455698 5.5621362 -0.72927731
-3.380213 5.4566317 -0.35852826
-5.2565026 8.4855003 0
-2.4086511 3.8882525 0.25547782
-1.4789886 2.3810797 -0.92424428
-1.6818684 2.7077034 -0.87942976
-1.9943917 3.2108464 -0.83734548
-2.3824081 3.8355286 -0.75275046
-3.4536514 5.560164 -0.72956538
-3.3854342 5.4503384 -0.35838324
-5.2516456 8.4548225 0
-0 0 0
-1.5001553 2.4086585 -0.93565226
-1.6930941 2.7184422 -0.8835814
-2.0009592 3.2127519 -0.83847231
-2.3897576 3.8370094 -0.75360721
-3.456269 5.5494065 -0.72870129
-3.3837724 5.4330053 -0.35751212
-5.2536054 8.4352207 0
-0 0 0
-1.4886622 2.3837817 -0.92668682
-1.7043483 2.7291579 -0.88773304
-1.9940724 3.1930904 -0.83396924
-2.3875947 3.8232343 -0.75146776
-3.4684522 5.5540018 -0.72985446
-0 0 -0
-5.2624164 8.4266605 0
-0 0 0
-1.4797373 2.3631299 -0.91935295
-1.7009888 2.7164669 -0.88427287
-2.0006237 3.1949816 -0.83509392
-2.3935738 3.82252 -0.75189537
-3.473784 5.5476079 -0.72956538
-0 0 -0
-5.2656846 8.4092607 0
-2.4729228 3.94924 0.26026729
-1.5009886 2.3906412 -0.93076086
-1.7096059 2.7229085 -0.88704157
-2.0071874 3.1968699 -0.83622074
-2.3995545 3.8217971 -0.75232291
-3.4942405 5.5653162 -0.73244882
-0 0 -0
-5.2869124 8.4205246 0
-2.4376249 3.8824325 0.25605837
-1.5025606 2.3867364 -0.92994666
-1.7275984 2.7441967 -0.894656
-2.0069864 3.1879895 -0.83453155
-2.3987 3.8102052 -0.75061101
-3.4995859 5.5589032 -0.73216081
-0 0 -0
-5.2804503 8.3877106 0
-2.4852307 3.9476545 0.26055783
-1.4856576 2.3535745 -0.91772455
-1.7148433 2.7166498 -0.88635004
-2.0108371 3.1855619 -0.83453155
-2.404671 3.8094728 -0.75103861
-3.5049157 5.5524769 -0.73187172
-0 0 -0
-5.2697425 8.3483105 0
-2.4539337 3.8875146 0.25678393
-1.5030367 2.3747444 -0.92668682
-1.7100718 2.7018526 -0.88219577
-2.009249 3.174542 -0.83228004
-2.4051576 3.8000634 -0.74975592
-3.5406694 5.5941315 -0.73792559
-3.3730488 5.3292971 -0.35228765
-0 0 0
-2.49754 3.9460242 0.26084784
-1.5164999 2.3896213 -0.93320656
-1.7214034 2.7124977 -0.88635004
-2.0171692 3.17855 -0.83396924
-2.4083681 3.7949808 -0.74932671
-3.8204379 6.0200467 -0.79471666
-3.3808768 5.3274093 -0.35243267
-0 0 0
-2.4911675 3.925452 0.25968674
-1.5114274 2.3752797 -0.92831832
-1.7219834 2.7061784 -0.88496441
-2.0251019 3.1825435 -0.83565843
-2.4157107 3.7964036 -0.75018346
-3.8638086 6.0721583 -0.8022117
-3.380338 5.3123612 -0.3517071
-0 0 0
-2.5070686 3.9399772 0.26084784
-1.5036613 2.3567827 -0.92179859
-1.7117608 2.6829503 -0.87804413
-2.0221086 3.1693778 -0.83284235
-2.4202962 3.7934821 -0.75018346
-3.8697531 6.0653067 -0.80192369
-3.3909485 5.3148465 -0.35214266
-0 0 0
-2.5258009 3.9588466 0.26229897
-1.5144968 2.3674521 -0.92668682
-1.7177079 2.6851106 -0.87942976
-2.0273099 3.1690788 -0.83340687
-2.4207265 3.7840652 -0.74889916
-3.8784714 6.0628033 -0.8022117
-3.405767 5.3238745 -0.35301322
-0 0 0
-2.5347848 3.9623604 0.2627345
-1.5040146 2.3448203 -0.91853875
-1.7466824 2.7231493 -0.89257884
-2.0297618 3.1644819 -0.83284235
-2.4266818 3.7832963 -0.74932671
-3.8927751 6.068996 -0.80365288
-3.4164073 5.3263192 -0.35344878
-0 0 0
-2.5297489 3.9439824 0.26171839
-1.4974869 2.3284476 -0.91283321
-1.7269032 2.6851678 -0.88081276
-2.0308378 3.157757 -0.83171767
-2.4354184 3.7868407 -0.75061101
-3.8889129 6.0468845 -0.80134654
-3.420027 5.317812 -0.35315824
-0 0 0
-2.5485709 3.9627819 0.26317006
-1.5056571 2.3349452 -0.91609305
-1.7383013 2.6957257 -0.88496441
-2.0332763 3.1531675 -0.83115536
-2.4344275 3.7752657 -0.74889916
-3.8976223 6.0443611 -0.80163568
-3.4334896 5.3245926 -0.35388377
-0 0 0
-2.554764 3.9618812 0.26331508
-1.5177931 2.3506463 -0.92261279
-1.7412944 2.6967888 -0.88565856
-2.0379348 3.1562035 -0.83228004
-2.431138 3.7651677 -0.74718732
-3.9040766 6.0463467 -0.8022117
-3.4409356 5.3290682 -0.35431933
-0 0 0
-2.5599735 3.9646986 0.26360509
-1.5286889 2.3612552 -0.92750102
-1.7472758 2.6988904 -0.88704157
-2.0389879 3.149477 -0.83115536
-2.4370849 3.7643886 -0.74761647
-3.905757 6.0329404 -0.80105853
-3.5052688 5.4143353 -0.3602699
-0 0 0
-2.5661783 3.9637902 0.26375064
-1.5194308 2.34075 -0.92016709
-1.739608 2.6799428 -0.88150424
-2.0469382 3.1533985 -0.83284235
-2.4444244 3.7657435 -0.74847162
-3.9144506 6.0303841 -0.80134654
-3.554249 5.4754772 -0.36462381
-0 0 0
-2.5851111 3.9824774 0.26520175
-1.529003 2.3492761 -0.92424428
-1.7469518 2.684149 -0.8835814
-2.0493624 3.1487954 -0.83228004
-2.4433715 3.7541809 -0.74675971
-3.9175057 6.0191526 -0.80048251
-3.6118839 5.549572 -0.36984828
-0 0 0
-2.5927587 3.9837108 0.26549232
-1.5358888 2.3536303 -0.92668682
-1.7501937 2.6820362 -0.8835814
-2.0531654 3.146317 -0.83228004
-2.4507143 3.7555296 -0.74761647
-3.9276001 6.0187426 -0.80105853
-3.6285286 5.5604382 -0.37086439
-0 0 0
-2.6075065 3.9958014 0.26650786
-1.5211409 2.3248878 -0.91609305
-1.7451944 2.6673274 -0.87942976
-2.0541861 3.1395853 -0.83115536
-2.4510326 3.7461193 -0.74633217
-3.9405344 6.0226498 -0.8022117
-3.6295538 5.5473523 -0.37028384
-0 0 0
-2.6066422 3.9839504 0.26592731
-1.5497091 2.3623154 -0.93157816
-1.7484161 2.6652167 -0.87942976
-2.0537956 3.1307254 -0.82946616
-2.4583707 3.7474437 -0.74718732
-3.9378762 6.0027437 -0.80019343
-3.6362541 5.5429626 -0.37028384
-0 0 0
-2.6257098 4.0025287 0.26737899
-1.5362637 2.3356616 -0.92179859
-1.7667962 2.6861522 -0.88704157
-2.0659521 3.1409745 -0.83284235
-2.4614878 3.7423279 -0.74675971
-3.9451265 5.9979811 -0.80019343
-3.6415224 5.536396 -0.37013885
-0 0 0
-2.6276855 3.995007 0.26708841
-1.51323 2.2945986 -0.90631348
-1.7617563 2.6714535 -0.88288993
-2.0613554 3.1257529 -0.82946616
-2.4603548 3.7307787 -0.74504787
-3.9580667 6.0018468 -0.80134654
-3.6353359 5.5124712 -0.36883274
-0 0 0
-2.6425259 4.0070157 0.26810452
-1.5405416 2.3298826 -0.92098445
-1.7732825 2.6818748 -0.88704157
-2.0651307 3.12326 -0.82946616
-2.4634464 3.7256639 -0.74462032
-3.9624655 5.9927487 -0.80077052
-3.641994 5.5080748 -0.36883274
-0 0 0
-2.6530983 4.0124898 0.2686851
-1.5474489 2.3341937 -0.92342699
-1.7806817 2.6860051 -0.88911867
-2.0689032 3.1207623 -0.82946616
-2.472203 3.7291055 -0.74590462
-3.968276 5.9858027 -0.80048251
-3.6414692 5.4928432 -0.36810717
-0 0 0
-2.6550705 4.0049453 0.26839453
-1.5338501 2.3076215 -0.91364735
-1.758931 2.6462479 -0.87666112
-2.08533 3.1373029 -0.83453155
-2.4809661 3.732523 -0.74718732
-3.9726393 5.9766912 -0.79990536
-3.6337171 5.466795 -0.3666555
-4.1915064 6.3059692 0
-2.6613503 4.0039048 0.26854008
-1.5352679 2.3037119 -0.91283321
-1.7746474 2.6629074 -0.88288993
-2.0693946 3.1051836 -0.82665229
-2.4854743 3.7295225 -0.74718732
-3.9870286 5.9826465 -0.80134654
-3.6273522 5.4429417 -0.36534938
-4.2207675 6.3333783 0
-2.6863577 4.0309534 0.27057177
-1.543543 2.3100753 -0.91609305
-1.7750734 2.6565852 -0.88150424
-2.0689087 3.0963409 -0.82496309
-2.4914091 3.7286572 -0.74761647
-3.9928191 5.9756761 -0.80105853
-3.6194928 5.4169536 -0.36389828
-4.2226396 6.3196263 0
-2.689784 4.0255461 0.27042678
-1.5449588 2.3061571 -0.91527885
-1.7810774 2.6586108 -0.88288993
-2.0726485 3.0938387 -0.82496309
-2.4901977 3.7171133 -0.74590462
-4.0014749 5.9729939 -0.80134654
-3.6260355 5.4125762 -0.36389828
-4.2331667 6.3188396 0
-2.7033207 4.0352421 0.27129734
-1.5546335 2.3145454 -0.91935295
-1.7786932 2.6481266 -0.88012123
-2.0721338 3.0850022 -0.8232739
-2.4932518 3.7119646 -0.74547541
-4.0072484 5.9660096 -0.80105853
-3.6427107 5.4232841 -0.36491382
-4.236444 6.3072367 0
-2.7154374 4.0427556 0.27202287
-1.5588082 2.3147132 -0.92016709
-1.7846917 2.6501331 -0.88150424
-2.0772834 3.0846097 -0.82383841
-2.4963026 3.7068219 -0.74504787
-4.0173464 5.9654579 -0.80163568
-3.643455 5.4102573 -0.36433327
-4.2440619 6.3021135 0
-2.7319319 4.0567141 0.273184
-1.5602223 2.3107817 -0.91935295
-1.7808745 2.6375809 -0.87804413
-2.0810089 3.0820975 -0.82383841
-2.4964688 3.6974185 -0.74376357
-4.0173106 5.9498754 -0.80019343
-3.6572642 5.416625 -0.36505938
-4.261869 6.3120809 0
-2.7397425 4.0577211 0.27347454
-1.5796398 2.3334556 -0.92913252
-1.7939062 2.6499715 -0.88288993
-2.0890005 3.0858872 -0.8255254
-2.5023777 3.6965311 -0.74419278
-4.0201511 5.9385972 -0.79932934
-3.6608903 5.4078941 -0.36476883
-4.2680354 6.3047733 0
-2.7359009 4.0414929 0.27260345
-1.5491458 2.2824638 -0.90957332
-1.7802002 2.6228924 -0.87458396
-2.0884511 3.0770595 -0.82383841
-2.5082827 3.6956267 -0.74462032
-4.0273237 5.9337354 -0.79932934
-3.6688797 5.4056149 -0.36491382
-4.2844167 6.3125281 0
-2.7509983 4.0532365 0.27361956
-1.5574645 2.2887638 -0.91283321
-1.7904239 2.631108 -0.87804413
-2.0878778 3.0682299 -0.82214922
-2.5084124 3.6862245 -0.74333602
-4.0417647 5.9395547 -0.80077052
-3.6856432 5.4162173 -0.36592993
-4.2817907 6.2922831 0
-2.7734358 4.0756884 0.27536124
-1.5699809 2.3011742 -0.91853875
-1.7907766 2.6248019 -0.87666112
-2.0930142 3.0678017 -0.82271153
-2.5128646 3.6831908 -0.74333602
-4.0416517 5.9239855 -0.79932934
-3.6995056 5.4224906 -0.3666555
-4.2952576 6.2957044 0
-2.7783585 4.0723343 0.27536124
-1.567187 2.2941005 -0.91609305
-1.8065108 2.6444309 -0.8835814
-2.0920036 3.0623446 -0.82158685
-2.5121961 3.6774366 -0.74248087
-4.0554385 5.9364867 -0.80134654
-3.7189054 5.4438581 -0.36825216
-4.3034658 6.2995567 0
-2.7910743 4.0856676 0.27637678
-1.5699579 2.2922053 -0.91609305
-1.795531 2.6215518 -0.87666112
-2.1028798 3.0702941 -0.82440072
-2.5180869 3.6765144 -0.74290842
-4.0553021 5.9209142 -0.79990536
-3.7093277 5.4157763 -0.3666555
-4.328722 6.3201184 0
-2.7989485 4.0865841 0.27666736
-1.576925 2.2964211 -0.91853875
-1.8015349 2.6235125 -0.87804413
-2.1037087 3.0635579 -0.8232739
-2.5254309 3.6776974 -0.74376357
-4.0639162 5.9181399 -0.80019343
-3.7276361 5.4284267 -0.3678166
-0 0 0
-2.8024147 4.081059 0.27652234
-1.5937117 2.314868 -0.92668682
-1.8118155 2.6316638 -0.88150424
-2.1088538 3.0631125 -0.82383841
-2.5225959 3.664073 -0.74162412
-4.0666685 5.9068403 -0.79932934
-3.7341926 5.4239187 -0.3678166
-0 0 0
-2.8191261 4.0947838 0.2776829
-1.5866834 2.2987077 -0.92098445
-1.8107227 2.6232846 -0.87942976
-2.1139956 3.0626514 -0.82440072
-2.5328543 3.6694729 -0.74333602
-4.072329 5.8997874 -0.79904026
-3.7363138 5.4129853 -0.36738107
-3.816452 5.5290856 0
-2.8255522 4.0935192 0.27782845
-1.5823699 2.2806499 -0.91527885
-1.8141938 2.6147747 -0.87804413
-2.1213906 3.0575337 -0.82440072
-2.5402527 3.6612341 -0.74290842
-4.0806828 5.8814368 -0.79788816
-3.7701244 5.4338331 -0.36941329
-3.8253562 5.5134377 0
-2.8458009 4.1016173 0.27884403
-1.5935901 2.2909062 -0.92016709
-1.8101902 2.6022854 -0.87458396
-2.1236339 3.0528843 -0.82383841
-2.538811 3.6497328 -0.74119657
-4.0877862 5.8765016 -0.79788816
-3.791523 5.4506006 -0.37086439
-3.8260708 5.5002661 0
-2.8700433 4.1259041 0.28073069
-1.5991875 2.2930374 -0.92179859
-1.8075929 2.5918651 -0.87181532
-2.1229594 3.0440617 -0.82214922
-2.5402851 3.6424553 -0.74034148
-4.0978403 5.8757973 -0.79846418
-3.7995911 5.4481449 -0.37100941
-3.8148494 5.4700232 0
-2.8705716 4.1160455 0.2802957
-1.5991217 2.2870486 -0.92016709
-1.8193461 2.6020112 -0.87596697
-2.1193573 3.0310845 -0.81933528
-2.5490932 3.6456885 -0.74162412
-4.1078982 5.8750768 -0.79904026
-3.8046837 5.441422 -0.37086439
-3.821456 5.4654098 0
-2.8978732 4.1445107 0.28247237
-1.607559 2.29321 -0.92342699
-1.8368922 2.620358 -0.88288993
-2.1303093 3.0389225 -0.82214922
-2.5490801 3.6363058 -0.74034148
-4.1105447 5.8637614 -0.79817617
-3.815732 5.4432063 -0.37129995
-3.8235741 5.4543929 0
-2.8745439 4.1005855 0.27971515
-1.5932745 2.2670002 -0.91364735
-1.8227465 2.5935059 -0.87458396
-2.1325202 3.0342693 -0.82158685
-2.5505168 3.6290185 -0.73948473
-4.1220841 5.8651323 -0.79904026
-3.8417284 5.4662266 -0.37318662
-3.8241758 5.4412518 0
-2.9048951 4.1332479 0.28218237
-1.590318 2.2569916 -0.91038752
-1.8215424 2.5851471 -0.8725068
-2.1347229 3.0296154 -0.82102448
-2.5534229 3.6238377 -0.73905712
-4.1157613 5.8411202 -0.79644585
-3.8977199 5.5316744 -0.37797609
-3.8307478 5.4366274 0
-2.9143729 4.1361008 0.28261736
-1.6016032 2.2671845 -0.91527885
-1.8347987 2.5972896 -0.8773526
-2.1339824 3.0208058 -0.81933528
-2.5607591 3.624939 -0.73991227
-4.1004353 5.8044615 -0.7921223
-3.9328823 5.5672784 -0.38073334
-3.8388143 5.4341183 0
-5.6808558 8.0416603 0.5499506
-1.5957676 2.2531419 -0.91038752
-1.8321357 2.5868816 -0.87458396
-2.1376309 3.0182252 -0.81933528
-2.5651374 3.6218421 -0.73991227
-4.0117779 5.6644239 -0.7736727
-3.9426131 5.5667672 -0.38102388
-3.8333499 5.4124937 0
-5.6995821 8.0475178 0.55082172
-1.6199545 2.2814429 -0.92261279
-1.8352602 2.5846658 -0.87458396
-2.1456909 3.0218573 -0.82102448
-2.5635669 3.6103678 -0.73820037
-3.955729 5.571002 -0.76156497
-0 0 -0
-3.8413925 5.4099774 0
-5.6882377 8.0109596 0.5487895
-1.6098109 2.261364 -0.91527885
-1.8398354 2.5844884 -0.87527543
-2.1390243 3.0047705 -0.81708378
-2.5709078 3.611454 -0.73905712
-4.0074549 5.6294274 -0.77021319
-3.9590652 5.5614529 -0.38131389
-3.8464186 5.403214 0
-5.7054462 8.0146627 0.54951507
-1.5910037 2.2292385 -0.90305364
-1.8254681 2.5577588 -0.86696953
-2.1544619 3.0187294 -0.82158685
-2.5707943 3.6020746 -0.73777282
-4.1284413 5.7845755 -0.7921223
-3.9642742 5.5545521 -0.38116887
-3.8559654 5.4027948 0
-5.7226782 8.0183439 0.55024117
-1.6325299 2.2815876 -0.92505848
-1.8358552 2.5657506 -0.87042964
-2.158108 3.0161238 -0.82158685
-2.5721602 3.5947943 -0.73691773
-4.1595092 5.8132381 -0.79673499
-0 0 -0
-3.8458309 5.3748484 0
-5.7459698 8.0304403 0.55154729
-1.6194369 2.2575202 -0.91609305
-1.8491918 2.5778022 -0.87527543
-2.1617508 3.013514 -0.82158685
-2.583982 3.6021111 -0.73905712
-4.1695428 5.8124075 -0.79731101
-3.9746537 5.540729 -0.38087833
-3.8644583 5.387115 0
-5.7617273 8.0319366 0.55212784
-1.6120604 2.2415137 -0.91038752
-1.846446 2.5674188 -0.8725068
-2.1624205 3.0067701 -0.82046002
-2.5853322 3.5948141 -0.73820037
-4.1765628 5.8073649 -0.79731101
-3.9858985 5.542253 -0.38131389
-3.8740067 5.3866711 0
-5.7638435 8.0144234 0.55140227
-1.6248877 2.2535999 -0.91609305
-1.8583533 2.5773997 -0.87666112
-2.1586232 2.9938519 -0.81764609
-2.5851741 3.5854468 -0.73691773
-4.1820655 5.8002181 -0.797023
-3.9986713 5.5458636 -0.38189444
-3.8820331 5.3840952 0
-5.7598414 7.9884777 0.55009562
-1.613133 2.2316082 -0.90794498
-1.8511769 2.5609181 -0.87181532
-2.1637261 2.9932988 -0.81820846
-2.5970223 3.5927207 -0.73905712
-4.1936183 5.8014512 -0.79788816
-4.0099378 5.5473475 -0.38233
-3.9053082 5.4026031 0
-5.7664485 7.9773045 0.54980564
-1.6289696 2.2506511 -0.91609305
-1.8483094 2.5537002 -0.86973816
-2.1685166 2.9961116 -0.81933528
-2.5976889 3.5890734 -0.73862958
-4.1880202 5.7863412 -0.79615784
-4.0163321 5.54913 -0.38262001
-3.902468 5.3918099 0
-5.7819328 7.9885559 0.55082172
-1.6345937 2.252686 -0.91772455
-1.8676025 2.5738027 -0.8773526
-2.1721351 2.9934893 -0.81933528
-2.6020236 3.585932 -0.73862958
-4.2010851 5.78965 -0.79731101
-4.0260897 5.5484829 -0.38291055
-3.9059203 5.382874 0
-5.7885261 7.9773536 0.55053115
-1.6431304 2.2587042 -0.92098445
-1.8574299 2.5532875 -0.87112385
-2.1742573 2.9888096 -0.81877297
-2.6003141 3.574482 -0.73691773
-4.2065578 5.7824802 -0.797023
-4.0297308 5.5394077 -0.38262001
-3.9139512 5.3802528 0
-5.7859321 7.9535432 0.54937005
-1.6356622 2.2427366 -0.91527885
-1.8679037 2.5611742 -0.87458396
-2.179363 2.9882312 -0.81933528
-2.6061423 3.5734093 -0.73734528
-4.2135415 5.7773929 -0.797023
-4.0425458 5.542932 -0.38320056
-3.909719 5.3608069 0
-8.5682898 11.748402 0.81220442
-1.6354505 2.2367644 -0.91364735
-1.8754407 2.5649927 -0.87666112
-2.1844704 2.9876449 -0.81989765
-2.6134856 3.5743983 -0.73820037
-4.2159381 5.7660317 -0.79615784
-4.058445 5.550633 -0.38407168
-3.914659 5.3539801 0
-8.5932102 11.752716 0.81321996
-1.6250025 2.2168479 -0.90631348
-1.8651856 2.5445085 -0.87042964
-2.1850772 2.9809086 -0.81877297
-2.611732 3.5629561 -0.73648852
-4.2290187 5.7692776 -0.79731101
-4.0728288 5.5562015 -0.38479725
-3.9211254 5.349246 0
-8.6012602 11.733942 0.81263942
-1.6320722 2.2208595 -0.90875918
-1.8652904 2.5382137 -0.86904669
-2.1886775 2.978266 -0.81877297
-2.6205971 3.5660055 -0.73777282
-4.2329264 5.7599993 -0.79673499
-4.0872316 5.5617437 -0.38552278
-3.9476194 5.3717647 0
-8.6231241 11.734008 0.81336498
-1.6347545 2.2188859 -0.90875918
-1.8817472 2.5541341 -0.87527543
-2.1877518 2.9694805 -0.81708378
-2.623383 3.5607717 -0.73734528
-4.2429485 5.7590413 -0.79731101
-4.1016536 5.5672588 -0.38624835
-3.934041 5.3397546 0
-8.6357565 11.72149 0.81321996
-1.6315607 2.2089565 -0.90549928
-1.884832 2.5518587 -0.87527543
-2.1928463 2.9688766 -0.81764609
-2.6322606 3.5637958 -0.73862958
-3.2587974 4.4120593 -0.61137265
-4.1037445 5.5560265 -0.38581279
-3.9296653 5.3203416 0
-8.6329355 11.688061 0.81162387
-1.6209924 2.1891086 -0.8981654
-1.8819423 2.5415144 -0.8725068
-2.1949215 2.9641848 -0.81708378
-2.628922 3.5502915 -0.73648852
-3.270277 4.4164248 -0.61252475
-4.1166406 5.5594168 -0.38639334
-3.8818898 5.2423925 0
-8.6733379 11.71312 0.81409109
-1.6472081 2.2189009 -0.91120481
-1.8760424 2.5271564 -0.86835515
-2.1954694 2.9574461 -0.81595689
-2.6347444 3.5491796 -0.73691773
-3.2725306 4.4083204 -0.61194873
-4.1218076 5.5523543 -0.38624835
-3.8851161 5.2335148 0
-8.7385893 11.771472 0.81887996
-1.658739 2.228802 -0.91609305
-1.8790946 2.5248876 -0.86835515
-2.2066307 2.9649889 -0.81877297
-2.635963 3.5418706 -0.73606098
-3.2824888 4.4105897 -0.61281383
-4.1347189 5.5557079 -0.3868289
-3.8929892 5.2309022 0
-8.8195162 11.850541 0.8251211
-1.6348293 2.1911421 -0.90142524
-1.8911426 2.5346758 -0.8725068
-2.20261 2.952132 -0.81595689
-2.6448474 3.5448575 -0.73734528
-3.2909062 4.4107623 -0.61338991
-4.1476445 5.5590382 -0.38740948
-3.9102025 5.2407975 0
-8.8431492 11.852367 0.82599169
-1.6493189 2.2049987 -0.90794498
-1.8881932 2.5243533 -0.86973816
-2.2107427 2.9555745 -0.81764609
-2.6383641 3.5272677 -0.73434907
-3.293138 4.4026446 -0.61281383
-4.169919 5.5748262 -0.38886058
-3.9305599 5.2548232 0
-8.8527937 11.835429 0.8255561
-1.6593946 2.2128894 -0.91201901
-1.8927456 2.524075 -0.87042964
-2.206692 2.9427388 -0.81483221
-2.6457074 3.5281887 -0.73520583
-3.3000054 4.4007297 -0.61310184
-4.2047157 5.6072078 -0.39147338
-3.9696929 5.2937927 0
-8.8857946 11.84967 0.82729781
-1.6680081 2.218785 -0.91527885
-1.8912759 2.5157762 -0.86835515
-2.2117715 2.9420993 -0.81539458
-2.6453393 3.5188315 -0.73392153
-3.3053205 4.396739 -0.61310184
-4.2208533 5.6145806 -0.39234394
-4.0151815 5.3409963 0
-8.8829346 11.816084 0.82570165
-1.6558149 2.1970336 -0.90713078
-1.8943143 2.513489 -0.86835515
-2.221442 2.9475412 -0.81764609
-2.6542258 3.5217848 -0.73520583
-3.3090756 4.3906784 -0.61281383
-4.211998 5.5887294 -0.3908928
-4.035728 5.3548436 0
-8.8768702 11.778359 0.82381445
-1.6748537 2.2167177 -0.91609305
-1.9124708 2.5312111 -0.87527543
-2.2219412 2.9408042 -0.81652141
-2.6584792 3.518575 -0.73520583
-3.3143783 4.3866768 -0.61281383
-4.196815 5.5546069 -0.38886058
-4.0437627 5.3520379 0
-4.2030144 5.5628123 0.38943499
-1.6715615 2.2068117 -0.91283321
-1.9034096 2.5128996 -0.86973816
-2.2239544 2.9360859 -0.81595689
-2.659626 3.5112636 -0.73434907
-3.3134296 4.3744216 -0.61166066
-4.2254915 5.5785346 -0.3908928
-4.0533724 5.3513012 0
-4.200316 5.5452976 0.3885639
-1.6757201 2.2067568 -0.91364735
-1.9018915 2.504602 -0.867661
-2.2259653 2.931375 -0.81539458
-2.6623156 3.506005 -0.73392153
-3.3249695 4.3786545 -0.61281383
-4.2887945 5.6479163 -0.39611727
-4.0708542 5.3609099 0
-4.216445 5.552639 0.38943499
-1.6723969 2.1968639 -0.91038752
-1.8988438 2.4943252 -0.86489505
-2.227968 2.9266634 -0.81483221
-2.6634371 3.4986966 -0.73306477
-3.3255563 4.3684578 -0.61194873
-4.3176541 5.671679 -0.39814952
-4.074173 5.3518419 0
-7.0198898 9.2213421 0.64733434
-1.6707301 2.1919255 -0.90875918
-1.9125111 2.5091317 -0.87042964
-2.2343583 2.9313812 -0.81652141
-2.6671112 3.4991343 -0.73349398
-3.3266284 4.3643928 -0.61166066
-4.3305278 5.6814651 -0.39902008
-4.0679426 5.3369646 0
-7.0097108 9.1964369 0.6458832
-1.6658756 2.1800878 -0.90468514
-1.9064051 2.4948623 -0.86627805
-2.2317276 2.9206035 -0.8142699
-2.6697741 3.4938633 -0.73306477
-3.3334684 4.3624229 -0.61194873
-5.3770285 7.0367765 -0.49466211
-4.0585837 5.3113623 0
-7.0239701 9.1920862 0.64617318
-1.6790254 2.191802 -0.91038752
-1.917045 2.5025129 -0.86973816
-2.2321618 2.9138668 -0.81314301
-2.677119 3.4947145 -0.73392153
-3.334017 4.3522301 -0.61108357
-5.3792067 7.0220232 -0.49408153
-4.0966516 5.347774 0
-7.038229 9.1877136 0.64646322
-1.6711391 2.1760557 -0.90468514
-1.9261795 2.5081537 -0.8725068
-2.2449696 2.9232626 -0.81652141
-2.6829016 3.4935112 -0.73434907
-3.3392735 4.3481984 -0.61108357
-5.3750262 6.9990315 -0.49292043
-4.1332231 5.3820314 0
-7.0493255 9.179203 0.64646322
-1.6556739 2.1505337 -0.89490551
-1.9292088 2.5058246 -0.8725068
-2.2376482 2.9064527 -0.8125807
-2.6824214 3.4841628 -0.73306477
-3.3461072 4.3462157 -0.61137265
-5.3866463 6.9966459 -0.49321043
-4.1571884 5.3997188 0
-7.0683422 9.1809788 0.64718932
-1.6779015 2.1739655 -0.90549928
-1.9368352 2.5094516 -0.87458396
-2.2504704 2.9158115 -0.81595689
-2.6913364 3.4870176 -0.73434907
-3.3513565 4.3421698 -0.61137265
-5.3871598 6.9798489 -0.49248487
-4.1796083 5.4152904 0
-7.076252 9.168313 0.64689875
-1.6850661 2.1778026 -0.90794498
-1.9367925 2.5031374 -0.87319833
-2.2493317 2.9070673 -0.8142699
-2.6908336 3.4776702 -0.73306477
-3.3534319 4.3340216 -0.61079556
-5.3987732 6.9774485 -0.49277541
-4.1925187 5.4184694 0
-7.0873251 9.1597567 0.64689875
-1.6755774 2.1601415 -0.90142524
-1.9321289 2.4908855 -0.86973816
-2.2512808 2.9023337 -0.81370538
-2.6918898 3.4703636 -0.73220968
-3.3523252 4.3217916 -0.60964239
-5.4024205 6.9647584 -0.49233988
-4.1974692 5.411345 0
-7.0967965 9.1491346 0.64675379
-1.6812178 2.1620138 -0.90305364
-1.9351373 2.4885492 -0.86973816
-2.2594669 2.9056308 -0.81539458
-2.6960812 3.4671082 -0.73220968
-3.3591311 4.319778 -0.6099304
-5.3916912 6.9336109 -0.4905982
-4.2056007 5.4083219 0
-7.098279 9.1282492 0.6458832
-1.6823108 2.1580334 -0.90223944
-1.9366018 2.4842324 -0.86904669
-2.2567275 2.8948829 -0.81314301
-2.6971149 3.4598029 -0.73135453
-3.3675318 4.3197994 -0.61050749
-4.3313508 5.5561662 -0.39350504
-4.2025356 5.3909249 0
-7.1093035 9.1196661 0.6458832
-1.6986132 2.1735241 -0.90957332
-1.9349661 2.4759586 -0.86696953
-2.2586606 2.8901539 -0.8125807
-2.7076104 3.4646244 -0.73306477
-3.3679693 4.3096113 -0.60964239
-4.3844609 5.610301 -0.39771396
-4.2154565 5.3940454 0
-7.1139174 9.1028795 0.64530265
-1.7119097 2.1850913 -0.91527885
-1.9286761 2.4617732 -0.86281788
-2.2668536 2.893425 -0.8142699
-2.7086313 3.4573126 -0.73220968
-3.3763676 4.3096147 -0.61021948
-4.4280896 5.6520391 -0.40105173
-4.2187581 5.3848467 0
-7.129714 9.1004076 0.64573765
-1.6977541 2.1616378 -0.90631348
-1.942492 2.4732463 -0.867661
-2.2640703 2.8826907 -0.81201833
-2.7191494 3.4621124 -0.73392153
-3.3767781 4.2994275 -0.60935432
-4.4333124 5.6446428 -0.40090674
-4.2316914 5.3879318 0
-7.1374979 9.0877028 0.64544767
-1.7018982 2.1615324 -0.90713078
-1.948586 2.4748433 -0.86904669
-2.2722628 2.8859363 -0.81370538
-2.7153919 3.4487417 -0.73178214
-3.3851676 4.2994046 -0.6099304
-4.4256639 5.6209097 -0.39960063
-4.2543011 5.4032664 0
-7.1565094 9.0892782 0.64617318
-1.6907225 2.1420081 -0.89979374
-1.9438046 2.4626427 -0.86558652
-2.2710302 2.8772109 -0.81201833
-2.7227349 3.4494843 -0.73263723
-3.3807483 4.283134 -0.60820115
-0 0 -0
-4.2479277 5.3817797 0
-7.1674867 9.0806246 0.64617318
-1.7071168 2.1574132 -0.90713078
-1.9561162 2.4720926 -0.86973816
-2.2776554 2.8784461 -0.81314301
-2.7205293 3.4381397 -0.73092538
-3.389128 4.2830982 -0.60877723
-0 0 -0
-4.2366619 5.3541913 0
-7.1720042 9.0638065 0.64559263
-1.7066474 2.1514726 -0.90549928
-1.9513078 2.4599018 -0.86627805
-2.2779765 2.8717144 -0.81201833
-2.7278755 3.4388762 -0.73178214
-3.3975186 4.2830567 -0.60935432
-4.4024143 5.549871 -0.39568228
-4.2398968 5.3449945 0
-6.608098 8.3304501 0.59392577
-1.7123255 2.1532815 -0.90713078
-1.9449128 2.4457643 -0.86212641
-2.2814448 2.8689597 -0.81201833
-2.7320287 3.4355774 -0.73178214
-3.3962519 4.2708507 -0.60820115
-4.407495 5.5425076 -0.39553672
-4.2576861 5.3541203 0
-6.6213908 8.3265228 0.59421581
-1.6902751 2.1202886 -0.89409137
-1.9509913 2.4473321 -0.86350936
-2.2864921 2.8681858 -0.8125807
-2.7313757 3.42625 -0.73049778
-3.4014099 4.2667437 -0.60820115
-4.4060917 5.5270209 -0.39481115
-3.5406554 4.4414139 0
-6.6201129 8.3042994 0.59320021
-1.7236903 2.156853 -0.91038752
-1.9633414 2.4567282 -0.867661
-2.2836108 2.8574812 -0.81032914
-2.7371149 3.4249506 -0.73092538
-3.4049499 4.2606125 -0.60791314
-3.5838594 4.4844818 -0.32064864
-3.5573943 4.4513659 0
-3.5967622 4.500627 0.32180306
-1.7234503 2.1538832 -0.90957332
-1.9554238 2.4437921 -0.86350936
-2.2964509 2.8699908 -0.8142699
-2.740792 3.4253066 -0.73135453
-3.4042883 4.2545114 -0.60733604
-0 0 -0
-0 0 0
-3.5881214 4.4842567 0.32078752
-1.7044033 2.1248112 -0.8981654
-1.9599434 2.4433827 -0.86420089
-2.2935574 2.8592858 -0.81201833
-2.7433178 3.4199841 -0.73092538
-3.4110434 4.2524104 -0.60762405
-0 0 -0
-0 0 0
-0 0 0
-1.7054222 2.1208258 -0.89735121
-1.9676123 2.4468799 -0.86627805
-2.293823 2.8525484 -0.81089151
-2.7458413 3.4146683 -0.73049778
-3.4178045 4.2503071 -0.60791314
-3.5892494 4.4635124 -0.3199231
-0 0 0
-0 0 0
-1.7064278 2.1168339 -0.89653391
-1.9642694 2.4366877 -0.86350936
-2.2988672 2.8517585 -0.81145602
-2.7483556 3.4093513 -0.73007023
-3.4131949 4.2340884 -0.60618287
-3.599534 4.4652433 -0.32035866
-0 0 0
-0 0 0
-1.7151984 2.1224599 -0.89979374
-1.9735197 2.4421177 -0.86627805
-2.3055024 2.8529274 -0.8125807
-2.7540851 3.4080226 -0.73049778
-3.4215631 4.2339888 -0.60675997
-3.6065586 4.4629097 -0.32050365
-0 0 0
-0 0 0
-1.731231 2.1317408 -0.90549928
-1.9809957 2.4392869 -0.86696953
-2.3107898 2.845377 -0.81201833
-2.7606962 3.3993664 -0.73007023
-3.4252627 4.2176766 -0.60560679
-5.4994168 6.7716732 -0.4872604
-3.5840371 4.4131823 0
-6.6377611 8.1733665 0.58812022
-1.7260047 2.1200657 -0.90142524
-1.9760236 2.4271657 -0.86350936
-2.3110147 2.8386381 -0.81089151
-2.7664206 3.3980169 -0.73049778
-3.4352508 4.2195463 -0.60647088
-5.5059562 6.7630105 -0.48711541
-4.3155804 5.3008623 0
-6.6541944 8.1734009 0.58870077
-1.7426286 2.1352103 -0.90875918
-1.9821304 2.4286673 -0.86489505
-2.3144431 2.8358436 -0.81089151
-2.768903 3.3926849 -0.73007023
-3.4387128 4.2133904 -0.60618287
-5.5157652 6.7583637 -0.4872604
-4.3022361 5.2714491 0
-6.6558518 8.1552906 0.5879752
-1.7311231 2.1158884 -0.90142524
-1.9961792 2.4398568 -0.86973816
-2.3162606 2.8310804 -0.81032914
-2.7697461 3.3853593 -0.72921348
-3.4388926 4.2032328 -0.60531878
-5.5140519 6.7396235 -0.48638928
-4.3069558 5.2642345 0
-6.6624136 8.1432238 0.58768523
-1.7195734 2.0965974 -0.89409137
-1.98163 2.416111 -0.86212641
-2.3196795 2.8282795 -0.81032914
-2.7722082 3.3800271 -0.72878593
-3.443969 4.1990743 -0.60531878
-5.5287824 6.7409925 -0.48696986
-4.3314633 5.2811556 0
-6.6673031 8.1291389 0.58724964
-1.7330889 2.1078768 -0.89979374
-1.9845479 2.4137149 -0.86212641
-2.3230953 2.8254745 -0.81032914
-2.7762904 3.3766749 -0.72878593
-3.4539635 4.2008977 -0.60618287
-5.5253768 6.720263 -0.48595428
-4.3708978 5.3161235 0
-6.6705198 8.1130476 0.58666909
-1.7497872 2.122952 -0.90713078
-1.9954396 2.4209929 -0.86558652
-2.3232787 2.8187478 -0.80920446
-2.7852681 3.3792627 -0.73007023
-3.4573934 4.1947274 -0.60589486
-5.5268822 6.7055612 -0.48537374
-4.4418688 5.3891544 0
-6.6803179 8.1049824 0.58666909
-1.7413293 2.1074967 -0.90142524
-2.0047553 2.426316 -0.86835515
-2.3331566 2.8237736 -0.81145602
-2.7811754 3.3660018 -0.72793084
-3.4591677 4.1865625 -0.60531878
-5.536634 6.7008791 -0.48551872
-4.4218607 5.3516908 0
-6.6818323 8.0868902 0.58594352
-1.7517562 2.1149065 -0.90549928
-1.9996856 2.4142334 -0.86489505
-2.3300836 2.8131251 -0.80920446
-2.7901483 3.3685641 -0.72921348
-3.465872 4.18437 -0.60560679
-4.6016417 5.5555921 -0.40293843
-4.4183598 5.3343148 0
-6.6899428 8.0768118 0.58579856
-1.7574712 2.116595 -0.90713078
-2.010613 2.4214642 -0.86835515
-2.3351026 2.8122606 -0.80976683
-2.7925782 3.3632171 -0.72878593
-3.4676178 4.1761951 -0.6050297
-4.6149912 5.5580244 -0.40351897
-5.8328943 7.0247955 0
-6.7013559 8.0707197 0.58594352
-1.7552823 2.1087692 -0.90468514
-1.9974844 2.3997474 -0.86143225
-2.3433771 2.8152976 -0.81145602
-2.7982805 3.3618116 -0.72921348
-3.4710083 4.1700163 -0.60474169
-4.6283526 5.5604324 -0.40409952
-5.8197293 6.991734 0
-6.7061143 8.0566235 0.58550799
-1.7356631 2.0800824 -0.89327717
-2.0068119 2.4050372 -0.86420089
-2.3386331 2.8027039 -0.80863994
-2.7974114 3.3525205 -0.72793084
-3.4776998 4.1678033 -0.6050297
-4.6284089 5.5468554 -0.40351897
-0 0 0
-6.72084 8.0545015 0.58594352
-1.7635417 2.1083093 -0.90631348
-2.0065002 2.3987656 -0.86281788
-2.3420179 2.799876 -0.80863994
-2.8047512 3.3530722 -0.72878593
-3.4810753 4.1616158 -0.60474169
-4.6301112 5.5352855 -0.40308398
-0 0 0
-6.7289019 8.044384 0.58579856
-1.7406847 2.0758817 -0.89327717
-2.0271242 2.4174798 -0.87042964
-2.3502986 2.802887 -0.81032914
-2.8071527 3.3477156 -0.72835839
-3.4794538 4.1494789 -0.60358852
-4.6284437 5.5197258 -0.40235785
-5.8584127 6.9865456 0
-6.7419529 8.040225 0.58608854
-1.7527308 2.0851252 -0.8981654
-2.0203612 2.4035099 -0.86627805
-2.3504169 2.7961586 -0.80920446
-2.8128459 3.3462844 -0.72878593
-3.4894595 4.1512136 -0.60445362
-4.6351094 5.5141292 -0.40235785
