# .PCD v0.7 - Point Cloud Data file format
VERSION 0.7
FIELDS x y z
SIZE 4 4 4
TYPE F F F
COUNT 1 1 1
WIDTH 1773
HEIGHT 1
VIEWPOINT 0 0 0 1 0 0 0
POINTS 1773
DATA ascii
21.492037 -13.475899 1.4169288
0 -0 -0
0 -0 -0
7.4393783 -4.652112 -0.97798204
13.958612 -8.7288246 -0.9195686
20.891623 -13.064287 0
21.561178 -13.482985 1.4204122
0 -0 -0
0 -0 -0
7.4356036 -4.6435051 -0.97711688
13.955068 -8.7148848 -0.91898799
0 -0 0
21.606787 -13.493353 1.4228793
0 -0 -0
0 -0 -0
7.4499912 -4.639987 -0.97827005
13.958968 -8.6938944 -0.91855246
0 -0 0
21.671595 -13.497455 1.4260721
0 -0 -0
0 -0 -0
7.4621854 -4.635077 -0.97913522
13.978292 -8.6825047 -0.91913301
0 -0 0
21.73424 -13.50005 1.4291199
0 -0 -0
0 -0 -0
7.474371 -4.6301394 -0.97999924
13.979938 -8.6601353 -0.91855246
0 -0 0
21.801344 -13.505252 1.4324583
0 -0 -0
0 -0 -0
7.4755635 -4.6183887 -0.97942322
13.981549 -8.6377745 -0.91797191
0 -0 0
21.87291 -13.513041 1.4360867
0 -0 -0
0 -0 -0
7.4811382 -4.6093526 -0.97942322
13.991976 -8.6208735 -0.91797191
22.83243 -14.067741 0
21.940096 -13.517948 1.4394244
0 -0 -0
0 -0 -0
7.488904 -4.6016622 -0.97971123
13.997959 -8.601243 -0.91768187
22.836103 -14.031965 0
22.007336 -13.522717 1.4427627
0 -0 -0
0 -0 -0
7.4812307 -4.5845041 -0.97798204
14.00612 -8.5829611 -0.91753632
22.895205 -14.030199 0
22.07461 -13.527339 1.4461006
0 -0 -0
0 -0 -0
7.4845514 -4.5741086 -0.9776929
14.01205 -8.563324 -0.91724634
22.901031 -13.995735 0
22.139713 -13.530463 1.4492934
0 -0 -0
0 -0 -0
7.479032 -4.5583324 -0.97625172
14.002419 -8.5342169 -0.91594023
0 -0 0
22.209297 -13.536158 1.4527767
0 -0 -0
0 -0 -0
7.4756937 -4.5439186 -0.97509855
14.014939 -8.5186396 -0.91608524
0 -0 0
22.274483 -13.539002 1.4559695
0 -0 -0
0 -0 -0
7.4811788 -4.5348821 -0.97509855
14.018555 -8.4976568 -0.91564965
0 -0 0
22.337488 -13.540363 1.4590173
0 -0 -0
7.4711647 -4.5164766 -0.97308135
14.019917 -8.4753351 -0.9150691
22.899372 -13.843153 0
22.393854 -13.537557 1.4616295
0 -0 -0
14.030148 -8.4583883 -0.9150691
22.896025 -13.803382 0
22.472506 -13.548053 1.4656935
0 -0 -0
0 -0 -0
14.029225 -8.4347363 -0.91434354
22.894844 -13.764978 0
22.540071 -13.551681 1.4690312
0 -0 -0
14.039407 -8.417779 -0.91434354
22.895832 -13.727935 0
22.609915 -13.556504 1.4725145
0 -0 -0
0 -0 -0
14.036191 -8.3928108 -0.91347301
22.899006 -13.692248 0
22.679804 -13.561179 1.4759979
0 -0 -0
0 -0 -0
14.045716 -8.3869905 -0.91376299
22.898336 -13.673075 0
22.743765 -13.580777 1.4796263
0 -0 -0
14.037979 -8.3593769 -0.91260189
22.892485 -13.632084 0
22.818201 -13.58785 1.4833996
0 -0 -0
14.041373 -8.3384323 -0.91216689
22.908939 -13.604413 0
22.868109 -13.580166 1.4855763
0 -0 -0
14.053673 -8.3227825 -0.91231185
22.91864 -13.572742 0
22.906864 -13.565767 1.487028
0 -0 -0
14.05029 -8.2978649 -0.91144079
22.94175 -13.549011 0
22.920994 -13.536754 1.4868824
0 -0 -0
14.060307 -8.2808819 -0.91144079
22.949133 -13.515998 0
22.919432 -13.498505 1.4857218
0 -0 -0
14.070302 -8.2638865 -0.91144079
22.951979 -13.480348 0
22.922277 -13.462903 1.4848508
0 -0 -0
14.091494 -8.2534494 -0.91216689
22.959269 -13.447344 0
22.931799 -13.431254 1.4844152
0 -0 -0
14.08799 -8.2285509 -0.91129577
22.962021 -13.411719 0
22.939045 -13.398299 1.4838351
0 -0 -0
14.100165 -8.2128286 -0.91144079
22.964722 -13.376107 0
22.939497 -13.361416 1.4828191
0 -0 -0
14.101099 -8.1905699 -0.91086078
22.965111 -13.339198 0
22.946638 -13.328467 1.4822385
0 -0 -0
14.110986 -8.1735258 -0.91086078
22.972204 -13.306222 0
22.946985 -13.291614 1.4812224
0 -0 -0
14.120852 -8.1564693 -0.91086078
22.981503 -13.274549 0
22.94278 -13.252181 1.4799162
0 -0 -0
14.132946 -8.1406965 -0.91100574
22.977232 -13.235081 0
22.954277 -13.221858 1.4796263
0 -0 -0
14.13601 -8.11973 -0.9105702
22.972898 -13.195642 0
22.943197 -13.178582 1.4778845
0 -0 -0
14.141306 -8.1000633 -0.91028023
22.975281 -13.160115 0
22.943319 -13.141808 1.4768685
0 -0 -0
14.157473 -8.0979671 -0.91100574
22.969669 -13.138477 0
22.946747 -13.125366 1.4765785
0 -0 -0
14.160474 -8.076992 -0.9105702
22.971968 -13.10298 0
22.951307 -13.091194 1.4758528
0 -0 -0
14.167967 -8.0585918 -0.91042519
22.978735 -13.070065 0
22.951296 -13.054459 1.4748368
0 -0 -0
14.179952 -8.0427475 -0.9105702
22.985456 -13.037155 0
22.953487 -13.019023 1.4739656
0 -0 -0
14.180613 -8.0204916 -0.90998966
22.985332 -13.000402 0
22.960154 -12.986161 1.4733851
0 -0 -0
14.190293 -8.0033512 -0.90998966
22.987429 -12.964951 0
22.957731 -12.948202 1.4722246
0 -0 -0
14.193156 -7.9823766 -0.90955406
22.987196 -12.928234 0
22.971088 -12.919175 1.472079
0 -0 -0
14.191462 -7.9588671 -0.90882856
23.000532 -12.899178 0
22.970823 -12.882516 1.4710635
0 -0 -0
14.196536 -7.9391794 -0.90853852
22.993393 -12.858676 0
22.965963 -12.843338 1.4697573
0 -0 -0
14.197042 -7.9169579 -0.90795797
23.002092 -12.82708 0
22.965578 -12.806718 1.4687412
0 -0 -0
14.199782 -7.896008 -0.90752244
22.994823 -12.786627 0
22.962868 -12.768857 1.4675801
0 -0 -0
14.195682 -7.8712864 -0.90665185
22.994331 -12.750002 0
22.97374 -12.738584 1.46729
0 -0 -0
14.193814 -7.8478427 -0.90592629
23.005161 -12.719687 0
22.975466 -12.703269 1.466419
0 -0 -0
14.196458 -7.8269215 -0.90549076
23.006844 -12.684344 0
22.981697 -12.67048 1.4658384
0 -0 -0
14.194522 -7.8035045 -0.90476519
23.058643 -12.676597 0
22.985607 -12.636444 1.4651128
0 -0 -0
14.199379 -7.7838469 -0.90447462
23.117296 -12.672491 0
22.991745 -12.603665 1.4645323
0 -0 -0
14.213339 -7.7691789 -0.90476519
23.180546 -12.670761 0
22.997837 -12.570889 1.4639517
0 -0 -0
14.215742 -7.7593422 -0.90461963
23.201908 -12.664238 0
22.98946 -12.548278 1.4629357
0 -0 -0
14.211418 -7.7347088 -0.90374905
17.585098 -9.5708694 0
22.979506 -12.506829 1.4613395
0 -0 -0
14.220754 -7.7175317 -0.90374905
17.594366 -9.5483742 0
17.611931 -9.5579062 1.1192632
0 -0 -0
14.225493 -7.6978674 -0.90345854
0 -0 0
0 -0 0
0 -0 -0
14.22793 -7.6769748 -0.90302348
0 -0 0
0 -0 0
0 -0 -0
14.232615 -7.6573129 -0.90273297
17.626564 -9.4832964 0
17.607563 -9.473074 1.116796
0 -0 -0
14.237282 -7.6376557 -0.90244293
17.621962 -9.4533825 0
17.612133 -9.4481106 1.116361
0 -0 -0
14.262578 -7.6068969 -0.90287852
17.633268 -9.4046431 0
17.621155 -9.3981819 1.1154898
0 -0 -0
14.269459 -7.5884342 -0.90273297
17.637732 -9.3796673 0
17.632498 -9.3768835 1.1154898
0 -0 -0
14.27403 -7.5687547 -0.90244293
17.65135 -9.3595667 0
17.646107 -9.3567867 1.1156348
0 -0 -0
14.283165 -7.5515018 -0.90244293
17.685648 -9.3503933 0
17.696449 -9.3561039 1.1181021
0 -0 -0
14.296872 -7.5366588 -0.90273297
17.736069 -9.3496466 0
17.760612 -9.3625851 1.1214404
0 -0 -0
14.312871 -7.5230064 -0.9031685
17.795729 -9.3536358 0
17.815607 -9.3640842 1.1241977
0 -0 -0
14.331157 -7.5105314 -0.90374905
17.853121 -9.356288 0
17.875238 -9.3678799 1.1272454
0 -0 -0
14.331009 -7.4883962 -0.9031685
17.924379 -9.3660431 0
17.934906 -9.3715439 1.1302933
0 -0 -0
14.33553 -7.4797363 -0.9031685
17.971561 -9.3768797 0
17.984337 -9.3835459 1.133051
0 -0 -0
14.335337 -7.4576125 -0.90258795
18.008278 -9.368371 0
18.009489 -9.3690014 1.1339216
0 -0 -0
14.35126 -7.4438758 -0.90302348
18.058855 -9.3669739 0
23.007462 -11.933774 1.4476973
0 -0 -0
14.348705 -7.4205627 -0.90229797
18.047049 -9.3331938 0
23.012632 -11.901191 1.4471167
0 -0 -0
14.371514 -7.4103627 -0.9031685
24.56012 -12.663898 0
23.017757 -11.868612 1.4465362
0 -0 -0
14.364279 -7.3846745 -0.90215242
24.607803 -12.650869 0
23.011286 -11.8301 1.44523
0 -0 -0
14.39169 -7.3767948 -0.90331352
24.704124 -12.662672 0
23.023245 -11.801098 1.4450845
0 -0 -0
14.384403 -7.3511262 -0.90229797
24.77734 -12.662419 0
23.025921 -11.76736 1.4443589
0 -0 -0
14.397901 -7.3360968 -0.90258795
24.894651 -12.684458 0
23.028547 -11.733631 1.4436333
0 -0 -0
14.406754 -7.3186946 -0.90258795
24.993481 -12.696797 0
23.026489 -11.697557 1.4426172
0 -0 -0
14.410955 -7.2989354 -0.90229797
25.041304 -12.683049 0
23.031336 -11.66503 1.4420366
0 -0 -0
14.419765 -7.2815175 -0.90229797
25.082167 -12.665688 0
23.045414 -11.637193 1.4420366
0 -0 -0
14.419269 -7.2594147 -0.90171742
25.15324 -12.663458 0
23.038572 -11.598824 1.4407306
0 -0 -0
14.425701 -7.2408175 -0.90157181
25.187132 -12.642396 0
7.405592 -3.7171531 0.4628318
0 -0 -0
7.4008813 -3.7035999 -0.46225739
7.3851237 -3.6957147 0
7.3984523 -3.7023847 0.46210569
0 -0 -0
0 -0 -0
0 -0 0
7.39362 -3.6888022 0.46152511
0 -0 -0
7.3974948 -3.6795788 -0.92090291
0 -0 -0
0 -0 0
7.3980718 -3.6798658 0.46152511
0 -0 -0
0 -0 -0
0 -0 -0
0 -0 0
7.3909941 -3.6707766 0.46094513
0 -0 -0
0 -0 -0
7.4188132 -3.6734245 -0.46240294
0 -0 0
7.3977504 -3.6629953 0.46109012
0 -0 -0
7.4108934 -3.6583595 -0.92119092
7.4209094 -3.6633041 -0.46225739
7.3981066 -3.6520474 0
7.3998432 -3.6529047 0.46094513
0 -0 -0
7.4106712 -3.6471202 -0.9206149
7.4183431 -3.6508958 -0.46182236
7.3955064 -3.639657 0
7.3925877 -3.6382205 0.460219
0 -0 -0
7.4150729 -3.6381633 -0.9206149
7.422749 -3.6419296 -0.46182236
7.3975649 -3.6295731 0
7.3923173 -3.6269984 0.45992902
0 -0 -0
7.4055185 -3.6223798 -0.91888458
7.4271441 -3.6329579 -0.46182236
7.3996096 -3.6194894 0
7.3943624 -3.6169231 0.459784
0 -0 -0
7.4122124 -3.6145618 -0.91917259
7.4245195 -3.6205633 -0.46138683
7.4063144 -3.6116855 0
7.3963852 -3.6068435 0.45963845
0 -0 -0
7.4119267 -3.6033432 -0.91859657
7.421876 -3.60818 -0.46095127
7.4083347 -3.6015971 0
7.3960686 -3.5956337 0.45934844
0 -0 -0
7.4092903 -3.5909996 -0.9177314
7.4238939 -3.5980773 -0.46080625
7.4150209 -3.5937767 0
7.3957267 -3.5844257 0.4590579
0 -0 -0
7.3996553 -3.575295 -0.91600221
7.4212151 -3.585712 -0.46037069
7.4170165 -3.5836835 0
7.3977151 -3.5743575 0.45891288
0 -0 -0
7.4039698 -3.5663512 -0.91600221
7.4232035 -3.5756156 -0.4602257
7.411963 -3.5702012 0
7.4020286 -3.5654161 0.45891288
0 -0 -0
0 -0 -0
7.4012766 -3.5540423 -0.91513705
7.4251785 -3.5655198 -0.46008071
7.4162712 -3.5612428 0
7.4039912 -3.555346 0.45876789
0 -0 -0
7.4055657 -3.5450969 -0.91513705
7.4107313 -3.5475698 -0.45891958
7.4111795 -3.5477841 0
7.3989067 -3.5419092 0.45818734
0 -0 -0
7.4098439 -3.5361462 -0.91513705
7.4196982 -3.5408487 -0.45920959
7.4107585 -3.5365827 0
7.3938007 -3.5284898 0.45760676
0 -0 -0
7.4047685 -3.5227456 -0.91398388
7.4239712 -3.5318809 -0.45920959
7.4197311 -3.5298638 0
7.3863287 -3.513973 0.45688123
0 -0 -0
7.4113545 -3.5149031 -0.91427189
7.4329333 -3.5251369 -0.45950013
7.4075284 -3.5130885 0
7.3929148 -3.5061579 0.45702621
0 -0 -0
7.41326 -3.5048409 -0.91398388
7.4348407 -3.5150435 -0.45935515
7.411768 -3.5041354 0
7.3947992 -3.4961128 0.45688123
0 -0 -0
7.4153762 -3.5003614 -0.91398388
7.4205117 -3.5027857 -0.45833904
7.4068303 -3.4963274 0
7.3969097 -3.4916446 0.45688123
0 -0 -0
7.4149241 -3.4891984 -0.91340786
7.42239 -3.4927115 -0.45819402
7.4063354 -3.4851568 0
7.3987746 -3.4815991 0.45673621
0 -0 -0
0 -0 -0
7.4289551 -3.484843 -0.45833904
7.4105411 -3.4762051 0
7.4100266 -3.4759638 0.45717123
0 -0 -0
7.411622 -3.4657922 -0.91196668
7.430809 -3.4747643 -0.45819402
7.4053059 -3.4628389 0
7.4307003 -3.4747136 0.45818734
0 -0 -0
7.4158044 -3.4568343 -0.91196668
7.4444227 -3.4701746 -0.4587746
7.414207 -3.4560897 0
7.4513817 -3.4734185 0.45920345
0 -0 -0
7.4246626 -3.4500489 -0.9125427
7.4745245 -3.4732187 -0.46037069
7.4160104 -3.4460287 0
7.4602814 -3.4666002 0.45949346
0 -0 -0
7.440558 -3.4465098 -0.91398388
7.4999428 -3.4740169 -0.46167737
7.4130912 -3.4337869 0
7.473896 -3.461952 0.46007401
0 -0 -0
7.4705501 -3.4494448 -0.91715539
7.5206418 -3.4725742 -0.46269295
7.4172349 -3.4248271 0
7.4733601 -3.4507422 0.459784
0 -0 -0
7.5029073 -3.4533927 -0.9206149
7.5366321 -3.4689155 -0.46341848
7.4142733 -3.4125969 0
7.4586406 -3.4330182 0.4586229
0 -0 -0
7.5235238 -3.4518716 -0.9226321
7.5502648 -3.4641409 -0.46399906
7.4136558 -3.401463 0
7.4698615 -3.4272509 0.4590579
0 -0 -0
7.5300479 -3.4438572 -0.92292124
7.5544453 -3.4550152 -0.46399906
7.4059291 -3.3870916 0
7.469276 -3.4160631 0.45876789
0 -0 -0
7.5389061 -3.4368999 -0.92349726
7.5586143 -3.4458847 -0.46399906
7.4123912 -3.3792231 0
7.4544835 -3.3984125 0.45760676
0 -0 -0
7.5312819 -3.4224389 -0.92205608
7.5296578 -3.4217007 -0.46196738
7.4140925 -3.3691845 0
7.4491215 -3.3851027 0.45702621
0 -0 -0
0 -0 -0
7.5354118 -3.4133363 -0.92205608
7.5266838 -3.4093826 -0.46153182
7.4086757 -3.3559282 0
7.4674125 -3.3825345 0.45789734
0 -0 -0
7.5324564 -3.4010344 -0.92119092
7.5284319 -3.3992174 -0.46138683
7.4198437 -3.3501878 0
7.495172 -3.3841999 0.45934844
0 -0 -0
7.5318475 -3.3898094 -0.9206149
7.525423 -3.3869178 -0.46095127
7.4191442 -3.3390858 0
7.54427 -3.3954003 0.46210569
0 -0 -0
7.5362511 -3.3863175 -0.92090291
7.5203643 -3.3791788 -0.46051624
7.4211602 -3.3346028 0
7.5795069 -3.4057539 0.46413791
0 -0 -0
7.5356116 -3.3750925 -0.92032576
7.5362968 -3.3753991 -0.46124181
7.4133015 -3.3203113 0
7.6073265 -3.4072125 0.46558902
0 -0 -0
7.5326056 -3.3628244 -0.91946173
7.5308785 -3.3620534 -0.46066126
7.4149337 -3.3102915 0
7.6066971 -3.3959014 0.46529904
0 -0 -0
7.5342937 -3.3526659 -0.91917259
7.5301828 -3.3508365 -0.46037069
7.4117928 -3.2981544 0
7.5371981 -3.3539581 0.46079957
0 -0 -0
7.5359774 -3.3425119 -0.91888458
7.5294805 -3.3396304 -0.46008071
7.4110193 -3.2870879 0
7.4723639 -3.314297 0.45659065
0 -0 -0
7.5369301 -3.3211608 -0.91801941
7.5232573 -3.315136 -0.45920959
7.4117942 -3.2660196 0
7.4589534 -3.2868004 0.45528454
0 -0 -0
7.529099 -3.3068519 -0.91657823
7.5177503 -3.3018675 -0.45862958
7.4157352 -3.2570615 0
7.5033617 -3.295548 0.45775178
0 -0 -0
7.5354652 -3.2987924 -0.91686738
7.5217347 -3.2927814 -0.45862958
7.4292016 -3.2522733 0
7.545424 -3.3031518 0.46007401
0 -0 -0
7.529963 -3.2855473 -0.9157142
7.5257077 -3.2836905 -0.45862958
7.4283595 -3.2412145 0
7.5303564 -3.2857189 0.45891288
0 -0 -0
7.531549 -3.2754118 -0.91542506
7.5225191 -3.2714849 -0.45819402
7.4251084 -3.2291217 0
7.4842834 -3.2548563 0.45586511
0 -0 -0
7.5378809 -3.2673407 -0.9157142
7.5288482 -3.2634254 -0.45833904
7.4194536 -3.2160075 0
7.4429193 -3.2261789 0.45310786
0 -0 -0
7.5394425 -3.2572014 -0.91542506
7.5232449 -3.2502038 -0.45775846
7.4185605 -3.204978 0
7.4277291 -3.2089391 0.45194677
0 -0 -0
7.5338702 -3.2439976 -0.91427189
7.5295506 -3.2421377 -0.45790347
7.4248157 -3.1970401 0
7.4316015 -3.1999617 0.45194677
0 -0 -0
7.5425425 -3.2369339 -0.91484904
7.5239115 -3.2289383 -0.45732293
7.416718 -3.1829355 0
7.4617219 -3.2022493 0.45354286
0 -0 -0
7.5393119 -3.2247655 -0.91398388
7.5254207 -3.2188239 -0.45717791
7.4181585 -3.172945 0
7.491868 -3.2044725 0.45513955
0 -0 -0
7.5384488 -3.2136266 -0.91340786
7.522131 -3.2066705 -0.45674235
7.4195952 -3.1629598 0
7.4981222 -3.1964357 0.45528454
0 -0 -0
7.5284915 -3.2040083 -0.91196668
7.51929 -3.2000923 -0.45645234
7.4191127 -3.1574585 0
7.4880996 -3.1868184 0.454559
0 -0 -0
7.5323577 -3.1949093 -0.91196668
7.5255408 -3.192018 -0.45659736
7.4205289 -3.1474764 0
7.4823766 -3.1737094 0.45397842
0 -0 -0
0 -0 -0
7.5362124 -3.1858056 -0.91196668
7.5293922 -3.1829226 -0.45659736
7.4267211 -3.1395202 0
7.4814234 -3.1626446 0.45368844
0 -0 -0
0 -0 -0
7.5376658 -3.1756902 -0.91167754
7.5332327 -3.1738224 -0.45659736
7.4209161 -3.1265023 0
7.4756613 -3.1495669 0.45310786
0 -0 -0
7.5343499 -3.163579 -0.91081351
7.5298815 -3.1617026 -0.45616236
7.4222913 -3.1165268 0
7.4794612 -3.1405318 0.45310786
0 -0 -0
7.538167 -3.1544728 -0.91081351
7.5336967 -3.152602 -0.45616236
7.4236531 -3.1065524 0
7.4760571 -3.1284819 0.4526723
0 -0 -0
7.5371943 -3.143369 -0.91023636
7.5279074 -3.1394958 -0.45558178
7.4177933 -3.0935731 0
7.5062146 -3.1304491 0.45426899
0 -0 -0
7.5362148 -3.1322761 -0.90966034
7.5316954 -3.1303976 -0.45558178
7.4167147 -3.0826085 0
7.5459766 -3.1363335 0.45644566
7.5399938 -3.1231678 -0.90966034
7.5234618 -3.1163201 -0.45485568
7.4180322 -3.0726495 0
7.585773 -3.1421301 0.4586229
7.5365872 -3.111093 -0.90879518
7.5176148 -3.1032612 -0.45427513
7.4241424 -3.064676 0
7.6039705 -3.1389089 0.45949346
7.5355525 -3.1000144 -0.90821803
7.521359 -3.0941753 -0.45427513
7.4182129 -3.0517428 0
7.6365943 -3.1415815 0.46123514
7.5321202 -3.0879664 -0.907354
7.5323071 -3.088043 -0.45471069
7.4194894 -3.0417907 0
7.6475997 -3.1353099 0.4616707
0 -0 -0
7.5358458 -3.0788629 -0.907354
7.5288143 -3.0759902 -0.45427513
7.4207525 -3.0318401 0
7.6080804 -3.1083753 0.4590579
7.5347648 -3.0678027 -0.90677685
7.5325255 -3.0668907 -0.45427513
7.4219933 -3.0218873 0
7.6190529 -3.1021206 0.45949346
7.5360718 -3.0577245 -0.90648884
7.5290093 -3.0548589 -0.45384014
7.4111743 -3.0070481 0
7.6444635 -3.1017039 0.46079957
7.5421567 -3.0495851 -0.90677685
7.5399151 -3.0486786 -0.45427513
7.4220428 -3.0010185 0
7.6698842 -3.1012301 0.46210569
7.5410423 -3.0385382 -0.90620083
7.5315447 -3.0347111 -0.45354956
7.4111757 -2.9862103 0
7.7025476 -3.1036141 0.46384737
7.5404797 -3.0330174 -0.90591282
7.5357943 -3.0311329 -0.45369512
7.4178119 -2.9836767 0
7.7212987 -3.1057487 0.46486348
7.5441389 -3.0239038 -0.90591282
7.5298038 -3.0181582 -0.45311457
7.4117489 -2.9708385 0
7.7202172 -3.0944812 0.46457291
7.5357704 -3.0099864 -0.9044705
7.5310254 -3.008091 -0.45296901
7.4274154 -2.9667065 0
7.7191291 -3.0832248 0.4642829
7.5346003 -2.9989674 -0.90389448
7.5298305 -2.9970691 -0.45267901
7.4285789 -2.9567683 0
7.7518201 -3.0854266 0.46602458
7.5358162 -2.9889085 -0.90360647
7.5237846 -2.9841366 -0.45209846
7.4127927 -2.940114 0
7.7603688 -3.0779719 0.46631458
7.5370102 -2.9788473 -0.90331733
7.5273852 -2.9750433 -0.45209846
7.4236031 -2.9340255 0
7.7520018 -3.0638182 0.46558902
7.5381994 -2.9687912 -0.90302932
7.5261345 -2.9640396 -0.45180789
7.4222956 -2.9231443 0
7.7605381 -3.0563555 0.46587959
7.5345559 -2.956845 -0.90216416
7.5272937 -2.9539952 -0.4516629
7.4185519 -2.9113207 0
7.8077602 -3.0640609 0.46849182
7.5405388 -2.9486835 -0.9024533
7.5308576 -2.9448977 -0.4516629
7.4172211 -2.900461 0
7.770319 -3.0385377 0.46602458
7.5440965 -2.9395702 -0.9024533
7.536829 -2.9367385 -0.45180789
7.4158659 -2.889605 0
7.7279811 -3.0112212 0.46326679
7.5355892 -2.9257727 -0.90101212
7.5355325 -2.9257505 -0.45151788
7.4193521 -2.8806422 0
7.7243538 -2.9990625 0.4628318
7.5318799 -2.9138646 -0.90014696
7.5317893 -2.9138296 -0.45108232
7.4252615 -2.872617 0
7.7376657 -2.9934771 0.46341234
7.5378065 -2.9056911 -0.90043497
7.5304604 -2.9028592 -0.45079234
7.4214396 -2.8608339 0
7.7291474 -2.9794497 0.46268624
7.521996 -2.8891618 -0.89812863
7.5291061 -2.8918929 -0.45050177
7.4200368 -2.8499999 0
7.7133365 -2.9626548 0.46152511
7.5327306 -2.8828452 -0.89899379
7.5253215 -2.8800097 -0.45006678
7.4234753 -2.8410323 0
7.7096372 -2.9505489 0.46109012
7.5313702 -2.8718963 -0.89841664
7.5336471 -2.8727646 -0.45035678
7.4269028 -2.8320603 0
7.7229085 -2.9449346 0.4616707
7.5348349 -2.8627942 -0.89841664
7.5322595 -2.8618157 -0.45006678
7.420588 -2.819387 0
7.7240252 -2.9346752 0.46152511
7.5317311 -2.8564088 -0.89784062
7.5315504 -2.8563404 -0.44992122
7.4149876 -2.8121338 0
7.7039328 -2.9217162 0.460219
7.5400114 -2.8491328 -0.89841664
7.5301394 -2.8454027 -0.44963121
7.4183798 -2.8031721 0
7.6807265 -2.9023046 0.4586229
7.5361934 -2.8372886 -0.89755261
7.5408702 -2.8390493 -0.45006678
7.4168859 -2.7923708 0
7.6817889 -2.8921037 0.45847735
7.5396161 -2.8281806 -0.89755261
7.5345631 -2.8262851 -0.44948623
7.4251323 -2.7852366 0
7.7266445 -2.8983366 0.46094513
7.5405984 -2.8181603 -0.89726347
7.5233641 -2.8117194 -0.4486151
7.4211764 -2.7735286 0
7.7812438 -2.908097 0.46399236
7.5343118 -2.8054402 -0.89611143
7.5267558 -2.8026268 -0.4486151
7.4220858 -2.7636523 0
7.7677131 -2.8923485 0.46297678
7.5304189 -2.7936347 -0.89524627
7.5228353 -2.7908213 -0.44818011
7.4229822 -2.7537777 0
7.7200441 -2.863982 0.45992902
7.5313649 -2.7836378 -0.89495826
7.5286369 -2.7826295 -0.4483251
7.4263039 -2.7448065 0
7.6308866 -2.8204215 0.45441398
7.537148 -2.7754285 -0.89524627
7.5295577 -2.7726336 -0.44818011
7.424726 -2.734031 0
7.5806489 -2.7914469 0.4512212
7.5332088 -2.7636459 -0.89438111
7.5255814 -2.7608478 -0.44774455
7.4207015 -2.7223713 0
7.5669379 -2.7760198 0.45020509
7.5389695 -2.7554286 -0.89466912
7.5313501 -2.7526436 -0.44788954
7.4313116 -2.7160804 0
7.5898108 -2.7740107 0.45136619
7.5471592 -2.7480888 -0.89524627
7.5371099 -2.7444298 -0.44803455
7.4223633 -2.7026479 0
7.6224566 -2.7755063 0.45310786
7.5431771 -2.7363205 -0.89438111
7.5379801 -2.7344353 -0.44788954
7.4182816 -2.6910141 0
7.6502271 -2.7751534 0.454559
7.5464783 -2.7272041 -0.89438111
7.5266209 -2.7200279 -0.44701898
7.4264274 -2.6838193 0
7.6413584 -2.7614927 0.45383343
7.5473366 -2.7172084 -0.8940931
7.5225654 -2.7082901 -0.44658342
7.4296651 -2.674844 0
7.6031294 -2.7372952 0.45136619
7.5360022 -2.7028461 -0.89236277
7.5282755 -2.7000749 -0.44672844
7.4230928 -2.6623504 0
7.5428429 -2.7052996 0.44759285
7.536829 -2.6928689 -0.89207476
7.5266433 -2.6892297 -0.44643843
7.4287529 -2.6542537 0
7.4702482 -2.66908 0.44309339
7.5449553 -2.6854963 -0.89265192
7.5249867 -2.6783888 -0.44614786
7.4417615 -2.6487665 0
7.4269629 -2.6434991 0.44033617
7.5424933 -2.6692276 -0.89178675
7.5396271 -2.6682134 -0.44672844
7.4195604 -2.6257226 0
7.4586897 -2.6395702 0.44193283
7.5432758 -2.6592529 -0.89149874
7.5403972 -2.6582382 -0.44658342
7.4202757 -2.6158912 0
7.4863753 -2.6391935 0.44338393
7.5464835 -2.6501365 -0.89149874
7.5386958 -2.6474016 -0.44629288
7.4160624 -2.6043358 0
7.4846506 -2.6284223 0.44309339
7.5447927 -2.6393063 -0.89092159
7.5369883 -2.6365762 -0.44600287
7.4192038 -2.5953729 0
7.4804702 -2.6168051 0.44265839
7.5504255 -2.6310415 -0.89121073
7.5254512 -2.6223388 -0.44513232
7.424799 -2.5872653 0
7.4615455 -2.60007 0.44135228
7.5389338 -2.6168258 -0.88948041
7.5335188 -2.6149464 -0.44542232
7.422998 -2.5765834 0
7.4597673 -2.5893464 0.44106171
7.5469837 -2.6094067 -0.89005756
7.5268497 -2.6024451 -0.44484174
7.4236484 -2.5667627 0
7.465344 -2.5811791 0.44120672
7.5403495 -2.5969167 -0.88890439
7.5275345 -2.5925033 -0.44469675
7.4316611 -2.559484 0
7.4684572 -2.5721569 0.44120672
7.5483699 -2.5894806 -0.88948041
7.5282059 -2.5825634 -0.44455177
7.4298296 -2.5488153 0
7.4789357 -2.5656612 0.44164228
7.5466032 -2.578687 -0.88890439
7.5362339 -2.5751438 -0.44484174
7.4230533 -2.5364697 0
7.4623594 -2.5499008 0.44048116
7.5448117 -2.5678983 -0.88832724
7.5417976 -2.5668724 -0.44498676
7.4211898 -2.5258231 0
7.4605203 -2.5392094 0.44019115
7.5552597 -2.5612719 -0.8891924
7.5399766 -2.5560908 -0.44469675
7.419302 -2.5151815 0
7.4512711 -2.5260193 0.43946505
7.5534434 -2.5504844 -0.88861525
7.5381312 -2.5453143 -0.44440618
7.4223356 -2.5062149 0
7.454318 -2.517014 0.43946505
7.5442643 -2.5372341 -0.88717407
7.5436711 -2.5370347 -0.44455177
7.4179564 -2.494755 0
7.464745 -2.5104909 0.43990061
7.5522342 -2.5297611 -0.88775122
7.5344048 -2.5237887 -0.44382563
7.42344 -2.4866192 0
7.4899454 -2.5088964 0.44120672
7.5479226 -2.5181775 -0.88688606
7.5325236 -2.5130401 -0.44353563
7.4313717 -2.4792931 0
7.4929714 -2.4998446 0.44120672
7.5518942 -2.5144331 -0.88717407
7.5340405 -2.5084887 -0.44353563
7.4328685 -2.474803 0
7.4796929 -2.4903934 0.44033617
7.5500216 -2.5036798 -0.88659805
7.5321283 -2.4977462 -0.44324508
7.4259725 -2.4625435 0
7.490098 -2.4838083 0.4407717
7.553041 -2.4945552 -0.88659805
7.5326757 -2.487829 -0.44310006
7.4215264 -2.4511197 0
7.5078931 -2.4796441 0.44164228
7.5486765 -2.4830017 -0.88573289
7.5381427 -2.4795365 -0.44324508
7.4343715 -2.4454031 0
7.5330968 -2.4778769 0.4429484
7.5541267 -2.474683 -0.8860209
7.5312653 -2.4671938 -0.44266507
7.4323792 -2.4347994 0
7.5681839 -2.4792883 0.44483507
7.547276 -2.4623446 -0.88486773
7.549058 -2.4629261 -0.44353563
7.4476843 -2.4298522 0
7.5785875 -2.4725604 0.44527063
7.5502458 -2.4532235 -0.88486773
7.5446124 -2.4513931 -0.44310006
7.4704156 -2.4272852 0
7.5815697 -2.4634013 0.44527063
7.550746 -2.4433031 -0.88457972
7.5450988 -2.4414759 -0.44295508
7.5080037 -2.4294724 0
7.5771217 -2.451838 0.44483507
7.5536923 -2.4341779 -0.88457972
7.5307283 -2.4267776 -0.44193897
7.5480924 -2.432373 0
7.5875006 -2.4450724 0.44527063
7.5443168 -2.421098 -0.88313854
7.5311837 -2.4168832 -0.44179398
7.5782766 -2.4319963 0
7.5805526 -2.4327266 0.44469005
7.5496979 -2.4127669 -0.88342655
7.5316257 -2.4069912 -0.44164896
7.6159205 -2.4339306 0
7.5859594 -2.4243555 0.44483507
7.5476832 -2.4020755 -0.88285053
7.5444326 -2.401041 -0.44222951
7.6560478 -2.4365628 0
7.5864096 -2.4144003 0.44469005
7.5481076 -2.3921702 -0.88256139
7.534946 -2.3879991 -0.44150397
7.7036471 -2.4414642 0
7.6041789 -2.4099405 0.4455606
7.5460639 -2.3814926 -0.88198537
7.5427771 -2.3804553 -0.44179398
7.7214775 -2.4368522 0
7.619482 -2.4046631 0.44628674
7.5538664 -2.3739223 -0.88256139
7.5431709 -2.3705614 -0.44164896
7.7566905 -2.4376631 0
7.6595588 -2.4071379 0.44846341
7.5567293 -2.3647933 -0.88256139
7.5509849 -2.3629956 -0.44193897
7.7943974 -2.4391689 0
7.7269335 -2.4180567 0.45223674
7.5472369 -2.351814 -0.8811202
7.5439115 -2.3507779 -0.44135842
7.8395758 -2.4429107 0
7.8166795 -2.435776 0.45731679
7.5525408 -2.3434587 -0.88140821
7.5393085 -2.3393528 -0.44092339
7.8450146 -2.4342098 0
7.8444295 -2.4340281 0.45876789
7.5465503 -2.3366027 -0.88054419
7.5307918 -2.3317235 -0.44034284
7.8788004 -2.4394758 0
7.8707161 -2.4369726 0.460219
7.5493679 -2.3274825 -0.88054419
7.5336037 -2.3226223 -0.44034284
7.881742 -2.4299538 0
7.8637223 -2.4243984 0.45963845
7.5447545 -2.3160808 -0.87967902
7.5413675 -2.3150413 -0.44063285
7.75033 -2.3791883 0
26.409058 -8.1070251 1.5430487
7.5426054 -2.3054521 -0.879103
7.5342197 -2.3028891 -0.4400523
7.6461864 -2.3371124 0
26.421316 -8.0758677 1.5431937
7.5528016 -2.2985938 -0.87996703
7.5345135 -2.2930279 -0.43990728
7.6390457 -2.324841 0
26.42111 -8.0409107 1.5426131
7.5531006 -2.2887166 -0.87967902
7.5372787 -2.2839222 -0.43990728
7.6418495 -2.315609 0
26.418377 -8.0052128 1.5418876
7.5533867 -2.2788422 -0.87939101
7.5400329 -2.2748134 -0.43990728
7.6396537 -2.3048687 0
26.418079 -7.9702835 1.5413071
7.5586095 -2.270457 -0.87967902
7.5427756 -2.2657011 -0.43990728
7.6449327 -2.296387 0
26.415249 -7.9346194 1.5405815
7.5588717 -2.260582 -0.87939101
7.5455079 -2.2565854 -0.43990728
7.6526837 -2.2886379 0
26.412373 -7.8989744 1.539856
7.5442429 -2.2462795 -0.87737268
7.5382676 -2.2445004 -0.43932673
7.7153068 -2.2972133 0
26.426874 -7.868536 1.5401459
7.5494289 -2.2378964 -0.87766069
7.5334978 -2.2331741 -0.43889117
33.337246 -9.8822451 0
26.421419 -7.8321691 1.5392754
7.5471706 -2.2273102 -0.87708467
7.5337009 -2.2233348 -0.43874618
33.324207 -9.8345919 0
26.435843 -7.8017077 1.5395653
7.5498567 -2.2181892 -0.87708467
7.5314002 -2.2127666 -0.43845618
33.331078 -9.7928534 0
26.435278 -7.7668295 1.5389848
7.5475616 -2.2076113 -0.87650752
7.5290761 -2.2022045 -0.43816561
33.337883 -9.7511091 0
26.449636 -7.7363424 1.5392754
7.5452614 -2.1970453 -0.8759315
7.5442033 -2.1967371 -0.43889117
33.34465 -9.7093658 0
26.431519 -7.6963859 1.5376787
7.5503926 -2.1886461 -0.87621951
7.5343757 -2.1840034 -0.43816561
33.346359 -9.6661701 0
26.450783 -7.6673365 1.5382593
7.5555143 -2.1802378 -0.87650752
7.542007 -2.1763401 -0.43845618
7.6494489 -2.2073438 0
26.450041 -7.6324887 1.5376787
7.5518637 -2.1742427 -0.8759315
7.5408163 -2.1710622 -0.43831062
7.638279 -2.1991224 0
26.452152 -7.6157889 1.5375336
7.5520015 -2.1644044 -0.87564349
7.5509305 -2.1640973 -0.43874618
7.6384215 -2.1891725 0
26.443848 -7.5788093 1.5365176
7.5496321 -2.153857 -0.87506634
7.5410485 -2.1514082 -0.43802062
7.6410613 -2.1799412 0
26.452986 -7.5468516 1.5365176
7.55721 -2.1461477 -0.87564349
7.5386381 -2.1408737 -0.43773004
7.6361866 -2.168576 0
26.452087 -7.5120435 1.5359371
7.5523286 -2.1349034 -0.87477833
7.5362234 -2.1303508 -0.43744007
7.6713557 -2.1685503 0
26.448645 -7.4765425 1.5352114
7.5499277 -2.1243765 -0.87420231
7.5412912 -2.1219463 -0.43758506
7.7190595 -2.1719663 0
26.460159 -7.445282 1.5353565
7.5574656 -2.1166461 -0.87477833
7.5288415 -2.1086292 -0.4367145
7.8043756 -2.1857991 0
26.456627 -7.4098015 1.5346309
7.5525408 -2.1054285 -0.87391317
7.5388951 -2.1016245 -0.43715006
7.8646631 -2.1924391 0
26.455549 -7.3750372 1.5340503
7.5625587 -2.0983765 -0.87477833
7.5364165 -2.0911229 -0.43685949
7.8522649 -2.178761 0
26.456936 -7.3409834 1.5336154
7.5650887 -2.0892372 -0.87477833
7.54144 -2.0827062 -0.43700451
7.8649259 -2.1720426 0
26.460773 -7.3076248 1.5333248
7.560123 -2.0780375 -0.87391317
7.5414481 -2.0729043 -0.43685949
7.8675447 -2.1625378 0
26.457058 -7.2722044 1.5325992
7.5651307 -2.0695856 -0.87420231
7.5389395 -2.0624204 -0.43656951
7.8776755 -2.1550882 0
22.505989 -6.1569419 1.3032906
7.567606 -2.0506191 -0.87391317
7.5388803 -2.0428352 -0.43627894
7.8929081 -2.1387672 0
22.518297 -6.1018567 1.3031455
7.5526047 -2.0367613 -0.87189597
7.5413432 -2.0337245 -0.43627894
7.8703642 -2.1224537 0
22.518124 -6.0726132 1.3027101
7.5500593 -2.0262918 -0.87131882
7.5412879 -2.0239379 -0.43613395
7.8352175 -2.1028228 0
22.510393 -6.0413599 1.3018395
7.5500054 -2.0165009 -0.87103081
7.5437279 -2.0148242 -0.43613395
7.7522688 -2.0705225 0
9.9610529 -2.6604578 0.57588947
7.5537195 -2.0126045 -0.87131882
7.5374088 -2.0082586 -0.43569839
7.6906514 -2.0490885 0
9.9425716 -2.6490874 0.57472831
7.553648 -2.0028136 -0.87103081
7.5423393 -1.999815 -0.43584338
7.6604218 -2.0311241 0
9.9457655 -2.6370718 0.57472831
7.5610595 -1.9950033 -0.87160683
7.5497799 -1.9920272 -0.43613395
7.6528049 -2.0192106 0
9.946435 -2.6243901 0.57458335
7.558466 -1.9845535 -0.87103081
7.5471501 -1.9815823 -0.43584338
7.6451802 -2.0073211 0
8.7960663 -2.3094981 0.50796753
7.5558486 -1.9741101 -0.87045366
7.5545716 -1.9737766 -0.43613395
7.6476002 -1.9980819 0
8.8063946 -2.3008392 0.50840306
7.560739 -1.9656316 -0.8707428
7.5519166 -1.963338 -0.43584338
7.6978579 -2.0012796 0
8.7991085 -2.2875814 0.50782251
7.5656099 -1.9571416 -0.87103081
7.5467439 -1.9522611 -0.43540838
7.8615127 -2.0336885 0
8.8068933 -2.2782481 0.50811255
7.55795 -1.9454197 -0.86987764
7.5490971 -1.943141 -0.43540838
7.9471335 -2.0455956 0
8.8046112 -2.2663109 0.50782251
7.5602951 -1.936286 -0.86987764
7.5464005 -1.9327273 -0.43511784
7.9143085 -2.0269532 0
8.8023043 -2.25438 0.50753194
7.5551076 -1.9252328 -0.86901248
7.5562863 -1.9255331 -0.43555337
7.8789206 -2.0077484 0
8.8201342 -2.2475934 0.50840306
7.554924 -1.9154674 -0.86872447
7.5485325 -1.913847 -0.43497282
7.7955747 -1.9764818 0
8.8253603 -2.2375724 0.50854808
7.5522218 -1.9050733 -0.86814845
7.5508394 -1.9047247 -0.43497282
7.7096434 -1.9447834 0
8.8431692 -2.2307193 0.50941867
7.562037 -1.8978335 -0.86901248
7.5531354 -1.8955996 -0.43497282
7.6665568 -1.9240646 0
8.8786297 -2.2282569 0.51130587
7.5643244 -1.8886949 -0.86901248
7.5503831 -1.885214 -0.43468282
7.6587758 -1.9122779 0
8.9115582 -2.2250783 0.51304698
0 -0 -0
7.5640936 -1.8789306 -0.86872447
7.5526557 -1.8760895 -0.43468282
7.6535015 -1.9011396 0
8.9218082 -2.2161887 0.51348257
7.5663581 -1.8697895 -0.86872447
7.5549169 -1.8669622 -0.43468282
7.660841 -1.8931379 0
8.9219599 -2.2047842 0.51333755
7.5635934 -1.8594118 -0.86814845
7.5571675 -1.8578322 -0.43468282
7.6656575 -1.884503 0
8.9246168 -2.1940019 0.51333755
7.5658345 -1.8502715 -0.86814845
7.5518322 -1.8468471 -0.43424726
7.7159538 -1.886984 0
8.9348364 -2.1850691 0.51377308
7.5543799 -1.8426338 -0.86670613
7.5504246 -1.8416691 -0.43410227
7.8536196 -1.9156232 0
8.9285793 -2.1778228 0.51333755
7.5540895 -1.8328952 -0.86641812
7.5475888 -1.8313179 -0.43381172
7.9115644 -1.9196315 0
8.9261484 -2.1658063 0.51304698
7.5588107 -1.8243724 -0.86670613
7.5598998 -1.8246354 -0.43439227
7.9745946 -1.9247248 0
8.9211884 -2.153192 0.51261199
7.5559845 -1.8140314 -0.86613011
7.5570507 -1.8142873 -0.43410227
7.9946213 -1.9193387 0
8.9086189 -2.1387701 0.51174086
7.5606842 -1.8055003 -0.86641812
7.5465932 -1.8021353 -0.43337616
8.0197239 -1.9151195 0
8.9036217 -2.1261954 0.51130587
7.5578318 -1.795169 -0.8658421
7.5588775 -1.7954174 -0.43395671
8.9335222 -2.1219292 0
8.8910112 -2.1118314 0.51043475
7.5625105 -1.7866297 -0.86613011
7.5534625 -1.7844921 -0.43352172
8.9386101 -2.1117308 0
8.8910303 -2.1004901 0.51028973
7.5671792 -1.7780817 -0.86641812
7.5480218 -1.7735802 -0.43308616
8.9259501 -2.0973558 0
8.8834429 -2.087368 0.50970918
7.5617638 -1.7671705 -0.86555296
7.545094 -1.7632748 -0.43279558
8.9310188 -2.087163 0
8.8884869 -2.0772233 0.5098542
7.5588598 -1.7568623 -0.86497694
7.5522861 -1.7553344 -0.43308616
8.9360666 -2.0769587 0
8.9011145 -2.0688348 0.51043475
7.5584593 -1.7471457 -0.86468893
7.5392065 -1.7426953 -0.43221503
8.93857 -2.0661597 0
8.8960094 -2.0563219 0.50999922
7.5530005 -1.7362726 -0.86382377
7.5565057 -1.7370784 -0.43308616
7.7160702 -1.7737588 0
8.9010277 -2.046155 0.51014477
7.5525737 -1.7265691 -0.86353576
7.5560684 -1.727368 -0.43294114
7.6953764 -1.7592148 0
8.8857594 -2.0313444 0.50912863
7.5622234 -1.7191627 -0.86440092
7.5606818 -1.7188122 -0.43308616
7.6822653 -1.7464525 0
10.149976 -2.307451 0.58140445
7.5617647 -1.709452 -0.86411178
7.5576792 -1.7085283 -0.43279558
7.6691442 -1.7337267 0
30.582245 -6.9135814 1.7513129
7.5638251 -1.7003138 -0.86411178
7.5521398 -1.697687 -0.43236059
7.6763067 -1.7255993 0
30.615932 -6.8823237 1.7527645
7.5658741 -1.6911732 -0.86411178
7.5516424 -1.6879921 -0.43221503
7.8917217 -1.7640088 0
7.6377501 -1.7072394 0.43714336
7.5668941 -1.686602 -0.86411178
7.5526609 -1.6834294 -0.43221503
8.1086874 -1.8073635 0
7.6616035 -1.7077119 0.43844947
7.5613585 -1.6757803 -0.86324775
7.552155 -1.6737406 -0.43207005
8.1388178 -1.8037592 0
7.6661959 -1.6990148 0.43859449
7.5659013 -1.6671987 -0.86353576
7.5567069 -1.6651727 -0.43221503
8.115571 -1.7883222 0
7.6530228 -1.6863965 0.43772393
7.560328 -1.6563944 -0.8626706
7.543489 -1.6527051 -0.43134448
10.019195 -2.1951082 0
7.6347485 -1.6726992 0.43656281
7.5597992 -1.646708 -0.86238259
7.542944 -1.6430366 -0.43119949
8.0156231 -1.7459977 0
8.8909245 -1.9366596 0.5082581
7.5567226 -1.6364764 -0.86180544
7.5550818 -1.636121 -0.43178004
8.0202684 -1.7368613 0
8.8780165 -1.9226143 0.50738698
7.5612302 -1.6278903 -0.86209458
7.5545154 -1.6264447 -0.43163502
8.0071011 -1.7238836 0
8.8727093 -1.9102443 0.50695139
7.5606551 -1.61821 -0.86180544
7.5564752 -1.6173153 -0.43163502
10.024603 -2.1455696 0
8.8724728 -1.8989787 0.50680643
7.5600777 -1.6085354 -0.86151743
7.5558753 -1.6076413 -0.43148947
7.7312508 -1.6449554 0
7.6243825 -1.6222174 0.43540168
7.5645437 -1.5999341 -0.86180544
7.5654411 -1.6001239 -0.43192503
7.6797657 -1.6243039 0
7.654294 -1.6189166 0.4369978
7.5664716 -1.5907927 -0.86180544
7.5597382 -1.589377 -0.43148947
7.6766238 -1.6139513 0
7.6715064 -1.6128755 0.43786892
7.5709271 -1.5821795 -0.86209458
7.5591121 -1.5797104 -0.43134448
7.6785684 -1.6046745 0
7.7166867 -1.6126405 0.44033617
7.5576339 -1.5698731 -0.86036426
7.555932 -1.5695195 -0.43105447
7.6906943 -1.5975125 0
7.7669611 -1.6133547 0.44309339
7.5645962 -1.561787 -0.86094141
7.5527282 -1.5593368 -0.43076393
7.9729662 -1.6460991 0
7.8325219 -1.617103 0.44672173
7.5563431 -1.550566 -0.85978824
7.5444255 -1.5481204 -0.43018335
8.1534014 -1.6730826 0
7.8777399 -1.6165167 0.44918898
7.5556698 -1.5409161 -0.8594991
7.5437469 -1.5384845 -0.43003836
8.1834593 -1.6689487 0
7.8898716 -1.6090738 0.44976953
7.5600681 -1.5323007 -0.85978824
7.5532427 -1.5309173 -0.43047392
8.1778154 -1.6575079 0
7.8790789 -1.5969589 0.44904396
7.5593715 -1.5226525 -0.8594991
7.5627217 -1.5233272 -0.43090892
10.070205 -2.0283992 0
7.891192 -1.5894897 0.44962454
7.5628333 -1.5185958 -0.85978824
7.5585504 -1.5177358 -0.43061891
10.045908 -2.0171905 0
7.9048867 -1.5872792 0.45035008
7.5621185 -1.5089489 -0.8594991
7.5603786 -1.5086017 -0.43061891
7.4580035 -1.4881738 0
7.9093442 -1.5782346 0.45049509
7.5664806 -1.5003151 -0.85978824
7.5621958 -1.4994653 -0.43061891
7.4546957 -1.4781498 0
7.9138017 -1.5691833 0.45064065
7.5632081 -1.4901704 -0.85921109
7.5588984 -1.4893212 -0.43032837
7.4564762 -1.4691411 0
7.8850989 -1.5535922 0.44889897
7.5675387 -1.4815271 -0.8594991
7.558145 -1.4796879 -0.43018335
7.4556947 -1.4596308 0
7.8461695 -1.5360757 0.44657674
7.5617142 -1.470902 -0.85863507
7.554831 -1.469563 -0.42989337
7.4574528 -1.450621 0
7.8123159 -1.5196489 0.44454506
7.5652466 -1.452624 -0.85863507
7.5558009 -1.4508102 -0.42974782
7.46349 -1.4330853 0
7.752172 -1.488516 0.44091672
7.5644579 -1.4429976 -0.85834706
7.5575485 -1.4416795 -0.42974782
7.4549904 -1.4221154 0
7.7003665 -1.4689234 0.43786892
7.5611086 -1.4328922 -0.85776991
7.5567346 -1.4320632 -0.4296028
7.4592581 -1.4135907 0
7.6561866 -1.4509102 0.43525669
7.5679231 -1.424713 -0.85834706
7.5584593 -1.4229313 -0.4296028
7.4584055 -1.4040955 0
7.6247396 -1.4354092 0.43337002
7.5721788 -1.4160426 -0.85863507
7.560173 -1.4137974 -0.4296028
7.4549751 -1.3941249 0
7.593257 -1.4199843 0.43148279
7.5713439 -1.4064201 -0.85834706
7.5593233 -1.4041873 -0.42945781
7.4566545 -1.3851159 0
7.5796437 -1.4079618 0.43061224
0 -0 -0
7.567946 -1.3963311 -0.85776991
7.5584617 -1.3945813 -0.4293128
7.4634461 -1.3770503 0
7.5864549 -1.3997462 0.43090278
7.5670857 -1.3867199 -0.8574819
7.5550246 -1.3845097 -0.42902225
7.45998 -1.367092 0
7.5804706 -1.3891728 0.43046722
7.5611196 -1.3761857 -0.85661674
7.56181 -1.3763114 -0.4293128
7.4616265 -1.3580772 0
7.548912 -1.3739638 0.42858055
7.567872 -1.3679696 -0.85719389
7.5583487 -1.3662481 -0.42902225
7.4632621 -1.3490602 0
7.5173283 -1.3588333 0.42669389
7.5644231 -1.3579094 -0.85661674
7.5523286 -1.3557383 -0.42858726
7.4700146 -1.3409619 0
7.5036144 -1.3469934 0.42582276
7.5686021 -1.3492218 -0.85690475
7.5616279 -1.3479786 -0.42902225
7.4665003 -1.3310205 0
7.507802 -1.3383832 0.42596832
7.5643277 -1.343745 -0.85632873
7.559885 -1.3429558 -0.42887723
7.4570537 -1.3246887 0
7.5213985 -1.3361191 0.42669389
7.5659456 -1.334604 -0.85632873
7.553823 -1.3324656 -0.4284417
7.4586487 -1.3156773 0
7.5383563 -1.3297374 0.42756444
7.5751982 -1.3268002 -0.85719389
7.5631084 -1.3246827 -0.42887723
7.4576721 -1.3062154 0
7.5860233 -1.3286963 0.43017668
7.5793419 -1.3180889 -0.8574819
7.5723863 -1.3168792 -0.4293128
7.4566832 -1.2967578 0
7.610661 -1.3235354 0.43148279
7.5809288 -1.3089297 -0.8574819
7.5560455 -1.3046333 -0.42829669
7.4608068 -1.2881893 0
7.6250648 -1.3165503 0.4322089
7.5748549 -1.2984573 -0.85661674
7.5601749 -1.295941 -0.4284417
7.462358 -1.2791735 0
7.6266503 -1.307336 0.4322089
7.5636716 -1.2871345 -0.85517555
7.559176 -1.2863696 -0.42829669
7.4690342 -1.2710297 0
7.5897975 -1.2915804 0.43003166
7.5652213 -1.2779943 -0.85517555
7.5581651 -1.2768024 -0.4281517
7.4679909 -1.2615693 0
7.5708551 -1.2789462 0.42887056
0 -0 -0
7.5693083 -1.2692796 -0.85546356
7.5622625 -1.2680982 -0.42829669
7.4669456 -1.2521147 0
7.5621448 -1.2680783 0.42829001
0 -0 -0
7.5708365 -1.2601327 -0.85546356
7.5560975 -1.2576795 -0.42786112
7.4658885 -1.2426646 0
7.5764847 -1.2610729 0.42901555
0 -0 -0
7.5672545 -1.2501415 -0.85488755
7.5627437 -1.2493963 -0.4281517
7.462254 -1.232795 0
7.6138997 -1.2578475 0.4310478
7.5661998 -1.2405773 -0.8545984
7.5693717 -1.2410975 -0.4284417
7.4637384 -1.2237774 0
7.6461844 -1.2536919 0.43278947
0 -0 -0
7.5702534 -1.2318507 -0.85488755
7.5657411 -1.2311165 -0.4281517
7.4523606 -1.212667 0
7.6989784 -1.2527972 0.43569168
7.5717363 -1.2227027 -0.85488755
7.5672231 -1.2219739 -0.4281517
7.4563971 -1.2040774 0
7.746665 -1.2509507 0.43830448
0 -0 -0
7.5732083 -1.2135528 -0.85488755
7.5635576 -1.2120064 -0.42786112
7.4604135 -1.1954783 0
7.7430348 -1.2407663 0.43801391
0 -0 -0
7.5746694 -1.2044013 -0.85488755
7.5573254 -1.2016435 -0.42742613
7.4644203 -1.1868713 0
7.7753229 -1.236306 0.43975559
0 -0 -0
7.5710044 -1.194441 -0.85431039
7.5510693 -1.1912959 -0.42699057
7.4581347 -1.1766341 0
7.8692026 -1.2414862 0.44498006
0 -0 -0
7.574995 -1.1856916 -0.8545984
7.5627718 -1.1837784 -0.42757112
7.467267 -1.1688292 0
7.8604379 -1.2303711 0.44440007
0 -0 -0
7.5731568 -1.1807169 -0.85431039
7.5634856 -1.1792091 -0.42757112
7.4679718 -1.1643176 0
7.8637447 -1.2260219 0.44454506
0 -0 -0
7.5771313 -1.1719602 -0.8545984
7.557199 -1.1688774 -0.42713559
7.4616547 -1.1540995 0
7.8677859 -1.216916 0.44469005
0 -0 -0
7.5759878 -1.162412 -0.85431039
7.5714455 -1.161715 -0.42786112
7.4630437 -1.1450826 0
7.8358641 -1.2022858 0.44280338
0 -0 -0
7.5646043 -1.1513116 -0.85286921
7.5625682 -1.1510017 -0.42728058
7.4567108 -1.1348906 0
7.8013515 -1.187344 0.4407717
7.5787749 -1.1441004 -0.85431039
7.569097 -1.1426395 -0.42757112
7.4606476 -1.1262678 0
7.7925034 -1.1763651 0.44019115
0 -0 -0
7.5801516 -1.1349422 -0.85431039
7.5704718 -1.1334928 -0.42757112
7.4671454 -1.1180223 0
7.7913418 -1.1665627 0.4400456
0 -0 -0
7.5789614 -1.1254027 -0.85402238
7.5564194 -1.1220554 -0.42670056
7.4633474 -1.1082351 0
7.7721934 -1.1540958 0.43888503
7.5777593 -1.1158677 -0.85373437
7.5629063 -1.1136805 -0.42699057
7.4621091 -1.0988375 0
0 -0 0
7.579102 -1.1067107 -0.85373437
7.5616775 -1.1041663 -0.42684558
7.4660039 -1.0901959 0
7.7620964 -1.1334317 0.43815893
0 -0 -0
7.5804338 -1.0975519 -0.85373437
7.557858 -1.0942832 -0.42655501
7.4673157 -1.0811739 0
7.7866025 -1.1274027 0.43946505
0 -0 -0
7.5663881 -1.0861858 -0.85200405
7.5591745 -1.0851502 -0.42655501
7.4686165 -1.0721503 0
7.8368311 -1.1250089 0.44222283
7.5728216 -1.0777721 -0.8525812
7.5656304 -1.0767486 -0.42684558
7.4544425 -1.0609243 0
7.8922052 -1.1232271 0.44527063
0 -0 -0
7.5818038 -1.0697054 -0.85344636
7.5694966 -1.067969 -0.42699057
7.4583035 -1.0522809 0
7.8626814 -1.109334 0.44352895
7.5830908 -1.0605435 -0.85344636
7.5656395 -1.0581028 -0.42670056
7.4647193 -1.0439885 0
7.8048348 -1.0915558 0.44019115
7.5920453 -1.0524445 -0.85431039
7.5669127 -1.0489604 -0.42670056
7.4582391 -1.0338956 0
7.7675381 -1.0767721 0.43801391
7.5753822 -1.0408068 -0.85229319
7.573318 -1.0405232 -0.42699057
7.4594831 -1.024883 0
7.76369 -1.0666791 0.43772393
7.5791945 -1.0320014 -0.8525812
7.564271 -1.0299693 -0.42641002
7.4658785 -1.0165719 0
7.7546744 -1.0558951 0.43714336
7.5753045 -1.0221502 -0.85200405
7.5758104 -1.0222185 -0.42699057
7.4619379 -1.0068535 0
7.7456441 -1.0451344 0.43656281
7.5656667 -1.0161961 -0.85085088
7.5661254 -1.0162576 -0.42641002
7.4625449 -1.0023451 0
7.75142 -1.0411458 0.43685281
7.572022 -1.0077368 -0.85142803
7.5673475 -1.0071148 -0.42641002
7.4663377 -0.99367166 0
7.7784348 -1.0352076 0.43830448
7.5886149 -1.0006149 -0.85315722
7.5685592 -0.99797034 -0.42641002
7.4675331 -0.98464936 0
7.7770963 -1.0254675 0.43815893
7.5795598 -0.99010468 -0.85200405
7.5723333 -0.98916078 -0.42655501
7.453229 -0.97360235 0
7.7680235 -1.0147234 0.43757838
7.5781879 -0.98061395 -0.85171604
7.5709486 -0.9796772 -0.42641002
7.4673023 -0.96626544 0
7.753787 -1.0033364 0.43670779
7.5819302 -0.97178495 -0.85200405
7.5798616 -0.97151983 -0.42684558
7.4555602 -0.95558798 0
7.7472591 -0.99297535 0.43627226
7.5882354 -0.96327507 -0.8525812
7.5681434 -0.96072453 -0.42612001
7.4670362 -0.94788963 0
7.7510386 -0.98394179 0.43641782
7.5868301 -0.95378315 -0.85229319
7.5641375 -0.95093036 -0.42582947
7.4552679 -0.9372437 0
7.7444849 -0.97360277 0.43598226
7.5777102 -0.94333714 -0.85114002
7.5704432 -0.94243246 -0.42612001
7.4641452 -0.92919958 0
7.7404933 -0.96360177 0.43569168
0 -0 -0
7.5762701 -0.93386292 -0.85085088
7.5715761 -0.9332844 -0.42612001
7.4704232 -0.92081612 0
7.7339225 -0.95329547 0.43525669
7.5748281 -0.92439479 -0.85056287
7.5597944 -0.92256021 -0.42539391
7.4689498 -0.91147393 0
7.7350688 -0.94394982 0.43525669
7.578505 -0.91555136 -0.85085088
7.5686455 -0.91436023 -0.42582947
7.4622917 -0.90151179 0
7.7439356 -0.93553686 0.43569168
7.582181 -0.90670156 -0.85114002
7.5697446 -0.90521431 -0.42582947
7.4685488 -0.89311302 0
7.7450604 -0.92617917 0.43569168
7.5858374 -0.897843 -0.85142803
7.5579333 -0.89454031 -0.4251039
7.4618669 -0.88317013 0
7.7255301 -0.91437674 0.43453059
0 -0 -0
7.5869164 -0.88867635 -0.85142803
7.5667534 -0.88631457 -0.42553946
7.4603462 -0.87385082 0
7.7214727 -0.9044373 0.43424058
0 -0 -0
7.5864749 -0.87004477 -0.85114002
7.5791993 -0.86921036 -0.42612001
7.4624362 -0.85581952 0
7.7700987 -0.89110339 0.43685281
0 -0 -0
7.5823755 -0.86029363 -0.85056287
7.5724959 -0.85917264 -0.42568445
7.4582877 -0.84621465 0
7.8150592 -0.88669378 0.43932003
7.5777588 -0.855133 -0.84998685
7.5704341 -0.85430646 -0.42553946
7.463975 -0.84229279 0
27.668036 -3.1222756 1.5552399
7.5762086 -0.8456884 -0.84969771
7.5662909 -0.84458137 -0.42524889
7.4572253 -0.832407 0
27.666618 -3.0882647 1.5549493
0 -0 -0
7.5823712 -0.83710158 -0.85027486
7.5776367 -0.83657891 -0.42582947
7.4582257 -0.82339579 0
9.5274029 -1.0518351 0.53539765
0 -0 -0
7.5808086 -0.82765871 -0.84998685
7.5734811 -0.8268587 -0.42553946
7.469564 -0.81551319 0
9.5648251 -1.04427 0.53742933
7.5818033 -0.81849819 -0.84998685
7.5822172 -0.8185429 -0.42597446
7.4601936 -0.80536979 0
9.5686617 -1.0329907 0.53757429
0 -0 -0
7.5776381 -0.80878693 -0.8494097
7.572866 -0.80827761 -0.42539391
7.4611616 -0.79635501 0
9.5905724 -1.0236343 0.53873545
0 -0 -0
7.5837588 -0.80017358 -0.84998685
7.57901 -0.79967248 -0.42568445
7.4621181 -0.78733909 0
9.6564026 -1.0188613 0.54236376
0 -0 -0
7.5898604 -0.79154557 -0.85056287
7.5799708 -0.79051417 -0.42568445
7.4552965 -0.77751189 0
9.6421251 -1.0055759 0.54149324
0 -0 -0
7.5830903 -0.7815783 -0.84969771
7.5860848 -0.78188699 -0.42597446
7.4717679 -0.77010447 0
7.7487979 -0.7986576 0.43511114
0 -0 -0
7.5891805 -0.77293968 -0.85027486
7.5663438 -0.77061385 -0.42481333
7.454567 -0.75922966 0
0 -0 0
0 -0 -0
7.5746632 -0.76221484 -0.84854454
7.5672693 -0.76147085 -0.42481333
7.4710202 -0.75178558 0
7.7119322 -0.7760278 0.43293446
0 -0 -0
7.5833025 -0.7538296 -0.8494097
7.5759435 -0.75309807 -0.42524889
7.4667387 -0.7422424 0
7.7102809 -0.76645207 0.43278947
0 -0 -0
7.5790644 -0.74416107 -0.84883368
7.571681 -0.7434361 -0.42495891
7.4676304 -0.7332198 0
7.7060242 -0.75662684 0.4324989
0 -0 -0
7.58253 -0.73525214 -0.84912169
7.5751576 -0.73453724 -0.4251039
7.4685106 -0.72419608 0
7.7017655 -0.74681395 0.4322089
0 -0 -0
7.5782585 -0.72559607 -0.84854454
7.5734553 -0.72513616 -0.42495891
7.4642038 -0.71467566 0
7.6897216 -0.73626834 0.43148279
0 -0 -0
7.5791297 -0.71643871 -0.84854454
7.5691471 -0.71549505 -0.42466834
7.4598751 -0.7051658 0
7.6569781 -0.72379756 0.42959613
0 -0 -0
7.5851455 -0.70776135 -0.84912169
7.5803552 -0.70731437 -0.42524889
7.471087 -0.69711864 0
7.6811395 -0.71671844 0.43090278
0 -0 -0
7.5756927 -0.69764692 -0.84796852
7.5734391 -0.69743937 -0.42481333
7.4641466 -0.68737459 0
7.7052851 -0.70958108 0.4322089
0 -0 -0
7.5868335 -0.68942893 -0.84912169
7.5742764 -0.68828785 -0.42481333
7.4572039 -0.67764926 0
7.7138925 -0.700975 0.43264389
0 -0 -0
7.5898223 -0.68507749 -0.8494097
7.56952 -0.68324494 -0.42452335
7.4783473 -0.67501551 0
7.7246666 -0.69724888 0.43322447
0 -0 -0
7.575192 -0.67453021 -0.84768051
7.5729256 -0.67432845 -0.42466834
7.4610095 -0.66436291 0
7.7255034 -0.68791461 0.43322447
0 -0 -0
7.5785751 -0.66560262 -0.84796852
7.5815029 -0.66585976 -0.4251039
7.464397 -0.65557468 0
9.183569 -0.80656427 0.51493365
0 -0 -0
7.5819483 -0.65666789 -0.84825653
7.5771194 -0.65624964 -0.42481333
7.4625931 -0.6463306 0
9.1664228 -0.79389828 0.5139181
0 -0 -0
7.5853109 -0.64772594 -0.84854454
7.5727339 -0.64665198 -0.42452335
7.4763317 -0.63841999 0
9.1647892 -0.782601 0.51377308
0 -0 -0
7.5809383 -0.63812667 -0.84796852
7.5735097 -0.63750136 -0.42452335
7.4719157 -0.62894964 0
9.1605444 -0.77109027 0.51348257
0 -0 -0
7.5945897 -0.6300351 -0.8494097
7.5716872 -0.62813514 -0.42437834
7.4493203 -0.61798376 0
7.7605929 -0.64380646 0.43496615
0 -0 -0
7.5901942 -0.62043703 -0.84883368
7.5802026 -0.61962026 -0.42481333
7.4604373 -0.60983038 0
7.7639523 -0.63464034 0.43511114
0 -0 -0
7.5909386 -0.6112653 -0.84883368
7.580946 -0.61046064 -0.42481333
7.4637699 -0.60102499 0
7.762126 -0.62505025 0.43496615
0 -0 -0
7.5839338 -0.60147899 -0.84796852
7.5816779 -0.60130006 -0.42481333
7.4618893 -0.59179968 0
7.7784224 -0.61690384 0.43583724
0 -0 -0
7.5820789 -0.59211367 -0.84768051
7.5720367 -0.59132946 -0.42423278
7.4625988 -0.58278298 0
7.7273512 -0.60345852 0.43293446
0 -0 -0
7.5827889 -0.58295178 -0.84768051
7.5701575 -0.58198071 -0.42408779
7.4607053 -0.5735662 0
7.7125249 -0.59292567 0.43206334
0 -0 -0
7.583488 -0.57378906 -0.84768051
7.5734434 -0.57302904 -0.42423278
7.466588 -0.56494403 0
