# .PCD v0.7 - Point Cloud Data file format
VERSION 0.7
FIELDS x y z
SIZE 4 4 4
TYPE F F F
COUNT 1 1 1
WIDTH 1572
HEIGHT 1
VIEWPOINT 0 0 0 1 0 0 0
POINTS 1572
DATA ascii
-3.7356911 6.4136076 -0.82729232
-3.1312439 5.3758645 -0.34749821
-0 0 0
-6.4829664 11.130257 0.7194646
-1.4423834 2.4694848 -0.94298613
-1.6455988 2.8174071 -0.90019327
-1.9332831 3.3099475 -0.8491655
-2.2669067 3.8811402 -0.74932671
-3.7303903 6.3867502 -0.82440883
-3.1429794 5.381052 -0.34807876
-2.2583499 3.8664896 0
-6.5068946 11.140365 0.7206257
-1.4328772 2.4464171 -0.93483806
-1.6578736 2.830564 -0.90503645
-1.9385689 3.309808 -0.84973001
-2.2508416 3.8429654 -0.74248087
-3.7394159 6.3844767 -0.82469797
-3.1455381 5.3705215 -0.3476432
-0 0 0
-6.5229797 11.136983 0.72091627
-1.4345769 2.4425466 -0.93402076
-1.6638361 2.8328893 -0.90642208
-1.9425668 3.3074632 -0.84973001
-2.2671826 3.8601623 -0.74633217
-2.2447512 3.82197 -0.4940429
-2.2927523 3.9036977 -0.25287229
-2.2716372 3.8677466 0
-6.5535378 11.158218 0.72280294
-1.4362741 2.4386837 -0.93320656
-1.653252 2.807096 -0.89880764
-1.9465618 3.3051136 -0.84973001
-0 0 -0
-2.2703691 3.8549137 -0.49865559
-2.2921929 3.8919687 -0.25229171
-2.2855554 3.8806984 0
-6.5801997 11.172678 0.72425407
-1.4304204 2.4220474 -0.92750102
-1.6553681 2.8029382 -0.89811611
-1.9479673 3.2983792 -0.84860313
-0 0 -0
-2.2671361 3.8388093 -0.4969264
-2.2995341 3.8936665 -0.25258172
-2.2915647 3.8801727 0
-6.6042662 11.182618 0.72541517
-1.4459428 2.4415877 -0.93565226
-1.6613081 2.805249 -0.89949912
-1.9571303 3.3047681 -0.85085469
-2.2667704 3.8276198 -0.74162412
-0 0 -0
-2.3002687 3.8841844 -0.25214672
-2.2644296 3.8236668 0
-6.62572 11.188048 0.72628629
-1.4400566 2.4249609 -0.92994666
-1.6634166 2.8010845 -0.89880764
-1.9559325 3.2936621 -0.84860313
-2.2727032 3.8270831 -0.74205166
-0 0 -0
-2.3036296 3.8791614 -0.25200117
-0 0 0
-6.647192 11.193436 0.72715688
-1.4695404 2.4678128 -0.94706017
-1.6565313 2.7818284 -0.89327031
-1.9586121 3.2891152 -0.84804082
-2.2852087 3.8375721 -0.74462032
-0 0 -0
-0 0 -0
-0 0 0
-6.6553941 11.176465 0.72657627
-1.4611182 2.4469388 -0.93972629
-1.6817554 2.8164403 -0.90503645
-1.9586756 3.2801995 -0.84635162
-2.3148458 3.8766785 -0.75275046
-0 0 -0
-0 0 -0
-0 0 0
-6.671556 11.172873 0.7268663
-1.4577265 2.4345708 -0.93565226
-1.6735594 2.7950366 -0.89880764
-1.9678589 3.2865503 -0.84860313
-2.3445857 3.9157274 -0.76088226
-2.2956018 3.8339188 -0.49807957
-0 0 -0
-0 0 0
-6.6423407 11.093472 0.72222239
-1.4543071 2.4222145 -0.93157816
-1.6756452 2.7908635 -0.89811611
-1.9692153 3.2798176 -0.84747845
-2.3519557 3.917289 -0.76173735
-2.3028929 3.835573 -0.49865559
-0 0 -0
-0 0 0
-6.6597543 11.092124 0.72265792
-1.4495814 2.4077468 -0.92668682
-1.6880754 2.803884 -0.90296191
-1.9784191 3.2861431 -0.84973001
-2.3593378 3.9188468 -0.7625941
-2.3155277 3.8460786 -0.50038481
-2.3189847 3.8518207 -0.25113061
-2.3122218 3.8405876 0
-6.6704688 11.079612 0.72236741
-1.4844228 2.4588895 -0.94706017
-1.6901618 2.7996883 -0.90226775
-1.9784474 3.2772224 -0.84804082
-2.3667221 3.9203844 -0.76344925
-3.8413179 6.3629956 -0.82844549
-2.3075221 3.8223217 -0.24938893
-2.3061004 3.819967 0
-6.6865401 11.075997 0.72265792
-1.4782387 2.4453053 -0.94217193
-1.6892596 2.7943769 -0.90088481
-1.9830534 3.2803712 -0.8491655
-2.3677635 3.916759 -0.76302165
-3.8424826 6.3562427 -0.82786834
-3.2615318 5.3952327 -0.35214266
-5.2056499 8.6111965 0
-6.6730647 11.038598 0.72048074
-1.4683777 2.4223773 -0.93402076
-1.6822311 2.7751706 -0.89534748
-1.9896525 3.2823226 -0.85029233
-2.3751583 3.9182899 -0.76387841
-3.8514996 6.3538046 -0.82815635
-3.2774734 5.406836 -0.35315824
-5.2173986 8.6071234 0
-6.6661973 10.997202 0.71830404
-1.4690821 2.4103796 -0.93076086
-1.690237 2.7732372 -0.89603901
-1.9949315 3.2731612 -0.8491655
-2.3806109 3.9059606 -0.7625941
-3.876267 6.359941 -0.83017468
-3.2972906 5.4099917 -0.35388377
-5.2341242 8.5878296 0
-6.6873446 10.972185 0.71772349
-1.4591073 2.3875175 -0.92261279
-1.6948937 2.7733316 -0.89673048
-1.9975613 3.2685823 -0.84860313
-2.3880036 3.9074578 -0.76344925
-3.9068766 6.3927689 -0.83507538
-3.3078914 5.4126573 -0.35431933
-5.2363515 8.5681705 0
-6.6802711 10.930837 0.71554625
-1.4671568 2.3941822 -0.92587262
-1.6982436 2.7712817 -0.89673048
-1.9975252 3.2596648 -0.84691393
-2.386018 3.8936276 -0.7613098
-3.4064851 5.5588784 -0.72668296
-3.3185034 5.4153051 -0.35475489
-5.2331052 8.5396519 0
-6.6907611 10.91833 0.71525627
-1.4881614 2.4218853 -0.9372806
-1.6989666 2.7649567 -0.89534748
-1.9961414 3.2485893 -0.84466243
-2.3947542 3.8973053 -0.7625941
-3.4199686 5.5657744 -0.7281242
-3.3250444 5.4112916 -0.35475489
-5.236609 8.5222378 0
-6.7025847 10.908017 0.71511072
-1.5014588 2.4369195 -0.94380033
-1.7128342 2.779989 -0.90088481
-2.0067334 3.2569976 -0.84747845
-2.39273 3.8834834 -0.76045471
-3.4361899 5.577055 -0.73014247
-3.332942 5.4094801 -0.35489988
-5.2509995 8.5225534 0
-6.7171268 10.902129 0.71525627
-1.492712 2.4161811 -0.9364664
-1.7148747 2.7757852 -0.90019327
-2.0079939 3.2502429 -0.84635162
-2.3960674 3.8783991 -0.7600255
-3.4442842 5.5750971 -0.73043048
-3.3531303 5.4275508 -0.35635102
-5.2503505 8.4984894 0
-6.7261968 10.887371 0.71482068
-1.4969308 2.4164748 -0.9372806
-1.7235121 2.7822418 -0.90296191
-2.0079041 3.2413323 -0.84466243
-2.4061594 3.8842301 -0.76173735
-3.4333124 5.5423493 -0.72668296
-3.3610585 5.4257107 -0.35649657
-5.2537589 8.4810715 0
-6.7311344 10.865977 0.71394956
-1.4907244 2.3999736 -0.93157816
-1.7268726 2.7801573 -0.90296191
-2.0145032 3.2432246 -0.84578925
-2.4081447 3.8769629 -0.76088226
-3.4386435 5.5360017 -0.72639495
-3.3634975 5.4150214 -0.35606101
-5.2681236 8.4813509 0
-6.7524877 10.871084 0.71482068
-1.4988499 2.4065626 -0.93483806
-1.7222703 2.7652876 -0.89880764
-2.0237937 3.2494154 -0.84804082
-2.4141834 3.8762271 -0.7613098
-3.446696 5.5340362 -0.72668296
-3.3672931 5.4065461 -0.35577101
-5.2687359 8.4595137 0
-6.7614956 10.856298 0.71438515
-1.4978279 2.3984585 -0.93239236
-1.7123241 2.7419295 -0.89188737
-2.0236795 3.2405 -0.84635162
-2.4215872 3.8776662 -0.76216656
-3.4520116 5.5276756 -0.72639495
-3.3834541 5.4178953 -0.35678658
-5.2706852 8.4399014 0
-6.7649727 10.83269 0.71336901
-1.4954779 2.3882675 -0.92913252
-1.7289479 2.7611175 -0.89880764
-2.0275936 3.2380524 -0.84635162
-2.4221826 3.8682082 -0.76088226
-3.464179 5.5322695 -0.72754812
-3.3817265 5.4005933 -0.35591602
-5.2739744 8.4224997 0
-0 0 0
-1.5049326 2.3969231 -0.93320656
-1.7389517 2.7696478 -0.90226775
-2.0328543 3.2377498 -0.84691393
-2.4268546 3.8652785 -0.76088226
-3.4694872 5.5258908 -0.72726011
-3.3910103 5.4009004 -0.356206
-5.2813773 8.4117088 0
-5.1691041 8.2328901 0.54298449
-1.4880798 2.3637342 -0.92098445
-1.730269 2.7484388 -0.89603901
-2.0421798 3.2438924 -0.8491655
-2.4369938 3.8710332 -0.7625941
-3.467891 5.5085573 -0.72552979
-3.3726182 5.3572216 -0.35359377
-5.2873816 8.3987198 0
-5.173511 8.2178421 0.54240394
-1.5146798 2.3995514 -0.93565226
-1.7322508 2.7442267 -0.89534748
-2.0325377 3.2199402 -0.84353775
-2.4334452 3.8550568 -0.7600255
-3.4855895 5.5218606 -0.72783613
-3.366607 5.3333688 -0.35228765
-5.2975259 8.3923254 0
-5.1889849 8.2203741 0.54298449
-1.5162575 2.395633 -0.93483806
-1.7489799 2.7633259 -0.90226775
-2.0459404 3.232513 -0.84747845
-2.443593 3.86079 -0.76173735
-3.4991741 5.5285707 -0.72927731
-3.3730488 5.3292971 -0.35228765
-5.2951374 8.3661289 0
-5.2086372 8.2294617 0.54400003
-1.5098794 2.379189 -0.92913252
-1.7442546 2.7485054 -0.89811611
-2.045759 3.2236004 -0.84578925
-2.445508 3.8535039 -0.76088226
-3.500308 5.5156031 -0.7281242
-3.3780949 5.3230257 -0.35214266
-5.2996645 8.350935 0
-5.2478147 8.2692327 0.54704785
-1.5180606 2.385704 -0.93239236
-1.7394907 2.7336922 -0.89396185
-2.0455592 3.2146928 -0.84410006
-2.4501624 3.8505461 -0.76088226
-3.4944744 5.4917321 -0.72552979
-3.3914976 5.3298993 -0.35286823
-5.309751 8.3445253 0
-5.3010478 8.3308477 0.55154729
-1.5036613 2.3567827 -0.92179859
-1.7427926 2.7315884 -0.89396185
-2.0549085 3.220787 -0.84635162
-2.4506698 3.8410885 -0.75959796
-3.4788487 5.4526181 -0.72091717
-3.4188957 5.3586497 -0.3550449
-5.332427 8.3578472 0
-0 0 0
-1.5210526 2.3808677 -0.93157816
-1.7444426 2.730535 -0.89396185
-2.0582206 3.2216842 -0.84691393
-2.458518 3.8482604 -0.7613098
-3.4710023 5.4330783 -0.71861082
-3.4375222 5.3806725 -0.35664156
-0 0 0
-6.8269134 10.686007 0.70828956
-1.5265921 2.3831866 -0.93320656
-1.7545106 2.7389939 -0.89742464
-2.0675941 3.2277532 -0.8491655
-2.4617827 3.8431273 -0.76088226
-3.4580355 5.3983927 -0.71457523
-3.4468215 5.3808866 -0.35693157
-0 0 0
-0 0 0
-1.5254623 2.3750994 -0.93076086
-1.7537503 2.7305372 -0.89534748
-2.0481508 3.18891 -0.83959699
-2.4636474 3.8358259 -0.7600255
-4.0278225 6.2712002 -0.83075076
-3.4378784 5.3526745 -0.35533544
-0 0 0
-0 0 0
-1.5350258 2.3836505 -0.93483806
-1.7747051 2.7558341 -0.90434492
-2.0520024 3.1864328 -0.83959699
-2.4696743 3.8350108 -0.76045471
-4.0298009 6.2576385 -0.82959867
-3.4471545 5.3528814 -0.35562545
-0 0 0
-7.4649005 11.591801 0.77011591
-1.5231559 2.3589518 -0.92587262
-1.763063 2.7305021 -0.89673048
-2.0572336 3.1860919 -0.8401615
-2.4729099 3.8298609 -0.7600255
-4.0303402 6.2418942 -0.82815635
-3.4479818 5.3399806 -0.3550449
-0 0 0
-7.4789014 11.582772 0.77011591
-1.5206323 2.3488107 -0.92261279
-1.7718146 2.7367938 -0.89949912
-2.0652204 3.1899965 -0.84184855
-2.478935 3.8290312 -0.76045471
-4.0308523 6.2261658 -0.82671517
-3.4374859 5.3096356 -0.35330322
-0 0 0
-7.4999509 11.584631 0.77084148
-1.5463451 2.3822129 -0.9364664
-1.7655624 2.7199268 -0.894656
-2.0621574 3.1768444 -0.83903468
-2.4793653 3.8195715 -0.75917035
-4.0355587 6.2169561 -0.82613915
-3.4509771 5.3163824 -0.35402933
-0 0 0
-7.5224342 11.588642 0.7717126
-1.5397836 2.36584 -0.93076086
-1.7674752 2.7156827 -0.89396185
-2.070154 3.1807413 -0.84072387
-2.4867766 3.8208718 -0.7600255
-4.0458865 6.2164068 -0.82671517
-3.4843252 5.353581 -0.35678658
-0 0 0
-7.5562725 11.610029 0.77374423
-1.5291365 2.3432829 -0.92261279
-1.7872076 2.7387571 -0.90226775
-2.0726085 3.1761117 -0.8401615
-2.4885886 3.8135688 -0.75917035
-4.0533953 6.2115135 -0.82671517
-3.5887673 5.4995074 -0.36680049
-0 0 0
-7.5759754 11.609594 0.77432483
-1.5536183 2.3745255 -0.93565226
-1.7767825 2.7156062 -0.89534748
-2.0708799 3.1651001 -0.83790994
-2.490381 3.8062587 -0.7583136
-4.0524035 6.1936293 -0.82498598
-3.6352446 5.5560498 -0.37086439
-0 0 0
-6.7606239 10.33283 0.68971282
-1.5347948 2.3395808 -0.92261279
-1.7731833 2.702971 -0.89188737
-2.0733051 3.1604648 -0.83734548
-2.4992039 3.8096881 -0.75959796
-4.0613017 6.1908884 -0.82527399
-3.6319768 5.5364428 -0.36984828
-0 0 0
-6.7617021 10.307272 0.68855172
-1.5579952 2.3687012 -0.93483806
-1.794369 2.7280726 -0.90088481
-2.0841079 3.1685777 -0.8401615
-2.5052147 3.8088081 -0.7600255
-4.0773044 6.1989384 -0.82700318
-3.6429491 5.5385652 -0.37028384
-0 0 0
-6.7941394 10.329484 0.69058341
-1.5363607 2.3296731 -0.92016709
-1.7893744 2.7133324 -0.89673048
-2.087935 3.1660573 -0.8401615
-2.5084031 3.8036373 -0.75959796
-4.0862198 6.1961727 -0.82729232
-3.6496387 5.5341592 -0.37028384
-0 0 0
-2.6081929 3.9549546 0.2646212
-1.5718914 2.3772953 -0.93972629
-1.7843521 2.6986163 -0.89257884
-2.0861535 3.1550541 -0.83790994
-2.5101681 3.7963252 -0.75874281
-4.0865669 6.1804371 -0.82585001
-3.6434259 5.5102401 -0.36897773
-0 0 0
-2.6101062 3.9474695 0.26433119
-1.5652016 2.3609719 -0.93402076
-1.7834516 2.6901832 -0.89050168
-2.0913668 3.1546469 -0.83847231
-2.5161705 3.7954268 -0.75917035
-4.0954652 6.1776567 -0.82613915
-3.6314175 5.4776807 -0.36709106
-0 0 0
-2.7067585 4.0829124 0.27361956
-1.5571078 2.342612 -0.92750102
-1.7908684 2.6942964 -0.89257884
-2.1022084 3.1626959 -0.84128618
-2.519335 3.7902479 -0.75874281
-4.1100841 6.1834717 -0.82758033
-3.6236522 5.451653 -0.36563993
-0 0 0
-2.7131269 4.0818009 0.27376455
-1.5709026 2.3571827 -0.93402076
-1.8052528 2.7088315 -0.89811611
-2.0989842 3.1495836 -0.83847231
-2.5210631 3.7829247 -0.75788605
-4.1189857 6.1806512 -0.82786834
-3.5898886 5.3867269 -0.36157602
-4.2265406 6.342041 0
-2.6950009 4.0439229 0.27144232
-1.5751268 2.3573437 -0.93483806
-1.7945893 2.6857927 -0.89119583
-2.101378 3.1449344 -0.83790994
-2.529912 3.7862811 -0.75917035
-4.1293273 6.179975 -0.82844549
-3.5992794 5.3867021 -0.36186603
-0 0 0
-5.3011551 7.9337392 0.53297001
-1.5752201 2.3513281 -0.93320656
-1.8103987 2.7023787 -0.89742464
-2.1080022 3.146611 -0.83903468
-2.531625 3.7789519 -0.7583136
-4.1353478 6.1728258 -0.82815635
-3.5783112 5.3413386 -0.35910881
-0 0 0
-5.2818184 7.8841605 0.53006774
-1.5587691 2.3207026 -0.92179859
-1.819258 2.7085197 -0.90019327
-2.1047204 3.1335173 -0.83622074
-2.5390546 3.7801561 -0.75917035
-4.1442499 6.1699781 -0.82844549
-3.6021488 5.3628955 -0.36085048
-0 0 0
-2.7110896 4.0362825 0.27158731
-1.5615489 2.3218093 -0.92261279
-1.8068905 2.6865985 -0.89327031
-2.1137018 3.1427851 -0.83903468
-2.5370388 3.772229 -0.75788605
-4.1566348 6.1803465 -0.83017468
-3.6053879 5.3607183 -0.36085048
-4.27947 6.3629856 0
-2.7497797 4.0885458 0.27521569
-1.571261 2.3301651 -0.92668682
-1.8143445 2.6906555 -0.89534748
-2.1132348 3.1339068 -0.83734548
-2.5415947 3.7691607 -0.75788605
-4.1525311 6.1581635 -0.82786834
-3.6176739 5.3649755 -0.36143103
-4.2449613 6.2952366 0
-2.7271199 4.0442924 0.27245843
-1.5713094 2.3241737 -0.92505848
-1.8119738 2.6801479 -0.89257884
-2.1155982 3.1292481 -0.83678311
-2.5475836 3.7682116 -0.7583136
-4.1657634 6.1617126 -0.82902151
-3.6197863 5.3541403 -0.36099547
-4.2685943 6.3138127 0
-2.758198 4.0797381 0.27507067
-1.5727313 2.3202293 -0.92424428
-1.8236541 2.6904125 -0.89673048
-2.116529 3.1224871 -0.83565843
-2.5550184 3.7693846 -0.75917035
-4.1703057 6.1523967 -0.82844549
-3.6481235 5.3820281 -0.36317271
-4.219276 6.2246413 0
-2.7500055 4.0570464 0.27376455
-1.5796974 2.3244541 -0.92668682
-1.8113961 2.6653883 -0.88911867
-2.1188681 3.1178198 -0.83509392
-2.559571 3.7662945 -0.75917035
-4.1820941 6.1537647 -0.82930952
-3.6502411 5.3711667 -0.36273715
-4.2048559 6.1872573 0
-2.7636662 4.0666113 0.27463511
-1.5811144 2.320503 -0.92587262
-1.820266 2.6714907 -0.89188737
-2.1340797 3.1320558 -0.83959699
-2.5597823 3.7568328 -0.75788605
-4.1880717 6.1465716 -0.82902151
-3.6508758 5.3581624 -0.3621566
-4.187418 6.1456122 0
-2.7641926 4.0568328 0.27420011
-1.5811315 2.3145132 -0.92424428
-1.8333945 2.6837842 -0.89673048
-2.1364307 3.1273787 -0.83903468
-2.5672188 3.7579803 -0.75874281
-4.1911173 6.1350975 -0.82815635
-3.6690733 5.3709121 -0.3633177
-4.2080517 6.1598864 0
-2.7808185 4.0706549 0.27536124
-1.5657665 2.2860858 -0.91364735
-1.821046 2.6588047 -0.88911867
-2.1315961 3.112221 -0.83565843
-2.5674045 3.7485199 -0.75745851
-4.2058392 6.1407046 -0.82959867
-3.6799667 5.3729081 -0.36375326
-4.2419596 6.1934419 0
-2.8106952 4.1037345 0.27782845
-1.6077029 2.3412416 -0.9364664
-1.8370373 2.6752136 -0.89534748
-2.1439822 3.1222067 -0.83903468
-2.5762928 3.7517655 -0.75874281
-4.2117877 6.1334801 -0.82930952
-3.6967483 5.3834457 -0.36476883
-4.2965827 6.2569642 0
-2.8185906 4.1046152 0.27811846
-1.599318 2.3230112 -0.92994666
-1.827466 2.6543963 -0.88911867
-2.1419897 3.1112423 -0.83678311
-2.5808241 3.7486498 -0.75874281
-4.2221317 6.1326513 -0.82988667
-3.7032504 5.3789754 -0.36476883
-4.3188953 6.2732 0
-2.8176541 4.0926456 0.27753791
-1.5951049 2.3109083 -0.92587262
-1.8406439 2.6666329 -0.89396185
-2.1428635 3.1044736 -0.83565843
-2.5780618 3.7349675 -0.75660342
-4.2310066 6.1296716 -0.83017468
-3.7127023 5.3787775 -0.36505938
-4.3604708 6.3172326 0
-2.8152182 4.0785475 0.27681234
-1.5908649 2.2988193 -0.92179859
-1.8495752 2.6726587 -0.89673048
-2.1552858 3.1144145 -0.83903468
-2.5898757 3.7424021 -0.75874281
-4.2398806 6.1266794 -0.83046269
-3.7354598 5.3977852 -0.3666555
-4.4125271 6.3761559 0
-2.8334508 4.0943713 0.27811846
-1.586598 2.2867439 -0.91772455
-1.8356471 2.6456952 -0.8884272
-2.1532536 3.1034575 -0.83678311
-2.5870802 3.7287264 -0.75660342
-4.2443347 6.1173062 -0.82988667
-3.7449446 5.3975415 -0.36694604
-4.4291325 6.3836527 0
-2.8502462 4.1080241 0.27927959
-1.5978256 2.2969952 -0.92261279
-1.8374058 2.6414099 -0.88773304
-2.1497486 3.090426 -0.83396924
-2.5857201 3.7171681 -0.75489151
-4.2561498 6.1185369 -0.83075076
-3.7544286 5.397275 -0.36723605
-3.7814894 5.4361768 0
-2.8596606 4.1109781 0.27971515
-1.597775 2.291012 -0.92098445
-1.8420354 2.6412513 -0.8884272
-2.1607473 3.0982449 -0.83678311
-2.5946109 3.7203519 -0.75617421
-4.2546649 6.1006646 -0.82902151
-3.7550018 5.3842092 -0.3666555
-3.8148494 5.4700232 0
-2.8750265 4.1224332 0.28073069
-1.6203675 2.3174341 -0.93239236
-1.8452255 2.6390238 -0.8884272
-2.1644893 3.0956316 -0.83678311
-2.6049883 3.7256293 -0.75788605
-4.2531438 6.0828052 -0.82729232
-3.7659731 5.3860588 -0.36709106
-3.8110154 5.4504776 0
-2.8800056 4.1189561 0.28073069
-1.6118165 2.2992835 -0.92587262
-1.8599279 2.6532187 -0.89396185
-2.162394 3.0846918 -0.83453155
-2.6021218 3.7119708 -0.75574666
-4.2708788 6.0924811 -0.82930952
-3.7694924 5.3772445 -0.36680049
-3.8265646 5.4586592 0
-2.8924425 4.1261182 0.2814568
-1.5904348 2.2629597 -0.91201901
-1.8674616 2.657129 -0.89603901
-2.1675794 3.0841534 -0.83509392
-2.6051304 3.7067256 -0.75531906
-3.8692675 5.5054107 -0.75003326
-3.7774854 5.3748183 -0.36694604
-3.8241758 5.4412518 0
-2.9019039 4.1289916 0.28189182
-1.6145238 2.2913446 -0.92424428
-1.8605597 2.6405208 -0.89119583
-2.1698422 3.079457 -0.83453155
-2.6169991 3.7140656 -0.75745851
-3.8356965 5.4436507 -0.7422502
-3.7944496 5.3851123 -0.36796162
-3.8307478 5.4366274 0
-2.9188645 4.1424751 0.28305292
-1.6130116 2.2833343 -0.92179859
-1.8579588 2.6300745 -0.8884272
-2.1808903 3.0872073 -0.83734548
-2.6185255 3.7067113 -0.75660342
-3.836302 5.4305615 -0.74109703
-3.8294411 5.4208493 -0.3707194
-3.820801 5.4086189 0
-2.9238677 4.1389451 0.28305292
-1.6243378 2.2934816 -0.92668682
-1.8553355 2.6196384 -0.88565856
-2.1816847 3.0804269 -0.83622074
-2.6215143 3.7014437 -0.75617421
-3.8413675 5.4238138 -0.74080902
-3.8840406 5.484066 -0.37536332
-3.8092835 5.3785129 0
-2.9333737 4.1417727 0.28348848
-1.6385893 2.3106427 -0.93402076
-1.851113 2.6103313 -0.88288993
-2.1761978 3.068747 -0.83340687
-2.6252394 3.7019594 -0.75660342
-4.2934737 6.0544062 -0.82729232
-3.8963747 5.4944401 -0.37623441
-3.8155403 5.3804522 0
-2.952405 4.1633091 0.28508461
-1.6184709 2.2764387 -0.92098445
-1.8644373 2.6223996 -0.88773304
-2.1887352 3.0785365 -0.83678311
-2.6282189 3.6966863 -0.75617421
-3.8347042 5.3936524 -0.73763752
-3.9331238 5.5320835 -0.37913722
-3.8235452 5.3779569 0
-2.9529209 4.1533914 0.28464961
-1.6226536 2.2764924 -0.92179859
-1.8850785 2.6446598 -0.89603901
-2.1895068 3.0717554 -0.83565843
-2.6326835 3.6935079 -0.75617421
-4.3110919 6.0482211 -0.82786834
-3.9624245 5.5590601 -0.38131389
-3.8511915 5.4030066 0
-2.9654768 4.160398 0.28537515
-1.6354581 2.2886004 -0.92750102
-1.8693119 2.6158471 -0.88704157
-2.1887834 3.0629036 -0.83396924
-2.6386414 3.6924188 -0.75660342
-4.3198991 6.0451097 -0.82815635
-3.9948204 5.5902061 -0.38378111
-3.8546879 5.3941102 0
-2.9810786 4.1716127 0.28639129
-1.635222 2.2766197 -0.92424428
-1.8844122 2.6235516 -0.89119583
-2.1932113 3.0534739 -0.83284235
-2.6475568 3.6860313 -0.75660342
-4.3344955 6.0346527 -0.82815635
-4.0356007 5.6185203 -0.38639334
-3.8525326 5.3636456 0
-2.998729 4.1749468 0.28711683
-1.6495205 2.2906799 -0.93076086
-1.8890454 2.6233068 -0.89188737
-2.1983883 3.0528896 -0.83340687
-2.6460083 3.6744969 -0.75489151
-4.3432999 6.0315161 -0.82844549
-4.0393529 5.6094265 -0.38610336
-3.8681326 5.371654 0
-3.0007317 4.167099 0.28682628
-1.6551834 2.292697 -0.93239236
-1.8760591 2.5986454 -0.88427287
-2.2035613 3.052289 -0.83396924
-2.645937 3.665051 -0.75360721
-4.3566403 6.0346518 -0.82959867
-4.0476475 5.6066465 -0.38624835
-3.8609118 5.3479877 0
-3.0285807 4.1950741 0.28900349
-1.6434639 2.2706771 -0.92424428
-1.8850814 2.604506 -0.88704157
-2.207248 3.0496242 -0.83396924
-2.6609008 3.67641 -0.75660342
-4.353312 6.0147142 -0.82758033
-0 0 -0
-3.8841572 5.3665113 0
-3.0351694 4.1935148 0.28914851
-1.652007 2.2766838 -0.92750102
-1.8896991 2.604255 -0.88773304
-2.2079437 3.0428381 -0.83284235
-2.6638293 3.6711085 -0.75617421
-4.3423476 5.9843287 -0.82412082
-0 0 -0
-3.9013336 5.3765526 0
-3.0493934 4.202467 0.29001963
-1.6387671 2.2527061 -0.91853875
-1.8987478 2.6100845 -0.89050168
-2.2175977 3.0483868 -0.83509392
-2.6592052 3.6554356 -0.75360721
-4.2887192 5.895422 -0.81259024
-0 0 -0
-3.9047682 5.3676295 0
-3.0605776 4.2071762 0.29059961
-1.6502234 2.262702 -0.92342699
-1.8974695 2.6017134 -0.8884272
-2.2167921 3.0395522 -0.83340687
-2.6651313 3.6542919 -0.75403476
-4.2318306 5.8024702 -0.80048251
-0 0 -0
-3.9296534 5.3881397 0
-3.0717835 4.2118726 0.29118019
-1.6587914 2.2686872 -0.92668682
-1.8961682 2.5933414 -0.88635004
-2.2204633 3.0368714 -0.83340687
-2.6756055 3.659358 -0.75574666
-4.1564045 5.6846094 -0.78491527
-4.0676441 5.5632143 -0.38494223
-0 0 0
-3.0753384 4.2060623 0.29103518
-1.6454624 2.2447593 -0.91772455
-1.9081967 2.6031847 -0.89050168
-2.2196231 3.0280364 -0.83171767
-2.6769927 3.6519854 -0.75489151
-4.1372766 5.6441221 -0.78001457
-4.0820432 5.5687718 -0.3856678
-0 0 0
-3.0942426 4.2212029 0.29234129
-1.6540279 2.250736 -0.92098445
-1.915799 2.6069438 -0.89257884
-2.2292988 3.0335422 -0.83396924
-2.6783602 3.6446071 -0.75403476
-4.1486897 5.6453738 -0.78087974
-4.0980043 5.5764027 -0.38653889
-0 0 0
-3.1054959 4.2258363 0.29292184
-1.6567464 2.2487359 -0.92098445
-1.8906785 2.5662568 -0.87942976
-2.2299457 3.026751 -0.83284235
-2.6842833 3.6434329 -0.7544623
-4.1846528 5.6799154 -0.78635645
-4.1109042 5.5798149 -0.38711947
-0 0 0
-3.1090598 4.2199907 0.29277685
-1.6506488 2.2348001 -0.91609305
-1.9071912 2.5821304 -0.88565856
-2.2366233 3.028146 -0.83396924
-2.68716 3.638124 -0.75403476
-4.3405638 5.8766537 -0.81431943
-5.2924094 7.16535 -0.49756488
-3.942035 5.3370886 0
-3.126507 4.2329521 0.29393798
-1.6665841 2.2506788 -0.92342699
-1.9297166 2.6060326 -0.894656
-2.235743 3.0193133 -0.83228004
-2.6961384 3.6410654 -0.75531906
-4.4030724 5.9462361 -0.82469797
-5.3041534 7.1631222 -0.49785489
-3.9515753 5.3365006 0
-3.1378047 4.2375245 0.29451853
-1.6678306 2.2466807 -0.92261279
-1.907444 2.5694563 -0.88288993
-2.2393897 3.0166097 -0.83228004
-2.6928868 3.627501 -0.75317967
-4.430295 5.9679074 -0.82844549
-4.2286701 5.6963053 -0.39626229
-3.9719803 5.3505268 0
-3.1475706 4.2399912 0.29495409
-1.6661158 2.2387137 -0.92016709
-1.9240263 2.5852611 -0.88911867
-2.2445483 3.0159378 -0.83284235
-2.7033985 3.6324821 -0.75489151
-4.4390454 5.964623 -0.8287335
-4.2495165 5.7099581 -0.39756894
-3.9800007 5.3478174 0
-3.1557913 4.2403498 0.2952441
-1.6763318 2.2496018 -0.92505848
-1.9001056 2.5499017 -0.8773526
-2.2494094 3.0186601 -0.83396924
-2.7055924 3.6308479 -0.75489151
-4.4411044 5.959868 -0.82844549
-4.2281237 5.6740527 -0.39524671
-3.9723442 5.330802 0
-3.1630118 4.2446952 0.29567963
-1.6686927 2.2337122 -0.91935295
-1.915197 2.5636828 -0.88288993
-2.2454534 3.0057638 -0.83115536
-2.706902 3.6234591 -0.75403476
-4.4529419 5.9607081 -0.82930952
-4.2365298 5.6710191 -0.3953917
-3.9725523 5.3176584 0
-3.1836867 4.261683 0.29713076
-1.6669443 2.2257574 -0.91690725
-1.9212981 2.5653789 -0.88427287
-2.2566979 3.0132153 -0.83396924
-2.714359 3.624299 -0.75489151
-4.4601407 5.9553232 -0.82930952
-4.2278056 5.645102 -0.3939406
-3.9462144 5.2691121 0
-3.1966207 4.2682304 0.29785633
-1.694859 2.2573404 -0.93076086
-1.9213868 2.559047 -0.88288993
-2.2557588 3.0043886 -0.83228004
-2.7141109 3.6148562 -0.75360721
-4.4626789 5.9437304 -0.82844549
-4.2346239 5.6399894 -0.3939406
-3.9322662 5.2372866 0
-3.1970997 4.2581367 0.29742131
-1.6946155 2.2513452 -0.92913252
-1.9350344 2.5707486 -0.88773304
-2.2609138 3.0036888 -0.83284235
-2.7231095 3.6177289 -0.75489151
-4.4745197 5.9445271 -0.82930952
-4.1929913 5.570509 -0.38944113
-3.9323311 5.2242146 0
-3.2225556 4.2812576 0.299308
-1.6824497 2.2295706 -0.92098445
-1.9336101 2.5624065 -0.88565856
-2.2676055 3.0050151 -0.83396924
-2.719743 3.6041844 -0.75275046
-4.481699 5.9391165 -0.82930952
-4.188767 5.5509253 -0.38842559
-3.9605844 5.2485385 0
-3.2355506 4.2877293 0.30003354
-1.6836469 2.2255592 -0.92016709
-1.9261084 2.546061 -0.88081276
-2.2666347 2.996192 -0.83228004
-2.7210014 3.5968051 -0.75189537
-4.4919958 5.9378262 -0.82988667
-4.1876345 5.5355005 -0.38770002
-3.9951885 5.2811122 0
-3.2564032 4.3045354 0.30148467
-1.6908169 2.2294331 -0.92261279
-1.9367619 2.5537245 -0.88427287
-2.2733271 2.997504 -0.83340687
-2.7253454 3.5935147 -0.75189537
-4.4944773 5.9262094 -0.82902151
-4.1801839 5.511797 -0.38639334
-4.0062804 5.282496 0
-3.2647452 4.3047423 0.30177522
-1.6890204 2.2214839 -0.92016709
-1.9352894 2.5453894 -0.88219577
-2.2738686 2.9907057 -0.83228004
-2.7281334 3.5881774 -0.75146776
-3.4058836 4.4795885 -0.6272279
-4.182127 5.5005426 -0.38595834
-4.0252614 5.2942247 0
-3.2715156 4.3028607 0.30192024
-1.6887096 2.2155139 -0.91853875
-1.9383637 2.5430491 -0.88219577
-2.2759418 2.9859371 -0.83171767
-2.7371309 3.5909972 -0.75275046
-3.4097214 4.4734068 -0.62693882
-4.179316 5.4830818 -0.38508722
-4.0442762 5.3059154 0
-3.278286 4.3009691 0.30206522
-1.70489 2.2311449 -0.92587262
-1.9429626 2.5427043 -0.88288993
-2.2795482 2.9831848 -0.83171767
-2.7383537 3.5836117 -0.75189537
-3.4151242 4.4692836 -0.62693882
-4.2853279 5.6080961 -0.3942306
-4.0396223 5.2865477 0
-3.296102 4.3135223 0.30322635
-1.686545 2.201618 -0.91446471
-1.9475577 2.5423443 -0.8835814
-2.2769704 2.9723599 -0.82946616
-2.7364376 3.572149 -0.75018346
-3.4205217 4.4651537 -0.62693882
-4.3047423 5.6194162 -0.3953917
-4.0460072 5.2816629 0
-3.3060536 4.3157268 0.30366188
-1.7193063 2.238776 -0.93076086
-1.9460427 2.5340183 -0.88150424
-2.2836583 2.9736409 -0.83059299
-2.7501299 3.5810518 -0.75275046
-3.4290683 4.4651241 -0.62751591
-4.2988677 5.597724 -0.3942306
-4.0492187 5.272646 0
-3.3365886 4.3447027 0.30598414
-1.6933669 2.1994925 -0.91527885
-1.9521669 2.5356445 -0.88288993
-2.2903469 2.9749022 -0.83171767
-2.7434974 3.5634937 -0.74975592
-0 0 -0
-4.3024611 5.5884118 -0.3939406
-4.0524082 5.2636213 0
-3.3354952 4.3324318 0.30540356
-1.6884741 2.1876636 -0.91120481
-1.9552293 2.5332839 -0.88288993
-2.2861788 2.9620771 -0.82890379
-2.7509351 3.5642364 -0.75061101
-3.4509065 4.4711514 -0.62953317
-4.3187332 5.5955472 -0.39481115
-4.0826187 5.2896261 0
-3.3359632 4.3222256 0.304968
-1.7032162 2.2012601 -0.91772455
-1.9644299 2.5388563 -0.88565856
-2.3037491 2.977397 -0.83396924
-2.7583847 3.5649743 -0.75146776
-3.4578938 4.4690299 -0.62982225
-4.3016438 5.559504 -0.39263448
-4.1288209 5.3361449 0
-3.3618536 4.3449059 0.3068547
-1.7134476 2.2089634 -0.92179859
-1.9721045 2.5424221 -0.88773304
-2.2980039 2.9625688 -0.83059299
-2.7642622 3.5636652 -0.75189537
-3.4569502 4.4566736 -0.62866908
-4.2669477 5.5009155 -0.38886058
-4.1990628 5.4133992 0
-3.3766537 4.3531556 0.30772525
-1.6918398 2.1756735 -0.90875918
-1.9536177 2.5123146 -0.87804413
-2.3015819 2.95979 -0.83059299
-2.7685661 3.5603225 -0.75189537
-3.4607403 4.4504457 -0.62838
-4.2321219 5.4424272 -0.38508722
-4.2167854 5.4227047 0
-7.1126332 9.1467085 0.64718932
-1.7265559 2.2175517 -0.92668682
-1.9751697 2.5368657 -0.88704157
-2.2971258 2.9503794 -0.82834148
-2.7612512 3.5464923 -0.74932671
-3.4634285 4.4483538 -0.62838
-0 0 -0
-4.2024722 5.3975658 0
-7.1181579 9.1424103 0.64718932
-1.7140294 2.1959839 -0.91853875
-1.9797757 2.536453 -0.88773304
-2.3069427 2.9556136 -0.83059299
-2.7671185 3.5451827 -0.74975592
-3.4735768 4.4502845 -0.62924516
-0 0 -0
-4.210597 5.3945417 0
-7.1419897 9.1501894 0.64835042
-1.7182033 2.1958559 -0.91935295
-1.9658374 2.512331 -0.88012123
-2.304249 2.9448195 -0.82834148
-2.7824693 3.5559826 -0.75275046
-3.4757669 4.4420137 -0.62866908
-0 0 -0
-4.2026801 5.3710055 0
-7.1578403 9.147686 0.64878541
-1.7010257 2.168499 -0.90875918
-1.978159 2.5217936 -0.88427287
-2.3062327 2.9400282 -0.82777697
-2.7820153 3.5465646 -0.75146776
-3.4859161 4.4439101 -0.62953317
-0 0 -0
-4.2107716 5.367969 0
-7.1544557 9.1206322 0.6474793
-1.729616 2.1994686 -0.92261279
-1.9812046 2.5194016 -0.88427287
-2.3207796 2.9512224 -0.83171767
-2.7815366 3.5371447 -0.75018346
-3.4896858 4.4376636 -0.62924516
-0 0 -0
-4.2027774 5.3444676 0
-7.1847458 9.1364918 0.649221
-1.7353357 2.2012627 -0.92424428
-1.9795864 2.5110934 -0.88219577
-2.3196232 2.9424279 -0.83002847
-2.7842207 3.5317671 -0.74975592
-3.4902401 4.4273481 -0.62838
-4.2505059 5.3917413 -0.38349113
-4.2108417 5.3414273 0
-7.1829104 9.1114788 0.6480599
-1.7257342 2.1836512 -0.91772455
-1.981065 2.5067332 -0.88150424
-2.3216028 2.9376314 -0.82946616
-2.7837095 3.5223563 -0.74847162
-3.4939849 4.4211006 -0.62809199
-4.3504553 5.5048318 -0.39190838
-4.2253594 5.3465428 0
-7.2196932 9.1354113 0.6503821
-1.7375776 2.1931844 -0.92261279
-1.9809797 2.5004086 -0.88012123
-2.3235743 2.9328344 -0.82890379
-2.7911489 3.5230107 -0.74932671
-3.4993243 4.4168754 -0.62809199
-4.3635578 5.5077181 -0.39248893
-4.2334313 5.3434711 0
-6.5837007 8.3100004 0.59218413
-1.7402263 2.1910832 -0.92261279
-1.994917 2.5117593 -0.88496441
-2.3239529 2.9260414 -0.82777697
-2.7922137 3.515619 -0.74847162
-3.5062659 4.4146676 -0.62838
-4.3718305 5.5044823 -0.39263448
-4.2350335 5.3322439 0
-6.6082802 8.3203497 0.59349024
-1.7351764 2.1793129 -0.91853875
-1.9979506 2.509347 -0.88496441
-2.3274868 2.9232311 -0.82777697
-2.8028555 3.5202756 -0.75018346
-3.5099881 4.4084063 -0.62809199
-3.5724916 4.4869084 -0.32035866
-4.2349892 5.3189793 0
-6.6102376 8.3021975 0.59276468
-1.7455162 2.1868715 -0.92261279
-2.0041142 2.5108562 -0.88635004
-2.3357739 2.9263763 -0.82946616
-2.8087068 3.5188906 -0.75061101
-3.5137002 4.402142 -0.62780392
-3.5811493 4.4866462 -0.32064864
-4.2300472 5.2996178 0
-6.6008124 8.2698336 0.59102297
-1.7358038 2.169322 -0.91609305
-2.0008771 2.5005972 -0.8835814
-2.340894 2.9255338 -0.83002847
-2.804939 3.5054743 -0.74847162
-3.5222456 4.4019284 -0.62838
-3.5963118 4.494493 -0.32151976
-3.5925961 4.4898491 0
-3.5929871 4.4903378 0.32122251
-1.7492509 2.1807208 -0.92179859
-2.0054653 2.500133 -0.88427287
-2.3396623 2.9167628 -0.82834148
-2.8123822 3.5060837 -0.74932671
-3.5210946 4.389607 -0.6272279
-0 0 -0
-0 0 0
-0 0 0
-1.7410412 2.1651208 -0.91609305
-2.0179207 2.5094421 -0.8884272
-2.3399973 2.9099696 -0.8272146
-2.8198369 3.5066876 -0.75018346
-3.5296345 4.3893766 -0.62780392
-0 0 -0
-0 0 0
-0 0 0
-1.7374513 2.1553185 -0.91283321
-2.0052032 2.4874666 -0.88150424
-2.3435118 2.90714 -0.8272146
-2.8305163 3.5112722 -0.75189537
-3.5300641 4.3790655 -0.62693882
-0 0 -0
-0 0 0
-0 0 0
-1.7447163 2.1589866 -0.91527885
-2.0223978 2.5026014 -0.88773304
-2.3486183 2.9062808 -0.82777697
-2.8299148 3.5018578 -0.75061101
-3.5353529 4.3747969 -0.62693882
-3.6049268 4.4608908 -0.32035866
-0 0 0
-0 0 0
-1.7488781 2.1587956 -0.91609305
-2.0254202 2.5001559 -0.88773304
-2.3489325 2.8994958 -0.82665229
-2.8292949 3.4924498 -0.74932671
-3.5487754 4.3805685 -0.62838
-3.6135824 4.4605656 -0.32064864
-3.6049135 4.4498649 0
-3.6004281 4.4443278 0.3194814
-1.7452527 2.1490064 -0.91283321
-2.0316057 2.5016053 -0.88911867
-2.3556347 2.9005964 -0.82777697
-2.8318961 3.4870379 -0.74889916
-3.5459146 4.3662405 -0.62693882
-3.6550047 4.5005679 -0.32384145
-3.6431007 4.4859099 0
-6.650866 8.1895037 0.58928132
-1.7353644 2.1315622 -0.90631348
-2.031456 2.4952538 -0.88773304
-2.3623493 2.9016926 -0.82890379
-2.8393519 3.4875989 -0.74975592
-3.5511878 4.3619528 -0.62693882
-0 0 -0
-4.3517256 5.3452597 0
-6.6541944 8.1734009 0.58870077
-1.7585175 2.1573379 -0.91772455
-2.0266228 2.4862478 -0.88496441
-2.3592842 2.8943546 -0.8272146
-2.8349707 3.4779236 -0.74804407
-3.5538225 4.3598065 -0.62693882
-4.4905629 5.5089931 -0.39698839
-4.3450913 5.3305297 0
-6.6607776 8.1713991 0.58884633
-1.7564297 2.1494682 -0.91527885
-2.0248678 2.4779749 -0.88288993
-2.3676045 2.8974063 -0.82890379
-2.8391709 3.4744956 -0.74804407
-3.559088 4.3555093 -0.62693882
-4.518589 5.5297189 -0.39887506
-4.3564644 5.3313155 0
-6.6640697 8.1552963 0.58826578
-1.7668554 2.1569023 -0.91935295
-2.0278604 2.4755263 -0.88288993
-2.3662717 2.8886447 -0.8272146
-2.8482428 3.4770143 -0.74932671
-3.5659919 4.3532124 -0.6272279
-4.5219707 5.5202308 -0.39858451
-4.3530111 5.3139725 0
-6.6755638 8.1492462 0.58841079
-1.7710272 2.1566741 -0.92016709
-2.0308502 2.4730742 -0.88288993
-2.3713715 2.8877451 -0.82777697
-2.8491867 3.4696064 -0.74847162
-3.569603 4.3468957 -0.62693882
-4.523695 5.5087442 -0.39814952
-4.3544726 5.3026729 0
-6.6854057 8.1411743 0.58841079
-1.7579263 2.1354542 -0.91201901
-2.0194881 2.4531884 -0.87666112
-2.3748591 2.8848777 -0.82777697
-2.851747 3.4641812 -0.74804407
-3.5765014 4.3445821 -0.6272279
-4.5303483 5.5032744 -0.39814952
-5.8312511 7.0835562 0
-6.6836758 8.1190453 0.58739465
-1.780955 2.1581087 -0.92261279
-2.0336239 2.4642856 -0.88150424
-2.3718741 2.874167 -0.8255254
-2.857563 3.4627109 -0.74847162
-3.5784526 4.3362637 -0.62665081
-4.5419512 5.5038028 -0.39858451
-5.8563676 7.0965738 0
-6.6967921 8.1149759 0.58768523
-1.7693837 2.1388173 -0.91527885
-2.0398014 2.4656963 -0.88288993
-2.3802056 2.8771744 -0.8272146
-2.8666556 3.4651914 -0.74975592
-3.5836897 4.3319364 -0.62665081
-4.5436339 5.49231 -0.39814952
-5.8234673 7.0393629 0
-6.701622 8.1008692 0.58724964
-1.7656556 2.1290679 -0.91201901
-2.0443792 2.4651592 -0.8835814
-2.3820598 2.8723423 -0.82665229
-2.8675599 3.4577692 -0.74889916
-3.5922265 4.3315887 -0.6272279
-4.5486035 5.4848104 -0.39800394
-5.8485789 7.0523496 0
-6.7064276 8.0867634 0.58681411
-1.7935078 2.1573424 -0.92505848
-2.0457542 2.4607599 -0.88288993
-2.3871517 2.8714139 -0.8272146
-2.8717358 3.4543018 -0.74889916
-3.5875337 4.3153076 -0.62549764
-4.5618725 5.4873028 -0.39858451
-0 0 0
-6.7161942 8.0786543 0.58681411
-1.7739573 2.1285884 -0.91364735
-2.0487261 2.458286 -0.88288993
-2.3841126 2.8607197 -0.82496309
-2.8759077 3.4508293 -0.74889916
-3.5977147 4.3169327 -0.62636274
-4.5635133 5.4758039 -0.39814952
-5.8489461 7.0182071 0
-6.7226267 8.0665445 0.58652407
-1.7797003 2.1302407 -0.91527885
-2.0468678 2.450031 -0.88081276
-2.3908288 2.8617406 -0.82608992
-2.8784308 3.4453838 -0.74847162
-3.5979517 4.3066254 -0.62549764
-4.5684557 5.468286 -0.39800394
-5.8424063 6.9931617 0
-6.7340331 8.0604086 0.58666909
-1.7800739 2.1202528 -0.91283321
-2.0463302 2.437392 -0.87804413
-2.3977375 2.8559544 -0.82608992
-2.8801463 3.4305534 -0.74675971
-3.6133394 4.3038626 -0.62636274
-4.5833325 5.4592257 -0.39814952
-0 0 0
-6.7551613 8.0460997 0.58681411
-1.7921866 2.1294503 -0.91772455
-2.0670452 2.4560332 -0.88565856
-2.4011865 2.8530552 -0.82608992
-2.8892498 3.4329648 -0.74804407
-3.608541 4.2876163 -0.62463248
-4.5882478 5.4516897 -0.39800394
-5.8693919 6.9739265 0
-6.753171 8.0240202 0.58579856
-1.7788173 2.1083887 -0.90957332
-2.0635402 2.445864 -0.88288993
-2.4079061 2.854032 -0.8272146
-2.8851206 3.419663 -0.74590462
-3.6187243 4.2891855 -0.62549764
-4.6015339 5.4540858 -0.39858451
-0 0 0
-6.7662096 8.0198231 0.58608854
-1.8069007 2.1364324 -0.92261279
-2.0535336 2.4280446 -0.8773526
-2.4080744 2.8472443 -0.82608992
-2.8975375 3.4259727 -0.74804407
-3.6205671 4.2808642 -0.62492156
-4.6114802 5.4524937 -0.39887506
-5.8862281 6.959722 0
-6.7708597 8.0056877 0.58565295
-1.7918975 2.1135082 -0.91364735
-2.0580866 2.4274731 -0.87804413
-2.4115129 2.8443325 -0.82608992
-2.901675 3.4224691 -0.74804407
-3.627408 4.2784572 -0.62520957
-4.6231012 5.452858 -0.39931005
-0 0 0
-6.7889347 8.0074158 0.58637911
-1.8040568 2.1226449 -0.91853875
-2.0642707 2.4288116 -0.87942976
-2.4100099 2.8356063 -0.82440072
-2.8974977 3.4091821 -0.74590462
-3.6342485 4.2760401 -0.62549764
-4.6414676 5.4611292 -0.40032619
-0 0 0
-6.7918739 7.9912872 0.58579856
-1.80181 2.1148176 -0.91609305
-2.0737059 2.4339466 -0.88219577
-2.4183795 2.8384964 -0.82608992
-2.9099374 3.4154468 -0.74804407
-3.6310272 4.2618032 -0.6240564
-4.6430058 5.4495811 -0.39989063
-5.9215474 6.9502292 0
-6.8048921 7.9870267 0.58608854
-1.7918575 2.100564 -0.91038752
-2.070296 2.4269729 -0.88012123
-2.4250362 2.8428285 -0.82777697
-2.9053361 3.4058762 -0.74633217
-3.6369553 4.2635407 -0.62463248
-5.6024222 6.5676241 -0.48218095
-5.9325013 6.9545703 0
-6.8147769 7.9888468 0.58652407
-1.8088558 2.115309 -0.91772455
-2.0797491 2.4320965 -0.88288993
-2.421864 2.8321719 -0.8255254
-2.9144561 3.4082179 -0.74761647
-3.64379 4.2611146 -0.62492156
-5.6002178 6.5489969 -0.48130983
-5.9392042 6.9454136 0
-6.8244247 7.9806066 0.58652407
-1.8017558 2.1018591 -0.91283321
-2.0630929 2.4067249 -0.87458396
-2.4285948 2.8331053 -0.82665229
-2.9102137 3.3949435 -0.74547541
-3.6489363 4.2567086 -0.62492156
-5.6132021 6.5481458 -0.48174539
-5.9323497 6.9204507 0
-6.8442063 7.9841881 0.58739465
-1.8155717 2.1128042 -0.91853875
-2.0807135 2.4213533 -0.88081276
-2.430362 2.8282435 -0.82608992
-2.9193347 3.3972673 -0.74675971
-3.6473341 4.2444496 -0.62376839
-5.614336 6.5334754 -0.48116481
-5.9593668 6.9349918 0
-6.8623147 7.985764 0.58812022
-1.8294166 2.123719 -0.92424428
-2.0721745 2.40553 -0.87596697
-2.4304578 2.8214509 -0.82496309
-2.9184096 3.3879006 -0.74547541
-3.655833 4.2439551 -0.62434447
-5.620532 6.5247197 -0.48101982
-5.9932151 6.9573574 0
-5.9748755 6.9360676 0.51134545
-1.7980601 2.0822248 -0.90713078
-2.0947556 2.4258101 -0.88427287
-2.4338651 2.8185122 -0.82496309
-2.9275358 3.3902025 -0.74675971
-3.6558852 4.2336597 -0.62347931
-5.6182189 6.5061197 -0.4801487
-5.9965196 6.9442072 0
-6.0036316 6.9524431 0.51308715
-1.8248346 2.1080759 -0.91935295
-2.0812688 2.4043126 -0.8773526
-2.4339461 2.8117306 -0.82383841
-2.9349935 3.3905482 -0.74761647
-3.6677694 4.2370615 -0.62463248
-5.6345778 6.5091476 -0.48087427
-6.0066075 6.9389219 0
-6.0137267 6.9471464 0.51323217
-1.8144213 2.0909355 -0.91283321
-2.0956776 2.4150546 -0.88219577
-2.4440031 2.8164642 -0.82608992
-2.9289904 3.3753624 -0.74504787
-3.67628 4.2365375 -0.62520957
-5.6305223 6.4886026 -0.4798587
-6.0064607 6.921833 0
-6.0238247 6.941843 0.51337773
-1.833171 2.107393 -0.92098445
-2.0936592 2.4068475 -0.88012123
-2.444066 2.8096712 -0.82496309
-2.9364395 3.3756981 -0.74590462
-3.6712079 4.2203798 -0.62347931
-5.6400623 6.4837532 -0.48000371
-6.0182328 6.9184937 0
-6.0373192 6.9404354 0.51381272
-1.8048509 2.0697808 -0.90549928
-2.096566 2.4043159 -0.88012123
-2.4457908 2.8048027 -0.82440072
-2.9422016 3.3740807 -0.74633217
-3.6780095 4.217896 -0.62376839
-5.6427674 6.471056 -0.47956815
-6.0488219 6.9367142 0
-6.069613 6.960557 0.51584494
-1.8154823 2.076901 -0.90957332
-2.0895598 2.390444 -0.87596697
-2.4475074 2.7999341 -0.82383841
-2.9378307 3.3608611 -0.74419278
-3.681396 4.2114954 -0.62347931
-5.6505823 6.4642334 -0.47956815
-6.0743303 6.9489985 0
-6.0899849 6.966907 0.51686049
-1.8261334 2.0839987 -0.91364735
-2.1089835 2.4067898 -0.88288993
-2.4525619 2.7988839 -0.82440072
-2.94696 3.3630955 -0.74547541
-3.6881917 4.2089953 -0.62376839
-5.6532564 6.4515438 -0.47913316
-6.0895834 6.9494829 0
-6.1103878 6.9732256 0.51787663
-1.8319155 2.0855081 -0.91527885
-2.1036134 2.3948171 -0.87942976
-2.4559419 2.7959185 -0.82440072
-2.9527206 3.3614664 -0.74590462
-3.6898575 4.2006454 -0.6231913
-5.6576147 6.4407997 -0.47884259
-6.1099935 6.9558015 0
-6.1170959 6.9638867 0.51773161
-1.8279006 2.0758731 -0.91201901
-2.1015303 2.3866231 -0.8773526
-2.4593184 2.792949 -0.82440072
-2.951689 3.3521144 -0.74462032
-3.6983523 4.2000699 -0.62376839
-5.6585245 6.4261584 -0.47826204
-6.1510735 6.9855261 0
-6.1272216 6.9584389 0.51787663
-1.8271332 2.0699534 -0.91038752
-2.1127119 2.3934846 -0.88081276
-2.4643712 2.7918785 -0.82496309
-2.9557374 3.3485456 -0.74462032
-3.6982882 4.1897788 -0.62290323
-5.6680031 6.4212627 -0.47840703
-6.1801696 7.0014949 0
-6.1304646 6.9451842 0.51744103
-1.8410995 2.080703 -0.91609305
-2.1089525 2.3834147 -0.87804413
-2.4593256 2.7793858 -0.82214922
-2.9614806 3.3468924 -0.74504787
-3.696492 4.1775589 -0.62175012
-5.6740375 6.4124651 -0.47826204
-6.2127728 7.0213122 0
-6.1405721 6.9397159 0.51758605
-1.8386905 2.072928 -0.91364735
-2.1218162 2.3921223 -0.88219577
-2.4609976 2.7745132 -0.82158685
-2.9655225 3.3433115 -0.74504787
-3.7101171 4.1827626 -0.6231913
-5.6766071 6.3997707 -0.47782648
-6.2454262 7.0410542 0
-6.1472306 6.9303489 0.51744103
-1.8461224 2.0762477 -0.91609305
-2.1180434 2.3820646 -0.87942976
-2.4694085 2.7772286 -0.8232739
-2.9678559 3.3378091 -0.74462032
-3.722043 4.186008 -0.62434447
-5.6860671 6.3948545 -0.47797203
-6.2694917 7.0510044 0
-6.1486936 6.9151487 0.51686049
-1.8601433 2.0869327 -0.92179859
-2.1242554 2.3832455 -0.88081276
-2.4778361 2.7799349 -0.82496309
-2.9804256 3.3438005 -0.74675971
-3.7202144 4.1737843 -0.6231913
-5.6868744 6.3802204 -0.47739148
-6.2883997 7.0550842 0
-6.1553173 6.905776 0.51671547
-1.8432999 2.065522 -0.91283321
-2.1240261 2.3800917 -0.88012123
-2.4744382 2.7727482 -0.8232739
-2.9636421 3.3209291 -0.74205166
-3.7158465 4.1638169 -0.62203813
-5.6941848 6.3806572 -0.47768149
-6.3134484 7.0745773 0
-6.1508393 6.8923645 0.51598996
-1.8392026 2.0559249 -0.90957332
-2.1168611 2.3663013 -0.87596697
-2.4760942 2.7678645 -0.82271153
-2.9779253 3.3288288 -0.74462032
-3.7243273 4.1631832 -0.62261522
-5.6949606 6.3660259 -0.47710091
-6.3202586 7.0650058 0
-6.159163 6.8849273 0.51598996
-1.8449889 2.0573847 -0.91120481
-2.1314449 2.3768179 -0.88081276
-2.4811316 2.7667606 -0.8232739
-2.980233 3.3233187 -0.74419278
-3.7328053 4.1625276 -0.6231913
-5.699182 6.3552747 -0.47681093
-6.3340049 7.0631781 0
-6.1622715 6.871675 0.51555437
-1.8342547 2.0404494 -0.90468514
-2.1292822 2.3686416 -0.8787356
-2.4827757 2.7618728 -0.82271153
-2.985961 3.3216226 -0.74462032
-3.7343771 4.1541705 -0.62261522
-5.7016439 6.3425846 -0.47637537
-6.3373132 7.0497112 0
-6.1115103 6.7985253 0.51061994
-1.848296 2.0510788 -0.91038752
-2.1271091 2.3604815 -0.87666112
-2.4878104 2.7607565 -0.8232739
-2.9882555 3.316107 -0.74419278
-3.7497795 4.1611805 -0.62434447
-5.7075658 6.3337622 -0.47623035
-6.3493147 7.0459194 0
-6.0814552 6.7486725 0.5074271
-1.8574002 2.0561805 -0.91364735
-2.1467736 2.3765225 -0.8835814
-2.4928527 2.7596393 -0.82383841
-2.9905345 3.3105834 -0.74376357
-3.7444053 4.145134 -0.62261522
-5.7134748 6.3249345 -0.47608536
-6.3613095 7.0421009 0
-6.0965729 6.749032 0.50800771
-1.8466177 2.0392849 -0.90713078
-2.1344895 2.357192 -0.8773526
-2.4927709 2.7528548 -0.82271153
-2.9910896 3.3031654 -0.74290842
-3.7476702 4.1386838 -0.62232614
-5.7245979 6.3218746 -0.47637537
-6.3506031 7.0131946 0
-6.1082082 6.7455091 0.50829768
-1.8607042 2.0498574 -0.91283321
-2.1407053 2.3583229 -0.8787356
-2.4926832 2.7460816 -0.82158685
-3.0002565 3.305253 -0.74419278
-3.7526681 4.1341524 -0.62232614
-5.7130198 6.2937875 -0.47477868
-6.3555708 7.0016584 0
-6.1827164 6.8112321 0.51381272
-1.8731633 2.0585797 -0.91772455
-2.133426 2.3446045 -0.87458396
-2.4942911 2.74119 -0.82102448
-3.0025153 3.2997212 -0.74376357
-3.7576606 4.1296153 -0.62232614
-5.7276154 6.2945671 -0.47535923
-6.3657765 6.9958968 0
-6.1996841 6.813364 0.51453829
-1.8489993 2.0270977 -0.90468514
-2.1345685 2.3401732 -0.87389249
-2.5010228 2.741925 -0.82214922
-3.0065002 3.2960908 -0.74376357
-3.7626479 4.1250715 -0.62232614
-5.7317181 6.2838058 -0.47506925
-6.3689685 6.9824371 0
-6.2079124 6.8058681 0.51453829
-1.8731276 2.048573 -0.91527885
-2.1390858 2.339442 -0.87458396
-2.5077598 2.7426479 -0.8232739
-3.0087502 3.2905631 -0.74333602
-3.7623982 4.1148014 -0.62146205
-5.7428102 6.2807074 -0.47535923
-6.3615971 6.9574523 0
-6.2161317 6.7983623 0.51453829
-1.8538926 2.0226235 -0.90468514
-2.1486917 2.3442535 -0.8773526
-2.5110722 2.7396157 -0.8232739
-3.0161963 3.2907135 -0.74419278
-3.7656217 4.1083474 -0.62117404
-5.7416182 6.2641878 -0.47463369
-6.3770261 6.9574275 0
-6.2173185 6.7831841 0.51395768
-1.8797433 2.0458586 -0.91609305
-2.1532183 2.3435011 -0.87804413
-2.5126631 2.7347105 -0.82271153
-3.0201705 3.2870667 -0.74419278
-3.7758279 4.1095028 -0.62203813
-5.7403941 6.2476802 -0.47390813
-6.3783917 6.9420586 0
-6.2307858 6.7814088 0.51439327
-1.8671457 2.0272257 -0.90875918
-2.147552 2.3316727 -0.87458396
-2.512526 2.7279379 -0.82158685
-3.0223958 3.2815213 -0.74376357
-3.7772894 4.1011357 -0.62146205
-5.7514634 6.244566 -0.4741987
-6.3885365 6.9362588 0
-6.2231336 6.7566752 0.51308715
-1.8746253 2.0304177 -0.91120481
-2.1622822 2.3419809 -0.87942976
-2.5140984 2.7230351 -0.82102448
-3.0211396 3.2722142 -0.74248087
-3.7839949 4.0984674 -0.62175012
-5.7590046 6.2376118 -0.4741987
-6.3845534 6.9151478 0
-6.2348223 6.7529726 0.51337773
-1.8737164 2.0245199 -0.90957332
-2.1582942 2.3320017 -0.87666112
-2.5225596 2.7255843 -0.82271153
-3.0233424 3.2666719 -0.74205166
-3.7819169 4.0862989 -0.62059695
-5.7630038 6.226831 -0.47390813
-6.3875995 6.9016962 0
-6.2394438 6.7416167 0.51308715
-1.9064227 2.0548723 -0.92424428
-2.1662245 2.3349042 -0.8787356
-2.5189385 2.7150834 -0.82046002
-3.0290384 3.2649038 -0.74248087
-3.7903733 4.0855222 -0.62117404
-5.7652202 6.2141466 -0.47347257
-6.3977094 6.8958864 0
-6.2405162 6.7264528 0.5125066
-1.8786035 2.0199859 -0.90957332
-2.1570895 2.3194306 -0.87389249
-2.5222173 2.7120378 -0.82046002
-3.0347276 3.2631192 -0.74290842
-3.7935407 4.0790401 -0.62088495
-5.7691884 6.2033739 -0.47318256
-6.4113488 6.8938627 0
-6.2521815 6.7227168 0.51279712
-1.8844168 2.0213337 -0.91120481
-2.1735764 2.3315027 -0.87942976
-2.5289609 2.7127087 -0.82158685
-3.0369196 3.2575741 -0.74248087
-3.7984667 4.0744534 -0.62088495
-5.7713623 6.1906948 -0.47274703
-6.4072566 6.8727913 0
-6.2532125 6.7075548 0.51221657
-1.8906922 2.02561 -0.91364735
-2.1749845 2.3301892 -0.87942976
-2.5288675 2.7093248 -0.82102448
-3.042387 3.2594883 -0.74333602
-3.7938681 4.0645943 -0.61973178
-5.7821937 6.1948051 -0.47332758
-6.4149561 6.8727202 0
-6.2537146 6.6999731 0.51192605
-1.9015867 2.0323532 -0.91772455
-2.1657984 2.3147342 -0.87458396
-2.5338736 2.7081206 -0.82158685
-3.0498343 3.2595625 -0.74419278
-3.8023143 4.0637884 -0.62030888
-5.779026 6.1764331 -0.47245702
-6.4161434 6.8573627 0
-6.2635789 6.6943073 0.51207101
-1.88544 2.0102222 -0.90875918
-2.1823239 2.3267543 -0.88012123
-2.5388806 2.7069085 -0.82214922
-3.0449848 3.2465076 -0.74205166
-3.8089895 4.0610757 -0.62059695
-5.7864852 6.1694455 -0.47245702
-6.4190884 6.8439159 0
-6.2645526 6.679153 0.51149046
-1.9098753 2.0313499 -0.91935295
-2.1731029 2.3113196 -0.87527543
-2.5456271 2.7075377 -0.8232739
-3.0541823 3.2484386 -0.74333602
-3.8085768 4.0508156 -0.61973178
-5.7885938 6.1567683 -0.47202146
-6.4220033 6.8304648 0
-6.2744036 6.6734772 0.51163602
-1.8750373 1.9894737 -0.90142524
-2.175894 2.308692 -0.87527543
-2.5436735 2.6989179 -0.82158685
-3.0493035 3.2354071 -0.74119657
-3.8187923 4.0518589 -0.62059695
-5.7960291 6.1497693 -0.47202146
-6.4373918 6.8302755 0
-6.2753339 6.6583271 0.51105547
-1.8808314 1.9907963 -0.90305364
-2.1872947 2.3151777 -0.8787356
-2.5434396 2.6921449 -0.82046002
-3.058501 3.2373199 -0.74248087
-3.8236854 4.0472417 -0.62059695
-5.7909622 6.1295381 -0.47100535
-6.4438548 6.8206024 0
-6.2851577 6.6526265 0.51120049
-1.901932 2.0082641 -0.91201901
-2.17629 2.2979608 -0.87319833
-2.551934 2.6946061 -0.82214922
-3.0588768 3.2298908 -0.74162412
-3.828573 4.0426188 -0.62059695
-5.8001566 6.1244283 -0.4711509
-6.4431386 6.8033581 0
-6.2860441 6.6374807 0.51061994
-1.9213709 2.023886 -0.92016709
-2.173888 2.2898762 -0.87112385
-2.5569358 2.6933615 -0.82271153
-3.064543 3.2280521 -0.74205166
-3.8298967 4.0342417 -0.62002087
-5.8075523 6.1174154 -0.4711509
-6.4513545 6.7955675 0
-6.2940598 6.6298804 0.51061994
-1.9067795 2.0036621 -0.91201901
-2.1818368 2.2926948 -0.87319833
-2.5496817 2.6792297 -0.81933528
-3.0684412 3.2243471 -0.74205166
-3.8276362 4.0221162 -0.6188677
-5.8113537 6.1066256 -0.47086033
-6.4380317 6.7651443 0
-6.3038554 6.6241512 0.5107649
-1.9023751 1.9942031 -0.90875918
-2.1846056 2.2900567 -0.87319833
-2.5529172 2.676147 -0.81933528
-3.0705647 3.2187815 -0.74162412
-3.8360605 4.0212278 -0.61944377
-5.8133459 6.0939569 -0.47042477
-6.4372211 6.7479467 0
-6.3046808 6.6090088 0.51018435
