# .PCD v0.7 - Point Cloud Data file format
VERSION 0.7
FIELDS x y z
SIZE 4 4 4
TYPE F F F
COUNT 1 1 1
WIDTH 1872
HEIGHT 1
VIEWPOINT 0 0 0 1 0 0 0
POINTS 1872
DATA ascii
16.069656 11.020562 0
12.291895 8.4297752 0.83252281
3.70294 2.5460582 -0.99550903
4.7633805 3.2751935 -0.96372807
6.8448868 4.7063899 -0.92588335
12.176885 8.3725519 -0.82541782
16.099211 11.069455 0
12.296682 8.4549227 0.83353835
3.7019508 2.5519714 -0.9960714
4.7636428 3.2838578 -0.96458316
6.8413224 4.7161241 -0.92617136
12.175317 8.3931589 -0.82599837
16.137249 11.124351 0
12.282183 8.4668274 0.83324838
3.7030492 2.5593348 -0.99719822
4.747005 3.2808571 -0.96201617
6.8249822 4.7170353 -0.92473018
12.177988 8.4167252 -0.82686895
16.179455 11.182309 0
20.7556 14.345078 1.4092772
3.6936865 2.5594645 -0.99550903
4.747261 3.2895174 -0.96287292
6.8235254 4.7282224 -0.9253062
12.184896 8.4432735 -0.82803005
16.200157 11.225568 0
20.725433 14.361264 1.4084061
3.6968534 2.5682762 -0.99719822
4.7453895 3.2967143 -0.96330047
6.8156853 4.7349892 -0.92501819
12.178957 8.4609585 -0.82832062
16.218645 11.267408 0
20.697397 14.378885 1.4076806
3.6937475 2.572741 -0.99719822
4.7392979 3.3009801 -0.96287292
6.8120794 4.744698 -0.9253062
12.181514 8.4845762 -0.82919115
16.243454 11.313768 0
20.675747 14.400916 1.4073906
3.6968799 2.5815625 -0.99888527
4.7353058 3.306704 -0.96287292
6.8084598 4.754405 -0.92559421
12.186168 8.5097036 -0.83020729
16.25964 11.354244 0
20.643417 14.415473 1.4063745
3.6958454 2.5874889 -0.99944979
4.733408 3.3138943 -0.96330047
6.8090687 4.7670798 -0.92645937
12.188644 8.5333614 -0.83107781
16.288548 11.403734 0
20.611082 14.429973 1.4053583
3.686475 2.5875721 -0.99776059
4.7314992 3.3210847 -0.96372807
6.8011885 4.7738194 -0.92617136
12.19109 8.5570421 -0.83194894
16.298182 11.43985 0
20.574492 14.441432 1.4040523
3.6833456 2.5920246 -0.99776059
4.7337828 3.3312328 -0.96501237
6.7954154 4.7820339 -0.92617136
12.19561 8.5822306 -0.83296448
16.318399 11.483499 0
20.540026 14.454319 1.4028912
3.6843593 2.5994 -0.99888527
4.7255554 3.3339877 -0.96415561
6.7959666 4.7947102 -0.92703539
12.195845 8.6044483 -0.83369005
16.332155 11.52271 0
20.520424 14.477631 1.4027461
3.6832962 2.6053216 -0.99944979
4.7236171 3.341176 -0.96458316
6.7817297 4.7969494 -0.92588335
12.215143 8.6401892 -0.83572227
16.335218 11.554459 0
20.488064 14.49191 1.4017299
3.678067 2.6082962 -0.99888527
4.7153926 3.3439143 -0.96372807
6.7738128 4.8036399 -0.92559421
12.208929 8.6579456 -0.8360123
16.365824 11.605802 0
20.459944 14.509141 1.4010044
3.6769896 2.6142149 -0.99944979
4.715529 3.3525815 -0.96458316
6.7680035 4.8118215 -0.92559421
12.215401 8.6847363 -0.8371734
16.383606 11.64819 0
20.433926 14.527829 1.4004239
3.6738279 2.6186559 -0.99944979
4.7156596 3.3612597 -0.96543992
6.7748256 4.8290062 -0.92732453
12.219712 8.7100487 -0.83818954
16.41614 11.701207 0
20.403666 14.543463 1.3995533
3.6706612 2.6230931 -0.99944979
4.7178621 3.3714342 -0.96672422
6.7647729 4.834178 -0.92674738
12.240885 8.7474651 -0.84036618
16.433744 11.743727 0
20.367052 14.55451 1.3982472
3.6654174 2.6260426 -0.99888527
4.7116923 3.375633 -0.966295
6.7694378 4.8498788 -0.92818856
12.245094 8.7728443 -0.84138232
16.463966 11.795403 0
20.343113 14.574568 1.3978117
4.7117839 3.3843217 -0.96715176
6.7551694 4.8520193 -0.92703539
12.270361 8.8134022 -0.84384954
16.477188 11.83503 0
20.308603 14.587011 1.3966506
3.6611285 2.6363819 -0.99944979
4.713943 3.3945143 -0.96843612
6.7598023 4.8677397 -0.9284777
12.278678 8.8418865 -0.84515566
16.502995 11.883821 0
20.282528 14.605466 1.39607
4.7035918 3.3956983 -0.96715176
6.7476225 4.8713603 -0.92761254
12.289049 8.8719234 -0.84660679
16.50128 11.912889 0
20.256439 14.623878 1.3954895
3.6563442 2.643013 -0.99944979
4.7015395 3.3985393 -0.96715176
6.7509689 4.8799834 -0.9284777
12.321597 8.9067488 -0.84921956
16.513069 11.936583 0
20.230753 14.623936 1.3943284
4.7036672 3.4087384 -0.96843612
6.7492523 4.8911695 -0.92905372
12.344482 8.946022 -0.85154122
16.536562 11.984014 0
20.196236 14.636171 1.3931671
4.6974621 3.4129062 -0.96800691
6.7265973 4.8871589 -0.92674738
12.350481 8.9731493 -0.85270238
16.587332 12.051402 0
20.165926 14.651403 1.3922967
4.6933351 3.4185796 -0.96800691
6.739501 4.908987 -0.92934173
12.362736 9.0048962 -0.85429901
16.5959 12.088292 0
20.144003 14.672696 1.392006
4.6954222 3.4287913 -0.96929121
6.7335644 4.9171267 -0.92934173
12.356039 9.0228901 -0.85458905
16.587582 12.112936 0
20.113672 14.687835 1.3911355
4.6912761 3.4344623 -0.96929121
6.7213631 4.92068 -0.9284777
12.364003 9.0516319 -0.8558957
16.625429 12.171402 0
20.087524 14.705987 1.3905549
4.6933331 3.4446864 -0.97057551
6.7258363 4.9364486 -0.92991889
12.361436 9.0727148 -0.85647625
16.665262 12.231522 0
20.052982 14.717949 1.3893938
4.6829624 3.4457891 -0.96929121
6.7136149 4.9399714 -0.92905372
12.360928 9.0953426 -0.85720181
16.681908 12.27478 0
20.024721 14.734469 1.3886683
4.6849947 3.4560182 -0.97057551
6.7159667 4.9542217 -0.93020689
12.356195 9.1148949 -0.85763681
16.700573 12.319648 0
19.998539 14.752484 1.3880877
4.6786895 3.4688575 -0.97100306
6.7102098 4.97506 -0.93107206
12.35918 9.1632996 -0.85937852
16.810816 12.463816 0
19.944046 14.786843 1.3867816
4.6724362 3.4729784 -0.97057551
6.6938162 4.975451 -0.92963088
12.358524 9.1859751 -0.86010402
16.831249 12.51051 0
19.913654 14.801634 1.385911
4.6682367 3.4786215 -0.97057551
6.7002397 4.9928055 -0.93136007
12.364084 9.2133226 -0.86126518
16.874544 12.574373 0
19.879087 14.813264 1.3847499
4.6640301 3.4842596 -0.97057551
6.6859131 4.9947057 -0.93020689
12.352943 9.2282553 -0.86126518
16.90521 12.629023 0
19.859085 14.835713 1.3846043
4.6639218 3.4929674 -0.97143066
6.6943669 5.0136356 -0.93222523
12.354266 9.2525234 -0.8621363
16.937843 12.685318 0
19.82243 14.84568 1.3832983
4.6514864 3.492435 -0.96971875
6.682097 5.0170603 -0.93136007
12.372165 9.2892838 -0.86416799
16.964127 12.737026 0
19.792013 14.860264 1.3824277
4.661622 3.5088608 -0.97271496
6.6739655 5.0235767 -0.93107206
12.373384 9.3135996 -0.86503851
16.988224 12.787248 0
19.761581 14.874788 1.3815566
4.6594262 3.5160358 -0.9731425
6.6782117 5.0394254 -0.93251324
12.37457 9.3379374 -0.86590964
16.999765 12.828143 0
19.735298 14.892395 1.3809761
4.6551743 3.5216632 -0.9731425
6.6597452 5.0381312 -0.93078405
12.371567 9.3591537 -0.86649019
16.98218 12.847106 0
19.704859 14.906827 1.3801055
4.6447773 3.5226302 -0.9718582
6.6763163 5.0633626 -0.93395442
12.36853 9.3803768 -0.86707073
16.960421 12.862896 0
19.682695 14.927488 1.3798155
4.6425672 3.5297983 -0.97228742
6.6619573 5.0651641 -0.93280125
12.367528 9.4031763 -0.8677963
16.946943 12.88496 0
19.654297 14.943392 1.3790894
4.6321716 3.5307353 -0.97100306
6.6599503 5.0763493 -0.9333784
12.366488 9.4259872 -0.86852187
16.914804 12.892807 0
19.625895 14.959255 1.3783638
4.6421824 3.5472417 -0.97399926
6.6538115 5.0843925 -0.9333784
12.361285 9.4456577 -0.8689574
16.895073 12.910072 0
19.595421 14.973495 1.3774933
4.6339202 3.5453646 -0.97271496
6.652791 5.089982 -0.93366641
12.355577 9.453124 -0.8689574
16.872808 12.909212 0
19.569862 14.9727 1.3763322
4.6316676 3.5525219 -0.9731425
6.6384268 5.0917201 -0.93251324
12.346205 9.4696264 -0.86910242
16.861324 12.932755 0
19.545568 14.99159 1.3758966
4.6233058 3.5549893 -0.97228742
6.640471 5.1060443 -0.93366641
12.342993 9.4908733 -0.86968297
16.847746 12.954703 0
19.515083 15.005695 1.375026
4.6251001 3.5652702 -0.97357005
6.6424904 5.1203804 -0.93481958
12.327404 9.5026102 -0.86939299
16.863001 12.998886 0
19.488707 15.022919 1.3744454
4.6187596 3.569288 -0.9731425
6.6322017 5.125237 -0.93424243
12.320022 9.5206738 -0.86968297
16.890524 13.05267 0
19.4582 15.03692 1.3735744
4.6306782 3.5874434 -0.97656626
6.6280546 5.1348352 -0.93453157
12.300292 9.5291872 -0.86910242
16.915886 13.104945 0
19.431801 15.054054 1.3729938
4.6141796 3.5835915 -0.97399926
6.625927 5.1460104 -0.93510759
12.294928 9.5488262 -0.86953801
16.943201 13.158897 0
19.399237 15.066371 1.3719782
4.6159167 3.5938909 -0.97528195
6.6339917 5.1651368 -0.93712592
12.291582 9.5700607 -0.87011856
16.972462 13.214531 0
19.376913 15.086604 1.3716877
4.6075277 3.5963097 -0.97442681
6.6277461 5.1731491 -0.93712592
12.265669 9.5737123 -0.86910242
16.976994 13.251039 0
19.346384 15.100416 1.3708171
4.6092458 3.6066217 -0.97571111
6.6255603 5.1843386 -0.93770194
12.270463 9.6013365 -0.87026352
17.001963 13.303618 0
19.315849 15.114178 1.3699466
4.602859 3.6105995 -0.97528195
6.6233654 5.1955361 -0.93827909
12.267031 9.622571 -0.87084407
17.049347 13.37394 0
19.287344 15.129482 1.3692204
4.5984931 3.6161585 -0.97528195
6.6191139 5.2051325 -0.9385671
12.263565 9.6438112 -0.87142467
17.067949 13.421879 0
19.258839 15.144747 1.3684949
4.6001701 3.6264815 -0.97656626
6.6189156 5.2179322 -0.93943226
12.278429 9.679533 -0.87331134
17.078287 13.463436 0
19.230324 15.159965 1.3677694
4.5957847 3.6320374 -0.97656626
6.6126056 5.2259259 -0.93943226
12.274879 9.7008066 -0.87389189
17.092636 13.508268 0
19.203836 15.176744 1.3671888
4.5913925 3.6375878 -0.97656626
6.6123624 5.2387261 -0.94029629
12.287589 9.7349949 -0.87563354
17.137495 13.577393 0
19.173267 15.190259 1.3663182
4.5890021 3.6447279 -0.9769938
6.6100821 5.2499323 -0.94087344
12.298194 9.7676067 -0.87722969
17.153683 13.623987 0
19.146761 15.206951 1.3657377
4.5845952 3.6502702 -0.9769938
6.6017127 5.2563062 -0.94058543
12.296553 9.7905569 -0.87795579
17.173853 13.67388 0
19.106009 15.21227 1.364141
4.5841975 3.659013 -0.97785056
6.6074815 5.2739573 -0.94231462
12.30299 9.8199959 -0.87926191
17.208166 13.735208 0
19.083557 15.232105 1.363851
4.5697532 3.6565318 -0.97571111
6.5970688 5.2787085 -0.94173861
12.323569 9.8608227 -0.88158357
17.234228 13.790133 0
19.054987 15.247031 1.3631248
4.5813508 3.6749008 -0.97913486
6.5886626 5.2850528 -0.94144946
12.317728 9.8805857 -0.88201916
17.260183 13.845143 0
19.022367 15.258668 1.3621093
4.5709038 3.6756063 -0.97785056
6.5963831 5.3043571 -0.9434678
12.344256 9.9264021 -0.88477695
17.273857 13.890448 0
18.995817 15.275128 1.3615288
4.5704527 3.6843457 -0.97870564
6.585938 5.3090744 -0.94289064
12.326182 9.9364157 -0.88434136
17.307713 13.952141 0
18.977346 15.29807 1.3615288
4.5699944 3.6930957 -0.9795624
6.5895824 5.3251615 -0.94433296
12.352561 9.9823294 -0.88709861
17.331326 14.005758 0
18.944698 15.309555 1.3605126
4.5657687 3.6942427 -0.97913486
6.5883727 5.3307667 -0.94462097
12.378848 10.015942 -0.88942081
17.365345 14.050602 0
18.93141 15.317732 1.3602226
4.5692687 3.7062192 -0.98084509
6.5859404 5.341979 -0.94519699
12.386922 10.047263 -0.89087248
17.394836 14.109277 0
18.900774 15.330771 1.3593515
4.5667844 3.7133617 -0.98127431
6.5754709 5.3466725 -0.94462097
12.421137 10.099923 -0.89421028
17.420177 14.164762 0
18.872158 15.345403 1.3586259
4.558311 3.7156301 -0.98041755
6.5790281 5.3627834 -0.94606215
12.410935 10.116564 -0.8943553
17.443394 14.218687 0
18.849579 15.364915 1.358336
4.5597835 3.7260098 -0.98170185
6.5845642 5.3805518 -0.94779247
12.422848 10.151283 -0.89609694
17.468519 14.274334 0
18.839046 15.394257 1.3589165
4.5592456 3.734767 -0.98255694
6.568048 5.3803043 -0.94635016
12.452784 10.200864 -0.89914477
17.489511 14.326767 0
18.856611 15.446644 1.3615288
4.5448122 3.7321291 -0.98041755
6.5655437 5.3915224 -0.94692731
12.436437 10.212608 -0.89885473
17.516432 14.384222 0
18.874075 15.499097 1.364141
4.5363393 3.7343581 -0.9795624
6.5590243 5.3994517 -0.94692731
12.464203 10.260651 -0.901757
17.541231 14.44011 0
18.933567 15.586294 1.3698009
4.5397434 3.7463722 -0.98127431
6.5644612 5.4172478 -0.9486565
12.435762 10.262473 -0.9005959
17.561903 14.492763 0
18.968834 15.653817 1.3737199
4.5411415 3.7567592 -0.98255694
6.5579104 5.4251757 -0.9486565
12.457388 10.305647 -0.90306312
17.578466 14.542171 0
18.989941 15.709846 1.3766221
4.5385809 3.7638869 -0.98298615
6.5573254 5.4380503 -0.94952166
12.442928 10.319035 -0.9029181
17.622984 14.614903 0
19.020947 15.774246 1.3802505
4.5419254 3.7759326 -0.98469806
6.5527368 5.4476213 -0.94980967
12.426457 10.330743 -0.90262812
17.655334 14.677773 0
19.067808 15.852035 1.3850399
4.5294719 3.7748439 -0.98298615
6.5481343 5.4571896 -0.95009768
12.43792 10.365713 -0.90436977
17.663582 14.720759 0
19.100536 15.918312 1.3888133
4.5327873 3.7868974 -0.98469806
6.5534492 5.4750509 -0.951828
12.435354 10.389063 -0.90509534
17.695704 14.783798 0
19.127155 15.979698 1.3921516
4.5242686 3.789072 -0.9838413
6.5428591 5.4796405 -0.95125085
12.43673 10.415754 -0.90611088
17.701769 14.825221 0
19.165602 16.05118 1.3963605
4.5216508 3.796185 -0.98426884
6.5362334 5.4875426 -0.95125085
12.436081 10.440803 -0.906982
17.713741 14.871701 0
19.18997 16.11108 1.3995533
4.5268865 3.8099155 -0.9864099
6.5276208 5.4937725 -0.95096284
12.423456 10.455821 -0.906982
19.266697 16.215225 0
19.190367 16.150984 1.4010044
4.5065832 3.8021398 -0.98298615
6.5328431 5.5116663 -0.95269316
12.43067 10.487577 -0.90843314
21.015343 17.730343 0
19.192684 16.192593 1.4026011
4.5254989 3.8274686 -0.98812014
6.5261788 5.5195556 -0.95269316
12.431878 10.514338 -0.90944922
21.023705 17.780928 0
21.000286 17.76112 1.5362678
4.5228348 3.8345988 -0.98854935
6.5273886 5.5341215 -0.9538452
12.437 10.544474 -0.91075534
21.079617 17.87195 0
21.022409 17.823448 1.5394605
4.5045037 3.8284223 -0.98555315
6.5128212 5.5353107 -0.95269316
12.45593 10.586417 -0.91307759
21.115513 17.946281 0
21.064209 17.902678 1.5441045
4.5115948 3.843848 -0.98812014
6.5100617 5.5465279 -0.95326918
12.466864 10.621682 -0.91481924
21.103724 17.980227 0
21.092007 17.970245 1.5477328
4.512805 3.8542998 -0.98940444
6.5171247 5.5661502 -0.95528752
12.422407 10.609737 -0.91249704
21.222475 18.125706 0
21.131533 18.048033 1.5522323
4.5061965 3.8580818 -0.9889769
6.5182528 5.5807495 -0.95644069
12.417473 10.631499 -0.91307759
21.230213 18.176725 0
21.166941 18.122553 1.5564406
4.5097136 3.8658173 -0.9902612
6.5129108 5.5829983 -0.95615155
12.407099 10.635614 -0.91278702
21.2785 18.240358 0
21.205307 18.177616 1.560069
4.4972515 3.8645713 -0.98854935
6.5002809 5.5858111 -0.95528752
12.400152 10.655681 -0.91322261
21.359077 18.35425 0
21.260189 18.269274 1.5657295
4.4945216 3.8716762 -0.9889769
6.5013652 5.6004138 -0.95644069
12.4168 10.696095 -0.91539985
21.370403 18.408918 0
21.285339 18.335644 1.5692123
4.4967937 3.8926039 -0.99154389
6.4917197 5.6194911 -0.95701671
12.412521 10.744773 -0.91699594
21.428173 18.54908 0
21.378487 18.506071 1.5793718
4.4940314 3.8997219 -0.99197304
6.4966421 5.6374989 -0.9587459
12.399529 10.759764 -0.91699594
21.533501 18.68582 0
21.413023 18.581276 1.5835807
4.4815688 3.8984101 -0.9902612
6.4937325 5.6487432 -0.95932305
12.412004 10.796906 -0.91888261
21.563917 18.757936 0
21.457209 18.665115 1.5885152
4.4845943 3.9105709 -0.99197304
6.4869022 5.6565852 -0.95932305
12.389158 10.803359 -0.91815704
21.554968 18.795954 0
21.475765 18.726891 1.591563
4.4856586 3.9210503 -0.99325573
6.4897976 5.6729288 -0.96076423
12.401526 10.840551 -0.92004371
21.55183 18.839109 0
21.523544 18.814383 1.5967875
4.4789886 3.9247773 -0.99282819
6.4771004 5.6756511 -0.95989907
12.390371 10.857239 -0.92018872
22.5938 19.798138 0
21.518381 18.855787 1.5980935
4.4742432 3.9301865 -0.99282819
6.4799595 5.6920128 -0.96134138
12.41043 10.901353 -0.92265594
22.544445 19.803097 0
22.526312 19.787169 1.6747233
4.4714155 3.9372847 -0.99325573
6.4769559 5.7032537 -0.9619174
12.422599 10.938663 -0.92454261
22.500971 19.813128 0
22.490688 19.804073 1.6738527
4.4666548 3.9426847 -0.99325573
6.4719973 5.7127857 -0.96220541
12.403534 10.948511 -0.92410761
22.455551 19.821356 0
22.455051 19.820913 1.6729816
4.4657364 3.9514842 -0.99411249
6.4650893 5.7206016 -0.96220541
12.39808 10.970378 -0.92468822
22.419893 19.838129 0
22.421356 19.839424 1.672256
4.4628773 3.9585791 -0.99454004
6.4581728 5.7284093 -0.96220541
12.406193 11.004313 -0.92628431
22.386166 19.856565 0
22.377934 19.849262 1.6708049
4.4638476 3.9690878 -0.99582434
6.457047 5.7413664 -0.96307057
12.38318 11.010664 -0.92555875
22.366051 19.887062 0
22.353931 19.876287 1.6708049
4.4552121 3.9710591 -0.99496758
6.4520335 5.7508836 -0.96335858
12.38926 11.042905 -0.92700988
22.324522 19.898489 0
22.310497 19.88599 1.6693532
4.4619002 3.9867051 -0.99753624
6.4508681 5.7638469 -0.96422374
12.389474 11.069987 -0.92802596
22.296577 19.921978 0
22.282581 19.909473 1.6690632
4.4456029 3.9818139 -0.99496758
6.4496808 5.7768159 -0.9650889
12.368346 11.078015 -0.92744541
22.262798 19.940226 0
22.231415 19.912115 1.6670315
4.4522529 3.9974761 -0.99753624
6.4369206 5.7794194 -0.96422374
12.368488 11.105105 -0.92846155
22.22126 19.951464 0
22.195734 19.928545 1.6661605
4.4435997 3.9994149 -0.99667948
6.4433918 5.7993069 -0.96624207
12.370511 11.133948 -0.92962265
22.193264 19.974813 0
22.142673 19.929279 1.6639838
4.4463878 4.0116596 -0.99839133
6.4402165 5.8105502 -0.96681809
12.364766 11.15585 -0.9302032
22.161392 19.99465 0
22.120504 19.95776 1.6641288
4.4415369 4.0170293 -0.99839133
6.4236016 5.8096542 -0.96537691
12.360911 11.179496 -0.93092877
22.12756 20.012678 0
22.107931 19.994926 1.6649994
4.4328799 4.0189481 -0.99753624
6.4357352 5.8347812 -0.96825927
12.353171 11.199661 -0.93136436
22.099508 20.035908 0
22.089533 20.026863 1.6654348
4.4242177 4.0208449 -0.99667948
6.4248557 5.8390775 -0.96768326
12.320396 11.1971 -0.92991263
22.088766 20.07485 0
22.065317 20.053539 1.6654348
4.4293823 4.0304279 -0.99839133
6.4251494 5.846436 -0.96825927
12.350147 11.237769 -0.93267047
22.101656 20.11096 0
22.066654 20.079109 1.666451
4.4283061 4.0392404 -0.99924809
6.4199967 5.8559432 -0.96854842
12.357672 11.271941 -0.93426657
22.079262 20.139402 0
22.071167 20.132021 1.6686277
6.4148235 5.8654404 -0.96883643
12.336372 11.279851 -0.93368602
22.054911 20.166067 0
22.054497 20.165688 1.6692083
6.417263 5.8819237 -0.97027761
12.374455 11.342155 -0.9376049
22.040119 20.201492 0
22.022451 20.185299 1.6686277
4.4098506 4.0517888 -0.99839133
6.4139571 5.8931699 -0.97085363
12.33778 11.336003 -0.93586326
22.038689 20.249237 0
22.01144 20.224201 1.6696438
4.4106183 4.0623336 -0.99967563
6.4144416 5.9079247 -0.9720068
12.377583 11.400186 -0.93992656
22.033344 20.29348 0
21.994633 20.257826 1.6702243
6.4111028 5.9191833 -0.97258395
12.316079 11.371075 -0.93629879
22.083376 20.388935 0
22.014046 20.324923 1.6735622
6.4001455 5.9234085 -0.9720068
12.35191 11.431834 -0.94007212
21.970875 20.334297 0
21.98947 20.351507 1.6735622
6.3929839 5.9311376 -0.9720068
12.315228 11.425544 -0.93833047
22.791426 21.144913 0
21.938198 20.353325 1.6715305
6.3933883 5.9459038 -0.97315997
12.320438 11.458108 -0.93978161
22.826843 21.229151 0
21.885046 20.353271 1.6693532
6.3843093 5.9518623 -0.97287196
12.308483 11.474757 -0.93992656
22.852566 21.304626 0
21.85664 20.37616 1.6690632
6.3846717 5.9666362 -0.97402513
12.3079 11.502042 -0.9409427
22.954199 21.451275 0
22.707157 21.220409 1.7359691
6.3774576 5.9743466 -0.97402513
12.311058 11.532891 -0.94224882
23.03652 21.58041 0
22.782003 21.341982 1.7436613
6.3796597 5.9908991 -0.97546631
12.266808 11.519299 -0.93992656
23.019911 21.617136 0
22.903934 21.508226 1.7549814
6.3686533 5.9950609 -0.97489029
12.273694 11.553705 -0.94152325
22.99946 21.650288 0
22.946035 21.599997 1.7602059
6.3689294 6.0098524 -0.97604346
12.269172 11.577442 -0.94224882
22.969494 21.674486 0
22.936935 21.643763 1.7615125
6.3654175 6.0210953 -0.97661948
12.238186 11.57619 -0.9409427
22.931948 21.691498 0
22.920202 21.680387 1.762238
6.3600125 6.03056 -0.97690749
12.233616 11.599907 -0.94166827
22.909494 21.722769 0
22.895872 21.709852 1.7623831
6.3583474 6.0435882 -0.97777265
12.187574 11.584249 -0.939201
22.862478 21.730711 0
22.869623 21.737501 1.7623831
6.3622789 6.061975 -0.97950298
12.158518 11.584627 -0.9380399
15.763383 15.019341 0
22.847109 21.768707 1.7626736
6.341855 6.0571513 -0.97748464
12.163306 11.617261 -0.93949157
15.756513 15.049158 0
22.813272 21.78912 1.7620931
6.3420048 6.0719647 -0.97863781
12.14926 11.631949 -0.93949157
15.723278 15.053787 0
15.705724 15.036981 1.2145098
6.3477206 6.092155 -0.98065501
12.144567 11.655615 -0.94021714
15.712587 15.079983 0
15.691297 15.059548 1.2148004
6.3366303 6.0962372 -0.980079
12.122985 11.663075 -0.93963659
22.674515 21.81431 0
15.658108 15.064086 1.2136393
6.3403974 6.1072416 -0.98123217
12.132778 11.686619 -0.9409427
22.657587 21.824398 0
15.619061 15.044701 1.2113171
6.3311548 6.1131039 -0.98094416
12.107436 11.690445 -0.94007212
17.569021 16.963926 0
21.800985 21.050138 1.6927201
6.327477 6.1243434 -0.98152018
12.121303 11.732168 -0.94224882
17.526077 16.96343 0
22.597019 21.871578 1.756578
6.3293524 6.1409883 -0.98296136
12.118311 11.757666 -0.94311994
17.486885 16.966469 0
22.561245 21.889814 1.7558519
6.3182225 6.1450281 -0.98238534
12.063112 11.732439 -0.93992656
17.451447 16.97307 0
22.439785 21.824669 1.7484502
6.3070855 6.1490436 -0.98180819
12.084279 11.781473 -0.94268435
17.429064 16.992331 0
22.368752 21.808239 1.7449675
6.3126011 6.1693163 -0.98382652
12.060744 11.786986 -0.94195879
17.386185 16.991549 0
22.379545 21.871569 1.7478696
6.3032966 6.1751308 -0.98353851
12.057627 11.812458 -0.94282937
17.356348 17.003439 0
22.406927 21.951326 1.7520785
6.2976742 6.1845531 -0.98382652
12.058176 11.841584 -0.94399047
17.332079 17.020756 0
22.387802 21.985666 1.7526591
6.2994108 6.2012291 -0.9852677
12.049417 11.861616 -0.94442606
17.322624 17.052637 0
22.350115 22.001768 1.7517886
6.2863955 6.2033911 -0.98440367
12.048017 11.888937 -0.9454416
17.335348 17.106455 0
22.303165 22.00868 1.7501919
6.2917619 6.2237101 -0.98642087
12.015173 11.885216 -0.94399047
17.325769 17.138374 0
22.208206 21.968002 1.7448219
6.2934184 6.2404118 -0.98786205
11.995266 11.894235 -0.94355494
17.308741 17.162958 0
21.921499 21.736862 1.7243584
6.2822084 6.2443686 -0.98728603
11.977202 11.90506 -0.9432649
17.278763 17.174688 0
21.882315 21.750511 1.7233423
6.2746587 6.2519546 -0.98728603
11.913116 11.870009 -0.93934655
17.293022 17.23045 0
21.925962 21.846626 1.7288574
6.2652717 6.2577057 -0.98699802
11.915309 11.90092 -0.94065267
21.462906 21.436987 0
21.982279 21.955732 1.7353885
6.2686691 6.276248 -0.98872721
11.908265 11.922663 -0.94123328
0 0 0
22.016329 22.042948 1.740178
6.2665596 6.2893167 -0.98959237
11.912188 11.955446 -0.94268435
21.541452 21.61968 0
22.112555 22.192856 1.7499019
6.2531619 6.3062768 -0.98988038
11.883261 11.984199 -0.94268435
21.436005 21.618084 0
22.221684 22.410437 1.7628186
6.2419028 6.310154 -0.98930436
11.855978 11.985615 -0.94166827
0 0 0
22.309706 22.553648 1.7719619
6.2469854 6.3305731 -0.99132156
11.79586 11.953695 -0.9380399
15.28223 15.486714 0
22.419312 22.719292 1.7828465
6.2393317 6.3381171 -0.99132156
11.816045 12.003124 -0.94079769
15.278112 15.520005 0
22.462938 22.818584 1.788507
6.2336898 6.3400426 -0.99103355
11.819718 12.021375 -0.94166827
15.254137 15.514387 0
22.47283 22.856237 1.7903937
6.2387042 6.3604975 -0.99305189
11.78335 12.013387 -0.93992656
15.222628 15.519807 0
22.439735 22.877808 1.7899581
6.214736 6.3513947 -0.99045753
11.788817 12.048047 -0.94152325
15.185659 15.519585 0
22.404806 22.897476 1.7893776
6.2341518 6.3866572 -0.99478108
11.776065 12.064141 -0.94166827
15.197798 15.56958 0
22.366236 22.913378 1.788507
6.2174101 6.384922 -0.9933399
11.757856 12.074641 -0.94137824
15.16445 15.573016 0
22.333094 22.934799 1.7880715
6.2205005 6.4035578 -0.99506909
11.754118 12.100019 -0.94224882
27.330841 28.135134 0
22.283638 22.939402 1.7863297
6.2163615 6.4147878 -0.99564624
11.710556 12.084356 -0.93992656
27.3421 28.214859 0
22.250477 22.960711 1.7858943
6.2175932 6.4315906 -0.99708742
11.692337 12.094765 -0.93963659
27.365866 28.307745 0
22.226334 22.99132 1.7861848
6.2062225 6.4353714 -0.99651027
11.722808 12.155642 -0.9432649
27.324413 28.333298 0
22.166071 22.984495 1.7835726
6.2074137 6.4521909 -0.99795258
11.666675 12.126727 -0.93992656
27.264902 28.34004 0
22.134676 23.007513 1.783282
6.1942382 6.4540863 -0.99708742
11.661015 12.150194 -0.94065267
27.218023 28.359818 0
22.105062 23.03237 1.783137
6.184648 6.4596996 -0.99679941
11.653513 12.171782 -0.94123328
15.422729 16.108627 0
22.068233 23.049679 1.7824115
6.1857691 6.4765182 -0.99824059
11.651355 12.199003 -0.94224882
15.403253 16.127251 0
22.027802 23.063173 1.7813953
6.1815038 6.4877295 -0.99881661
11.640195 12.216839 -0.94253939
15.374774 16.136425 0
21.994539 23.084127 1.7809597
6.1718798 6.4933209 -0.9985286
11.627213 12.232776 -0.94268435
15.34451 16.143677 0
21.959469 23.103151 1.7803792
11.576666 12.209105 -0.93978161
15.319619 16.156538 0
21.92618 23.124018 1.7799442
6.1579456 6.5100942 -0.99881661
11.588691 12.251402 -0.94195879
15.287572 16.161808 0
21.882154 23.133507 1.7786381
11.547128 12.237045 -0.93978161
15.255528 16.167015 0
21.855967 23.161818 1.7787831
11.575078 12.296398 -0.9432649
15.227065 16.175964 0
21.82262 23.182531 1.7783475
11.515744 12.263022 -0.93963659
15.207508 16.194351 0
21.787477 23.201307 1.7777669
11.500918 12.276928 -0.93963659
15.196824 16.22221 0
21.74699 23.21434 1.7767509
11.509139 12.315494 -0.94152325
15.177212 16.240561 0
21.710054 23.23111 1.7760253
11.478304 12.312287 -0.94021714
15.162903 16.264599 0
21.669571 23.244026 1.7750098
11.48819 12.352783 -0.94224882
15.130831 16.269567 0
21.645004 23.273994 1.7752998
11.457352 12.349513 -0.9409427
15.091689 16.26685 0
21.600964 23.282988 1.7739936
11.416337 12.320225 -0.93818545
15.081859 16.275965 0
21.579828 23.28841 1.7734131
11.452591 12.389343 -0.94239438
15.085152 16.319025 0
21.530506 23.291571 1.7716714
11.395336 12.357327 -0.93891102
15.132462 16.409939 0
22.141748 24.010948 1.8243544
11.420854 12.415066 -0.94224882
15.197189 16.52014 0
22.109205 24.033863 1.8240644
11.358413 12.377172 -0.93833047
15.23176 16.597927 0
22.104742 24.08736 1.8260961
11.380294 12.431133 -0.94137824
15.218723 16.623999 0
22.103695 24.144716 1.8284183
11.347738 12.425684 -0.93992656
15.177566 16.619314 0
22.060486 24.156057 1.8272572
11.32922 12.435549 -0.93963659
15.148711 16.628023 0
21.999786 24.148125 1.8246449
11.317677 12.453071 -0.93992656
15.121607 16.638613 0
21.907677 24.105463 1.81942
11.29041 12.453267 -0.93891102
15.097999 16.653019 0
21.847122 24.097269 1.8168077
11.306725 12.501586 -0.94152325
16.161886 17.869825 0
21.807528 24.112083 1.8159366
11.275947 12.497877 -0.94021714
16.136791 17.885473 0
21.799265 24.161566 1.8176782
11.2591 12.509563 -0.94007212
16.11517 17.904959 0
21.754412 24.170509 1.8163722
11.217936 12.494154 -0.93789488
16.102215 17.934097 0
21.688736 24.156176 1.8133243
11.1907 12.494157 -0.93687934
16.082273 17.955484 0
21.604055 24.120426 1.8086799
11.180784 12.513476 -0.93731433
16.065763 17.980721 0
21.56451 24.134892 1.8078094
11.176033 12.538619 -0.93818545
16.035368 17.990408 0
21.531878 24.157055 1.8075193
11.197131 12.592891 -0.94123328
15.999784 17.994211 0
19.582779 22.023838 1.6461326
11.150867 12.571417 -0.93862045
15.981488 18.017429 0
19.583735 22.078579 1.6484543
11.132228 12.580994 -0.93833047
15.951077 18.026976 0
19.60009 22.150875 1.6520826
11.127333 12.60612 -0.939201
15.927564 18.044287 0
19.612862 22.219349 1.655421
11.112092 12.619556 -0.939201
15.917789 18.077192 0
19.635798 22.299583 1.6596298
11.089976 12.625165 -0.93862045
15.906237 18.108141 0
19.617411 22.333054 1.6603554
11.083281 12.648333 -0.93934655
23.181974 26.455462 0
19.605822 22.374327 1.6616615
11.074823 12.669534 -0.93992656
23.14999 26.483454 0
19.426579 22.223892 1.6487448
11.050081 12.656651 -0.93847549
23.156237 26.522919 0
19.278147 22.080996 1.6372793
11.016012 12.648446 -0.93687934
23.148098 26.578352 0
19.268522 22.123873 1.6387309
11.000721 12.661747 -0.93687934
23.146687 26.641661 0
19.269037 22.178514 1.6410526
11.000729 12.6927 -0.93818545
23.153683 26.714844 0
19.267754 22.231237 1.6432298
10.968387 12.686323 -0.93673378
23.116278 26.736893 0
19.291857 22.313469 1.6475837
10.959838 12.707438 -0.93731433
0 0 0
19.390457 22.482361 1.6583232
10.973284 12.754155 -0.93978161
0 0 0
18.739656 21.780945 1.6049147
10.930788 12.735856 -0.93745935
26.371677 30.726597 0
18.706556 21.795685 1.6043341
10.903566 12.735244 -0.93644381
26.320992 30.742624 0
18.685278 21.824196 1.6047697
10.903088 12.797154 -0.93905604
26.148731 30.691248 0
18.632483 21.869287 1.6047697
10.885936 12.808342 -0.93891102
26.115002 30.726791 0
18.607725 21.893763 1.6049147
10.845244 12.791755 -0.93673378
26.025681 30.696783 0
18.596386 21.934074 1.6062213
10.818039 12.790967 -0.93571824
25.828926 30.539448 0
18.677254 22.083498 1.6155097
10.824357 12.829845 -0.9376049
25.78697 30.564665 0
18.730978 22.20137 1.6224759
10.810518 12.844901 -0.93774992
21.666315 25.743603 0
18.700796 22.220015 1.6221858
10.796659 12.859942 -0.93789488
21.600054 25.727909 0
18.69899 22.27244 1.6243625
10.767765 12.857042 -0.93673378
21.563936 25.748003 0
18.625357 22.239248 1.6202992
10.758886 12.87802 -0.93731433
21.51112 25.748077 0
18.573481 22.231823 1.618122
10.743318 12.89101 -0.93731433
21.473328 25.766054 0
18.490046 22.186384 1.6131874
10.71611 12.890001 -0.93629879
21.428869 25.77597 0
18.434986 22.174744 1.6107203
10.713791 12.918934 -0.93745935
21.391062 25.793831 0
18.403202 22.191 1.6102847
10.689893 12.921861 -0.93673378
21.341637 25.797607 0
18.37472 22.21122 1.6101397
10.66719 12.910291 -0.93542767
21.324385 25.808485 0
19.298038 23.356037 1.6922845
10.654891 12.927184 -0.93571824
20.205738 24.514874 0
19.256582 23.363297 1.6911234
10.655763 12.960116 -0.93716937
20.146355 24.50309 0
19.228338 23.386547 1.6911234
10.658223 12.995085 -0.938766
20.11343 24.523386 0
19.211603 23.42383 1.6921394
10.640863 13.005937 -0.93862045
20.057421 24.515451 0
18.230646 22.28265 1.608108
10.603783 12.992617 -0.93673378
20.009682 24.517488 0
18.17742 22.272453 1.6057857
10.612686 13.035648 -0.93891102
19.952112 24.507341 0
18.132448 22.272232 1.6041892
10.572354 13.018204 -0.93673378
12.976305 15.978293 0
18.121906 22.314301 1.6056408
10.556617 13.030969 -0.93673378
12.948799 15.983852 0
18.091658 22.332138 1.6053503
10.531067 13.031592 -0.93586326
12.926208 15.995442 0
18.087523 22.382273 1.6073819
10.503897 13.030145 -0.93484712
12.900338 16.002945 0
18.619799 23.097969 1.6571627
10.488144 13.042828 -0.93484712
12.866316 16.000269 0
18.616295 23.15082 1.6593393
10.477256 13.061574 -0.93528265
12.871394 16.046249 0
18.684231 23.292879 1.6679021
10.458216 13.070162 -0.93499213
12.819484 16.021158 0
18.833019 23.536577 1.6837217
10.466732 13.113254 -0.93716937
12.814726 16.054939 0
18.18376 22.781538 1.6281359
10.455737 13.131991 -0.9376049
12.702919 15.954364 0
18.157843 22.805532 1.6282815
10.423697 13.124265 -0.93615323
12.704672 15.996192 0
18.123808 22.819317 1.6277008
10.409451 13.138892 -0.93629879
12.656247 15.974817 0
19.591961 24.729132 1.762238
10.369398 13.120879 -0.93412155
12.628869 15.979891 0
19.552397 24.740551 1.761367
10.405014 13.198698 -0.938766
12.61277 15.999223 0
19.512838 24.751919 1.7604964
10.368179 13.18471 -0.93687934
12.588608 16.00832 0
19.468462 24.757097 1.7591902
10.331388 13.170644 -0.93499213
12.588524 16.048082 0
19.435324 24.77651 1.7588997
10.342686 13.217905 -0.93745935
12.564318 16.057138 0
19.386162 24.775427 1.7571586
10.326707 13.230392 -0.93745935
12.533695 16.057945 0
19.343422 24.782446 1.7559974
10.280388 13.203911 -0.9347021
12.578237 16.155218 0
19.295902 24.783245 1.7544008
10.297895 13.259418 -0.93774992
12.66565 16.308104 0
19.275501 24.818851 1.7552713
10.267589 13.236897 -0.93571824
12.687697 16.35688 0
19.297136 24.877718 1.7586097
10.235683 13.228738 -0.93426657
12.642442 16.339266 0
19.322712 24.972939 1.7636892
10.265731 13.300748 -0.93847549
12.525701 16.228867 0
19.35285 25.07443 1.7692041
10.227464 13.284321 -0.93644381
12.558472 16.312038 0
19.349483 25.132797 1.7716714
10.225647 13.315215 -0.93774992
12.475348 16.244638 0
19.323853 25.162342 1.772107
10.147928 13.247119 -0.93208987
12.433557 16.23078 0
21.663574 28.279659 1.989805
10.150846 13.284147 -0.93383157
12.424998 16.260269 0
21.621496 28.295485 1.9890789
10.073354 13.215804 -0.92817098
12.397449 16.264915 0
21.580996 28.313332 1.9884989
9.9991961 13.151443 -0.92280149
12.377787 16.279884 0
18.439295 24.252283 1.7017179
0 0 -0
12.351816 16.286533 0
18.381718 24.237284 1.6991056
0 0 -0
12.344689 16.31805 0
18.368092 24.280195 1.7005568
0 0 -0
27.804396 36.846191 0
18.324656 24.283707 1.6992506
0 0 -0
27.780199 36.906788 0
21.450172 28.497169 1.9922723
0 0 -0
27.751213 36.961143 0
21.418842 28.527218 1.9925623
0 0 -0
27.70809 36.996731 0
21.359434 28.519802 1.99024
9.8704948 13.212645 -0.92120486
27.655581 37.01976 0
21.312517 28.528934 1.9890789
9.8545227 13.224562 -0.92120486
27.612383 37.055237 0
21.231455 28.492163 1.984725
9.8710871 13.280252 -0.92425263
27.572248 37.094841 0
23.401144 31.483168 2.191103
10.003595 13.492545 -0.93818545
27.527407 37.128128 0
23.378559 31.53229 2.1925542
10.070708 13.617427 -0.94602215
27.442287 37.106956 0
23.379066 31.612743 2.1961825
10.105149 13.698588 -0.95081162
23.770113 32.222878 0
23.448826 31.787338 2.206342
10.062411 13.675211 -0.94834441
23.72962 32.249481 0
0 0 0
10.078166 13.731348 -0.95139217
23.681393 32.265537 0
0 0 0
10.0631 13.74561 -0.95153719
23.613184 32.254238 0
0 0 0
10.071858 13.810018 -0.95473051
28.880339 39.599247 0
23.346064 32.010929 2.2130175
10.044462 13.807467 -0.95371443
28.837063 39.640427 0
23.311954 32.045422 2.2134531
10.038455 13.834317 -0.95473051
28.792204 39.679459 0
0 0 0
10.068956 13.911684 -0.95922941
28.73966 39.707893 0
0 0 0
10.039972 13.906986 -0.95806831
28.684044 39.732044 0
20.42457 28.291334 1.9490227
10.0262 13.923328 -0.95835888
28.643618 39.777229 0
20.414665 28.349731 1.9513448
10.047259 13.988185 -0.96198666
28.606157 39.826603 0
20.360689 28.346943 1.9494582
10.045486 14.021441 -0.96343833
28.594389 39.911911 0
20.28405 28.31238 1.9453943
10.002855 13.997631 -0.96097112
0 0 0
21.068621 29.48266 2.0240557
10.032684 14.075295 -0.96547002
24.936117 34.983978 0
21.034494 29.51022 2.0242012
10.002121 14.06835 -0.9641639
24.84256 34.941971 0
20.909992 29.410671 2.0156384
10.013669 14.120691 -0.96692115
24.783764 34.94862 0
20.815823 29.353258 2.0099785
10.005606 14.145514 -0.96779227
24.715971 34.942421 0
20.765331 29.35717 2.0085268
9.9959946 14.168206 -0.96851778
24.649727 34.938236 0
20.734339 29.388611 2.0089624
9.9669046 14.163275 -0.96735668
24.586527 34.938202 0
20.74666 29.481636 2.0136063
9.9602356 14.190197 -0.96837282
24.547281 34.972141 0
20.805067 29.640667 2.0227497
9.9460592 14.206474 -0.9686628
24.502024 34.997517 0
20.796064 29.704103 2.0253625
9.9571543 14.258963 -0.97142059
24.465677 35.035629 0
20.791399 29.773947 2.0284102
9.9488258 14.283772 -0.97229117
24.421835 35.063026 0
20.649969 29.647665 2.0181057
9.9493494 14.321391 -0.97403282
24.397268 35.118156 0
20.572618 29.612843 2.0140419
9.9305592 14.331269 -0.9738878
24.357784 35.151894 0
20.596022 29.72311 2.0198474
9.9280062 14.36463 -0.97533894
24.309374 35.172737 0
20.617704 29.831335 2.0255075
9.92834 14.402287 -0.97708064
0 0 0
20.569845 29.839111 2.0243464
9.8932638 14.388579 -0.97533894
0 0 0
20.417477 29.694799 2.0128806
9.9095736 14.430966 -0.97780615
26.864962 39.122509 0
20.427481 29.747829 2.0156384
9.8906622 14.440788 -0.97766119
26.833849 39.178562 0
20.384182 29.761774 2.0149128
9.8966579 14.487058 -0.97998339
26.808506 39.243187 0
20.376049 29.827143 2.0176702
9.8791456 14.499005 -0.97998339
26.781586 39.305664 0
20.357552 29.87751 2.0194118
9.8513937 14.495886 -0.97896731
26.715059 39.310017 0
20.36525 29.966555 2.0237658
9.8630304 14.550797 -0.98187006
26.685057 39.368107 0
20.358185 30.034159 2.0266685
9.8337984 14.545483 -0.98070896
0 0 0
24.267122 35.894268 2.4201212
9.8481731 14.604747 -0.98390174
0 0 0
24.217922 35.914944 2.4195406
9.8232698 14.605857 -0.98317617
32.338409 48.082787 0
24.17886 35.950653 2.4199762
9.8461456 14.678138 -0.98724008
0 0 0
24.149876 36.001415 2.4214272
9.8110638 14.664108 -0.98549843
35.10041 52.462837 0
24.073128 35.980904 2.4180894
9.7976608 14.68243 -0.98593342
34.99366 52.440273 0
31.027384 46.496548 3.1222694
9.7914305 14.711563 -0.98709452
34.920177 52.46735 0
30.946707 46.497234 3.1198022
9.7837076 14.73854 -0.98811066
34.850998 52.500832 0
30.929304 46.593048 3.1237211
9.801753 14.804514 -0.99173898
34.77317 52.52121 0
35.999516 54.373474 3.6424224
9.7681055 14.792493 -0.99014235
34.713982 52.569695 0
35.929493 54.410423 3.6419868
9.7802372 14.849854 -0.99319011
34.637554 52.592041 0
35.866585 54.458141 3.6422775
9.7665682 14.868178 -0.9936257
34.571125 52.629509 0
35.780781 54.471031 3.6402452
9.7770748 14.923439 -0.99652845
34.497524 52.656006 0
30.744074 46.926846 3.13359
9.7590361 14.935242 -0.99652845
34.435295 52.699825 0
30.758413 47.07272 3.1408467
9.7438173 14.951372 -0.99681848
34.380123 52.754482 0
30.826351 47.301407 3.1536179
9.7498159 15.000171 -0.9992857
34.256786 52.704342 0
30.753601 47.314659 3.1520216
9.7147226 14.985776 -0.99754405
0 0 0
0 0 0
9.6966085 14.997503 -0.99754405
34.825905 53.864361 0
0 0 0
9.7044601 15.029554 -0.9992857
0 0 0
0 0 0
0 0 0
38.843475 60.317726 4.0072846
0 0 0
38.797241 60.406151 4.0100417
30.309507 47.316643 0
0 0 0
30.239702 47.333492 0
0 0 0
30.199268 47.396336 0
0 0 0
30.157328 47.456947 0
41.503799 65.312271 4.3223658
0 0 0
0 0 0
0 0 0
0 0 0
37.293121 59.158802 0
0 0 0
37.209145 59.183994 0
0 0 0
37.191521 59.314896 0
42.209938 67.31852 4.4381809
0 0 0
0 0 0
0 0 0
38.411697 61.591103 4.0544519
0 0 0
38.359207 61.672775 4.0567741
0 0 -0
38.337135 61.970715 0
38.162216 61.687958 4.0516944
0 0 0
38.089012 61.736233 4.0518398
33.70734 54.782261 0
38.021194 61.793274 4.0525651
33.616619 54.78302 0
37.927479 61.80817 4.0505333
33.577572 54.867996 0
37.877178 61.893845 4.0531459
33.496338 54.884098 0
0 0 0
33.421875 54.911186 0
0 0 0
33.356853 54.953754 0
0 0 0
0 0 0
0 0 0
0 0 0
0 0 0
0 0 0
0 0 0
0 0 0
42.524311 70.729317 4.6097269
41.967426 69.994446 0
42.416103 70.74276 4.6072593
0 0 0
42.351933 70.829643 4.6095819
0 0 0
42.237041 70.831673 4.606389
0 0 0
42.108925 70.811188 4.6017447
36.479591 61.513859 0
0 0 0
36.393314 61.537735 0
0 0 0
0 0 0
0 0 0
37.549274 63.843983 0
0 0 0
37.483959 63.909515 0
0 0 0
37.419846 63.977222 0
0 0 0
0 0 0
0 0 0
0 0 0
0 0 0
0 0 0
0 0 0
0 0 0
0 0 0
0 0 0
0 0 0
0 0 0
0 0 0
0 0 0
0 0 0
0 0 0
0 0 0
0 0 0
0 0 0
0 0 0
0 0 0
0 0 0
0 0 0
0 0 0
0 0 0
0 0 0
0 0 0
0 0 0
0 0 0
0 0 0
0 0 0
0 0 0
0 0 0
0 0 0
0 0 0
0 0 0
0 0 0
0 0 0
0 0 0
0 0 0
0 0 0
0 0 0
0 0 0
0 0 0
0 0 0
0 0 0
0 0 0
0 0 0
0 0 0
0 0 0
0 0 0
0 0 0
0 0 0
0 0 0
0 0 0
0 0 0
0 0 0
0 0 0
0 0 0
0 0 0
0 0 0
47.90152 89.29277 0
0 0 0
47.802185 89.366653 0
0 0 0
47.699066 89.433533 0
0 0 0
47.545757 89.40609 0
0 0 0
47.36211 89.32093 0
0 0 0
47.263878 89.396492 0
0 0 0
47.166748 89.474258 0
0 0 0
0 0 0
0 0 0
0 0 0
0 0 0
0 0 0
0 0 0
0 0 0
0 0 0
0 0 0
0 0 0
0 0 0
0 0 0
13.607604 26.390324 0
0 0 0
13.570947 26.397488 0
0 0 0
13.523609 26.38376 0
0 0 0
13.438432 26.295811 0
0 0 0
13.263691 26.03146 0
0 0 0
13.180368 25.945385 0
0 0 0
13.126666 25.917177 0
0 0 0
13.084784 25.912113 0
0 0 0
13.049953 25.920929 0
0 0 0
13.011621 25.922728 0
0 0 0
12.984946 25.947739 0
0 0 0
12.952424 25.961084 0
0 0 0
12.922203 25.979044 0
0 0 0
12.901208 26.015619 0
0 0 0
12.881296 26.054514 0
0 0 0
12.878568 26.128416 0
0 0 0
0 0 -0
12.910111 26.272417 0
0 0 0
12.941325 26.416533 0
0 0 0
12.99277 26.602858 0
0 0 0
13.017756 26.694904 0
0 0 0
12.984355 26.708277 0
0 0 0
12.950939 26.721605 0
0 0 0
17.576342 36.377102 0
0 0 0
17.523338 36.379555 0
0 0 0
17.477114 36.396008 0
0 0 0
17.426384 36.403019 0
0 0 0
17.38014 36.419346 0
0 0 0
17.336123 36.440319 0
0 0 0
17.297657 36.473003 0
0 0 0
17.263584 36.515053 0
0 0 0
17.226107 36.550007 0
0 0 0
17.206274 36.622608 0
11.682332 24.865202 1.5345261
17.174154 36.6693 0
11.648972 24.872238 1.5340905
17.133137 36.697102 0
11.615611 24.879229 1.5336549
1.7828001 3.8306093 -0.70439386
17.082193 36.703617 0
11.585541 24.893246 1.5336549
1.7900511 3.8583694 -0.70910025
0 0 0
11.536864 24.867157 1.5311878
1.7071263 3.6913054 -0.90094876
1.7993947 3.8908167 -0.71466345
0 0 0
11.514444 24.897591 1.5322038
1.7452157 3.7856653 -0.92346412
1.7946922 3.8929882 -0.71466345
0 0 0
0 0 0
1.7374562 3.7808428 -0.92177492
1.7964205 3.9091537 -0.71723205
0 0 0
0 0 0
1.7434664 3.8060355 -0.92740268
1.7970401 3.9229887 -0.7193715
0 0 0
0 0 0
1.7420335 3.8150756 -0.92909187
1.8232194 3.9928741 -0.73178214
0 0 0
11.268784 24.678782 1.5153688
1.7363708 3.8148675 -0.92852956
1.848166 4.0604854 -0.74376357
0 0 0
11.214197 24.637983 1.5120304
1.73176 3.8169627 -0.92852956
1.54524 3.4058549 -0.62351173
0 0 0
11.174757 24.63022 1.5107243
1.7367896 3.8342032 -0.93246812
1.5484772 3.4184775 -0.62565118
1.6282595 3.5946081 -0.43984726
50.809597 112.16921 0
11.178101 24.677202 1.5131916
1.7091539 3.7853563 -0.92008573
0 0 -0
1.623915 3.5965729 -0.43984726
50.661175 112.20206 0
11.136512 24.664639 1.5115949
1.6659955 3.7016902 -0.89925957
0 0 -0
1.6142614 3.5867417 -0.43840608
0 0 0
11.147223 24.768114 1.5171099
1.5596058 3.4765201 -0.84410006
0 0 -0
1.6003952 3.5674438 -0.43581063
0 0 0
11.140689 24.833729 1.5203032
1.5149556 3.3879459 -0.82214922
0 0 -0
1.5813041 3.5363231 -0.43177509
0 0 0
11.114912 24.856651 1.5208832
1.4953437 3.3549595 -0.81370538
0 0 -0
1.574926 3.5335109 -0.43119904
0 0 0
11.118721 24.946011 1.5255277
1.4964498 3.368381 -0.81652141
0 0 -0
1.5538535 3.4975917 -0.42658636
0 0 0
11.090682 24.964182 1.5258182
1.4944342 3.3748288 -0.81764609
0 0 -0
1.5496262 3.4994667 -0.42658636
0 0 0
11.074186 25.008448 1.527705
1.4800974 3.3533912 -0.81201833
0 0 -0
0 0 -0
0 0 0
11.007236 24.938606 1.5226249
1.4760444 3.3551772 -0.81201833
0 0 -0
0 0 -0
0 0 0
10.920597 24.823465 1.5147882
1.474028 3.3616078 -0.81314301
0 0 -0
0 0 -0
21.59045 49.238293 0
10.86451 24.777153 1.5111599
1.4658949 3.3540733 -0.81089151
0 0 -0
0 0 -0
21.534067 49.2715 0
10.8304 24.780739 1.5105793
1.4659001 3.36516 -0.81314301
0 0 -0
0 0 -0
21.455811 49.254543 0
10.776581 24.739012 1.507241
1.4638586 3.3715947 -0.8142699
0 0 -0
1.5324558 3.5295894 -0.4288927
21.36726 49.213589 0
10.737369 24.730566 1.5059348
1.4557472 3.3640335 -0.81201833
0 0 -0
1.5271636 3.529067 -0.42860469
21.279875 49.174889 0
10.671363 24.660063 1.5008553
1.4557066 3.3751225 -0.8142699
0 0 -0
1.5157269 3.5142825 -0.42658636
21.194675 49.140827 0
10.610687 24.601364 1.4965014
0 0 -0
1.4516274 3.376879 -0.8142699
0 0 -0
1.5155654 3.5256162 -0.42773953
21.117811 49.125755 0
10.531695 24.49958 1.4895347
0 0 -0
1.447546 3.3786304 -0.8142699
0 0 -0
1.5000987 3.5012906 -0.42456806
28.574755 66.694626 0
10.268781 23.967747 1.4564446
1.4334049 3.3680863 -0.81089151
0 0 -0
1.4804945 3.4787333 -0.42139766
28.442032 66.830536 0
10.222024 24.018795 1.4580413
1.4342942 3.3815095 -0.81370538
0 0 -0
1.4611394 3.4448001 -0.41707301
10.381953 24.47662 0
10.192994 24.031128 1.4580413
1.4282304 3.3785639 -0.8125807
0 0 -0
1.4539537 3.4394138 -0.41620785
10.366555 24.522701 0
10.147761 24.005133 1.4557191
1.4280932 3.3896534 -0.81483221
0 0 -0
1.4528104 3.4483211 -0.41707301
10.192434 24.192272 0
10.081426 23.928787 1.4503496
1.4200616 3.3820055 -0.8125807
0 0 -0
1.4546489 3.4643781 -0.4188022
10.100729 24.055803 0
10.019309 23.861893 1.4455602
1.4208775 3.3954363 -0.81539458
0 0 -0
1.4434754 3.4494381 -0.41678497
10.079692 24.087196 0
9.9673977 23.818848 1.4422218
1.4207866 3.4009879 -0.81652141
0 0 -0
1.4463753 3.4622402 -0.41822615
10.092221 24.158112 0
9.9319715 23.774517 1.4391741
1.414721 3.398006 -0.81539458
0 0 -0
1.435231 3.4472685 -0.41620785
10.126039 24.321644 0
9.9112272 23.805691 1.4403352
1.4446936 3.4818475 -0.83509392
0 0 -0
1.4380043 3.4657254 -0.41822615
10.117588 24.384338 0
9.9212904 23.911245 1.4459952
1.481263 3.5822053 -0.85873401
0 0 -0
1.4288746 3.4555118 -0.41678497
10.671847 25.808208 0
9.8784924 23.889603 1.4439635
1.4933904 3.6239274 -0.86830252
0 0 -0
1.4207565 3.4476702 -0.4156318
11.735296 28.477388 0
9.7971525 23.774202 1.4362718
0 0 -0
0 0 -0
1.4293622 3.4804857 -0.41937932
11.682096 28.445814 0
9.723999 23.67786 1.4297407
0 0 -0
0 0 -0
1.4222156 3.4750266 -0.41851419
11.63096 28.418964 0
9.715066 23.73769 1.4326434
1.4869622 3.6457882 -0.87224323
0 0 -0
1.4092255 3.4551904 -0.41591984
0 0 0
9.7275896 23.85046 1.4387391
1.4873387 3.6593494 -0.8750571
0 0 -0
1.4040766 3.4544969 -0.4156318
0 0 0
9.7075691 23.88386 1.4400451
1.4791005 3.6517239 -0.8728056
0 0 -0
1.3931035 3.4394076 -0.4136135
0 0 0
9.6582184 23.844997 1.4369973
1.477541 3.6605792 -0.87449479
0 0 -0
1.3947572 3.4554837 -0.41534379
0 0 0
9.6225901 23.839781 1.4359813
1.4740641 3.664717 -0.8750571
0 0 -0
1.3838234 3.4403667 -0.41332546
21.893917 54.431152 0
9.6015348 23.870676 1.4371424
1.467746 3.661783 -0.87393242
0 0 -0
1.3806268 3.4444346 -0.4136135
0 0 0
9.6654902 24.113794 1.4510752
1.4699153 3.6800644 -0.87787098
0 0 -0
1.3755053 3.4437008 -0.41332546
1.8230913 4.5642719 0
9.6806812 24.236452 1.4577513
1.4673486 3.686564 -0.87899786
0 0 -0
1.3770804 3.4597745 -0.41505468
1.791429 4.500783 -0.27057847
1.8012146 4.5253677 0
9.6773319 24.313311 1.4616697
1.45821 3.676527 -0.87618399
0 0 -0
1.3719463 3.459034 -0.41476667
1.7907785 4.5150189 -0.27130401
1.8187733 4.5856009 0
9.6038799 24.213882 1.4549935
1.4565657 3.6853685 -0.87787098
0 0 -0
1.3630133 3.4486642 -0.41332546
1.788188 4.5244312 -0.27173957
1.8027079 4.5611696 0
9.4523706 23.916168 1.4364167
1.4539756 3.6918588 -0.87899786
0 0 -0
1.3578984 3.4479043 -0.41303745
1.7751024 4.507247 -0.27057847
1.7952898 4.558506 0
9.388236 23.83812 1.4310467
1.4439424 3.6794167 -0.87561947
1.3700272 3.4910676 -0.62522358
1.3527873 3.4471374 -0.41274944
1.787688 4.5553398 -0.2733357
1.7907302 4.5630922 0
9.3565769 23.842186 1.4306113
1.4450495 3.6953616 -0.87899786
1.3611343 3.4807689 -0.62308419
1.3448532 3.4391339 -0.41159627
1.7755609 4.5405636 -0.27232012
1.7899535 4.5773692 0
9.3287106 23.855902 1.4307568
1.4396617 3.6947396 -0.87843549
1.3587897 3.4871902 -0.62393928
1.3482056 3.460027 -0.41390151
1.7681845 4.537859 -0.27202958
1.7853689 4.5819607 0
9.2951593 23.855043 1.4300307
1.4315177 3.6870019 -0.87618399
1.3573633 3.496011 -0.62522358
1.3374735 3.4447827 -0.41188428
1.7664621 4.5496812 -0.27261013
1.7704099 4.5598493 0
9.2550459 23.8372 1.4282895
1.4224786 3.6768825 -0.87337011
1.3577684 3.5096169 -0.62736303
1.337043 3.4560452 -0.41303745
1.7647135 4.5615058 -0.27319071
1.7592667 4.5474267 0
9.2102995 23.807169 1.4258223
1.4216869 3.6880729 -0.87561947
1.3507558 3.5040669 -0.62607872
1.3319367 3.4552472 -0.41274944
1.7657439 4.5806093 -0.27420682
0 0 0
9.1647015 23.774633 1.4232095
1.4236078 3.706394 -0.87956017
1.3474439 3.5080998 -0.62650794
1.3407426 3.4906526 -0.41678497
1.7480967 4.551208 -0.27232012
0 0 0
9.1238565 23.75416 1.4213228
1.4222771 3.7096236 -0.88012254
1.3444027 3.5065093 -0.62607872
0 0 -0
1.7444139 4.54983 -0.27217457
16.556507 43.183151 0
9.0992737 23.732985 1.4197267
1.4205148 3.7184625 -0.88181174
1.3529918 3.5417085 -0.63207108
0 0 -0
1.7407714 4.5567937 -0.27246514
16.465311 43.101021 0
9.0798616 23.768232 1.4211779
1.4169238 3.7225487 -0.88237405
1.3496237 3.5457375 -0.63249862
0 0 -0
1.7445059 4.5831738 -0.27391624
16.414145 43.123314 0
9.0585308 23.798613 1.422339
1.4106245 3.719511 -0.88124937
1.3444289 3.5449677 -0.63207108
0 0 -0
1.7306749 4.5634146 -0.27261013
16.351877 43.116356 0
9.0472727 23.855696 1.4250962
1.4043311 3.7164545 -0.88012254
1.3428642 3.5537868 -0.63335377
1.32814 3.5148206 -0.4188022
1.7352638 4.5922422 -0.27420682
16.301605 43.140949 0
9.0175228 23.864183 1.4249512
1.4034206 3.7276604 -0.88237405
1.3412834 3.5626163 -0.63463807
1.3175154 3.4994855 -0.41678497
1.7205565 4.570013 -0.27275515
16.24213 43.141129 0
8.9831896 23.860476 1.4240806
1.3998103 3.7317393 -0.88293856
1.3432897 3.5810616 -0.63763422
1.2978439 3.459908 -0.41188428
1.7186837 4.5818205 -0.2733357
14.63713 39.020966 0
8.947052 23.851849 1.4229195
1.3979663 3.7405615 -0.88462561
1.3398595 3.5850844 -0.63806182
1.3081501 3.5002387 -0.41649696
1.7158761 4.591198 -0.27377126
14.579951 39.011818 0
8.9182253 23.862642 1.4229195
1.3952205 3.747015 -0.88575244
