# .PCD v0.7 - Point Cloud Data file format
VERSION 0.7
FIELDS x y z
SIZE 4 4 4
TYPE F F F
COUNT 1 1 1
WIDTH 1545
HEIGHT 1
VIEWPOINT 0 0 0 1 0 0 0
POINTS 1545
DATA ascii
-3.0049751 13.035937 0
-3.002449 13.02498 0.74660468
-1.3023956 5.6189194 -0.96158862
-1.880937 8.1149178 -0.9284777
-3.0064774 12.970832 -0.74370861
-3.0171971 13.01708 0
-3.0164242 13.013745 0.74616915
-1.3062712 5.6048436 -0.95944917
-1.8907409 8.1126394 -0.9284777
-3.0215588 12.964662 -0.74356359
-3.0293803 12.998222 0
-3.0262499 12.98479 0.74471802
-1.0266851 4.3932095 -0.99944979
-1.3038142 5.579051 -0.95516872
-1.8938755 8.1039371 -0.92761254
-3.0258417 12.947647 -0.74269247
-3.0319033 12.973584 0
-3.0281799 12.957652 0.74326634
-1.3176008 5.60746 -0.96030432
-1.9024817 8.0966024 -0.92703539
-3.037323 12.926272 -0.74167639
-3.044004 12.954705 0
-3.0396755 12.936284 0.7422508
-1.0367129 4.3882356 -0.99888527
-1.3220145 5.5958705 -0.95859241
-1.9152386 8.1068907 -0.9284777
-3.0481625 12.902372 -0.74051583
-3.0524747 12.920625 0
-3.0517185 12.917423 0.74137968
-1.3275898 5.5892787 -0.95773733
-1.9250329 8.1045704 -0.9284777
-2.0255597 8.5277987 -0.48958263
-3.0638762 12.89921 0
-3.0637226 12.898562 0.74050915
-1.0443642 4.3733625 -0.9960714
-1.3391123 5.6076455 -0.96116108
-1.9360245 8.1072655 -0.92905372
-2.0358622 8.5253448 -0.48958263
-3.0758321 12.880305 0
-3.0732691 12.869573 0.73905748
-0.84484065 3.5190144 -0.99847358
-1.3410929 5.5860543 -0.95773733
-1.9482344 8.1149807 -0.93020689
-2.0479801 8.5304508 -0.49001762
-3.088356 12.863929 0
-3.086391 12.855743 0.73847687
-1.3508525 5.5969043 -0.95987678
-1.9592532 8.1176538 -0.93078405
-2.057677 8.5254469 -0.48987263
-3.0996227 12.842477 0
-3.0982656 12.836854 0.73760635
-1.3527719 5.5753102 -0.95645303
-1.9684488 8.1127596 -0.9304949
-2.066138 8.5153761 -0.48943707
-3.1096156 12.815962 0
-3.1076484 12.807854 0.73615521
-1.3655895 5.5986066 -0.96073186
-1.9800893 8.1179161 -0.93136007
-2.0739627 8.5027761 -0.48885652
-3.1195493 12.789442 0
-3.1206589 12.793992 0.73557466
-0.8624357 3.5173242 -0.99916512
-1.3686866 5.5819979 -0.95816487
-1.9898968 8.1155176 -0.93136007
-2.0842352 8.5002632 -0.48885652
-3.131283 12.770503 0
-3.1299264 12.76497 0.73412299
-1.3766578 5.58532 -0.95902002
-2.0003197 8.1156158 -0.93164808
-2.0907745 8.4826059 -0.48798597
-3.1423512 12.74902 0
-3.1422396 12.748567 0.73339742
-1.386494 5.5961185 -0.96116108
-2.0113697 8.1182194 -0.93222523
-2.1028979 8.4876423 -0.48842153
-3.1508708 12.717433 0
-3.1495183 12.711974 0.73151076
-1.0896592 4.3753891 -0.99888527
-1.392013 5.5894523 -0.96030432
-2.0193017 8.1082506 -0.93136007
-2.1137795 8.4876146 -0.48856652
-3.1605728 12.690881 0
-3.162364 12.698074 0.73093021
-1.3975202 5.5827909 -0.95944917
-2.0360069 8.1334076 -0.93453157
-2.1221399 8.4774895 -0.48813096
-3.1752737 12.684531 0
-3.172657 12.674078 0.72976911
-1.4080219 5.5960302 -0.96201617
-2.0445697 8.1259203 -0.93395442
-2.1292121 8.4623222 -0.48740539
-3.1842489 12.655452 0
-3.1854327 12.660155 0.7291885
-0.88545245 3.5012505 -0.99639648
-1.1055124 4.3714104 -0.99888527
-1.4179289 5.6067657 -0.96415561
-2.0543869 8.1234436 -0.93395442
-2.141984 8.46982 -0.48798597
-3.1925189 12.623838 0
-3.195631 12.636145 0.7280274
-1.423439 5.6000772 -0.96330047
-2.0629277 8.1159468 -0.9333784
-2.1573377 8.4873724 -0.48914707
-3.187897 12.541788 0
-3.2070575 12.617168 0.72715688
-1.432109 5.6058078 -0.96458316
-2.0701721 8.1034241 -0.93222523
-2.179167 8.5300713 -0.4917593
-3.0909698 12.099207 0
-3.2158701 12.588113 0.72570574
-0.90550035 3.509083 -0.99985927
-1.127264 4.3684835 -0.99944979
-1.4482174 5.6122732 -0.966295
-2.0878093 8.0908813 -0.93136007
-2.2101626 8.5650368 -0.49408153
-3.106545 12.038785 0
-3.236542 12.542562 0.7235285
-1.4530663 5.6030717 -0.96501237
-2.097584 8.0883532 -0.93136007
-2.2218134 8.5673857 -0.49437153
-3.1230474 12.042573 0
-3.2490857 12.528581 0.72294796
-0.90870094 3.4952888 -0.99639648
-1.1319815 4.3541303 -0.99663377
-1.458387 5.6096392 -0.966295
-2.0985668 8.0720692 -0.92963088
-2.2224143 8.5484447 -0.49335599
-3.129668 12.038168 0
-3.2501173 12.501472 0.72149682
-0.91229004 3.4917634 -0.99570495
-1.1385275 4.3576808 -0.99776059
-1.4625685 5.5979381 -0.96458316
-2.1089718 8.0720282 -0.92991889
-2.2287993 8.5306644 -0.49248487
-3.146843 12.044449 0
-3.260622 12.479935 0.72048074
-0.91523552 3.4858103 -0.99432194
-1.1437922 4.3563018 -0.99776059
-1.4758519 5.6210008 -0.96886367
-2.1154404 8.0569677 -0.9284777
-2.2404265 8.5329962 -0.49277541
-3.1640377 12.050707 0
-3.2717412 12.460912 0.71961015
-0.77248782 2.9277275 -0.99840063
-0.92392522 3.5016749 -0.99916512
-1.149055 4.3549166 -0.99776059
-1.4819883 5.6167336 -0.96843612
-2.1284726 8.0669079 -0.92991889
-2.2507353 8.530283 -0.49277541
-3.1805887 12.054426 0
-3.2841437 12.446899 0.71902961
-0.92751324 3.4981334 -0.99847358
-1.1530126 4.3486085 -0.99663377
-1.4867996 5.6074924 -0.96715176
-2.1322532 8.041832 -0.92732453
-2.2623715 8.5325756 -0.49306542
-3.1944857 12.048061 0
-3.2945187 12.425338 0.71801347
-0.92980111 3.4897351 -0.99639648
-1.1595758 4.3521271 -0.99776059
-1.4942343 5.6081696 -0.96757936
-2.1479609 8.0617409 -0.92991889
-2.2733481 8.5323439 -0.49321043
-3.2097104 12.046705 0
-3.3055172 12.406287 0.71714294
-0.93272066 3.483767 -0.99501348
-1.1635181 4.3458095 -0.99663377
-1.4976908 5.5939641 -0.96543992
-2.1556931 8.0516415 -0.92905372
-2.2823133 8.5245762 -0.49292043
-3.2242641 12.042818 0
-3.315129 12.382204 0.71598178
-0.93497354 3.4753673 -0.99293631
-1.1681088 4.341949 -0.9960714
-1.5064502 5.5995893 -0.96672422
-2.1647489 8.0465355 -0.92876571
-2.2926121 8.5218124 -0.49292043
-3.240164 12.043935 0
-3.3280623 12.370659 0.71554625
-0.93524528 3.4597087 -0.98878467
-1.1753442 4.3478951 -0.99776059
-1.5071867 5.5754642 -0.96287292
-2.1731188 8.0389156 -0.92818856
-2.3056197 8.5290689 -0.49350098
-3.2513194 12.027452 0
-3.3369052 12.344055 0.71424013
-0.94336939 3.4730976 -0.99293631
-1.1772674 4.3342137 -0.99494672
-1.5159392 5.5810637 -0.96415561
-2.1760523 8.0113287 -0.9253062
-2.3309069 8.581439 -0.49669376
-3.2638025 12.015977 0
-3.3497744 12.332489 0.7138046
-0.94228101 3.4525933 -0.98739904
-1.1851796 4.3425932 -0.99719822
-1.5226817 5.5792279 -0.96415561
-2.1925395 8.0336409 -0.92818856
-2.3597467 8.6463022 -0.50061268
-3.28106 12.022067 0
-3.3578331 12.30337 0.71235347
-0.95175976 3.4708078 -0.99293631
-1.1830338 4.3142009 -0.99100596
-1.5280656 5.5724378 -0.96330047
-2.1981423 8.0160236 -0.92645937
-2.3646951 8.6233969 -0.49945155
-3.3031554 12.045705 0
-3.3699481 12.28928 0.71177292
-0.94329351 3.423708 -0.97978723
-1.1909454 4.322567 -0.99325752
-1.5361601 5.575532 -0.96415561
-2.2119472 8.0283184 -0.92818856
-2.3619986 8.5729332 -0.49669376
-3.3190889 12.046718 0
-3.3820341 12.275179 0.71119237
-0.95813859 3.461251 -0.99086183
-1.202945 4.3456078 -0.99888527
-1.5415275 5.5687284 -0.96330047
-2.219578 8.0181694 -0.92732453
-2.3869126 8.6226606 -0.49974155
-3.3336427 12.042699 0
-3.3968637 12.271083 0.71119237
-0.95694232 3.4407547 -0.9853245
-1.2047914 4.3319135 -0.9960714
-1.5468781 5.5619106 -0.96244371
-2.2230282 7.9930563 -0.92473018
-2.4105592 8.6673374 -0.50249934
-3.3502843 12.046186 0
-3.4144735 12.276983 0.71177292
-0.95974755 3.4347587 -0.98393887
-1.2066065 4.3182211 -0.99325752
-1.5563607 5.5699272 -0.96415561
-2.2389483 8.0127821 -0.92732453
-2.4399087 8.7319813 -0.50641769
-3.3648372 12.04213 0
-3.4300039 12.275349 0.71191788
-0.96389705 3.4335966 -0.98393887
-1.2118233 4.3167601 -0.99325752
-1.556846 5.5458012 -0.96030432
-2.2500255 8.0150461 -0.92790055
-2.4652054 8.7815609 -0.50946552
-3.3751664 12.023026 0
-3.449049 12.286211 0.712789
-0.81720424 2.8975875 -0.99269509
-0.96600419 3.4251926 -0.98186439
-1.2225561 4.334857 -0.99776059
-1.5712115 5.5710959 -0.96501237
-2.2554972 7.9973903 -0.92617136
-2.4736979 8.7710714 -0.50902992
-3.3960485 12.041479 0
-3.467418 12.294537 0.71351457
-0.81868541 2.8894711 -0.99025255
-0.96398515 3.402292 -0.97563291
-1.2222518 4.3138189 -0.99325752
-1.5765409 5.5642486 -0.96415561
-2.2679794 8.0046129 -0.92732453
-2.4942124 8.8030806 -0.51106215
-3.4120133 12.042371 0
-3.4836862 12.295333 0.7138046
-0.96947038 3.4059553 -0.97701859
-1.2260706 4.307447 -0.99213064
-1.5832632 5.5623398 -0.96415561
-2.2755246 7.9944015 -0.92645937
-2.5069795 8.8075514 -0.51149714
-3.4258499 12.035738 0
-3.5035205 12.308611 0.71482068
-0.82324111 2.8855987 -0.98943526
-0.96946245 3.3981292 -0.97494143
-1.2279764 4.3042641 -0.99156833
-1.5823991 5.5465755 -0.96158862
-2.2810631 7.9955101 -0.92674738
-2.518003 8.826025 -0.5126583
-3.43455 12.038676 0
-3.5123804 12.311485 0.71511072
-0.81991899 2.860847 -0.98128718
-0.97978771 3.418658 -0.98117024
-1.2345778 4.3076673 -0.99269515
-1.5947579 5.5644011 -0.96501237
-2.2921488 7.9977255 -0.92732453
-2.5265174 8.8154802 -0.51222271
-3.4498103 12.037017 0
-3.5301175 12.317224 0.71569127
-0.9735083 3.3813159 -0.97078979
-1.2404842 4.3086114 -0.99325752
-1.6000584 5.5575318 -0.96415561
-2.2982335 7.9825249 -0.92588335
-2.5400429 8.8224087 -0.51280326
-3.474431 12.067847 0
-3.546437 12.317948 0.71598178
-0.97062176 3.3560326 -0.96386683
-1.2428657 4.2973461 -0.99100596
-1.6067724 5.5555944 -0.96415561
-2.3014078 7.9573731 -0.92328787
-2.5485375 8.8118515 -0.51236826
-3.5200994 12.171135 0
-3.5670938 12.333623 0.71714294
-0.97607738 3.3596802 -0.96525252
-1.2530202 4.3129234 -0.99494672
-1.6141996 5.5561113 -0.96458316
-2.3160729 7.9719753 -0.9253062
-2.5562832 8.7987852 -0.51178771
-3.5754635 12.306827 0
-3.5870664 12.346764 0.71815848
-0.84204555 2.8853223 -0.99106675
-0.97662264 3.3464592 -0.96179235
-1.2560943 4.3040867 -0.99325752
-1.6230701 5.561552 -0.96586746
-2.32498 7.9666905 -0.92501819
-2.5494421 8.7358246 -0.50830436
-3.601994 12.34246 0
-3.6048944 12.352398 0.71873903
-0.98489863 3.3597169 -0.96594399
-1.2591491 4.2952485 -0.99156833
-1.622569 5.5349579 -0.96158862
-2.3324208 7.9564271 -0.92415303
-2.5351441 8.6479626 -0.50336993
-3.6183705 12.343099 0
-3.6220107 12.355516 0.71917462
-0.85599601 2.9069839 -0.99921483
-0.99746126 3.3874035 -0.97424996
-1.266492 4.3010387 -0.99325752
-1.6299801 5.5354533 -0.96201617
-2.3442254 7.9610486 -0.92501819
-2.5433888 8.637413 -0.50293434
-3.6369569 12.351197 0
-3.6413398 12.366081 0.72004515
-0.98874682 3.3428972 -0.96179235
-1.2652026 4.2775784 -0.98819208
-1.6373948 5.5359392 -0.96244371
-2.3487072 7.940846 -0.92299986
-3.522187 11.908315 -0.69363785
-3.6540935 12.354283 0
-3.6592271 12.371639 0.7206257
-0.99206883 3.339288 -0.96109819
-1.2776051 4.3003988 -0.99381983
-1.6455462 5.5388827 -0.96330047
-2.3590364 7.9404793 -0.92328787
-3.5336132 11.894087 -0.6930573
-3.6734641 12.364822 0
-3.679354 12.384647 0.72164184
-0.85663486 2.8707087 -0.98780686
-1.0082976 3.378953 -0.97286427
-1.2813486 4.2939868 -0.99269515
-1.6544377 5.5442629 -0.96458316
-2.3671515 7.9326711 -0.92271185
-3.5457525 11.882336 -0.69262177
-3.6906352 12.367859 0
-3.69803 12.39264 0.72236741
-0.86861819 2.8980823 -0.99758649
-1.0058979 3.356106 -0.96663553
-1.2909118 4.3070345 -0.9960714
-1.6589267 5.5348902 -0.96330047
-2.3767347 7.9298048 -0.92271185
-2.5679493 8.5677776 -0.49959657
-3.713047 12.388314 0
-3.7167308 12.400605 0.72309297
-1.0070597 3.3452792 -0.96386683
-1.2924535 4.2933087 -0.99325752
-1.6626534 5.5230489 -0.96158862
-2.3833323 7.9170203 -0.92155868
-2.570811 8.5397921 -0.49814543
-3.7287626 12.386309 0
-3.7347081 12.406058 0.72367352
-1.000212 3.3080459 -0.95348644
-1.2976402 4.2917438 -0.99325752
-1.6715553 5.52841 -0.96287292
-2.3943925 7.9190817 -0.9221347
-2.5841329 8.5466194 -0.49872544
-3.7474945 12.394257 0
-3.7534549 12.41397 0.72439909
-0.87840027 2.8925519 -0.99677229
-1.0114967 3.3308353 -0.96040672
-1.2991341 4.2780185 -0.99044365
-1.6745024 5.5140977 -0.96073186
-2.4069657 7.9260821 -0.92328787
-2.6065388 8.583272 -0.50104767
-3.7670038 12.404656 0
-3.7714722 12.419372 0.72497964
-0.87251914 2.8607483 -0.98617536
-1.0206445 3.3464105 -0.96525252
-1.3035589 4.2740083 -0.98987913
-1.6826631 5.5169859 -0.96158862
-2.4142795 7.9157534 -0.92242384
-2.6335835 8.6347904 -0.50424045
-3.7850266 12.410052 0
-3.7910256 12.429723 0.72585076
-1.0239532 3.3427784 -0.96456099
-1.3102121 4.2772937 -0.99100596
-1.6885768 5.5124965 -0.96116108
-2.4238424 7.9128304 -0.92242384
-2.6577153 8.6763277 -0.50685328
-3.8045907 12.420396 0
-3.8083255 12.432589 0.72628629
-1.0279915 3.3415387 -0.96456099
-1.3108981 4.2611408 -0.98762977
-1.6922171 5.5006375 -0.95944917
-2.4303596 7.9000072 -0.92127067
-2.6659043 8.665657 -0.50641769
-3.8234241 12.428234 0
-3.8271646 12.440393 0.72701186
-0.88653344 2.869381 -0.99025255
-1.0261037 3.3211184 -0.95902371
-1.3220434 4.278966 -0.99213064
-1.6965883 5.4912286 -0.95816487
-2.4421918 7.9044714 -0.9221347
-2.6802075 8.67484 -0.50714326
-3.8376679 12.421111 0
-3.8460281 12.448171 0.72773743
-0.89659131 2.8895504 -0.99758649
-1.0249109 3.3031013 -0.95417792
-1.3211918 4.2579603 -0.98762977
-1.7070251 5.501431 -0.96030432
-2.4509752 7.8990469 -0.92184669
-2.6876073 8.6616688 -0.50656271
-3.8603876 12.441326 0
-3.8656855 12.4584 0.72860795
-0.89934754 2.8861077 -0.99677229
-1.0266615 3.2946727 -0.95210075
-1.3301146 4.2684879 -0.99044365
-1.7129083 5.4969158 -0.95987678
-2.4628272 7.9034901 -0.92271185
-2.6972988 8.6559362 -0.50641769
-3.8808351 12.454038 0
-3.8861482 12.471088 0.72962409
-0.88930321 2.8478158 -0.98373282
-1.0361314 3.3180037 -0.95902371
-1.3326932 4.2676835 -0.99044365
-1.7200541 5.5081296 -0.96201617
-2.469142 7.9069338 -0.92328787
-2.7079504 8.67167 -0.50743383
-3.8906865 12.459146 0
-3.8952296 12.473694 0.72991407
-0.89717972 2.8608847 -0.98862106
-1.0416398 3.3215322 -0.96040672
-1.3378489 4.2660699 -0.99044365
-1.7228684 5.4938025 -0.95987678
-2.4755983 7.8940725 -0.9221347
-2.7145364 8.6559877 -0.50670773
-3.9088531 12.464369 0
-3.9134088 12.478895 0.73049462
-1.0479139 3.3274522 -0.96248388
-1.3414747 4.2595987 -0.98931676
-1.7271912 5.4843688 -0.95859241
-2.481251 7.8787427 -0.92069352
-2.7288985 8.6651001 -0.50743383
-3.9286001 12.474525 0
-3.9339488 12.491509 0.73151076
-0.90483528 2.8610625 -0.98943526
-1.0496635 3.3190053 -0.96040672
-1.347386 4.2603951 -0.98987913
-1.7330434 5.4798326 -0.95816487
-2.4954503 7.8905401 -0.92242384
-2.7409322 8.6667471 -0.50772381
-3.9436703 12.469769 0
-3.9490395 12.486747 0.73151076
-1.0491184 3.3033926 -0.95625508
-1.3540726 4.2636118 -0.99100596
-1.7427716 5.4875212 -0.95987678
-2.5081141 7.8973799 -0.92357701
-2.7561228 8.6782932 -0.50859493
-3.9634626 12.479882 0
-3.9704165 12.501779 0.73267186
-0.90348816 2.832972 -0.98047298
-1.0569197 3.3140712 -0.95971519
-1.3515044 4.2377696 -0.98537821
-1.7494009 5.4854112 -0.95987678
-2.5137231 7.8820152 -0.9221347
-2.7658153 8.6724739 -0.50844938
-3.9801192 12.480039 0
-3.9878891 12.504401 0.73310745
-0.9136942 2.8530607 -0.98780686
-1.0632195 3.3199615 -0.96179235
-1.3612722 4.2506475 -0.98875445
-1.7560277 5.4832935 -0.95987678
-2.5248244 7.8839035 -0.92271185
-2.7762921 8.6691256 -0.50844938
-4.00631 12.509924 0
-4.0085406 12.516889 0.73412299
-0.91335833 2.8401921 -0.98373282
-1.058781 3.2924008 -0.95417792
-1.3617415 4.2344909 -0.98537821
-1.7595084 5.4713922 -0.95816487
-2.5311813 7.8709979 -0.92155868
-2.7851756 8.6608219 -0.5081594
-3.7210662 11.571081 0
-3.7484338 11.656183 0.68390727
-0.91830707 2.843786 -0.98536122
-1.068926 3.3102181 -0.95971519
-1.3660741 4.2304177 -0.98481369
-1.7692735 5.4790339 -0.95987678
-2.5422781 7.8728514 -0.9221347
-2.802824 8.6797028 -0.50946552
-3.7430437 11.591347 0
-3.7736955 11.686269 0.68593949
-0.93470174 2.8826408 -0.99921483
-1.0806615 3.3327839 -0.96663553
-1.3774545 4.2480998 -0.98931676
-1.7774746 5.481771 -0.96073186
-2.547004 7.8550162 -0.92040551
-2.8076987 8.6590042 -0.50844938
-3.7538359 11.576913 0
-3.7862089 11.676752 0.68564892
-1.0722636 3.2933168 -0.95556355
-1.378654 4.2343545 -0.98650289
-1.7825091 5.4747419 -0.95987678
-2.5580964 7.8568568 -0.92098266
-2.8237913 8.672904 -0.50946552
-3.759763 11.547618 0
-3.7962937 11.659817 0.68492335
-0.92323548 2.8240006 -0.97965878
-1.081697 3.3087039 -0.96040672
-1.38535 4.2375207 -0.98762977
-1.7835382 5.455502 -0.95688057
-2.566782 7.8512945 -0.92069352
-2.8278091 8.6497269 -0.50830436
-4.1157794 12.58938 0
-4.1204219 12.603582 0.74065411
-1.0880423 3.3145475 -0.96248388
-1.3920527 4.2406673 -0.98875445
-1.7901288 5.4533429 -0.95688057
-2.5698133 7.8285275 -0.91838717
-2.8358266 8.638895 -0.50786883
-4.1212478 12.554727 0
-4.1267323 12.571435 0.73905748
-1.0873328 3.2989299 -0.95832956
-1.3979703 4.2413931 -0.98931676
-1.8023428 5.4682446 -0.95987678
-2.5825093 7.8352427 -0.91954035
-2.8316231 8.5910454 -0.50525659
-4.1421151 12.567032 0
-4.143548 12.57138 0.73934799
-0.94045424 2.8417511 -0.98699272
-1.0976239 3.3166676 -0.96386683
-1.4007015 4.232471 -0.98762977
-1.8049169 5.4538798 -0.95773733
-2.5936017 7.8370323 -0.9201175
-2.8134303 8.5012846 -0.50017715
-4.1548462 12.554613 0
-4.1611848 12.573767 0.73978359
-1.0921406 3.2867787 -0.95556355
-1.408216 4.2380023 -0.98931676
-1.8123142 5.4541287 -0.95816487
-2.6071465 7.8461628 -0.92155868
-2.7835522 8.3770523 -0.49306542
-4.175755 12.566864 0
-4.1796494 12.578584 0.7403636
-0.9363665 2.8066418 -0.97558159
-1.095315 3.2830698 -0.95486939
-1.4133358 4.2362976 -0.98931676
-1.823776 5.4665408 -0.96073186
-2.6084411 7.8184762 -0.91867632
-2.771471 8.3071384 -0.48914707
-4.196703 12.579093 0
-4.1981344 12.583384 0.74094415
-0.95545787 2.8523808 -0.99188089
-1.1024685 3.2912595 -0.95763808
-1.4152253 4.2249494 -0.98706526
-1.8279363 5.4570379 -0.95944917
-2.6236346 7.8324795 -0.92069352
-2.7782052 8.2939281 -0.48856652
-4.2168574 12.588815 0
-4.2207661 12.600484 0.7422508
-0.94551069 2.8114009 -0.97802728
-1.1064446 3.2899249 -0.95763808
-1.4227599 4.2304635 -0.98875445
-1.8369812 5.4621177 -0.96073186
-2.6281514 7.814599 -0.91896433
-2.7840841 8.2782526 -0.48784095
-4.233726 12.588649 0
-4.240129 12.607687 0.74297637
-0.94811708 2.8079169 -0.97721308
-1.1120257 3.293344 -0.95902371
-1.423807 4.2167068 -0.98594058
-1.8370099 5.4404368 -0.95730811
-2.639245 7.8163142 -0.91954035
-2.7866039 8.2527285 -0.48653483
-4.2522645 12.593387 0
-4.2595153 12.614861 0.74370193
-0.96206641 2.8266735 -0.98454702
-1.1118963 3.2668927 -0.95210075
-1.4331751 4.2108507 -0.98537821
-1.8575983 5.45786 -0.96116108
-2.6564612 7.8050208 -0.91896433
-2.765516 8.1254377 -0.47942314
-4.2919068 12.610168 0
-4.2991986 12.631592 0.74529856
-0.96468276 2.8231723 -0.98373282
-1.1207117 3.2797954 -0.95625508
-1.4448316 4.2283421 -0.98987913
-1.8617008 5.4483218 -0.95987678
-2.6591995 7.7822251 -0.91665798
-0 0 -0
-4.312191 12.619753 0
-4.3194976 12.641136 0.74616915
-0.95526117 2.7845988 -0.97069341
-1.1303699 3.2950432 -0.96109819
-1.4466449 4.2169886 -0.98762977
-1.8724468 5.4582067 -0.96201617
-2.6727965 7.7912364 -0.91809916
-0 0 -0
-4.3333454 12.631759 0
-4.3364534 12.640819 0.74645913
-0.97943914 2.8494678 -0.99351239
-1.1348077 3.3014796 -0.96317536
-1.4475389 4.2113032 -0.98650289
-1.8740767 5.4522238 -0.96116108
-2.6749799 7.78228 -0.917234
-0 0 -0
-4.3401308 12.626679 0
-4.3500032 12.6554 0.74747527
-0.9861064 2.8576279 -0.99677229
-1.1265229 3.2645397 -0.95279491
-1.4484829 4.1975441 -0.98368901
-1.8840128 5.459662 -0.96287292
-2.6877563 7.7888222 -0.91838717
-0 0 -0
-4.3621759 12.641107 0
-4.3652916 12.650135 0.74747527
-0.97823006 2.8237338 -0.98536122
-1.1288227 3.2584305 -0.95140928
-1.4602077 4.2149982 -0.98819208
-1.8914479 5.459805 -0.96330047
-2.694628 7.778244 -0.91752315
-2.7764857 8.0145321 -0.47376314
-4.3800039 12.643207 0
-4.3890781 12.669399 0.7489264
-0.97758263 2.8108797 -0.98128718
-1.132759 3.2570641 -0.95140928
-1.4627949 4.2060285 -0.98650289
-1.8980436 5.4575152 -0.96330047
-2.707423 7.7847543 -0.91867632
-2.7836061 8.0038061 -0.47332758
-4.4046788 12.664937 0
-4.4086533 12.676365 0.7496525
-1.1457911 3.2817495 -0.95902371
-1.4653625 4.1970592 -0.98481369
-1.9020972 5.4479451 -0.96201617
-2.7117102 7.7668209 -0.91694599
-2.789849 7.990624 -0.47274703
-4.4174075 12.652241 0
-4.4273934 12.680841 0.75023305
-0.99663627 2.8434985 -0.99351239
-1.1414558 3.2566824 -0.95210075
-1.4737946 4.2048769 -0.98706526
-1.912075 5.4553328 -0.96372807
-2.7193837 7.7586613 -0.91636997
-2.7943468 7.9725385 -0.47187644
-3.0718009 8.764142 0
-4.4452882 12.682833 0.75066805
-1.0017104 2.8469508 -0.99514079
-1.1637106 3.3073695 -0.96732968
-1.4788743 4.2030931 -0.98706526
-1.9178141 5.4505992 -0.96330047
-2.4102783 6.8502264 -0.80941874
-2.7996666 7.956903 -0.4711509
-3.0720229 8.7309637 0
-4.4700975 12.704417 0.75226474
-1.0026795 2.8387446 -0.99269509
-1.15183 3.2610133 -0.95417792
-1.4864913 4.2084928 -0.98875445
-1.926107 5.4531145 -0.96415561
-2.4469798 6.9277878 -0.81893212
-2.8058174 7.9437137 -0.47057033
-3.0990362 8.7738628 0
-4.4880419 12.706359 0.75270027
-1.0061088 2.8375309 -0.99269509
-1.1524159 3.2501612 -0.95140928
-1.4890271 4.1995068 -0.98706526
-1.9292631 5.4411054 -0.96244371
-2.4562123 6.9272614 -0.81922013
-2.8162813 7.9427643 -0.47071534
-3.09833 8.7382269 0
-4.5086007 12.715616 0.75357085
-1.0037374 2.8200204 -0.98699272
-1.1613914 3.2629519 -0.95556355
-1.4958061 4.202497 -0.98819208
-1.9341162 5.433938 -0.96158862
-2.4654474 6.926723 -0.81950814
-2.8189058 7.9197717 -0.46955422
-3.1080143 8.732028 0
-4.5291877 12.724843 0.75444138
-0.99966055 2.7978601 -0.97965878
-1.1653332 3.2615461 -0.95556355
-1.4966091 4.188725 -0.98537821
-1.9441355 5.4412665 -0.96330047
-2.4677258 6.9066963 -0.81749094
-2.8232293 7.9016829 -0.46868366
-3.1133108 8.7135658 0
-4.5506806 12.736492 0.75545752
-0.99636519 2.7780383 -0.97313905
-1.1658853 3.2506897 -0.95279491
-1.500809 4.184515 -0.98481369
-1.9463764 5.4268341 -0.96116108
-2.4743214 6.8988357 -0.81691378
-2.8301423 7.8909259 -0.4682481
-3.123837 8.7097979 0
-4.5678234 12.735881 0.75574809
-1.0248363 2.8465924 -0.99758649
-1.1808591 3.2799623 -0.96179235
-1.5024213 4.1731358 -0.98256218
-1.9494541 5.4148169 -0.95944917
-2.4791508 6.8861065 -0.81576061
-2.8405542 7.8899426 -0.46839312
-3.1343589 8.7060165 0
-4.5893674 12.747458 0.75676364
-0.99467373 2.7523732 -0.96498787
-1.1660612 3.2266212 -0.94656348
-1.5135086 4.1880469 -0.98650289
-1.960357 5.4245262 -0.96158862
-2.4848316 6.8758059 -0.81489551
-2.8447883 7.8718467 -0.46752256
-3.1475272 8.7095585 0
-4.6091819 12.754121 0.7574892
-1.1759485 3.2417209 -0.95140928
-1.5185678 4.1862149 -0.98650289
-1.96691 5.4221539 -0.96158862
-2.4922566 6.8703694 -0.81460744
-2.8631573 7.8928261 -0.46897367
-3.1580486 8.7057495 0
-4.6299076 12.763203 0.75836033
-1.2090474 3.3204432 -0.97494143
-1.5288395 4.198698 -0.98987913
-1.9681886 5.4052958 -0.95902002
-2.4952483 6.8527756 -0.81287825
-2.8744683 7.8942394 -0.46926367
-3.1605525 8.6799202 0
-4.6471024 12.762478 0.7586503
-1.0258548 2.8067825 -0.98536122
-1.183779 3.2388697 -0.95140928
-1.5330403 4.1944633 -0.98931676
-1.9711936 5.3932695 -0.95730811
-2.499975 6.8400383 -0.81172508
-2.8893588 7.9054084 -0.47013479
-3.1772928 8.6932077 0
-4.6687651 12.773939 0.75966644
-1.033501 2.8171406 -0.98943526
-1.1816424 3.2209477 -0.94656348
-1.530232 4.1711411 -0.98425138
-1.9785955 5.3933005 -0.95773733
-2.5046747 6.8272996 -0.81057191
-2.8944349 7.8897161 -0.46940923
-3.1922753 8.7015762 0
-4.6859846 12.773163 0.75995642
-1.0420303 2.8298104 -0.99432659
-1.1924686 3.2383513 -0.95210075
-1.5379058 4.1764445 -0.98594058
-1.9930934 5.4125838 -0.96158862
-2.5093474 6.8145595 -0.80941874
-2.90576 7.8910851 -0.46969923
-3.1928976 8.6708565 0
-4.7094984 12.789444 0.76126307
-1.0454488 2.8285494 -0.99432659
-1.2172548 3.2933846 -0.96871263
-1.5350239 4.1531358 -0.98087513
-1.9898416 5.3836827 -0.95688057
-2.5166838 6.8090987 -0.80913073
-2.9243028 7.9119463 -0.4711509
-3.2078826 8.6791945 0
-4.7276487 12.791049 0.76169807
-1.0394087 2.8017917 -0.98536122
-1.1872047 3.2001851 -0.94172031
-1.5515292 4.1822448 -0.98819208
-1.9990247 5.3884974 -0.95816487
-2.5231085 6.801198 -0.80855358
-2.9374723 7.9181423 -0.47173089
-3.2237968 8.6899481 0
-4.746716 12.795073 0.76227868
-1.0298588 2.7657967 -0.97313905
-1.2085793 3.2457697 -0.95556355
-1.5477133 4.1565509 -0.98256218
-2.0055342 5.3860779 -0.95816487
-2.5286195 6.7908797 -0.80768955
-2.9443202 7.907289 -0.47129589
-3.2306619 8.6762905 0
-4.7657995 12.799067 0.76285923
-1.0357933 2.7714891 -0.97558159
-1.1984478 3.2067068 -0.944489
-1.5625201 4.180861 -0.98875445
-2.0147376 5.3908668 -0.95944917
-2.5304837 6.7708573 -0.80567122
-2.9529636 7.9012938 -0.4711509
-3.2429671 8.6772604 0
-4.7894473 12.815204 0.76416534
-1.0565357 2.8217902 -0.99351239
-1.2188578 3.2553191 -0.95902371
-1.566826 4.1846709 -0.98987913
-2.0098903 5.3680053 -0.95559627
-2.5309463 6.7596383 -0.80451804
-2.9550023 7.8922057 -0.47071534
-3.2545943 8.6923542 0
-4.8026576 12.826914 0.76503646
-1.2183784 3.2421041 -0.95556355
-1.5736705 4.1875362 -0.99100596
-2.021795 5.3799953 -0.95816487
-2.5363815 6.7493095 -0.80365288
-2.9654496 7.8910594 -0.47086033
-3.2888961 8.75175 0
-4.819066 12.823531 0.76518142
-1.0459067 2.7729774 -0.97721308
-1.2488544 3.3110454 -0.97632706
-1.5688646 4.1594777 -0.98481369
-2.0273893 5.3751488 -0.95773733
-2.5372326 6.7268791 -0.80134654
-2.9786503 7.8971953 -0.47144091
-3.3132463 8.7842979 0
-4.8327212 12.812832 0.76489091
-1.0422561 2.7532194 -0.97069341
-1.2199914 3.2227242 -0.95071775
-1.5873839 4.1932263 -0.99325752
-2.0366066 5.3798904 -0.95902002
-2.5462773 6.7262344 -0.80163568
-2.9937084 7.9081669 -0.47231147
-3.3275435 8.7900238 0
-4.8445201 12.797262 0.7643103
-1.0613816 2.7935419 -0.98536122
-1.2238846 3.2212477 -0.95071775
-1.576207 4.1485553 -0.98312664
-2.0339899 5.3534336 -0.95474112
-2.551646 6.7158971 -0.80077052
-3.0161839 7.9385548 -0.47434369
-3.3437061 8.8005886 0
-4.8636708 12.801115 0.76489091
-1.0550718 2.7668605 -0.97639894
-1.2268829 3.2174246 -0.95002627
-1.5966082 4.187006 -0.99269515
-2.045943 5.3653588 -0.95730811
-2.5551519 6.7007279 -0.79932934
-3.0766916 8.0684328 -0.48232594
-3.3478494 8.7795277 0
-4.8846917 12.809801 0.76576197
-1.0548806 2.7563503 -0.97313905
-1.2307698 3.2159398 -0.95002627
-1.5953081 4.1684604 -0.98875445
-2.0505912 5.3580923 -0.95645303
-2.5632467 6.6976357 -0.79932934
-3.1077971 8.1205187 -0.48566374
-3.3472929 8.7463093 0
-4.9038811 12.813597 0.76634258
-1.0830208 2.8196683 -0.99595499
-1.236452 3.2191298 -0.95140928
-1.6058083 4.1807566 -0.99213064
-2.0552213 5.3508134 -0.95559627
-2.5713375 6.6945333 -0.79932934
-3.1054959 8.0852261 -0.48377705
-3.3578587 8.7422581 0
-4.9268141 12.827067 0.76750368
-1.0766506 2.7929962 -0.98699272
-1.264702 3.2808299 -0.97009563
-1.5925838 4.1314054 -0.98087513
-2.0598402 5.3435402 -0.95474112
-2.5757034 6.6817679 -0.79817617
-3.0834877 7.9990382 -0.47884259
-3.3787136 8.7648993 0
-4.9469814 12.833225 0.76822925
-1.0702142 2.7663348 -0.97802728
-1.2623316 3.2629278 -0.96525252
-1.6140749 4.1721292 -0.99100596
-2.0635159 5.3338628 -0.95345682
-2.5809746 6.671412 -0.79731101
-3.0603395 7.9104939 -0.47376314
-3.3733394 8.7195501 0
-4.9774852 12.866014 0.77055144
-1.0932347 2.8157239 -0.99595499
-1.2462986 3.2099535 -0.95002627
-1.6172739 4.1654339 -0.98987913
-2.0764639 5.3481188 -0.95645303
-2.5834186 6.6538262 -0.79558182
-3.0586097 7.8777232 -0.47202146
-3.3989439 8.7542849 0
-5.1077604 13.155494 0.78825766
-1.0966362 2.8144009 -0.99595499
-1.2529062 3.2154515 -0.95210075
-1.6232311 4.1658511 -0.99044365
-2.0773344 5.3312593 -0.95388603
-2.5895767 6.645875 -0.79500467
-3.0643525 7.864337 -0.47144091
-3.4019604 8.730772 0
-5.16327 13.250987 0.79435265
-1.1009388 2.8153822 -0.99677229
-1.2558777 3.211601 -0.95140928
-1.6273354 4.1615133 -0.98987913
-2.0828371 5.3263474 -0.95345682
-2.597605 6.6427412 -0.79500467
-3.0672276 7.8436861 -0.47042477
-3.4115603 8.7242336 0
-5.1736012 13.230223 0.79348212
-1.0971165 2.7956436 -0.99025255
-1.260673 3.2124143 -0.95210075
-1.6360755 4.1690049 -0.99213064
-2.0883346 5.3214397 -0.95302927
-2.6027942 6.6323724 -0.79413956
-3.072906 7.8302989 -0.46984422
-3.430655 8.7419062 0
-5.1544623 13.134466 0.7881121
-1.091435 2.7713146 -0.98210132
-1.266394 3.2155616 -0.95348644
-1.6318027 4.1433883 -0.98650289
-2.0891206 5.3045859 -0.95046228
-2.6051211 6.6147876 -0.79241031
-3.0880799 7.8410912 -0.47071534
-3.4402628 8.7353354 0
-5.1446228 13.062958 0.78419375
-1.1075032 2.8021786 -0.99351239
-1.2970194 3.2816882 -0.97355843
-1.6274704 4.1177878 -0.98087513
-2.0993028 5.3116074 -0.95217419
-2.6093092 6.6020136 -0.79125714
-3.0927775 7.8252735 -0.46998978
-3.4689875 8.7771511 0
-5.1374812 12.998734 0.7807104
-1.0935737 2.7571838 -0.97802728
-1.2815607 3.2311482 -0.95902371
-1.645558 4.14888 -0.98875445
-2.1038246 5.3042898 -0.95131743
-2.6134701 6.5892386 -0.79010397
-3.1079769 7.8360186 -0.47086033
-3.4767146 8.7657022 0
-5.1445627 12.970781 0.77940428
-1.1115288 2.7926025 -0.99106675
-1.2696929 3.1899738 -0.94725764
-1.6505699 4.1468887 -0.98875445
-2.1168785 5.3184419 -0.95431358
-2.6185596 6.5788641 -0.78923887
-3.1193666 7.8370905 -0.4711509
-3.4728665 8.7252226 0
-5.14678 12.93076 0.7773726
-1.1222366 2.8096199 -0.99758649
-1.2809911 3.2070758 -0.95279491
-1.6555794 4.1448913 -0.98875445
-2.1175883 5.3015718 -0.95174497
-2.6284277 6.5805039 -0.78981596
-3.128834 7.8333158 -0.4711509
-3.522985 8.8201084 0
-4.0916214 10.243741 0.61613089
-1.1109176 2.7715549 -0.98454702
-1.3109968 3.2707193 -0.9721728
-1.6709863 4.1688337 -0.99494672
-2.1230385 5.2966285 -0.95131743
-2.6402261 6.5869265 -0.79096913
-3.1402283 7.8343487 -0.47144091
-3.5307341 8.8085957 0
-4.0991631 10.226732 0.61540532
-1.1197978 2.7839646 -0.98943526
-1.2962236 3.2225821 -0.95832956
-1.6731768 4.1597371 -0.99325752
-2.1323116 5.3012066 -0.95260173
-2.6549406 6.6005311 -0.79298747
-3.1516297 7.8353653 -0.47173089
-5.7448854 14.282539 0
-4.1066699 10.209721 0.61467975
-1.1240888 2.7849081 -0.99025255
-1.2850958 3.1838 -0.94725764
-1.6639352 4.1223674 -0.98481369
-2.1377556 5.296248 -0.95217419
-2.6609762 6.5925169 -0.79241031
-3.1630421 7.8363752 -0.47202146
-5.7572694 14.263523 0
-4.1190033 10.204751 0.61467975
-1.1237414 2.7743845 -0.98699272
-1.295532 3.1985152 -0.95210075
-1.6717776 4.1274209 -0.98650289
-2.1402986 5.2841439 -0.95046228
-2.6689401 6.5892968 -0.79241031
-3.1666574 7.8181019 -0.4711509
-5.7823157 14.275853 0
-4.1245012 10.182905 0.61366361
-1.1300628 2.7851541 -0.99106675
-1.3078406 3.2233057 -0.95971519
-1.6685408 4.112288 -0.98312664
-2.144455 5.2852263 -0.95088983
-2.6758387 6.5948758 -0.79327548
-3.1772399 7.8306298 -0.47202146
-5.7928948 14.277176 0
-4.1287007 10.175601 0.61337364
-1.1222429 2.7563169 -0.98128718
-1.2984916 3.1891978 -0.95002627
-1.675423 4.1149712 -0.98425138
-2.1518066 5.2850065 -0.95131743
-2.693557 6.6155882 -0.79615784
-3.1935594 7.8436337 -0.47303757
-5.8140669 14.279807 0
-4.1341329 10.153756 0.6123575
-1.1339848 2.7755489 -0.98862106
-1.3108829 3.2085259 -0.95625508
-1.6909659 4.1388197 -0.99044365
-2.1572211 5.2800288 -0.95088983
-2.699594 6.6075449 -0.79558182
-3.1991034 7.8301473 -0.47245702
-5.8332839 14.277585 0
-4.1405001 10.134315 0.61148643
-1.1279639 2.7513123 -0.98047298
-1.3261787 3.2347949 -0.96456099
-1.6882548 4.1179652 -0.98594058
-2.1645722 5.2797914 -0.95131743
-2.7065921 6.6018777 -0.79529274
-3.2164478 7.84551 -0.47361812
-4.1921034 10.225314 0
-4.1478148 10.117287 0.61076087
-1.1275262 2.7408044 -0.97721308
-1.3157686 3.1983862 -0.95417792
-1.6903284 4.1088705 -0.98425138
-2.1729052 5.2819242 -0.95217419
-2.7244093 6.6225271 -0.79817617
-3.2269127 7.8440185 -0.47376314
-0 0 0
-4.1531196 10.095453 0.60974526
-1.1553555 2.7988353 -0.99840063
-1.3100615 3.1736088 -0.94725764
-1.6914139 4.0974307 -0.98199981
-2.1734071 5.2650533 -0.94960552
-2.736357 6.6287937 -0.79932934
-3.2453108 7.8617282 -0.47506925
-0 0 0
-4.1623392 10.08322 0.60930973
-1.1502248 2.7768884 -0.99106675
-1.3033335 3.1465254 -0.9396432
-1.7012244 4.1071191 -0.98481369
-2.1846781 5.2742796 -0.95174497
-2.7443647 6.6254826 -0.79932934
-3.2587852 7.8674035 -0.4756498
-4.2251582 10.200434 0
-4.1725292 10.073377 0.60901916
-1.1298652 2.7184405 -0.97069341
-1.3360186 3.214443 -0.96040672
-1.7061858 4.1050606 -0.98481369
-2.1900651 5.2692676 -0.95131743
-2.7563391 6.6317153 -0.80048251
-3.2752712 7.8802586 -0.47666591
-2.9240761 7.0352883 0
-4.1827054 10.063534 0.60872918
-1.136004 2.7239192 -0.97313905
-1.3408664 3.2151396 -0.96109819
-1.7033205 4.0842347 -0.98031062
-2.1993957 5.2737279 -0.95260173
-2.7693272 6.6403136 -0.80192369
-3.2947903 7.9002733 -0.47811705
-2.9616244 7.1014051 0
-4.1838589 10.032089 0.60713249
-1.1450174 2.7362201 -0.97802728
-1.3282874 3.1741762 -0.94933212
-1.7141414 4.096242 -0.98368901
-2.1998186 5.2568531 -0.95003307
-2.7833374 6.6512737 -0.80365288
-3.3123586 7.9154625 -0.47927815
-2.9732177 7.1050262 0
-4.1959777 10.027026 0.60713249
-1.1368403 2.7074883 -0.96824771
-1.3321218 3.1725688 -0.94933212
-1.7171203 4.0894775 -0.98256218
-2.2071657 5.2565651 -0.95046228
-2.7923725 6.6502881 -0.80394095
-3.3229253 7.9138479 -0.47942314
-2.9777703 7.0918303 0
-4.2010517 10.005185 0.60611695
-1.1631418 2.7607777 -0.98780686
-1.3495928 3.2033288 -0.95902371
-1.7289671 4.1037931 -0.98650289
-2.2135155 5.2538943 -0.95046228
-2.7983994 6.6421471 -0.80336487
-3.3365207 7.9194055 -0.48000371
-2.9954302 7.1098099 0
-4.2080946 9.9881315 0.60539138
-1.1587778 2.7411578 -0.98128718
-1.3368571 3.1624148 -0.94725764
-1.732936 4.0993629 -0.98594058
-2.2258575 5.265398 -0.95302927
-2.8094454 6.6459103 -0.80423003
-3.3521559 7.9297242 -0.48087427
-2.9969246 7.0894032 0
-4.2181344 9.9782476 0.60510081
-1.1736706 2.7670603 -0.99106675
-1.3396947 3.1584809 -0.94656348
-1.7299505 4.0785527 -0.98143744
-2.2332196 5.2650657 -0.95345682
-2.8205009 6.6496472 -0.80509412
-3.3617351 7.9256678 -0.48087427
-3.0075231 7.0905728 0
-4.2180123 9.944438 0.60335916
-1.1609417 2.718755 -0.97476745
-1.3394458 3.1367853 -0.94102883
-1.7348136 4.0626783 -0.97862357
-2.230818 5.2242479 -0.94703853
-2.8497696 6.6737413 -0.80884272
-3.3982248 7.9581432 -0.48334149
-3.0123851 7.054563 0
-4.2338686 9.9150982 0.60219806
-1.3511351 3.1536038 -0.94656348
-1.7287132 4.0348859 -0.9724313
-2.2371287 5.2215486 -0.94703853
-2.8598666 6.6750436 -0.80941874
-3.4150023 7.9707527 -0.48435763
-3.0198829 7.0485282 0
-4.2458458 9.9099751 0.60219806
-1.1967899 2.7840579 -0.99921483
-1.3727808 3.1934605 -0.95902371
-1.7365986 4.0397992 -0.9741205
-2.2454619 5.2235537 -0.94789368
-2.8740568 6.6858358 -0.81114793
-3.4225807 7.9618506 -0.48406762
-0 0 0
-4.2547412 9.8976822 0.60176301
-1.1590432 2.6872947 -0.96498787
-1.3716716 3.1802833 -0.95556355
-1.7223581 3.9933662 -0.96342516
-2.2629564 5.246768 -0.95260173
-2.88111 6.6799855 -0.81085992
-3.4291103 7.9505491 -0.48363206
-3.022476 7.0077496 0
-4.2574329 9.8710537 0.60045636
-1.1789755 2.7244515 -0.97884148
-1.3635571 3.1509945 -0.94725764
-1.7049835 3.9399843 -0.95104277
-2.2590973 5.2204657 -0.94832122
-2.892262 6.6836228 -0.81172508
-3.4562569 7.9869385 -0.48609927
-3.0226727 6.9849844 0
-4.2693572 9.8659019 0.60045636
-1.1812832 2.7207601 -0.97802728
-1.370358 3.1562417 -0.94933212
-1.6975998 3.9099529 -0.94428813
-2.2643821 5.2153797 -0.94789368
-2.9065142 6.6943541 -0.81345427
-3.4741838 8.0018244 -0.4872604
-3.03215 6.9837213 0
-4.2698946 9.8345251 0.59886026
-1.1845698 2.7193308 -0.97802728
-1.3851926 3.1798859 -0.95694655
-1.6830457 3.8636456 -0.93359494
-2.2686338 5.2079377 -0.94703853
-2.9238966 6.7121763 -0.81604862
-3.4848866 8.000001 -0.48740539
-3.0405862 6.9800525 0
-4.286962 9.8412666 0.59958583
-1.1901664 2.7276762 -0.98128718
-1.3750739 3.1514554 -0.94864064
-1.6731858 3.8346817 -0.92684036
-2.2748568 5.2136178 -0.94832122
-2.9238136 6.7009258 -0.81489551
-3.500109 8.0217056 -0.48885652
-3.0354366 6.9567485 0
-4.2856321 9.8220015 0.59856969
-1.1885064 2.7149174 -0.97721308
-1.3798859 3.1520877 -0.94933212
-1.6594787 3.7907643 -0.91670948
-2.2811546 5.2108655 -0.94832122
-2.9339848 6.7021317 -0.8154726
-4.094357 9.3527822 -0.57027572
-3.0459256 6.9578395 0
-4.2933288 9.8072948 0.59798914
-1.1838347 2.6953757 -0.97069341
-1.3978195 3.1825802 -0.95902371
-1.6528174 3.7631636 -0.91051722
-2.2874494 5.2081051 -0.94832122
-2.9535229 6.7246332 -0.81864411
-4.0931163 9.3192787 -0.56853408
-3.0511899 6.9470029 0
-4.2968202 9.7830763 0.59682858
-1.1940681 2.7097776 -0.97639894
-1.3814315 3.1349738 -0.94518048
-1.6389226 3.7193153 -0.90038639
-2.2937407 5.2053375 -0.94832122
-2.9679019 6.7352562 -0.8203733
-4.1054206 9.3167019 -0.56867903
-3.0511863 6.9242592 0
-4.3086381 9.7778778 0.59682858
-1.193344 2.6992908 -0.97313905
-1.3872453 3.1378868 -0.94656348
-1.6382794 3.7057149 -0.89757252
-2.3021066 5.2072625 -0.94917798
-2.9812663 6.7434912 -0.82181448
-3.1038847 7.0208488 -0.42877185
-3.060606 6.9229541 0
-4.3078418 9.7441454 0.59508693
-1.2186491 2.7475479 -0.99106675
-1.4062943 3.1706102 -0.95694655
-1.6448143 3.7083735 -0.8986972
-2.3000703 5.1857042 -0.94575423
-2.9925594 6.7469792 -0.82267964
-3.130275 7.0574708 -0.43123907
-3.0731895 6.9287672 0
-4.3175035 9.7341776 0.59479636
-1.2038829 2.7054315 -0.97639894
-1.3774861 3.0955622 -0.93479741
-1.6389658 3.6831737 -0.89306945
-2.3032026 5.1758828 -0.94446993
-2.9986045 6.7386279 -0.82210249
-3.1324639 7.039444 -0.43036851
-3.0709767 6.9012671 0
-4.3271513 9.7242107 0.59450632
-1.1990905 2.6859195 -0.96987921
-1.4057707 3.1488757 -0.95140928
-1.6423802 3.6788726 -0.89250708
-2.317827 5.1918488 -0.94789368
-3.0172906 6.7586222 -0.82498598
-3.1356721 7.0237923 -0.42964295
-3.0740099 6.8856711 0
-4.3336024 9.7071133 0.59378082
-1.2124361 2.7070215 -0.97802728
-1.3993216 3.1242831 -0.944489
-1.6416281 3.6652839 -0.88969105
-2.3188529 5.1773324 -0.94575423
-3.0233383 6.750246 -0.82440883
-0 0 -0
-3.0780723 6.8724513 0
-4.3538213 9.7208328 0.59494132
-1.2217861 2.7190855 -0.98291868
-1.4010372 3.1180089 -0.94310331
-1.6481405 3.6679375 -0.89081788
-2.3272133 5.1792145 -0.94661099
-3.0336146 6.7513108 -0.82498598
-0 0 -0
-3.086374 6.8687272 0
-4.350656 9.6823874 0.59290969
-1.2250707 2.7176073 -0.98291868
-1.4027436 3.1117439 -0.94172031
-1.6504809 3.6613061 -0.88969105
-2.3281918 5.1646905 -0.94446993
-3.0523975 6.7712154 -0.82786834
-3.1621788 7.0147462 -0.42978796
-3.1010907 6.8792329 0
-4.3516755 9.6534386 0.59145856
-1.2181669 2.6936007 -0.97476745
-1.4116704 3.1214738 -0.94518048
-1.6569997 3.663944 -0.89081788
-2.337605 5.1688929 -0.94575423
-3.0669739 6.7816672 -0.82959867
-3.1685131 7.0061898 -0.42949796
-3.1051111 6.8659954 0
-4.3665457 9.6552696 0.59189355
-1.2193804 2.6876295 -0.97313905
-1.4185517 3.126622 -0.94725764
-1.6519784 3.6411164 -0.88575244
-2.3491511 5.1777511 -0.94789368
-3.075166 6.777956 -0.82959867
-3.1748271 6.9976192 -0.42920741
-3.1101782 6.8551264 0
-4.367475 9.6263275 0.59044242
-1.2205771 2.6816506 -0.97150755
-1.4264858 3.1340392 -0.95002627
-1.6626904 3.6529889 -0.88912868
-2.3458357 5.153883 -0.94404238
-3.080138 6.7671709 -0.8287335
-3.1789744 6.9843178 -0.42862684
-3.1152236 6.844255 0
-4.3801789 9.6234064 0.59058744
-1.2279229 2.689167 -0.97476745
-1.4125577 3.0935194 -0.9382602
-1.6649942 3.646359 -0.888004
-2.3584611 5.16506 -0.94661099
-3.0969074 6.7822666 -0.83103985
-3.1841764 6.9733872 -0.42819184
-3.1256552 6.8452253 0
-4.3853302 9.6039295 0.58971685
-1.2198517 2.6629701 -0.96580517
-1.4058444 3.0689974 -0.93133724
-1.6757461 3.6582003 -0.89138025
-2.3572156 5.1458673 -0.94361484
-3.1137176 6.7973318 -0.83334619
-3.2012532 6.9884248 -0.4293524
-3.1252532 6.822515 0
-4.3850265 9.5726347 0.58812022
-1.2488648 2.717629 -0.98617536
-1.4294565 3.110611 -0.944489
-1.6695573 3.6330895 -0.88575244
-2.3655734 5.147676 -0.94446993
-3.1564848 6.868762 -0.84257042
-3.203187 6.9703894 -0.42848185
-3.1324091 6.816371 0
-4.4041862 9.5838594 0.5891363
-1.2407682 2.6914341 -0.97721308
-1.4216595 3.0838177 -0.93687451
-1.6835189 3.6518347 -0.89081788
-2.3728695 5.1471519 -0.94489914
-3.269814 7.0927749 -0.87053341
-3.2083423 6.9594326 -0.42804629
-3.1406431 6.8125815 0
-4.4168501 9.5808878 0.58928132
-1.2398695 2.6809597 -0.97395325
-1.4243325 3.0798228 -0.93618304
-1.6847295 3.6428771 -0.88912868
-2.3758535 5.1372886 -0.94361484
-3.3261523 7.1921124 -0.88321829
-3.21348 6.948482 -0.42761129
-3.1412244 6.7922444 0
-4.4120655 9.5401745 0.58710468
-1.2327081 2.6570432 -0.96580517
-1.4375542 3.0985794 -0.94241184
-1.685921 3.6339219 -0.88743949
-2.3755748 5.1204376 -0.94104618
-3.3337486 7.1857352 -0.88292915
-3.2207768 6.9422302 -0.42746574
-3.1581914 6.8073301 0
-4.4203081 9.5277624 0.58666909
-1.2296584 2.6421027 -0.96091378
-1.4487083 3.1127636 -0.94725764
-1.6967454 3.6457081 -0.89081788
-2.3904254 5.1361823 -0.94446993
-3.3380632 7.1723218 -0.88177598
-3.2423198 6.9666033 -0.42920741
-3.1609249 6.7917142 0
-4.4318175 9.5224142 0.58666909
-1.2537619 2.685406 -0.97721308
-1.4429175 3.0905542 -0.94102883
-1.6903981 3.6206276 -0.88518798
-2.395545 5.1309667 -0.94404238
-3.3489175 7.1729751 -0.88235313
-3.2573328 6.9768119 -0.43007851
-3.170229 6.7902455 0
-4.434526 9.4982166 0.58550799
-1.2480544 2.6689734 -0.97150755
-1.4458461 3.0919523 -0.94172031
-1.6958151 3.626513 -0.88687718
-2.3932085 5.1178937 -0.94190294
-3.3762574 7.2201505 -0.88840699
-3.2549412 6.9607153 -0.42920741
-3.1633046 6.76475 0
-4.4424672 9.500248 0.58579856
-1.2502298 2.6652279 -0.97069341
-1.4463837 3.0833869 -0.9396432
-1.7023561 3.6290665 -0.888004
-2.4037516 5.1242943 -0.94361484
-3.3838816 7.2137265 -0.88811898
-0 0 -0
-3.1858475 6.7915592 0
-4.4451146 9.4760532 0.5846374
-1.2671289 2.692786 -0.98128718
-1.4501083 3.0816371 -0.9396432
-1.7034932 3.6201074 -0.88631481
-2.4055696 5.1120954 -0.94190294
-3.3958962 7.2166467 -0.88898301
-3.2529459 6.9128618 -0.42674017
-3.1929402 6.7853432 0
-4.4466052 9.4495173 0.58333129
-1.2566669 2.6621988 -0.97069341
-1.4399098 3.0503917 -0.93064576
-1.7089498 3.620342 -0.88687718
-2.4139342 5.1138234 -0.94275808
-3.420073 7.2452884 -0.89301968
-3.2646248 6.915978 -0.42717573
-3.2033606 6.7861919 0
-4.4580197 9.4441376 0.58333129
-1.2471896 2.6338725 -0.96091378
-1.4489619 3.0599844 -0.93410587
-1.7100598 3.6113827 -0.88518798
-2.4179163 5.106267 -0.94190294
-3.4332528 7.2505012 -0.89417285
-3.2674201 6.9002881 -0.42645016
-3.2260361 6.8128915 0
-4.4727612 9.4457827 0.58376628
-1.256736 2.6457632 -0.96580517
-1.4634243 3.0808969 -0.94102883
-1.713333 3.6070209 -0.88462561
-2.4196789 5.0940666 -0.94019109
-3.4431198 7.2486815 -0.89446086
-3.2802148 6.9057236 -0.42703074
-3.2532473 6.8489494 0
-4.4953222 9.4638472 0.58521795
-1.2726858 2.6710093 -0.97558159
-1.468224 3.081389 -0.94172031
-1.7176901 3.604948 -0.88462561
-2.4335628 5.1073637 -0.94318724
-3.4563262 7.2538557 -0.89561403
-3.3243194 6.9768105 -0.43167463
-3.2514465 6.8238711 0
-4.5089874 9.4630957 0.58550799
-1.2684544 2.6538661 -0.96987921
-1.4806012 3.0977206 -0.94725764
-1.7143778 3.5868292 -0.88068706
-2.4430501 5.111361 -0.94446993
-3.4662027 7.2520056 -0.89590204
-3.3607597 7.0313969 -0.43530297
-3.2652998 6.8316755 0
-4.5282631 9.4740534 0.58652407
-1.2631118 2.6345019 -0.96335948
-1.4810883 3.0891407 -0.94518048
-1.728596 3.6053734 -0.88575244
-2.4381285 5.0852618 -0.94019109
-3.4738457 7.245482 -0.89561403
-3.3759956 7.0413938 -0.43617409
-3.2825532 6.846499 0
-4.5295982 9.4474897 0.58521795
-1.2727195 2.6463339 -0.96824771
-1.4717717 3.0602181 -0.93687451
-1.7274457 3.591835 -0.88293856
-2.4420481 5.0776901 -0.93933594
-3.4781139 7.2319555 -0.89446086
-3.4160311 7.1028681 -0.44023743
-3.2919505 6.8448706 0
-4.5421352 9.4443493 0.58536297
-1.2877303 2.6692834 -0.97721308
-1.4907272 3.0900671 -0.94656348
-1.7328875 3.5920315 -0.88350093
-2.4593337 5.0978518 -0.94361484
-3.4902179 7.2347298 -0.89532489
-3.4336433 7.1174583 -0.44139856
-3.3036122 6.8479218 0
-4.5738645 9.4809761 0.5879752
-1.265116 2.6143303 -0.95765394
-1.4846257 3.0679417 -0.94033468
-1.7350107 3.5853562 -0.88237405
-2.4576631 5.0786991 -0.94061863
-3.4955804 7.2235293 -0.89446086
-3.4456375 7.1203232 -0.44183412
-3.3186836 6.8579764 0
-4.5558906 9.4146328 0.58420187
-1.28986 2.6572697 -0.97395325
-1.4751853 3.0390625 -0.93202871
-1.7382332 3.5809736 -0.88181174
-2.470526 5.0895867 -0.94318724
-3.5122092 7.2355814 -0.89647806
-3.4689884 7.1465416 -0.44372079
-3.322422 6.8445964 0
-0 0 0
-1.28658 2.6423805 -0.96906501
-1.4931368 3.066607 -0.94102883
-1.7503462 3.5948644 -0.88575244
-2.4744244 5.0819774 -0.94233048
-3.514158 7.2173839 -0.89474887
-3.4867213 7.1610346 -0.44488192
-3.3534758 6.8873744 0
-4.6320887 9.5133924 0.59102297
-1.2876004 2.6363778 -0.96743351
-1.4869291 3.0445056 -0.93479741
-1.747996 3.5790434 -0.88237405
-2.4805632 5.0789838 -0.94233048
-3.5228763 7.2131324 -0.89474887
-3.5101948 7.1871672 -0.44676858
-3.3515174 6.8622732 0
-0 0 0
-1.2831725 2.6192811 -0.96172798
-1.4884014 3.0382051 -0.9334144
-1.7500857 3.5723696 -0.88124937
-2.4878266 5.0782857 -0.94275808
-3.5270376 7.1995797 -0.8935957
-3.5257332 7.1969171 -0.44763914
-3.3689661 6.8769155 0
-0 0 0
-1.2939677 2.6332586 -0.96743351
-1.4942821 3.0409036 -0.93479741
-1.7521577 3.5656869 -0.88012254
-2.4905677 5.0683708 -0.94147539
-3.5311716 7.1860271 -0.89244252
-3.5470335 7.218307 -0.44923583
-3.3784199 6.8751731 0
-4.6653986 9.4942093 0.59087801
-1.2971486 2.6316931 -0.96743351
-1.4935187 3.0300946 -0.93202871
-1.759836 3.5704067 -0.88181174
-2.4978237 5.0676579 -0.94190294
-3.5398519 7.1817551 -0.89244252
-3.5465624 7.1953702 -0.4480747
-3.3867247 6.8710861 0
-4.6872053 9.5095387 0.59218413
-1.2970403 2.6234748 -0.96498787
-1.504963 3.0440323 -0.93687451
-1.7652738 3.5705533 -0.88237405
-2.4993944 5.0554314 -0.94019109
-3.5450871 7.1705146 -0.89157736
-3.5494971 7.1794353 -0.44734913
-3.3892586 6.8553262 0
-4.6906295 9.4875612 0.59116799
-1.2980152 2.6174815 -0.96335948
-1.5108714 3.0467112 -0.9382602
-1.7684591 3.5661435 -0.88181174
-2.5089238 5.0593095 -0.94147539
-3.5560491 7.1708651 -0.89215451
-3.5420053 7.1425457 -0.44531691
-3.3963842 6.848897 0
-0 0 0
-1.3000773 2.6137002 -0.96254528
-1.4977912 3.0111878 -0.92787707
-1.7659793 3.5503583 -0.87843549
-2.5184615 5.0631628 -0.94275808
-3.5658619 7.1688766 -0.89244252
-3.5309613 7.0987115 -0.44284967
-3.4116094 6.8587646 0
-0 0 0
-1.3131642 2.63203 -0.96987921
-1.5204675 3.0475366 -0.9396432
-1.7782052 3.5641308 -0.88237405
-2.5222876 5.0555263 -0.94190294
-3.5791402 7.1738205 -0.8935957
-3.5279379 7.0711932 -0.44139856
-3.415247 6.8453221 0
-0 0 0
-1.3174486 2.6326494 -0.97069341
-1.5230272 3.0434558 -0.93895167
-1.7791023 3.5551693 -0.88068706
-2.5226514 5.0409989 -0.93976355
-3.5785458 7.1509862 -0.89128935
-3.5399692 7.0738988 -0.44183412
-3.4235158 6.8411903 0
-0 0 0
-1.2946776 2.5832455 -0.9527657
-1.51475 3.0223517 -0.93272287
-1.7823873 3.5563633 -0.88124937
-2.5245473 5.0371814 -0.93933594
-3.5840232 7.1511331 -0.89157736
-3.5523887 7.0880132 -0.44284967
-3.442806 6.8693652 0
-0 0 0
-1.3155596 2.6170118 -0.96580517
-1.5217779 3.0272372 -0.93479741
-1.7878233 3.5564749 -0.88181174
-2.5352395 5.0432925 -0.94104618
-3.5891795 7.1398711 -0.89071333
-3.6006286 7.1626458 -0.44778413
-3.4546115 6.8721781 0
-0 0 0
-1.3176048 2.6132071 -0.96498787
-1.5197883 3.0141978 -0.93133724
-1.7864006 3.5429702 -0.87899786
-2.5447998 5.0471044 -0.94233048
-3.5989676 7.1378365 -0.89100134
-3.6268296 7.1930952 -0.44996136
-3.4558804 6.8540516 0
-0 0 0
-1.311838 2.5939684 -0.95846814
-1.5347533 3.0347509 -0.9382602
-1.7941215 3.5476136 -0.88068706
-2.538156 5.0188336 -0.9376241
-3.6052527 7.1288619 -0.89042419
-3.6448998 7.2072582 -0.45112249
-3.4747291 6.87077 0
-0 0 0
-1.3194437 2.6011984 -0.96172798
-1.5213945 2.9993315 -0.92787707
-1.797254 3.5431707 -0.88012254
-2.5500238 5.0272079 -0.93976355
-3.6150374 7.1268139 -0.89071333
-3.6512525 7.1982098 -0.45083192
-3.4936275 6.8874621 0
-0 0 0
-1.3192267 2.5929997 -0.95928544
-1.5398053 3.026557 -0.93687451
-1.8003829 3.538734 -0.87956017
-2.552603 5.0172567 -0.93847919
-3.6177831 7.1109161 -0.88927215
-3.6658423 7.205379 -0.45155805
-3.4984057 6.8762746 0
-0 0 0
-1.3178653 2.5825977 -0.9560256
-1.5274991 2.9934134 -0.9271856
-1.8069694 3.5410867 -0.88068706
-2.5621653 5.0210309 -0.93976355
-3.6287215 7.1111431 -0.88984817
