# .PCD v0.7 - Point Cloud Data file format
VERSION 0.7
FIELDS x y z
SIZE 4 4 4
TYPE F F F
COUNT 1 1 1
WIDTH 1560
HEIGHT 1
VIEWPOINT 0 0 0 1 0 0 0
POINTS 1560
DATA ascii
6.5398288 -6.9054537 -0.53123504
7.3557596 -7.7670012 0
7.3169527 -7.7260246 0.59436136
1.9775255 -2.0830367 -0.94706017
2.2619748 -2.382663 -0.90642208
2.7056272 -2.8499866 -0.87055403
3.5293581 -3.7176678 -0.85460258
5.3559542 -5.6417222 -0.86707389
6.5302811 -6.8787055 -0.5297839
7.365139 -7.7581077 0
7.3155451 -7.7058673 0.59349024
1.9221127 -2.0197742 -0.91935295
2.2562063 -2.3708429 -0.90296191
2.7125754 -2.8504 -0.87168092
3.5267689 -3.7059622 -0.85289067
5.3574233 -5.629631 -0.86620986
6.5403776 -6.8726902 -0.52992892
7.3673315 -7.7416615 0
7.323061 -7.6951418 0.59334522
1.9382001 -2.0317574 -0.92587262
2.2590694 -2.3681152 -0.90296191
2.7212808 -2.8526375 -0.87337011
3.5330145 -3.7035539 -0.85331821
5.3606477 -5.6194067 -0.86563271
6.5450931 -6.8610258 -0.52963889
7.3730912 -7.7289915 0
7.3287635 -7.6825237 0.59305465
1.9731044 -2.0633488 -0.94135463
2.2723291 -2.3762593 -0.90711355
2.7299891 -2.8548512 -0.8750571
3.5445838 -3.7067034 -0.85503012
3.9660442 -4.1474404 -0.63962364
6.5444012 -6.8437243 -0.52891332
7.380621 -7.7181907 0
7.3308573 -7.666151 0.5924741
1.9482371 -2.0324221 -0.92831832
2.2543659 -2.351779 -0.89880764
2.7176135 -2.8350439 -0.86999172
3.5437291 -3.6968565 -0.85374582
0 -0 -0
6.5526657 -6.8358116 -0.52891332
7.3845439 -7.7036362 0
7.3401151 -7.6572876 0.5924741
1.9780848 -2.0585744 -0.94135463
2.2624223 -2.3544819 -0.90088481
2.7298379 -2.8409171 -0.8728056
3.5446396 -3.6888733 -0.85289067
0 -0 -0
6.5663166 -6.8335047 -0.52934831
7.3902369 -7.6909509 0
7.343966 -7.642797 0.59203911
1.9754318 -2.0508478 -0.93891209
2.2809279 -2.3680067 -0.90711355
2.7420807 -2.8467648 -0.87561947
3.5615551 -3.6975245 -0.85588521
3.9738748 -4.1255851 -0.63847047
6.5781775 -6.8293118 -0.52963889
7.4013286 -7.6838884 0
7.3477859 -7.6283016 0.59160358
1.9864907 -2.0573478 -0.94298613
2.2768171 -2.3580298 -0.90434492
2.7278724 -2.8251741 -0.86999172
3.558888 -3.6858315 -0.85417336
3.9770551 -4.1189141 -0.63818139
6.5882277 -6.823226 -0.5297839
7.4051895 -7.6693282 0
7.3515811 -7.6138082 0.59116799
1.9649132 -2.0300858 -0.93157816
2.293623 -2.3696983 -0.90988225
2.7383528 -2.829179 -0.87224323
3.5615554 -3.6796858 -0.85374582
0 -0 -0
6.5982728 -6.8171258 -0.52992892
7.405396 -7.6510196 0
7.3589702 -7.603054 0.59102297
1.9587543 -2.0188355 -0.92750102
2.2825089 -2.3525207 -0.90434492
2.7400014 -2.8240464 -0.87168092
3.564213 -3.6735389 -0.85331821
0 -0 -0
6.5902224 -6.7923656 -0.52862281
7.4164524 -7.643939 0
7.3753896 -7.6016164 0.59160358
1.9525777 -2.0076101 -0.92342699
2.3045919 -2.3695457 -0.91195935
2.7380955 -2.8152673 -0.86999172
3.5740204 -3.6747522 -0.85460258
0 -0 -0
6.6038613 -6.7899876 -0.52905834
7.4166126 -7.6256461 0
7.3791323 -7.5871091 0.59116799
1.9377517 -1.9875555 -0.91527885
2.3021977 -2.3613687 -0.90988225
2.7450461 -2.815599 -0.87111855
3.5730801 -3.6649148 -0.85331821
0 -0 -0
6.612061 -6.7820034 -0.52905834
7.4258213 -7.6166787 0
7.3792267 -7.5688863 0.59044242
1.9643337 -2.0099561 -0.92668682
2.2875178 -2.3406465 -0.90296191
2.7484462 -2.8122799 -0.87111855
3.5810909 -3.6642632 -0.85417336
3.9928296 -4.0855646 -0.63674021
6.6184363 -6.7721524 -0.52891332
7.4295607 -7.6021152 0
7.3829165 -7.5543876 0.59000689
1.9702235 -2.0111156 -0.92831832
2.2833219 -2.3307123 -0.90019327
2.7553952 -2.8125837 -0.87224323
3.5765352 -3.6507666 -0.85203391
4.0031953 -4.0862818 -0.63760537
6.6229739 -6.7604346 -0.52862281
7.429636 -7.5838389 0
7.3902225 -7.5436072 0.58986187
1.9748963 -2.0134506 -0.92994666
2.3022935 -2.3472393 -0.90711355
2.7570939 -2.8109183 -0.87224323
3.5841346 -3.6541047 -0.85331821
4.0110984 -4.0894036 -0.63847047
6.610683 -6.739738 -0.52731669
7.4360371 -7.5812049 0
7.3911428 -7.5354342 0.58957189
1.9530712 -1.9863925 -0.91853875
2.292814 -2.3319316 -0.90226775
2.7551422 -2.8021476 -0.87055403
3.5867493 -3.6479428 -0.85289067
4.0033412 -4.0716419 -0.6364522
6.6188221 -6.7317457 -0.52731669
7.4397168 -7.5666456 0
7.3984156 -7.5246401 0.58942634
1.9832295 -2.0121961 -0.93157816
2.2921112 -2.3255894 -0.90088481
2.7567441 -2.7970088 -0.86999172
3.5893474 -3.6417725 -0.85246146
4.0173345 -4.0760107 -0.63789338
6.6178327 -6.7144914 -0.52659112
7.448854 -7.5576506 0
7.4056802 -7.5138459 0.58928132
1.9839172 -2.0080349 -0.93076086
2.2984426 -2.3263841 -0.90226775
2.7583377 -2.7918699 -0.86942935
3.593745 -3.6374328 -0.85246146
4.011353 -4.0601177 -0.63616413
6.589416 -6.6695213 -0.52368832
7.450664 -7.5412393 0
7.4147539 -7.5048923 0.58928132
1.97484 -1.9892095 -0.92424428
2.2969878 -2.3137012 -0.89949912
2.7758141 -2.7960117 -0.8728056
3.6043386 -3.6305647 -0.85289067
5.5080547 -5.5481324 -0.87139857
4.0133643 -4.0425663 -0.31818143
7.4652028 -7.5195217 0
7.4237165 -7.4777331 0.58855575
1.998157 -2.007838 -0.93402076
2.3139391 -2.32515 -0.90503645
2.7720213 -2.7854514 -0.87055403
3.6032887 -3.6207464 -0.85160637
5.5111022 -5.5378032 -0.87082142
4.0274091 -4.0469213 -0.31890699
7.4687743 -7.5049601 0
7.4290843 -7.4650779 0.58826578
1.9988377 -2.003674 -0.93320656
2.3415558 -2.3472214 -0.91472805
2.7789774 -2.785701 -0.87168092
3.6167243 -3.6254749 -0.85374582
5.5086575 -5.521986 -0.86938024
4.0267959 -4.0365386 -0.31847197
7.4796734 -7.4977708 0
7.4307585 -7.4487371 0.58768523
1.9820378 -1.9820378 -0.92424428
2.3319709 -2.3319709 -0.90988225
2.7625759 -2.7625759 -0.86548859
3.6138415 -3.6138415 -0.85203391
5.5244684 -5.5244684 -0.87082142
4.0243206 -4.0243206 -0.31789142
7.4813666 -7.4813666 0
7.4415889 -7.4415889 0.58783019
2.0001779 -1.99535 -0.93157816
2.3116992 -2.3061194 -0.90088481
2.7785058 -2.7717993 -0.86942935
3.6236594 -3.614913 -0.85331821
5.5238152 -5.5104823 -0.86966825
4.0254974 -4.0157814 -0.31760088
7.4904008 -7.4723215 0
7.4450545 -7.4270844 0.58739465
2.0008304 -1.9911832 -0.93076086
2.3002579 -2.2891672 -0.89534748
2.7872577 -2.7738187 -0.87111855
3.6280246 -3.6105318 -0.85331821
5.5378032 -5.5111022 -0.87082142
4.0229797 -4.0035825 -0.3170203
7.4975815 -7.461431 0
7.4466558 -7.4107513 0.58681411
1.9804343 -1.9661283 -0.92016709
2.304801 -2.288152 -0.89603901
2.7797847 -2.7597044 -0.86774015
3.6305647 -3.6043386 -0.85289067
4.013701 -3.9847074 -0.63039833
4.0315061 -4.0023837 -0.31731087
7.4992037 -7.4450321 0
7.4574471 -7.4035769 0.58695906
1.9828086 -1.9637339 -0.92016709
2.3396461 -2.3171387 -0.90849656
2.7867312 -2.759923 -0.86886698
3.6312656 -3.5963328 -0.85203391
4.020349 -3.981673 -0.63068634
4.0307984 -3.9920223 -0.31687531
7.5155907 -7.4432907 0
7.4626985 -7.3909073 0.58666909
2.0097983 -1.9856594 -0.93157816
2.3477998 -2.3196013 -0.91057372
2.8009057 -2.7672651 -0.87224323
3.6356084 -3.5919425 -0.85203391
4.025157 -3.9768124 -0.63068634
4.0337725 -3.9853244 -0.31673029
7.5097685 -7.4195714 0
7.4660764 -7.3764043 0.58623356
1.9910724 -1.9624099 -0.92179859
2.3220124 -2.2885857 -0.89949912
2.7915781 -2.7513916 -0.86830252
3.6436062 -3.5911543 -0.85289067
4.0244379 -3.9665041 -0.62982225
4.036736 -3.9786251 -0.3165853
7.5168762 -7.4086666 0
7.473135 -7.3655553 0.58608854
2.0040133 -1.9703963 -0.92668682
2.3337257 -2.2945781 -0.90296191
2.7967174 -2.7498031 -0.86886698
3.6479428 -3.5867493 -0.85289067
4.0329132 -3.9652617 -0.63039833
4.0415406 -3.9737446 -0.3165853
7.5221076 -7.395926 0
7.4801784 -7.3547001 0.58594352
2.036942 -2.0003538 -0.94135463
2.32974 -2.2878926 -0.90088481
2.807441 -2.7570131 -0.87168092
3.639116 -3.5737493 -0.85032207
4.0334644 -3.961014 -0.63011026
4.0253973 -3.9530921 -0.31513363
7.5247192 -7.3895583 0
7.4790568 -7.3447161 0.58550799
1.9828669 -1.9425491 -0.91527885
2.3342931 -2.2868297 -0.90157628
2.8125837 -2.7553952 -0.87224323
3.6471026 -3.5729458 -0.85117882
4.0382476 -3.9561374 -0.63011026
4.0338869 -3.9518657 -0.31542417
7.5317855 -7.3786411 0
7.4860716 -7.3338571 0.58536297
2.0187926 -1.9729695 -0.93076086
2.3693469 -2.315567 -0.91403389
2.8013732 -2.737787 -0.86774015
3.6587608 -3.5757134 -0.85289067
4.0319223 -3.9404049 -0.62838
4.0386591 -3.9469886 -0.31542417
7.53511 -7.3640766 0
7.4893508 -7.319356 0.58492744
1.9875555 -1.9377517 -0.91527885
2.3236475 -2.2654219 -0.89534748
2.8119566 -2.7414951 -0.86999172
3.6575627 -3.565912 -0.85160637
4.0366807 -3.9355302 -0.62838
4.047143 -3.9457302 -0.31571418
7.5365491 -7.3476992 0
7.4981894 -7.3103008 0.58492744
2.0235546 -1.9680852 -0.93076086
2.3227828 -2.2591109 -0.89396185
2.8098011 -2.7327793 -0.86830252
3.6581917 -3.5579138 -0.85075128
4.045145 -3.9342599 -0.62895709
4.0537686 -3.942647 -0.3158592
7.5454216 -7.3385878 0
7.4995661 -7.2939887 0.58434683
2.0809233 -2.0189943 -0.9560256
2.3291152 -2.2598 -0.89534748
2.8058066 -2.7223046 -0.86605096
3.6643288 -3.5552769 -0.85117882
4.0480413 -3.9275699 -0.62866908
4.0529399 -3.932323 -0.31542417
7.5524173 -7.3276544 0
7.5139704 -7.2903519 0.58478242
2.0300858 -1.9649132 -0.93157816
2.3408556 -2.2657063 -0.89880764
2.8200519 -2.7295187 -0.86942935
3.666779 -3.549063 -0.85075128
4.0490632 -3.9190745 -0.62809199
4.0632844 -3.9328392 -0.3158592
7.5519176 -7.3094754 0
7.5153055 -7.2740388 0.58420187
2.0235634 -1.9538698 -0.92750102
2.3453946 -2.264617 -0.89949912
2.8251741 -2.7278724 -0.86999172
3.6636779 -3.5374975 -0.84903938
4.0500779 -3.9105895 -0.62751591
4.045609 -3.9062746 -0.31411809
7.547637 -7.2876892 0
7.5184798 -7.2595363 0.58376628
2.0010045 -1.9274215 -0.91609305
2.3481293 -2.2617815 -0.89949912
2.8193197 -2.7156448 -0.86717778
3.6716437 -3.5366263 -0.84989452
4.0603833 -3.9110708 -0.62838
4.0540657 -3.9049852 -0.31440806
4.0458937 -3.897114 0
7.5253763 -7.2486453 0.58362132
2.0336273 -1.9541131 -0.92994666
2.3436246 -2.2519896 -0.89673048
2.8335884 -2.722796 -0.87055403
3.6777637 -3.5339642 -0.85032207
4.0725665 -3.9133301 -0.62953317
4.0550375 -3.8964865 -0.31411809
4.0355873 -3.8777971 0
7.5322576 -7.2377486 0.58347631
2.0110109 -1.9277129 -0.91853875
2.3680768 -2.2699888 -0.90503645
2.8222022 -2.7053037 -0.86605096
3.6746185 -3.5224121 -0.84861016
4.0866332 -3.9173608 -0.63097543
4.0391068 -3.871803 -0.3125214
4.019609 -3.8531129 0
7.533494 -7.2214494 0.58289576
2.0347745 -1.9457798 -0.92831832
2.3653836 -2.2619293 -0.90296191
2.8291452 -2.7054071 -0.86717778
3.6937144 -3.5321629 -0.85203391
4.0932312 -3.9142058 -0.63126343
4.0569296 -3.8794923 -0.31353751
4.0280204 -3.8518472 0
7.5384545 -7.208746 0.58260518
2.0317574 -1.9382001 -0.92587262
2.3662946 -2.2573328 -0.90226775
2.8305755 -2.7002347 -0.86661547
3.6905499 -3.5206094 -0.85032207
4.0960879 -3.9074736 -0.63097543
4.0484514 -3.8620307 -0.3125214
4.0176067 -3.8326063 0
7.5415244 -7.1942568 0.58217019
2.0161967 -1.9187083 -0.91772455
2.3544815 -2.2406361 -0.89673048
2.8448763 -2.7073188 -0.86999172
3.6985238 -3.5196903 -0.85117882
4.089561 -3.8918195 -0.62924516
4.0342956 -3.8392265 -0.31107029
4.0316663 -3.8367245 0
7.5558534 -7.1905074 0.58260518
2.0185137 -1.9162707 -0.91772455
2.382663 -2.2619748 -0.90642208
2.8334036 -2.6898842 -0.86548859
3.7009141 -3.513453 -0.85075128
4.0773797 -3.8708498 -0.62665081
4.0634279 -3.8576047 -0.31295696
4.0476203 -3.8425977 0
7.5551157 -7.1724291 0.58187962
2.0340192 -1.9286559 -0.92424428
2.3840292 -2.260535 -0.90642208
2.8387191 -2.6916718 -0.86661547
3.7011678 -3.5094452 -0.85032207
4.0722103 -3.8612671 -0.62549764
4.0582156 -3.8479974 -0.31237641
4.0102844 -3.8025491 0
7.5594473 -7.1678634 0.58187962
2.0758474 -1.9635594 -0.94217193
2.38311 -2.2542014 -0.90503645
2.8585811 -2.7039528 -0.87168092
3.7072759 -3.5067396 -0.85075128
4.0712337 -3.8510101 -0.62463248
4.0534253 -3.8341649 -0.31165084
4.0035357 -3.7869737 0
7.5662169 -7.15694 0.58173466
2.0386741 -1.9237348 -0.92424428
2.3730648 -2.2392726 -0.90019327
2.8581464 -2.6970057 -0.87055403
3.7115104 -3.5022576 -0.85075128
4.0909333 -3.8602889 -0.62693882
4.0693908 -3.8399608 -0.3125214
4.0024281 -3.7767735 0
7.5767474 -7.1495743 0.58187962
2.0715899 -1.9500682 -0.93809789
2.3648047 -2.2260828 -0.89603901
2.8410571 -2.6743977 -0.86436391
3.7250838 -3.5065663 -0.85289067
0 -0 -0
4.0588913 -3.8207924 -0.31136027
3.9861422 -3.7523108 0
7.5834904 -7.1386347 0.58173466
2.0451171 -1.9204928 -0.92505848
2.3894386 -2.2438323 -0.90434492
2.8572469 -2.6831334 -0.86830252
3.7274413 -3.5003004 -0.85246146
4.0832829 -3.8344579 -0.62434447
4.0748739 -3.8265615 -0.31223139
3.9925756 -3.7492783 0
7.5864263 -7.1241283 0.58129907
2.0744874 -1.9433616 -0.9372806
2.3829954 -2.2323694 -0.90088481
2.8512168 -2.670995 -0.86548859
3.7241814 -3.4887805 -0.85075128
4.0860276 -3.8277547 -0.6240564
4.0738039 -3.8163037 -0.31179583
4.004693 -3.7515614 0
7.5969234 -7.1167312 0.58144408
2.0804491 -1.944232 -0.93891209
2.4058483 -2.2483258 -0.90849656
2.8618679 -2.6744874 -0.86774015
3.7246397 -3.4807692 -0.84989452
4.0793076 -3.8122153 -0.62232614
4.0689216 -3.8025093 -0.31107029
4.0073233 -3.7449446 0
7.5998268 -7.1022291 0.58100909
2.0430279 -1.9046415 -0.92098445
2.3865499 -2.224895 -0.90019327
2.8558066 -2.6623659 -0.86492628
3.7307186 -3.4780149 -0.85032207
4.0914783 -3.8143384 -0.62347931
4.0754118 -3.7993603 -0.31121528
4.0080419 -3.7365537 0
7.606504 -7.0912709 0.58086407
2.0453277 -1.9021715 -0.92098445
2.4112747 -2.2425053 -0.90849656
2.8664639 -2.6658349 -0.86717778
3.7405593 -3.4787509 -0.85160637
4.1036601 -3.8164377 -0.62463248
4.0742898 -3.7891228 -0.31077972
3.9973083 -3.7175293 0
7.6093569 -7.0767641 0.58042854
2.0856731 -1.9349984 -0.93809789
2.3919199 -2.219121 -0.90019327
2.8715439 -2.6640959 -0.86774015
3.7466402 -3.4759729 -0.85203391
4.0968957 -3.8009248 -0.62290323
4.0598197 -3.7665274 -0.30932862
3.9960718 -3.7073848 0
7.6159992 -7.0657992 0.58028352
2.0245199 -1.8737164 -0.90957332
2.4258983 -2.2451968 -0.91195935
2.8728979 -2.6589 -0.86717778
3.7433014 -3.4644687 -0.85032207
5.764266 -5.3348947 -0.8754341
4.0548344 -3.7527959 -0.30860305
3.9948165 -3.6972487 0
7.6226187 -7.0548215 0.58013797
2.0612876 -1.9031264 -0.92505848
2.3917439 -2.2082272 -0.89811611
2.8779736 -2.6571486 -0.86774015
3.7456007 -3.4582033 -0.84989452
5.7650051 -5.3226604 -0.87456894
4.0574512 -3.7461262 -0.30845749
4.0203166 -3.7118404 0
7.62923 -7.0438447 0.57999295
2.0544972 -1.8922638 -0.92098445
2.3888726 -2.2002351 -0.89603901
2.8793149 -2.6519496 -0.86717778
3.7441099 -3.448456 -0.84861016
5.7771416 -5.3209491 -0.8754341
4.0696201 -3.7482622 -0.30903804
3.9980025 -3.6822999 0
7.632 -7.0293384 0.57955742
2.0349422 -1.8697131 -0.91120481
2.4266315 -2.2295988 -0.90919071
2.8843865 -2.6501861 -0.86774015
3.7539468 -3.4491415 -0.84989452
5.7816639 -5.3122163 -0.87514609
4.0779767 -3.7468617 -0.30932862
4.006278 -3.6809845 0
7.6385765 -7.0183554 0.5794124
2.069993 -1.8973104 -0.92587262
2.3923352 -2.1927621 -0.89534748
2.8763514 -2.6364009 -0.86436391
3.7581117 -3.4446032 -0.84989452
5.7938004 -5.3104711 -0.87601125
4.0939908 -3.7524626 -0.31019917
4.0030489 -3.6691072 0
7.6489649 -7.0108743 0.57955742
2.0668101 -1.8898027 -0.92342699
2.4079449 -2.2017219 -0.90019327
2.8832817 -2.6363494 -0.86548859
3.7660637 -3.4435275 -0.85075128
5.8002129 -5.3034663 -0.87601125
4.1042767 -3.752775 -0.31063473
4.0362906 -3.6906116 0
7.6440125 -6.9893579 0.57854182
2.0442274 -1.8668878 -0.91283321
2.4000068 -2.191803 -0.89673048
2.8961349 -2.644891 -0.86886698
3.7681434 -3.4412518 -0.85075128
5.7995925 -5.2964697 -0.8754341
4.1161346 -3.7590544 -0.31136027
4.0423594 -3.691679 0
7.6424756 -6.9794803 0.57810628
2.093982 -1.9076909 -0.93402076
2.4045134 -2.1905959 -0.89742464
2.8861787 -2.6294098 -0.86492628
3.7684999 -3.4332352 -0.84989452
5.8136358 -5.2964258 -0.87658727
4.1225929 -3.7558262 -0.31150529
4.0410514 -3.6815391 0
7.6547413 -6.9737372 0.57839626
2.0633657 -1.8752408 -0.91935295
2.4145849 -2.194438 -0.90019327
2.8855968 -2.6225059 -0.8638016
3.7707477 -3.4269543 -0.84946692
5.8162069 -5.2859211 -0.87601125
4.1309776 -3.7543409 -0.31179583
4.0532007 -3.683655 0
7.6708541 -6.9714732 0.57897681
2.1114054 -1.9142473 -0.93972629
2.4283829 -2.2016261 -0.90434492
2.8906441 -2.6207223 -0.86436391
3.7862928 -3.4327376 -0.85203391
5.8283329 -5.2840967 -0.87687528
4.1412883 -3.7545843 -0.31223139
4.0537887 -3.6752553 0
7.6658025 -6.9499874 0.57796127
2.0788934 -1.8801994 -0.92424428
2.418015 -2.186909 -0.89949912
2.8900359 -2.6138155 -0.86323708
3.7809203 -3.4195521 -0.84989452
5.8232074 -5.266644 -0.87514609
4.1535306 -3.7565494 -0.31281197
4.0601549 -3.6720984 0
7.6722689 -6.9389782 0.57781631
2.0628092 -1.8611262 -0.91609305
2.439286 -2.2007945 -0.90642208
2.8931921 -2.6103218 -0.86323708
3.7774255 -3.4081025 -0.84818262
5.8449297 -5.2734647 -0.87745243
4.1677108 -3.7602296 -0.31353751
4.0665269 -3.6689382 0
7.6825752 -6.9314418 0.57796127
2.0981207 -1.8883914 -0.93076086
2.4121079 -2.1709924 -0.89534748
2.8944573 -2.6051257 -0.86267471
3.7872667 -3.4086895 -0.84946692
5.8512974 -5.2663984 -0.87745243
4.174181 -3.7569275 -0.31368253
4.0709572 -3.664022 0
7.6774235 -6.9099841 0.57694519
2.0838509 -1.8709953 -0.92342699
2.4427252 -2.1932123 -0.90572792
2.9297421 -2.6304829 -0.87224323
3.7932909 -3.4058242 -0.84989452
4.1660471 -3.740505 -0.6240564
4.1845198 -3.7570908 -0.31411809
4.0656934 -3.6504018 0
7.6876988 -6.9024367 0.57709014
2.0603385 -1.8453931 -0.91201901
2.4322975 -2.1785474 -0.90088481
2.9045334 -2.6015172 -0.8638016
3.8088729 -3.4115112 -0.85246146
4.1724887 -3.7371924 -0.62434447
4.1793728 -3.7433586 -0.31339195
4.0701013 -3.6454866 0
7.6940999 -6.8914104 0.57694519
2.1031108 -1.8791283 -0.92994666
2.4349282 -2.175607 -0.90088481
2.9171467 -2.6064687 -0.86661547
3.7976856 -3.3932297 -0.84903938
4.161571 -3.7183614 -0.62203813
4.1645203 -3.7209961 -0.31194085
4.0900283 -3.654438 0
7.7024212 -6.8821087 0.57694519
2.1146035 -1.884807 -0.93402076
2.4319348 -2.1676536 -0.89880764
2.9183917 -2.6012466 -0.86605096
3.8094482 -3.3954709 -0.85075128
4.1660609 -3.7133303 -0.62203813
4.1496191 -3.6986752 -0.31048971
4.1391268 -3.6893232 0
7.7049098 -6.8676081 0.57650959
2.0984123 -1.8658304 -0.92587262
2.4458048 -2.1747189 -0.90296191
2.9272308 -2.6027851 -0.86774015
3.8039505 -3.3823316 -0.84861016
4.1628132 -3.7014191 -0.62088495
4.1404905 -3.6815705 -0.3094736
4.1474676 -3.6877744 0
7.7112627 -6.8565683 0.57636464
2.0932691 -1.8567331 -0.92261279
2.4484308 -2.171762 -0.90296191
2.9151669 -2.5857575 -0.86323708
3.8099608 -3.3794413 -0.84903938
4.1634164 -3.6929572 -0.62030888
4.1332765 -3.6662226 -0.30860305
4.1616535 -3.6913934 0
7.7195415 -6.8472457 0.57636464
2.1177232 -1.8738568 -0.93239236
2.4397764 -2.158824 -0.89880764
2.9239995 -2.5872862 -0.86492628
3.8178828 -3.3782341 -0.84989452
4.1601276 -3.6810677 -0.6191557
6.9884539 -6.1836977 -0.5212211
0 -0 0
7.7219696 -6.832746 0.57592905
2.1144252 -1.8663881 -0.92994666
2.4122896 -2.1293108 -0.88773304
2.9195039 -2.5770254 -0.86267471
3.8123407 -3.3651261 -0.84775507
4.168447 -3.6794584 -0.61973178
6.9978666 -6.1769671 -0.52136606
0 -0 0
7.7263279 -6.8199744 0.57563907
2.1092589 -1.8572984 -0.92668682
2.4543989 -2.1612098 -0.90226775
2.9340537 -2.5835676 -0.86605096
3.8144794 -3.3588223 -0.84732753
4.1787152 -3.6795485 -0.62059695
6.993628 -6.1582069 -0.52049553
0 -0 0
7.7267623 -6.8037653 0.57505852
2.1270823 -1.8707125 -0.93402076
2.4236803 -2.1315625 -0.89050168
2.9356141 -2.5817945 -0.86605096
3.8222854 -3.3615983 -0.84861016
4.1731687 -3.6701908 -0.61944377
6.9914918 -6.1488309 -0.52005994
0 -0 0
7.7328205 -6.8008099 0.57520348
2.082895 -1.8273921 -0.91364735
2.458312 -2.1567576 -0.90226775
2.9406471 -2.579926 -0.86661547
3.8321352 -3.3620579 -0.84989452
4.1698232 -3.6583226 -0.6182906
6.993062 -6.1352425 -0.51962495
0 -0 0
3.9206333 -3.4397001 0.29132575
2.1390367 -1.8720778 -0.9372806
2.4628096 -2.1554427 -0.90296191
2.9380243 -2.5713491 -0.86492628
3.832335 -3.3540471 -0.84903938
4.172296 -3.6515796 -0.61800253
4.0988927 -3.5873375 -0.30424914
0 -0 0
3.8915477 -3.4058697 0.2888585
2.1170948 -1.8483616 -0.92668682
2.4748595 -2.1607137 -0.90642208
2.9353852 -2.5627823 -0.86323708
3.8421807 -3.3544741 -0.85032207
4.1708579 -3.6414306 -0.61713743
4.1169205 -3.5943398 -0.30526471
4.1297483 -3.6055393 0
3.8917415 -3.3977439 0.28856796
2.1137404 -1.840937 -0.92424428
2.4793587 -2.1593678 -0.90711355
2.9384797 -2.5592337 -0.86323708
3.8365541 -3.3414009 -0.84818262
4.1713576 -3.6329942 -0.61656135
4.1193032 -3.5876577 -0.30511969
4.1341019 -3.6005468 0
3.8840911 -3.3828027 0.2876974
2.1107121 -1.8293484 -0.92098445
2.4542365 -2.1270802 -0.89603901
2.9484997 -2.5554566 -0.86436391
3.8465557 -3.3337994 -0.84861016
4.1879435 -3.629679 -0.61771452
4.1338539 -3.5827997 -0.30555525
4.1762223 -3.6195204 0
3.89814 -3.3785071 0.2881324
2.112921 -1.8267968 -0.92098445
2.4511096 -2.119189 -0.89396185
2.9438968 -2.5452447 -0.8621124
3.8544686 -3.3325102 -0.84946692
4.2197146 -3.6482956 -0.62175012
7.0353861 -6.0826788 -0.51947939
4.2239003 -3.6519148 0
3.8982918 -3.370399 0.28784239
2.1413262 -1.8468387 -0.93239236
2.4612677 -2.1227798 -0.89673048
2.94697 -2.5416858 -0.8621124
3.8507168 -3.3211439 -0.84775507
4.2221627 -3.6415067 -0.62146205
7.0486355 -6.0792665 -0.51991498
4.2598424 -3.6740041 0
7.7627831 -6.6952004 0.57259125
2.1304393 -1.8329645 -0.92668682
2.4866519 -2.1394391 -0.90503645
2.961592 -2.5480628 -0.86548859
3.8625107 -3.3231857 -0.84946692
4.2304773 -3.6397729 -0.62203813
7.0480971 -6.0639663 -0.51933444
4.2623076 -3.6671586 0
7.7610202 -6.6773438 0.57186568
2.1420283 -1.838436 -0.93076086
2.4987521 -2.1446009 -0.90849656
2.9473176 -2.5295906 -0.86042321
3.8645773 -3.3168459 -0.84903938
5.9973011 -5.147296 -0.88091195
7.0475321 -6.0486765 -0.51875383
4.2489634 -3.6467526 0
7.7789402 -6.6764212 0.57259125
2.146131 -1.8374585 -0.93157816
2.4822881 -2.125267 -0.90157628
2.9638846 -2.5375967 -0.86436391
3.8705304 -3.3138418 -0.84946692
6.0054789 -5.141726 -0.88119996
4.1810818 -3.5797274 -0.30744195
4.2395267 -3.6297662 0
7.7850294 -6.6653285 0.57244629
2.1314368 -1.820419 -0.92424428
2.4638679 -2.104342 -0.89396185
2.9630806 -2.53071 -0.86323708
3.8667235 -3.3024938 -0.84775507
6.005785 -5.129425 -0.88033479
4.1814485 -3.5712943 -0.30715138
4.2320395 -3.6145031 0
7.8029552 -6.6643534 0.57317179
2.1223431 -1.8082217 -0.91935295
2.4740474 -2.1078715 -0.89673048
2.968076 -2.5287805 -0.8638016
3.8707111 -3.2978194 -0.84775507
6.0100117 -5.1204886 -0.88004678
4.1936722 -3.5729799 -0.30773193
4.2205558 -3.5958846 0
7.8149543 -6.658287 0.57346183
2.1565406 -1.8328651 -0.93320656
2.4727731 -2.1016343 -0.89534748
2.980808 -2.5334182 -0.86661547
3.8844714 -3.3014505 -0.84989452
6.0201321 -5.11657 -0.8806228
4.2098699 -3.5780101 -0.30860305
4.2248974 -3.5907822 0
7.8051758 -6.6336961 0.57215571
2.1568704 -1.8286612 -0.93239236
2.4867885 -2.108376 -0.89949912
2.9683623 -2.5166693 -0.8621124
3.8865016 -3.2950962 -0.84946692
6.016448 -5.1009302 -0.87918162
4.2240982 -3.581321 -0.30932862
4.1736512 -3.5385504 0
7.8092256 -6.6209025 0.57186568
2.1466539 -1.8177714 -0.92750102
2.4899819 -2.1084993 -0.90019327
2.9698822 -2.5148754 -0.8621124
3.8786983 -3.2844546 -0.84732753
6.0215006 -5.0989642 -0.87946963
4.2361741 -3.5871625 -0.31005415
4.2532401 -3.6016138 0
7.8033113 -6.607789 0.57114017
2.1375237 -1.8056097 -0.92261279
2.5078526 -2.1184342 -0.90572792
2.9884472 -2.5244024 -0.86661547
3.8846233 -3.2814205 -0.84775507
6.0256834 -5.0900173 -0.87918162
4.2623425 -3.6004877 -0.31165084
4.2337313 -3.5763192 0
7.8112898 -6.5983558 0.57114017
2.1434875 -1.806214 -0.92424428
2.4816389 -2.0911579 -0.89534748
2.981782 -2.5126045 -0.8638016
3.8983986 -3.2849934 -0.84989452
6.0397406 -5.0893993 -0.88033479
4.2825866 -3.6087301 -0.31281197
4.2320848 -3.5661747 0
7.8132939 -6.5838876 0.57070458
2.1437709 -1.8020277 -0.92342699
2.4841638 -2.0881579 -0.89534748
2.980922 -2.5057268 -0.86267471
3.894505 -3.2736733 -0.84818262
6.0439076 -5.0804353 -0.88004678
4.2869439 -3.6035526 -0.31281197
4.2363906 -3.5610585 0
7.8172612 -6.5710945 0.57041401
2.1497383 -1.8026153 -0.92505848
2.4616961 -2.0642009 -0.88635004
2.9800572 -2.4988611 -0.86155003
3.8945274 -3.2656696 -0.84732753
6.0322065 -5.0581732 -0.87745243
4.2813334 -3.5900173 -0.31208584
4.1988144 -3.5208228 0
7.8251958 -6.5616441 0.57041401
2.159498 -1.8063596 -0.92831832
2.4872804 -2.0805404 -0.894656
2.9869688 -2.4985156 -0.86267471
3.9063466 -3.2675495 -0.84903938
4.2012944 -3.5142653 -0.61050749
4.2757049 -3.5765073 -0.31136027
4.1950808 -3.5090675 0
7.8331184 -6.5521841 0.57041401
2.1521924 -1.795833 -0.92424428
2.4974976 -2.0839627 -0.89742464
2.9880364 -2.4932785 -0.8621124
3.912261 -3.2644703 -0.84946692
4.2075219 -3.5108418 -0.61079556
4.2640619 -3.5580204 -0.31019917
4.1713386 -3.4806499 0
7.84901 -6.5493736 0.57099462
2.1410613 -1.7821612 -0.91853875
2.5135057 -2.0921738 -0.90226775
2.9832354 -2.4831641 -0.85986084
3.9162028 -3.2597406 -0.84946692
4.2038093 -3.4991364 -0.60964239
4.254384 -3.5412338 -0.3091836
4.173543 -3.4739437 0
7.8529277 -6.5365634 0.57070458
2.1470125 -1.7827277 -0.92016709
2.4986625 -2.0747128 -0.89603901
2.9881866 -2.481179 -0.86042321
3.9102654 -3.2468083 -0.84732753
4.2040582 -3.4907529 -0.60906631
4.2286711 -3.5111897 -0.30700639
4.1917553 -3.4805377 0
7.8648143 -6.5303864 0.57099462
2.1453619 -1.7769819 -0.91853875
2.5127635 -2.0812972 -0.90019327
3.0009646 -2.4856691 -0.86323708
3.9181359 -3.2453532 -0.84818262
4.2182307 -3.4939187 -0.61050749
4.2169013 -3.4928174 -0.30584526
4.2019725 -3.4804521 0
7.8626957 -6.5125928 0.57026905
2.1703718 -1.7932801 -0.92831832
2.4998045 -2.0654755 -0.894656
3.0078871 -2.4852812 -0.86436391
3.9141386 -3.234076 -0.84647077
4.2284331 -3.4937632 -0.61137265
4.2070947 -3.4761324 -0.30482915
4.184104 -3.4571362 0
7.8665566 -6.4997807 0.56997901
2.1496499 -1.7717923 -0.91853875
2.5022984 -2.0624535 -0.894656
3.0050039 -2.4767952 -0.86267471
3.9220092 -3.2326126 -0.84732753
4.2106943 -3.4705539 -0.60820115
4.2052822 -3.4660931 -0.30439416
4.2023377 -3.4636664 0
7.8724012 -6.4886193 0.56983405
2.1785138 -1.7911663 -0.92994666
2.5009093 -2.0562389 -0.89327031
3.0040727 -2.469938 -0.86155003
3.9298742 -3.2311289 -0.84818262
6.1007938 -5.0160513 -0.88033479
4.2134776 -3.4643066 -0.30468413
4.1884298 -3.4437122 0
7.8782229 -6.4774475 0.5696885
2.1653879 -1.7759936 -0.92342699
2.5053298 -2.0548048 -0.89396185
3.0050848 -2.4646904 -0.86098552
3.927819 -3.2214928 -0.84689832
6.0968528 -5.0004764 -0.87889361
4.2056098 -3.4493291 -0.30381358
4.1865487 -3.433696 0
7.8820295 -6.4646311 0.56939846
2.1790137 -1.7827693 -0.92831832
2.5369384 -2.0756071 -0.90434492
3.0021665 -2.4562354 -0.85929853
3.9337013 -3.2183745 -0.84732753
6.1008906 -4.9914699 -0.8786056
4.2117834 -3.4458888 -0.30395859
4.1927071 -3.4302812 0
7.8757553 -6.443583 0.56838238
2.1639345 -1.7660717 -0.92098445
2.5355608 -2.0693705 -0.90296191
3.0051322 -2.4526062 -0.85929853
3.941561 -3.2168622 -0.84818262
4.19736 -3.4256296 -0.60387653
4.2119217 -3.4375143 -0.30366859
4.1887841 -3.4186306 0
7.895618 -6.443923 0.56925344
2.1515889 -1.7538311 -0.91527885
2.5154185 -2.0504007 -0.89534748
3.0203943 -2.4620233 -0.86323708
3.9435039 -3.2144804 -0.84818262
4.2194805 -3.4394383 -0.60675997
4.2200341 -3.4398897 -0.30410358
4.1969023 -3.4210339 0
0 -0 0
2.1671319 -1.7621467 -0.92098445
2.5139973 -2.0441914 -0.89396185
3.0154812 -2.4519598 -0.86098552
3.9453952 -3.2080951 -0.84775507
0 -0 -0
4.2181454 -3.4298747 -0.30366859
4.2131443 -3.4258082 0
4.4942374 -3.654372 0.32354474
2.1846085 -1.7719767 -0.92750102
2.5340068 -2.0553803 -0.90019327
3.0144987 -2.4451163 -0.85986084
3.9472768 -3.20171 -0.84732753
4.2097034 -3.4145689 -0.60416561
4.2162304 -3.4198632 -0.30323303
4.1970725 -3.4043238 0
4.4865456 -3.6391208 0.32267419
2.1733036 -1.7584577 -0.92179859
2.5423338 -2.0570464 -0.90226775
3.0154777 -2.4398754 -0.85929853
3.9491413 -3.1953187 -0.84689832
4.2118096 -3.4078481 -0.60387653
4.2223778 -3.416399 -0.30337802
4.2193894 -3.4139812 0
4.529314 -3.6647468 0.32543144
2.18312 -1.7620397 -0.92505848
2.5467753 -2.0555532 -0.90296191
0 -0 -0
3.9550025 -3.1921616 -0.84732753
4.1998224 -3.3897607 -0.60157019
4.2285228 -3.4129252 -0.30352303
4.2133875 -3.4007094 0
4.535759 -3.6609015 0.32557642
2.1794701 -1.7547491 -0.92261279
2.5375288 -2.0430315 -0.89880764
3.033236 -2.4421387 -0.86267471
3.9528563 -3.1825492 -0.84604323
4.2039151 -3.3846836 -0.60157019
4.2407393 -3.4143314 -0.30410358
4.231678 -3.4070358 0
4.5745926 -3.6831255 0.32804421
2.1989303 -1.7660419 -0.92994666
2.5341256 -2.0352495 -0.89673048
3.0361848 -2.4384718 -0.86267471
3.9647048 -3.1842005 -0.84775507
4.1777587 -3.3553119 -0.59724659
4.2306862 -3.3978198 -0.30308804
4.1931901 -3.3677053 0
4.5648561 -3.666204 0.3270281
2.1914198 -1.7556584 -0.92587262
2.5307148 -2.0274849 -0.894656
3.0331781 -2.4300339 -0.86098552
3.9625373 -3.1745908 -0.84647077
4.1616278 -3.3340926 -0.59436423
4.2347884 -3.3927054 -0.30308804
0 -0 0
4.5368361 -3.634691 0.32470587
2.1935396 -1.7530092 -0.92587262
2.5488412 -2.0369554 -0.90019327
3.032146 -2.4231975 -0.85986084
3.9683735 -3.1714017 -0.84689832
4.1656537 -3.3290617 -0.59436423
4.2429409 -3.3908274 -0.30337802
0 -0 0
4.5412245 -3.6292064 0.32470587
2.2169173 -1.7673064 -0.93483806
2.5414865 -2.0260503 -0.89673048
3.0390418 -2.4226968 -0.86098552
3.9722028 -3.1666045 -0.84689832
4.169673 -3.3240259 -0.59436423
4.2511024 -3.3889408 -0.30366859
0 -0 0
4.6228118 -3.6852643 0.33022088
2.1629522 -1.7200158 -0.91120481
2.5478637 -2.0261037 -0.89811611
3.0399799 -2.417443 -0.86042321
3.9820557 -3.1665974 -0.84818262
4.1514158 -3.3012753 -0.59119278
4.2511225 -3.380564 -0.30337802
0 -0 0
4.6089592 -3.6651218 0.32891476
2.1960108 -1.7419772 -0.92424428
2.5404844 -2.0152297 -0.894656
3.0428987 -2.4137681 -0.86042321
3.9838698 -3.1601896 -0.84775507
4.1270366 -3.2737563 -0.58715719
4.2592797 -3.3786576 -0.30366859
4.178792 -3.314811 0
4.641881 -3.6821547 0.33094645
2.186481 -1.7301176 -0.91935295
2.544883 -2.0137138 -0.89534748
3.0418317 -2.406939 -0.85929853
3.9917076 -3.1585565 -0.84861016
4.0985365 -3.2430878 -0.58254451
4.2572441 -3.36867 -0.30323303
4.2623901 -3.3727417 0
7.9512877 -6.2916908 0.5663507
2.2040904 -1.739725 -0.92587262
2.5571587 -2.0184076 -0.89880764
3.0507154 -2.4079802 -0.86098552
3.9874611 -3.1473689 -0.84689832
4.0923028 -3.2301221 -0.58110332
4.2531528 -3.3570838 -0.30265248
4.290976 -3.3869381 0
0 -0 0
2.1751201 -1.7125968 -0.91283321
2.5438268 -2.0029006 -0.89327031
3.0576193 -2.407439 -0.8621124
3.9912612 -3.1425486 -0.84689832
4.0880742 -3.2187748 -0.57995015
4.2204614 -3.3230112 -0.30004025
4.237812 -3.3366721 0
0 -0 0
2.1975276 -1.7280897 -0.92179859
2.5706711 -2.021522 -0.90226775
3.051084 -2.3993087 -0.85986084
3.9911432 -3.1385515 -0.84647077
4.0818853 -3.2099092 -0.57879698
0 -0 -0
4.2705073 -3.3582375 0
0 -0 0
2.2015569 -1.7269572 -0.92261279
2.5494249 -1.9998336 -0.89396185
3.0479815 -2.390914 -0.85817164
3.9929147 -3.1321437 -0.84604323
4.0837278 -3.2033799 -0.57850897
0 -0 -0
4.2131357 -3.3048906 0
0 -0 0
2.2231035 -1.7395239 -0.93076086
2.5498655 -1.9952071 -0.89327031
3.0488689 -2.3856652 -0.85760933
4.006803 -3.1352251 -0.84818262
4.0835176 -3.1952522 -0.57793188
0 -0 -0
4.1884351 -3.2773476 0
7.9669642 -6.233954 0.56504458
2.2096243 -1.7246763 -0.92424428
2.5641441 -2.0013893 -0.89742464
3.0557516 -2.3851032 -0.85873401
4.0065451 -3.1272254 -0.84732753
4.0669904 -3.1744044 -0.57504946
0 -0 -0
4.2682977 -3.3315308 0
7.9785838 -6.2275176 0.56533456
2.213655 -1.7235221 -0.92505848
2.5665605 -1.9982896 -0.89742464
3.0666506 -2.3876531 -0.86098552
4.0143681 -3.1255329 -0.84818262
4.0749006 -3.172663 -0.57562554
0 -0 -0
4.2394643 -3.3007898 0
7.9881511 -6.2194672 0.56547958
2.2176859 -1.7223606 -0.92587262
2.5709527 -1.9967244 -0.89811611
3.0595016 -2.3761547 -0.85817164
4.0161161 -3.119107 -0.84775507
4.0644379 -3.1566358 -0.57360828
4.1172686 -3.1976669 -0.29118687
4.2085094 -3.2685287 0
7.9854012 -6.2018428 0.56475401
2.1963191 -1.7015154 -0.91609305
2.559479 -1.9828597 -0.89327031
3.058357 -2.3693469 -0.85704696
4.0198822 -3.1142521 -0.84775507
4.0682487 -3.1517224 -0.57360828
4.1170249 -3.1895101 -0.29089686
4.2227402 -3.2714088 0
7.9887848 -6.1890097 0.56446403
2.2237957 -1.7185061 -0.92668682
2.5777538 -1.9920381 -0.89880764
3.0712683 -2.3734167 -0.85986084
4.0114508 -3.0999713 -0.84518647
4.0781879 -3.1515446 -0.57447237
4.1167598 -3.1813521 -0.29060632
4.1752105 -3.2265217 0
7.998311 -6.1809397 0.56460899
2.2121735 -1.7052596 -0.92098445
2.5503602 -1.9659517 -0.8884272
3.0721235 -2.368154 -0.85929853
4.0334973 -3.1092317 -0.84903938
4.0799465 -3.1450372 -0.57418436
4.1226649 -3.1779666 -0.29075187
4.1955953 -3.2341855 0
8.0037174 -6.1696858 0.56446403
2.2181473 -1.7055956 -0.92261279
2.5666497 -1.9735689 -0.89327031
3.0769951 -2.3659878 -0.85986084
4.0168972 -3.0887048 -0.84475887
4.0796471 -3.1369548 -0.57360828
4.1265016 -3.1729829 -0.29075187
4.1850643 -3.2180133 0
8.0111666 -6.1600103 0.56446403
2.2339365 -1.7134452 -0.92831832
2.5710213 -1.9719915 -0.89396185
3.0738013 -2.3576274 -0.85817164
4.0267391 -3.0885375 -0.84604323
4.0875349 -3.1351683 -0.57418436
4.1282649 -3.1664085 -0.29060632
4.1827526 -3.2082009 0
8.008297 -6.1424208 0.56373847
2.2183404 -1.6972294 -0.92098445
2.5734022 -1.9688835 -0.89396185
3.0827038 -2.3585448 -0.85986084
4.0345416 -3.0867865 -0.84689832
4.0892682 -3.1286569 -0.57389629
4.1279645 -3.1582632 -0.29031631
0 -0 0
8.0136433 -6.131156 0.56359291
2.2400336 -1.7095397 -0.92913252
2.5797718 -1.9688196 -0.89534748
3.0835333 -2.3532782 -0.85929853
4.0301061 -3.0756795 -0.84518647
4.0930452 -3.1237135 -0.57389629
4.129714 -3.1516981 -0.29017133
0 -0 0
4.1378813 -3.1579311 0.29074517
2.2303019 -1.697852 -0.92424428
2.5821488 -1.965701 -0.89534748
3.0722206 -2.3387756 -0.85535777
4.0358677 -3.0723672 -0.84561563
4.1091609 -3.1281626 -0.57562554
4.1417894 -3.1530015 -0.29075187
0 -0 0
4.1520295 -3.1607971 0.29147074
2.2225041 -1.687678 -0.92016709
2.5845222 -1.9625796 -0.89534748
3.0851603 -2.3427434 -0.85817164
4.0497975 -3.0752492 -0.84775507
4.1129375 -3.1231952 -0.57562554
4.1497307 -3.1511345 -0.29104188
0 -0 0
0 -0 0
2.2304542 -1.6894697 -0.92261279
2.5968888 -1.9670277 -0.89880764
3.098114 -2.3466835 -0.86098552
4.0432806 -3.0626051 -0.84561563
4.1187682 -3.1197834 -0.57591355
4.1473193 -3.1414099 -0.29060632
0 -0 0
0 -0 0
2.2364419 -1.6897562 -0.92424428
2.5752437 -1.94574 -0.89050168
3.0948713 -2.3383474 -0.85929853
4.0510707 -3.0608094 -0.84647077
4.1184115 -3.1116891 -0.57533753
4.1594052 -3.142662 -0.29118687
4.2059016 -3.1777928 0
4.157238 -3.1410248 0.29103518
2.225621 -1.6794692 -0.91935295
2.5824285 -1.9487188 -0.89257884
3.0983098 -2.3380063 -0.85986084
4.0590687 -3.0630016 -0.84775507
4.1244159 -3.1123133 -0.57591355
4.1530061 -3.1338878 -0.29060632
4.1974359 -3.1674144 0
4.1549907 -3.1353853 0.29074517
2.2276485 -1.6767788 -0.91935295
2.598814 -1.9561596 -0.89742464
3.0950403 -2.3296752 -0.85817164
4.0648155 -3.0596373 -0.84818262
4.1199074 -3.1011057 -0.57476038
4.1630201 -3.1335568 -0.29104188
4.1950197 -3.1576436 0
4.1483979 -3.1225507 0.29001963
2.2395537 -1.6815045 -0.92342699
2.6071887 -1.9575326 -0.89949912
3.0978529 -2.3259337 -0.85817164
4.0602984 -3.0485582 -0.84647077
4.1195188 -3.0930223 -0.57418436
4.173039 -3.1332064 -0.29147744
4.2071571 -3.1588228 0
4.1563196 -3.1206532 0.29030961
2.2178442 -1.6610178 -0.91364735
2.5814433 -1.9333293 -0.8898102
3.0965974 -2.3191454 -0.85704696
4.0619264 -3.0421126 -0.84604323
4.1149721 -3.0818405 -0.57303119
4.1955385 -3.1421793 -0.29278356
4.2026386 -3.1474967 0
4.1434488 -3.1031675 0.28914851
2.2020307 -1.6450253 -0.90631348
2.5998564 -1.9422204 -0.89534748
3.1034648 -2.3184407 -0.85817164
4.061482 -3.0341265 -0.84518647
4.1414881 -3.0938952 -0.57620263
4.1910052 -3.1308868 -0.29220298
4.1918421 -3.1315119 0
4.1492753 -3.0997124 0.2892935
2.2476547 -1.6706606 -0.92342699
2.5944769 -1.9284503 -0.89188737
3.1151783 -2.3154829 -0.85986084
4.072927 -3.0273683 -0.84604323
4.1364937 -3.0746171 -0.57447237
4.225668 -3.1408997 -0.29408967
4.2077522 -3.1275828 0
4.156754 -3.0896761 0.2892935
2.243721 -1.6635317 -0.92098445
2.6129274 -1.9372674 -0.89742464
3.1098094 -2.3056638 -0.85760933
4.0786419 -3.0239723 -0.84647077
4.1381302 -3.0680778 -0.57418436
4.2378097 -3.1419816 -0.29467022
4.203166 -3.1162963 0
4.1583986 -3.0831053 0.28914851
2.2338023 -1.6519988 -0.91609305
2.6192966 -1.9370893 -0.89880764
3.1125929 -2.3019047 -0.85760933
4.082293 -3.0190418 -0.84647077
4.1522303 -3.0707636 -0.57562554
4.2708478 -3.1584866 -0.29670188
4.2111173 -3.1143131 0
4.1642084 -3.079622 0.2892935
2.2278409 -1.6434295 -0.91283321
2.6034672 -1.9205208 -0.89257884
3.1153722 -2.298142 -0.85760933
4.0797386 -3.0095339 -0.84518647
4.1455326 -3.0580685 -0.57418436
0 -0 -0
4.2085919 -3.1045864 0
4.1616592 -3.0699649 0.2888585
2.2437623 -1.6509916 -0.91853875
2.6118498 -1.9218357 -0.894656
3.1099606 -2.2883523 -0.85535777
4.0875111 -3.0076478 -0.84604323
4.1638093 -3.0637891 -0.57620263
4.2554517 -3.1312208 -0.29510579
4.2165284 -3.1025805 0
4.1674566 -3.0664728 0.28900349
2.2437649 -1.6468182 -0.91772455
2.6060803 -1.9127407 -0.89188737
3.1229632 -2.2921085 -0.85817164
4.097353 -3.0072649 -0.84732753
4.1612511 -3.0541632 -0.57533753
0 -0 -0
4.2160826 -3.0944068 0
4.1564932 -3.0506711 0.28798738
2.245753 -1.6441059 -0.91772455
2.6185088 -1.9169987 -0.89534748
3.121634 -2.2853343 -0.85704696
4.090621 -2.9947255 -0.84518647
4.1628532 -3.0476065 -0.57504946
0 -0 -0
4.2240138 -3.092382 0
4.1538925 -3.0410461 0.28755239
2.2876515 -1.6705376 -0.93402076
2.6147432 -1.9093934 -0.89327031
3.1243932 -2.2815609 -0.85704696
4.1046081 -2.9973543 -0.84732753
4.1748881 -3.0486755 -0.57620263
0 -0 -0
4.2235479 -3.0842092 0
4.1596603 -3.0375557 0.2876974
2.267698 -1.6517693 -0.92505848
2.6190743 -1.9077083 -0.89396185
3.1312513 -2.2807732 -0.85817164
4.1019998 -2.9878569 -0.84604323
0 -0 -0
0 -0 -0
4.2272716 -3.0791035 0
4.1633277 -3.0325274 0.2876974
2.2626977 -1.6460356 -0.92261279
2.6181996 -1.9046512 -0.89327031
3.1305759 -2.2773876 -0.85760933
4.1017303 -2.9838693 -0.84561563
0 -0 -0
0 -0 -0
4.2270284 -3.0750196 0
4.1693573 -3.0330658 0.28798738
2.2206788 -1.6113687 -0.90468514
2.6123769 -1.8955927 -0.89050168
3.1292086 -2.2706158 -0.85648245
4.1115599 -2.9834297 -0.84689832
0 -0 -0
0 -0 -0
4.2244196 -3.0653229 0
4.1772294 -3.0310807 0.28827795
2.2606604 -1.6362139 -0.92016709
2.6187341 -1.8953794 -0.89188737
3.1278369 -2.2638564 -0.85535777
4.1110067 -2.9754522 -0.84604323
0 -0 -0
0 -0 -0
4.2239079 -3.0571675 0
4.1808891 -3.0260313 0.28827795
2.2586317 -1.6305904 -0.91853875
2.6332228 -1.9010218 -0.89603901
3.1346865 -2.2630472 -0.85648245
4.1125197 -2.9689815 -0.84561563
4.2039814 -3.0350111 -0.57793188
4.2667985 -3.0803609 -0.29394466
4.2297072 -3.0535834 0
4.1824293 -3.0194519 0.2881324
2.2786496 -1.6408575 -0.92587262
2.6294084 -1.8934393 -0.89396185
3.1374187 -2.2592578 -0.85648245
4.1223478 -2.9685061 -0.84689832
4.2202353 -3.0389948 -0.57966107
4.283165 -3.0843108 -0.29481521
4.227056 -3.0439065 0
4.1945095 -3.0204697 0.28871295
2.3087308 -1.6582866 -0.9372806
2.643924 -1.8990449 -0.89811611
3.142216 -2.2569518 -0.85704696
4.1175914 -2.9575324 -0.84518647
4.2554173 -3.0565283 -0.58398575
4.2531214 -3.054879 -0.29249299
4.2222757 -3.0327237 0
4.2002726 -3.0169194 0.2888585
2.2564907 -1.6166346 -0.91527885
2.642134 -1.8929238 -0.89673048
3.1470041 -2.2546318 -0.85760933
4.1149077 -2.9480741 -0.84390378
4.3116693 -3.0890417 -0.59119278
4.341301 -3.1102707 -0.29829857
4.2365131 -3.0351968 0
4.2060251 -3.0133541 0.28900349
2.2926264 -1.6383349 -0.92913252
2.6240118 -1.8751465 -0.8898102
3.1455877 -2.2478702 -0.85648245
4.1309943 -2.9520524 -0.84647077
4.3238163 -3.0898449 -0.59234589
4.2943172 -3.0687644 -0.29481521
4.2359467 -3.0270522 0
4.2181196 -3.0143127 0.28958407
2.2624018 -1.61261 -0.91609305
2.6283164 -1.8734293 -0.89050168
3.1441672 -2.2411208 -0.85535777
4.1220202 -2.9381216 -0.84390378
4.3401799 -3.0936229 -0.59407514
4.380538 -3.1223893 -0.30047524
4.2501955 -3.0294831 0
4.2196445 -3.0077069 0.28943905
2.2744186 -1.6170347 -0.92016709
2.6346714 -1.8731623 -0.89188737
3.1530876 -2.2417386 -0.85704696
4.1360264 -2.9405746 -0.84604323
4.3460288 -3.0898793 -0.59436423
4.3101916 -3.0644004 -0.29539579
4.2453685 -3.0183132 0
4.2211518 -3.001096 0.2892935
2.2723424 -1.6114285 -0.91853875
2.6369328 -1.8699774 -0.89188737
3.1475034 -2.2320478 -0.85479546
4.1270165 -2.9266682 -0.84347624
4.3560824 -3.0891099 -0.59522831
4.3202519 -3.0637009 -0.29583132
4.2447705 -3.0101733 0
4.2374969 -3.0050149 0.29016462
2.2904305 -1.6201 -0.92505848
2.6125662 -1.8479575 -0.88288993
3.1647129 -2.2385099 -0.85873401
4.1452141 -2.9320519 -0.84647077
4.3724856 -3.092809 -0.59695858
4.3112183 -3.0494723 -0.29496023
4.2505274 -3.0065436 0
4.2453632 -3.0028908 0.29045463
2.2964218 -1.6201782 -0.92668682
2.6393962 -1.8621546 -0.89119583
3.1549623 -2.2258983 -0.85535777
4.1487541 -2.9270411 -0.84647077
4.393127 -3.099452 -0.59926492
4.3297644 -3.0547481 -0.29597634
4.2562819 -3.0029044 0
4.2553601 -3.0022542 0.29089019
2.2801881 -1.604602 -0.91935295
2.6395869 -1.8575162 -0.89050168
3.1576495 -2.2220845 -0.85535777
4.1501904 -2.9205501 -0.84604323
4.415904 -3.1075368 -0.60185927
4.316452 -3.0375509 -0.29481521
4.25352 -2.9932647 0
4.2759848 -3.0090735 0.29205129
2.2902174 -1.6075255 -0.92261279
2.6623676 -1.8687413 -0.89742464
3.1665735 -2.2226481 -0.85704696
4.1474109 -2.9111073 -0.84475887
6.5577445 -4.6029439 -0.89301968
4.3201194 -3.0323331 -0.29481521
4.2571335 -2.9881229 0
4.2860003 -3.0083847 0.29248685
2.2698841 -1.5891629 -0.91364735
2.6337943 -1.8439391 -0.88704157
3.1692567 -2.2188203 -0.85704696
4.1551352 -2.9090414 -0.84561563
4.2687287 -2.988569 -0.58081424
4.3046246 -3.0137 -0.2935091
4.269269 -2.9889472 0
4.2874975 -3.001709 0.29234129
2.2667966 -1.5849614 -0.91201901
2.66575 -1.8639128 -0.89742464
3.1622672 -2.2110813 -0.85479546
4.1589937 -2.908 -0.84604323
4.2747769 -2.9889567 -0.58139139
4.3596807 -3.0483217 -0.29713744
4.2668123 -2.9833877 0
4.2914457 -3.0006115 0.29248685
2.2788446 -1.5892892 -0.91609305
2.6474187 -1.8463366 -0.89050168
3.1670187 -2.2087107 -0.85535777
4.1540818 -2.8970988 -0.84433132
4.2720189 -2.9793491 -0.58052623
4.320734 -3.0133235 -0.29423466
4.2704139 -2.9782298 0
4.2971973 -2.9969089 0.29263186
2.2909062 -1.5935901 -0.92016709
2.6640663 -1.853166 -0.89534748
3.1759448 -2.2092366 -0.85704696
4.1639037 -2.8964763 -0.84561563
4.2819877 -2.9786174 -0.58139139
4.3115773 -2.9992006 -0.29336411
4.2718749 -2.9715829 0
4.296545 -2.9887438 0.29234129
2.3151698 -1.6063206 -0.92913252
2.6704221 -1.8528032 -0.89673048
3.1765182 -2.2039449 -0.85648245
4.1674004 -2.891443 -0.84561563
4.2813296 -2.9704897 -0.58081424
4.3344102 -3.0073185 -0.29467022
4.2733183 -2.9649312 0
4.2980204 -2.9820704 0.2921963
2.2663009 -1.568361 -0.90875918
2.664407 -1.8438646 -0.89396185
3.1875365 -2.205889 -0.85873401
4.1624475 -2.8805621 -0.84390378
4.2785411 -2.9609029 -0.57995015
4.3209472 -2.9902496 -0.2935091
4.2918797 -2.9701338 0
4.3037553 -2.9783521 0.29234129
2.2926035 -1.5824699 -0.91853875
2.6707664 -1.8434968 -0.89534748
3.1818349 -2.1962621 -0.85648245
4.174376 -2.8813636 -0.84561563
4.2906303 -2.9616082 -0.58110332
4.3587732 -3.0086439 -0.29583132
4.2804708 -2.9545956 0
4.2966604 -2.9657707 0.29161572
2.2741523 -1.5656803 -0.91038752
2.6729918 -1.8402684 -0.89534748
3.1803048 -2.189537 -0.85535777
4.1757336 -2.8748577 -0.84518647
4.2814193 -2.9476185 -0.57937306
4.3752427 -3.012213 -0.29670188
4.2947617 -2.9568045 0
4.3045259 -2.9635267 0.2919063
2.2964211 -1.576925 -0.91853875
2.6669409 -1.8313566 -0.89257884
3.1829481 -2.1856925 -0.85535777
4.1834407 -2.872719 -0.84604323
4.3020349 -2.9541564 -0.5816794
4.3724594 -3.0025158 -0.29626688
4.2897501 -2.9457202 0
4.2952471 -2.9494951 0.29103518
2.3064814 -1.5797356 -0.92179859
2.6608727 -1.8224623 -0.8898102
3.1834924 -2.1804106 -0.85479546
4.1826692 -2.8647583 -0.84518647
4.2949338 -2.9416497 -0.58023822
4.341783 -2.973737 -0.29394466
4.2975965 -2.9434731 0
4.3009496 -2.9457698 0.29118019
2.3083885 -1.5769476 -0.92179859
2.6547866 -1.8135852 -0.88704157
3.1882207 -2.1779943 -0.85535777
4.1776567 -2.8539155 -0.84347624
4.2899423 -2.9306219 -0.57908505
4.3539553 -2.9743516 -0.29452521
4.2882605 -2.9294729 0
4.3002186 -2.9376421 0.29089019
2.2857819 -1.5574566 -0.91201901
2.6714907 -1.820266 -0.89188737
3.1887524 -2.1727109 -0.85479546
4.1917071 -2.8560915 -0.84561563
4.2977509 -2.9283462 -0.57966107
4.3532472 -2.9661596 -0.29423466
4.3068457 -2.9345429 0
4.30162 -2.9309824 0.29074517
2.3101504 -1.5699766 -0.92098445
2.6695344 -1.8142136 -0.89050168
3.1913753 -2.1688564 -0.85479546
4.1972766 -2.8524661 -0.84604323
4.2927375 -2.9173415 -0.57850897
4.3568282 -2.9608972 -0.29423466
4.321157 -2.9366553 0
4.3094521 -2.9287007 0.29103518
2.2936268 -1.5546991 -0.91364735
2.6758819 -1.8138047 -0.89188737
3.2002974 -2.1692715 -0.85648245
4.1922202 -2.8416312 -0.84433132
4.2898345 -2.9077973 -0.57764381
4.3797584 -2.968751 -0.29554078
4.3096204 -2.9212089 0
4.3129878 -2.9234915 0.29103518
2.3180289 -1.5671552 -0.92261279
2.6697581 -1.8049496 -0.88911867
3.1966074 -2.1611378 -0.85479546
4.1977754 -2.8379998 -0.84475887
4.2954855 -2.9040589 -0.57793188
4.3898025 -2.967824 -0.29597634
4.3217711 -2.9218299 0
4.3208265 -2.9211915 0.29132575
2.3281178 -1.5698805 -0.92587262
2.6844134 -1.8101354 -0.89327031
3.2055302 -2.1615314 -0.85648245
4.2054625 -2.8357987 -0.84561563
4.2989912 -2.8988667 -0.57793188
4.3976984 -2.965426 -0.29626688
0 -0 0
4.3157353 -2.9101574 0.29074517
2.3218093 -1.5615489 -0.92261279
2.6803594 -1.8026942 -0.89119583
3.1975996 -2.1505678 -0.85366857
4.2024937 -2.826416 -0.84433132
4.2960501 -2.8893383 -0.57706672
4.4077406 -2.9644563 -0.29670188
4.3093858 -2.8983071 0
4.3192487 -2.9049406 0.29074517
2.3207026 -1.5587691 -0.92179859
2.6897702 -1.8066645 -0.89396185
3.1967912 -2.1472201 -0.85310626
4.2063293 -2.8253064 -0.84475887
4.2935047 -2.8838606 -0.5764907
4.4138489 -2.9646933 -0.29699245
4.3111358 -2.8957031 0
4.3274679 -2.906673 0.29118019
2.3328495 -1.5628407 -0.92587262
2.7002885 -1.8089983 -0.89673048
3.2078271 -2.1490126 -0.85535777
4.2182708 -2.825937 -0.84647077
4.30128 -2.881547 -0.57706672
4.4282198 -2.9665875 -0.29771802
4.3059831 -2.8846977 0
4.3266635 -2.8985522 0.29089019
2.3203487 -1.5504074 -0.92016709
2.6753569 -1.7876163 -0.88773304
3.2083108 -2.1437247 -0.85479546
4.2174177 -2.8179884 -0.84561563
4.2918591 -2.8677285 -0.57533753
4.4296427 -2.9597926 -0.297573
4.3051333 -2.8765981 0
4.3323212 -2.8947644 0.29103518
2.2749217 -1.5160812 -0.90142524
2.6837797 -1.7885575 -0.8898102
3.213011 -2.1412544 -0.85535777
4.2144089 -2.8086181 -0.84433132
4.295321 -2.8625407 -0.57533753
4.4375362 -2.9573174 -0.29786301
4.3216043 -2.8800566 0
4.337976 -2.8909671 0.29118019
2.3343863 -1.5516404 -0.92424428
2.6796689 -1.7811458 -0.88773304
3.2092457 -2.1331496 -0.85366857
4.224215 -2.8077884 -0.84561563
4.309545 -2.864506 -0.57677871
4.4540944 -2.9605863 -0.29873413
4.3315768 -2.8791504 0
4.3522921 -2.8929195 0.2919063
2.3156552 -1.535159 -0.91609305
2.6880941 -1.7820666 -0.8898102
3.2160606 -2.1320808 -0.85479546
4.2276049 -2.8026822 -0.84561563
4.3065338 -2.8550076 -0.57591355
4.4706588 -2.9638143 -0.29960468
4.3285513 -2.8696046 0
4.3579483 -2.8890929 0.29205129
2.3030748 -1.5228162 -0.91038752
2.700707 -1.7857344 -0.89327031
3.2143915 -2.1253879 -0.85366857
4.2288408 -2.7961519 -0.84518647
4.3099804 -2.849802 -0.57591355
4.4959073 -2.972739 -0.30105579
4.3276696 -2.8614986 0
4.3657665 -2.8866887 0.29234129
2.3296731 -1.5363607 -0.92016709
2.7070553 -1.7852348 -0.894656
3.2318075 -2.1312957 -0.85760933
4.2257934 -2.7868044 -0.84390378
4.3112631 -2.8431697 -0.57562554
4.5233593 -2.9830418 -0.30265248
4.3463345 -2.8662982 0
4.3692517 -2.8814113 0.29234129
2.3728271 -1.560709 -0.9364664
2.7050145 -1.7792027 -0.89327031
3.225889 -2.121804 -0.85535777
4.2313004 -2.7831056 -0.84433132
4.3103776 -2.8351183 -0.57504946
4.5443282 -2.9889972 -0.30381358
4.3454418 -2.8581812 0
4.3683925 -2.8732769 0.29205129
2.3085797 -1.5144577 -0.91038752
2.7113616 -1.7786877 -0.894656
3.2263279 -2.1165121 -0.85479546
4.2389488 -2.7808044 -0.84518647
4.3159609 -2.8313253 -0.57533753
