# .PCD v0.7 - Point Cloud Data file format
VERSION 0.7
FIELDS x y z
SIZE 4 4 4
TYPE F F F
COUNT 1 1 1
WIDTH 1559
HEIGHT 1
VIEWPOINT 0 0 0 1 0 0 0
POINTS 1559
DATA ascii
-2.6722465 2.4791963 -0.80751526
-3.2103305 2.9784076 -0.73007023
-4.0058885 3.7164927 -0.60906631
-5.7569995 5.3410988 -0.43864134
-6.2129021 5.7640657 0
-6.6407342 6.1609898 0.50597543
-2.0281513 1.8770773 -0.91120481
-2.2988563 2.1276178 -0.86420089
-2.6882954 2.4880483 -0.81145602
-3.2101555 2.9710357 -0.72921348
-4.0046797 3.7063773 -0.60820115
-5.7462802 5.3182487 -0.43733466
-0 0 0
-6.2286482 5.7646856 0.47404644
-1.9940984 1.8410927 -0.89490551
-2.3032739 2.1265454 -0.86489505
-2.69503 2.4882421 -0.8125807
-3.213743 2.9671547 -0.72921348
-4.0091553 3.7015357 -0.60820115
-5.7679753 5.3254027 -0.43849578
-0 0 0
-0 0 0
-2.043586 1.882214 -0.91609305
-2.2984605 2.1169622 -0.86212641
-2.6886916 2.4763787 -0.80976683
-3.2286587 2.9737074 -0.73178214
-4.0155258 3.6984394 -0.60848922
-5.774406 5.3184295 -0.43849578
-0 0 0
-6.2463875 5.7531409 0.47433698
-1.9949052 1.8329271 -0.89327717
-2.3084061 2.1209731 -0.86489505
-2.6935511 2.4748456 -0.81032914
-3.2209041 2.9593797 -0.72921348
-4.0180888 3.6918364 -0.60820115
-5.7693515 5.3009033 -0.4376252
-6.2023606 5.6987543 0
-6.2342038 5.7280116 0.47288588
-2.0244439 1.855561 -0.90549928
-2.3072648 2.1147885 -0.86350936
-2.7021606 2.4767416 -0.81201833
-3.2225869 2.9537528 -0.72878593
-4.0339832 3.6974611 -0.6099304
-5.7834144 5.3009515 -0.43820578
-5.6740003 5.200665 0
-5.729691 5.2517095 0.43413517
-2.0212104 1.8481084 -0.90305364
-2.3079689 2.1103079 -0.86281788
-2.6995239 2.4683292 -0.81032914
-3.2261536 2.9498568 -0.72878593
-4.0289059 3.6838591 -0.60848922
-5.7898154 5.2939596 -0.43820578
-5.661077 5.1762466 0
-5.6689196 5.1834178 0.42905572
-2.0088336 1.8323398 -0.89653391
-2.3123686 2.1092067 -0.86350936
-2.6968708 2.4599268 -0.80863994
-3.2297156 2.9459565 -0.72878593
-4.040998 3.6859605 -0.60964239
-5.7923646 5.2834539 -0.43791521
-12.363997 11.277711 0
-0 0 0
-2.0165322 1.834903 -0.89897954
-2.3223379 2.1131649 -0.86627805
-2.7167535 2.4720554 -0.81370538
-3.2294791 2.9385998 -0.72793084
-4.0377965 3.6741121 -0.60848922
-5.8083591 5.2852001 -0.43864134
-12.373762 11.259257 0
-12.455757 11.333867 0.94064599
-2.0407088 1.8523997 -0.90875918
-2.321178 2.1069882 -0.86489505
-2.7084537 2.4585276 -0.81032914
-3.2330275 2.9346955 -0.72793084
-4.0384064 3.6657569 -0.60791314
-5.8089671 5.2729373 -0.43820578
-12.379649 11.237301 0
-12.438659 11.290865 0.9383238
-2.0176661 1.8226093 -0.89653391
-2.3243959 2.0996859 -0.86420089
-2.7143869 2.4519751 -0.81032914
-3.2515359 2.9371953 -0.73049778
-4.0357337 3.645581 -0.60618287
-5.8159065 5.2536569 -0.43777022
-12.400981 11.202123 0
-12.460122 11.255546 0.93788821
-2.0217083 1.8218293 -0.89735121
-2.3250692 2.0951982 -0.86350936
-2.7230122 2.4537978 -0.81201833
-3.2531774 2.9315476 -0.73007023
-4.0459018 3.6458981 -0.60704803
-5.8261147 5.2501078 -0.43806076
-12.426105 11.19758 0
-12.494948 11.259618 0.93948489
-2.0312605 1.8259946 -0.90061104
-2.3182724 2.0840027 -0.86004925
-2.7146339 2.4403107 -0.80863994
-3.2433517 2.9155998 -0.72707409
-4.0503039 3.6410067 -0.60704803
-5.8305163 5.241322 -0.43791521
-12.418334 11.163418 0
-12.466035 11.206298 0.93629211
-2.0334654 1.8235389 -0.90061104
-2.3245206 2.0845468 -0.86143225
-2.7270443 2.4455156 -0.81145602
-3.2545171 2.918534 -0.72878593
-4.0566244 3.6378353 -0.60733604
-5.8310471 5.2290735 -0.43748021
-12.437628 11.153619 0
-12.471828 11.184288 0.93571156
-2.0411882 1.8260194 -0.90305364
-2.332649 2.0867562 -0.86350936
-2.7224224 2.4354422 -0.80920446
-3.2522995 2.9094632 -0.72750163
-4.0590911 3.6312079 -0.60704803
-5.8586583 5.2410765 -0.43907633
-12.437516 11.126434 0
-12.483398 11.16748 0.93556654
-2.0526187 1.8317848 -0.90713078
-2.3239415 2.0739167 -0.85935771
-2.710197 2.4186165 -0.80470139
-3.2615604 2.9106607 -0.72878593
-4.0596128 3.622853 -0.60647088
-5.8359118 5.2080464 -0.43689966
-12.439304 11.101004 0
-12.502693 11.157573 0.93600154
-2.0788276 1.8506665 -0.91772455
-2.3414361 2.0844524 -0.86489505
-2.7282999 2.4288561 -0.80920446
-3.2593212 2.9015951 -0.72750163
-4.0697846 3.6231065 -0.60733604
-5.86549 5.2217245 -0.43864134
-12.452709 11.085965 0
-12.516166 11.142457 0.93600154
-2.0718169 1.8399425 -0.91364735
-2.3326945 2.0716233 -0.86074072
-2.7312329 2.4255579 -0.80920446
-3.2647498 2.8993642 -0.72793084
-4.0741591 3.6181862 -0.60733604
-5.8543034 5.1990995 -0.43733466
-12.469983 11.074364 0
-12.537392 11.134228 0.93658209
-2.0414963 1.8108104 -0.89979374
-2.3508353 2.0851948 -0.86696953
-2.7269933 2.4188473 -0.80751526
-3.2645748 2.8956831 -0.72750163
-4.0744114 3.6140094 -0.60704803
-5.8613353 5.1990137 -0.4376252
-12.480569 11.070285 0
-12.555783 11.137 0.93745321
-2.0566416 1.819809 -0.90549928
-2.3439608 2.0740418 -0.86350936
-2.7394266 2.4239678 -0.81032914
-3.2661507 2.8900368 -0.72707409
-4.0748973 3.6056523 -0.60647088
-5.8851252 5.2074232 -0.43893132
-12.513423 11.072439 0
-12.569231 11.12182 0.93745321
-2.1070132 1.8598456 -0.92668682
-2.325774 2.0529442 -0.85589492
-2.7442567 2.4223359 -0.81089151
-3.2792614 2.8945806 -0.72921348
-4.0792513 3.6007261 -0.60647088
-5.8797283 5.1899943 -0.43806076
-12.493626 11.028034 0
-12.594345 11.11694 0.9383238
-2.0591803 1.8132018 -0.90468514
-2.3527355 2.0716906 -0.86489505
-2.7376485 2.410624 -0.80807763
-3.2731252 2.8821354 -0.72707409
-4.0797205 3.5923791 -0.60589486
-5.882091 5.1794481 -0.43777022
-12.495226 11.002614 0
-12.578522 11.07596 0.93614709
-2.0427966 1.7943977 -0.89653391
-2.3476975 2.0622234 -0.86212641
-2.7329233 2.4006069 -0.80582607
-3.2804663 2.8815699 -0.72793084
-4.0840583 3.5874469 -0.60589486
-5.8863945 5.1706238 -0.4376252
-12.516333 10.994378 0
-12.57432 11.045315 0.93484044
-2.0691345 1.8131084 -0.90713078
-2.3501875 2.0593853 -0.86212641
-2.7453754 2.405674 -0.80863994
-3.2762229 2.8708367 -0.72621894
-4.0903335 3.5842125 -0.60618287
-5.900455 5.1703577 -0.43820578
-12.523734 10.9741 0
-12.585705 11.028402 0.93469542
-2.0787601 1.8171073 -0.91038752
-2.3696721 2.0714023 -0.86835515
-2.7348943 2.3906541 -0.80470139
-3.2835512 2.8702517 -0.72707409
-4.0888247 3.5741658 -0.60531878
-5.8988729 5.1563835 -0.4376252
-12.560498 10.979513 0
-12.585332 11.001221 0.93367988
-2.0790932 1.8129714 -0.90957332
-2.3702769 2.066884 -0.867661
-2.756928 2.4040439 -0.81032914
-3.2754118 2.8561625 -0.72450709
-4.0911851 3.5675178 -0.6050297
-5.8953085 5.1407151 -0.43689966
-12.534526 10.93012 0
-12.612319 10.997955 0.93469542
-2.0756934 1.8055961 -0.90713078
-2.3689907 2.0607285 -0.86627805
-2.7540777 2.3957064 -0.80863994
-3.2807956 2.8538859 -0.72493464
-4.1013494 3.5676661 -0.60589486
-5.9073915 5.1386991 -0.43733466
-12.500606 10.87398 0
-12.611881 10.970775 0.93367988
-2.0200021 1.7528685 -0.8818661
-2.3544273 2.0430679 -0.86004925
-2.7416177 2.3790545 -0.80413687
-3.2881155 2.8532813 -0.72578973
-4.0997944 3.5576205 -0.6050297
-5.9096751 5.1281548 -0.43704465
-12.470489 10.821339 0
-12.601577 10.935092 0.93193817
-2.0501511 1.7746925 -0.89409137
-2.3606842 2.0435023 -0.86143225
-2.7675436 2.3956959 -0.81089151
-3.2954462 2.8526697 -0.72664648
-4.1040902 3.552664 -0.6050297
-5.9139047 5.1193113 -0.43689966
-12.365501 10.704071 0
-12.636386 10.93856 0.93353432
-2.0504251 1.7706002 -0.89327717
-2.3631516 2.0406485 -0.86143225
-2.7646723 2.387373 -0.80920446
-3.3027728 2.8520379 -0.72750163
-4.114255 3.5527756 -0.60589486
-5.9141841 5.1070652 -0.4364641
-12.354789 10.668711 0
-12.625994 10.902904 0.93179262
-2.0712857 1.7842494 -0.90142524
-2.3618178 2.0345199 -0.86004925
-2.7637012 2.3807108 -0.80807763
-3.3042736 2.8463714 -0.72707409
-4.108748 3.5393629 -0.60445362
-5.9321589 5.1100879 -0.43733466
-12.347957 10.636792 0
-12.6116 10.8639 0.92976099
-2.043447 1.7559718 -0.88838583
-2.3604653 2.0283914 -0.85866356
-2.756942 2.3690913 -0.80526376
-3.3018675 2.8373559 -0.72578973
-4.1130219 3.5343957 -0.60445362
-5.9265084 5.0927582 -0.4364641
-12.384487 10.642219 0
-12.597131 10.824947 0.92772931
-2.0718348 1.7760185 -0.89979374
-2.3933899 2.051662 -0.86973816
-2.7655916 2.3707209 -0.80695289
-3.3013992 2.8300259 -0.72493464
-4.1113963 3.5243716 -0.60358852
-5.9247665 5.0788288 -0.43588355
-12.340037 10.578129 0
-12.590469 10.792804 0.92627764
-2.0382941 1.7429985 -0.88431174
-2.36536 2.0226812 -0.85866356
-2.7607298 2.3607721 -0.80470139
-3.3087146 2.8293684 -0.72578973
-4.1195869 3.5227664 -0.60416561
-5.9348526 5.075047 -0.43617409
-6.7654347 5.7852998 0
-12.615355 10.787719 0.92714876
-2.11185 1.8014848 -0.91527885
-2.3678024 2.0198216 -0.85866356
-2.7809765 2.3722742 -0.80976683
-3.3121309 2.8253682 -0.72578973
-4.1218672 3.5161028 -0.60387653
-5.9389977 5.0661812 -0.43602854
-6.7922158 5.7940073 0
-6.8383503 5.8333616 0.50205708
-2.1083765 1.794125 -0.91283321
-2.3893511 2.0332208 -0.86558652
-2.7741673 2.3606803 -0.80695289
-3.3096831 2.8163779 -0.72450709
-4.1339922 3.5178246 -0.6050297
-5.9470992 5.0606899 -0.43617409
-6.7813759 5.7706184 0
-6.8275852 5.8099403 0.50075096
-2.078512 1.7643862 -0.89897954
-2.3726766 2.0140936 -0.85866356
-2.7692692 2.3507493 -0.80470139
-3.3228669 2.8206816 -0.72664648
-4.1323299 3.5078101 -0.60416561
-5.9512234 5.0518141 -0.43602854
-0 0 0
-0 0 0
-2.1127059 1.7890246 -0.91283321
-2.3751085 2.0112252 -0.85866356
-2.7876203 2.3605373 -0.80920446
-3.3203938 2.8116863 -0.72536218
-4.1365652 3.5028145 -0.60416561
-5.9493909 5.0379028 -0.43544799
-0 0 0
-0 0 0
-2.0657785 1.7450052 -0.89164567
-2.4101157 2.0358739 -0.87042964
-2.7865846 2.3538847 -0.80807763
-3.325748 2.8093271 -0.72578973
-4.1427689 3.4994812 -0.60445362
-4.7149053 3.9827764 -0.34474096
-0 0 0
-0 0 0
-2.0943425 1.764802 -0.90305364
-2.4164147 2.0361967 -0.87181532
-2.7835958 2.3456025 -0.80638844
-3.3330698 2.8086181 -0.72664648
-4.1430345 3.4911363 -0.60387653
-4.7296472 3.9854467 -0.34546652
-0 0 0
-0 0 0
-2.0851252 1.7527308 -0.8981654
-2.3727832 1.9945326 -0.85520345
-2.7922649 2.3471439 -0.80807763
-3.3364611 2.8045886 -0.72664648
-4.1472497 3.4861276 -0.60387653
-4.7304778 3.9763818 -0.34517598
-0 0 0
-0 0 0
-2.1126812 1.7737169 -0.90957332
-2.389359 2.0060036 -0.86074072
-2.7995224 2.3503594 -0.80976683
-3.3401191 2.8042214 -0.72707409
-4.1473761 3.4819601 -0.60358852
-4.7269144 3.9685156 -0.34474096
-6.9152403 5.8057408 0
-6.927732 5.8162279 0.50524992
-2.1110368 1.767992 -0.90794498
-2.4167826 2.0240541 -0.86973816
-2.7828767 2.3306575 -0.80413687
-3.3415389 2.7985368 -0.72664648
-4.1535616 3.4786053 -0.60387653
-4.7416649 3.9711416 -0.34546652
-6.9242516 5.7990565 0
-6.9447136 5.8161931 0.50597543
-2.0809283 1.7385025 -0.89409137
-2.3941996 2.0002236 -0.86074072
-2.7895944 2.3305545 -0.80526376
-3.3429496 2.7928529 -0.72621894
-4.1478391 3.4652941 -0.60243535
-4.7265148 3.9487462 -0.34401485
-6.9452281 5.802361 0
-6.9736733 5.8261251 0.50757211
-2.0944159 1.7454779 -0.89897954
-2.3869805 1.9893001 -0.85728061
-2.8041162 2.3369393 -0.80863994
-3.3443441 2.7871633 -0.72578973
-4.1500382 3.4586253 -0.60214734
-4.7232981 3.936378 -0.3434343
-6.9702253 5.8089585 0
-7.0006652 5.8343267 0.50902325
-2.0642152 1.7160865 -0.88512594
-2.397099 1.9928298 -0.86004925
-2.8049858 2.3319266 -0.80807763
-3.3358693 2.773277 -0.72322279
-4.160183 3.4585705 -0.60301244
-4.7280512 3.9306681 -0.3434343
-7.0012541 5.820497 0
-7.0197024 5.8358335 0.50989437
-2.0948265 1.7372589 -0.89735121
-2.4053004 1.9947379 -0.86212641
-2.8019321 2.323668 -0.80638844
-3.3451476 2.7741618 -0.72450709
-4.1643586 3.453541 -0.60301244
-0 0 -0
-7.0203056 5.8220038 0
-7.0447478 5.8422747 0.51120049
-2.1159644 1.7504781 -0.90549928
-2.4038391 1.9886287 -0.86074072
-2.7988701 2.3154266 -0.80470139
-3.3366258 2.7602968 -0.72193843
-4.1705198 3.4501538 -0.60330045
-0 0 -0
-7.0574083 5.8383956 0
-7.0658193 5.8453541 0.51221657
-2.1295123 1.757356 -0.91038752
-2.3946342 1.9761449 -0.85658908
-2.8369374 2.3411508 -0.81483221
-3.3478782 2.7627988 -0.72365034
-4.1746855 3.4451122 -0.60330045
-4.7182264 3.8936632 -0.34169319
-7.0724864 5.8364902 0
-7.084898 5.8467321 0.51308715
-2.1144621 1.7406454 -0.90305364
-2.4376931 2.0067325 -0.87112385
-2.8162239 2.3183424 -0.80807763
-3.3532019 2.7603879 -0.72407955
-4.1748476 3.4367745 -0.60272336
-4.7309523 3.8945651 -0.34227374
-8.3252153 6.8533969 0
-8.2454262 6.7877135 0.59653801
-2.0898261 1.7161326 -0.89164567
-2.4246056 1.9910483 -0.86558652
-2.8131301 2.3100986 -0.80638844
-3.3565347 2.7563341 -0.72407955
-4.178997 3.4317274 -0.60272336
-4.7316346 3.8855445 -0.34198317
-8.329464 6.8400264 0
-8.2696867 6.7909384 0.59769911
-2.074692 1.6995115 -0.88431174
-2.4134226 1.9769872 -0.86074072
-2.8080568 2.3002572 -0.80413687
-3.3618467 2.7539015 -0.72450709
-4.179143 3.4234004 -0.60214734
-4.7363257 3.8798244 -0.34198317
-8.3437643 6.8349061 0
-8.2999992 6.7990551 0.59929579
-2.0805681 1.7001283 -0.88594013
-2.4158096 1.9740696 -0.86074072
-2.8108344 2.2968626 -0.80413687
-3.3611925 2.7465856 -0.72365034
-4.1872783 3.4216185 -0.60272336
-4.73699 3.8708136 -0.34169319
-8.3721657 6.8412833 0
-8.3222876 6.8005261 0.60031134
-2.0807068 1.696053 -0.88512594
-2.4415281 1.9901702 -0.86904669
-2.81164 2.2918608 -0.80357456
-3.3665042 2.744149 -0.72407955
-4.1934199 3.4181952 -0.60301244
-4.7396441 3.8634405 -0.34154761
-8.8524389 7.2159162 0
-10.88424 8.8721037 0.78433871
-2.1211081 1.7247236 -0.90142524
-2.4517169 1.9935497 -0.87181532
-2.8301785 2.3012857 -0.80807763
-3.36782 2.7384548 -0.72365034
-4.1955347 3.4114895 -0.60272336
-4.7483444 3.8609924 -0.34183818
-10.902476 8.8650646 0
-10.894952 8.8589458 0.78433871
-2.0943954 1.6988032 -0.88919997
-2.4210029 1.9637207 -0.86004925
-2.8408506 2.3042669 -0.81032914
-3.3751175 2.7376208 -0.72450709
-4.1916184 3.3999 -0.60157019
-4.7509904 3.853617 -0.34169319
-10.907115 8.8469648 0
-10.887488 8.8310452 0.7830326
-2.1540856 1.7429081 -0.91364735
-2.4253223 1.9623705 -0.86074072
-2.8199294 2.2816536 -0.80357456
-3.3844042 2.7383802 -0.72578973
-4.1977401 3.3964643 -0.60185927
-4.7637234 3.8544111 -0.34227374
-10.923868 8.8386917 0
-10.896132 8.8162498 0.78288764
-2.1061878 1.6999463 -0.89245987
-2.4218333 1.95471 -0.85866356
-2.8444355 2.2958007 -0.80976683
-3.3797278 2.7278459 -0.72407955
-4.1978116 3.3881378 -0.60128218
-4.7703972 3.8502829 -0.34241873
-0 0 0
-10.908797 8.8047085 0.7830326
-2.1178644 1.7051487 -0.89653391
-2.4241934 1.9517822 -0.85866356
-2.8373137 2.2843962 -0.80695289
-3.373018 2.7157061 -0.72193843
-4.1998897 3.3814425 -0.60099417
-5.1413684 4.139452 -0.36868772
-10.928979 8.7992105 0
-10.913354 8.7866306 0.78259706
-2.1334143 1.7134236 -0.90223944
-2.4265499 1.9488517 -0.85866356
-2.8301606 2.2730064 -0.80413687
-3.3823032 2.7164524 -0.72322279
-4.2059875 3.3779833 -0.60128218
-5.2334762 4.2031975 -0.3749283
-10.937576 8.7843704 0
-10.934091 8.7815714 0.78332263
-2.1335561 1.7093008 -0.90142524
-2.4269469 1.9443512 -0.85797209
-2.838856 2.2743526 -0.80582607
-3.379571 2.7075469 -0.72193843
-4.2060328 3.3696675 -0.6007061
-5.2446289 4.2017403 -0.37536332
-10.958336 8.7792826 0
-10.938616 8.763484 0.78288764
-2.0950754 1.6743195 -0.88431174
-2.4371338 1.9476821 -0.86074072
-2.8316793 2.2629907 -0.80301219
-3.3788331 2.7002592 -0.72108334
-4.2121196 3.3661962 -0.60099417
-5.2375269 4.1856699 -0.37449273
-10.98113 8.7757797 0
-10.959344 8.7583694 0.7836132
-2.1338115 1.7010554 -0.89979374
-2.4473321 1.9509913 -0.86350936
-2.8383815 2.2627323 -0.80413687
-3.3840988 2.6977732 -0.72151089
-4.2121429 3.3578827 -0.60041809
-5.2324233 4.1712408 -0.3737672
-11.005973 8.7738628 0
-10.994301 8.7645578 0.78535485
-2.1494088 1.7092458 -0.90549928
-2.4732509 1.9667705 -0.87181532
-2.851063 2.2672131 -0.80695289
-3.3953929 2.7000732 -0.72322279
-4.2222648 3.3576155 -0.60128218
-5.2313561 4.1600618 -0.37333164
-10.992123 8.7411203 0
-10.980478 8.7318602 0.7836132
-2.1523745 1.7094827 -0.90631348
-2.478364 1.9683936 -0.87319833
-2.8504367 2.2639053 -0.80638844
-3.4010477 2.7012177 -0.72407955
-4.2182221 3.3502429 -0.60041809
-5.2318358 4.1552863 -0.37318662
-10.979062 8.7199116 0
-10.967441 8.710681 0.78230709
-2.1486323 1.7022806 -0.90387094
-2.4453487 1.9373579 -0.86074072
-2.8611367 2.2667708 -0.80863994
-3.4083295 2.7002914 -0.72493464
-4.2242923 3.3467481 -0.6007061
-5.2185245 4.1344404 -0.3718805
-10.987553 8.7050247 0
-10.965734 8.6877384 0.78143597
-2.1041481 1.6629031 -0.88431174
-2.4496543 1.9359559 -0.86143225
-2.8598902 2.2601643 -0.80751526
-3.4095778 2.694581 -0.72450709
-4.2283335 3.3416414 -0.6007061
-5.2173982 4.1232972 -0.37144497
-10.989896 8.6852875 0
-10.976223 8.6744814 0.78143597
-2.131387 1.68025 -0.89490551
-2.4894271 1.9625061 -0.87458396
-2.8486493 2.2456942 -0.80357456
-3.4047673 2.6841021 -0.72279519
-4.2242432 3.3301249 -0.59955293
-5.2142143 4.1105552 -0.37086439
-10.990165 8.6639471 0
-10.978534 8.6547785 0.78085542
-2.1645012 1.7021184 -0.90794498
-2.462214 1.9362334 -0.86420089
-2.8793268 2.2642424 -0.81145602
-3.4080081 2.6799862 -0.72279519
-4.240459 3.3346081 -0.60128218
-5.2089663 4.0962224 -0.37013885
-10.998574 8.6490479 0
-10.986942 8.6399021 0.7807104
-2.1121051 1.6567888 -0.88512594
-2.4685032 1.9363567 -0.86558652
-2.8580701 2.2419429 -0.80470139
-3.419323 2.6822038 -0.72450709
-4.2383857 3.3246973 -0.60041809
-5.2036915 4.0819077 -0.36941329
-11.006971 8.6341476 0
-10.997375 8.6266203 0.7807104
-2.127733 1.6648988 -0.89083147
-2.4352808 1.9055474 -0.85312897
-2.8587701 2.2369175 -0.80413687
-3.4124548 2.6701622 -0.72236764
-4.2281389 3.3084147 -0.59839976
-5.2065754 4.0740175 -0.3692683
-11.0133 8.6176367 0
-11.009834 8.6149254 0.78085542
-2.1375365 1.6684097 -0.89409137
-2.4593301 1.9195788 -0.86074072
-2.8654809 2.2365913 -0.80526376
-3.4116275 2.6628749 -0.72151089
-4.2443628 3.312849 -0.60012901
-5.2094402 4.0661201 -0.36912271
-11.025755 8.6059227 0
-11.02229 8.603219 0.78100097
-2.1298018 1.6582351 -0.89001727
-2.4398785 1.8996567 -0.85312897
-2.8681812 2.2331274 -0.80526376
-3.4188976 2.6619077 -0.72236764
-4.2483625 3.307718 -0.60012901
-5.2061481 4.0534372 -0.36854216
-11.027931 8.5861988 0
-11.028573 8.5866985 0.7807104
-2.1806881 1.689406 -0.90957332
-2.4444621 1.8937548 -0.85312897
-2.8755763 2.2277443 -0.80582607
-3.4293752 2.6567791 -0.72322279
-4.2522583 3.294277 -0.59955293
-5.2015557 4.0297093 -0.36752662
-11.038363 8.5515566 0
-11.045187 8.5568419 0.78042036
-2.1768665 1.6822402 -0.90713078
-2.4546814 1.8969301 -0.85589492
-2.8762572 2.2227159 -0.80526376
-3.4264872 2.6479228 -0.72193843
-4.2562356 3.2891364 -0.59955293
-5.2002506 4.0186529 -0.36709106
-11.050746 8.5398016 0
-11.049348 8.538722 0.77998483
-2.1691043 1.6720595 -0.90305364
-2.4788301 1.9108124 -0.86350936
-2.8628416 2.2068288 -0.80076063
-3.4276531 2.642215 -0.72151089
-4.2602067 3.2839911 -0.59955293
-5.2030468 4.0107818 -0.36694604
-11.050753 8.5185003 0
-11.04937 8.5174341 0.77925926
-2.1476185 1.6513641 -0.89327717
-2.5089765 1.9292222 -0.87319833
-2.8715508 2.2080159 -0.80244982
-3.4288101 2.636508 -0.72108334
-4.25597 3.2725346 -0.59839976
-5.2017074 3.9997387 -0.36651048
-11.056907 8.5019655 0
-11.059653 8.504077 0.77925926
-2.1770649 1.6698241 -0.90468514
-2.5013545 1.9185565 -0.86973816
-2.8943744 2.2200055 -0.80807763
-3.4319932 2.6323631 -0.72108334
-4.2701807 3.275259 -0.599841
-5.19417 3.9839649 -0.36563993
-11.065109 8.4870167 0
-11.065793 8.4875412 0.77896869
-2.1731901 1.6626853 -0.90223944
-2.5076594 1.9185845 -0.87112385
-2.8809106 2.204155 -0.80357456
-3.4372082 2.6297727 -0.72151089
-4.2679706 3.2653804 -0.59897584
-5.1886554 3.9697869 -0.36491382
-11.071226 8.4704809 0
-11.067785 8.4678488 0.77838814
-2.1791308 1.6630601 -0.90387094
-2.4740741 1.8881537 -0.85866356
-2.8997307 2.2130046 -0.80807763
-3.4403832 2.6256175 -0.72151089
-4.2657509 3.255518 -0.59811175
-5.1831222 3.9556336 -0.36418825
-11.081452 8.4570971 0
-11.084208 8.4591999 0.77882373
-2.1811388 1.6604258 -0.90387094
-2.5182714 1.9170734 -0.87319833
-2.8922958 2.2018054 -0.80526376
-3.4394722 2.6183517 -0.7206558
-4.2717371 3.2519264 -0.59839976
-5.1796279 3.9430723 -0.3636077
-11.091663 8.4437017 0
-11.086151 8.4395046 0.77824318
-2.161489 1.6413457 -0.89490551
-2.5006099 1.89886 -0.86627805
-2.9030485 2.2044554 -0.80751526
-3.4426334 2.6141939 -0.7206558
-4.2818451 3.2514567 -0.59926492
-5.1740432 3.9289553 -0.36288214
-11.095638 8.4255695 0
-11.092206 8.4229631 0.77795315
-2.1634707 1.6387328 -0.89490551
-2.4909072 1.8867513 -0.86212641
-2.8874831 2.1871397 -0.80244982
-3.4519227 2.6146777 -0.72193843
-4.2837029 3.2447143 -0.59897584
-5.1684322 3.9148574 -0.3621566
-11.10581 8.4121571 0
-11.108582 8.414257 0.77838814
-2.1851656 1.6510142 -0.90305364
-2.4671655 1.8640808 -0.85312897
-2.8880906 2.1821132 -0.80188537
-3.4509871 2.6074128 -0.72108334
-4.2938137 3.244215 -0.599841
-5.1731586 3.9086094 -0.3621566
-11.105587 8.3908892 0
-4.716979 3.5639403 0.33022088
-2.1693964 1.6349858 -0.89571971
-2.4994626 1.8837433 -0.86350936
-2.91711 2.1985071 -0.80920446
-3.4520869 2.6016974 -0.7206558
-4.2936034 3.235914 -0.59926492
-5.1799512 3.9039183 -0.36230159
-11.107404 8.3711987 0
-4.7524109 3.5816987 0.33239812
-2.168411 1.63219 -0.89490551
-2.5006003 1.8822329 -0.86350936
-2.9082813 2.1890996 -0.80638844
-3.4557073 2.6011539 -0.72108334
-4.2955575 3.2333195 -0.59926492
-5.1760783 3.8960986 -0.36186603
-11.108296 8.3613529 0
-4.7483435 3.5741372 0.33196256
-2.1565442 1.6191792 -0.88919997
-2.4727852 1.8566196 -0.85312897
-2.890609 2.1703308 -0.80076063
-3.4588478 2.5969763 -0.72108334
-4.2911878 3.2219148 -0.59811175
-5.1787066 3.8882828 -0.36172104
-4.7232656 3.5463281 0
-4.7401872 3.5590332 0.33109143
-2.1822386 1.6343516 -0.89897954
-2.4991155 1.8716713 -0.86143225
-2.9033961 2.1744506 -0.80357456
-3.4599304 2.5912576 -0.7206558
-4.2950778 3.2167275 -0.59811175
-5.1875644 3.8851407 -0.36201158
-4.7296281 3.542177 0
-4.734087 3.5455163 0.3303659
-2.184212 1.6317136 -0.89897954
-2.5114303 1.8761618 -0.86489505
-2.9019542 2.1679025 -0.80244982
-3.4651134 2.5886099 -0.72108334
-4.3072495 3.2177272 -0.59926492
-5.1984944 3.8835306 -0.36244658
-4.7297306 3.5333414 0
-0 0 0
-2.1742945 1.6202151 -0.89409137
-2.5016215 1.8641288 -0.86074072
-2.9127214 2.1704674 -0.80470139
-3.478529 2.5920892 -0.72322279
-4.2986865 3.2032447 -0.59753466
-5.2094359 3.8819058 -0.36288214
-4.7235646 3.51985 0
-0 0 0
-2.186167 1.6249574 -0.8981654
-2.4958181 1.8551184 -0.85797209
-2.9275734 2.176038 -0.80807763
-3.4734173 2.5817585 -0.72151089
-4.3108573 3.2042201 -0.59868783
-5.2203808 3.8802602 -0.3633177
-0 0 0
-4.7364826 3.5205834 0.32964033
-2.1881287 1.6223147 -0.8981654
-2.4698479 1.8311858 -0.84828317
-2.9097936 2.1573689 -0.80244982
-3.4682858 2.5714443 -0.71979904
-4.3105745 3.195931 -0.59811175
-5.2313294 3.8785937 -0.36375326
-4.7007041 3.4851794 0
-4.7449117 3.5179558 0.32993087
-2.2020068 1.6284846 -0.90305364
-2.5305524 1.8714589 -0.86835515
-2.9430361 2.1765096 -0.81089151
-3.4734523 2.5687764 -0.72022659
-4.3144331 3.1907201 -0.59811175
-5.2401867 3.8753572 -0.36404327
-4.6965423 3.4733071 0
-4.744977 3.5091269 0.32964033
-2.1920428 1.6170222 -0.8981654
-2.5166607 1.8564855 -0.86281788
-2.9252203 2.157871 -0.80526376
-3.4703622 2.5600102 -0.71894389
-4.3141184 3.1824307 -0.59753466
-5.2490435 3.8721046 -0.36433327
-4.7049203 3.4707167 0
-4.7450352 3.5003088 0.32935032
-2.237788 1.6465957 -0.91609305
-2.5067739 1.8445193 -0.85866356
-2.9380565 2.1618631 -0.80807763
-3.47965 2.560375 -0.72022659
-4.3200417 3.1787472 -0.59782267
-5.2620902 3.8719194 -0.36491382
-4.7049222 3.4619472 0
-4.7492614 3.4945729 0.32935032
-2.1899648 1.6073314 -0.89571971
-2.509001 1.8414891 -0.85866356
-2.916086 2.1402702 -0.801323
-3.4744632 2.5500929 -0.71851474
-4.3134561 3.1658745 -0.59638149
-5.2709584 3.8686361 -0.36520436
-4.7007093 3.4501004 0
-4.745101 3.4826818 0.32876977
-2.1998825 1.6105242 -0.89897954
-2.5193212 1.844384 -0.86143225
-2.9432724 2.1547565 -0.80807763
-3.4816885 2.5489287 -0.7193715
-4.3256259 3.1667717 -0.59753466
-5.2798181 3.8653314 -0.36549437
-4.704875 3.444418 0
-4.7514005 3.4784791 0.32891476
-2.1898544 1.599122 -0.89409137
-2.493187 1.820628 -0.85174328
-2.9335656 2.1422107 -0.80470139
-3.4909873 2.549263 -0.7206558
-4.3294492 3.1615427 -0.59753466
-5.2844849 3.8589489 -0.36549437
-4.711133 3.4402637 0
-4.751399 3.4696677 0.32862422
-2.2097633 1.6095701 -0.90142524
-2.5217452 1.8368146 -0.86074072
-2.946419 2.146143 -0.80751526
-3.487838 2.5405073 -0.7193715
-4.3395405 3.1608789 -0.59839976
-5.297545 3.8586802 -0.36607495
-4.7215991 3.439167 0
-4.7618909 3.4685152 0.32905978
-2.1857142 1.5880142 -0.89083147
-2.5158441 1.8278679 -0.85797209
-2.9407876 2.1366072 -0.80526376
-3.4846728 2.5317631 -0.71808714
-4.3287067 3.1449895 -0.59638149
-5.3064122 3.855334 -0.36636549
-4.7173295 3.4273405 0
-4.7660785 3.4627588 0.32905978
-2.2236514 1.6114757 -0.90549928
-2.5139921 1.8218851 -0.85658908
-2.9371927 2.1285777 -0.80357456
-3.4939673 2.5320711 -0.7193715
-4.338789 3.1443117 -0.59724659
-5.3194828 3.8550186 -0.36694604
-4.7214675 3.421638 0
-4.7702594 3.4569974 0.32905978
-2.1855354 1.579829 -0.88919997
-2.5304182 1.8291298 -0.86143225
-2.9500568 2.1324685 -0.80638844
-3.4991028 2.52935 -0.71979904
-4.3488755 3.1436141 -0.59811175
-5.338872 3.8592396 -0.36796162
-4.7277055 3.4174538 0
-4.7786489 3.4542785 0.32935032
-2.193459 1.581525 -0.89164567
-2.5529799 1.8407463 -0.86835515
-2.9464543 2.1244485 -0.80470139
-3.5084052 2.5296257 -0.72108334
-4.3400788 3.1292777 -0.59638149
-5.337214 3.8482311 -0.36752662
-4.7339401 3.4132593 0
-4.7849245 3.4500201 0.32949534
-2.2134256 1.5918599 -0.89897954
-2.5368736 1.8244784 -0.86212641
-2.9428287 2.1164346 -0.80301219
-3.5010409 2.5178919 -0.71894389
-4.3438568 3.1240313 -0.59638149
-5.3439674 3.8432951 -0.36767161
-4.7401719 3.409055 0
-4.7954206 3.4487889 0.32993087
-2.1972747 1.5762196 -0.89164567
-2.5329587 1.8170234 -0.86004925
-2.9577675 2.1217608 -0.80638844
-3.5082483 2.5166495 -0.71979904
-4.3581347 3.126317 -0.59782267
-5.2873797 3.792913 -0.36346272
-4.7464085 3.4048462 0
-4.7953572 3.4399598 0.32964033
-2.2132499 1.5836326 -0.89735121
-2.5351524 1.8139615 -0.86004925
-2.9499989 2.1107938 -0.80357456
-3.5050216 2.5079257 -0.71851474
-4.3577061 3.1180415 -0.59724659
-4.9052639 3.5098324 -0.33690372
-4.7483964 3.3975897 0
-4.8016214 3.4356737 0.32978532
-2.2262678 1.5909145 -0.90223944
-2.5464518 1.8197213 -0.86350936
-2.9616082 2.1163964 -0.80638844
-3.512804 2.5102868 -0.71979904
-4.3532739 3.1108954 -0.59638149
-4.8503003 3.4660759 -0.33298481
-4.7208085 3.3735394 0
-4.8206091 3.4448583 0.33094645
-2.1879354 1.5595315 -0.88594013
-2.540477 1.8108184 -0.86074072
-2.957962 2.1083963 -0.80470139
-3.5137463 2.5045519 -0.7193715
-4.3570294 3.105633 -0.59638149
-0 0 -0
-11.283598 8.042799 0
-4.8247681 3.4390311 0.33094645
-2.1958632 1.5611845 -0.88838583
-2.5528846 1.8150145 -0.86420089
-2.9625764 2.1062915 -0.80526376
-3.5063109 2.4928684 -0.71723205
-4.3692107 3.1063612 -0.59753466
-4.8205466 3.4272454 -0.33037257
-11.291188 8.0276527 0
-4.8310356 3.4347029 0.33109143
-2.2219415 1.5756868 -0.8981654
-2.5428011 1.803224 -0.86004925
-2.9630485 2.1012418 -0.80470139
-3.5114126 2.4901135 -0.71765959
-4.364522 3.0950947 -0.59638149
-4.8183236 3.4169075 -0.32993701
-4.9007082 3.4753306 0
-4.8415432 3.4333737 0.33152699
-2.209717 1.5630084 -0.89245987
-2.5388317 1.7958026 -0.85797209
-2.9655852 2.0976601 -0.80470139
-3.5165126 2.4873497 -0.71808714
-4.3724856 3.092809 -0.59695858
-4.8330617 3.4185901 -0.33066314
-4.9070263 3.4709079 0
-4.8478079 3.4290204 0.33167201
-2.2216997 1.5674602 -0.89653391
-2.5430477 1.7941784 -0.85866356
-2.9660356 2.0926061 -0.80413687
-3.5300012 2.4904969 -0.72022659
-4.3719888 3.0845385 -0.59638149
-4.8435526 3.4172373 -0.33109814
-4.9090924 3.4634774 0
-4.8561978 3.4261589 0.33196256
-2.2256193 1.5662011 -0.89735121
-2.5677841 1.8069875 -0.86627805
-2.9540222 2.078789 -0.80019832
-3.5246105 2.4803205 -0.71851474
-4.3757124 3.0792534 -0.59638149
-4.851932 3.414376 -0.33138868
-0 0 0
-4.8752112 3.430758 0.33297867
-2.2356021 1.5691905 -0.90061104
-2.5473759 1.7880276 -0.85866356
-2.9586096 2.0766764 -0.80076063
-3.5318112 2.4790123 -0.7193715
-4.377315 3.0724795 -0.59609348
-4.8539295 3.4070196 -0.33124369
-4.874845 3.4217005 0
-4.8836026 3.4278476 0.33326867
-2.205101 1.5438077 -0.88757163
-2.5659759 1.796459 -0.86420089
-2.9652758 2.0760117 -0.80188537
-3.5263925 2.4688537 -0.71765959
-4.387383 3.0716398 -0.59695858
-4.8559079 3.3996575 -0.33109814
-4.8768463 3.4143167 0
-4.8856144 3.4204555 0.33312368
-2.2353311 1.5609505 -0.89897954
-2.5516896 1.7818664 -0.85866356
-2.9698713 2.0738862 -0.80244982
-3.5377917 2.47047 -0.7193715
-4.3847275 3.0618923 -0.59609348
-4.8578839 3.3923013 -0.33095312
-4.8830996 3.40991 0
-4.8982654 3.4205003 0.33370423
-2.2575006 1.5723773 -0.90713078
-2.5538406 1.7787819 -0.85866356
-2.974458 2.0717471 -0.80301219
-3.5428786 2.4676592 -0.71979904
-4.3884239 3.056592 -0.59609348
-4.861979 3.3864291 -0.33095312
-4.8829494 3.4010351 0
-4.9045253 3.4160628 0.33384922
-2.233005 1.5513122 -0.89653391
-2.5724711 1.7871457 -0.86420089
-2.9811285 2.071048 -0.80413687
-3.539531 2.4589813 -0.71851474
-4.3899918 3.0498128 -0.59580541
-4.8639355 3.3790708 -0.33080813
-4.891326 3.3980994 0
-4.9214492 3.4190266 0.33471978
-2.2003436 1.5246831 -0.88268024
-2.5684483 1.7797536 -0.86212641
-3.0003369 2.0790219 -0.80863994
-3.5382838 2.4517813 -0.71765959
-4.3872938 3.0400853 -0.5949403
-4.8744245 3.3776324 -0.33124369
-4.8911543 3.389225 0
-4.938396 3.4219601 0.3355909
-2.248951 1.5543456 -0.90142524
-2.5602717 1.7695128 -0.85866356
-2.9819481 2.0609512 -0.80301219
-3.5391338 2.4460459 -0.71723205
-4.395215 3.0377202 -0.59551632
-5.5731754 3.8518586 -0.37841108
-4.8909597 3.3803504 0
-4.9446626 3.4174666 0.33573592
-2.2203014 1.5305836 -0.88919997
-2.5665431 1.7692684 -0.86004925
-2.9823463 2.0559058 -0.80244982
-3.5378556 2.4388511 -0.71637529
-4.405273 3.0368125 -0.59638149
-5.5842457 3.8495476 -0.37884665
-4.8971815 3.3759139 0
-4.9509254 3.4129627 0.33588091
-2.2527006 1.5489062 -0.90142524
-2.552141 1.7547947 -0.85451192
-2.9973867 2.0609357 -0.80582607
-3.5492611 2.4403923 -0.71808714
-4.4068103 3.0300236 -0.59609348
-5.5974579 3.8486862 -0.37942722
-4.901257 3.3699942 0
-4.970036 3.417285 0.33689702
-2.2362275 1.5336035 -0.89409137
-2.5583935 1.7545449 -0.85589492
-2.9873059 2.0486927 -0.80244982
-3.5479772 2.4332008 -0.71723205
-4.4190001 3.0305479 -0.59724659
-5.6021042 3.8419199 -0.37942722
-4.9010367 3.3611283 0
-4.9891639 3.421566 0.33791313
-2.215637 1.5155495 -0.88512594
-2.5812225 1.7656189 -0.86281788
-3.0023584 2.0536861 -0.80582607
-3.5530314 2.4303598 -0.71765959
-4.4141197 3.0193651 -0.59609348
-5.5981636 3.8292799 -0.37884665
-4.9179788 3.364017 0
-4.9911437 3.4140637 0.33776757
-2.2399271 1.528195 -0.89409137
-2.5688453 1.7526001 -0.85797209
-2.998539 2.0457594 -0.80413687
-3.5517285 2.4231744 -0.7168045
-4.4134874 3.011111 -0.59551632
-5.611372 3.8283706 -0.37942722
-4.92204 3.3580723 0
-5.0060039 3.4153569 0.3384937
-2.2592309 1.5393656 -0.90142524
-2.5657611 1.7482252 -0.85658908
-3.0102794 2.0511053 -0.80695289
-3.5553112 2.4224722 -0.71723205
-4.4110351 3.0055342 -0.5949403
-5.626564 3.8337557 -0.38029778
-4.9197707 3.35217 0
-5.0316811 3.4284222 0.3400898
-2.2447355 1.5255207 -0.89490551
-2.5720174 1.7479413 -0.85797209
-2.9980428 2.0374677 -0.80301219
-3.5582356 2.4181745 -0.71723205
-4.4168005 3.0016544 -0.59522831
-5.6354947 3.8298783 -0.38058832
-4.9173579 3.3418331 0
-5.0809498 3.4530098 0.34313759
-2.2404375 1.5186455 -0.89245987
-2.559597 1.7349828 -0.85312897
-3.004705 2.0366924 -0.80413687
-3.563278 2.4153123 -0.71765959
-4.4268494 3.0006707 -0.59609348
-5.6315145 3.8172343 -0.38000777
-11.392407 7.7221656 0
-5.1797576 3.5110178 0.34952375
-2.2340806 1.5104001 -0.88919997
-2.5845475 1.7473412 -0.86074072
-3.0050607 2.0316384 -0.80357456
-3.5704429 2.4138777 -0.71851474
-4.4240413 2.990972 -0.59522831
-5.6942382 3.8497171 -0.38392612
-11.399568 7.7069325 0
-5.2421117 3.5440466 0.35344207
-2.2502506 1.5173737 -0.89490551
-2.5949771 1.7498274 -0.86350936
-3.0117309 2.0308499 -0.80470139
-3.5627172 2.4023871 -0.71637529
-4.4340878 2.9899638 -0.59609348
-5.7936797 3.9067547 -0.39031225
-11.411036 7.694612 0
-5.2571597 3.5449722 0.35416764
-2.2746444 1.5298278 -0.90387094
-2.5804355 1.7354898 -0.85797209
-3.001528 2.0186985 -0.801323
-3.5677536 2.3995173 -0.7168045
-4.4269681 2.9773879 -0.59465224
-5.8027043 3.9026489 -0.39060226
-11.420325 7.6808186 0
-5.2614393 3.5386174 0.35416764
-2.2457006 1.5064238 -0.89164567
-2.5762784 1.7281765 -0.85589492
-3.0166297 2.0235658 -0.80470139
-3.5663826 2.3923419 -0.71594775
-4.4348545 2.9749157 -0.59522831
-0 0 -0
-11.451206 7.6815085 0
-11.413285 7.6560712 0.7676487
-2.2639532 1.5147043 -0.8981654
-2.5846221 1.7292489 -0.85797209
-3.0232923 2.0227423 -0.80582607
-3.5714021 2.389457 -0.71637529
-4.4405932 2.9709918 -0.59551632
-0 0 -0
-11.443175 7.6560893 0
-11.398769 7.6263795 0.76605201
-2.2431648 1.4968754 -0.88919997
-2.5887945 1.7275157 -0.85866356
-3.0299652 2.0219114 -0.80695289
-3.5764282 2.3865688 -0.7168045
-4.4334249 2.958447 -0.59407514
-5.7735929 3.8527482 -0.38770002
-11.441596 7.635035 0
-11.410144 7.6140471 0.76619756
-2.290242 1.5242938 -0.90713078
-2.5971475 1.7285578 -0.86074072
-3.0133629 2.0055742 -0.80188537
-3.5814443 2.3836665 -0.71723205
-4.4413066 2.9559567 -0.59465224
-5.778244 3.8457692 -0.38770002
-11.455142 7.6240859 0
-11.412844 7.5959344 0.76576197
-2.2632494 1.5023856 -0.89571971
-2.5846009 1.7157047 -0.85589492
-3.0242519 2.0075529 -0.80413687
-3.5907319 2.3835924 -0.71851474
-4.4491811 2.9534464 -0.59522831
-5.7872124 3.8416557 -0.38799003
-11.462179 7.6088009 0
-11.422014 7.5821385 0.76576197
-2.2318127 1.4737599 -0.8818661
-2.5699 1.6970131 -0.84966612
-3.0227396 1.9960421 -0.80244982
-3.5879211 2.3692553 -0.7168045
-4.4519925 2.9398382 -0.59465224
-5.7899723 3.8233624 -0.38755447
-11.595633 7.6570845 0
-11.461983 7.5688295 0.76721311
-2.2686803 1.4941717 -0.89571971
-2.5970907 1.7104654 -0.85797209
-3.0187812 1.9881942 -0.80076063
-3.5929232 2.366329 -0.71723205
-4.4598575 2.937299 -0.59522831
-5.7924199 3.8149357 -0.38740948
-11.672248 7.687439 0
-7.0075049 4.615201 0.46867698
-2.2477665 1.4765066 -0.88675743
-2.567709 1.6866696 -0.84759164
-3.0254245 1.9873325 -0.80188537
-3.6022103 2.36621 -0.71851474
-4.459084 2.9290707 -0.59465224
-5.7818203 3.7979462 -0.38639334
-11.753307 7.7204795 0
-7.026103 4.6152873 0.46954754
-2.2867587 1.4981674 -0.90142524
-2.6096108 1.7096837 -0.86074072
-3.0278237 1.9836754 -0.80188537
-3.6050668 2.3618555 -0.71851474
-4.4582887 2.9208431 -0.59407514
-5.7255549 3.7510912 -0.38233
-11.775684 7.7148271 0
-7.0534058 4.6210313 0.47099864
-2.2533951 1.4724211 -0.88757163
-2.5717776 1.6804595 -0.84759164
-3.0259683 1.9772384 -0.80076063
-3.61222 2.3603089 -0.7193715
-4.4639864 2.916873 -0.59436423
-5.6365538 3.6830559 -0.37608942
-11.817679 7.7219477 0
-7.076386 4.6238761 0.47215977
-2.2386072 1.4589014 -0.8810519
-2.5780058 1.6800877 -0.84897465
-3.0155869 1.9652594 -0.79738444
-3.6064668 2.3503363 -0.71765959
-4.4696722 2.9128878 -0.59465224
-5.5560966 3.6209109 -0.37042883
-0 0 0
-7.0776181 4.6124873 0.47186977
-2.2424386 1.4575411 -0.8818661
-2.5905492 1.6838062 -0.85243481
-2.9902658 1.9436141 -0.79006743
-3.6071537 2.3445792 -0.71723205
-4.4753551 2.9088931 -0.5949403
-5.5343318 3.5972071 -0.36868772
-2.4626231 1.6006567 0
-15.252788 9.9140129 1.0161146
-2.2628617 1.4669293 -0.88919997
-2.5546937 1.6561133 -0.8399772
-2.943572 1.9082086 -0.77712059
-3.6056719 2.3374233 -0.71637529
-4.4658489 2.8950443 -0.59321105
-5.5016098 3.5664899 -0.3662205
-2.4842074 1.6104196 0
-15.277834 9.9040537 1.0169852
-2.2347047 1.4467596 -0.87779206
-2.5283184 1.6368465 -0.83097976
-2.9212601 1.891239 -0.77092832
-3.6027777 2.3324571 -0.7155202
-4.4719353 2.8951545 -0.59378713
-2.448005 1.5848511 -0.16289027
-2.4764414 1.6032611 0
-15.275089 9.8891726 1.0164046
-2.2530622 1.4547839 -0.88431174
-2.490248 1.6079327 -0.817828
-2.9107397 1.8794408 -0.76755208
-3.6120651 2.3322809 -0.7168045
-4.4819512 2.8939593 -0.59465224
-2.4608307 1.5889382 -0.16361582
-2.4718156 1.5960312 0
-15.271753 9.8608465 1.0153891
-2.2215705 1.4306494 -0.87127233
-2.4964116 1.6076418 -0.81921369
-2.90874 1.8731736 -0.7664274
-3.6084037 2.3237438 -0.7155202
-4.4767466 2.8829401 -0.59349906
-2.4452717 1.5747087 -0.16245471
-2.4365478 1.5690906 0
-15.279284 9.83957 1.0150986
-2.22122 1.4266297 -0.87045813
-2.5194569 1.6181792 -0.82613397
-2.8917539 1.8572955 -0.76135981
-3.6155248 2.3221538 -0.71637529
-4.4715214 2.8719375 -0.59234589
-2.4537337 1.575967 -0.16289027
-2.5413537 1.6322429 0
-15.267118 9.8056583 1.0135024
-2.2208629 1.4226128 -0.86964393
-2.5045102 1.6043081 -0.82059669
-2.8298128 1.8126864 -0.74447435
-3.607522 2.3108616 -0.71423584
-2.48879 1.5942383 -0.32943654
-2.4293797 1.5561819 -0.16114859
-2.5542791 1.6361885 0
-15.272389 9.7829971 1.0130669
-2.2225802 1.4199283 -0.86964393
-2.5085671 1.6026353 -0.82129085
-2.6842666 1.7148834 -0.70563799
-3.6146421 2.3092678 -0.7150926
-0 0 -0
-0 0 -0
-2.5979261 1.6597235 0
-15.271056 9.7561407 1.0121957
-2.218039 1.413256 -0.86719829
-2.5020387 1.5942105 -0.81852221
-2.5513413 1.6256245 -0.67017788
-2.3964548 1.5269363 -0.47373059
-0 0 -0
-2.430944 1.5489116 -0.16100359
-2.593343 1.6523865 0
-15.293797 9.7446661 1.0129218
-2.2009726 1.3986456 -0.85986435
-2.5018396 1.5898367 -0.817828
-2.4932652 1.584388 -0.65441924
-2.3744717 1.5088985 -0.46902418
-0 0 -0
-2.4130781 1.5334316 -0.15969747
-2.5975323 1.6506462 0
-15.314333 9.7317543 1.0135024
-2.2193623 1.40657 -0.86638409
-2.5334294 1.6056169 -0.8275196
-2.4715679 1.5664109 -0.64822698
-2.3437667 1.4854141 -0.46260425
-2.4200089 1.5337342 -0.31934714
-2.3995636 1.5207765 -0.15868136
-2.5995247 1.6475064 0
-15.321687 9.7104588 1.0132118
-2.2127032 1.398605 -0.86312425
-2.5162838 1.5904921 -0.82129085
-2.4691589 1.5607055 -0.64710015
-2.3260324 1.4702382 -0.45875296
-2.3890631 1.5100785 -0.31502247
-2.3816333 1.5053823 -0.15737525
-2.5927141 1.6388022 0
-15.353175 9.7044315 1.0145179
-2.2164803 1.3972471 -0.86393839
-2.5415425 1.6021631 -0.8289026
-2.4796407 1.5631409 -0.64935166
-2.3560359 1.4852216 -0.46431613
-2.3668242 1.4920223 -0.31185207
-2.3570728 1.4858752 -0.15563357
-2.5836866 1.6287303 0
-15.364889 9.685873 1.0145179
-2.2265368 1.39983 -0.86719829
-2.5243638 1.5870746 -0.8226738
-2.4729233 1.554734 -0.64710015
-2.3426139 1.4728081 -0.46131995
-2.3270192 1.4630035 -0.30637425
-2.323678 1.4609029 -0.15331189
-2.6451423 1.6630086 0
-15.367783 9.6617689 1.0139374
-2.2449787 1.4076425 -0.87371802
-2.5262794 1.5840232 -0.8226738
-2.4963315 1.5652454 -0.65273005
-2.3596182 1.4795237 -0.46431613
-2.247716 1.4093589 -0.29570881
-2.3276408 1.4594733 -0.1534569
-2.6317134 1.6501322 0
-15.37064 9.6376715 1.0133568
-2.2278194 1.393136 -0.86638409
-2.4941578 1.559687 -0.81159925
-2.5046861 1.5662707 -0.65441924
-2.2242885 1.3909279 -0.43735543
-2.2187111 1.3874402 -0.29167217
-2.3426173 1.4649233 -0.15432745
-2.666806 1.6676502 0
-15.37126 9.6122046 1.0126313
-2.2001367 1.3721297 -0.85497302
-2.4130268 1.5049001 -0.78460693
-2.5087306 1.5645865 -0.65498161
-2.1758754 1.356999 -0.42751342
-2.1523578 1.3423321 -0.28273594
-2.331161 1.453844 -0.1534569
-2.6003613 1.6217326 0
-3.5039594 2.1852674 0.2306605
-2.201793 1.3694702 -0.85497302
-2.3253741 1.4463353 -0.75553745
-2.4998333 1.5548453 -0.65216774
-2.144814 1.3340305 -0.42109349
-2.0924816 1.3014808 -0.27466375
-2.3086426 1.4359286 -0.15186022
-0 0 0
-3.5396881 2.2016139 0.23283719
-2.2034461 1.3668088 -0.85497302
-2.2930095 1.4223654 -0.74446285
-2.5103471 1.5571812 -0.65441924
-2.1486037 1.3327899 -0.42152104
-2.1094403 1.3084967 -0.27668208
-2.2595954 1.4016386 -0.14852244
-0 0 0
-3.5379338 2.1945984 0.23254718
-2.2198114 1.3732488 -0.86067855
-2.2669928 1.4024369 -0.73546541
-2.4927731 1.542112 -0.64935166
-2.1742287 1.3450499 -0.42622909
-2.1572094 1.3345213 -0.28273594
-2.2303462 1.379766 -0.1464902
-0 0 0
-3.5582612 2.2012582 0.23370829
-2.2172661 1.3679726 -0.85905015
-2.2878995 1.4115509 -0.74169421
-2.5141029 1.5511101 -0.65441924
-0 0 -0
-2.2336586 1.3780861 -0.29253733
-2.2187474 1.3688865 -0.14561965
-2.6458199 1.6323748 0
-3.5763919 2.2065039 0.23472385
-2.2252264 1.3691744 -0.86149275
-2.2789221 1.4022131 -0.7382341
-2.5202994 1.5507317 -0.65554392
-0 0 -0
-2.2397237 1.3780944 -0.29311335
-2.2004843 1.3539506 -0.14431353
-2.6034684 1.6019053 0
-0 0 0
-2.230269 1.3704202 -0.86312425
-2.2947333 1.4100312 -0.7430799
-2.514739 1.5452168 -0.65385473
-0 0 -0
-2.2559838 1.3862211 -0.29513168
-2.1902344 1.3458204 -0.14358798
-2.5534346 1.5689938 0
-0 0 0
-2.2445636 1.3754703 -0.86801243
-2.2664924 1.3889084 -0.73339093
-2.5231059 1.5461613 -0.65554392
-0 0 -0
-2.2576573 1.3834941 -0.29513168
-2.196286 1.3458858 -0.14387797
-2.5686467 1.5740688 0
-0 0 0
-2.2251384 1.359871 -0.85986435
-2.2745848 1.3900896 -0.73546541
-2.518466 1.5391352 -0.65385473
-2.1880834 1.3372252 -0.42751342
-2.3321552 1.4252732 -0.30464506
-2.1912568 1.3391646 -0.14344242
-2.6016314 1.5899609 0
-0 0 0
-2.1909034 1.3353152 -0.84601074
-2.2741227 1.3860359 -0.73477393
-2.5311701 1.5427016 -0.65666866
-0 0 -0
-2.6386411 1.6082032 -0.34442663
-2.1973152 1.3392231 -0.14373298
-2.5613253 1.5610807 0
-3.6349297 2.2154226 0.23777165
-2.1587224 1.3121268 -0.83297127
-2.2693622 1.3793765 -0.73269677
-2.5265248 1.5356866 -0.65498161
-2.200083 1.3372669 -0.42922527
-2.6958358 1.6385981 -0.35163367
-2.2144771 1.346016 -0.14474909
-2.5987923 1.5796126 0
-3.6265037 2.204282 0.23704608
-2.1814382 1.3223271 -0.84111941
-2.2710273 1.3766335 -0.73269677
-2.5327201 1.5352644 -0.65610629
-2.1863284 1.3252915 -0.42622909
-2.6115582 1.5830538 -0.3403911
-2.2138734 1.3419884 -0.14460354
-2.6006989 1.5764713 0
-3.6291647 2.1998985 0.23704608
-2.1428525 1.2953995 -0.8256374
-2.274842 1.37519 -0.73339093
-2.5389264 1.5348345 -0.65723312
-2.1989105 1.3292876 -0.42836851
-2.5426466 1.5370835 -0.33116683
-2.2154934 1.3393124 -0.14460354
-2.5892432 1.5652521 0
-3.6362717 2.1982028 0.23733664
-2.1253679 1.2813257 -0.81830347
-2.2765021 1.3724403 -0.73339093
-2.5473008 1.5356975 -0.65892017
-2.1983187 1.3253057 -0.42794096
-2.4426126 1.4725838 -0.31790593
-2.223788 1.3406605 -0.1450391
-0 0 0
-3.6389253 2.1938076 0.23733664
-2.1163256 1.2723902 -0.81422943
-2.2846029 1.3735629 -0.73546541
-2.5578651 1.5378554 -0.66117173
-2.2043142 1.3252914 -0.42879608
-0 0 -0
-2.2209568 1.3352972 -0.14474909
-2.6197834 1.5750822 0
-3.6415734 2.189409 0.23733664
-2.0627432 1.2367842 -0.79303879
-2.3034739 1.3811221 -0.74100274
-2.5640841 1.5373793 -0.66229856
-2.205914 1.3226269 -0.42879608
-2.5304554 1.5172161 -0.32886049
-2.2270215 1.3352826 -0.1450391
-2.6506989 1.5893121 0
-3.6353018 2.1796625 0.23675609
-2.0727212 1.2393645 -0.79629862
-2.2836132 1.3654654 -0.73408246
-2.546315 1.5225455 -0.65723312
-2.1854823 1.3067889 -0.42451721
-2.5478196 1.5234452 -0.33087772
-2.2286332 1.3325907 -0.1450391
-0 0 0
-3.6490817 2.1819346 0.23748164
-2.0699756 1.2343298 -0.79467028
-2.3132713 1.3794074 -0.7430799
-2.5852506 1.5415891 -0.66680163
-2.1936765 1.3080928 -0.42580155
-2.5274479 1.5071212 -0.32799536
-2.2413986 1.3365496 -0.14576465
-2.6411161 1.5749018 0
-3.6450181 2.1735301 0.23704608
-2.0459733 1.2166684 -0.78489071
-2.3149364 1.3766112 -0.7430799
-2.6176822 1.5566436 -0.67468095
-2.1996639 1.3080628 -0.42665666
-2.5603862 1.5225717 -0.33203089
-2.247483 1.3364991 -0.14605521
-2.6430171 1.5717094 0
-3.6632774 2.1784225 0.2380622
-2.0198073 1.1978072 -0.77429694
-2.3554354 1.3968449 -0.75553745
-2.6523457 1.5729218 -0.68312478
-2.1968312 1.3027877 -0.42580155
-2.4421031 1.4482415 -0.31646475
-2.2401562 1.3284808 -0.14547464
-0 0 0
-3.6524928 2.1660395 0.23719108
-2.0531664 1.2142392 -0.78652221
-2.3355315 1.3812295 -0.74861717
-2.6433027 1.5632449 -0.6803087
-2.207242 1.3053594 -0.42751342
-2.3481183 1.3886733 -0.30406791
-2.2618871 1.3376763 -0.14678076
-0 0 0
-3.6618192 2.1655939 0.23762664
-2.0737903 1.2230564 -0.79385608
-2.3199112 1.3682108 -0.7430799
-2.6517577 1.5639235 -0.6819979
-2.2110267 1.3039942 -0.42794096
-2.3497946 1.3858351 -0.30406791
-2.2724545 1.3402224 -0.14736132
-2.7159431 1.601778 0
-3.6599612 2.1585302 0.23733664
-2.0646083 1.2142812 -0.78977889
-2.349673 1.3819394 -0.75207734
-2.6558335 1.562005 -0.68256027
-2.2214518 1.3065273 -0.42965284
-2.4986081 1.4695343 -0.32309467
-2.2606292 1.3295691 -0.1464902
-2.7447958 1.6143274 0
-3.6692796 2.1580544 0.23777165
-2.0532863 1.2042854 -0.78489071
-2.3253729 1.3638685 -0.74377137
-2.6445727 1.5510844 -0.67918402
-2.2075264 1.2947497 -0.42665666
-2.5383077 1.4887582 -0.32799536
-2.2734475 1.3334135 -0.14721632
-2.7108266 1.5899433 0
-3.662919 2.1483607 0.23719108
-2.0291383 1.1868293 -0.77511108
-2.327019 1.3610578 -0.74377137
-2.646445 1.5478878 -0.67918402
-2.2068756 1.2907866 -0.42622909
-2.5356438 1.4830809 -0.32741931
-2.2907512 1.3398449 -0.14823188
-2.697027 1.5774729 0
-3.6700025 2.1465597 0.23748164
-2.0455179 1.1930947 -0.78081661
-2.3221586 1.3544518 -0.74169421
-2.6241682 1.5306057 -0.67299175
-2.2084336 1.2881191 -0.42622909
-2.5240245 1.4721946 -0.32568902
-2.2901261 1.3357681 -0.14808688
-2.7236531 1.5886326 0
-3.670351 2.1408157 0.23733664
-2.0590487 1.1993202 -0.78570485
-2.3403192 1.3631501 -0.74723154
-2.605334 1.5175115 -0.66792631
-2.1936817 1.2777392 -0.42323291
-2.5271461 1.47197 -0.32597703
-2.2864463 1.3317711 -0.14779688
-2.7178724 1.583061 0
-3.6761301 2.141211 0.23762664
-2.0733237 1.2042822 -0.79059625
-2.3506422 1.3653616 -0.75000018
-2.6005721 1.5105325 -0.66623712
-2.2063208 1.2815331 -0.42537233
-2.5266886 1.4676175 -0.32568902
-2.281311 1.3250909 -0.14736132
-2.6950264 1.565396 0
-3.6719718 2.1328509 0.23719108
-2.0491126 1.1869103 -0.78081661
-2.3501213 1.3612641 -0.74930865
-2.600199 1.5061169 -0.66567481
-2.2123146 1.281442 -0.42622909
-2.647079 1.5332712 -0.34096822
-2.280664 1.3210322 -0.14721632
-2.6856582 1.5556175 0
-3.6768012 2.1297188 0.23733664
-2.0526834 1.1856685 -0.78163081
-2.3300445 1.3458776 -0.74238837
-2.6064215 1.5055181 -0.66680163
-2.2116406 1.2774853 -0.42580155
-2.6578884 1.5352464 -0.34212139
-2.2642581 1.3078781 -0.14605521
-2.7280958 1.5757995 0
-3.6816199 2.1265728 0.23748164
-2.0305617 1.1696209 -0.77266854
-2.3316691 1.3430612 -0.74238837
-2.612638 1.5049016 -0.66792631
-2.2243028 1.2812172 -0.42794096
-2.6261206 1.5126678 -0.33779675
-2.2658367 1.3051412 -0.14605521
-2.7660801 1.5932856 0
-3.6796792 2.1195264 0.23719108
-2.0726883 1.1905529 -0.78815055
-2.3398104 1.3439879 -0.74446285
-2.6364918 1.5144019 -0.67355627
-2.2191691 1.2746916 -0.42665666
-2.5965512 1.4914601 -0.33376119
-2.2516377 1.2933415 -0.1450391
-2.7657487 1.5886471 0
-3.6889992 2.1189625 0.23762664
-2.0505316 1.1745334 -0.77918518
-2.334908 1.3374226 -0.74238837
-2.6493416 1.5175284 -0.67637014
-2.1895266 1.2541488 -0.42066592
-2.5624416 1.4677525 -0.32914853
-2.2577126 1.2932054 -0.14532965
-2.7360461 1.5671923 0
-3.6915567 2.1145036 0.23762664
-2.0691187 1.1818619 -0.78570485
-2.3256238 1.3283752 -0.73892558
-2.6975043 1.54079 -0.68819016
-2.1709809 1.2400446 -0.41681463
-2.5327744 1.4466977 -0.32511297
-2.2615275 1.291764 -0.14547464
-2.7402041 1.5651797 0
-3.691855 2.1087539 0.23748164
-2.0426278 1.1634594 -0.77511108
-2.3250494 1.3243237 -0.7382341
-2.7192328 1.5488465 -0.6932556
-2.1814001 1.2425026 -0.4185265
-2.5142956 1.4321164 -0.32251862
-2.2517996 1.2826014 -0.14474909
-2.7511301 1.5670148 0
-3.6921446 2.1030068 0.23733664
-2.0526288 1.1658732 -0.77837098
-2.3702767 1.3462942 -0.75207734
-2.7365615 1.5543404 -0.69719416
-2.1851296 1.2411325 -0.41895407
-2.549753 1.4482349 -0.32684219
-2.2601194 1.2837259 -0.14518408
-2.7168231 1.5431291 0
-3.6924169 2.0972569 0.23719108
-2.0497389 1.1609583 -0.77674258
-2.3609891 1.3372483 -0.74861717
-2.7384377 1.5510327 -0.69719416
-2.17099 1.229634 -0.4159579
-2.5830045 1.4629964 -0.33087772
-2.2435813 1.2707492 -0.14402297
-2.7413263 1.5526687 0
-3.6972158 2.0940781 0.23733664
-2.0705068 1.1694189 -0.78407651
