# .PCD v0.7 - Point Cloud Data file format
VERSION 0.7
FIELDS x y z
SIZE 4 4 4
TYPE F F F
COUNT 1 1 1
WIDTH 1538
HEIGHT 1
VIEWPOINT 0 0 0 1 0 0 0
POINTS 1538
DATA ascii
3.6374121 -1.6662234 -0.88631481
4.9008236 -2.244966 -0.89868033
7.57093 -3.468087 -0.92818856
8.597126 -3.9381659 -0.52818722
8.9778881 -4.1125851 0
8.944272 -4.0971866 0.54951507
2.5992434 -1.1868621 -0.94217193
3.0433085 -1.3896304 -0.92303127
3.6694679 -1.6755463 -0.89363176
4.9128733 -2.2433078 -0.90039217
7.5704141 -3.4567897 -0.92761254
8.5900621 -3.9223797 -0.52746165
8.9875898 -4.103898 0
8.942132 -4.0831413 0.54908007
2.5804319 -1.1745065 -0.93483806
3.035852 -1.381795 -0.92026263
3.6668689 -1.669008 -0.89250708
4.9155803 -2.23737 -0.90039217
7.5628171 -3.4422834 -0.92617136
8.6066179 -3.9173787 -0.52818722
8.9972744 -4.0951896 0
8.9541473 -4.0755596 0.54951507
2.5931008 -1.1764926 -0.93891209
3.0260985 -1.3729441 -0.91680253
3.6573069 -1.659324 -0.88969105
4.9159446 -2.2303691 -0.89996463
7.5740304 -3.4363456 -0.92703539
8.6089811 -3.9059038 -0.5280422
8.9951038 -4.0810881 0
8.9590645 -4.0647373 0.54951507
2.6125367 -1.1815062 -0.94543183
3.0597618 -1.3837615 -0.92649412
3.6569963 -1.6538577 -0.88912868
4.8999238 -2.2159653 -0.89654088
7.5805402 -3.4282603 -0.92732453
8.618434 -3.8976421 -0.52833277
8.9976597 -4.0691452 0
8.9663439 -4.0549827 0.54966062
2.5688975 -1.1580337 -0.92913252
3.0568531 -1.3779993 -0.92510843
3.6659434 -1.6525713 -0.89081788
4.916635 -2.2163708 -0.89910787
7.5870328 -3.4201601 -0.92761254
8.6207609 -3.8861547 -0.52818722
9.0025702 -4.0582705 0
8.9664955 -4.0420079 0.54937005
2.6153843 -1.1751893 -0.94543183
3.0264831 -1.3599112 -0.91541952
3.6609824 -1.6450154 -0.88912868
4.9193096 -2.2104285 -0.89910787
7.5840802 -3.4078088 -0.92674738
8.6301956 -3.8778675 -0.52847779
9.0074673 -4.0473895 0
8.9713726 -4.0311708 0.54937005
2.6393549 -1.1821293 -0.9535799
3.0555992 -1.3685591 -0.92372543
3.6652839 -1.6416281 -0.88969105
4.9243264 -2.2055352 -0.89953709
7.5999928 -3.4039276 -0.92818856
8.6372442 -3.8684976 -0.52862281
9.0171061 -4.0386324 0
8.9809847 -4.0224543 0.54966062
2.6249809 -1.1718853 -0.94787437
3.0503759 -1.3617969 -0.92164832
3.6719098 -1.6392717 -0.89081788
4.9293294 -2.200629 -0.89996463
7.5922933 -3.3894711 -0.92674738
8.6537733 -3.8633537 -0.52934831
9.0219793 -4.0277338 0
8.9905787 -4.0137157 0.5499506
2.619627 -1.165701 -0.94543183
3.0176358 -1.3428099 -0.91126519
3.6692405 -1.6327658 -0.88969105
4.9249468 -2.1915393 -0.89868033
7.5963831 -3.3802948 -0.92674738
8.6513205 -3.8497283 -0.52891332
9.0197039 -4.0136547 0
8.9882975 -3.9996793 0.54951507
2.6368425 -1.1695467 -0.9511342
3.0444849 -1.3503526 -0.91887969
3.6665697 -1.6262726 -0.88856637
4.9322886 -2.1876705 -0.89953709
7.605195 -3.3732131 -0.92732453
8.6725855 -3.8466439 -0.52992892
9.0316858 -4.0059195 0
8.9836226 -3.9846017 0.54893452
2.5975683 -1.1483729 -0.9364664
3.0552924 -1.3507307 -0.92164832
3.6685321 -1.6218411 -0.88856637
4.9278827 -2.1785941 -0.89825273
7.6068931 -3.3629723 -0.92703539
8.6748533 -3.8351123 -0.5297839
9.0317545 -3.992897 0
8.9908142 -3.9747975 0.54908007
2.61252 -1.1512114 -0.94135463
3.047739 -1.3429914 -0.91887969
3.672812 -1.6184309 -0.88912868
4.9328585 -2.1736724 -0.89868033
7.6204185 -3.3579502 -0.92818856
8.6818562 -3.8256745 -0.52992892
9.0437202 -3.9851303 0
8.9979858 -3.9649777 0.54922503
2.6161788 -1.1490506 -0.94217193
3.0562527 -1.3423353 -0.92095679
3.6770892 -1.6150125 -0.88969105
4.9401865 -2.1697769 -0.89953709
7.617373 -3.3456228 -0.92732453
8.6817188 -3.8130934 -0.52963889
9.0461483 -3.9731543 0
9.0075245 -3.9561903 0.54951507
2.6039758 -1.1399397 -0.9372806
3.0716574 -1.344676 -0.92510843
3.6836977 -1.6126082 -0.89081788
4.9357476 -2.1607168 -0.89825273
7.6214099 -3.3364162 -0.92732453
8.6982193 -3.8078098 -0.53036445
9.0604782 -3.9663956 0
9.0027761 -3.9411354 0.54893452
2.6280093 -1.1466787 -0.94543183
3.0962696 -1.3509946 -0.93202871
3.6809812 -1.6061218 -0.88969105
4.931294 -2.1516705 -0.89696842
7.6278043 -3.328238 -0.92761254
8.7075815 -3.7993772 -0.53065503
9.0557232 -3.9512818 0
9.014679 -3.933373 0.54937005
2.6060376 -1.1352181 -0.9372806
3.0924895 -1.3471218 -0.93064576
3.6819508 -1.6038976 -0.88969105
4.9467182 -2.1548438 -0.89953709
7.6345515 -3.3256931 -0.92818856
8.7027264 -3.7910016 -0.53021944
9.0604925 -3.9468484 0
9.0170536 -3.9279261 0.54937005
2.6096811 -1.1330556 -0.93809789
3.0388856 -1.319405 -0.91403389
3.6792293 -1.5974256 -0.88856637
4.9469571 -2.14784 -0.89910787
7.6456842 -3.319557 -0.92905372
8.7144537 -3.7835889 -0.53065503
9.0604753 -3.9338226 0
9.0313272 -3.9211671 0.5499506
2.6473329 -1.1456032 -0.9511342
3.1164558 -1.3486108 -0.93687451
3.6928141 -1.5980234 -0.89138025
4.9519114 -2.1428833 -0.89953709
7.6425662 -3.3072336 -0.92818856
8.7166271 -3.7720215 -0.53050947
9.0628357 -3.9218395 0
9.0384407 -3.9112828 0.55009562
2.6101356 -1.125764 -0.9372806
3.0674074 -1.3229876 -0.92164832
3.6854098 -1.589535 -0.88912868
4.956852 -2.1379139 -0.89996463
7.6489387 -3.2990239 -0.9284777
8.7116346 -3.75737 -0.52992892
9.0627937 -3.9088264 0
9.033617 -3.8962424 0.54951507
2.6355717 -1.1291887 -0.94543183
3.0844274 -1.3214971 -0.92579997
3.6892402 -1.5806241 -0.88912868
4.9620037 -2.1259291 -0.89996463
7.6568885 -3.28053 -0.9284777
8.7326384 -3.741426 -0.53065503
9.0722132 -3.8869138 0
9.0477877 -3.8764489 0.54980564
2.5619256 -1.0939738 -0.91853875
3.076793 -1.3138283 -0.92303127
3.6911476 -1.5761653 -0.88912868
4.9622102 -2.1189249 -0.89953709
7.6632233 -3.2722905 -0.92876571
8.7419281 -3.7329104 -0.530945
9.0792942 -3.8769701 0
9.0429058 -3.8614318 0.54922503
2.6155462 -1.1131356 -0.9372806
3.0599198 -1.3022541 -0.91749668
3.7000654 -1.5746901 -0.89081788
4.9623981 -2.1119192 -0.89910787
7.669549 -3.2640405 -0.92905372
8.7368679 -3.7182746 -0.53036445
9.0887566 -3.8680329 0
9.05474 -3.8535559 0.54966062
2.6487491 -1.1234879 -0.94869167
3.0891974 -1.3103076 -0.92579997
3.6902719 -1.5652581 -0.888004
4.9696774 -2.1079283 -0.89996463
7.6734877 -3.2547708 -0.92905372
8.7341757 -3.7046702 -0.52992892
9.0862436 -3.8540025 0
9.06178 -3.843626 0.54980564
2.6409984 -1.1164372 -0.94543183
3.0399456 -1.2850853 -0.91057372
3.7015219 -1.5647554 -0.89025557
4.9745831 -2.1029205 -0.90039217
7.6726546 -3.2434843 -0.9284777
8.7362547 -3.6931031 -0.5297839
9.100482 -3.847074 0
9.0711994 -3.8346953 0.55009562
2.6810644 -1.1295578 -0.95928544
3.0738592 -1.2950461 -0.92026263
3.6916955 -1.5553463 -0.88743949
4.9794841 -2.0979037 -0.90081972
7.6813307 -3.2362175 -0.92905372
8.7383184 -3.6815364 -0.52963889
9.1003227 -3.8340521 0
9.0758266 -3.8237319 0.55009562
2.5821571 -1.0842153 -0.92342699
3.0823634 -1.2942456 -0.9223398
3.6912315 -1.5499017 -0.88687718
4.9772859 -2.0898998 -0.89996463
7.6876178 -3.2279341 -0.92934173
8.7475471 -3.6729853 -0.52992892
9.104948 -3.8230534 0
9.0780468 -3.8117576 0.5499506
2.6632683 -1.1144894 -0.95195156
3.0746677 -1.2866465 -0.91957116
3.6931016 -1.5454404 -0.88687718
4.9892797 -2.0878482 -0.90167648
7.6962891 -3.2206416 -0.92991889
8.7495842 -3.6614108 -0.5297839
9.1071625 -3.8110454 0
9.0778561 -3.7987816 0.54966062
2.6440759 -1.1027056 -0.94461447
3.0739069 -1.2819656 -0.91887969
3.7184219 -1.5507591 -0.89250708
4.9894228 -2.080827 -0.90124726
7.6930113 -3.2083521 -0.92905372
8.7444096 -3.6468353 -0.52920336
9.1141605 -3.8010392 0
9.0824394 -3.7878101 0.54966062
2.6659536 -1.1080501 -0.95195156
3.0800824 -1.2801744 -0.92026263
3.7038667 -1.5394377 -0.88856637
4.9848289 -2.0718439 -0.89996463
7.7040496 -3.2020333 -0.92991889
8.7512064 -3.6372631 -0.52934831
9.1091337 -3.7860284 0
9.0942011 -3.7798219 0.55009562
2.6353178 -1.0915843 -0.94054043
3.0932229 -1.2812549 -0.92372543
3.7151139 -1.5388505 -0.89081788
4.9920673 -2.0677819 -0.90081972
7.7007422 -3.1897519 -0.92905372
8.7387972 -3.6197283 -0.52833277
9.1161137 -3.7760179 0
9.0867605 -3.7638595 0.54937005
2.6526291 -1.0950018 -0.94624597
3.0947688 -1.2775164 -0.92372543
3.7193172 -1.5353291 -0.89138025
4.9874506 -2.0588129 -0.89953709
7.7069793 -3.1814306 -0.92934173
8.7503633 -3.6121383 -0.52876776
9.1326952 -3.7699642 0
9.0985098 -3.7558527 0.54980564
2.6516669 -1.0908563 -0.94543183
3.0568705 -1.2575511 -0.91195935
3.7211695 -1.5308338 -0.89138025
4.9970498 -2.0557122 -0.90081972
7.7084279 -3.1711328 -0.92905372
8.7451096 -3.5976081 -0.52818722
9.1324253 -3.7569442 0
9.1030416 -3.7448561 0.54980564
2.666039 -1.0948859 -0.95032007
3.0692308 -1.2604684 -0.91541952
3.7150402 -1.5256888 -0.88969105
4.9887924 -2.0487919 -0.89910787
7.7127328 -3.1674569 -0.92934173
8.7448797 -3.5913379 -0.5280422
9.132288 -3.7504385 0
9.1173182 -3.7442906 0.55053115
2.6559248 -1.0869838 -0.94624597
3.080039 -1.2605599 -0.91818815
3.7215886 -1.5231254 -0.89081788
4.9960203 -2.044709 -0.89996463
7.7093797 -3.1551988 -0.9284777
8.7492132 -3.5807688 -0.5280422
9.1416264 -3.7413707 0
9.1122169 -3.7293344 0.5499506
2.6320598 -1.0735054 -0.9372806
3.0629759 -1.2492578 -0.91265088
3.7187164 -1.5167065 -0.88969105
5.0056114 -2.0415764 -0.90124726
7.7203646 -3.148809 -0.92934173
8.7463217 -3.5672534 -0.5276072
9.1389179 -3.7273765 0
9.1191196 -3.7193017 0.55009562
2.6631188 -1.0824218 -0.94787437
3.1016693 -1.2606702 -0.92372543
3.7205462 -1.512212 -0.88969105
5.0104599 -2.0364959 -0.90167648
7.7193761 -3.1375322 -0.92876571
8.7602453 -3.5605924 -0.52818722
9.1458235 -3.7173102 0
9.1212025 -3.7073028 0.5499506
2.6804628 -1.0856992 -0.9535799
3.07761 -1.2465605 -0.91611099
3.7341528 -1.5124876 -0.89250708
5.0152941 -2.0314031 -0.90210402
7.7279515 -3.1301427 -0.92934173
8.7693634 -3.5519576 -0.52847779
9.1527185 -3.7072325 0
9.1232691 -3.6953044 0.54980564
2.6496899 -1.0695099 -0.94217193
3.0930679 -1.2484732 -0.92026263
3.7289069 -1.5051204 -0.89081788
5.0058446 -2.0205383 -0.89996463
7.7317281 -3.1208026 -0.92934173
8.7664175 -3.5384402 -0.5280422
9.1596022 -3.6971438 0
9.1229038 -3.6823311 0.54951507
2.6395173 -1.0616966 -0.93809789
3.0806136 -1.2391194 -0.91611099
3.737797 -1.5034592 -0.89250708
5.0201883 -2.0192773 -0.90210402
7.728301 -3.1085651 -0.9284777
8.7803297 -3.531724 -0.52862281
9.1592379 -3.6841328 0
9.1345806 -3.6742151 0.5499506
2.6729121 -1.0713787 -0.94950587
3.0937495 -1.2400622 -0.91957116
3.7466795 -1.501775 -0.89419413
5.0202441 -2.0122557 -0.90167648
7.7416549 -3.1030741 -0.92963088
8.7821808 -3.5201461 -0.52847779
9.1636829 -3.673063 0
9.1438427 -3.6651103 0.55024117
2.628299 -1.0498123 -0.93320656
3.062633 -1.2232968 -0.90988225
3.7437768 -1.4953636 -0.89306945
5.0178995 -2.004282 -0.90081972
7.74299 -3.0927553 -0.92934173
8.7888384 -3.5104949 -0.52862281
9.1705294 -3.6629522 0
9.1361923 -3.6492372 0.54951507
2.6754935 -1.0649163 -0.94950587
3.1083896 -1.2372202 -0.92303127
3.7432222 -1.4899001 -0.89250708
5.015552 -1.9963205 -0.89996463
7.7467213 -3.0833972 -0.92934173
8.8003187 -3.5027566 -0.52905834
9.1870356 -3.6566801 0
9.1478395 -3.6410789 0.5499506
2.6583984 -1.0543926 -0.94298613
3.0982244 -1.2288395 -0.91957116
3.7402916 -1.4835007 -0.89138025
5.0298891 -1.9949901 -0.90210402
7.7504411 -3.0740345 -0.92934173
8.8045454 -3.4921205 -0.52905834
9.196291 -3.6474974 0
9.1546459 -3.63098 0.55009562
2.6435781 -1.0448196 -0.9372806
3.0880435 -1.2204853 -0.91611099
3.7397206 -1.4780473 -0.89081788
5.029911 -1.9879683 -0.90167648
7.7637715 -3.0684702 -0.9304949
8.8087578 -3.4814794 -0.52905834
9.1958456 -3.6344678 0
9.1590261 -3.6199157 0.55009562
2.6770387 -1.0543059 -0.94869167
3.0895159 -1.2167531 -0.91611099
3.7438657 -1.4744576 -0.89138025
5.0251417 -1.9790663 -0.90039217
7.7674737 -3.059087 -0.9304949
8.8274603 -3.4765444 -0.52992892
9.1905451 -3.6195393 0
9.1706486 -3.6117036 0.55053115
2.6437967 -1.037526 -0.9364664
3.0863175 -1.211188 -0.91472805
3.7456446 -1.4699328 -0.89138025
5.039475 -1.9776809 -0.90253162
7.7663536 -3.0478113 -0.92991889
8.8292379 -3.4649272 -0.5297839
9.197341 -3.609385 0
9.1677475 -3.5977714 0.55009562
2.7002933 -1.0559338 -0.9560256
3.1344993 -1.2257277 -0.9285686
3.7474179 -1.4654058 -0.89138025
5.0299096 -1.9669167 -0.90039217
7.7700305 -3.038425 -0.92991889
8.8334179 -3.4542563 -0.5297839
9.2016954 -3.5982692 0
9.164835 -3.5838549 0.54966062
2.6140592 -1.0185727 -0.92505848
3.1126068 -1.2128327 -0.92164832
3.7539253 -1.4627235 -0.89250708
5.0442395 -1.9654968 -0.90253162
7.7785115 -3.0309105 -0.9304949
8.842432 -3.4454689 -0.53007448
9.2011824 -3.5852566 0
9.1643114 -3.5708899 0.54937005
2.6429365 -1.0261482 -0.93483806
3.097697 -1.2027137 -0.91680253
3.7580564 -1.4591054 -0.89306945
5.0442204 -1.9584721 -0.90210402
7.7797594 -3.0205741 -0.93020689
8.8393202 -3.4319599 -0.52963889
9.2152119 -3.577904 0
9.1807289 -3.5645154 0.55009562
2.678118 -1.0379463 -0.94706017
3.110117 -1.2053742 -0.92026263
3.7494605 -1.4531617 -0.89081788
5.0406108 -1.9535671 -0.90124726
7.7815828 -3.0158734 -0.93020689
8.8559237 -3.4322512 -0.53050947
9.2100897 -3.5695136 0
9.1780396 -3.557092 0.54980564
2.6908963 -1.0391607 -0.9511342
3.0881724 -1.1925794 -0.91334236
3.7583268 -1.4513772 -0.89250708
5.0453691 -1.9484025 -0.90167648
7.7852211 -3.0064688 -0.93020689
8.8479471 -3.4168684 -0.5297839
9.2216816 -3.5611959 0
9.1847525 -3.5469348 0.5499506
2.678314 -1.0305846 -0.94624597
3.1106815 -1.1969547 -0.91957116
3.7553303 -1.4450082 -0.89138025
5.0453172 -1.9413803 -0.90124726
7.7888484 -2.9970596 -0.93020689
8.8617697 -3.4099076 -0.53036445
9.2211246 -3.5481832 0
9.1987324 -3.5395668 0.55053115
2.6241701 -1.0061121 -0.92668682
3.114466 -1.1940924 -0.92026263
3.7570736 -1.4404695 -0.89138025
5.0572467 -1.9389585 -0.90295917
7.7924638 -2.9876461 -0.93020689
8.8683071 -3.4001267 -0.53050947
9.2302608 -3.5389004 0
9.203002 -3.5284493 0.55053115
2.6415482 -1.0091156 -0.93239236
3.1065412 -1.1867507 -0.91749668
3.7635632 -1.437744 -0.89250708
5.0547948 -1.931016 -0.90210402
7.7936544 -2.9773061 -0.92991889
8.8699846 -3.3884821 -0.53036445
9.2248058 -3.5240297 0
9.204834 -3.5164003 0.55038619
2.6820321 -1.0208691 -0.94624597
3.1009367 -1.1803179 -0.91541952
3.7795413 -1.438617 -0.89588332
5.0619178 -1.9267315 -0.90295917
7.7996612 -2.968806 -0.93020689
8.8619318 -3.3731413 -0.52963889
9.2412157 -3.517509 0
9.2090759 -3.5052755 0.55038619
2.6601584 -1.008865 -0.93809789
3.1047039 -1.1774589 -0.91611099
3.759897 -1.4259409 -0.89081788
5.0642424 -1.9206138 -0.90295917
7.8032427 -2.9593797 -0.93020689
8.8708563 -3.3642719 -0.52992892
9.2430286 -3.5054183 0
9.2157316 -3.4950662 0.55053115
2.6868012 -1.0152576 -0.94706017
3.108469 -1.1745926 -0.91680253
3.7639918 -1.422294 -0.89138025
5.0641603 -1.9135866 -0.90253162
7.8019786 -2.948122 -0.92963088
8.8822088 -3.356307 -0.53036445
9.2521305 -3.496089 0
9.2199488 -3.4839282 0.55053115
2.7065308 -1.0189773 -0.9535799
3.1122406 -1.1717222 -0.91749668
3.7704682 -1.4195372 -0.89250708
5.0616684 -1.905659 -0.90167648
7.8103714 -2.9405136 -0.93020689
8.8813992 -3.3437428 -0.53007448
9.2587814 -3.4858232 0
9.2241516 -3.4727852 0.55053115
2.7031362 -1.0139717 -0.95195156
3.1253967 -1.1723655 -0.92095679
3.7674179 -1.4131937 -0.89138025
5.0711708 -1.9022437 -0.90295917
7.8139186 -2.9310741 -0.93020689
8.8805618 -3.331182 -0.5297839
9.2508059 -3.4700637 0
9.2283411 -3.461637 0.55053115
2.7136114 -1.0141625 -0.95520824
3.1409066 -1.1738563 -0.92510843
3.7810211 -1.4130872 -0.89419413
5.0686612 -1.8943192 -0.90210402
7.8223052 -2.9234431 -0.93078405
8.8870125 -3.321358 -0.52992892
9.2549915 -3.4588835 0
9.2349482 -3.4513927 0.55067617
2.7078927 -1.0082979 -0.9527657
3.1235139 -1.1630567 -0.91957116
3.7779679 -1.406746 -0.89306945
5.0661302 -1.8864 -0.90124726
7.8161359 -2.9103789 -0.92963088
8.8983269 -3.3133383 -0.53036445
9.2689199 -3.4513307 0
9.2366791 -3.4393256 0.55053115
2.6627634 -0.98783195 -0.9364664
3.1343255 -1.1627721 -0.9223398
3.7772851 -1.4012972 -0.89250708
5.0852556 -1.8865281 -0.90424347
7.8269148 -2.9036288 -0.9304949
8.9072008 -3.3043933 -0.53065503
9.2779589 -3.4419372 0
9.2383947 -3.4272594 0.55038619
2.7195947 -1.0051786 -0.9560256
3.1074901 -1.1485471 -0.91403389
3.7789755 -1.3967321 -0.89250708
5.0899372 -1.8812714 -0.90467101
7.8352747 -2.8959646 -0.93107206
8.9014378 -3.290025 -0.53007448
9.2796726 -3.4298227 0
9.2449636 -3.4169941 0.55053115
2.7092128 -0.99762225 -0.95195156
3.1371264 -1.1551943 -0.9223398
3.775887 -1.3904072 -0.89138025
5.0873933 -1.8733474 -0.90381593
7.8290596 -2.88292 -0.92991889
8.92735 -3.2873471 -0.53138059
9.2886896 -3.4204042 0
9.2515221 -3.406718 0.55067617
2.6709719 -0.97987735 -0.93809789
3.1502941 -1.1557223 -0.92579997
3.7894893 -1.3902185 -0.89419413
5.0824208 -1.8645456 -0.90253162
7.8349628 -2.8743479 -0.93020689
8.933753 -3.2774518 -0.53152555
9.2879333 -3.4073873 0
9.2507572 -3.3937488 0.55038619
2.700002 -0.98682749 -0.94787437
3.1493342 -1.1510545 -0.92510843
3.7792361 -1.3812783 -0.89138025
5.0943146 -1.8619281 -0.90424347
7.8481479 -2.8684304 -0.93136007
8.937706 -3.2666547 -0.53152555
9.2920437 -3.396162 0
9.2597275 -3.3843508 0.55067617
2.6802928 -0.97595429 -0.94054043
3.1436484 -1.1446724 -0.92303127
3.7809024 -1.3767108 -0.89138025
5.0965605 -1.8557712 -0.90424347
7.8394585 -2.8545215 -0.92991889
8.9465256 -3.2576294 -0.53181559
9.2888021 -3.3822598 0
9.2686977 -3.3749394 0.55096674
2.6855323 -0.97602493 -0.94217193
3.1419837 -1.1419169 -0.9223398
3.7817333 -1.3744262 -0.89138025
5.100091 -1.8535678 -0.90467101
7.8484764 -2.8524361 -0.93078405
8.9484921 -3.2522237 -0.53181559
9.2957401 -3.378427 0
9.2756147 -3.3711126 0.55125672
2.7145972 -0.9828766 -0.95195156
3.1339257 -1.1347032 -0.91957116
3.7810044 -1.3689916 -0.89081788
5.1095705 -1.8500266 -0.90595531
7.8567767 -2.8447101 -0.93136007
8.9450922 -3.2387574 -0.53138059
9.3022604 -3.3680775 0
9.2747993 -3.3581347 0.55096674
2.7227511 -0.98210925 -0.9543941
3.1329367 -1.1300652 -0.91887969
3.7946045 -1.3687319 -0.89363176
5.0997305 -1.8394971 -0.90381593
7.8529067 -2.8325808 -0.9304949
8.9661026 -3.2341158 -0.53239614
9.3112154 -3.3585997 0
9.2764091 -3.3460448 0.55082172
2.7076604 -0.97297031 -0.94869167
3.1461024 -1.13052 -0.9223398
3.7986443 -1.3650043 -0.89419413
5.104363 -1.834201 -0.90424347
7.8611965 -2.824841 -0.93107206
8.9602222 -3.2197649 -0.53181559
9.3079262 -3.3447087 0
9.2804451 -3.3348336 0.55082172
2.6762516 -0.95803416 -0.9372806
3.1521947 -1.1284103 -0.92372543
3.7931211 -1.3578467 -0.89250708
5.1138287 -1.8306284 -0.90552777
7.864604 -2.8153403 -0.93107206
8.9567738 -3.206311 -0.53138059
9.3193045 -3.3360882 0
9.2844677 -3.3236175 0.55082172
2.7169812 -0.9689123 -0.9511342
3.1370125 -1.1187011 -0.91887969
3.7971501 -1.3541151 -0.89306945
5.1015244 -1.8192728 -0.90295917
7.8631229 -2.8040962 -0.9304949
8.9728765 -3.1998494 -0.5321061
9.3282356 -3.3265753 0
9.3007116 -3.3167598 0.55154729
2.7111697 -0.96314889 -0.94869167
3.1809099 -1.1300251 -0.93133724
3.7987835 -1.349526 -0.89306945
5.1061449 -1.8139691 -0.90338838
7.8860035 -2.8015199 -0.93280125
8.9669428 -3.1855257 -0.53152555
9.3297987 -3.3144312 0
9.294919 -3.3020399 0.55096674
2.7216516 -0.96317053 -0.95195156
3.1491671 -1.1144649 -0.92164832
3.8004112 -1.3449349 -0.89306945
5.1131682 -1.8095092 -0.90424347
7.8771939 -2.7876754 -0.93136007
8.9707851 -3.1746886 -0.53152555
9.3264341 -3.30055 0
9.3013487 -3.2916725 0.55111176
2.6948414 -0.95002019 -0.94217193
3.1481476 -1.1098256 -0.92095679
3.7948422 -1.3378067 -0.89138025
5.1153512 -1.8033296 -0.90424347
7.8927507 -2.7824543 -0.93280125
8.9770622 -3.1647098 -0.53167057
9.3279629 -3.2884138 0
9.3102255 -3.2821608 0.55140227
2.7076449 -0.95085722 -0.94624597
3.1684227 -1.1126708 -0.92649412
3.7964561 -1.3332205 -0.89138025
5.119946 -1.7979971 -0.90467101
7.8839073 -2.7686312 -0.93136007
8.9857883 -3.1555841 -0.53196114
9.3442049 -3.2814512 0
9.3141842 -3.2709088 0.55140227
2.6971292 -0.94350505 -0.94217193
3.1508203 -1.1022145 -0.92095679
3.8028655 -1.3303118 -0.89250708
5.1148524 -1.7892689 -0.90338838
7.8945737 -2.7616661 -0.93222523
8.9871349 -3.1438639 -0.53181559
9.3432455 -3.2684379 0
9.3230305 -3.2613664 0.55169231
2.7216024 -0.94837683 -0.95032007
3.1497738 -1.0975786 -0.92026263
3.7996669 -1.324042 -0.89138025
5.1218543 -1.784775 -0.90424347
7.8954649 -2.7512746 -0.93193722
8.9860239 -3.1312938 -0.53152555
9.347188 -3.2571459 0
9.3269644 -3.2500989 0.55169231
2.7274208 -0.94671017 -0.95195156
3.1463623 -1.0921282 -0.91887969
3.8060694 -1.3211179 -0.89250708
5.1288624 -1.7802702 -0.90510023
7.8963327 -2.7408819 -0.93164808
8.9947062 -3.1221364 -0.53181559
9.3560381 -3.2475576 0
9.3284321 -3.2379756 0.55154729
2.719219 -0.94018328 -0.94869167
3.1524172 -1.0899637 -0.92026263
3.8100619 -1.3173475 -0.89306945
5.1261525 -1.7723924 -0.90424347
7.8996387 -2.7313387 -0.93164808
9.0058413 -3.1138139 -0.53225112
9.3599558 -3.2362504 0
9.3347912 -3.2275498 0.55169231
2.7507305 -0.94735903 -0.95928544
3.1561108 -1.0869731 -0.92095679
3.8020413 -1.3094332 -0.89081788
5.1331496 -1.7678705 -0.90510023
7.9102721 -2.7243192 -0.93251324
9.0120516 -3.103775 -0.53239614
9.3589334 -3.2232418 0
9.3411388 -3.2171135 0.55183727
2.7226093 -0.9303202 -0.94869167
3.1729677 -1.0842085 -0.92510843
3.8075967 -1.3010622 -0.89138025
5.1422606 -1.7571191 -0.90595531
7.9143877 -2.7043595 -0.93222523
9.0219917 -3.08283 -0.53254169
9.3740854 -3.203141 0
9.3488865 -3.1945302 0.55183727
2.756484 -0.93817723 -0.96009964
3.1529028 -1.0730995 -0.91887969
3.809166 -1.2964605 -0.89138025
5.1443796 -1.7509043 -0.90595531
7.9200954 -2.6956272 -0.93251324
9.0257101 -3.0719264 -0.53254169
9.3804102 -3.1926496 0
9.355197 -3.184068 0.55198228
2.6616468 -0.90231192 -0.92668682
3.1494498 -1.0676798 -0.91749668
3.8179512 -1.2943051 -0.89306945
5.1610742 -1.7496306 -0.90852231
7.9257941 -2.6868849 -0.93280125
9.0343332 -3.0626853 -0.53283167
9.3719397 -3.1771359 0
9.3664227 -3.1752653 0.55241787
2.734772 -0.92526007 -0.95195156
3.1500945 -1.0657768 -0.91749668
3.8091049 -1.2887409 -0.89081788
5.1475449 -1.7415775 -0.90595531
7.9151683 -2.6779523 -0.93136007
9.0509453 -3.0622215 -0.53370225
9.3886538 -3.1764791 0
9.3732662 -3.1712732 0.55270839
2.6867042 -0.90538073 -0.93483806
3.1371109 -1.0571613 -0.91334236
3.8202908 -1.2873831 -0.89306945
5.1472149 -1.7345375 -0.90552777
7.9110427 -2.6659076 -0.9304949
9.0595684 -3.0529442 -0.53399283
9.3875475 -3.1634688 0
9.3746223 -3.1591129 0.55256283
2.7065325 -0.90842229 -0.94135463
3.1835773 -1.068538 -0.92649412
3.8146148 -1.2803397 -0.89138025
5.1614728 -1.7324002 -0.90766722
7.8897424 -2.6481183 -0.92761254
9.0804968 -3.0477839 -0.53500891
9.3987675 -3.1546085 0
9.3809032 -3.1486125 0.55270839
2.6466861 -0.88477862 -0.92016709
3.1658316 -1.0583272 -0.92095679
3.816159 -1.2757297 -0.89138025
5.1538239 -1.7229067 -0.90595531
7.9027486 -2.6418633 -0.92876571
9.089097 -3.0384557 -0.53529894
9.4223185 -3.1498506 0
9.3822289 -3.1364489 0.55256283
2.7274802 -0.90812534 -0.94787437
3.1623428 -1.0529146 -0.91957116
3.8273408 -1.2743284 -0.89363176
5.160778 -1.7183015 -0.90681207
7.901022 -2.6306767 -0.92818856
9.092761 -3.0274711 -0.53529894
9.4038963 -3.1310649 0
9.3835487 -3.12429 0.55241787
2.749687 -0.91182989 -0.95520824
3.1898088 -1.0577797 -0.9271856
3.8312871 -1.2705019 -0.89419413
5.1652846 -1.7128717 -0.90723968
7.9164772 -2.625201 -0.92963088
9.1062784 -3.0197535 -0.53587949
9.4150763 -3.122155 0
9.3873177 -3.1129496 0.55241787
2.7108915 -0.89533049 -0.94135463
3.1720269 -1.0476304 -0.92164832
3.8207583 -1.261888 -0.89138025
5.169786 -1.7074335 -0.90766722
7.9147267 -2.6140096 -0.92905372
9.1123857 -3.0095623 -0.53602445
9.4188423 -3.1107764 0
9.388607 -3.1007903 0.55227286
2.7260628 -0.89668941 -0.94624597
3.1732905 -1.0437969 -0.92164832
3.8222802 -1.2572705 -0.89138025
5.1669726 -1.6995829 -0.90681207
7.881032 -2.592324 -0.92473018
9.1135492 -2.9977384 -0.53587949
9.4225941 -3.0993931 0
7.7608581 -2.5527949 0.45634082
2.713047 -0.88877672 -0.94135463
3.1578584 -1.034494 -0.91680253
3.8286304 -1.2542346 -0.89250708
5.1617017 -1.6909401 -0.90552777
7.8644948 -2.5763576 -0.92242384
7.7714515 -2.5458772 -0.45678252
9.4560108 -3.097728 0
7.7589936 -2.5417962 0.45605025
2.7258744 -0.88933313 -0.94543183
3.1638808 -1.0322354 -0.91818815
3.8253074 -1.2480298 -0.89138025
5.1735029 -1.6878868 -0.90723968
7.8135009 -2.5492022 -0.91608083
7.7572274 -2.5308428 -0.45576638
7.7130861 -2.5164413 0
7.747242 -2.5275848 0.45517969
2.7527971 -0.89443803 -0.9543941
3.1627419 -1.0276371 -0.91749668
3.8413165 -1.2481194 -0.89475864
5.1804171 -1.6832194 -0.90809476
7.7944388 -2.5325668 -0.91348648
7.7775812 -2.5270894 -0.45678252
7.7482953 -2.5175738 0
7.7379365 -2.5142078 0.45445415
2.6762769 -0.86600131 -0.92750102
3.1568184 -1.021497 -0.91541952
3.8283122 -1.2387819 -0.89138025
5.1946564 -1.6809095 -0.91023421
7.7802744 -2.517575 -0.91146928
7.7880483 -2.5200906 -0.45721805
7.7686667 -2.513819 0
7.7483783 -2.5072539 0.45488915
2.7032008 -0.87110656 -0.9364664
3.1843097 -1.026144 -0.92303127
3.8273902 -1.2333766 -0.89081788
5.1820283 -1.6699089 -0.90766722
7.7759228 -2.5057914 -0.91060412
7.7787237 -2.5066941 -0.45649251
7.7444487 -2.4956489 0
7.7687168 -2.5034695 0.45590526
2.7724974 -0.88974094 -0.96009964
3.187943 -1.0230644 -0.92372543
3.836138 -1.2310811 -0.89250708
5.1791587 -1.6620789 -0.90681207
7.778945 -2.4963939 -0.91060412
7.7718506 -2.4941173 -0.45591196
7.7548947 -2.4886758 0
7.7544146 -2.4885218 0.45488915
2.6676292 -0.8525331 -0.92342699
3.1796181 -1.0161568 -0.92095679
3.8327775 -1.2248966 -0.89138025
5.1982727 -1.6612877 -0.90980661
7.7745624 -2.4846301 -0.90973896
7.7773309 -2.4855149 -0.45605695
7.7455039 -2.4753435 0
7.7277145 -2.4696581 0.45314747
2.8052549 -0.89278179 -0.97069341
3.1880085 -1.0145944 -0.92303127
3.8415208 -1.2225769 -0.89306945
5.1953883 -1.6534498 -0.90895152
7.7800303 -2.4760208 -0.9100281
7.7555728 -2.4682369 -0.45460585
7.7336049 -2.4612455 0
7.7505016 -2.4666231 0.45430857
2.7568555 -0.87371141 -0.9535799
3.179666 -1.0077099 -0.92026263
3.8284576 -1.2133269 -0.88969105
5.1729069 -1.6394141 -0.90467101
7.7904062 -2.4689603 -0.91089213
7.7907481 -2.4690688 -0.45649251
7.7688222 -2.4621198 0
7.6544046 -2.4258583 0.44850355
2.7479565 -0.86906457 -0.95032007
3.2089782 -1.0148665 -0.9285686
3.84131 -1.2148468 -0.89250708
5.2008219 -1.644804 -0.90937907
7.7968335 -2.4658146 -0.91146928
7.8120584 -2.4706297 -0.45765361
7.7355738 -2.4464407 0
9.4445353 -2.9869144 0.55328894
2.7490046 -0.86574358 -0.95032007
3.1814871 -1.0019451 -0.92026263
3.8476176 -1.2117295 -0.89363176
5.2028055 -1.6385187 -0.90937907
7.8220081 -2.4633837 -0.91406363
9.1359816 -2.8771932 -0.53500891
9.4760561 -2.9842927 0
9.4431763 -2.9739377 0.55299842
2.7618382 -0.86611849 -0.9543941
3.1755209 -0.99585027 -0.91818815
3.8442347 -1.2055603 -0.89250708
5.2072287 -1.6329982 -0.90980661
7.8965478 -2.4763746 -0.92242384
9.1493692 -2.8692622 -0.53558946
9.4846172 -2.9743965 0
9.451726 -2.9640818 0.55328894
2.7676058 -0.86425561 -0.9560256
3.1838992 -0.99425387 -0.92026263
3.8408332 -1.1993983 -0.89138025
5.2116461 -1.6274697 -0.91023421
7.9587784 -2.4853318 -0.92934173
9.1429081 -2.8551066 -0.53500891
9.4906855 -2.9637091 0
9.4553003 -2.9526591 0.55328894
2.7332437 -0.84990191 -0.94380033
3.1850982 -0.99040598 -0.92026263
3.8471367 -1.1962669 -0.89250708
5.2087111 -1.6196482 -0.90937907
7.9963579 -2.4864669 -0.9333784
9.151309 -2.8455987 -0.53529894
9.4942598 -2.9522393 0
9.4563732 -2.9404583 0.55314338
2.7744038 -0.85902554 -0.95765394
3.2126567 -0.99471968 -0.92787707
3.8485794 -1.1916175 -0.89250708
5.2155638 -1.6148704 -0.91023421
8.0092392 -2.4798629 -0.93453157
9.1448116 -2.8314648 -0.53471833
9.5027971 -2.942306 0
9.459919 -2.9290299 0.55314338
2.754185 -0.84911966 -0.95032007
3.1802969 -0.98049074 -0.91818815
3.8500164 -1.1869663 -0.89250708
5.2150607 -1.6078117 -0.90980661
8.0146999 -2.4709449 -0.93481958
9.1382942 -2.8173509 -0.53413779
9.4988823 -2.9285207 0
9.4584894 -2.9160678 0.55285341
2.7150438 -0.83346134 -0.9364664
3.217447 -0.9876886 -0.9285686
3.8465853 -1.1808207 -0.89138025
5.2120962 -1.6000038 -0.90895152
8.0201492 -2.4620171 -0.93510759
9.154109 -2.8101189 -0.53486335
9.5198317 -2.9223878 0
9.4669695 -2.9061606 0.55314338
2.6806009 -0.81934518 -0.92424428
3.1826572 -0.97280234 -0.91818815
3.8480091 -1.176172 -0.89138025
5.2213836 -1.5959538 -0.91023421
8.0181761 -2.450814 -0.93453157
9.1550159 -2.7982972 -0.53471833
9.5134001 -2.90784 0
9.4754496 -2.89624 0.55343395
2.750149 -0.83697093 -0.94787437
3.2030308 -0.97479945 -0.92372543
3.8615792 -1.1752198 -0.89419413
5.2282243 -1.5911399 -0.91109097
8.0260763 -2.4426284 -0.93510759
9.1608734 -2.7879889 -0.53486335
9.5293531 -2.9001307 0
9.4789419 -2.8847888 0.55343395
2.7511582 -0.83364725 -0.94787437
3.1826 -0.96438146 -0.91749668
3.8508403 -1.1668694 -0.89138025
5.2129436 -1.5796096 -0.90809476
8.0290213 -2.4329288 -0.93510759
9.1642361 -2.7769177 -0.53486335
9.5403252 -2.8908792 0
9.4898834 -2.8755944 0.55386955
2.7497995 -0.82960922 -0.94706017
3.2077768 -0.96778005 -0.92441696
3.8619778 -1.1651512 -0.89363176
5.2271342 -1.5770164 -0.91023421
8.0319557 -2.4232254 -0.93510759
9.1601286 -2.7635932 -0.53442836
9.5313559 -2.8755915 0
9.4834003 -2.8611236 0.55328894
2.7105613 -0.81419909 -0.93320656
3.199333 -0.96101648 -0.92164832
3.8585205 -1.1590234 -0.89250708
5.2241235 -1.5692236 -0.90937907
8.0497446 -2.4179845 -0.93683791
9.1759014 -2.7562597 -0.53515393
9.5348234 -2.8640728 0
9.4868507 -2.8496625 0.55328894
2.7944155 -0.83570743 -0.96172798
3.2125075 -0.96074343 -0.92510843
3.8477392 -1.1507181 -0.88969105
5.2284727 -1.563645 -0.90980661
8.0402632 -2.4045486 -0.9353956
9.1841993 -2.7466581 -0.5354439
9.5457497 -2.8547845 0
9.4952612 -2.8396852 0.55357897
2.7385802 -0.81540549 -0.94217193
3.199244 -0.95256692 -0.92095679
3.8564351 -1.1482439 -0.89138025
5.2377419 -1.5595247 -0.91109097
8.050602 -2.3970468 -0.93626076
9.1900091 -2.7363024 -0.53558946
9.5491924 -2.8432484 0
9.4986849 -2.8282099 0.55357897
2.779846 -0.82403684 -0.9560256
3.2100139 -0.95155263 -0.92372543
3.867564 -1.146472 -0.89363176
5.2371635 -1.5524658 -0.91066337
8.0485382 -2.3858488 -0.93568474
9.2007751 -2.7274094 -0.53602445
9.565094 -2.8354053 0
9.5070829 -2.8182089 0.55386955
2.7618754 -0.81508064 -0.94950587
3.2159691 -0.94909209 -0.92510843
3.8689466 -1.1417979 -0.89363176
5.231647 -1.543956 -0.90937907
8.0638161 -2.3797817 -0.93712592
9.1990852 -2.7148206 -0.53573447
9.5610323 -2.8216381 0
9.5104809 -2.8067195 0.55386955
2.7581108 -0.81034809 -0.94787437
3.2387743 -0.95156962 -0.93133724
3.853256 -1.1321077 -0.88969105
5.2532125 -1.5434226 -0.91280282
8.0691652 -2.3707647 -0.93741393
9.1998682 -2.7029715 -0.53558946
9.5744228 -2.8130178 0
9.5163565 -2.7959576 0.5540145
2.7657175 -0.81076813 -0.95032007
3.2104592 -0.94114381 -0.92303127
3.875891 -1.1362146 -0.89475864
5.2442904 -1.53736 -0.91109097
8.0557079 -2.3615251 -0.93568474
9.206481 -2.6988735 -0.53587949
9.5761204 -2.8072329 0
9.5155525 -2.7894776 0.55386955
2.8022871 -0.81781274 -0.96254528
3.2067821 -0.93585962 -0.92164832
3.8748147 -1.1308167 -0.89419413
5.2412109 -1.5295824 -0.91023421
8.0684872 -2.3546882 -0.93683791
9.2022505 -2.6855626 -0.5354439
9.579505 -2.79566 0
9.5214081 -2.7787051 0.5540145
2.7890277 -0.81028748 -0.95765394
3.2151403 -0.93408459 -0.92372543
3.8688653 -1.1240093 -0.89250708
5.250453 -1.5253975 -0.91151851
8.0762892 -2.346379 -0.93741393
9.2079906 -2.6751685 -0.53558946
9.5828762 -2.7840829 0
9.5272522 -2.7679224 0.55415952
2.7662663 -0.80005133 -0.94950587
3.2138495 -0.92950004 -0.92303127
3.8750978 -1.1207442 -0.89363176
5.2522922 -1.5190524 -0.91151851
8.089057 -2.339493 -0.9385671
9.201232 -2.6611528 -0.53500891
9.5912285 -2.7739465 0
9.5430679 -2.7600176 0.55488509
2.7221012 -0.78371501 -0.93402076
3.2246139 -0.92839247 -0.92579997
3.8593547 -1.1111395 -0.88969105
5.2615271 -1.5148362 -0.91280282
8.0918779 -2.3297174 -0.9385671
9.1944523 -2.6471574 -0.53442836
9.5920753 -2.761636 0
9.5364075 -2.745609 0.55430454
2.7325501 -0.78314912 -0.9372806
3.2233238 -0.92380494 -0.92510843
3.8753545 -1.110677 -0.89306945
5.2534823 -1.5056486 -0.91109097
8.0922031 -2.3192263 -0.93827909
9.1901484 -2.6338973 -0.53399283
9.5903969 -2.7486086 0
9.5522051 -2.7376628 0.55503011
2.7334945 -0.77984679 -0.9372806
3.2220275 -0.91922188 -0.92441696
3.8840263 -1.1080855 -0.89475864
5.2577643 -1.5000033 -0.91151851
8.104949 -2.3122852 -0.93943226
9.1883221 -2.6213639 -0.53370225
9.6087313 -2.7413037 0
9.5480165 -2.7239823 0.55459505
2.7962475 -0.79409736 -0.95846814
3.2231359 -0.91532803 -0.92441696
3.8902462 -1.1047785 -0.89588332
5.2669835 -1.4957538 -0.91280282
8.1002703 -2.3003697 -0.9385671
9.1989841 -2.6123898 -0.53413779
9.5995216 -2.7261374 0
9.5487947 -2.7117317 0.5544495
2.7567744 -0.77928907 -0.94461447
3.2532096 -0.91962212 -0.93272287
3.8866928 -1.0986961 -0.89475864
5.2564378 -1.4858977 -0.91066337
8.108017 -2.2919862 -0.93914312
9.2121353 -2.6041002 -0.53471833
9.6178293 -2.7187824 0
9.5495663 -2.6994855 0.55430454
2.7838876 -0.78332216 -0.9535799
3.2253385 -0.90753627 -0.92441696
3.8880174 -1.093999 -0.89475864
5.265636 -1.4816291 -0.91194606
8.1058054 -2.2807877 -0.9385671
9.2252808 -2.5957825 -0.53529894
9.6161022 -2.7057507 0
9.5553198 -2.688648 0.5544495
2.7491295 -0.76995844 -0.94135463
3.2336824 -0.90566891 -0.92649412
3.8844383 -1.0879284 -0.89363176
5.2624831 -1.4738823 -0.91109097
8.1060677 -2.2702949 -0.93827909
9.2459278 -2.5895398 -0.53631502
9.6068268 -2.690618 0
9.563571 -2.6785033 0.55474007
2.8071976 -0.782565 -0.96091378
3.2347744 -0.901761 -0.92649412
3.8833048 -1.0825524 -0.89306945
5.2716808 -1.4695911 -0.91237527
8.103817 -2.2591083 -0.93770194
9.2590618 -2.5811572 -0.53689557
9.6200991 -2.6818037 0
9.5642996 -2.6662483 0.55459505
2.770035 -0.76859921 -0.94787437
3.2310221 -0.89650893 -0.92510843
3.8846102 -1.0778594 -0.89306945
5.2783952 -1.4645917 -0.91323036
8.1165094 -2.2520809 -0.93885511
9.2721901 -2.5727465 -0.53747612
9.6283522 -2.6715705 0
9.5725174 -2.6560781 0.55488509
2.8019311 -0.77380437 -0.95846814
3.234519 -0.89327139 -0.92579997
3.8908033 -1.0745163 -0.89419413
5.2826328 -1.4588954 -0.9136579
8.1217155 -2.24296 -0.93914312
9.2827988 -2.5636141 -0.53791118
9.6340799 -2.6606269 0
9.5782223 -2.6452007 0.55503011
2.7504377 -0.75600791 -0.94054043
3.2380219 -0.89002931 -0.92649412
3.8920989 -1.0698142 -0.89419413
5.272018 -1.4491102 -0.91151851
8.1194372 -2.231775 -0.9385671
9.2934084 -2.5544624 -0.53834671
9.6272497 -2.646225 0
9.5814114 -2.6336253 0.55503011
2.7823391 -0.7611618 -0.9511342
3.2197361 -0.88082016 -0.92095679
3.9056406 -1.0684624 -0.897008
5.2836695 -1.4454484 -0.91323036
8.1296148 -2.2240109 -0.93943226
9.2989922 -2.5439162 -0.53849173
9.640481 -2.6373372 0
9.5871 -2.6227338 0.55517566
2.8118742 -0.76559108 -0.96091378
3.2328992 -0.88022381 -0.92441696
3.9069288 -1.0637424 -0.897008
5.2829375 -1.4383893 -0.91280282
8.1347895 -2.214865 -0.93972027
9.2970495 -2.5313146 -0.53820169
9.6511965 -2.6277385 0
9.5927668 -2.6118298 0.55532062
2.7817872 -0.75378996 -0.95032007
3.2339604 -0.87631685 -0.92441696
3.8959513 -1.0556988 -0.89419413
5.2846718 -1.4320049 -0.91280282
8.1424475 -2.2063859 -0.94029629
9.3076277 -2.5221186 -0.53863728
9.6845074 -2.6242428 0
9.6184855 -2.6063526 0.55662674
2.7492914 -0.74141979 -0.93891209
3.2301676 -0.8711009 -0.92303127
3.8996844 -1.051654 -0.89475864
5.2888741 -1.4262861 -0.91323036
8.1476116 -2.197221 -0.94058543
9.3232098 -2.5142524 -0.53936285
9.7932014 -2.6409981 0
9.7119455 -2.6190851 0.5618518
2.8237212 -0.75966197 -0.96417367
3.2306933 -0.86914921 -0.92303127
3.9027703 -1.0499572 -0.89532095
5.2847819 -1.4217581 -0.91237527
8.1439381 -2.190953 -0.94000828
9.3272343 -2.5092938 -0.53950781
9.8551006 -2.651305 0
9.8038483 -2.6375165 0.56707627
2.8365722 -0.75944501 -0.96824771
3.2584012 -0.8723827 -0.93064576
3.904036 -1.0452408 -0.89532095
5.2864962 -1.4153713 -0.91237527
8.1540775 -2.1831183 -0.94087344
9.3377924 -2.5000384 -0.5399434
9.8507624 -2.6373777 0
9.8170681 -2.6283567 0.56765682
2.8016703 -0.74647385 -0.9560256
3.2449124 -0.86457074 -0.92649412
3.9028432 -1.0398692 -0.89475864
5.2882023 -1.4089826 -0.91237527
8.149209 -2.1712658 -0.94000828
9.3357792 -2.4874144 -0.53965282
9.7910757 -2.6087229 0
9.7424078 -2.5957561 0.56315792
2.7977877 -0.74181992 -0.9543941
3.2629225 -0.86514819 -0.93133724
3.9090044 -1.0364537 -0.89588332
5.2948589 -1.4039063 -0.91323036
8.1593294 -2.1634068 -0.94087344
9.3488245 -2.478796 -0.54023337
9.7338467 -2.5808828 0
9.6576262 -2.5606732 0.55807787
2.815413 -0.74285334 -0.96009964
3.2397125 -0.85480577 -0.92441696
3.9151628 -1.0330249 -0.897008
5.3015203 -1.3988186 -0.91408712
8.1694422 -2.1555266 -0.94173861
9.3643732 -2.4708118 -0.54095894
9.6992102 -2.5591595 0
9.6205235 -2.5383978 0.55575621
2.7947955 -0.7338025 -0.9527657
3.2480249 -0.85280257 -0.92649412
3.9090424 -1.0263596 -0.89532095
5.2932749 -1.3898041 -0.91237527
8.1745396 -2.1463101 -0.94202662
9.3623304 -2.4581766 -0.54066896
9.6821671 -2.5421531 0
9.6286058 -2.52809 0.55604619
2.8085189 -0.73015529 -0.95683974
3.2646401 -0.84873712 -0.93064576
3.9188817 -1.018826 -0.897008
5.3015823 -1.3782989 -0.91323036
8.1797028 -2.1265492 -0.94202662
9.3682432 -2.4355443 -0.54066896
9.6857567 -2.518091 0
9.6371994 -2.5054672 0.55619121
0 -0 -0
3.2875202 -0.85044599 -0.93687451
3.9151947 -1.0128186 -0.89588332
5.3131852 -1.3744636 -0.91494226
8.1797647 -2.1160169 -0.94173861
9.3762054 -2.425523 -0.54095894
9.6887922 -2.5063858 0
9.6427422 -2.4944735 0.55633676
2.8653207 -0.73753482 -0.97558159
3.2666817 -0.84084529 -0.93064576
3.918874 -1.0087199 -0.89644563
5.3223023 -1.3699629 -0.91622657
8.1823158 -2.1061316 -0.94173861
9.3866816 -2.4161358 -0.54139447
9.6918135 -2.4946771 0
9.6432257 -2.4821706 0.55619121
2.7728379 -0.71015841 -0.94380033
3.2628391 -0.83565384 -0.92926276
3.92009 -1.003984 -0.89644563
5.3065438 -1.3590721 -0.91323036
8.1898613 -2.0975256 -0.94231462
9.3870792 -2.4041481 -0.54124951
9.7049055 -2.4855473 0
9.6638412 -2.4750302 0.55720729
2.8263807 -0.72023338 -0.96172798
3.2516842 -0.82861143 -0.92579997
3.9360783 -1.0030124 -0.89982402
5.3081822 -1.3526592 -0.91323036
8.1973972 -2.0889044 -0.94289064
9.3874617 -2.3921628 -0.5411045
9.707901 -2.473819 0
9.6643085 -2.4627106 0.55706233
2.7865226 -0.70649201 -0.94787437
3.2332284 -0.8197493 -0.92026263
3.9274354 -0.99575782 -0.89757252
5.3122988 -1.3468746 -0.9136579
8.1999159 -2.0789979 -0.94289064
9.3978939 -2.3827322 -0.54153949
9.7184534 -2.4640064 0
9.6748266 -2.4529452 0.55749732
2.7130885 -0.68438572 -0.92261279
3.260977 -0.82259244 -0.92787707
3.9261649 -0.99038827 -0.897008
5.3164186 -1.3410844 -0.91408712
8.1949053 -2.0671923 -0.94202662
9.42344 -2.3770943 -0.54284561
9.7214241 -2.4522619 0
9.682827 -2.4425256 0.5577879
2.800215 -0.70276594 -0.95195156
3.2643995 -0.81926167 -0.9285686
3.9199724 -0.9837898 -0.89532095
5.3205223 -1.3352839 -0.91451466
8.209938 -2.0604362 -0.9434678
9.4363861 -2.3682363 -0.54342616
9.7294235 -2.4417794 0
9.6807261 -2.4295578 0.55749732
0 -0 -0
3.277555 -0.81835485 -0.93202871
3.926084 -0.98028249 -0.89644563
5.3246202 -1.3294753 -0.91494226
8.2149286 -2.0511405 -0.94375581
9.4342031 -2.3555748 -0.54313618
9.7348995 -2.4306538 0
9.6786175 -2.4166012 0.55720729
0 -0 -0
3.2444594 -0.80592787 -0.9223398
3.9174018 -0.97308767 -0.89419413
5.3212447 -1.321804 -0.91408712
8.2224264 -2.0424612 -0.94433296
9.4446106 -2.3460536 -0.54357171
9.727726 -2.4163797 0
9.6966562 -2.4086618 0.55807787
0 -0 -0
3.2454307 -0.80200702 -0.9223398
3.9259772 -0.97018284 -0.89588332
5.3278174 -1.3166039 -0.91494226
8.2223701 -2.0319023 -0.94404382
9.4474382 -2.3346398 -0.54357171
9.7457924 -2.4083688 0
9.6995592 -2.3969436 0.55807787
2.843956 -0.7009722 -0.96580517
3.2580917 -0.80304748 -0.92579997
3.9339662 -0.96963555 -0.89757252
5.3261218 -1.3127711 -0.91451466
8.2235956 -2.0269344 -0.94404382
9.4337053 -2.3251994 -0.54270059
9.752305 -2.4037273 0
9.685873 -2.3873534 0.55720729
0 -0 -0
3.2809865 -0.80448651 -0.93202871
3.9425311 -0.96669495 -0.89925957
5.3326859 -1.307556 -0.91536981
8.2335777 -2.0188446 -0.94490898
9.4466019 -2.3162742 -0.5432812
9.7425566 -2.3888412 0
9.706419 -2.3799803 0.55822343
2.7567995 -0.67242736 -0.93565226
3.2917056 -0.80289954 -0.93479741
3.9387641 -0.96072739 -0.89813483
5.3342619 -1.3011116 -0.91536981
8.2385216 -2.0095069 -0.94519699
9.4544477 -2.3060908 -0.54357171
9.7530231 -2.3789182 0
9.7092876 -2.3682504 0.55822343
2.8128469 -0.68249834 -0.9543941
3.2804854 -0.79596436 -0.93133724
3.9423888 -0.95656604 -0.8986972
5.3333378 -1.2940606 -0.91494226
8.2384319 -1.9989414 -0.94490898
9.472374 -2.2983403 -0.5444423
9.7685337 -2.3701994 0
9.7146654 -2.3571289 0.55836844
2.82809 -0.68257952 -0.95928544
3.2668171 -0.78846943 -0.9271856
3.9410741 -0.95120615 -0.89813483
5.3423862 -1.2894228 -0.91622657
8.2433538 -1.9895917 -0.94519699
9.4776678 -2.2875021 -0.54458731
9.7764549 -2.3596168 0
9.7200298 -2.3459978 0.5585134
0 -0 -0
3.2555726 -0.7815938 -0.92372543
3.9471574 -0.94762862 -0.89925957
5.3439403 -1.2829666 -0.91622657
8.2432394 -1.9790266 -0.94490898
9.4804249 -2.2760484 -0.54458731
0 -0 0
9.7279148 -2.3354659 0.55880398
0 -0 -0
3.2540674 -0.77707511 -0.92303127
3.9359448 -0.93990827 -0.89644563
5.3379936 -1.2747191 -0.91494226
8.2456245 -1.9690648 -0.94490898
9.4831676 -2.2645917 -0.54458731
9.7644072 -2.3317521 0
9.7256708 -2.3225017 0.5585134
0 -0 -0
3.2623289 -0.7748825 -0.92510843
3.9543848 -0.93926263 -0.90038639
5.3520155 -1.2712339 -0.91708165
8.2454834 -1.958503 -0.94462097
9.4884224 -2.2537313 -0.54473227
9.7748165 -2.3217568 0
9.7259436 -2.3101485 0.55836844
0 -0 -0
3.2608235 -0.77036381 -0.92441696
3.948096 -0.93273067 -0.8986972
5.348556 -1.2635869 -0.91622657
8.2453289 -1.9479444 -0.94433296
9.4860859 -2.241071 -0.5444423
9.7700138 -2.3081484 0
9.7312546 -2.2989917 0.5585134
0 -0 -0
3.2886097 -0.77273399 -0.93202871
3.9492202 -0.9279595 -0.8986972
5.3450761 -1.2559477 -0.91536981
8.2501926 -1.9385712 -0.94462097
9.5014324 -2.2325788 -0.54516786
9.7753267 -2.2969363 0
9.7365522 -2.2878256 0.55865842
0 -0 -0
3.2797787 -0.76647836 -0.92926276
3.9577637 -0.92492217 -0.90038639
5.3490963 -1.2500741 -0.91579902
8.2525282 -1.928601 -0.94462097
9.5091887 -2.2222803 -0.54545838
9.7831678 -2.2863088 0
9.741847 -2.2766521 0.55880398
2.8265374 -0.65695584 -0.95683974
3.2587025 -0.75740153 -0.92303127
3.946506 -0.91726375 -0.89757252
5.3605952 -1.2459323 -0.9175092
8.2548532 -1.918628 -0.94462097
9.5143957 -2.2113762 -0.54560339
9.783391 -2.2738974 0
9.7471199 -2.2654669 0.55894899
0 -0 -0
3.2889473 -0.76024354 -0.93133724
3.9698896 -0.91764408 -0.90263796
5.3546004 -1.2377214 -0.91622657
8.2596827 -1.9092342 -0.94490898
9.5170603 -2.1998785 -0.54560339
9.7937307 -2.2638311 0
9.7498503 -2.2536879 0.55894899
2.8281167 -0.6501233 -0.95683974
3.311866 -0.76132685 -0.93756604
3.9586165 -0.91000092 -0.89982402
5.356092 -1.2312505 -0.91622657
8.2519007 -1.8969347 -0.94375581
9.5222416 -2.1889589 -0.54574841
9.7964592 -2.2519956 0
9.7626953 -2.2442341 0.55952954
0 -0 -0
3.2858882 -0.75117612 -0.92995423
3.9621878 -0.9057827 -0.90038639
5.362576 -1.2259209 -0.91708165
8.2667913 -1.8898441 -0.94519699
9.5223494 -2.176873 -0.54560339
9.7915697 -2.2384186 0
9.7653999 -2.2324362 0.55952954
2.8923378 -0.65753138 -0.97802728
3.2794521 -0.74553627 -0.92787707
3.9583192 -0.89986694 -0.89925957
5.3565512 -1.2177348 -0.91579902
8.2640295 -1.8787082 -0.94462097
9.530035 -2.1665163 -0.54589343
9.7993374 -2.2277384 0
9.7604866 -2.2189062 0.55909401
0 -0 -0
3.304816 -0.74710393 -0.93479741
3.9544516 -0.89396393 -0.89813483
5.3580189 -1.2112616 -0.91579902
8.2738647 -1.870433 -0.94548613
9.5377197 -2.1561468 -0.54618394
9.8045588 -2.2164695 0
9.7732983 -2.2094028 0.55967456
2.8649812 -0.64403492 -0.96824771
3.2910349 -0.73980981 -0.93064576
3.9505661 -0.88806951 -0.897008
5.3619804 -1.2053491 -0.91622657
8.2887335 -1.86327 -0.94692731
9.5428505 -2.14519 -0.54632896
9.8148489 -2.2063339 0
9.7810268 -2.1987307 0.55996454
2.9236474 -0.6535126 -0.98780686
3.2821331 -0.73364365 -0.92787707
3.9640419 -0.88606834 -0.89982402
5.3584175 -1.1977483 -0.91536981
8.2834044 -1.8515601 -0.94606215
9.5505123 -2.1347926 -0.54661953
9.814971 -2.1939058 0
9.7811432 -2.1863444 0.55981952
0 -0 -0
3.3046114 -0.73657221 -0.93410587
3.9744966 -0.8858844 -0.90207559
5.3641562 -1.1956288 -0.91622657
8.2769451 -1.8448668 -0.94519699
9.5670128 -2.1324129 -0.54749006
9.8137569 -2.1874101 0
9.7900734 -2.1821313 0.56025511
2.9055226 -0.64393419 -0.98128718
3.307946 -0.73312098 -0.93479741
3.9581969 -0.87723237 -0.89813483
5.3681011 -1.1897013 -0.91665411
8.2842236 -1.8359847 -0.94577414
9.5949469 -2.1264727 -0.5489412
9.8163919 -2.1755505 0
9.7927027 -2.1703002 0.56025511
2.8580246 -0.62978548 -0.96498787
3.3014865 -0.72750539 -0.93272287
3.9667006 -0.8740899 -0.89982402
5.3720388 -1.183766 -0.91708165
8.2813797 -1.8248593 -0.94519699
9.6203451 -2.1199095 -0.55024731
9.8240919 -2.1648066 0
9.7826319 -2.1556706 0.55952954
0 -0 -0
3.2974572 -0.72244078 -0.93133724
3.9553363 -0.86657578 -0.897008
5.3734655 -1.1772741 -0.91708165
8.306324 -1.8198349 -0.94779247
9.6508226 -2.1144013 -0.551844
9.8343296 -2.1546061 0
9.8004541 -2.1471844 0.56040013
2.845053 -0.61972171 -0.96009964
3.3228452 -0.72379649 -0.9382602
3.9638309 -0.86341876 -0.8986972
5.3824115 -1.17242 -0.91836596
8.3009329 -1.808145 -0.94692731
9.6838369 -2.1093752 -0.55358565
9.8318357 -2.1416128 0
9.7979689 -2.1342359 0.56011009
2.8796136 -0.62360626 -0.97150755
3.286936 -0.7118156 -0.92787707
3.9599094 -0.85755408 -0.89757252
5.3788013 -1.1648278 -0.9175092
8.3106985 -1.7997565 -0.94779247
9.7016115 -2.1009715 -0.55445623
9.8344154 -2.1297314 0
9.820857 -2.1267951 0.56127119
0 -0 -0
3.2927036 -0.70890051 -0.92926276
3.9808147 -0.85704696 -0.90207559
5.3726835 -1.1567085 -0.91622657
8.3153925 -1.7902572 -0.94808048
9.7092285 -2.0903423 -0.55474675
9.852252 -2.1211343 0
9.8208723 -2.1143785 0.56112564
2.8714447 -0.6145764 -0.96824771
3.3180852 -0.71017104 -0.93618304
3.9768734 -0.85117173 -0.90094876
5.3916416 -1.1539751 -0.9192211
8.3124866 -1.7791247 -0.94750333
9.7193623 -2.0802388 -0.5551818
9.8624353 -2.1108608 0
9.8310452 -2.1041424 0.56156123
2.8310902 -0.60236269 -0.9543941
3.2919462 -0.7004177 -0.9285686
3.9878399 -0.84848094 -0.90320027
5.3829885 -1.1453226 -0.9175092
8.329814 -1.77231 -0.94923365
9.7269573 -2.069576 -0.55547231
9.8675318 -2.0994856 0
9.8412075 -2.0938847 0.56199676
0 -0 -0
3.3001559 -0.69799739 -0.93064576
3.9789188 -0.84155869 -0.90094876
5.3969331 -1.141475 -0.91965032
8.3319492 -1.7622437 -0.94923365
9.7294502 -2.0578213 -0.55547231
9.8700609 -2.0875611 0
9.84373 -2.0819919 0.56199676
2.830121 -0.59501129 -0.9535799
3.3083644 -0.69555831 -0.93272287
3.9675024 -0.83413696 -0.89813483
5.3907695 -1.133368 -0.91836596
8.3315344 -1.7516413 -0.94894451
9.7421017 -2.048202 -0.55605286
9.8776646 -2.0767033 0
9.8513193 -2.0711644 0.56228679
0 -0 -0
3.311656 -0.69207299 -0.9334144
3.9660225 -0.82882315 -0.89757252
5.3946457 -1.1273781 -0.91879356
8.3336449 -1.741573 -0.94894451
9.7445688 -2.0364292 -0.55605286
9.8750772 -2.0637028 0
9.8589067 -2.0603237 0.56257731
2.829133 -0.58766806 -0.9527657
3.3051183 -0.68653977 -0.93133724
3.971992 -0.82506287 -0.8986972
5.3985147 -1.1213804 -0.9192211
8.3408127 -1.7325552 -0.94952166
9.7444811 -2.0241253 -0.55590791
9.8699169 -2.0501809 0
9.8588381 -2.0478797 0.56243175
0 -0 -0
3.3034909 -0.6820389 -0.93064576
3.9829397 -0.82231796 -0.90094876
5.3973541 -1.114338 -0.91879356
8.3403692 -1.7219533 -0.94923365
9.7418251 -2.0112977 -0.55561733
9.8800354 -2.0398326 0
9.8587627 -2.0354407 0.56228679
2.7627525 -0.56691837 -0.92994666
3.3313482 -0.68359452 -0.9382602
3.9789569 -0.81648421 -0.89982402
5.3986964 -1.1078156 -0.91879356
8.3449755 -1.7123936 -0.94952166
9.7442484 -1.9995252 -0.55561733
9.8722954 -2.0258007 0
9.8688536 -2.0250943 0.56272233
0 -0 -0
3.2707198 -0.66703612 -0.92095679
3.9923866 -0.81421405 -0.90263796
5.3950057 -1.1002666 -0.91793841
8.3445063 -1.7017928 -0.94923365
9.7466574 -1.9877497 -0.55561733
9.9002314 -2.0190699 0
9.8789339 -2.0147264 0.56315792
0 -0 -0
3.3133202 -0.67155516 -0.93272287
3.9784212 -0.80636007 -0.89925957
5.4063945 -1.0957867 -0.91965032
