# .PCD v0.7 - Point Cloud Data file format
VERSION 0.7
FIELDS x y z
SIZE 4 4 4
TYPE F F F
COUNT 1 1 1
WIDTH 1571
HEIGHT 1
VIEWPOINT 0 0 0 1 0 0 0
POINTS 1571
DATA ascii
-3.681247 6.9526658 -0.87687528
-3.272233 6.1801729 -0.39060226
-4.9447265 9.3389635 0
-0 0 0
-1.3702471 2.5804021 -0.96335948
-1.5643543 2.9459379 -0.92026263
-1.8489984 3.4819701 -0.87337011
-2.6244612 4.9422946 -0.93291605
-3.6872213 6.9436479 -0.87629926
-3.2760458 6.1693363 -0.39016727
-4.9608898 9.3421764 0
-0 0 0
-1.3675561 2.5678391 -0.95928544
-1.5702735 2.9484785 -0.92164832
-1.8555908 3.4842145 -0.87449479
-2.6243987 4.927793 -0.9307766
-3.6810191 6.9117928 -0.87283975
-3.2822728 6.1630731 -0.39002168
-4.9660587 9.3246918 0
-0 0 0
-1.3601789 2.5465658 -0.95195156
-1.573835 2.946579 -0.92164832
-1.8550111 3.4730048 -0.87224323
-2.6315594 4.9268804 -0.9312042
-3.6613443 6.8548732 -0.86620986
-3.2884943 6.1568127 -0.38987669
-4.9834514 9.3301601 0
-5.5212812 10.3371 0.65459102
-1.3667529 2.5514503 -0.9543941
-1.5691007 2.9291928 -0.91680253
-1.8604048 3.4729986 -0.8728056
-2.6387215 4.9259582 -0.93163174
-3.3777404 6.3055558 -0.79731101
-3.2934794 6.1482582 -0.38958669
-5.016839 9.3654213 0
-5.5214953 10.307511 0.65313935
-1.3671268 2.5484483 -0.9535799
-1.5744292 2.9348786 -0.91887969
-1.8613027 3.4696369 -0.87224323
-2.6332059 4.9085345 -0.92863721
-3.3766584 6.2943974 -0.79615784
-3.2898209 6.1325245 -0.38871557
-5.0089669 9.3371687 0
-4.789516 8.928091 0.56591511
-1.3690351 2.54462 -0.9527657
-1.5815413 2.939604 -0.92095679
-1.8727146 3.4808068 -0.87561947
-2.6415651 4.9098663 -0.92949229
-3.3793597 6.2812014 -0.79500467
-3.3058476 6.1445651 -0.38973171
-5.0128446 9.3173532 0
-4.7916813 8.9062777 0.56489903
-1.3814981 2.5603652 -0.95928544
-1.5886625 2.9443083 -0.92303127
-1.8708875 3.4673629 -0.8728056
-2.641402 4.8953772 -0.92735291
-3.3857198 6.2748394 -0.79471666
-3.3058639 6.1268406 -0.38886058
-5.0290427 9.3204508 0
-4.8160129 8.9256382 0.56649566
-1.3704754 2.532609 -0.94950587
-1.5814744 2.9225307 -0.91680253
-1.8714514 3.4584022 -0.87111855
-2.6546433 4.9057236 -0.92991984
-3.3822217 6.2502732 -0.7921223
-3.3256335 6.1456995 -0.39031225
-5.022963 9.2823277 0
-5.8680015 10.843941 0.68869668
-1.3864992 2.5548406 -0.95846814
-1.5897911 2.9294376 -0.91957116
-1.8732026 3.4516675 -0.86999172
-2.6495502 4.8822088 -0.92606854
-3.3897715 6.246182 -0.7921223
-3.3157027 6.1096988 -0.38828003
-5.0068679 9.225934 0
-5.8996921 10.871101 0.69087392
-1.3801374 2.5358045 -0.95195156
-1.606523 2.9517558 -0.9271856
-1.8785855 3.4516313 -0.87055403
-2.6652646 4.8970418 -0.92949229
-3.4109137 6.2670646 -0.79529274
-3.3268104 6.1125369 -0.38871557
-5.018012 9.2198772 0
-5.9252429 10.886784 0.69232506
-1.3772763 2.5232816 -0.94787437
-1.5944642 2.9211872 -0.91818815
-1.8851917 3.4538236 -0.87168092
-2.6687224 4.8893151 -0.92863721
-2.9587698 5.4207053 -0.68834257
-3.3379297 6.1153574 -0.38915113
-5.0116906 9.1818218 0
-5.9458652 10.893306 0.69319618
-1.3898184 2.5389597 -0.9543941
-1.6040146 2.9302597 -0.92164832
-1.8869212 3.4470813 -0.87055403
-2.6746283 4.8860869 -0.92863721
-2.9827023 5.4488854 -0.6923781
-3.3528004 6.1249909 -0.39002168
-5.0165343 9.1643476 0
-5.9677534 10.902061 0.69421172
-1.3821818 2.5177813 -0.94706017
-1.6123832 2.9371161 -0.92441696
-1.8923112 3.4470327 -0.87111855
-2.6718817 4.8670979 -0.925641
-2.9867921 5.4407382 -0.69180101
-3.3439443 6.0913262 -0.38813502
-5.0163336 9.1377497 0
-5.9921746 10.915341 0.69551784
-1.3828412 2.5117831 -0.94543183
-1.608669 2.9219751 -0.92026263
-1.8940216 3.4402876 -0.86999172
-2.6876652 4.881856 -0.92906475
-2.9958613 5.4416614 -0.6923781
-3.3563147 6.0963864 -0.38871557
-5.0349045 9.1453648 0
-6.0166416 10.928586 0.69682449
-1.3990127 2.5339053 -0.9543941
-1.6182649 2.9310169 -0.92372543
-1.8932647 3.4290991 -0.86774015
-2.6799123 4.8538823 -0.9243567
-2.9961846 5.4267182 -0.69093692
-2.9931951 5.4213033 -0.34590152
-5.0384011 9.1255999 0
-6.0336065 10.928125 0.69725949
-1.4044702 2.5365417 -0.9560256
-1.6084365 2.9049146 -0.91611099
-1.8949474 3.4223673 -0.86661547
-2.6919916 4.8618674 -0.92649615
-3.0039914 5.4253545 -0.69122493
-3.018625 5.4517837 -0.34807876
-5.0494242 9.1195059 0
-6.0518413 10.92992 0.69784009
-1.4255285 2.5672488 -0.96824771
-1.6204717 2.9183242 -0.92095679
-1.90648 3.4333994 -0.86999172
-2.7016039 4.8653464 -0.92778045
-3.001754 5.40589 -0.68920666
-3.0100729 5.4208713 -0.34633708
-3.9790297 7.1658754 0
-6.0890121 10.965765 0.70059788
-1.3889493 2.4942672 -0.94135463
-1.611789 2.8944414 -0.91403389
-1.9044474 3.4199958 -0.86717778
-2.7024851 4.8531075 -0.92606854
-3.0170934 5.4180794 -0.69122493
-3.0140948 5.4126945 -0.34604707
-3.9952798 7.1747003 0
-6.0997267 10.953855 0.70030731
-1.4100393 2.5249579 -0.9535799
-1.618956 2.899065 -0.91611099
-1.9135338 3.4265659 -0.86942935
-2.7183602 4.8677688 -0.92949229
-3.0211182 5.4099174 -0.69064891
-3.0193622 5.4067731 -0.34590152
-4.0140972 7.1880455 0
-6.1205621 10.960093 0.70117843
-1.4275814 2.54913 -0.96335948
-1.6224577 2.8971066 -0.91611099
-1.913947 3.4175982 -0.86774015
-2.7217336 4.8600054 -0.92863721
-3.0301781 5.4107723 -0.69122493
-0 0 -0
-4.0431256 7.2195206 0
-6.1503048 10.98216 0.7030651
-1.3919314 2.4784429 -0.9372806
-1.6333257 2.9082644 -0.92026263
-1.9193181 3.4174964 -0.86830252
-2.7188036 4.841043 -0.925641
-3.0443106 5.4206338 -0.69295418
-0 0 -0
-4.1028166 7.3053865 0
-6.1750207 10.995109 0.70437121
-1.4143313 2.5112159 -0.95032007
-1.6319188 2.8975534 -0.91749668
-1.9209547 3.4107513 -0.86717778
-2.7334704 4.8534136 -0.92863721
-3.0572081 5.428226 -0.69439644
-0 0 -0
-4.1869869 7.4342051 0
-6.1972237 11.003481 0.70538676
-1.4149359 2.5052052 -0.94869167
-1.6317163 2.889024 -0.91541952
-1.9250746 3.4084277 -0.86717778
-2.7380667 4.8478656 -0.92820799
-3.0650356 5.4267778 -0.69468445
-0 0 -0
-4.1959667 7.4291406 0
-6.2309608 11.032186 0.70770901
-1.4301405 2.5249956 -0.95683974
-1.6401515 2.8957822 -0.91818815
-1.9291916 3.4060991 -0.86717778
-2.7439225 4.8445535 -0.92820799
-3.0626662 5.4073143 -0.69266617
-3.0276444 5.3454809 -0.3431443
-4.1792884 7.3787751 0
-4.9355841 8.7140589 0.55938452
-1.4185421 2.4974761 -0.94706017
-1.6386931 2.8850725 -0.91541952
-1.9282861 3.394928 -0.86492628
-2.7447028 4.8323059 -0.92649615
-3.048759 5.3676252 -0.68805349
-3.0353832 5.3440762 -0.34328929
-4.2331891 7.4529252 0
-6.276854 11.050988 0.70988625
-1.4411314 2.5301228 -0.96009964
-1.6446589 2.8874459 -0.91680253
-1.9374171 3.401427 -0.86717778
-2.7467318 4.8223004 -0.92521346
-3.6223152 6.359519 -0.81576061
-3.0431232 5.3426604 -0.3434343
-4.2396126 7.4432778 0
-6.3004909 11.06146 0.71104735
-1.4334453 2.5060563 -0.95195156
-1.6424183 2.8713984 -0.91265088
-1.9385326 3.3890877 -0.86492628
-2.7541893 4.8150797 -0.92478424
-3.6364067 6.3574381 -0.81633776
-3.0437741 5.3213539 -0.34241873
-4.2530966 7.4355812 0
-6.3385887 11.081594 0.71307904
-1.4229438 2.480737 -0.94298613
-1.6471336 2.8715858 -0.91334236
-1.9401002 3.382339 -0.8638016
-2.7663953 4.8228884 -0.9269253
-3.6492333 6.3620138 -0.81749094
-3.0502019 5.3176723 -0.34241873
-4.2465391 7.403347 0
-6.3571453 11.082944 0.71365958
-1.4345679 2.4940152 -0.94869167
-1.6518519 2.8717661 -0.91403389
-1.9479827 3.3865936 -0.86548859
-2.7645385 4.8061867 -0.9243567
-3.6582062 6.3598394 -0.81777894
-3.0592136 5.3184829 -0.34270874
-4.2347245 7.3621244 0
-6.3912621 11.111293 0.71598178
-1.4511611 2.5158246 -0.95765394
-1.6440402 2.8502116 -0.90780509
-1.9508049 3.3820384 -0.86492628
-2.770344 4.8028426 -0.9243567
-3.6710577 6.3643765 -0.81893212
-3.0552511 5.2967758 -0.34154761
-4.2319102 7.3367066 0
-6.4098763 11.112566 0.71656239
-1.4331633 2.4777002 -0.94380033
-1.6600467 2.8699439 -0.91472805
-1.953619 3.3774815 -0.86436391
-2.7748611 4.7972717 -0.92392915
-3.685219 6.3711286 -0.8203733
-3.0590496 5.2885861 -0.34125763
-4.2538052 7.3541198 0
-6.4311028 11.118303 0.71743292
-1.4473158 2.4952064 -0.9511342
-1.6584783 2.8592553 -0.91195935
-1.9551464 3.3707182 -0.86323708
-2.7806556 4.7939157 -0.92392915
-3.6981056 6.3756208 -0.82152647
-3.0641351 5.2826405 -0.34111261
-4.2561607 7.3377209 0
-6.45366 11.126261 0.71844906
-1.4379052 2.472095 -0.94298613
-1.6619319 2.8572493 -0.91195935
-1.9668856 3.381536 -0.86661547
-2.7864461 4.7905521 -0.92392915
-3.7045074 6.3689141 -0.82123846
-3.071821 5.2811785 -0.34125763
-4.2637115 7.3303165 0
-6.4866924 11.152141 0.7206257
-1.4433793 2.4746218 -0.94461447
-1.6628526 2.8509007 -0.91057372
-1.9645703 3.3681848 -0.8638016
-2.2412834 3.8425994 -0.74162412
-3.7200167 6.3778338 -0.82296765
-3.0834367 5.2864408 -0.34183818
-4.2581458 7.3004375 0
-6.5093284 11.160008 0.72164184
-1.4488665 2.4771469 -0.94624597
-1.6738983 2.861887 -0.91472805
-1.9686387 3.3658085 -0.8638016
-2.2485194 3.8443244 -0.74248087
-3.7146642 6.3510122 -0.82008529
-2.2856731 3.9078469 -0.25287229
-4.2695894 7.2997751 0
-6.5319929 11.167838 0.72265792
-1.4668638 2.500978 -0.9560256
-1.6672013 2.84255 -0.90919071
-1.9675622 3.3546605 -0.86155003
-0 0 -0
-2.2712274 3.8724043 -0.50038481
-2.2667332 3.8647418 -0.25026006
-2.2469182 3.8309579 0
-6.5559993 11.177868 0.72381908
-1.4661244 2.4928102 -0.9535799
-1.6757221 2.8491836 -0.91195935
-1.9741881 3.3566568 -0.86267471
-0 0 -0
-2.2641048 3.8495941 -0.49779046
-2.2819347 3.8799098 -0.25142062
-2.2766147 3.8708644 0
-6.5826712 11.192331 0.72527015
-1.4565821 2.4697516 -0.94543183
-1.6740657 2.8385129 -0.90919071
-1.979532 3.3564553 -0.86323708
-0 0 -0
-0 0 -0
-2.2905824 3.8838663 -0.25185618
-2.2614579 3.8344834 0
-6.6093879 11.206747 0.72672129
-1.47592 2.4956443 -0.9560256
-1.6774943 2.836488 -0.90919071
-1.9835862 3.3540611 -0.86323708
-0 0 -0
-0 0 -0
-2.3085034 3.903466 -0.25330785
-0 0 0
-6.6282148 11.207699 0.72730184
-1.47767 2.4917271 -0.95520824
-1.6873176 2.8452463 -0.91265088
-1.9915268 3.3582203 -0.86492628
-2.2730119 3.8328757 -0.74290842
-0 0 -0
-0 0 -0
-0 0 0
-6.6470542 11.208622 0.72788239
-1.4718403 2.4750752 -0.94950587
-1.6817771 2.828109 -0.90780509
-1.9838961 3.3361583 -0.85986084
-2.2723932 3.8213007 -0.74119657
-0 0 -0
-0 0 -0
-0 0 0
-6.6605926 11.200583 0.72788239
-1.4647031 2.4563124 -0.94298613
-1.6787698 2.8153031 -0.90434492
-1.9918311 3.340308 -0.86155003
-2.3046172 3.8648517 -0.75018346
-2.2846739 3.8314064 -0.49721441
-0 0 -0
-0 0 0
-6.64884 11.150128 0.72512519
-1.4714764 2.4609067 -0.94543183
-1.6795979 2.8089705 -0.90296191
-1.9984711 3.3422561 -0.86267471
-2.3659303 3.9567974 -0.76858485
-2.2946112 3.8375227 -0.49836758
-2.3180068 3.8766496 -0.25229171
-0 0 0
-6.6489701 11.119781 0.72367352
-1.4769883 2.4633625 -0.94706017
-1.7113702 2.8542709 -0.91818815
-1.9998974 3.3354847 -0.86155003
-2.3693907 3.951736 -0.7681573
-2.2886059 3.8170009 -0.49606124
-2.3173444 3.8649316 -0.25171116
-0 0 0
-6.6637411 11.113974 0.72381908
-1.4672308 2.4403977 -0.93891209
-1.7083557 2.8414526 -0.91472805
-1.9999973 3.3265307 -0.85986084
-2.4059095 4.0016713 -0.77842849
-2.2865541 3.8031514 -0.49462005
-2.328706 3.8732615 -0.25243673
-2.2790623 3.7906907 0
-6.6731477 11.099231 0.72338349
-1.4956956 2.4809489 -0.95520824
-1.7117877 2.8393865 -0.91472805
-1.9987677 3.3154075 -0.85760933
-2.4094138 3.9965568 -0.77799928
-3.2632749 5.412878 -0.70448583
-3.1664681 5.2523026 -0.34256375
-5.1616502 8.5617619 0
-6.6583819 11.04443 0.72033572
-1.4692868 2.4304974 -0.9364664
-1.7061309 2.8222852 -0.90988225
-2.0053988 3.3173349 -0.85873401
-2.4155729 3.9958458 -0.77842849
-3.2818544 5.4288502 -0.70708019
-3.1647491 5.2351346 -0.34169319
-5.1571856 8.5310268 0
-6.6676879 11.029703 0.71990013
-1.4888771 2.4561951 -0.94706017
-1.727744 2.8502529 -0.91957116
-2.0120425 3.3192592 -0.85986084
-2.4243877 3.9995034 -0.77971119
-3.2977982 5.4403658 -0.70909852
-3.168376 5.2268586 -0.34140262
-5.1701851 8.5292358 0
-6.6850524 11.028307 0.72033572
-1.4852307 2.4468439 -0.94380033
-1.7073368 2.8127525 -0.90780509
-2.0127304 3.3158729 -0.85929853
-2.4281394 4.0002389 -0.78014034
-3.3024251 5.4405813 -0.70938653
-3.1796257 5.2382751 -0.34227374
-5.1712847 8.519434 0
-6.6930609 11.026484 0.72048074
-1.4984665 2.4619377 -0.95032007
-1.7120373 2.8128283 -0.90849656
-2.0167353 3.3134387 -0.85929853
-2.4289658 3.9907212 -0.77885604
-3.3089967 5.4365869 -0.70938653
-3.2251248 5.2987881 -0.3464821
-5.1721072 8.4976244 0
-6.6753106 10.967344 0.71714294
-1.5040178 2.4643488 -0.95195156
-1.7206626 2.8193235 -0.91126519
-2.0220599 3.3131661 -0.85986084
-2.4377992 3.9943593 -0.78014034
-3.3142173 5.4303789 -0.70909852
-3.2789049 5.3725195 -0.35156211
-5.1850801 8.4958076 0
-6.7007394 10.979231 0.71844906
-1.5069944 2.4625297 -0.95195156
-1.7279978 2.8236639 -0.91334236
-2.0260618 3.3107204 -0.85986084
-2.437264 3.9826524 -0.77842849
-3.3396752 5.4572525 -0.71313405
-3.3030252 5.3973641 -0.35344878
-5.1885509 8.4784393 0
-6.7099304 10.964475 0.71801347
-1.4841151 2.4185748 -0.93565226
-1.7261599 2.8130207 -0.91057372
-2.0300608 3.30827 -0.85986084
-2.4420745 3.9797044 -0.77842849
-3.3381526 5.43999 -0.71140486
-3.306824 5.3889356 -0.35315824
-5.193347 8.4632912 0
-6.735404 10.97629 0.71931958
-1.5025792 2.4420402 -0.94543183
-1.7216719 2.7981169 -0.90642208
-2.0327263 3.3036525 -0.85929853
-2.4428444 3.9701896 -0.77714419
-3.3664052 5.4711905 -0.71601647
-3.3228662 5.4004297 -0.35417435
-5.2035694 8.4570093 0
-6.72824 10.934954 0.71714294
-1.5223986 2.467566 -0.9560256
-1.7250516 2.7960346 -0.90642208
-2.0420532 3.3098438 -0.86155003
-2.4516847 3.9737914 -0.77842849
-3.3852351 5.486928 -0.71861082
-3.3293891 5.3964105 -0.35417435
-5.2055879 8.4374313 0
-6.7196178 10.891433 0.71482068
-1.5084763 2.4384019 -0.94543183
-1.7337084 2.8024821 -0.90919071
-2.0340164 3.2879202 -0.85648245
-2.449728 3.9599042 -0.77628744
-3.4163585 5.5224304 -0.7238006
-3.3413754 5.4012227 -0.35475489
-5.2144113 8.4289236 0
-6.7532749 10.916446 0.71699739
-1.5140246 2.4407742 -0.94706017
-1.7344459 2.7961173 -0.90780509
-2.0353115 3.2811458 -0.85535777
-2.4572198 3.9613085 -0.77714419
-3.4407518 5.5468698 -0.72754812
-3.3533781 5.406014 -0.35533544
-5.2204757 8.4159803 0
-6.7322187 10.853077 0.71336901
-1.5039214 2.4179595 -0.93891209
-1.7404758 2.7982843 -0.90919071
-2.0392747 3.2786841 -0.85535777
-2.46065 3.9561589 -0.77671665
-3.4597447 5.5624733 -0.73014247
-3.3626499 5.4063668 -0.35562545
-5.2278891 8.405242 0
-6.7659149 10.878034 0.71554625
-1.5173053 2.4329178 -0.94543183
-1.7265983 2.768508 -0.90019327
-2.0459213 3.2805254 -0.85648245
-2.4654286 3.9531827 -0.77671665
-3.4691982 5.5626736 -0.73071855
-3.37468 5.411119 -0.356206
-5.2339139 8.3923006 0
-5.1153364 8.2021685 0.53993666
-1.5189296 2.4289811 -0.94461447
-1.7419124 2.7855618 -0.90642208
-2.045846 3.271594 -0.85479546
-2.4702034 3.9502008 -0.77671665
-0 0 -0
-3.3798397 5.4048362 -0.35606101
-5.2399096 8.3793488 0
-5.1555505 8.2444468 0.5431295
-1.5152998 2.4166758 -0.94054043
-1.7546022 2.7983272 -0.91126519
-2.0511463 3.2712705 -0.85535777
-2.4736071 3.9450319 -0.77628744
-3.4675207 5.5301752 -0.72754812
-3.3946474 5.4139533 -0.35693157
-5.2514114 8.3752136 0
-5.159987 8.2294054 0.54254889
-1.5182188 2.4148431 -0.94054043
-1.7499729 2.7834659 -0.90711355
-2.0537462 3.2666407 -0.85479546
-2.475642 3.9376979 -0.77543229
-3.4728251 5.5237937 -0.72726011
-3.4108691 5.4252481 -0.35794768
-5.2546029 8.3578482 0
-5.1782222 8.2363586 0.54341948
-1.5132298 2.400466 -0.93565226
-1.753335 2.7813494 -0.90711355
-2.0549793 3.2598536 -0.85366857
-2.4817657 3.9368732 -0.77585989
-3.4781137 5.5173993 -0.72697103
-3.4077208 5.4057341 -0.35693157
-5.2660847 8.3536921 0
-5.2463665 8.3224134 0.54951507
-1.5332954 2.4257939 -0.94624597
-1.7513326 2.7707462 -0.90434492
-2.0589166 3.2573681 -0.85366857
-2.4865208 3.9338715 -0.77585989
-3.488925 5.5197539 -0.72783613
-3.4086967 5.3928266 -0.35635102
-5.2817364 8.356123 0
-5.2911263 8.3709784 0.55314338
-1.5269624 2.4093239 -0.94054043
-1.7546793 2.7686279 -0.90434492
-2.0655739 3.2591746 -0.85479546
-2.4912722 3.9308643 -0.77585989
-3.4900537 5.5067954 -0.72668296
-3.4110415 5.3821259 -0.35591602
-5.3015828 8.3651247 0
-5.2664633 8.3097115 0.54951507
-1.5338506 2.4137373 -0.94298613
-1.7660941 2.7792063 -0.90849656
-2.0695107 3.2566762 -0.85479546
-2.4960201 3.9278512 -0.77585989
-3.4856071 5.4851103 -0.72437662
-3.4231167 5.3867726 -0.35649657
-5.3270364 8.3828678 0
-7.3306274 11.53581 0.76343977
-1.5327803 2.4056268 -0.94054043
-1.7573193 2.7580302 -0.90226775
-2.0679827 3.2456017 -0.85254389
-2.4980083 3.9205067 -0.77500474
-3.4713883 5.4481812 -0.72005308
-3.4463787 5.4089298 -0.35823825
-5.3399615 8.3808184 0
-7.3780718 11.579537 0.76692313
-1.5316979 2.3975306 -0.93809789
-1.7782078 2.7833867 -0.91126519
-2.0773747 3.2516656 -0.85479546
-2.5013576 3.9153159 -0.77457553
-3.46822 5.4287229 -0.71803474
-3.4794877 5.4463601 -0.36099547
-5.3570881 8.3853235 0
-7.3850646 11.559668 0.76619756
-1.5239283 2.3790281 -0.93157816
-1.7572144 2.7432148 -0.89880764
-2.0730762 3.2363114 -0.85141706
-2.5019367 3.905812 -0.7732929
-3.4719894 5.4201765 -0.71745872
-3.4860659 5.4421515 -0.36099547
-5.3644114 8.3744659 0
-7.4298592 11.598868 0.76939034
-1.538707 2.3989072 -0.93972629
-1.784608 2.7822771 -0.91195935
-2.0736606 3.2329218 -0.85085469
-2.5029058 3.9021327 -0.77286369
-3.4752634 5.4180779 -0.71745872
-3.4837415 5.4312959 -0.36041492
-5.384922 8.3953142 0
-7.4382668 11.596562 0.76953536
-1.5509644 2.4115999 -0.94543183
-1.7825404 2.7716784 -0.90919071
-2.0789385 3.232549 -0.85141706
-2.511786 3.9055851 -0.77414799
-3.4860008 5.4203949 -0.71832281
-3.4593823 5.3790059 -0.35722214
-5.3838 8.3712902 0
-7.4607038 11.600675 0.77040589
-1.5284264 2.3702555 -0.92994666
-1.7763697 2.7547615 -0.90434492
-2.088351 3.2385762 -0.85366857
-2.5123284 3.8960729 -0.77286369
-3.5023611 5.431397 -0.72034109
-3.4377155 5.3311462 -0.35431933
-4.1189957 6.3876629 0
-7.4775348 11.596024 0.77069646
-1.5634962 2.4182208 -0.94950587
-1.7769754 2.7484035 -0.90296191
-2.0950243 3.2403221 -0.85479546
-2.5198245 3.8973498 -0.77372044
-3.5117271 5.4315009 -0.72091717
-3.445564 5.3291683 -0.35446432
-4.1606178 6.4351244 0
-7.4873071 11.580432 0.77026093
-1.5623823 2.4101059 -0.94706017
-1.7789264 2.7441432 -0.90226775
-2.0920286 3.2271299 -0.85198152
-2.5273221 3.8986063 -0.77457553
-3.526732 5.44028 -0.72264743
-3.4661381 5.3468089 -0.35591602
-4.1499882 6.4017053 0
-6.7253437 10.374407 0.69058341
-1.5531719 2.3895674 -0.93972629
-1.780875 2.7398903 -0.90157628
-2.0973098 3.2267282 -0.85254389
-2.5250373 3.8847899 -0.77243614
-3.5333028 5.4360147 -0.72264743
-3.4612675 5.3251877 -0.35475489
-4.1676497 6.411963 0
-6.7392941 10.368458 0.69072896
-1.561456 2.3959718 -0.94298613
-1.7855527 2.7398362 -0.90226775
-2.0984299 3.2199299 -0.85141706
-2.5283291 3.8795874 -0.7720086
-4.1428437 6.3569746 -0.84574193
-3.484724 5.3471251 -0.35649657
-4.1711302 6.4003792 0
-6.7560697 10.366832 0.69116396
-1.5670513 2.3982174 -0.94461447
-1.7902381 2.739783 -0.90296191
-2.0967596 3.2088838 -0.8491655
-2.5372288 3.8829787 -0.7732929
-4.1491084 6.3498011 -0.84545392
-3.5338204 5.4081635 -0.36085048
-4.1902494 6.4127636 0
-6.7643309 10.352141 0.69072896
-1.5564058 2.3756518 -0.9364664
-1.7935474 2.737618 -0.90296191
-2.1062052 3.2148495 -0.85141706
-2.5334754 3.8670223 -0.77072424
-4.1511083 6.3361292 -0.84430075
-3.6072757 5.5060391 -0.36767161
-4.2051249 6.4185781 0
-6.7668653 10.328744 0.68971282
-1.5633473 2.3799689 -0.93891209
-1.7968539 2.7354486 -0.90296191
-2.1059072 3.2059371 -0.84973001
-2.5466051 3.8768358 -0.7732929
-4.1615982 6.3354282 -0.84487677
-3.6025131 5.484302 -0.36651048
-4.2114496 6.4113193 0
-6.7722092 10.309703 0.68898726
-1.5689383 2.3822024 -0.94054043
-1.798774 2.7311742 -0.90226775
-2.1125717 3.2076302 -0.85085469
-2.5470505 3.8673222 -0.7720086
-4.167829 6.3282371 -0.84458876
-3.5991313 5.4647527 -0.36549437
-4.2134676 6.3975325 0
-6.7989507 10.323209 0.69043839
-1.5581986 2.359684 -0.93239236
-1.7993106 2.7248158 -0.90088481
-2.1122444 3.1987123 -0.8491655
-2.5488951 3.8599615 -0.77115345
-4.1726193 6.3188753 -0.8440116
-3.5842581 5.4278808 -0.3633177
-4.2398362 6.4206667 0
-6.9030528 10.453753 0.69972676
-1.5583172 2.3536737 -0.93076086
-1.8192213 2.7477419 -0.90919071
-2.1217186 3.2046323 -0.85141706
-2.5563889 3.8611557 -0.7720086
-4.175972 6.3073654 -0.84314758
-3.5535204 5.367218 -0.35954437
-0 0 0
-5.2560849 7.9387622 0.53180945
-1.5625309 2.3538542 -0.93157816
-1.8211485 2.7434454 -0.90849656
-2.1185644 3.1914835 -0.84860313
-2.5553734 3.849509 -0.77029669
-4.185019 6.3044677 -0.84343559
-3.5743713 5.3845649 -0.36099547
-0 0 0
-5.2599254 7.9237461 0.5312289
-1.5722197 2.3622503 -0.93565226
-1.8133473 2.7245431 -0.90296191
-2.1252372 3.193156 -0.84973001
-2.5600231 3.8464186 -0.77029669
-4.189765 6.2950959 -0.84285843
-3.5808749 5.3802423 -0.36099547
-0 0 0
-5.2824516 7.936851 0.53253502
-1.5750729 2.3603489 -0.93565226
-1.8152416 2.7202573 -0.90226775
-2.1305032 3.192697 -0.85029233
-2.5675213 3.8475971 -0.77115345
-4.1988082 6.2921863 -0.84314758
-3.581604 5.3672657 -0.36041492
-4.2303715 6.3394861 0
-5.2891507 7.9261355 0.53224444
-1.5724262 2.3502271 -0.93239236
-1.8255011 2.7284856 -0.90572792
-2.1357708 3.1922302 -0.85085469
-2.5707369 3.8423524 -0.77072424
-4.2121611 6.2957072 -0.84430075
-3.5938663 5.371573 -0.36099547
-4.23948 6.3365393 0
-5.2828341 7.8959885 0.53064835
-1.5656253 2.3339553 -0.92668682
-1.8176214 2.7096183 -0.90019327
-2.1339645 3.1812069 -0.84860313
-2.5753777 3.8392434 -0.77072424
-4.2197652 6.2906132 -0.84430075
-3.6003542 5.3672266 -0.36099547
-4.2804742 6.381115 0
-5.2967091 7.8960671 0.53108335
-1.5808572 2.3505182 -0.93402076
-1.8180912 2.7032526 -0.89880764
-2.1335514 3.1722989 -0.84691393
-2.575721 3.8297443 -0.7694416
-4.2215891 6.2769246 -0.84314758
-3.6155348 5.3758049 -0.36186603
-4.3056102 6.4018526 0
-5.5440583 8.2432556 0.55488509
-1.5850821 2.3506613 -0.93483806
-1.8325771 2.7176943 -0.90434492
-2.1430652 3.1781452 -0.8491655
-2.5832143 3.8308821 -0.77029669
-4.2335043 6.2782464 -0.8440116
-0 0 -0
-4.3308024 6.4225388 0
-5.5787096 8.2731733 0.5573523
-1.5921082 2.3518741 -0.9364664
-1.8346897 2.7102172 -0.90296191
-2.1445529 3.1679497 -0.84747845
-2.5800786 3.8113112 -0.76730055
-4.2477794 6.2748508 -0.84458876
-0 0 -0
-4.3424358 6.4146786 0
-5.5835032 8.2479925 0.55633676
-1.5893968 2.3417685 -0.93320656
-1.8252791 2.6893101 -0.89673048
-2.1469481 3.1632476 -0.84691393
-2.5890083 3.8145652 -0.76858485
-4.2539067 6.2675757 -0.84430075
-3.6484532 5.3755188 -0.36288214
-4.2961087 6.3297548 0
-5.5905437 8.2369356 0.55604619
-1.5922253 2.3398464 -0.93320656
-1.8299427 2.6891828 -0.89742464
-2.1522024 3.1627579 -0.84747845
-2.59073 3.8071935 -0.7677297
-4.2658381 6.2688398 -0.84516478
-3.6534853 5.3689604 -0.36273715
-4.2612958 6.2621651 0
-5.5917244 8.217289 0.55517566
-1.5825161 2.3195474 -0.92587262
-1.8331908 2.6869698 -0.89742464
-2.1603143 3.1664457 -0.8491655
-2.6011152 3.8125427 -0.7694416
-4.2763276 6.2679582 -0.84574193
-3.6658278 5.3731279 -0.3633177
-4.2189937 6.1839218 0
-5.5884705 8.1912098 0.55386955
-1.5936875 2.3298697 -0.93076086
-1.8392662 2.68889 -0.89880764
-2.1670105 3.1680315 -0.85029233
-2.6013708 3.8030384 -0.7681573
-4.285357 6.2649193 -0.84602994
-3.6723175 5.3686943 -0.3633177
-4.2205853 6.1702271 0
-5.5763569 8.1522789 0.55169231
-1.5867203 2.3136799 -0.92505848
-1.8311627 2.670114 -0.89327031
-2.1593404 3.1486471 -0.84578925
-2.6016071 3.7935393 -0.76687294
-4.3031654 6.2746701 -0.84804827
-3.683212 5.3706841 -0.36375326
-4.2633638 6.2166333 0
-5.5553427 8.1005354 0.54864448
-1.5951163 2.3199074 -0.92831832
-1.8457588 2.6844375 -0.89880764
-2.1674635 3.1523187 -0.84747845
-2.6018243 3.784045 -0.76558864
-4.3092742 6.2673287 -0.84775913
-3.6911697 5.3683686 -0.36389828
-4.2679205 6.2071843 0
-5.5474601 8.0681229 0.54690284
-1.5909055 2.3078058 -0.92424428
-1.8475785 2.6801417 -0.89811611
-2.1727116 3.1517875 -0.84804082
-2.604939 3.7787869 -0.7651611
-4.3197827 6.2663803 -0.84833628
-3.699127 5.3660421 -0.36404327
-4.3034835 6.2427363 0
-5.5572047 8.0614147 0.54690284
-1.6007179 2.316046 -0.92831832
-1.8565211 2.6861625 -0.90088481
-2.1750751 3.1470716 -0.84747845
-2.6124249 3.7798641 -0.76601785
-4.3244076 6.2568965 -0.84775913
-3.7129936 5.3722544 -0.36476883
-4.3184204 6.2482343 0
-5.5654655 8.0525579 0.54675782
-1.5978843 2.305984 -0.92505848
-1.8554776 2.6777291 -0.89880764
-2.1759789 3.1402602 -0.84635162
-2.6184509 3.7788129 -0.7664454
-4.3304925 6.2495427 -0.84747112
-3.7194822 5.367764 -0.36476883
-4.3407869 6.2643991 0
-5.561873 8.0266075 0.5454517
-1.5964377 2.29796 -0.92261279
-1.8529862 2.6672437 -0.89603901
-2.1797719 3.1376288 -0.84635162
-2.6230149 3.7756462 -0.7664454
-4.3336124 6.2379313 -0.84660596
-3.7274463 5.3653979 -0.36491382
-3.8004727 5.4705143 0
-5.5730486 8.0220127 0.54559672
-1.6175759 2.3223932 -0.93320656
-1.8590782 2.6691241 -0.89742464
-2.1806598 3.1308265 -0.84522694
-2.6202407 3.7619436 -0.76430601
-4.3322797 6.2199602 -0.84487677
-3.7517481 5.3864765 -0.3666555
-3.7996445 5.4552426 0
-5.5693731 7.9960852 0.5442906
-1.6161343 2.3143559 -0.93076086
-1.8608614 2.6648128 -0.89673048
-2.1829822 3.1261001 -0.84466243
-2.6262527 3.7608776 -0.76473355
-3.7548921 5.3771253 -0.73100764
-3.7537951 5.3755546 -0.3662205
-3.8107047 5.4570508 0
-5.593905 8.0106497 0.54574174
-1.6019248 2.2881124 -0.92098445
-1.8698353 2.670783 -0.89949912
-2.1867578 3.1234601 -0.84466243
-2.6322658 3.7598023 -0.7651611
-3.7925367 5.4170775 -0.7370615
-3.7602878 5.3710146 -0.3662205
-3.7784855 5.3970075 0
-2.9048488 4.149147 0.28290793
-1.6330822 2.3266275 -0.9372806
-1.8672957 2.6603081 -0.89673048
-2.1919944 3.1229014 -0.84522694
-2.6382804 3.7587183 -0.76558864
-3.7975891 5.410368 -0.73677242
-3.7682662 5.3685918 -0.36636549
-3.8074329 5.4243922 0
-2.9441912 4.1945448 0.2862457
-1.6230919 2.306463 -0.92994666
-1.8719568 2.6601076 -0.89742464
-2.1928389 3.1160905 -0.84410006
-2.6383922 3.7492356 -0.76430601
-3.8041239 5.4057755 -0.73677242
-3.7867136 5.3810349 -0.36752662
-3.8034987 5.4048872 0
-2.9328122 4.1676149 0.28464961
-1.6386999 2.3226743 -0.9372806
-1.8751698 2.6578436 -0.89742464
-2.1966023 3.1134386 -0.84410006
-2.6429205 3.7460449 -0.76430601
-3.7868013 5.3673682 -0.73216081
-3.7887173 5.3700838 -0.36709106
-3.8175325 5.4109263 0
-2.9588144 4.193789 0.28668126
-1.6300869 2.3045497 -0.93076086
-1.8856221 2.6658149 -0.90088481
-2.204766 3.1170075 -0.84578925
-2.6518879 3.74913 -0.76558864
-3.8171763 5.3965664 -0.73677242
-3.8492169 5.441864 -0.37231553
-3.8150477 5.3935571 0
-2.941376 4.1583962 0.28450459
-1.6414514 2.3146789 -0.93565226
-1.8728771 2.641022 -0.89327031
-2.1953039 3.0956893 -0.84072387
-2.6519656 3.7396469 -0.76430601
-3.8281841 5.3982816 -0.73763752
-3.9189167 5.5262275 -0.37841108
-3.8305976 5.4016852 0
-2.9403861 4.1463609 0.28392404
-1.6327897 2.2965789 -0.92913252
-1.8833339 2.6489785 -0.89673048
-2.197572 3.0909657 -0.8401615
-2.6594543 3.7406204 -0.7651611
-3.8137248 5.3641443 -0.73360199
-3.960223 5.570199 -0.38174945
-3.8401349 5.4012904 0
-2.9559293 4.1576233 0.28493959
-1.6413019 2.3026547 -0.93239236
-1.8865334 2.6467009 -0.89673048
-2.1983528 3.084166 -0.83903468
-2.6595066 3.7311389 -0.76387841
-4.3906579 6.1598477 -0.84314758
-3.9624245 5.5590601 -0.38131389
-0 0 0
-2.9700029 4.166748 0.28581071
-1.6398184 2.2976353 -0.93076086
-1.8808464 2.6353524 -0.89327031
-2.195786 3.0766306 -0.83734548
-2.6617601 3.7295315 -0.76387841
-4.3868613 6.1466613 -0.84170526
-3.9642742 5.5545521 -0.38116887
-0 0 0
-2.9830818 4.1797523 0.28682628
-1.6425934 2.2956524 -0.93076086
-1.8738145 2.6188018 -0.8884272
-2.203939 3.0801764 -0.83903468
-2.6602895 3.7179618 -0.76216656
-4.3837543 6.1266379 -0.83968806
-3.9724934 5.5518689 -0.38131389
-0 0 0
-2.9972053 4.188828 0.2876974
-1.6295229 2.2715802 -0.92179859
-1.8798993 2.6206088 -0.8898102
-2.2047 3.073386 -0.83790994
-2.67226 3.725172 -0.76430601
-4.3881354 6.1171293 -0.83911091
-3.9807122 5.5491743 -0.38145888
-3.8432238 5.3575134 0
-3.006804 4.1915312 0.2881324
-1.6293775 2.2655926 -0.92016709
-1.8874602 2.6244476 -0.89188737
-2.2187924 3.0851536 -0.84184855
-2.6722615 3.7156863 -0.76302165
-4.3789163 6.0887303 -0.83594054
-4.0025887 5.5654597 -0.38291055
-3.8512125 5.3549767 0
-3.017935 4.1963334 0.28871295
-1.6451221 2.2816637 -0.92750102
-1.8876926 2.6180911 -0.89050168
-2.2150898 3.0721672 -0.83903468
-2.6767492 3.7124546 -0.76302165
-4.2637486 5.9135065 -0.81259024
-4.0214682 5.5774813 -0.38407168
-3.868336 5.3650985 0
-3.0245273 4.1947975 0.2888585
-1.6377465 2.2656584 -0.92179859
-1.8967335 2.6239412 -0.89327031
-2.2217803 3.0736108 -0.8401615
-2.6782281 3.7050607 -0.76216656
-4.1481581 5.7385621 -0.78923887
-0 0 -0
-3.8870127 5.3772936 0
-3.0295937 4.1911397 0.2888585
-1.6491822 2.275682 -0.92668682
-1.894014 2.6135218 -0.89050168
-2.2210181 3.0647497 -0.83847231
-2.6796873 3.6976607 -0.7613098
-4.1004553 5.6581573 -0.7788614
-0 0 -0
-3.8736558 5.3451996 0
-3.0483773 4.2064104 0.29016462
-1.6533821 2.2756853 -0.92750102
-1.8942242 2.6071758 -0.88911867
-2.2217298 3.0579486 -0.83734548
-2.6856608 3.6964948 -0.76173735
-4.0890455 5.6280885 -0.77540189
-0 0 -0
-3.8954058 5.3615661 0
-3.0519319 4.200624 0.29001963
-1.648856 2.2636986 -0.92342699
-1.9018056 2.6109707 -0.89119583
-2.2269232 3.0573215 -0.83790994
-2.6901252 3.6932471 -0.76173735
-4.0882301 5.6126919 -0.77396071
-4.0499067 5.5600777 -0.38421667
-3.9110718 5.369473 0
-3.0768921 4.2242355 0.2919063
-1.6603385 2.2736847 -0.92831832
-1.8916392 2.5904305 -0.88496441
-2.2276161 3.0505207 -0.83678311
-2.6930735 3.6879227 -0.7613098
-4.0904317 5.6014795 -0.77309555
-4.0382333 5.5299983 -0.38247499
-0 0 0
-3.0850558 4.2247076 0.2921963
-1.6587032 2.2656922 -0.92587262
-1.902182 2.5982699 -0.8884272
-2.2298009 3.0457785 -0.83622074
-2.6990426 3.6867354 -0.76173735
-4.1033087 5.6048808 -0.77424872
-4.8583865 6.6362734 -0.45939475
-0 0 0
-3.0932312 4.225174 0.29248685
-1.6643616 2.2676675 -0.92750102
-1.9008654 2.5899003 -0.88635004
-2.2424972 3.0553684 -0.83959699
-2.7034953 3.6834714 -0.76173735
-4.1054854 5.5936613 -0.77338362
-4.8710155 6.6366849 -0.45983028
-0 0 0
-3.1075561 4.2339983 0.2933574
-1.6568509 2.2517252 -0.92179859
-1.9129117 2.5997219 -0.89050168
-2.2431784 3.0485673 -0.83847231
-2.7033842 3.674005 -0.76045471
-4.1505623 5.6407766 -0.78059059
-4.8713322 6.6203318 -0.45910475
-3.9338961 5.3463187 0
-3.1142082 4.2323313 0.29350242
-1.6757058 2.2715948 -0.93076086
-1.9249902 2.6095259 -0.894656
-2.2408268 3.0376756 -0.83622074
-2.7108665 3.6748636 -0.7613098
-4.3539038 5.902173 -0.81749094
-4.8824105 6.618619 -0.45939475
-3.9326301 5.3310919 0
-3.1301191 4.2432046 0.29451853
-1.6711025 2.2596343 -0.92668682
-1.9176983 2.5930765 -0.8898102
-2.2429862 3.0329249 -0.83565843
-2.712255 3.6674614 -0.76045471
-4.4594545 6.0299926 -0.83594054
-4.9197617 6.6524115 -0.46215254
-3.9344249 5.3200569 0
-3.1445115 4.2519503 0.29538909
-1.6694198 2.2516627 -0.92424428
-1.9163462 2.5847094 -0.88773304
-2.2496731 3.0342908 -0.83678311
-2.7151511 3.6621132 -0.7600255
-4.4852228 6.0495324 -0.83940005
-4.1617846 5.6132884 -0.39031225
-3.9703014 5.355022 0
-3.1511989 4.2502413 0.29553464
-1.6883538 2.2714584 -0.93320656
-1.9254543 2.590446 -0.89050168
-2.2472746 3.0234132 -0.83453155
-2.7165141 3.6547134 -0.75917035
-4.4925294 6.0441084 -0.83940005
-4.157712 5.5936556 -0.38929614
-3.9783201 5.3523073 0
-3.1671784 4.2610226 0.29655021
-1.6733752 2.2456343 -0.92342699
-1.9195917 2.5760515 -0.88635004
-2.2585161 3.0308807 -0.83734548
-2.7193959 3.6493719 -0.75874281
-4.5013733 6.0407476 -0.83968806
-4.1489444 5.5677958 -0.38784501
-3.9770107 5.3370643 0
-3.1769838 4.2634454 0.29698575
-1.671654 2.2376761 -0.92098445
-1.9377146 2.5938249 -0.89327031
-2.2621765 3.0281496 -0.83734548
-2.7222626 3.6440208 -0.7583136
-4.5071225 6.0332341 -0.83940005
-4.172771 5.5856714 -0.38944113
-3.9491873 5.2863822 0
-3.1836867 4.261683 0.29713076
-1.6936162 2.2613707 -0.93157816
-1.9212981 2.5653789 -0.88427287
-2.2551761 3.0111835 -0.83340687
-2.7297444 3.6448421 -0.75917035
-4.5066524 6.0174265 -0.83795774
-4.1779609 5.5785475 -0.38929614
-3.9399743 5.2607799 0
-3.1935084 4.2640748 0.29756632
-1.6711208 2.2257237 -0.91772455
-1.9424723 2.5871303 -0.89257884
-2.2618613 3.0125163 -0.83453155
-2.729521 3.6353807 -0.75788605
-4.5046048 5.9995704 -0.83622855
-4.1862574 5.5755711 -0.38944113
-3.9525783 5.2643399 0
-3.2111397 4.2768364 0.29872742
-1.6798897 2.2345901 -0.92179859
-1.9395109 2.5799384 -0.89050168
-2.2575736 3.0030253 -0.83228004
-2.733258 3.6357808 -0.7583136
-4.5113344 6.0009789 -0.83680457
-4.1833792 5.564733 -0.38886058
-3.946378 5.2494736 0
-3.2230883 4.2873535 0.29959798
-1.6929973 2.2463696 -0.92750102
-1.9381014 2.5715883 -0.8884272
-2.264262 3.0043573 -0.83340687
-2.737649 3.6324756 -0.7583136
-4.512361 5.9872689 -0.83565253
-4.1744637 5.5389271 -0.38740948
-3.9809096 5.2821078 0
-3.2423403 4.3021297 0.3009041
-1.7031645 2.2541881 -0.93157816
-1.9396906 2.5672371 -0.88773304
-2.2755477 3.0117538 -0.83622074
-2.7420361 3.6291652 -0.7583136
-4.5227075 5.9859357 -0.83622855
-4.1780238 5.5297365 -0.38711947
-3.9841483 5.2731366 0
-3.2522371 4.304431 0.30133966
-1.6835003 2.2225733 -0.91935295
-1.9367319 2.5568922 -0.88496441
-2.2761137 3.0049474 -0.83509392
-2.7433224 3.6217606 -0.75745851
-4.5283771 5.9784069 -0.83594054
-4.1784263 5.5163989 -0.38653889
-3.9936628 5.2724719 0
-3.2699871 4.3170686 0.30250078
-1.6921636 2.2284112 -0.92261279
-1.9458889 2.5625422 -0.88773304
-2.2782078 3.0001733 -0.83453155
-2.7430377 3.6123078 -0.75617421
-4.5402856 5.9791045 -0.83680457
-4.1803732 5.5051355 -0.38610336
-4.0126219 5.2842236 0
-3.2720551 4.3089714 0.30221021
-1.6933593 2.2244 -0.92179859
-1.965701 2.5821488 -0.89534748
-2.2756751 2.9893312 -0.83228004
-2.7489598 3.6110392 -0.75660342
-4.5365443 5.9592142 -0.83478737
-4.1933174 5.5083504 -0.38668391
-4.0174289 5.2773027 0
-3.283555 4.3132849 0.30279079
-1.7035418 2.2321744 -0.92587262
-1.9657726 2.5757792 -0.89396185
-2.2823713 2.990623 -0.83340687
-2.7533209 3.6077149 -0.75660342
-3.4139969 4.4734077 -0.6272279
-4.2646027 5.5879683 -0.39263448
-4.0316954 5.2827868 0
-3.2998011 4.3237753 0.3038069
-1.6987298 2.2203014 -0.92179859
-1.9612628 2.5634415 -0.89050168
-2.2828925 2.9838233 -0.83228004
-2.756114 3.6023409 -0.75617421
-3.4256804 4.4774885 -0.62838
-4.2871375 5.6034446 -0.39408559
-4.0444012 5.2861791 0
-3.3208094 4.3404183 0.30525801
-1.7044169 2.2221658 -0.92342699
-1.9597827 2.5551038 -0.8884272
-2.2880411 2.9830768 -0.83284235
-2.7604647 3.5990081 -0.75617421
-3.431088 4.4733458 -0.62838
-4.2970653 5.6023798 -0.39437559
-4.060286 5.2936745 0
-3.3339632 4.3467174 0.30598414
-1.711622 2.2259846 -0.92587262
-1.949101 2.5348289 -0.88219577
-2.2962918 2.9863548 -0.83453155
-2.763248 3.5936368 -0.75574666
-3.4443784 4.479455 -0.62982225
-4.3165026 5.6136627 -0.39553672
-4.08254 5.309392 0
-3.3297064 4.3303227 0.30511302
-1.7082745 2.2160847 -0.92261279
-1.9536985 2.5344646 -0.88288993
-2.2874885 2.9674788 -0.83002847
-2.7628849 3.5841939 -0.7544623
-0 0 -0
-4.2931457 5.5693474 -0.3927795
-4.1111999 5.3333154 0
-3.3428667 4.3365841 0.30583856
-1.7064155 2.2081501 -0.92016709
-1.9659607 2.544009 -0.88704157
-2.3003976 2.9767797 -0.83340687
-2.7672138 3.580853 -0.7544623
-3.4615195 4.4793043 -0.63097543
-4.271275 5.5271506 -0.39016727
-4.1510582 5.3715868 0
-3.3687582 4.3592687 0.30772525
-1.706058 2.2021825 -0.91853875
-1.9567417 2.5257657 -0.88150424
-2.2977684 2.9659634 -0.83115536
-2.7731152 3.5795419 -0.75489151
-3.4653409 4.4730682 -0.63068634
-4.2445331 5.4788508 -0.38711947
-4.1973901 5.4179988 0
-3.3787987 4.3613591 0.30816081
-1.7132672 2.2059777 -0.92098445
-1.9690282 2.5352917 -0.88565856
-2.3044643 2.9671943 -0.83228004
-2.7758591 3.5741553 -0.7544623
-3.4739192 4.4729671 -0.63126343
-4.195364 5.4018884 -0.38203943
-4.2071233 5.4170299 0
-3.3872569 4.361382 0.30845135
-1.7280729 2.2194998 -0.92750102
-1.9720901 2.5329106 -0.88565856
-2.3127325 2.9704242 -0.83396924
-2.7817574 3.57283 -0.75489151
-3.4777339 4.4667273 -0.63097543
-0 0 -0
-4.2008753 5.3955145 0
-3.4100792 4.3798332 0.31004748
-1.7049021 2.1842899 -0.91364735
-1.9766914 2.5325015 -0.88635004
-2.3085046 2.9576147 -0.83115536
-2.7829103 3.5654149 -0.75403476
-3.4831285 4.462522 -0.63097543
-0 0 -0
-4.2089911 5.3924842 0
-6.643188 8.5111332 0.60306913
-1.71516 2.1919665 -0.91772455
-1.9874785 2.5399883 -0.8898102
-2.3089418 2.9508171 -0.83002847
-2.7808888 3.5539629 -0.75232291
-3.4853272 4.4542322 -0.63039833
-0 0 -0
-4.2042823 5.3730531 0
-6.6486616 8.4969587 0.6026336
-1.7254331 2.199614 -0.92179859
-1.9951929 2.5435088 -0.89188737
-2.3140783 2.9500299 -0.83059299
-2.7899356 3.5566616 -0.75360721
-3.4907067 4.4500175 -0.63039833
-0 0 -0
-4.2075558 5.3638697 0
-6.6589236 8.4889193 0.6026336
-1.729616 2.1994686 -0.92261279
-1.9874078 2.5272899 -0.88704157
-2.316066 2.9452286 -0.83002847
-2.7942312 3.5532877 -0.75360721
-3.4928865 4.4417338 -0.62982225
-0 0 -0
-4.2140341 5.3587818 0
-6.6643558 8.4747372 0.60219806
-1.7261518 2.1896131 -0.91935295
-1.995121 2.5307989 -0.88911867
-2.3164799 2.938441 -0.82890379
-2.7937531 3.543859 -0.75232291
-3.4966452 4.435473 -0.62953317
-4.3035851 5.4590712 -0.38828003
-4.2188964 5.3516445 0
-6.6552868 8.4421911 0.60045636
-1.7335997 2.1963301 -0.92261279
-1.9842148 2.5138392 -0.8835814
-2.3198276 2.9390335 -0.82946616
-2.7943048 3.5401576 -0.75189537
-3.5025322 4.4374242 -0.63011026
-4.3358636 5.4931879 -0.3908928
-4.2237396 5.3511353 0
-6.6507297 8.4259348 0.59958583
-1.7204701 2.1688979 -0.91283321
-1.9996357 2.5208259 -0.88773304
-2.3221846 2.9274449 -0.82777697
-2.8044457 3.5354037 -0.75232291
-3.5116396 4.4269228 -0.62982225
-4.3604255 5.4969378 -0.39190838
-0 0 0
-6.6484675 8.3813419 0.59755415
-1.7507769 2.2016349 -0.92750102
-1.9917543 2.5046685 -0.88288993
-2.3257201 2.9246368 -0.82777697
-2.8103118 3.5340197 -0.75275046
-3.5153718 4.4206462 -0.62953317
-3.5746336 4.4951692 -0.32079419
-4.2204347 5.3072762 0
-6.6343288 8.3427935 0.59537691
-1.7395711 2.1821258 -0.92016709
-1.9963416 2.5042198 -0.8835814
-2.3324232 2.925802 -0.82890379
-2.8113825 3.5266109 -0.75189537
-3.5174892 4.412354 -0.62895709
-3.5800626 4.4908466 -0.32079419
-4.2430644 5.3225188 0
-3.5816061 4.4927826 0.32093251
-1.7344929 2.1703703 -0.91609305
-2.0024953 2.5057216 -0.88496441
-2.3327811 2.919008 -0.82777697
-2.8124332 3.5191965 -0.75103861
-3.5195854 4.4040556 -0.62838
-0 0 -0
-3.5703921 4.4676299 0
-0 0 0
-1.7541145 2.1894927 -0.92505848
-1.9976802 2.4935124 -0.88150424
-2.3363063 2.916187 -0.82777697
-2.8166835 3.5157957 -0.75103861
-3.5265262 4.401824 -0.62866908
-0 0 -0
-0 0 0
-0 0 0
-1.7443774 2.1719553 -0.91853875
-2.0038366 2.4950125 -0.88288993
-2.341424 2.9153488 -0.82834148
-2.8193238 3.5103903 -0.75061101
-3.5318422 4.3975596 -0.62866908
-3.5881777 4.4677043 -0.32006809
-0 0 0
-0 0 0
-1.7423489 2.1640687 -0.91609305
-2.0099933 2.4964941 -0.88427287
-2.340163 2.9065781 -0.82665229
-2.8283944 3.5129817 -0.75189537
-3.5339062 4.389256 -0.62809199
-3.6000917 4.4714613 -0.32064864
-0 0 0
-0 0 0
-1.7573812 2.1773481 -0.92261279
-2.0035574 2.4823539 -0.88012123
-2.3468621 2.9076991 -0.82777697
-2.8294094 3.5055625 -0.75103861
-3.5375843 4.3829718 -0.62780392
-3.6103895 4.473176 -0.3210842
-3.6001146 4.4604454 0
-0 0 0
-1.7460203 2.157932 -0.91527885
-2.008132 2.4818797 -0.88081276
-2.3423839 2.8949866 -0.82496309
-2.8304169 3.4981537 -0.75018346
-3.5363698 4.3706512 -0.62665081
-3.6076212 4.4587116 -0.32035866
-3.6169558 4.4702487 0
-3.5862997 4.4323602 0.31846529
-1.7486266 2.1558208 -0.91527885
-2.0079715 2.4755583 -0.87942976
-2.3474793 2.8941257 -0.8255254
-2.8330262 3.4927394 -0.74975592
-3.5449102 4.3703966 -0.6272279
-0 0 -0
-4.3649793 5.3814311 0
-6.6590118 8.2096643 0.59044242
-1.7418714 2.1421967 -0.91038752
-2.0378664 2.5062189 -0.89119583
-2.3605957 2.9031193 -0.82890379
-2.8420982 3.4952831 -0.75103861
-3.5501883 4.3661098 -0.6272279
-4.464231 5.4902225 -0.39524671
-4.3353601 5.3317337 0
-6.6689267 8.2016125 0.59044242
-1.7600776 2.1592519 -0.91853875
-2.0234556 2.4823625 -0.8835814
-2.3576803 2.8923869 -0.82665229
-2.8495665 3.4958298 -0.75189537
-3.5570941 4.3638201 -0.62751591
-4.5184708 5.543231 -0.39945561
-4.3450913 5.3305297 0
-6.6722651 8.1854916 0.58986187
-1.7579921 2.1513801 -0.91609305
-2.0296254 2.4837973 -0.88496441
-2.3611734 2.8895361 -0.82665229
-2.8521657 3.4903982 -0.75146776
-3.5607293 4.3575177 -0.6272279
-4.521874 5.5337391 -0.39916506
-4.3482323 5.3212414 0
-6.6788654 8.1734037 0.58957189
-1.7652906 2.1549921 -0.91853875
-2.0167303 2.4619393 -0.87804413
-2.3646631 2.8866811 -0.82665229
-2.849874 3.4790061 -0.74975592
-3.5610731 4.3472075 -0.62636274
-4.5170355 5.5142064 -0.39814952
-4.3447671 5.3039079 0
-6.6920266 8.1693439 0.58986187
-1.7694602 2.1547658 -0.91935295
-2.0356219 2.4788852 -0.88496441
-2.3729887 2.8897145 -0.82834148
-2.8475592 3.4676244 -0.74804407
-3.5663233 4.3429017 -0.62636274
-4.523695 5.5087442 -0.39814952
-5.8292942 7.0986419 0
-6.6920018 8.1492071 0.58899134
-1.7642097 2.1430871 -0.91527885
-2.0386157 2.4764237 -0.88496441
-2.3764784 2.8868451 -0.82834148
-2.851747 3.4641812 -0.74804407
-3.569926 4.3365941 -0.62607473
-4.5237422 5.4952497 -0.39756894
-5.8544044 7.1116819 0
-6.7051435 8.1451235 0.58928132
-1.766798 2.1409538 -0.91527885
-2.0400112 2.4720256 -0.88427287
-2.3718741 2.874167 -0.8255254
-2.857563 3.4627109 -0.74847162
-3.5735123 4.330277 -0.62578565
-4.5402989 5.5018005 -0.3984395
-5.8414607 7.0785103 0
-6.7034078 8.1229925 0.58826578
-1.7709576 2.1407199 -0.91609305
-2.0366001 2.4618266 -0.88150424
-2.3769693 2.8732624 -0.82608992
-2.8601103 3.4572794 -0.74804407
-3.5721471 4.3179841 -0.62463248
-4.5436339 5.49231 -0.39814952
-5.8201528 7.035356 0
-6.7148728 8.1168871 0.58841079
-1.7754068 2.1434603 -0.91772455
-2.0348895 2.4567354 -0.88012123
-2.3722217 2.8639987 -0.82383841
-2.8671062 3.4614761 -0.74932671
-3.5830095 4.3257904 -0.62607473
-4.5469513 5.4895639 -0.39814952
-5.8410001 7.0518775 0
-6.7131453 8.1048241 0.58783019
-1.7637807 2.1241939 -0.91038752
-2.0458682 2.4639237 -0.8835814
-2.3773022 2.8630831 -0.82440072
-2.8696485 3.4560361 -0.74889916
-3.5799675 4.3115029 -0.62463248
-4.5535812 5.484066 -0.39814952
-0 0 0
-6.7212749 8.0947094 0.58768523
-1.7821612 2.1410613 -0.91853875
-2.0456309 2.4575896 -0.88219577
-2.3775055 2.8562989 -0.8232739
-2.8705409 3.4486239 -0.74804407
-3.5802152 4.3012156 -0.62376839
-4.551888 5.4685683 -0.39742339
-0 0 0
-6.731051 8.0865822 0.58768523
-1.767327 2.1180296 -0.90957332
-2.0518165 2.4589722 -0.8835814
-2.3825877 2.8553808 -0.82383841
-2.8763487 3.4471221 -0.74847162
-3.5887208 4.3008547 -0.62434447
-4.5518332 5.4550838 -0.39684284
-0 0 0
-6.734158 8.0704622 0.58710468
-1.7635417 2.1083093 -0.90631348
-2.051564 2.4526391 -0.88219577
-2.3892937 2.8563938 -0.82496309
-2.8821573 3.4456112 -0.74889916
-3.5889347 4.2905617 -0.62347931
-4.5734305 5.4675236 -0.39814952
-0 0 0
-6.7439046 8.0623198 0.58710468
-1.7772061 2.119436 -0.91201901
-2.0464675 2.4405482 -0.8787356
-2.3878438 2.847662 -0.8232739
-2.883023 3.4381959 -0.74804407
-3.5941164 4.286222 -0.62347931
-4.5833697 5.4659719 -0.3984395
-0 0 0
-6.7536416 8.0541649 0.58710468
-1.7956662 2.1362031 -0.92016709
-2.0478024 2.4361551 -0.87804413
-2.3978229 2.8525548 -0.8255254
-2.8822184 3.4288127 -0.74675971
-3.6009619 4.2838616 -0.62376839
-4.5866299 5.4564557 -0.39814952
-5.8785744 6.9934087 0
-6.7683797 8.05196 0.58753967
-1.7855049 2.1189115 -0.91364735
-2.0701437 2.4567006 -0.88635004
-2.399632 2.8477142 -0.82496309
-2.8896706 3.4292576 -0.74761647
-3.6044641 4.277524 -0.62347931
-4.598238 5.4568648 -0.39858451
-5.9004359 7.0022216 0
-6.7747583 8.0398054 0.58724964
-1.8103961 2.1431897 -0.92505848
-2.0601592 2.4388654 -0.88081276
-2.3981507 2.8389876 -0.8232739
-2.8921509 3.4237967 -0.74718732
-3.6079626 4.2711916 -0.6231913
-4.6031532 5.4493217 -0.3984395
-0 0 0
-6.7861433 8.033597 0.58739465
-1.7954135 2.1202507 -0.91609305
-2.0582395 2.4306288 -0.8787356
-2.3999388 2.8341506 -0.82271153
-2.8896501 3.4124634 -0.74547541
-3.6147907 4.2688007 -0.62347931
-4.6147733 5.4497066 -0.39887506
-0 0 0
-6.8143177 8.0472059 0.58899134
-1.7835802 2.1011233 -0.90875918
-2.0741632 2.4434409 -0.88427287
-2.4017189 2.8293135 -0.82214922
-2.8921115 3.4070141 -0.74504787
-3.6132507 4.2565427 -0.62232614
-4.6280813 5.4520507 -0.39945561
-5.9106236 6.9629326 0
-6.8173099 8.0310431 0.58841079
-1.8101457 2.1272032 -0.92098445
-2.0754898 2.439024 -0.8835814
-2.4051359 2.8264093 -0.82214922
-2.8995566 3.4074309 -0.74590462
-3.6200724 4.254149 -0.62261522
-4.6329765 5.4444699 -0.39931005
-0 0 0
-6.8589997 8.0603933 0.59116799
-1.7934662 2.1024499 -0.91120481
-2.060524 2.4155173 -0.87596697
-2.4101965 2.8254325 -0.82271153
-2.9036717 3.4039249 -0.74590462
-3.6235266 4.2477984 -0.62232614
-5.5906157 6.5537839 -0.48116481
-5.8750725 6.8872476 0
-6.885601 8.0718727 0.59261966
-1.8120654 2.1190622 -0.91935295
-2.0601835 2.4092159 -0.87458396
-2.4136088 2.8225181 -0.82271153
-2.9077826 3.400414 -0.74590462
-3.6269772 4.2414532 -0.62203813
-5.5917759 6.5391245 -0.48058426
-5.925673 6.9295897 0
-6.9088593 8.0793457 0.59378082
-1.8178447 2.1206276 -0.92098445
-2.0712552 2.4162467 -0.87804413
-2.4153655 2.8176725 -0.82214922
-2.9085445 3.3929963 -0.74504787
-3.6270542 4.2311821 -0.62117404
-5.6013627 6.5343342 -0.48072925
-5.973 6.9678721 0
-6.9304495 8.084796 0.59479636
-1.8091283 2.1053059 -0.91527885
-2.0692666 2.4080322 -0.87596697
-2.4187684 2.8147519 -0.82214922
-2.9076214 3.3836367 -0.74376357
-3.6355324 4.2307158 -0.62175012
-5.6075621 6.5255923 -0.48058426
-5.9746304 6.9527545 0
-5.9681821 6.9452505 0.51149046
-1.8116708 2.1031184 -0.91527885
-2.0738168 2.4074364 -0.87666112
-2.4254811 2.8156738 -0.8232739
-2.915062 3.3840144 -0.74462032
-3.6372688 4.2224045 -0.62117404
-5.6103535 6.5129037 -0.4801487
-5.9881244 6.9514475 0
-5.9952264 6.959692 0.51308715
-1.7899785 2.072866 -0.90305364
-2.0800004 2.4087226 -0.87804413
-2.4288816 2.812741 -0.8232739
-2.9157898 3.3766 -0.74376357
-3.6457458 4.2219181 -0.62175012
-5.6182189 6.5061197 -0.4801487
-5.9812064 6.9264736 0
-6.0036316 6.9524431 0.51308715
-1.8025476 2.0848739 -0.90875918
-2.0847399 2.4112649 -0.87942976
-2.4222729 2.8016644 -0.82046002
-2.9211905 3.3787255 -0.74462032
-3.6449158 4.2158051 -0.62117404
-5.620451 6.5007606 -0.48000371
-6.0007138 6.9405828 0
-6.0129309 6.9547133 0.51352268
-1.8082999 2.0864263 -0.91038752
-2.0810795 2.401161 -0.87666112
-2.432313 2.8064158 -0.82271153
-2.9252708 3.3751934 -0.74462032
-3.6432312 4.2035799 -0.62002087
-5.6231942 6.4880719 -0.47956815
-5.9971628 6.9195585 0
-6.0179229 6.943512 0.51323217
-1.8318975 2.1085002 -0.92098445
-2.0839794 2.3986444 -0.87666112
-2.4357021 2.8034749 -0.82271153
-2.9310291 3.3735921 -0.74504787
-3.6533918 4.2050261 -0.62088495
-5.6276245 6.4773536 -0.47927815
-6.0277071 6.9378452 0
-6.0501704 6.9637008 0.51526439
-1.8133367 2.0820501 -0.91038752
-2.0786331 2.3866601 -0.87319833
-2.4290783 2.789037 -0.81933528
-2.9317346 3.3661802 -0.74419278
-3.6550758 4.1967115 -0.62030888
-5.6303258 6.4646688 -0.47884259
-6.0583038 6.9560676 0
-6.0705214 6.9700956 0.51627994
-1.8223532 2.0873051 -0.91364735
-2.0864668 2.389818 -0.87527543
-2.4341161 2.788012 -0.81989765
-2.9324198 3.3587642 -0.74333602
-3.6584446 4.1903458 -0.62002087
-5.638133 6.4578609 -0.47884259
-6.0769777 6.9605088 0
-6.0857749 6.9705853 0.51686049
-1.8134843 2.0720875 -0.90794498
-2.0976126 2.3967326 -0.8787356
-2.4391549 2.786979 -0.82046002
-2.9381652 3.3571484 -0.74376357
-3.6617968 4.18397 -0.61973178
-5.6407962 6.4451756 -0.47840703
-6.0939517 6.9629512 0
-6.1010385 6.9710479 0.51744103
-1.8192436 2.0736072 -0.90957332
-2.0889301 2.3810008 -0.87389249
-2.4475493 2.7897618 -0.82214922
-2.9405282 3.3516679 -0.74333602
-3.6668496 4.1795425 -0.61973178
-5.6434441 6.4325008 -0.47797203
-6.1281009 6.9849215 0
-6.1145997 6.9695325 0.51787663
-1.8331752 2.0844009 -0.91527885
-2.1033983 2.3916566 -0.8787356
-2.4475656 2.78299 -0.82102448
-2.9428821 3.3461866 -0.74290842
-3.6718972 4.1751089 -0.61973178
-5.6494913 6.4237204 -0.47782648
-6.1588778 7.0029154 0
