# .PCD v0.7 - Point Cloud Data file format
VERSION 0.7
FIELDS x y z
SIZE 4 4 4
TYPE F F F
COUNT 1 1 1
WIDTH 1551
HEIGHT 1
VIEWPOINT 0 0 0 1 0 0 0
POINTS 1551
DATA ascii
0.91762006 5.6177588 -0.9489724
1.294292 7.92378 -0.89489841
0 0 -0
1.2665869 7.7541671 0
1.278725 7.8284779 0.44306383
0.9129886 5.6107082 -0.9476881
1.2865978 7.9066973 -0.89288121
0 0 -0
1.2627372 7.7600632 0
2.4950604 15.33322 0.86771989
0.90539086 5.6067438 -0.94683301
1.2782789 7.9158993 -0.89374524
0 0 -0
1.2521162 7.7538834 0
2.4732175 15.315702 0.86655879
0.89983284 5.6154304 -0.94811565
1.2666674 7.9046707 -0.89230406
0 0 -0
1.243569 7.7605247 0
2.4555326 15.323815 0.86684936
0.89143616 5.6063824 -0.94640547
1.2554905 7.895978 -0.89115089
1.0885391 6.845994 -0.38719475
1.2337828 7.7594543 0
2.4357905 15.31907 0.86641377
0.88426012 5.6049128 -0.94597626
1.2471585 7.9051566 -0.89201605
1.0762161 6.8216324 -0.38574308
1.2288677 7.7892194 0
2.4168742 15.319438 0.86626881
0.877487 5.6059771 -0.94597626
1.2364055 7.8989892 -0.89115089
1.0768139 6.8794107 -0.38893643
1.2186494 7.7855515 0
2.4007721 15.337746 0.86713934
0.8711077 5.6095772 -0.94640547
1.225669 7.892807 -0.89028573
1.060526 6.8293533 -0.38603362
1.2076437 7.7767315 0
2.381041 15.33293 0.86670381
0.86315608 5.6030116 -0.94512111
1.2157378 7.8917284 -0.88999772
1.0491083 6.8100848 -0.38487253
1.1998311 7.7884736 0
2.3636997 15.343502 0.86713934
0.85638529 5.6040506 -0.94512111
1.0706291 7.0060287 -0.78996551
1.0400945 6.8062153 -0.38458252
1.1912065 7.7950678 0
2.3463364 15.354055 0.86757493
0.84922892 5.6025457 -0.94469357
1.0644895 7.0226655 -0.79169583
1.0283639 6.7843375 -0.38327584
1.1825662 7.8016429 0
2.3273931 15.354313 0.86742991
0.84322125 5.6086397 -0.94554871
1.0586938 7.0418434 -0.79371303
1.0174625 6.7675958 -0.38226029
1.1715908 7.7927718 0
2.3099966 15.364815 0.86786491
0.8353076 5.602035 -0.94426435
1.0467516 7.0200963 -0.79111868
1.004303 6.7354121 -0.38037363
1.1660113 7.8199172 0
2.2921968 15.37274 0.86815548
0.82891464 5.605587 -0.94469357
1.0356196 7.0034428 -0.78910035
0.99274325 6.7134886 -0.37906751
1.1481869 7.7646861 0
2.2751405 15.38578 0.86873603
0.81953329 5.5888028 -0.94169742
1.1539896 7.8696256 -0.88653821
0.99066114 6.7558088 -0.38138917
1.1312522 7.7145686 0
2.2569249 15.391087 0.86888105
0.81241065 5.5872512 -0.94126981
1.1422474 7.8556619 -0.88480902
0.98100179 6.7467151 -0.38080862
1.1208075 7.7082109 0
2.2383261 15.393803 0.86888105
0.80822206 5.6060071 -0.94426435
1.1323858 7.8544788 -0.88452101
0.96951228 6.7247515 -0.37950251
1.105551 7.6683459 0
2.2212071 15.406783 0.8694616
0.79781604 5.5815721 -0.93998551
1.1225274 7.8532734 -0.88423187
0.96101868 6.7233481 -0.37935749
1.1003356 7.6980181 0
2.2033241 15.414596 0.86975157
0.79143101 5.5850711 -0.94041306
1.1134014 7.857192 -0.88452101
0.95581067 6.7450862 -0.38051862
1.0910332 7.6993418 0
2.1828744 15.404386 0.86902601
0.78361171 5.5784044 -0.93913043
1.1024675 7.8482866 -0.88336784
0.94187647 6.7050653 -0.37819639
1.0799181 7.6877613 0
2.1638985 15.404441 0.86888105
0.77509958 5.566627 -0.93698937
1.0908427 7.8342376 -0.88163751
0.93664086 6.7267876 -0.37935749
1.069911 7.6839104 0
1.3060664 9.3799362 0.52898192
0.76942605 5.575191 -0.93827367
1.0870334 7.876545 -0.8862502
0.92638141 6.7124748 -0.37848693
1.0609813 7.6877728 0
1.2933106 9.3712111 0.52840137
0.75955838 5.5532284 -0.93442237
0.95729685 6.9989195 -0.78737116
0.91862178 6.7161613 -0.37863195
1.0545127 7.7096772 0
1.2802261 9.3598967 0.52767581
0.75388259 5.5617762 -0.93570668
0.95092314 7.0154448 -0.78910035
0.9087612 6.7043943 -0.37790638
1.0417013 7.6851616 0
0 0 0
0.74921143 5.5779433 -0.93827367
0.94106841 7.0063348 -0.78794718
0.90273434 6.7209344 -0.37877694
1.0362245 7.7147799 0
0 0 0
0.74618125 5.5809369 -0.93870121
0.93409449 6.9864025 -0.78564197
0.89213198 6.6725512 -0.37601972
1.0305297 7.7076735 0
0 0 0
0.73640347 5.5589333 -0.93484992
0.92497212 6.9823928 -0.78506482
0.88782156 6.701952 -0.37761584
1.0218986 7.7140679 0
1.2331245 9.3085613 0.52448303
0.72935236 5.5572762 -0.93442237
0.9121595 6.9501696 -0.78131729
0.87938511 6.7004461 -0.37747082
1.0119003 7.7101412 0
1.2205236 9.2997389 0.52390248
0.72329819 5.5632401 -0.93527746
0.89308983 6.8691897 -0.77209193
0.8712883 6.7015038 -0.37747082
1.0052663 7.7319946 0
1.2079457 9.2909002 0.52332193
0.71592045 5.5590224 -0.93442237
0.87686139 6.8087068 -0.76517403
0.86285859 6.6999769 -0.37732583
0.99392915 7.7177215 0
1.1947265 9.276885 0.5224508
0.70855266 5.5547857 -0.93356562
0.86339742 6.7687101 -0.76056135
0.85541928 6.7061648 -0.37761584
0.9882257 7.7473168 0
1.1838461 9.2809067 0.52259636
0.70216298 5.5581923 -0.93399483
0.85165191 6.741519 -0.75738984
0.8450368 6.6891551 -0.37660027
0.97494966 7.7175212 0
1.1716537 9.2745943 0.52216083
0.69544643 5.5590363 -0.93399483
0.83965385 6.7117553 -0.75393146
0.8382439 6.7004848 -0.37718081
0.95948541 7.6696262 0
1.1591561 9.2656898 0.52158022
0.68715012 5.5471272 -0.93185371
0.83408594 6.7332902 -0.75623667
0.82982671 6.6989064 -0.37703526
0.94957823 7.6656194 0
1.1466817 9.2567682 0.52099967
0.68201041 5.5607009 -0.93399483
0.8256349 6.7317281 -0.75594866
0.82173175 6.6999044 -0.37703526
0.93239492 7.6021852 0
1.1351799 9.2555704 0.52085471
0.67343372 5.546226 -0.93142617
0.81905884 6.7455564 -0.75738984
0.81363565 6.7008924 -0.37703526
0.92759967 7.6394706 0
1.1233685 9.2517719 0.52056414
0.66581357 5.5393968 -0.93014354
0.81059921 6.7439756 -0.75710183
0.80677873 6.7121902 -0.37761584
0.91526306 7.6147518 0
1.1124997 9.2557096 0.52070969
0.65881568 5.5376406 -0.92971432
0.80061704 6.7295451 -0.75537264
0.7980544 6.7080045 -0.37732583
0.90575427 7.6132703 0
1.1022352 9.26478 0.52114469
0.65212405 5.5384326 -0.92971432
0.79641676 6.7638988 -0.75912017
0.7896449 6.7063856 -0.37718081
0.89777178 7.6246977 0
1.0895207 9.2532053 0.52041912
0.6448378 5.534122 -0.92885917
0.7942304 6.8162379 -0.76488602
0.78123939 6.7047467 -0.37703526
0.88675034 7.6102619 0
1.0795422 9.2648382 0.52099967
0.6375618 5.5297918 -0.92800242
0.79488063 6.8942719 -0.77353424
0.77373326 6.7108536 -0.37732583
0.87427616 7.5828962 0
1.0668589 9.253232 0.5202741
0.63058901 5.5280099 -0.92757487
0.79211855 6.944046 -0.77901095
0.76356214 6.6937089 -0.37630972
0.86835676 7.6123829 0
1.0542052 9.2416086 0.51954859
0.623909 5.5287681 -0.92757487
0.78807825 6.9835534 -0.78333563
0.75693017 6.7075343 -0.37703526
0.86032534 7.6237707 0
0 0 0
0.60970098 5.5226026 -0.92629057
0.77545601 7.023993 -0.78765917
0.74185902 6.7196751 -0.37761584
0.83390397 7.5534077 0
0 0 0
0.60386366 5.530993 -0.92757487
0.76556504 7.0120711 -0.78621799
0.73232925 6.7076535 -0.37689027
1.0281352 9.4170418 0
0 0 0
0.59745532 5.5342689 -0.92800242
0.76375443 7.074708 -0.79313701
0.72478217 6.7137055 -0.37718081
1.0117284 9.371707 0
0.99835283 9.2478085 0.51954859
0.59049565 5.5324364 -0.92757487
0.80104488 7.5051017 -0.84127879
0.71749598 6.7223201 -0.37761584
1.0031652 9.3987961 0
0.98772895 9.2541704 0.51983857
0.58407944 5.5356965 -0.92800242
0.80635965 7.6423883 -0.85655802
0.71100926 6.7386918 -0.37848693
0.99044281 9.387063 0
0.97600156 9.2501945 0.51954859
0.5760591 5.5236344 -0.92586303
0.80007511 7.6716475 -0.8597284
0.70313567 6.7421279 -0.37863195
0.97855926 9.3830709 0
0.96590191 9.2617044 0.52012914
0.57070017 5.5370917 -0.92800242
0.79186559 7.6829004 -0.86088157
0.69552088 6.748137 -0.37892196
0.9672209 9.3842468 0
0.95391077 9.2551079 0.51969355
0.5634895 5.5326743 -0.92714733
0.78284454 7.6864319 -0.86117071
0.68368113 6.7127867 -0.37689027
0.95482641 9.3750525 0
0.94430631 9.271759 0.52056414
0.5596292 5.5279007 -0.92629057
0.77820063 7.6869035 -0.86117071
0.68067235 6.7235394 -0.37747082
0.95125932 9.3963413 0
0.93765771 9.2619877 0.51998359
0.55243897 5.5234694 -0.92543548
0.77097023 7.7084174 -0.86347592
0.6748749 6.7476244 -0.37877694
0.94119972 9.410429 0
0.92724174 9.2708721 0.52041912
0.54551238 5.5215807 -0.92500788
0.76318181 7.724792 -0.86520624
0.67106402 6.7923918 -0.38124418
0.92880493 9.4012003 0
0.91629428 9.2745695 0.52056414
0.53933835 5.5273404 -0.92586303
0.75384736 7.7257085 -0.86520624
0.66563231 6.8216481 -0.38284084
0.91744471 9.4023151 0
0.90559226 9.2808475 0.52085471
0.53216732 5.5228829 -0.92500788
0.74624854 7.7446384 -0.86722457
0.66012996 6.8508911 -0.38443696
0.90733194 9.4163771 0
0.89437753 9.2819347 0.52085471
0.52524978 5.5209589 -0.92457873
0.73762429 7.7532516 -0.8680886
0.65283591 6.862031 -0.38501751
0.89669222 9.4252319 0
0.88340735 9.285593 0.52099967
0.51833856 5.5190363 -0.92415112
0.72898126 7.7618651 -0.86895376
0.64381576 6.8550611 -0.38458252
0.88432956 9.4159441 0
0.87291598 9.2944174 0.52143526
0.5123806 5.527329 -0.92543548
0.71912414 7.7575841 -0.86837661
0.63505214 6.8506541 -0.38429198
0.87463337 9.4351473 0
0.86216414 9.3006353 0.52172524
0.50476605 5.5177188 -0.92372358
0.71022177 7.7636042 -0.86895376
0.62843126 6.8695326 -0.38530809
0.86275846 9.4310188 0
0.85068899 9.2990847 0.52158022
0.49879116 5.5259972 -0.92500788
0.70060813 7.7618828 -0.86866575
0.846237 9.3752728 -0.52579582
0.85276562 9.4476013 0
0.83991897 9.3052769 0.52187026
0.4909755 5.5138135 -0.92286849
0.69054049 7.7549925 -0.86780059
0.83513844 9.3788738 -0.52594084
0.83973342 9.4304771 0
0.82936639 9.3140516 0.52230579
0.48588428 5.5322957 -0.92586303
0.68230087 7.7687016 -0.86924177
0.82403243 9.3824625 -0.52608585
0.82970452 9.4470444 0
0.81833869 9.3176336 0.5224508
0.47764936 5.5149837 -0.92286849
0.67224365 7.7617874 -0.86837661
0.8117981 9.3730965 -0.5255053
0.81851333 9.4506311 0
0.80752838 9.3237982 0.52274138
0.47142163 5.5206676 -0.92372358
0.6633051 7.7677531 -0.86895376
0.79826152 9.3481846 -0.52405417
0.80797923 9.4619856 0
0.79648268 9.3273535 0.52288634
0.46518087 5.5263443 -0.92457873
0.65305102 7.7582393 -0.86780059
0.7882728 9.3646736 -0.5249247
0.79545438 9.4499903 0
0.78564817 9.3334923 0.52317691
0.45786694 5.5192347 -0.92329603
0.64239359 7.7435622 -0.8660714
0.77803081 9.3785639 -0.52565026
0.78360462 9.4457521 0
0.77501374 9.3421965 0.5236119
0.45036113 5.5095496 -0.92158419
0.63324708 7.7469082 -0.86635941
0 0 -0
0.77346325 9.4622602 0
0.76351345 9.340538 0.52346694
0.44432193 5.5177689 -0.92286849
0.62284815 7.7347794 -0.86491823
0 0 -0
0.7641179 9.4891243 0
0.75222671 9.3414545 0.52346694
0.43745092 5.5157351 -0.92243928
0.61166149 7.7123232 -0.86232388
0 0 -0
0.75141746 9.4744797 0
0.74155533 9.3501301 0.52390248
0.43038657 5.5111461 -0.92158419
0.60314697 7.7233615 -0.86347592
0 0 -0
0.73996884 9.4753799 0
0.73066121 9.3561954 0.52419245
0.42431763 5.5193434 -0.92286849
0.59242707 7.7060399 -0.86145872
0.71836901 9.3442392 -0.52347362
0.72991502 9.4944239 0
0.71935552 9.3570709 0.52419245
0.41706705 5.5121703 -0.92158419
0.58194417 7.6912704 -0.8597284
0.70590115 9.3295488 -0.5226025
0.71863925 9.4979019 0
0.70785296 9.3553448 0.52404749
0.41469726 5.525218 -0.92372358
0.57555532 7.6684098 -0.85713404
0.70084822 9.3377495 -0.52303803
0.71465379 9.5216885 0
0.70297873 9.3661356 0.52462804
0.40802079 5.5257149 -0.92372358
0.56609881 7.666523 -0.85684603
0.68879944 9.3282242 -0.52245748
0.70161498 9.5017815 0
0.69204336 9.3721561 0.52491802
0.40097222 5.5210881 -0.92286849
0.55589831 7.6543055 -0.85540485
0.67658669 9.3160944 -0.52173191
0.68975604 9.497426 0
0.6812833 9.3807621 0.52535361
0.39539751 5.5369272 -0.92543548
0.54664922 7.6549716 -0.85540485
0.66570008 9.322093 -0.52202249
0.68031907 9.5268097 0
0.66994798 9.3815784 0.52535361
0.38744846 5.5194731 -0.92243928
0.53631222 7.6401405 -0.85367453
0.65498096 9.3306599 -0.52245748
0.66880727 9.5276251 0
0.65879345 9.3849707 0.52549857
0.38183931 5.5353079 -0.92500788
0.52725869 7.6433706 -0.85396367
0.56252527 8.1546097 -0.45656779
0.65693599 9.5232286 0
0.64781106 9.3909502 0.52578914
0.37497661 5.5331969 -0.92457873
0.51784742 7.6414142 -0.85367453
0.5546037 8.1837931 -0.45816392
0.6457808 9.529213 0
0.63681453 9.3969059 0.52607912
0.36863184 5.5387735 -0.92543548
0.50878614 7.6446228 -0.85396367
0.54523259 8.1922379 -0.45859948
0.63478476 9.5377798 0
0.62580514 9.4028587 0.52636969
0.36177182 5.5366559 -0.92500788
0.49971724 7.6478105 -0.85425168
0.53228414 8.1462231 -0.45598724
0.62224132 9.522953 0
0.61410403 9.3984175 0.52607912
0.35491684 5.5345197 -0.92457873
0.49064136 7.6509871 -0.85453969
0.51894867 8.0924072 -0.45293945
0.61056781 9.5211029 0
0.60341257 9.4095249 0.52665973
0.34903559 5.5477619 -0.92671978
0.48123401 7.6489954 -0.85425168
0.50623369 8.0463543 -0.45032722
0.60053355 9.545207 0
0.5923692 9.4154387 0.52695024
0.34264782 5.553299 -0.92757487
0.47215047 7.6521506 -0.85453969
0.49395049 8.0054636 -0.44800499
0.58932048 9.5511265 0
0.58131176 9.4213295 0.52724028
0.3359375 5.553709 -0.92757487
0.46243536 7.6449676 -0.85367453
0.48302194 7.9853048 -0.44684386
0.57887882 9.5700083 0
0.57008427 9.4246168 0.52738523
0.32816324 5.5361705 -0.92457873
0.45350397 7.6506896 -0.85425168
0.47260427 7.9729156 -0.44611832
0.56716108 9.5681047 0
0.55946529 9.4382753 0.5281114
0.32192019 5.5442533 -0.92586303
0.44440904 7.6538119 -0.85453969
0.46387368 7.9890404 -0.44698888
0.55529749 9.5635824 0
0.54821104 9.4415359 0.52825636
0.31594917 5.5574508 -0.92800242
0.43516058 7.6543431 -0.85453969
0.45245031 7.9584641 -0.4452472
0.54359376 9.5616503 0
0.53694969 9.4447832 0.52840137
0.3089489 5.5527072 -0.92714733
0.42533675 7.6445336 -0.85338652
0.44211209 7.9460349 -0.44452164
0.5317511 9.5571079 0
0.52524871 9.4402418 0.5281114
0.30237871 5.5556374 -0.92757487
0.41623995 7.6476221 -0.85367453
0.42996889 7.8998656 -0.4419094
0.52020282 9.557744 0
0.51426488 9.4486456 0.52854639
0.29539302 5.5508766 -0.92671978
0.40727413 7.6532898 -0.85425168
0.41987079 7.8900003 -0.44132885
0.51003653 9.5843487 0
0.50298619 9.4518623 0.52869195
0.28935212 5.564045 -0.92885917
0.39802632 7.6537766 -0.85425168
0.40966237 7.8775296 -0.44060329
0.49804971 9.5771589 0
0.49223968 9.465435 0.52941751
0.28249875 5.5618291 -0.92843163
0.38890901 7.6568327 -0.85453969
0.39869356 7.8494701 -0.43900663
0.48819384 9.6115494 0
0.48040664 9.4582357 0.52898192
0.27501518 5.5467782 -0.92586303
0.37991336 7.6624684 -0.85511684
0.38779366 7.8214059 -0.4374105
0.47529078 9.5861349 0
0.46936399 9.4665976 0.52941751
0.26880887 5.5573626 -0.92757487
0.37065449 7.6629219 -0.85511684
0.37671083 7.7881308 -0.43552384
0.4640848 9.5945024 0
0.4583014 9.4749365 0.52985251
0.2624566 5.5653787 -0.92885917
0.36102945 7.655611 -0.85425168
0.36607584 7.7626195 -0.43407217
0.45285928 9.6028576 0
0.4475871 9.4910612 0.53072363
0.25933272 5.5706596 -0.92971432
0.35640422 7.6558275 -0.85425168
0.36126524 7.7602463 -0.43392715
0.44729942 9.6083241 0
0.44173226 9.4887371 0.53057861
0.25167125 5.5504537 -0.92629057
0.34691885 7.6510801 -0.85367453
0.35071149 7.734724 -0.43247604
0.43545377 9.6036625 0
0.43061939 9.4970436 0.53101361
0.24541715 5.5610118 -0.92800242
0.33790204 7.6566668 -0.85425168
0.34193802 7.7481194 -0.43320158
0.42384931 9.6041822 0
0.41914377 9.4975567 0.53101361
0.23869757 5.5613041 -0.92800242
0.32820657 7.6467328 -0.85309851
0.33157298 7.7251649 -0.43189546
0.36035311 8.3957005 0
0.40833628 9.5136375 0.53188473
0.2312291 5.543642 -0.92500788
0.31885907 7.6445422 -0.8528105
0.32158843 7.7099776 -0.43102437
0.35107553 8.4169216 0
0.39694881 9.5167179 0.53202975
0.22432256 5.5387826 -0.92415112
0.30951694 7.6423302 -0.85252136
0.31090531 7.6766109 -0.42913768
0.34111589 8.4225454 0
0.38555446 9.5197849 0.53217471
0.21833543 5.5570078 -0.92714733
0.30007955 7.6375341 -0.85194534
0.29928336 7.6172705 -0.42579991
0.33104074 8.4255495 0
0.3742556 9.5254412 0.53246528
0.21122998 5.5470066 -0.92543548
0.29016182 7.6197968 -0.84992701
0.28533307 7.492991 -0.4188332
0.31848347 8.3635387 0
0.36254776 9.520689 0.53217471
0.20500018 5.560082 -0.92757487
0.28143132 7.6330729 -0.85136932
0.27187556 7.373898 -0.41215762
0.30684334 8.3223057 0
0.35152221 9.5341005 0.53290027
0.19112121 5.5477357 -0.92543548
0.26227194 7.6130509 -0.84906298
0.25128147 7.2940269 -0.40765816
0.28296751 8.2137871 0
0.32892859 9.5479145 0.53362638
0.18424699 5.5428267 -0.92457873
0.25307289 7.6133623 -0.84906298
0.24195008 7.278748 -0.4067876
0.27010304 8.1256924 0
0.31704625 9.5379171 0.53304583
0.17779605 5.550745 -0.92586303
0.24370766 7.6084871 -0.84848583
0.23315497 7.2790351 -0.4067876
0.25803486 8.0557785 0
0.30602029 9.5538702 0.53391641
0.17140527 5.5612192 -0.92757487
0.23451412 7.6087761 -0.84848583
0.22347887 7.2507396 -0.40519094
0.24806054 8.0482883 0
0.29463634 9.559433 0.53420699
0.1646096 5.5588589 -0.92714733
0.22516724 7.603888 -0.84790981
0.21479444 7.2535992 -0.40533593
0.23733424 8.0147667 0
0.28308541 9.559782 0.53420699
0.15752833 5.5462255 -0.92500788
0.21568555 7.5938129 -0.84675664
0.20625113 7.2616477 -0.40577149
0.22668931 7.9812312 0
0.27182916 9.5705061 0.53478754
0.1507567 5.5438385 -0.92457873
0.20510355 7.5423574 -0.84099078
0.19564031 7.1943622 -0.40199813
0.21690376 7.9762912 0
0.26026487 9.5708275 0.53478754
0.14385809 5.5363255 -0.92329603
0.19242917 7.4055648 -0.82571155
0.1872846 7.2075787 -0.4027237
0.20706294 7.9687405 0
0.24870022 9.5711355 0.53478754
0.13735898 5.5441866 -0.92457873
0.17982966 7.25842 -0.80928028
0.17728837 7.1558466 -0.39982092
0.19711189 7.9559784 0
0.23739237 9.58181 0.53536749
0.13072047 5.5469222 -0.92500788
0.17002328 7.2146769 -0.80437958
0.16876435 7.1612558 -0.40011147
0.18700799 7.9353967 0
0.22612073 9.5950851 0.53609365
0.12390313 5.5419383 -0.92415112
0.16049637 7.1786799 -0.80034405
0.1598209 7.148468 -0.3993859
0.17724514 7.9278188 0
0.2147591 9.6057434 0.5366742
0.11726092 5.5446482 -0.92457873
0.15160346 7.1685252 -0.79919088
0.1515677 7.1668339 -0.40040147
0.16755563 7.9228187 0
0.20331694 9.6137819 0.5371092
0.11045896 5.5396576 -0.92372358
0.14263211 7.1531825 -0.79746056
0.14264891 7.1540246 -0.39967591
0.15803416 7.9256144 0
0.19195957 9.627017 0.5378353
0.10696322 5.532021 -0.92243928
0.13756061 7.1144848 -0.79313701
0.13837694 7.1567049 -0.39982092
0.15259185 7.8918848 0
0.18684651 9.6634979 0.53986698
0.081789903 4.5121589 -0.99974179
0.10018581 5.5270181 -0.92158419
0.12910452 7.1223965 -0.79400104
0.12991773 7.1672587 -0.40040147
0.14296171 7.8868642 0
0.17592341 9.7052851 0.54218918
0.076165862 4.5020924 -0.99749023
0.093420483 5.5219965 -0.92072743
0.1202797 7.1096191 -0.79255986
0.12178485 7.1985874 -0.40214315
0.13347584 7.8896308 0
0.16445999 9.7210741 0.54305977
0.070845678 4.5098052 -0.99917942
0.086546592 5.509274 -0.91858798
0.11132342 7.0864863 -0.78996551
0.11324994 7.2091222 -0.4027237
0.12386099 7.8845873 0
0.1526323 9.7160749 0.54276979
0.079889648 5.5093746 -0.91858798
0.1026107 7.0762706 -0.78881234
0.10533018 7.2638125 -0.40577149
0.11433392 7.8847313 0
0.14108054 9.7292404 0.5434953
0.059744354 4.4947143 -0.99580103
0.073266678 5.5120316 -0.91901553
0.093888484 7.0634608 -0.78737116
0.097520217 7.3366847 -0.4098354
0.10470288 7.8770542 0
0.12932456 9.7294035 0.5434953
0.054405458 4.5024076 -0.99749023
0.066513449 5.5044227 -0.91773289
0.0852286 7.0532241 -0.78621799
0.089345858 7.3939543 -0.41302818
0.095436484 7.8979936 0
0.11753689 9.7269468 0.54334974
0.048909824 4.4973836 -0.9963634
0.059806492 5.4993606 -0.91687614
0.076565482 7.0403924 -0.78477681
0.080439873 7.3966527 -0.4131732
0.086204462 7.9267211 0
0.10595329 9.7426767 0.54422086
0.043377336 4.4872766 -0.99411184
0.052987922 5.4814672 -0.9138816
0.068033509 7.0378962 -0.7844888
0.071853995 7.433116 -0.41520485
0.076500744 7.9138103 0
0.094155997 9.740202 0.54407591
0.038062822 4.5000367 -0.99692792
0.046559989 5.5046277 -0.91773289
0.059573252 7.0431409 -0.78506482
0.062894516 7.4358029 -0.41535041
0.067224532 7.9477258 0
0.08236476 9.7377024 0.54393035
0.032551698 4.4899163 -0.99467635
0.039871432 5.4995413 -0.91687614
0.051006675 7.0354462 -0.78419966
0.053721342 7.4098849 -0.41389874
0.057753302 7.9660206 0
0.07071165 9.7533903 0.54480141
0.027111091 4.4874043 -0.99411184
0.033303812 5.5124178 -0.91901553
0.042443171 7.025157 -0.78304648
0.044799332 7.4151464 -0.41418931
0.048159294 7.9712844 0
0.058957901 9.7586603 0.54509145
0.021676652 4.4848952 -0.99354953
0.02649427 5.4816594 -0.9138816
0.033979639 7.0303807 -0.78362364
0.03585209 7.4177909 -0.4143343
0.038452074 7.9557271 0
0.047229256 9.7717237 0.54581755
0.016229875 4.477293 -0.99186033
0.020010291 5.5201859 -0.92029983
0.025484772 7.030417 -0.78362364
0.026889114 7.4178286 -0.4143343
0.028857954 7.9609675 0
0.035318382 9.7431889 0.54422086
0.01085065 4.4900212 -0.99467635
0.013309198 5.5073733 -0.91816044
0.016946109 7.0123348 -0.7816053
0.01791355 7.4126639 -0.41404429
0.019339288 8.0026369 0
0.023652362 9.7873955 0.54668814
0.0054161153 4.4824061 -0.99298716
0.0066608014 5.5125146 -0.91901553
0.0084824394 7.020112 -0.78247046
0.0089504961 7.4074783 -0.41375375
0.009622491 7.963624 0
0.01181363 9.7770233 0.54610753
-0 4.4773226 -0.99186033
-0 5.4971209 -0.91644853
-0 7.0278792 -0.78333563
-0 7.3944941 -0.41302818
-0 8.0208797 0
-0 9.7926159 0.54697812
-0.0054283962 4.4925694 -0.99523872
-0.0066701099 5.5202184 -0.92029983
-0.0085011851 7.0356259 -0.78419966
-0.008928515 7.3892865 -0.41273764
-0.0096916659 8.020874 0
-0.011823053 9.7848206 0.54654312
-0.010752404 4.449367 -0.98567021
-0.013296778 5.502234 -0.91730368
-0.017033629 7.0485501 -0.78564197
-0.017857017 7.3892703 -0.41273764
-0.019389601 8.0234566 0
-0.023683753 9.8003855 0.54741365
-0.016220674 4.4747548 -0.99129796
-0.020019587 5.5227504 -0.92072743
-0.025944175 7.1571512 -0.7977497
-0.02680435 7.3944454 -0.41302818
-0.02904663 8.0130177 0
-0.035506766 9.7951574 0.54712367
-0.021627529 4.4747319 -0.99129796
-0.026692737 5.5227222 -0.92072743
-0.037192237 7.6950669 -0.8577112
-0.03571393 7.3892059 -0.41273764
-0.045470461 9.4078302 0
-0.047467835 9.8210869 0.54857481
-0.027003679 4.4696255 -0.99017328
-0.033350352 5.5201216 -0.92029983
-0.046740215 7.7363992 -0.86232388
-0.044563837 7.3761678 -0.41201207
-0.056680754 9.3817492 0
-0.059271872 9.8106289 0.54799426
-0.032330647 4.4594264 -0.98792171
-0.040020317 5.5200772 -0.92029983
-0.056106839 7.7389212 -0.86261189
-0.053269297 7.3475337 -0.41041595
-0.06812989 9.3972826 0
-0.071220227 9.8235388 0.54871976
-0.037675943 4.4542975 -0.98679489
-0.046711914 5.5225892 -0.92072743
-0.065523341 7.7465992 -0.86347592
-0.061509982 7.2721143 -0.40620705
-0.079484619 9.3971939 0
-0.08309 9.8234463 0.54871976
-0.043008991 4.449172 -0.98567021
-0.05336006 5.5199642 -0.92029983
-0.075008623 7.7594538 -0.86491823
-0.069468021 7.1862922 -0.40141758
-0.091040485 9.4179096 0
-0.094984747 9.8259344 0.54886478
-0.048357308 4.4465785 -0.98510784
-0.059918158 5.5096283 -0.91858798
-0.084384352 7.7593575 -0.86491823
-0.077755652 7.1498318 -0.3993859
-0.10225026 9.402174 0
-0.10699877 9.8388109 0.54959089
-0.050927047 4.4363856 -0.98285633
-0.063453093 5.5275617 -0.92158419
-0.089339346 7.7825794 -0.86751258
-0.081776902 7.123796 -0.39793423
-0.10819954 9.425539 0
-0.11303228 9.8465319 0.55002588
-0.056126241 4.4236102 -0.98004025
-0.070132025 5.5274811 -0.92158419
-0.09900552 7.8031559 -0.86981893
-0.090153888 7.1055117 -0.39691868
-0.11939021 9.4097824 0
-0.12486394 9.841197 0.5497359
-0.06157722 4.4311633 -0.98172945
-0.076810852 5.5273924 -0.92158419
-0.10868551 7.8211269 -0.87183613
-0.098631099 7.0976005 -0.39648312
-0.13079613 9.4122314 0
-0.13671894 9.8384428 0.54959089
-0.067200035 4.4488726 -0.98567021
-0.083256871 5.5118899 -0.91901553
-0.11829199 7.8313346 -0.8729893
-0.10720709 7.097476 -0.39648312
-0.14212961 9.4094667 0
-0.1486851 9.843462 0.54988092
-0.072244018 4.4284635 -0.98116714
-0.090042509 5.5194879 -0.92029983
-0.127839 7.8363633 -0.87356645
-0.11569807 7.0921402 -0.39619255
-0.15354142 9.4118881 0
-0.16091795 9.8640604 0.55104202
-0.077327892 4.4131346 -0.97779089
-0.096621804 5.5142465 -0.91944474
-0.13721691 7.8310261 -0.8729893
-0.12417649 7.0868039 -0.39590257
-0.16532405 9.435112 0
-0.17333743 9.8924389 0.55263871
-0.082898125 4.4257379 -0.98060477
-0.10323641 5.5115519 -0.91901553
-0.14677604 7.8360314 -0.87356645
-0.13273942 7.0866489 -0.39590257
-0.17726058 9.4635296 0
-0.18499832 9.8766298 0.55176759
-0.087941676 4.4103875 -0.97722638
-0.10979372 5.5062947 -0.91816044
-0.15624425 7.8358483 -0.87356645
-0.14140566 7.0916739 -0.39619255
-0.14397469 7.2205148 0
-0.19713937 9.8867903 0.55234814
-0.093485601 4.4204392 -0.97947794
-0.11666402 5.5164242 -0.91987228
-0.16593097 7.8459973 -0.87471962
-0.15008444 7.0966988 -0.39648312
-0.15220399 7.1969209 0
-0.20908548 9.8865452 0.55234814
-0.09888351 4.4228606 -0.98004025
-0.1232146 5.5111413 -0.91901553
-0.17541121 7.8457913 -0.87471962
-0.15860128 7.0939169 -0.39633814
-0.1610164 7.2019401 0
-0.2210893 9.8888807 0.55249316
-0.10434744 4.4278235 -0.98116714
-0.13005513 5.5186901 -0.92029983
-0.18495207 7.8481569 -0.87500763
-0.16607073 7.0469561 -0.39372534
-0.16916642 7.1783171 0
-0.2333442 9.9016027 0.55321926
-0.10925694 4.4099107 -0.97722638
-0.13621466 5.4979987 -0.91687614
-0.1944989 7.8505106 -0.87529564
-0.17374888 7.0129833 -0.39183867
-0.17597091 7.1026707 0
-0.24562991 9.914299 0.55394483
-0.11432137 4.3996153 -0.97497487
-0.14325804 5.5132322 -0.91944474
-0.20371582 7.8399277 -0.87414247
-0.1804678 6.9452362 -0.38806531
-0.18576968 7.1492767 0
-0.2572718 9.9010096 0.55321926
-0.12025893 4.4223313 -0.98004025
-0.14957048 5.500217 -0.91730368
-0.2130482 7.8345098 -0.87356645
-0.18885963 6.945013 -0.38806531
-0.19568132 7.1958699 0
-0.54900551 20.188807 1.1280864
-0.12524174 4.4094858 -0.97722638
-0.15650783 5.5102963 -0.91901553
-0.22192706 7.8135629 -0.87126011
-0.19725119 6.9447799 -0.38806531
-0.2719065 9.5732298 0
-0.57376838 20.201122 1.1288126
-0.13064507 4.4118781 -0.97779089
-0.16339386 5.5178037 -0.92029983
-0.2311383 7.8055305 -0.87039495
-0.20579642 6.9497361 -0.38835588
-0.28393602 9.5885067 0
-0.59825391 20.203009 1.1289576
-0.13581917 4.4066329 -0.97666407
-0.16958658 5.502212 -0.91773289
-0.24041039 7.8000803 -0.86981893
-0.21419367 6.9494824 -0.38835588
-0.29504046 9.5725441 0
-0.62274486 20.204866 1.1291026
-0.141469 4.4166241 -0.97891557
-0.17607027 5.4968667 -0.91687614
-0.24966931 7.7946086 -0.86924177
-0.22317268 6.9673905 -0.38937142
-0.30685681 9.5799866 0
-0.64757389 20.217083 1.1298281
-0.1467212 4.4139128 -0.97835326
-0.18262683 5.4940867 -0.91644853
-0.25874367 7.7839608 -0.8680886
-0.23141876 6.9619269 -0.38908142
-0.31696239 9.5353937 0
-0.67217463 20.221483 1.1301187
-0.15196703 4.4111953 -0.97779089
-0.18979536 5.5092502 -0.91901553
-0.26823786 7.7862253 -0.86837661
-0.24054644 6.9824176 -0.39024255
-0.32678124 9.4855824 0
-0.69750232 20.24662 1.1315699
-0.157297 4.4110084 -0.97779089
-0.19672662 5.5167155 -0.92029983
-0.27783033 7.79107 -0.86895376
-0.44788215 12.559757 -0.70198596
-0.3373152 9.459178 0
-0.72159547 20.235376 1.1309892
-0.16253284 4.4082689 -0.97722638
-0.20282502 5.5010867 -0.91773289
-0.28705332 7.7855544 -0.86837661
-0.46344081 12.569593 -0.7025665
-0.34855291 9.4535666 0
-0.74671572 20.252668 1.1320053
-0.1681494 4.4156885 -0.97891557
-0.21005778 5.5162239 -0.92029983
-0.29665747 7.7903757 -0.86895376
-0.47941938 12.589797 -0.70372766
-0.35967827 9.4453344 0
-0.77158207 20.262138 1.1325859
-0.17052236 4.4079671 -0.97722638
-0.21339038 5.5160961 -0.92029983
-0.30136397 7.790195 -0.86895376
-0 0 -0
-0.36588755 9.4581156 0
-0.78472728 20.285034 1.1338921
-0.18127884 4.4100881 -0.97779089
-0.22640361 5.5078673 -0.91901553
-0.32114491 7.8127003 -0.87154812
-0.51798141 12.60127 -0.70445317
-0.38906378 9.4650068 0
-0.83107805 20.218174 1.1302637
-0.18553299 4.3844748 -0.97216094
-0.23251607 5.4947681 -0.91687614
-0.33145961 7.8329802 -0.87385446
-0.5328775 12.592844 -0.70401764
-0.40050012 9.46453 0
-0.90823621 21.463236 1.1999273
-0.19094102 4.3867831 -0.97272331
-0.23937872 5.4996176 -0.91773289
-0.34126151 7.8403282 -0.87471962
-0.65464121 15.040084 -0.84087706
-0.41204891 9.4666367 0
-0.93315238 21.438751 1.1986206
-0.19669569 4.3967028 -0.97497487
-0.24590871 5.4967523 -0.91730368
-0.34992549 7.8218207 -0.87270129
-0.67234915 15.028898 -0.84029651
-0.74135107 16.571285 0
-0.95952076 21.447992 1.1992012
-0.20107509 4.3761563 -0.97047174
-0.25278616 5.501585 -0.91816044
-0.3589015 7.8110571 -0.87154812
-0.69062734 15.030668 -0.84044147
-0.75958222 16.531389 0
-0.98627079 21.464991 1.2002172
-0.20696148 4.3886075 -0.97328782
-0.25967517 5.5063992 -0.91901553
-0.36712122 7.7847867 -0.86866575
-0.70878845 15.029823 -0.84044147
-0 0 0
-1.0129405 21.479351 1.2010878
-0.21177307 4.3782029 -0.97103626
-0.26620451 5.5035195 -0.91858798
-0.37602749 7.7740035 -0.86751258
-0.72694856 15.028955 -0.84044147
-0 0 0
-1.0397723 21.496281 1.202104
-0.21706311 4.3779435 -0.97103626
-0.27310872 5.5083265 -0.91944474
-0.38478029 7.7606292 -0.8660714
-0.74562228 15.038447 -0.84102207
-0 0 0
-1.0665178 21.510586 1.202975
-0.22261038 4.3827486 -0.97216094
-0.27898267 5.4926052 -0.91687614
-0.3941572 7.7601585 -0.8660714
-0.76339769 15.029757 -0.84058702
-0.83313656 16.402775 0
-1.0931673 21.522255 1.2037007
-0.22777408 4.3799415 -0.97159863
-0.28521964 5.4845805 -0.91559345
-0.40339884 7.7570863 -0.86578226
-0.78209746 15.039204 -0.84116763
-0.85254991 16.393957 0
-1.119172 21.520918 1.2037007
-0.23239124 4.3669786 -0.96878475
-0.2930741 5.5073004 -0.91944474
-0.41263416 7.7540131 -0.86549425
-0.80040675 15.04084 -0.84131259
-0.87277323 16.400713 0
-1.1458652 21.532522 1.2044262
-0.23697738 4.3540115 -0.96597087
-0.29958847 5.5043716 -0.91901553
-0.42228448 7.7586789 -0.8660714
-0.81843901 15.03727 -0.84116763
-0.89456952 16.436024 0
-1.1718823 21.53112 1.2044262
-0.2423792 4.3562565 -0.96653318
-0.3053838 5.4886317 -0.91644853
-0.43108425 7.7478333 -0.86491823
-0.83704066 15.044045 -0.84160262
-0.91572964 16.458315 0
-0.595689 10.706257 0.59893554
-0.24720991 4.3483477 -0.96484399
-0.31259835 5.4985108 -0.91816044
-0.44000512 7.7395573 -0.86405307
-0.85448056 15.030054 -0.84087706
-0.93576318 16.459791 0
-0.60847759 10.702937 0.59879053
-0.25349501 4.3658047 -0.96878475
-0.32013455 5.5135007 -0.92072743
-0.44920677 7.7364402 -0.86376506
-0.87309283 15.036796 -0.84131259
-0.95504755 16.448257 0
-0.62080711 10.691818 0.59820998
-0.25771743 4.3477378 -0.96484399
-0.32588518 5.4977393 -0.91816044
-0.4574829 7.7178154 -0.86174673
-0.89079976 15.027946 -0.84087706
-0.97569114 16.460077 0
-0.63249558 10.670309 0.59704888
-0.26281738 4.3448892 -0.96428168
-0.33330274 5.5101509 -0.92029983
-0.46665204 7.7146778 -0.86145872
-0.91052669 15.0528 -0.84232873
-0.99526525 16.453697 0
-0.64397621 10.646196 0.59574276
-0.26775387 4.3394914 -0.96315479
-0.339486 5.5020552 -0.91901553
-0.47549537 7.7063613 -0.86059356
-0.92791378 15.038714 -0.84160262
-1.0149854 16.449886 0
-0.65555942 10.624662 0.5945816
-0.27251893 4.3315644 -0.96146774
-0.34581184 5.4965219 -0.91816044
-0.48448214 7.700623 -0.86001754
-0.94575846 15.0324 -0.84131259
-1.0343708 16.440853 0
-0.66741812 10.608307 0.59371108
-0.27856547 4.3439078 -0.96428168
-0.35130292 5.4781647 -0.91516423
-0.49328977 7.692286 -0.85915238
-0.83072865 12.954257 -0.7250616
-1.054569 16.444792 0
-0.68006891 10.604893 0.59356552
-0.28248864 4.3232841 -0.95977855
-0.35926098 5.498229 -0.91858798
-0.50258404 7.6916847 -0.85915238
-0.84587294 12.945473 -0.7246266
-1.0746081 16.4461 0
-0.69305229 10.606664 0.59371108
-0.28526756 4.3256459 -0.96034092
-0.36123127 5.477519 -0.91516423
-0.50757098 7.6965361 -0.8597284
-0.85266751 12.929398 -0.72375548
-1.0842011 16.440248 0
-0.69946021 10.606243 0.59371108
-0.29015383 4.3202324 -0.95921624
-0.36836573 5.4847651 -0.91644853
-0.51652402 7.6907611 -0.85915238
-0.86654866 12.902436 -0.72230434
-1.1044142 16.444124 0
-0.71314573 10.61835 0.59443665
-0.29641345 4.3350835 -0.96259248
-0.37411734 5.4715128 -0.91430914
-0.52493441 7.6772313 -0.8577112
-0.88160616 12.8936 -0.72186881
-1.1233954 16.429798 0
-0.72686148 10.630441 0.59516221
-0.30165133 4.3347225 -0.96259248
-0.38215399 5.4915438 -0.91773289
-0.53492868 7.6869125 -0.85886437
-0.89610291 12.876978 -0.72099823
-1.144511 16.446594 0
-0.74114889 10.650291 0.59632331
-0.30563241 4.3166103 -0.95865172
-0.387701 5.475709 -0.91516423
-0.54403323 7.6836729 -0.85857522
-0.90909266 12.839602 -0.7189666
-1.1653014 16.458178 0
-0.75438386 10.654568 0.59661329
-0.30993554 4.3035688 -0.95583785
-0.39450198 5.4778047 -0.91559345
-0.55331707 7.6830101 -0.85857522
-0.92423248 12.833306 -0.71867603
-1.1861224 16.469744 0
-0.76725727 10.653648 0.59661329
-0.31606308 4.3158593 -0.95865172
-0.39999524 5.4619575 -0.91302484
-0.56316698 7.6900773 -0.85944039
-0.93803048 12.80886 -0.71736991
-1.2056415 16.463102 0
-0.78221732 10.681222 0.59820998
-0.31958011 4.2926717 -0.95358628
-0.40735698 5.4717102 -0.91473669
-0.57169044 7.6790738 -0.85828722
-0.95196348 12.786986 -0.71620882
-1.225147 16.456448 0
-0.79685897 10.703588 0.59951609
-0.32572579 4.3049579 -0.95640236
-0.41338697 5.4635324 -0.91345239
-0.58116359 7.680954 -0.85857522
-0.96564913 12.76251 -0.7149027
-1.2440481 16.441973 0
-1.6482372 21.783941 1.2202457
-0.33053735 4.2994895 -0.95527548
-0.4201856 5.4655957 -0.9138816
-0.59024602 7.6776695 -0.85828722
-0.98047167 12.753559 -0.71446711
-1.2627176 16.424894 0
-1.6731632 21.763796 1.2192296
-0.33573222 4.299087 -0.95527548
-0.42638931 5.4599605 -0.91302484
-0.5999257 7.6821132 -0.85886437
-0.99446559 12.734239 -0.71345156
-1.28155 16.410385 0
-1.6998636 21.766933 1.2195196
-0.33891809 4.2733536 -0.94964772
-0.43298629 5.4594412 -0.91302484
-0.60879827 7.6762209 -0.85828722
-1.0080022 12.709707 -0.71214491
-1.2997317 16.388071 0
-1.7269851 21.775225 1.2201002
-0.34448886 4.2780013 -0.9507724
-0.44184935 5.4870634 -0.91773289
-0.61703515 7.6625915 -0.85684603
-1.0218992 12.690357 -0.71112931
-1.3186971 16.376112 0
-1.7549635 21.793844 1.2212613
-0.35069257 4.2902417 -0.95358628
-0.4470149 5.4686131 -0.91473669
-0.62608296 7.659265 -0.85655802
-1.0359617 12.673569 -0.71025819
-1.3365754 16.351164 0
-1.7827779 21.809837 1.2222774
-0.3554565 4.2847552 -0.9524616
-0.4534103 5.4655132 -0.91430914
-0.63533723 7.6585026 -0.85655802
-1.048912 12.64383 -0.70866209
-1.3565465 16.352127 0
-1.810418 21.8232 1.223148
-0.36063352 4.2843227 -0.9524616
-0.45915267 5.4547296 -0.91259724
-0.64350599 7.644845 -0.85511684
-1.0635349 12.634784 -0.70822656
-1.2241609 14.543019 0
-1.8374399 21.828768 1.2235835
-0.36516127 4.2762866 -0.9507724
-0.46683517 5.4669571 -0.91473669
-0.65274286 7.644062 -0.85511684
-1.0759269 12.599834 -0.70633984
-1.240183 14.523385 0
-1.8649195 21.839474 1.2243091
-0.37098601 4.2834387 -0.9524616
-0.4741053 5.4740639 -0.91602099
-0.66153193 7.6381092 -0.85453969
-0.79027557 9.1245956 -0.51157302
-1.2563829 14.506314 0
-1.8928766 21.855328 1.2253251
-0.37593934 4.2804589 -0.95189929
-0.47959656 5.4607034 -0.9138816
-0.67076063 7.6373043 -0.85453969
-0.79970872 9.1055117 -0.51055688
-1.2727718 14.491825 0
-1.918828 21.847843 1.2250346
-0.37705421 4.2344403 -0.94176626
-0.48642185 5.4626741 -0.91430914
-0.68067676 7.6442194 -0.85540485
-0.80817503 9.076066 -0.50896025
-1.291666 14.505826 0
-1.9461473 21.855862 1.2256151
-0.38331321 4.2466421 -0.94458228
-0.49348319 5.4671907 -0.91516423
-0.6899128 7.6433916 -0.85540485
-0.81750661 9.0569744 -0.50794464
-0.82515997 9.1417646 0
-1.9755918 21.887144 1.2275023
-0.38844416 4.2461758 -0.94458228
-0.49915341 5.4563651 -0.91345239
-0.69914782 7.6425524 -0.85540485
-0.82702881 9.0404491 -0.50707352
-0.83359718 9.1122503 0
-2.0036931 21.902847 1.228518
-0.39451268 4.2558236 -0.94683385
-0.50669378 5.4659824 -0.91516423
-0.70766538 7.6339731 -0.85453969
-0.83723205 9.0316792 -0.50663799
-0.84244519 9.0879164 0
-2.0311162 21.910761 1.2290986
-0.3991791 4.2502794 -0.94570702
-0.51161844 5.4474831 -0.91216969
-0.71737325 7.6382675 -0.85511684
-0.84644437 9.0125589 -0.50562245
-0.85172284 9.0687618 0
-2.0597763 21.93157 1.2304046
-0.40007275 4.2323279 -0.94176626
-0.51563346 5.4548326 -0.91345239
-0.72198778 7.6378326 -0.85511684
-0.85042149 8.9965191 -0.50475132
-0.85720158 9.0682449 0
-2.0740039 21.94067 1.2309852
-0.40421772 4.221724 -0.9395147
-0.52197975 5.4516525 -0.91302484
-0.73170865 7.6420994 -0.85569286
-0.86104393 8.9929008 -0.50460631
-0.86691719 9.0542421 0
-2.1000185 21.93298 1.2306951
-0.41152632 4.2440009 -0.94458228
-0.52906263 5.4561329 -0.9138816
-0.74144185 7.6463633 -0.85627002
-0.87065578 8.9789248 -0.50388074
-0.87685311 9.0428371 0
-2.1277726 21.943356 1.2314208
-0.41739824 4.2510796 -0.94626933
-0.53515273 5.4503751 -0.91302484
-0.75093293 7.6480336 -0.85655802
-0.88023514 8.9649391 -0.50315517
-0.88599855 9.0236378 0
-2.1558082 21.95628 1.2322913
-0.41951841 4.2202311 -0.9395147
-0.5422464 5.4548383 -0.9138816
-0.75915015 7.6368256 -0.85540485
-0.89081007 8.9612856 -0.50301021
-0.89638585 9.0173759 0
-2.1833646 21.964001 1.2328719
-0.42538086 4.2273078 -0.94120389
-0.54832262 5.4490662 -0.91302484
-0.7681185 7.6333318 -0.85511684
-0.90085667 8.9524441 -0.50257462
-0.90623868 9.005929 0
-2.2101622 21.96393 1.2330168
-0.42945862 4.2166796 -0.93895239
-0.55334622 5.4330812 -0.91045785
-0.77786493 7.6375394 -0.85569286
-0.91167325 8.9513493 -0.50257462
-0.91659302 8.9996538 0
-2.238806 21.981924 1.2341779
-0.43585563 4.2287927 -0.94176626
-0.56122631 5.4451737 -0.91259724
-0.78656298 7.631453 -0.85511684
-0.92115676 8.9373198 -0.50184906
-0.92639941 8.9881849 0
-2.2672303 21.997299 1.2351941
-0.43964744 4.2156291 -0.93895239
-0.56860441 5.4521537 -0.9138816
-0.79524642 7.6253471 -0.85453969
-0.93168479 8.9336081 -0.5017035
-0.93671983 8.9818869 0
-2.2965028 22.020382 1.2366452
-0.44527462 4.2201533 -0.94007921
-0.5735752 5.4361405 -0.91131294
-0.80500293 7.62953 -0.85511684
-0.94111562 8.9195576 -0.50097799
-0.9470253 8.9755669 0
-2.3252897 22.038265 1.2378063
-0.4503735 4.2196126 -0.94007921
-0.58123308 5.4456539 -0.91302484
-0.81367159 7.6234031 -0.85453969
-0.95244455 8.9235868 -0.50126851
-0.956765 8.9640656 0
-2.3521936 22.038031 1.2379519
-0.45410737 4.2064266 -0.93726319
-0.58671051 5.4347386 -0.91131294
-0.82149458 7.6095591 -0.85309851
-0.96350491 8.9250097 -0.50141352
-0.96843392 8.9706678 0
-2.3807719 22.053247 1.2389674
-0.39237979 3.5939403 -0.99744964
-0.45974177 4.2109318 -0.93839002
-0.59327692 5.4340258 -0.91131294
-0.83068866 7.608561 -0.85309851
-0.97372377 8.9186678 -0.50112295
-0.97786045 8.9565573 0
-2.4074173 22.050356 1.2389674
-0.39424467 3.5710235 -0.99122089
-0.46455097 4.20785 -0.93782771
-0.59927958 5.4282064 -0.91045785
-0.83846265 7.5946999 -0.85165733
-0.9847855 8.9200754 -0.50126851
-0.98753965 8.9450226 0
-2.4377656 22.081003 1.2408541
-0.46794319 4.1921296 -0.93444932
-0.60498345 5.4198222 -0.90917355
-0.8484987 7.6013851 -0.85252136
-0.99498588 8.9137096 -0.50097799
-0.99950212 8.9541683 0
-2.4655974 22.088371 1.2414347
-0.47471833 4.2067151 -0.93782771
-0.61066794 5.4114323 -0.90788919
-0.85797375 7.602932 -0.8528105
-1.0025513 8.8841057 -0.49938184
-1.010028 8.9503603 0
-2.4951994 22.111202 1.2428863
-0.48095289 4.2162366 -0.94007921
-0.6180793 5.4183445 -0.90917355
-0.86686581 7.5993128 -0.85252136
-1.0129899 8.8802986 -0.49923629
-1.0196633 8.9388008 0
-2.523387 22.121077 1.2436119
-0.41408539 3.5915043 -0.99744964
-0.48517367 4.2080774 -0.93839002
-0.62403721 5.4124885 -0.90831679
-0.87545556 7.5931258 -0.85194534
-1.0237193 8.8790674 -0.49923629
-1.0316546 8.9478931 0
-2.5507088 22.123169 1.2439018
-0.42188305 3.5830159 -0.99537253
-0.49474669 4.2018409 -0.93726319
-0.6353147 5.3956728 -0.9057498
-0.89350045 7.5884213 -0.85165733
-1.0445664 8.8714113 -0.49894628
-1.052667 8.9402103 0
-2.605988 22.132429 1.244773
-0.49772307 4.1835856 -0.93332464
-0.64456302 5.4178405 -0.90960109
-0.90083492 7.5719213 -0.84992701
-1.055285 8.8701429 -0.49894628
-1.0616246 8.9234304 0
-2.486923 20.903702 1.175835
-0.43143901 3.5894608 -0.99744964
-0.50399065 4.1930718 -0.93557614
-0.65233433 5.4272528 -0.91131294
-0.90905839 7.5631304 -0.84906298
-1.0663118 8.871439 -0.4990913
-1.0742689 8.9376402 0
-2.5146599 20.92132 1.1769961
-0.50966877 4.1974998 -0.93670082
-0.65579796 5.4009819 -0.9070341
-0.91757214 7.5568867 -0.84848583
-1.0764047 8.8649902 -0.49880129
-1.0869491 8.9518318 0
-2.5371189 20.895054 1.1756899
-0.44041717 3.5908957 -0.99814117
-0.51226568 4.1767049 -0.93219775
-0.66044784 5.3848929 -0.9044655
-0.92701703 7.5583372 -0.84877384
-1.0871154 8.8636827 -0.49880129
-1.0968153 8.94277 0
-2.5576193 20.853283 1.1735127
-0.44321397 3.5779145 -0.994681
-0.51543844 4.1609578 -0.92882156
-0.66916335 5.4019265 -0.90746164
-0.9367857 7.5623503 -0.84935099
-1.0975044 8.8597765 -0.49865574
-1.1101797 8.9621 0
-2.5783432 20.814079 1.171481
-0.44599473 3.5826204 -0.99606401
-0.51826578 4.1631646 -0.92938387
-0.67052472 5.3862419 -0.90489465
-0.93943661 7.5463777 -0.84762067
-1.1028568 8.8591118 -0.49865574
-1.1178435 8.9794979 0
-2.587708 20.786737 1.17003
-0.4493854 3.5746186 -0.99398953
-0.52361244 4.1650543 -0.92994624
-0.67767221 5.3905168 -0.9057498
-0.94726378 7.5349722 -0.84646749
-1.115182 8.8706713 -0.49938184
-1.1283684 8.9755611 0
-2.6056931 20.726881 1.1668372
-0.45591494 3.5914872 -0.99883264
-0.52992463 4.1745009 -0.93219775
-0.6815989 5.3693209 -0.90232605
-0.95604217 7.5312586 -0.84617949
-1.1255715 8.8667316 -0.49923629
-1.1401963 8.9819393 0
-2.6300805 20.718557 1.1665466
-0.45929831 3.5834758 -0.99675816
-0.53755254 4.1940198 -0.93670082
-0.69102305 5.391407 -0.90617734
-0.96547008 7.532661 -0.84646749
-1.1356243 8.8602152 -0.49894628
-1.1510483 8.9805546 0
-2.6488373 20.666403 1.1637894
-0.46234012 3.5729661 -0.99398953
-0.54359829 4.2009296 -0.93839002
-0.69687879 5.3854814 -0.90532225
-0.97423953 7.5289259 -0.84617949
-1.14733 8.8665705 -0.49938184
-1.1618987 8.9791574 0
-2.6624696 20.575575 1.158855
-0.46795684 3.5823553 -0.99675816
-0.54933149 4.2053037 -0.9395147
-0.70404994 5.3897214 -0.90617734
-0.98266661 7.5226188 -0.84560347
-1.1587152 8.870326 -0.49967185
-1.1717359 8.9700031 0
-2.6647799 20.399721 1.1491309
-0.46900484 3.55691 -0.9898352
-0.55374873 4.1996036 -0.93839002
-0.71156889 5.3965044 -0.90746164
-0.99175555 7.5214262 -0.84560347
-1.1694324 8.8689194 -0.49967185
-1.1842742 8.9814787 0
-2.6731222 20.272831 1.1421642
-0.47363424 3.5588348 -0.99052936
-0.55915761 4.2014475 -0.93895239
-0.71571809 5.3778257 -0.9044655
-1.0015248 7.5253453 -0.84617949
-1.179463 8.8623533 -0.49938184
-1.1940954 8.9722996 0
-2.6904175 20.215498 1.1391165
-0.48160678 3.5856035 -0.99814117
-0.56288081 4.1906958 -0.93670082
-0.72187424 5.3744154 -0.90403789
-1.009585 7.5164466 -0.84531546
-1.1918998 8.8737955 -0.50010741
-1.2045897 8.9682732 0
-2.7117293 20.189056 1.1378103
-0.48155856 3.5527029 -0.98914373
-0.56896824 4.1975689 -0.93839002
-0.72905791 5.3786316 -0.90489465
-1.0190135 7.5177817 -0.84560347
-1.2029698 8.8749218 -0.50025243
-1.2140269 8.9564953 0
-2.7343771 20.172894 1.1370848
-0.48449105 3.542176 -0.98637509
-0.57679445 4.2170177 -0.94289309
-0.73451239 5.3701143 -0.90361035
-1.0277463 7.5139847 -0.84531546
-1.2154529 8.8863316 -0.50097799
-1.2248483 8.9550219 0
-2.7555811 20.146406 1.1357787
-0.48877072 3.5415881 -0.98637509
-0.58015293 4.2037349 -0.94007921
-0.74170184 5.3743038 -0.9044655
-1.0368247 7.5127373 -0.84531546
-1.2265443 8.8874273 -0.50112295
-1.23638 8.9586964 0
-2.7742383 20.101877 1.1334565
-0.49651021 3.5658476 -0.99329799
-0.58277863 4.1854124 -0.93613851
-0.74571794 5.3556132 -0.90147096
-1.0451876 7.5063505 -0.8447383
-1.2376415 8.8885202 -0.50126851
-1.2472039 8.9571962 0
-2.7938673 20.065056 1.1315699
-0.49802658 3.5453701 -0.98776072
-0.58889616 4.192256 -0.93782771
-0.7507602 5.3445396 -0.89975905
-1.0524582 7.4922781 -0.84329712
-1.2483807 8.8870182 -0.50126851
-1.2601975 8.9711409 0
-2.814496 20.035938 1.1301187
-0.50371802 3.5547016 -0.99052936
-0.59467357 4.196568 -0.93895239
-0.75685769 5.3410892 -0.89933151
-1.0618728 7.4935594 -0.84358513
-1.2620345 8.906085 -0.50242966
-1.2714013 8.9721861 0
-2.835057 20.00679 1.128667
-0.51156205 3.5789208 -0.99744964
-0.59902549 4.1908207 -0.93782771
-0.76185787 5.3300061 -0.89761966
-1.0683644 7.4743452 -0.8415668
-1.2735295 8.9096937 -0.50271964
-1.2848196 8.9886799 0
-2.8537152 19.964773 1.1264904
-0.51159024 3.5485029 -0.98914373
-0.60626358 4.2051783 -0.94120389
-0.76939541 5.3366966 -0.8989023
-1.0788711 7.4832888 -0.84271997
-1.2846646 8.910718 -0.50286466
-1.2990216 9.0103016 0
-2.8704209 19.909874 1.1235876
-0.51696086 3.5553324 -0.99122089
-0.6080541 4.1818151 -0.93613851
-0.77215016 5.3103642 -0.89462346
-1.0875406 7.4794226 -0.84243196
-1.2976747 8.924592 -0.50373578
-1.3091596 9.0035791 0
-2.8911114 19.883251 1.1222814
-0.52125639 3.5547051 -0.99122089
-0.61642408 4.203701 -0.94120389
-0.77856612 5.3094277 -0.89462346
-1.0954511 7.4704232 -0.8415668
-1.308834 8.9255867 -0.50388074
-1.3234357 9.0251627 0
-2.9102335 19.846323 1.1203947
-0.5277524 3.5689588 -0.99537253
-0.62187433 4.2054644 -0.94176626
-0.78385407 5.3008623 -0.89333916
-1.1052343 7.4742165 -0.84214395
-1.3234181 8.9496984 -0.50533187
-1.3389083 9.054451 0
-2.9296505 19.811945 1.1186531
-0.52984518 3.5534351 -0.99122089
-0.62883008 4.2172823 -0.94458228
-0.79253078 5.3151503 -0.89590776
-1.1154094 7.4805527 -0.84300911
-1.3357641 8.9583731 -0.50591242
-1.3636636 9.1454821 0
-2.9509044 19.7904 1.1176369
-0.53301913 3.5453472 -0.98914373
-0.62901336 4.1838479 -0.93726319
-0.79628056 5.2964163 -0.89291161
-1.1236775 7.4740791 -0.84243196
-1.3473608 8.9618959 -0.506203
-1.4114693 9.3883104 0
-2.9686356 19.745716 1.1153153
-0.53579867 3.5347788 -0.98637509
-0.63711464 4.2031822 -0.94176626
-0.80652612 5.3208261 -0.89719045
-1.1323204 7.470161 -0.84214395
-1.3613039 8.9808149 -0.50736409
-1.429832 9.432909 0
-2.9870396 19.706142 1.113283
-0.53717989 3.5294991 -0.98499209
-0.64233047 4.2203827 -0.94570702
-0.81089967 5.3279538 -0.89847475
-1.1387788 7.4822583 -0.84358513
-1.3737663 9.0262251 -0.50997633
-0 0 0
-2.9942527 19.673508 1.1115414
-0.54144418 3.5288472 -0.98499209
-0.64627308 4.2120667 -0.94401783
-0.81733692 5.3269701 -0.89847475
-1.1458579 7.4680963 -0.84214395
-1.3980696 9.1118793 -0.51491082
-1.4481108 9.4380217 0
-3.0121121 19.631355 1.1093647
-0.54532313 3.5257041 -0.98429793
-0.64903253 4.1962214 -0.94064158
-0.82377291 5.3259788 -0.89847475
-1.1560673 7.4743772 -0.84300911
-1.4380708 9.2976284 -0.5255053
-1.4587175 9.4311161 0
-3.028682 19.581484 1.1067525
-0.55344832 3.5498354 -0.99122089
-0.65684265 4.2130103 -0.94458228
-0.82981265 5.3224454 -0.89804721
-1.1631043 7.4601893 -0.8415668
-1.4577097 9.3497982 -0.52855307
-1.4673069 9.4113541 0
-3.0467355 19.541862 1.1047202
-0.55539966 3.5342894 -0.98706657
-0.66272092 4.2172289 -0.94570702
-0.83464909 5.311295 -0.8963353
-1.1713154 7.4536734 -0.84099078
-1.4702166 9.3557329 -0.5289886
-1.4778688 9.4044275 0
-3.0651023 19.504799 1.1028336
-0.56280941 3.5534387 -0.99260384
-0.66582912 4.2038794 -0.94289309
-0.84106618 5.3102827 -0.8963353
-1.1815351 7.459919 -0.84185594
-1.4827399 9.3616514 -0.52942419
-1.4888244 9.4000673 0
-3.0833838 19.467718 1.1009469
-0.56117201 3.5156021 -0.98222345
-0.67211014 4.2106018 -0.94458228
-0.84788626 5.3117952 -0.89676291
-1.1889173 7.4482694 -0.84070277
-1.4936398 9.3572798 -0.52927864
-1.5005913 9.4008284 0
-1.7582014 11.014691 0.62302732
-0.56940317 3.539686 -0.98914373
-0.67840677 4.2173052 -0.94626933
-0.85715818 5.3285108 -0.89975905
-1.1958627 7.4340615 -0.83926159
-1.5024698 9.3400803 -0.52840805
-1.50947 9.3835964 0
-1.7698584 11.002297 0.62244672
-0.57046831 3.5191839 -0.9836064
-0.68065721 4.1989326 -0.94233078
-0.8640064 5.3300028 -0.9001866
-1.2052579 7.4351616 -0.8395496
-1.5112605 9.3228731 -0.52753752
-1.5228889 9.3946085 0
-1.7827358 10.997588 0.62230176
-0.57189029 3.5011675 -0.97876328
-0.69064403 4.2281895 -0.94908321
-0.8729282 5.344151 -0.90275359
-1.2121565 7.420939 -0.83810842
-1.5225242 9.3210402 -0.52753752
-1.5338203 9.3901958 0
-1.7964414 10.997988 0.62244672
-0.57856411 3.515322 -0.98291492
-0.69327742 4.2123137 -0.94570702
-0.88313818 5.3658962 -0.90660655
-1.2223814 7.4271183 -0.83897245
-1.5308315 9.3012438 -0.52652138
-1.5443193 9.383194 0
