# .PCD v0.7 - Point Cloud Data file format
VERSION 0.7
FIELDS x y z
SIZE 4 4 4
TYPE F F F
COUNT 1 1 1
WIDTH 1592
HEIGHT 1
VIEWPOINT 0 0 0 1 0 0 0
POINTS 1592
DATA ascii
1.0054042 -2.7202053 -0.32324421
1.0889525 -2.9462521 -0.17544727
0.99074954 -2.6805558 0
1.089811 -2.9485748 0.17558558
0 -0 -0
0 -0 -0
0 -0 -0
1.0219655 -2.7598846 -0.49064371
0.99896485 -2.6977699 -0.32064983
1.0916338 -2.9480281 -0.17559227
0.99146247 -2.6775091 0
1.0933985 -2.9527941 0.17587614
1.0122732 -2.7235994 -0.95807672
0 -0 -0
0 -0 -0
1.02798 -2.7658596 -0.4919264
1.0013237 -2.6941388 -0.32036182
1.1006249 -2.9613163 -0.17646283
1.0019504 -2.6958249 0
1.0987743 -2.9563375 0.17616613
1.0535735 -2.824266 -0.99393517
0 -0 -0
0 -0 -0
1.0331174 -2.7694304 -0.49278316
1.0018654 -2.6856544 -0.31949666
1.0960293 -2.9380755 -0.17515671
1.0015686 -2.6848588 0
1.1050712 -2.9623137 0.17660169
0 -0 -0
1.1102506 -2.9652517 -0.70142692
1.0346609 -2.7633672 -0.4919264
1.0069253 -2.689291 -0.32007381
1.1032232 -2.9464829 -0.17573728
1.0011617 -2.6738975 0
1.1068257 -2.9561045 0.17631114
1.0421377 -2.7731278 -0.97682166
1.0432218 -2.7760124 -0.81818974
1.1093644 -2.9520178 -0.69861299
1.0389048 -2.7645249 -0.49235559
1.0083526 -2.6832254 -0.31949666
1.1058694 -2.9427178 -0.17559227
1.0053099 -2.6751292 0
1.1103967 -2.9547651 0.17631114
1.0568262 -2.8019278 -0.98741543
1.0253265 -2.7184136 -0.80157787
1.1326563 -3.0029736 -0.71099538
1.0386207 -2.75366 -0.49064371
1.0143332 -2.6892676 -0.32036182
1.1094244 -2.9413793 -0.17559227
1.0094591 -2.6763451 0
1.1139662 -2.9534211 0.17631114
1.0357097 -2.7359262 -0.96459639
1.0419343 -2.7523689 -0.81196094
1.1443828 -3.0229967 -0.71606296
1.0410357 -2.7499952 -0.49021453
1.02033 -2.6952991 -0.32122698
1.1148157 -2.9448922 -0.17588228
1.0090067 -2.6653876 0
1.1147768 -2.9447896 0.17587614
1.0521833 -2.7693319 -0.97682166
1.0416951 -2.7417271 -0.8091923
1.1444249 -3.0121107 -0.71381146
1.0616819 -2.794332 -0.4983463
1.023586 -2.6940644 -0.32122698
1.1165292 -2.9386897 -0.17559227
1.0140735 -2.6690276 0
1.1238698 -2.95801 0.1767467
1.0370363 -2.7195632 -0.95970821
1.0789726 -2.8295386 -0.83549309
1.1516849 -3.0202222 -0.71606296
1.0476784 -2.7474716 -0.49021453
0 -0 -0
1.1163759 -2.9276268 -0.17501171
1.0145186 -2.6605122 0
1.1283681 -2.9590755 0.1768917
1.0482715 -2.7390811 -0.96704209
1.0465226 -2.7345111 -0.80780667
1.1517006 -3.0093362 -0.71381146
1.057421 -2.7629883 -0.4932107
0 -0 -0
1.1171254 -2.918993 -0.17457616
1.0140117 -2.6495621 0
1.1310148 -2.9552853 0.1767467
1.056896 -2.7516515 -0.97193033
1.0408323 -2.7098296 -0.80088633
1.1635346 -3.0292878 -0.71887684
1.0644405 -2.7712941 -0.49492258
0 -0 -0
1.1234477 -2.9249203 -0.17501171
1.0265421 -2.6726248 0
1.1345849 -2.9539165 0.1767467
1.0593319 -2.7480686 -0.97111613
1.0441059 -2.70857 -0.80088633
1.1708498 -3.0373631 -0.7211284
1.0668659 -2.7676129 -0.494495
1.0282195 -2.6673584 -0.31863153
1.1241763 -2.9162848 -0.17457616
1.033515 -2.6810958 0
1.1409581 -2.9598196 0.17718226
1.0697858 -2.7652276 -0.97763586
1.0491865 -2.7119815 -0.80226934
1.1699324 -3.0240905 -0.71831238
1.0711346 -2.7687137 -0.49492258
0 -0 -0
1.1276991 -2.9149244 -0.17457616
1.0461421 -2.7041123 0
1.1445336 -2.9584386 0.17718226
1.065076 -2.7431986 -0.97030193
1.0579125 -2.7247484 -0.80642366
1.181865 -3.0439992 -0.72337997
1.0754075 -2.7698083 -0.49535012
1.0393459 -2.6769283 -0.32007381
1.1302809 -2.9111397 -0.17443116
1.0597711 -2.7295351 0
1.149047 -2.9594736 0.17732726
1.0791581 -2.7695453 -0.98008156
1.092171 -2.8029413 -0.82995582
1.184617 -3.0401945 -0.72281545
1.0824815 -2.7780743 -0.497062
1.047274 -2.6877182 -0.32151499
1.1347401 -2.9121907 -0.17457616
1.0668478 -2.7379522 0
1.149791 -2.9508173 0.1768917
1.0700462 -2.7412639 -0.97030193
1.0783567 -2.7625537 -0.81818974
1.1873802 -3.0418522 -0.72337997
1.0804259 -2.7678545 -0.49535012
1.047958 -2.6846778 -0.32122698
1.1402788 -2.9211867 -0.17515671
1.0836432 -2.7760968 0
1.1572446 -2.9646502 0.17776281
1.0652449 -2.7192593 -0.96296805
1.0643066 -2.7168639 -0.80503798
1.1864182 -3.0285792 -0.72056389
1.0837694 -2.766547 -0.49535012
1.0455388 -2.6689553 -0.31949666
1.1400164 -2.9101291 -0.17457616
1.0907938 -2.7844782 0
1.1598754 -2.9608233 0.17761725
1.0739539 -2.7317669 -0.96785629
1.0795203 -2.7459264 -0.81403542
1.1928666 -3.0342398 -0.72225308
1.0889918 -2.7700181 -0.49620688
1.0449777 -2.6580615 -0.31834352
1.146385 -2.9160068 -0.17501171
1.0951089 -2.7855778 0
1.1625023 -2.9570036 0.17747225
1.0872327 -2.7557602 -0.97682166
1.0579808 -2.6816165 -0.79534906
1.2030605 -3.0493438 -0.72619385
1.0979888 -2.7830234 -0.49877387
1.0567309 -2.6784484 -0.32093787
1.146093 -2.9049509 -0.17443116
1.0965618 -2.7794061 0
1.1679835 -2.9604356 0.17776281
1.0896527 -2.7521486 -0.97600752
1.0612202 -2.6803362 -0.79534906
1.2001957 -3.0313482 -0.72225308
1.1079668 -2.7984047 -0.50177008
1.0628239 -2.6843865 -0.321803
1.1505579 -2.9059775 -0.17457616
1.0970479 -2.7708268 0
1.1725154 -2.961436 0.17790781
1.0938891 -2.7531247 -0.97682166
1.0681635 -2.6883779 -0.7981177
1.2076105 -3.0393412 -0.72450465
1.1198773 -2.8185325 -0.50562137
1.0526977 -2.6494532 -0.31776747
1.1540684 -2.9045851 -0.17457616
1.0927074 -2.7501507 0
1.1808894 -2.9720888 0.17863338
1.0844177 -2.7197058 -0.80780667
1.2150464 -3.0473206 -0.72675616
1.1242321 -2.8195593 -0.50604892
1.0616442 -2.66259 -0.31949666
1.1585423 -2.9056091 -0.17472172
1.1162704 -2.7995918 0
1.1921787 -2.989969 0.17979449
1.1069673 -2.7665384 -0.9825272
1.0662701 -2.6648278 -0.79188889
1.2149519 -3.0364139 -0.72450465
1.1400346 -2.8491802 -0.51161206
1.0600573 -2.6493006 -0.31805548
1.1639811 -2.9090276 -0.17501171
1.1447875 -2.861059 0
1.193862 -2.983706 0.17950448
1.1010979 -2.7422583 -0.97437602
1.0685518 -2.6612027 -0.79119474
1.2129411 -3.0208008 -0.7211284
1.1616514 -2.893065 -0.51974386
1.0796406 -2.6888192 -0.32295617
1.1645896 -2.9003828 -0.17457616
0 -0 0
1.2013354 -2.9918973 0.18008448
1.0887082 -2.7019556 -0.96052235
1.0933325 -2.7134323 -0.80711514
1.2194364 -3.0263965 -0.72281545
1.1833721 -2.9368923 -0.52787399
1.0693574 -2.6539307 -0.31892064
1.1671232 -2.8965657 -0.17443116
0 -0 0
1.207864 -2.9976764 0.18052004
1.1160593 -2.7602096 -0.9817099
1.0759228 -2.6609452 -0.79188889
1.2126179 -2.9990158 -0.71662533
1.1994287 -2.9663966 -0.53343713
1.0803199 -2.6718197 -0.32122698
1.1754915 -2.9071958 -0.17515671
0 -0 0
1.2095391 -2.9914014 0.18023005
1.1156766 -2.7496979 -0.97845006
1.0998867 -2.7107821 -0.80711514
1.235347 -3.0446379 -0.72788304
1.2088048 -2.9792221 -0.5360058
1.086462 -2.6776955 -0.32209104
1.1790035 -2.9057734 -0.17515671
0 -0 0
1.2151047 -2.9947486 0.18052004
1.1096797 -2.725461 -0.97030193
1.0776209 -2.6467218 -0.78842878
1.2371068 -3.0384316 -0.72675616
1.217243 -2.9896448 -0.53814518
1.0779924 -2.6476345 -0.31863153
1.1893736 -2.9211953 -0.17617284
0 -0 0
1.2216629 -3.0005004 0.1809556
1.1092329 -2.7149661 -0.96704209
1.0884053 -2.6639881 -0.79396343
1.2302053 -3.0110588 -0.72056389
1.2247381 -2.9976773 -0.53985709
1.0958654 -2.6822476 -0.32295617
1.1938843 -2.9221592 -0.17631783
0 -0 0
1.2272512 -3.0038283 0.1812456
1.1256367 -2.7456357 -0.97845006
1.0792528 -2.6324968 -0.78496599
1.2357723 -3.0142765 -0.72169077
1.2225149 -2.9819393 -0.53728843
1.0991056 -2.6809216 -0.32295617
1.1983989 -2.9231164 -0.17646283
0 -0 0
1.2377805 -3.0191753 0.18226172
1.1385626 -2.7723908 -0.98822963
1.0817988 -2.6341717 -0.78566015
1.2385573 -3.0158775 -0.72225308
1.2233418 -2.978828 -0.53686088
1.1007251 -2.6802571 -0.32295617
1.203127 -2.929605 -0.17689839
0 -0 0
1.2396044 -3.0184269 0.18226172
1.1183699 -2.7138858 -0.96785629
1.0993161 -2.667649 -0.79604053
1.2451059 -3.0214288 -0.72394228
0 -0 -0
1.1049473 -2.681314 -0.32324421
1.2126081 -2.9425685 -0.17776951
0 -0 0
1.2402796 -3.0097172 0.18182616
1.1339254 -2.7422228 -0.97845006
1.0939115 -2.6454556 -0.78981179
1.2361344 -2.9893994 -0.71662533
1.2275932 -2.9687438 -0.53557658
1.0943513 -2.6465189 -0.31920865
1.2241024 -2.9603019 -0.17893006
0 -0 0
1.2498748 -3.0226285 0.18269728
1.141027 -2.7499824 -0.9817099
1.0807633 -2.6047413 -0.77804565
1.2290331 -2.9620855 -0.71043307
1.2282308 -2.9601519 -0.53429389
1.1015133 -2.6547506 -0.32036182
1.2316618 -2.968421 -0.17951062
0 -0 0
1.2515326 -3.0163114 0.18240672
1.136749 -2.7303476 -0.97519016
1.0868036 -2.610384 -0.78012282
1.2228471 -2.9371457 -0.70480531
1.2288457 -2.9515538 -0.53300959
1.1057134 -2.6558032 -0.32064983
1.2422397 -2.9837248 -0.18052673
0 -0 0
1.2631662 -3.0339878 0.18356784
1.1448138 -2.7403817 -0.97926736
1.0899569 -2.6090689 -0.78012282
1.1695892 -2.7996874 -0.67215908
1.2155901 -2.9098015 -0.52573454
1.1149056 -2.6687894 -0.32238016
1.2448435 -2.9798262 -0.18038173
0 -0 0
1.2708378 -3.0420496 0.18414839
1.139522 -2.7184749 -0.97193033
1.0950465 -2.6123729 -0.78150582
1.141542 -2.7232938 -0.65414888
1.191318 -2.842041 -0.51375151
1.1231281 -2.6793649 -0.32382134
1.2524612 -2.9879057 -0.18096229
0 -0 0
1.2815452 -3.0572894 0.18516451
1.1543049 -2.7444353 -0.9817099
1.0904211 -2.5925477 -0.77596855
1.1645302 -2.7687469 -0.66540444
1.1678822 -2.7767165 -0.50219762
1.1474222 -2.7280715 -0.3298752
1.2540538 -2.981595 -0.18067174
0 -0 0
1.291281 -3.0701053 0.18603507
1.1547399 -2.7362139 -0.97926736
1.0847747 -2.5704281 -0.76973975
1.2192476 -2.8890681 -0.69467443
1.1532723 -2.7327363 -0.494495
1.1688176 -2.7695718 -0.3350639
1.2576555 -2.9800777 -0.18067174
0 -0 0
5.2431011 -12.42379 0.75321114
1.1310602 -2.6710894 -0.95644832
1.0976641 -2.5922217 -0.77666271
1.2425491 -2.9343793 -0.70592999
1.1495657 -2.7147913 -0.49149883
1.1671215 -2.7562511 -0.33362272
1.2612555 -2.9785559 -0.18067174
0 -0 0
5.2469625 -12.391123 0.75161445
1.1410533 -2.6856465 -0.96215385
1.1047158 -2.6001205 -0.77942866
1.2590096 -2.963275 -0.71324694
1.1418059 -2.687418 -0.48679242
1.1643807 -2.740551 -0.33189243
1.2658687 -2.979419 -0.18081674
0 -0 0
5.2568517 -12.372818 0.75088888
1.1694961 -2.743376 -0.9833414
1.09999 -2.5803304 -0.77389401
0 -0 -0
1.1470637 -2.6907547 -0.48764753
1.1747923 -2.7557995 -0.33391073
1.2664138 -2.9707232 -0.18038173
0 -0 0
5.2667036 -12.354508 0.75016332
1.1630883 -2.7192318 -0.97519016
1.1109961 -2.5974433 -0.77942866
0 -0 -0
1.146276 -2.6799257 -0.48593566
1.158794 -2.7091923 -0.32843292
1.2751107 -2.9811339 -0.1811073
0 -0 0
5.2785616 -12.340965 0.74972779
1.1449307 -2.6678607 -0.95726252
1.129964 -2.6329861 -0.79050326
0 -0 -0
1.1545743 -2.6903315 -0.48807511
1.1477882 -2.6745188 -0.32439739
1.2797357 -2.9819765 -0.1812523
0 -0 0
5.2832198 -12.310696 0.74827611
1.1484964 -2.6717143 -0.95889401
1.1186754 -2.6023421 -0.78150582
0 -0 -0
1.1511314 -2.6778438 -0.48593566
1.1340846 -2.6381884 -0.32007381
1.2774322 -2.9716539 -0.18067174
0 -0 0
5.2855263 -12.295568 0.74755055
1.1761942 -2.7270603 -0.97926736
1.1357269 -2.6332352 -0.79119474
1.2710781 -2.947053 -0.71099538
1.1553818 -2.6788058 -0.48636323
1.1208819 -2.5988162 -0.31546113
1.281022 -2.9701083 -0.18067174
0 -0 0
5.2993507 -12.286788 0.74740553
1.1863568 -2.7415087 -0.98496979
1.1179893 -2.5835209 -0.77666271
1.2635409 -2.9198706 -0.70480531
1.1637144 -2.6891851 -0.48850265
1.1271039 -2.6045833 -0.31632629
1.2887378 -2.9780972 -0.1812523
0 -0 0
5.3090343 -12.268455 0.74668002
1.1719524 -2.6992691 -0.97030193
1.1101187 -2.5568523 -0.76904827
1.2690899 -2.9229987 -0.70592999
1.1690096 -2.6924911 -0.48935941
1.1075864 -2.5510197 -0.30998331
1.2871619 -2.9646227 -0.18052673
0 -0 0
5.313508 -12.2382 0.74522889
1.1663303 -2.6774597 -0.96296805
1.129238 -2.5923095 -0.78012282
1.2665343 -2.9074907 -0.70255375
1.1702096 -2.6863651 -0.48850265
1.1013724 -2.5283403 -0.30738896
1.2897065 -2.9606853 -0.18038173
0 -0 0
5.3282919 -12.231771 0.74522889
1.1705536 -2.6783111 -0.96378225
1.1223207 -2.5679505 -0.77319986
1.2741168 -2.9152713 -0.70480531
1.1837372 -2.7084761 -0.49278316
1.1054615 -2.5293756 -0.30767697
1.2859977 -2.9424555 -0.17936562
0 -0 0
5.3326592 -12.201509 0.74377722
1.1896696 -2.7131116 -0.97682166
1.1274395 -2.5711923 -0.77458555
1.2664133 -2.8881302 -0.69861299
1.1849452 -2.7023373 -0.4919264
1.1074792 -2.5256715 -0.30738896
1.2843357 -2.9290032 -0.17864007
1.1518087 -2.6267676 0
5.3411398 -12.180783 0.74290663
1.1630906 -2.6438057 -0.95237428
1.1335772 -2.5767193 -0.77666271
1.2473941 -2.8354352 -0.6862306
1.1851114 -2.693861 -0.49064371
1.1178219 -2.5409062 -0.30940726
1.2805485 -2.9107976 -0.17762394
1.1633617 -2.6444221 0
5.3453884 -12.150532 0.74145496
1.1742684 -2.6604877 -0.95889401
1.1164294 -2.5294447 -0.76281947
1.2097836 -2.740953 -0.66371739
1.1862904 -2.6877255 -0.48978695
1.1240255 -2.5466547 -0.31027243
1.2693774 -2.875972 -0.17559227
1.1665561 -2.6430144 0
5.363215 -12.151197 0.74189055
1.1924905 -2.6929595 -0.97111613
1.1225294 -2.5349691 -0.76489395
1.1606247 -2.6209984 -0.63500977
1.1895372 -2.6862903 -0.48978695
1.1187238 -2.5263748 -0.30796608
1.2444478 -2.810293 -0.17167392
1.1802883 -2.6654038 0
5.3621149 -12.109076 0.73971385
1.188722 -2.6757121 -0.96541375
1.1317049 -2.5473714 -0.76904827
1.1431627 -2.5731618 -0.6237542
1.2021612 -2.7059624 -0.49363825
1.1259761 -2.534476 -0.30911925
1.2256892 -2.7589219 -0.16862613
1.1845636 -2.6663518 0
5.3756843 -12.100207 0.73956829
1.18994 -2.6697545 -0.96378225
1.1347822 -2.5460021 -0.76904827
1.1328247 -2.5416105 -0.61643726
1.2022978 -2.6974807 -0.49235559
1.1300896 -2.5354741 -0.30940726
1.1983455 -2.6886132 -0.16441724
1.1687157 -2.6221359 0
5.3765502 -12.062851 0.73768163
1.1961927 -2.6750858 -0.96622789
1.1480967 -2.5675271 -0.77596855
1.1296695 -2.5263178 -0.61305887
1.2107948 -2.7077408 -0.494495
1.1384305 -2.5459101 -0.31084844
1.1888648 -2.6586981 -0.16267556
1.1729445 -2.6230953 0
5.3964243 -12.068204 0.73840719
1.1872842 -2.6465774 -0.95644832
1.152228 -2.5684335 -0.77666271
1.1275222 -2.5133619 -0.61024499
1.2109125 -2.6992471 -0.4932107
1.1404482 -2.5421751 -0.31056044
1.1910139 -2.6548913 -0.16253056
1.1814383 -2.6335464 0
5.4067483 -12.052192 0.73782665
1.2058817 -2.670732 -0.96622789
1.1481056 -2.5427721 -0.76973975
1.1325482 -2.508316 -0.60968262
1.2142618 -2.6892917 -0.4919264
1.1359426 -2.5158339 -0.30767697
1.1942173 -2.6448982 -0.162095
1.1888691 -2.6330531 0
5.4230304 -12.010681 0.73608553
1.2024038 -2.6587451 -0.96215385
1.1630797 -2.5717921 -0.77873719
1.1246412 -2.4867973 -0.60461718
1.1957911 -2.6441233 -0.48379624
1.1459887 -2.5340006 -0.30998331
1.1958151 -2.6441762 -0.162095
1.1936779 -2.6394506 0
5.4174366 -11.978992 0.73434383
1.2188898 -2.6865485 -0.97274762
1.2014266 -2.6480577 -0.80226934
1.1318445 -2.4946921 -0.60686874
1.1915598 -2.6263103 -0.48080006
1.1405005 -2.5137708 -0.30767697
1.1979367 -2.6403654 -0.16194999
1.2043941 -2.6545985 0
5.4308348 -11.970073 0.73419881
1.2077985 -2.6535757 -0.96133655
1.2087826 -2.6557376 -0.80503798
1.1380128 -2.5002539 -0.60855579
1.1894161 -2.6131887 -0.47866064
1.1446117 -2.5147519 -0.30796608
1.1978958 -2.6318188 -0.16151445
1.1914279 -2.6176088 0
5.4388332 -11.949307 0.73332775
1.21614 -2.6633623 -0.96541375
1.2099086 -2.6497154 -0.80365503
1.1294266 -2.473459 -0.60236567
1.1819121 -2.5884027 -0.47438177
1.1487228 -2.5157175 -0.30825409
1.2097093 -2.6492789 -0.16267556
1.2032378 -2.6351063 0
5.4435549 -11.921455 0.73202163
1.2265596 -2.677614 -0.97111613
1.1890776 -2.5957897 -0.78773463
1.1334717 -2.4744003 -0.60292798
1.1732777 -2.5612979 -0.46967372
1.1431442 -2.4955156 -0.30594775
1.2031711 -2.6265562 -0.16136944
1.2064209 -2.6336505 0
5.4557934 -11.91015 0.73173159
1.2163785 -2.6469364 -0.96052235
1.2079278 -2.628547 -0.7981177
1.1354008 -2.4707222 -0.60236567
1.1656547 -2.5365572 -0.46539488
1.1537199 -2.5105863 -0.30796608
1.2085119 -2.629818 -0.16165943
1.2215571 -2.6582055 0
5.4690924 -11.90118 0.73158604
1.227854 -2.6634212 -0.96704209
1.2027005 -2.6088591 -0.79258043
1.135193 -2.4624238 -0.60067648
1.155822 -2.5071716 -0.46025929
1.1567526 -2.5091903 -0.30796608
1.217127 -2.6401525 -0.162385
1.2029769 -2.6094587 0
5.4736791 -11.873327 0.73027992
1.206172 -2.6080959 -0.94748294
1.192163 -2.5778043 -0.78358299
1.1413682 -2.4679713 -0.60236567
1.1653138 -2.5197487 -0.46282625
1.1532674 -2.4937007 -0.30623579
1.2105007 -2.617456 -0.16107889
1.2137769 -2.6245403 0
5.4847484 -11.859628 0.72984439
1.2218046 -2.6335413 -0.95726252
1.2037234 -2.5945683 -0.78912026
1.1496952 -2.4781127 -0.60517955
1.1489131 -2.4764273 -0.45512366
1.1617212 -2.5040345 -0.30767697
1.2191335 -2.627784 -0.161805
1.22023 -2.6301475 0
5.4903302 -11.834144 0.72868383
1.2416722 -2.6679161 -0.97030193
1.2005041 -2.5794604 -0.78496599
1.1484001 -2.4675071 -0.60292798
1.1540688 -2.4796875 -0.45597878
1.1734769 -2.5213888 -0.30998331
1.2234032 -2.6286623 -0.16194999
1.2277997 -2.638109 0
5.5002398 -11.818078 0.72810328
1.2480327 -2.6731346 -0.97274762
1.2057447 -2.5825589 -0.78635162
1.1374079 -2.4361897 -0.59561104
1.1581534 -2.480624 -0.45640799
1.1622993 -2.4895039 -0.30623579
1.2287749 -2.6318867 -0.16224
1.2331904 -2.6413443 0
5.5101185 -11.802006 0.72752267
1.2365835 -2.6402845 -0.96133655
1.2184399 -2.6015453 -0.79258043
1.1403507 -2.4348135 -0.59561104
1.1480843 -2.4513259 -0.45127237
1.1718907 -2.502156 -0.30796608
1.228651 -2.6233475 -0.161805
1.2319658 -2.630425 0
5.5166593 -11.778865 0.72650659
1.2355689 -2.6298404 -0.95807672
1.2429186 -2.645484 -0.80642366
1.1465343 -2.4403353 -0.59730023
1.1532265 -2.4545794 -0.45212749
1.1705139 -2.4913743 -0.30681291
1.2251881 -2.6077454 -0.16093388
1.2307166 -2.6195126 0
5.5198402 -11.748676 0.72505546
1.240855 -2.6328213 -0.95970821
1.2354168 -2.6212823 -0.7995007
1.1527288 -2.4458368 -0.59898728
1.1561916 -2.4531841 -0.45212749
1.1746249 -2.4922955 -0.30710092
1.2427384 -2.6368172 -0.16282056
1.2494119 -2.6509771 0
5.5307078 -11.734944 0.72461993
1.2382252 -2.6231308 -0.95644832
1.2541349 -2.6568348 -0.81057531
1.1509554 -2.4382532 -0.59730023
1.1653452 -2.4687374 -0.45512366
1.1639843 -2.4658544 -0.30392945
1.2410024 -2.6290143 -0.162385
1.2487935 -2.6455193 0
5.5333595 -11.722201 0.72403938
1.2392763 -2.6171606 -0.95481682
1.2476823 -2.634913 -0.8043465
1.1636865 -2.4575267 -0.60236567
1.155144 -2.4394863 -0.44998807
1.1758183 -2.4831474 -0.30623579
1.2408452 -2.6204741 -0.16194999
1.257557 -2.6557667 0
5.5408497 -11.701421 0.72316879
1.259405 -2.651382 -0.96785629
1.258401 -2.6492684 -0.8091923
1.1557511 -2.4331629 -0.59673572
1.1591911 -2.4404051 -0.45041561
1.1799265 -2.4840589 -0.3065238
1.2440107 -2.618973 -0.16194999
1.2507166 -2.6330907 0
5.5516386 -11.687674 0.72273326
1.2519783 -2.6275501 -0.95970821
1.2637575 -2.6522713 -0.81057531
1.1597863 -2.4340651 -0.59730023
1.1577221 -2.429733 -0.44870377
1.1829273 -2.4826312 -0.3065238
1.2471743 -2.6174679 -0.16194999
1.258375 -2.6409752 0
5.5556984 -11.659847 0.72142714
1.2551522 -2.6260355 -0.95970821
1.2615529 -2.6394269 -0.80711514
1.1594384 -2.4257822 -0.59561104
1.1628733 -2.4329691 -0.44956052
1.1848118 -2.4788687 -0.30623579
1.2503361 -2.6159589 -0.16194999
1.2671757 -2.6511908 0
5.5675397 -11.648433 0.72113657
1.2465694 -2.5999992 -0.95074278
1.2723346 -2.6537383 -0.81196094
1.1645634 -2.4289575 -0.59673572
1.161373 -2.422303 -0.44784865
1.1777433 -2.4564471 -0.30364144
1.2523737 -2.6121054 -0.161805
1.2670017 -2.6426153 0
5.5816107 -11.641697 0.72113657
1.2529248 -2.6051753 -0.95318848
1.2646646 -2.6295857 -0.80503798
1.156487 -2.4046545 -0.59110796
1.178762 -2.4509704 -0.45341182
1.1795907 -2.4526935 -0.3033534
1.2510242 -2.6012235 -0.16122444
1.2758327 -2.652807 0
5.5832882 -11.609192 0.71954042
1.2700317 -2.6325967 -0.96378225
1.2645698 -2.6212749 -0.80296087
1.1715372 -2.4284313 -0.59730023
1.171685 -2.4287376 -0.44956052
1.1791809 -2.4442756 -0.30248827
1.2609384 -2.6137476 -0.162095
1.2745138 -2.6418877 0
5.5973115 -11.602437 0.71954042
1.2775183 -2.6399593 -0.96704209
1.2633692 -2.6107206 -0.80019486
1.1755763 -2.4292989 -0.5978626
0 -0 -0
1.1798823 -2.4381969 -0.30191222
1.262965 -2.6098852 -0.16194999
1.2935781 -2.673147 0
5.6090608 -11.590983 0.7192499
1.2893416 -2.6562018 -0.97356182
1.2577585 -2.5911367 -0.79465759
1.1884958 -2.448447 -0.60292798
0 -0 -0
1.1952484 -2.4623582 -0.30508262
1.2593071 -2.5943272 -0.16107889
1.2945322 -2.6668949 0
5.6287346 -11.595883 0.71997547
1.2914692 -2.652422 -0.97274762
1.2630829 -2.5941219 -0.79604053
1.1970139 -2.4584293 -0.60574192
1.1771088 -2.4175482 -0.44827619
1.185771 -2.4353385 -0.30191222
1.2726775 -2.6138275 -0.162385
1.2852247 -2.6395969 0
5.1354375 -10.547171 0.65524685
1.2762349 -2.6131065 -0.95889401
1.2530047 -2.5655427 -0.78773463
1.2122506 -2.4820981 -0.61193419
1.1901671 -2.4368818 -0.45212749
1.1989274 -2.4548187 -0.30450657
1.2724172 -2.6052899 -0.16194999
1.2929816 -2.6473958 0
5.1573005 -10.559637 0.65640795
1.2815639 -2.6159976 -0.96052235
1.2550011 -2.5617759 -0.78704309
1.2152488 -2.4806314 -0.61193419
1.184076 -2.4169996 -0.44870377
1.2178211 -2.485882 -0.30854213
1.2789905 -2.6107445 -0.162385
1.3053347 -2.6645195 0
5.1769128 -10.567394 0.65727854
1.2934442 -2.6321931 -0.96704209
1.2580956 -2.5602577 -0.78704309
1.2260863 -2.4951177 -0.61587274
1.1949216 -2.4316969 -0.45169994
1.2219635 -2.486728 -0.30883014
1.2787094 -2.6022074 -0.16194999
1.3039666 -2.6536064 0
5.1965556 -10.575128 0.65814966
1.2900696 -2.6173308 -0.96215385
1.2833712 -2.6037409 -0.80088633
1.2448293 -2.5255461 -0.6237542
1.1955912 -2.4256506 -0.45084482
1.216966 -2.4690163 -0.30681291
1.286448 -2.6099834 -0.16253056
1.3152229 -2.6683626 0
5.2104778 -10.57117 0.65829468
1.287751 -2.6046858 -0.95807672
1.2742847 -2.5774481 -0.7932719
1.2602639 -2.5490885 -0.62994432
1.1928295 -2.4126916 -0.44870377
1.2165085 -2.4605861 -0.30594775
1.2930522 -2.6154082 -0.16296555
1.2930734 -2.6154511 0
5.2220964 -10.562539 0.65814966
1.2849375 -2.5950475 -0.95481682
1.2602587 -2.5452065 -0.78358299
1.2663137 -2.557435 -0.63219583
1.1999857 -2.4234796 -0.45084482
1.221439 -2.4668067 -0.30681291
1.2957884 -2.616962 -0.16311112
1.3061992 -2.6379874 0
5.2319326 -10.566361 0.65858465
1.3045644 -2.6266994 -0.96704209
1.3001581 -2.6178277 -0.80642366
1.2818365 -2.5809376 -0.6383881
1.1983457 -2.4128313 -0.44913295
1.2313197 -2.4792237 -0.30854213
1.2966356 -2.6107354 -0.16282056
1.2966552 -2.6107745 0
5.2435417 -10.557707 0.65843964
1.2735759 -2.5565464 -0.94178051
1.2518643 -2.5129633 -0.77458555
1.2815541 -2.5725617 -0.6366989
1.2035472 -2.4159727 -0.44998807
1.228549 -2.4661605 -0.30710092
1.3067434 -2.6231263 -0.16369167
1.3206947 -2.6511316 0
5.2632442 -10.565313 0.65931022
1.289921 -2.5815372 -0.95156008
1.2818084 -2.5653012 -0.79119474
1.2733065 -2.5482862 -0.63107115
1.2018759 -2.4053314 -0.44827619
1.2373074 -2.4762409 -0.30854213
1.3110722 -2.6238675 -0.16383667
1.3273879 -2.6565204 0
5.2667193 -10.540359 0.65814966
1.3074349 -2.6086998 -0.96215385
1.2882804 -2.5704813 -0.7932719
1.2843508 -2.5626404 -0.63500977
1.2047814 -2.4038773 -0.44827619
1.2472541 -2.4886222 -0.31027243
1.311911 -2.617631 -0.16354612
1.3119397 -2.6176882 0
5.2864347 -10.547922 0.65902019
1.310586 -2.6071181 -0.96215385
1.2947668 -2.5756493 -0.79534906
1.2726115 -2.5315762 -0.62769276
1.2076851 -2.4024198 -0.44827619
1.2467741 -2.4801784 -0.30940726
1.3034046 -2.5928321 -0.162095
1.3408149 -2.6672516 0
5.2956738 -10.53456 0.65858465
1.2937034 -2.5658033 -0.94748294
1.2820673 -2.5427256 -0.78566015
1.2768167 -2.5323122 -0.62825727
1.2082778 -2.3963788 -0.44742107
1.2520967 -2.4832847 -0.30998331
1.3123847 -2.602854 -0.16282056
1.3358338 -2.6493607 0
5.3037195 -10.518872 0.65800411
1.30015 -2.5708573 -0.94992858
1.294192 -2.5590761 -0.79119474
1.27758 -2.5262282 -0.62713045
1.2134874 -2.3994944 -0.44827619
1.2387568 -2.449461 -0.30594775
4.8603334 -9.6106014 -0.60155445
1.3566527 -2.6825829 0
5.3152537 -10.510139 0.65785909
1.2909554 -2.5450356 -0.94096321
1.2995552 -2.5619895 -0.79258043
1.2806315 -2.5246828 -0.62713045
1.2198707 -2.4048967 -0.44956052
1.2463958 -2.4571891 -0.30710092
4.8942776 -9.6487541 -0.60431224
1.3257524 -2.6136355 0
5.3220735 -10.492125 0.65713352
1.2940297 -2.5434737 -0.94096321
1.2878621 -2.5313513 -0.78358299
1.2687039 -2.493695 -0.61981344
1.2157936 -2.3896973 -0.44699353
1.2575749 -2.4718206 -0.30911925
4.8658738 -9.5640955 -0.59937781
1.3631315 -2.6792965 0
5.3382831 -10.492637 0.65756911
1.2869923 -2.5220966 -0.93362927
1.2863586 -2.5208547 -0.78081435
1.2659428 -2.4808462 -0.61699957
1.2186803 -2.3882267 -0.44699353
1.2535048 -2.4564714 -0.30738896
4.8856907 -9.5744038 -0.60039335
1.3947577 -2.7332826 0
5.3462329 -10.476921 0.65698856
1.2967975 -2.5337451 -0.93852067
1.2985476 -2.5371647 -0.78635162
1.2608348 -2.4634795 -0.61305887
1.2168868 -2.3776116 -0.44528165
1.2517583 -2.4457455 -0.30623579
4.9126449 -9.5985613 -0.60228002
1.399244 -2.7339098 0
5.3565187 -10.465822 0.65669799
1.2885686 -2.5101838 -0.93036944
0 -0 -0
1.2452445 -2.4257867 -0.60405272
1.2291329 -2.3944008 -0.44870377
1.2523525 -2.4396334 -0.30565974
4.8957644 -9.5371475 -0.5987972
1.4500821 -2.8248188 0
5.3691607 -10.459343 0.65669799
1.2825539 -2.4910538 -0.92385286
1.2977825 -2.5206318 -0.7821973
1.2656224 -2.4581685 -0.6124965
1.2202766 -2.370095 -0.4444249
1.2470105 -2.4220192 -0.30364144
4.9286923 -9.5728045 -0.60140944
1.447539 -2.8114977 0
5.3794179 -10.448232 0.65640795
1.2764906 -2.4719336 -0.91733313
1.3065861 -2.5302138 -0.78566015
1.2546017 -2.4295456 -0.60574192
1.2219627 -2.3663402 -0.44399735
1.254683 -2.4297032 -0.30479458
4.9187975 -9.5252886 -0.5987972
1.4485492 -2.8051262 0
5.3991899 -10.455572 0.65727854
1.2938768 -2.5018933 -0.9287411
1.3196367 -2.5517039 -0.79258043
1.2700757 -2.4558706 -0.6124965
1.2186753 -2.3564806 -0.44228548
0 -0 -0
4.9114199 -9.4969234 -0.59720057
1.4382863 -2.7811296 0
5.3911819 -10.424611 0.65553689
1.2707233 -2.4498634 -0.90999609
1.3100114 -2.5256081 -0.78496599
1.2578342 -2.4250143 -0.60517955
1.2203408 -2.3527298 -0.44185793
0 -0 -0
4.9372487 -9.5186615 -0.59894222
1.4620155 -2.818661 0
5.4085598 -10.427316 0.65611744
1.2953564 -2.4899888 -0.9254812
1.2910669 -2.4817431 -0.77181691
1.261935 -2.4257448 -0.60574192
1.2302889 -2.3649132 -0.4444249
0 -0 -0
4.9331579 -9.4827242 -0.59705555
0 -0 0
1.4387821 -2.7656875 0.17413446
1.2812132 -2.4555507 -0.91325593
1.2929052 -2.4779592 -0.77112538
1.2777954 -2.4489999 -0.61193419
1.226023 -2.3497739 -0.44185793
0 -0 -0
4.9458132 -9.4790583 -0.59720057
1.4880847 -2.8520367 0
1.4781804 -2.8330543 0.17848837
1.275016 -2.4364901 -0.90673935
1.2924078 -2.4697247 -0.76904827
1.2689704 -2.424937 -0.60630423
1.2217176 -2.3346395 -0.4392893
0 -0 -0
4.9488287 -9.4569569 -0.59618443
1.4963564 -2.8594601 0
1.4647379 -2.7990389 0.17645669
1.2940375 -2.4655824 -0.91814733
1.2918922 -2.4614949 -0.76697111
1.2766228 -2.4324014 -0.60855579
1.2495891 -2.380893 -0.44827619
0 -0 -0
4.9554214 -9.4417667 -0.59560388
1.4877183 -2.8346105 0
1.4693253 -2.7995656 0.17660169
1.3027709 -2.4749506 -0.92222136
1.2960329 -2.4621499 -0.76766258
1.2748268 -2.4218633 -0.60630423
1.2488812 -2.3725731 -0.44699353
0 -0 -0
4.9595671 -9.4219809 -0.5947333
1.4765955 -2.8051755 0
1.4497094 -2.7540982 0.17384391
1.3046076 -2.4711909 -0.92140716
1.2814417 -2.4273098 -0.75728214
1.3014772 -2.4652612 -0.61756194
1.2553391 -2.3778663 -0.44827619
0 -0 -0
4.9721599 -9.4182768 -0.59487832
1.4556838 -2.7573597 0
1.4591053 -2.7638404 0.17457002
1.269428 -2.3975322 -0.89451408
1.2890693 -2.4346282 -0.76005083
1.2961311 -2.4479656 -0.61362118
1.2810355 -2.4194551 -0.45640799
1.2892532 -2.4349756 -0.30710092
4.9811068 -9.4076738 -0.59458834
5.8525667 -11.053575 0
1.4794638 -2.7942209 0.17660169
1.2920289 -2.4331043 -0.90836769
1.2814219 -2.4131293 -0.75382203
1.3110071 -2.4688432 -0.61925113
1.2622846 -2.3770907 -0.44870377
0 -0 -0
4.9778466 -9.3741093 -0.59284663
5.8756781 -11.064875 0
1.4718722 -2.7717788 0.17529558
1.3158783 -2.4708045 -0.9230355
1.2819759 -2.4071465 -0.75243634
1.3247375 -2.4874394 -0.62431657
0 -0 -0
1.2987825 -2.438704 -0.30796608
4.9855042 -9.3612051 -0.5924111
5.8939371 -11.066955 0
1.5069753 -2.8296244 0.17906892
1.2955784 -2.4256186 -0.90673935
1.2860644 -2.4078064 -0.75312787
1.314573 -2.4611812 -0.61812425
1.2728631 -2.3830907 -0.45041561
1.2992887 -2.4325655 -0.30738896
5.0017085 -9.3643417 -0.59299165
5.890142 -11.027692 0
1.5018226 -2.8117552 0.17805281
1.278669 -2.3870156 -0.89288574
1.2771287 -2.3841403 -0.74620759
1.3223451 -2.46855 -0.62037581
1.2757417 -2.381551 -0.45041561
1.3034472 -2.4332716 -0.30767697
5.008112 -9.3491297 -0.5924111
5.9022346 -11.018274 0
1.5223943 -2.8420014 0.18008448
1.3213203 -2.4594927 -0.92059296
1.2705102 -2.3649151 -0.74067026
1.3277342 -2.4714315 -0.62150264
0 -0 -0
1.3051635 -2.4294186 -0.30738896
5.0108004 -9.327055 -0.59139556
5.9118476 -11.004255 0
1.5086132 -2.8081176 0.17805281
1.2914655 -2.3969698 -0.89777398
0 -0 -0
1.3271027 -2.4631126 -0.61981344
1.2912343 -2.3965404 -0.45383936
1.3044164 -2.4210067 -0.3065238
5.0195994 -9.3164139 -0.59110498
5.9177356 -10.983361 0
1.5157038 -2.8131576 0.17848837
1.3049345 -2.4149754 -0.90510786
1.2833797 -2.3750851 -0.74482459
1.3264531 -2.4547987 -0.61812425
1.2904714 -2.3882096 -0.4525567
1.3085738 -2.4217107 -0.30681291
5.0283842 -9.3057737 -0.59081495
5.9322386 -10.97849 0
5.6718698 -10.496639 0.66642189
1.3110983 -2.4228816 -0.90836769
0 -0 -0
1.3364018 -2.4696419 -0.62206501
1.2894683 -2.3829098 -0.45169994
1.3137261 -2.4277375 -0.30767697
5.0401878 -9.3141584 -0.59154052
5.9301987 -10.95888 0
5.683157 -10.502352 0.66700244
1.3157693 -2.4175375 -0.90755355
0 -0 -0
1.3290037 -2.4418538 -0.61587274
1.293997 -2.3775342 -0.45127237
1.3356665 -2.4540956 -0.3114256
5.035356 -9.2517452 -0.58834773
5.9454689 -10.923946 0
5.7333636 -10.534233 0.66990525
1.3257922 -2.4289584 -0.91244179
1.2777882 -2.3410113 -0.73582715
1.3380436 -2.4514039 -0.61868876
1.2980976 -2.3782198 -0.45169994
1.3274745 -2.4320407 -0.30883014
5.0539985 -9.2593346 -0.58921832
5.9511852 -10.903052 0
5.7697382 -10.570627 0.6726625
1.3275405 -2.4251888 -0.91162759
1.2697709 -2.3196535 -0.72959566
1.3336819 -2.436408 -0.61531037
1.2985075 -2.3721504 -0.45084482
1.342834 -2.4531274 -0.31171361
5.0489645 -9.2235918 -0.58733165
5.970602 -10.907266 0
5.829916 -10.650257 0.67817754
1.322143 -2.4084146 -0.90592206
1.2749896 -2.3225203 -0.73098135
1.3305124 -2.4236603 -0.6124965
1.3026069 -2.3728278 -0.45127237
1.3420619 -2.4446988 -0.31084844
5.0576072 -9.2129335 -0.58704162
5.9687486 -10.872667 0
5.8990488 -10.745704 0.68470865
1.3238612 -2.4046521 -0.90510786
1.3007803 -2.3627284 -0.74413043
1.3297625 -2.4153712 -0.6108073
1.3005209 -2.362257 -0.44956052
1.3412714 -2.436276 -0.30998331
5.0699873 -9.2090893 -0.58718663
5.9793735 -10.860892 0
5.94837 -10.804578 0.68891758
1.3291574 -2.4073825 -0.90673935
1.3024229 -2.3589606 -0.7434389
1.3265406 -2.4026427 -0.60799342
1.3058534 -2.3651741 -0.45041561
0 -0 -0
5.06604 -9.1756592 -0.58544493
5.983686 -10.837709 0
5.9689541 -10.811027 0.6897881
1.3236834 -2.3906367 -0.90103382
1.2991972 -2.3464134 -0.73997879
1.3269835 -2.3965967 -0.60686874
1.3111997 -2.3680904 -0.45127237
0 -0 -0
5.0695686 -9.1558876 -0.58457386
5.9929938 -10.823639 0
5.9769778 -10.794713 0.68920755
1.3085721 -2.356621 -0.88880855
1.3129913 -2.3645797 -0.74620759
1.3237072 -2.383878 -0.60405272
1.3115653 -2.3620114 -0.45041561
1.35763 -2.4449699 -0.31171361
5.0881991 -9.1633902 -0.58544493
6.0010142 -10.807288 0
5.9862361 -10.780675 0.68877256
1.3138258 -2.3593609 -0.89044005
1.3268312 -2.3827159 -0.75243634
1.3241168 -2.3778412 -0.60292798
1.3244096 -2.3783672 -0.45383936
1.3681309 -2.4568818 -0.31344283
5.1005306 -9.159503 -0.58558995
6.0077386 -10.788663 0
5.9929338 -10.762076 0.68804646
1.321496 -2.3664033 -0.89369988
1.3235945 -2.3701613 -0.74897623
1.3170781 -2.3584924 -0.59842491
1.3172696 -2.358835 -0.45041561
1.3647944 -2.4439378 -0.31200162
0 -0 -0
6.0093517 -10.760948 0
5.9995999 -10.743485 0.68732089
1.3315982 -2.3777397 -0.89858812
1.3325855 -2.3795025 -0.75243634
1.311235 -2.3413785 -0.59448421
1.3213767 -2.3594878 -0.45084482
1.3753269 -2.4558229 -0.31373084
0 -0 -0
6.026166 -10.760493 0
6.0062299 -10.724895 0.68659532
1.3054234 -2.3244088 -0.87902898
1.3305457 -2.3691409 -0.7496677
1.3041142 -2.3220775 -0.58998328
1.3267384 -2.3623617 -0.45169994
1.3706964 -2.4406326 -0.31200162
0 -0 -0
6.0289683 -10.735051 0
6.0102763 -10.701769 0.68557918
1.3213664 -2.3494709 -0.88880855
1.3295195 -2.3639677 -0.7482847
0 -0 -0
1.3294225 -2.363795 -0.45212749
1.3797756 -2.453326 -0.31373084
5.122663 -9.1084108 -0.58370328
6.0290751 -10.720067 0
6.0116458 -10.689076 0.68499863
1.3302789 -2.3586428 -0.89288574
1.3249779 -2.3492441 -0.74413043
0 -0 -0
1.322189 -2.3442993 -0.44870377
1.3840133 -2.4539165 -0.31401995
5.1285591 -9.0931606 -0.58312273
6.0420241 -10.712774 0
6.0194511 -10.672751 0.68441808
1.3233935 -2.339823 -0.88636601
1.3376962 -2.3651109 -0.7496677
0 -0 -0
1.3288133 -2.3494053 -0.44998807
1.380607 -2.4409792 -0.31257766
5.1254749 -9.0620852 -0.58152664
6.049839 -10.696404 0
6.0285087 -10.658691 0.68398309
1.3213422 -2.3296227 -0.88310617
1.3368434 -2.3569524 -0.74759322
0 -0 -0
1.3379823 -2.3589604 -0.45212749
1.3861101 -2.4438131 -0.31315479
5.1377015 -9.0581427 -0.5816716
6.0576234 -10.680032 0
6.033689 -10.637834 0.68311197
1.3314857 -2.3409107 -0.88799435
1.3520916 -2.3771384 -0.7545135
0 -0 -0
1.3268744 -2.3328032 -0.44742107
1.4069624 -2.4736078 -0.31719035
5.1447878 -9.0451508 -0.58123606
6.0640912 -10.661396 0
6.0426879 -10.623766 0.68267697
1.3379881 -2.3457429 -0.89044005
1.3288612 -2.3297417 -0.73997879
1.2918186 -2.2647991 -0.57759875
1.3449546 -2.3579564 -0.4525567
1.3945723 -2.4449453 -0.31373084
5.1544271 -9.0366726 -0.58109105
6.0743876 -10.649535 0
6.0542288 -10.614193 0.68253142
1.3273215 -2.3205228 -0.88147467
1.3428848 -2.3477316 -0.74620759
1.2983402 -2.2698555 -0.57928795
1.3235847 -2.3139899 -0.4444249
1.4077991 -2.4612198 -0.31603718
5.1550212 -9.012393 -0.57992995
6.0795007 -10.628638 0
6.0644717 -10.602364 0.68224144
1.3313531 -2.3210592 -0.88228881
1.3569536 -2.3656907 -0.75243634
1.3036128 -2.2726972 -0.58041477
1.3429829 -2.3413346 -0.44998807
1.4120626 -2.461767 -0.31632629
5.1620269 -8.9993935 -0.57949436
6.0845671 -10.607735 0
6.0695186 -10.5815 0.68137032
1.3464825 -2.3408775 -0.89044005
1.3648146 -2.3727481 -0.75520504
1.3000197 -2.2601016 -0.57759875
1.3522096 -2.3508339 -0.45212749
1.417613 -2.4645388 -0.31690231
5.1677151 -8.9841404 -0.57891381
6.0934906 -10.593614 0
6.0758233 -10.562899 0.68064475
1.3381968 -2.3199821 -0.88310617
1.360162 -2.3580625 -0.75105339
1.3091012 -2.2695403 -0.58041477
1.3665916 -2.3692093 -0.45597878
1.4270504 -2.4740243 -0.31834352
5.1707792 -8.9643888 -0.57804328
0 -0 0
6.0820913 -10.544297 0.67991918
1.3570856 -2.3461747 -0.89369988
1.3567308 -2.3455613 -0.74759322
0 -0 -0
1.3540343 -2.3408995 -0.45084482
1.4287448 -2.4700615 -0.31805548
5.1829071 -8.9603815 -0.57818824
6.1047387 -10.554074 0
6.0896239 -10.527944 0.67933863
1.328918 -2.2910857 -0.87332654
1.3696291 -2.3612728 -0.75312787
0 -0 -0
1.3555702 -2.3370347 -0.45041561
1.4291304 -2.4638543 -0.31747836
5.1898174 -8.9473667 -0.57775271
6.1161823 -10.544441 0
6.0906076 -10.50035 0.67803252
1.3552929 -2.3300653 -0.88880855
1.380052 -2.372632 -0.75728214
0 -0 -0
1.3648502 -2.3464963 -0.4525567
1.436009 -2.4688351 -0.31834352
5.1927886 -8.9276171 -0.57688212
6.1236844 -10.528045 0
6.1059012 -10.497471 0.67832249
1.3344507 -2.2878675 -0.87332654
1.3892367 -2.3817959 -0.76074231
0 -0 -0
1.3780265 -2.3625765 -0.45597878
1.4376892 -2.4648662 -0.31805548
5.2035723 -8.9213362 -0.57688212
6.1285315 -10.507146 0
6.1081123 -10.472138 0.67716193
1.3734007 -2.3481221 -0.89695978
1.3883125 -2.3736169 -0.75866514
0 -0 -0
1.3860644 -2.3697734 -0.45769066
1.4341384 -2.451966 -0.3166143
5.2064791 -8.9015884 -0.5760116
6.1372848 -10.493 0
6.1181355 -10.460259 0.67687142
1.3387265 -2.282506 -0.8725124
1.3899115 -2.3697758 -0.75797367
0 -0 -0
1.3629572 -2.3238192 -0.44913295
1.4397147 -2.4546893 -0.31719035
5.2172313 -8.8952913 -0.5760116
6.1433721 -10.474345 0
6.1241984 -10.441655 0.67614585
1.3515027 -2.2979221 -0.87902898
1.3965907 -2.374584 -0.76005083
0 -0 -0
1.3839812 -2.3531446 -0.45512366
3.8119762 -6.4813962 -0.83810842
5.2174373 -8.8710623 -0.5748505
0 -0 0
6.1315413 -10.425288 0.6755653
1.3503846 -2.29285 -0.87740058
1.3814753 -2.3456397 -0.75105339
0 -0 -0
1.3788902 -2.3412504 -0.45298424
3.8172026 -6.4813185 -0.83839643
5.2201557 -8.8634262 -0.57455993
6.1544242 -10.449743 0
6.1352038 -10.417109 0.67527527
1.3305329 -2.2529137 -0.86273277
1.3804801 -2.337486 -0.74897623
0 -0 -0
1.3934655 -2.3594739 -0.45683554
3.8145089 -6.4588847 -0.83609009
5.2255764 -8.8481627 -0.57397938
0 -0 0
6.1385355 -10.394024 0.67425919
1.3345124 -2.2534289 -0.86354697
1.3935304 -2.3530855 -0.7545135
0 -0 -0
1.4041615 -2.371037 -0.45940253
3.8288989 -6.4653964 -0.83753127
5.2309675 -8.8328991 -0.57339877
6.1664004 -10.412452 0
6.1444712 -10.375422 0.67353362
1.3397558 -2.2560608 -0.86517537
1.4053407 -2.3665016 -0.7593593
0 -0 -0
1.3939204 -2.3472707 -0.45512366
3.8367083 -6.4607654 -0.83753127
5.2376599 -8.8198757 -0.57296377
6.1670194 -10.384856 0
6.1503658 -10.356812 0.67280751
1.3513341 -2.2693076 -0.8708809
1.4133334 -2.3734238 -0.76212794
0 -0 -0
1.4033215 -2.3566108 -0.45726311
3.8365746 -6.4427953 -0.83580208
5.2443237 -8.8068409 -0.57252824
6.1795626 -10.377397 0
6.1628752 -10.349374 0.67280751
1.366744 -2.2888899 -0.87902898
1.4187701 -2.3760183 -0.76351094
0 -0 -0
1.4088026 -2.3593256 -0.45811987
3.8456814 -6.4403734 -0.83609009
5.2443037 -8.78265 -0.57136714
6.1867604 -10.360985 0
6.1727142 -10.337461 0.67251748
1.3593559 -2.2702806 -0.8725124
1.4280827 -2.3850622 -0.76697111
1.3576928 -2.267503 -0.58548021
1.4011024 -2.3400021 -0.45469612
3.849473 -6.4290624 -0.83522493
5.2495728 -8.7673893 -0.5707866
6.1925864 -10.342331 0
6.1798611 -10.321078 0.67193693
1.3595512 -2.2643943 -0.8708809
1.4193423 -2.3639793 -0.76074231
1.3604317 -2.2658608 -0.58548021
1.4290316 -2.3801172 -0.46282625
3.8665595 -6.4399309 -0.83724326
5.2601624 -8.7610397 -0.5707866
6.1997199 -10.325916 0
6.1856413 -10.302466 0.67121136
1.3635598 -2.2648654 -0.87169504
1.4105531 -2.3429208 -0.7545135
1.3553027 -2.2511501 -0.58210182
1.4186685 -2.3564005 -0.45854741
3.8716674 -6.4308181 -0.83666611
5.2586837 -8.7346449 -0.56948048
6.2001128 -10.298353 0
6.1940632 -10.288304 0.67077583
1.3650193 -2.2611022 -0.8708809
1.3913423 -2.3047051 -0.74274743
1.3645864 -2.260385 -0.5849157
1.445393 -2.394238 -0.46625
3.8727524 -6.4150662 -0.83522493
5.2665458 -8.7238312 -0.56918991
6.2192807 -10.302 0
6.2011185 -10.271914 0.67019528
1.3728702 -2.2679088 -0.87414074
1.3850306 -2.287997 -0.73790163
1.3686363 -2.2609146 -0.58548021
1.4708829 -2.4298205 -0.47352502
3.879163 -6.4081712 -0.83493692
5.2676673 -8.7019072 -0.56817436
6.2236352 -10.281116 0
6.2067986 -10.253302 0.66946971
1.3820207 -2.2768104 -0.87821478
1.3956074 -2.2991936 -0.74205595
1.3726844 -2.2614291 -0.58604252
1.4764844 -2.4324346 -0.47438177
3.8909307 -6.4101148 -0.83580208
5.2619982 -8.6688805 -0.56643265
6.2184997 -10.244668 0
6.2124429 -10.234691 0.66874415
1.383487 -2.2730296 -0.87740058
1.3801209 -2.2674992 -0.73236436
1.3754158 -2.2597687 -0.58604252
1.4967719 -2.4591534 -0.47994494
3.8959811 -6.4009857 -0.83522493
5.257607 -8.6380978 -0.56483597
5.1538687 -8.467659 0
6.2261548 -10.229394 0.66888916
1.3772181 -2.2565861 -0.87169504
1.3867818 -2.2722564 -0.73444146
1.3754953 -2.2537634 -0.5849157
1.5037503 -2.4639103 -0.48122761
3.8996742 -6.3896565 -0.8343609
5.2017174 -8.5230675 -0.55772483
5.1573186 -8.4503202 0
5.2084222 -8.5340528 0.55844373
1.3579644 -2.2220185 -0.85865873
1.3750744 -2.2500155 -0.72752118
1.3715568 -2.2442596 -0.58266413
1.5159478 -2.4805248 -0.48465136
3.9102764 -6.3983321 -0.83580208
5.1662178 -8.4534121 -0.55337095
0 -0 0
0 -0 0
1.3671041 -2.230911 -0.86273277
1.3908979 -2.2697392 -0.73444146
1.3755989 -2.2447734 -0.58322865
1.5202891 -2.4808862 -0.48508057
3.9193547 -6.3958058 -0.83609009
5.1574183 -8.4161415 -0.55133873
0 -0 0
0 -0 0
1.4073222 -2.2903244 -0.88636601
1.3844442 -2.2530923 -0.72959566
1.3809682 -2.2474353 -0.58435333
1.5246283 -2.4812326 -0.48550811
3.9203107 -6.3800488 -0.83464891
5.1648655 -8.4054804 -0.5510487
5.193716 -8.4524326 0
0 -0 0
1.386749 -2.2507417 -0.87169504
1.3884854 -2.2535598 -0.73028982
1.3770199 -2.2349508 -0.58153945
2.6761966 -4.3435593 -0.8505457
3.9293723 -6.3775072 -0.83493692
5.1573 -8.3704767 -0.54916203
5.1889129 -8.4217844 0
5.240376 -8.505311 0.55800813
1.3673851 -2.2133205 -0.85784143
1.397799 -2.2625501 -0.73374999
1.3890688 -2.2484188 -0.58548021
2.6895356 -4.3534217 -0.8531127
3.9411552 -6.3793578 -0.83580208
5.1687751 -8.3664474 -0.54930705
5.2059226 -8.4265766 0
5.2438221 -8.4879217 0.55728263
1.3934895 -2.249491 -0.8725124
1.3899627 -2.2437975 -0.72821271
1.3864323 -2.2380986 -0.58322865
2.6826284 -4.3305302 -0.8492614
3.944773 -6.3679929 -0.83493692
0 -0 -0
5.2256956 -8.4357691 0
5.2636542 -8.4970446 0.55829871
1.4092453 -2.2687972 -0.88066047
1.3900229 -2.2378502 -0.72682703
1.3971771 -2.2493682 -0.58660489
2.7000482 -4.3469095 -0.8531127
3.9538279 -6.3654165 -0.83522493
5.1889782 -8.3539314 -0.54930705
5.2468705 -8.447135 0
5.2848854 -8.508337 0.55945981
1.4159068 -2.2733886 -0.88310617
1.4059913 -2.2574682 -0.73374999
1.3945209 -2.2390511 -0.58435333
2.6903689 -4.3196726 -0.84840465
3.9697232 -6.3738117 -0.83695525
5.1963239 -8.3432484 -0.54901701
5.2460666 -8.4231157 0
5.2951622 -8.5019445 0.55945981
1.43305 -2.2947304 -0.89206839
1.3927716 -2.2302327 -0.72544402
1.3945361 -2.2330582 -0.58322865
2.7037477 -4.3294873 -0.85097325
3.9733105 -6.3624268 -0.83609009
5.2064009 -8.3369637 -0.54901701
5.2493491 -8.405736 0
5.3219481 -8.5219879 0.56120151
1.4961584 -2.3893542 -0.92955524
1.399461 -2.2349293 -0.72752118
1.4053217 -2.2442887 -0.58660489
2.7103381 -4.3283906 -0.85140079
3.9672711 -6.3357038 -0.83320773
5.2316365 -8.3548861 -0.55061316
5.2691665 -8.4148207 0
5.3363743 -8.5221519 0.56163651
1.4911613 -2.3749895 -0.924667
1.4021604 -2.2332366 -0.72752118
1.412087 -2.2490468 -0.58829409
2.7101061 -4.3164163 -0.84968895
3.9804251 -6.3396673 -0.8343609
5.2500205 -8.3617668 -0.55148429
5.283483 -8.4150629 0
5.3397608 -8.5046968 0.56091094
1.5071952 -2.3940983 -0.93281513
1.4008468 -2.2251694 -0.72544402
1.401264 -2.225832 -0.58266413
2.7139533 -4.3109679 -0.8492614
3.9880824 -6.3348532 -0.8343609
5.2531943 -8.3444157 -0.55075818
5.2908711 -8.4042635 0
5.3265004 -8.4608583 0.55844373
1.5377911 -2.4361641 -0.94992858
1.4035345 -2.2234752 -0.72544402
1.4107378 -2.2348866 -0.58548021
2.7164171 -4.30334 -0.84840465
4.0067735 -6.3475189 -0.83666611
5.2702122 -8.3490553 -0.55148429
5.3010225 -8.3978643 0
5.3256235 -8.4368372 0.55728263
1.5090097 -2.3841815 -0.93036944
1.4142678 -2.2344928 -0.72959566
1.4039236 -2.2181494 -0.58153945
2.7161233 -4.291378 -0.84669274
4.0102944 -6.3361225 -0.83580208
5.2747378 -8.3338985 -0.55090374
5.3195195 -8.4046516 0
5.3344254 -8.4282026 0.55713761
1.5158638 -2.3886189 -0.93281513
1.4129378 -2.2264335 -0.72752118
1.4120488 -2.2250328 -0.58379102
2.7158046 -4.2794232 -0.8449809
4.0096297 -6.3181653 -0.83407176
5.2834077 -8.3253183 -0.55075818
5.3199081 -8.3828335 0
5.3571353 -8.441494 0.55844373
1.5464675 -2.4335918 -0.95074278
1.4331176 -2.2552192 -0.73721015
1.4256564 -2.2434781 -0.5888564
2.7211459 -4.2821193 -0.84583765
4.0176091 -6.3222928 -0.83493692
5.2926188 -8.3287067 -0.55119371
5.3124108 -8.3598518 0
5.3747754 -8.4579916 0.55974984
1.5042529 -2.3608544 -0.9230355
1.4250567 -2.2365596 -0.73167282
1.4229047 -2.2331822 -0.58660489
2.7290742 -4.283154 -0.84669274
4.0196857 -6.3087082 -0.83378375
5.3026786 -8.3223057 -0.55119371
5.3253078 -8.3578205 0
5.3905768 -8.4602575 0.56033039
1.5403694 -2.411104 -0.94340891
1.4237049 -2.2284918 -0.72959566
1.4256021 -2.2314613 -0.58660489
2.7301054 -4.2733698 -0.84541011
4.0273056 -6.3038468 -0.83378375
5.3127308 -8.3158922 -0.55119371
5.3466063 -8.3689165 0
5.3951993 -8.4449787 0.55974984
1.4926239 -2.3301582 -0.91244179
1.4263965 -2.2267697 -0.72959566
1.4255589 -2.225462 -0.58548021
2.7297282 -4.2614212 -0.8436982
4.0321321 -6.2946239 -0.83320773
5.3255806 -8.3138466 -0.55148429
5.3496971 -8.3514948 0
5.3885808 -8.4121971 0.55800813
1.5395145 -2.3969784 -0.93933481
1.4277316 -2.2229357 -0.72890419
1.4227544 -2.2151864 -0.58322865
1.5280118 -2.3790691 -0.4713856
4.0453262 -6.2984524 -0.8343609
5.3426423 -8.3183355 -0.55220985
5.3527536 -8.3340778 0
6.3465476 -9.8813858 0.65597242
1.561391 -2.4181676 -0.94911444
1.4603167 -2.261631 -0.74274743
1.4391297 -2.2288184 -0.58773172
1.5337566 -2.3753695 -0.4713856
4.0577264 -6.2843084 -0.83378375
5.357091 -8.2966681 -0.55162925
6.3821936 -9.8842716 0
6.3633623 -9.8551073 0.65524685
1.5549079 -2.4017539 -0.94340891
1.4766798 -2.2809203 -0.7496677
1.426631 -2.2036135 -0.58153945
1.5394132 -2.3778203 -0.47224072
4.066721 -6.28157 -0.83407176
5.3840575 -8.3163643 -0.55337095
6.3997893 -9.8852921 0
6.3738551 -9.845232 0.6551019
1.5456988 -2.381217 -0.93607497
1.7949547 -2.7652066 -0.90954977
1.4320568 -2.2061465 -0.58266413
1.5380962 -2.3695049 -0.47095805
4.0714946 -6.2723165 -0.83349574
5.4181523 -8.3469019 -0.55583817
6.3947253 -9.8513565 0
6.3829141 -9.8331604 0.65481132
1.5566616 -2.3917727 -0.94096321
1.8256643 -2.805089 -0.92339301
1.4444249 -2.2193236 -0.58660489
1.5297558 -2.3504326 -0.4675343
4.0847139 -6.2760634 -0.83464891
5.4381514 -8.355588 -0.55685371
6.4108844 -9.8501682 0
6.3862891 -9.8123779 0.65394074
1.5676574 -2.4023132 -0.94585454
1.8098553 -2.7734628 -0.91370142
1.460994 -2.2388599 -0.59223479
2.7811017 -4.2618227 -0.84840465
4.0795741 -6.2516308 -0.83205456
5.4297848 -8.3207235 -0.55496705
6.4156718 -9.8315191 0
6.3881993 -9.7894192 0.65292466
1.5583812 -2.3818052 -0.93852067
1.8090885 -2.764982 -0.91162694
1.4609132 -2.2328365 -0.59110796
2.790467 -4.2649055 -0.84968895
4.0956187 -6.2596788 -0.83378375
5.4526372 -8.333724 -0.55627316
6.4246941 -9.8193998 0
6.4028711 -9.786046 0.65321517
1.5653213 -2.3861141 -0.94096321
1.8399448 -2.8047395 -0.92546749
1.4580351 -2.2225714 -0.5888564
2.7998438 -4.267972 -0.85097325
4.0989218 -6.2482352 -0.83291858
5.4627028 -8.3271294 -0.55627316
6.4322758 -9.8051081 0
6.4075603 -9.7674332 0.65248907
1.5532669 -2.3615124 -0.93200094
1.8323034 -2.7857461 -0.91993022
1.4523445 -2.208075 -0.58548021
2.7979469 -4.2538643 -0.84883386
4.1007833 -6.2346344 -0.83176541
5.4699078 -8.316185 -0.55598319
6.4412556 -9.7929764 0
6.4150782 -9.7531767 0.65205407
1.5751665 -2.3885164 -0.94340891
1.8425779 -2.794008 -0.92339301
1.449416 -2.1978338 -0.58322865
2.8044968 -4.2526212 -0.8492614
4.1040459 -6.2232032 -0.83090138
5.4728007 -8.2987261 -0.55525762
6.4430585 -9.7699842 0
6.4154139 -9.7280645 0.65089297
1.5685129 -2.3721857 -0.93770647
1.8293482 -2.7666674 -0.91508704
2.2003887 -3.3278213 -0.88379294
2.7997208 -4.2342381 -0.8462652
4.1244001 -6.2376552 -0.83349574
5.4885569 -8.3007765 -0.55583817
6.4505515 -9.7556772 0
6.4257317 -9.7181406 0.65074795
1.5644879 -2.3629942 -0.93444663
1.847639 -2.7906637 -0.92339301
2.2038002 -3.3286078 -0.88435525
2.8065312 -4.2389693 -0.8475495
4.1281681 -6.2351623 -0.83349574
5.4892659 -8.2909575 -0.55540264
6.455009 -9.7496099 0
6.4301634 -9.7120838 0.6506024
1.5796431 -2.3796329 -0.94178051
1.8343596 -2.7633471 -0.91508704
2.2078204 -3.3259425 -0.88435525
2.8088088 -4.2312937 -0.84669274
4.1399918 -6.2366366 -0.8343609
5.4863477 -8.2648363 -0.55409652
6.4610271 -9.7331305 0
6.4361453 -9.6956472 0.65002185
1.5633428 -2.3489127 -0.93036944
1.8376973 -2.7611287 -0.91508704
2.2132442 -3.3253856 -0.88491762
2.8196087 -4.2364445 -0.84840465
4.1389232 -6.2187066 -0.83263057
5.490571 -8.2495489 -0.55351597
6.4641285 -9.7123137 0
6.4420972 -9.6792107 0.6494413
1.5826428 -2.3716929 -0.94014901
1.864704 -2.7943799 -0.92685312
2.2116246 -3.3142629 -0.8826682
2.8261547 -4.2351761 -0.84883386
4.145 -6.2115517 -0.83234257
5.500535 -8.2429085 -0.55351597
6.4830809 -9.7153177 0
6.4494653 -9.6649418 0.64900631
1.5855073 -2.3697789 -0.94014901
1.8387842 -2.7483392 -0.91231841
2.2241023 -3.324255 -0.88604444
2.8269861 -4.2253551 -0.8475495
4.1481862 -6.2000871 -0.8314774
5.5047112 -8.2276173 -0.55293536
