# .PCD v0.7 - Point Cloud Data file format
VERSION 0.7
FIELDS x y z
SIZE 4 4 4
TYPE F F F
COUNT 1 1 1
WIDTH 1578
HEIGHT 1
VIEWPOINT 0 0 0 1 0 0 0
POINTS 1578
DATA ascii
2.2286344 1.4794075 -0.73801601
2.5324886 1.6811115 -0.67337888
2.9014208 1.9260154 -0.58058178
3.4422135 2.2850034 -0.46051237
4.2495427 2.8209229 -0.28490058
6.0476427 4.014534 0
7.8343058 5.2005534 0.52523255
1.9624569 1.3061332 -0.7773
2.2122316 1.4723732 -0.73317283
2.5304554 1.6841702 -0.67337888
2.8969567 1.9280989 -0.58015424
3.43945 2.289161 -0.46051237
4.2418089 2.8231788 -0.28461057
6.0514536 4.0276065 0
7.8193636 5.204257 0.524652
1.964993 1.3112499 -0.7789315
2.2459247 1.4987171 -0.74493897
2.5326414 1.6900446 -0.67450356
2.9010327 1.935874 -0.58143854
3.4431379 2.2976234 -0.46137753
4.2470398 2.8340714 -0.28519112
6.0444117 4.0334668 0
7.8152289 5.2151423 0.52479702
1.9551902 1.3081256 -0.77567166
2.2107503 1.4791088 -0.73386437
2.5200405 1.6860403 -0.67168969
2.8880255 1.9322418 -0.57929915
3.4425068 2.3032191 -0.46166554
4.2414465 2.8377521 -0.28504556
6.050355 4.0480075 0
7.8197265 5.2318106 0.52552313
1.9494991 1.3077308 -0.77404016
2.240207 1.5027386 -0.74424475
2.5264418 1.6947459 -0.67394125
2.8984759 1.9443076 -0.58186615
3.4375753 2.3059375 -0.46137753
4.2509661 2.851563 -0.28591669
6.0476184 4.0567636 0
7.811235 5.2398033 0.52537757
1.9725285 1.3266376 -0.78381974
2.203002 1.4816442 -0.73247868
2.5243921 1.6977974 -0.67394125
2.8918681 1.9449459 -0.581011
3.4369309 2.3115315 -0.46166554
4.2475176 2.8566973 -0.28591669
6.0427122 4.0640678 0
7.8048978 5.249238 0.52537757
1.9606798 1.3221122 -0.7797457
2.2240925 1.499735 -0.74009317
2.5223389 1.7008464 -0.67394125
2.8937688 1.9513065 -0.58186615
3.4341352 2.3156826 -0.46166554
4.2462149 2.8632789 -0.28606167
6.0528955 4.0815473 0
7.7985497 5.2586646 0.52537757
1.973408 1.3341665 -0.78544807
2.211889 1.495397 -0.736633
2.5329077 1.7124289 -0.6773175
2.8956661 1.9576799 -0.5827229
3.4313347 2.3198304 -0.46166554
4.2535133 2.8756828 -0.28678724
6.0436511 4.0859456 0
7.7986498 5.2724514 0.5258131
1.9820298 1.343488 -0.78952527
2.2142298 1.5008811 -0.73801601
2.5287356 1.7140639 -0.67675513
2.8869219 1.9568548 -0.58143854
3.4392319 2.3312297 -0.46310672
4.2500358 2.8808203 -0.28678724
6.043014 4.0961628 0
7.7879758 5.2789578 0.52552313
1.9476975 1.3236538 -0.7764858
2.1958151 1.4922744 -0.73247868
2.5140574 1.7085516 -0.67337888
2.8972902 1.9689964 -0.58400553
3.4364126 2.3353837 -0.46310672
4.2465515 2.8859534 -0.28678724
6.0574389 4.116631 0
7.7837386 5.2898231 0.52566814
1.958348 1.3343539 -0.78137404
2.2043827 1.5019938 -0.73594153
2.5266838 1.7215992 -0.6773175
2.9012754 1.9768336 -0.58528984
3.4357238 2.3409891 -0.46339476
4.2516508 2.896935 -0.28736779
6.0589061 4.1283393 0
7.7794862 5.3006864 0.5258131
1.9812245 1.3534495 -0.79115361
2.1963494 1.5004095 -0.73386437
2.5183134 1.7203553 -0.67563045
2.8925235 1.9759923 -0.58400553
3.4393017 2.3495171 -0.46425989
4.2545862 2.9064689 -0.28780335
6.0603623 4.1400628 0
7.7859454 5.3188739 0.52668369
1.9571549 1.3404779 -0.78218824
2.2090256 1.5129871 -0.73871017
2.5141306 1.721957 -0.67506593
2.8880179 1.9780366 -0.58357799
3.4343283 2.352211 -0.46397188
4.2489295 2.9101408 -0.28765836
6.0596457 4.150321 0
7.7730875 5.3238769 0.52624869
1.9494272 1.3386484 -0.7797457
2.2113283 1.5184928 -0.74009317
2.5141487 1.726436 -0.67563045
2.8877399 1.9829766 -0.58400553
3.4378741 2.3607473 -0.46483594
4.2518301 2.9196811 -0.28809336
6.056778 4.1591172 0
7.7666488 5.3332653 0.52624869
1.9376312 1.3339964 -0.77567166
2.2074273 1.5197424 -0.73940164
2.5162425 1.7323515 -0.67675513
2.8853416 1.9864644 -0.58400553
3.4328907 2.3634343 -0.4645479
4.2525835 2.9277663 -0.2883839
6.0581727 4.170856 0
7.7623372 5.3441181 0.52639371
1.9604193 1.3531797 -0.78544807
2.1808133 1.5053067 -0.73109573
2.522512 1.7411643 -0.6790067
2.8977299 2.0001585 -0.58700174
3.4279058 2.3661127 -0.46425989
4.2511792 2.9343772 -0.28852892
6.0552764 4.1796556 0
7.7558742 5.3534937 0.52639371
1.9547219 1.3527373 -0.78381974
2.2016873 1.5236461 -0.73871017
2.5057786 1.7340882 -0.67506593
2.8847585 1.9963558 -0.58486229
3.4271693 2.3717232 -0.4645479
4.2519083 2.942472 -0.28881946
6.0587821 4.192893 0
7.7600813 5.3702531 0.52711922
1.9640601 1.3609552 -0.78789377
2.192518 1.5192605 -0.73594153
2.5130844 1.7413905 -0.6773175
2.8856599 1.9995589 -0.58528984
3.419364 2.3693781 -0.46368387
4.2522635 2.9465187 -0.28896448
6.0541024 4.1950665 0
7.7568355 5.3749404 0.52711922
1.9340003 1.3435878 -0.7764858
2.2277632 1.5476706 -0.74839908
2.5047243 1.7400808 -0.67563045
2.8748088 1.9971857 -0.58357799
3.4292395 2.3823595 -0.46541306
4.252964 2.9546168 -0.28925446
6.0618572 4.2112904 0
7.7503352 5.3843088 0.52711922
1.9445404 1.3543966 -0.78137404
2.2032447 1.5345874 -0.74078465
2.5088689 1.7474585 -0.6773175
2.8829238 2.0079923 -0.58571744
3.4178689 2.3805883 -0.46425989
4.2493906 2.9597535 -0.28925446
6.0610313 4.2215838 0
7.745954 5.3951535 0.52726424
1.9287232 1.3468438 -0.77567166
2.2034516 1.5386889 -0.7414788
2.5150886 1.7563076 -0.67956901
2.8741875 2.0070693 -0.58443475
3.4192269 2.387675 -0.46483594
4.2585979 2.973815 -0.29012558
6.0580578 4.2303929 0
7.7394295 5.4045091 0.52726424
1.9615127 1.3732698 -0.78952527
2.2139177 1.5499805 -0.74563044
2.506726 1.7549778 -0.67788196
2.875962 2.0134826 -0.58528984
3.4184644 2.3932927 -0.46512505
4.2507401 2.975975 -0.28983504
6.0550795 4.2392068 0
7.7328935 5.4138565 0.52726424
1.9820992 1.3912544 -0.79848754
2.1874022 1.5353587 -0.73732448
2.4983625 1.7536247 -0.67619276
2.8798325 2.0213819 -0.5865742
3.41557 2.3974214 -0.46512505
4.2577734 2.9885719 -0.29056057
6.0584736 4.2525005 0
7.7369862 5.430665 0.52799034
1.9399909 1.3652002 -0.78218824
2.1896529 1.5408909 -0.73871017
2.5087056 1.765413 -0.67956901
2.8836799 2.0292881 -0.58785683
3.4168971 2.4045208 -0.46570107
4.2562904 2.9952142 -0.29070613
6.0597095 4.264307 0
7.7304187 5.4400096 0.52799034
1.9504611 1.3760951 -0.78707957
2.1918852 1.5464253 -0.74009317
2.5190318 1.7772347 -0.6829474
2.8728354 2.0268514 -0.58614498
3.4161007 2.4101374 -0.46598911
4.2526679 3.0003548 -0.29070613
6.0651913 4.2791319 0
7.7259612 5.4508429 0.52813536
1.9709874 1.3941469 -0.79604185
2.1961617 1.5534203 -0.74217027
2.4940619 1.7641354 -0.67675513
2.8871505 2.0421805 -0.58956873
3.4153037 2.4157612 -0.46627823
4.2553978 3.0099885 -0.29114115
6.062139 4.2879586 0
7.7214885 5.4616733 0.52828038
1.9370514 1.3736573 -0.78300554
2.2126989 1.5691324 -0.74839908
2.506439 1.7774377 -0.68069589
2.8763049 2.0397277 -0.58785683
3.4208214 2.4258709 -0.4674314
4.2602358 3.0211406 -0.2917217
6.0548329 4.2937765 0
7.7191186 5.4740024 0.52857035
1.9313575 1.3731298 -0.78137404
2.1924012 1.5587231 -0.74217027
2.4980748 1.7760466 -0.6790067
2.871748 2.0417156 -0.58742929
3.4115617 2.4255049 -0.46656623
4.2544665 3.0247817 -0.29157671
6.0687275 4.3146601 0
7.7146225 5.4848356 0.52871591
1.9317076 1.3768957 -0.78218824
2.1966391 1.5657353 -0.74424475
2.4959271 1.7790638 -0.6790067
2.8776405 2.0511441 -0.58914113
3.4065244 2.4281256 -0.46627823
4.2592726 3.035953 -0.29215726
6.059267 4.3189654 0
7.7164536 5.500186 0.52929646
1.942112 1.3878537 -0.78707957
2.188628 1.5640167 -0.74217027
2.4999795 1.7865117 -0.68069589
2.8730733 2.0531285 -0.58871359
3.4077926 2.4352446 -0.46685424
4.2577128 3.0426066 -0.29230225
6.0646291 4.333848 0
7.7119141 5.5110149 0.52944148
1.9344041 1.3858796 -0.78463393
2.1826539 1.5637351 -0.74078465
2.4916203 1.7850902 -0.6790067
2.8622434 2.0506184 -0.58700174
3.4153585 2.4468908 -0.46829545
4.2519231 3.0462372 -0.29215726
6.0615101 4.3426929 0
7.7136984 5.5263829 0.53002203
1.9548119 1.404078 -0.79359931
2.1868777 1.5707633 -0.74286181
2.5018401 1.7969905 -0.68238288
2.8597636 2.0540755 -0.58700174
3.4103007 2.4495084 -0.46800742
4.2630148 3.0619853 -0.29317337
6.0668249 4.3576035 0
7.7091236 5.5372138 0.53016704
1.9651443 1.415102 -0.79848754
2.1890459 1.5763339 -0.74424475
2.497607 1.7985289 -0.68182057
2.8614419 2.0605266 -0.58785683
3.4157341 2.4596729 -0.46916059
4.2571969 3.0656111 -0.29302782
6.0509977 4.3573284 0
7.7108622 5.5525985 0.53074759
1.9574192 1.4131339 -0.79604185
2.1729069 1.5687026 -0.73940164
2.4954319 1.8015454 -0.68182057
2.8735213 2.0745022 -0.59085304
3.4064662 2.4592552 -0.46829545
4.2619171 3.0768368 -0.29360837
6.068933 4.3813891 0
7.7188969 5.5725594 0.53176373
1.963719 1.4212947 -0.79930174
2.2075875 1.597801 -0.75185925
2.4850199 1.7986002 -0.67956901
2.8730903 2.0794766 -0.59128058
3.4055936 2.4648902 -0.46858457
4.2581959 3.0819843 -0.29360837
6.0552015 4.3826156 0
7.7205777 5.5879765 0.53234428
1.921999 1.3946407 -0.78300554
2.193476 1.5916297 -0.74770761
2.4890165 1.8060799 -0.6812582
2.8643484 2.078428 -0.58999789
3.4088869 2.473556 -0.4694486
4.2607803 3.0917068 -0.29404393
6.0477972 4.388402 0
7.7306447 5.6095095 0.53350538
1.9702778 1.4333102 -0.80337888
2.1631448 1.5736144 -0.73801601
2.4888852 1.8105793 -0.68182057
2.8680565 2.0864136 -0.59128058
3.3975294 2.4715872 -0.46829545
4.2528429 3.0937986 -0.29375392
6.0509086 4.4018302 0
7.7217541 5.6173134 0.53335983
1.9266108 1.4051069 -0.78626537
2.1713824 1.5836227 -0.7414788
2.4866955 1.8135853 -0.68182057
2.8634615 2.0883665 -0.59085304
3.4028995 2.481787 -0.4694486
4.2595968 3.1065893 -0.29447949
6.062407 4.4214063 0
7.7149611 5.6266394 0.53335983
1.9257616 1.4062706 -0.78626537
2.2068908 1.6115627 -0.75393635
2.4876494 1.8165843 -0.68238288
2.8621991 2.090096 -0.59085304
3.4013994 2.4838424 -0.4694486
4.2640166 3.1137609 -0.29491505
6.0576348 4.4235349 0
7.736742 5.6496882 0.53510147
1.9280456 1.4115137 -0.78789377
2.170531 1.5890361 -0.74217027
2.4813561 1.8165898 -0.6812582
2.8596716 2.0935528 -0.59085304
3.3963108 2.486424 -0.46916059
4.2665348 3.1235113 -0.29535004
6.0648808 4.4400721 0
7.7362018 5.6636391 0.53553706
1.9223576 1.4109203 -0.78626537
2.1868098 1.6050159 -0.74839908
2.4935 1.8301121 -0.68519896
2.8550725 2.0954893 -0.59042549
3.4016445 2.4966476 -0.47031376
4.2606649 3.1271284 -0.29520506
6.053215 4.4427762 0
7.7314453 5.6745186 0.53568208
1.9306031 1.4205648 -0.79033947
2.1949704 1.6150899 -0.75185925
2.4851453 1.8286046 -0.68350977
2.8628745 2.1065431 -0.59256488
3.396544 2.4992244 -0.47002575
4.2568831 3.1322742 -0.29520506
6.0646119 4.4624262 0
7.7413268 5.6961761 0.53684318
1.9249035 1.4199592 -0.78870797
2.1728323 1.6028508 -0.74493897
2.4911129 1.8376396 -0.68576127
2.8603272 2.1100008 -0.59256488
3.3976805 2.5063946 -0.47060177
4.2572737 3.1404977 -0.29549503
6.0634084 4.4728436 0
7.7407136 5.710155 0.53727871
1.9013327 1.4061223 -0.7797457
2.1749241 1.6084557 -0.74632192
2.4868498 1.8391389 -0.68519896
2.8536515 2.1104054 -0.59170979
3.3988128 2.513577 -0.47117892
4.2597451 3.1502759 -0.29593059
6.0768294 4.4940925 0
7.7526093 5.733408 0.53858483
1.9532334 1.4481593 -0.80174738
2.1568568 1.5991292 -0.74078465
2.4805396 1.8391129 -0.68407208
2.8572798 2.1184344 -0.59299242
3.3874621 2.5115201 -0.47002575
4.2580209 3.1569669 -0.29607561
6.0672097 4.4983292 0
7.741497 5.7396731 0.53829432
1.9197437 1.4269274 -0.78870797
2.1609654 1.6062254 -0.74286181
2.4783156 1.8421087 -0.68407208
2.846477 2.1157596 -0.59128058
3.401032 2.5279551 -0.47233209
4.2500362 3.1590123 -0.29578561
6.0638647 4.5072136 0
7.742898 5.7552238 0.53887486
1.9219856 1.4322026 -0.79033947
2.1690795 1.6163291 -0.74632192
2.4699736 1.8405458 -0.68238288
2.8500957 2.1238008 -0.59256488
3.389679 2.5258808 -0.47117892
4.2545505 3.1703558 -0.29636616
6.0667615 4.5207577 0
7.7442727 5.7707858 0.53945541
1.928174 1.4404408 -0.79359931
2.1731563 1.6234546 -0.74839908
2.4779317 1.8511368 -0.68519896
2.849582 2.1287777 -0.59299242
3.3886945 2.5315213 -0.47146693
4.2611232 3.1832685 -0.29709172
6.0758829 4.5389833 0
7.7331347 5.7770314 0.53916538
1.9007162 1.42351 -0.78300554
2.1671731 1.6230686 -0.74701345
2.4695899 1.8495586 -0.68350977
2.8572793 2.1399121 -0.59513187
3.3897698 2.538712 -0.47204298
4.2572737 3.1884148 -0.29709172
6.0683131 4.5447631 0
7.7407012 5.7972703 0.54018098
1.9167814 1.4391602 -0.79033947
2.1652105 1.625686 -0.74701345
2.4653234 1.8510171 -0.6829474
2.8485389 2.1387434 -0.59384918
3.3887739 2.5443635 -0.47233209
4.259654 3.1982386 -0.29752728
6.0669756 4.5552139 0
7.7357745 5.8081841 0.54032654
1.9268855 1.4503907 -0.79522765
2.1391995 1.610202 -0.73871017
2.4732335 1.8616335 -0.68576127
2.8541565 2.1483591 -0.59556109
3.3898263 2.5515642 -0.47290811
4.2620087 3.2080667 -0.29796228
6.0677071 4.5672383 0
7.7328992 5.8206491 0.54061651
1.9231606 1.4512305 -0.79441351
2.1752954 1.6414933 -0.75185925
2.4770689 1.8692136 -0.68745047
2.8413148 2.1440763 -0.59342164
3.3929365 2.5603337 -0.47377327
4.2539849 3.2100868 -0.29767227
6.0663428 4.5777049 0
7.7445259 5.8440738 0.54192263
1.9332285 1.4624974 -0.79930174
2.1653075 1.6380662 -0.74909055
2.4667029 1.8660734 -0.68519896
2.8469033 2.153697 -0.59513187
3.3836501 2.5597486 -0.47290811
4.2521734 3.2167909 -0.29781729
6.0753293 4.5960178 0
7.7416072 5.8565655 0.5422132
1.9294926 1.46334 -0.79848754
2.1813149 1.6543238 -0.75531936
2.4644463 1.8690525 -0.68519896
2.8361251 2.1509364 -0.59342164
3.3805547 2.5638354 -0.47290811
4.2648463 3.234488 -0.29897839
6.0676999 4.6017842 0
7.7428064 5.8721962 0.54279375
1.9474018 1.4806324 -0.80663878
2.1813173 1.6584811 -0.75601351
2.4682484 1.8766382 -0.68688595
2.8498642 2.1667852 -0.59684372
3.3795114 2.5694821 -0.47319615
4.2588682 3.2380676 -0.2988334
6.0766392 4.6201401 0
7.7543197 5.8957005 0.54409987
1.9043336 1.4515218 -0.78952527
2.157362 1.6443851 -0.74839908
2.4700243 1.8827027 -0.68801284
2.841125 2.1655631 -0.59556109
3.3743491 2.5719974 -0.47290811
4.2508154 3.2400579 -0.29854283
6.0731201 4.629055 0
7.7492552 5.9066391 0.54424489
1.9281069 1.4733289 -0.80011904
2.1792946 1.6652694 -0.75670505
2.4697647 1.8872272 -0.68857515
2.842582 2.1721089 -0.59641618
3.3774064 2.5807855 -0.47377327
4.2530937 3.2499263 -0.29897839
6.0695882 4.6379685 0
7.756567 5.9270439 0.54526097
1.9204372 1.4711469 -0.79767334
2.1693144 1.661799 -0.75393635
2.453361 1.8793923 -0.68463445
2.8358834 2.1724226 -0.59556109
3.3804393 2.5895786 -0.47463733
4.2574143 3.2613838 -0.29955894
6.0743074 4.6532106 0
7.7576509 5.9427323 0.54584152
1.9186583 1.4734664 -0.79767334
2.1633217 1.6613599 -0.75255072
2.4591494 1.8885458 -0.68688595
2.8332565 2.1758478 -0.59556109
3.3834639 2.5983889 -0.47550246
4.261714 3.2728562 -0.30013952
6.0686808 4.6605473 0
7.7607665 5.9600134 0.54656708
1.8942556 1.4565462 -0.78789377
2.1662989 1.665728 -0.75393635
2.4600279 1.8915844 -0.68745047
2.8299005 2.1759899 -0.59513187
3.3818934 2.6004326 -0.47550246
4.2597361 3.2754304 -0.30013952
6.069994 4.6673884 0
7.7633462 5.9694543 0.54700267
1.9316447 1.4890131 -0.80419308
2.1523592 1.6591514 -0.74978209
2.4577405 1.8945554 -0.68745047
2.8374407 2.1872482 -0.59727293
3.3787489 2.6045172 -0.47550246
4.2598953 3.2837508 -0.30043006
6.0849581 4.6906052 0
7.7664156 5.9867611 0.54772824
1.9024681 1.4701904 -0.79278511
2.1404293 1.6540822 -0.74632192
2.4514246 1.8944135 -0.68632364
2.8429208 2.196954 -0.59898484
3.3796966 2.611764 -0.47607961
4.2620864 3.2936578 -0.30086505
6.075171 4.6947746 0
7.7756248 6.008852 0.54888934
1.9164761 1.4884266 -0.80011904
2.1602023 1.677716 -0.75462788
2.4548664 1.9065663 -0.68857515
2.8274603 2.1959403 -0.59684372
3.3754158 2.6215086 -0.47636762
4.260273 3.3087311 -0.30130062
6.0781898 4.720612 0
7.7795486 6.0419679 0.55019546
1.922477 1.4968148 -0.80337888
2.1502554 1.67416 -0.75185925
2.4625835 1.9173344 -0.69138908
2.8288598 2.2025123 -0.59770048
3.3742847 2.6271727 -0.47665563
4.2603688 3.317066 -0.30159062
6.0683784 4.7247581 0
7.7722425 6.0513635 0.55019546
1.9050801 1.4869707 -0.79685915
2.154166 1.6813893 -0.75393635
2.4522529 1.914055 -0.68913752
2.8322692 2.2106688 -0.59898484
3.3751895 2.634434 -0.47723278
4.2563577 3.3222113 -0.30159062
6.0770283 4.7432976 0
7.7751646 6.0687428 0.55092102
1.8896544 1.4786083 -0.79115361
2.1442294 1.677807 -0.75116771
2.4519453 1.918587 -0.68970203
2.8194816 2.2061751 -0.59684372
3.3740389 2.6401026 -0.47752079
4.2584815 3.3321571 -0.30202618
6.077435 4.755444 0
7.7923832 6.0973487 0.55266267
1.9131455 1.5007199 -0.80174738
2.1441727 1.6819435 -0.75185925
2.4536197 1.9246818 -0.69082671
2.8188393 2.2111692 -0.59727293
3.3708465 2.6441777 -0.47752079
4.2564945 3.3389025 -0.30217117
6.0798755 4.7692089 0
7.7850103 6.1067595 0.55266267
1.9035594 1.4969193 -0.79848754
2.150027 1.6907363 -0.75462788
2.449297 1.9260759 -0.69026434
2.8141418 2.2129822 -0.59684372
3.3778129 2.6562412 -0.47896197
4.2606273 3.3504682 -0.30275175
6.0761523 4.7781587 0
7.7857957 6.1225867 0.55324322
1.8998102 1.4976896 -0.79767334
2.1341894 1.6824592 -0.74978209
2.456943 1.9368978 -0.69307822
2.8155017 2.2195625 -0.59770048
3.3746006 2.6603208 -0.47896197
4.2504601 3.3507924 -0.30231676
6.0744658 4.7887225 0
7.7885933 6.1400318 0.55396879
1.9057556 1.506114 -0.80093324
2.1577408 1.7052573 -0.75877953
2.4346697 1.9241135 -0.68745047
2.8168418 2.2261431 -0.59855562
3.3754463 2.6676068 -0.47953913
4.2729087 3.3768692 -0.30420342
6.0870495 4.8105803 0
7.7893233 6.1558828 0.55454934
1.913619 1.5160884 -0.80500728
2.1379831 1.6938435 -0.75255072
2.4482682 1.9396708 -0.69195139
2.8121397 2.2279527 -0.59812808
3.3722205 2.6716835 -0.47953913
4.258636 3.3739569 -0.30347729
6.0873542 4.8227816 0
7.7961307 6.1765809 0.55556488
1.9137193 1.5199353 -0.80582142
2.1379049 1.6979904 -0.75324488
2.4479182 1.9442124 -0.69251591
2.8154783 2.23614 -0.59941238
3.3649352 2.6725359 -0.47896197
4.2565966 3.3807211 -0.30362287
6.0815225 4.8301334 0
7.7886615 6.1859965 0.55556488
1.8964127 1.5099303 -0.79930174
2.1495845 1.7115066 -0.75808799
2.4415877 1.9440005 -0.69138908
2.8127742 2.2395403 -0.59941238
3.3738403 2.6862631 -0.48069119
4.2626705 3.3939528 -0.30434841
6.0777159 4.839098 0
7.7893124 6.2018771 0.55614549
1.8945869 1.5122206 -0.79930174
2.1612422 1.7250595 -0.76293379
2.4432125 1.9501225 -0.69251591
2.816087 2.2477431 -0.60069668
3.3665528 2.6871138 -0.48011515
4.2605953 3.4007204 -0.30449343
6.0800004 4.852932 0
7.7879076 6.2161489 0.55658102
1.8734635 1.4990699 -0.79115361
2.1591563 1.7276696 -0.76293379
2.4349008 1.9483092 -0.69082671
2.813369 2.2511444 -0.60069668
3.3673387 2.6944084 -0.48069119
4.2645988 3.4123597 -0.30507398
6.0863204 4.870028 0
7.7966223 6.2385421 0.55774212
1.8851485 1.5121596 -0.79685915
2.1492393 1.7239982 -0.76016515
2.4365051 1.9544265 -0.69195139
2.8006289 2.2465062 -0.59855562
3.3600492 2.6952417 -0.48011515
4.2624974 3.4191346 -0.30521896
6.1027641 4.8952928 0
7.7850285 6.2447095 0.55745214
1.8910245 1.5206318 -0.80011904
2.1276076 1.7108755 -0.75324488
2.4341416 1.9573692 -0.69195139
2.8119178 2.2611508 -0.60155177
3.3567903 2.6992996 -0.48011515
4.2502632 3.4177692 -0.30463842
6.0887322 4.8961396 0
7.7835464 6.2589922 0.55788714
1.8930305 1.5260149 -0.80174738
2.12749 1.715018 -0.75393635
2.4258459 1.9555296 -0.69026434
2.8011894 2.2581024 -0.59983993
3.3696356 2.7163398 -0.48242149
4.2582722 3.4326901 -0.30550954
6.0828118 4.9034929 0
7.7901406 6.2798095 0.55890328
1.8931057 1.5298532 -0.80256158
2.1293149 1.7207382 -0.75531936
2.4353352 1.9680386 -0.69364059
2.8004537 2.2630975 -0.60026747
3.3623238 2.717155 -0.48184437
4.2500753 3.4345632 -0.30521896
6.0971203 4.9271936 0
7.7987151 6.3022838 0.56006438
1.888342 1.5278903 -0.80093324
2.1399806 1.7314955 -0.75947368
2.4282179 1.9647132 -0.69195139
2.809062 2.272861 -0.60240692
3.3647068 2.7224426 -0.48242149
4.2621417 3.4485731 -0.30623507
6.0941424 4.9308767 0
7.825201 6.3315058 0.56224102
1.8788162 1.5239429 -0.79767334
2.1534741 1.7467232 -0.76501095
2.4357145 1.9756535 -0.69476742
2.8122966 2.2811062 -0.60369122
3.3714566 2.7346516 -0.48386267
4.2640281 3.4586327 -0.30667064
6.1023302 4.9497142 0
7.8579059 6.3736944 0.56514382
1.9038171 1.5480392 -0.80908132
2.1299486 1.7319123 -0.75739652
2.44712 1.9898117 -0.69870603
2.8015714 2.2780247 -0.60197937
3.3661451 2.737093 -0.48357466
4.2437172 3.4506679 -0.30550954
6.1064391 4.965292 0
7.8683414 6.3979368 0.56644994
1.875128 1.5284789 -0.79767334
2.1259117 1.732901 -0.75670505
2.4329007 1.9831378 -0.69532979
2.7988169 2.2814081 -0.60197937
3.3648384 2.7427909 -0.48386267
4.2496133 3.4640002 -0.30623507
6.0863204 4.9611611 0
7.8787303 6.4222136 0.56775606
1.8943343 1.5479481 -0.80663878
2.1296387 1.7402263 -0.75877953
2.4206669 1.9780388 -0.69251591
2.8020234 2.2896628 -0.60326368
3.3575199 2.7435846 -0.48328665
4.2615213 3.482286 -0.3073962
6.0984569 4.9833307 0
7.9051685 6.4596782 0.57022327
1.8733389 1.5345706 -0.79848754
2.1139548 1.7316743 -0.75393635
2.4281011 1.9890114 -0.69532979
2.8052144 2.2979286 -0.60454798
3.3601992 2.752552 -0.48415071
4.2532864 3.4841363 -0.30710566
6.1024952 4.9989405 0
7.9114299 6.4807534 0.57123941
1.8886725 1.5509484 -0.80582142
2.1234901 1.743777 -0.75808799
2.4296196 1.9951658 -0.69645447
2.7945001 2.2948 -0.60283613
3.3608723 2.759896 -0.48472783
4.2530937 3.4925742 -0.3073962
6.0984597 5.0079603 0
7.9136324 6.4985518 0.57196498
1.8829843 1.5500907 -0.80419308
2.1291292 1.7527195 -0.76085669
2.4193602 1.9916404 -0.69420296
2.7976654 2.3030648 -0.60411876
3.3535376 2.7606642 -0.48415071
4.2528787 3.5010104 -0.30768621
6.1084785 5.0285578 0
7.9238276 6.5229707 0.5732711
1.8696685 1.5429229 -0.79930174
2.1212029 1.7504989 -0.75877953
2.4385111 2.0123539 -0.70039523
2.8008223 2.311347 -0.60540307
3.3482063 2.7630696 -0.48386267
4.2486453 3.5061467 -0.30768621
6.0983872 5.0326252 0
7.9199524 6.5358515 0.57356167
1.8716152 1.5483347 -0.80093324
2.1210248 1.7546644 -0.75947368
2.4204154 2.0023417 -0.69589216
2.7960513 2.3130949 -0.60497552
3.3508458 2.7720609 -0.48472783
4.2584229 3.5228736 -0.30870232
6.1023264 5.0482831 0
7.9140491 6.547071 0.57370663
1.884963 1.5632172 -0.80745292
2.1150372 1.75402 -0.75808799
2.4160402 2.0036445 -0.69532979
2.7912803 2.3148344 -0.60454798
3.3474939 2.7761075 -0.48472783
4.2501664 3.5247023 -0.30841231
6.1002245 5.0589724 0
7.9261303 6.5732131 0.57515776
1.8754704 1.5591735 -0.80419308
2.1360664 1.77582 -0.76639396
2.4233849 2.0146825 -0.69814366
2.7924254 2.3214846 -0.60540307
3.3481112 2.7834542 -0.48530385
4.2558932 3.5381393 -0.30913788
6.1061187 5.0763254 0
7.9181819 6.5827851 0.57515776
1.9001629 1.5835884 -0.81560105
2.1127176 1.7607306 -0.75877953
2.4209487 2.0176091 -0.69814366
2.7797601 2.3166411 -0.60326368
3.3507082 2.7924671 -0.48616901
4.2416363 3.5349629 -0.30841231
6.1119719 5.0936933 0
7.9222026 6.6023326 0.57602888
1.8716971 1.5637012 -0.80419308
2.1105888 1.7632822 -0.75877953
2.4087613 2.0123892 -0.69532979
2.7887752 2.3298702 -0.60583067
3.3473315 2.7965136 -0.48616901
4.2513146 3.5517426 -0.30942789
6.115797 5.109416 0
7.9321647 6.6268926 0.577335
1.8830647 1.5770656 -0.80989546
2.106535 1.7642219 -0.75808799
2.4121737 2.0201941 -0.69701898
2.7800596 2.3282981 -0.60454798
3.3479121 2.8038745 -0.48674506
4.2569785 3.5652173 -0.31015342
6.1116118 5.1184716 0
7.9341102 6.6448121 0.57806057
1.8830562 1.5809336 -0.81071281
2.1274586 1.7861234 -0.76639396
2.4077795 2.0214689 -0.69645447
2.7811725 2.3349538 -0.60540307
3.3445218 2.8079176 -0.48674506
4.2486916 3.5670199 -0.30986345
6.1253586 5.1425896 0
7.9400077 6.6660914 0.57907665
1.884923 1.5863876 -0.81234115
2.1137857 1.7790031 -0.76224232
2.4150608 2.032562 -0.69927055
2.7960236 2.3531878 -0.60925436
3.3391495 2.810293 -0.48645702
4.2543168 3.5805154 -0.31058899
6.1290941 5.1583643 0
7.9697146 6.7074661 0.5818339
1.8660047 1.5743215 -0.80500728
2.1058805 1.7767011 -0.76016515
2.4126031 2.0354786 -0.69927055
2.7794497 2.3449817 -0.60625982
3.339709 2.8176646 -0.48703417
4.2579312 3.5923555 -0.31116956
6.1328006 5.1741557 0
7.9616041 6.7170911 0.5818339
1.8584379 1.5717852 -0.80256158
2.1075594 1.7824814 -0.76154816
2.4004359 2.0301836 -0.69645447
2.7805305 2.3516507 -0.60711497
3.3422208 2.8267038 -0.48789823
4.2516055 3.5958214 -0.31102455
6.1364779 5.1899638 0
7.9673719 6.7384539 0.58285004
1.87916 1.59321 -0.81234115
2.1226318 1.7996328 -0.76777959
2.425118 2.0560899 -0.70433593
2.7816067 2.3583322 -0.60797173
3.33289 2.825727 -0.48703417
4.2512178 3.6043136 -0.31131455
6.1361594 5.2024255 0
7.9810276 6.766562 0.58444667
1.864056 1.5842795 -0.80663878
2.1089823 1.7924449 -0.76362532
2.4148874 2.0524366 -0.70208442
2.7728851 2.3567026 -0.60668743
3.3353801 2.8347723 -0.48789823
4.2528014 3.6144977 -0.31175011
6.1457329 5.2233191 0
7.988678 6.7896562 0.58560723
1.8546149 1.5801191 -0.80337888
2.0991764 1.788484 -0.76085669
2.4085338 2.0520542 -0.70095754
2.7739398 2.3633776 -0.60754251
3.3299854 2.8371248 -0.48761019
4.2504067 3.6213174 -0.3118951
6.1433754 5.2341137 0
8.0081625 6.8228993 0.58763945
1.8592956 1.5860468 -0.80582142
2.0980957 1.7897518 -0.76085669
2.4111636 2.0568101 -0.70208442
2.7744701 2.366724 -0.60797173
3.3361418 2.8458505 -0.48876336
4.2501931 3.6255693 -0.31204012
6.1501174 5.246274 0
8.0158968 6.8378515 0.58851004
1.8648916 1.5947175 -0.80908132
2.1207168 1.8134801 -0.76985413
2.3912983 2.0448616 -0.69701898
2.7735574 2.3717413 -0.60839927
3.3366361 2.8532445 -0.48934051
4.2418633 3.6273279 -0.31175011
6.1516857 5.2604671 0
8.0273809 6.8644228 0.58996171
1.8648381 1.5985768 -0.80989546
2.0975773 1.7980856 -0.76224232
2.4042513 2.0609727 -0.70151991
2.7823799 2.385112 -0.61096627
3.3371098 2.8606377 -0.48991653
4.2532597 3.6459799 -0.31291121
6.1591506 5.2797475 0
8.0230227 6.8774962 0.59025168
1.8741562 1.610497 -0.81478685
2.1049151 1.8087925 -0.76570249
2.4133258 2.0738153 -0.7048983
2.771708 2.3817799 -0.60925436
3.3336508 2.8646679 -0.48991653
4.2468824 3.6494246 -0.31276622
6.1488228 5.2837968 0
8.0304728 6.9007339 0.59141284
1.8534863 1.5966324 -0.80663878
2.1065259 1.8146062 -0.76708543
2.4031177 2.0700965 -0.70264673
2.7707713 2.386801 -0.60968196
3.3341026 2.8720667 -0.49049258
4.2503448 3.6613369 -0.31334677
6.1562304 5.3031077 0
8.0201616 6.9087377 0.59126782
1.8721277 1.6166353 -0.81560105
2.0948396 1.8089534 -0.76362532
2.4044571 2.0763168 -0.70377141
2.7717748 2.3935061 -0.61053872
3.3247626 2.8710268 -0.48962852
4.2557487 3.6749597 -0.31407234
6.1576972 5.3173461 0
8.0216398 6.9269133 0.59199339
1.8739139 1.6221346 -0.81723255
2.1078269 1.8246189 -0.7691626
2.4000273 2.0775592 -0.7032091
2.7747052 2.4018955 -0.61182302
3.3369358 2.8885846 -0.49193487
4.2473722 3.6766946 -0.3137818
6.1571727 5.3298941 0
8.01719 6.9399986 0.59228337
1.8775474 1.6292527 -0.81967509
2.1037276 1.8255218 -0.76847112
2.3917561 2.0754602 -0.70151991
2.7756751 2.408608 -0.61267811
3.3334429 2.8926144 -0.49193487
4.2468557 3.6852336 -0.31407234
6.1605544 5.3458567 0
8.0244989 6.963305 0.59344453
1.8643922 1.6217903 -0.81478685
2.09584 1.8231213 -0.76639396
2.3949997 2.083353 -0.7032091
2.7688928 2.4085937 -0.61182302
3.3182328 2.8864517 -0.49020454
4.236516 3.6852446 -0.31363678
6.1560521 5.3550029 0
8.0298042 6.9849353 0.59446061
1.8512505 1.6142924 -0.80989546
2.1030879 1.8338948 -0.76985413
2.3867335 2.081234 -0.70151991
2.7698462 2.4153087 -0.61267811
3.3244879 2.8989568 -0.49164575
4.2477279 3.7040229 -0.31479791
6.1672363 5.3778362 0
8.0409393 7.0117073 0.59591174
1.8772136 1.6409293 -0.82212073
2.0857596 1.8232259 -0.7643168
2.3899579 2.0891349 -0.7032091
2.7630639 2.415278 -0.61182302
3.3151462 2.8978698 -0.49078169
4.2491198 3.7142847 -0.31523347
6.1705289 5.3938465 0
8.050066 7.0368075 0.59721786
1.8659368 1.6350535 -0.81804669
2.0892177 1.8307065 -0.76639396
2.3874319 2.092021 -0.7032091
2.7620723 2.420305 -0.61225057
3.3272047 2.9155102 -0.49308804
4.2485337 3.7228379 -0.31552345
6.1640067 5.4012985 0
8.0532875 7.0568075 0.59808898
1.8546768 1.6291528 -0.81397265
2.0907774 1.8365442 -0.76777959
2.3791735 2.0898721 -0.70151991
2.7707143 2.4338024 -0.61481756
3.3295035 2.9246442 -0.4939521
4.2401314 3.7245424 -0.31523347
6.1828928 5.4310689 0
8.0740328 7.0922508 0.60026562
1.8489934 1.6281227 -0.81234115
2.0866685 1.8374064 -0.76708543
2.388092 2.1028237 -0.7048983
2.7677715 2.4371483 -0.61481756
3.3143239 2.9184127 -0.49222288
4.2453771 3.7382474 -0.31595901
6.1763258 5.4385357 0
8.0693617 7.1054392 0.60055619
1.848876 1.6319897 -0.81315535
2.0900912 1.8449086 -0.7691626
2.379833 2.1006615 -0.7032091
2.7590563 2.4353995 -0.61353487
3.326308 2.9361086 -0.49452922
4.2447495 3.7468102 -0.31624901
6.1814528 5.4563246 0
8.0821934 7.1340947 0.60215229
1.8450536 1.6325862 -0.81234115
2.0859833 1.8457718 -0.76847112
2.390615 2.1153238 -0.7071498
2.7638018 2.4455359 -0.61524677
3.3169448 2.9349818 -0.49366406
4.2441149 3.7553835 -0.31653959
6.1982441 5.4844847 0
8.0813513 7.150743 0.60273284
1.8301415 1.6233386 -0.80663878
2.0856266 1.8499541 -0.7691626
2.3861582 2.1165264 -0.70658749
2.7531629 2.44206 -0.61353487
3.3250096 2.9492888 -0.49539438
4.2376323 3.7587864 -0.31639457
6.1916127 5.4919701 0
8.0921478 7.1777482 0.60418457
1.830024 1.6271895 -0.80745292
2.0777636 1.8474702 -0.76708543
2.3797979 2.1160278 -0.70546061
2.7540433 2.4487929 -0.61439002
3.3117735 2.9447062 -0.4939521
4.2330871 3.7639041 -0.31639457
6.1966453 5.5098267 0
8.0990038 7.201334 0.60534567
1.8446604 1.6441989 -0.81478685
2.0736587 1.8483117 -0.76639396
2.3772392 2.118902 -0.70546061
2.7606621 2.4606578 -0.61652941
3.3159363 2.9555895 -0.49510524
4.2459922 3.784575 -0.31770068
6.1977468 5.52423 0
8.1019316 7.2214851 0.60621619
1.8482033 1.6513686 -0.81723255
2.078907 1.8575022 -0.7691626
2.3784704 2.1251619 -0.70658749
2.7442925 2.4520237 -0.61353487
3.3123627 2.959594 -0.49510524
4.2433519 3.7914324 -0.3178457
6.208539 5.5473261 0
8.1028862 7.2399244 0.60694176
1.842521 1.6502994 -0.81560105
2.0766611 1.8600128 -0.7691626
2.3796825 2.1314216 -0.70771217
2.7527974 2.465611 -0.61610186
3.3087842 2.9635942 -0.49510524
4.2310252 3.7896223 -0.31726512
6.2095857 5.561769 0
8.1115503 7.2653108 0.60824788
1.8405255 1.6525245 -0.81560105
2.080014 1.8675505 -0.77123976
2.3714318 2.1292012 -0.70602298
2.7555482 2.474082 -0.61738616
3.3109763 2.9727757 -0.4959704
4.2322454 3.7999415 -0.31770068
6.2183456 5.5831709 0
8.106637 7.2785821 0.60853845
1.8385274 1.6547472 -0.81560105
2.0814819 1.8734158 -0.77262276
2.3631968 2.1269705 -0.70433593
2.7506506 2.4756942 -0.61695862
3.3169925 2.985424 -0.49741158
4.2411652 3.8172157 -0.31871626
6.2232046 5.60113 0
8.103632 7.2935886 0.60897398
1.8181792 1.640414 -0.80745292
2.0661833 1.8641703 -0.76777959
2.3681715 2.1366327 -0.70658749
2.7552738 2.4858878 -0.61866885
3.3076198 2.9842303 -0.49654645
4.2384844 3.8240833 -0.31886181
6.22996 5.6208506 0
8.1025229 7.3103309 0.60955399
1.8390185 1.665272 -0.81804669
2.0758133 1.8796949 -0.77262276
2.364295 2.1409214 -0.70658749
2.7393503 2.4805424 -0.61610186
3.3079591 2.9954302 -0.49741158
4.2296147 3.8300099 -0.31871626
6.2429042 5.6530886 0
8.1046686 7.3389573 0.61071509
1.858966 1.6874274 -0.82782626
2.0716846 1.8805171 -0.77193123
2.3692319 2.1506078 -0.708839
2.7458529 2.4924757 -0.61824131
3.3043373 2.9994252 -0.49741158
4.240376 3.8490894 -0.31987736
6.2399268 5.6641293 0
8.1092653 7.3609719 0.61173123
1.8221905 1.6580658 -0.81234115
2.0675571 1.8813322 -0.77123976
2.3628693 2.1500456 -0.70771217
2.7447362 2.4975178 -0.61866885
3.3121927 3.0138633 -0.4991419
4.2395692 3.8577113 -0.32016793
6.2388549 5.6769209 0
8.1061325 7.3760128 0.61216682
1.8384498 1.6769258 -0.82049239
2.0708375 1.8888962 -0.77331424
2.3602695 2.152899 -0.70771217
2.7474082 2.5060239 -0.61995316
3.3009048 3.0108912 -0.49798873
4.2406588 3.8680794 -0.32060292
6.251215 5.7019906 0
8.1048927 7.3928065 0.61274737
1.8254745 1.6691358 -0.81560105
2.0722601 1.8947861 -0.77469993
2.35954 2.1574624 -0.70827454
2.7405927 2.5058806 -0.61909807
3.3087137 3.0253463 -0.49971792
4.237905 3.874959 -0.32074848
6.2462392 5.7112942 0
8.1017017 7.4078498 0.61318237
1.827104 1.6746836 -0.81723255
2.0792146 1.9057628 -0.77816004
2.3625524 2.1654642 -0.70996374
2.7299931 2.5022521 -0.61738616
3.3069606 3.0310879 -0.50000596
4.2427955 3.888854 -0.32147405
6.2527652 5.7311482 0
8.1061554 7.4299254 0.61419845
1.8359957 1.6869203 -0.82212073
2.0584402 1.8913032 -0.77123976
2.3655491 2.1734762 -0.71165293
2.7420902 2.5194435 -0.62080991
3.310914 3.0420814 -0.50115913
4.240005 3.8957341 -0.32161903
6.2669106 5.7580633 0
8.110568 7.452023 0.61521459
1.8248677 1.6807669 -0.81804669
2.0653782 1.9022855 -0.77469993
2.3591797 2.1728868 -0.71052605
2.7333775 2.5175362 -0.61952561
3.2958245 3.0355694 -0.49942991
4.2448497 3.9096546 -0.3223446
6.2618685 5.7673993 0
8.1149311 7.4741349 0.61623013
1.810122 1.6712327 -0.81234115
2.0649197 1.9064798 -0.7753914
2.3602898 2.1791866 -0.71165293
2.7359936 2.5260627 -0.62080991
3.3016543 3.0483208 -0.50087112
4.2401223 3.9147809 -0.3223446
6.2548952 5.7749615 0
8.1345339 7.5103769 0.61840737
1.8298687 1.6935645 -0.82212073
2.0718188 1.9174922 -0.77885157
2.3501959 2.1751332 -0.70940137
2.7423575 2.5380836 -0.62294936
3.2979686 3.0523078 -0.50087112
4.2411122 3.9251981 -0.32278016
6.2765574 5.8090262 0
8.1368914 7.5307865 0.61927795
1.8169529 1.6856915 -0.81723255
2.0603063 1.9114643 -0.7753914
2.3605995 2.1900635 -0.71333992
2.7317612 2.5344114 -0.62123746
3.2961724 3.058048 -0.50115913
4.2344632 3.9285541 -0.32263514
6.2657213 5.8130689 0
8.1392193 7.5512204 0.62014902
1.8094834 1.6828344 -0.81478685
2.0653436 1.9207865 -0.77816004
2.3467913 2.1825352 -0.70996374
2.7286968 2.5377104 -0.62123746
3.2981586 3.0673146 -0.50202429
4.2316141 3.9354355 -0.32278016
6.2720275 5.8330369 0
8.156724 7.5858202 0.6221807
1.8038296 1.6816456 -0.81315535
2.0556812 1.9164377 -0.7753914
2.3608775 2.2009614 -0.71502912
2.7312634 2.5462589 -0.62252176
3.2906628 3.0677667 -0.50144714
4.238256 3.9511738 -0.32365072
6.2706876 5.8459368 0
8.1665545 7.6133857 0.62363183
1.8270811 1.7074533 -0.82456642
2.053364 1.9189203 -0.7753914
2.3433647 2.1899333 -0.71052605
2.7244301 2.5460484 -0.621665
3.2982955 3.08234 -0.50317746
4.2296853 3.9527471 -0.32336071
6.2731247 5.8623924 0
8.16115 7.6267996 0.62392241
1.8033714 1.6893826 -0.81478685
2.0510437 1.9214 -0.7753914
2.3425767 2.1945052 -0.71109056
2.7213516 2.5493383 -0.621665
3.2964547 3.0880897 -0.50346547
4.232491 3.9649608 -0.32394126
6.2774358 5.8806472 0
8.165205 7.6490922 0.62493849
1.8193426 1.7084764 -0.82293493
2.0395784 1.9152917 -0.77193123
2.3473251 2.2042849 -0.71333992
2.7276242 2.5614095 -0.62380445
3.2983789 3.097384 -0.50433064
4.239059 3.9807413 -0.32481182
6.277914 5.8953538 0
8.1521645 7.6553917 0.62464797
1.8244756 1.7174499 -0.82619476
2.0518765 1.9315113 -0.77746856
2.3502121 2.2123461 -0.71502912
2.7207923 2.5611877 -0.62294936
3.2908638 3.0978181 -0.50375348
4.236136 3.9876397 -0.32495683
6.2859464 5.9172058 0
8.1712904 7.6919541 0.62682515
1.8206033 1.7179586 -0.82538062
2.0367668 1.921935 -0.77262276
2.3493836 2.2169266 -0.71559149
2.7270291 2.5732806 -0.62508875
3.2890048 3.1035726 -0.50404257
4.2294264 3.9909737 -0.32481182
6.2996073 5.9444389 0
8.1506472 7.6911182 0.62595409
1.7969791 1.6997757 -0.81560105
2.0417335 1.9312906 -0.7753914
2.3467031 2.2197635 -0.71559149
2.7183213 2.57128 -0.62380445
3.2984002 3.1199811 -0.50605983
4.2340379 4.0050077 -0.32553738
6.2905312 5.9502597 0
8.1583357 7.71703 0.62726021
1.8067226 1.7110616 -0.82049239
2.0442128 1.9359772 -0.77677703
2.3453615 2.2211809 -0.71559149
2.7223606 2.5782192 -0.62508875
3.2965147 3.121973 -0.50605983
4.2316175 4.007565 -0.32553738
6.2963815 5.9630051 0
8.1649961 7.7326813 0.62813127
1.8189869 1.7268505 -0.82700896
2.036412 1.9332623 -0.77469993
2.3408351 2.2222655 -0.71502912
2.7192435 2.5815067 -0.62508875
3.2889919 3.122396 -0.50548381
4.2399654 4.0251999 -0.32655349
6.3137064 5.9939008 0
8.1594114 7.7461162 0.62842131
1.7864633 1.700083 -0.81315535
2.0467978 1.9478296 -0.77954572
2.3344703 2.2215924 -0.71390444
2.7179801 2.5865583 -0.6255163
3.2889605 3.1299305 -0.50605983
4.2350984 4.0303202 -0.32655349
6.2970347 5.9925566 0
8.155695 7.7613454 0.62885684
1.7951415 1.7124798 -0.81804669
2.0607784 1.9658848 -0.78577447
2.3372946 2.2296681 -0.71559149
2.7148528 2.5898407 -0.6255163
3.2833064 3.1321185 -0.50577182
4.2283473 4.0336428 -0.32640851
6.3048544 6.0145316 0
8.1463108 7.771194 0.62885684
1.7930709 1.7146477 -0.81804669
2.0366433 1.947567 -0.77746856
2.338275 2.2360063 -0.71671832
2.7061608 2.5878017 -0.62423366
3.2757845 3.1325119 -0.50519574
4.2253466 4.0405431 -0.32655349
6.3069849 6.031137 0
8.1387911 7.7828259 0.62900186
1.7999173 1.725363 -0.82212073
2.0451517 1.9604394 -0.7816202
2.3392365 2.2423432 -0.717843
2.6974707 2.5857389 -0.62294936
3.2887998 3.1525745 -0.50779009
4.2279644 4.0528378 -0.32713404
6.3109617 6.0495558 0
8.1481428 7.8106389 0.63045353
1.7996118 1.7292475 -0.82293493
2.0482099 1.9681256 -0.78369737
2.3383629 2.2469335 -0.71840751
2.7072961 2.6014416 -0.6259439
3.2887146 3.1601269 -0.50836617
4.2230644 4.0579438 -0.32713404
6.3224168 6.075212 0
8.1424437 7.8240762 0.6307435
1.7993063 1.7331402 -0.82375222
2.027765 1.9531981 -0.77677703
2.3301544 2.2444675 -0.71671832
2.7060051 2.606497 -0.62637305
3.2811716 3.1605129 -0.50779009
4.2275133 4.0720549 -0.32785961
6.3244414 6.0918727 0
8.131114 7.832108 0.63059855
1.8060993 1.7438955 -0.82782626
2.0362287 1.9660991 -0.78092867
2.3292668 2.2490447 -0.71728069
2.6991568 2.6061952 -0.6255163
3.2847931 3.1716619 -0.50894326
4.2263322 4.0807734 -0.32815018
6.3189464 6.101316 0
8.1403332 7.859973 0.63204962
1.7951126 1.7374834 -0.82375222
2.0374603 1.972051 -0.78231436
2.3265476 2.2518575 -0.71728069
2.6978483 2.6112382 -0.6259439
3.2753811 3.1702302 -0.50807816
4.2325974 4.0967169 -0.32902074
6.32653 6.1234264 0
8.1345682 7.8734207 0.63234019
1.8001007 1.746529 -0.82700896
2.0296726 1.9692688 -0.7802372
2.3329413 2.2635121 -0.72009456
2.7075899 2.6270108 -0.62894005
3.2845442 3.186795 -0.51009643
4.2276444 4.1018281 -0.32902074
6.3209925 6.1328769 0
8.1343718 7.8922896 0.63306576
1.8033061 1.7538742 -0.82945466
2.0236914 1.9682182 -0.77885157
2.326565 2.2627895 -0.71896988
2.6933758 2.6195452 -0.62637305
3.271415 3.1817396 -0.50865418
4.224546 4.1087432 -0.32916573
6.3266387 6.1532135 0
8.134141 7.9111691 0.63379133
1.7817237 1.7370776 -0.82049239
2.028497 1.9776673 -0.7816202
2.3129098 2.2549531 -0.71559149
2.6938813 2.6263783 -0.6272282
3.2675681 3.1856899 -0.50865418
4.2307448 4.1247315 -0.33003685
6.3266525 6.1681204 0
8.146903 7.942759 0.63553298
1.7972965 1.7565011 -0.82864046
2.0368745 1.9906411 -0.78577447
2.3156366 2.2630758 -0.71728069
2.6888716 2.6278389 -0.62680066
3.282218 3.2077174 -0.51153767
4.2220378 4.126205 -0.32974628
6.3173356 6.173943 0
8.1893263 8.0034428 0.63959634
1.7916384 1.7552088 -0.82700896
2.0344679 1.9931009 -0.78577447
2.314714 2.2676487 -0.717843
2.7003644 2.6454577 -0.63022435
3.2691035 3.2026327 -0.51009643
4.2170491 4.1313033 -0.32974628
4.8580275 4.7592487 0
8.2557497 8.0878859 0.64554691
1.7948083 1.7625694 -0.82945466
2.0141549 1.9779761 -0.77885157
2.3101611 2.2686653 -0.71728069
2.6971657 2.6487186 -0.63022435
3.272613 3.2138293 -0.5112496
4.2213221 4.1454973 -0.33047184
4.8504181 4.7632937 0
8.2811985 8.1324492 0.6483047
1.7944369 1.766469 -0.83026886
2.0314314 1.9997698 -0.786466
2.311043 2.2750235 -0.71840751
2.6921358 2.6501765 -0.6297968
3.2779417 3.2268522 -0.51269078
4.2237167 4.1578865 -0.33105239
4.8372407 4.761848 0
8.2917299 8.1624956 0.64990085
1.7870284 1.7634329 -0.82782626
2.0165119 1.9898863 -0.7816202
2.3173337 2.286736 -0.72122139
2.6944079 2.6588316 -0.63107949
3.2611513 3.2180917 -0.51067251
4.2297907 4.1739416 -0.33192351
4.8314834 4.7676892 0
8.2837086 8.1743326 0.65004581
1.7743499 1.7551585 -0.82293493
2.0194585 1.9976161 -0.78369737
2.3109524 2.2859571 -0.72009456
2.6930237 2.6638958 -0.63150871
3.2774894 3.2420399 -0.51384395
4.230288 4.1845331 -0.33235908
4.8257189 4.7735238 0
8.277524 8.187994 0.65033638
1.7810016 1.766001 -0.82700896
2.0134838 1.9965252 -0.78231436
2.3099983 2.2905421 -0.72065908
2.6825113 2.6599178 -0.6297968
3.2680581 3.2405326 -0.51297885
4.2196918 4.1841512 -0.33192351
4.821794 4.7811818 0
8.2768478 8.2071362 0.65106195
1.7788664 1.7681516 -0.82700896
2.0146253 2.0024905 -0.78369737
2.3126299 2.2987001 -0.72234607
2.6865783 2.6703959 -0.63150871
3.2623074 3.2426574 -0.51269078
4.2164741 4.1910768 -0.33206853
0 0 0
8.2687664 8.2189608 0.65120697
1.7697319 1.7633284 -0.82375222
2.0317547 2.0244031 -0.7913118
2.304456 2.2961178 -0.72065908
2.6960738 2.6863184 -0.63450325
3.2712071 3.2593708 -0.51470804
4.2169309 4.2016721 -0.33250409
4.8139162 4.7964978 0
8.2625141 8.2326174 0.65149748
1.791412 1.787088 -0.834346
2.0216458 2.0167661 -0.78784901
2.3048656 2.2993023 -0.72122139
2.6871808 2.6806946 -0.63279134
3.2637494 3.2558715 -0.51384395
4.2180672 4.2078862 -0.33279407
4.8239093 4.8122659 0
8.2667351 8.2467823 0.65222305
1.766533 1.766533 -0.82375222
2.0050225 2.0050225 -0.78231436
2.3074706 2.3074706 -0.72290844
2.6857531 2.6857531 -0.63321888
3.2616401 3.2616401 -0.51413202
4.2221646 4.2221646 -0.33351964
4.7941699 4.7941699 0
8.2530937 8.2530937 0.65193307
1.7940704 1.7984113 -0.83760589
2.0114558 2.0163226 -0.78577447
2.3064804 2.3120611 -0.72347295
2.6788833 2.685365 -0.6323638
3.2686534 3.276562 -0.51586121
4.2133932 4.2235875 -0.33322963
4.7902098 4.8017998 0
8.2522898 8.2722559 0.65265864
1.7640007 1.7725471 -0.82456642
2.0019393 2.0116384 -0.78300583
2.3072662 2.318445 -0.72459763
2.6702025 2.6831396 -0.63107949
3.2683444 3.2841792 -0.51643836
4.2046175 4.2249885 -0.33293909
4.7825704 4.8057413 0
8.2441187 8.2840614 0.6528036
1.768823 1.7816933 -0.82782626
2.0012729 2.0158346 -0.78369737
2.3026748 2.3194296 -0.72403526
2.6796205 2.6991181 -0.63407564
3.2661941 3.2899599 -0.51672637
4.2141547 4.2448182 -0.33410019
4.787765 4.8226018 0
8.2414265 8.3013926 0.65338415
1.7805827 1.7978783 -0.834346
2.0094244 2.0289431 -0.78784901
2.2945049 2.3167925 -0.72234607
2.6745524 2.7005317 -0.6336481
3.2567546 3.288389 -0.51586121
4.209023 4.249907 -0.33410019
4.7947483 4.8413219 0
8.24053 8.3205748 0.65410972
1.7766669 1.7982651 -0.8335287
2.0105014 2.0349422 -0.78923464
2.3131335 2.3412533 -0.7291007
2.6803067 2.7128904 -0.63578755
3.2618663 3.3015196 -0.51730239
4.2130213 4.2642374 -0.33482632
4.7815785 4.8397064 0
8.2286463 8.3286791 0.65396476
1.7640862 1.7898521 -0.82864046
2.0168447 2.0463023 -0.79269481
2.3031683 2.336808 -0.7268492
2.6806273 2.71978 -0.63664263
3.2524331 3.2999375 -0.51643836
4.2133322 4.2748713 -0.33526132
4.7757273 4.8454804 0
8.2276945 8.347867 0.65469027
1.7740538 1.8043209 -0.834346
2.0020566 2.0362136 -0.78784901
2.3021228 2.3413992 -0.72741151
2.6719449 2.717531 -0.63536
3.2593203 3.3149273 -0.51816756
4.2154508 4.2873707 -0.33584186
4.751626 4.8326936 0
8.2176018 8.3578024 0.65469027
1.7528328 1.7870519 -0.82538062
2.0048666 2.0440061 -0.78992611
2.2975144 2.3423669 -0.7268492
2.6686594 2.7207575 -0.63536
3.2516935 3.3151739 -0.51759148
4.2084498 4.2906079 -0.33569688
4.7312045 4.8235679 0
8.2147751 8.3751459 0.65527087
1.7645009 1.8033013 -0.83190036
2.0111666 2.0553911 -0.79338628
2.2946825 2.3451414 -0.7268492
2.6671636 2.7258132 -0.63578755
3.2494926 3.3209474 -0.51787955
4.2105312 4.3031187 -0.33627743
4.7089934 4.8125415 0
8.2082806 8.3887768 0.65556085
1.7571397 1.8001244 -0.82945466
2.0086815 2.0578198 -0.79338628
2.2900739 2.3460958 -0.72628683
2.6764216 2.7418945 -0.63878369
3.2545092 3.3341238 -0.51932073
4.2053289 4.3082032 -0.33627743
4.6995354 4.8144999 0
8.1999588 8.4005537 0.65570641
1.7618605 1.8093293 -0.8327145
2.0026965 2.056654 -0.79200327
2.2872374 2.3488612 -0.72628683
2.6623576 2.7340879 -0.63621509
3.2486756 3.3362026 -0.51903272
4.203742 4.3170013 -0.33656743
4.6919007 4.8183117 0
8.1952353 8.4160347 0.6561414
1.7545048 1.8061366 -0.83026886
2.0124414 2.0716636 -0.79684639
2.2967925 2.3643827 -0.73022759
2.6679938 2.7465076 -0.63835454
3.2518508 3.3475466 -0.52018589
4.2021475 4.3258085 -0.33685797
4.6770105 4.8146458 0
8.1904936 8.4315243 0.65657699
1.7523212 1.8082552 -0.83026886
1.9977206 2.0614877 -0.79200327
2.2850876 2.3580275 -0.72741151
2.6700344 2.7552617 -0.63963884
3.2532053 3.3570473 -0.52105099
4.2041507 4.338347 -0.33743855
4.6766243 4.825902 0
8.1802998 8.4414148 0.65657699
1.7432635 1.8032632 -0.82700896
1.9987123 2.0675042 -0.79338628
2.2804725 2.3589618 -0.7268492
2.6667032 2.7584858 -0.63963884
3.2509425 3.3628335 -0.52133906
4.2043252 4.34903 -0.33787411
4.6834469 4.8446417 0
8.1700945 8.451293 0.65657699
1.7651068 1.8302788 -0.83842003
2.0171111 2.0915875 -0.80169219
2.2811515 2.3653769 -0.72797602
2.668716 2.7672513 -0.64092314
3.2450831 3.3648994 -0.52105099
4.1990676 4.3541069 -0.33787411
4.6848159 4.8577905 0
8.1688938 8.4705086 0.6573025
1.7577516 1.8270651 -0.8359744
1.9937102 2.0723281 -0.79338628
2.2818115 2.3717902 -0.7291007
2.6600292 2.7649221 -0.63963884
3.2445979 3.3725421 -0.52162707
4.2028093 4.3685384 -0.33859965
4.6933775 4.8784513 0
8.1586523 8.4803734 0.6573025
1.7418513 1.8149219 -0.82945466
1.9825206 2.0656872 -0.78992611
2.2807019 2.3763771 -0.72966307
2.6637964 2.7755427 -0.64135069
3.2423098 3.3783245 -0.52191508
4.1939254 4.3698606 -0.33830911
4.6892796 4.8859944 0
8.1520023 8.4939785 0.65759307
1.7721348 1.8509474 -0.84493977
2.0025761 2.0916371 -0.79892355
2.2813466 2.3828053 -0.7307899
2.6533396 2.7713425 -0.63963884
3.2364383 3.3803732 -0.52162707
4.1940351 4.3805575 -0.33874467
4.7013736 4.910459 0
8.138135 8.5000648 0.6573025
1.7408777 1.8227041 -0.83108616
1.9809917 2.0741041 -0.7913118
2.2819722 2.3892317 -0.73191458
2.6570814 2.7819719 -0.64135069
3.2359278 3.3880258 -0.52220416
4.1959176 4.3931384 -0.33932522
4.6972327 4.9180164 0
8.1314516 8.5136538 0.65759307
1.754017 1.8409092 -0.83842003
2.0079024 2.1073718 -0.80307788
2.2668195 2.3791153 -0.72797602
2.6466348 2.7777464 -0.63963884
3.237179 3.3975456 -0.52306825
4.1977763 4.4057298 -0.33990577
4.7002611 4.9331074 0
4.9361405 5.1806722 0.39969319
1.7285571 1.8207846 -0.82782626
1.9833521 2.0891743 -0.79477191
2.2659991 2.3869021 -0.7291007
2.6468999 2.7881258 -0.64092314
3.239918 3.4127846 -0.52450943
4.1951532 4.4189863 -0.34034133
4.6966896 4.9472828 0
4.9088559 5.1707687 0.39824209
1.7297516 1.8264575 -0.82945466
1.9877266 2.0988553 -0.79754055
2.2753453 2.402554 -0.73304147
2.6594138 2.808095 -0.64477444
3.2464666 3.4279683 -0.52623975
4.1987424 4.4334836 -0.3410669
4.6781802 4.9397249 0
4.8829484 5.1559415 0.3966454
1.7580926 1.8608817 -0.84412247
1.9886316 2.1048994 -0.79892355
2.2602243 2.3923709 -0.7291007
2.6542578 2.809442 -0.64434689
3.2387662 3.4281247 -0.5256626
4.1915927 4.4366593 -0.34092134
4.6579099 4.9302402 0
4.8392491 5.1221819 0.39359817
1.7219455 1.8270385 -0.82782626
1.9757659 2.09635 -0.79477191
2.2695327 2.4080458 -0.73304147
2.6543791 2.8163798 -0.64520198
3.238173 3.4358037 -0.52623975
4.1844487 4.4398317 -0.34077632
4.6430259 4.9263968 0
4.7439504 5.0334811 0.38634148
1.7417443 1.8525251 -0.83842003
1.9801054 2.1060469 -0.79754055
2.2613983 2.4052308 -0.73135227
2.650974 2.8195851 -0.64520198
3.2287023 3.4340589 -0.52537459
4.1897635 4.4562469 -0.34164745
4.6299396 4.9244194 0
4.7467628 5.0486732 0.38706705
1.7462679 1.8618393 -0.84167993
1.9844242 2.1157572 -0.80030924
2.2689164 2.4190776 -0.73472846
2.6475651 2.8227861 -0.64520198
3.2298605 3.443619 -0.52623975
4.1790414 4.4556184 -0.34121189
4.6204286 4.9262171 0
4.6962204 5.0070252 0.38343871
1.7625874 1.8837955 -0.8506422
1.968154 2.1034982 -0.79477191
2.2729359 2.429239 -0.73698002
2.6371369 2.8184853 -0.64349014
3.2256973 3.4475193 -0.52623975
4.1807561 4.4682546 -0.34179243
4.6251378 4.9431953 0
4.6866126 5.0088978 0.38314813
1.7198409 1.842567 -0.83108616
1.9775888 2.1187074 -0.79961509
2.2665348 2.4282722 -0.73585534
2.6389861 2.8273013 -0.64477444
3.2232926 3.4533033 -0.52652776
4.1806746 4.4790034 -0.342228
4.6475744 4.9792204 0
4.7000623 5.0354538 0.38474482
1.734453 1.8627288 -0.83923423
1.9716113 2.1174269 -0.79823208
2.2653289 2.4328671 -0.73641765
2.6408176 2.8361259 -0.64605874
3.2296896 3.4685495 -0.52825695
4.1823425 4.4916582 -0.34280857
4.6699305 5.0153069 0
4.619607 4.9612617 0.37864923
1.7406099 1.873876 -0.84330827
1.9673456 2.1179712 -0.79754055
2.2606599 2.4337425 -0.73585534
