# .PCD v0.7 - Point Cloud Data file format
VERSION 0.7
FIELDS x y z
SIZE 4 4 4
TYPE F F F
COUNT 1 1 1
WIDTH 1569
HEIGHT 1
VIEWPOINT 0 0 0 1 0 0 0
POINTS 1569
DATA ascii
-2.7836487 8.6381636 -0.50692856
-3.7436376 11.617182 0
-3.7646563 11.682407 0.68557918
-0.90900797 2.8091838 -0.97356182
-1.0690085 3.3036468 -0.95799708
-1.3674724 4.2260151 -0.98398101
-1.7635095 5.4499221 -0.95496315
-2.5235629 7.798779 -0.91363716
-2.799685 8.6521025 -0.50794464
-3.754467 11.602746 0
-3.7787695 11.67785 0.68557918
-0.92080384 2.8339427 -0.9825272
-1.0745515 3.3071294 -0.95938277
-1.3678682 4.2098651 -0.98060477
-1.7693009 5.4453483 -0.9545356
-2.5305858 7.7883425 -0.912772
-2.8181653 8.6734209 -0.50939578
-3.7612467 11.575927 0
-3.7880609 11.658452 0.68470865
-0.93879074 2.877466 -0.9980092
-1.0824366 3.3177514 -0.96284288
-1.3761064 4.2178717 -0.98285633
-1.7750838 5.4407682 -0.95410806
-2.5335767 7.7656074 -0.91046566
-2.8230009 8.6527147 -0.50837964
-3.7574742 11.516948 0
-3.7852209 11.601993 0.68166083
-0.93493122 2.8423233 -0.98660123
-1.0810444 3.2865281 -0.95453697
-1.3799437 4.1952243 -0.97835326
-1.7898295 5.4413352 -0.95496315
-2.5539505 7.7643714 -0.91104168
-2.847965 8.6582165 -0.5091058
-4.1373839 12.578234 0
-4.1339369 12.567754 0.73898774
-0.9499895 2.8763885 -0.9988234
-1.0802956 3.2709308 -0.95038533
-1.3921828 4.2152662 -0.98341864
-1.7939901 5.4318628 -0.95368046
-2.5665751 7.7711039 -0.91219485
-2.8299024 8.568409 -0.50402576
-4.1574779 12.588058 0
-4.1556387 12.582488 0.74014884
-0.95190996 2.8705511 -0.99719501
-1.100829 3.319627 -0.96492004
-1.395674 4.2087526 -0.98229182
-1.8021666 5.4345598 -0.9545356
-2.5727065 7.7581768 -0.91104168
-2.7870951 8.4046803 -0.4945924
-4.1735034 12.585492 0
-4.1716561 12.579922 0.74029386
-0.95537776 2.8693988 -0.99719501
-1.0913671 3.2778318 -0.95315397
-1.4023653 4.2118893 -0.98341864
-1.8127859 5.4445539 -0.95667499
-2.5837147 7.7599754 -0.91161883
-2.7734444 8.329813 -0.49038348
-4.197752 12.607604 0
-4.1917806 12.589669 0.74116498
-1.0977139 3.2836509 -0.95523113
-1.3993992 4.1860986 -0.97779089
-1.8144814 5.4277563 -0.95410806
-2.5955501 7.7642093 -0.91248399
-2.7719753 8.2919588 -0.48835182
-4.2138071 12.604989 0
-4.2086353 12.589519 0.74145496
-1.0992851 3.2751849 -0.95315397
-1.408498 4.1964464 -0.98060477
-1.8243058 5.4352946 -0.9558199
-2.6041043 7.7586083 -0.91219485
-2.7737226 8.2639647 -0.48690012
-4.2331743 12.612222 0
-4.2329402 12.611524 0.74305165
-0.94276792 2.8032455 -0.97519016
-1.0972658 3.2626328 -0.9496938
-1.4142729 4.2052279 -0.98285633
-1.8275893 5.4341912 -0.9558199
-2.6120892 7.76684 -0.91334802
-2.7671201 8.2278118 -0.48486847
-4.2474298 12.629395 0
-4.2422137 12.613886 0.74334162
-0.9469474 2.8044527 -0.97600752
-1.1060213 3.2755616 -0.95384544
-1.4201652 4.2059212 -0.98341864
-1.8292251 5.4173813 -0.9532513
-2.6189921 7.7563334 -0.91248399
-2.7587733 8.1703053 -0.48167568
-4.2643504 12.629181 0
-4.2624412 12.623527 0.74421275
-0.95033532 2.8033066 -0.97600752
-1.108369 3.2694755 -0.95246249
-1.422798 4.1969805 -0.98172945
-1.8415396 5.4321876 -0.95624745
-2.6250405 7.7433648 -0.91133082
-2.7569623 8.1325092 -0.47964343
-4.28128 12.628953 0
-4.2851987 12.640512 0.74551886
-0.97283137 2.8583024 -0.99556351
-1.1195929 3.2895064 -0.95869124
-1.430325 4.202477 -0.98341864
-1.848102 5.4299588 -0.95624745
-2.6343949 7.7401872 -0.91133082
-0 0 -0
-4.3040824 12.645942 0
-4.3038182 12.645165 0.74609941
-0.94911367 2.7776089 -0.96785629
-1.1243773 3.2905228 -0.95938277
-1.4329363 4.1935301 -0.98172945
-1.8538324 5.4252949 -0.9558199
-2.6462522 7.7443342 -0.91219485
-0 0 -0
-4.3202004 12.643192 0
-4.3199334 12.642412 0.74624443
-0.9516679 2.7741244 -0.96704209
-1.1364915 3.3128874 -0.96630305
-1.4338807 4.179781 -0.97891557
-1.8595511 5.4206157 -0.95539069
-2.6522505 7.7313447 -0.91104168
-0 0 -0
-4.3447642 12.665044 0
-4.3411093 12.65439 0.74726057
-0.96387315 2.7986805 -0.97600752
-1.1364098 3.299654 -0.96284288
-1.4472024 4.2020645 -0.98454332
-1.8635942 5.4110904 -0.95410806
-2.6599076 7.723248 -0.91046566
-2.7700083 8.0429344 -0.47514454
-4.3626041 12.66716 0
-4.3614717 12.663872 0.7481311
-0.96967477 2.8045149 -0.97845006
-1.1346565 3.2816789 -0.95799708
-1.4448068 4.1787024 -0.97947794
-1.870131 5.4088345 -0.95410806
-2.6700821 7.7224708 -0.91075367
-2.7703869 8.0125751 -0.47354841
-3.0240958 8.746357 0
-4.3784699 12.663509 0.74842167
-1.1320428 3.2613542 -0.95246249
-1.457353 4.198555 -0.98454332
-1.8791881 5.4138393 -0.95539069
-2.6836512 7.7314539 -0.91219485
-2.7775095 8.0018549 -0.47311285
-3.0457551 8.7746563 0
-4.4022875 12.682753 0.7498728
-0.9650647 2.7694924 -0.96704209
-1.1310279 3.245765 -0.94830817
-1.4523951 4.1680074 -0.97779089
-1.8798177 5.3946028 -0.95239615
-2.6921408 7.7257652 -0.91190684
-2.7829018 7.9862266 -0.47238731
-3.0315216 8.6997023 0
-4.4218831 12.68969 0.75059837
-0.99942136 2.8569729 -0.9980092
-1.1415761 3.2633405 -0.95384544
-1.467495 4.1950212 -0.98454332
-1.8922657 5.4092822 -0.95539069
-2.695498 7.7054238 -0.90988964
-2.7899747 7.9754977 -0.47195175
-3.0385938 8.6862068 0
-4.4380736 12.686797 0.75074393
-0.97175467 2.7671521 -0.96704209
-1.1405325 3.247761 -0.9496938
-1.4658276 4.1740656 -0.98004025
-1.8979506 5.404572 -0.95496315
-2.710803 7.7192369 -0.91190684
-2.7944453 7.9574156 -0.4710812
-3.0568471 8.7046261 0
-4.4585638 12.696131 0.75161445
-0.98002648 2.7799575 -0.97193033
-1.1644714 3.3031566 -0.96630305
-1.4742492 4.1818771 -0.98229182
-1.9027743 5.3974376 -0.95410806
-2.438941 6.9183359 -0.81764048
-2.8023288 7.9491272 -0.47079062
-3.0734205 8.7181101 0
-4.47822 12.702985 0.75234002
-0.99327964 2.8067315 -0.9817099
-1.1517255 3.2544553 -0.95246249
-1.481845 4.1872807 -0.98398101
-1.9110059 5.3999696 -0.95496315
-2.4533398 6.9324546 -0.81965882
-2.8093302 7.9383841 -0.47035506
-3.0665877 8.6653214 0
-4.5005012 12.717161 0.75350112
-1.0082552 2.8381398 -0.99312097
-1.1699333 3.2932475 -0.96422857
-1.4835011 4.17591 -0.98172945
-1.9140919 5.3879809 -0.9532513
-2.4599812 6.9246058 -0.81908166
-2.8145719 7.9227433 -0.46962953
-3.0901246 8.6983976 0
-4.5202127 12.723954 0.75422668
-1.000892 2.8066576 -0.9825272
-1.1713829 3.2847402 -0.96215141
-1.4893985 4.1765056 -0.98229182
-1.9240499 5.3953357 -0.95496315
-2.4640033 6.9094496 -0.81764048
-2.8241427 7.9193368 -0.46962953
-3.0848994 8.6505384 0
-4.5425658 12.738064 0.75538778
-1.0084469 2.8170788 -0.98660123
-1.167742 3.2620668 -0.9559226
-1.4970138 4.1818819 -0.98398101
-1.9331641 5.40026 -0.95624745
-2.4714794 6.9040346 -0.81735247
-2.8293319 7.9036889 -0.46890396
-3.1111362 8.6909046 0
-4.5588288 12.735009 0.7555328
-1.02522 2.8530653 -0.9996376
-1.1665907 3.2464831 -0.95176834
-1.5037858 4.1848569 -0.98510784
-1.9336102 5.3810072 -0.9532513
-2.4771948 6.8937383 -0.81648731
-2.8388798 7.9002643 -0.46890396
-3.1233938 8.6920328 0
-4.5803652 12.746612 0.75654894
-1.006026 2.7890565 -0.97763586
-1.1764721 3.2615931 -0.95661414
-1.5122899 4.1925974 -0.9873594
-1.9453385 5.3931603 -0.9558199
-2.4828892 6.8834386 -0.81562215
-2.8537118 7.9114895 -0.46977451
-3.1374261 8.6980448 0
-4.5992904 12.750845 0.75712949
-1.171873 3.2365844 -0.9496938
-1.5121628 4.1764278 -0.98398101
-1.9457353 5.3739071 -0.9528237
-2.4876823 6.8707056 -0.81446898
-2.8579633 7.8933806 -0.46890396
-3.1408458 8.6746712 0
-4.6208873 12.762383 0.75814557
-1.033025 2.8423679 -0.99719501
-1.2057734 3.3176849 -0.97391748
-1.5093977 4.1531072 -0.97891557
-1.9566106 5.3836131 -0.95496315
-2.4933345 6.8604093 -0.81360495
-2.8674989 7.8899217 -0.46890396
-3.1468811 8.6586418 0
-4.6398549 12.766559 0.75872618
-1.0178251 2.7900398 -0.97926736
-1.1779699 3.2290249 -0.94830817
-1.5187681 4.1632133 -0.98172945
-1.9578373 5.3667803 -0.95239615
-2.4954164 6.8403802 -0.81158662
-2.8805923 7.8962154 -0.46948451
-3.1707208 8.6915092 0
-4.6606188 12.775585 0.75959671
-1.0152658 2.7778106 -0.97519016
-1.1980052 3.2777929 -0.96284288
-1.5230291 4.1670723 -0.98285633
-1.9610792 5.3655963 -0.95239615
-2.4995487 6.8388715 -0.81158662
-2.880012 7.8798351 -0.46861395
-3.1652505 8.6602602 0
-4.6701188 12.777643 0.75988668
-1.1760447 3.2056894 -0.94207937
-1.523685 4.153295 -0.98004025
-1.9675611 5.3632231 -0.95239615
-2.5060267 6.8309851 -0.81100947
-2.8957932 7.8934188 -0.46962953
-3.1810887 8.6710835 0
-4.690032 12.784196 0.76061285
-1.0245388 2.7823093 -0.97763586
-1.1877186 3.2254517 -0.94830817
-1.526948 4.1466866 -0.97891557
-1.9731539 5.3584347 -0.95196861
-2.508918 6.8133936 -0.80928028
-2.9089203 7.8996677 -0.47021008
-3.1915636 8.6672335 0
-4.7126555 12.798018 0.76177341
-1.0244725 2.771796 -0.97437602
-1.1985731 3.2428398 -0.95384544
-1.5407645 4.1686673 -0.98454332
-1.983187 5.3656783 -0.95368046
-2.5126662 6.7982292 -0.8078391
-2.9220667 7.9058962 -0.47079062
-3.2056429 8.6731358 0
-4.7299194 12.797193 0.76206392
-1.0089098 2.7195804 -0.95644832
-1.2120899 3.2672648 -0.96145993
-1.5440346 4.1620426 -0.98341864
-1.9914529 5.3680868 -0.9545356
-2.51998 6.7927656 -0.80755109
-2.9415598 7.9291601 -0.47238731
-3.2079747 8.6472979 0
-4.754415 12.815825 0.76351506
-1.0535903 2.82953 -0.99556351
-1.2037791 3.2328784 -0.95176834
-1.5464016 4.153028 -0.98172945
-1.9934597 5.3536506 -0.95239615
-2.5236707 6.7775888 -0.80610877
-2.9484174 7.9182925 -0.47195175
-3.2211461 8.6507349 0
-4.769897 12.810072 0.76351506
-1.0509541 2.8120553 -0.98986113
-1.2103202 3.2384737 -0.95384544
-1.5443025 4.1321158 -0.97722638
-2.0008249 5.3536401 -0.9528237
-2.5282362 6.7648435 -0.8049556
-2.9698079 7.9463639 -0.47383842
-3.2243078 8.6273336 0
-4.7926493 12.823771 0.76467615
-1.0586905 2.8223519 -0.99393517
-1.2115881 3.22996 -0.95176834
-1.5564333 4.1492791 -0.98172945
-2.0063915 5.3488173 -0.95239615
-2.5318673 6.7496777 -0.80351442
-2.9648056 7.9038429 -0.47151619
-3.2420421 8.6429253 0
-4.8108792 12.825272 0.76511174
-1.2093049 3.2120652 -0.94692516
-1.5632381 4.1521559 -0.98285633
-2.0083315 5.3343792 -0.95025676
-2.5409315 6.7490315 -0.80380243
-2.9752684 7.9026847 -0.47166118
-3.2699029 8.6852713 0
-4.8227105 12.809722 0.7645312
-1.0524024 2.7851021 -0.9817099
-1.2131852 3.2106016 -0.94692516
-1.5556782 4.1169829 -0.97497487
-2.0165887 5.3367467 -0.95111185
-2.5436008 6.7314439 -0.80207324
-3.609354 9.5518789 -0.570351
-3.291434 8.7105274 0
-4.8354287 12.796591 0.7640956
-1.0592726 2.7930725 -0.98496979
-1.2499754 3.2959144 -0.97253186
-1.5768718 4.1578689 -0.98510784
-2.0239451 5.3367043 -0.9515394
-2.5508163 6.7259498 -0.80178523
-3.0173919 7.9562087 -0.47528952
-3.3148749 8.7406063 0
-4.8508873 12.790739 0.7640956
-1.0635252 2.7940984 -0.98578393
-1.2271851 3.2240663 -0.95176834
-1.580085 4.1512065 -0.98398101
-2.0285673 5.3294611 -0.95068431
-2.5552609 6.7131934 -0.80063206
-3.0870857 8.1104059 -0.48472345
-3.3263621 8.7390337 0
-4.8746572 12.806722 0.76540172
-1.0563196 2.7651136 -0.97600752
-1.2248154 3.2061827 -0.94692516
-1.5760339 4.1255631 -0.97835326
-2.0350053 5.3270063 -0.95068431
-2.5559864 6.6907716 -0.79832572
-3.1478817 8.2401676 -0.4927057
-3.3489919 8.7666111 0
-4.8984766 12.822676 0.76670843
-1.0817795 2.821528 -0.99638087
-1.2340755 3.218751 -0.95107681
-1.5882947 4.1426358 -0.98285633
-2.0396008 5.3197451 -0.94982755
-2.5668478 6.6949258 -0.79919088
-3.1401608 8.1902571 -0.48994792
-3.3502636 8.7382536 0
-4.9176841 12.826444 0.76728839
-1.0860747 2.8225234 -0.99719501
-1.2343601 3.2078919 -0.94830817
-1.5859993 4.1217422 -0.97835326
-2.0487938 5.3244662 -0.95111185
-2.5749354 6.6918192 -0.79919088
-3.1071315 8.0749063 -0.48327178
-3.3580186 8.7269192 0
-4.9369111 12.830193 0.76786894
-1.2409475 3.2134213 -0.95038533
-1.5964688 4.1340404 -0.98172945
-2.0533781 5.3172021 -0.95025676
-2.5736997 6.6645703 -0.79630738
-3.0691485 7.9475298 -0.4758701
-3.380748 8.7544136 0
-4.9701967 12.870275 0.77062672
-1.0866394 2.8037562 -0.99148947
-1.2674936 3.2703979 -0.96768868
-1.6152369 4.1676483 -0.99017328
-2.0570173 5.3075342 -0.9489724
-2.5826881 6.6638741 -0.79659653
-3.0656049 7.9099007 -0.47383842
-3.3969646 8.7648773 0
-5.116261 13.20102 0.79080015
-1.0864426 2.7932272 -0.98822963
-1.2559849 3.2291181 -0.9559226
-1.611059 4.1420083 -0.98454332
-2.0634291 5.3050447 -0.9489724
-2.591675 6.663157 -0.79688454
-3.0704515 7.8940845 -0.47311285
-3.4235897 8.8019972 0
-5.185894 13.332854 0.79907244
-1.0826269 2.7734931 -0.9817099
-1.2507614 3.2042232 -0.94899964
-1.6031293 4.1069255 -0.97666407
-2.0707703 5.3049364 -0.94940001
-2.5903172 6.6359215 -0.79400104
-3.0695934 7.86374 -0.47151619
-3.4171906 8.754221 0
-5.1991687 13.319324 0.79863739
-1.0859773 2.7721829 -0.9817099
-1.2683592 3.2377508 -0.95938277
-1.6155049 4.1239123 -0.98116714
-2.0762432 5.3000426 -0.9489724
-2.5973911 6.6303811 -0.79371303
-3.0724611 7.8430963 -0.47050062
-3.4277658 8.7500849 0
-5.1972494 13.26706 0.7958796
-1.2759421 3.2455552 -0.96215141
-1.6242052 4.1314163 -0.98341864
-2.0798271 5.2903605 -0.9476881
-2.6025643 6.6200233 -0.792849
-3.0809822 7.8369527 -0.47035506
-3.4402387 8.7507763 0
-5.1857066 13.190643 0.79167074
-1.0917672 2.7672536 -0.9808957
-1.289988 3.269675 -0.96976322
-1.6301277 4.1318121 -0.98398101
-2.0862179 5.2878437 -0.9476881
-2.6105614 6.6168737 -0.792849
-3.0885439 7.8283944 -0.47006506
-3.4603627 8.7708273 0
-5.1644526 13.090107 0.78601068
-1.0978405 2.7728288 -0.9833414
-1.2883984 3.254123 -0.96561158
-1.6248326 4.1038589 -0.97779089
-2.0869377 5.2710028 -0.94512111
-2.6185548 6.6137142 -0.792849
-3.1046977 7.8415713 -0.4710812
-3.4623365 8.7448635 0
-5.1573081 13.025873 0.78252733
-1.0967809 2.7652702 -0.9808957
-1.295912 3.2673316 -0.96976322
-1.6254363 4.0981479 -0.97666407
-2.092962 5.2769017 -0.94640547
-2.6149211 6.5928969 -0.79054266
-3.1075168 7.8348584 -0.47079062
-3.4868057 8.7911444 0
-5.1479344 12.979282 0.77991509
-1.08824 2.7340922 -0.97030193
-1.266463 3.1818595 -0.944848
-1.6322681 4.1009073 -0.97779089
-2.097436 5.2695942 -0.94554871
-2.6276672 6.6017461 -0.79198384
-3.1160214 7.8286862 -0.47064564
-3.5051248 8.8062687 0
-5.1607299 12.965808 0.77947956
-1.2749588 3.1919734 -0.94830817
-1.6494735 4.1296048 -0.98510784
-2.1095133 5.2813554 -0.94811565
-2.6231706 6.5673428 -0.78823632
-3.1360781 7.8514524 -0.47224173
-3.5350699 8.8503637 0
-4.0824847 10.220866 0.61475503
-1.1077163 2.7635684 -0.9817099
-1.3040173 3.2533069 -0.96699721
-1.6629695 4.1488328 -0.99017328
-2.1130307 5.2716608 -0.94683301
-2.6349535 6.5737715 -0.78938949
-3.1455626 7.8476572 -0.47224173
-5.7136045 14.254496 0
-4.0948319 10.215926 0.61475503
-1.0926114 2.7163754 -0.96541375
-1.295774 3.2214642 -0.95799708
-1.6528101 4.1091027 -0.98116714
-2.116524 5.2619567 -0.94554871
-2.6428945 6.5705829 -0.78938949
-3.1511641 7.8342075 -0.47166118
-5.7434487 14.278967 0
-4.1003842 10.194094 0.61373895
-1.1097668 2.7494259 -0.97763586
-1.2846448 3.1826825 -0.94692516
-1.6625283 4.1188817 -0.98398101
-2.1190372 5.2498736 -0.94383681
-2.6537335 6.5745735 -0.79025352
-3.1616032 7.8328109 -0.47180673
-5.7568011 14.262363 0
-4.1107554 10.184317 0.61344892
-1.1214381 2.7686982 -0.98496979
-1.2931978 3.1927521 -0.95038533
-1.6579669 4.0933237 -0.97835326
-2.1292341 5.2568264 -0.94554871
-2.6665335 6.5833554 -0.79169583
-3.177891 7.8458366 -0.47282231
-5.7779384 14.265046 0
-4.1152544 10.160075 0.61228782
-1.1080329 2.7261307 -0.97030193
-1.3263358 3.2632287 -0.97184032
-1.665779 4.0983725 -0.98004025
-2.1365499 5.2566257 -0.94597626
-2.6803277 6.5945005 -0.79342502
-3.1834552 7.8323622 -0.47224173
-5.8020277 14.274924 0
-4.1265502 10.152691 0.6121428
-1.3132255 3.2198143 -0.95938277
-1.6822449 4.1245894 -0.98679489
-2.1438723 5.256424 -0.94640547
-2.6863422 6.586472 -0.792849
-3.2007673 7.8477583 -0.47340286
-5.8261523 14.284774 0
-4.1319447 10.130853 0.61112672
-1.1221071 2.7417448 -0.97682166
-1.2962114 3.1671491 -0.94415653
-1.6737553 4.0896363 -0.97891557
-2.1482754 5.2490735 -0.94554871
-2.6991963 6.5951877 -0.79429018
-3.2240286 7.8775573 -0.47543508
-4.1874251 10.23151 0
-4.1382794 10.111428 0.61025614
-1.1291749 2.7495322 -0.98008156
-1.309566 3.1887829 -0.95107681
-1.67966 4.0899591 -0.97947794
-2.1555908 5.2488465 -0.94597626
-2.7091265 6.5967021 -0.7948662
-3.221699 7.8448124 -0.47369343
-4.2116451 10.255322 0
-4.1485176 10.101608 0.60996556
-1.1324964 2.7481658 -0.98008156
-1.3287119 3.2243109 -0.96215141
-1.6865387 4.0926294 -0.98060477
-2.1619313 5.2462382 -0.94597626
-2.7190683 6.5982113 -0.79544336
-3.2321646 7.8433137 -0.47383842
-4.1784267 10.139555 0
-4.1577497 10.089378 0.60953003
-1.1325028 2.7294385 -0.97437602
-1.3336146 3.2141366 -0.96007425
-1.697397 4.0908866 -0.98116714
-2.174603 5.2409983 -0.94597626
-2.7419415 6.6083369 -0.79746056
-3.2809825 7.9074769 -0.47819233
-4.1779842 10.069335 0
-4.1751513 10.062509 0.60851449
-1.1519487 2.7668557 -0.98822963
-1.3346035 3.2055726 -0.95799708
-1.6935501 4.0677233 -0.9761017
-2.1799486 5.2359991 -0.94554871
-2.7529078 6.612185 -0.79832572
-3.2905347 7.9035068 -0.47819233
-4.1871462 10.05707 0
-4.1783195 10.035869 0.60720837
-1.152432 2.7586176 -0.98578393
-1.3278409 3.1785004 -0.95038533
-1.6974854 4.0633316 -0.97553933
-2.1852851 5.2309947 -0.94512111
-2.7608953 6.6088538 -0.79832572
-3.3060939 7.9139156 -0.47906345
-2.9714494 7.112865 0
-4.1834302 10.014027 0.60619223
-1.1366582 2.711643 -0.96948779
-1.3326495 3.1792052 -0.95107681
-1.7073044 4.0729923 -0.97835326
-2.1876345 5.2188807 -0.94340926
-2.7798786 6.6317544 -0.80149722
-3.313643 7.9051175 -0.47877288
-2.9911098 7.1356735 0
-4.1925125 10.001773 0.6057567
-1.1523901 2.7398832 -0.98008156
-1.3501053 3.2099638 -0.96076578
-1.7092683 4.0638976 -0.97666407
-2.1979198 5.2256985 -0.94512111
-2.7878897 6.6283908 -0.80149722
-3.3282285 7.9130816 -0.47949845
-0 0 0
-4.1995587 9.984726 0.60503113
-1.153776 2.7339301 -0.97845006
-1.3344777 3.1621118 -0.94692516
-1.7122035 4.0571518 -0.97553933
-2.2002401 5.2135787 -0.94340926
-2.7969015 6.627398 -0.80178523
-3.3408194 7.9162388 -0.47993401
-2.9941807 7.0948606 0
-4.2116203 9.9796448 0.60503113
-1.159008 2.7370903 -0.98008156
-1.3549267 3.1997678 -0.95869124
-1.7161109 4.0527334 -0.97497487
-2.2085381 5.2156396 -0.94426435
-2.8109567 6.6382995 -0.80351442
-3.3584878 7.9313383 -0.48109511
-0 0 0
-4.21557 9.9554062 0.60386997
-1.1603795 2.7311339 -0.97845006
-1.3460395 3.1681135 -0.9496938
-1.7070982 4.0179214 -0.96709555
-2.2128327 5.2082462 -0.94340926
-2.822011 6.6420422 -0.80437958
-3.3700991 7.9320531 -0.48138511
-3.0082633 7.0804162 0
-4.2215014 9.9359608 0.60299945
-1.1656191 2.7342815 -0.98008156
-1.3459313 3.1572535 -0.94692516
-1.7099609 4.0111856 -0.96597087
-2.22013 5.2079282 -0.94383681
-2.8320611 6.6433811 -0.8049556
-3.3939488 7.9614439 -0.48341733
-3.0066128 7.0528402 0
-4.2355399 9.9356289 0.60328943
-1.184474 2.7692304 -0.99312097
-1.3586237 3.1763823 -0.95315397
-1.6948216 3.962393 -0.95471317
-2.2254126 5.2028837 -0.94340926
-2.8472075 6.6566033 -0.80697393
-3.398454 7.945385 -0.48269123
-3.0222938 7.0659451 0
-4.2373252 9.9066172 0.60183835
-1.1608374 2.7094412 -0.97193033
-1.3506607 3.1524961 -0.94623101
-1.6902096 3.9450171 -0.9507724
-2.2265317 5.1968145 -0.94255251
-2.852246 6.6572571 -0.80726194
-3.4134886 7.9672194 -0.4841429
-3.0111914 7.0282416 0
-4.2351232 9.8849478 0.60067719
-1.178753 2.7420993 -0.9841556
-1.3544688 3.150862 -0.94623101
-1.675912 3.8986259 -0.94007921
-2.2368646 5.2035537 -0.94426435
-2.8653984 6.6656938 -0.80870426
-3.433373 7.9869571 -0.485594
-3.016597 7.0174232 0
-4.2450099 9.8750439 0.60038668
-1.1810875 2.7384057 -0.9833414
-1.365231 3.1653507 -0.95107681
-1.6615009 3.8522663 -0.92938387
-2.2411191 5.1961374 -0.94340926
-2.8806181 6.6788449 -0.81072146
-3.4471376 7.9923463 -0.48617458
-3.0209513 7.0042143 0
-4.2579708 9.8723001 0.60053223
-1.16869 2.7006831 -0.97030193
-1.3551077 3.131469 -0.94138789
-1.653037 3.8199432 -0.92206693
-2.2443366 5.1863556 -0.94212496
-2.8856034 6.6682358 -0.8098563
-3.4567921 7.9881754 -0.48617458
-3.0252781 6.9910049 0
-4.2626715 9.8504524 0.59951609
-1.1896685 2.7400732 -0.98496979
-1.362887 3.1390343 -0.94415653
-1.6444973 3.7876461 -0.91474998
-2.2536695 5.1907063 -0.94340926
-2.9008701 6.681354 -0.81187463
-3.4685135 7.9887643 -0.48646513
-3.0306127 6.9801807 0
-4.268364 9.8309984 0.59864557
-1.1663303 2.6774597 -0.96296805
-1.3746942 3.1557853 -0.9496938
-1.6318231 3.7460573 -0.90518147
-2.2568634 5.1809168 -0.94212496
-2.9141047 6.6896982 -0.81331581
-3.4916532 8.0155344 -0.48835182
-3.0390446 6.9765134 0
-4.2771254 9.8186846 0.59820998
-1.1745129 2.6873701 -0.96704209
-1.3744876 3.1449268 -0.94692516
-1.6231209 3.7138178 -0.89786452
-2.2569556 5.1640773 -0.93955797
-2.9284027 6.700397 -0.81504613
-3.5075777 8.0255909 -0.48922238
-3.0453897 6.9680715 0
-4.2858634 9.806365 0.59777445
-1.195623 2.7266886 -0.9817099
-1.385336 3.1593401 -0.95176834
-1.6255645 3.7071955 -0.89673764
-2.2652535 5.1660438 -0.94041306
-2.9364967 6.6968536 -0.81504613
-4.0901155 9.3277483 -0.56889987
-3.0423098 6.9381666 0
-4.2914505 9.7869053 0.59690386
-1.1959338 2.7184615 -0.97926736
-1.3740016 3.123225 -0.94138789
-1.6269761 3.6982579 -0.89505059
-2.2725267 5.1656504 -0.94084066
-2.9508336 6.7075009 -0.81677532
-4.1034737 9.3275518 -0.56918991
-3.0506911 6.9344854 0
-4.3001328 9.7745752 0.59646833
-1.1972197 2.7124877 -0.97763586
-1.3828386 3.1330361 -0.944848
-1.6263146 3.6846688 -0.89223671
-2.27566 5.1558619 -0.93955797
-2.966248 6.7204967 -0.81879365
-4.1032028 9.2964449 -0.56759375
-3.0643251 6.9427056 0
-4.2983012 9.7384701 0.5945816
-1.2034996 2.7178211 -0.98008156
-1.3886529 3.1359463 -0.94623101
-1.6266505 3.6734078 -0.8899852
-2.2850034 5.1601434 -0.94084066
-2.97332 6.7145448 -0.81850564
-3.1170926 7.0392213 -0.4300088
-3.0653346 6.9223385 0
-4.3090138 9.730896 0.59443665
-1.2047738 2.7118433 -0.97845006
-1.3893883 3.1273947 -0.94415653
-1.6269614 3.6621516 -0.88773364
-2.2912366 5.1573787 -0.94084066
-2.98248 6.7133088 -0.81879365
-3.1266496 7.0378222 -0.43015382
-3.0641882 6.8972263 0
-4.3165488 9.7161837 0.5938561
-1.2070444 2.7081301 -0.97763586
-1.3931662 3.1257136 -0.94415653
-1.6334521 3.6648202 -0.88885832
-2.2901542 5.1382003 -0.93784612
-2.9979575 6.7262301 -0.82081085
-3.1266885 7.0150518 -0.42899269
-3.0682819 6.8840108 0
-4.3325171 9.7204542 0.59443665
-1.2103158 2.7066696 -0.97763586
-1.3836297 3.0942571 -0.93515909
-1.6347665 3.6558828 -0.88716912
-2.3015997 5.1471443 -0.93998551
-3.0134742 6.7391334 -0.82282919
-3.1362224 7.013639 -0.42913768
-3.0829697 6.8945484 0
-4.330471 9.6843777 0.59254998
-1.2034707 2.6826587 -0.96948779
-1.3976341 3.1154685 -0.94207937
-1.6402256 3.6562297 -0.88773364
-2.3025646 5.1326509 -0.93784612
-3.0247922 6.7425694 -0.82369435
-3.1457572 7.0122128 -0.4292827
-3.0912983 6.8908181 0
-4.3400407 9.6743917 0.59225941
-1.2046807 2.6766906 -0.96785629
-1.4086059 3.1297939 -0.94692516
-1.6456841 3.6565602 -0.88829601
-2.3066556 5.1251783 -0.93698937
-3.035058 6.7436223 -0.82427037
-3.1478312 6.994194 -0.42841214
-3.1038945 6.8965707 0
-4.351727 9.6691408 0.59225941
-1.2007972 2.659471 -0.96215385
-1.4092884 3.121228 -0.944848
-1.6542836 3.6638319 -0.89054751
-2.3181317 5.1340928 -0.93913043
-3.0463982 6.7470241 -0.82513553
-3.1573482 6.9927511 -0.42855713
-3.097234 6.8596129 0
-4.3559251 9.6473045 0.59124386
-1.2111456 2.6737716 -0.96785629
-1.4047775 3.1012409 -0.93931073
-1.6492747 3.6410022 -0.88548213
-2.3211548 5.1242704 -0.93784612
-3.0556147 6.7456923 -0.82542354
-3.1615067 6.9794631 -0.42797658
-3.1076658 6.8606024 0
-4.3590016 9.6230984 0.59008271
-1.2133539 2.6700583 -0.96704209
-1.4199419 3.1246674 -0.94692516
-1.6536729 3.6390066 -0.88548213
-2.3284059 5.1237969 -0.93827367
-3.074466 6.7655473 -0.82830703
-3.1731639 6.9827375 -0.42841214
-3.1148777 6.854475 0
-4.3684735 9.6130886 0.58979219
-1.2227288 2.6820793 -0.97193033
-1.4008195 3.0727246 -0.9316963
-1.6549058 3.6300676 -0.88379294
-2.3335314 5.1186461 -0.93784612
-3.0858543 6.7688808 -0.82917106
-3.1815987 6.978898 -0.42841214
-3.1145213 6.8317623 0
-4.3800859 9.6078033 0.58979219
-1.2208298 2.6693637 -0.96785629
-1.4139252 3.0915697 -0.93792772
-1.6550636 3.6188226 -0.88154137
-2.3397145 5.1158228 -0.93784612
-3.0951097 6.7675061 -0.8294602
-3.1846263 6.9632359 -0.42768657
-3.1216924 6.8256297 0
-4.3906121 9.6001434 0.58964717
-1.2137494 2.6454265 -0.95970821
-1.4166105 3.0875721 -0.93723357
-1.6742672 3.6491475 -0.88942069
-2.3480334 5.1176538 -0.93870121
-3.1173055 6.7943201 -0.83320773
-3.1941204 6.9617419 -0.42783156
-3.1201711 6.8005662 0
-4.3935404 9.5759373 0.58848608
-1.2390816 2.6963401 -0.97845006
-1.4142853 3.0775974 -0.93446493
-1.6701077 3.6342871 -0.88604444
-2.348983 5.1115737 -0.93784612
-3.2110438 6.9874868 -0.85713404
-3.1961577 6.9550934 -0.42754158
-3.1199322 6.7892208 0
-4.3873887 9.547307 0.58688939
-1.227854 2.6634212 -0.96704209
-1.4316602 3.105511 -0.94346505
-1.673435 3.6299613 -0.88548213
-2.357305 5.11339 -0.93870121
-3.3201849 7.2020378 -0.88394386
-3.2023816 6.9465027 -0.42725101
-3.1346688 6.7996221 0
-4.3989215 9.5419989 0.58688939
-1.2404076 2.6821234 -0.97437602
-1.4269869 3.0855625 -0.93792772
-1.6735537 3.6187117 -0.88323057
-2.3667154 5.1175299 -0.93998551
-3.3288848 7.1980209 -0.88394386
-3.2194984 6.9614954 -0.42841214
-3.1439781 6.7981982 0
-4.4060893 9.5272512 0.58630937
-1.2415692 2.6761429 -0.97274762
-1.4275458 3.0770066 -0.93585056
-1.6854073 3.6328146 -0.88716912
-2.3642545 5.0960374 -0.93656176
-3.3321381 7.1822643 -0.88250268
-3.2322819 6.9670286 -0.42899269
-3.15219 6.7943945 0
-4.4132237 9.5124922 0.58572882
-1.2301993 2.643265 -0.96133655
-1.4344394 3.0821049 -0.93792772
-1.6812227 3.6123555 -0.8826682
-2.3714924 5.0955019 -0.93698937
-3.3528202 7.2040296 -0.88567418
-3.2461789 6.974895 -0.42971826
-3.1527095 6.7740622 0
-4.4280005 9.5142136 0.58616382
-1.2375747 2.6507349 -0.96459639
-1.4328529 3.0689969 -0.93446493
-1.6855863 3.6103213 -0.8826682
-2.3809066 5.0996132 -0.93827367
-3.3637087 7.2046556 -0.8862502
-3.2513053 6.9639015 -0.4292827
-3.1608922 6.7702479 0
-4.4318018 9.4923811 0.58514827
-1.2533563 2.6760969 -0.97437602
-1.4333709 3.0604541 -0.93239045
-1.6921008 3.6128795 -0.88379294
-2.3837993 5.089756 -0.93698937
-3.3778956 7.2122955 -0.88769138
-3.2520061 6.9435029 -0.42826712
-3.1580346 6.7428598 0
-4.4377546 9.4752474 0.58442217
-1.2565889 2.6745806 -0.97437602
-1.4306649 3.0450916 -0.92823613
-1.6943061 3.6062374 -0.8826682
-2.399771 5.1077805 -0.94084066
-3.3877108 7.2105565 -0.88798052
-3.2548699 6.9278116 -0.42754158
-3.1894186 6.7885022 0
-4.4469924 9.4651785 0.58413213
-1.2534995 2.6596501 -0.96948779
-1.4535973 3.0842135 -0.94069636
-1.6943293 3.5949938 -0.88041669
-2.3906212 5.0723724 -0.93484992
-3.4041367 7.2228284 -0.88999772
-3.2576964 6.9121146 -0.42681545
-3.180975 6.7493291 0
-4.4539948 9.4503965 0.58355159
-1.2472056 2.6380255 -0.96215385
-1.4530337 3.0733826 -0.93792772
-1.6997569 3.5952389 -0.880979
-2.408819 5.0950108 -0.93955797
-3.4051261 7.2023487 -0.88798052
-3.2771542 6.9316692 -0.42826712
-3.2024763 6.7737141 0
-4.4631915 9.4403143 0.58326161
-1.2461559 2.6275837 -0.95889401
-1.4545941 3.0670867 -0.93654209
-1.7128102 3.6115487 -0.88548213
-2.4061735 5.0735407 -0.93613422
-3.4160409 7.2028985 -0.88855654
-3.3055675 6.9699597 -0.43087935
-3.2128868 6.774538 0
-4.4834986 9.4536877 0.58442217
-1.2652539 2.6595483 -0.97111613
-1.4475234 3.0426767 -0.92962182
-1.7084402 3.5911207 -0.880979
-2.4089925 5.063673 -0.93484992
-3.4258516 7.2010989 -0.88884455
-3.3497086 7.0410471 -0.43552384
-3.2356036 6.8011999 0
-4.4982681 9.4553051 0.5848577
-1.2514344 2.6223276 -0.95807672
-1.4587592 3.0567679 -0.93446493
-1.7138714 3.5913446 -0.88154137
-2.423954 5.0792928 -0.93827367
-3.4367805 7.2016273 -0.8894217
-3.3694031 7.060441 -0.43697494
-3.2471828 6.8043337 0
-4.5152841 9.461586 0.58558327
-1.269545 2.6520286 -0.96948779
-1.4776192 3.0866873 -0.94415653
-1.7171135 3.5869815 -0.880979
-2.4267633 5.0694118 -0.93698937
-3.4410124 7.1881375 -0.88826853
-3.4003711 7.1032395 -0.43987772
-3.2598972 6.8097949 0
-4.5345683 9.4725313 0.58659941
-1.2759551 2.6571703 -0.97193033
-1.4704859 3.0622799 -0.93723357
-1.7269448 3.5963545 -0.88379294
-2.4328871 5.0664759 -0.93698937
-3.4541738 7.1933007 -0.8894217
-3.4179499 7.1178646 -0.44103885
-3.2771354 6.8246193 0
-4.5471344 9.4693861 0.58674437
-1.2695125 2.6355882 -0.96459639
-1.4611247 3.0333869 -0.92893028
-1.7235694 3.5782387 -0.87985218
-2.4356682 5.0566006 -0.93570668
-3.457252 7.1774731 -0.88798052
-3.4333115 7.1277709 -0.4419094
-3.2955427 6.8417544 0
-4.5439148 9.4334536 0.5848577
-1.2855995 2.6607575 -0.97437602
-1.4724258 3.047425 -0.93377346
-1.7267874 3.5738678 -0.87928987
-2.4428921 5.055963 -0.93613422
-3.461421 7.1639748 -0.88682735
-3.4520946 7.1446719 -0.44321552
-3.2947495 6.8190207 0
-4.5530515 9.4232817 0.58456773
-1.2801899 2.6414092 -0.96785629
-1.489237 3.0727348 -0.94207937
-1.7288903 3.5672102 -0.87816513
-2.4445212 5.0437675 -0.93442237
-3.4689434 7.1574526 -0.88653821
-3.4618571 7.1428318 -0.44336051
-3.3052588 6.8197231 0
-0 0 0
-1.2887827 2.6509724 -0.97193033
-1.4775943 3.0393496 -0.93239045
-1.735419 3.5696845 -0.87928987
-2.451735 5.0431166 -0.93484992
-3.4696765 7.1369796 -0.88452101
-3.4795742 7.1573391 -0.44452164
-3.3305616 6.8508263 0
-0 0 0
-1.2963183 2.6582994 -0.97519016
-1.4977567 3.0713797 -0.9427709
-1.7386184 3.5653033 -0.8787275
-2.4555786 5.0355401 -0.93399483
-3.4782975 7.132782 -0.88452101
-3.4996114 7.1764894 -0.44597331
-3.3285718 6.8257465 0
-0 0 0
-1.2886714 2.6345332 -0.96704209
-1.5047749 3.0763307 -0.944848
-1.747391 3.5723298 -0.880979
-2.4639151 5.0371771 -0.93484992
-3.4903197 7.1355376 -0.88538504
-3.5128472 7.181592 -0.44655386
-3.3482499 6.8450933 0
-0 0 0
-1.2864113 2.6218815 -0.96296805
-1.4852856 3.0272145 -0.93031329
-1.7505879 3.5679369 -0.88041669
-2.4677403 5.0295916 -0.93399483
-3.5023582 7.1382833 -0.8862502
-3.5261004 7.1866736 -0.44713444
-3.3576682 6.8433857 0
-0 0 0
-1.2950342 2.6314111 -0.96704209
-1.5055602 3.0591838 -0.94069636
-1.7459221 3.547581 -0.87591362
-2.4760807 5.031208 -0.93484992
-3.5052714 7.1224451 -0.88480902
-3.5382204 7.189395 -0.44756943
-3.3808727 6.8696766 0
-4.6533709 9.4552956 0.58863103
-1.2938366 2.6209793 -0.96378225
-1.4848223 3.0078671 -0.92546749
-1.7547063 3.5545824 -0.87816513
-2.4798877 5.023613 -0.93399483
-3.5115829 7.1135616 -0.88423187
-3.5526547 7.1967626 -0.448295
-3.3753471 6.8375826 0
-4.7176991 9.5568419 0.59530717
-1.2844679 2.5980453 -0.95563412
-1.4899758 3.0137184 -0.92754465
-1.7489697 3.5375752 -0.87422442
-2.4817812 5.0198064 -0.93356562
-3.5147347 7.1091223 -0.88394386
-3.5408816 7.1620088 -0.44626331
-3.3863957 6.8495355 0
-4.7234721 9.5539904 0.59530717
-1.3139558 2.6496258 -0.97519016
-1.5092182 3.0433776 -0.93723357
-1.7656614 3.5605018 -0.88041669
-2.4878449 5.0168037 -0.93356562
-3.5279186 7.1141391 -0.88509703
-3.5356798 7.1297898 -0.44452164
-3.3912041 6.8384509 0
-0 0 0
-1.2995486 2.6126373 -0.96215385
-1.5117782 3.0393078 -0.93654209
-1.7563829 3.5310657 -0.87366205
-2.4927628 5.011498 -0.93313807
-3.5353613 7.1075573 -0.88480902
-3.5199914 7.0766578 -0.44147384
-3.4052587 6.8459969 0
-0 0 0
-1.3071183 2.6199117 -0.96541375
-1.4930494 2.9925811 -0.92269886
-1.7674522 3.5425782 -0.8770383
-2.4965265 5.0038924 -0.93228292
-3.5358627 7.0870771 -0.88279068
-3.5424602 7.1003008 -0.44321552
-3.4181757 6.851192 0
-0 0 0
-1.3202367 2.6382208 -0.97274762
-1.5146278 3.0266714 -0.93377346
-1.7694594 3.5358999 -0.87591362
-2.5048664 5.0054593 -0.93313807
-3.5455842 7.0851192 -0.88307983
-3.5835969 7.1610799 -0.44727942
-3.4194613 6.8330884 0
-0 0 0
-1.3012483 2.5924447 -0.95644832
-1.5047786 2.9979329 -0.92546749
-1.7748693 3.5360279 -0.87647593
-2.5097623 5.0001369 -0.93271047
-3.5518198 7.0762024 -0.88250268
-3.5840862 7.1404858 -0.44626331
-3.4300523 6.8336082 0
-0 0 0
-1.3099359 2.6019063 -0.96052235
-1.5106584 3.0005984 -0.92685312
-1.7768532 3.5293374 -0.8753491
-2.505414 4.9764667 -0.92885917
-3.5603676 7.0719056 -0.88250268
-3.6207547 7.1918516 -0.44974667
-3.439476 6.8317809 0
-0 0 0
-1.3307366 2.6273952 -0.97111613
-1.5315078 3.0237961 -0.93515909
-1.7876754 3.5295711 -0.87647593
-2.5255487 4.9864216 -0.93185371
-3.5774472 7.0632811 -0.88250268
-3.6451662 7.1969848 -0.45061722
-3.4442191 6.8002362 0
-0 0 0
-1.332792 2.6235838 -0.97030193
-1.5192506 2.9906251 -0.92546749
-1.7930886 3.5296714 -0.8770383
-2.5338995 4.9879479 -0.93271047
-3.5848088 7.0566492 -0.88221467
-3.6585672 7.2018418 -0.45119777
-3.4465363 6.784462 0
-0 0 0
-1.3191288 2.5889361 -0.95807672
-1.5137515 2.9709046 -0.91993022
-1.7938905 3.5207083 -0.8753491
-2.5399246 4.9848828 -0.93271047
-3.5921595 7.0500102 -0.88192666
-3.6778824 7.2182508 -0.45250389
-3.4641836 6.7988429 0
-0 0 0
-1.3346293 2.6115518 -0.96704209
-1.5298995 2.993649 -0.92754465
-1.7969881 3.5162778 -0.87478673
-2.5517859 4.9932375 -0.93484992
-3.5994952 7.043355 -0.88163751
-3.6806905 7.2022347 -0.45177832
-3.4830537 6.8155069 0
-0 0 0
-1.3220024 2.5791485 -0.95563412
-1.527795 2.9806376 -0.92408448
-1.7977618 3.5073268 -0.87309974
-2.5496197 4.9741569 -0.93185371
-3.6127222 7.0482073 -0.88279068
-3.6905744 7.2000923 -0.45192334
-3.4841661 6.7974019 0
-0 0 0
-1.3104281 2.5489755 -0.9450404
-1.5336872 2.9832473 -0.92546749
-1.8043196 3.5096674 -0.87422442
-2.5579777 4.9756432 -0.93271047
-3.6153243 7.0323377 -0.8813495
-3.7016499 7.200254 -0.45221388
-3.513793 6.8348441 0
-0 0 0
-1.3440872 2.6066968 -0.96704209
-1.5395925 2.9858558 -0.92685312
-1.8143804 3.5187743 -0.8770383
-2.5722244 4.9885221 -0.93570668
-3.6190772 7.0187688 -0.88019633
-3.7174902 7.2096286 -0.45308444
-3.5196657 6.8259721 0
-0 0 0
-1.3358843 2.5831211 -0.95889401
-1.5431992 2.9839933 -0.92685312
-1.8174647 3.5143244 -0.87647593
-2.5735333 4.9762897 -0.93399483
-3.6311212 7.0212851 -0.88106149
-3.7357481 7.2235961 -0.45424557
-4.8512597 9.3805952 0
-0 0 0
-1.3390046 2.5815051 -0.95889401
-1.5456496 2.9799018 -0.92616165
-1.8170301 3.5031037 -0.87422442
-2.5712693 4.9572229 -0.93099862
-3.6336489 7.0054145 -0.87962031
-3.748064 7.2259989 -0.45468113
-4.8518071 9.3539371 0
-0 0 0
-1.3364162 2.5689156 -0.95481682
-1.5527192 2.9847023 -0.92823613
-1.8153994 3.4896371 -0.87141055
-2.5784407 4.9563875 -0.93142617
-3.6349463 6.987247 -0.87788999
-3.7783759 7.2629538 -0.45729336
-4.9135447 9.4450226 0
-0 0 0
-1.3715322 2.6286545 -0.97763586
-1.5493637 2.9694829 -0.92408448
-1.8243161 3.4964519 -0.87366205
-2.5820551 4.9487209 -0.93057108
-3.6553533 7.0057855 -0.88077348
-3.7967651 7.2768126 -0.45845446
-4.8876371 9.3675585 0
-0 0 0
-1.3529373 2.5853937 -0.96215385
-1.5389922 2.9409349 -0.91577858
-1.833252 3.5032501 -0.87591362
-2.58565 4.9410443 -0.92971432
-3.6554201 6.9853196 -0.87875515
-3.8224194 7.3044472 -0.46048614
-4.9049845 9.3731728 0
-0 0 0
-1.3560604 2.5837572 -0.96215385
-1.5611987 2.9746158 -0.92685312
-1.8386632 3.5032802 -0.87647593
-2.5892348 4.9333744 -0.92885917
-3.6602507 6.9740248 -0.87788999
-3.8493571 7.3343372 -0.46266338
-4.9308195 9.3948917 0
-0 0 0
-1.3396111 2.5449378 -0.94830024
-1.5542759 2.9527493 -0.92062438
-1.8369784 3.489816 -0.87366205
-2.6047597 4.9484153 -0.93228292
-3.6638556 6.9604421 -0.87673682
-3.8582165 7.3296809 -0.46266338
-4.9373193 9.3797159 0
-0 0 0
-1.3657587 2.5870233 -0.96459639
-1.5636977 2.9619598 -0.92408448
-1.8411939 3.4875939 -0.87366205
-2.6023464 4.9293709 -0.92928678
-3.6734743 6.9583039 -0.87702596
-3.2532635 6.1623397 -0.38922644
-4.9377151 9.3530321 0
-0 0 0
-1.3580797 2.5687177 -0.95807672
-1.5525873 2.9366159 -0.91647005
-1.8421141 3.4842367 -0.87309974
-2.6041255 4.9255304 -0.92885917
-3.6752574 6.9515057 -0.87644881
-3.2654886 6.1764555 -0.39024255
-4.9482307 9.3592501 0
-0 0 0
-1.3623437 2.5692647 -0.95889401
-1.585515 2.9901471 -0.93377346
-1.8463228 3.4820082 -0.87309974
-2.6208971 4.94279 -0.93271047
-3.6836543 6.9470596 -0.87644881
-3.2729495 6.1725054 -0.39024255
-4.9631944 9.3601646 0
-0 0 0
-1.3608052 2.5588877 -0.95563412
-1.5667493 2.9461498 -0.92062438
-1.8517207 3.4820161 -0.87366205
-2.6220462 4.9305534 -0.93099862
-3.6762593 6.9129186 -0.87270129
-3.2718637 6.1524844 -0.38922644
-4.9635043 9.3334827 0
-0 0 0
-1.3685485 2.5659649 -0.95889401
-1.5679445 2.9398232 -0.91923869
-1.854732 3.4775362 -0.87309974
-2.6316273 4.9341788 -0.93228292
-3.6724398 6.885654 -0.86981893
-3.2902997 6.1691589 -0.39053255
-4.9906988 9.3573284 0
-5.4912128 10.295769 0.6517635
-1.3599881 2.5425112 -0.95074278
-1.5738645 2.9423549 -0.92062438
-1.8601298 3.477531 -0.87366205
-2.636373 4.9287252 -0.93185371
-3.3660269 6.29282 -0.79544336
-3.2879467 6.1468487 -0.38937142
-4.9884977 9.326046 0
-5.5244832 10.328075 0.65423077
-1.3735738 2.5604658 -0.95807672
-1.5750444 2.9360254 -0.91923869
-1.8607259 3.4685616 -0.87197286
-2.6399019 4.9210162 -0.93099862
-3.3736281 6.2887483 -0.79544336
-3.2941444 6.1405835 -0.38922644
-5.0083761 9.3360672 0
-4.7913847 8.9315758 0.56613594
-1.3719825 2.5500979 -0.95481682
-1.5774033 2.9319129 -0.91854721
-1.8601002 3.4573603 -0.86972135
-2.6421962 4.9110389 -0.92971432
-3.3787711 6.2801075 -0.7948662
-3.3015616 6.1365986 -0.38922644
-5.0048566 9.3025064 0
-4.8070979 8.9349327 0.56671655
-1.3774123 2.5527928 -0.95644832
-1.5785645 2.9255934 -0.91716421
-1.8678972 3.4618208 -0.87141055
-2.6481283 4.9078426 -0.92971432
-3.3765311 6.2578101 -0.79255986
-3.3052714 6.1257424 -0.38879088
-5.0148587 9.2941637 0
-4.8203559 8.9336872 0.56700653
-1.3863761 2.5619934 -0.96052235
-1.5809009 2.9214709 -0.91647005
-1.8708706 3.4573288 -0.87084818
-2.6491697 4.8956084 -0.92800242
-3.3865542 6.2582798 -0.79313701
-3.3126707 6.1217442 -0.38879088
-4.9975967 9.2354507 0
-5.8773007 10.861125 0.6897881
-1.3906486 2.5624866 -0.96133655
-1.5880209 2.9261758 -0.91854721
-1.8762575 3.4572966 -0.87141055
-2.6599808 4.9014287 -0.92971432
-3.3965788 6.2587252 -0.79371303
-3.3275039 6.1314445 -0.389662
-5.0124774 9.23627 0
-5.8916583 10.856297 0.68993312
-1.3878373 2.549952 -0.95726252
-1.5927535 2.9264562 -0.91923869
-1.8755751 3.4461 -0.86915898
-2.6536319 4.875668 -0.92543548
-3.4029036 6.252347 -0.79342502
-3.3311825 6.1205702 -0.38922644
-5.0211434 9.2256308 0
-5.9246464 10.885688 0.69225532
-1.3743415 2.5179048 -0.94585454
-1.5914806 2.9157212 -0.91647005
-1.88217 3.4482875 -0.87028366
-2.6582925 4.8702068 -0.92500788
-2.9606504 5.4241509 -0.68878013
-3.3385756 6.1165404 -0.38922644
-5.0198207 9.1967173 0
-5.9427748 10.887644 0.69283593
-1.3856914 2.5314207 -0.95156008
-1.599821 2.9225986 -0.91923869
-1.8814549 3.4370956 -0.86803216
-2.6629391 4.8647332 -0.92457873
-2.9721701 5.4296451 -0.6899333
-3.3609359 6.1398535 -0.39096811
-5.0196843 9.1701021 0
-5.9646611 10.896413 0.69385201
-1.3970715 2.5449045 -0.95726252
-1.6045574 2.9228604 -0.91993022
-1.8904976 3.4437289 -0.87028366
-2.6799369 4.8817711 -0.92843163
-2.9886861 5.4441881 -0.69223964
-3.3433437 6.0902324 -0.38806531
-5.016983 9.1389332 0
-5.9965758 10.923358 0.69602871
-1.4037226 2.5497119 -0.95970821
-1.6080879 2.9209197 -0.91993022
-1.8934331 3.4392185 -0.86972135
-2.6858337 4.8785291 -0.92843163
-2.9952621 5.4405732 -0.69223964
-3.3557129 6.095293 -0.38864586
-5.0280223 9.132864 0
-6.012279 10.920661 0.69631922
-1.3876884 2.5133944 -0.94666874
-1.6128322 2.9211769 -0.92062438
-1.8951334 3.4324837 -0.86859667
-2.6842794 4.8617921 -0.92586303
-2.999331 5.4324169 -0.69166255
-3.0139415 5.4588795 -0.34829906
-5.0352836 9.1199541 0
-6.0380273 10.936132 0.69777036
-1.3847393 2.5009065 -0.94259471
-1.6163607 2.9192259 -0.92062438
-1.8968155 3.4257412 -0.86746979
-2.6938837 4.8652849 -0.92714733
-2.998378 5.4152164 -0.6899333
-3.0041735 5.425684 -0.34641236
-5.0299125 9.0842667 0
-6.0587912 10.942472 0.69864148
-1.3949569 2.5121925 -0.94748294
-1.6174487 2.9128799 -0.91923869
-1.9046551 3.4301131 -0.86915898
-2.7022505 4.8665104 -0.92800242
-3.0036645 5.4093304 -0.68964529
-3.0094671 5.4197803 -0.34626737
-3.9695778 7.1488538 0
-6.087141 10.962396 0.70038259
-1.4040072 2.5213082 -0.95156008
-1.6099834 2.8911989 -0.91300994
-1.914978 3.4389067 -0.87197286
-2.6968896 4.8430591 -0.92415112
-3.0139749 5.4124784 -0.69051045
-3.0160136 5.4161401 -0.34626737
-3.9642842 7.1190386 0
-6.1016502 10.957309 0.70052814
-1.4094605 2.5239215 -0.95318848
-1.6354908 2.928674 -0.92546749
-1.9154142 3.4299328 -0.87028366
-2.7127526 4.8577271 -0.92757487
-3.0142035 5.3975353 -0.68906814
-3.0162225 5.4011507 -0.34554181
-4.0008011 7.1642361 0
-6.1326203 10.981686 0.70255983
-1.4257948 2.5459399 -0.96215385
-1.6267723 2.9048109 -0.91854721
-1.91087 3.4121039 -0.86634511
-2.7148559 4.847724 -0.92629057
-3.0270457 5.4051795 -0.69051045
-0 0 -0
-4.0310717 7.1979961 0
-6.1585789 10.996934 0.70401096
-1.4046644 2.5011151 -0.94585454
-1.6216805 2.8875291 -0.91370142
-1.9174775 3.4142191 -0.86746979
-2.7194557 4.8422041 -0.92586303
-3.0335748 5.4015179 -0.69051045
-0 0 -0
-4.1302385 7.3542132 0
-6.1718621 10.989485 0.70401096
-1.4122319 2.5110352 -0.94992858
-1.6172768 2.8756177 -0.91024125
-1.9170511 3.4086349 -0.86634511
-2.7223806 4.8405604 -0.92586303
-3.0495141 5.4222236 -0.69339281
-0 0 -0
-4.1793332 7.4311113 0
-6.182323 10.992551 0.70444649
-1.415265 2.5093269 -0.94992858
-1.6355397 2.8998835 -0.91854721
-1.9224154 3.4085271 -0.86690748
-2.7345316 4.8484449 -0.92800242
-3.057333 5.4207859 -0.69368082
-0 0 -0
-4.1742444 7.4011188 0
-6.2147493 11.019024 0.70662373
-1.4353287 2.5377297 -0.96133655
-1.6316342 2.8848073 -0.91439557
-1.9252828 3.4039922 -0.86634511
-2.7403882 4.8451371 -0.92800242
-3.0498776 5.3923292 -0.69051045
-0 0 -0
-4.1754994 7.3824825 0
-4.9220262 8.7023783 0.55844373
-1.4188884 2.5016041 -0.94830024
-1.6375918 2.8871939 -0.91577858
-1.9281373 3.399447 -0.86578059
-2.7411747 4.832891 -0.92629057
-3.6139994 6.3717446 -0.81648731
-3.032819 5.3470817 -0.3433646
-4.1946883 7.3955417 0
-6.2631521 11.042395 0.70909095
-1.4390156 2.5299611 -0.95970821
-1.6410792 2.8852131 -0.91577858
-1.9309884 3.3949082 -0.86521828
-2.7482851 4.8318129 -0.92671978
-3.6191359 6.3628726 -0.81591016
-3.043133 5.3501911 -0.34380013
-4.2512231 7.4741573 0
-6.2944736 11.066435 0.71112263
-1.4249297 2.4981678 -0.94830024
-1.6346203 2.8657944 -0.91024125
-1.9363469 3.3947773 -0.86578059
-2.7553921 4.8307166 -0.92714733
-3.6268215 6.3584948 -0.81591016
-3.0405824 5.3307085 -0.34278402
-4.2589626 7.4667563 0
-6.3168535 11.074623 0.71213877
-1.4132212 2.4706991 -0.93852067
-1.6492913 2.8834145 -0.91647005
-1.9391869 3.3902318 -0.86521828
-2.7548554 4.8162441 -0.92500788
-3.6409266 6.3653402 -0.81735247
-3.0392828 5.3135018 -0.34191346
-4.2563534 7.4412756 0
-6.3328085 11.071489 0.71242875
-1.4198912 2.4754152 -0.94096321
-1.64404 2.8661923 -0.91162694
-1.943282 3.387886 -0.86521828
-2.7593918 4.810679 -0.92457873
-3.6396055 6.3452287 -0.81533414
-3.0495808 5.3165894 -0.34234902
-4.2485094 7.4067822 0
-6.3616962 11.090878 0.7141704
-1.4413677 2.5058367 -0.95318848
-1.6600084 2.8859465 -0.91854721
-1.9461085 3.3833351 -0.86465591
-2.771606 4.8184733 -0.92671978
-3.6575868 6.3587627 -0.81764048
-3.0560026 5.3129005 -0.34234902
-4.2457786 7.3813419 0
-6.3828635 11.096692 0.71504098
-1.4221679 2.46556 -0.93852067
-1.6609896 2.8795965 -0.91716421
-1.9514635 3.3831801 -0.86521828
-2.7710092 4.8039966 -0.92457873
-3.6613894 6.3476152 -0.81677532
-3.0546277 5.2956948 -0.3414779
-4.2442918 7.3581715 0
-6.4053564 11.10473 0.71605712
-1.4511329 2.5087667 -0.95563412
-1.6506492 2.8536971 -0.90954977
-1.951737 3.3742275 -0.86353123
-2.7793851 4.8050933 -0.92543548
-3.6807106 6.3633347 -0.81936967
-3.0636287 5.2965031 -0.34176847
-4.2675095 7.3778119 0
-6.4369817 11.128468 0.71808875
-1.4504417 2.5005956 -0.95318848
-1.6679437 2.8755741 -0.91716421
-1.9558127 3.3718669 -0.86353123
-2.7851892 4.8017311 -0.92543548
-3.6883967 6.3588824 -0.81936967
-3.0608988 5.2770615 -0.34075236
-4.2555332 7.3366394 0
-6.4582486 11.134172 0.71895987
-1.4385498 2.4732034 -0.94340891
-1.6726772 2.8757231 -0.91785574
-1.9586042 3.3672986 -0.86296672
-2.7884052 4.79392 -0.92457873
-3.7025785 6.3655977 -0.82081085
-3.0803401 5.2958245 -0.34220403
-4.2604685 7.3247409 0
-6.4821491 11.144329 0.72012103
-1.44403 2.4757373 -0.9450404
-1.6736203 2.8693616 -0.91647005
-1.9588346 3.3583512 -0.86127967
-2.2471278 3.8526194 -0.74355799
-3.7089655 6.3588872 -0.82052284
-3.0867367 5.2920985 -0.34220403
-4.2680058 7.3173418 0
-6.5034628 11.149952 0.72099155
-1.4632413 2.5017238 -0.95563412
-1.6720197 2.858675 -0.91370142
-1.9616046 3.3537824 -0.86071515
-2.2543759 3.8543375 -0.74441475
-3.7179508 6.3566318 -0.82081085
-3.078697 5.2636905 -0.34060735
-4.2755265 7.3099265 0
-6.5392318 11.180214 0.72345877
-1.4500087 2.4722404 -0.9450404
-1.6780136 2.8609848 -0.91508704
-1.973371 3.3645642 -0.86409354
-0 0 -0
-2.2745256 3.8780279 -0.50111151
-2.2582116 3.8502126 -0.24931923
-2.250237 3.8366163 0
-6.554049 11.174543 0.72360379
-1.4517382 2.4683499 -0.94422305
-1.6700239 2.8394949 -0.9088583
-1.9800087 3.3665535 -0.86521828
-0 0 -0
-2.2687199 3.8574409 -0.49880514
-2.2734005 3.8653996 -0.25048032
-2.274663 3.8675458 0
-6.5873075 11.200215 0.72578102
-1.4459343 2.4516976 -0.93852067
-1.69384 2.8720417 -0.91993022
-1.978912 3.3554041 -0.86296672
-0 0 -0
-0 0 -0
-2.2952285 3.8917441 -0.25236702
-2.260823 3.8334067 0
-6.6034737 11.196719 0.726071
-1.47154 2.4882381 -0.95318848
-1.6985898 2.8721585 -0.92062438
-1.9829649 3.3530107 -0.86296672
-0 0 -0
-0 0 -0
-2.3025773 3.8934455 -0.25265756
-0 0 0
-6.6302276 11.211102 0.72752267
-1.4669836 2.473707 -0.94830024
-1.6841412 2.83989 -0.91093278
-1.9921992 3.359354 -0.86521828
-2.2697616 3.827395 -0.74184614
-0 0 -0
-0 0 -0
-0 0 0
-6.6490707 11.212023 0.72810328
-1.4901792 2.5059144 -0.96133655
-1.6939864 2.8486407 -0.91439557
-1.9884671 3.3438451 -0.86184204
-2.2809489 3.8356881 -0.7439872
-0 0 -0
-0 0 -0
-0 0 0
-6.6599545 11.19951 0.72781271
-1.4716877 2.4680257 -0.94748294
-1.6832923 2.8228872 -0.90678114
-1.9912059 3.3392596 -0.86127967
-2.2737505 3.8130877 -0.74013591
-2.2840376 3.8303394 -0.49707595
-0 0 -0
-0 0 0
-6.668159 11.182527 0.72723216
-1.4695951 2.4577603 -0.94422305
-1.703438 2.848841 -0.91577858
-1.9991475 3.3433874 -0.86296672
-2.3257778 3.8896461 -0.75554109
-2.2793713 3.8120353 -0.49505761
-2.3146968 3.8711138 -0.25193146
-0 0 0
-6.656333 11.132094 0.72447491
-1.4736215 2.4611173 -0.94585454
-1.7000037 2.8392015 -0.91300994
-1.9959459 3.3334589 -0.86071515
-2.3637295 3.9476998 -0.76709497
-2.2949636 3.8328528 -0.49794111
-2.3143678 3.8652601 -0.25164145
-0 0 0
-6.6537123 11.112464 0.72345877
-1.4727762 2.4529757 -0.94340891
-1.7111839 2.8500547 -0.91716421
-2.0025907 3.3354058 -0.86184204
-2.3909605 3.9822533 -0.77437001
-2.2969279 3.8256378 -0.49736395
-2.3150227 3.8557756 -0.25120589
-2.2801433 3.7976823 0
-6.6604481 11.093279 0.72273326
-1.4680927 2.4384937 -0.93852067
-1.7081528 2.8372324 -0.91370142
-2.0053101 3.3308089 -0.86127967
-2.4156325 4.0123525 -0.78078991
-3.2740343 5.4381528 -0.7075178
-3.1492507 5.2308884 -0.34104291
-5.1585193 8.5682716 0
-6.6470423 11.0407 0.71983045
-1.4893404 2.4603114 -0.94830024
-1.7020149 2.8116384 -0.90678114
-2.014668 3.3281248 -0.86184204
-2.427978 4.010891 -0.781645
-3.2898479 5.4346542 -0.70809489
-3.1618826 5.2232623 -0.34104291
-5.169775 8.5401936 0
-6.7046547 11.075733 0.72316879
-1.5000046 2.4711831 -0.95318848
-1.7054111 2.8095798 -0.90678114
-2.0173707 3.323518 -0.86127967
-2.4328225 4.0079541 -0.781645
-3.2950714 5.4284663 -0.70780689
-3.1681917 5.2194381 -0.34104291
-5.1746888 8.5250425 0
-6.6843262 11.012094 0.71954042
-1.487569 2.4440334 -0.94340891
-1.714022 2.8160892 -0.90954977
-2.0134561 3.3080509 -0.85790128
-2.4323301 3.9962487 -0.77993482
-3.2975926 5.4178505 -0.70694172
-3.1974614 5.2533379 -0.34351015
-5.175518 8.5032282 0
-6.6787109 10.972931 0.7175082
-1.4982491 2.4548965 -0.94830024
-1.7239569 2.8247213 -0.91300994
-2.0174518 3.3056157 -0.85790128
-2.438493 3.9954958 -0.78036237
-3.3162622 5.4337301 -0.70953608
-3.2620106 5.3448381 -0.34975073
-5.1817203 8.4903021 0
-6.700089 10.978166 0.71837932
-1.4792831 2.4172475 -0.93444663
-1.7208225 2.8119388 -0.90954977
-2.0254247 3.3096795 -0.85959047
-2.4379592 3.9837883 -0.77865046
-3.320128 5.4253111 -0.70896006
-3.2942331 5.382997 -0.35250795
-5.190618 8.4818172 0
-6.6943579 10.939028 0.7163471
