# .PCD v0.7 - Point Cloud Data file format
VERSION 0.7
FIELDS x y z
SIZE 4 4 4
TYPE F F F
COUNT 1 1 1
WIDTH 1842
HEIGHT 1
VIEWPOINT 0 0 0 1 0 0 0
POINTS 1842
DATA ascii
0 0 -0
0 0 -0
0 0 -0
0 0 -0
0 0 -0
13.151755 5.1337585 0
13.132942 5.1264148 0.78746182
2.7429166 1.0726014 -0.97111613
3.2945919 1.2883309 -0.97599465
0 0 -0
0 0 -0
0 0 -0
0 0 -0
13.163189 5.147388 0
13.134687 5.1362429 0.78775239
2.7554276 1.0813341 -0.97600752
0 0 -0
0 0 -0
0 0 -0
0 0 -0
0 0 -0
13.15696 5.1632895 0
13.152656 5.1616001 0.78920346
2.7311177 1.0756041 -0.96785629
0 0 -0
0 0 -0
0 0 -0
0 0 -0
0 0 -0
13.172512 5.1877689 0
13.16092 5.1832037 0.79007459
2.7665935 1.0934389 -0.9808957
0 0 -0
0 0 -0
0 0 -0
0 0 -0
0 0 -0
13.188014 5.2122898 0
13.166728 5.203877 0.79080015
2.7652702 1.0967809 -0.9808957
0 0 -0
0 0 -0
0 0 -0
0 0 -0
0 0 -0
13.20831 5.2387729 0
13.174918 5.2255287 0.79167074
2.7386806 1.0900663 -0.97193033
0 0 -0
0 0 -0
0 0 -0
0 0 -0
0 0 -0
13.216483 5.2605052 0
13.187909 5.2491317 0.79283184
2.7649047 1.1043762 -0.9817099
0 0 -0
0 0 -0
0 0 -0
0 0 -0
0 0 -0
13.227028 5.2832255 0
13.19845 5.271811 0.79384798
2.7222776 1.0911658 -0.96704209
3.1764631 1.2732161 -0.94415653
0 0 -0
0 0 -0
0 0 -0
0 0 -0
13.227884 5.3021097 0
13.206537 5.2935534 0.7947185
2.7668183 1.1129011 -0.9833414
0 0 -0
0 0 -0
0 0 -0
0 0 -0
0 0 -0
13.23595 5.3239145 0
13.221826 5.318233 0.79602462
2.7356787 1.1042179 -0.97274762
0 0 -0
0 0 -0
0 0 -0
0 0 -0
0 0 -0
13.248815 5.3476963 0
13.234667 5.3419862 0.79718572
2.7114296 1.098242 -0.96459639
0 0 -0
0 0 -0
0 0 -0
0 0 -0
0 0 -0
13.254411 5.3685889 0
13.240242 5.3628502 0.79791129
2.7284184 1.1089627 -0.97111613
0 0 -0
0 0 -0
0 0 -0
0 0 -0
0 0 -0
13.252731 5.3865585 0
13.245795 5.3837395 0.79863739
2.7110629 1.1057274 -0.96541375
3.2244558 1.3151186 -0.96076578
0 0 -0
0 0 -0
0 0 -0
0 0 -0
13.267899 5.4114127 0
13.258519 5.4075871 0.79979795
2.732595 1.1183624 -0.97356182
3.1857238 1.3038133 -0.9496938
0 0 -0
0 0 -0
0 0 -0
0 0 -0
13.287848 5.4382844 0
13.26641 5.4295106 0.80066907
2.7152352 1.1150899 -0.96785629
3.2119856 1.3190948 -0.95799708
0 0 -0
0 0 -0
0 0 -0
0 0 -0
13.290896 5.4582911 0
13.283872 5.4554062 0.80212021
2.741308 1.1296704 -0.97763586
3.1918418 1.3153316 -0.95246249
0 0 -0
0 0 -0
0 0 -0
0 0 -0
13.31557 5.487236 0
13.291689 5.4773951 0.80299133
2.7627771 1.1424247 -0.98578393
3.1925664 1.3201451 -0.95315397
0 0 -0
0 0 -0
0 0 -0
0 0 -0
13.313735 5.5053082 0
13.297065 5.498415 0.8037169
2.7431402 1.138188 -0.97926736
3.2257206 1.338421 -0.96353441
0 0 -0
0 0 -0
0 0 -0
0 0 -0
13.321501 5.5273776 0
13.307205 5.5214462 0.80473244
2.7303476 1.136749 -0.97519016
3.1569464 1.3143586 -0.94346505
0 0 -0
0 0 -0
0 0 -0
0 0 -0
13.346044 5.5564728 0
13.324516 5.5475106 0.80618411
2.754061 1.1505283 -0.9841556
3.2155387 1.3433139 -0.96145993
0 0 -0
0 0 -0
0 0 -0
0 0 -0
13.353724 5.5786119 0
13.327394 5.5676131 0.80676466
2.7139204 1.1376128 -0.97030193
3.1560724 1.3229529 -0.94415653
0 0 -0
0 0 -0
0 0 -0
0 0 -0
13.354176 5.5977626 0
13.330243 5.5877304 0.80734521
2.7193809 1.1437669 -0.97274762
3.2007136 1.3462147 -0.95799708
0 0 -0
0 0 -0
0 0 -0
0 0 -0
13.378586 5.6270103 0
13.342644 5.6118927 0.80850637
2.7339301 1.153776 -0.97845006
3.1736662 1.339354 -0.95038533
0 0 -0
0 0 -0
0 0 -0
0 0 -0
13.388563 5.6502557 0
13.350212 5.6340709 0.8093769
2.7036395 1.1429176 -0.96785629
3.1497531 1.3315046 -0.94346505
0 0 -0
0 0 -0
0 0 -0
0 0 -0
13.394736 5.6623969 0
13.380308 5.6562982 0.81140858
2.7068119 1.1481158 -0.96948779
3.2104945 1.3617568 -0.96215141
0 0 -0
0 0 -0
0 0 -0
0 0 -0
13.416626 5.6907687 0
13.392602 5.6805787 0.81256968
2.7167914 1.156224 -0.97356182
3.1996131 1.3617053 -0.95938277
0 0 -0
0 0 -0
0 0 -0
0 0 -0
13.412141 5.7079978 0
13.392903 5.6998105 0.81300527
2.6812944 1.1449456 -0.96133655
3.1956604 1.3645862 -0.95869124
0 0 -0
0 0 -0
0 0 -0
0 0 -0
13.429164 5.7344179 0
13.407511 5.725172 0.81431139
2.7185287 1.1647309 -0.97519016
3.1709445 1.3585646 -0.95176834
0 0 -0
0 0 -0
0 0 -0
0 0 -0
13.436574 5.7567878 0
13.424463 5.7515993 0.81576246
2.6966853 1.1592308 -0.96785629
3.2269192 1.3871638 -0.96907169
0 0 -0
0 0 -0
0 0 -0
0 0 -0
13.453523 5.783299 0
13.424668 5.7708955 0.81619805
2.7225168 1.1742346 -0.97763586
3.1999073 1.3801354 -0.96145993
0 0 -0
0 0 -0
0 0 -0
0 0 -0
13.472804 5.8108854 0
13.439157 5.7963729 0.81750417
2.7052155 1.1706513 -0.97193033
3.2028379 1.3859917 -0.96284288
0 0 -0
0 0 -0
0 0 -0
0 0 -0
13.477722 5.8323312 0
13.470299 5.8291187 0.81982636
2.7128675 1.1778564 -0.97519016
3.2264767 1.4008521 -0.97045738
0 0 -0
0 0 -0
0 0 -0
0 0 -0
13.487369 5.8558645 0
13.479933 5.8526359 0.8208425
2.7205062 1.1850818 -0.97845006
3.2040837 1.3957335 -0.96422857
0 0 -0
0 0 -0
0 0 -0
0 0 -0
13.49221 5.8773527 0
13.501438 5.881372 0.82258415
2.7009542 1.1804497 -0.97193033
3.1816988 1.3905588 -0.95799708
0 0 -0
0 0 -0
0 0 -0
0 0 -0
13.508951 5.9040756 0
13.522884 5.9101648 0.82432526
2.6927419 1.1807377 -0.96948779
3.1593401 1.385336 -0.95176834
0 0 -0
0 0 -0
0 0 -0
0 0 -0
13.525637 5.9308434 0
13.527638 5.9317207 0.82505143
2.6935732 1.1849848 -0.97030193
3.1760349 1.3972343 -0.95730561
0 0 -0
0 0 -0
0 0 -0
0 0 -0
13.520841 5.9482288 0
13.532351 5.9532928 0.82577699
2.6989253 1.1912336 -0.97274762
3.1674657 1.3980348 -0.95523113
0 0 -0
0 0 -0
0 0 -0
0 0 -0
13.535069 5.9740186 0
13.544166 5.9780335 0.82693809
2.7019994 1.1964934 -0.97437602
3.1703575 1.4038907 -0.95661414
0 0 -0
0 0 -0
0 0 -0
0 0 -0
13.554019 6.0019608 0
13.553557 6.0017562 0.82795364
2.6915166 1.1957434 -0.97111613
3.18012 1.4128122 -0.96007425
0 0 -0
0 0 -0
0 0 -0
0 0 -0
13.561031 6.0246758 0
13.567665 6.0276227 0.82925975
2.7013555 1.2040248 -0.97519016
3.1761215 1.4156334 -0.95938277
0 0 -0
0 0 -0
0 0 -0
0 0 -0
13.587016 6.0558877 0
13.579359 6.052475 0.83042085
2.7111866 1.2123356 -0.97926736
3.1721206 1.418447 -0.95869124
0 0 -0
0 0 -0
0 0 -0
0 0 -0
13.598696 6.0807996 0
13.586273 6.0752444 0.83129197
2.7119727 1.2166213 -0.98008156
3.1612484 1.4181714 -0.9559226
0 0 -0
0 0 -0
0 0 -0
0 0 -0
13.603209 6.1025515 0
13.597889 6.1001649 0.83245307
2.688688 1.2081274 -0.97193033
3.1581049 1.4190538 -0.95523113
0 0 -0
0 0 -0
0 0 -0
0 0 -0
13.616138 6.1182365 0
13.61553 6.1179633 0.83375919
2.7007501 1.2174717 -0.97682166
3.1632426 1.4259588 -0.95730561
0 0 -0
0 0 -0
0 0 -0
0 0 -0
13.620597 6.1400313 0
13.624703 6.1418824 0.83477479
2.6880193 1.2156428 -0.97274762
3.1546662 1.4266815 -0.95523113
0 0 -0
0 0 -0
0 0 -0
0 0 -0
13.643991 6.1704249 0
13.629117 6.1636977 0.8355009
2.7000487 1.2250149 -0.97763586
3.157505 1.4325633 -0.95661414
0 0 -0
0 0 -0
0 0 -0
0 0 -0
13.655486 6.1955085 0
13.645317 6.1908951 0.83695203
2.6783228 1.2190624 -0.97030193
3.144357 1.431182 -0.95315397
0 0 -0
0 0 -0
0 0 -0
0 0 -0
13.662197 6.2184706 0
13.659109 6.2170653 0.83825815
2.6813402 1.224349 -0.97193033
3.1608822 1.4433168 -0.95869124
0 0 -0
0 0 -0
0 0 -0
0 0 -0
13.678343 6.2457819 0
13.670497 6.2421994 0.83941925
2.6911006 1.2327377 -0.97600752
3.1545701 1.4450434 -0.95730561
0 0 -0
0 0 -0
0 0 -0
0 0 -0
13.694451 6.2731457 0
13.684204 6.2684512 0.84072536
2.6783736 1.2308252 -0.97193033
3.1550989 1.4499006 -0.95799708
0 0 -0
0 0 -0
0 0 -0
0 0 -0
13.677402 6.2853413 0
13.700235 6.2958336 0.84217703
2.6881137 1.2392374 -0.97600752
3.160182 1.4568639 -0.96007425
0 0 -0
0 0 -0
0 0 -0
0 0 -0
13.681613 6.3073101 0
13.704414 6.3178215 0.8429026
2.6843646 1.2414441 -0.97519016
3.1470363 1.4554169 -0.95661414
0 0 -0
0 0 -0
0 0 -0
0 0 -0
13.629108 6.3030839 0
13.734496 6.3518233 0.84522426
2.6992831 1.2562706 -0.9817099
3.1298673 1.4566684 -0.95246249
0 0 -0
0 0 -0
0 0 -0
0 0 -0
13.068822 6.0823474 0
13.912278 6.4748993 0.8571254
2.6686513 1.2459395 -0.97111613
3.1644676 1.4774262 -0.96353441
0 0 -0
0 0 -0
0 0 -0
0 0 -0
13.044953 6.090426 0
13.963304 6.5191851 0.86075377
2.7051923 1.2669833 -0.98496979
3.1354256 1.468484 -0.95523113
0 0 -0
0 0 -0
0 0 -0
0 0 -0
13.037585 6.106184 0
14.007181 6.5602965 0.86394656
2.6835287 1.260793 -0.97763586
3.1586196 1.4840034 -0.96284288
0 0 -0
0 0 -0
0 0 -0
0 0 -0
13.004294 6.1097627 0
14.01335 6.5838442 0.86481714
2.6685932 1.2577144 -0.97274762
3.1568241 1.4878188 -0.96284288
0 0 -0
0 0 -0
0 0 -0
0 0 -0
12.987486 6.1210332 0
12.954782 6.1056204 0.79994351
2.671536 1.2630488 -0.97437602
3.1459517 1.487343 -0.96007425
3.859391 1.8246428 -0.94570702
0 0 -0
0 0 -0
0 0 -0
12.890678 6.0944543 0
12.975585 6.1345963 0.80168521
2.6834114 1.2726325 -0.97926736
3.1418879 1.4900692 -0.95938277
0 0 -0
0 0 -0
0 0 -0
0 0 -0
12.843332 6.0910683 0
12.982245 6.156949 0.80255574
2.6863313 1.2779956 -0.9808957
3.1310232 1.4895533 -0.95661414
3.8113818 1.8132273 -0.93501383
0 0 -0
0 0 -0
0 0 -0
12.810109 6.0942831 0
12.972452 6.1715159 0.80241078
2.6490951 1.2642084 -0.96785629
3.1405396 1.498737 -0.96007425
3.8481696 1.8364341 -0.94458228
0 0 -0
0 0 -0
0 0 -0
12.826228 6.1209679 0
12.974366 6.1916628 0.80299133
2.6631732 1.2748798 -0.97356182
3.152308 1.5090322 -0.96422857
3.7886541 1.8136556 -0.9305107
0 0 -0
0 0 -0
11.675641 5.5892124 -0.72302991
12.800044 6.1274719 0
12.978591 6.212944 0.8037169
2.6549444 1.2748861 -0.97111613
3.1369088 1.5063221 -0.96007425
3.8253963 1.8369291 -0.94007921
0 0 -0
0 0 -0
11.748516 5.6415572 -0.7279644
12.811399 6.1519461 0
12.973415 6.2297449 0.80386186
2.6623092 1.2823836 -0.97437602
3.139611 1.5122908 -0.96145993
3.8277478 1.8437532 -0.94120389
0 0 -0
0 0 -0
11.676151 5.6241794 -0.72390103
12.829741 6.1798415 0
12.958853 6.2420325 0.80342633
2.6726623 1.2893604 -0.97845006
3.1364307 1.5130942 -0.96076578
3.8335011 1.8493786 -0.94289309
0 0 -0
0 0 -0
11.703174 5.6459088 -0.7257877
14.169046 6.8355093 0
14.146257 6.8245153 0.87729883
2.6800015 1.2968953 -0.9817099
3.1391211 1.5190705 -0.96215141
3.879292 1.877251 -0.95471317
0 0 -0
0 0 -0
11.661256 5.6430669 -0.72361046
14.170148 6.8571591 0
14.152031 6.8483925 0.87816936
2.6695385 1.2958153 -0.97845006
3.1666212 1.5371033 -0.97114885
3.8313043 1.8597457 -0.94345546
0 0 -0
7.1041698 3.4484208 -0.88019633
11.68248 5.6707692 -0.72535217
14.18292 6.8845034 0
14.155431 6.8711596 0.87889493
2.6657507 1.2979591 -0.97763586
3.1647615 1.5409284 -0.97114885
3.8336277 1.8666006 -0.94458228
4.8639278 2.3682556 -0.9018985
7.1325498 3.472852 -0.88423187
11.659264 5.6769176 -0.72433603
14.188626 6.9084692 0
14.163474 6.8962226 0.87991107
2.6597431 1.2990119 -0.97600752
3.1065426 1.5172278 -0.95384544
3.8450639 1.8779198 -0.94795853
4.8864384 2.3865244 -0.90660655
7.1725087 3.5030355 -0.88970971
11.671075 5.7001238 -0.72549719
14.159225 6.9153304 0
14.197154 6.9338551 0.8825233
2.653728 1.300048 -0.97437602
3.1677895 1.5518841 -0.97322601
3.8176901 1.870267 -0.94176626
4.842051 2.3720963 -0.8989023
7.0614295 3.4593587 -0.87644881
11.701514 5.7325125 -0.72781938
14.199935 6.9564767 0
24.672548 12.086957 1.5346013
2.6632445 1.3087026 -0.97845006
3.1231294 1.5346874 -0.96007425
3.8427927 1.8883258 -0.9485209
4.8506989 2.383605 -0.90104175
7.1199145 3.4986842 -0.88423187
11.659595 5.7294564 -0.72564214
14.242901 6.998878 0
24.676582 12.125928 1.5357624
2.6505785 1.3064572 -0.97437602
3.1707742 1.5628591 -0.97530049
3.8405082 1.8929677 -0.9485209
4.8501244 2.3906026 -0.90147096
7.1319237 3.5152903 -0.8862502
11.673647 5.7538834 -0.72694886
14.250776 7.024138 0
24.680559 12.164927 1.5369235
2.660074 1.3151349 -0.97845006
3.1419051 1.553351 -0.96699721
3.8564401 1.9066156 -0.95302397
4.8932471 2.4192109 -0.91002864
4.1530743 2.0532711 -0.51639068
11.680657 5.7748919 -0.72781938
14.24928 7.0448132 0
24.691458 12.207403 1.5385197
2.66734 1.3227403 -0.9817099
3.1445167 1.5593734 -0.96838021
3.8131633 1.8909568 -0.94289309
4.860425 2.4102964 -0.9044655
4.1992493 2.082418 -0.52244455
11.682982 5.7936192 -0.72839993
14.243087 7.0631809 0
24.709284 12.253393 1.5405519
2.6502554 1.3182603 -0.97600752
3.1426301 1.5631717 -0.96838021
3.8131485 1.8966933 -0.94345546
4.8575091 2.4161675 -0.9044655
4.1874671 2.0828826 -0.52129138
11.694586 5.8169894 -0.72956109
14.267159 7.0966101 0
24.710739 12.291338 1.5415674
2.6663537 1.330289 -0.9825272
3.1160433 1.5546467 -0.96076578
3.8245001 1.9081078 -0.94683385
4.8591847 2.4243295 -0.90532225
4.1780014 2.0844758 -0.52042621
11.692195 5.8334336 -0.72985107
14.286519 7.1277862 0
24.677269 12.311907 1.5404063
2.6426373 1.3224467 -0.97437602
3.1253867 1.5640275 -0.96422857
3.8290019 1.9161355 -0.9485209
4.8309975 2.4175611 -0.9006142
0 0 -0
11.694432 5.8522086 -0.73043162
14.331418 7.1718273 0
24.632168 12.326599 1.5385197
2.6344085 1.3223115 -0.97193033
3.1324632 1.5723045 -0.96699721
3.7926271 1.9036664 -0.94007921
4.8487191 2.4337597 -0.9044655
0 0 -0
11.708251 5.8768244 -0.73173773
14.355309 7.2054858 0
24.605646 12.350527 1.5377941
2.6460586 1.3321645 -0.97682166
3.1193507 1.5704443 -0.96353441
3.7971261 1.9116721 -0.94176626
4.8572459 2.4453919 -0.90660655
0 0 -0
11.698823 5.8898001 -0.73159271
14.358213 7.2286763 0
24.56982 12.369734 1.5364881
2.6797473 1.3531862 -0.98986113
3.1376035 1.5843889 -0.96976322
3.7857409 1.9116775 -0.9395147
4.8336573 2.4408417 -0.90275359
0 0 -0
11.684737 5.9004164 -0.73115718
14.356441 7.2495408 0
24.527021 12.385357 1.5347464
2.6362147 1.3352038 -0.97437602
3.1401672 1.5904483 -0.97114885
3.8196962 1.9346194 -0.9485209
4.8467374 2.4548006 -0.9057498
0 0 -0
11.689197 5.9204049 -0.73188329
14.384809 7.2856922 0
24.488861 12.403246 1.5332953
2.6698565 1.3562989 -0.98741543
3.1046906 1.5771964 -0.96076578
3.7879083 1.9242741 -0.94120389
4.850636 2.4641445 -0.9070341
0 0 -0
11.670444 5.9286366 -0.73115718
14.396874 7.3136754 0
24.459953 12.425763 1.5324241
3.0983162 1.578671 -0.95938277
3.7923744 1.9323113 -0.94289309
4.7973394 2.4443665 -0.89761966
4.11413 2.0962541 -0.51466042
11.665594 5.9439168 -0.73130274
14.413536 7.3440638 0
24.414825 12.439975 1.5305375
2.6291587 1.3436273 -0.97356182
3.107574 1.5881207 -0.96284288
3.7968268 1.9403622 -0.94458228
4.6526628 2.3777359 -0.87108648
0 0 -0
4.1782446 2.1352851 -0.26209095
14.418552 7.368578 0
24.378954 12.458825 1.5292313
2.6231301 1.3445462 -0.97193033
3.1257439 1.6021725 -0.96907169
3.7831671 1.9391501 -0.94176626
4.3482561 2.2287996 -0.81459808
0 0 -0
4.1872215 2.1462574 -0.26281649
14.430489 7.3966818 0
24.350012 12.481164 1.5283607
2.6223173 1.3461307 -0.97193033
3.1069202 1.594895 -0.96353441
3.7910366 1.9460769 -0.94401783
4.3446188 2.2302506 -0.81416887
4.0824747 2.0956824 -0.51148999
4.1789865 2.1452258 -0.26238093
14.442217 7.4137149 0
24.328592 12.48875 1.5274897
2.6756229 1.377582 -0.99230367
3.1295285 1.6112815 -0.97114885
3.7864256 1.9494942 -0.94345546
4.2962828 2.2120013 -0.80561119
4.0845342 2.1029794 -0.51206607
4.1763916 2.1502736 -0.26238093
14.447136 7.4383101 0
24.299627 12.511003 1.5266191
2.6278408 1.357 -0.97519016
3.1008301 1.6012486 -0.96284288
3.7998731 1.9622298 -0.94739622
4.2822046 2.2113028 -0.80347174
4.0705013 2.1019807 -0.51062483
0 0 -0
14.442759 7.458147 0
24.245245 12.520088 1.5241519
2.6174204 1.3556275 -0.97193033
3.0966673 1.6038415 -0.96215141
3.7929823 1.9644805 -0.94626933
4.2795296 2.2164755 -0.80347174
4.0771456 2.1116557 -0.511778
0 0 -0
14.449915 7.4839725 0
24.213945 12.541009 1.5231358
2.6552649 1.3792996 -0.98660123
3.0947273 1.6075821 -0.96215141
3.7815866 1.9643769 -0.94401783
4.2791243 2.222827 -0.80389935
4.063117 2.1106203 -0.51033682
0 0 -0
14.445476 7.5038238 0
24.17572 12.558281 1.5216846
2.6338706 1.3722301 -0.97926736
3.1172502 1.6240678 -0.96976322
3.790484 1.9748183 -0.94683385
4.2673287 2.2232513 -0.80218744
4.0536799 2.1119418 -0.50947171
4.1383057 2.1560311 -0.26063982
4.2053814 2.1909773 0
24.132875 12.573076 1.519943
2.6563008 1.3879994 -0.98822963
3.0930545 1.6162168 -0.96284288
3.7835867 1.9770412 -0.94570702
4.2600842 2.2260261 -0.80133069
4.037375 2.1096535 -0.50774246
4.1172733 2.151403 -0.25947872
4.1842785 2.186415 0
24.108454 12.597414 1.5193624
2.6174076 1.3717052 -0.97437602
3.1110964 1.6304327 -0.96907169
3.7901974 1.9863293 -0.94795853
4.2573915 2.2311718 -0.80133069
4.0348229 2.1145303 -0.50774246
4.1123629 2.1551666 -0.25933316
0 0 0
24.074802 12.616885 1.5182012
2.6441875 1.3898149 -0.98496979
3.0913584 1.6248529 -0.96353441
3.7787979 1.9861789 -0.94570702
4.2546926 2.2363145 -0.80133069
4.0459976 2.1266222 -0.50947171
4.1120625 2.1613464 -0.25947872
0 0 0
24.036543 12.633879 1.5167502
2.6359534 1.3895544 -0.9825272
3.0827413 1.6250807 -0.96145993
3.7831404 1.9942992 -0.94739622
4.2542648 2.2426543 -0.8017599
4.0365586 2.1278899 -0.50860655
4.1071424 2.1650982 -0.25933316
0 0 0
24.000574 12.652009 1.515444
2.6211581 1.3858049 -0.97763586
3.0696797 1.622938 -0.95799708
3.7829721 2.0000553 -0.94795853
4.2515516 2.2477932 -0.8017599
4.0271316 2.1291423 -0.50774246
4.09304 2.1639879 -0.2586076
0 0 0
23.966892 12.671284 1.5142829
2.6369507 1.3982339 -0.9841556
3.0965369 1.6419278 -0.96699721
3.7670879 1.9974853 -0.94458228
4.2510986 2.2541301 -0.80218744
4.0291219 2.1364279 -0.50831854
4.1110811 2.1798863 -0.25991371
0 0 0
23.930904 12.689279 1.5129768
2.6243503 1.3956177 -0.98008156
3.0812562 1.6385983 -0.96284288
3.7691541 2.0044193 -0.94570702
4.2551732 2.2628822 -0.80347174
4.0196843 2.1376503 -0.50745338
4.1038599 2.1824145 -0.25962371
0 0 0
23.885733 12.702326 1.5110902
2.6139388 1.3941352 -0.97682166
3.0969827 1.6517651 -0.96838021
3.7712176 2.0113659 -0.94683385
0 0 -0
4.0170984 2.1425056 -0.50745338
4.0759978 2.1739194 -0.25802705
4.1243067 2.1996849 0
23.863487 12.727509 1.5106546
2.6253245 1.404285 -0.9817099
3.083926 1.6495907 -0.96492004
3.7642992 2.0135221 -0.94570702
4.2406383 2.2683156 -0.8017599
4.0099497 2.1449203 -0.5068773
4.06879 2.176394 -0.25773704
4.1078725 2.1972992 0
23.822884 12.74285 1.5090579
2.6432257 1.4179707 -0.98904383
3.0863478 1.6556854 -0.96630305
3.7596266 2.0168691 -0.94514465
0 0 -0
4.0096321 2.1509857 -0.50716537
4.0684447 2.1825359 -0.25788203
4.1029234 2.2010322 0
23.786863 12.760572 1.5077518
2.6175742 1.4082855 -0.98008156
3.0998123 1.6677351 -0.97114885
3.7639019 2.025023 -0.94683385
0 0 -0
4.0024791 2.1533804 -0.50658929
4.0612326 2.1849904 -0.25759202
4.1002607 2.2059882 0
23.755417 12.780691 1.5067363
2.6506734 1.4302257 -0.99312097
3.0646746 1.6536087 -0.96076578
3.7659202 2.0319803 -0.94795853
4.2414246 2.2885485 -0.80347174
3.9884863 2.1520705 -0.50514704
0 0 -0
4.0930161 2.2084715 0
23.735378 12.806915 1.5064456
2.6598101 1.4393078 -0.99719501
3.0737128 1.6632838 -0.96422857
3.7634623 2.0365293 -0.94795853
4.2409115 2.2948923 -0.80389935
3.9836104 2.1556585 -0.50485903
0 0 -0
4.0788937 2.2072191 0
23.681038 12.814564 1.5039785
2.6472094 1.4366273 -0.99312097
3.0827236 1.6729786 -0.96768868
3.754297 2.0374382 -0.94626933
4.2426438 2.3024614 -0.80475444
3.9787316 2.1592376 -0.50457096
4.0304427 2.1873012 -0.25614035
4.0808029 2.2146311 0
23.590174 12.802269 1.499189
2.6237583 1.4280072 -0.98496979
3.0696843 1.670707 -0.96422857
3.7585297 2.0456181 -0.94795853
4.2556438 2.3161776 -0.80775064
3.9715805 2.1615732 -0.50399494
4.025517 2.1909285 -0.25599536
4.064404 2.2120934 0
23.51992 12.800956 1.4957062
2.6437299 1.4430203 -0.99312097
3.0764718 1.6792227 -0.96699721
3.7627482 2.0538113 -0.94964772
4.2596045 2.3250089 -0.80903494
3.9712338 2.1676085 -0.50428295
4.0297112 2.199527 -0.25643092
4.0708656 2.2219903 0
23.385834 12.764629 1.4881589
2.6168325 1.4303917 -0.9833414
3.0666511 1.6762679 -0.96422857
3.7548161 2.0524268 -0.94795853
4.2762103 2.3374271 -0.81245703
3.9631128 2.1662843 -0.50341785
4.0192614 2.1969759 -0.25585034
4.0581069 2.2182093 0
4.1445527 2.2654617 0.26382592
2.6085982 1.4299872 -0.9808957
3.0580218 1.6763531 -0.96215141
3.7567852 2.0594027 -0.94908321
4.2711339 2.3413596 -0.81202948
3.9582264 2.1698294 -0.50312978
4.0097661 2.1980824 -0.25541481
4.0577035 2.2243607 0
4.1281457 2.2629759 0.26295537
2.6090324 1.4343276 -0.9817099
3.0581903 1.6812543 -0.96284288
3.7520697 2.0627177 -0.9485209
4.2772999 2.3514655 -0.81374133
3.9601305 2.1771002 -0.50370586
4.0071073 2.2029257 -0.25541481
4.0458903 2.224247 0
4.1436157 2.277972 0.26411593
2.6267753 1.4482179 -0.98904383
3.0627496 1.6885833 -0.96492004
3.7584751 2.0721569 -0.9507724
4.2789559 2.3591135 -0.81459808
3.9574971 2.1818836 -0.50370586
4.0044422 2.2077661 -0.25541481
4.0340838 2.224108 0
4.1317582 2.2779589 0.26353535
2.6033976 1.4394337 -0.9808957
3.0694892 1.6971384 -0.96768868
3.753747 2.0754685 -0.95021009
4.2693605 2.3605542 -0.81331378
3.9480736 2.1829128 -0.50284177
3.9926758 2.2075737 -0.25483423
4.0268426 2.2264647 0
4.1108193 2.2728961 0.26237482
2.6189487 1.4521667 -0.98741543
3.0608521 1.6971952 -0.96561158
3.7534564 2.0812337 -0.9507724
4.2687483 2.366955 -0.81374133
3.9431646 2.186424 -0.50255269
3.9922757 2.2136552 -0.25497925
4.0241494 2.2313287 0
4.0944304 2.2702987 0.2615037
2.6323152 1.4637394 -0.99312097
3.0916898 1.7191819 -0.97599465
3.7509389 2.0857675 -0.9507724
4.2636437 2.3708649 -0.81331378
3.9360032 2.1886754 -0.50197661
3.9805143 2.2134264 -0.25439867
4.0100799 2.2298667 0
4.0621643 2.2588291 0.259617
2.6413357 1.4729366 -0.99719501
3.065506 1.7094746 -0.96838021
3.750633 2.0915346 -0.95133477
4.2495675 2.3697648 -0.81117433
3.9288335 2.1909077 -0.50139952
3.9755695 2.21697 -0.25425369
4.0164747 2.2397807 0
0 0 0
2.6011231 1.458764 -0.9833414
3.0701184 1.7217864 -0.97114885
3.7500043 2.1030805 -0.9524616
4.2147236 2.3637047 -0.80561119
3.9235275 2.2003958 -0.50139952
3.9702003 2.2265711 -0.25425369
4.006506 2.246932 0
4.0471482 2.2697248 0.25918147
2.6381311 1.483712 -0.9980092
3.0658512 1.7242662 -0.97045738
3.7452478 2.1063657 -0.95189929
4.2230496 2.3750863 -0.80775064
3.9073436 2.19753 -0.4996703
3.9629817 2.2288215 -0.25396368
3.987916 2.2428448 0
0 0 0
2.6062014 1.4699023 -0.98660123
3.0768726 1.7353617 -0.97460896
3.747122 2.1133835 -0.95302397
4.2380648 2.390276 -0.81117433
3.9024348 2.2009804 -0.49938229
3.9512327 2.2285023 -0.25338313
3.9852033 2.2476618 0
4.032598 2.2743926 0.25860089
2.5786073 1.4584489 -0.97682166
3.0507591 1.7254958 -0.96699721
3.7489932 2.1204138 -0.9541508
4.2619863 2.4105606 -0.81630999
3.8952656 2.203145 -0.49880514
3.9394901 2.228158 -0.25280258
3.9756863 2.2486305 0
4.0321155 2.2805464 0.25874645
2.6241362 1.4883877 -0.99474937
3.0770383 1.74527 -0.97599465
3.7552688 2.1299565 -0.95640236
4.2635322 2.4182391 -0.81716508
3.9015999 2.2129543 -0.49995831
3.9322701 2.2303503 -0.25251201
3.9797597 2.2572858 0
4.0203161 2.2802889 0.2581659
2.6137421 1.4866694 -0.99148947
3.048759 1.7341025 -0.96768868
3.7372301 2.1256976 -0.9524616
4.2025957 2.3903928 -0.80603874
3.8944309 2.2151117 -0.49938229
3.9182813 2.2286777 -0.25178644
3.9702408 2.2582316 0
4.0175576 2.285145 0.2581659
2.633409 1.50207 -0.9996376
3.0466614 1.737785 -0.96768868
3.7390687 2.1327271 -0.95358628
4.0413923 2.3051693 -0.77565432
3.8805201 2.2134097 -0.49794111
3.9155855 2.2334106 -0.25178644
3.9652507 2.261739 0
4.0080199 2.2861342 0.25773033
2.5972733 1.4856207 -0.98660123
3.059797 1.7501808 -0.97253186
3.7364891 2.1372435 -0.95358628
3.9383411 2.2527015 -0.75639784
3.8778429 2.218097 -0.49794111
3.9151373 2.239429 -0.25193146
3.9602494 2.2652328 0
3.998486 2.2871039 0.25729477
2.6276295 1.507201 -0.9988234
3.0707414 1.7613686 -0.97668612
3.7383163 2.1442878 -0.95471317
3.9155691 2.2459595 -0.75254488
3.8729098 2.2214901 -0.49765196
3.9034126 2.2389865 -0.25135091
3.9507434 2.2661355 0
4.0002317 2.2945218 0.25758535
2.5786765 1.4832654 -0.9808957
3.0599122 1.7600741 -0.97391748
3.7291129 2.1450012 -0.95302397
3.8972824 2.2417331 -0.74955034
3.8791909 2.2313268 -0.49880514
3.9052136 2.2462952 -0.25164145
3.9457486 2.2696111 0
3.9839377 2.2915776 0.25671422
2.5683184 1.4814404 -0.97763586
3.0534327 1.7612607 -0.97253186
3.7375212 2.1558521 -0.95583785
3.8923407 2.2451541 -0.74912119
3.8630533 2.2282608 -0.49707595
3.9002478 2.2497151 -0.25149646
3.9407425 2.273073 0
3.985672 2.2989888 0.2570048
2.5922003 1.4993929 -0.98741543
3.0556498 1.7674637 -0.97391748
3.7349136 2.1603668 -0.95583785
3.8696282 2.2382889 -0.74526989
3.8581214 2.2316332 -0.49678794
3.8975267 2.2544262 -0.25149646
3.9357424 2.2765312 0
3.9828911 2.303803 0.2570048
2.6096263 1.5136838 -0.99474937
3.057848 1.7736696 -0.97530049
3.7345047 2.1661565 -0.95640236
3.8735845 2.2468283 -0.7465542
3.8509431 2.2336953 -0.49621078
3.9037907 2.264349 -0.25207701
3.9284909 2.278676 0
3.9756048 2.306004 0.25671422
2.6035266 1.5143529 -0.99312097
3.0730515 1.7874541 -0.98083776
3.7274876 2.1681099 -0.95527548
3.8664331 2.2489283 -0.74569905
3.8460076 2.2370477 -0.49592277
3.8875706 2.2612228 -0.25120589
3.921231 2.2808015 0
3.9705715 2.3095007 0.25656924
2.5705733 1.4972646 -0.9808957
3.0437911 1.7728966 -0.97184032
3.7371531 2.1767545 -0.95808935
0 0 -0
3.8312411 2.2315574 -0.49419245
3.892942 2.2674959 -0.25164145
3.9176056 2.2818615 0
3.9714189 2.3132057 0.25671422
2.5879681 1.5115874 -0.98822963
3.0373182 1.774045 -0.97045738
3.7301362 2.1787081 -0.95696467
3.8645654 2.2572258 -0.74612659
3.8352444 2.2400999 -0.49505761
3.8901994 2.2721982 -0.25164145
3.9126005 2.2852824 0
3.9618959 2.314075 0.25627923
2.5946708 1.5197099 -0.99148947
3.0351725 1.7777138 -0.97045738
3.7340722 2.1870623 -0.95865172
3.859622 2.2605975 -0.74569905
3.8258371 2.2408094 -0.49419245
3.8896911 2.278209 -0.25178644
3.9030972 2.286061 0
3.9568484 2.3175433 0.25613368
2.605624 1.5303568 -0.99638087
3.0373445 1.7839185 -0.97184032
3.733624 2.1928632 -0.95921624
3.8524566 2.2626569 -0.74484229
3.8208988 2.244122 -0.49390444
3.8802116 2.2789581 -0.25135091
3.9025741 2.2920923 0
3.9562922 2.3236425 0.25627923
2.5696979 1.5134354 -0.9833414
3.0373464 1.7888591 -0.97253186
3.7309716 2.1973729 -0.95921624
3.8519294 2.2686117 -0.74526989
3.820411 2.2500486 -0.49419245
3.868499 2.2783704 -0.25077033
0 0 0
3.9534817 2.3284211 0.25627923
2.5827582 1.5253336 -0.98904383
3.0287085 1.7887043 -0.97045738
3.7239339 2.1992927 -0.95808935
3.840344 2.2680426 -0.74355799
3.8154645 2.2533491 -0.49390444
3.8769367 2.2896535 -0.25149646
3.874619 2.2882848 0
3.9484215 2.3318713 0.25613368
3.0589182 1.8115344 -0.98083776
3.7256505 2.2063828 -0.95921624
3.8353941 2.2713745 -0.74313045
3.8105154 2.2566409 -0.49361643
3.8652241 2.2890401 -0.25091588
3.8696141 2.29164 0
3.9344242 2.3300214 0.25540811
3.0545721 1.8139495 -0.98014629
3.7186081 2.2082856 -0.95808935
3.8260229 2.2720735 -0.74184614
3.7966685 2.2546415 -0.49217525
3.8669195 2.2963598 -0.25120589
3.8713133 2.2989693 0
3.9316058 2.3347738 0.25540811
2.5814633 1.5372174 -0.99067533
3.039449 1.80994 -0.97599465
3.7159371 2.2127771 -0.95808935
3.8254869 2.278012 -0.7422753
3.7894926 2.2565782 -0.4915981
3.8418202 2.2877386 -0.24975479
3.8685327 2.3036451 0
3.9265516 2.3381944 0.25526312
2.5774841 1.5390695 -0.98986113
3.0437155 1.8174661 -0.97806913
3.721987 2.2224762 -0.96034092
3.8095031 2.2747338 -0.7397067
3.7801075 2.2571812 -0.49073407
3.8524349 2.3003693 -0.25062534
3.8501029 2.2989769 0
3.9281809 2.3455989 0.2555531
2.5925868 1.5523404 -0.99638087
3.0350661 1.8172798 -0.97599465
3.7192988 2.2269719 -0.96034092
3.802351 2.2767003 -0.73885161
3.7818115 2.2644019 -0.49131009
3.8385079 2.2983496 -0.24989977
3.8406303 2.2996204 0
3.8963642 2.3329918 0.25366643
2.5864673 1.552925 -0.99474937
3.0178099 1.8119049 -0.97114885
3.7187817 2.2327709 -0.96090329
3.801796 2.282613 -0.73927915
3.7768571 2.2676396 -0.49102208
3.8268168 2.2976358 -0.24931923
3.8490028 2.3109562 0
3.8935425 2.337698 0.25366643
2.5888278 1.5586011 -0.99638087
3.0328128 1.8259019 -0.97668612
3.7139063 2.2359536 -0.96034092
3.8034379 2.289856 -0.74013591
3.7763281 2.2735345 -0.49131009
3.8329425 2.3076191 -0.24989977
3.8328257 2.3075488 0
3.8795865 2.335701 0.25294086
2.5573156 1.5438423 -0.98496979
3.0155683 1.8204877 -0.97184032
3.7177298 2.2443802 -0.96203011
3.7896736 2.2878125 -0.73799485
3.7602968 2.2700779 -0.4895809
3.8279288 2.3109071 -0.24975479
3.8367207 2.3162146 0
3.8767614 2.3403871 0.25294086
3.0283916 1.8332256 -0.97668612
3.7106636 2.2462366 -0.96090329
3.7803247 2.2884057 -0.73671216
3.744271 2.2665806 -0.48785058
3.8095715 2.3061099 -0.24873866
3.8205655 2.3127651 0
3.8694892 2.342381 0.25265089
2.5641396 1.5564291 -0.98904383
3.0154533 1.8303759 -0.97322601
3.7079468 2.2507186 -0.96090329
3.7753561 2.291636 -0.73628294
3.7437384 2.272444 -0.48813859
3.8178864 2.3174517 -0.24946423
3.8288896 2.3241305 0
3.8733134 2.3510959 0.25308588
3.0325246 1.8457562 -0.97945476
3.6965427 2.249913 -0.95865172
3.7747834 2.2975345 -0.73671216
3.7343681 2.2729356 -0.48727456
3.8195269 2.3247678 -0.24975479
3.8127358 2.3206341 0
3.9015489 2.3746908 0.2551181
3.026005 1.8468026 -0.97806913
3.70033 2.2583501 -0.96034092
3.7632399 2.2967446 -0.73500031
3.7294133 2.2760999 -0.48698655
3.8122749 2.3266714 -0.24946423
3.8054903 2.3225305 0
3.8676205 2.3604493 0.25308588
2.5816727 1.5799063 -0.9980092
3.0109363 1.842603 -0.97391748
3.7019374 2.2654748 -0.96146774
3.7626493 2.3026288 -0.73542786
3.7310684 2.2833023 -0.48756257
3.8072464 2.329921 -0.24931923
3.8026812 2.327127 0
0 0 0
2.5755525 1.5804418 -0.99638087
3.0343671 1.8619851 -0.98222345
3.705688 2.2739291 -0.96315479
3.7576785 2.3058321 -0.73500031
3.7194886 2.2823977 -0.4864094
3.7955697 2.3290834 -0.24873866
3.7998664 2.3317201 0
0 0 0
2.5546896 1.5718919 -0.98904383
3.0299804 1.8643367 -0.98153192
3.7072699 2.2810707 -0.96428168
3.7439516 2.3036408 -0.73285925
3.7167282 2.2868903 -0.4864094
3.7905416 2.3323076 -0.24859366
3.7881801 2.3308544 0
0 0 0
3.0309873 1.8674817 -0.98222345
3.7015605 2.2806418 -0.96315479
3.7469344 2.308598 -0.73371601
3.7109458 2.2864244 -0.48583338
3.7957706 2.3386877 -0.24902922
3.7934206 2.3372395 0
0 0 0
3.0329931 1.8737774 -0.9836064
3.7052891 2.2891204 -0.96484399
3.7463238 2.3144717 -0.73414356
3.7037754 2.2881854 -0.48525622
3.7796743 2.3350754 -0.24815811
3.7817373 2.3363502 0
4.4073591 2.722858 0.28936934
2.5730441 1.5939205 -0.9980092
3.0541887 1.8919747 -0.99122089
3.7046785 2.2949326 -0.96540636
3.7369757 2.3149397 -0.73285925
3.7098031 2.2981071 -0.4864094
3.7724364 2.3369067 -0.24786811
3.7767015 2.3395486 0
4.4327803 2.7459691 0.29125604
2.566921 1.5944226 -0.99638087
3.0156736 1.8731616 -0.97945476
3.7040675 2.3007519 -0.96597087
3.7407198 2.3235183 -0.73414356
3.6916416 2.2930336 -0.48439106
3.7740202 2.3442025 -0.24815811
3.7672374 2.3399894 0
4.4581518 2.7691455 0.29314271
3.0410898 1.8940448 -0.9884522
3.6904945 2.2985055 -0.96315479
3.7291934 2.322608 -0.73243165
3.6932633 2.30023 -0.48496822
3.7778039 2.3528836 -0.24859366
3.7710366 2.3486686 0
0 0 0
3.0175238 1.8844317 -0.98153192
3.6877146 2.3029633 -0.96315479
3.717675 2.3216734 -0.7307198
3.6838975 2.3005795 -0.48410305
3.7529228 2.3436854 -0.24714255
3.7637768 2.3504639 0
0 0 0
3.0067394 1.8827506 -0.97876328
3.6935432 2.3128114 -0.96540636
3.7192225 2.328891 -0.73157656
3.6811152 2.3050292 -0.48410305
3.7566886 2.3523514 -0.24757755
3.7609341 2.3550098 0
0 0 0
2.5654585 1.6107494 -0.9988234
3.0150838 1.8930511 -0.98222345
3.6821384 2.3118682 -0.96315479
3.7098815 2.3292871 -0.73029226
3.6717536 2.3053479 -0.48323789
3.7516451 2.3555086 -0.24743254
3.7558837 2.35817 0
0 0 0
2.5572417 1.6099015 -0.99638087
3.010673 1.8953576 -0.98153192
3.6793423 2.3163157 -0.96315479
3.7135837 2.3378723 -0.73157656
3.6711605 2.3111649 -0.48352703
3.7356064 2.3517365 -0.24656199
3.7530317 2.3627064 0
0 0 0
3.0020144 1.8949753 -0.97945476
3.6872902 2.3275452 -0.96597087
3.7085874 2.3409886 -0.73114902
3.6661718 2.3142145 -0.48323789
3.723973 2.3507006 -0.24598144
3.7479753 2.3658519 0
0 0 0
2.5282822 1.6002147 -0.98660123
3.0018401 1.8999417 -0.98014629
3.68662 2.3333564 -0.96653318
3.7014136 2.3427198 -0.73029226
3.6611893 2.3172607 -0.48294988
3.7101538 2.3482516 -0.24525587
3.7451141 2.3703787 0
0 0 0
2.5492961 1.6178325 -0.99556351
3.0228448 1.9183557 -0.98776072
3.6923792 2.343255 -0.96878475
3.692076 2.3430626 -0.72900796
3.6562049 2.3202982 -0.48266187
3.6941459 2.3443763 -0.24438477
3.7400434 2.3735037 0
0 0 0
2.5473394 1.6209117 -0.99556351
3.0247538 1.9246979 -0.98914373
3.6873953 2.3463469 -0.96822023
3.6935778 2.350281 -0.72986472
3.6468501 2.3205473 -0.48179671
3.6978893 2.3530245 -0.24482031
3.7371728 2.378021 0
0 0 0
2.5245466 1.6106972 -0.98741543
3.0055063 1.9175562 -0.9836064
3.6759975 2.3453393 -0.96597087
3.6864028 2.3519781 -0.72900796
3.6440434 2.3249521 -0.48179671
3.6862812 2.3519003 -0.24423976
3.7321048 2.3811367 0
0 0 0
3.0243244 1.9347084 -0.99052936
3.6859994 2.3579922 -0.96934706
3.6835582 2.3564305 -0.72900796
3.6412315 2.3293536 -0.48179671
3.6812499 2.354954 -0.24409476
3.7248445 2.3828421 0
0 0 0
2.5435336 1.6314732 -0.99638087
3.01142 1.9315848 -0.98706657
3.6852841 2.3638148 -0.96990943
3.6828752 2.3622696 -0.72943711
3.6340644 2.3309615 -0.48122069
3.6784017 2.3594003 -0.24409476
3.7219627 2.3873413 0
0 0 0
2.5290835 1.6265211 -0.99148947
3.0027597 1.931155 -0.98499209
3.6802902 2.3668931 -0.96934706
3.6756959 2.3639381 -0.72858036
3.6334186 2.3367486 -0.4815087
3.6755481 2.3638432 -0.24409476
3.7146933 2.3890185 0
0 0 0
3.0067432 1.9388566 -0.98706657
3.6646192 2.3630788 -0.96597087
3.679311 2.3725526 -0.72986472
3.6218975 2.3355303 -0.48035553
3.6617639 2.3612378 -0.24336864
3.7118039 2.3935053 0
0 0 0
2.54175 1.6433638 -0.9980092
3.0001888 1.9397666 -0.98568356
3.6724279 2.3744016 -0.96878475
3.6721261 2.3742065 -0.72900796
3.6190727 2.339905 -0.48035553
3.6632767 2.3684847 -0.2436592
3.6979837 2.3909247 0
0 0 0
2.9999459 1.9447538 -0.98637509
3.6802146 2.3857467 -0.97159863
3.6627986 2.3744566 -0.72772527
3.6162429 2.3442762 -0.48035553
3.6582336 2.3714974 -0.2435142
3.7038271 2.4010539 0
18.451265 11.961271 1.228228
2.5149736 1.6346835 -0.98904383
2.9996953 1.949743 -0.98706657
3.6688075 2.3846529 -0.96934706
3.6642275 2.381676 -0.72858036
3.6068995 2.344414 -0.47949037
3.6466508 2.3702514 -0.24293365
3.6965635 2.4026937 0
4.3066568 2.7992425 0.28690213
2.5357764 1.6525667 -0.9980092
2.9973373 1.9533662 -0.98706657
3.670177 2.3918562 -0.97047174
3.6527443 2.3804953 -0.72686851
3.6040642 2.3487704 -0.47949037
3.6503088 2.3789082 -0.24336864
3.6936574 2.4071584 0
4.2880306 2.7945118 0.28588602
2.5389132 1.6567972 -0.9996376
2.9982636 1.9565517 -0.98776072
3.6687312 2.394073 -0.97047174
3.6534534 2.3841033 -0.72729605
3.6004806 2.3495352 -0.47920236
3.646697 2.3796945 -0.24322364
3.6900167 2.4079633 0
4.2754631 2.7900031 0.28516045
3.0042946 1.9656674 -0.99052936
3.6594632 2.3943348 -0.96878475
3.6505699 2.3885159 -0.72729605
3.5976388 2.353884 -0.47920236
3.6351213 2.3784082 -0.24264309
3.6827531 2.4095731 0
4.267736 2.7923191 0.28486988
3.0144994 1.97755 -0.994681
3.6693106 2.4071145 -0.97216094
3.6433926 2.3901119 -0.72644097
3.5883021 2.3539717 -0.4783372
3.6387649 2.3870761 -0.24307865
3.677665 2.412595 0
4.2404656 2.7817996 0.28327379
2.9911516 1.9674072 -0.98776072
3.6642785 2.4101515 -0.97159863
3.6447871 2.397331 -0.72729605
3.5832963 2.3568859 -0.47804919
3.6271942 2.3857594 -0.24249808
3.6725667 2.4156027 0
4.2544689 2.7983446 0.28443488
3.005527 1.9820694 -0.99329799
3.6571174 2.4117768 -0.97047174
3.6354649 2.3974977 -0.72601342
3.582603 2.3626366 -0.4783372
3.6243088 2.3901405 -0.24249808
3.6674745 2.4186072 0
4.2337308 2.7920389 0.28327379
2.9801083 1.9704775 -0.98568356
3.6626785 2.4217997 -0.97272331
3.6347046 2.4033031 -0.72644097
3.5689602 2.359832 -0.47689602
3.6192527 2.3930862 -0.24235308
3.660212 2.4201689 0
4.2325196 2.7985842 0.28341877
2.5248091 1.6782122 -0.9996376
2.9920523 1.9887835 -0.99122089
3.6525869 2.4278333 -0.97159863
3.6267502 2.41066 -0.72601342
3.563247 2.3684502 -0.47689602
3.6091268 2.398946 -0.24206252
3.656518 2.4304464 0
4.2084322 2.7972972 0.28225765
2.9938185 1.9951773 -0.99260384
3.6581082 2.4378815 -0.97385013
3.6259689 2.4164627 -0.72644097
3.5517733 2.3670163 -0.47574285
3.6019051 2.4004259 -0.24177253
3.6449161 2.4290898 0
4.205049 2.8023803 0.28225765
2.9872375 1.9960083 -0.99122089
3.6572707 2.4437101 -0.9744125
3.6209142 2.4194174 -0.72601342
3.5553644 2.3756185 -0.47660801
3.5925183 2.400444 -0.24133697
3.6398165 2.4320476 0
4.1908593 2.8002427 0.28153211
2.9973252 2.0079916 -0.99537253
3.6479802 2.4438834 -0.97272331
3.6243801 2.4280729 -0.72729605
3.5396023 2.371278 -0.47487882
3.5939372 2.4076784 -0.24162753
3.6368752 2.4364438 0
4.1831508 2.8024092 0.28124154
2.9948969 2.0116117 -0.99537253
3.6387029 2.4440434 -0.97103626
3.6235807 2.4338861 -0.72772527
3.549613 2.3842034 -0.47660801
3.5867071 2.4091187 -0.24133697
3.6296036 2.4379315 0
4.1883898 2.813257 0.28182209
2.9799826 2.0068238 -0.99122089
3.6378527 2.4498563 -0.97159863
3.6248915 2.4411278 -0.72858036
3.5338616 2.3798249 -0.47487882
3.5773256 2.409095 -0.24090141
3.6266551 2.4423153 0
4.1699066 2.8081598 0.28080654
2.9858723 2.0160384 -0.99398953
3.6390975 2.4570911 -0.97272331
3.6219394 2.4455059 -0.72858036
3.5309834 2.3840933 -0.47487882
3.5765717 2.4148741 -0.24104697
3.6215465 2.4452407 0
4.1794276 2.8219178 0.2816771
2.9834342 2.0196447 -0.99398953
3.6466525 2.4686124 -0.97553933
3.6083548 2.4426868 -0.72644097
3.5323799 2.3912551 -0.47545484
3.5714931 2.417733 -0.24090141
3.6121218 2.4452367 0
4.1717153 2.8240552 0.28138709
2.9726884 2.0176127 -0.99122089
3.6478677 2.475868 -0.97666407
3.6054008 2.4470448 -0.72644097
3.5316257 2.3969727 -0.47574285
3.5685692 2.4220467 -0.24090141
3.6091647 2.4495995 0
4.1661439 2.8276305 0.28124154
2.9785447 2.0268486 -0.99398953
3.6364708 2.474556 -0.9744125
3.6130507 2.4586191 -0.72858036
3.5244544 2.3983307 -0.47516683
3.5549009 2.419049 -0.24017586
3.6019032 2.4510334 0
4.1541309 2.8268149 0.28066099
2.9595144 2.019135 -0.9884522
3.6376801 2.4818149 -0.97553933
3.6015952 2.457196 -0.72686851
3.5258231 2.4055002 -0.47574285
3.5562725 2.4262745 -0.24046642
3.5967913 2.4539185 0
4.1464238 2.8289063 0.28037098
2.481885 1.6976696 -0.99148947
2.9881268 2.0439515 -0.99883264
3.6283851 2.4819036 -0.97385013
3.6092155 2.4687912 -0.72900796
3.5186484 2.406841 -0.47516683
3.5490446 2.4276328 -0.24017586
3.5981154 2.4611983 0
4.1344237 2.8280463 0.27979043
2.9711781 2.0376322 -0.99398953
3.6316719 2.4905984 -0.97553933
3.6443408 2.4992869 -0.73671216
3.5157375 2.4110909 -0.47516683
3.543968 2.4304512 -0.24003085
3.5929947 2.4640737 0
4.1352854 2.8359764 0.28008044
2.4981375 1.717663 -0.9996376
2.9707792 2.0426409 -0.994681
3.6349349 2.4992995 -0.97722638
3.6561193 2.5138655 -0.7397067
3.5128217 2.4153371 -0.47516683
3.5431676 2.4362023 -0.24017586
3.5900147 2.4684134 0
4.1340027 2.8424473 0.28022599
2.972436 2.0490742 -0.99606401
3.6277325 2.5008082 -0.9761017
3.6657643 2.5270259 -0.7422753
3.5077732 2.4181132 -0.47487882
3.538084 2.4390085 -0.24003085
3.5784588 2.466841 0
4.1220078 2.8415413 0.27964541
2.9794562 2.0565701 -0.99883264
3.6345854 2.5087731 -0.97835326
3.6600077 2.5263209 -0.7414186
3.5063117 2.4202321 -0.47487882
3.5301924 2.4367158 -0.23959529
3.5833952 2.4734392 0
4.1117363 2.8381267 0.27906486
2.9645953 2.0516057 -0.994681
3.6294639 2.5117185 -0.97779089
3.6506257 2.5263631 -0.74013591
3.5076342 2.427408 -0.47545484
3.5293884 2.4424627 -0.23974085
3.5718439 2.4718432 0
4.1040263 2.8401327 0.27877432
2.9579957 2.0523288 -0.99329799
3.6305976 2.5189962 -0.97891557
3.6433482 2.5278428 -0.73927915
3.5068216 2.4331174 -0.47574285
3.517895 2.4408004 -0.2391603
3.56671 2.4746695 0
4.1027327 2.846575 0.27891988
2.4786179 1.7241653 -0.99556351
2.9616861 2.0601952 -0.99537253
3.6233835 2.5204821 -0.97779089
3.6613607 2.5468996 -0.74355799
3.5060086 2.4388342 -0.47603199
3.5149431 2.4450493 -0.2391603
3.5594485 2.4760079 0
4.0864873 2.8426244 0.27804875
2.9591947 2.0637722 -0.99537253
3.6224174 2.5263104 -0.97835326
3.6982887 2.5792239 -0.75168979
3.5094175 2.4475033 -0.47689602
3.5162446 2.4522645 -0.23945029
3.5564542 2.4803071 0
4.0787911 2.8445902 0.27775875
2.9587529 2.0687826 -0.99606401
3.6276917 2.5365098 -0.98060477
3.7477627 2.6204641 -0.76238853
3.5022223 2.4487805 -0.47632
3.5026336 2.4490681 -0.23872474
3.5491848 2.481617 0
4.0796061 2.8524916 0.27804875
2.9541986 2.0709174 -0.99537253
3.6183805 2.5365143 -0.97891557
3.7593019 2.6353014 -0.76538306
3.5077326 2.4589491 -0.47747317
3.4996717 2.4532986 -0.23872474
3.5461836 2.4859037 0
4.0719051 2.8544385 0.27775875
2.9599044 2.0802557 -0.99814117
3.6194665 2.5438037 -0.98004025
3.7666221 2.6472263 -0.76752418
3.4984086 2.4587226 -0.47660801
3.4988286 2.459018 -0.23886974
3.538923 2.4871967 0
4.0812044 2.8683186 0.2786293
2.9512343 2.0794942 -0.99606401
3.6226234 2.5525672 -0.98172945
3.7487295 2.6414239 -0.76452798
3.4933228 2.4614596 -0.47632
3.4937329 2.4617486 -0.23872474
3.5295308 2.4869726 0
4.0671172 2.8657658 0.27790377
2.9466724 2.0816126 -0.99537253
3.6091621 2.549614 -0.97891557
3.7413456 2.642992 -0.76367289
3.4966855 2.4701574 -0.47718516
3.4865072 2.4629669 -0.23843418
3.5286467 2.4927356 0
4.0530419 2.8631833 0.2771782
3.6081502 2.5554402 -0.97947794
3.746521 2.65344 -0.76538306
3.4958072 2.4758739 -0.47747317
3.4771731 2.4626768 -0.23799919
3.5213888 2.4939921 0
4.0453343 2.8650718 0.27688763
2.4658701 1.7509085 -0.99719501
2.9436769 2.0901785 -0.99606401
3.6092074 2.5627429 -0.98060477
3.7726192 2.6787748 -0.77137548
3.4717197 2.4651189 -0.47458968
3.4826696 2.472894 -0.23857974
3.5226126 2.5012558 0
4.0333948 2.8639402 0.27630708
2.4657645 1.7553186 -0.9980092
2.9431989 2.0951929 -0.99675816
3.614388 2.5729964 -0.98285633
3.7735584 2.686306 -0.77223057
3.4624233 2.4648163 -0.47372565
3.4754412 2.4740834 -0.23828918
3.5195875 2.5055101 0
4.0257015 2.8658006 0.27601707
3.6112764 2.5773618 -0.98285633
3.789113 2.7042835 -0.77608186
3.4531245 2.464489 -0.47286049
3.4724493 2.478281 -0.23828918
3.5080924 2.5037196 0
4.0222359 2.8706629 0.27601707
2.9360809 2.1008353 -0.99606401
3.610224 2.5832005 -0.98341864
3.8025444 2.7208102 -0.77950561
3.4354179 2.4581227 -0.47084215
3.4631107 2.4779375 -0.23785362
3.5050647 2.5079565 0
4.0314398 2.8845904 0.27688763
3.6050375 2.5860813 -0.98285633
3.8055136 2.7298932 -0.78078991
3.4198394 2.453229 -0.46911296
3.460114 2.48212 -0.23785362
3.4999108 2.5106685 0
4.0237327 2.8864331 0.27659765
3.5998411 2.5889475 -0.98229182
3.8063765 2.7374842 -0.781645
3.4063754 2.44981 -0.46767178
3.4550047 2.4847834 -0.23770863
3.4926531 2.5118597 0
4.0202417 2.8912928 0.27659765
2.938627 2.1188049 -0.9995268
3.6028955 2.597755 -0.98398101
3.7989054 2.7390816 -0.78078991
3.3992128 2.4508958 -0.46709463
3.4477885 2.48592 -0.23741862
3.4917245 2.5175986 0
4.0146399 2.8946302 0.27645263
2.4569762 1.7760419 -0.9996376
2.9340255 2.1208801 -0.99883264
3.5956395 2.5991321 -0.98285633
3.7664707 2.7226188 -0.77479917
3.3962488 2.4550014 -0.46709463
3.4447823 2.4900842 -0.23741862
3.4865727 2.5202925 0
4.015347 2.9025207 0.27674264
2.4508297 1.7761114 -0.9980092
3.6027813 2.6109285 -0.98567021
3.6717188 2.6608872 -0.75596863
3.39328 2.4591033 -0.46709463
3.4396689 2.4927213 -0.23727362
3.4814196 2.5229778 0
4.0034208 2.9012711 0.27616209
3.6016777 2.6167719 -0.98623252
3.4919825 2.5370739 -0.71959347
3.3882158 2.4616828 -0.46680662
3.430346 2.4922922 -0.23683806
3.4720502 2.5225921 0
4.0041203 2.909164 0.27645263
3.5918772 2.6129684 -0.98398101
3.4530871 2.5120034 -0.71189088
3.3867278 2.4637294 -0.46680662
3.424633 2.4913042 -0.2365475
3.4642098 2.5200949 0
4.0023623 2.9115825 0.27645263
3.5887172 2.6173067 -0.98398101
3.4272325 2.4995334 -0.70718282
3.3858361 2.4693425 -0.46709463
3.4279206 2.500035 -0.23698306
3.469573 2.5304129 0
3.9463577 2.8781395 0.27282429
3.5937567 2.6276398 -0.98623252
3.4200695 2.5006454 -0.70632774
3.3744984 2.4673252 -0.46594146
3.4186025 2.4995728 -0.2365475
3.4644141 2.5330689 0
3.4961138 2.5562465 0.24191083
3.590579 2.6319802 -0.98623252
3.4087636 2.4987054 -0.70461583
3.3777747 2.4759898 -0.46680662
3.4197752 2.506777 -0.23683806
3.459254 2.5357158 0
3.4699757 2.543575 0.24031472
2.4409618 1.7938217 -0.9988234
3.5771606 2.6287949 -0.98341864
3.4036756 2.5013037 -0.70418829
3.368526 2.4754729 -0.46594146
0 0 -0
3.447799 2.5337293 0
3.4647999 2.5462229 0.24016917
3.5903471 2.6451724 -0.98792171
3.3985779 2.5038874 -0.70375907
3.3717813 2.4841452 -0.46680662
3.3886034 2.4965386 -0.2350964
3.4468284 2.5394356 0
3.4638188 2.5519533 0.24031472
3.5748813 2.6404483 -0.98454332
3.3976209 2.5095217 -0.70418829
3.3646204 2.4851472 -0.4662306
3.379312 2.4959986 -0.23466083
3.4416659 2.5420539 0
3.4607327 2.5561368 0.24031472
3.5778162 2.6493034 -0.98623252
3.3863339 2.5075147 -0.70247644
3.3574538 2.4861295 -0.46565345
3.3825603 2.5047204 -0.2350964
3.4344049 2.5431101 0
0 0 0
3.5746124 2.6536248 -0.98623252
3.3791752 2.5085413 -0.70161968
3.3565221 2.4917247 -0.46594146
3.3753545 2.5057051 -0.23480584
3.4313295 2.5472581 0
0 0 0
3.5734398 2.6594574 -0.98679489
3.3761418 2.5126226 -0.70161968
3.3514359 2.4942358 -0.46565345
3.3785801 2.5144372 -0.23524138
3.4240775 2.5482979 0
0 0 0
3.5743008 2.6668153 -0.98792171
3.3710477 2.5151665 -0.70119214
3.3525698 2.50138 -0.4662306
3.3797088 2.5216286 -0.23553196
3.4063928 2.5415378 0
0 0 0
3.5731084 2.6726525 -0.98848408
3.3680062 2.519238 -0.70119214
3.3391831 2.4976785 -0.46478829
3.3662496 2.5179238 -0.23480584
3.4012372 2.5440946 0
0 0 0
3.5719073 2.6784909 -0.98904639
3.3608561 2.5202284 -0.70033699
3.3340955 2.5001612 -0.46450028
3.354897 2.5157599 -0.23422584
3.4002409 2.5497622 0
0 0 0
3.5625811 2.6782289 -0.9873594
3.3619084 2.5273697 -0.70119214
3.3310721 2.5041881 -0.46450028
3.3456218 2.515126 -0.23379028
3.3888366 2.5476134 0
3.4369059 2.5837505 0.24016917
3.5613697 2.6840594 -0.98792171
3.3527 2.5267935 -0.69990778
3.3239167 2.5051007 -0.46392426
3.3508809 2.5254226 -0.23437083
3.3836794 2.5501416 0
3.4337814 2.5879014 0.24016917
3.5682585 2.6960177 -0.99073559
3.3435056 2.5262046 -0.69862515
3.3188176 2.5075514 -0.46363512
3.339534 2.5232038 -0.23379028
3.3805957 2.5542281 0
3.4223592 2.5857828 0.2395886
3.5609434 2.6972561 -0.98960876
3.3424952 2.5317912 -0.69905269
3.317853 2.5131259 -0.46392426
3.3426988 2.5319455 -0.23422584
3.3775067 2.558311 0
3.4233789 2.5930572 0.23987916
3.55566 2.7000217 -0.98904639
3.3373911 2.5342772 -0.69862515
3.3148141 2.517133 -0.46392426
3.3313591 2.5296969 -0.23364528
3.3661225 2.5560946 0
3.4161003 2.5940456 0.2395886
3.5523951 2.7043161 -0.98904639
3.3363671 2.5398614 -0.69905269
3.3117702 2.5211365 -0.46392426
3.3324313 2.5368652 -0.23393528
3.3651004 2.5617349 0
3.4129634 2.5981715 0.2395886
3.5531685 2.7116923 -0.99017328
3.3394198 2.5485647 -0.70033699
3.3087213 2.5251362 -0.46392426
3.3252361 2.53774 -0.23364528
3.3599358 2.5642219 0
3.4118931 2.6038744 0.23973416
3.5579612 2.7221596 -0.99242479
3.3424485 2.5572729 -0.70161968
3.2995033 2.524416 -0.4630591
3.3200977 2.5401726 -0.23349972
3.3671675 2.5761852 0
3.4004896 2.6016796 0.23915361
3.5425689 2.7171752 -0.98904639
3.3475037 2.567559 -0.70333153
3.2902915 2.5236771 -0.46219394
3.3087788 2.5378568 -0.23291916
3.351666 2.5707517 0
3.3952835 2.6042066 0.23900861
3.5530217 2.7286038 -0.99242479
3.3703833 2.5883436 -0.70846713
3.2867169 2.5240905 -0.46190593
3.3134294 2.5446048 -0.23335472
3.3521745 2.5743597 0
3.3916428 2.60467 0.23886305
3.547703 2.7313404 -0.99186033
3.3997986 2.6174703 -0.71531463
3.2795696 2.5249074 -0.46132991
3.3082955 2.5470231 -0.23320971
3.3387525 2.5704715 0
3.3884931 2.6087663 0.23886305
3.5464175 2.7371821 -0.99242479
3.4189816 2.6388249 -0.72002101
3.2908435 2.5399261 -0.46334711
3.2990425 2.5462542 -0.23277415
3.3377025 2.5760925 0
3.3853385 2.6128588 0.23886305
3.545115 2.7430186 -0.99298716
3.4360971 2.6586666 -0.72430152
3.2836847 2.5407379 -0.46277109
3.3021307 2.5550103 -0.23320971
3.3345873 2.5801237 0
3.3821788 2.6169474 0.23886305
3.5397923 2.7457445 -0.99242479
3.4754763 2.6958559 -0.73328841
3.2744792 2.5399463 -0.46190593
3.2949307 2.5558102 -0.23291916
3.3314674 2.584151 0
3.3728607 2.6162589 0.23842804
3.5331466 2.7542906 -0.99242479
3.4993141 2.7279162 -0.7397067
3.2662935 2.5462635 -0.46161792
3.2866974 2.5621693 -0.23277415
3.3231623 2.5905957 0
3.3624258 2.6212039 0.23813748
3.5338163 2.7616839 -0.99354953
4.5174136 3.5303671 -0.9558199
3.2652507 2.5517993 -0.46190593
3.2917886 2.5725389 -0.23335472
3.317981 2.5930083 0
3.359256 2.6252649 0.23813748
3.532475 2.7675173 -0.99411184
4.5192008 3.5405679 -0.9571026
