# .PCD v0.7 - Point Cloud Data file format
VERSION 0.7
FIELDS x y z
SIZE 4 4 4
TYPE F F F
COUNT 1 1 1
WIDTH 1543
HEIGHT 1
VIEWPOINT 0 0 0 1 0 0 0
POINTS 1543
DATA ascii
-3.2206376 4.3936319 -0.60719752
-4.0659461 5.5468121 -0.38414696
-3.9249978 5.3545289 0
-8.608202 11.743412 0.81329525
-1.6211225 2.2059596 -0.90266216
-1.8660611 2.5392623 -0.86940575
-2.1729054 2.956804 -0.81287265
-2.597069 3.5339894 -0.73114902
-3.2305403 4.3959923 -0.60806268
-4.0788002 5.5502706 -0.38472751
-3.9314647 5.3497825 0
-8.6177731 11.726727 0.81286025
-1.6325858 2.2159421 -0.90755355
-1.8587157 2.5228729 -0.86456257
-2.1825049 2.962359 -0.81512421
-2.5998104 3.5287759 -0.7307198
-3.2404537 4.3983345 -0.60892785
-4.0870433 5.5474281 -0.38487253
-3.9194021 5.3198848 0
-8.6273108 11.710027 0.81242472
-1.6249816 2.2000494 -0.90184802
-1.8692138 2.5307133 -0.86802274
-2.190613 2.965853 -0.81681341
-2.6040723 3.5256321 -0.7307198
-3.2473011 4.3964944 -0.60921586
-4.1045513 5.5571184 -0.38588864
-3.9057281 5.2879333 0
-8.6584377 11.722588 0.81402135
-1.6364666 2.210006 -0.90673935
-1.8782421 2.5365176 -0.87079138
-2.1851199 2.950948 -0.81343502
-2.6068041 3.520422 -0.73029226
-3.2541487 4.3946438 -0.60950387
-4.1143527 5.5563273 -0.38617864
-3.8966303 5.2622991 0
-8.6354837 11.661999 0.81053799
-1.6391357 2.2080271 -0.90673935
-1.8738245 2.5241685 -0.86732858
-2.1902027 2.9503517 -0.81399953
-2.6064641 3.5110841 -0.72900796
-3.2625427 4.3948665 -0.61008102
-4.1210637 5.551352 -0.38617864
-3.9060855 5.2617621 0
-8.6526632 11.655725 0.81082803
-1.6314718 2.1921635 -0.90103382
-1.8708875 2.51386 -0.86456257
-2.1892135 2.941586 -0.81231034
-2.615304 3.514112 -0.73029226
-3.2647593 4.3867674 -0.60950387
-4.1308742 5.5505414 -0.38646919
-3.9077835 5.2507811 0
-8.6248589 11.588984 0.80690968
-1.6296839 2.1842458 -0.89858812
-1.8919208 2.5357189 -0.87286586
-2.1927664 2.9389386 -0.81231034
-2.6134079 3.5027194 -0.72858036
-3.2700574 4.3828192 -0.60950387
-4.1500087 5.5622072 -0.38763031
-3.9499156 5.2940249 0
-8.5922422 11.51608 0.80255574
-1.6367645 2.1882145 -0.90103382
-1.8934822 2.531424 -0.87217438
-2.1978364 2.9383197 -0.81287265
-2.6176383 3.4995592 -0.72858036
-3.2738032 4.3767953 -0.60921586
-4.1738424 5.580071 -0.38922644
-3.9719007 5.3100924 0
-8.5843639 11.476562 0.80052412
-1.6425325 2.1931622 -0.90347952
-1.8829801 2.5142155 -0.86663705
-2.1965678 2.9329276 -0.81174797
-2.6212895 3.5000298 -0.72900796
-3.2795448 4.3789535 -0.60979193
-4.2395186 5.6607413 -0.39503202
-4.0078626 5.3514261 0
-8.557025 11.425614 0.79733074
-1.6540825 2.2030311 -0.90836769
-1.8830069 2.5079298 -0.8652541
-2.2031584 2.9343314 -0.81287265
-2.6286023 3.5009694 -0.72986472
-3.283282 4.372921 -0.60950387
-4.2151523 5.6140561 -0.39212921
-4.0221429 5.3569918 0
-8.5723886 11.41735 0.79747629
-1.6493127 2.1911592 -0.90429366
-1.8935781 2.5156727 -0.86871421
-2.2067022 2.9316671 -0.81287265
-2.62974 3.4936848 -0.72900796
-3.2870095 4.3668861 -0.60921586
-4.1969299 5.5757418 -0.38980699
-4.0286131 5.3521276 0
-8.5674267 11.382071 0.79573464
-1.6713117 2.2148106 -0.91488743
-1.9056804 2.5253944 -0.87286586
-2.2133069 2.933059 -0.81399953
-2.6339595 3.4905047 -0.72900796
-3.2891648 4.358778 -0.60863876
-4.1974034 5.5623698 -0.38922644
-4.0397754 5.3534822 0
-8.5764761 11.365486 0.79529905
-1.6560928 2.1891363 -0.90510786
-1.8890555 2.4970822 -0.86386842
-2.2091861 2.9202526 -0.81118566
-2.6366279 3.4852743 -0.72858036
-3.2975528 4.3589301 -0.60921586
-4.2448783 5.6111693 -0.39299977
-4.055665 5.3610539 0
-4.1977782 5.5489092 0.38863918
-1.6602288 2.189101 -0.90592206
-1.9026847 2.5087922 -0.86871421
-2.2188487 2.9256713 -0.81343502
-2.6408372 3.4820859 -0.72858036
-3.2965655 4.3466992 -0.60806268
-4.3113194 5.6847062 -0.39851481
-4.0558491 5.3478551 0
-8.5521021 11.276406 0.79050958
-1.6494108 2.1693876 -0.89858812
-1.9148222 2.51847 -0.87286586
-2.2239244 2.9250166 -0.81399953
-2.6372757 3.468677 -0.72644097
-3.3018153 4.3427124 -0.60806268
-4.3213334 5.6836338 -0.39880535
-4.0544338 5.3325939 0
-8.5814514 11.286754 0.79196125
-1.6745068 2.1968803 -0.91081339
-1.904178 2.4981992 -0.86663705
-2.2212961 2.9142442 -0.81174797
-2.650799 3.4777336 -0.72900796
-3.3086267 4.340775 -0.60835069
-5.3567376 7.0278077 -0.49357626
-4.0592923 5.3256154 0
-8.5887823 11.26811 0.7913807
-1.6741558 2.1909239 -0.90918189
-1.9056735 2.4939051 -0.86594558
-2.226357 2.9135749 -0.81231034
-2.6534421 3.4724903 -0.72858036
-3.3091564 4.3306065 -0.60748559
-5.3652258 7.0213304 -0.49357626
-4.0815287 5.3413897 0
-7.0547662 9.2323875 0.64900631
-1.6632761 2.1712427 -0.90184802
-1.9132638 2.4975772 -0.86802274
-2.2376001 2.9209661 -0.81512421
-2.6591957 3.4713175 -0.72900796
-3.3143868 4.3266048 -0.60748559
-5.3705482 7.0107207 -0.49328628
-4.1196322 5.3777733 0
-7.0832939 9.246541 0.6506024
-1.6643944 2.167273 -0.90103382
-1.9086416 2.4853168 -0.86456257
-2.2395818 2.9162471 -0.81456184
-2.6665182 3.4721777 -0.72986472
-3.321192 4.3246541 -0.60777467
-5.3774281 7.0021596 -0.49314073
-4.1483159 5.4016848 0
-7.0723071 9.2091274 0.64857072
-1.6760557 2.1770072 -0.90592206
-1.9208229 2.4949322 -0.86871421
-2.2322521 2.8994436 -0.81062114
-2.6597481 3.4547126 -0.72686851
-3.3216801 4.3144875 -0.60690951
-5.3843012 6.9935999 -0.49299571
-4.1738915 5.4214139 0
-7.0691643 9.1820469 0.6472646
-1.6801994 2.1769426 -0.90673935
-1.9238361 2.4926095 -0.86871421
-2.2388618 2.9007711 -0.81174797
-2.6670604 3.4555647 -0.72772527
-3.3268909 4.3104711 -0.60690951
-5.3848109 6.9768057 -0.49227014
-4.1883883 5.4266658 0
-7.0532656 9.1385307 0.64479738
-1.6737506 2.1631784 -0.90184802
-1.9253128 2.4883008 -0.86802274
-2.2439187 2.9000714 -0.81231034
-2.6743727 3.4563961 -0.72858036
-3.3289282 4.3023524 -0.60633242
-5.3900599 6.966188 -0.49198017
-4.1837926 5.4071908 0
-7.037272 9.095067 0.64233017
-1.6718172 2.1552937 -0.89940232
-1.9221674 2.4780433 -0.8652541
-2.2427475 2.8913329 -0.81062114
-2.6785471 3.4531622 -0.72858036
-3.3325405 4.2962856 -0.60604441
-5.3968763 6.9576111 -0.49183461
-4.1775622 5.3856807 0
-7.0164042 9.0454941 0.63942736
-1.6880796 2.1708379 -0.90673935
-1.9343976 2.4875979 -0.86940575
-2.2478039 2.8906324 -0.81118566
-2.6858723 3.45398 -0.72943711
-3.3377295 4.2922554 -0.60604441
-5.4052792 6.9510846 -0.49183461
-4.1952515 5.3950124 0
-6.7322512 8.6575451 0.6125778
-1.6830992 2.1590445 -0.90266216
-1.9374019 2.4852588 -0.86940575
-2.2497284 2.8859046 -0.81062114
-2.6853075 3.4446564 -0.72815281
-3.344502 4.2902575 -0.60633242
-4.2778654 5.4875565 -0.38864586
-4.1969652 5.3837795 0
-6.6532497 8.5346498 0.60445058
-1.6963617 2.1706431 -0.90836769
-1.9295942 2.4690845 -0.86456257
-2.2532136 2.8831842 -0.81062114
-2.6799805 3.4292693 -0.72558421
-3.3465011 4.2821412 -0.60575634
-4.3980908 5.6277423 -0.39895034
-4.1970572 5.370502 0
-6.6475601 8.506135 0.60299945
-1.6913632 2.1588657 -0.90429366
-1.9356676 2.4706972 -0.86594558
-2.2582674 2.8824654 -0.81118566
-2.6857097 3.4280553 -0.72601342
-3.3564599 4.2842045 -0.6066215
-4.4305282 5.6551514 -0.40127259
-4.2228036 5.3900108 0
-6.6498222 8.4878712 0.60227388
-1.6972451 2.1636794 -0.90673935
-1.9294194 2.4596596 -0.86248541
-2.2568688 2.8770983 -0.81005877
-2.6893632 3.4284499 -0.72644097
-3.3542569 4.2760687 -0.60575634
-4.4339437 5.6524734 -0.40127259
-4.2485437 5.416122 0
-6.6533408 8.481802 0.60212833
-1.6952733 2.1557965 -0.90429366
-1.943241 2.4711251 -0.86732858
-2.2619128 2.8763645 -0.81062114
-2.6966743 3.4292297 -0.72729605
-3.3626158 4.2760749 -0.60633242
-0 0 -0
-4.2518706 5.4068971 0
-6.6684046 8.4798861 0.60256386
-1.7024689 2.1595714 -0.90673935
-1.9338062 2.4530213 -0.86179394
-2.2606721 2.8676488 -0.80893409
-2.694459 3.4179049 -0.72558421
-3.3645806 4.2679501 -0.60575634
-4.4041548 5.5866437 -0.39735368
-4.2567911 5.3997135 0
-6.6722112 8.4636593 0.60198331
-1.6989471 2.1497562 -0.90347952
-1.9492071 2.4664218 -0.86732858
-2.2720113 2.8748808 -0.81174797
-2.7017734 3.4186788 -0.72644097
-3.3665309 4.2598271 -0.60518032
-0 0 -0
-4.2487907 5.3761916 0
-6.6630993 8.4311275 0.60024166
-1.6984707 2.1438236 -0.90184802
-1.9459602 2.4562066 -0.86456257
-2.2675955 2.8621774 -0.80893409
-2.7027109 3.4113836 -0.72558421
-3.37328 4.2577815 -0.60546833
-4.396667 5.549509 -0.39546701
-4.2617483 5.3792133 0
-6.6619911 8.4088192 0.59922612
-1.7210418 2.1669285 -0.91244179
-1.9442441 2.447958 -0.86248541
-2.2694674 2.85744 -0.80836958
-2.7020459 3.4020905 -0.72430152
-3.3719878 4.2456007 -0.60431516
-4.4130688 5.5564046 -0.39633814
-4.2585306 5.3618283 0
-6.6236615 8.3397169 0.59487164
-1.7190388 2.1590447 -0.90999609
-1.9675138 2.4711196 -0.87148285
-2.2808363 2.8646402 -0.81118566
-2.710947 3.4048421 -0.72558421
-3.3803344 4.2455664 -0.60489124
-3.5733311 4.4879627 -0.32043394
-4.2925625 5.3912883 0
-6.6046033 8.2951202 0.59225941
-1.7154849 2.1492467 -0.90673935
-1.961105 2.4569721 -0.86732858
-2.2779558 2.8539388 -0.80893409
-2.7214646 3.4095893 -0.72729605
-3.3854618 4.2414789 -0.60489124
-3.5949581 4.5039463 -0.32188505
-3.5555465 4.4545693 0
-3.5867801 4.4937005 0.32115281
-1.7119038 2.1394529 -0.90347952
-1.9656442 2.4565651 -0.86802274
-2.2845743 2.8551483 -0.81005877
-2.7159626 3.3942759 -0.72472906
-3.3841205 4.2293067 -0.60373807
-3.6020257 4.5016341 -0.3220306
-0 0 0
-0 0 0
-1.7144877 2.1373827 -0.90347952
-1.9591895 2.4424427 -0.86386842
-2.2848458 2.8484254 -0.80893409
-2.7184572 3.3889914 -0.72430152
-3.3892283 4.2252145 -0.60373807
-0 0 -0
-0 0 0
-0 0 0
-1.7139683 2.1314538 -0.90184802
-1.9684278 2.4478939 -0.86663705
-2.286689 2.8436768 -0.80836958
-2.7225502 3.385704 -0.72430152
-3.3975761 4.2251515 -0.60431516
-3.5966074 4.4726629 -0.32057893
-0 0 0
-0 0 0
-1.7191142 2.1273055 -0.90184802
-1.9648795 2.431426 -0.86248541
-2.291959 2.8361681 -0.80780727
-2.733948 3.3831043 -0.72515666
-3.4045222 4.2129011 -0.60373807
-3.5878069 4.4397058 -0.31883726
-0 0 0
-0 0 0
-1.7154601 2.1175447 -0.89858812
-1.9709715 2.432945 -0.86386842
-2.2937863 2.8314242 -0.8072449
-2.7412689 3.3837914 -0.72601342
-3.4047303 4.2027612 -0.60287398
-5.4888105 6.7753267 -0.48704571
-3.5893843 4.4306955 0
-3.6029105 4.4473925 0.3197017
-1.7086717 2.1039624 -0.89369988
-1.9818161 2.4402971 -0.86732858
-2.3004065 2.8325915 -0.80836958
-2.740499 3.3744967 -0.72472906
-3.4081709 4.1966305 -0.6025849
-5.5084553 6.7828031 -0.48806125
-4.3067451 5.3030844 0
-6.6468058 8.1845045 0.58892161
-1.7252553 2.1191449 -0.90103382
-1.968927 2.4184492 -0.86040831
-2.3038275 2.8298099 -0.80836958
-2.7413361 3.3672051 -0.72387397
-3.4181397 4.1985288 -0.60345
-5.5133691 6.7721157 -0.48777124
-4.308219 5.29182 0
-6.6583295 8.1784801 0.58906662
-1.7168736 2.1036532 -0.89532828
-1.9797777 2.4257843 -0.86386842
-2.3024299 2.8211243 -0.80668259
-2.7454026 3.3638904 -0.72387397
-3.4215765 4.1923938 -0.60316199
-5.5133348 6.7553854 -0.48704571
-4.3014455 5.2704806 0
-6.6649241 8.1664066 0.58877659
-1.7100267 2.0901031 -0.89044005
-1.977946 2.4175711 -0.86179394
-2.3074443 2.8203049 -0.8072449
-2.7592154 3.3724878 -0.72644097
-3.4250035 4.1862564 -0.60287398
-5.521493 6.7487187 -0.48704571
-4.3193483 5.2793813 0
-6.6714926 8.1543207 0.58848608
-1.7188206 2.0956795 -0.89369988
-1.9856341 2.4209931 -0.86386842
-2.3124604 2.8194773 -0.80780727
-2.7551501 3.3592288 -0.72430152
-3.4267757 4.1781111 -0.60229683
-5.5279913 6.7400274 -0.48690012
-4.327373 5.2761683 0
-6.6780481 8.1422396 0.58819604
-1.7527395 2.1317768 -0.90999609
-1.980593 2.4089046 -0.86040831
-2.3126411 2.8127596 -0.80668259
-2.7640934 3.3618405 -0.72558421
-3.4285393 4.1699758 -0.60172081
-5.5328336 6.7293324 -0.48661014
-4.3998518 5.3513384 0
-6.6845779 8.130146 0.58790547
-1.7351829 2.1078265 -0.90021962
-1.9948037 2.4232028 -0.86594558
-2.3111072 2.8074348 -0.8055557
-2.7563379 3.3482823 -0.72301722
-3.4310579 4.1679034 -0.60172081
-5.5484538 6.740026 -0.48762569
-4.3584294 5.294435 0
-6.6878386 8.1241016 0.58776051
-1.7377286 2.1057284 -0.90021962
-1.9785684 2.3975711 -0.85763961
-2.3177352 2.8085635 -0.80668259
-2.7603817 3.3449492 -0.72301722
-3.4360917 4.1637545 -0.60172081
-4.6040015 5.5789938 -0.40402982
-4.4211407 5.357408 0
-6.6943393 8.1120033 0.58746994
-1.7339698 2.0960095 -0.89695978
-1.9958549 2.4125741 -0.86386842
-2.3227453 2.8077168 -0.8072449
-2.761152 3.3376594 -0.72216213
-3.4444144 4.1635818 -0.60229683
-4.6206808 5.5854435 -0.40490094
-4.4242964 5.3480554 0
-6.7107611 8.1119165 0.58805048
-1.747541 2.1072247 -0.90266216
-1.9971685 2.4082315 -0.86317694
-2.3212686 2.7990386 -0.8055557
-2.76682 3.3362947 -0.72258967
-3.4428384 4.151453 -0.60114366
-4.6191339 5.5698571 -0.40417537
-0 0 0
-6.7155867 8.0978079 0.58761549
-1.742187 2.0956106 -0.89858812
-2.000077 2.4058166 -0.86317694
-2.3327692 2.8059993 -0.80836958
-2.7724886 3.3349211 -0.72301722
-3.4544661 4.1552458 -0.60229683
-4.6225352 5.5602717 -0.40388483
-0 0 0
-6.7203813 8.0836906 0.58717996
-1.7304783 2.0764177 -0.89125425
-1.9997733 2.3995473 -0.86179394
-2.3247757 2.789521 -0.80443102
-2.7781582 3.3335388 -0.72344476
-3.4528608 4.1431212 -0.60114366
-4.6259265 5.550694 -0.40359482
-0 0 0
-6.7284822 8.0735703 0.58703494
-1.7298197 2.0705352 -0.88962585
-1.9946241 2.3874972 -0.85833114
-2.3379159 2.7984056 -0.80780727
-2.7854788 3.3341234 -0.72430152
-3.4611843 4.1429195 -0.60172081
-4.6376233 5.5510769 -0.40402982
-5.8883247 7.0481243 0
-6.7432256 8.0714111 0.58746994
-1.735491 2.0722296 -0.89125425
-2.0055661 2.3947077 -0.86179394
-2.3363998 2.7897329 -0.80611807
-2.779613 3.3189433 -0.72173291
-3.4661875 4.1387343 -0.60172081
-4.6293135 5.5275421 -0.4027237
-0 0 0
-6.7629867 8.0752144 0.58834106
-1.7348183 2.0663488 -0.88962585
-2.0068405 2.3903556 -0.86109978
-2.3381367 2.7849636 -0.8055557
-2.7819722 3.3136179 -0.72130537
-3.4728475 4.1365223 -0.60200882
-4.6376581 5.5239329 -0.40286869
-5.9019904 7.0298839 0
-6.7877746 8.0849447 0.58964717
-1.7532259 2.0831578 -0.89777398
-2.0097272 2.387929 -0.86109978
-2.34641 2.7879705 -0.8072449
-2.7942374 3.3200724 -0.72344476
-3.4695172 4.1224303 -0.60056764
-4.640986 5.5143528 -0.40257871
-0 0 0
-6.805903 8.0866756 0.59037274
-1.7334316 2.054594 -0.88636601
-2.0190823 2.3931689 -0.86386842
-2.3432231 2.777365 -0.80499339
-2.7949395 3.3127735 -0.72258967
-3.4811673 4.1261425 -0.60172081
-4.6426172 5.5027809 -0.40214315
-0 0 0
-7.7120667 9.1409245 0.66801858
-1.7582549 2.0789146 -0.89777398
-2.0219724 2.3907273 -0.86386842
-2.3482165 2.7764699 -0.8055557
-2.7906532 3.2995956 -0.72045022
-3.4844754 4.1199527 -0.60143173
-4.6576514 5.5070853 -0.40286869
-0 0 0
-7.7298179 9.139535 0.66859913
-1.7815427 2.101295 -0.90836769
-2.0199971 2.3825474 -0.86179394
-2.3548591 2.7775104 -0.80668259
-2.7996137 3.3020897 -0.72173291
-3.4894509 4.1157393 -0.60143173
-4.6508589 5.4855976 -0.40170759
-5.9358983 7.001276 0
-7.7307701 9.1182928 0.66772801
-1.755272 2.0652449 -0.89369988
-2.0179989 2.3743682 -0.85971677
-2.3532753 2.7688527 -0.80499339
-2.8036015 3.2987044 -0.72173291
-3.4944215 4.1115198 -0.60143173
-4.6574841 5.4799738 -0.40170759
-5.9005365 6.9425435 0
-7.7501945 9.1188431 0.66845357
-1.7577662 2.0631225 -0.89369988
-2.025749 2.3776588 -0.86179394
-2.3582654 2.7679396 -0.8055557
-2.8092549 3.2972741 -0.72216213
-3.4943595 4.1013942 -0.60056764
-4.6607351 5.4703903 -0.40141758
-0 0 0
-7.7494159 9.0956316 0.66743803
-1.7714895 2.0741477 -0.89940232
-2.0286205 2.3752093 -0.86179394
-2.3566561 2.7592897 -0.80386651
-2.813237 3.2938774 -0.72216213
-3.5009909 4.0991335 -0.60085565
-4.6639695 5.4608068 -0.40112758
-5.9071522 6.9163866 0
-7.7570219 9.0823059 0.66714746
-1.7739944 2.0720057 -0.89940232
-2.0233262 2.3632224 -0.85833114
-2.3682559 2.7660964 -0.80668259
-2.8088624 3.28072 -0.72002101
-3.5008931 4.089004 -0.59999055
-4.6857724 5.47293 -0.40243369
-5.9375134 6.9349494 0
-7.7527828 9.0551634 0.66584134
-1.7829356 2.0773628 -0.90266216
-2.0425224 2.3798168 -0.8652541
-2.3649771 2.7555203 -0.80443102
-2.8178418 3.2831695 -0.72130537
-3.5075207 4.0867395 -0.60027963
-4.6839156 5.4573994 -0.40170759
-5.9424953 6.9238167 0
-7.7586398 9.0398722 0.66540581
-1.7548213 2.0396142 -0.88718021
-2.0404863 2.37164 -0.86317694
-2.3732715 2.7584336 -0.80611807
-2.8218067 3.2797623 -0.72130537
-3.5124562 4.0824986 -0.60027963
-4.6837339 5.4438643 -0.40112758
-5.9746165 6.9442468 0
-5.9800415 6.950552 0.51214689
-1.7641172 2.0479147 -0.89125425
-2.0419188 2.3704069 -0.86317694
-2.3716242 2.7531526 -0.80499339
-2.822114 3.2761137 -0.72087777
-3.5098562 4.0744948 -0.59941447
-5.6112332 6.5139251 -0.48022398
-5.9873085 6.9505005 0
-5.9944119 6.9587464 0.51301742
-1.7698244 2.0495267 -0.89288574
-2.0447814 2.3679378 -0.86317694
-2.374949 2.7502851 -0.80499339
-2.8227117 3.2688119 -0.72002101
-3.5198498 4.0761256 -0.60027963
-5.6123066 6.4992733 -0.47964343
-5.9820952 6.9275031 0
-6.0011191 6.9495335 0.51287246
-1.7884728 2.0660703 -0.90103382
-2.0361459 2.352186 -0.85833114
-2.3749413 2.7435675 -0.80386651
-2.8283443 3.2673452 -0.72045022
-3.5213835 4.0679545 -0.59970248
-5.6201558 6.4924874 -0.47964343
-5.9955664 6.926167 0
-6.007813 6.9403148 0.51272744
-1.7634313 2.0321746 -0.88718021
-2.0389864 2.3497238 -0.85833114
-2.3782547 2.7406957 -0.80386651
-2.8322902 3.2639253 -0.72045022
-3.5262964 4.0636969 -0.59970248
-5.6262951 6.4837313 -0.47949845
-6.012464 6.9287515 0
-6.0178957 6.9350109 0.51287246
-1.7837244 2.0505497 -0.89614248
-2.0467653 2.3529389 -0.86040831
-2.3782325 2.7339897 -0.80274183
-2.8395982 3.2643707 -0.72130537
-3.527812 4.0555339 -0.59912646
-5.6324215 6.4749694 -0.47935343
-6.0293703 6.9312973 0
-6.0399141 6.9434185 0.51403356
-1.7780803 2.0390806 -0.89206839
-2.0446589 2.3447895 -0.85833114
-2.384871 2.7349405 -0.80386651
-2.836792 3.2531979 -0.71959347
-3.5293069 4.0473657 -0.59854931
-5.6368289 6.4642458 -0.47906345
-6.0599751 6.9495044 0
-6.0790362 6.9713635 0.51664579
-1.780543 2.0369306 -0.89206839
-2.050796 2.3460987 -0.85971677
-2.3848326 2.7282345 -0.80274183
-2.8508608 3.261368 -0.72216213
-3.5358953 4.0450435 -0.59883738
-5.641212 6.4535136 -0.47877288
-6.0837812 6.9598103 0
-6.1062684 6.9855351 0.51824248
-1.7683444 2.0180492 -0.88473451
-2.0618947 2.3530514 -0.86317694
-2.3898003 2.7272601 -0.8033042
-2.8378782 3.2386103 -0.71788162
-3.5390773 4.0388246 -0.59854931
-5.6507168 6.4486451 -0.47891787
-6.1059074 6.9681129 0
-6.1352477 7.001596 0.51998359
-1.7740469 2.0196285 -0.88636601
-2.0614283 2.3467922 -0.86179394
-2.3930938 2.7243705 -0.8033042
-2.8485658 3.2428935 -0.71959347
-3.5422497 4.0326042 -0.5982613
-5.6550779 6.437912 -0.47862789
-6.1297789 6.9783254 0
-6.1522822 7.0039444 0.52070969
-1.7830194 2.0249035 -0.88962585
-2.0543115 2.332999 -0.85763961
-2.393029 2.7176666 -0.80217952
-2.854177 3.241374 -0.72002101
-3.5522492 4.0341463 -0.59912646
-5.6542687 6.4213252 -0.47790232
-6.1571269 6.9924011 0
-6.1744719 7.0120993 0.52187026
-1.803452 2.0431252 -0.89858812
-2.0587876 2.3323941 -0.85833114
-2.3996706 2.7185793 -0.8033042
-2.8479021 3.2263792 -0.71745408
-3.5519845 4.0240321 -0.5982613
-5.6620235 6.4144883 -0.47790232
-6.1914001 7.0142174 0
-6.18294 7.0046334 0.52187026
-1.8026469 2.037246 -0.89695978
-2.0665934 2.3355429 -0.86040831
-2.4012716 2.7137768 -0.80274183
-2.8603024 3.2325463 -0.71959347
-3.5551319 4.0178022 -0.59797329
-5.6663227 6.4037466 -0.47761175
-6.206769 7.0145273 0
-6.1879587 6.993269 0.52158022
-1.788703 2.0165725 -0.88880855
-2.0627549 2.325537 -0.85763961
-2.4062333 2.7127724 -0.8033042
-2.8625045 3.2271693 -0.71916592
-3.5651281 4.0193028 -0.59883738
-5.6723337 6.3949533 -0.47746676
-6.244597 7.0401192 0
-6.1895075 6.9780116 0.52099967
-1.7911383 2.0144098 -0.88880855
-2.0605607 2.3174164 -0.85556251
-2.402756 2.7022676 -0.80105263
-2.8681059 3.2256248 -0.71959347
-3.5717056 4.0169306 -0.59912646
-5.6731501 6.3803272 -0.47688621
-6.260016 7.0403481 0
-6.1962094 6.9685874 0.52085471
-1.7886422 2.0067141 -0.88636601
-2.0750461 2.3280365 -0.86040831
-2.4060194 2.6993623 -0.80105263
-2.8788335 3.2298222 -0.72130537
-3.5679467 4.0029521 -0.5976842
-5.6774006 6.3695917 -0.47659621
-6.292758 7.0599737 0
-6.2011638 6.9572124 0.52056414
-1.7745945 1.9861171 -0.87821478
-2.0728412 2.3199134 -0.85833114
-2.4092793 2.6964531 -0.80105263
-2.8724749 3.2148595 -0.71873838
-3.5745091 4.0005727 -0.59797329
-5.6868224 6.3646631 -0.47674119
-6.3012843 7.0523653 0
-6.2061067 6.9458427 0.5202741
-1.8000823 2.0097501 -0.88962585
-2.0806658 2.3230152 -0.86040831
-2.4091485 2.6897583 -0.79992795
-2.8763573 3.2113862 -0.71873838
-3.5776098 3.9943182 -0.5976842
-5.6875744 6.3500447 -0.47616065
-6.3202224 7.0563812 0
-6.2092919 6.9325304 0.51983857
-1.8091145 2.01493 -0.89288574
-2.0817969 2.3186343 -0.85971677
-2.4157884 2.690623 -0.80105263
-2.8768024 3.2040844 -0.71788162
-3.5841665 3.9919226 -0.59797329
-5.6952429 6.3431678 -0.47616065
-6.3287439 7.0487394 0
-6.2141953 6.9211593 0.51954859
-1.8264272 2.0292747 -0.90021962
-2.0812371 2.3123841 -0.85833114
-2.4190378 2.6877019 -0.80105263
-2.8858254 3.206332 -0.71916592
-3.5855234 3.9837403 -0.59739614
-5.6994233 6.3324151 -0.4758701
-6.3372564 7.0410872 0
-6.2208104 6.9117088 0.51940298
-1.8288779 2.0270662 -0.90021962
-2.0823507 2.3080068 -0.85763961
-2.4239841 2.6866617 -0.801615
-2.8811009 3.1933148 -0.71702647
-3.5920653 3.9813235 -0.5976842
-5.7035928 6.3216691 -0.4755801
-6.3492427 7.0372858 0
-6.215239 6.8887601 0.51824248
-1.8118761 2.0057843 -0.89125425
-2.0854247 2.3086083 -0.85833114
-2.427315 2.6870878 -0.80217952
-2.8899128 3.1991932 -0.71873838
-3.59447 3.9791527 -0.5976842
-5.7021837 6.3124352 -0.47514454
-6.3377943 7.0160694 0
-6.1915307 6.8541522 0.51592022
-1.8093197 1.9980954 -0.88880855
-2.0831656 2.3005133 -0.85625666
-2.4305601 2.6841528 -0.80217952
-2.890327 3.1918898 -0.71788162
-3.5958066 3.9709756 -0.59710813
-5.7080646 6.3036165 -0.47499955
-6.3497643 7.0122681 0
-6.2015505 6.8485904 0.51606524
-1.8117326 1.9959078 -0.88880855
-2.0960579 2.3091364 -0.86040831
-2.4286766 2.6755681 -0.80049032
-2.8959053 3.1902938 -0.71830916
-3.5953851 3.9608808 -0.59624296
-5.7139325 6.2947927 -0.47485453
-6.3634753 7.010366 0
-6.1941047 6.8237777 0.51475912
-1.8224649 2.0028627 -0.89288574
-2.0937796 2.3010337 -0.85833114
-2.4336162 2.674509 -0.80105263
-2.8911214 3.1773007 -0.71616971
-3.6036532 3.9603631 -0.59682012
-5.7197804 6.2859564 -0.47470897
-6.3701911 7.0007486 0
-6.2355671 6.8527989 0.51751631
-1.8415368 2.0189164 -0.90103382
-2.0948694 2.2966504 -0.85763961
-2.4419844 2.6772003 -0.80274183
-2.8966932 3.1757071 -0.71659893
-3.6084359 3.9560061 -0.59682012
-5.7221231 6.2732868 -0.47427398
-6.364615 6.9776645 0
-6.2490978 6.8510208 0.51795191
-1.8172895 1.987505 -0.88799435
-2.099334 2.2959671 -0.85833114
-2.4383593 2.6667469 -0.80049032
-2.9074507 3.1797755 -0.71830916
-3.6097193 3.9478216 -0.59624296
-5.7279472 6.2644525 -0.47412896
-6.3625078 6.9584489 0
-6.2573714 6.8434649 0.51795191
-1.8280383 1.9944161 -0.89206839
-2.0953262 2.286031 -0.85556251
-2.443295 2.6656699 -0.80105263
-2.9112906 3.1762602 -0.71830916
-3.6144869 3.9434571 -0.59624296
-5.7319975 6.2536922 -0.47383842
-6.3744249 6.9545894 0
-6.2621279 6.8320718 0.51766187
-1.8287762 1.9903876 -0.89125425
-2.1048765 2.2908871 -0.85833114
-2.4447966 2.6608465 -0.80049032
-2.9116561 3.1689632 -0.71745408
-3.6192491 3.9390869 -0.59624296
-5.7342739 6.2410192 -0.47340286
-6.3916259 6.9564619 0
-6.2721348 6.8264117 0.51780689
-1.8261549 1.9827206 -0.88880855
-2.1076429 2.288342 -0.85833114
-2.4462903 2.6560233 -0.79992795
-2.9207022 3.171109 -0.71873838
-3.6275139 3.9385195 -0.59682012
-5.7470937 6.2398219 -0.47383842
-6.389451 6.937252 0
-6.2786202 6.8169184 0.51766187
-1.8268743 1.9786984 -0.88799435
-2.1035991 2.2784207 -0.85556251
-2.4426031 2.6455979 -0.79767638
-2.9227853 3.1656861 -0.71830916
-3.6322703 3.9341335 -0.59682012
-5.7528682 6.2309656 -0.47369343
-6.3978291 6.9295263 0
-6.2762728 6.7978683 0.51679081
-1.8426944 1.9910011 -0.89451408
-2.1046481 2.2740378 -0.85487098
-2.4578743 2.6556928 -0.801615
-2.9231243 3.1583877 -0.71745408
-3.6335042 3.9259417 -0.59624296
-4.7226377 5.1027322 -0.38835588
-6.3814521 6.8950543 0
-6.2897787 6.7960029 0.51722634
-1.8366954 1.9797152 -0.89044005
-2.1210446 2.2862062 -0.86040831
-2.4541755 2.6452773 -0.79936558
-2.9286828 3.1567335 -0.71788162
-3.6364877 3.9196541 -0.59595495
-4.7323308 5.1008282 -0.38864586
-6.3933158 6.891151 0
-6.2909169 6.7807784 0.51664579
-1.8222508 1.9593923 -0.88228881
-2.1238055 2.2836418 -0.86040831
-2.4590988 2.6441689 -0.79992795
-2.9324949 3.1531925 -0.71788162
-3.6429811 3.9171493 -0.59624296
-4.7455692 5.1027174 -0.38922644
-6.4051857 6.8872356 0
-6.2991056 6.7731719 0.51664579
-1.8616989 1.9969651 -0.90021962
-2.1111684 2.2645605 -0.8541795
-2.4570923 2.6356182 -0.79823875
-2.9363027 3.1496468 -0.71788162
-3.6424186 3.9070673 -0.59537786
-4.7552786 5.1007848 -0.38951698
-6.4099503 6.8756804 0
-6.3037443 6.7617583 0.51635575
-1.8438596 1.9730444 -0.89044005
-2.1190436 2.2675085 -0.85625666
-2.4602752 2.6326475 -0.79823875
-2.9383552 3.1442227 -0.71745408
-3.6453726 3.9007754 -0.59508985
-4.7596593 5.0931311 -0.38937142
-6.4075952 6.8565254 0
-6.3083582 6.7503357 0.51606524
-1.8682075 1.9942622 -0.90103382
-2.1217818 2.2649465 -0.85625666
-2.461719 2.6278203 -0.79767638
-2.9228454 3.1200604 -0.71274602
-3.6536231 3.9001465 -0.59566694
-4.7640347 5.0854816 -0.38922644
-6.4140978 6.8468804 0
-6.3147354 6.7408137 0.51592022
-1.8764063 1.9933376 -0.90266216
-2.1238067 2.2561553 -0.85487098
-2.4698021 2.6237118 -0.79823875
-2.9391797 3.1223395 -0.71488708
-3.6612597 3.8894172 -0.59537786
-4.7709656 5.0682764 -0.38879088
-6.4163547 6.8162003 0
-6.3256621 6.7198563 0.51548469
-1.8652432 1.9766879 -0.89614248
-2.1299782 2.2572403 -0.85625666
-2.4729705 2.6207256 -0.79823875
-2.9447103 3.120651 -0.71531463
-3.6712837 3.8906357 -0.59624296
-4.7842197 5.0700674 -0.38937142
-6.4370837 6.8216867 0
-6.330214 6.7084317 0.51519465
-1.8370615 1.9421157 -0.88147467
-2.1430447 2.2655969 -0.86040831
-2.4761353 2.6177356 -0.79823875
-2.9537728 3.1226871 -0.71659893
-3.675982 3.8861969 -0.59624296
-4.7849908 5.0586252 -0.38893643
-6.4256544 6.7931118 0
-6.338315 6.700778 0.51519465
-1.8734192 1.975765 -0.89777398
-2.138876 2.2557237 -0.85763961
-2.4758034 2.6110578 -0.79711407
-2.9663734 3.128428 -0.71873838
-3.6717784 3.8723695 -0.59480178
-4.7982512 5.0603819 -0.38951698
-6.4231105 6.7740083 0
-6.3410416 6.6874561 0.51475912
-1.854192 1.9531229 -0.88799435
-2.1402383 2.2544312 -0.85763961
-2.4791281 2.6114025 -0.79767638
-2.9558892 3.1136014 -0.71574217
-3.6776755 3.8738987 -0.59537786
-4.7887826 5.0442891 -0.38850087
-6.432579 6.7757902 0
-6.3432932 6.6817412 0.51461411
-1.8735861 1.9687819 -0.89614248
-2.1377707 2.2463896 -0.85556251
-2.4822817 2.6084051 -0.79767638
-2.966728 3.117466 -0.71745408
-3.6752284 3.8619647 -0.59422576
-4.7984533 5.0422602 -0.38879088
-6.4335852 6.7604718 0
-6.3513622 6.6740718 0.51461411
-1.8674351 1.9575765 -0.89206839
-2.1456802 2.2492526 -0.85763961
-2.4854317 2.6054037 -0.79767638
-2.9669523 3.1101675 -0.71659893
-3.6834593 3.8612604 -0.59480178
-4.8045421 5.0364585 -0.38879088
-6.4381595 6.7489309 0
-6.3558316 6.6626287 0.51432353
-1.8817581 1.9678246 -0.89777398
-2.144932 2.2430353 -0.85625666
-2.4938478 2.6079097 -0.79936558
-2.9671564 3.1028662 -0.71574217
-3.6863363 3.8549392 -0.59451377
-4.821403 5.0419207 -0.389662
-6.4355145 6.7298574 0
-6.3602891 6.6511912 0.51403356
-1.8704517 1.9512753 -0.89125425
-2.1406963 2.2331977 -0.85348797
-2.489964 2.5975573 -0.79711407
-2.9797838 3.1085427 -0.71788162
-3.6909916 3.8504822 -0.59451377
-4.8274918 5.0360913 -0.389662
-6.4148264 6.6920166 0
-6.3665175 6.6416202 0.513888
-1.879658 1.9561427 -0.89451408
-2.148603 2.2360311 -0.85556251
-2.4931009 2.5945468 -0.79711407
-2.9728692 3.0938373 -0.71531463
-3.693851 3.8441565 -0.59422576
-4.8317747 5.0283828 -0.38951698
-4.9461741 5.1474376 0
-6.3655381 6.6245561 0.51316243
-1.8820202 1.9538699 -0.89451408
-2.1582649 2.2406609 -0.85833114
-2.4997561 2.5951891 -0.79823875
-2.9837289 3.0976384 -0.71702647
-3.7020786 3.8434124 -0.59480178
-4.8342381 5.0187945 -0.38922644
-4.9668341 5.1564522 0
-6.3609242 6.603765 0.51214689
-1.8792276 1.9462587 -0.89206839
-2.1540003 2.2308323 -0.85556251
-2.4993634 2.5885143 -0.79711407
-2.9838998 3.0903339 -0.71616971
-3.7085147 3.8407953 -0.59508985
-4.8330793 5.0054722 -0.38864586
-0 0 0
-4.9647527 5.1418424 0.39923421
-1.8918951 1.9546458 -0.89695978
-2.1549511 2.2264271 -0.85487098
-2.4971862 2.5800135 -0.79542488
-2.9894223 3.0885761 -0.71659893
-3.7095585 3.832598 -0.59451377
-4.8355126 4.9958982 -0.38835588
-0 0 0
-0 0 0
-1.8804866 1.9381673 -0.89044005
-2.1558945 2.2220228 -0.8541795
-2.5003018 2.5769942 -0.79542488
-2.9913592 3.0831139 -0.71616971
-3.7141869 3.8281128 -0.59451377
-4.8469691 4.9956412 -0.38879088
-0 0 0
-0 0 0
-1.8948848 1.9482912 -0.89614248
-2.1620727 2.2230096 -0.85556251
-2.51227 2.583077 -0.79823875
-2.9932945 3.0776589 -0.71574217
-3.7188096 3.8236222 -0.59451377
-4.8475718 4.9841981 -0.38835588
-0 0 0
-4.994225 5.1349845 0.40010476
-1.8644605 1.9123806 -0.88066047
-2.1700127 2.2257862 -0.85763961
-2.5171611 2.581857 -0.79880112
-2.9970109 3.0740397 -0.71574217
-3.7216232 3.8172758 -0.59422576
-4.8572149 4.9820547 -0.38864586
-4.9651909 5.0928054 0
-4.9877272 5.115921 0.39908865
-1.8736799 1.9171969 -0.88392031
-2.162183 2.2124007 -0.85348797
-2.5078526 2.5660985 -0.79486251
-2.9953387 3.0649068 -0.71445787
-3.728039 3.8146243 -0.59451377
-4.865046 4.9780383 -0.38879088
-4.965889 5.081224 0
-6.4104476 6.5593328 0.51229185
-1.8950229 1.9343542 -0.89288574
-2.1753852 2.2205355 -0.85763961
-2.5145042 2.5666931 -0.79598719
-3.0170078 3.0796261 -0.71873838
-3.7308371 3.8082709 -0.59422576
-4.8656073 4.9665933 -0.38835588
-6.4453363 6.5791097 0
-6.4383659 6.5719948 0.513888
-1.8800377 1.9144251 -0.88473451
-2.1657672 2.2053809 -0.85279649
-2.5229464 2.5690932 -0.79767638
-3.0099313 3.0649855 -0.71616971
-3.7336185 3.8019094 -0.59393668
-4.8716049 4.9607105 -0.38835588
-6.4897509 6.6084542 0
-6.4299178 6.5475264 0.51258188
-1.8927562 1.9227235 -0.88962585
-2.1596253 2.1938179 -0.8493337
-2.5242682 2.5642338 -0.79711407
-3.006429 3.0540287 -0.71445787
-3.7382097 3.7973955 -0.59393668
-4.8830585 4.9603705 -0.38879088
-6.5068583 6.609879 0
-6.4360037 6.5379024 0.51243687
-1.8985468 1.9239503 -0.89125425
-2.1693232 2.1983497 -0.85210234
-2.5273645 2.561182 -0.79711407
-3.0101171 3.0503938 -0.71445787
-3.7373505 3.7873578 -0.59307259
-4.8872256 4.9526191 -0.38864586
-6.5203261 6.6075711 0
-6.4402518 6.5264254 0.51214689
-1.9338969 1.9550427 -0.90673935
-2.1737473 2.1975157 -0.85279649
-2.525095 2.5527053 -0.79542488
-3.004776 3.037631 -0.71231842
-3.7455583 3.7865133 -0.59364861
-4.8877225 4.9411664 -0.3882103
-6.5228128 6.5941353 0
-6.448133 6.5186391 0.51214689
-1.9049294 1.92111 -0.89206839
-2.1799304 2.198447 -0.8541795
-2.5335467 2.5550668 -0.79711407
-3.0084441 3.0339983 -0.71231842
-3.7537768 3.7856617 -0.59422576
-4.8991799 4.940794 -0.38864586
-6.5197778 6.5751572 0
-6.4505143 6.5053058 0.5117113
-1.8851936 1.8989106 -0.88228881
-2.1777265 2.1935723 -0.85279649
-2.5279291 2.5463228 -0.79486251
-3.0301728 3.0522211 -0.71702647
-3.7487741 3.776051 -0.59307259
-4.8985062 4.9341488 -0.38835588
-6.5329218 6.5804567 0
-6.4562721 6.5032496 0.51185632
-1.896209 1.905396 -0.88636601
-2.1856794 2.1962688 -0.85487098
-2.531004 2.5432665 -0.79486251
-3.0157473 3.0303583 -0.71274602
-3.7606318 3.778852 -0.59422576
-4.9081268 4.9319062 -0.38864586
-6.5316839 6.5633297 0
-6.4567938 6.4880762 0.51127577
-1.9212006 1.9258491 -0.89695978
-2.1794741 2.1847475 -0.85141087
-2.5376608 2.5438008 -0.79598719
-3.0284767 3.0358043 -0.71488708
-3.7597132 3.76881 -0.5933606
-4.9140825 4.925972 -0.38864586
-6.534101 6.5499105 0
-6.4664621 6.4821076 0.51142079
-1.9147896 1.9147896 -0.89288574
-2.1821125 2.1821125 -0.85141087
-2.5443294 2.5443294 -0.79711407
-3.0248821 3.0248821 -0.71317518
-3.7642643 3.7642643 -0.5933606
-4.9200306 4.9200306 -0.38864586
-6.5456877 6.5456877 0
-6.4687829 6.4687829 0.51098573
-1.920598 1.9159622 -0.89451408
-2.1936264 2.1883316 -0.85487098
-2.5455978 2.5394535 -0.79654956
-3.0467052 3.0393512 -0.71745408
-3.7651443 3.7560563 -0.59278351
-4.9222965 4.9104156 -0.38835588
-6.5462222 6.5304213 0
-6.4784322 6.4627953 0.51113075
-1.9194112 1.9101566 -0.89288574
-2.1856029 2.1750648 -0.85071933
-2.5486643 2.5363758 -0.79654956
-3.0376365 3.0229905 -0.71445787
-3.76968 3.7515042 -0.59278351
-4.928226 4.9044642 -0.38835588
-6.5522652 6.5206728 0
-6.4899163 6.4586248 0.51142079
-1.895406 1.8817142 -0.88066047
-2.2060299 2.1900942 -0.85763961
-2.5463228 2.5279291 -0.79486251
-3.037647 3.0157042 -0.71360278
-3.776051 3.7487741 -0.59307259
-4.9378333 4.902164 -0.38864586
-6.5601392 6.5127511 0
-6.4866552 6.4397974 0.5105502
-1.9222605 1.9037684 -0.89206839
-2.1979828 2.1768382 -0.85348797
-2.5547864 2.5302093 -0.79654956
-3.0449331 3.0156407 -0.71445787
-3.782414 3.746027 -0.5933606
-4.936368 4.8888798 -0.38806531
-6.5680037 6.5048194 0
-6.4888911 6.4264679 0.51011467
-1.9263227 1.9031864 -0.89288574
-2.1988285 2.1724193 -0.85279649
-2.5542302 2.5235524 -0.79542488
-3.0412703 3.0047426 -0.71274602
-3.7869375 3.7414539 -0.5933606
-4.9404249 4.8810873 -0.38792032
-6.5628977 6.4840732 0
-6.4966516 6.4186225 0.51011467
-1.9321382 1.9043241 -0.89451408
-2.2139542 2.1820831 -0.85763961
-2.5590856 2.5222461 -0.79598719
-3.0576985 3.0136814 -0.71574217
-3.7914555 3.7368755 -0.5933606
-4.9463191 4.875114 -0.38792032
-6.5725865 6.4779706 0
-6.5025535 6.4089456 0.50996965
-1.908 1.8759937 -0.88228881
-2.1987035 2.1618209 -0.85071933
-2.5585113 2.5155928 -0.79486251
-3.0466938 2.9955862 -0.71231842
-3.7904332 3.7268496 -0.59249544
-4.9522061 4.8691339 -0.38792032
-6.571125 6.460896 0
-6.5047326 6.395617 0.50953406
-1.912035 1.8754226 -0.88310617
-2.2066889 2.1644344 -0.85279649
-2.5579176 2.5089376 -0.79373568
-3.0558109 2.997297 -0.71360278
-3.7912443 3.718648 -0.59191942
-4.9506655 4.8558683 -0.38733974
-6.5733585 6.4474893 0
-6.5050354 6.3804746 0.50895351
-1.9248958 1.8834791 -0.88799435
-2.2164683 2.1687779 -0.85556251
-2.5645828 2.5094025 -0.79486251
-3.0575974 2.9918089 -0.71317518
-3.7957346 3.7140644 -0.59191942
-4.9676695 4.8607831 -0.3882103
-6.5867195 6.4449973 0
-6.516458 6.3762479 0.50924408
-1.9430866 1.8966882 -0.89532828
-2.2065256 2.1538365 -0.85071933
-2.5621567 2.5009756 -0.79317331
-3.0703933 2.9970763 -0.71531463
-3.8002195 3.7094753 -0.59191942
-4.9679661 4.8493376 -0.3877753
-6.575882 6.4188585 0
-6.5204353 6.3647356 0.50895351
-1.9081926 1.8581302 -0.87821478
-2.216316 2.1581697 -0.85348797
-2.5742769 2.5067394 -0.79598719
-3.0648184 2.9844112 -0.71317518
-3.8065503 3.7066834 -0.59220743
-4.9700952 4.8397021 -0.38748476
-6.5836334 6.4109082 0
-6.528121 6.3568525 0.50895351
-1.9494356 1.8937075 -0.89614248
-2.2171242 2.1537437 -0.85279649
-2.5773039 2.5036271 -0.79598719
-3.0684223 2.9807057 -0.71317518
-3.8165939 3.7074895 -0.59307259
-4.9778085 4.8355088 -0.38763031
-6.5913749 6.4029484 0
-6.5283422 6.3417177 0.50837296
-1.9517224 1.8913506 -0.89614248
-2.2179182 2.1493123 -0.85210234
-2.5712056 2.4916716 -0.79317331
-3.0738633 2.9787807 -0.71360278
-3.8173525 3.6992719 -0.59249544
-4.9892402 4.8349104 -0.38806531
-6.5766797 6.3732457 0
-6.5378714 6.335638 0.50851852
-1.938015 1.8735317 -0.88880855
-2.2187116 2.1448889 -0.85141087
-2.5760396 2.4903274 -0.79373568
-3.0737655 2.9714925 -0.71274602
-3.8218195 3.6946566 -0.59249544
-4.987606 4.8216538 -0.38748476
-6.5881214 6.368916 0
-6.5455222 6.327734 0.50851852
-1.9527326 1.8832003 -0.89451408
-2.2249169 2.1456928 -0.85279649
-2.5827081 2.4907439 -0.79486251
-3.0699625 2.9606483 -0.71103412
-3.820694 3.6846478 -0.59163034
-4.9915595 4.8138218 -0.38733974
-6.6033053 6.3681769 0
-6.5475502 6.3144073 0.50808299
-1.9550067 1.8808395 -0.89451408
-2.2275078 2.1430027 -0.85279649
-2.5857158 2.4876213 -0.79486251
-3.0827928 2.9658408 -0.71317518
-3.821419 3.6764457 -0.59105426
-4.9992433 4.809587 -0.38748476
-6.6053672 6.3547788 0
-6.5476847 6.2992849 0.50750244
-1.9294082 1.8539689 -0.88228881
-2.2342238 2.1468663 -0.85487098
-2.5872183 2.4860587 -0.79486251
-3.0771799 2.9568632 -0.71146333
-3.8310995 3.6813047 -0.59220743
-4.9984045 4.8029685 -0.38719475
-6.5904431 6.3327584 0
-6.5552402 6.2989326 0.50779295
-1.9673319 1.8858432 -0.89858812
-2.2259533 2.1337521 -0.85071933
-2.5920527 2.4846873 -0.79542488
-3.0992787 2.9709034 -0.71574217
-3.8318069 3.6730897 -0.59163034
-5.0079522 4.800518 -0.38748476
-6.592452 6.3193865 0
-6.5590911 6.2874074 0.50750244
-1.9392436 1.854427 -0.88473451
-2.2412169 2.143193 -0.85556251
-2.5895422 2.4762836 -0.79373568
-3.0972984 2.9618323 -0.71445787
-3.8362422 3.668457 -0.59163034
-5.0099969 4.790875 -0.38719475
-6.5699883 6.2826376 0
-6.5666838 6.2794771 0.50750244
-1.9540032 1.8640263 -0.89044005
-2.2383642 2.1352935 -0.85348797
-2.5925324 2.4731529 -0.79373568
-3.1008749 2.9580877 -0.71445787
-3.8388023 3.6620355 -0.59134227
-5.0120182 4.7812276 -0.38690418
-6.5700426 6.267509 0
-6.5648675 6.2625718 0.50677687
-1.9437193 1.8497353 -0.88473451
-2.253659 2.1446886 -0.85833114
-2.6047201 2.478775 -0.79654956
-3.1044469 2.9543386 -0.71445787
-3.8413527 3.6556129 -0.59105426
-5.0234404 4.7805433 -0.38733974
-6.4550781 6.1429577 0
-6.5592518 6.242094 0.50576073
-1.9853843 1.8848195 -0.90266216
-2.2362401 2.1229687 -0.85071933
-2.5966604 2.4651327 -0.79317331
-3.0968475 2.9399841 -0.71189088
-3.8532701 3.6580918 -0.59220743
-5.0197926 4.7655268 -0.3866142
-6.4322972 6.1064844 0
-6.538527 6.2073336 0.50358409
-1.9679254 1.8637291 -0.89369988
-2.236984 2.1185417 -0.85002786
-2.6033235 2.4654844 -0.79429799
-3.1097152 2.9450643 -0.71403033
-3.8539279 3.6498728 -0.59163034
-5.0349784 4.7683897 -0.38733974
-6.4264417 6.0861793 0
-6.4894271 6.1458292 0.49923015
-1.9540082 1.8460753 -0.88636601
-2.2377133 2.1141093 -0.8493337
-2.5933771 2.4501274 -0.79035944
-3.1188712 2.9465952 -0.71531463
-3.8602207 3.6469948 -0.59191942
-5.035068 4.7569475 -0.38690418
-6.4281216 6.0730529 0
-6.4647403 6.1076493 0.49676293
-1.9544337 1.8420128 -0.88554871
-2.2475688 2.1182866 -0.85210234
-2.6055794 2.455704 -0.79317331
-3.1186895 2.9392996 -0.71445787
-3.8646245 3.6423278 -0.59191942
-5.0332484 4.7437315 -0.38632363
-6.4221954 6.0527849 0
-6.4607663 6.0891371 0.49589181
-1.9800653 1.8616575 -0.89614248
-2.2647491 2.1293173 -0.85763961
-2.6233542 2.4664776 -0.79767638
-3.1222389 2.9355292 -0.71445787
-3.8614852 3.6305687 -0.59076625
-5.0484476 4.746551 -0.38704976
-6.4503555 6.0646248 0
-6.4851551 6.0973434 0.49719793
-1.9715003 1.8491218 -0.89125425
-2.245362 2.105984 -0.8493337
-2.6152091 2.4528732 -0.79429799
-3.123913 2.9300001 -0.71403033
-3.8696387 3.6294358 -0.59134227
-5.0579662 4.743999 -0.38733974
-6.4804573 6.0781913 0
-6.3731217 5.9775181 0.48805454
-1.9737332 1.8467383 -0.89125425
-2.2698882 2.1238379 -0.85763961
-2.618171 2.4497116 -0.79429799
-3.1218257 2.9209599 -0.71274602
-3.8759081 3.6265228 -0.59163034
-5.0561051 4.730783 -0.38675919
-6.4840002 6.0668035 0
-6.3025551 5.8970332 0.48210454
-1.9813854 1.8494132 -0.89369988
-2.2559485 2.1056888 -0.85141087
-2.6267033 2.4517491 -0.79598719
-3.1253529 2.9171855 -0.71274602
-3.8802874 3.6218369 -0.59163034
-5.0618176 4.7246699 -0.38675919
-6.4913259 6.0589643 0
-6.2830787 5.8645878 0.48007229
-1.9474413 1.8133317 -0.87740058
-2.2456369 2.0909925 -0.84656507
-2.6222255 2.4416475 -0.79373568
-3.1420283 2.9256542 -0.71574217
-3.8808784 3.6136239 -0.59105426
-5.0713296 4.722095 -0.38704976
-6.4510274 6.0067811 0
-6.295867 5.8623056 0.48050785
-1.9912764 1.849661 -0.89614248
-2.2573578 2.0968194 -0.85002786
-2.6233141 2.4367497 -0.79317331
-3.141803 2.9183648 -0.71488708
-3.890929 3.6142144 -0.59191942
-5.0675073 4.7071166 -0.38632363
-6.3801041 5.9263644 0
-6.301044 5.8529272 0.48036286
-1.9790133 1.8338207 -0.88962585
-2.2580442 2.0923803 -0.8493337
-2.6262565 2.433578 -0.79317331
-3.1490893 2.9180527 -0.71574217
-3.8839066 3.598959 -0.59018916
-5.0712867 4.6992259 -0.38617864
-6.2097378 5.7541533 0
-6.3366957 5.8717961 0.48253953
-1.9612615 1.8129715 -0.88066047
-2.2587304 2.087949 -0.84864217
-2.6347945 2.4355788 -0.79486251
-3.1375325 2.9003053 -0.71231842
-3.8882523 3.5942636 -0.59018916
-5.0731487 4.6895704 -0.38588864
-0 0 0
-6.2235808 5.7530189 0.47339615
-1.9961529 1.8407568 -0.89532828
-2.2667863 2.090322 -0.85071933
-2.6358621 2.430666 -0.79429799
-3.1410346 2.896512 -0.71231842
-3.8906929 3.587811 -0.58990109
-5.0845366 4.6887164 -0.38632363
-0 0 0
-6.2610917 5.7736793 0.47571841
-1.9820063 1.823285 -0.88799435
-2.2711551 2.0892785 -0.85141087
-2.6331925 2.4223235 -0.792611
-3.1445322 2.8927145 -0.71231842
-3.8988285 3.586606 -0.59047717
-5.0863771 4.6790543 -0.38603362
-0 0 0
-6.2527642 5.7520361 0.47455728
-1.9787431 1.8158737 -0.88554871
-2.2662842 2.0797474 -0.84864217
-2.6436059 2.426012 -0.79486251
-3.1518116 2.8923876 -0.71317518
-3.9012556 3.5801454 -0.59018916
-5.0977726 4.6781774 -0.38646919
-0 0 0
-6.2348237 5.7216387 0.47267061
-1.9583201 1.7906041 -0.87495494
-2.2718997 2.077328 -0.8493337
-2.6423712 2.4160712 -0.79317331
-3.1513634 2.8814719 -0.71189088
-3.9096451 3.5748122 -0.59047717
-5.1081591 4.670682 -0.3866142
-5.658236 5.1736488 0
-5.658412 5.17381 0.42826045
-2.0134366 1.8365383 -0.89858812
-2.2818222 2.0813439 -0.85210234
-2.6471641 2.4145873 -0.79373568
-3.1453617 2.8690138 -0.70975149
-3.9024997 3.5596306 -0.58874792
-5.1099558 4.6610007 -0.38632363
-5.6452518 5.1492662 0
-12.387378 11.299037 0.93651241
-2.0101681 1.8291122 -0.89614248
-2.2806277 2.0752115 -0.85071933
-2.6444399 2.4062552 -0.79204649
-3.1697061 2.8842106 -0.71445787
-3.9182725 3.5653536 -0.59047717
-5.1136637 4.6530762 -0.38617864
-12.384391 11.268929 0
-12.360663 11.247338 0.93346459
-2.0160403 1.8300076 -0.89777398
-2.277559 2.0673943 -0.84864217
-2.6586375 2.4133081 -0.79542488
-3.1693909 2.8769312 -0.71360278
-3.9225779 3.5606167 -0.59047717
-5.1212044 4.6486387 -0.38632363
-12.39414 11.250454 0
-12.391559 11.248111 0.9347707
-1.9797781 1.7927328 -0.88066047
-2.2781975 2.0629585 -0.8479507
-2.6540177 2.4032719 -0.79317331
-3.1709638 2.8713779 -0.71317518
-3.9268773 3.5558743 -0.59047717
-5.1287494 4.6441965 -0.38646919
-12.417369 11.244203 0
-12.408997 11.236622 0.93506128
-1.972774 1.782057 -0.87658644
-2.2899952 2.0686109 -0.85141087
-2.6588032 2.4017649 -0.79373568
-3.1839538 2.8761466 -0.71531463
-3.923501 3.5441985 -0.58932507
-5.1247106 4.629282 -0.38574308
-12.411637 11.211749 0
-12.432204 11.230327 0.93578684
-2.0043035 1.8061452 -0.88962585
-2.2831762 2.057447 -0.8479507
-2.656039 2.393446 -0.79204649
-3.1817038 2.8671403 -0.71403033
-3.9316196 3.5429146 -0.58990109
-5.1457429 4.637002 -0.38690418
-12.454178 11.222878 0
-12.436115 11.206601 0.93506128
-2.0322142 1.8268517 -0.90103382
-2.2875245 2.0563622 -0.84864217
-2.6570411 2.3885379 -0.79148412
-3.1737151 2.8529999 -0.71146333
-3.9378195 3.5398891 -0.59018916
-5.1436124 4.6238327 -0.38632363
-12.454179 11.195641 0
-12.445779 11.188088 0.9347707
-2.001302 1.7946957 -0.88636601
-2.3086815 2.0703428 -0.85556251
-2.6637123 2.3887217 -0.792611
-3.17716 2.8491631 -0.71146333
-3.9382463 3.531678 -0.58961308
-5.1569338 4.6245532 -0.38690418
-12.452197 11.166684 0
-12.438014 11.153964 0.93317461
-1.9961007 1.7856847 -0.88310617
-2.2980983 2.0558476 -0.85071933
-2.6703804 2.3888862 -0.79373568
-3.1863346 2.8504517 -0.71274602
-3.9425108 3.5269167 -0.58961308
-5.1683297 4.623518 -0.38733974
-12.465681 11.151629 0
-12.472779 11.15798 0.9347707
-2.0056331 1.7898542 -0.88636601
-2.3118081 2.0630887 -0.85487098
-2.675159 2.3873479 -0.79429799
-3.1955242 2.8517289 -0.71403033
-3.9448416 3.5204301 -0.58932507
-5.1680946 4.6120777 -0.38690418
-12.502447 11.157353 0
-12.486253 11.1429 0.9347707
-2.0133271 1.7923551 -0.88880855
-2.2936926 2.041949 -0.84725922
-2.6780417 2.3841138 -0.79429799
-3.1817131 2.832505 -0.71017903
-3.9510224 3.517379 -0.58961308
-5.1678467 4.6006513 -0.38646919
-12.477043 11.107629 0
-12.497768 11.12608 0.93462569
-2.0228837 1.7964859 -0.89206839
-2.2999063 2.0425045 -0.84864217
-2.6752264 2.3758194 -0.792611
-3.1908934 2.8337739 -0.71146333
-3.9513981 3.5091641 -0.58903599
-5.179225 4.5995746 -0.38690418
-12.488511 11.090818 0
-12.49955 11.10062 0.93375516
-1.9991561 1.7710978 -0.88066047
-2.308008 2.0447166 -0.85071933
-2.6837952 2.3776352 -0.79429799
-3.1981544 2.8333175 -0.71231842
-3.9614451 3.5095341 -0.58990109
-5.1906157 4.598484 -0.38733974
-12.50775 11.080899 0
-12.516839 11.088952 0.93404514
-2.0068524 1.7735926 -0.88310617
-2.3067136 2.0386004 -0.8493337
-2.6847641 2.3727095 -0.79373568
-3.1958032 2.8243496 -0.71103412
-3.9618104 3.5013227 -0.58932507
-5.1922779 4.5887709 -0.38704976
-12.519174 11.06405 0
-12.522441 11.066936 0.93346459
-2.0516303 1.8087553 -0.90184802
-2.3129425 2.0391331 -0.85071933
-2.683821 2.3661065 -0.792611
-3.2030685 2.8238847 -0.71189088
-3.9660382 3.4965329 -0.58932507
-5.1978188 4.5824938 -0.38704976
-12.540342 11.055799 0
-12.529963 11.046648 0.93302959
-2.0371125 1.7915862 -0.89451408
-2.3172867 2.037992 -0.85141087
-2.7000284 2.374603 -0.79654956
-3.2122629 2.8250999 -0.71317518
-3.9780216 3.4985642 -0.59047717
-5.2150555 4.5865026 -0.38792032
-12.571278 11.056105 0
-12.547199 11.034928 0.93331963
-2.0374196 1.787495 -0.89369988
-2.3197474 2.0351906 -0.85141087
-2.6952555 2.3646362 -0.79429799
-3.2118111 2.8178272 -0.71231842
-3.9725266 3.4852278 -0.58903599
-5.2147317 4.5750551 -0.38748476
-12.598324 11.052922 0
-12.566385 11.024902 0.93375516
-2.0358546 1.7817732 -0.89206839
-2.3165395 2.0274279 -0.8493337
-2.6942904 2.3580341 -0.79317331
-3.2152135 2.8139443 -0.71231842
-3.9825757 3.4855371 -0.58990109
-5.2124348 4.5619059 -0.38690418
-12.574466 11.005132 0
-12.571877 11.002865 0.93317461
-1.9877412 1.7354275 -0.8700667
-2.3227711 2.0279303 -0.85071933
-2.693306 2.3514314 -0.79204649
-3.2089443 2.8016174 -0.71017903
-3.9809372 3.4756176 -0.58903599
-5.2218618 4.5590253 -0.38719475
-12.591672 10.993349 0
-12.575377 10.979123 0.93244904
-2.0532031 1.7882127 -0.89777398
-2.3176522 2.0185316 -0.8479507
-2.6961451 2.3481753 -0.79204649
-3.2142611 2.7994223 -0.71060658
-3.9812369 3.4674106 -0.58845991
-5.2352047 4.5595388 -0.3877753
-12.534303 10.916601 0
-12.572958 10.950268 0.93128794
-2.0161827 1.7516906 -0.88066047
-2.3257728 2.0206673 -0.85002786
-2.6932318 2.3399212 -0.79035944
-3.2234566 2.8005888 -0.71189088
-3.9893248 3.465987 -0.58903599
-5.2524753 4.5634317 -0.38864586
-12.32942 10.71199 0
-12.601872 10.948701 0.93244904
-2.0126927 1.7443953 -0.87821478
-2.3206296 2.0112832 -0.84725922
-2.7133362 2.3516409 -0.79542488
-3.2326598 2.8017375 -0.71317518
-3.9896047 3.4577794 -0.58845991
-5.2599473 4.5587821 -0.38879088
-12.245998 10.613573 0
-12.601346 10.921552 0.9314329
-2.0156131 1.7447951 -0.87902898
-2.3332214 2.0197294 -0.85141087
-2.7051528 2.3416879 -0.792611
-3.2188249 2.7863431 -0.70975149
-3.9936466 3.4570596 -0.58874792
-5.2587752 4.5522051 -0.38850087
-12.220925 10.578919 0
-12.566687 10.878224 0.92838514
-2.0682297 1.785975 -0.90103382
-2.3318663 2.0136325 -0.85002786
-2.7060516 2.3367522 -0.79204649
-3.2260714 2.785804 -0.71060658
-4.0036955 3.4573047 -0.58961308
-5.28197 4.5611305 -0.38980699
-12.245513 10.574347 0
-12.548355 10.83586 0.92606288
-2.0685155 1.7818631 -0.90021962
-2.3570995 2.0304556 -0.85833114
-2.708873 2.3334808 -0.79204649
-3.2274919 2.78023 -0.71017903
-4.0019894 3.4473984 -0.58874792
-5.2776356 4.546267 -0.38908142
-12.266169 10.566338 0
-12.537814 10.800339 0.92432123
-2.0238047 1.7390927 -0.87984627
-2.3424284 2.012892 -0.85210234
-2.717474 2.3351755 -0.79373568
-3.240582 2.784692 -0.71231842
-4.0081115 3.4442444 -0.58903599
-5.2772107 4.5348048 -0.38864586
-12.276955 10.549814 0
-12.564652 10.797038 0.92533737
-2.0446661 1.7527288 -0.88799435
-2.3334341 2.0002666 -0.8479507
-2.7241554 2.3352008 -0.79486251
-3.2361484 2.7740915 -0.71060658
-4.0083466 3.4360354 -0.58845991
-5.2945271 4.5385752 -0.38951698
-12.267957 10.516339 0
-12.57966 10.783538 0.92548233
-2.0561728 1.758287 -0.89206839
-2.3739834 2.030055 -0.86179394
-2.72118 2.326952 -0.79317331
