# .PCD v0.7 - Point Cloud Data file format
VERSION 0.7
FIELDS x y z
SIZE 4 4 4
TYPE F F F
COUNT 1 1 1
WIDTH 1714
HEIGHT 1
VIEWPOINT 0 0 0 1 0 0 0
POINTS 1714
DATA ascii
12.276373 5.940732 -0.76178008
14.151406 6.8480902 0
24.803181 12.002653 1.5391003
3.2410977 1.5732548 -0.99398953
4.0118785 1.9473979 -0.98792171
5.1554384 2.502491 -0.95539069
0 0 -0
12.262179 5.9521604 -0.76134509
14.208668 6.8970013 0
24.776974 12.026941 1.5383747
3.9935288 1.9444568 -0.98398101
5.1201029 2.4929879 -0.94940001
7.7255216 3.7615712 -0.95774341
12.247968 5.9635587 -0.7609095
14.228402 6.9278359 0
24.739065 12.045498 1.5369235
3.20347 1.5645669 -0.9836064
4.032269 1.9693501 -0.99411184
5.179369 2.5295911 -0.9609555
7.8209009 3.8197088 -0.97013915
12.261765 5.9886155 -0.76221561
14.238729 6.9541602 0
24.719818 12.073099 1.536633
3.2443852 1.5894079 -0.99675816
4.0047932 1.9619279 -0.98792171
5.1463332 2.5211625 -0.95539069
7.7884068 3.8155012 -0.96667963
12.266185 6.0091419 -0.76294118
14.199935 6.9564767 0
24.719219 12.10982 1.5375042
3.2379549 1.591112 -0.99537253
4.016098 1.9734869 -0.99129796
5.1041183 2.5081336 -0.94811565
7.7930765 3.8294721 -0.9678328
12.2286 6.0090623 -0.76105452
14.235891 6.9954333 0
24.718555 12.146553 1.5383747
3.2427828 1.5983517 -0.99744964
4.002317 1.9727224 -0.98848408
5.1195045 2.5233786 -0.9515394
7.7954059 3.8423171 -0.96869797
12.267944 6.0468097 -0.76395732
14.269451 7.0333424 0
24.724834 12.18675 1.5396808
4.0089178 1.9880319 -0.99129796
5.1432867 2.5505683 -0.9571026
7.7814589 3.858844 -0.96812081
12.267259 6.0833631 -0.76482785
14.306032 7.0943956 0
24.725573 12.261471 1.5415674
3.2100129 1.5966885 -0.98914373
4.0156126 1.9974009 -0.99354953
5.1402011 2.5567811 -0.9571026
7.7930036 3.876308 -0.97013915
12.2948 6.115541 -0.76700509
14.313763 7.1197906 0
24.692127 12.282081 1.5404063
3.2417567 1.6173673 -0.9995268
3.9677236 1.9795644 -0.98229182
5.1302238 2.5595553 -0.9558199
7.7767439 3.8799491 -0.96869797
12.296701 6.1350327 -0.76758564
14.321444 7.1452107 0
24.667969 12.307266 1.5398258
2.6934762 1.3478879 -0.99312097
3.2128778 1.6078104 -0.99122089
3.9880557 1.9957304 -0.98792171
5.1156511 2.5600095 -0.95368046
7.7674198 3.8870258 -0.96812081
12.319486 6.1650023 -0.7694723
14.305824 7.1590195 0
24.625204 12.323114 1.5380847
3.9936576 2.0015516 -0.98960876
5.1278691 2.5699985 -0.95624745
7.7535105 3.8859243 -0.96667963
12.31808 6.1736069 -0.76961732
14.350354 7.1921473 0
24.608461 12.333332 1.5375042
3.2166851 1.6170124 -0.99329799
3.984432 2.0029552 -0.98792171
5.1201682 2.5738845 -0.95539069
7.7927194 3.9173634 -0.97215748
12.308292 6.1873207 -0.7694723
14.369556 7.2235084 0
24.568001 12.350219 1.5359075
3.2124822 1.6197653 -0.99260384
3.9729338 2.0031924 -0.98567021
5.1262231 2.5846922 -0.9571026
7.7648807 3.9151294 -0.96927398
12.303124 6.2033567 -0.76961732
14.388694 7.2549214 0
24.5345 12.370537 1.5347464
3.9705102 2.0079916 -0.98567021
5.1208076 2.5897272 -0.95667499
7.7601442 3.9245088 -0.96927398
12.29562 6.2182183 -0.76961732
14.396176 7.2805247 0
24.498667 12.38962 1.5334402
3.9748814 2.016237 -0.9873594
5.1131005 2.5935924 -0.9558199
7.7415609 3.9268646 -0.96754479
12.288097 6.2330709 -0.76961732
14.433788 7.3214607 0
24.46051 12.40746 1.5319891
3.2065897 1.6313995 -0.99260384
3.9633837 2.0164297 -0.98510784
5.1282668 2.609081 -0.95924366
7.7368102 3.9362159 -0.96754479
12.280558 6.2479138 -0.76961732
14.445806 7.3495154 0
24.420023 12.424045 1.5303924
3.9541523 2.0177512 -0.98341864
5.1273947 2.6164412 -0.9596712
7.7366519 3.9479103 -0.96812081
12.28457 6.268652 -0.77034289
14.446187 7.3716969 0
24.386477 12.444094 1.5292313
3.9652784 2.0294714 -0.98679489
5.1036654 2.6121099 -0.9558199
7.736485 3.9596148 -0.96869797
12.290869 6.2905965 -0.77121401
14.469698 7.4057446 0
24.352917 12.46408 1.5280702
3.2095823 1.6475952 -0.99537253
3.9650903 2.0354247 -0.9873594
5.0959334 2.6159279 -0.95496315
7.7270885 3.9665954 -0.96812081
12.308681 6.3184929 -0.7728101
14.493149 7.4398599 0
24.321665 12.485194 1.5270547
3.2209764 1.6583648 -0.9995268
3.9581053 2.0378859 -0.98623252
5.1110277 2.631484 -0.9583869
7.7176952 3.9735634 -0.96754479
12.314903 6.3404999 -0.77368122
14.509603 7.4704719 0
24.281145 12.501488 1.525458
3.1855316 1.6449879 -0.98914373
3.9601598 2.045001 -0.9873594
5.1101232 2.6388345 -0.95881444
7.6945033 3.9733918 -0.96523845
12.314153 6.3589487 -0.77411622
14.519065 7.4975514 0
24.245245 12.520088 1.5241519
3.2013633 1.6580662 -0.994681
3.9509151 2.0462778 -0.98567021
5.1000991 2.6414688 -0.95753175
7.7195516 3.9981489 -0.96898597
12.324919 6.3833838 -0.77527738
14.535418 7.5282564 0
24.213945 12.541009 1.5231358
3.2015817 1.6630886 -0.99537253
3.946187 2.04988 -0.98510784
5.1174035 2.6582785 -0.96138304
7.705534 4.0027046 -0.9678328
12.324117 6.401866 -0.77571291
14.544777 7.555407 0
24.173416 12.557085 1.5215397
3.9527209 2.0593426 -0.9873594
5.0959749 2.6549709 -0.95795935
7.6984 4.010818 -0.96754479
12.318674 6.4179521 -0.77585793
14.558722 7.5850029 0
24.132875 12.573076 1.519943
3.2064474 1.6754681 -0.99814117
3.9614873 2.0699999 -0.99017328
5.1109648 2.6706374 -0.96138304
7.7095885 4.0284986 -0.96956199
12.317822 6.4364433 -0.77629346
14.565686 7.611022 0
24.110754 12.598616 1.5195074
3.9544778 2.0724239 -0.98904639
5.1031823 2.6744256 -0.96052629
7.6978488 4.0342131 -0.96869797
12.307736 6.4501171 -0.77614844
14.538047 7.6189566 0
24.074802 12.616885 1.5182012
3.202389 1.6832119 -0.99814117
3.9519708 2.0772007 -0.98904639
5.109036 2.6853671 -0.96223819
7.6998305 4.0471182 -0.96956199
12.302231 6.4661918 -0.77629346
14.547251 7.6461997 0
24.043446 12.637506 1.5171857
3.1759472 1.6742145 -0.99052936
3.9517035 2.083158 -0.98960876
5.1012502 2.6891465 -0.96138304
7.683497 4.0503893 -0.96812081
12.294409 6.4810519 -0.77629346
14.54031 7.6649885 0
23.995974 12.649583 1.5151535
3.9514365 2.0891223 -0.99017328
5.091187 2.6917078 -0.96009874
7.6900277 4.0657139 -0.96956199
12.291159 6.4983292 -0.77658349
14.574745 7.7056599 0
23.957705 12.666426 1.5137024
3.9421725 2.0903232 -0.98848408
5.1060743 2.7074783 -0.96352249
7.6805439 4.0725818 -0.96898597
12.283298 6.513176 -0.77658349
14.599915 7.7415538 0
23.935492 12.691711 1.5132668
3.9441264 2.0974689 -0.98960876
5.1005349 2.7124417 -0.96309495
7.6778989 4.0830722 -0.96927398
12.268543 6.5243564 -0.77614844
14.618124 7.7738528 0
23.890316 12.704763 1.5113802
3.1943729 1.7037078 -0.99883264
3.9371095 2.0998437 -0.98848408
5.1017795 2.7210166 -0.96395004
7.6798081 4.0959992 -0.97013915
12.272112 6.545289 -0.77687401
14.622493 7.7988563 0
23.852024 12.721395 1.5099291
3.1867108 1.7020949 -0.99675816
3.9425662 2.1058145 -0.99017328
5.0956106 2.7216818 -0.96309495
7.6636481 4.0933294 -0.96840996
12.268156 6.552702 -0.77687401
14.636144 7.8174982 0
23.823709 12.724787 1.5086229
3.1890705 1.7083112 -0.99814117
3.9400187 2.1105769 -0.99017328
5.0877881 2.7254102 -0.96223819
7.6678076 4.1074667 -0.96956199
12.269391 6.5724287 -0.77745456
14.635863 7.8400931 0
23.789991 12.743748 1.5074618
3.1914284 1.7145402 -0.9995268
3.9397018 2.1165373 -0.99073559
5.0844913 2.7315559 -0.96223819
7.6537337 4.1118374 -0.96840996
12.26144 6.5872493 -0.77745456
14.63096 7.8602328 0
23.726509 12.74666 1.504414
3.9393764 2.1225002 -0.99129796
5.0766716 2.7352645 -0.96138304
7.6555843 4.1247592 -0.96927398
12.248893 6.5995922 -0.77716404
14.609999 7.8717346 0
23.649324 12.742042 1.5004951
3.182857 1.7198601 -0.99814117
3.9390421 2.1284654 -0.99186033
5.0801401 2.745059 -0.96266735
7.6414924 4.1290884 -0.96812081
12.24777 6.6180949 -0.77759957
13.627444 7.3636031 0
23.558481 12.72985 1.4957062
3.9342356 2.132014 -0.99129796
5.0790744 2.7524171 -0.96309495
7.6478658 4.1444788 -0.96956199
12.2352 6.6304154 -0.7773096
13.714633 7.4321399 0
23.483681 12.726115 1.4919323
3.1742873 1.7251531 -0.99675816
3.9316566 2.1367662 -0.99129796
5.0847669 2.7634554 -0.9648068
7.6360412 4.1500154 -0.96869797
12.22489 6.64395 -0.77716404
13.703349 7.4474597 0
23.429476 12.733389 1.4894651
3.9313006 2.14273 -0.99186033
5.0769119 2.767138 -0.96395004
7.6332903 4.1604753 -0.96898597
12.205447 6.6525002 -0.77643847
13.692058 7.4627676 0
23.402668 12.755473 1.4887395
3.170109 1.7328191 -0.99675816
3.9287088 2.1474786 -0.99186033
5.0713143 2.7720404 -0.96352249
7.6282573 4.1696959 -0.96898597
12.1974 6.667243 -0.77643847
13.685312 7.4805536 0
23.364441 12.77128 1.4872884
3.9283454 2.1534491 -0.99242479
5.0814629 2.7855675 -0.96608949
7.6232138 4.1789098 -0.96898597
12.207563 6.6919689 -0.77759957
13.644319 7.4795723 0
23.346716 12.798255 1.4871434
3.9435534 2.1679869 -0.99692792
5.0758457 2.7904699 -0.96566194
7.6204228 4.189363 -0.96927398
12.194919 6.7042131 -0.7773096
13.632992 7.494801 0
23.33806 12.830207 1.4875784
3.9297991 2.1666129 -0.99411184
5.0679789 2.7941246 -0.9648068
7.6130924 4.19732 -0.96898597
12.18681 6.7189436 -0.7773096
13.619364 7.5087528 0
23.320267 12.857143 1.4874334
3.9227352 2.1689031 -0.99298716
5.071332 2.8039691 -0.96608949
7.6148081 4.2102718 -0.96985114
12.176401 6.7324033 -0.77716404
13.59206 7.5151296 0
23.288794 12.87651 1.4864173
3.9245517 2.1761034 -0.99411184
5.0724349 2.8125868 -0.96694624
7.5984073 4.2131996 -0.96840996
12.163717 6.7445931 -0.77687401
13.58297 7.5315475 0
13.649744 7.5685725 0.87178379
3.9174824 2.1783764 -0.99298716
5.0667911 2.8174675 -0.96651864
7.5910439 4.221117 -0.96812081
12.141929 6.7517066 -0.77600288
13.57614 7.5492225 0
13.633774 7.5812702 0.87134826
3.9192815 2.1855812 -0.99411184
5.0656228 2.8248367 -0.96694624
7.5994964 4.2378469 -0.96985114
12.124692 6.7613153 -0.77542293
13.57155 7.5681539 0
13.615525 7.5926762 0.87076771
3.909991 2.1865981 -0.99242479
5.0577207 2.8284471 -0.96608949
7.58534 4.2419767 -0.96869797
12.100636 6.7670817 -0.77440679
13.548772 7.5769277 0
13.606341 7.6091223 0.87076771
3.920639 2.198776 -0.99580103
5.0610185 2.8383245 -0.96737379
7.5824628 4.2524028 -0.96898597
12.078848 6.7740693 -0.77353567
13.532795 7.5894728 0
13.619797 7.6382651 0.87221879
3.9157667 2.2022672 -0.99523872
5.0620646 2.846957 -0.96823055
7.575067 4.2602949 -0.96869797
12.041213 6.7721014 -0.771649
13.532688 7.6109223 0
13.592447 7.6445312 0.87105823
3.915314 2.2082441 -0.99580103
5.0653224 2.8568509 -0.96951324
7.5676627 4.2681756 -0.96840996
12.00134 6.7687774 -0.76961732
13.51215 7.6208768 0
13.585462 7.6622248 0.87120324
3.9126427 2.2129734 -0.99580103
5.0596342 2.8617067 -0.96908563
7.5602422 4.2760396 -0.96812081
11.956964 6.7628064 -0.76729512
13.450829 7.607729 0
19.915543 11.264143 1.2780081
3.9165986 2.2214613 -0.99749023
5.0561728 2.8678181 -0.96908563
7.5550699 4.2851715 -0.96812081
11.919404 6.7605844 -0.7654084
13.414461 7.6085682 0
19.908701 11.292046 1.2784437
3.9130485 2.2225735 -0.99692792
5.0678277 2.8784769 -0.97165263
7.5524797 4.2897348 -0.96812081
11.8611 6.7369895 -0.76192564
13.384976 7.6025362 0
19.877018 11.289953 1.276847
3.9081459 2.2260389 -0.9963634
5.0554323 2.8795211 -0.96994239
7.5495448 4.3001413 -0.96840996
11.814569 6.7294545 -0.75945842
13.35543 7.6071124 0
19.874649 11.320392 1.2775726
3.907666 2.2320232 -0.99692792
5.051949 2.8856275 -0.96994239
7.5443435 4.3092604 -0.96840996
11.786116 6.7321224 -0.75815171
13.325892 7.6116285 0
19.847424 11.336668 1.276702
3.9005523 2.234215 -0.99580103
5.0439997 2.8891754 -0.96908563
7.5301538 4.313231 -0.96725678
11.773468 6.7437782 -0.75786173
13.298619 7.6173763 0
19.808907 11.346434 1.2751054
3.9000509 2.2401907 -0.9963634
5.0494089 2.9003823 -0.97079754
7.5294175 4.3249006 -0.9678328
11.776574 6.7644691 -0.7585873
15.067595 8.6548328 0
19.795181 11.37036 1.2751054
3.9017491 2.2474406 -0.99749023
5.0436783 2.9052014 -0.97036994
7.5353904 4.3404489 -0.96927398
11.781906 6.786478 -0.75945842
15.048106 8.6678371 0
19.763416 11.383895 1.2739443
3.9056334 2.2559674 -0.99917942
5.0379434 2.9100108 -0.96994239
7.523428 4.3456736 -0.96840996
11.787194 6.8085051 -0.76032895
15.066916 8.7029343 0
19.724901 11.393475 1.2723482
3.8963065 2.2568631 -0.99749023
5.0499663 2.9250991 -0.97293693
7.5248795 4.3586464 -0.96927398
11.805941 6.8383713 -0.76207066
15.074406 8.7315693 0
19.697624 11.409483 1.271477
3.8935766 2.2615693 -0.99749023
5.0419931 2.9286227 -0.97208184
7.5129042 4.363842 -0.96840996
11.808901 6.8591557 -0.76279616
15.090849 8.7654629 0
19.677082 11.429358 1.2710414
3.8974302 2.2701101 -0.99917942
5.0428829 2.9372942 -0.97293693
7.5098586 4.374217 -0.96869797
11.832035 6.8917265 -0.76482785
15.104986 8.7981005 0
19.661015 11.451819 1.2708964
3.8946843 2.2748177 -0.99917942
5.0371156 2.9420919 -0.97250938
7.5000968 4.3806767 -0.96812081
11.837166 6.9138837 -0.76569897
15.146025 8.8465309 0
19.658379 11.48212 1.2716221
3.8919327 2.2795219 -0.99917942
5.0246964 2.9429867 -0.97079754
7.4992657 4.3923526 -0.96869797
11.85346 6.9426236 -0.76729512
15.157777 8.8779764 0
19.666916 11.518999 1.2730737
3.8891757 2.2842231 -0.99917942
5.0299911 2.9542563 -0.97250938
7.4961815 4.4027195 -0.96898597
11.854026 6.9622049 -0.76787567
15.162749 8.9055119 0
19.69331 11.566439 1.2756859
5.0396852 2.9681456 -0.97507638
7.4908562 4.4117742 -0.96898597
11.836649 6.9712486 -0.76729512
15.169917 8.9343929 0
19.708426 11.607368 1.2775726
5.0360951 2.9742329 -0.97507638
7.4855199 4.4208221 -0.96898597
11.841645 6.9934764 -0.76816618
15.183763 8.9672747 0
19.739132 11.6576 1.2804754
5.0288925 2.9863946 -0.97507638
7.4725928 4.4375792 -0.96869797
11.829174 7.0247235 -0.76845622
15.202322 9.0278587 0
19.777925 11.745069 1.2848293
5.0274925 2.9937861 -0.97550559
7.4627762 4.4439559 -0.96812081
11.829608 7.0443296 -0.76903677
15.204814 9.0542078 0
19.79274 11.78624 1.286716
5.0172572 2.9959092 -0.97422123
7.4618468 4.4556246 -0.96869797
11.823317 7.0599494 -0.76918179
15.205033 9.0792427 0
19.816408 11.832792 1.2891831
5.0202432 3.0059268 -0.97550559
7.4675512 4.4712801 -0.97013915
11.821467 7.0782361 -0.76961732
15.211914 9.108304 0
19.842222 11.880753 1.2917954
5.0166073 3.0119905 -0.97550559
7.4488425 4.4723139 -0.96840996
11.821817 7.0978651 -0.77019787
15.207593 9.1306982 0
19.867954 11.928798 1.2944082
5.0195556 3.0220184 -0.97678822
7.4500742 4.4853096 -0.96927398
11.822137 7.1175051 -0.77077842
15.221077 9.1638336 0
19.886913 11.972896 1.2965848
5.0202999 3.0307372 -0.97764498
7.4424372 4.4929729 -0.96898597
11.833547 7.1438699 -0.77208453
15.250093 9.2064266 0
19.896904 12.011689 1.2981815
5.0056562 3.0301554 -0.97550559
7.434792 4.5006242 -0.96869797
11.84491 7.1702724 -0.77339065
15.276804 9.247757 0
19.929054 12.063979 1.3012294
5.0104041 3.0371673 -0.97678822
7.4254341 4.5010915 -0.9678328
11.845024 7.1801238 -0.77368122
15.331297 9.2934055 0
19.957306 12.097563 1.303551
5.0133138 3.0472207 -0.97807252
7.4332471 4.5181184 -0.96956199
11.856321 7.2065763 -0.77498734
15.34007 9.3240881 0
19.991528 12.151363 1.3067443
5.0030499 3.0492668 -0.97678822
7.414535 4.5190225 -0.9678328
11.858697 7.2276578 -0.77571291
15.377687 9.3724165 0
20.010107 12.195791 1.308921
5.0015583 3.0566523 -0.97721744
7.422307 4.5360684 -0.96956199
11.858824 7.2474012 -0.77629346
15.381888 9.4004869 0
20.021961 12.236221 1.3106627
4.9978614 3.0626934 -0.97721744
7.4124141 4.5423331 -0.96898597
11.85892 7.2671556 -0.77687401
15.379395 9.4245052 0
20.047037 12.284841 1.313275
5.0007124 3.072758 -0.97850013
7.4047184 4.5499334 -0.96869797
11.861198 7.28828 -0.77759957
15.38795 9.4553423 0
20.067602 12.33082 1.3155972
5.0057378 3.0841844 -0.98021197
7.4014153 4.5602326 -0.96898597
11.850173 7.3012452 -0.77745456
15.376513 9.4739285 0
20.065958 12.363235 1.3164678
5.0020075 3.0902307 -0.98021197
7.3937016 4.5678144 -0.96869797
11.841342 7.3155584 -0.77745456
15.356199 9.48703 0
22.069183 13.634299 1.4489733
4.9895411 3.0908649 -0.97850013
7.3903737 4.5781059 -0.96898597
11.834701 7.3312278 -0.77759957
12.847056 7.9583507 0
22.043858 13.655482 1.4483926
4.9901681 3.0996032 -0.97935688
7.3892264 4.5897593 -0.96956199
11.825834 7.3455224 -0.77759957
12.833014 7.9711246 0
22.016306 13.675254 1.4476671
4.9842424 3.1042747 -0.97892928
7.3902636 4.6027875 -0.97042716
11.836799 7.3721685 -0.77890569
12.794657 7.96874 0
21.990944 13.696351 1.4470866
4.9870133 3.1143703 -0.98021197
7.3715382 4.6034966 -0.96869797
11.889593 7.425004 -0.78296959
12.769566 7.9745431 0
21.952343 13.709152 1.4456354
4.9854202 3.1217549 -0.98063952
7.3747387 4.6178908 -0.96985114
11.975307 7.4986596 -0.7892102
12.729044 7.970633 0
21.933563 13.734289 1.4454905
4.9773006 3.1250491 -0.97978443
7.3669567 4.6254191 -0.96956199
12.052055 7.5670061 -0.7948702
12.699569 7.9735541 0
21.903744 13.752489 1.4446193
4.9778619 3.1337936 -0.98063952
7.3635578 4.6356993 -0.96985114
12.091277 7.6120167 -0.79806298
12.678915 7.9819622 0
21.867321 13.766487 1.4433132
4.9740715 3.139806 -0.98063952
7.360136 4.6459727 -0.97013915
12.115032 7.6474276 -0.80024022
12.658252 7.9903264 0
21.833092 13.781803 1.4421521
4.9789505 3.1513054 -0.98235142
7.3610754 4.6590137 -0.97100431
12.136518 7.6815133 -0.8022719
12.633201 7.9958768 0
21.798859 13.797057 1.440991
4.9729738 3.1559451 -0.98192382
7.3445153 4.6609712 -0.96956199
12.144778 7.7073107 -0.803433
12.616936 8.0069513 0
21.777788 13.820604 1.440701
4.9691567 3.1619518 -0.98192382
7.3454266 4.6740088 -0.97042716
12.139846 7.7247725 -0.80372357
12.596275 8.0152054 0
21.745726 13.837143 1.4396849
4.9696651 3.1707177 -0.98278058
7.3463173 4.6870561 -0.97129232
12.150216 7.7520127 -0.80502969
12.56903 8.0192213 0
21.722424 13.85922 1.4392499
4.9658303 3.1767204 -0.98278058
7.3232179 4.6847787 -0.96898597
12.158351 7.7778902 -0.80619079
12.548371 8.0273924 0
12.663851 8.1012659 0.83970922
4.9617424 3.1783311 -0.98235142
7.3225622 4.6905961 -0.96927398
12.195216 7.8118601 -0.80894804
12.534754 8.029357 0
12.648016 8.1019087 0.83898365
4.9687042 3.1912646 -0.98449248
7.3277683 4.7064281 -0.97071517
12.236056 7.8588886 -0.81228638
12.509712 8.0346508 0
12.618542 8.1045485 0.83767754
4.9648442 3.1972659 -0.98449248
7.3177314 4.7124805 -0.97013915
12.259315 7.8947668 -0.81446308
12.497808 8.0483522 0
12.58908 8.1071301 0.83637142
4.9674411 3.2074361 -0.98577511
7.305511 4.7171087 -0.96927398
12.278143 7.927896 -0.81634974
12.479329 8.0578012 0
12.561811 8.1110592 0.83521032
4.9571033 3.2092547 -0.98449248
7.3128376 4.7343693 -0.97100431
12.286004 7.9540234 -0.81751084
12.458663 8.0658035 0
12.538918 8.1177616 0.8343398
4.9575243 3.2180347 -0.98534757
7.3049359 4.7417893 -0.97071517
12.302539 7.9858403 -0.81925249
12.45545 8.0850983 0
12.509487 8.1201744 0.83303368
4.9514828 3.2226236 -0.98492002
7.299201 4.7506127 -0.97071517
12.319015 8.0177088 -0.8209942
12.443493 8.0987244 0
12.499666 8.1352844 0.83303368
4.9454374 3.2272027 -0.98449248
7.2912912 4.7580166 -0.97042716
12.346309 8.0567274 -0.82346141
12.43152 8.1123333 0
12.481123 8.144701 0.83245307
4.9436808 3.23458 -0.98492002
7.2833748 4.7654085 -0.97013915
12.356133 8.0844421 -0.82476753
12.439132 8.1387472 0
12.449525 8.1455469 0.8310014
4.9440575 3.2433646 -0.98577511
7.2819324 4.7770405 -0.97071517
12.372427 8.1164694 -0.82650924
12.446697 8.1651917 0
12.437503 8.1591597 0.83085644
4.9379921 3.2479267 -0.98534757
7.2804809 4.788681 -0.97129232
12.375632 8.1399784 -0.82737976
12.454216 8.1916666 0
12.42112 8.1698971 0.83042085
4.938354 3.2567203 -0.98620433
7.2682099 4.7932014 -0.97042716
12.372297 8.1592188 -0.82781535
12.444309 8.2067089 0
12.393886 8.1734552 0.82925975
4.9301286 3.2598505 -0.98534757
7.2688875 4.8062611 -0.97129232
12.37543 8.1827583 -0.82868588
12.434384 8.2217388 0
12.381835 8.1869936 0.82911474
4.9347448 3.2714789 -0.98705947
7.2544518 4.8093238 -0.97013915
12.365534 8.1977053 -0.82868588
12.441793 8.2482615 0
12.367606 8.1990795 0.82882476
4.9350595 3.2802787 -0.98791456
7.2572513 4.823813 -0.97129232
12.362114 8.216958 -0.82912147
12.427479 8.2604055 0
12.359852 8.2154541 0.82896978
4.9246902 3.2819726 -0.98663187
7.2428083 4.8268414 -0.97013915
12.360826 8.2376528 -0.82970202
12.441313 8.2912922 0
12.349916 8.2303829 0.82896978
4.9228535 3.2893455 -0.98705947
7.2434244 4.8399014 -0.97100431
12.353021 8.2540245 -0.82984698
12.431286 8.3063192 0
12.350763 8.2525158 0.82969528
4.903944 3.2852886 -0.98406327
7.239718 4.8500881 -0.97129232
12.345196 8.2703896 -0.829992
12.442857 8.3358164 0
12.332148 8.2616482 0.82911474
4.9127612 3.2998025 -0.98663187
7.2402954 4.8631606 -0.97215748
12.339511 8.2882013 -0.83028257
12.445734 8.3595486 0
12.326474 8.2794437 0.82940531
4.9172873 3.3114719 -0.98834378
7.2322626 4.8704567 -0.97186834
12.331641 8.3045549 -0.83042759
12.448581 8.3833055 0
12.327235 8.3015881 0.83013088
4.9047723 3.3116651 -0.98663187
7.2199473 4.8748536 -0.97100431
12.310832 8.3121805 -0.82970202
12.444914 8.4027119 0
12.319346 8.3179293 0.83027589
4.9113941 3.3247831 -0.98877132
7.209764 4.8806715 -0.97042716
12.294322 8.3226786 -0.82926643
16.068098 10.877347 0
12.315744 8.3371801 0.83071142
4.9073734 3.3307152 -0.98877132
7.2188444 4.8995485 -0.97244549
12.286413 8.3389912 -0.82941198
16.035564 10.883602 0
12.312114 8.3564348 0.83114702
4.9012251 3.3351994 -0.98834378
7.2043657 4.9024472 -0.97129232
12.269881 8.3494434 -0.82897645
16.061127 10.929321 0
12.3063 8.3742256 0.83143699
4.9013286 3.3396039 -0.98877132
7.2099524 4.9126244 -0.97244549
12.284159 8.3700218 -0.83028257
16.108288 10.975657 0
12.303384 8.3831215 0.83158201
4.9057684 3.351316 -0.99048316
7.1954684 4.9154968 -0.97129232
12.29764 8.4009829 -0.83187926
16.107912 11.003923 0
12.308267 8.4082432 0.83259809
4.9017153 3.3572412 -0.99048316
7.1831198 4.9198012 -0.97042716
12.308914 8.4305162 -0.83333033
16.116072 11.038082 0
12.302382 8.4260426 0.83288813
4.9018836 3.366065 -0.99133831
7.1920972 4.9387274 -0.97244549
12.309426 8.4527369 -0.8340559
16.115599 11.066389 0
12.305048 8.4497299 0.83375919
4.8957005 3.3705313 -0.99091077
7.1797309 4.9430127 -0.97158033
12.307765 8.4734983 -0.83463645
16.198666 11.152258 0
12.29269 8.4631195 0.83361423
4.8937345 3.3779011 -0.99133831
7.1822677 4.9575615 -0.9727335
12.297518 8.4883633 -0.83463645
16.225876 11.199913 0
20.761091 14.330347 1.409062
4.8875408 3.3823524 -0.99091077
7.1741476 4.9647655 -0.97244549
12.297934 8.5106087 -0.83536202
16.229452 11.231359 0
20.735214 14.349507 1.4084815
4.8897796 3.392647 -0.99219507
7.1702662 4.9749036 -0.9727335
12.296181 8.5313864 -0.83594257
16.2458 11.271728 0
20.707188 14.367146 1.4077559
4.8856769 3.3985529 -0.99219507
7.1706219 4.9879961 -0.97359866
12.290133 8.5492086 -0.83623314
16.266352 11.315127 0
20.67915 14.384739 1.4070303
4.875248 3.4000471 -0.99091077
7.1603422 4.9936953 -0.97302151
12.290449 8.5714827 -0.83695871
16.280416 11.354126 0
20.653229 14.403769 1.4064498
4.8733253 3.4162407 -0.99219507
7.1461377 5.009501 -0.9727335
12.31863 8.6354609 -0.84029651
16.329639 11.44721 0
20.592827 14.43574 1.404708
4.8754964 3.4265563 -0.99347937
7.1379657 5.0166464 -0.97244549
12.497384 8.783309 -0.85321319
16.332829 11.478905 0
20.556238 14.447165 1.403402
4.8713527 3.4324448 -0.99347937
7.1488132 5.0371857 -0.97475183
12.756511 8.9884729 -0.87164491
16.344477 11.51662 0
20.517529 14.457029 1.4019508
4.8713908 3.441288 -0.99433446
7.1363821 5.0413413 -0.97388667
12.841142 9.0713444 -0.87817609
16.356056 11.554379 0
20.489435 14.474316 1.4012253
4.8756089 3.4531062 -0.99604636
7.1366196 5.0544467 -0.97475183
12.881063 9.1228981 -0.88165945
16.378185 11.599703 0
20.465569 14.494555 1.4007897
4.8672428 3.4560196 -0.99518961
7.1220713 5.0570765 -0.97359866
12.88698 9.1504908 -0.88282055
16.400229 11.645098 0
20.441681 14.514759 1.4003541
4.8735256 3.4693463 -0.99733067
7.1222792 5.0701799 -0.97446382
12.901308 9.1841326 -0.88456166
16.394627 11.670942 0
20.41143 14.53041 1.3994836
4.8630595 3.4707572 -0.99604636
7.1119328 5.0757742 -0.97388667
12.915582 9.2178288 -0.88630331
16.386869 11.695281 0
20.372705 14.539964 1.3980319
4.8609481 3.4781232 -0.99647391
7.1078959 5.0858674 -0.97417468
12.917118 9.2425032 -0.88717443
16.444683 11.76656 0
20.348787 14.560039 1.397597
4.8588457 3.4810593 -0.99647391
7.1153331 5.0976911 -0.97561586
12.917863 9.2548409 -0.88760942
16.494686 11.817411 0
20.329428 14.564764 1.3968713
4.856719 3.4884238 -0.99690145
7.0965676 5.0972342 -0.97388667
12.927779 9.2856045 -0.88906109
16.524782 11.869215 0
20.297039 14.578705 1.3958553
4.850419 3.4927909 -0.99647391
7.1008959 5.1133614 -0.97532785
12.939738 9.3179169 -0.89065725
16.567444 11.93023 0
20.266752 14.594106 1.3949841
4.8441162 3.497148 -0.99604636
7.0905223 5.1189127 -0.97475183
12.968501 9.3624449 -0.89341503
16.580446 11.970042 0
20.230145 14.604897 1.3936781
4.8378091 3.5014949 -0.99561882
7.084332 5.1274762 -0.97475183
12.967702 9.3857241 -0.8941406
16.584949 12.003805 0
20.20196 14.621714 1.3929524
4.8398023 3.5118566 -0.99690145
7.0718489 5.131474 -0.97388667
12.987901 9.4242783 -0.89631784
16.572538 12.025363 0
20.182177 14.644588 1.3928075
4.8376369 3.5192163 -0.99733067
7.0719199 5.1445813 -0.97475183
12.987008 9.447607 -0.89704335
16.591669 12.069875 0
20.145557 14.655209 1.3915013
4.8313012 3.5235422 -0.99690145
7.0761456 5.1607418 -0.97619301
12.996572 9.4786005 -0.89849448
16.604404 12.109848 0
20.119438 14.673415 1.3909208
4.8270402 3.5293772 -0.99690145
7.061553 5.1631818 -0.97503984
12.978816 9.4896946 -0.89805895
16.650682 12.174447 0
20.093302 14.69158 1.3903402
4.822772 3.5352073 -0.99690145
7.0678215 5.180882 -0.97676903
12.971536 9.5084457 -0.89834946
16.690531 12.234558 0
20.062958 14.706628 1.3894691
4.8267713 3.5471127 -0.99861336
7.0490551 5.1802316 -0.97503984
12.96632 9.5287304 -0.89878505
16.717669 12.285533 0
20.028431 14.718555 1.3883085
4.8204169 3.5514212 -0.99818575
7.0511198 5.1948819 -0.97619301
12.954797 9.5443907 -0.89878505
16.719574 12.318073 0
20.006443 14.739659 1.388018
4.8181849 3.5587666 -0.99861336
7.0469165 5.2049332 -0.97648102
12.962065 9.5739288 -0.90009117
16.744453 12.367646 0
19.976082 14.754562 1.3871474
4.8076982 3.5600073 -0.99733067
7.0426984 5.214982 -0.97676903
12.942134 9.5833988 -0.89951062
16.806883 12.44517 0
19.949886 14.772504 1.3865669
4.8033934 3.565814 -0.99733067
7.0405498 5.2265739 -0.97734618
12.93889 9.6052256 -0.90009117
16.864964 12.519759 0
19.913246 14.78266 1.3852608
4.7990813 3.5716155 -0.99733067
7.0342293 5.2350774 -0.97734618
12.921019 9.6161966 -0.89965558
16.893665 12.572756 0
19.89328 14.805155 1.3851153
4.8009286 3.5820124 -0.99861336
7.0237484 5.2404766 -0.97676903
12.90731 9.63025 -0.89951062
16.93269 12.63362 0
19.858715 14.816751 1.383954
4.7986584 3.5893528 -0.99904251
7.0236268 5.2536087 -0.97763419
12.891499 9.6427231 -0.89922005
16.959093 12.685246 0
19.828316 14.8314 1.3830836
4.7881546 3.5905268 -0.99775821
7.0152063 5.2605414 -0.97734618
12.873607 9.6536207 -0.89878505
16.970818 12.726026 0
19.810381 14.855348 1.3830836
4.7920203 3.6024799 -0.99947011
7.0047059 5.2659025 -0.97676903
12.8557 9.6644831 -0.89834946
17.009512 12.787179 0
19.77165 14.863663 1.3816324
4.7876639 3.6082675 -0.99947011
7.0066004 5.2805896 -0.9779222
12.846087 9.681572 -0.89849448
16.996124 12.809287 0
19.745377 14.881286 1.3810519
6.99196 5.282815 -0.97676903
12.861328 9.7174492 -0.90038115
0 0 0
19.719088 14.898868 1.3804713
7.0000062 5.3021932 -0.97878736
12.868217 9.7471018 -0.90168726
16.977571 12.859755 0
19.686569 14.911699 1.3794552
6.9864993 5.2986078 -0.97734618
12.870607 9.7611551 -0.90226781
16.955282 12.858999 0
19.67342 14.920453 1.3791652
6.9842057 5.3101735 -0.9779222
12.862945 9.7798481 -0.90255839
16.935585 12.876324 0
19.640896 14.933204 1.378149
6.9819026 5.3217478 -0.97849935
13.677701 10.425421 -0.96061087
16.901386 12.88258 0
19.60837 14.945897 1.377133
6.9795737 5.3333178 -0.97907537
13.658906 10.437212 -0.96017581
16.875471 12.895093 0
19.58617 14.966427 1.376843
6.9690213 5.3386045 -0.97849935
13.625652 10.437903 -0.95872414
16.868141 12.921805 0
19.553631 14.979019 1.3758268
4.7568026 3.6530678 -0.99989766
6.9625659 5.3470216 -0.97849935
13.588301 10.435368 -0.95698249
16.873152 12.958026 0
19.521097 14.991561 1.3748113
6.9561 5.3554306 -0.97849935
13.550982 10.432763 -0.95524138
16.904915 13.014921 0
19.492668 15.007207 1.3740852
6.9557686 5.3685741 -0.97936451
13.528075 10.441186 -0.95451528
16.934498 13.070317 0
19.468355 15.02599 1.3736502
6.9513202 5.3785563 -0.97965252
13.511343 10.454348 -0.95422524
16.949568 13.11466 0
19.433744 15.036782 1.3724891
6.9468579 5.3885355 -0.97994053
13.500752 10.472257 -0.95437026
16.985117 13.175007 0
19.403238 15.050694 1.3716179
6.9423819 5.3985114 -0.98022854
13.492195 10.491755 -0.95466083
16.991777 13.213089 0
19.380939 15.070942 1.371328
6.92974 5.4021301 -0.97936451
13.489753 10.516037 -0.9553864
17.02301 13.270413 0
19.350416 15.08476 1.3704568
6.9272795 5.4136815 -0.97994053
13.477036 10.532329 -0.9553864
17.039764 13.316607 0
19.33013 15.106532 1.3703119
6.9248009 5.4252353 -0.98051655
13.474525 10.556617 -0.95611191
17.062588 13.367683 0
19.301636 15.121866 1.3695862
6.9182405 5.4335985 -0.98051655
13.474017 10.582517 -0.95698249
17.095545 13.42687 0
19.269045 15.133942 1.3685702
6.9116702 5.4419537 -0.98051655
13.48164 10.614867 -0.95843416
17.120195 13.479711 0
19.242577 15.150784 1.3679895
6.9111824 5.4551105 -0.98138171
13.485122 10.644029 -0.95959526
17.144751 13.532636 0
19.21406 15.165976 1.367264
6.9025593 5.461854 -0.9810937
13.476322 10.663537 -0.9598853
17.175322 13.59048 0
19.17942 15.176281 1.3661029
6.9020357 5.4750137 -0.98195887
13.479713 10.692732 -0.9610464
17.189472 13.635485 0
19.148857 15.189759 1.3652323
6.8873177 5.4769101 -0.9808057
13.470855 10.712249 -0.96133697
17.215759 13.690259 0
19.124386 15.208032 1.3647968
6.8908052 5.493288 -0.98224688
13.459931 10.730136 -0.96148193
17.256184 13.756475 0
19.099907 15.226274 1.3643618
6.8801179 5.4983778 -0.98166972
13.473342 10.767479 -0.96336865
17.284271 13.813057 0
19.065256 15.236364 1.3632007
6.8808374 5.5057683 -0.98224688
13.479004 10.785355 -0.96423918
17.290142 13.834874 0
19.045897 15.239758 1.3624746
6.870141 5.5108385 -0.98166972
13.486236 10.817896 -0.96569085
17.344467 13.912752 0
19.019369 15.256263 1.3618946
6.8715396 5.525619 -0.9828229
13.497446 10.853717 -0.96743196
17.341835 13.94511 0
18.990789 15.271087 1.3611685
6.8588228 5.5290527 -0.98195887
13.504556 10.886329 -0.96888363
17.38373 14.013419 0
18.96019 15.284241 1.3602979
6.8642035 5.5470877 -0.98368806
13.521701 10.927133 -0.97106034
17.401194 14.062221 0
18.933624 15.300606 1.3597174
6.8574958 5.5553775 -0.98368806
13.526657 10.958182 -0.97236645
17.422613 14.114364 0
18.900988 15.312021 1.3587012
6.8507781 5.5636597 -0.98368806
13.541649 10.997455 -0.97439867
17.452003 14.173136 0
18.882471 15.334848 1.3587012
6.8420467 5.570302 -0.98340005
13.544472 11.026934 -0.97555977
17.479263 14.230357 0
18.874002 15.365854 1.3594267
6.8433266 5.5851068 -0.98455322
13.561329 11.067931 -0.97773647
17.500366 14.282734 0
18.881598 15.410011 1.3613141
6.8378091 5.6081891 -0.98570639
13.610886 11.163286 -0.98325145
17.560369 14.402548 0
18.9548 15.546222 1.3692963
6.8270278 5.6131587 -0.98512924
13.631506 11.207777 -0.98571873
17.579136 14.453504 0
18.984165 15.608714 1.372779
6.8222346 5.6230469 -0.98541725
13.658056 11.257293 -0.98862147
17.615883 14.519427 0
19.02544 15.681218 1.377133
6.8134432 5.6296406 -0.98512924
13.678495 11.301923 -0.99108875
17.630419 14.567219 0
19.046541 15.737297 1.3800358
6.8185911 5.6477714 -0.98685956
13.684837 11.335014 -0.99253982
17.652889 14.621713 0
19.087543 15.810022 1.3843896
6.8038025 5.6493969 -0.98570639
13.687124 11.364821 -0.99370098
17.685263 14.684594 0
19.112402 15.86959 1.3875824
6.8009434 5.6609201 -0.98628241
13.685369 11.391329 -0.9945721
17.701509 14.734255 0
19.167105 15.954178 1.3929524
6.8000579 5.6741066 -0.98714757
13.705509 11.436156 -0.99703932
17.711664 14.778973 0
19.183722 16.007288 1.3955647
6.807086 5.6939373 -0.9891659
13.711608 11.469377 -0.99849045
17.717749 14.8204 0
19.2122 16.070469 1.3990481
6.7883058 5.6921835 -0.98743558
13.717647 11.502628 -0.99994153
19.26519 16.154398 0
19.228605 16.12372 1.4016603
6.7913208 5.7087016 -0.98887676
19.257607 16.187708 0
19.238947 16.172024 1.4038376
6.7864013 5.7185745 -0.9891659
21.06489 17.750372 0
19.221376 16.196932 1.4039825
6.7913384 5.7367816 -0.99089509
12.856093 10.859804 -0.94000244
21.059332 17.789246 0
23.092239 19.506485 1.6884414
6.7799716 5.7342029 -0.98974192
21.153894 17.891037 0
23.05267 19.496937 1.6864091
6.7829003 5.7507524 -0.9911831
21.195776 17.970434 0
20.946146 17.758789 1.5338758
6.785799 5.7673178 -0.99262428
21.205776 18.022997 0
21.00584 17.853071 1.5398258
6.7689834 5.767127 -0.9911831
21.215679 18.075613 0
21.0159 17.905403 1.542148
6.7639747 5.7769804 -0.99147111
21.267042 18.163769 0
21.037714 17.967905 1.5453408
6.766819 5.7935648 -0.99291342
21.31229 18.246998 0
21.067312 18.037254 1.5491147
6.7519627 5.7949986 -0.99176025
21.365267 18.337141 0
21.090847 18.101616 1.5524526
6.7508321 5.8082085 -0.99262428
21.390434 18.403673 0
21.108355 18.16098 1.5553553
6.7555647 5.8265004 -0.99435461
21.413511 18.468601 0
21.127716 18.222111 1.5584031
6.7563457 5.8414254 -0.99550778
21.503387 18.591475 0
21.107647 18.249323 1.5585481
6.7531881 5.8529696 -0.9960838
21.575306 18.699259 0
21.124851 18.308851 1.5614508
6.7558718 5.8696055 -0.99752498
21.586092 18.75433 0
22.699314 19.721514 1.679588
6.7487745 5.8777642 -0.99752498
21.594816 18.807747 0
22.659792 19.735275 1.6784269
6.7553077 5.8978238 -0.99954331
21.575993 18.837246 0
22.61636 19.745554 1.6769757
6.7423358 5.9008698 -0.99867815
22.587193 19.768236 0
22.553377 19.738642 1.674073
6.7390928 5.9124274 -0.9992553
22.535906 19.771488 0
22.545137 19.779589 1.6752341
22.506134 19.793547 0
22.529026 19.813679 1.6758146
22.470484 19.810396 0
22.454395 19.796211 1.6720413
6.719553 5.9385281 -0.99954331
22.438738 19.830647 0
22.432404 19.825048 1.6721864
22.408915 19.852566 0
22.396767 19.841803 1.6713158
22.37907 19.874443 0
22.318375 19.820539 1.6672518
22.331715 19.880703 0
22.319637 19.869951 1.6691386
22.301857 19.902479 0
20.054585 17.896982 1.5013663
22.264212 19.917263 0
22.192162 19.852808 1.6631885
22.242485 19.922031 0
22.174355 19.86101 1.662753
22.212585 19.943674 0
22.140675 19.87911 1.6620274
22.180733 19.963535 0
22.145605 19.931917 1.6642041
22.160463 19.993813 0
22.131149 19.967363 1.6649296
22.136288 20.020575 0
22.108938 19.995838 1.6650752
22.127499 20.061283 0
20.128996 18.249397 1.5176207
22.116726 20.10026 0
20.155003 18.317394 1.5212491
22.100117 20.13398 0
20.19816 18.40123 1.5261835
22.070007 20.155403 0
20.23731 18.481695 1.530828
22.068672 20.203142 0
20.295458 18.579823 1.5369235
22.053829 20.23859 0
20.315107 18.642981 1.5401164
22.071501 20.303989 0
20.376701 18.744913 1.546502
22.045033 20.328875 0
20.415165 18.82589 1.5511464
22.815422 21.090359 0
20.461086 18.914034 1.5563709
22.83955 21.1639 0
20.499208 18.99526 1.5610154
22.838749 21.214506 0
20.558102 19.096052 1.567256
22.994028 21.410557 0
20.601566 19.18285 1.5723354
23.063263 21.527111 0
20.656252 19.280422 1.5782859
23.054337 21.570963 0
20.741091 19.406559 1.5865588
23.039648 21.609489 0
20.791536 19.500927 1.5922188
23.009724 21.633745 0
20.864502 19.616806 1.5996205
22.979784 21.657965 0
20.931543 19.727541 1.6065866
22.968586 21.673628 0
20.980097 19.797249 1.6112311
22.923477 21.683485 0
21.010902 19.874367 1.61544
15.810054 14.991083 0
21.060404 19.969463 1.6211001
15.782498 15.001212 0
21.047556 20.005632 1.6219705
15.74432 15.037513 0
15.719225 15.013544 1.2141501
15.705459 15.036726 0
15.710455 15.041511 1.2148757
22.367634 21.467089 0
15.677271 15.046088 1.2137146
22.328548 21.481468 0
21.444984 20.631424 1.6621724
22.266981 21.474106 0
21.44622 20.682571 1.6642041
22.241018 21.500996 0
21.466051 20.751814 1.6676874
22.280436 21.591244 0
21.502539 20.837408 1.6724769
22.388729 21.748705 0
21.574257 20.957518 1.6800236
22.448198 21.859257 0
21.627102 21.059704 1.6861192
22.44039 21.904541 0
21.633249 21.116674 1.6885864
22.417622 21.935276 0
21.721001 21.253645 1.6974392
22.379957 21.951418 0
21.750954 21.334457 1.7017931
22.358986 21.983919 0
21.801125 21.435415 1.7077436
0 0 -0
22.336109 22.014568 0
21.862183 21.547464 1.7145648
0 0 -0
22.318748 22.050686 0
21.923002 21.659693 1.721386
0 0 -0
22.397486 22.182022 0
21.998354 21.786728 1.7293682
0 0 -0
22.468544 22.306238 0
22.056833 21.897503 1.7360443
22.535648 22.426991 0
22.076403 21.969959 1.7396727
22.582932 22.501219 0
22.162519 22.082329 1.74751
22.620176 22.592859 0
22.213036 22.186211 1.7536055
22.670094 22.697502 0
22.265165 22.292084 1.7598461
22.706945 22.789404 0
22.35008 22.431246 1.7686989
27.638268 27.805752 0
22.399895 22.535635 1.7747945
27.64496 27.879778 0
22.502544 22.693684 1.785099
27.651514 27.953863 0
22.528099 22.774427 1.7893078
27.67256 28.042831 0
22.526112 22.827522 1.7913395
27.728107 28.167116 0
22.511274 22.867687 1.7923557
27.75787 28.265583 0
22.461779 22.872623 1.790614
27.596218 28.16898 0
22.412306 22.877474 1.7888724
27.443928 28.081326 0
22.373753 22.893393 1.7880018
27.400896 28.10515 0
22.338818 22.912968 1.7874212
27.366917 28.138237 0
22.302059 22.930632 1.7866956
27.351023 28.189966 0
22.267097 22.950102 1.7861151
0 0 0
22.223089 22.960188 1.784809
0 0 0
22.18811 22.979548 1.7842284
0 0 0
22.158525 23.004471 1.7840834
0 0 0
22.11631 23.016239 1.7829223
0 0 0
22.086679 23.041063 1.7827767
0 0 0
22.048052 23.056471 1.7819061
0 0 0
22.009418 23.071817 1.7810357
27.080837 28.456799 0
21.977938 23.094625 1.780745
27.028519 28.470631 0
21.941074 23.111744 1.7800195
27.007727 28.483173 0
21.916376 23.113678 1.7791483
26.967932 28.51012 0
21.884863 23.136372 1.7788584
26.926319 28.535112 0
21.846195 23.151463 1.7779878
26.886467 28.561941 0
21.821764 23.181623 1.7782779
26.855495 28.598198 0
21.777731 23.190928 1.7769717
26.815588 28.624933 0
21.746138 23.213428 1.7766812
26.812962 28.691536 0
21.70743 23.2283 1.7758106
26.788919 28.735332 0
21.67049 23.24501 1.7750851
25.676655 27.609062 0
21.640619 23.269278 1.77494
25.657429 27.655323 0
21.589514 23.270647 1.7730534
25.629299 27.692038 0
26.577198 28.716227 2.1855183
25.592293 27.719164 0
26.51075 28.713949 2.1829054
25.579937 27.773039 0
26.534124 28.809032 2.187695
33.893871 36.889114 0
21.907486 23.843479 1.8086102
33.873886 36.956898 0
21.868128 23.858442 1.8077396
33.871353 37.043896 0
21.853312 23.90019 1.8089007
33.879181 37.142475 0
21.7929 23.892025 1.8062885
33.809761 37.156441 0
19.693556 21.642937 1.6344523
33.768333 37.201115 0
19.635952 21.63208 1.6318395
33.705894 37.222603 0
19.580151 21.623049 1.6293722
33.655659 37.257507 0
19.562723 21.656338 1.6300983
35.679333 39.690163 0
19.525963 21.72094 1.6314045
35.634491 39.68848 0
19.521515 21.742399 1.63213
35.607338 39.754765 0
21.650034 24.171759 1.8125291
35.583553 39.824932 0
21.60869 24.184336 1.8115129
0 0 0
19.385519 21.74901 1.6273406
26.512581 29.817463 0
19.38167 21.797659 1.6292273
26.469625 29.841688 0
19.389803 21.859941 1.63213
26.440447 29.881447 0
19.518337 22.058483 1.6451918
26.550703 30.079208 0
19.593119 22.196983 1.6537546
26.569376 30.173771 0
19.57659 22.232346 1.6546257
26.704636 30.401365 0
19.556572 22.263792 1.6552062
26.698759 30.468847 0
25.699436 29.328411 2.1781166
26.608826 30.44034 0
19.312893 22.093836 1.6390961
25.042988 28.718988 0
19.263983 22.091698 1.6372095
25.028765 28.772791 0
19.267969 22.150244 1.6398218
25.002506 28.812838 0
19.271849 22.208839 1.6424346
24.954048 28.827286 0
19.299414 22.29497 1.6470784
0 0 0
19.393034 22.457901 1.657383
26.584465 30.861168 0
19.403191 22.524626 1.6605757
26.433519 30.761026 0
19.396282 22.571703 1.6623174
26.353989 30.743547 0
19.355465 22.57934 1.6611563
26.174751 30.60923 0
24.796062 28.996967 2.1310937
26.017834 30.500263 0
24.761007 29.026907 2.1310937
25.894949 30.430601 0
24.645092 28.961824 2.1241274
25.832743 30.394684 0
18.73649 22.045265 1.6160206
25.801048 30.431833 0
18.672867 22.024282 1.6128272
25.749134 30.445105 0
18.64624 22.046829 1.6128272
25.714005 30.478182 0
18.614567 22.063391 1.6123922
25.657049 30.485336 0
18.57785 22.073935 1.6115211
24.818686 29.561634 0
18.577898 22.128206 1.6138433
24.796316 29.607563 0
18.582848 22.18849 1.6166011
24.755516 29.631508 0
18.622656 22.290684 1.6224061
24.7047 29.643408 0
18.6007 22.31916 1.6228417
24.667202 29.671238 0
18.606936 22.381575 1.6257439
24.619699 29.686996 0
18.596468 22.424046 1.6271956
24.577175 29.708702 0
18.541204 22.412466 1.6247283
20.254534 24.543848 0
18.494263 22.410803 1.6229867
20.195093 24.532141 0
18.389555 22.33885 1.6161655
20.135712 24.520327 0
18.334518 22.326918 1.6136984
20.071436 24.502363 0
18.296 22.334982 1.6126822
20.026991 24.508453 0
18.273932 22.363111 1.6131178
19.975988 24.506413 0
18.297787 22.447607 1.6176167
19.933228 24.514378 0
18.29196 22.495907 1.6195034
19.895395 24.528341 0
18.325327 22.592659 1.6248734
19.860838 24.546299 0
18.338875 22.665285 1.6285017
19.829525 24.568249 0
18.337587 22.719778 1.630824
19.794931 24.586115 0
18.336195 22.774303 1.6331462
19.80595 24.660742 0
18.354216 22.853161 1.6372095
19.791048 24.672703 0
18.371298 22.90276 1.6399673
19.785606 24.727074 0
18.466988 23.079128 1.6509974
19.781689 24.783506 0
18.456913 23.123758 1.6525935
19.753349 24.809425 0
18.471037 23.198893 1.6563668
19.7185 24.827158 0
18.452692 23.233406 1.6572379
19.690107 24.853012 0
18.397175 23.221064 1.6547707
25.452803 32.206608 0
17.996946 22.772367 1.621245
25.418697 32.243465 0
17.964588 22.787973 1.6208094
25.378111 32.27211 0
17.900103 22.76269 1.6174717
25.34392 32.308895 0
17.846926 22.751591 1.6151494
25.296844 32.32925 0
19.452639 24.86038 1.7631838
0 0 0
19.41939 24.879774 1.7628939
26.836557 34.468304 0
19.42922 24.954477 1.7665223
26.775734 34.47604 0
19.40543 24.986143 1.7671028
26.72928 34.502201 0
19.389545 25.028059 1.7684089
26.636288 34.554325 0
21.706896 28.159597 1.9859619
26.589762 34.580299 0
21.672855 28.185804 1.9859619
21.074329 27.476055 0
21.645102 28.220211 1.986542
21.020557 27.474632 0
21.612572 28.248415 1.9866875
20.963659 27.468977 0
21.542164 28.226997 1.9833492
20.898932 27.452879 0
21.465549 28.197189 1.9794308
20.842136 27.44702 0
21.398464 28.179649 1.9763831
20.79167 27.449362 0
21.356556 28.195129 1.9756575
20.753784 27.468241 0
21.316206 28.212622 1.9750769
20.72308 27.46208 0
21.303848 28.23171 1.9755119
2.6555195 3.5279338 -0.49217525
20.694572 27.493332 0
21.350979 28.365387 1.9830592
2.6543579 3.5352726 -0.49275127
0 0 -0
20.667587 27.526642 0
21.271446 28.330906 1.9788502
0 0 -0
2.6352203 3.5186307 -0.24554588
20.642111 27.562008 0
21.319746 28.466808 1.986542
0 0 -0
2.6247463 3.5134854 -0.24496531
20.622814 27.6057 0
21.220028 28.405128 1.9804469
0 0 -0
2.63292 3.533323 -0.24612643
20.59877 27.643116 0
23.50363 31.541374 2.1971288
0 0 -0
2.6286488 3.5365019 -0.24612643
20.574667 27.680513 0
0 0 0
0 0 -0
2.6181834 3.5313261 -0.24554588
20.530359 27.690725 0
0 0 0
0 0 -0
0 0 -0
20.49534 27.713421 0
0 0 0
0 0 -0
0 0 -0
2.6419311 3.5814142 0
0 0 0
2.6200609 3.5607653 -0.49275127
0 0 -0
2.6653678 3.6223392 0
23.355759 31.74139 2.2011921
2.6065769 3.5514216 -0.49102208
0 0 -0
2.660989 3.6255572 0
23.380423 31.855471 2.2071428
2.6007576 3.5524838 -0.49073407
0 0 -0
0 0 0
0 0 0
2.5964632 3.5556235 -0.49073407
0 0 -0
0 0 0
0 0 0
2.5906377 3.5566616 -0.49044493
2.5423284 3.4903381 -0.24119197
0 0 0
20.388788 27.991571 1.9342946
2.5833006 3.5556083 -0.48986891
2.5411608 3.4976079 -0.24148197
0 0 0
20.347315 28.005678 1.933569
2.575964 3.5545344 -0.48929176
2.5369329 3.5006759 -0.24148197
0 0 0
20.353104 28.084944 1.9373423
2.5731869 3.5597465 -0.4895809
2.5357485 3.5079544 -0.24177253
0 0 0
20.302412 28.086357 1.9357462
2.5658553 3.5586531 -0.48900375
2.5299897 3.5089102 -0.24162753
2.6241405 3.6394904 0
20.273016 28.117186 1.9361812
2.5585361 3.5575552 -0.48842773
2.5227108 3.5077415 -0.24133697
2.618217 3.6405394 0
20.953571 29.135212 2.0045388
2.5572481 3.5648434 -0.48900375
2.5124123 3.5023415 -0.24075641
2.6077483 3.6352417 0
20.906237 29.143618 2.0033777
2.5469184 3.5595169 -0.48785058
2.5127161 3.5117164 -0.24119197
2.5957835 3.6278095 0
20.877054 29.177309 2.0039582
2.5456235 3.5668063 -0.48842773
2.509979 3.5168631 -0.24133697
2.5808194 3.6161213 0
20.826687 29.18136 2.0025065
2.5383091 3.5656614 -0.48785058
2.5027168 3.5156636 -0.24104697
2.5688975 3.6086302 0
20.795933 29.212856 2.0029421
2.5286622 3.5566561 -0.4864094
2.505105 3.5235221 -0.24148197
2.5667167 3.6101813 0
20.766235 29.208473 2.001781
2.5273581 3.5639327 -0.48698655
2.4993441 3.5244291 -0.24133697
2.554827 3.6026678 0
20.642248 29.108494 1.9932181
2.5162861 3.5574214 -0.72644097
2.5096028 3.5479732 -0.48439106
2.4920855 3.5232077 -0.24104697
2.5549819 3.6121283 0
20.548546 29.050686 1.9875581
0 0 -0
2.5068095 3.5531225 -0.48468021
2.492316 3.5325799 -0.24148197
2.5446143 3.6067069 0
20.498451 29.054266 1.986107
0 0 -0
2.5054884 3.5603752 -0.48525622
2.4865518 3.5334656 -0.24133697
2.5462453 3.6182921 0
20.508188 29.142759 1.9904609
0 0 -0
2.5026691 3.565515 -0.48554423
2.4852691 3.5407255 -0.24162753
2.5403779 3.6192381 0
20.57596 29.314259 2.0004747
0 0 -0
2.4968772 3.5664196 -0.48525622
2.4839666 3.5479789 -0.24191752
2.5643578 3.6628058 0
20.603111 29.428497 2.0065703
0 0 -0
2.4896071 3.565197 -0.48468021
2.4871149 3.5616279 -0.24264309
2.5673788 3.6765683 0
2.574816 3.6872184 0.25119922
2.3716447 3.4050286 -0.91925305
0 0 -0
2.4793844 3.5597129 -0.48352703
2.4857826 3.5688989 -0.24293365
2.5599625 3.6754007 0
2.5748155 3.6967256 0.25163478
2.3718793 3.4141541 -0.92094225
2.4846439 3.5764709 -0.72601342
2.4691784 3.5542095 -0.48237386
2.491842 3.5868318 -0.2439492
2.5480967 3.6678066 0
2.5866563 3.7233102 0.25323144
2.3648551 3.4128366 -0.91981536
2.4744723 3.5710304 -0.72430152
2.4530969 3.5401826 -0.48006752
2.5008302 3.6090686 -0.24525587
2.5258758 3.6452134 0
2.5836339 3.7285669 0.25337642
2.3535078 3.4052422 -0.91700149
0 0 -0
2.4414661 3.5325074 -0.47862634
2.492034 3.6056728 -0.24482031
2.5155509 3.639699 0
2.5717413 3.721 0.25265089
2.3450637 3.4018054 -0.91531229
2.4629185 3.5727687 -0.72344476
2.437196 3.5354548 -0.47862634
2.4876752 3.6086814 -0.24482031
2.5126266 3.6448765 0
0 0 0
2.3481481 3.4151032 -0.91812617
2.4571469 3.5736287 -0.72301722
2.4285245 3.5320013 -0.47776118
2.4774241 3.6031199 -0.24423976
2.5141187 3.6564877 0
0 0 0
2.3368361 3.4074626 -0.91531229
2.4513764 3.5744801 -0.72258967
2.4242551 3.5349331 -0.47776118
2.477479 3.6125417 -0.24467532
2.496453 3.6402085 0
0 0 0
2.3355889 3.4144821 -0.91643918
2.4470556 3.5774395 -0.72258967
2.419982 3.5378597 -0.47776118
2.4672441 3.6069539 -0.24409476
2.4935205 3.6453683 0
0 0 0
2.3314614 3.4173019 -0.91643918
2.4383895 3.5740299 -0.72130537
2.4171617 3.5429158 -0.47804919
2.4658101 3.6142211 -0.24438477
2.4920504 3.6526823 0
2.5360355 3.7171531 0.25134477
2.3287587 3.422215 -0.91700149
2.4355121 3.5790939 -0.72173291
2.4143329 3.5479701 -0.4783372
2.4570541 3.6107512 -0.2439492
2.4832411 3.6492341 0
2.5286157 3.715914 0.2510542
2.3231964 3.4229262 -0.91643918
2.4297454 3.5799122 -0.72130537
2.4085929 3.5487468 -0.47804919
2.4512317 3.6115694 -0.2438042
2.4759097 3.6479294 0
2.5212083 3.7146707 0.25076419
2.3219047 3.429935 -0.91756386
2.4225426 3.578598 -0.72045022
2.4057517 3.5537941 -0.4783372
2.4483213 3.6166782 -0.2439492
2.4773302 3.6595306 0
2.5181732 3.7198641 0.25090921
2.3248665 3.4432652 -0.92037773
2.4110303 3.5708787 -0.71830916
2.4057994 3.5631313 -0.47920236
2.4410441 3.6153312 -0.2436592
2.4656265 3.6517389 0
2.5064077 3.7121387 0.25018364
0 0 -0
2.3880742 3.5461111 -0.71274602
2.4058278 3.572474 -0.48006752
2.4410295 3.6247458 -0.24409476
2.45976 3.6525588 0
2.5106266 3.728092 0.2510542
0 0 -0
2.3523009 3.5021164 -0.70333153
2.3986223 3.57108 -0.47949037
2.4308527 3.6190646 -0.2435142
2.461149 3.66417 0
2.5017719 3.7246497 0.25061864
0 0 -0
2.3237801 3.4687021 -0.69605649
2.3971875 3.5782773 -0.48006752
2.4264779 3.6219993 -0.2435142
2.4552727 3.6649809 0
2.4987202 3.7298348 0.25076419
2.3357193 3.4910831 -0.9305107
2.301702 3.4402392 -0.6900658
2.3978992 3.5840204 -0.48064354
2.4271765 3.6277797 -0.2438042
2.4516122 3.6643028 0
2.4892375 3.7205393 0.25003809
