# .PCD v0.7 - Point Cloud Data file format
VERSION 0.7
FIELDS x y z
SIZE 4 4 4
TYPE F F F
COUNT 1 1 1
WIDTH 1533
HEIGHT 1
VIEWPOINT 0 0 0 1 0 0 0
POINTS 1533
DATA ascii
2.0938346 -1.86176 -0.92385286
2.4430242 -2.1722465 -0.90193534
2.9320173 -2.6070409 -0.86915898
3.83564 -3.4105086 -0.85567969
5.9574566 -5.2971492 -0.88855654
7.0366359 -6.2567153 -0.52594084
7.736577 -6.879077 0
7.6947951 -6.8419261 0.5751338
2.1127222 -1.873988 -0.93118674
2.4343896 -2.1593075 -0.8977837
2.9275618 -2.5967519 -0.86690748
3.8378396 -3.4041698 -0.85525209
5.9619198 -5.2882323 -0.88826853
7.0383573 -6.2430339 -0.5255053
7.7331982 -6.8593588 0
7.7011147 -6.8309011 0.57498878
2.1112795 -1.8681549 -0.92955524
2.4369969 -2.1563644 -0.8977837
2.9249866 -2.5881596 -0.86521828
3.8400295 -3.3978305 -0.85482454
5.9663701 -5.2793121 -0.88798052
7.0536795 -6.2414126 -0.52608585
7.7414804 -6.8500099 0
7.7054744 -6.81815 0.57469881
2.1079745 -1.8606941 -0.9271096
2.4696944 -2.1799817 -0.9088583
2.9319253 -2.5879896 -0.86634511
3.8402793 -3.3897872 -0.85396779
5.9688625 -5.2686725 -0.88740337
7.0631623 -6.2346029 -0.52623081
7.7575564 -6.8475399 0
7.7117538 -6.8071103 0.57455325
2.125061 -1.8712127 -0.93362927
2.4327886 -2.1421809 -0.89432353
2.9445834 -2.5928395 -0.86915898
3.8501542 -3.3902357 -0.85525209
5.9771638 -5.263164 -0.88769138
7.0628896 -6.2191954 -0.52565026
7.7560601 -6.8295636 0
7.7180247 -6.7960715 0.57440823
2.1198926 -1.8621191 -0.93036944
2.4843779 -2.1822839 -0.91231841
2.945807 -2.5876043 -0.86859667
3.8542478 -3.385581 -0.85525209
5.9874091 -5.2593555 -0.88826853
7.0664983 -6.2072301 -0.52536029
7.7584391 -6.8150325 0
7.7223301 -6.7833142 0.5741182
2.1463051 -1.8807303 -0.94096321
2.4511609 -2.1478643 -0.8991667
2.9412873 -2.5773447 -0.86634511
3.862201 -3.3843083 -0.85610884
5.9859786 -5.2452984 -0.88711536
7.0681286 -6.1935482 -0.5249247
7.7666683 -6.8056531 0
7.7285609 -6.7722611 0.57397264
2.1374145 -1.8683788 -0.93607497
2.4669781 -2.1564605 -0.9040125
2.9482219 -2.5771301 -0.86746979
3.8604872 -3.3745692 -0.85482454
5.9981561 -5.2431703 -0.88798052
7.0775695 -6.186718 -0.52507031
7.7768507 -6.7979813 0
7.7250037 -6.7526603 0.57310212
2.1042817 -1.8349359 -0.92059296
2.4450028 -2.1320448 -0.89501506
2.9417601 -2.5652177 -0.86465591
3.8761671 -3.3800216 -0.85739154
6.0064344 -5.237617 -0.88826853
7.0791621 -6.1730366 -0.52463472
7.7752461 -6.7800226 0
7.7331572 -6.7433209 0.57310212
2.1389351 -1.86288 -0.93526077
2.4765599 -2.1569302 -0.9060896
2.958638 -2.5767903 -0.86915898
3.8743403 -3.3743105 -0.85653645
6.005693 -5.2305865 -0.88769138
7.0887709 -6.1738801 -0.52507031
7.773459 -6.7702012 0
7.7372298 -6.7386479 0.57310212
2.0870786 -1.8132862 -0.91162759
2.4829483 -2.1572237 -0.90747261
2.954077 -2.5665476 -0.86690748
3.8706634 -3.3628922 -0.85482454
6.0217772 -5.231813 -0.88913369
7.0844526 -6.1550817 -0.52419919
7.7835965 -6.7625089 0
7.7375202 -6.722477 0.57252157
2.1284888 -1.8447555 -0.9287411
2.4665985 -2.1377943 -0.90055233
2.957176 -2.5629764 -0.86690748
3.8708405 -3.354847 -0.85396779
6.0124578 -5.2109809 -0.88682735
7.0977774 -6.1516242 -0.52463472
7.7937264 -6.7548018 0
7.7436757 -6.7114229 0.57237655
2.1176267 -1.8308651 -0.9230355
2.4900503 -2.1528563 -0.90816414
2.9641113 -2.5627217 -0.86803216
3.8729513 -3.34849 -0.85354024
6.0207047 -5.2054019 -0.88711536
7.1032414 -6.1413455 -0.5244897
7.7959747 -6.7402716 0
7.743917 -6.6952634 0.571796
2.1404274 -1.8460634 -0.93200094
2.4660563 -2.12691 -0.89847517
2.9556646 -2.5491846 -0.86465591
3.882828 -3.3488393 -0.85482454
6.0289464 -5.199811 -0.88740337
7.0988469 -6.1225724 -0.52361858
7.8001757 -6.7274504 0
7.7441306 -6.6791129 0.57121545
2.1257958 -1.8289695 -0.924667
2.4781315 -2.1321082 -0.90193534
2.9606669 -2.547267 -0.86521828
3.8829761 -3.3407934 -0.85396779
6.0371838 -5.1942077 -0.88769138
7.0944247 -6.1038256 -0.52274805
7.7964659 -6.70784 0
7.7561312 -6.6731372 0.57150543
2.1430085 -1.8392773 -0.93118674
2.480706 -2.1291125 -0.90193534
2.9695289 -2.5486538 -0.86690748
3.8889635 -3.3377759 -0.854397
6.045424 -5.1885986 -0.88798052
7.0958776 -6.0901699 -0.52231246
7.8124647 -6.705194 0
7.7641888 -6.6637607 0.57150543
2.1527393 -1.8431163 -0.93444663
2.4889958 -2.1310098 -0.9040125
2.9687424 -2.5417557 -0.86578059
3.8851938 -3.3263962 -0.85268515
6.0379338 -5.1695132 -0.88596219
7.1012592 -6.0799036 -0.5221675
7.8166032 -6.6923609 0
7.7742143 -6.6560688 0.57165098
2.1534207 -1.8346996 -0.93281513
2.5075076 -2.1363792 -0.9088583
2.9884167 -2.5461104 -0.86972135
3.9029891 -3.32532 -0.85482454
6.0326915 -5.139812 -0.88336784
7.1198835 -6.0660915 -0.52245748
7.8228502 -6.6650143 0
7.7863169 -6.6338887 0.57136041
2.1330364 -1.8128887 -0.9230355
2.4814112 -2.1089759 -0.89847517
3.0011697 -2.5507236 -0.87253523
3.9050503 -3.3189406 -0.854397
6.0349522 -5.1291656 -0.88279068
7.1291862 -6.0591655 -0.5226025
7.8348598 -6.6589246 0
7.7923489 -6.6227942 0.57121545
2.1616223 -1.8326901 -0.93444663
2.4992661 -2.1189551 -0.9040125
2.994561 -2.5388813 -0.86972135
3.9090576 -3.3142197 -0.854397
6.0372038 -5.1185279 -0.88221467
7.1444302 -6.0572686 -0.52318305
7.8369508 -6.6444087 0
7.792418 -6.6066523 0.5706349
2.1543939 -1.8220919 -0.93036944
2.4960763 -2.1110718 -0.90193534
0 -0 -0
3.9110937 -3.3078315 -0.85396779
6.0414109 -5.1095605 -0.88192666
7.1557155 -6.0519905 -0.52347362
7.8409953 -6.6315703 0
7.8023772 -6.5989084 0.57077986
2.167932 -1.8290533 -0.93526077
2.4679527 -2.0821764 -0.89086342
2.9929194 -2.5250833 -0.86746979
3.9131274 -3.3014495 -0.85354024
6.045598 -5.100584 -0.88163751
7.1669912 -6.0466876 -0.5237636
7.8509898 -6.6237679 0
7.8063765 -6.5861282 0.57048988
2.1625764 -1.8200663 -0.93200094
2.5011706 -2.1050336 -0.90193534
2.9959683 -2.5214651 -0.86746979
3.9171138 -3.2967188 -0.85354024
6.0557179 -5.0966096 -0.88221467
7.1603818 -6.0263162 -0.52274805
7.8470445 -6.6042247 0
7.8202872 -6.5817056 0.57092488
2.1818087 -1.8317535 -0.93933481
2.4979537 -2.0971754 -0.89986086
2.9970686 -2.5162108 -0.86690748
3.9151943 -3.28703 -0.85225594
6.0579062 -5.0859594 -0.88163751
7.1776066 -6.0260119 -0.52347362
7.8570099 -6.5964103 0
7.8262463 -6.5705824 0.57077986
2.1677639 -1.8177303 -0.93281513
2.4992201 -2.0956657 -0.89986086
3.0024786 -2.5176618 -0.86803216
3.9230826 -3.289614 -0.85354024
6.0589981 -5.0806384 -0.8813495
7.1673064 -6.0099859 -0.52245748
7.8590016 -6.5899916 0
7.8262362 -6.5625167 0.57048988
2.1623755 -1.8087665 -0.92955524
2.4978983 -2.089422 -0.89847517
2.9996772 -2.509146 -0.86634511
3.9231203 -3.2815802 -0.85268515
6.0869575 -5.0915694 -0.88452101
7.1785531 -6.0046587 -0.52274805
7.8629699 -6.5771542 0
7.8281789 -6.5480523 0.57005429
2.1778452 -1.8172385 -0.93526077
2.5042775 -2.0896199 -0.89986086
2.9988012 -2.5022607 -0.86521828
3.9270825 -3.2768376 -0.85268515
6.0950894 -5.0858665 -0.88480902
7.1858034 -5.9959803 -0.52274805
7.8729076 -6.5693145 0
7.838078 -6.5402517 0.57019931
2.1705432 -1.8067011 -0.93118674
2.4952276 -2.0769596 -0.89570653
3.0135436 -2.5083919 -0.86859667
3.9389312 -3.2786591 -0.854397
6.1111679 -5.0867701 -0.8862502
7.1830592 -5.9789834 -0.52202249
7.8808398 -6.5597968 0
7.8399897 -6.525794 0.56976432
2.1518056 -1.7867075 -0.92222136
2.5035276 -2.0787525 -0.8977837
3.0067923 -2.496628 -0.86578059
3.9428899 -3.2738974 -0.854397
6.1312413 -5.0909495 -0.88826853
7.1902785 -5.9702997 -0.52202249
7.8867598 -6.5486088 0
7.8438668 -6.5129933 0.56947374
2.1615767 -1.7904127 -0.9254812
2.5021696 -2.0725224 -0.89639801
3.0000248 -2.4848907 -0.86296672
3.9448602 -3.2674885 -0.85396779
6.1413679 -5.0868344 -0.88884455
7.2054839 -5.9682307 -0.5226025
7.9006739 -6.5440497 0
7.8477321 -6.5001988 0.56918377
2.1599317 -1.7846539 -0.92385286
2.512408 -2.0758893 -0.8991667
3.0167384 -2.4925947 -0.86690748
3.9428742 -3.2578189 -0.85268515
6.1435261 -5.076118 -0.88826853
7.2026763 -5.9512463 -0.52187693
7.8985457 -6.5262117 0
7.8515706 -6.4873981 0.56889319
2.1678026 -1.7867543 -0.9262954
2.5304019 -2.0856173 -0.90470397
3.0001445 -2.47279 -0.86127967
3.9428422 -3.2497838 -0.8518284
6.151649 -5.0703344 -0.88855654
7.2198858 -5.9508004 -0.5226025
7.9044194 -6.5150094 0
7.8533864 -6.4729466 0.56845766
2.1947773 -1.8045381 -0.93688917
2.5038579 -2.0586631 -0.89432353
3.0207922 -2.4836848 -0.86634511
3.9527166 -3.2499099 -0.8531127
6.1617708 -5.0661864 -0.88913369
7.2250657 -5.940424 -0.52245748
7.9082613 -6.5021448 0
7.8571916 -6.4601555 0.56816763
2.1606517 -1.7721089 -0.92140716
2.5237997 -2.0699534 -0.90055233
3.0119996 -2.4703619 -0.86296672
3.9586236 -3.2467577 -0.85354024
6.1598883 -5.0521765 -0.88798052
7.2362604 -5.934988 -0.52274805
7.9100814 -6.487638 0
7.8669987 -6.4523029 0.56831264
2.2029612 -1.8023622 -0.93852067
2.5224118 -2.0637221 -0.8991667
3.0130177 -2.4651134 -0.86240435
3.9625437 -3.2419722 -0.85354024
6.1639805 -5.043087 -0.88769138
7.2394004 -5.9229465 -0.52245748
7.9179144 -6.4780755 0
7.8788157 -6.4460864 0.56860322
2.1955652 -1.7918867 -0.93444663
2.5113039 -2.0495734 -0.89432353
3.0238681 -2.4678972 -0.86465591
3.9664581 -3.2371819 -0.85354024
6.1720796 -5.0372758 -0.88798052
7.2364883 -5.9059811 -0.52173191
7.9196854 -6.4635653 0
7.8765273 -6.4283423 0.56787711
2.1536422 -1.7533405 -0.91570163
2.5137787 -2.0465376 -0.89432353
3.0209346 -2.4594276 -0.86296672
3.9723556 -3.2340059 -0.85396779
6.182169 -5.0330768 -0.88855654
7.247653 -5.9005175 -0.52202249
7.9254732 -6.4523497 0
7.8802624 -6.4155426 0.56758708
2.224829 -1.8068299 -0.9450404
2.5298762 -2.054565 -0.8991667
3.0298233 -2.4605825 -0.86465591
3.9762604 -3.2292037 -0.85396779
6.1882463 -5.0256033 -0.88855654
7.2467093 -5.8852034 -0.52144194
7.9373007 -6.4460468 0
7.8859935 -6.4043794 0.56744206
2.1770816 -1.763692 -0.92385286
2.5226119 -2.0436122 -0.89570653
3.0229244 -2.4489241 -0.86184204
3.9741812 -3.2195537 -0.85268515
6.1902986 -5.0148692 -0.88798052
7.25179 -5.8748021 -0.52129638
7.9450836 -6.4364514 0
7.8937263 -6.394846 0.56744206
2.2003517 -1.7781441 -0.93281513
2.530935 -2.0452945 -0.8977837
3.031812 -2.4500623 -0.86353123
3.9800632 -3.2163613 -0.8531127
6.1963534 -5.0073857 -0.88798052
7.2750516 -5.8791013 -0.52245748
7.9467807 -6.4219379 0
7.8994284 -6.3836718 0.5672971
2.1890271 -1.7646245 -0.9271096
2.5607452 -2.064275 -0.90747261
3.0387228 -2.4495835 -0.86465591
3.9819498 -3.2099404 -0.85268515
6.2124658 -5.0080099 -0.8894217
7.2679949 -5.8588958 -0.52144194
7.9545345 -6.4123311 0
7.9010653 -6.3692284 0.56686151
2.1477425 -1.7292043 -0.90918189
2.5483186 -2.0517187 -0.90262949
3.0342627 -2.4429653 -0.86296672
3.981883 -3.2059195 -0.85225594
6.2054191 -4.9961472 -0.88798052
7.2695036 -5.8528695 -0.52129638
7.9543567 -6.404263 0
7.9089556 -6.3677096 0.56715155
2.1768126 -1.7482785 -0.92059296
2.5547042 -2.0517771 -0.9040125
3.0411785 -2.4424825 -0.86409354
3.985754 -3.2011058 -0.85225594
6.2074142 -4.9854031 -0.88740337
7.2704983 -5.8392048 -0.52086139
7.9580269 -6.3913846 0
7.9125962 -6.3548975 0.56686151
2.2232831 -1.7811856 -0.93933481
2.5513058 -2.0439813 -0.90193534
3.0302446 -2.4276836 -0.86015284
3.9916282 -3.1978972 -0.85268515
6.219491 -4.9827518 -0.88826853
7.2714629 -5.8255401 -0.5204258
7.9596567 -6.3768873 0
7.920269 -6.3453321 0.56686151
2.1810312 -1.7430129 -0.92059296
2.5420187 -2.0315027 -0.8977837
3.0331757 -2.4240205 -0.86015284
3.9994962 -3.1962738 -0.85354024
6.2295446 -4.9784598 -0.88884455
7.2724047 -5.8118815 -0.51999027
7.9754882 -6.373764 0
7.9177828 -6.3276477 0.56613594
2.1927972 -1.7480782 -0.924667
2.5287778 -2.015919 -0.89224637
3.0480273 -2.4298599 -0.86353123
4.0013499 -3.1898403 -0.8531127
6.2355552 -4.9709287 -0.88884455
7.2712946 -5.7966108 -0.51940972
7.977077 -6.3592539 0
7.9274526 -6.319694 0.56628096
2.1832969 -1.7361944 -0.91977566
2.5528133 -2.0300398 -0.89986086
3.0489666 -2.4245892 -0.86296672
4.0052013 -3.185003 -0.8531127
6.2375121 -4.9601741 -0.88826853
7.2905002 -5.7975278 -0.52028084
7.9806848 -6.346374 0
7.9310117 -6.3068733 0.56599039
2.2047606 -1.7489181 -0.9279269
2.553293 -2.0253901 -0.8991667
3.0459278 -2.4161706 -0.86127967
4.0050206 -3.1769676 -0.85225594
6.2394447 -4.9494157 -0.88769138
7.2832479 -5.7774091 -0.5192647
7.9801917 -6.3302569 0
7.9325252 -6.2924457 0.56555539
2.168108 -1.7155793 -0.91162759
2.5439382 -2.0129662 -0.89501506
3.0528262 -2.4156389 -0.86240435
4.0008121 -3.1657605 -0.8505457
6.2555676 -4.9499025 -0.88913369
7.2943029 -5.771832 -0.51955527
7.9857879 -6.3189902 0
7.9462295 -6.2876887 0.56599039
2.187638 -1.7267388 -0.91896147
2.5601552 -2.0207727 -0.89986086
3.0597355 -2.4150999 -0.86353123
4.0126863 -3.1672797 -0.85225594
6.2554517 -4.937531 -0.88826853
7.2849545 -5.7501349 -0.51839417
7.989336 -6.3061147 0
7.9517837 -6.276474 0.56584543
2.2266212 -1.7531464 -0.93444663
2.5428801 -2.0021551 -0.8929379
3.052664 -2.4035373 -0.86071515
4.0185332 -3.1640215 -0.85268515
6.263443 -4.9315677 -0.88855654
7.2918973 -5.7413282 -0.51839417
8.0010357 -6.2996736 0
7.9552827 -6.2636495 0.56555539
2.2112384 -1.7367105 -0.9271096
2.5788362 -2.0254226 -0.90470397
3.049577 -2.3951433 -0.85902816
4.016295 -3.1544051 -0.85140079
6.2755017 -4.9287901 -0.8894217
7.2886057 -5.7244835 -0.51766801
8.0086412 -6.2900009 0
7.9628448 -6.2540326 0.56555539
2.1958265 -1.7203203 -0.91977566
2.561537 -2.0068359 -0.8977837
3.06847 -2.4039927 -0.86353123
4.0201035 -3.14955 -0.85140079
6.2733083 -4.9148235 -0.88826853
7.299612 -5.7188807 -0.51795858
8.0080414 -6.2738996 0
7.9683447 -6.2427993 0.56540984
2.1881683 -1.7100576 -0.91570163
2.5639598 -2.0037394 -0.8977837
3.0553563 -2.3877666 -0.85902816
4.0218854 -3.143111 -0.85097325
6.2853584 -4.9120193 -0.88913369
7.3085623 -5.7116551 -0.5181036
8.0176725 -6.2658262 0
7.9676924 -6.2267666 0.56482929
2.2136245 -1.7256473 -0.9254812
2.5723169 -2.0052688 -0.89986086
3.0662549 -2.3903217 -0.86127967
4.0337787 -3.1445622 -0.85268515
6.2933269 -4.9060097 -0.8894217
7.307261 -5.6964297 -0.51752305
8.0190783 -6.2513318 0
7.9711156 -6.2139425 0.56453931
2.2020483 -1.7123493 -0.91977566
2.5549295 -1.9867557 -0.8929379
3.057102 -2.3772535 -0.85790128
4.0314941 -3.1349568 -0.85140079
6.3033299 -4.9015741 -0.88999772
7.3182449 -5.6907892 -0.51781356
8.0225134 -6.2384396 0
7.982717 -6.2074933 0.56482929
2.2216904 -1.7233196 -0.9271096
2.5632772 -1.9882816 -0.89501506
3.0639915 -2.3766754 -0.85902816
4.0413661 -3.134805 -0.85268515
6.3174229 -4.9002953 -0.89115089
7.3107419 -5.6707926 -0.51679748
8.0341616 -6.2319345 0
7.9861093 -6.1946611 0.56453931
2.2413697 -1.7342508 -0.93444663
2.5755968 -1.9928577 -0.89847517
3.0769072 -2.3807445 -0.86184204
4.0370297 -3.1236358 -0.85097325
6.3294783 -4.8974085 -0.89201605
7.3237557 -5.6667266 -0.51723301
8.0355091 -6.217443 0
7.9935884 -6.1850071 0.56453931
2.2150335 -1.711735 -0.9230355
2.5668766 -1.9836326 -0.89501506
3.0743198 -2.3757749 -0.86071515
4.0348501 -3.1180537 -0.85011649
6.336525 -4.8967438 -0.89259207
7.3210077 -5.6575327 -0.51679748
8.0392637 -6.2125874 0
7.9973235 -6.1801767 0.56453931
2.2151446 -1.7075498 -0.92222136
2.563309 -1.9759331 -0.8929379
3.0812171 -2.3751638 -0.86184204
4.0406537 -3.114748 -0.8505457
6.3342433 -4.8827672 -0.8914389
7.3154945 -5.6391673 -0.5159269
8.0467644 -6.2028689 0
8.0027294 -6.1689239 0.5643943
2.2348385 -1.7184298 -0.92955524
2.581605 -1.9850683 -0.89847517
3.0780399 -2.366791 -0.86015284
4.0423732 -3.108294 -0.85011649
6.34834 -4.8814163 -0.89259207
7.3264189 -5.6334887 -0.51621693
8.0460014 -6.1867957 0
8.0039959 -6.1544967 0.56395876
2.2369132 -1.7157282 -0.92955524
2.6039042 -1.997213 -0.90539545
3.0889621 -2.3692558 -0.86240435
4.0603862 -3.1143451 -0.8531127
6.364501 -4.8816175 -0.89403439
7.3352804 -5.6262121 -0.51636189
8.055542 -6.178658 0
8.009367 -6.1432409 0.56381375
2.2036548 -1.6859937 -0.91488743
2.5824134 -1.9757779 -0.89709216
3.0857666 -2.3608882 -0.86071515
4.0539546 -3.1016388 -0.85097325
6.3662825 -4.8707771 -0.89345723
7.350328 -5.6236606 -0.51694244
8.0650673 -6.1704998 0
8.0167837 -6.1335588 0.56381375
2.2331936 -1.7043196 -0.9262954
2.6107233 -1.9924409 -0.9060896
3.0886171 -2.3571579 -0.86071515
4.0515752 -3.0920644 -0.84968895
6.3803878 -4.8693581 -0.8946104
7.3364654 -5.5990133 -0.51549137
8.066308 -6.1560121 0
8.0200539 -6.1207113 0.56352317
2.2155893 -1.6866517 -0.91814733
2.5712111 -1.9573745 -0.89155489
3.0914629 -2.3534243 -0.86071515
4.0553083 -3.0871665 -0.84968895
6.3821545 -4.8585148 -0.89403439
7.3452911 -5.5917172 -0.51563638
8.073741 -6.1462607 0
8.0212469 -6.1062989 0.56308818
2.2747076 -1.7273191 -0.94178051
2.5835624 -1.9618509 -0.89501506
3.0882394 -2.3450816 -0.85902816
4.0651708 -3.0869231 -0.85097325
6.3983183 -4.8586187 -0.89547557
7.3479071 -5.5796981 -0.51534635
8.0728712 -6.1302052 0
8.0306864 -6.0981727 0.5632332
2.2078335 -1.6723356 -0.91325593
2.6019299 -1.9708459 -0.90055233
3.0890393 -2.3398099 -0.85846364
4.0648012 -3.0789061 -0.85011649
6.395937 -4.8446374 -0.8943224
7.3360038 -5.5566964 -0.51404023
8.0761271 -6.1173067 0
8.0297642 -6.0821886 0.56265265
2.2138004 -1.6726495 -0.91488743
2.600302 -1.9646729 -0.8991667
3.0938976 -2.3376117 -0.85902816
4.0808115 -3.0832803 -0.85268515
6.4059095 -4.8400211 -0.89489841
7.3427129 -5.5478282 -0.51404023
8.0855875 -6.1091108 0
8.0371075 -6.0724821 0.56265265
2.2177918 -1.6714594 -0.91570163
2.59466 -1.9554898 -0.89639801
3.098747 -2.3353994 -0.85959047
4.076334 -3.0721672 -0.85097325
6.4282775 -4.8447309 -0.89720476
7.3390293 -5.5311279 -0.51331413
8.0867262 -6.094636 0
8.0402851 -6.0596352 0.56236207
2.2494459 -1.6910579 -0.9279269
2.5970211 -1.9523532 -0.89639801
3.1056247 -2.3347044 -0.86071515
4.0738854 -3.0626101 -0.84968895
6.4175873 -4.8245263 -0.89489841
7.3311744 -5.5113306 -0.51229858
8.0899277 -6.0817356 0
8.0496836 -6.0514817 0.56250763
2.2218246 -1.666095 -0.91570163
2.625469 -1.9687786 -0.90539545
3.1023507 -2.3263812 -0.85902816
4.0714197 -3.0530639 -0.84840465
6.4234118 -4.8167686 -0.89489841
7.3253512 -5.4931116 -0.51142746
8.09935 -6.0735159 0
8.0507517 -6.0370727 0.56207204
2.2555032 -1.6870959 -0.9287411
2.6037464 -1.9475785 -0.89709216
3.1031189 -2.3211048 -0.85846364
4.0853901 -3.0558345 -0.8505457
6.4292274 -4.8090034 -0.89489841
7.3174238 -5.4733663 -0.51041192
8.1046009 -6.0621676 0
8.0497169 -6.0211148 0.56149149
2.2238655 -1.6592443 -0.91488743
2.6060977 -1.9444309 -0.89709216
3.1161098 -2.3249552 -0.86127967
4.0829048 -3.046289 -0.8492614
6.4350333 -4.8012314 -0.89489841
7.3177819 -5.4598575 -0.50997633
8.1077442 -6.0492549 0
8.0632362 -6.016047 0.56192708
2.2407224 -1.669715 -0.92140716
2.6072719 -1.9428562 -0.89709216
3.1073208 -2.3154767 -0.85846364
4.0826883 -3.0422893 -0.84883386
6.4420848 -4.800437 -0.89547557
7.3210793 -5.4554353 -0.50997633
8.1113977 -6.0443554 0
8.0731144 -6.0158281 0.56236207
2.2387671 -1.6640548 -0.91977566
2.6096177 -1.9397043 -0.89709216
3.1141987 -2.3147547 -0.85959047
4.0822368 -3.0342884 -0.8479771
6.4561839 -4.798821 -0.89662874
7.3297491 -5.4481339 -0.51012135
8.1395864 -6.0500784 0
8.1137447 -6.0308704 0.56468427
2.2626178 -1.6775422 -0.9287411
2.6179996 -1.9410279 -0.8991667
3.1169934 -2.3109901 -0.85959047
4.0962086 -3.0369966 -0.85011649
6.4598942 -4.7894716 -0.8963396
7.3405056 -5.4423714 -0.51041192
8.1636076 -6.0526328 0
8.1544228 -6.0458236 0.56700653
2.2566943 -1.6689285 -0.9254812
2.5981607 -1.9214584 -0.89155489
3.1218245 -2.3087316 -0.86015284
4.0916195 -3.0259392 -0.84840465
6.4552808 -4.7739744 -0.89489841
7.3408065 -5.4288611 -0.50997633
8.191843 -6.0582418 0
8.1951494 -6.0606871 0.56932878
2.2527404 -1.6617974 -0.9230355
2.608556 -1.9242748 -0.89432353
3.1225691 -2.3034508 -0.85959047
4.1035361 -3.0270886 -0.85011649
6.4797754 -4.7799883 -0.89749277
7.3599033 -5.4292397 -0.51084691
8.2159119 -6.0606985 0
8.1815519 -6.0353518 0.56787711
2.260721 -1.66347 -0.9254812
2.6088529 -1.9196303 -0.89362937
3.1233056 -2.2981718 -0.85902816
4.0989199 -3.0160425 -0.84840465
6.4855461 -4.7721553 -0.89749277
7.364367 -5.4188042 -0.51070189
8.2148447 -6.0445971 0
8.1260548 -5.9792647 0.56352317
2.250778 -1.6519655 -0.92059296
2.6212888 -1.923903 -0.89709216
3.1281264 -2.2958982 -0.85959047
4.1067042 -3.0141282 -0.8492614
6.4829669 -4.758194 -0.8963396
7.375103 -5.4129796 -0.51099247
8.1906691 -6.0115671 0
8.1060438 -5.9494557 0.56163651
2.2747202 -1.6610947 -0.9287411
2.617826 -1.9116447 -0.89432353
3.1275077 -2.2838352 -0.85790128
4.1201978 -3.0087383 -0.8505457
6.4944468 -4.7425132 -0.8963396
7.3902588 -5.3966722 -0.51113743
8.1589384 -5.9579935 0
8.0973196 -5.9129972 0.56004041
2.2747297 -1.6568911 -0.9279269
2.6241858 -1.9114314 -0.89570653
3.1323168 -2.281549 -0.85846364
4.1259031 -3.0052676 -0.85097325
6.5064464 -4.7392325 -0.89720476
7.3820701 -5.377028 -0.51012135
8.1577168 -5.9420018 0
8.1044588 -5.9032087 0.56004041
2.2567306 -1.6396108 -0.91977566
2.6346121 -1.9141577 -0.89847517
3.1330175 -2.2762706 -0.85790128
4.1170664 -2.9912238 -0.84840465
6.5142589 -4.7328858 -0.89749277
7.3927698 -5.3711619 -0.51041192
8.1543655 -5.9244933 0
8.1073771 -5.8903542 0.55974984
2.2847254 -1.655736 -0.93036944
2.647078 -1.9183323 -0.90193534
3.1419401 -2.2769578 -0.85959047
4.1310768 -2.9937832 -0.8505457
6.5053182 -4.7143912 -0.89547557
7.4013567 -5.3637486 -0.51055688
8.1657286 -5.9176874 0
8.1165905 -5.8820772 0.55989486
2.2867243 -1.6529741 -0.93036944
2.6433003 -1.9107275 -0.89986086
3.1405666 -2.2701797 -0.85846364
4.128448 -2.9842765 -0.8492614
6.5298734 -4.7201633 -0.89806992
7.4057283 -5.3532805 -0.51041192
8.1623297 -5.9001946 0
8.1152763 -5.8661823 0.55931485
2.276695 -1.6415396 -0.9254812
2.6374674 -1.9016632 -0.89709216
3.1412482 -2.2648988 -0.85790128
4.1299706 -2.9777861 -0.84883386
6.5187883 -4.7001681 -0.89576358
7.4164028 -5.3473649 -0.51070189
8.1757879 -5.8948956 0
8.1286764 -5.8609271 0.55974984
2.2907124 -1.6474432 -0.93036944
2.6316164 -1.8926158 -0.89432353
3.1460435 -2.2625835 -0.85846364
4.1377296 -2.9757884 -0.84968895
6.5475626 -4.7089014 -0.89893508
7.4102054 -5.3292999 -0.50983131
8.1765642 -5.8804522 0
8.1273136 -5.8450322 0.55916929
2.2706156 -1.6288309 -0.92140716
2.6277838 -1.8850462 -0.89224637
3.14465 -2.2558212 -0.85733896
4.1475821 -2.9752769 -0.85097325
6.5385342 -4.6904316 -0.89691675
7.4208579 -5.3233685 -0.51012135
8.1878967 -5.8736053 0
8.1407061 -5.8397532 0.55960482
2.2736065 -1.628897 -0.92222136
2.632997 -1.8863777 -0.89362937
3.1501391 -2.2568779 -0.85846364
4.1306 -2.9593165 -0.84712195
6.5287476 -4.6774392 -0.89518642
7.4198523 -5.3158603 -0.50983131
8.1935577 -5.8701715 0
8.1484537 -5.8378577 0.55989486
2.3037221 -1.6462641 -0.93362927
2.6413999 -1.8875722 -0.89570653
3.1549373 -2.2545514 -0.85902816
4.1425271 -2.9602935 -0.84883386
6.5554423 -4.6845884 -0.89806992
7.4347267 -5.3129339 -0.51041192
8.1858206 -5.8496737 0
8.1491652 -5.8234797 0.55945981
2.2393017 -1.5961446 -0.90673935
2.6457195 -1.885834 -0.89639801
3.153517 -2.2477851 -0.85790128
4.1523662 -2.9597516 -0.85011649
6.5568814 -4.6736584 -0.89749277
7.4369049 -5.3009276 -0.51012135
8.2013597 -5.8458209 0
8.1540823 -5.8121219 0.55931485
2.2694261 -1.6134852 -0.91814733
2.6479962 -1.8826357 -0.89639801
3.1520929 -2.2410314 -0.8567766
4.1517587 -2.9517601 -0.8492614
6.5519857 -4.6582398 -0.89605159
7.4390731 -5.288929 -0.50983131
8.1956949 -5.8268614 0
8.1568594 -5.7992506 0.55902427
2.2693598 -1.6093135 -0.91733313
2.6379945 -1.8707302 -0.89224637
3.1589396 -2.2401578 -0.85790128
4.1616063 -2.9511976 -0.8505457
6.5555019 -4.6488252 -0.89576358
7.441215 -5.2769275 -0.5095408
8.2069712 -5.8199625 0
8.1574993 -5.7848797 0.55858874
2.2934933 -1.6222663 -0.9262954
2.6463995 -1.871889 -0.89432353
3.1616442 -2.2363391 -0.85790128
4.1567864 -2.9402373 -0.84883386
6.5737801 -4.6498594 -0.89749277
7.4391003 -5.2619305 -0.50896025
8.2076292 -5.8055372 0
8.1666117 -5.7765236 0.5587343
2.2490077 -1.5867264 -0.90755355
2.6445556 -1.8657947 -0.8929379
3.1664183 -2.2339807 -0.85846364
4.1645269 -2.9381692 -0.84968895
6.5730596 -4.637444 -0.89662874
7.4518242 -5.2574329 -0.50939578
8.2146387 -5.7956157 0
8.1693344 -5.7636528 0.55844373
2.2832637 -1.6067663 -0.92059296
2.6427088 -1.8597131 -0.89155489
3.1566515 -2.2213821 -0.8550874
4.172277 -2.9360926 -0.8505457
6.5765367 -4.6280055 -0.8963396
7.4645486 -5.252913 -0.50983131
8.2237616 -5.7871819 0
8.1741695 -5.7522836 0.55829871
2.2953167 -1.6111047 -0.924667
2.6490567 -1.8593984 -0.8929379
3.1697299 -2.2248638 -0.85790128
4.1611114 -2.9207242 -0.8475495
6.5842471 -4.6215463 -0.89662874
7.4666324 -5.240901 -0.5095408
8.2307482 -5.7772412 0
8.1789894 -5.740911 0.55815369
2.2992845 -1.6097462 -0.9254812
2.657469 -1.8605139 -0.89501506
3.168257 -2.2181206 -0.8567766
4.1688395 -2.9186358 -0.84840465
6.579226 -4.6061659 -0.89518642
7.4708333 -5.2303863 -0.50939578
8.2334547 -5.7643037 0
8.1795321 -5.726552 0.55771816
2.2971787 -1.6041394 -0.92385286
2.6453149 -1.8472458 -0.89016926
3.1771786 -2.2186506 -0.85846364
4.1807818 -2.9194753 -0.85011649
6.5975146 -4.6071005 -0.89691675
7.4856691 -5.2273064 -0.50997633
8.2404137 -5.7543507 0
8.1949673 -5.7226152 0.55829871
2.3153327 -1.6126581 -0.93036944
2.6496096 -1.845486 -0.89086342
3.1736081 -2.2104576 -0.8567766
4.1674547 -2.902684 -0.84669274
6.5903382 -4.5902529 -0.89518642
7.4877114 -5.2152843 -0.50968575
8.2409601 -5.7399316 0
8.1954775 -5.7082524 0.55786318
2.3051045 -1.601401 -0.9254812
2.666254 -1.8522987 -0.89570653
3.1679296 -2.2008224 -0.85452509
4.1815062 -2.9049737 -0.84883386
6.5980101 -4.5837665 -0.89547557
7.4897437 -5.2032709 -0.50939578
8.2564392 -5.7359095 0
8.1938334 -5.6924152 0.55728263
2.274533 -1.5760911 -0.91244179
2.6643701 -1.8462206 -0.89432353
3.1789405 -2.2027817 -0.8567766
4.1828971 -2.8984528 -0.84840465
6.6120477 -4.5816832 -0.89662874
7.4960256 -5.1942172 -0.50939578
8.2526617 -5.718513 0
8.2092485 -5.6884303 0.55786318
2.3171008 -1.6014469 -0.9287411
2.6624672 -1.8401444 -0.8929379
3.173239 -2.1931603 -0.85452509
4.1800671 -2.8890221 -0.84712195
6.6111937 -4.5692773 -0.89576358
7.5044317 -5.1866317 -0.5095408
8.261713 -5.710021 0
8.2097006 -5.6740732 0.55742759
2.3231001 -1.6014488 -0.93036944
2.6584983 -1.8326584 -0.89086342
3.1842546 -2.1950932 -0.8567766
4.1898894 -2.8883359 -0.84840465
6.6167102 -4.5612855 -0.89576358
7.514976 -5.1805129 -0.50983131
8.2686062 -5.7000341 0
8.2122765 -5.6612029 0.55713761
2.2619035 -1.5552341 -0.90510786
2.6586375 -1.8280193 -0.89016926
3.1889963 -2.192682 -0.85733896
4.2081852 -2.8934536 -0.85140079
6.6307421 -4.5591488 -0.89691675
7.5126657 -5.1655397 -0.50925076
8.2711945 -5.6870875 0
8.2212496 -5.6527462 0.55728263
2.2791426 -1.5650601 -0.91162759
2.6721539 -1.8349364 -0.89432353
3.1882279 -2.1893182 -0.8567766
4.1908894 -2.8778338 -0.8475495
6.6313648 -4.5536795 -0.89662874
7.4986486 -5.1492329 -0.50808966
8.2767725 -5.6835608 0
8.2139549 -5.6404252 0.55655706
2.2891886 -1.5678917 -0.91488743
2.6722934 -1.8302845 -0.89362937
3.190871 -2.1854641 -0.8567766
4.1943636 -2.8727677 -0.8475495
6.6411262 -4.5485835 -0.89720476
7.5155821 -5.1475086 -0.50881523
8.2707548 -5.6647353 0
8.2229061 -5.6319633 0.55670202
2.325774 -1.5888243 -0.9287411
2.6745031 -1.8270543 -0.89362937
3.1977015 -2.1844709 -0.85790128
4.1999493 -2.8691442 -0.8479771
6.6444836 -4.5390983 -0.89691675
7.5260916 -5.1413579 -0.5091058
8.2754469 -5.6532707 0
8.2254181 -5.6190948 0.55641204
2.2868414 -1.5581785 -0.91244179
2.6767087 -1.8238213 -0.89362937
3.1982408 -2.1791761 -0.85733896
4.2140179 -2.8712933 -0.85011649
6.6371346 -4.522325 -0.89518642
7.5322986 -5.1322603 -0.5091058
8.2887173 -5.6476593 0
8.2407913 -5.6150045 0.55699259
2.2887225 -1.5554142 -0.91244179
2.6851373 -1.8248174 -0.89570653
3.198772 -2.1738832 -0.8567766
4.2132421 -2.8633163 -0.8492614
6.659708 -4.5259328 -0.89749277
7.5363388 -5.1216908 -0.50896025
8.2847748 -5.6303272 0
8.2389736 -5.5992007 0.55641204
2.3192468 -1.5720651 -0.92385286
2.6790338 -1.8159411 -0.8929379
3.1992872 -2.1685867 -0.85621208
4.1996994 -2.8467007 -0.84583765
6.6566076 -4.5120778 -0.8963396
7.5360756 -5.108211 -0.50852519
8.2915726 -5.6203127 0
8.2478819 -5.5906978 0.55655706
2.2986193 -1.5540329 -0.91488743
2.6687598 -1.8042747 -0.88878626
3.2040162 -2.1661468 -0.8567766
4.2073851 -2.8444967 -0.84669274
6.6534839 -4.4982367 -0.89518642
7.5379329 -5.0961881 -0.50823468
8.3026733 -5.6132078 0
8.2460203 -5.5749063 0.55597651
2.290251 -1.5443466 -0.91081339
2.6792581 -1.8066591 -0.89155489
3.1982043 -2.1565914 -0.85452509
4.2108192 -2.839411 -0.84669274
6.6632075 -4.4930887 -0.89576358
7.5397806 -5.0841737 -0.50794464
8.3094501 -5.6031718 0
8.2570639 -5.5678468 0.55626702
2.3126206 -1.555369 -0.91896147
2.6876786 -1.8076167 -0.89362937
3.2134542 -2.1612308 -0.85790128
4.2227674 -2.8400514 -0.84840465
6.6664872 -4.483592 -0.89547557
7.5523806 -5.0794058 -0.50837964
8.3075762 -5.5873175 0
8.2573147 -5.553514 0.55583149
2.306288 -1.547066 -0.91570163
2.6898606 -1.8043679 -0.89362937
3.2097309 -2.1530986 -0.85621208
4.2240663 -2.8335183 -0.8479771
6.674046 -4.4769731 -0.89576358
7.5563564 -5.06883 -0.50823468
8.3164806 -5.5787239 0
8.264019 -5.5435328 0.55583149
2.312268 -1.5470296 -0.91733313
2.6962132 -1.8039092 -0.89501506
3.2060008 -2.144984 -0.85452509
4.2253551 -2.8269861 -0.8475495
6.6729994 -4.4645896 -0.89489841
7.5667992 -5.0625887 -0.50852519
8.3253756 -5.5701165 0
8.2750263 -5.5364304 0.55612147
2.328521 -1.553834 -0.9230355
2.687959 -1.7936887 -0.89155489
3.2085903 -2.1411088 -0.85452509
4.2309012 -2.823302 -0.8479771
6.6783891 -4.4565234 -0.89489841
7.5750704 -5.054883 -0.50867021
8.3234415 -5.554275 0
8.2817097 -5.5264273 0.55612147
2.2995396 -1.5304818 -0.91081339
2.711005 -1.8043369 -0.89847517
3.2069404 -2.1344118 -0.8533982
4.2364445 -2.8196087 -0.84840465
6.6859202 -4.449882 -0.89518642
7.5768418 -5.0428443 -0.50837964
8.3149872 -5.5341239 0
8.2732458 -5.5063429 0.55510592
2.3260975 -1.5441054 -0.92059296
2.6964619 -1.78996 -0.8929379
3.2158699 -2.1347525 -0.8550874
4.2270203 -2.8059721 -0.84583765
6.6848335 -4.4375129 -0.8943224
7.5721073 -5.0265012 -0.50765413
8.3216677 -5.5240731 0
8.2820559 -5.4977779 0.55525094
2.3073492 -1.5276465 -0.91244179
2.696533 -1.7853169 -0.89224637
3.218447 -2.1308651 -0.8550874
4.2475314 -2.8121998 -0.8492614
6.6988173 -4.4351439 -0.89547557
7.5738463 -5.014482 -0.50736409
8.3326721 -5.5168843 0
8.2973595 -5.4935045 0.55583149
2.3421934 -1.5466487 -0.9254812
2.7112453 -1.7903494 -0.89639801
3.2210195 -2.1269746 -0.8550874
4.233789 -2.7957489 -0.84583765
6.6976943 -4.4227691 -0.8946104
7.5690517 -4.9981632 -0.50663799
8.34585 -5.5111156 0
8.2974844 -5.479178 0.5553959
2.3286819 -1.5357072 -0.91977566
2.6934793 -1.7762818 -0.89016926
3.2159383 -2.1208303 -0.8533982
4.235477 -2.7931905 -0.84583765
6.7003651 -4.4187222 -0.8946104
7.5699029 -4.9921603 -0.50649297
8.3404875 -5.5003414 0
8.3094692 -5.4798861 0.55597651
2.3202131 -1.5261025 -0.91570163
2.6998196 -1.7757859 -0.89155489
3.229111 -2.1239231 -0.85621208
4.2431345 -2.7908895 -0.84669274
6.7035403 -4.4092026 -0.8943224
7.5650768 -4.975872 -0.50576741
8.347127 -5.4902596 0
8.3117476 -5.4669886 0.55568647
2.3571856 -1.5463438 -0.92955524
2.6956685 -1.7683928 -0.88947773
3.2338054 -2.1214175 -0.8567766
4.2465034 -2.7857604 -0.84669274
6.7088633 -4.4010997 -0.8943224
7.5667424 -4.9638796 -0.50547743
8.3581028 -5.4830217 0
8.3161678 -5.455512 0.55554092
2.3528457 -1.5394335 -0.9271096
2.6936085 -1.7623898 -0.88809472
3.2299857 -2.1133337 -0.8550874
4.2434282 -2.7764149 -0.84541011
6.7141762 -4.3929901 -0.8943224
7.5618567 -4.9476156 -0.50475132
8.3494835 -5.4629488 0
8.318409 -5.4426169 0.55525094
2.3505683 -1.5338906 -0.9254812
2.702033 -1.763243 -0.89016926
3.2367887 -2.1122041 -0.85621208
4.242476 -2.768477 -0.84455335
6.7151427 -4.3820443 -0.89374524
7.5613074 -4.9342189 -0.50431633
8.3669739 -5.4599657 0
8.3206234 -5.429719 0.55496037
2.3399949 -1.5229626 -0.92059296
2.7062702 -1.7613492 -0.89086342
3.2350833 -2.1055219 -0.8550874
4.2608809 -2.7731521 -0.8475495
6.7247725 -4.3767519 -0.8943224
7.554193 -4.9165716 -0.50344521
8.3648405 -5.4441738 0
8.3250017 -5.4182453 0.55481535
2.3335409 -1.5147512 -0.91733313
2.7020817 -1.7539787 -0.88878626
3.2418835 -2.1043758 -0.85621208
4.2620773 -2.7666054 -0.84712195
6.7300563 -4.3686228 -0.8943224
7.566669 -4.9116859 -0.50388074
8.3823252 -5.4411459 0
8.3293657 -5.4067688 0.55467039
2.3312161 -1.5092415 -0.91570163
2.6999829 -1.7479831 -0.88740057
3.2444239 -2.100457 -0.85621208
4.2654171 -2.7614534 -0.84712195
6.7222986 -4.3520513 -0.89259207
7.5747771 -4.9039502 -0.50402576
8.3779726 -5.423943 0
8.3293467 -5.3924627 0.5542348
2.3538058 -1.5198331 -0.92385286
2.7020931 -1.7447194 -0.88740057
3.2426944 -2.0937812 -0.8550874
4.262279 -2.7521186 -0.84583765
6.7362437 -4.3495374 -0.89374524
7.5785165 -4.8933859 -0.50388074
8.3845205 -5.413816 0
8.3402262 -5.3852158 0.55452538
2.3681045 -1.5250144 -0.9287411
2.6957624 -1.73602 -0.88463193
3.2430878 -2.0884871 -0.85452509
4.2699137 -2.7497437 -0.84669274
6.7393217 -4.3399959 -0.89345723
7.5931621 -4.8898525 -0.50446129
8.4019938 -5.4107251 0
8.3445368 -5.3737235 0.55437982
2.3657823 -1.519478 -0.9271096
2.7084184 -1.7395442 -0.88809472
3.245609 -2.0845671 -0.85452509
4.2710752 -2.7431962 -0.8462652
6.7358561 -4.3262587 -0.89230406
7.5750132 -4.8652263 -0.50286466
8.3931952 -5.3907228 0
8.357584 -5.3678508 0.55481535
2.373862 -1.5206192 -0.92955524
2.7168498 -1.7403259 -0.89016926
3.2417047 -2.0765309 -0.85283589
4.2743869 -2.7380335 -0.8462652
6.7345424 -4.3139296 -0.8914389
7.5962048 -4.8658824 -0.50388074
8.3953238 -5.3777723 0
8.3618784 -5.356348 0.55467039
2.3673663 -1.5124271 -0.9262954
2.7337518 -1.7464979 -0.89501506
3.2463505 -2.0739791 -0.8533982
4.2820225 -2.7356336 -0.84712195
6.7506547 -4.3127556 -0.89288121
7.6064539 -4.8594956 -0.50417078
8.4018154 -5.3676243 0
8.3639612 -5.3434401 0.55437982
2.3629448 -1.5055848 -0.92385286
2.7295108 -1.7391478 -0.8929379
3.2552848 -2.0741525 -0.8550874
4.2788281 -2.7263179 -0.84583765
6.7449479 -4.2976422 -0.8914389
7.5969863 -4.8405309 -0.50315517
8.4039011 -5.3546686 0
8.3682222 -5.3319349 0.5542348
2.3418138 -1.4881456 -0.91488743
2.7146709 -1.7250841 -0.88740057
3.2556462 -2.068856 -0.85452509
4.2842836 -2.7225213 -0.8462652
6.763238 -4.2978153 -0.89316922
7.618175 -4.8410997 -0.50417078
8.4125681 -5.3459101 0
8.3702765 -5.3190351 0.55394483
2.3728333 -1.5038357 -0.9262954
2.7315886 -1.7312047 -0.89224637
3.2581437 -2.0649207 -0.85452509
4.2832379 -2.714597 -0.84541011
6.7596874 -4.2841015 -0.89201605
7.6020756 -4.8179836 -0.50271964
8.4234133 -5.3385248 0
8.3745041 -5.307528 0.55379981
2.371655 -1.5010812 -0.9254812
2.7347519 -1.7308946 -0.8929379
3.2465045 -2.054796 -0.8511467
4.2848773 -2.7120087 -0.84541011
6.7404237 -4.2661872 -0.88913369
7.6093802 -4.8161721 -0.50301021
8.4244404 -5.3320446 0
8.3777094 -5.3024673 0.55379981
2.325402 -1.4678742 -0.90673935
2.7326024 -1.7249132 -0.89155489
3.2618809 -2.0590122 -0.85452509
4.2924881 -2.7095671 -0.8462652
6.7455735 -4.2580395 -0.88913369
7.6107955 -4.8041973 -0.50271964
8.4286785 -5.3204737 0
8.3863058 -5.2937264 0.55394483
2.3250763 -1.4637427 -0.90592206
2.7177 -1.7109175 -0.88601762
3.2643664 -2.0550692 -0.85452509
4.2870693 -2.6989079 -0.84455335
6.7332029 -4.2388616 -0.88682735
7.6099958 -4.7908435 -0.50228411
8.4306917 -5.3075094 0
8.3882942 -5.280818 0.55365425
2.4210362 -1.5200723 -0.94259471
2.7325094 -1.715634 -0.89016926
3.264689 -2.0497684 -0.85396057
4.2838116 -2.6896348 -0.84327066
6.7361231 -4.2293434 -0.88653821
7.6267886 -4.7885571 -0.50301021
8.4348974 -5.2959361 0
8.3990736 -5.2734447 0.55394483
2.3621237 -1.4791073 -0.91896147
2.7367129 -1.7136663 -0.89086342
3.2693231 -2.0471745 -0.85452509
4.2979345 -2.6912673 -0.84541011
6.7368484 -4.2184587 -0.88596219
7.634769 -4.7807159 -0.50315517
8.4412899 -5.2857404 0
8.4054394 -5.2632918 0.55394483
2.3764915 -1.4841096 -0.92385286
2.7451591 -1.714341 -0.8929379
3.2739475 -2.0445673 -0.8550874
4.2968245 -2.6833501 -0.84455335
6.7529073 -4.217164 -0.88740337
7.6449437 -4.7742372 -0.50344521
8.4454651 -5.2741599 0
8.4095917 -5.2517567 0.55379981
2.3632748 -1.4679294 -0.91733313
2.7386405 -1.7010847 -0.88947773
3.2767224 -2.03531 -0.85452509
4.3141975 -2.6797295 -0.84669274
6.7608838 -4.1994691 -0.88711536
7.6454244 -4.7488947 -0.50271964
8.4581861 -5.2537351 0
8.4178391 -5.2286739 0.55350924
2.3797486 -1.47418 -0.9230355
2.7492247 -1.703059 -0.89224637
3.2726972 -2.0273337 -0.85283589
4.3130722 -2.6718137 -0.84583765
6.7659531 -4.1912971 -0.88711536
7.6511569 -4.7396531 -0.50271964
8.4645281 -5.2435112 0
8.4285736 -5.2212381 0.55379981
2.3647065 -1.4609112 -0.91651583
2.76195 -1.7063274 -0.89570653
3.2816315 -2.0273857 -0.85452509
4.3141155 -2.6652522 -0.84541011
6.7798142 -4.1885562 -0.88826853
7.6414022 -4.7208433 -0.5017035
8.4642134 -5.2291746 0
8.426034 -5.2055874 0.55321926
2.398036 -1.4775015 -0.9287411
2.7362452 -1.6858822 -0.88670909
3.2862401 -2.0247505 -0.8550874
4.3151412 -2.6586871 -0.8449809
6.7826705 -4.1790056 -0.88798052
7.6537395 -4.7156973 -0.50213909
8.4638767 -5.2148466 0
8.4389477 -5.1994877 0.55365425
2.3555992 -1.4474311 -0.91162759
2.7489655 -1.6891406 -0.89016926
3.2756991 -2.0127995 -0.85171121
4.3183503 -2.6534712 -0.8449809
6.7899165 -4.1721597 -0.88826853
7.6638641 -4.7091694 -0.50242966
8.4768257 -5.2087049 0
8.4408007 -5.1865687 0.55336428
2.338382 -1.4329623 -0.90429366
2.7702541 -1.697614 -0.89639801
3.284622 -2.0128188 -0.8533982
4.3259354 -2.6509366 -0.84583765
6.7971563 -4.1653028 -0.88855654
7.6629 -4.6958313 -0.50199407
8.4831133 -5.1984582 0
8.442626 -5.1736479 0.5530737
2.3907263 -1.4610685 -0.92385286
2.7637408 -1.6890324 -0.89362937
3.2870517 -2.0088487 -0.8533982
4.3269467 -2.6443701 -0.84541011
6.7933564 -4.1516914 -0.88740337
7.6707835 -4.687922 -0.50213909
8.484951 -5.185493 0
8.45331 -5.1661553 0.55336428
2.3692725 -1.444028 -0.91488743
2.7422211 -1.6713333 -0.88601762
3.2916441 -2.0061965 -0.85396057
4.3323288 -2.6404746 -0.84583765
6.8072023 -4.1488643 -0.88855654
7.6697836 -4.674592 -0.5017035
8.486762 -5.1725249 0
8.4551039 -5.1532302 0.5530737
2.385802 -1.4501517 -0.92059296
2.7613893 -1.6784432 -0.89155489
3.2962434 -2.0035412 -0.85452509
4.3289332 -2.6312366 -0.84455335
6.8210511 -4.1460099 -0.88970971
7.6709895 -4.6626244 -0.50141352
8.4974575 -5.1649728 0
8.4568882 -5.1403136 0.55278367
2.4023416 -1.4562327 -0.9262954
2.7784266 -1.6842049 -0.89639801
3.2964828 -1.9982361 -0.85396057
4.3408904 -2.6313269 -0.8462652
6.8282657 -4.1391044 -0.88999772
7.6743979 -4.6520061 -0.50126851
8.4947901 -5.1493053 0
8.4630928 -5.1300912 0.55278367
2.4011087 -1.4535023 -0.9254812
2.7601302 -1.6708347 -0.89016926
3.2998693 -1.9975637 -0.85452509
4.331501 -2.6220582 -0.84412581
6.8219147 -4.1296206 -0.88884455
7.677207 -4.6473689 -0.50126851
8.4979 -5.1441722 0
8.4661903 -5.1249771 0.55278367
2.3753581 -1.4339952 -0.91488743
2.7728839 -1.6739801 -0.89362937
3.3022804 -1.993575 -0.85452509
4.3390574 -2.6194735 -0.8449809
6.8446136 -4.1320686 -0.89115089
7.682817 -4.6380892 -0.50126851
8.5018749 -5.1325517 0
8.463479 -5.1093721 0.55220312
2.4024987 -1.446422 -0.924667
2.7663155 -1.6654574 -0.89086342
3.304687 -1.9895834 -0.85452509
4.3422194 -2.6142287 -0.8449809
6.8518152 -4.1251283 -0.8914389
7.6884155 -4.6288028 -0.50126851
8.5103064 -5.123621 0
8.4785509 -5.1045027 0.55278367
2.3576307 -1.4155307 -0.90673935
2.7726235 -1.664694 -0.89224637
3.3027275 -1.9829705 -0.8533982
4.3453751 -2.6089799 -0.8449809
6.8457093 -4.1101904 -0.88999772
7.685092 -4.6141591 -0.50068796
8.5231781 -5.1173491 0
8.4802532 -5.0915771 0.55249316
2.4102242 -1.4431487 -0.9262954
2.7832425 -1.6664977 -0.89501506
3.3029432 -1.9776742 -0.85283589
4.3551335 -2.6076851 -0.8462652
6.8528876 -4.1032434 -0.89028573
7.6839714 -4.6008639 -0.50025243
8.529355 -5.1070471 0
8.4819441 -5.0786591 0.55220312
2.4098463 -1.4389695 -0.9254812
2.780942 -1.6605586 -0.89362937
3.3075099 -1.9749833 -0.8533982
4.3450613 -2.5945268 -0.8436982
6.8534031 -4.0923104 -0.88970971
7.7006779 -4.5982356 -0.50097799
8.5288229 -5.0927382 0
8.4925327 -5.0710683 0.55249316
2.3797271 -1.4170868 -0.91325593
2.772171 -1.6507804 -0.89016926
3.3142643 -1.9735879 -0.85452509
4.3526001 -2.5918992 -0.84455335
6.8694525 -4.0906415 -0.89115089
7.7062283 -4.5889273 -0.50097799
8.5327282 -5.0810938 0
8.4964228 -5.0594749 0.55234814
2.4090705 -1.4306201 -0.92385286
2.7720084 -1.6461499 -0.88947773
3.3166466 -1.9695818 -0.85452509
4.3557286 -2.586638 -0.84455335
6.8766117 -4.0836577 -0.8914389
7.7005987 -4.5729799 -0.50025243
8.5343904 -5.0681248 0
8.5047626 -5.0505304 0.55249316
2.4001579 -1.4214073 -0.91977566
2.7761521 -1.6440765 -0.89016926
3.3124633 -1.9616874 -0.85283589
4.358851 -2.581373 -0.84455335
6.8815413 -4.0753455 -0.8914389
7.7172952 -4.570291 -0.50097799
8.5472279 -5.0617886 0
8.504158 -5.0362821 0.55205816
2.4082601 -1.4222779 -0.92222136
2.7889354 -1.6470983 -0.89362937
3.3170168 -1.9589744 -0.8533982
4.3619671 -2.5761044 -0.84455335
6.8753271 -4.0604525 -0.88999772
7.711627 -4.5543575 -0.50025243
8.5510902 -5.0501304 0
8.5124722 -5.0273228 0.55220312
2.3759019 -1.3992983 -0.90918189
2.782285 -1.6386396 -0.89086342
3.3237643 -1.9575464 -0.85452509
4.3606567 -2.568229 -0.8436982
6.8913698 -4.0587039 -0.8914389
7.7238436 -4.5489931 -0.50068796
8.5571861 -5.039794 0
8.5185404 -5.0170336 0.55220312
2.3925114 -1.4051898 -0.91488743
2.77561 -1.6301944 -0.88809472
3.3261273 -1.9535288 -0.85452509
4.3703909 -2.5668545 -0.8449809
6.8940406 -4.0490656 -0.89115089
7.7405353 -4.5462356 -0.50141352
8.5587854 -5.0268173 0
8.5268345 -5.0080519 0.55234814
2.3878074 -1.3985492 -0.91244179
2.7862368 -1.631911 -0.89086342
3.3306758 -1.9507914 -0.8550874
4.3734894 -2.5615718 -0.8449809
6.9078555 -4.0459609 -0.89230406
7.7482629 -4.5381913 -0.50155854
8.5581141 -5.0125251 0
8.5239115 -4.9924922 0.55176759
2.4108419 -1.408131 -0.92059296
2.7968636 -1.6335996 -0.89362937
3.3330305 -1.9467654 -0.8550874
4.3743668 -2.554992 -0.84455335
6.9172101 -4.0402226 -0.89288121
7.7492576 -4.5262074 -0.50126851
8.5709085 -5.0061193 0
8.5366707 -4.9861217 0.55220312
2.3634176 -1.3766041 -0.90184802
2.7901723 -1.6251731 -0.89086342
3.3353803 -1.9427367 -0.8550874
4.3752346 -2.5484138 -0.84412581
6.93326 -4.0383697 -0.8943224
7.7614508 -4.5207601 -0.5017035
8.5724487 -4.9931374 0
8.5359516 -4.9718785 0.55176759
2.4099591 -1.3998157 -0.91896147
2.8073134 -1.6306174 -0.89570653
3.3311317 -1.9348752 -0.8533982
4.3760929 -2.5418372 -0.8436982
6.9359002 -4.0286913 -0.89403439
7.7601733 -4.5074673 -0.50126851
8.5874777 -4.9880042 0
8.5352182 -4.9576492 0.55133259
2.438596 -1.4144797 -0.92955524
2.788769 -1.6175934 -0.88947773
3.3454919 -1.9405141 -0.8567766
4.3865104 -2.5443449 -0.84541011
6.936089 -4.0231986 -0.89374524
7.747159 -4.4936504 -0.50025243
8.579236 -4.9762874 0
8.5404577 -4.9537945 0.55147755
2.4146297 -1.3966818 -0.91977566
2.7972386 -1.6179922 -0.89155489
3.3390362 -1.9313815 -0.85452509
4.3918014 -2.5403268 -0.84583765
6.9409451 -4.0148149 -0.89374524
7.7660742 -4.4920902 -0.50112295
8.5874929 -4.9672194 0
8.541934 -4.9408665 0.55118704
2.3949099 -1.3814161 -0.91162759
2.7818062 -1.604583 -0.88601762
3.3479643 -1.9311506 -0.85621208
4.3881946 -2.5311692 -0.84455335
6.9480381 -4.0077214 -0.89403439
7.7625017 -4.4775147 -0.50054294
8.5912361 -4.9555402 0
8.5524035 -4.9331408 0.55147755
2.4072876 -1.3846818 -0.91570163
2.7837429 -1.6012206 -0.88601762
3.3458943 -1.9245723 -0.8550874
4.3957043 -2.5284276 -0.84541011
6.9483871 -3.9967413 -0.89345723
7.7611465 -4.4642439 -0.50010741
8.599472 -4.9464521 0
8.5515985 -4.9189153 0.55104202
2.4454041 -1.4026769 -0.92955524
2.8096075 -1.611583 -0.89362937
3.3460155 -1.919265 -0.85452509
4.3876247 -2.5167291 -0.84327066
6.9577026 -3.9909189 -0.89403439
7.7687869 -4.4561543 -0.50025243
8.6031876 -4.9347639 0
8.5552845 -4.9072871 0.550897
2.4492404 -1.4009471 -0.93036944
2.8093772 -1.6069425 -0.8929379
3.3395097 -1.9101744 -0.85227352
4.3928885 -2.5126991 -0.8436982
6.9580255 -3.979938 -0.89345723
7.7606368 -4.4390259 -0.49938184
8.6046295 -4.9217834 0
8.5634613 -4.8982353 0.55104202
2.4530847 -1.3992147 -0.93118674
2.8222106 -1.6097605 -0.89639801
3.3462253 -1.9086533 -0.8533982
4.4003768 -2.5099306 -0.84455335
6.9628291 -3.9715278 -0.89345723
7.7614765 -4.4270678 -0.4990913
8.6083117 -4.9100943 0
8.5671186 -4.8865981 0.550897
2.4246919 -1.3791395 -0.91977566
2.8176179 -1.6026317 -0.89432353
3.3441162 -1.9020985 -0.85227352
4.4101028 -2.5084207 -0.84583765
6.9721236 -3.9656715 -0.89403439
7.76682 -4.4176865 -0.4990913
8.6164989 -4.9009748 0
8.5707598 -4.8749595 0.55075204
2.422061 -1.3737724 -0.91814733
2.8260925 -1.6029357 -0.89639801
3.3574605 -1.9043231 -0.8550874
4.4108996 -2.5018249 -0.84541011
6.9701591 -3.9534149 -0.89316922
7.7698941 -4.4070177 -0.49894628
8.6133595 -4.8854241 0
8.5789022 -4.8658805 0.550897
2.4667459 -1.3951805 -0.93444663
2.8083763 -1.5884051 -0.89016926
3.3641782 -1.9027642 -0.85621208
4.4072142 -2.4927006 -0.84412581
6.97718 -3.9462621 -0.89345723
7.7752137 -4.3976264 -0.49894628
8.6215191 -4.8762932 0
8.5847759 -4.8555112 0.550897
2.4189131 -1.3642714 -0.91570163
2.8081102 -1.5837793 -0.88947773
3.3598418 -1.8949568 -0.85452509
4.407989 -2.4861138 -0.8436982
6.9751825 -3.9340155 -0.89259207
7.7759905 -4.3856726 -0.49865574
8.6274052 -4.8658719 0
8.5974283 -4.8489652 0.55133259
2.4571805 -1.3819435 -0.92955524
2.8187687 -1.5853044 -0.89224637
3.3554828 -1.8871579 -0.85283589
4.4154601 -2.4833 -0.84455335
6.9866962 -3.9293895 -0.89345723
7.7903433 -4.3813686 -0.49923629
8.6378193 -4.8579979 0
8.603281 -4.8385735 0.55133259
2.4329796 -1.3644656 -0.91977566
2.8163099 -1.5794452 -0.89086342
3.3644114 -1.8868319 -0.85452509
4.4139838 -2.4754541 -0.8436982
6.9914389 -3.9209445 -0.89345723
7.8046975 -4.3770366 -0.49981683
8.6436825 -4.8475571 0
8.6091213 -4.8281746 0.55133259
2.4411004 -1.3651451 -0.92222136
2.8182163 -1.5760411 -0.89086342
3.3622491 -1.8802825 -0.8533982
4.4259338 -2.4751308 -0.84541011
6.9871416 -3.907444 -0.89230406
7.8031831 -4.363802 -0.49938184
8.6449862 -4.8345666 0
8.6081429 -4.8139625 0.550897
2.4254787 -1.3525645 -0.91570163
2.8266857 -1.5762968 -0.8929379
3.3711782 -1.8799322 -0.8550874
4.4221931 -2.4660289 -0.84412581
6.9986372 -3.9027789 -0.89316922
7.8039069 -4.3518367 -0.4990913
8.644001 -4.8203135 0
8.6116858 -4.8022933 0.55075204
2.40119 -1.3352188 -0.90592206
2.8307788 -1.5740982 -0.89362937
3.3712287 -1.8746238 -0.85452509
4.4251695 -2.4606838 -0.84412581
6.9988222 -3.8918033 -0.89259207
7.7932696 -4.3335676 -0.49807572
8.6498194 -4.8098655 0
8.6265669 -4.7969356 0.55133259
2.4611657 -1.3646784 -0.9279269
2.8129344 -1.5597286 -0.88740057
3.3757114 -1.8717799 -0.8550874
4.4326253 -2.4578223 -0.8449809
7.0012598 -3.8820906 -0.89230406
7.8007703 -4.325407 -0.49822074
8.6465206 -4.7943621 0
8.6459866 -4.7940664 0.55220312
2.4273932 -1.3440354 -0.91488743
2.827049 -1.5653228 -0.89155489
3.3768415 -1.8697401 -0.8550874
4.4318657 -2.4539018 -0.84455335
6.9945531 -3.8728485 -0.89115089
7.7874675 -4.3118811 -0.49720463
7.8047762 -4.321465 0
7.7805495 -4.3080506 0.49676293
2.4463253 -1.3506584 -0.92140716
2.8179593 -1.5558438 -0.88809472
3.3790984 -1.8656585 -0.8550874
4.4303374 -2.4460657 -0.8436982
7.0060225 -3.8681457 -0.89201605
7.7790275 -4.2949352 -0.49633405
7.8623867 -4.3409595 0
0 -0 0
2.454453 -1.3512787 -0.92385286
2.8286281 -1.5572776 -0.89086342
3.3813503 -1.8615742 -0.8550874
4.4355364 -2.4419475 -0.84412581
7.0061555 -3.8571804 -0.8914389
7.7842112 -4.2855325 -0.49633405
7.8676262 -4.3314562 0
7.8045907 -4.2967525 0.49763349
2.4170811 -1.3269005 -0.90918189
2.8217108 -1.5490295 -0.88809472
3.3947318 -1.8635997 -0.85790128
4.440732 -2.4378204 -0.84455335
7.0085459 -3.8474684 -0.89115089
7.7825484 -4.2723713 -0.49589851
7.8614497 -4.3156857 0
7.7642207 -4.26231 0.49473068
2.4620433 -1.3477145 -0.9254812
2.8389785 -1.5540477 -0.8929379
3.3836124 -1.8521785 -0.85452509
4.4414248 -2.4312215 -0.84412581
7.008656 -3.8365157 -0.89057487
7.7740335 -4.2554808 -0.49502793
7.8620887 -4.3036819 0
7.7670884 -4.2516789 0.49458569
2.4116027 -1.3163189 -0.90592206
2.8254461 -1.5422059 -0.88809472
3.3880761 -1.8493049 -0.8550874
4.4421082 -2.4246244 -0.8436982
7.0178232 -3.8305204 -0.89115089
