# .PCD v0.7 - Point Cloud Data file format
VERSION 0.7
FIELDS x y z
SIZE 4 4 4
TYPE F F F
COUNT 1 1 1
WIDTH 1608
HEIGHT 1
VIEWPOINT 0 0 0 1 0 0 0
POINTS 1608
DATA ascii
3.1704021 1.517694 -0.96976322
3.8894861 1.8619245 -0.95527548
0 0 -0
0 0 -0
0 0 -0
14.128593 6.7634583 0
25.212292 12.069303 1.5613053
2.7151036 1.3037742 -0.99312097
3.1866581 1.5302114 -0.97530049
3.8597474 1.8534243 -0.9485209
0 0 -0
0 0 -0
11.87266 5.70117 -0.73565662
14.167332 6.8030558 0
25.157871 12.080638 1.5588381
2.6756737 1.2888211 -0.97926736
3.1486521 1.5166457 -0.96422857
3.921602 1.888961 -0.96428168
0 0 -0
0 0 -0
11.891507 5.7279124 -0.73725277
14.180201 6.8303328 0
25.124537 12.102011 1.5576775
2.6985881 1.3038781 -0.98822963
3.1784375 1.5357271 -0.97391748
3.8987281 1.8837503 -0.95921624
4.9357791 2.3848226 -0.9138816
0 0 -0
11.86586 5.7332335 -0.73609167
14.186002 6.8542571 0
25.039701 12.098444 1.553323
2.7081292 1.3125266 -0.99230367
3.1901207 1.5461295 -0.97806913
3.9055953 1.8928925 -0.96146774
0 0 -0
0 0 -0
11.931414 5.7826996 -0.74059111
14.194097 6.8793354 0
24.884775 12.060699 1.5446153
2.7198827 1.3222839 -0.99719501
3.2130713 1.5620499 -0.98568356
3.8964474 1.8942764 -0.95977855
4.9807882 2.4214339 -0.92329603
7.3719106 3.5838892 -0.91363716
11.924417 5.797112 -0.74059111
14.195136 6.9010324 0
24.772038 12.043043 1.5385197
2.7160635 1.3244871 -0.99638087
3.1705971 1.5461401 -0.97322601
3.8873022 1.895641 -0.95808935
4.9340172 2.4060709 -0.91516423
7.407094 3.6120656 -0.91853786
11.926746 5.816072 -0.74117166
14.179776 6.9147606 0
24.717766 12.053606 1.5360525
3.1642148 1.5477631 -0.97184032
3.8850088 1.9003366 -0.95808935
4.9288025 2.4109042 -0.91473669
7.3678708 3.6039646 -0.91421318
11.940715 5.8407536 -0.74247777
14.23686 6.9639034 0
24.693848 12.078897 1.5354719
2.659601 1.3049181 -0.97682166
3.1420741 1.5416408 -0.96561158
3.8621819 1.8949575 -0.95302397
4.9834991 2.4451256 -0.92543548
7.4331675 3.6470413 -0.9228614
11.949981 5.8631902 -0.74349391
14.240115 6.9868317 0
24.690905 12.114452 1.536198
2.6787744 1.316334 -0.9841556
3.1614046 1.5534956 -0.97184032
3.8770015 1.9051359 -0.95696467
4.9244246 2.4198334 -0.91473669
7.3706117 3.6218753 -0.91536635
11.958095 5.8761377 -0.74421948
14.268597 7.0115047 0
24.69524 12.135096 1.5369235
2.6461489 1.3042738 -0.97274762
3.1932814 1.5739527 -0.98222345
3.88609 1.9154347 -0.95977855
4.9629388 2.4462082 -0.92243928
7.3453526 3.6204882 -0.912772
11.923018 5.8767967 -0.74247777
14.276447 7.0367908 0
24.71785 12.183307 1.5392458
3.1553943 1.5600201 -0.97114885
3.8883238 1.9223789 -0.96090329
4.9852948 2.4647191 -0.92714733
7.3456054 3.6316514 -0.91334802
11.948514 5.9073195 -0.74450946
14.281937 7.0609589 0
24.733389 12.228134 1.5411325
2.6474137 1.3128587 -0.97437602
3.1669881 1.5705171 -0.97530049
3.8882811 1.928208 -0.96146774
4.961617 2.4604778 -0.92329603
7.3481655 3.6439729 -0.91421318
11.955339 5.9286814 -0.74538058
14.275723 7.0793657 0
24.706949 12.252235 1.5404063
2.6768026 1.331465 -0.98578393
3.1987839 1.5911031 -0.98568356
3.8768485 1.9283783 -0.95921624
4.9586406 2.4664712 -0.92329603
7.3298669 3.6459398 -0.91248399
11.964446 5.95122 -0.74639612
14.313763 7.1197906 0
24.685154 12.278612 1.5399714
2.6840384 1.3391122 -0.98904383
3.183394 1.5882491 -0.98153192
3.88133 1.9364611 -0.96090329
4.9533615 2.4713159 -0.92286849
7.3277683 3.6559474 -0.912772
11.975847 5.9749527 -0.74755722
14.328432 7.1486974 0
24.647045 12.296827 1.5385197
2.6868432 1.3445686 -0.99067533
3.1837139 1.5932162 -0.98222345
3.8698983 1.9366012 -0.95865172
4.9549589 2.4795947 -0.92372358
7.3071518 3.6566954 -0.91075367
11.957003 5.9836059 -0.74683172
14.37564 7.1939573 0
24.613579 12.317297 1.5373585
2.7073019 1.3588996 -0.9988234
3.1571205 1.584681 -0.97460896
3.8607492 1.9378595 -0.95696467
4.9427819 2.4809737 -0.92201173
7.2958002 3.6620445 -0.90988964
11.975311 6.0108724 -0.74842834
14.378565 7.2171583 0
24.582428 12.338872 1.536343
3.1776159 1.5997782 -0.98153192
3.8584049 1.942523 -0.95696467
4.9489522 2.4915617 -0.92372358
7.289053 3.6696908 -0.9096005
11.98196 6.0323462 -0.74929893
14.40005 7.2497392 0
24.551252 12.360386 1.535327
2.6665056 1.3464996 -0.98496979
3.1622396 1.5968293 -0.97737765
3.8628528 1.9506165 -0.95865172
4.9344831 2.4917552 -0.92158419
7.2730718 3.6726673 -0.90815932
11.963068 6.0409646 -0.74857336
14.402893 7.2729979 0
24.499187 12.371302 1.5330046
2.6979525 1.366473 -0.99719501
3.1647882 1.6029184 -0.97876328
3.8514347 1.9506947 -0.95640236
4.9520769 2.5081537 -0.92543548
7.3101578 3.7024865 -0.91334802
11.958076 6.0565882 -0.74871838
14.419636 7.3033319 0
24.474949 12.396199 1.5324241
2.6896865 1.3663726 -0.99474937
3.1471901 1.5987864 -0.97391748
3.8513381 1.9564966 -0.95696467
4.9376016 2.5083232 -0.92329603
7.2687917 3.6925778 -0.90873647
11.953063 6.0722084 -0.74886334
14.436316 7.3337121 0
24.43679 12.413997 1.530973
2.6836336 1.3673795 -0.99312097
3.1564305 1.6082816 -0.97737765
3.851233 1.9623013 -0.95752704
4.9208388 2.5072927 -0.92072743
7.2735429 3.7060552 -0.90988964
11.945717 6.086647 -0.74886334
14.450638 7.362968 0
24.382416 12.423461 1.5285058
2.6555691 1.3571242 -0.9833414
3.1254456 1.5972539 -0.96838021
3.85338 1.9692636 -0.95865172
4.9315257 2.5202482 -0.92329603
7.2552361 3.7077768 -0.90815932
11.931419 6.0975327 -0.74842834
14.453316 7.3863435 0
24.369698 12.454095 1.5286508
2.6803212 1.3738608 -0.99312097
3.1235135 1.6010293 -0.96838021
3.8532653 1.9750806 -0.95921624
4.9421792 2.5332286 -0.92586303
7.2622571 3.7224383 -0.9096005
11.937913 6.1190543 -0.74929893
14.474485 7.4192333 0
24.343073 12.477607 1.5279253
2.6610742 1.368058 -0.98660123
3.1528089 1.6208588 -0.97806913
3.8553913 1.9820563 -0.96034092
4.9345527 2.5368531 -0.92500788
7.2439566 3.7241175 -0.90787131
11.907405 6.1215963 -0.7478478
14.486339 7.4474258 0
24.291002 12.488003 1.5256029
2.641845 1.3622106 -0.98008156
3.1307821 1.6143205 -0.97184032
3.8417039 1.9808921 -0.95752704
4.9177899 2.5357528 -0.92243928
7.234849 3.7304947 -0.90729415
11.918468 6.1455016 -0.74900836
14.507398 7.4804282 0
24.248182 12.503055 1.5238613
2.6868098 1.3936253 -0.9980092
3.1357799 1.6265023 -0.97460896
3.8436744 1.9936811 -0.95921624
4.9116473 2.5476296 -0.92243928
7.2441812 3.7574949 -0.9096005
11.896667 6.1707001 -0.74857336
14.53779 7.540628 0
24.185608 12.544868 1.5218296
2.671972 1.390029 -0.99312097
3.1182308 1.6221842 -0.96976322
3.83675 1.9959764 -0.95808935
4.9313436 2.5654123 -0.92671978
7.2281647 3.760278 -0.90815932
11.889203 6.1850705 -0.74857336
14.554068 7.5714016 0
24.156605 12.56689 1.520959
2.6461847 1.3806788 -0.9841556
3.118499 1.6271145 -0.97045738
3.836586 2.0017853 -0.95865172
4.9077592 2.5606828 -0.92286849
7.2236161 3.7690091 -0.90815932
11.877109 6.1970253 -0.74828279
14.558747 7.5962029 0
24.113758 12.581645 1.5192174
2.6401389 1.3815855 -0.9825272
3.1409752 1.6436733 -0.97806913
3.8319154 2.0052426 -0.95808935
4.911478 2.570178 -0.92415112
7.2167673 3.7765365 -0.90787131
11.881122 6.2173948 -0.74900836
14.563397 7.6210308 0
24.066311 12.593908 1.5171857
2.6712887 1.4020004 -0.99474937
3.1412146 1.6486366 -0.97876328
3.8294895 2.0098712 -0.95808935
4.9083691 2.5761108 -0.92415112
7.2030377 3.7804458 -0.90671813
11.878206 6.2341638 -0.74929893
14.540348 7.6313634 0
24.041872 12.618148 1.5166051
2.676156 1.408682 -0.99719501
3.1303403 1.6477567 -0.97599465
3.8315594 2.0168662 -0.95921624
4.8984447 2.5784559 -0.92286849
7.2007513 3.7903502 -0.90700614
11.866062 6.2460885 -0.74900836
14.542628 7.6549869 0
24.008213 12.637506 1.515444
2.6578133 1.401078 -0.99067533
3.1204672 1.6449679 -0.97322601
3.8280861 2.0179925 -0.95865172
4.9082379 2.5873992 -0.92500788
7.2053261 3.7983193 -0.90787131
11.864592 6.2544718 -0.74915391
14.570236 7.6807642 0
23.966093 12.633831 1.5132668
2.6255324 1.3881176 -0.97926736
3.1140373 1.6463898 -0.97184032
3.8234007 2.02143 -0.95808935
4.902832 2.5921247 -0.92457873
7.1984472 3.8058152 -0.9075833
11.850132 6.2651582 -0.74871838
14.586246 7.711741 0
23.950809 12.662781 1.5132668
2.6762516 1.4190731 -0.9988234
3.1120455 1.6501514 -0.97184032
3.8299348 2.0308096 -0.96034092
4.9110427 2.6040633 -0.92671978
7.1915517 3.8132951 -0.90729415
11.854029 6.2855577 -0.74944389
14.613707 7.7488666 0
23.907944 12.677104 1.5115252
2.6156213 1.3909757 -0.97682166
3.1144838 1.6562686 -0.97322601
3.8229957 2.033052 -0.95921624
4.9056196 2.6087866 -0.92629057
7.1960731 3.8268397 -0.90844733
11.851018 6.3023186 -0.74973446
14.62042 7.7750735 0
23.876556 12.697446 1.5105096
2.6662784 1.4220504 -0.99638087
3.1124802 1.6600306 -0.97322601
3.825016 2.0400591 -0.96034092
4.9002008 2.6135054 -0.92586303
7.1823153 3.8306632 -0.90729415
11.845685 6.3178554 -0.74987948
14.636267 7.8062024 0
23.833683 12.711613 1.508768
2.6405826 1.4124465 -0.98741543
3.1347997 1.676803 -0.98083776
3.8247867 2.0458767 -0.96090329
4.8993011 2.6206341 -0.92629057
7.1731243 3.8369012 -0.90671813
11.840332 6.3333883 -0.7500245
14.649776 7.8361592 0
23.786232 12.723246 1.5067363
2.6519377 1.4226443 -0.99230367
3.1195111 1.6734761 -0.97668612
3.8223116 2.0504968 -0.96090329
4.8916111 2.6241271 -0.92543548
7.1662059 3.8443441 -0.90643013
11.841829 6.3526039 -0.75060505
14.6724 7.8710766 0
23.738781 12.734778 1.504704
3.1130638 1.6748646 -0.97530049
3.8153603 2.0527084 -0.95977855
4.886178 2.6288207 -0.92500788
7.1638312 3.8542247 -0.90671813
11.831859 6.3656778 -0.75046003
14.690381 7.9035959 0
23.679905 12.740065 1.5019468
2.6289175 1.418487 -0.98496979
3.1132522 1.6798197 -0.97599465
3.8106432 2.0561116 -0.95921624
4.8897691 2.6383762 -0.92629057
7.152338 3.8591921 -0.90585297
11.833305 6.3849053 -0.75104058
14.696855 7.9299927 0
23.62562 12.747693 1.4994795
2.6576383 1.4381328 -0.99638087
3.1023943 1.6788043 -0.97322601
3.8237925 2.0691757 -0.96315479
4.8910975 2.6467285 -0.92714733
7.1544962 3.8715255 -0.90671813
11.825583 6.399199 -0.75104058
14.698704 7.9539366 0
23.511938 12.723059 1.4932389
2.6602392 1.4436984 -0.9980092
3.1025665 1.6837472 -0.97391748
3.8101256 2.0677359 -0.96034092
4.878871 2.6477387 -0.92543548
7.1452618 3.8776977 -0.90614098
11.815559 6.4122448 -0.75089562
14.714237 7.9853425 0
23.453154 12.727908 1.4904811
2.6346109 1.4339137 -0.98904383
3.1423907 1.710278 -0.98706657
3.8165514 2.0771968 -0.96259248
4.8846869 2.6585407 -0.92714733
7.1405711 3.8863287 -0.90614098
11.807803 6.426517 -0.75089562
14.722865 8.0130692 0
23.3944 12.73264 1.4877239
2.6241984 1.4323595 -0.98578393
3.1028883 1.6936415 -0.97530049
3.8095825 2.0793746 -0.96146774
4.8769603 2.6619787 -0.92629057
7.1267977 3.8900018 -0.90498894
11.78634 6.4333076 -0.7500245
14.754294 8.053299 0
23.363029 12.752183 1.4867078
3.1140478 1.7046196 -0.97945476
3.8048317 2.0827527 -0.96090329
4.8804979 2.6715686 -0.92757487
7.1334343 3.9048188 -0.90643013
11.780835 6.448791 -0.75016946
14.749114 8.0736179 0
23.33621 12.774166 1.4859823
2.6185648 1.4375087 -0.98496979
3.107583 1.7059642 -0.97806913
3.8089967 2.091018 -0.96259248
4.8772659 2.6774638 -0.92757487
7.1287107 3.9134352 -0.90643013
11.763924 6.4580193 -0.74958891
14.757599 8.1014519 0
23.334421 12.809854 1.4868529
2.6384816 1.4525942 -0.99312097
3.1033239 1.7085091 -0.97737765
3.808691 2.096843 -0.96315479
4.869534 2.6808813 -0.92671978
7.1217046 3.920795 -0.90614098
11.753838 6.4709773 -0.74944389
14.756919 8.1242981 0
23.332586 12.845561 1.4877239
2.6150832 1.4438325 -0.98496979
3.114439 1.7195355 -0.98153192
3.8106077 2.1039021 -0.96428168
4.8707814 2.6892424 -0.92757487
7.1305518 3.9369006 -0.90787131
11.739183 6.4814057 -0.74900836
14.751643 8.1446371 0
23.330692 12.881278 1.4885945
2.6263146 1.454177 -0.98986113
3.10358 1.7184365 -0.97876328
3.8036127 2.106041 -0.96315479
4.8630414 2.6926413 -0.92671978
7.1076875 3.9354906 -0.90556496
11.731343 6.4955854 -0.74900836
14.755457 8.170022 0
20.137274 11.149906 1.2856998
2.6483185 1.4705443 -0.9988234
3.1124656 1.7282736 -0.98222345
3.8010652 2.1106355 -0.96315479
4.8687615 2.7035003 -0.92843163
7.1029272 3.9440758 -0.90556496
11.687147 6.4895778 -0.7466867
14.781979 8.2080593 0
20.137421 11.181801 1.2865709
2.6033604 1.4496986 -0.9825272
3.0928404 1.7222688 -0.97668612
3.8029561 2.1177015 -0.96428168
4.8632417 2.7081287 -0.92800242
7.1026711 3.9551699 -0.90614098
11.670217 6.4986377 -0.74610615
14.8107 8.2474375 0
20.098921 11.192218 1.2849743
3.0973303 1.7296754 -0.97876328
3.7959535 2.1198149 -0.96315479
4.8689313 2.7190094 -0.92971432
7.0956311 3.9624894 -0.90585297
11.655547 6.5089321 -0.74567056
14.827982 8.280549 0
20.071775 11.208897 1.2841038
2.6170928 1.4656425 -0.98904383
3.0996118 1.735866 -0.98014629
3.8022571 2.1293662 -0.96540636
4.8678885 2.7261486 -0.93014354
7.0953555 3.9735901 -0.90643013
11.622734 6.5090437 -0.74407387
14.827049 8.303546 0
20.053679 11.230599 1.2838131
2.64118 1.483327 -0.9988234
3.0953267 1.7383827 -0.97945476
3.801903 2.1352067 -0.96597087
4.8623462 2.7307677 -0.92971432
7.077014 3.9745588 -0.9046998
11.610333 6.5205402 -0.74378389
14.837425 8.3329239 0
20.008379 11.237011 1.2817814
3.0811517 1.7328712 -0.97530049
3.7895327 2.1312718 -0.96315479
4.8696456 2.7387383 -0.93142617
7.0903945 3.9877102 -0.90671813
11.599595 6.5237308 -0.74334836
14.857342 8.3559208 0
19.997053 11.246547 1.2814909
2.6384873 1.4881116 -0.9988234
3.1074607 1.7526135 -0.98429793
3.7935963 2.1395953 -0.96484399
4.861865 2.7421007 -0.93057108
7.0743084 3.9899228 -0.90527695
11.598496 6.5415726 -0.74378389
14.878965 8.3917637 0
19.963081 11.259214 1.2801849
2.6194766 1.4815643 -0.99230367
3.0660386 1.7341379 -0.97184032
3.7976453 2.1479313 -0.96653318
4.8473783 2.7416556 -0.92843163
7.0784879 4.003561 -0.90643013
11.597371 6.5594215 -0.74421948
14.895998 8.4251108 0
19.92911 11.271815 1.2788787
2.6327355 1.4932653 -0.9980092
3.1141336 1.7663101 -0.98776072
3.7928391 2.1512661 -0.96597087
4.8507543 2.7513065 -0.92971432
7.0691409 4.0095568 -0.90585297
11.609776 6.5849662 -0.7455256
14.903917 8.4533749 0
19.908701 11.292046 1.2784437
2.596555 1.4768935 -0.98496979
3.0880072 1.7564265 -0.98014629
3.8012781 2.1621275 -0.96878475
4.8585811 2.7635102 -0.93185371
7.050806 4.0104251 -0.90412378
11.624393 6.611834 -0.74697667
14.914049 8.4829559 0
19.874708 11.304527 1.277137
3.0837057 1.7589146 -0.97945476
3.7898343 2.1616833 -0.96653318
4.8463273 2.7642963 -0.93014354
7.0526972 4.0227876 -0.90498894
11.634453 6.6361747 -0.74813783
14.930916 8.5164442 0
19.84524 11.319526 1.2761215
2.6015601 1.4880728 -0.98822963
3.1011753 1.7738489 -0.98568356
3.8004489 2.1738281 -0.96990943
4.8541231 2.7765217 -0.93228292
7.0478315 4.0313063 -0.90498894
11.644469 6.6605487 -0.74929893
14.974832 8.5654907 0
19.820272 11.337047 1.2753959
2.5804667 1.4801484 -0.9808957
3.0750895 1.7638627 -0.97806913
3.7978194 2.1784186 -0.96990943
4.8485317 2.7811041 -0.93185371
7.0451965 4.0411053 -0.90527695
11.643177 6.678494 -0.74973446
14.996072 8.6017046 0
19.799795 11.357107 1.2749604
3.0881808 1.7763344 -0.98291492
3.7885747 2.179204 -0.96822023
4.8407216 2.7844031 -0.93099862
7.0425487 4.0509033 -0.90556496
11.662128 6.7081046 -0.75147617
15.010485 8.6340933 0
19.74552 11.357705 1.2723482
3.0664759 1.7687843 -0.97668612
3.78374 2.1825118 -0.96765786
4.8395748 2.7915316 -0.93142617
7.0331721 4.0568275 -0.90498894
11.665266 6.7286816 -0.75220174
15.027093 8.6678286 0
19.725027 11.377659 1.2719126
3.083879 1.7837921 -0.98291492
3.7898979 2.1921711 -0.96990943
4.8406467 2.7999504 -0.93228292
7.0215459 4.0614367 -0.90412378
11.686366 6.7596841 -0.7540884
15.045893 8.7029181 0
19.697765 11.393676 1.2710414
3.073041 1.7824821 -0.98014629
3.7762587 2.1903756 -0.96709555
4.8328147 2.8032188 -0.93142617
7.0188689 4.0712142 -0.90441179
11.689426 6.7803173 -0.75481397
15.06463 8.7380657 0
19.672747 11.410951 1.2703159
2.6056609 1.5155945 -0.99393517
3.0817258 1.7924997 -0.9836064
3.7867835 2.2025995 -0.97047174
4.8316412 2.8103456 -0.93185371
7.0139441 4.0796924 -0.90441179
11.701438 6.8061938 -0.75612003
15.069801 8.7654171 0
19.654457 11.432103 1.2700258
3.1077275 1.8126528 -0.99260384
3.7775412 2.2033367 -0.96878475
4.8348961 2.8200631 -0.93313807
7.0157146 4.0920749 -0.90527695
11.715647 6.8334169 -0.75757116
15.095168 8.8045998 0
19.642872 11.457151 1.2701709
2.6062536 1.5243802 -0.99556351
3.0882108 1.8062736 -0.98706657
3.7858403 2.2143126 -0.97159863
4.8359213 2.8284976 -0.93399483
7.004065 4.0966301 -0.90441179
11.723083 6.8567524 -0.7585873
15.11372 8.8399124 0
19.637985 11.486125 1.2707515
3.0795403 1.8061998 -0.98499209
3.7722056 2.2124591 -0.96878475
4.8280673 2.8317389 -0.93313807
6.9991097 4.1050901 -0.90441179
11.728243 6.8788028 -0.75945842
15.125481 8.8713369 0
19.653227 11.526934 1.2726381
3.0751867 1.8086439 -0.98429793
3.7717175 2.2183022 -0.96934706
4.8202209 2.8349702 -0.93228292
6.9963717 4.1148543 -0.9046998
11.731119 6.8995543 -0.76018399
15.157366 8.9146709 0
19.690794 11.580967 1.2759759
3.0751662 1.8136365 -0.98499209
3.7734075 2.2254372 -0.97047174
4.8300543 2.8486145 -0.93484992
6.9824829 4.1180491 -0.90354663
11.72501 6.9150429 -0.76032895
15.162277 8.942235 0
19.712597 11.625871 1.2782981
3.070807 1.8160702 -0.98429793
3.775094 2.2325842 -0.97159863
4.8177705 2.8492215 -0.93313807
6.9730539 4.1238527 -0.90297061
11.730062 6.937139 -0.76119953
15.169382 8.9711475 0
19.729853 11.668201 1.2803304
3.0642989 1.8172225 -0.98291492
3.765835 2.2332547 -0.96990943
4.8297825 2.864208 -0.93613422
6.9836411 4.1415114 -0.90498894
11.732852 6.9579382 -0.76192564
15.185384 9.0053949 0
19.75149 11.713235 1.282652
2.5866363 1.5381817 -0.99230367
3.0922849 1.8388731 -0.99260384
3.7587702 2.2352085 -0.96878475
4.8307266 2.8726633 -0.93698937
6.9719601 4.1459799 -0.90412378
11.728899 6.9747639 -0.76221561
15.190152 9.0330496 0
19.759661 11.750376 1.2841038
3.0728228 1.8323292 -0.98706657
3.760427 2.2423487 -0.96990943
4.8162303 2.8719258 -0.93484992
6.960279 4.1504254 -0.90325862
11.736087 6.9982476 -0.76323175
15.203816 9.0660601 0
19.796772 11.804848 1.2874415
2.6020014 1.5558426 -0.9996376
3.0684555 1.8347545 -0.98637509
3.757715 2.2468908 -0.96990943
4.8171673 2.8803806 -0.93570668
6.9574766 4.1601586 -0.90354663
11.738771 7.0190897 -0.76395732
15.219654 9.1004515 0
19.800337 11.839428 1.2886026
2.5958841 1.556446 -0.9980092
3.0619371 1.8358831 -0.98499209
3.7593598 2.2540455 -0.97103626
4.8114753 2.8848751 -0.93527746
6.9524446 4.1685624 -0.90354663
11.736969 7.0372787 -0.76439285
15.233193 9.1335526 0
19.837275 11.894078 1.2919409
3.0769172 1.849923 -0.99052936
3.7609847 2.2612021 -0.97216094
4.8145881 2.8946562 -0.93656176
6.9407592 4.1729655 -0.9026826
11.737366 7.0568109 -0.7649734
15.251139 9.169383 0
19.871878 11.947492 1.2951337
2.5676491 1.5458505 -0.98822963
3.0586045 1.8414297 -0.98499209
3.7639756 2.2660975 -0.97328782
4.8106413 2.8962417 -0.93613422
6.9448781 4.1811566 -0.90354663
11.746452 7.0719395 -0.76584399
15.279043 9.1987324 0
19.893593 11.976917 1.2970204
3.0692596 1.8529011 -0.98914373
3.75688 2.2680151 -0.97216094
4.8093338 2.9033778 -0.93656176
6.9265394 4.1815271 -0.90181744
11.744575 7.0901575 -0.76627952
15.303565 9.2387075 0
19.912468 12.021086 1.2991971
2.580821 1.5622904 -0.99474937
3.0541456 1.8488158 -0.98499209
3.7606599 2.2765017 -0.97385013
4.8036284 2.9078586 -0.93613422
6.9303327 4.195251 -0.90297061
11.74489 7.109726 -0.76686007
15.319098 9.2733593 0
19.940166 12.070705 1.3019549
3.0519094 1.8525047 -0.98499209
3.7557366 2.2797267 -0.97328782
4.8023033 2.9149916 -0.93656176
6.9341025 4.2089906 -0.90412378
11.745176 7.1293054 -0.76744068
15.323457 9.3013172 0
19.958879 12.115011 1.3041316
3.0582409 1.8614085 -0.98776072
3.7616611 2.2895474 -0.97553933
4.7987776 2.9207921 -0.93656176
6.9290113 4.2173657 -0.90412378
11.740988 7.1461916 -0.76773065
15.341105 9.3374147 0
19.981956 12.162085 1.3065988
3.0409973 1.8559525 -0.98291492
3.7567167 2.2927635 -0.97497487
4.8061991 2.9332736 -0.93870121
6.9217048 4.2243891 -0.90383577
11.734561 7.161725 -0.76787567
15.358688 9.3735685 0
20.000519 12.206526 1.308776
3.0537336 1.8687936 -0.98776072
3.7539437 2.2973011 -0.97497487
4.7982764 2.9364014 -0.93784612
6.9165955 4.2327495 -0.90383577
11.734764 7.1813245 -0.76845622
15.360674 9.4002724 0
20.030083 12.257811 1.3116789
3.0685797 1.882979 -0.99329799
3.7576642 2.3058233 -0.97666407
4.7969108 2.9435384 -0.93827367
6.907063 4.2383957 -0.90325862
11.730512 7.1982188 -0.76874679
15.349304 9.4188261 0
20.052904 12.305106 1.314146
3.0449312 1.8735359 -0.98637509
3.7483809 2.3063662 -0.97497487
4.7999115 2.9533694 -0.93955797
6.9041371 4.2480927 -0.90354663
11.715164 7.2083011 -0.7683112
15.357859 9.4496393 0
20.073423 12.35111 1.3164678
3.0531998 1.8888105 -0.99052936
3.7384789 2.312747 -0.97385013
4.7927604 2.9649603 -0.93955797
6.8806577 4.2566028 -0.90181744
11.702126 7.2393227 -0.76860124
15.377023 9.5127354 0
20.112022 12.441963 1.3209672
3.0466473 1.889851 -0.98914373
3.7378387 2.3186004 -0.9744125
4.7869949 2.9693973 -0.93913043
6.8799009 4.2676377 -0.90239346
11.695584 7.2548308 -0.76874679
12.798023 7.9386792 0
22.020153 13.659213 1.4473771
3.0422335 1.8922071 -0.9884522
3.73719 2.324456 -0.97497487
4.7877588 2.9778883 -0.93998551
6.8747396 4.2759476 -0.90239346
11.691218 7.2716994 -0.76903677
12.759695 7.9362698 0
21.983776 13.67346 1.446071
3.0463331 1.8998657 -0.99052936
3.7516265 2.3397267 -0.97947794
4.7863336 2.9850285 -0.94041306
6.8673754 4.2828841 -0.90210545
11.684627 7.2871943 -0.76918179
12.736842 7.9434161 0
21.954004 13.69176 1.4451998
3.0376518 1.8995534 -0.9884522
3.7423398 2.3402205 -0.97779089
4.7827229 2.9908097 -0.94041306
6.8556142 4.2870631 -0.90124029
11.671411 7.2985549 -0.76889175
12.722826 7.9560432 0
21.935244 13.716901 1.4450549
2.5685232 1.6105109 -0.9996376
3.0502348 1.9125528 -0.99329799
3.7373505 2.3433869 -0.97722638
4.7769327 2.995224 -0.93998551
6.8460507 4.2925982 -0.90066427
11.666982 7.3154101 -0.76918179
12.695564 7.96035 0
21.905449 13.735116 1.4441843
3.0627828 1.9255803 -0.99814117
3.7216139 2.3397892 -0.97385013
4.7798324 3.0050941 -0.94126981
6.8474298 4.3049989 -0.90152943
11.651541 7.325357 -0.76874679
12.672713 7.967371 0
21.871239 13.75051 1.4430232
3.0477242 1.9212551 -0.99398953
3.7252343 2.3483505 -0.97553933
4.778367 3.0122349 -0.94169742
6.850975 4.3187866 -0.9026826
11.640477 7.3380408 -0.76860124
12.649872 7.9743528 0
21.839218 13.767226 1.4420071
3.043282 1.9235971 -0.99329799
3.7266855 2.3555627 -0.97666407
4.7660441 3.0125203 -0.93998551
6.8391905 4.3229141 -0.90181744
11.625018 7.3479395 -0.76816618
12.633625 7.9854593 0
21.822569 13.793605 1.4420071
3.0324793 1.921901 -0.99052936
3.717396 2.3559821 -0.97497487
4.7667332 3.0210226 -0.94084066
6.8361449 4.3325582 -0.90210545
11.62491 7.3675447 -0.76874679
12.599793 7.9853978 0
21.777355 13.801881 1.4401205
3.0322702 1.926908 -0.99122089
3.7081192 2.3563876 -0.97328782
4.7717457 3.0322874 -0.94255251
6.8330855 4.3422012 -0.90239346
11.611609 7.3787956 -0.76845622
12.576952 7.992239 0
21.743118 13.817036 1.4389594
2.5463598 1.6224504 -0.99556351
3.0426304 1.9386564 -0.99537253
3.7181225 2.3690562 -0.97666407
4.7659154 3.0366728 -0.94212496
6.8169293 4.3435063 -0.90095228
11.600496 7.3914256 -0.7683112
12.549726 7.996242 0
21.715452 13.836318 1.4382337
2.5548096 1.6321779 -0.9996376
3.0423977 1.9436809 -0.99606401
3.7216828 2.3776522 -0.97835326
4.7644038 3.0438099 -0.94255251
6.8051353 4.3475614 -0.90008712
11.600315 7.4110332 -0.76889175
12.535674 8.0086002 0
12.657796 8.0866203 0.83898365
3.031605 1.9419479 -0.99329799
3.7316406 2.390368 -0.98172945
4.758563 3.0481813 -0.94212496
6.8129492 4.3641543 -0.90181744
11.593538 7.4264445 -0.76903677
12.515033 8.0167246 0
12.628325 8.0892963 0.83767754
3.0367603 1.9478387 -0.99537253
3.7152307 2.3830233 -0.97779089
4.7567205 3.0510557 -0.94212496
6.8124862 4.3696647 -0.90210545
11.597798 7.4390593 -0.76961732
12.501425 8.0186634 0
12.599383 8.0814962 0.83608145
3.7208886 2.393003 -0.98004025
4.75951 3.0609679 -0.94340926
6.8137298 4.3820915 -0.90297061
11.593176 7.4558811 -0.76990789
12.489532 8.0323515 0
12.578675 8.0896826 0.83535534
3.0193977 1.9470167 -0.99122089
3.7222695 2.4002538 -0.98116714
4.7493334 3.0625417 -0.94212496
6.8019066 4.3861151 -0.90210545
11.58634 7.4712906 -0.77005291
12.455764 8.0319262 0
12.562346 8.1006546 0.83492035
3.0296795 1.9588339 -0.99537253
3.7086997 2.3978531 -0.97835326
4.752099 3.0724609 -0.94340926
6.7879138 4.3887134 -0.90095228
11.581664 7.4881039 -0.77034289
12.454792 8.0526228 0
12.539453 8.1073599 0.83404922
3.0252075 1.9611299 -0.994681
3.7100599 2.4050941 -0.97947794
4.750535 3.0795958 -0.94383681
6.7826056 4.3969121 -0.90095228
11.576973 7.5049224 -0.77063346
12.451606 8.0719147 0
12.512204 8.1111984 0.83288813
3.0354524 1.9729846 -0.99883264
3.7156727 2.4151144 -0.98172945
4.7425098 3.0825381 -0.94298172
6.777288 4.4051042 -0.90095228
11.563535 7.5160704 -0.77034289
12.446203 8.0897875 0
12.484964 8.1149817 0.83172697
3.0309665 1.9752823 -0.99814117
3.6999834 2.4112811 -0.97835326
4.7452273 3.0924671 -0.94426435
6.7784634 4.4175282 -0.90181744
11.554444 7.5300374 -0.77034289
12.429876 8.1005564 0
12.472976 8.128644 0.83158201
3.7034421 2.4199157 -0.98004025
4.7479362 3.1024125 -0.94554871
6.7709575 4.4243016 -0.90152943
11.545338 7.543993 -0.77034289
12.439685 8.1283808 0
12.452271 8.1366043 0.83085644
3.0156937 1.9757284 -0.994681
3.7047703 2.4271762 -0.98116714
4.7377405 3.1039255 -0.94426435
6.7656064 4.4324799 -0.90152943
11.542736 7.562211 -0.77077842
12.438561 8.1491108 0
12.433736 8.1459484 0.83027589
3.6954618 2.4274647 -0.97947794
4.7382817 3.1124692 -0.94512111
6.7580781 4.4392276 -0.90124029
11.524903 7.5704465 -0.77019787
12.433061 8.1669941 0
12.415196 8.1552601 0.82969528
3.7031341 2.4389148 -0.98229182
4.7302256 3.1153657 -0.94426435
6.7591915 4.4516592 -0.90210545
11.517915 7.5857944 -0.77034289
12.429706 8.186307 0
12.403165 8.1688271 0.82955033
3.021069 1.994939 -0.99883264
3.7065473 2.4475892 -0.98398101
4.7371745 3.1281557 -0.94640547
6.749495 4.4569755 -0.90152943
11.521755 7.6082997 -0.77121401
12.435001 8.2113543 0
12.388945 8.1809416 0.82925975
3.6951127 2.4464552 -0.98172945
4.731245 3.1324563 -0.94597626
6.7548857 4.4722657 -0.90297061
11.516883 7.625082 -0.77150398
12.448942 8.2421789 0
12.381224 8.1973438 0.82940531
3.6900389 2.4495144 -0.98116714
4.7360115 3.1438496 -0.9476881
6.747324 4.4789953 -0.9026826
11.522817 7.6490536 -0.77252012
12.45632 8.2687292 0
12.36265 8.2065496 0.82882476
3.6934242 2.4581959 -0.98285633
4.7322092 3.14957 -0.9476881
6.7397475 4.4857078 -0.90239346
11.511405 7.6615329 -0.77237511
12.461479 8.2938643 0
12.352725 8.2214813 0.82882476
3.6819973 2.4570155 -0.98060477
4.7198591 3.149586 -0.94597626
6.7300239 4.4909792 -0.90181744
11.515103 7.6840873 -0.77324569
12.483922 8.3305855 0
12.347101 8.2392836 0.82911474
3.6769078 2.4600458 -0.98004025
4.7203212 3.1581445 -0.94683301
6.7245927 4.4991078 -0.90181744
11.529569 7.713891 -0.77484232
12.478169 8.3485546 0
12.341459 8.2570887 0.82940531
3.682373 2.4701486 -0.98229182
4.7186313 3.1652744 -0.94726056
6.723443 4.5101089 -0.90239346
11.531027 7.7350531 -0.77556789
12.474559 8.3679771 0
12.335785 8.274888 0.82969528
3.002008 2.0190213 -0.99814117
3.675173 2.4717629 -0.98116714
4.7126751 3.1695423 -0.94683301
6.7158446 4.5167875 -0.90210545
11.532452 7.7562299 -0.77629346
12.470919 8.3874025 0
12.330094 8.2926903 0.82998586
3.676393 2.4790404 -0.98229182
4.7130947 3.178102 -0.9476881
6.7060971 4.5220098 -0.90152943
11.514453 7.7643476 -0.77571291
15.969115 10.768186 0
12.320065 8.3075829 0.82998586
3.6776087 2.4863296 -0.98341864
4.7198825 3.1909821 -0.94982755
6.6920571 4.5243149 -0.90037626
11.520134 7.788444 -0.77672905
15.958255 10.788935 0
12.31432 8.3253708 0.83027589
2.99052 2.0270774 -0.99675816
3.6809137 2.49505 -0.98510784
4.7075238 3.1909213 -0.94811565
6.6908636 4.5352974 -0.90095228
11.50426 7.7979827 -0.77629346
16.005518 10.84909 0
12.310705 8.3446198 0.83071142
3.6799958 2.5009224 -0.98567021
4.7036648 3.1966071 -0.94811565
6.6960726 4.5506463 -0.90239346
11.496976 7.8133368 -0.77643847
16.050516 10.907919 0
12.30921 8.3653307 0.83129197
2.9939058 2.0399489 -0.9995268
3.6706698 2.5010736 -0.98398101
4.6997986 3.2022884 -0.94811565
6.6884336 4.5572791 -0.90210545
11.487527 7.8272233 -0.77643847
16.050224 10.936095 0
12.305529 8.3845825 0.83172697
3.6670611 2.5018601 -0.98341864
4.6957445 3.2036817 -0.9476881
6.6835446 4.5598626 -0.90181744
11.480652 7.8326988 -0.77629346
16.050066 10.950191 0
12.313344 8.4008055 0.83259809
3.6577418 2.5019844 -0.98172945
4.7003455 3.2151506 -0.94940001
6.6822958 4.5708528 -0.90239346
11.484043 7.8553648 -0.77716404
16.075483 10.996021 0
12.311764 8.421545 0.83317864
3.6651914 2.513586 -0.98454332
4.690104 3.2164707 -0.94811565
6.6639738 4.5701494 -0.90066427
11.478833 7.8721771 -0.77745456
16.098669 11.040459 0
12.31015 8.4422941 0.83375919
3.6642513 2.5194566 -0.98510784
4.6904488 3.2250471 -0.9489724
6.6605759 4.5796623 -0.90095228
11.480017 7.8934011 -0.77818012
16.18396 11.127728 0
12.304218 8.460104 0.83404922
3.6570163 2.5209954 -0.98398101
4.6865482 3.2307122 -0.9489724
6.6550374 4.587707 -0.90095228
11.496142 7.924964 -0.77992183
16.200497 11.167951 0
20.769745 14.317801 1.409062
3.6560557 2.5268557 -0.98454332
4.684751 3.2378306 -0.94940001
6.6494894 4.5957446 -0.90095228
11.531446 7.9698725 -0.78296959
16.210543 11.203795 0
20.741745 14.335502 1.4083364
2.9757237 2.0619669 -0.99883264
3.6571808 2.5341685 -0.98567021
4.6745033 3.2391014 -0.94811565
6.6609392 4.615561 -0.90325862
11.570925 8.0178356 -0.78630739
16.222662 11.241162 0
20.71373 14.353155 1.4076109
3.6541162 2.5385857 -0.98567021
4.6769128 3.2491424 -0.94940001
6.6362414 4.6103263 -0.90066427
11.588968 8.0510826 -0.78819406
16.243258 11.284508 0
20.6793 14.366313 1.4064498
3.6531291 2.54445 -0.98623252
4.6708789 3.2533255 -0.9489724
6.6327863 4.6198182 -0.90095228
11.609087 8.0858736 -0.79022628
16.246695 11.316026 0
20.649137 14.382381 1.4055792
3.6521332 2.5503156 -0.98679489
4.6690474 3.2604353 -0.94940001
6.6293178 4.6293087 -0.90124029
11.633387 8.1236925 -0.792548
16.269281 11.360977 0
20.623222 14.40137 1.4049987
3.6469696 2.5532706 -0.98623252
4.6693144 3.269022 -0.95025676
6.6173692 4.6328697 -0.90037626
11.65124 8.1571207 -0.7944352
16.304579 11.414958 0
20.595165 14.418829 1.404273
3.6480451 2.5605979 -0.9873594
4.6590552 3.2702355 -0.9489724
6.6308174 4.6542344 -0.90297061
11.686029 8.2025356 -0.79748243
16.32272 11.457073 0
20.560713 14.431761 1.4031119
3.6366367 2.5591547 -0.98510784
4.6551003 3.2758627 -0.9489724
6.614615 4.6548018 -0.90152943
11.716487 8.2450647 -0.80024022
16.325891 11.48877 0
20.53476 14.450613 1.4025314
3.6418464 2.5694063 -0.9873594
4.6532345 3.2829635 -0.94940001
6.6047549 4.6598058 -0.90095228
11.772329 8.3056479 -0.80473912
16.346022 11.532494 0
20.498177 14.461934 1.4012253
3.642884 2.5767367 -0.98848408
4.6492643 3.2885838 -0.94940001
6.6012292 4.6692753 -0.90124029
11.804712 8.3498774 -0.80764192
16.35545 11.568769 0
20.467955 14.477685 1.4003541
3.6376972 2.579668 -0.98792171
4.6494794 3.2971718 -0.95025676
6.6019139 4.6817384 -0.90210545
11.792498 8.3626337 -0.80749691
16.392399 11.624647 0
20.437733 14.493391 1.3994836
3.6325088 2.5825908 -0.9873594
4.649672 3.3057594 -0.95111185
6.5899258 4.685214 -0.90124029
11.797202 8.3874111 -0.80851245
16.418644 11.6731 0
20.413851 14.513556 1.3990481
3.6273105 2.585499 -0.98679489
4.6435862 3.3098867 -0.95068431
6.5863724 4.6946793 -0.90152943
11.784945 8.4001532 -0.80836749
16.438435 11.717099 0
20.381485 14.527654 1.3980319
3.6262569 2.5913615 -0.9873594
4.6395831 3.3154953 -0.95068431
6.5827971 4.7041364 -0.90181744
11.787476 8.4234543 -0.80923861
16.45602 11.759645 0
20.351236 14.543208 1.3971614
3.6251867 2.5972197 -0.98792171
4.6293116 3.3166122 -0.94940001
6.5750079 4.7105823 -0.90152943
11.777288 8.4376907 -0.80923861
16.473536 11.802258 0
20.327309 14.563247 1.3967258
3.6261692 2.6045599 -0.98904639
4.6357236 3.3296897 -0.9515394
6.5714097 4.7200308 -0.90181744
11.769194 8.4534302 -0.80938357
16.507872 11.857069 0
20.301256 14.581734 1.3961452
3.6250794 2.6104228 -0.98960876
4.6254535 3.3307929 -0.95025676
6.5698957 4.7309875 -0.90239346
11.750536 8.4615707 -0.80880302
16.537882 11.908942 0
20.264647 14.592589 1.3948392
3.6276278 2.6155875 -0.99073559
4.6276007 3.3365865 -0.95111185
6.5628443 4.7319331 -0.90181744
11.753853 8.4747477 -0.80938357
16.549681 11.932629 0
20.238964 14.592671 1.3936781
3.6327016 2.6259229 -0.99298716
4.6235657 3.3421757 -0.95111185
6.5508313 4.7353125 -0.90095228
11.735181 8.4828539 -0.80880302
16.56056 11.970913 0
20.208687 14.607985 1.3928075
3.6212964 2.6243463 -0.99073559
4.619524 3.34776 -0.95111185
6.545105 4.7432246 -0.90095228
11.737542 8.5061731 -0.80967361
16.550295 11.993965 0
20.184706 14.627817 1.3923719
3.6190474 2.6360791 -0.99186033
4.6114202 3.3589137 -0.95111185
6.541986 4.7651191 -0.90210545
11.710657 8.5299282 -0.80923861
16.554918 12.058442 0
20.119898 14.655137 1.3903402
3.6138096 2.638953 -0.99129796
4.6073585 3.3644831 -0.95111185
6.5383101 4.7745442 -0.90239346
11.708735 8.5502024 -0.80981916
16.622299 12.138289 0
20.100079 14.677907 1.3901953
3.6147227 2.6463223 -0.99242479
4.6032896 3.3700478 -0.95111185
6.5221033 4.7748032 -0.90095228
11.71516 8.5766172 -0.81097972
16.645422 12.18604 0
20.06765 14.691437 1.3891791
3.6033289 2.6446745 -0.99017328
4.5992141 3.3756075 -0.95111185
6.5288439 4.7918653 -0.9026826
11.70689 8.592308 -0.81112528
16.681032 12.243094 0
20.045698 14.712603 1.3888891
3.6021752 2.6505308 -0.99073559
4.6034026 3.387248 -0.9528237
6.5209599 4.7982135 -0.90239346
11.700681 8.6095247 -0.81141526
16.743782 12.320309 0
20.015345 14.72757 1.388018
3.6071489 2.6609149 -0.99298716
4.5951786 3.3897629 -0.95196861
6.5068316 4.7999477 -0.90124029
11.706998 8.6359968 -0.81257635
16.774954 12.374517 0
19.984991 14.742492 1.3871474
3.5957594 2.6592281 -0.99073559
4.5952034 3.3983626 -0.9528237
6.507268 4.8124218 -0.90210545
11.713268 8.6624966 -0.81373751
16.799749 12.424181 0
19.952538 14.755812 1.3861313
3.6027472 2.6711361 -0.99354953
4.5849056 3.3993244 -0.9515394
6.5056076 4.8233647 -0.9026826
11.704878 8.6781893 -0.81388247
16.836987 12.483219 0
19.926344 14.77372 1.3855507
3.5954423 2.6724586 -0.99242479
4.5911021 3.4125233 -0.95368046
6.4935455 4.8265915 -0.90181744
11.702725 8.6985264 -0.81446308
16.85531 12.528395 0
19.900137 14.791585 1.3849702
3.5962815 2.6798346 -0.99354953
4.5828547 3.4149976 -0.9528237
6.4877086 4.834434 -0.90181744
11.700541 8.7188711 -0.81504363
16.875633 12.575186 0
19.869751 14.806307 1.3840996
3.5869322 2.6796145 -0.99186033
4.5890059 3.4282129 -0.95496315
6.4901509 4.8484616 -0.90297061
11.692077 8.7345562 -0.81518859
16.897953 12.623601 0
19.839352 14.820971 1.3832285
3.5938663 2.6915669 -0.99467635
4.5745883 3.4260626 -0.9528237
6.478075 4.8516474 -0.90210545
11.693997 8.7580261 -0.81605971
16.949337 12.693926 0
19.811033 14.837146 1.382503
3.5865438 2.6928532 -0.99354953
4.5683947 3.4300478 -0.95239615
6.472208 4.8594713 -0.90210545
11.704182 8.7877483 -0.81751084
16.990181 12.756588 0
19.780626 14.851715 1.3816324
3.5771952 2.6925993 -0.99186033
4.5642467 3.4355652 -0.95239615
6.4828634 4.8797321 -0.90441179
11.695629 8.8034449 -0.81765586
17.022572 12.813101 0
19.748133 14.864665 1.3806163
3.5739391 2.6969197 -0.99186033
4.5621395 3.4426224 -0.9528237
6.4769626 4.8875618 -0.90441179
11.699504 8.8285284 -0.81867194
17.005001 12.832094 0
19.721861 14.882255 1.3800358
3.5787833 2.7073679 -0.99411184
4.5641198 3.4527802 -0.95410806
6.4566112 4.8844595 -0.90239346
11.697117 8.8489294 -0.81925249
16.985336 12.849495 0
19.689356 14.895099 1.3790196
3.5694418 2.7070885 -0.99242479
4.5538063 3.4536374 -0.9528237
6.4630737 4.901638 -0.90412378
11.678135 8.8567753 -0.81867194
16.957354 12.86057 0
19.665138 14.914172 1.3785846
3.5722303 2.7160087 -0.99411184
4.5516715 3.4606893 -0.9532513
6.4592032 4.9110079 -0.90441179
11.686039 8.8850327 -0.81997806
16.927305 12.870028 0
19.634689 14.928484 1.3777136
3.5750103 2.7249453 -0.99580103
4.5556531 3.4724114 -0.95496315
6.4532642 4.9188089 -0.90441179
11.691828 8.9117479 -0.82113922
16.907598 12.887315 0
19.610443 14.947476 1.3772786
3.5652838 2.7209387 -0.99354953
4.545392 3.4689333 -0.9532513
6.4544077 4.925848 -0.90498894
11.690577 8.9219656 -0.82142973
16.881191 12.883318 0
19.578684 14.941979 1.3756819
3.5599773 2.723702 -0.99298716
4.5473156 3.4791043 -0.9545356
6.4587202 4.9415002 -0.90643013
11.688034 8.9423952 -0.82200974
16.847012 12.889476 0
19.550299 14.957732 1.3749563
3.5586979 2.7295465 -0.99354953
4.5532908 3.4924064 -0.95667499
6.4383764 4.9382801 -0.90441179
11.689595 8.9660025 -0.82288086
16.827291 12.906651 0
19.528084 14.978178 1.3746657
3.5553973 2.7338445 -0.99354953
4.5409274 3.4916463 -0.95496315
6.4385581 4.9507875 -0.90527695
11.69729 8.9943743 -0.82418698
16.836441 12.946012 0
19.497616 14.992263 1.3737952
3.5541017 2.7396884 -0.99411184
4.5407753 3.5002682 -0.9558199
6.4448581 4.9680352 -0.90700614
11.700822 9.0196075 -0.82520312
15.464592 11.920919 0
19.467134 15.006289 1.3729241
3.5507889 2.7439806 -0.99411184
4.5345058 3.504178 -0.95539069
6.4388509 4.9758191 -0.90700614
11.710471 9.0496254 -0.8266542
15.373994 11.880724 0
19.442825 15.025039 1.3724891
3.5534985 2.752939 -0.99580103
4.5323033 3.5112312 -0.9558199
6.4307909 4.9820127 -0.90671813
11.705692 9.0685444 -0.82708979
15.361683 11.900885 0
19.420544 15.045335 1.3721985
3.5401375 2.7494395 -0.99298716
4.5321083 3.5198512 -0.95667499
6.4288483 4.9929495 -0.90729415
11.709086 9.0938339 -0.82810533
15.291801 11.876341 0
19.387991 15.057637 1.3711829
3.5428295 2.7583995 -0.99467635
4.5238047 3.5221736 -0.9558199
6.430974 5.0070701 -0.90844733
11.710395 9.1175566 -0.82897645
15.300022 11.912392 0
19.355429 15.069878 1.3701668
3.5475059 2.7689319 -0.99692792
4.5175161 3.5260532 -0.95539069
6.4351196 5.0227985 -0.90988964
11.71985 9.1476841 -0.83042759
15.279461 11.926064 0
19.331059 15.088455 1.3697313
3.5361531 2.766953 -0.99467635
4.5152798 3.5330956 -0.9558199
6.4229326 5.0257874 -0.90902448
11.725159 9.1746492 -0.83158869
15.273237 11.950933 0
19.304628 15.105397 1.3691508
3.5368018 2.7743573 -0.99580103
4.5110078 3.5385489 -0.9558199
6.4168553 5.0335445 -0.90902448
11.73042 9.2016401 -0.83274978
15.246504 11.959745 0
19.27614 15.120695 1.3684251
3.5374455 2.7817731 -0.99692792
4.5127764 3.548753 -0.9571026
6.4229636 5.0508842 -0.91075367
11.733593 9.2270517 -0.83376592
15.242269 11.9862 0
19.243557 15.13273 1.367409
3.5340817 2.7860453 -0.99692792
4.514535 3.5589724 -0.9583869
6.4168558 5.0586414 -0.91075367
11.726513 9.2444372 -0.8340559
17.191757 13.552889 0
19.215057 15.147929 1.3666835
3.5366874 2.7950354 -0.99861491
4.5102315 3.5644248 -0.9583869
6.4026217 5.0599761 -0.9096005
11.723489 9.2650442 -0.83463645
17.183529 13.5801 0
19.186548 15.163082 1.365958
3.5333076 2.7993066 -0.99861491
4.4978728 3.5634954 -0.95667499
6.4046125 5.0741334 -0.91075367
11.718397 9.2840462 -0.83507204
17.17935 13.610554 0
19.153954 15.174957 1.3649418
3.5259471 2.8004165 -0.99749023
4.4935637 3.5689275 -0.95667499
6.4025311 5.0850887 -0.91133082
11.711237 9.3014269 -0.83536202
17.187347 13.650724 0
19.125431 15.190011 1.3642162
3.5205748 2.8030937 -0.99692792
4.5013013 3.5839515 -0.95924366
6.4004254 5.0960407 -0.91190684
11.704059 9.3188114 -0.83565259
17.20545 13.699039 0
19.100971 15.208259 1.3637812
3.5191693 2.8089292 -0.99749023
4.4969678 3.5893879 -0.95924366
6.3962827 5.1053824 -0.91219485
11.698877 9.3378048 -0.83608758
17.227526 13.75066 0
19.074457 15.224843 1.3632007
3.5157726 2.8131793 -0.99749023
4.4886146 3.5916083 -0.9583869
6.3941522 5.1163425 -0.912772
11.693674 9.3568058 -0.83652312
17.257637 13.808865 0
19.039816 15.234892 1.3620396
3.5163312 2.8206022 -0.99861491
4.4822712 3.5954247 -0.95795935
6.3879652 5.1240649 -0.912772
11.692492 9.379056 -0.83724868
17.287626 13.867156 0
19.019369 15.256263 1.3618946
3.5129204 2.8248489 -0.99861491
4.4839268 3.6056654 -0.95924366
6.3777342 5.1285348 -0.91219485
11.697351 9.4062042 -0.83840984
17.305332 13.915758 0
18.98472 15.266206 1.3607335
3.5114884 2.8306906 -0.99917942
4.4875612 3.6175251 -0.9609555
6.3856301 5.1476016 -0.91421318
11.698118 9.4301195 -0.8392809
17.341183 13.979121 0
18.964231 15.287498 1.360588
3.5080655 2.8349316 -0.99917942
4.4811845 3.6213267 -0.96052629
6.3773961 5.1536894 -0.91392517
11.694799 9.4507799 -0.83986151
17.364761 14.03278 0
18.935644 15.302238 1.3598623
3.5063522 2.8370504 -0.99917942
4.4770021 3.6224201 -0.96009874
6.3803153 5.1624241 -0.91479033
11.695142 9.4627428 -0.84029651
17.396744 14.076008 0
18.910234 15.300599 1.3587012
3.5029216 2.8412852 -0.99917942
4.4805965 3.6342955 -0.96181065
6.3821001 5.1766405 -0.91594237
11.675628 9.4703197 -0.83971596
17.418119 14.128162 0
18.885685 15.318532 1.3582662
3.499486 2.8455157 -0.99917942
4.4801893 3.6429489 -0.96266735
6.3778529 5.1859846 -0.91623151
11.696433 9.5106497 -0.84203815
17.433344 14.175468 0
18.863125 15.338058 1.3579757
3.4960451 2.8497419 -0.99917942
4.4678249 3.6418719 -0.9609555
6.3575468 5.1822467 -0.91421318
11.695002 9.5329828 -0.84276372
17.472685 14.242564 0
18.862703 15.375613 1.3592818
3.4906261 2.8523519 -0.99861491
4.4713726 3.6537652 -0.96266735
6.3612924 5.1981063 -0.91565436
11.679454 9.5438213 -0.84247375
17.499796 14.299891 0
18.890392 15.436213 1.3626201
3.4891481 2.8581822 -0.99917942
4.4629788 3.6559088 -0.96181065
6.3610115 5.2107072 -0.91651952
11.665905 9.556282 -0.84232873
17.528803 14.358953 0
18.928001 15.505125 1.3666835
4.4506226 3.6547821 -0.96009874
6.3547106 5.2183895 -0.91651952
11.648323 9.5654221 -0.84189314
17.551664 14.413155 0
18.963474 15.572511 1.3706024
3.4822309 2.8666058 -0.99917942
4.4580989 3.6699495 -0.96266735
6.3563881 5.2326398 -0.91767269
11.646786 9.5877457 -0.8426187
17.592505 14.482317 0
18.98476 15.628436 1.3735046
4.4576173 3.6785982 -0.96352249
6.3600335 5.2485461 -0.91911387
11.631187 9.5985069 -0.84232873
17.605095 14.528406 0
19.029995 15.704288 1.378149
4.4492168 3.6807122 -0.96266735
6.351696 5.25458 -0.91882586
11.649608 9.637394 -0.84450537
17.617609 14.574553 0
19.051048 15.760397 1.3810519
3.4718168 2.8792098 -0.99917942
4.4526625 3.6926341 -0.96437758
6.3433533 5.2606015 -0.91853786
11.619955 9.6365356 -0.84319925
17.646053 14.634035 0
19.091991 15.833164 1.3854058
4.4383292 3.6898077 -0.96223819
6.3349977 5.2666039 -0.91824871
11.616295 9.6572142 -0.84377986
17.678389 14.696939 0
19.124794 15.899408 1.3891791
4.4417558 3.7017417 -0.96395004
6.3425398 5.2858477 -0.92026705
11.612602 9.6778975 -0.84436041
17.690607 14.743282 0
19.159458 15.967417 1.3930975
4.4353113 3.7054617 -0.96352249
6.3262253 5.2852178 -0.91882586
11.588931 9.6819229 -0.84348929
17.702732 14.789671 0
19.190001 16.032204 1.3967258
4.432797 3.7124648 -0.96395004
6.3257856 5.2978415 -0.91969103
11.591171 9.7075987 -0.84450537
19.302876 16.166147 0
19.208467 16.08708 1.3994836
4.4322438 3.7211227 -0.9648068
6.3253164 5.3104658 -0.92055506
11.571472 9.7149143 -0.84392482
19.263399 16.172728 0
19.228809 16.143686 1.4023858
4.4297066 3.728127 -0.96523434
6.3268108 5.3247666 -0.92170823
11.571657 9.7389317 -0.84479594
19.192078 16.152424 0
21.032244 17.701145 1.5354719
4.4232383 3.731823 -0.9648068
6.32828 5.3390789 -0.9228614
11.55789 9.7512255 -0.84465039
21.1019 17.803371 0
21.02673 17.73995 1.536633
4.4265661 3.7437956 -0.96651864
6.3158975 5.3417091 -0.92199624
11.569907 9.7853203 -0.8463921
21.082359 17.830534 0
21.050913 17.80394 1.5399714
4.425952 3.7524586 -0.96737379
6.3193083 5.3577046 -0.92343855
11.538259 9.7824926 -0.84494096
21.096535 17.886293 0
21.084873 17.876406 1.5440347
4.4110065 3.7581475 -0.96608949
6.2984672 5.366251 -0.92228538
11.524472 9.8187714 -0.84566653
21.164177 18.031733 0
21.158302 18.026728 1.5525975
4.4123201 3.7684777 -0.96737379
6.3018107 5.3822546 -0.92372656
11.508652 9.8293171 -0.84537649
21.257149 18.155321 0
21.19776 18.104597 1.557097
4.4136157 3.7788165 -0.96865809
6.2972655 5.3915458 -0.92401457
11.490844 9.8381443 -0.84494096
21.278685 18.218225 0
21.246918 18.191029 1.5623214
4.4074302 3.7781377 -0.96780133
6.2979383 5.3987193 -0.92459172
11.492789 9.8518496 -0.84552151
21.313114 18.270029 0
21.287214 18.247828 1.5660948
4.4009166 3.7817891 -0.96737379
6.2914104 5.4063253 -0.92459172
11.474962 9.8606472 -0.84508598
21.350233 18.346651 0
21.316385 18.317564 1.5698682
4.4021807 3.7921317 -0.96865809
6.2887888 5.4172959 -0.92516774
11.463039 9.874505 -0.84508598
21.408892 18.442074 0
21.376919 18.414532 1.5759637
4.4092488 3.8075116 -0.97122508
6.2939801 5.4350305 -0.92689693
11.439303 9.8781624 -0.84421539
21.518559 18.581886 0
21.413649 18.491293 1.5803176
4.398828 3.807801 -0.96994239
6.2835011 5.439249 -0.92632091
11.439143 9.9021778 -0.84508598
21.568893 18.670893 0
21.454159 18.571575 1.5849621
4.3942237 3.8131132 -0.96994239
6.2788758 5.4485312 -0.92660892
11.42717 9.9159927 -0.84508598
21.552208 18.702053 0
21.506277 18.662195 1.5904771
4.385736 3.8150473 -0.96908563
6.2742376 5.4578099 -0.92689693
11.409296 9.924675 -0.84465039
21.566904 18.760536 0
21.520962 18.720573 1.5932349
4.3907952 3.8287778 -0.97122508
6.2715406 5.4687901 -0.92747408
11.397296 9.9384537 -0.84465039
21.599134 18.834467 0
21.549242 18.79096 1.5970082
4.3880963 3.8357682 -0.97165263
6.2649283 5.4763641 -0.92747408
11.359848 9.9299879 -0.84276372
22.61285 19.766579 0
21.565641 18.851181 1.5999105
4.373807 3.8326101 -0.96951324
6.2641444 5.4890451 -0.92833924
11.347841 9.9437065 -0.84276372
22.569372 19.776731 0
22.568811 19.776241 1.6761053
4.3711066 3.8395913 -0.96994239
6.2633314 5.5017262 -0.92920327
11.337776 9.9591312 -0.84290928
22.516136 19.778231 0
22.509756 19.772627 1.6734924
4.3722386 3.8499546 -0.97122508
6.2508612 5.5041671 -0.92833924
11.331579 9.9779701 -0.84334427
22.484407 19.798542 0
22.478048 19.792942 1.6729119
4.3618155 3.8501434 -0.96994239
6.244206 5.5117164 -0.92833924
11.337045 10.007129 -0.84465039
22.458511 19.823969 0
22.440485 19.808056 1.6718963
4.3706121 3.8673139 -0.97293693
6.2433472 5.524394 -0.92920327
11.356081 10.048371 -0.84697264
22.426754 19.8442 0
22.404854 19.824821 1.6710252
4.3620987 3.8691885 -0.97208184
6.2463479 5.5405207 -0.93064559
11.303111 10.025877 -0.84392482
22.383286 19.854012 0
22.382833 19.853609 1.6711707
4.3612533 3.8778646 -0.97293693
6.23771 5.5463405 -0.93035644
11.289048 10.037803 -0.84377986
22.357338 19.879314 0
22.347172 19.870275 1.6702996
4.3565645 3.8831315 -0.97293693
6.2387271 5.5607572 -0.93150961
11.290491 10.06354 -0.84479594
22.323589 19.897657 0
22.309566 19.885159 1.6692835
4.357614 3.8935256 -0.97422123
6.2242885 5.561398 -0.93035644
11.270573 10.070251 -0.84421539
22.285944 19.912477 0
22.273901 19.901716 1.6684129
4.350996 3.8970771 -0.97379369
6.2175641 5.5689149 -0.93035644
11.26033 10.085593 -0.84436041
22.242485 19.922031 0
22.236286 19.916479 1.6673969
4.3481922 3.9040449 -0.97422123
6.220459 5.5850687 -0.93179876
11.267467 10.116548 -0.84581149
22.216454 19.947147 0
22.192873 19.925976 1.6659458
4.3396521 3.905858 -0.97336447
6.2098575 5.5891166 -0.9312216
11.237854 10.114512 -0.84450537
22.182665 19.965275 0
22.168781 19.952778 1.6659458
4.333025 3.9093809 -0.97293693
6.2107811 5.6035466 -0.93237478
11.227551 10.129823 -0.84465039
22.143066 19.978117 0
22.142729 19.97781 1.6658007
4.334012 3.919781 -0.97422123
6.2097626 5.6162534 -0.93323994
11.217237 10.145129 -0.84479594
22.126633 20.011841 0
22.105082 19.99235 1.6647847
4.3349795 3.9301894 -0.97550559
6.2068005 5.627224 -0.93381596
11.191493 10.146457 -0.84377986
22.121719 20.056046 0
22.08283 20.020788 1.6649296
4.3302279 3.9354243 -0.97550559
6.2019091 5.6364574 -0.93410397
11.206142 10.184436 -0.84581149
22.105173 20.089762 0
22.08362 20.070173 1.6668164
4.335444 3.9449506 -0.97721744
6.1946802 5.6367249 -0.93352795
11.190379 10.182462 -0.84508598
22.104578 20.113619 0
22.094553 20.104496 1.668558
4.3230877 3.9432664 -0.97550559
6.2012429 5.6564093 -0.93554628
11.166553 10.185472 -0.84421539
22.084108 20.143824 0
22.068327 20.129429 1.6684129
4.3258977 3.955416 -0.97721744
