# .PCD v0.7 - Point Cloud Data file format
VERSION 0.7
FIELDS x y z
SIZE 4 4 4
TYPE F F F
COUNT 1 1 1
WIDTH 1565
HEIGHT 1
VIEWPOINT 0 0 0 1 0 0 0
POINTS 1565
DATA ascii
0.72643977 6.9655833 -0.78060281
0.71297854 6.8365083 -0.38393226
0.97950941 9.3921814 0
0.96658027 9.2682085 0.5204944
0.58846962 5.709496 -0.95689702
0.7156353 6.9432926 -0.77800733
0.70871276 6.8761287 -0.38610893
0.96869421 9.3985405 0
0.95591408 9.2745447 0.52078497
0.58157039 5.7102032 -0.95689702
0.81626177 8.0145426 -0.89793146
0.70040381 6.8769798 -0.38610893
0.95628244 9.389348 0
0.94496995 9.2782755 0.52092999
0.57441354 5.7083497 -0.95646948
0.80450547 7.994935 -0.89562511
0 0 -0
0.94519687 9.3930836 0
0.93297756 9.2716522 0.5204944
0.56776941 5.7115917 -0.95689702
0.79330999 7.9804635 -0.89389592
0 0 -0
0.93384647 9.3942184 0
0.92305982 9.2857084 0.52122051
0.56011581 5.7046165 -0.95561433
0.78518254 7.9968557 -0.89562511
0 0 -0
0.92224061 9.3927526 0
0.91133088 9.2816401 0.52092999
0.55666924 5.7049541 -0.95561433
0.78060198 7.9999003 -0.89591312
0.66879141 6.8540239 -0.3846578
0.9150489 9.3777618 0
0.90597528 9.2847729 0.52107495
0.54977554 5.7056227 -0.95561433
0.77043945 7.9956937 -0.8953371
0.66050917 6.8548269 -0.3846578
0.90321827 9.3736849 0
0.8955037 9.293622 0.52151054
0.53646529 5.7120414 -0.95646948
0.75232375 8.0104055 -0.89677829
0.64199805 6.8357067 -0.3834967
0.7133888 7.5958433 0
0.87352753 9.3009281 0.52180052
0.52861524 5.7024608 -0.95475757
0.74288273 8.0138817 -0.8970663
0.63445771 6.8442416 -0.38393226
0.70517111 7.6070652 0
0.86180931 9.2968073 0.52151054
0.52195817 5.7056494 -0.95518512
0.73296356 8.0122004 -0.89677829
0.85887074 9.3885212 -0.52659667
0.69526833 7.6001444 0
0.85270554 9.3211279 0.52281666
0.51391 5.6934948 -0.95304573
0.72374642 8.0182266 -0.8973543
0.84472281 9.3584967 -0.52485502
0.68468034 7.585422 0
0.84027439 9.3092146 0.52209109
0.50725847 5.6966763 -0.95347494
0.71566349 8.0371323 -0.89937264
0.83525801 9.3802166 -0.52601612
0.67505312 7.5810642 0
0.8304078 9.3257475 0.52296162
0.50059915 5.6998396 -0.95390248
0.70459437 8.0225363 -0.89764345
0.82392323 9.3812189 -0.52601612
0.66999042 7.6285348 0
0.81959397 9.3319263 0.52325219
0.49371162 5.7004404 -0.95390248
0.69579291 8.0336895 -0.89879662
0.81213927 9.3770351 -0.52572614
0.82267147 9.498641 0
0.80786872 9.3277273 0.52296162
0.48638615 5.6959124 -0.95304573
0.68608522 8.034524 -0.89879662
0 0 -0
0.81030875 9.4892654 0
0.79681909 9.3312931 0.52310723
0.48036471 5.706728 -0.95475757
0.67615902 8.0327625 -0.89850748
0.79034811 9.389328 -0.52630669
0.79927844 9.4954195 0
0.78641528 9.3426056 0.52368778
0.47304481 5.7021923 -0.95390248
0.66730785 8.0438843 -0.89966065
0.77921695 9.3928623 -0.52645171
0.78801942 9.49897 0
0.77405125 9.3305941 0.52296162
0.46552688 5.6950817 -0.95261818
0.65758789 8.0446844 -0.89966065
0.76828992 9.3989725 -0.52674168
0.77505761 9.4817657 0
0.76489383 9.3574257 0.52441335
0.45885098 5.6981964 -0.95304573
0.64828259 8.0506344 -0.9002378
0.75651586 9.3947182 -0.52645171
0.76171958 9.459341 0
0.7529608 9.3505707 0.52397776
0.45135722 5.6910772 -0.95176303
0.63834941 8.0488262 -0.89994866
0.74516362 9.3956261 -0.52645171
0.75255281 9.4887943 0
0.74289411 9.3670101 0.52484834
0.44487968 5.696732 -0.95261818
0.62842232 8.0470152 -0.89966065
0.73401237 9.399107 -0.52659667
0.74128932 9.4922886 0
0.73117113 9.3627253 0.52455831
0.43740547 5.6895843 -0.95133382
0.6198886 8.0632467 -0.90139097
0.72146016 9.3844471 -0.52572614
0.72981918 9.4931774 0
0.72025555 9.3687782 0.52484834
0.43033689 5.6875515 -0.95090628
0.61034024 8.0665665 -0.90167898
0.71070796 9.3930779 -0.52616113
0.7185449 9.4966555 0
0.70991552 9.3826046 0.52557445
0.42384583 5.693192 -0.95176303
0.59982479 8.0569811 -0.90052581
0.69781518 9.37321 -0.52500057
0.70726258 9.5001097 0
0.6989634 9.3886328 0.52586442
0.41715372 5.6962576 -0.95219058
0.59065598 8.0654411 -0.90139097
0.68705779 9.381813 -0.52543557
0.69711304 9.5191183 0
0.68723935 9.3842926 0.52557445
0.40953299 5.6865158 -0.95047873
0.5812813 8.0713034 -0.90196699
0.67460161 9.3670912 -0.52456504
0.68448925 9.504384 0
0.67571259 9.3825169 0.52542889
0.40737754 5.7046885 -0.95347494
0.57714182 8.0819731 -0.90312016
0.66931218 9.3726759 -0.52485502
0.67893219 9.5073891 0
0.6715247 9.4036579 0.52658999
0.4001244 5.7000504 -0.95261818
0.56701404 8.0775089 -0.90254414
0.65744132 9.3657084 -0.52442002
0.6689018 9.5289717 0
0.6594339 9.3940945 0.52600944
0.39253005 5.6902857 -0.95090628
0.5576092 8.0833445 -0.90312016
0.64630282 9.3690863 -0.52456504
0.65667099 9.5193872 0
0.64933443 9.4130325 0.52702558
0.38565415 5.6907558 -0.95090628
0.54784161 8.084012 -0.90312016
0.63410336 9.3569002 -0.52383947
0.6467517 9.54354 0
0.63813567 9.4164009 0.52717054
0.37877771 5.6912174 -0.95090628
0.5379017 8.0820894 -0.90283215
0.6240043 9.3758011 -0.52485502
0.63418311 9.528739 0
0.62744755 9.427536 0.52775109
0.37190071 5.6916709 -0.95090628
0.52830416 8.0853119 -0.90312016
0.61233652 9.3713675 -0.52456504
0.62317824 9.5372925 0
0.61503953 9.412734 0.52688056
0.36485904 5.6895571 -0.95047873
0.51919633 8.0962696 -0.90427333
0.51271617 7.9952192 -0.44749972
0.61132044 9.5328388 0
0.60466301 9.4290247 0.52775109
0.35814509 5.692553 -0.95090628
0.50925094 8.0943117 -0.90398532
0.50582868 8.039917 -0.44996694
0.59931099 9.5257759 0
0.59375912 9.4375305 0.52818668
0.35095063 5.6878624 -0.95005119
0.4999482 8.1026688 -0.90485048
0.49627352 8.0431128 -0.45011196
0.58860236 9.5394888 0
0.58139479 9.4226751 0.52731556
0.34438738 5.6934023 -0.95090628
0.49000072 8.1006775 -0.90456134
0.4911043 8.1189222 -0.45432085
0.57817483 9.5583696 0
0.57047975 9.4311543 0.52775109
0.33811536 5.7040644 -0.95261818
0.48005939 8.0986843 -0.90427333
0.48483035 8.1791716 -0.45765921
0.56647116 9.5564651 0
0.55862218 9.4240522 0.52731556
0.33033034 5.6890969 -0.95005119
0.47072327 8.107007 -0.90513849
0.47735703 8.2212563 -0.45998144
0.55597973 9.5753326 0
0.54843962 9.4454737 0.52847666
0.32316425 5.6843615 -0.94919443
0.46107388 8.1101503 -0.9054265
0.46801284 8.2322044 -0.46056199
0.54308009 9.5526152 0
0.53717417 9.4487305 0.52862221
0.31672353 5.6924396 -0.95047873
0.45113045 8.1081209 -0.90513849
0.45965296 8.2612953 -0.46215811
0.53211498 9.5636482 0
0.52633423 9.4597511 0.52920276
0.30970573 5.6902571 -0.95005119
0.44217616 8.1241512 -0.90686768
0.44952938 8.2592525 -0.4620131
0.52154899 9.5824776 0
0.51462084 9.4551859 0.52891225
0.30255684 5.6854954 -0.94919443
0.43208477 8.1195192 -0.90629166
0.44037759 8.2753534 -0.46288365
0.50900185 9.5649061 0
0.50305778 9.453208 0.52876723
0.29582 5.6884179 -0.94962198
0.42281091 8.1303673 -0.90744483
0.43078309 8.2836666 -0.46331921
0.49866098 9.588913 0
0.49217486 9.4641886 0.52934778
0.28868625 5.6836486 -0.94876689
0.41259289 8.1231203 -0.90657967
0.41906017 8.2504473 -0.46143255
0.48628193 9.5739079 0
0.48205674 9.4907227 0.53079891
0.28232694 5.6942492 -0.95047873
0.40354565 8.1391077 -0.90830886
0.4085761 8.2405663 -0.460852
0.47613114 9.6030836 0
0.470074 9.480917 0.53021836
0.27470198 5.6791968 -0.94791013
0.39371082 8.1395893 -0.90830886
0.394476 8.1554079 -0.45606253
0.46377268 9.5880499 0
0.45911998 9.4918604 0.53079891
0.26880699 5.7000384 -0.95133382
0.38375372 8.1374779 -0.90802085
0.37850153 8.0261059 -0.44880584
0.45304534 9.6068029 0
0.44777289 9.4950008 0.53094387
0.26097679 5.6798439 -0.94791013
0.37415856 8.1431084 -0.90859801
0.36343682 7.9097624 -0.44227526
0.44155642 9.6099415 0
0.43653846 9.5007315 0.53123444
0.25777802 5.6851344 -0.94876689
0.36923879 8.1433325 -0.90859801
0.35642165 7.8606582 -0.43951747
0.43575045 9.6102057 0
0.43138689 9.5139694 0.53196001
0.25011611 5.6674871 -0.94577068
0.35974067 8.1515179 -0.90946203
0.34554857 7.8299322 -0.43777579
0.42494139 9.6289282 0
0.41931808 9.5015068 0.53123444
0.24403854 5.6857409 -0.94876689
0.34989092 8.1519461 -0.90946203
0.33352491 7.7706423 -0.43443799
0.41230211 9.6060362 0
0.40817145 9.5097971 0.53167003
0.23695408 5.6808968 -0.94791013
0.34004062 8.1523628 -0.90946203
0.32121187 7.7009497 -0.43051964
0.40221298 9.6429253 0
0.39722177 9.523262 0.5323956
0.23008965 5.681179 -0.94791013
0.33060852 8.163105 -0.91061521
0.30738491 7.5896878 -0.42427853
0.38992941 9.6278067 0
0.38550395 9.5185375 0.53210503
0.22312421 5.6788902 -0.94748253
0.32064331 8.1609173 -0.9103272
0.29637796 7.5433226 -0.42166629
0.37849995 9.6334677 0
0.3748185 9.5397682 0.53326613
0.21635981 5.6817183 -0.94791013
0.31078219 8.1612988 -0.9103272
0.28597781 7.5099225 -0.4197796
0.36646339 9.6235151 0
0.36309373 9.5350256 0.53297615
0.20939991 5.6794128 -0.94748253
0.30111104 8.166832 -0.91090322
0.27642471 7.4972816 -0.41905406
0.35598567 9.65516 0
0.35166788 9.5380516 0.53312111
0.20262869 5.6822248 -0.94791013
0.29161149 8.1775293 -0.91205639
0.26893964 7.5417533 -0.42152128
0.3441337 9.6503859 0
0.34060568 9.5514507 0.53384668
0.19620486 5.6953006 -0.95005119
0.28146344 8.1701288 -0.91119236
0.25964764 7.5368738 -0.42123073
0.33354774 9.6819963 0
0.32897499 9.5492611 0.53370172
0.18889639 5.6826978 -0.94791013
0.27141923 8.165288 -0.91061521
0.25097248 7.5501747 -0.42195684
0.3214165 9.6693897 0
0.31717727 9.5418587 0.53326613
0.18227646 5.6906219 -0.94919443
0.26155287 8.1656094 -0.91061521
0.2413501 7.5348845 -0.42108572
0.31023276 9.6853828 0
0.3064796 9.5682106 0.5347178
0.17500497 5.6780109 -0.94705498
0.25136739 8.1555786 -0.90946203
0.23072475 7.4858313 -0.41832849
0.25652012 8.3227577 0
0.2948378 9.5659695 0.53457224
0.16844802 5.6884818 -0.94876689
0.2166328 7.31568 -0.8157717
0.21983354 7.423769 -0.41484514
0.24715671 8.3464718 0
0.28343296 9.5715179 0.53486282
0.16179319 5.696382 -0.95005119
0.20801345 7.3236952 -0.81663686
0.20717467 7.2941642 -0.40758845
0.23544605 8.2895374 0
0.27171975 9.5666542 0.53457224
0.1549101 5.6965733 -0.95005119
0.1988828 7.3135991 -0.81548369
0.19694825 7.2424593 -0.40468568
0.22585392 8.3054199 0
0.26044264 9.5773649 0.53515279
0.14776008 5.6864915 -0.94833928
0.19024722 7.3215933 -0.81634885
0.18779217 7.2271113 -0.40381509
0.21487199 8.269269 0
0.24914007 9.5880632 0.53573334
0.14114328 5.6969309 -0.95005119
0.18082388 7.2985492 -0.8137545
0.17893088 7.2221427 -0.40352511
0.20320426 8.2018833 0
0.23781203 9.5987482 0.53631389
0.13450146 5.7073627 -0.95176303
0.17224862 7.3091054 -0.81490767
0.16910215 7.1755896 -0.40091231
0.19102517 8.1058598 0
0.22615248 9.5964327 0.53616893
0.12771977 5.7126493 -0.95261818
0.16330113 7.3041315 -0.81433052
0.16048998 7.1783943 -0.40105787
0.18059075 8.0774612 0
0.21502154 9.6174822 0.53733003
0.12092572 5.717937 -0.95347494
0.15463951 7.3120837 -0.81519568
0.15110177 7.144803 -0.39917064
0.1705555 8.0646667 0
0.20329055 9.6125336 0.53703946
0.114733 5.7540059 -0.95946562
0.14580418 7.3122654 -0.81519568
0.14174344 7.1086144 -0.39713895
0.16034392 8.0414515 0
0.19224541 9.6413517 0.53863615
0.10523441 5.8055377 -0.96802497
0.13236327 7.3021736 -0.81404251
0.12862374 7.0958719 -0.39641342
0.14567444 8.03652 0
0.17575946 9.6962404 0.54168391
0.09878394 5.839025 -0.97358817
0.12310249 7.2764721 -0.81116015
0.11978602 7.0804386 -0.39554286
0.13525958 7.9950662 0
0.16457078 9.727623 0.54342562
0.091889828 5.8494072 -0.97530001
0.1139446 7.2533422 -0.8085658
0.11118968 7.0779724 -0.39539731
0.12613039 8.0290489 0
0.15302075 9.7408028 0.54415119
0.08497078 5.8597813 -0.97701186
0.10458025 7.2120953 -0.80395311
0.10271268 7.083303 -0.39568785
0.11639106 8.0265961 0
0.14147677 9.7565651 0.54502171
0.077958487 5.8650084 -0.97786701
0.11064695 8.3242416 -0.92791164
0.094360963 7.0990062 -0.3965584
0.10696898 8.0475388 0
0.12954962 9.746336 0.54444116
0.070995785 5.8753657 -0.97957885
0.10052621 8.3192015 -0.92733562
0.085657544 7.0887222 -0.39597785
0.097339399 8.0554724 0
0.11783584 9.751687 0.54473174
0.063840725 5.8703184 -0.97872376
0.090530202 8.3244839 -0.92791164
0.077261738 7.1044154 -0.39684898
0.087690793 8.0633936 0
0.10602452 9.7492256 0.54458672
0.056821916 5.8780847 -0.9800064
0.080496699 8.3271818 -0.92820078
0.06887833 7.1252899 -0.39801008
0.078626849 8.13375 0
0.094294593 9.7545385 0.54487675
0.049610816 5.8653169 -0.97786701
0.070412926 8.3246784 -0.92791164
0.060708228 7.1773252 -0.40091231
0.069238983 8.1858873 0
0.082530022 9.7572412 0.54502171
0.0425051 5.8628078 -0.97743946
0.051035207 7.0393815 -0.78463835
0.054390468 7.5021787 -0.41905406
0.059574299 8.2171936 0
0.070890948 9.778121 0.54618287
0.035467554 5.8705583 -0.97872376
0.042373221 7.0135789 -0.78175598
0.045796435 7.5801859 -0.42340797
0.049723979 8.2302694 0
0.059107378 9.7834015 0.54647338
0.028324476 5.8603287 -0.97701186
0.033848647 7.0032792 -0.78060281
0.036574446 7.567246 -0.4226824
0.039728958 8.2199144 0
0.047235768 9.7730722 0.54589283
0.021289911 5.8731914 -0.97915131
0.025320889 6.9852071 -0.77858448
0.027233088 7.5127201 -0.41963461
0.029787345 8.2173557 0
0.035445709 9.7783136 0.54618287
0.014180873 5.8680739 -0.97829455
0.016886858 6.9878163 -0.77887249
0.018042397 7.4659805 -0.41702238
0.019833097 8.2069759 0
0.023643071 9.7835512 0.54647338
0.0071059475 5.8809195 -0.980434
0.0084371911 6.9826641 -0.77829647
0.008930156 7.3906446 -0.41281348
0.0098568052 8.1575441 0
0.011827818 9.788765 0.54676342
-0 5.8501291 -0.97530001
-0 6.9878368 -0.77887249
-0 7.3542666 -0.41078123
-0 8.1315298 0
-0 9.7861757 0.5466184
-0.007081145 5.860393 -0.97701186
-0.0084184334 6.9671402 -0.77656615
-0.0088579394 7.3308778 -0.40947512
-0.0097939251 8.105504 0
-0.011856073 9.8121481 0.54806954
-0.014199489 5.8757777 -0.97957885
-0.016880615 6.9852324 -0.77858448
-0.017684475 7.317872 -0.40874958
-0.019556371 8.0924664 0
-0.023724698 9.8173285 0.54836005
-0.021280615 5.8706269 -0.97872376
-0.025283387 6.9748611 -0.77743131
-0.026423061 7.2892599 -0.40715289
-0.029315671 8.0872364 0
-0.035587005 9.8172932 0.54836005
-0.028299637 5.8551898 -0.9761551
-0.033761129 6.9851713 -0.77858448
-0.035205595 7.2840309 -0.40686288
-0.039049748 8.0793858 0
-0.047537133 9.8354244 0.54937565
-0.035436504 5.8654194 -0.97786701
-0.042170037 6.9799476 -0.77800733
-0.043865625 7.2606001 -0.40555677
-0.048639171 8.0507135 0
-0.059295759 9.8145819 0.54821509
-0.042393401 5.8474007 -0.9748708
-0.050528903 6.9695458 -0.77685416
-0.052487902 7.2397547 -0.40439567
-0.069177337 9.5417595 0
-0.071248889 9.8274927 0.54894066
-0.049502276 5.8524842 -0.97572756
-0.059103359 6.987587 -0.77887249
-0.06116974 7.2318883 -0.40396011
-0.080684647 9.5390692 0
-0.083189316 9.835187 0.54937565
-0.056598615 5.8549848 -0.9761551
-0.067471415 6.9797487 -0.77800733
-0.069882922 7.2292132 -0.40381509
-0.092311315 9.5493736 0
-0.095198818 9.8480787 0.55010176
-0.060056787 5.8472462 -0.9748708
-0.071821138 6.9926462 -0.77944964
-0.074010298 7.2057872 -0.40250897
-0.098347813 9.5753345 0
-0.10112178 9.8454132 0.5499562
-0.067269415 5.8600111 -0.97701186
-0.096509501 8.4071903 -0.93713701
-0.08286614 7.2186818 -0.40323454
-0.1099475 9.5778093 0
-0.11304787 9.8478899 0.55010176
-0.074252307 5.8522224 -0.97572756
-0.10663509 8.4044838 -0.936849
-0.091588445 7.218576 -0.40323454
-0.12152033 9.5776691 0
-0.12504584 9.8555336 0.55053675
-0.081216477 5.8444257 -0.97444326
-0 0 -0
-0.10103273 7.2704244 -0.40613735
-0.13338228 9.5983334 0
-0.13717094 9.8709688 0.55140787
-0.088433348 5.8545904 -0.9761551
-0 0 -0
-0.11048467 7.3144631 -0.40860456
-0.1454123 9.626792 0
-0.14905877 9.8682003 0.55126286
-0.095674902 5.8647461 -0.97786701
-0.13697326 8.3962812 -0.93598384
-0.11928034 7.3117285 -0.40845957
-0.1567471 9.6083918 0
-0.1608976 9.862812 0.55097228
-0.10276123 5.8646264 -0.97786701
-0.14743567 8.4142141 -0.93800217
-0.1259754 7.1894684 -0.40163788
-0.16844812 9.6134043 0
-0.17326991 9.888586 0.55242342
-0.10970314 5.8567953 -0.97658271
-0 0 -0
-0.13276467 7.0879965 -0.39597785
-0.17938149 9.5767603 0
-0.18516959 9.8857737 0.5522784
-0.11662647 5.8489661 -0.97530001
-0.16838785 8.4448652 -0.94146168
-0.13977507 7.0098977 -0.39162394
-0.19053814 9.5557308 0
-0.19680378 9.8699608 0.55140787
-0.12369372 5.8488212 -0.97530001
-0.17870095 8.4498224 -0.9420377
-0.14824505 7.0097237 -0.39162394
-0.20169899 9.5372772 0
-0.20933375 9.898284 0.55300397
-0.1309903 5.858933 -0.97701186
-0.18896854 8.4521837 -0.94232571
-0.15654053 7.0017438 -0.39118838
-0.21444431 9.5916634 0
-0.22117768 9.8928337 0.55271399
-0.13800892 5.8561969 -0.97658271
-0.19960783 8.4700518 -0.94434404
-0.16518438 7.0093451 -0.39162394
-0.2273826 9.6486311 0
-0.23319224 9.895154 0.55285901
-0.1450849 5.8560257 -0.97658271
-0.20997009 8.4749708 -0.94492006
-0.17384681 7.0169358 -0.3920595
-0.23936313 9.661355 0
-0.27803352 11.222198 0.62702149
-0.15189393 5.8455815 -0.9748708
-0.22021028 8.4747114 -0.94492006
-0.18212272 7.0089254 -0.39162394
-0.25042847 9.6376467 0
-0.29152572 11.219259 0.62687647
-0.15923619 5.8556581 -0.97658271
-0.23045015 8.4744387 -0.94492006
-0.19122715 7.0320754 -0.39293006
-0.26037562 9.5749006 0
-0.30515236 11.221494 0.62702149
-0.16631149 5.8554616 -0.97658271
-0.24113044 8.4896717 -0.94665039
-0.1998716 7.0370388 -0.39322063
-0.2728315 9.6057959 0
-0.31856373 11.215927 0.62673151
-0.17277868 5.8347287 -0.97315896
-0.25169459 8.4997158 -0.94780356
-0.20883566 7.052371 -0.39409119
-0.28497732 9.6236715 0
-0.33250022 11.228518 0.62745702
-0.18030334 5.8499155 -0.97572756
-0.26292083 8.5304279 -0.95126307
-0.21751717 7.057313 -0.39438173
-0 0 0
-0.34638765 11.238497 0.62803763
-0.18720716 5.8445568 -0.9748708
-0.27389014 8.5507755 -0.95356828
-0 0 -0
-0.30706683 9.5865431 0
-0.35996693 11.23807 0.62803763
-0.19426903 5.8443265 -0.9748708
-0.2845656 8.5607786 -0.95472145
-0 0 -0
-0.3160564 9.5081387 0
-0.37363192 11.240222 0.62818259
-0.20133062 5.8440876 -0.9748708
-0.29508767 8.5656033 -0.9552986
-0 0 -0
-0.32620075 9.4687328 0
-0.38721326 11.239762 0.62818259
-0.20811772 5.8361511 -0.97358817
-0.3058981 8.5781622 -0.95673978
-0 0 -0
-0.33699232 9.4501238 0
-0.40134946 11.254862 0.62905318
-0.21145736 5.8308887 -0.97273141
-0.31079927 8.570219 -0.95587462
-0 0 -0
-0.34251311 9.4447212 0
-0.40852574 11.265004 0.62963372
-0.21869515 5.8357644 -0.97358817
-0.32115448 8.5698376 -0.95587462
-0 0 -0
-0.35480201 9.4677038 0
-0.76104516 20.308088 1.1351285
-0.22604378 5.843184 -0.9748708
-0.33190915 8.5797815 -0.95702779
-0 0 -0
-0.36604062 9.4620724 0
-0.78437763 20.275995 1.1333867
-0.23269463 5.8326464 -0.97315896
-0.3423793 8.5819654 -0.95731694
-0 0 -0
-0.37716207 9.4538193 0
-0.80753011 20.241282 1.1315001
-0.23995315 5.8374958 -0.97401571
-0.35296094 8.58671 -0.95789295
-0 0 -0
-0.38922602 9.4689541 0
-0.88342375 21.491623 1.2014537
-0.24668074 5.8295045 -0.97273141
-0.36410159 8.6043682 -0.95991129
-0.30037868 7.0984826 -0.39684898
-0.40055719 9.4658785 0
-0.90840292 21.467176 1.2001476
-0.25405937 5.8368988 -0.97401571
-0.37472278 8.6090851 -0.96048731
-0.30895561 7.0981145 -0.39684898
-0.72783667 16.721718 0
-0.93434113 21.466064 1.2001476
-0.26202977 5.8571033 -0.97743946
-0.38454702 8.5957088 -0.95904613
-0.31764808 7.1003294 -0.39699396
-0.74734342 16.705231 0
-0.96097457 21.48049 1.2010181
-0.26851773 5.8439631 -0.97530001
-0.39564505 8.6107359 -0.96077532
-0.72432101 15.76397 -0.88144416
-0 0 0
-0.98776382 21.497484 1.2020342
-0.27642494 5.8615766 -0.97829455
-0.40592745 8.6076708 -0.96048731
-0.74471474 15.791637 -0.88304085
-0.784769 16.640985 0
-1.0141059 21.504065 1.2024698
-0.28313559 5.8535538 -0.97701186
-0.41732752 8.627841 -0.96279365
-0.76517636 15.819278 -0.88463748
-0.80286402 16.598434 0
-1.0408417 21.518391 1.2033404
-0.28969976 5.8429518 -0.97530001
-0.42800868 8.6325026 -0.9633708
-0.78506207 15.833908 -0.88550806
-0.82124412 16.563663 0
-1.067485 21.530092 1.2040659
-0.29714993 5.8502812 -0.97658271
-0.43843907 8.631979 -0.9633708
-0.80393034 15.827764 -0.88521808
-0.83980566 16.534077 0
-1.0942901 21.544361 1.204937
-0.30368534 5.8396635 -0.9748708
-0.44886881 8.631443 -0.9633708
-0.82345897 15.834558 -0.88565308
-0.858702 16.512257 0
-1.1204563 21.545616 1.2050821
-0.31115061 5.8469849 -0.9761551
-0.45916006 8.6283035 -0.96308166
-0.84231544 15.828366 -0.88536304
-0.87713176 16.482618 0
-1.1467656 21.54944 1.2053726
-0.3183547 5.8491654 -0.97658271
-0.47000718 8.6354933 -0.96394682
-0.86214626 15.840307 -0.88608861
-0.89648139 16.471151 0
-1.1739323 21.568787 1.2065332
-0.32542202 5.8487768 -0.97658271
-0.48058468 8.6374989 -0.96423483
-0.88215137 15.854816 -0.8869592
-0.91594905 16.462257 0
-1.2011479 21.588108 1.2076943
-0.3388114 5.8351617 -0.97444326
-0.50280595 8.6595497 -0.96682918
-0.9212172 15.865616 -0.8876853
-0.95693606 16.480782 0
-0.62148774 10.70354 0.59886581
-0.3461659 5.8398781 -0.97530001
-0.51235098 8.6434488 -0.96509999
-0.8633588 14.565011 -0.81497389
-0.97777343 16.495207 0
-0.63319033 10.68203 0.59770471
-0.35306656 5.8368859 -0.9748708
-0.52341914 8.6531506 -0.96625316
-0.88205552 14.582116 -0.81599003
-0.99817491 16.501799 0
-0.64468515 10.657916 0.59639859
-0.36027759 5.8390245 -0.97530001
-0.53371531 8.6499329 -0.96596515
-0.89871407 14.565474 -0.81511891
-1.0181134 16.50058 0
-0 0 0
-0.3631666 5.8285575 -0.97358817
-0.53958446 8.659934 -0.96711832
-0.90848351 14.580493 -0.81599003
-1.028082 16.499962 0
-0.66190058 10.623018 0.59451193
-0.37085995 5.8383622 -0.97530001
-0.55070376 8.6696014 -0.96827149
-0.92642963 14.584566 -0.81628001
-1.0481838 16.501312 0
-0.67391247 10.609247 0.59378636
-0.29112273 4.49718 -0.99834454
-0.37741655 5.8302221 -0.97401571
-0.56134582 8.6715078 -0.9685595
-0.94707268 14.630106 -0.81889224
-1.0684575 16.505222 0
-0.68757033 10.621387 0.59451193
-0.29672417 4.4993677 -0.99890906
-0.38429222 5.8272028 -0.97358817
-0.57216328 8.6759806 -0.96913552
-0.96509194 14.634141 -0.81918281
-1.0901129 16.529894 0
-0.70057452 10.623139 0.59465694
-0.30113861 4.4837899 -0.99553066
-0.39116046 5.8241653 -0.97315896
-0.58351254 8.6881838 -0.9705767
-0.98329628 14.640745 -0.81961834
-1.1118289 16.554525 0
-0.71393251 10.630066 0.59509248
-0.30690318 4.4884973 -0.99665755
-0.3990736 5.8365016 -0.97530001
-0.59365755 8.6823158 -0.97000068
-1.0008082 14.636946 -0.81947279
-1.131831 16.553171 0
-0.72748542 10.639565 0.59567302
-0.313032 4.4982624 -0.99890906
-0.40612558 5.8360147 -0.97530001
-0.60486621 8.6919136 -0.97115386
-1.0174115 14.620178 -0.81860226
-1.151651 16.549196 0
-0.74016047 10.636088 0.59552807
-0.31810778 4.4928069 -0.99778223
-0.41317698 5.8355198 -0.97530001
-0.61555076 8.6937532 -0.97144186
-1.0343423 14.60857 -0.81802171
-1.1709114 16.537409 0
-0.75301158 10.635186 0.59552807
-0.32371858 4.4949512 -0.99834454
-0.41949016 5.8247747 -0.97358817
-0.6266126 8.7007456 -0.97230703
-1.0508735 14.591764 -0.81715113
-1.1905185 16.530787 0
-1.5669321 21.757427 1.2184343
-0.32673725 4.4616156 -0.99102759
-0.4270899 5.8319368 -0.9748708
-0.63844782 8.7180414 -0.97432536
-1.0673649 14.57493 -0.81628001
-1.2093518 16.513767 0
-1.5937902 21.763294 1.2188699
-0.33382559 4.4840202 -0.99609303
-0.43375555 5.8263016 -0.97401571
-0.648597 8.7121 -0.97374821
-1.0845897 14.568452 -0.81599003
-1.2294976 16.514887 0
-1.6206639 21.769119 1.2193049
-0.3384766 4.4734788 -0.99384147
-0.44176337 5.8385696 -0.9761551
-0.65912336 8.7113104 -0.97374821
-1.1014079 14.556767 -0.81540948
-1.2488624 16.505602 0
-1.6485348 21.787874 1.220466
-0.34407699 4.4756074 -0.99440598
-0.44665316 5.8098741 -0.97144705
-0.66984689 8.7130833 -0.97403622
-1.1176016 14.537287 -0.81439334
-1.2686061 16.501488 0
-1.6742622 21.778091 1.2200304
-0.3482973 4.4599843 -0.99102759
-0.45527184 5.8298044 -0.9748708
-0.68077761 8.7174301 -0.97461337
-1.13375 14.51779 -0.8133772
-1.2907729 16.528486 0
-1.7017897 21.791601 1.2209015
-0.35489178 4.4747629 -0.99440598
-0.46089557 5.8113441 -0.97187626
-0.69008309 8.7011261 -0.97288305
-1.151497 14.519007 -0.81352282
-1.3134181 16.560638 0
-1.7295576 21.807663 1.2219176
-0.35968637 4.4667301 -0.99271679
-0.46853465 5.8184524 -0.97315896
-0.70059615 8.7002859 -0.97288305
-1.168622 14.51242 -0.81323224
-1.3357246 16.587566 0
-1.7573661 21.823681 1.2229332
-0.36487645 4.4637623 -0.99215448
-0.47577453 5.8204479 -0.97358817
-0.71089774 8.6968575 -0.97259504
-1.1857337 14.505822 -0.81294221
-1.3572509 16.604099 0
-1.7850051 21.837084 1.2238044
-0.36900896 4.4481201 -0.98877609
-0.48301908 5.8224244 -0.97401571
-0.72012305 8.6805315 -0.97086585
-1.2019708 14.488836 -0.81207108
-1.3779584 16.610231 0
-1.8124635 21.847857 1.2245299
-0.37331796 4.4350138 -0.98596215
-0.49048421 5.8269477 -0.9748708
-0.73191255 8.6951141 -0.97259504
-1.2183874 14.47443 -0.81134558
-1.4002101 16.634483 0
-1.8401684 21.861181 1.2254004
-0.38127077 4.4649396 -0.99271679
-0.49708816 5.8212399 -0.97401571
-0.74241835 8.6942234 -0.97259504
-0.77848005 9.1165304 -0.51106775
-1.4205298 16.635368 0
-1.8661402 21.853769 1.2251104
-0.38491154 4.4442244 -0.98821372
-0.50390035 5.8180804 -0.97358817
-0.75158447 8.6778641 -0.97086585
-0.78770137 9.0948725 -0.50990665
-1.4415276 16.644012 0
-1.8936657 21.864441 1.225836
-0.38961411 4.4361601 -0.98652452
-0.51070476 5.8149023 -0.97315896
-0.76320064 8.6898298 -0.97230703
-0.79709858 9.0757923 -0.50889051
-1.4632317 16.660408 0
-1.9214468 21.877663 1.2267066
-0.39655179 4.4534044 -0.99046528
-0.51590997 5.7938352 -0.96973687
-0.77278244 8.6785955 -0.97115386
-0.80599034 9.0515318 -0.50758439
-1.4838227 16.663807 0
-1.9497241 21.89603 1.2278677
-0.40014982 4.4632874 -0.99271679
-0.51941025 5.7935228 -0.96973687
-0.77918005 8.6910057 -0.97259504
-0.8102988 9.038105 -0.50685883
-1.4945873 16.670687 0
-1.9650403 21.918139 1.2291738
-0.40393269 4.4450846 -0.98877609
-0.52687436 5.7979989 -0.97059196
-0.78991473 8.6926317 -0.97288305
-0.82051325 9.0293531 -0.50642329
-1.5142589 16.663691 0
-1.992934 21.93128 1.230045
-0.40837139 4.4344726 -0.98652452
-0.53223169 5.7794619 -0.96759576
-0.80089235 8.6968269 -0.9734602
-0.82951659 9.0076551 -0.50526214
-1.5351079 16.669615 0
-2.0201464 21.936611 1.23048
-0.41349345 4.4314485 -0.98596215
-0.53873813 5.7737074 -0.96674067
-0.80995792 8.6803961 -0.97172987
-0.83943439 8.9962978 -0.50468159
-0.85120487 9.1224432 0
-2.0476167 21.944502 1.2310605
-0.42171711 4.4613013 -0.99271679
-0.54523051 5.7679362 -0.96588391
-0.82093316 8.6845655 -0.97230703
-0.8493259 8.9849291 -0.50410104
-0.86320662 9.131772 0
-2.0753541 21.954954 1.2317866
-0.42638066 4.453198 -0.99102759
-0.55244488 5.7698359 -0.96631312
-0.829454 8.6629696 -0.97000068
-0.85968691 8.9787283 -0.50381106
-0.871759 9.1048107 0
-2.1028717 21.962776 1.2323672
-0.43053523 4.4400368 -0.98821372
-0.55867267 5.7614965 -0.96502882
-0.84116882 8.6748304 -0.97144186
-0.86928165 8.9647541 -0.50308549
-0.88250881 9.1011629 0
-2.1299088 21.965387 1.2326572
-0.43664494 4.4471021 -0.98990291
-0.56488115 5.7531505 -0.96374446
-0.8506391 8.6635113 -0.97028869
-0.87909752 8.9533529 -0.50250494
-0.89248794 9.0897303 0
-2.1597488 21.996414 1.2345438
-0.44126379 4.4389834 -0.98821372
-0.57259434 5.7601295 -0.96502882
-0.86110663 8.6624775 -0.97028869
-0.88888711 8.9419413 -0.5019244
-0.90269786 9.0808735 0
-2.1901815 22.032576 1.236721
-0.44764471 4.4485593 -0.99046528
-0.57929713 5.7568817 -0.96460122
-0.8718316 8.6640015 -0.9705767
-0.90021086 8.9460268 -0.50221437
-0.91158515 9.0590601 0
-2.2168019 22.029913 1.236721
-0.4527624 4.4454899 -0.98990291
-0.58651263 5.758729 -0.96502882
-0.88203794 8.6603718 -0.97028869
-0.90970355 8.9320097 -0.5014888
-0.92253059 9.0579529 0
-2.132319 20.936371 1.1754752
-0.4573518 4.4373546 -0.98821372
-0.59294361 5.7529039 -0.96417207
-0.89250165 8.6592989 -0.97028869
-0.92049551 8.9309034 -0.5014888
-0.93240738 9.0464764 0
-2.1621435 20.977718 1.1779425
-0.46376741 4.4469075 -0.99046528
-0.59909636 5.7445312 -0.96288937
-0.90296406 8.6582146 -0.97028869
-0.9312861 8.9297848 -0.5014888
-0.94252855 9.0375853 0
-2.1869497 20.969915 1.1776519
-0.46834019 4.4387608 -0.98877609
-0.60576797 5.7412524 -0.96246183
-0.91369629 8.659687 -0.9705767
-0 0 -0
-0.95399362 9.0416107 0
-2.212832 20.972431 1.1779425
-0.47666982 4.4659863 -0.99496835
-0.61215931 5.7354064 -0.96160507
-0.92415917 8.658577 -0.9705767
-0.95176005 8.9171734 -0.50090826
-0.96353722 9.0275145 0
-2.2398257 20.985241 1.1788131
-0.47961152 4.4426732 -0.98990291
-0.61991584 5.7423215 -0.96288937
-0.93517643 8.6626015 -0.97115386
-0.96225536 8.9134359 -0.50076324
-0.97444451 9.0263443 0
-2.2674117 21.003185 1.1799742
-0.48332411 4.4269304 -0.98652452
-0.62434661 5.7186036 -0.95903808
-0.94451994 8.6511803 -0.97000068
-0.97415292 8.9225988 -0.50134379
-0.98591578 9.0303392 0
-2.2916603 20.990099 1.1793936
-0.49174017 4.4541268 -0.99271679
-0.63238275 5.7280512 -0.96074992
-0.9561078 8.6603165 -0.97115386
-0.9843626 8.9162445 -0.50105327
-0.99625474 9.023963 0
-2.3190172 21.005396 1.1804097
-0.49740335 4.4560518 -0.99327916
-0.63759428 5.7119708 -0.95818132
-0.9654237 8.6488724 -0.97000068
-0.99398345 8.9047289 -0.50047326
-1.0062914 9.0149908 0
-2.3472786 21.028399 1.1818608
-0.50221795 4.4504027 -0.99215448
-0.64248031 5.6933374 -0.95518512
-0.97674388 8.6554127 -0.97086585
-1.0056157 8.9112606 -0.50090826
-1.0171834 9.0137682 0
-2.3721035 21.020388 1.1815709
-0.50989884 4.4699888 -0.99665755
-0.64877784 5.6874609 -0.95433003
-0.98720151 8.6542263 -0.97086585
-1.015794 8.9048805 -0.50061828
-1.0277795 9.0099497 0
-2.3995614 21.03557 1.1825864
-0.51238877 4.4441228 -0.99102759
-0.65476716 5.6790199 -0.95304573
-0.99765772 8.6530275 -0.97086585
-1.0262557 8.9010677 -0.50047326
-1.0389632 9.0112839 0
-2.4270606 21.050728 1.1836026
-0.52069956 4.4687438 -0.99665755
-0.66489714 5.706275 -0.95775378
-1.0084115 8.6543818 -0.97115386
-1.0373106 8.9023991 -0.50061828
-1.0483451 8.9970989 0
-2.452194 21.0452 1.1834575
-0.52132976 4.4507604 -0.99271679
-0.66924071 5.7135239 -0.95903808
-1.0142412 8.6589041 -0.97172987
-1.0414797 8.891448 -0.50003767
-1.0549916 9.0068035 0
-2.4640009 21.035971 1.1830219
-0.52969319 4.4753551 -0.99834454
-0.67373008 5.6923165 -0.95561433
-1.0259191 8.6679468 -0.97288305
-1.0537493 8.9030828 -0.50076324
-1.0664861 9.0106964 0
-2.4900284 21.038143 1.1833125
-0.53389359 4.4646201 -0.99609303
-0.67999744 5.6863956 -0.95475757
-1.036085 8.664135 -0.97259504
-1.0638896 8.8966475 -0.50047326
-1.0776818 9.011982 0
-2.5172977 21.050594 1.1841831
-0.54081243 4.4765921 -0.99890906
-0.69056249 5.7161527 -0.95989317
-1.0450023 8.6500397 -0.97115386
-1.0737035 8.8876143 -0.50003767
-1.0870098 8.9977579 0
-2.5455358 21.070753 1.1854892
-0.54529744 4.4683661 -0.99721986
-0.69560361 5.7000299 -0.95732623
-1.0560795 8.6539011 -0.97172987
-1.0847561 8.8888874 -0.50018269
-1.099457 9.0093517 0
-2.5744567 21.096037 1.1870859
-0.55100673 4.4702234 -0.99778223
-0.70249051 5.6991849 -0.95732623
-1.0655869 8.6449251 -0.97086585
-1.0954958 8.8875704 -0.50018269
-1.1081133 8.989934 0
-2.6021695 21.110956 1.1881014
-0.5570361 4.4746022 -0.99890906
-0.71064484 5.7085218 -0.95903808
-1.0760319 8.643631 -0.97086585
-1.106234 8.88624 -0.50018269
-1.1205822 9.0014982 0
-1.3472774 10.822513 0.60917032
-0.71946251 5.7229362 -0.96160507
-1.085507 8.6346226 -0.97000068
-1.1176193 8.8900576 -0.50047326
-1.131458 9.0001383 0
-1.361326 10.828613 0.60960585
-0.56752694 4.470715 -0.99834454
-0.72411382 5.7042336 -0.95860887
-1.0956142 8.6307421 -0.96971267
-1.1293411 8.8964272 -0.50090826
-1.1429882 9.003933 0
-1.3734273 10.819225 0.60917032
-0.73231113 5.7135396 -0.96032077
-1.1076857 8.6422367 -0.97115386
-1.1400899 8.8950558 -0.50090826
-1.1541975 9.0051241 0
-1.3874905 10.825293 0.60960585
-0.73690921 5.6948371 -0.95732623
-1.1167997 8.6306314 -0.97000068
-1.1521708 8.9039793 -0.5014888
-1.1660798 9.0114679 0
-1.4012361 10.828756 0.60989588
-0.74279195 5.6863036 -0.95604187
-1.1272273 8.6292753 -0.97000068
-1.1625924 8.9000072 -0.50134379
-1.1779778 9.017787 0
-1.4146557 10.82963 0.61004084
-0.75033271 5.6904874 -0.95689702
-1.1352861 8.6099548 -0.96798235
-1.1747042 8.9089003 -0.5019244
-1.1885333 9.0137796 0
-1.4287596 10.835644 0.61047643
-0.76579183 5.701386 -0.95903808
-1.1536804 8.5892496 -0.96596515
-1.1962301 8.9060354 -0.5019244
-1.2130842 9.0315151 0
-1.4559789 10.839888 0.61091197
-0.77509296 5.7182555 -0.96203262
-1.1612787 8.5673447 -0.96365881
-1.2083865 8.9148827 -0.50250494
-1.2253944 9.0403585 0
-1.4697732 10.843266 0.611202
-0.77921873 5.6969676 -0.95860887
-1.170578 8.5582447 -0.96279365
-1.2191576 8.9134169 -0.50250494
-1.237023 9.0440331 0
-1.4832258 10.844053 0.61134696
-0.78645378 5.6985722 -0.95903808
-1.1787971 8.5414562 -0.96106446
-1.2306366 8.9170799 -0.50279492
-1.2486609 9.0476837 0
-1.4977486 10.85255 0.61192757
-0.79298377 5.6950679 -0.95860887
-1.1880465 8.5323381 -0.9601993
-1.243561 8.9310331 -0.50366604
-1.259951 9.0487432 0
-1.5122941 10.861027 0.61250812
-0.80272138 5.7144427 -0.96203262
-1.1965567 8.5180922 -0.95875812
-1.2539904 8.9269533 -0.50352103
-1.2745047 9.0729914 0
-1.5257789 10.861772 0.61265367
-0.80854613 5.7058506 -0.96074992
-1.2050341 8.5038376 -0.95731694
-1.2662328 8.9357128 -0.50410104
-1.2891173 9.0972071 0
-1.5399948 10.867631 0.61308867
-0.81434983 5.6972437 -0.95946562
-1.2145758 8.4972496 -0.95673978
-1.2781323 8.9418955 -0.50453663
-1.3008444 9.10079 0
-1.5538611 10.870912 0.61337924
-0.81976801 5.6860924 -0.95775378
-1.2244735 8.4932184 -0.95645177
-1.2922727 8.9634886 -0.50584275
-2.8299005 19.628815 0
-1.5699617 10.889601 0.61454034
-0.82589847 5.6800117 -0.95689702
-1.2343631 8.4891758 -0.95616376
-1.3038509 8.9670687 -0.50613326
-2.8509958 19.607361 0
-1.5831186 10.887696 0.61454034
-0.8326692 5.7023802 -0.96074992
-1.2379968 8.4781904 -0.95501059
-1.3096431 8.9688482 -0.50627828
-2.8598328 19.585033 0
-1.5904462 10.891875 0.61483032
-0.65691227 4.4610333 -0.99890906
-0.83955884 5.7013702 -0.96074992
-1.2467328 8.4664536 -0.95385742
-1.3231295 8.9852562 -0.50729442
-2.8800833 19.558393 0
-1.6047418 10.89766 0.61526591
-0.84456086 5.6876483 -0.95860887
-1.2562015 8.4598188 -0.95328027
-1.3370389 9.0042133 -0.50845551
-2.8991268 19.524008 0
-1.6190536 10.903426 0.61570144
-0.66769093 4.4594331 -0.99890906
-0.85257339 5.694242 -0.95989317
-1.26604 8.455739 -0.95299226
-1.3513802 9.0257168 -0.50976163
-2.9184761 19.492176 0
-1.632996 10.906597 0.61599147
-0.85677046 5.6754375 -0.95689702
-1.2758704 8.4516478 -0.95270425
-1.3684895 9.065177 -0.51208329
-2.9354229 19.444891 0
-1.6481122 10.91746 0.61671698
-0.86246985 5.6667914 -0.95561433
-1.2856928 8.447546 -0.95241624
-1.3985994 9.1893892 -0.51919502
-2.9526508 19.400164 0
-1.6620853 10.920604 0.61700755
-0.87281996 5.6885796 -0.95946562
-1.294722 8.4383144 -0.95155108
-1.4337387 9.3443518 -0.5280478
-2.9721437 19.370863 0
-1.6768558 10.928861 0.6175881
-0.87694573 5.6697598 -0.95646948
-1.3037306 8.4290724 -0.95068592
-1.4537673 9.3991117 -0.53124118
-2.989979 19.331255 0
-1.6916487 10.937099 0.61816865
-0.88537771 5.6788416 -0.95818132
-1.3127189 8.4198217 -0.94982076
-1.4655231 9.3999138 -0.53138614
-3.0105281 19.309626 0
-1.7044613 10.932471 0.6180231
-0.89622474 5.7031322 -0.96246183
-1.3232943 8.4207926 -0.9501099
-1.4732499 9.3750353 -0.53008002
-3.0277987 19.267418 0
-1.7196879 10.943246 0.61874926
-0.89909863 5.6766853 -0.95818132
-1.3310398 8.4038544 -0.94837958
-1.4841707 9.3706846 -0.52993506
-1.7414378 10.995006 0
-1.7357538 10.959118 0.6197648
-0.90797997 5.6882677 -0.96032077
-1.3399713 8.3945847 -0.94751555
-1.4926246 9.3509207 -0.52891892
-1.7522597 10.977468 0
-1.7489945 10.957012 0.6197648
-0.91363055 5.6795702 -0.95903808
-1.3468273 8.37253 -0.94520921
-1.5039223 9.3491096 -0.52891892
-1.76635 10.980488 0
-1.7630588 10.960027 0.62005538
-0.92336673 5.6961927 -0.96203262
-1.3573563 8.3734474 -0.94549721
-1.5139701 9.3395882 -0.52848333
-1.7783668 10.970635 0
-1.7758836 10.955317 0.61990982
-0.93107724 5.7001448 -0.96288937
-1.368306 8.3769016 -0.94607323
-1.5239969 9.3300562 -0.5280478
-1.7924613 10.97362 0
-1.7912152 10.965992 0.62063593
-0.93421245 5.6762209 -0.95903808
-1.3763272 8.362484 -0.94463205
-1.5352694 9.328208 -0.5280478
-1.8048733 10.966306 0
-1.8053073 10.968943 0.6209259
-0.94148993 5.677618 -0.95946562
-1.3872776 8.3659229 -0.94520921
-1.5405893 9.2904634 -0.52601612
-1.8181226 10.964117 0
-1.8206848 10.979568 0.62165147
-0.95215619 5.6992617 -0.96331692
-1.3995157 8.3769941 -0.94665039
-1.5526711 9.293726 -0.52630669
-3.1457179 18.829126 0
-1.8352351 10.985052 0.622087
-0.95478207 5.6727972 -0.95903808
-1.4083484 8.3676424 -0.94578522
-1.5647613 9.2969627 -0.52659667
-3.1680355 18.822748 0
-1.8472128 10.975137 0.62165147
-0.95906025 5.6564488 -0.95646948
-1.4193237 8.3710394 -0.94636238
-1.5738223 9.282258 -0.52587116
-3.1881657 18.803505 0
-1.8609067 10.975456 0.62179649
-0.96762305 5.6654077 -0.95818132
-1.4263889 8.351469 -0.94434404
-1.5845999 9.277791 -0.52572614
-3.2056258 18.768856 0
-1.8750428 10.978327 0.622087
-0.96974409 5.6572289 -0.95689702
-1.4301227 8.3429556 -0.94347888
-1.5915205 9.2845078 -0.52616113
-3.2130077 18.743832 0
-1.8834312 10.987436 0.62266761
-0.98094755 5.6813545 -0.96117753
-1.4384422 8.3310261 -0.94232571
-1.6031812 9.2851458 -0.52630669
-3.2338824 18.729677 0
-1.9006845 11.008195 0.62397373
-0.98869044 5.6852183 -0.96203262
-1.4476221 8.3241911 -0.94174969
-1.6170697 9.2985573 -0.52717721
-3.2516077 18.697559 0
-1.9126483 10.998208 0.62353814
-0.99201614 5.6637907 -0.95860887
-1.4563401 8.3147898 -0.94088453
-1.6278563 9.2940397 -0.52703226
-3.2692583 18.665417 0
-1.9277292 11.006127 0.62411869
-1.0042102 5.6929245 -0.96374446
-1.4636909 8.2977457 -0.93915534
-1.6408906 9.3023014 -0.52761281
-3.288646 18.64352 0
-1.9464433 11.034497 0.62586039
-1.0079466 5.6740217 -0.96074992
-1.4773351 8.3163443 -0.94146168
-1.6548554 9.3156576 -0.52848333
-3.3066177 18.613903 0
-1.958411 11.02446 0.6254248
-1.0120888 5.6576333 -0.95818132
-1.4846491 8.2992716 -0.93973136
-1.6674834 9.3213272 -0.52891892
-3.3254404 18.589399 0
-1.974934 11.039992 0.62644094
-1.0193788 5.6589303 -0.95860887
-1.494676 8.297472 -0.93973136
-1.6815084 9.3346443 -0.52978945
-3.3465168 18.577692 0
-3.9141953 21.729074 1.2332377
-1.0285078 5.670331 -0.96074992
-1.5065472 8.3058395 -0.94088453
-1.6946412 9.3428326 -0.53037006
-3.3661742 18.558266 0
-3.9423029 21.734556 1.2338183
-1.0358193 5.671607 -0.96117753
-1.5147233 8.2938356 -0.93973136
-1.705929 9.3407784 -0.53037006
-3.3848553 18.533703 0
-3.9694948 21.734884 1.2341082
-1.0440648 5.677928 -0.96246183
-1.5270821 8.3047161 -0.94117254
-1.7228534 9.3693771 -0.5321117
-3.401129 18.496328 0
-4.0056224 21.783737 1.237156
-1.0485868 5.6640339 -0.96032077
-1.538999 8.3130379 -0.94232571
-1.7379574 9.3877287 -0.5332728
-3.4158957 18.45126 0
-4.0295763 21.766109 1.2364305
-1.0554299 5.6627626 -0.96032077
-1.5499913 8.3162622 -0.94290286
-1.7521549 9.4009438 -0.53414339
-3.4329441 18.418983 0
-4.0639663 21.804647 1.2388977
-1.0665317 5.6841884 -0.96417207
-1.5614682 8.3220024 -0.94376689
-1.7683057 9.4243641 -0.53559506
-3.461436 18.448072 0
-4.0850406 21.771635 1.2373016
-1.0667298 5.6475859 -0.95818132
-1.5720041 8.3226585 -0.94405603
-1.7821028 9.4349842 -0.53632063
-3.5122213 18.594748 0
-4.1200242 21.812639 1.2399138
-1.077389 5.6664677 -0.96160507
-1.5835072 8.3283691 -0.94492006
-1.7968998 9.450695 -0.53733671
-3.5230203 18.529131 0
-4.1488037 21.820406 1.2406394
-1.0871294 5.680285 -0.96417207
-1.5930835 8.3239117 -0.94463205
-2.2933168 11.982652 -0.68145281
-3.5273063 18.430286 0
-3.5006611 18.291065 1.0402119
-1.088652 5.6512465 -0.95946562
-1.6026514 8.3194427 -0.94434404
-2.3048437 11.964558 -0.68058175
-2.5118756 13.039271 0
-2.5127258 13.043684 0.74196583
-1.0945014 5.6448817 -0.95860887
-1.6136863 8.3225737 -0.94492006
-2.3247399 11.989827 -0.68217838
-2.5246558 13.020892 0
-2.5289807 13.043197 0.74211138
-1.1032881 5.6536331 -0.96032077
-1.6227515 8.315546 -0.94434404
-2.3412163 11.997211 -0.68275893
-2.5364015 12.997407 0
-2.5432456 13.032478 0.74167579
-1.1071512 5.6371875 -0.95775378
-1.6327981 8.3135786 -0.94434404
-2.3547084 11.989268 -0.68246841
-2.548593 12.976455 0
-2.5564873 13.016649 0.74095029
-1.1154555 5.6434031 -0.95903808
-1.6463534 8.3293638 -0.94636238
-2.5495639 12.89896 -0.73442584
-2.5607378 12.955491 0
-2.5686862 12.995705 0.73993415
-1.1252776 5.6571527 -0.96160507
-1.6503614 8.2969275 -0.94290286
-2.5631204 12.885675 -0.73384523
-2.5708065 12.924317 0
-2.5803316 12.972203 0.73877305
-1.1300969 5.64572 -0.95989317
-1.6624161 8.3050718 -0.94405603
-2.5771577 12.874923 -0.7334097
-2.5818226 12.898228 0
-2.589884 12.938501 0.73703134
-1.1345193 5.650075 -0.96074992
-1.6664139 8.2989893 -0.94347888
-2.5874929 12.8861 -0.73413527
-2.5870533 12.88391 0
-2.5936079 12.916553 0.73587024
-1.1382941 5.6335979 -0.95818132
-1.6769522 8.2995024 -0.94376689
-2.6051199 12.893151 -0.73471582
-2.6057127 12.896086 0
-2.6092131 12.91341 0.73587024
-1.1456113 5.6347313 -0.95860887
-1.6864645 8.2949381 -0.94347888
-2.6222503 12.897635 -0.73515135
-2.6212931 12.892927 0
-2.6242974 12.907703 0.73572522
-1.1519049 5.6308303 -0.95818132
-1.697004 8.2954254 -0.94376689
-2.6378329 12.894458 -0.73515135
-2.6363468 12.887194 0
-0 0 0
-1.1659523 5.6646309 -0.96417207
-1.7070261 8.2933693 -0.94376689
-2.6581254 12.914165 -0.73645747
-2.6576884 12.912041 0
-2.6617689 12.931866 0.73746693
-1.1660291 5.6305418 -0.95860887
-1.7201939 8.3065014 -0.94549721
-2.6758356 12.921121 -0.73703808
-2.672761 12.906274 0
-2.6795003 12.938817 0.73804748
-1.1759744 5.6442122 -0.96117753
-1.7249527 8.2790909 -0.94261372
-2.6940958 12.930595 -0.73776358
-2.6957843 12.9387 0
-2.6983113 12.950829 0.73891801
-1.1827934 5.642787 -0.96117753
-1.7349551 8.2770014 -0.94261372
-2.7113175 12.934962 -0.73819917
-2.7124851 12.940532 0
-2.7150252 12.95265 0.73920858
-0.74790555 3.5256007 -0.99434859
-1.2001538 5.6574831 -0.96417207
-1.7554905 8.275322 -0.94290286
-2.7468822 12.948708 -0.73936027
-2.7475283 12.951753 0
-2.7522485 12.974004 0.74080473
-1.1994895 5.6208863 -0.95818132
-1.766567 8.2782488 -0.94347888
-2.7646954 12.955544 -0.73994082
-2.7653484 12.958604 0
-2.771178 12.985922 0.74167579
-1.209514 5.6344972 -0.96074992
-1.7765683 8.2761078 -0.94347888
-2.7847106 12.972518 -0.74110198
-2.7820978 12.960347 0
-2.7885034 12.990188 0.74211138
-1.2179452 5.640552 -0.96203262
-1.7871125 8.2764807 -0.94376689
-2.8003833 12.969144 -0.74110198
-2.8005018 12.969693 0
-2.8080351 13.00458 0.74312693
-1.2231269 5.6315575 -0.96074992
-1.7965633 8.2717905 -0.94347888
-2.8188088 12.978445 -0.74182749
-2.8172748 12.971381 0
-2.8254015 13.008799 0.74356252
-1.2332168 5.6451182 -0.96331692
-1.8071083 8.2721386 -0.94376689
-2.8383713 12.992802 -0.74284363
-2.8396113 12.998478 0
-2.8438904 13.018065 0.74428803
-1.2345289 5.6185565 -0.95903808
-1.8154386 8.2623768 -0.94290286
-2.8551826 12.994433 -0.7431336
-2.8530812 12.98487 0
-2.8624058 13.027308 0.74501359
-1.2457484 5.6371131 -0.96246183
-1.8282108 8.2728033 -0.94434404
-2.8731246 13.001123 -0.74371421
-2.8749468 13.009369 0
-2.879267 13.028918 0.74530417
-1.2508875 5.6280837 -0.96117753
-1.8387662 8.2731104 -0.94463205
-2.8944685 13.023003 -0.74516529
-2.8940508 13.021124 0
-2.8938792 13.020351 0.74501359
-1.2560065 5.61905 -0.95989317
-1.8493249 8.2734041 -0.94492006
-2.9136043 13.034716 -0.74603641
-2.9131896 13.032861 0
-2.9113107 13.024455 0.74544919
-1.2639222 5.6225424 -0.96074992
-1.8564845 8.2585487 -0.94347888
-2.929352 13.031186 -0.74603641
-2.9289351 13.029331 0
-2.932744 13.046275 0.74690026
-0.79912359 3.5349252 -0.99988586
-1.2718461 5.6260138 -0.96160507
-1.8687433 8.2663908 -0.94463205
-2.9479597 13.040307 -0.74676198
-2.9481184 13.041009 0
-2.9513721 13.055402 0.74762642
-0.8012591 3.5344417 -0.99988586
-1.2746778 5.6227431 -0.96117753
-1.8714498 8.2551699 -0.94347888
-2.9535396 13.028387 -0.74618143
-2.958873 13.051913 0
-2.959259 13.053617 0.74762642
-1.2814708 5.6211991 -0.96117753
-1.8848736 8.2680387 -0.94520921
-2.9652362 13.007072 -0.74516529
-2.9757996 13.053408 0
-2.9761837 13.055093 0.7479164
-0.80755579 3.5227137 -0.99711722
-1.2917025 5.6346545 -0.96374446
-1.8931282 8.2581892 -0.94434404
-2.9768879 12.985758 -0.74414974
-2.9863367 13.026975 0
-2.9878912 13.033756 0.74690026
-1.2979338 5.6305909 -0.96331692
-1.9025248 8.2533779 -0.94405603
-2.9884903 12.964424 -0.7431336
-2.9985664 13.008136 0
-3.0001369 13.014949 0.74602973
-1.3058946 5.6340151 -0.96417207
-1.9113268 8.2460289 -0.94347888
-2.998287 12.935495 -0.74168253
-3.0119314 12.994363 0
-3.0099945 12.986006 0.7445786
-1.3109549 5.6249399 -0.96288937
-1.9218756 8.2462301 -0.94376689
-3.0115554 12.921741 -0.74110198
-3.0211344 12.962841 0
-3.0215542 12.964643 0.74356252
-1.3183357 5.6258488 -0.96331692
-1.9336091 8.2514591 -0.94463205
-3.0247953 12.907972 -0.74052137
-3.0320449 12.93891 0
-3.031882 12.938215 0.7422564
-1.3257207 5.6267481 -0.96374446
-1.9441706 8.2516317 -0.94492006
-3.0386016 12.896718 -0.74008584
-3.0440948 12.920033 0
-3.0439367 12.919362 0.74138528
-1.333703 5.6301427 -0.96460122
-1.953544 8.2467623 -0.94463205
-3.0541825 12.893038 -0.74008584
-3.0537062 12.891026 0
-3.0535564 12.890395 0.73993415
-1.3357471 5.6085491 -0.96117753
-1.9629085 8.2418814 -0.94434404
-2.0355506 8.5468922 -0.49074933
-3.0674708 12.879729 0
-3.0661204 12.87406 0.73920858
-1.3479022 5.6293974 -0.96502882
-1.9752749 8.2495651 -0.94549721
-2.0458763 8.544426 -0.49074933
-3.0775776 12.853237 0
-3.0768332 12.850129 0.73804748
-1.3529004 5.620275 -0.96374446
-1.987058 8.2547188 -0.94636238
-2.0519416 8.5242615 -0.48973322
-3.0882335 12.829268 0
-3.0887103 12.831249 0.7371769
-1.3602936 5.6211286 -0.96417207
-1.9945973 8.2422562 -0.94520921
-2.0610189 8.5167294 -0.48944321
-3.0994496 12.807828 0
-3.100544 12.812349 0.73630577
-1.3664784 5.6169891 -0.96374446
-2.0070007 8.2498932 -0.94636238
-2.0706923 8.5117006 -0.48929766
-3.1100018 12.783843 0
-3.111109 12.788395 0.73514467
-1.3750945 5.622817 -0.96502882
-2.0132797 8.2323828 -0.94463205
-2.0785062 8.4990969 -0.48871711
-3.1223557 12.767438 0
-3.1222401 12.766966 0.73412913
-1.3818876 5.6211514 -0.96502882
-2.0275483 8.2475281 -0.94665039
-2.0875349 8.4915371 -0.4884271
-3.1309454 12.735854 0
-3.1327014 12.742997 0.73296803
-1.3843671 5.6020303 -0.96203262
-2.0375125 8.2450724 -0.94665039
-2.0953002 8.4789181 -0.48784652
-3.1425872 12.716908 0
-3.1443551 12.724062 0.73209691
-1.3954676 5.6177955 -0.96502882
-2.0468507 8.2400961 -0.94636238
-2.1042898 8.4713316 -0.48755598
-3.1523023 12.690362 0
-3.1540902 12.697559 0.73079079
-1.4016334 5.6136169 -0.96460122
-2.0593119 8.2476549 -0.94751555
-2.1120088 8.4587088 -0.48697597
-3.1663742 12.681499 0
-3.1675415 12.686173 0.7303552
-1.4052916 5.5994725 -0.96246183
-2.0654972 8.2301035 -0.94578522
-2.1203296 8.4485874 -0.48654041
-3.1747258 12.649895 0
-3.1759121 12.654621 0.72875911
-1.4145654 5.607717 -0.96417207
-2.0773387 8.2351284 -0.94665039
-2.1356211 8.4661751 -0.48770154
-3.1588206 12.522412 0
-3.1867509 12.633135 0.72774297
-1.4200797 5.6010318 -0.96331692
-2.0872877 8.2326117 -0.94665039
-2.1426568 8.4509974 -0.48697597
-3.0812106 12.15281 0
-3.2007372 12.624243 0.72745299
-1.4278907 5.6175909 -0.96631312
-2.0916245 8.2288446 -0.94636238
-2.1580017 8.4899855 -0.48929766
-3.0699627 12.077811 0
-3.2032425 12.60216 0.72629189
-1.4346774 5.6158614 -0.96631312
-2.105406 8.2413425 -0.94809157
-2.175334 8.5150671 -0.49089432
-3.0800443 12.05644 0
-3.2120347 12.573099 0.72484022
-1.4452913 5.6290379 -0.96888012
-2.1115043 8.2237663 -0.94636238
-2.2050064 8.5879326 -0.49524823
-3.0965521 12.060274 0
-3.223994 12.556627 0.72411466
-1.4552982 5.6397133 -0.97101951
-2.1220853 8.223711 -0.94665039
-2.2062933 8.5500422 -0.49321654
-0 0 0
-3.2326727 12.527567 0.72266352
-1.4582464 5.6230459 -0.96845251
-2.1346176 8.2311554 -0.94780356
-2.2172744 8.5498829 -0.49336156
-3.1289539 12.06535 0
-3.2451982 12.513591 0.72208297
-1.4695697 5.6386614 -0.97144705
-2.1458652 8.2335711 -0.94837958
-2.2230158 8.5295935 -0.49234545
-3.1435304 12.06156 0
-3.2550735 12.489545 0.72092187
-1.4731305 5.6244674 -0.96930766
-2.1538482 8.2234735 -0.94751555
-2.2359538 8.5369558 -0.492926
-3.1600809 12.065308 0
-3.2662134 12.470526 0.72005129
-1.4831918 5.6350937 -0.97144705
-2.1631227 8.2183561 -0.94722641
-2.244946 8.5292273 -0.492636
