# .PCD v0.7 - Point Cloud Data file format
VERSION 0.7
FIELDS x y z
SIZE 4 4 4
TYPE F F F
COUNT 1 1 1
WIDTH 1565
HEIGHT 1
VIEWPOINT 0 0 0 1 0 0 0
POINTS 1565
DATA ascii
-1.7260554 2.8748238 -0.92513502
-2.0268092 3.3757432 -0.87226486
-2.8884721 4.8108816 -0.9355011
-2.8221643 4.7004428 -0.61109573
-2.3090301 3.8457944 -0.25055563
-2.2982574 3.8278522 0
-2.4440548 4.0706844 0.26520732
-1.4967976 2.4861724 -0.95687109
-1.7204736 2.857697 -0.9202919
-2.0243351 3.3624096 -0.86945099
-2.8889866 4.7985907 -0.93378925
-2.8358436 4.7103205 -0.61282492
-2.3083143 3.8340971 -0.24997507
-2.3109324 3.8384457 0
-2.4489715 4.067728 0.26520732
-1.4908625 2.4695566 -0.95116866
-1.7252207 2.8577619 -0.92098343
-2.0297084 3.3621342 -0.8700133
-2.8961082 4.7972922 -0.9342168
-2.8401976 4.7046785 -0.61253691
-2.3142922 3.8335361 -0.25012064
-5.1467023 8.5253143 0
-2.4565732 4.0692196 0.26549789
-1.5002438 2.4783232 -0.95524269
-1.718279 2.8385057 -0.9154461
-2.0298259 3.3531647 -0.86832631
-2.9085481 4.8047676 -0.93635625
-2.8405225 4.6923923 -0.61138374
-2.3350646 3.857403 -0.25186175
-5.1772165 8.5524874 0
-2.4561059 4.0573568 0.26491731
-1.4865662 2.4490438 -0.94464892
-1.7321217 2.8535843 -0.92098343
-2.0338759 3.3507094 -0.86832631
-2.9223464 4.8144202 -0.93892485
-2.8502128 4.6955838 -0.61224777
-2.3006296 3.7901728 -0.24765339
-5.1848435 8.5417719 0
-2.4637005 4.0588241 0.26520732
-1.5075123 2.4767997 -0.95605689
-1.7277448 2.8386352 -0.91683179
-2.0405629 3.3525863 -0.86945099
-2.4303505 3.9929962 -0.77930003
-2.857233 4.6943521 -0.61253691
-0 0 -0
-5.1789236 8.5088234 0
-2.4753621 4.0669489 0.26593345
-1.5012931 2.4632297 -0.95116866
-1.7385952 2.8525803 -0.92167491
-2.0386195 3.3448417 -0.86776179
-2.4514689 4.0222197 -0.78529239
-2.8667977 4.7036657 -0.61397809
-0 0 -0
-5.1867747 8.5101414 0
-2.4845788 4.0765448 0.26665899
-1.5094188 2.4698415 -0.95442539
-1.7485807 2.8611789 -0.92513502
-2.0479596 3.3510485 -0.8700133
-2.4643564 4.032393 -0.78785938
-2.867084 4.6913705 -0.61282492
-0 0 -0
-5.1902695 8.4927673 0
-2.4854364 4.0668859 0.26622343
-1.5175676 2.4764454 -0.95768523
-1.7494174 2.85479 -0.92375207
-2.0466967 3.3399055 -0.86776179
-2.4625218 4.0184703 -0.78571999
-2.8727505 4.6879029 -0.61282492
-0 0 -0
-5.1950884 8.4776134 0
-2.4984922 4.0771689 0.26709399
-1.5179734 2.4704022 -0.95605689
-1.7344804 2.8227532 -0.9140631
-2.0507309 3.33743 -0.86776179
-2.478127 4.0329895 -0.78914368
-2.870291 4.6712103 -0.61109573
-2.7347281 4.4505906 -0.29177302
-5.205328 8.4713297 0
-2.5115817 4.0874343 0.26796511
-1.5170666 2.4622514 -0.9536112
-1.752362 2.8441441 -0.92167491
-2.06143 3.3457723 -0.87057781
-2.4749162 4.0168748 -0.78657508
-2.8691454 4.6567221 -0.60965341
-2.776907 4.5070162 -0.29569191
-5.21556 8.4650345 0
-2.5246942 4.0976658 0.26883566
-1.5083505 2.4414942 -0.94627732
-1.7557974 2.8420246 -0.92167491
-2.0627978 3.3389513 -0.86945099
-2.4770722 4.0095177 -0.78571999
-3.3682141 5.4519663 -0.71429831
-2.7700608 4.4837642 -0.29438579
-5.2189417 8.44765 0
-2.5351064 4.1034546 0.26941624
-1.5269184 2.4648836 -0.95605689
-1.7460212 2.818578 -0.91475463
-2.0614784 3.3278165 -0.86719942
-2.4819152 4.0065217 -0.78571999
-3.3693511 5.4390974 -0.71314514
-2.768636 4.4693713 -0.29366022
-5.2291451 8.4413376 0
-2.54143 4.1025953 0.26956123
-1.5194627 2.4462404 -0.94953716
-1.750748 2.8185952 -0.9154461
-2.0708606 3.3339567 -0.86945099
-2.4867544 4.00352 -0.78571999
-3.3854752 5.4504042 -0.71516347
-3.3375041 5.3731737 -0.35330936
-5.2338481 8.4261694 0
-2.54913 4.1039405 0.26985177
-1.5328707 2.4611864 -0.95605689
-1.7647629 2.833514 -0.92098343
-2.0722036 3.3271427 -0.86832631
-2.4915903 4.0005121 -0.78571999
-3.4016314 5.4616799 -0.7171818
-3.3439941 5.3691373 -0.35330936
-5.2385278 8.4110117 0
-2.5595818 4.1096802 0.27043235
-1.5253699 2.4425611 -0.94953716
-1.7535664 2.8079703 -0.91336894
-2.0735278 3.3203218 -0.86719942
-2.4937 3.9931397 -0.78486323
-3.4137032 5.4663329 -0.71833384
-3.3532293 5.3694963 -0.35359937
-5.2431726 8.3958464 0
-2.5645456 4.1065841 0.27043235
-1.5191368 2.4260507 -0.94383162
-1.7596235 2.8101063 -0.91475463
-2.0802379 3.3221252 -0.86832631
-2.4930737 3.9814208 -0.78315133
-3.4134436 5.4512453 -0.71689266
-3.373508 5.3874683 -0.35505104
-5.2519288 8.3872929 0
-2.5639896 4.0946732 0.26985177
-1.5233852 2.4263124 -0.94464892
-1.7536783 2.793103 -0.90990883
-2.0815458 3.3153012 -0.86719942
-2.5088027 3.9957981 -0.78657508
-3.4296565 5.4624524 -0.71891099
-3.3910635 5.4009848 -0.35621157
-5.2579117 8.3743343 0
-2.5689354 4.0915723 0.26985177
-1.5328984 2.4349263 -0.94872296
-1.7677445 2.8079667 -0.9154461
-2.0882602 3.3170884 -0.86832631
-2.5095301 3.9862528 -0.78529239
-3.4555435 5.4889441 -0.72294652
-3.4045129 5.4078846 -0.35693771
-5.2832742 8.3921957 0
-2.5807979 4.0994577 0.27057734
-1.526603 2.4184399 -0.94301742
-1.7711362 2.8058286 -0.9154461
-2.0922666 3.3145628 -0.86832631
-2.5143447 3.9832175 -0.78529239
-3.4511282 5.467267 -0.72064018
-3.4193642 5.4169464 -0.35780826
-5.3184133 8.4254141 0
-2.5871351 4.0985317 0.27072236
-1.5374576 2.4291282 -0.94790882
-1.7812324 2.8142838 -0.91890627
-2.0908346 3.3034441 -0.86607474
-2.5177791 3.9780011 -0.78486323
-3.4618831 5.4696517 -0.72150534
-3.4245186 5.4106174 -0.35766327
-5.3397245 8.436574 0
-2.5865266 4.0866203 0.27014178
-1.5324429 2.4147437 -0.94301742
-1.7792546 2.8036566 -0.91613764
-2.092099 3.2966206 -0.86494792
-2.5212097 3.9727907 -0.78443563
-3.4781921 5.4807539 -0.72352368
-3.4853501 5.492033 -0.36332327
-5.387567 8.4894466 0
-7.337636 11.562264 0.76489705
-1.5433234 2.4254057 -0.94790882
-1.7772536 2.7930381 -0.91336894
-2.094718 3.2919486 -0.86438555
-2.527385 3.9719052 -0.78486323
-3.4973075 5.4961843 -0.72611803
-3.5184894 5.5294728 -0.36608106
-5.3992167 8.4851246 0
-7.3753147 11.590656 0.76736426
-1.5369458 2.4089518 -0.94220328
-1.7833285 2.7951226 -0.91475463
-2.1000595 3.2915552 -0.86494792
-2.5363259 3.9753428 -0.78614753
-3.5136857 5.5072203 -0.72813636
-3.5028064 5.4901681 -0.36375883
-5.3870687 8.443491 0
-7.3865161 11.577351 0.76707369
-1.5518414 2.4258292 -0.94953716
-1.7785903 2.7802818 -0.9106003
-2.1081443 3.2954385 -0.86663711
-2.535594 3.9636254 -0.78443563
-3.5273054 5.5138626 -0.72957754
-3.4814322 5.4421539 -0.36085606
-5.4042778 8.4479351 0
-7.4117017 11.585928 0.76823479
-1.544096 2.4073088 -0.94301742
-1.7995555 2.8055809 -0.91959774
-2.1066372 3.2843339 -0.86438555
-2.5362222 3.9540744 -0.78315133
-3.5241888 5.4943542 -0.72755921
-3.4613543 5.3963933 -0.3580988
-5.4046502 8.4260712 0
-7.4425306 11.60321 0.7699765
-1.5483392 2.4075181 -0.94383162
-1.7880207 2.7801998 -0.91198599
-2.0996089 3.2646894 -0.85988247
-2.5409982 3.9510069 -0.78315133
-3.5196323 5.4726887 -0.72525287
-3.4228947 5.3222713 -0.35345435
-5.4232712 8.432663 0
-7.473412 11.620435 0.77171814
-1.5592865 2.4181128 -0.94872296
-1.8008971 2.7927983 -0.91683179
-2.0994198 3.2557416 -0.85819328
-2.5457704 3.9479339 -0.78315133
-3.5136285 5.4488707 -0.72265851
-3.4279163 5.3159494 -0.35330936
-5.427815 8.4173555 0
-7.5001202 11.631048 0.77302426
-1.5674492 2.4275501 -0.95279706
-1.8025841 2.7917097 -0.91683179
-2.1068995 3.263011 -0.86044484
-2.5481551 3.9463952 -0.78315133
-3.5239334 5.4576092 -0.7240997
-3.4283056 5.3095078 -0.35301879
-5.4300785 8.4097061 0
-7.5184216 11.643978 0.77418536
-1.5730652 2.4298 -0.95442539
-1.7936814 2.7705698 -0.9106003
-2.1094611 3.258332 -0.85988247
-2.5501342 3.9390075 -0.78229624
-3.5670693 5.5097938 -0.73159474
-3.4474266 5.3249903 -0.35432491
-5.4402361 8.4031391 0
-7.5494313 11.66106 0.77592707
-1.5692726 2.4175336 -0.95035136
-1.7942985 2.7641959 -0.9092173
-2.1133966 3.2557807 -0.85988247
-2.5604825 3.9445362 -0.78400809
-2.9836934 4.5965109 -0.61080658
-3.4566905 5.3251843 -0.35461548
-5.4659681 8.4205647 0
-7.5720019 11.665003 0.77679759
-1.5856774 2.4363549 -0.95850259
-1.8044784 2.7725372 -0.91267747
-2.1131697 3.246834 -0.85819328
-2.5596457 3.9328334 -0.78229624
-2.9991226 4.608079 -0.61282492
-3.4659545 5.3253551 -0.35490549
-5.4562669 8.3834219 0
-7.604516 11.684155 0.77868432
-1.5670086 2.401319 -0.94546312
-1.7954892 2.7514477 -0.90644866
-2.1170914 3.2442782 -0.85819328
-2.5573828 3.9189906 -0.78015679
-3.0032763 4.6022878 -0.61253691
-3.479491 5.3320498 -0.35563159
-5.4507465 8.3528461 0
-7.6370878 11.703244 0.78057098
-1.5455536 2.3621995 -0.93079531
-1.8125454 2.7702656 -0.91336894
-2.1224051 3.2438502 -0.85875779
-2.5663285 3.9223359 -0.78143948
-3.0130794 4.6051426 -0.61340094
-3.4830832 5.3234887 -0.35534102
-5.4850569 8.3832741 0
-7.6611834 11.70923 0.78158706
-1.5822984 2.4119935 -0.95116866
-1.8062627 2.7533958 -0.90852582
-2.1221406 3.2349076 -0.8570686
-2.5696595 3.9170878 -0.78101194
-3.0101318 4.5885267 -0.61167175
-3.4980621 5.3323083 -0.35621157
-4.2204766 6.4335284 0
-7.6938534 11.728208 0.78347373
-1.6001481 2.4327884 -0.96013093
-1.812343 2.7553992 -0.90990883
-2.1288376 3.2365828 -0.85819328
-2.5800333 3.9225588 -0.78272378
-3.0128341 4.5805683 -0.61109573
-3.4802291 5.2911735 -0.35374436
-4.2382598 6.4436469 0
-7.7180161 11.734101 0.78448987
-1.5663513 2.3751495 -0.93812925
-1.818436 2.7574 -0.91129446
-2.1327469 3.2340081 -0.85819328
-2.5861828 3.9215794 -0.78315133
-3.0126708 4.5682878 -0.60994256
-3.51666 5.3325162 -0.35679215
-4.2446113 6.4363503 0
-7.7421985 11.739945 0.78550541
-1.5801257 2.3897486 -0.94464892
-1.8217664 2.7552009 -0.91129446
-2.1380584 3.2335544 -0.85875779
-2.5838416 3.9077473 -0.78101194
-3.0238948 4.5732741 -0.61109573
-3.5474632 5.365108 -0.35925937
-4.2595606 6.4420691 0
-7.7678437 11.747922 0.78666657
-1.5898392 2.3981357 -0.94872296
-1.8223191 2.7488117 -0.90990883
-2.1377506 3.2246132 -0.8570686
-2.5928183 3.9110432 -0.78229624
-3.0265572 4.5653014 -0.61051857
-3.5525088 5.358654 -0.35911438
-4.2702146 6.4412518 0
-7.8136172 11.78617 0.78985935
-1.5694779 2.3612225 -0.93486935
-1.8311942 2.7549651 -0.91267747
-2.1430507 3.2241418 -0.85763091
-2.597542 3.9079075 -0.78229624
-3.0363681 4.5681052 -0.61138374
-3.5676143 5.3673458 -0.3599855
-4.2693534 6.4230871 0
-5.2762737 7.9379621 0.5323956
-1.5997432 2.4004588 -0.95116866
-1.8303466 2.7464855 -0.9106003
-2.1441293 3.2173252 -0.85650623
-2.5979898 3.8983552 -0.78101194
-3.037581 4.5579739 -0.61051857
-3.5740972 5.3630314 -0.3599855
-4.2900996 6.4374123 0
-5.275773 7.9164429 0.53137946
-1.5738077 2.3553696 -0.93405515
-1.8350616 2.7463636 -0.91129446
-2.143779 3.2083921 -0.85481703
-2.6055534 3.8994863 -0.7818687
-3.0445218 4.5564489 -0.61080658
-3.5834591 5.3630257 -0.36027551
-4.276185 6.3997636 0
-5.2824502 7.9057455 0.53108948
-1.5986574 2.386313 -0.94709152
-1.8299981 2.7316349 -0.9071402
-2.1518981 3.2121344 -0.85650623
-2.6031208 3.8856738 -0.77972925
-3.052907 4.5570688 -0.61138374
-3.5798116 5.3435783 -0.35925937
-4.2984028 6.4162173 0
-5.2804289 7.8820868 0.52992833
-1.5850075 2.3597665 -0.93731505
-1.8416932 2.7419212 -0.91129446
-2.1586087 3.2137463 -0.85763091
-2.6078141 3.8825254 -0.77972925
-3.0555241 4.549078 -0.61080658
-3.5978565 5.3565049 -0.3604205
-4.3105068 6.4175024 0
-7.8817859 11.734439 0.78956932
-1.6058041 2.3844986 -0.94790882
-1.8492049 2.7459304 -0.91336894
-2.158231 3.2048111 -0.85594177
-2.6125035 3.8793716 -0.77972925
-3.0653541 4.5518208 -0.61167175
-3.611582 5.3629284 -0.36114606
-4.2964511 6.3799076 0
-7.8161335 11.606372 0.78158706
-1.5962325 2.364115 -0.94057178
-1.8553319 2.7478564 -0.91475463
-2.1592607 3.1979933 -0.85481703
-2.618624 3.8783376 -0.78015679
-3.0838766 4.5674043 -0.6142661
-3.615154 5.3542576 -0.36085606
-0 0 0
-7.8388734 11.609837 0.78245765
-1.612946 2.3826559 -0.94872296
-1.8516202 2.7352271 -0.91129446
-2.1631234 3.1953819 -0.85481703
-2.6233084 3.8751707 -0.78015679
-4.3725214 6.4591208 -0.86939132
-3.6274476 5.3584924 -0.36143661
-4.2593408 6.2919297 0
-7.8485303 11.593907 0.78202266
-1.601941 2.3602507 -0.94057178
-1.8506958 2.7267585 -0.9092173
-2.1669827 3.1927657 -0.85481703
-2.6207821 3.8613799 -0.7780174
-4.3803229 6.4538331 -0.86939132
-3.6426723 5.3670015 -0.36230716
-4.2567081 6.2717028 0
-7.8683705 11.593015 0.7826032
-1.6242067 2.3899477 -0.95279706
-1.8523428 2.7256398 -0.9092173
-2.1689112 3.1914561 -0.85481703
-2.6288862 3.8682885 -0.77972925
-4.3740487 6.4362168 -0.86737412
-3.6532211 5.3755517 -0.36303329
-4.2561064 6.2626705 0
-7.8680658 11.577508 0.7818771
-1.6131788 2.3675618 -0.94464892
-1.8528069 2.7192492 -0.90783167
-2.172766 3.188833 -0.85481703
-2.6321087 3.8629816 -0.77930003
-4.3847322 6.4351978 -0.86795014
-3.6567845 5.3668346 -0.36274272
-4.2372961 6.2188148 0
-7.9025364 11.59806 0.78390932
-1.6146401 2.3635643 -0.94383162
-1.8546774 2.7149389 -0.9071402
-2.1766174 3.1862054 -0.85481703
-2.6353278 3.8576808 -0.77887249
-4.3866687 6.4213524 -0.86679697
-3.6632667 5.362412 -0.36274272
-4.260951 6.2373223 0
-7.875504 11.528425 0.77984542
-1.6119083 2.3534548 -0.94057178
-1.852286 2.7044165 -0.9043715
-2.1804657 3.183573 -0.85481703
-2.6370888 3.8502619 -0.7780174
-4.3988104 6.422451 -0.86766213
-3.6785562 5.3708491 -0.36361384
-4.2640767 6.2257342 0
-7.9217281 11.566061 0.7830382
-1.6357388 2.3820696 -0.95279706
-1.864076 2.7145891 -0.90852582
-2.1886272 3.1872218 -0.85650623
-2.6417391 3.8470726 -0.7780174
-4.4051051 6.4150009 -0.86737412
-3.6894517 5.3728199 -0.36404884
-4.2657037 6.2119956 0
-7.9268751 11.543633 0.78216761
-1.6161907 2.3475187 -0.93975759
-1.8588161 2.6999323 -0.9043715
-2.1838288 3.1720138 -0.85312784
-2.6449256 3.8417573 -0.77758819
-4.4069862 6.4011521 -0.86622095
-3.7033072 5.3790574 -0.36477441
-4.2717319 6.2046952 0
-7.9305015 11.519062 0.78115153
-1.6176233 2.3435321 -0.93894339
-1.8791788 2.7224605 -0.91267747
-2.1905496 3.173559 -0.85425472
-2.6510282 3.8406773 -0.7780174
-3.7623868 5.450758 -0.73822576
-0 0 -0
-4.2866168 6.2102361 0
-7.9163728 11.468846 0.77839428
-1.651394 2.3862846 -0.95687109
-1.8681934 2.6995623 -0.90575719
-2.1943827 3.1709099 -0.85425472
-2.6527426 3.8332455 -0.77716064
-3.7777984 5.4589653 -0.73995495
-0 0 -0
-4.2807899 6.1857939 0
-7.9317021 11.461407 0.7785393
-1.6387818 2.3619556 -0.94790882
-1.8643047 2.6869988 -0.90229702
-2.1938658 3.1619911 -0.85256553
-2.6588342 3.8321445 -0.77758819
-3.7902894 5.4628968 -0.74110812
-0 0 -0
-3.800194 5.4771719 0
-7.9203653 11.415524 0.77607208
-1.637399 2.3538849 -0.94546312
-1.8704125 2.6888592 -0.90368003
-2.1976848 3.159338 -0.85256553
-2.6634626 3.8289289 -0.77758819
-3.7998445 5.4625635 -0.74168527
-0 0 -0
-3.8038342 5.4682994 0
-7.916347 11.380347 0.77433038
-1.6176205 2.319468 -0.93242371
-1.8779668 2.6927726 -0.90575719
-2.2058625 3.1629345 -0.85425472
-2.6636863 3.8193972 -0.7763055
-3.7960837 5.4431157 -0.73966694
-3.7506039 5.377903 -0.36622608
-3.8163939 5.4722376 0
-7.9642754 11.419788 0.77766818
-1.6331671 2.3357401 -0.93975759
-1.8783412 2.6863854 -0.9043715
-2.2111373 3.1623473 -0.85481703
-2.6741831 3.8245912 -0.7780174
-3.7878394 5.4173317 -0.73678458
-3.7675178 5.388268 -0.36724162
-3.8319538 5.4804235 0
-7.960206 11.38461 0.77592707
-1.6473383 2.3499558 -0.94627732
-1.8772696 2.6779571 -0.90229702
-2.2149568 3.1596732 -0.85481703
-2.6743805 3.8150489 -0.77673304
-3.8003213 5.4212227 -0.73793775
-3.7829781 5.396482 -0.36811274
-3.8281145 5.4608698 0
-7.9754467 11.37711 0.77607208
-1.6501765 2.3479636 -0.94627732
-1.8848276 2.6818385 -0.9043715
-2.2173133 3.1549177 -0.85425472
-2.6775136 3.8097165 -0.7763055
-3.8038917 5.4123902 -0.7373606
-3.7924812 5.3961549 -0.36840275
-3.8601482 5.4924355 0
-7.9742494 11.34621 0.77462095
-1.6258997 2.301578 -0.92916381
-1.8942008 2.6813776 -0.90575719
-2.2161319 3.1370943 -0.85087633
-2.6852269 3.8011322 -0.77587628
-4.48699 6.3516574 -0.86679697
-3.808512 5.391223 -0.36869329
-3.8749101 5.4852147 0
-8.0061388 11.333266 0.77505594
-1.6429673 2.3197856 -0.93731505
-1.9046879 2.6893215 -0.9092173
-2.228735 3.1468594 -0.85425472
-2.6868534 3.793699 -0.7750212
-4.4812088 6.3272367 -0.86420262
-3.822531 5.3972178 -0.36941886
-3.9025962 5.5102658 0
-7.9882903 11.279056 0.77200818
-1.6586462 2.3359339 -0.94464892
-1.8890555 2.660428 -0.90021986
-2.2251818 3.1338074 -0.85144085
-2.6944051 3.794632 -0.77587628
-4.4484239 6.2648826 -0.85641956
-3.8621433 5.4392018 -0.37261164
-3.9002082 5.4928102 0
-8.0244799 11.301177 0.77418536
-1.6471311 2.3137891 -0.93649775
-1.8966349 2.6642768 -0.90229702
-2.2304389 3.1331844 -0.85200316
-2.6930332 3.7830083 -0.77416444
-4.0720081 5.720108 -0.78262001
-3.9229624 5.5107379 -0.37783667
-3.9174089 5.5029368 0
-8.0125132 11.255488 0.77171814
-1.6642865 2.331919 -0.94464892
-1.9056767 2.6701434 -0.90506303
-2.2312682 3.1263466 -0.85087633
-2.6976023 3.7797515 -0.77416444
-4.0578837 5.6857133 -0.77858448
-3.9462183 5.529253 -0.3794328
-3.9240553 5.498199 0
-8.124217 11.383265 0.78115153
-1.6627868 2.323874 -0.94220328
-1.9162053 2.678046 -0.90852582
-2.2350442 3.1236484 -0.85087633
-2.7036655 3.778583 -0.77459365
-4.0481935 5.6576657 -0.77541298
-3.9513857 5.5223694 -0.37928778
-3.9261513 5.487102 0
-8.2422895 11.519242 0.79116547
-1.6569523 2.3098173 -0.93731505
-1.9062802 2.6573842 -0.90229702
-2.2403021 3.1230161 -0.85144085
-2.7067285 3.7732215 -0.77416444
-4.0067887 5.5855255 -0.76618874
-3.9580555 5.517591 -0.37928778
-3.9130595 5.4548655 0
-8.324358 11.604284 0.79769659
-1.6641095 2.3168378 -0.94057178
-1.9005632 2.6460381 -0.89883423
-2.2407019 3.1195922 -0.85087633
-2.7135017 3.7778425 -0.77544874
-3.9181211 5.4549603 -0.74860317
-3.9674518 5.5236406 -0.37986836
-0 0 0
-8.3450089 11.618245 0.79900271
-1.6394701 2.2767229 -0.92508978
-1.922816 2.6702037 -0.90783167
-2.2444699 3.1168826 -0.85087633
-2.7165658 3.7724798 -0.7750212
-3.865768 5.3683701 -0.7373606
-3.9695663 5.5125146 -0.3794328
-0 0 0
-8.3514509 11.597612 0.79827714
-1.6480068 2.2827561 -0.92834961
-1.909892 2.6455095 -0.90021986
-2.2512116 3.1182926 -0.85200316
-2.7181141 3.765028 -0.77416444
-3.8586276 5.3448234 -0.73476624
-3.9868727 5.5224638 -0.38044891
-3.8807783 5.3755059 0
-8.3578548 11.576982 0.79755157
-1.6768457 2.3167989 -0.94301742
-1.9175013 2.6492987 -0.90229702
-2.2505071 3.1093931 -0.85031396
-2.7211578 3.7596633 -0.77373689
-3.8711488 5.3485384 -0.73591942
-4.0011587 5.5281653 -0.38117447
-3.8903193 5.3750253 0
-8.4617205 11.69106 0.80611438
-1.6636808 2.2927718 -0.93405515
-1.91333 2.6368213 -0.89883423
-2.2572501 3.1107886 -0.85144085
-2.7241924 3.7542968 -0.77330935
-3.8912785 5.3626957 -0.73851377
-4.0154643 5.5338402 -0.38190001
-3.8968112 5.3703203 0
-8.5261984 11.750228 0.81090385
-1.686803 2.3187377 -0.94546312
-1.9312758 2.6547987 -0.90575719
-2.2580147 3.1039455 -0.85031396
-2.7241948 3.7447729 -0.77202499
-3.9312267 5.4040008 -0.74485564
-4.0420184 5.5562987 -0.38378668
-3.8987031 5.3592925 0
-0 0 0
-1.6692168 2.2887447 -0.93405515
-1.9359591 2.6544883 -0.90644866
-2.2677526 3.1094265 -0.85256553
-2.7287178 3.7414784 -0.77202499
-3.9880471 5.4682064 -0.75436902
-4.0487289 5.5514107 -0.38378668
-3.9082458 5.3587871 0
-0 0 0
-1.6676031 2.2807386 -0.93160951
-1.9287986 2.637969 -0.90160286
-2.2595103 3.0902753 -0.84806246
-2.7347503 3.7402489 -0.77245259
-4.0618162 5.5552435 -0.76705277
-4.0600362 5.5528092 -0.38422224
-3.903964 5.3393531 0
-0 0 0
-1.6718175 2.2807136 -0.93242371
-1.933472 2.6376657 -0.90229702
-2.2677507 3.0936925 -0.84975165
-2.734719 3.7307365 -0.7711699
-4.0899367 5.5795403 -0.77108943
-4.0544534 5.5311337 -0.38306114
-3.9073386 5.3304381 0
-0 0 0
-1.6950601 2.306571 -0.94383162
-1.9321995 2.6292608 -0.90021986
-2.2714872 3.0909503 -0.84975165
-2.7407436 3.729496 -0.77159745
-4.1150551 5.5996051 -0.77454895
-4.8550811 6.6066031 -0.45794919
-3.9230204 5.3382916 0
-3.1332552 4.2636104 0.29554021
-1.684653 2.2866142 -0.93649775
-1.9383483 2.63096 -0.90160286
-2.2737145 3.0861597 -0.84918928
-2.7498174 3.7323837 -0.77288175
-4.5943127 6.2359552 -0.86333746
-4.0477729 5.4941254 -0.38117447
-3.940275 5.3482161 0
-4.1679177 5.6572003 0.39248836
-1.6918215 2.2905431 -0.93894339
-1.9430207 2.6306398 -0.90229702
-2.2744198 3.0793185 -0.84806246
-2.7497482 3.7228618 -0.77159745
-4.5895567 6.2137632 -0.86103225
-4.0374312 5.4662452 -0.37957835
-3.9390049 5.3329864 0
-4.1917276 5.6751456 0.39408448
-1.6887045 2.2805519 -0.93568355
-1.9447006 2.6262681 -0.90160286
-2.2796495 3.078608 -0.84862477
-2.746608 3.7092233 -0.76945806
-4.5909047 6.1998987 -0.85987908
-4.0239267 5.4342093 -0.37769112
-3.9454458 5.3282228 0
-4.2140479 5.6909633 0.39553615
-1.7047166 2.2963688 -0.94301742
-1.941891 2.6158588 -0.89883423
-2.2863998 3.0799356 -0.84975165
-2.7572083 3.7141466 -0.7711699
-4.5999331 6.1964216 -0.86016709
-4.0661149 5.4773321 -0.38102946
-3.9487755 5.3192682 0
-4.1976871 5.6545691 0.39335892
-1.6794573 2.2566404 -0.92753547
-1.9450504 2.6135106 -0.89883423
-2.2916353 3.0792069 -0.85031396
-2.758626 3.7066896 -0.77031314
-4.6074171 6.1908593 -0.86016709
-4.0742798 5.4744978 -0.38117447
-3.9520955 5.3103218 0
-4.2060666 5.6515756 0.39350393
-1.6999191 2.2783813 -0.93731505
-1.9602088 2.6272445 -0.9043715
-2.2938361 3.0744011 -0.84975165
-2.7569623 3.6951237 -0.7686013
-4.6040654 6.170774 -0.85814875
-4.0979857 5.4924817 -0.38277113
-3.9647343 5.3138862 0
-3.2293429 4.3282499 0.3016358
-1.6893429 2.2585073 -0.92997801
-1.9573712 2.6168382 -0.90160286
-2.2914617 3.0634887 -0.84750009
-2.761425 3.6917899 -0.7686013
-4.5913796 6.1382833 -0.85440123
-4.11551 5.5020857 -0.38378668
-3.9602389 5.2945013 0
-3.1832108 4.2556815 0.29684633
-1.6891078 2.2525134 -0.92834961
-1.9605317 2.6144712 -0.90160286
-2.2966845 3.0627484 -0.84806246
-2.7674284 3.69051 -0.76903045
-4.5770721 6.1037645 -0.8503657
-4.1424193 5.5241323 -0.38567337
-3.9588282 5.279304 0
-3.2351151 4.3141947 0.30120024
-1.697769 2.2583733 -0.93160951
-1.9652013 2.6141114 -0.90229702
-2.301909 3.0620003 -0.84862477
-2.7703385 3.6851058 -0.7686013
-4.5253863 6.019671 -0.83941114
-4.1662683 5.5419717 -0.38727003
-3.9542558 5.259953 0
-3.2434454 4.3144321 0.30149025
-1.6900821 2.2425015 -0.92590398
-1.9608043 2.6017118 -0.89883423
-2.3101964 3.0653059 -0.85031396
-2.7809696 3.6899557 -0.77031314
-4.4517131 5.9067979 -0.82442105
-0 0 -0
-3.9684389 5.2655606 0
-3.2580426 4.3229647 0.30236137
-1.6957734 2.2444055 -0.92753547
-1.9639466 2.5993407 -0.89883423
-2.3077714 3.0544031 -0.84806246
-2.78388 3.6845467 -0.7698856
-4.4245415 5.85601 -0.81807804
-0 0 -0
-3.9795065 5.266993 0
-3.2554331 4.308661 0.3016358
-1.6986187 2.2453499 -0.92834961
-1.9730889 2.6081631 -0.90229702
-2.308085 3.0509839 -0.84750009
-2.783011 3.6787734 -0.76903045
-4.4202776 5.8430238 -0.81663686
-0 0 -0
-3.9952488 5.2811918 0
-3.2799802 4.335701 0.30366749
-1.7252271 2.2748048 -0.94138908
-1.9716895 2.5997784 -0.90021986
-2.308696 3.0441399 -0.84637326
-2.7874541 3.6754081 -0.76903045
-4.4148307 5.8211918 -0.81433052
-0 0 -0
-4.0000563 5.2742891 0
-3.2883539 4.3358717 0.30395746
-1.7264743 2.2707453 -0.94057178
-1.9839368 2.6093729 -0.9043715
-2.3185241 3.0494387 -0.84862477
-2.7903349 3.6699879 -0.7686013
-4.4234252 5.8179102 -0.81461853
-4.1743255 5.4902816 -0.38523838
-4.0127268 5.2777386 0
-3.2794378 4.3132806 0.30265135
-1.7172362 2.2529395 -0.93405515
-1.9810051 2.5989928 -0.90160286
-2.3098845 3.0304685 -0.84412169
-2.7947674 3.6666136 -0.7686013
-4.4320245 5.8146243 -0.81490767
-4.1904044 5.4976292 -0.38610893
-4.0695791 5.3391118 0
-3.2972488 4.3258476 0.30381247
-1.7079519 2.2351518 -0.92753547
-1.9948081 2.610553 -0.90644866
-2.316633 3.0317171 -0.84524858
-2.7991958 3.663234 -0.7686013
-4.4359031 5.8051505 -0.81433052
-4.2648802 5.581337 -0.39234951
-4.1613522 5.4458528 0
-3.3056316 4.3259935 0.30410302
-1.7196667 2.2448552 -0.93242371
-1.9827075 2.5882289 -0.89952838
-2.3311124 3.0430372 -0.84918928
-2.8051856 3.6618929 -0.76903045
-4.446063 5.8038964 -0.81490767
-4.2969036 5.6091838 -0.39467174
-4.209075 5.4945321 0
-3.3313971 4.3488102 0.30598971
-1.7539901 2.2839391 -0.94953716
-1.9904131 2.5917947 -0.90160286
-2.3224065 3.0240965 -0.84468621
-2.803354 3.6503568 -0.76731861
-4.4530725 5.7985201 -0.81490767
-4.3020968 5.6019287 -0.39452675
-4.220468 5.4956365 0
-3.3477235 4.3592019 0.30700526
-1.7130244 2.2250254 -0.92590398
-1.9889565 2.5834301 -0.89952838
-2.3291562 3.025311 -0.84581089
-2.8014987 3.6388304 -0.76560676
-4.4648051 5.7992778 -0.8157717
-4.3120298 5.6008406 -0.39481673
-4.2175765 5.4781556 0
-3.3498211 4.3510394 0.30671525
-1.730816 2.2425237 -0.93405515
-1.9874765 2.5750649 -0.89745122
-2.3359179 3.0265212 -0.84693778
-2.8058934 3.6354427 -0.76560676
-4.4702301 5.7918329 -0.81548369
-4.3330817 5.6141372 -0.39612284
-4.227376 5.47718 0
-3.3630126 4.3572717 0.30744082
-1.7259575 2.2306511 -0.92997801
-1.9813721 2.5607526 -0.89329696
-2.3255804 3.0056121 -0.84187233
-2.8134229 3.6361065 -0.76646185
-4.4851375 5.7966537 -0.81692487
-4.3080654 5.5678034 -0.39322063
-4.2355819 5.4741244 0
-3.3905339 4.3819728 0.3094725
-1.7544028 2.2617624 -0.94383162
-1.9906154 2.5662858 -0.89606559
-2.3416631 3.0188539 -0.84637326
-2.8146706 3.6286514 -0.76560676
-3.514075 4.5303183 -0.63905758
-4.3020492 5.5461683 -0.3920595
-4.2358131 5.4607773 0
-3.4021964 4.3860855 0.31005305
-1.7116206 2.2011111 -0.91938424
-1.9952593 2.565865 -0.89675975
-2.3406343 3.0100105 -0.84468621
-2.8143241 3.6191664 -0.7643224
-3.5274897 4.5362835 -0.64049989
-4.3055544 5.5368595 -0.39176893
-4.2503943 5.4659252 0
-3.3979263 4.3696675 0.30918249
-1.7385923 2.2302299 -0.93242371
-1.9875597 2.5496001 -0.89191395
-2.3442695 3.0071802 -0.84468621
-2.8218486 3.6198084 -0.76517755
-3.5329683 4.5320182 -0.64049989
-4.2611256 5.4660826 -0.38712505
-4.2569957 5.4607854 0
-3.4143882 4.3799062 0.31019861
-1.7443326 2.2320261 -0.93405515
-2.0060842 2.5669601 -0.89883423
-2.3494647 3.0063455 -0.84524858
-2.8246412 3.6143756 -0.76475
-0 0 -0
-4.2229257 5.4036031 -0.38306114
-4.2491698 5.4371843 0
-3.4420755 4.4044366 0.31223029
-1.7378796 2.2182395 -0.92916381
-2.0153732 2.5724337 -0.90160286
-2.3499584 2.9995003 -0.84412169
-2.8321757 3.6150053 -0.76560676
-3.5598583 4.5438232 -0.64338225
-4.1990089 5.3596387 -0.38030389
-4.2541327 5.4299994 0
-3.4377828 4.3880057 0.31135973
-1.7527717 2.231688 -0.93568355
-2.0060833 2.5542128 -0.89606559
-2.3488772 2.9906695 -0.84243464
-2.8365417 3.6115804 -0.76560676
-3.5557635 4.527318 -0.64165306
-4.2472081 5.4076886 -0.38407725
-4.2478309 5.4084816 0
-3.4494963 4.3920145 0.31193972
-1.7478236 2.2198608 -0.93160951
-2.0029602 2.5439024 -0.89329696
-2.3572001 2.9938126 -0.84412169
-2.8329649 3.5980678 -0.76346731
-3.5548313 4.5148897 -0.64049989
-4.3196435 5.4862556 -0.39002782
-4.2527547 5.4013023 0
-3.4660542 4.4021363 0.31295583
-1.7413137 2.2061031 -0.92671812
-2.0200262 2.5592093 -0.89952838
-2.3592432 2.9889696 -0.84355938
-2.8420773 3.6006813 -0.76475
-3.5602839 4.510591 -0.64049989
-4.3858285 5.556489 -0.39539731
-4.2528281 5.3879886 0
-3.4939065 4.426496 0.31498751
-1.753183 2.2156305 -0.93160951
-2.0200005 2.5528281 -0.89814276
-2.3581276 2.9801447 -0.84187233
-2.8384628 3.5871811 -0.76261055
-3.5577021 4.4961386 -0.63905758
-4.3957672 5.5552645 -0.39568785
-4.2690215 5.3950872 0
-3.505702 4.4304218 0.31556806
-1.7453092 2.2029436 -0.92671812
-2.0184295 2.5476782 -0.89675975
-2.3662329 2.9866784 -0.84412169
-2.8438208 3.5894935 -0.76346731
-3.5588131 4.4919629 -0.63876957
-3.5633123 4.4976416 -0.32050923
-4.2706656 5.3904691 0
-3.5099964 4.430346 0.31571364
-1.7495114 2.202774 -0.92753547
-2.018383 2.5413046 -0.89537406
-2.3682613 2.9818294 -0.84355938
-2.851346 3.5900712 -0.7643224
-3.5529826 4.4734874 -0.63675237
-0 0 -0
-4.2755589 5.3832688 0
-3.5250404 4.4383059 0.3165842
-1.7675641 2.2199905 -0.93568355
-2.0152016 2.5310133 -0.89260542
-2.3655319 2.9710145 -0.84130782
-2.8492858 3.5785904 -0.76261055
-3.5599947 4.4712129 -0.63704038
-0 0 -0
-3.5655901 4.47824 0
-3.5352578 4.4401441 0.31701976
-1.7440351 2.1850159 -0.92182994
-2.0229549 2.5344608 -0.89468259
-2.365953 2.964186 -0.84018314
-2.8536079 3.575145 -0.76261055
-0 0 -0
-0 0 -0
-0 0 0
-3.543859 4.4399266 0.31730974
-1.7451313 2.180979 -0.92101574
-2.0291476 2.5359285 -0.89606559
-2.3711188 2.9633071 -0.84074545
-2.8579257 3.5716944 -0.76261055
-3.5594764 4.4484577 -0.63502204
-0 0 -0
-0 0 0
-3.5654588 4.4559345 0.31876141
-1.7369381 2.1653709 -0.9153102
-2.036921 2.5393476 -0.89814276
-2.376286 2.96242 -0.84130782
-2.8638439 3.5702391 -0.7630381
-3.5648487 4.4441533 -0.63502204
-0 0 -0
-0 0 0
-3.5692096 4.4495902 0.31861585
-1.7503967 2.1767552 -0.92101574
-2.03527 2.5310173 -0.89606559
-2.3798637 2.9595466 -0.84130782
-2.8665485 3.5647774 -0.76261055
-3.5718353 4.4418564 -0.63531005
-0 0 -0
-0 0 0
-3.5843565 4.457428 0.31948698
-1.7592304 2.1823356 -0.92427558
-2.0383267 2.5285563 -0.89606559
-2.3802516 2.9527164 -0.84018314
-2.8692443 3.5593145 -0.76218301
-3.5771999 4.4375377 -0.63531005
-3.6093783 4.4774551 -0.32123479
-3.5893168 4.4525685 0
-3.6027863 4.4692774 0.3206481
-1.7572041 2.1744394 -0.92182994
-2.035073 2.5182865 -0.89329696
-2.3838177 2.9498382 -0.84018314
-2.8767669 3.5598342 -0.7630381
-3.580935 4.4312019 -0.63502204
-3.6196871 4.4791555 -0.32167035
-3.5783334 4.4279828 0
-0 0 0
-1.7769456 2.1934416 -0.93079531
-2.03022 2.5060806 -0.88983679
-2.3857825 2.944983 -0.83962077
-2.8810661 3.5563557 -0.7630381
-3.589546 4.4308953 -0.6355992
-0 0 -0
-4.3601537 5.3821244 0
-3.6315637 4.4827619 0.3222442
-1.7686862 2.177861 -0.92508978
-2.0458992 2.5192053 -0.89537406
-2.3925397 2.9460392 -0.84074545
-2.8788879 3.5449011 -0.76132625
-3.5948973 4.4265547 -0.6355992
-4.5166688 5.5615726 -0.40018675
-4.3518891 5.3586721 0
-3.6582713 4.50459 0.32413089
-1.7947247 2.2044749 -0.93731505
-2.050524 2.5186751 -0.89606559
-2.3928924 2.939209 -0.83962077
-2.8831692 3.54142 -0.76132625
-3.6018746 4.424212 -0.63588721
-4.4446459 5.4593945 -0.39322063
-4.3485055 5.3413043 0
-3.6620727 4.4981537 0.32398587
-1.7833177 2.1850657 -0.92997801
-2.0503962 2.5123122 -0.89468259
-2.398047 2.9382823 -0.84018314
-2.8874462 3.5379336 -0.76132625
-3.6055839 4.4178543 -0.6355992
-4.4479499 5.4499898 -0.39293006
-4.3450861 5.3239527 0
-3.6839318 4.5138526 0.32543701
-1.7781327 2.1733465 -0.92590398
-2.0581977 2.5156598 -0.89675975
-2.3999882 2.9334178 -0.83962077
-2.8884709 3.5304723 -0.76047111
-3.6158283 4.4194942 -0.63646322
-4.4857965 5.4828243 -0.39568785
-5.8263669 7.1213546 0
-3.6992588 4.5214686 0.3263081
-1.7760597 2.1654687 -0.92346144
-2.0532765 2.5034666 -0.89329696
-2.4067504 2.9344411 -0.84074545
-2.8976202 3.5329361 -0.76175547
-3.6211658 4.415122 -0.63646322
-4.4957104 5.4814148 -0.39597785
-5.8531232 7.136446 0
-3.7261395 4.5431118 0.3281948
-1.7833797 2.1690431 -0.92590398
-2.0610814 2.5067992 -0.89537406
-2.4102945 2.931531 -0.84074545
-2.898623 3.5254626 -0.76089871
-3.6248567 4.4087477 -0.63617522
-4.4924321 5.4639397 -0.3951073
-5.8435593 7.107254 0
-3.7349236 4.5426168 0.3284848
-1.7791733 2.1532986 -0.92101574
-2.0607414 2.4940751 -0.89260542
-2.415755 2.9237409 -0.84018314
-2.9055007 3.5164704 -0.76047111
-3.6305563 4.393991 -0.63531005
-4.5122437 5.4610796 -0.39568785
-5.8623738 7.0951157 0
-3.7591314 4.549603 0.3296459
-1.7770425 2.1454349 -0.91857004
-2.0653524 2.4935133 -0.89329696
-2.4225245 2.9247296 -0.84130782
-2.9064693 3.5089993 -0.75961435
-3.6358631 4.3896012 -0.63531005
-4.5387292 5.4796371 -0.39742953
-0 0 0
-3.7729182 4.555069 0.33037201
-1.7780561 2.1413865 -0.91775584
-2.0715721 2.49488 -0.89468259
-2.4244349 2.9198472 -0.84074545
-2.9156284 3.5114119 -0.76089871
-3.6444721 4.3891883 -0.63588721
-4.5436821 5.4721441 -0.39728397
-0 0 0
-3.7850528 4.5584955 0.33095202
-1.7935686 2.1574154 -0.92508978
-2.0794942 2.5013447 -0.89745122
-2.4197011 2.9105666 -0.83849394
-2.9177494 3.5096498 -0.76089871
-3.6454713 4.3849988 -0.6355992
-4.5320387 5.451417 -0.39597785
-0 0 0
-7.6315074 9.1796494 0.66678774
-1.8088329 2.1704361 -0.93160951
-2.0760906 2.4911213 -0.89468259
-2.421591 2.9056907 -0.83793157
-2.9170561 3.5002036 -0.75961435
-3.6524212 4.3825755 -0.63588721
-4.5619154 5.4738865 -0.39801008
-0 0 0
-7.6442556 9.1724157 0.66693276
-1.8003601 2.1549697 -0.92590398
-2.0823131 2.4924576 -0.89606559
-2.4251003 2.9027624 -0.83793157
-2.9196389 3.4947083 -0.7591868
-3.6510808 4.3702197 -0.63473403
-4.5685263 5.46837 -0.39801008
-5.8107724 6.955297 0
-7.6436696 9.1492119 0.66591662
-1.7982063 2.1471136 -0.92346144
-2.0740521 2.4764819 -0.89122242
-2.4302359 2.9017761 -0.83849394
-2.9255061 3.493144 -0.75961435
-3.6580179 4.3677859 -0.63502204
-4.5434294 5.4249945 -0.39525229
-5.8759828 7.0161037 0
-7.6630659 9.1499357 0.66664273
-1.7849041 2.1260064 -0.9153102
-2.0786545 2.4758937 -0.89191395
-2.437011 2.9027333 -0.83962077
-2.9264266 3.4856782 -0.75875926
-3.6583021 4.3574181 -0.63415688
-4.5817275 5.457314 -0.39801008
-5.8877993 7.0129809 0
-7.6757851 9.1426582 0.66678774
-1.7858816 2.1219587 -0.914496
-2.0800309 2.4714625 -0.89122242
-2.4290621 2.8861766 -0.83568007
-2.9306364 3.4821398 -0.75875926
-3.6668985 4.356956 -0.63473403
-4.5799475 5.4418278 -0.39728397
-5.8795142 6.9859538 0
-7.6868267 9.1333761 0.66678774
-1.8059777 2.1405811 -0.92346144
-2.0733058 2.4574389 -0.88706815
-2.4407384 2.8929477 -0.83849394
-2.933188 3.4766359 -0.75833172
-3.6604838 4.3386817 -0.6327157
-4.5882001 5.4382815 -0.39742953
-5.9148021 7.0106707 0
-7.6928287 9.1181221 0.66635221
-1.826115 2.1591508 -0.93242371
-2.0908527 2.4721699 -0.89329696
-2.4360297 2.8802979 -0.83568007
-2.934068 3.4691653 -0.75747496
-3.6757483 4.3461089 -0.63444602
-4.6148973 5.4565339 -0.39917064
-5.941751 7.0253711 0
-7.7038407 9.10882 0.66635221
-1.8063487 2.130553 -0.92101574
-2.0970864 2.4734724 -0.89468259
-2.4460809 2.8851047 -0.83793157
-2.9432395 3.4714935 -0.75875926
-3.682668 4.3436351 -0.63473403
-5.5859795 6.5885539 -0.4824765
-5.9653807 7.0360503 0
-7.7165198 9.1014853 0.66649717
-1.8105209 2.1302505 -0.92182994
-2.0903285 2.4594707 -0.89053094
-2.4413393 2.8724685 -0.8351177
-2.9507537 3.471843 -0.75961435
-3.6812136 4.3312988 -0.63358086
-5.5956173 6.5837774 -0.48262152
-5.9603949 7.0129728 0
-7.7325616 9.0980959 0.66693276
-1.8146949 2.1299407 -0.92264408
-2.0965495 2.4607589 -0.89191395
-2.4481008 2.8733809 -0.83624238
-2.9499569 3.4624186 -0.75833172
-3.6897962 4.3307815 -0.63415688
-5.6052585 6.5789952 -0.48276708
-5.9131751 6.9404025 0
-7.0004301 8.2165337 0.60292971
-1.8236879 2.1352642 -0.92590398
-2.0995214 2.4582238 -0.89191395
-2.451571 2.8704207 -0.83624238
-2.9524665 3.4568939 -0.7579025
-3.6916699 4.3223901 -0.63358086
-5.6030755 6.5603585 -0.48189595
-5.930006 6.9431453 0
-7.0407257 8.2436304 0.60554194
-1.8310906 2.1386933 -0.92834961
-2.0910673 2.4423432 -0.88706815
-2.4533865 2.8655281 -0.83568007
-2.9583156 3.4552796 -0.75833172
-3.6952095 4.3159637 -0.63329285
-0 0 -0
-5.9282327 6.9241095 0
-7.0625129 8.2489357 0.60655808
-1.8240181 2.1252296 -0.92346144
-2.0891199 2.4341092 -0.88499367
-2.455194 2.8606353 -0.8351177
-2.9541306 3.4419646 -0.75619227
-3.6970496 4.3075662 -0.6327157
-0 0 -0
-5.9789672 6.966311 0
-5.9945154 6.984427 0.51410884
-1.8136889 2.1080353 -0.9169417
-2.0920594 2.4315829 -0.88499367
-2.4619598 2.8615153 -0.83624238
-2.9633052 3.4442248 -0.75747496
-3.7005663 4.301137 -0.63242769
-5.6234331 6.5360689 -0.48160595
-5.9738016 6.9432993 0
-6.0046434 6.9791465 0.51425385
-1.8339868 2.126425 -0.92590398
-2.1064608 2.4423463 -0.88983679
-2.4620998 2.8546939 -0.8351177
-2.9624398 3.4348154 -0.75619227
-3.709136 4.3005762 -0.63300371
-5.6262336 6.5233645 -0.48117039
-5.9957848 6.9518418 0
-6.0147676 6.9738517 0.51439881
-1.83171 2.1186037 -0.92346144
-2.0979295 2.4265203 -0.88499367
-2.4655473 2.8517168 -0.8351177
-2.9699426 3.4351137 -0.75704741
-3.7143297 4.2960911 -0.63300371
-5.6341119 6.5165615 -0.48117039
-5.9939709 6.9327836 0
-0 0 0
-1.8213184 2.1014471 -0.9169417
-2.1057844 2.4296656 -0.88706815
-2.4673223 2.8468099 -0.83455318
-2.9707317 3.4276464 -0.75619227
-3.7093573 4.2798767 -0.63127452
-5.6351743 6.5018945 -0.48058984
-6.0023432 6.9255362 0
-6.0384102 6.9671502 0.51497942
-1.8497863 2.1290901 -0.92997801
-2.121882 2.44227 -0.89260542
-2.4640946 2.8361542 -0.83230168
-2.9748714 3.4240544 -0.75619227
-3.7145259 4.2753911 -0.63127452
-5.6481409 6.5009675 -0.4810254
-6.039722 6.9516745 0
-6.0638695 6.9794683 0.51643109
-1.8426211 2.115674 -0.92508978
-2.1050591 2.4170022 -0.88429952
-2.4725275 2.8389249 -0.83399087
-2.9790065 3.4204574 -0.75619227
-3.724787 4.2767529 -0.63213968
-5.6491656 6.4863 -0.48044485
-6.0600839 6.9581113 0
-6.0910659 6.9936848 0.51802719
-1.8341557 2.1033871 -0.92020154
-2.1048717 2.413841 -0.88360798
-2.4759107 2.8393438 -0.83455318
-2.9810724 3.4186568 -0.75619227
-3.7256718 4.2725544 -0.63185167
-5.6479583 6.4770088 -0.48000929
-6.083096 6.9760194 0
-0 0 0
-1.8269328 2.0900004 -0.9153102
-2.1276002 2.4339621 -0.89191395
-2.477669 2.8344388 -0.83399087
-2.9852009 3.4150524 -0.75619227
-3.7291245 4.2660966 -0.63156253
-5.6574888 6.4721341 -0.48015428
-6.1052232 6.9843397 0
-0 0 0
-1.8490036 2.1100984 -0.92508978
-2.1255779 2.4257271 -0.88983679
-2.477746 2.8276246 -0.83286619
-2.982558 3.4037201 -0.75448042
-3.7308707 4.2577009 -0.63098651
-5.6618834 6.4613886 -0.4798643
-6.1239457 6.988698 0
-6.1173034 6.9811177 0.51846272
-1.8531815 2.1097178 -0.92590398
-2.1185765 2.4118516 -0.88568515
-2.4828362 2.8265357 -0.8334285
-2.9883611 3.4020405 -0.75490797
-3.7325954 4.2492995 -0.63040936
-5.6611137 6.4447832 -0.47913873
-6.1667361 7.0203986 0
-6.1205883 6.9678626 0.51802719
-1.8524656 2.1037707 -0.92427558
-2.1214893 2.4092898 -0.88568515
-2.4862497 2.8235338 -0.8334285
-2.9924695 3.3984272 -0.75490797
-3.7394414 4.2467327 -0.6306985
-5.6688972 6.4379382 -0.47913873
-6.1941347 7.0344296 0
-6.1238565 6.954617 0.51759219
-1.8451895 2.0904093 -0.91938424
-2.134357 2.4180062 -0.88983679
-2.4896595 2.8205276 -0.8334285
-2.9914756 3.3890333 -0.75362366
-3.7342968 4.2305732 -0.62896818
-5.6646333 6.4174452 -0.47812262
-6.2284589 7.0562015 0
-6.1339731 6.9491587 0.51773721
-1.8559079 2.0974386 -0.92346144
-2.1223164 2.3985176 -0.88360798
-2.4930658 2.8175173 -0.8334285
-2.9955685 3.3854163 -0.75362366
-3.7479742 4.2357411 -0.63040936
-5.6723833 6.4105959 -0.47812262
-6.249054 7.0623155 0
-6.137198 6.9359021 0.51730162
-1.8371149 2.0711517 -0.91286451
-2.1302087 2.4015839 -0.88568515
-2.493093 2.8106973 -0.83230168
-3.0013587 3.3837128 -0.75405121
-3.7479453 4.22541 -0.62954533
-5.6749506 6.3979034 -0.47768706
-6.2627654 7.0606022 0
-6.1455741 6.9284816 0.51730162
-1.8576834 2.0892498 -0.92182994
-2.126441 2.3915088 -0.88291651
-2.493114 2.8038888 -0.831177
-3.0088599 3.3839242 -0.75490797
-3.7581992 4.2266712 -0.63040936
-5.6792274 6.3871617 -0.47739705
-6.2730198 7.0549726 0
-6.1470351 6.9132833 0.51672107
-1.8700707 2.0980706 -0.92671812
-2.1393416 2.400171 -0.88706815
-2.4931219 2.7970843 -0.83005232
-3.01124 3.3783717 -0.75448042
-3.7529809 4.210546 -0.62868017
-5.6869407 6.3802948 -0.47739705
-6.2901964 7.0570998 0
-6.148468 6.8980918 0.51614052
-1.8479074 2.0681686 -0.914496
-2.1305442 2.3844941 -0.88222498
-2.4998825 2.7978559 -0.831177
-3.0084784 3.3670738 -0.75276852
-3.7580659 4.2060084 -0.62868017
-5.6859913 6.3637323 -0.47667149
-6.2987189 7.0494943 0
-6.1152539 6.844161 0.5126577
-1.8553536 2.0714593 -0.9169417
-2.1417911 2.3912601 -0.88568515
-2.5049551 2.7967241 -0.83173931
-3.0159667 3.3672569 -0.75362366
-3.7648692 4.2033892 -0.62896818
-5.6971402 6.3607244 -0.47696149
-6.3002868 7.0341239 0
-0 0 0
-1.8644602 2.0765722 -0.92020154
-2.1513832 2.3961375 -0.88845378
-2.5032446 2.7880287 -0.83005232
-3.0148866 3.357878 -0.75233936
-3.7613072 4.1892157 -0.627527
-5.7013531 6.3499727 -0.47667149
-6.3105187 7.028441 0
-6.0901122 6.7829595 0.50917435
-1.8785374 2.0871723 -0.92590398
-2.1509171 2.3898032 -0.88706815
-2.5117061 2.7906623 -0.83173931
-3.0275333 3.3637784 -0.75448042
-3.7802088 4.200048 -0.62983334
-5.703805 6.3372831 -0.47623593
-6.3085637 7.0092082 0
-6.0704908 6.7446938 0.50685215
-1.8545672 2.0555394 -0.91286451
-2.1470809 2.3797517 -0.88429952
-2.5116754 2.7838559 -0.83061463
-3.0247171 3.3524938 -0.75276852
-3.7783504 4.1877956 -0.62868017
-5.7114582 6.3303866 -0.47623593
-6.3222604 7.0073791 0
-6.1465158 6.8125901 0.51251215
-1.8769442 2.075294 -0.92264408
-2.1449111 2.3715789 -0.88222498
-2.5133345 2.7789364 -0.83005232
-3.0304859 3.3507385 -0.75319612
-3.7851412 4.1851435 -0.62896818
-5.7173619 6.3215556 -0.47609094
-6.3132625 6.9804292 0
-6.182631 6.8359928 0.5148344
-1.869493 2.0620418 -0.91775584
-2.1545155 2.37642 -0.88499367
-2.5252223 2.7853079 -0.83286619
-3.0328097 3.3451746 -0.75276852
-3.7832463 4.1729021 -0.62781501
-5.7162709 6.3050194 -0.47536537
-6.3216925 6.972796 0
-6.1891427 6.8265944 0.51468939
-1.8736439 2.0616086 -0.91857004
-2.1607566 2.3775246 -0.88637662
-2.5251646 2.7784901 -0.83173931
-3.0351181 3.3396022 -0.75233936
-3.7900236 4.1702399 -0.62810302
-5.7256312 6.3000288 -0.47551039
-6.3231115 6.9574485 0
-6.192142 6.8133402 0.51425385
-1.8794658 2.0630007 -0.92020154
-2.1551816 2.3656411 -0.88291651
-2.5233915 2.7698076 -0.83005232
-3.0443392 3.3416271 -0.75362366
-3.7880988 4.1580167 -0.62695098
-5.7262397 6.2854223 -0.47492981
-6.3367734 6.9555764 0
-6.2056217 6.8116174 0.51468939
-1.8857039 2.0673378 -0.92264408
-2.1549215 2.3624868 -0.88222498
-2.5301964 2.7739089 -0.83173931
-3.0359812 3.3284113 -0.75105667
-3.7888622 4.153811 -0.62666184
-5.7265306 6.2781186 -0.47463927
-6.3427267 6.9536676 0
-6.2027316 6.8001881 0.51410884
-1.8731916 2.0486431 -0.9153102
-2.1730092 2.3765428 -0.88845378
-2.5266879 2.7633488 -0.8294878
-3.0434618 3.328526 -0.75191176
-3.8008599 4.1568651 -0.62781501
-5.7358708 6.273118 -0.47478482
-6.3388362 6.9325595 0
-6.2056818 6.7869334 0.51367331
-1.8756657 2.0463781 -0.9153102
-2.1674049 2.36467 -0.88499367
-2.5368924 2.7677863 -0.83173931
-3.0457485 3.3229556 -0.75148422
-3.8041339 4.1503649 -0.627527
-5.7364235 6.2585206 -0.47420427
-6.3436875 6.9210544 0
-6.215632 6.7813439 0.51381826
-1.8781369 2.0441103 -0.9153102
-2.1668627 2.358351 -0.88360798
-2.5350826 2.7591112 -0.83005232
-3.0514967 3.3211615 -0.75191176
-3.8143976 4.1514807 -0.62839216
-5.7422247 6.2496729 -0.47405925
-6.3573298 6.9191356 0
-6.2167959 6.7661819 0.51323825
-1.8856304 2.0472953 -0.91775584
-2.1663146 2.3520441 -0.88222498
-2.5366883 2.7541716 -0.8294878
-3.0485508 3.3099189 -0.75019991
-3.805393 4.131649 -0.62608582
-5.7462482 6.2389035 -0.47376871
-6.3762608 6.9229307 0
-6.224967 6.7586656 0.51323825
-1.8981594 2.0559077 -0.92264408
-2.1691551 2.3494248 -0.88222498
-2.5382924 2.7492394 -0.82892543
-3.0490687 3.3024645 -0.74934483
-3.8138881 4.1308451 -0.62666184
-5.7573113 6.2357779 -0.47405925
-6.3687344 6.8980136 0
-6.227839 6.7454095 0.51280272
-1.8939269 2.0463569 -0.91938424
-2.1788087 2.354167 -0.88499367
-2.5450675 2.7499037 -0.83005232
-3.0582829 3.3044243 -0.75062746
-3.8171215 4.1243372 -0.62637383
-5.7542486 6.217371 -0.47318816
-6.3806033 6.8941369 0
-6.2359853 6.7378793 0.51280272
-1.8930392 2.0404465 -0.91775584
-2.1901813 2.3607266 -0.88845378
-2.5432022 2.7412364 -0.82836312
-3.0587847 3.2969666 -0.74977237
-3.8080289 4.1045527 -0.62406749
-5.7599912 6.2085104 -0.47304314
-6.3694568 6.8654342 0
-6.2388182 6.7246232 0.51236719
-1.9039178 2.0472054 -0.92182994
-2.1776574 2.3415463 -0.88222498
-2.5447838 2.7363026 -0.82780075
-3.0592666 3.289505 -0.74891561
-3.8182719 4.1056323 -0.62493265
-5.7657208 6.199645 -0.47289816
-6.3742061 6.8539248 0
-6.2434034 6.7132778 0.51207715
-1.8929069 2.0304406 -0.9153102
-2.1856122 2.344413 -0.88429952
-2.5463507 2.7313619 -0.82723624
-3.0684922 3.2914407 -0.75019991
-3.8214679 4.0991259 -0.62464464
-5.7749777 6.1945724 -0.47304314
-6.3718319 6.8347926 0
-6.2497334 6.7038231 0.5119316
-1.9021091 2.0353751 -0.91857004
-2.1798804 2.3326075 -0.88083935
-2.5565886 2.735709 -0.8294878
-3.0654559 3.2802286 -0.74848807
-3.8264182 4.0945053 -0.62464464
-5.7771344 6.1818929 -0.47260758
-6.3907509 6.838501 0
-6.2542844 6.6924729 0.51164162
-1.9062552 2.0348773 -0.91938424
-2.1895578 2.3372953 -0.88360798
-2.5564215 2.7289126 -0.82836312
-3.0694172 3.2765222 -0.74848807
-3.8278227 4.0861001 -0.62406749
-5.7810502 6.1711187 -0.47231758
-6.3954473 6.8269715 0
-6.2641411 6.6868057 0.51178658
-1.9154804 2.0397794 -0.92264408
-2.1906648 2.3328209 -0.88291651
-2.5597169 2.7258217 -0.82836312
-3.073374 3.2728109 -0.74848807
-3.8451529 4.0946717 -0.62608582
-5.7813873 6.1565523 -0.47173703
-6.3947859 6.8097553 0
-6.2597699 6.665978 0.51077104
-1.9230276 2.0428643 -0.92508978
-2.1969178 2.3338223 -0.88429952
-2.5612688 2.7208784 -0.82780075
-3.0702882 3.2616181 -0.74677616
-3.8341436 4.0730748 -0.62349147
-5.7941604 6.1552329 -0.47217202
-6.4030094 6.8020234 0
-6.2695994 6.6602998 0.51091605
-1.9170148 2.0315528 -0.92101574
-2.1842418 2.3147459 -0.87807071
-2.5610635 2.714082 -0.82667392
-3.0830343 3.2672396 -0.74891561
-3.8390625 4.068439 -0.62349147
-5.8015933 6.1482272 -0.47217202
-6.4076481 6.7904925 0
-6.2740722 6.6489358 0.51062548
-1.9075774 2.016664 -0.9153102
-2.193933 2.3193953 -0.88083935
-2.5678365 2.7146809 -0.82780075
-3.0799303 3.2560594 -0.74720538
-3.8457513 4.0656743 -0.62377948
-5.8000917 6.1317759 -0.47144648
-6.4122748 6.7789674 0
-6.2785339 6.637578 0.51033551
-1.9100127 2.0143578 -0.9153102
-2.2157238 2.3367698 -0.88845378
-2.5693614 2.709727 -0.82723624
-3.0856271 3.2541964 -0.74763292
-3.8488832 4.0591493 -0.62349147
-5.8021379 6.1191115 -0.47101146
-6.4025578 6.7523327 0
-6.290122 6.6337543 0.51062548
-1.9107442 2.0102587 -0.914496
-2.1943514 2.3086367 -0.87876487
-2.5743895 2.7084675 -0.82780075
-3.0930905 3.2541835 -0.74848807
-3.8555651 4.0563688 -0.62377948
-5.8131046 6.11586 -0.47130147
-6.4214664 6.7559061 0
-6.2945561 6.622386 0.51033551
-1.9285146 2.0240514 -0.92182994
-2.2075195 2.3168778 -0.88291651
-2.5741513 2.7016723 -0.82667392
-3.091713 3.2448735 -0.74720538
-3.8586812 4.0498362 -0.62349147
-5.8222809 6.1107106 -0.47144648
-6.4224439 6.7406054 0
-6.3007627 6.612896 0.51019049
-1.922425 2.0127845 -0.91775584
-2.2103174 2.3142087 -0.88291651
-2.5774138 2.69856 -0.82667392
-3.1027169 3.2485538 -0.74891561
-3.8582108 4.0395579 -0.6226263
-5.8206882 6.0942774 -0.47072092
-6.4108167 6.7121434 0
-6.3051553 6.6015162 0.50989991
-1.9368222 2.022959 -0.92346144
-2.2079055 2.3060982 -0.88083935
-2.5789173 2.69361 -0.82611156
-3.1066399 3.2448025 -0.74891561
-3.8684568 4.0404997 -0.62349147
-5.8334403 6.0928726 -0.47115648
-6.406322 6.6912317 0
-6.3059397 6.5863853 0.50931937
-1.9302073 2.0087488 -0.91857004
-2.1981757 2.287621 -0.87530208
-2.5837951 2.6889315 -0.82611156
-3.1089621 3.2354679 -0.74806046
-3.8739765 4.0316114 -0.62320232
-0 0 -0
-4.961535 5.1634235 0
-6.3016648 6.558084 0.50801325
-1.9497762 2.0242126 -0.92671812
-2.2200847 2.3048406 -0.88291651
-2.5940931 2.6931276 -0.82836312
-3.1057458 3.2243135 -0.74634862
-3.8752596 4.0232053 -0.6226263
-0 0 -0
-0 0 0
-4.9774942 5.1675196 0.40076062
-1.911024 1.9791892 -0.90716213
-2.2089269 2.2877181 -0.87737918
-2.5920489 2.6845057 -0.82667392
-3.1096394 3.2205584 -0.74634862
-3.8890994 4.0278215 -0.62406749
-0 0 -0
-0 0 0
-0 0 0
-1.9237244 1.9875309 -0.91205031
-2.2221551 2.2958601 -0.88153082
-2.5899875 2.6758928 -0.82498473
-3.1117449 3.2149558 -0.74592108
-3.8849709 4.0138283 -0.6226263
-4.97017 5.1350217 -0.39917064
-0 0 0
-0 0 0
-1.957101 2.0171316 -0.92671812
-2.2109585 2.2787757 -0.87599623
-2.5914512 2.6709394 -0.82442236
-3.1138413 3.209353 -0.74549353
-3.8826137 4.0017061 -0.62147313
-4.9745636 5.1271496 -0.39902565
-0 0 0
-4.992578 5.1457162 0.40047061
-1.9250787 1.979336 -0.91042197
-2.2259493 2.2886865 -0.88083935
-2.5946767 2.6678061 -0.82442236
-3.1195052 3.2074265 -0.74592108
-3.8892477 3.9988642 -0.62176114
-5.8829231 6.0487304 -0.47130147
-4.9708652 5.1109667 0
-4.9861083 5.1266389 0.3994545
-1.9447194 1.9947023 -0.91857004
-2.2199583 2.2770152 -0.87737918
-2.5978982 2.664669 -0.82442236
-3.1180005 3.198139 -0.74463677
-3.8940766 3.9941618 -0.62176114
-5.8739042 6.0248742 -0.46999535
-4.9897561 5.1180024 0
-6.3526683 6.5159435 0.50830328
-1.9333081 1.97821 -0.91205031
-2.2139421 2.2653618 -0.87391907
-2.6064458 2.6669815 -0.82611156
-3.1272471 3.1998787 -0.74592108
-3.897094 3.9876056 -0.62147313
-5.8684649 6.0047622 -0.46897924
