# .PCD v0.7 - Point Cloud Data file format
VERSION 0.7
FIELDS x y z
SIZE 4 4 4
TYPE F F F
COUNT 1 1 1
WIDTH 1879
HEIGHT 1
VIEWPOINT 0 0 0 1 0 0 0
POINTS 1879
DATA ascii
0 0 -0
0 0 -0
0 0 -0
0 0 -0
0 0 -0
12.97193 4.7144942 0
12.997375 4.7237425 0.77244371
2.7633812 1.0080999 -0.9699105
0 0 -0
0 0 -0
0 0 -0
0 0 -0
0 0 -0
12.98334 4.7364092 0
12.996535 4.7412229 0.77273369
2.783047 1.0190861 -0.97724444
0 0 -0
0 0 -0
0 0 -0
0 0 -0
0 0 -0
12.997158 4.7592525 0
13.012764 4.764967 0.7740404
2.80269 1.0301213 -0.98457831
0 0 -0
0 0 -0
0 0 -0
0 0 -0
0 0 -0
13.01827 4.7848306 0
13.021626 4.7860637 0.77491093
2.7156487 1.0018556 -0.95442539
0 0 -0
0 0 -0
0 0 -0
0 0 -0
0 0 -0
13.022237 4.8041568 0
13.032901 4.8080907 0.77592707
2.8141038 1.0420425 -0.98946971
0 0 -0
0 0 -0
0 0 -0
0 0 -0
0 0 -0
13.035947 4.8271179 0
13.039263 4.8283458 0.77665263
2.7618694 1.0264969 -0.9715389
0 0 -0
0 0 -0
0 0 -0
0 0 -0
0 0 -0
13.037425 4.8455863 0
13.048029 4.8495274 0.77752316
2.7490506 1.0255148 -0.96746486
0 0 -0
0 0 -0
0 0 -0
0 0 -0
0 0 -0
13.04375 4.8658834 0
13.051898 4.8689227 0.77810371
2.7755857 1.0392357 -0.97724444
0 0 -0
0 0 -0
0 0 -0
0 0 -0
0 0 -0
13.04274 4.8834677 0
13.067904 4.892889 0.77940983
2.7858939 1.0469352 -0.98131847
0 0 -0
0 0 -0
0 0 -0
0 0 -0
0 0 -0
13.068498 4.9111242 0
13.076581 4.9141617 0.78028095
2.7846267 1.0503007 -0.98131847
0 0 -0
0 0 -0
0 0 -0
0 0 -0
0 0 -0
13.064987 4.9278288 0
13.087646 4.9363751 0.78129655
2.7833557 1.0536646 -0.98131847
0 0 -0
0 0 -0
0 0 -0
0 0 -0
0 0 -0
13.08823 4.9546685 0
13.098684 4.9586263 0.78231263
2.7728386 1.0535156 -0.97805864
0 0 -0
0 0 -0
0 0 -0
0 0 -0
0 0 -0
13.104127 4.9787974 0
13.107253 4.9799852 0.78318322
2.762326 1.0533427 -0.97479874
0 0 -0
0 0 -0
0 0 -0
0 0 -0
0 0 -0
13.100531 4.995554 0
13.108512 4.9985976 0.78361875
2.7818329 1.064633 -0.98213577
0 0 -0
0 0 -0
0 0 -0
0 0 -0
0 0 -0
13.123652 5.0225425 0
13.124302 5.0227909 0.78492486
2.7274752 1.0476099 -0.96339083
0 0 -0
0 0 -0
0 0 -0
0 0 -0
0 0 -0
13.127292 5.0421286 0
13.123079 5.0405107 0.78521544
2.7538817 1.0615727 -0.9731704
0 0 -0
0 0 -0
0 0 -0
0 0 -0
0 0 -0
13.145468 5.0673456 0
13.119401 5.0572972 0.78536046
2.7716851 1.0703593 -0.97969013
0 0 -0
0 0 -0
0 0 -0
0 0 -0
0 0 -0
13.135128 5.0724764 0
13.133314 5.0717759 0.78637654
2.7427347 1.0629896 -0.9699105
0 0 -0
0 0 -0
0 0 -0
0 0 -0
0 0 -0
13.150826 5.0968075 0
13.136868 5.0913973 0.78695709
2.766789 1.0761592 -0.97887594
0 0 -0
0 0 -0
0 0 -0
0 0 -0
0 0 -0
13.147081 5.1136365 0
13.152499 5.1157436 0.7882632
2.7493677 1.0732095 -0.9731704
0 0 -0
0 0 -0
0 0 -0
0 0 -0
0 0 -0
13.16271 5.1380343 0
13.158408 5.1363554 0.78898877
2.7066493 1.0603051 -0.95850259
0 0 -0
0 0 -0
0 0 -0
0 0 -0
0 0 -0
13.178299 5.162478 0
13.169131 5.1588864 0.79000491
2.778965 1.092509 -0.98457831
0 0 -0
0 0 -0
0 0 -0
0 0 -0
0 0 -0
13.191427 5.1860151 0
13.187066 5.1843004 0.79145598
2.7523589 1.0858908 -0.97561604
0 0 -0
0 0 -0
0 0 -0
0 0 -0
0 0 -0
13.2021 5.2086372 0
13.19046 5.2040448 0.79203659
2.7717249 1.0974035 -0.98294997
0 0 -0
0 0 -0
0 0 -0
0 0 -0
0 0 -0
13.205476 5.2284179 0
13.198654 5.2257166 0.79290712
2.7681022 1.09984 -0.98213577
0 0 -0
0 0 -0
0 0 -0
0 0 -0
0 0 -0
13.228171 5.2559018 0
13.218896 5.2522163 0.79450381
2.7300379 1.0885375 -0.96909636
0 0 -0
0 0 -0
0 0 -0
0 0 -0
0 0 -0
13.236311 5.2776632 0
13.224606 5.2729959 0.79522938
2.7470784 1.0991808 -0.97561604
0 0 -0
0 0 -0
0 0 -0
0 0 -0
0 0 -0
13.24684 5.3004212 0
13.237524 5.2966938 0.79639047
2.7640972 1.109867 -0.98213577
0 0 -0
0 0 -0
0 0 -0
0 0 -0
0 0 -0
13.2525 5.3212714 0
13.228705 5.3117175 0.79624546
2.7650445 1.1141288 -0.98294997
0 0 -0
0 0 -0
0 0 -0
0 0 -0
11.142526 4.489696 -0.67100281
13.255716 5.3411713 0
13.256016 5.3412919 0.79827714
2.7384887 1.1072767 -0.97398454
3.2063663 1.2964576 -0.9542045
0 0 -0
0 0 -0
0 0 -0
0 0 -0
13.285437 5.3718147 0
13.259188 5.3612013 0.79885769
2.7783692 1.1273098 -0.98865235
3.2791879 1.3305146 -0.9763537
0 0 -0
0 0 -0
0 0 -0
0 0 -0
13.283764 5.3898225 0
13.276773 5.3869863 0.80030882
2.7449615 1.1176195 -0.97724444
0 0 -0
0 0 -0
0 0 -0
0 0 -0
11.191158 4.5565143 -0.67492169
13.30134 5.4156814 0
13.289508 5.4108639 0.80146992
2.7893693 1.1396313 -0.99354374
0 0 -0
0 0 -0
0 0 -0
0 0 -0
0 0 -0
13.31406 5.4396238 0
13.2998 5.4337978 0.80248606
2.7376833 1.1223763 -0.97561604
3.2580922 1.3357301 -0.97150791
0 0 -0
0 0 -0
0 0 -0
11.168096 4.5786185 -0.67419612
13.321931 5.4616327 0
13.302842 5.4538069 0.80306661
2.7340326 1.1247405 -0.97479874
3.2819993 1.3501658 -0.97912234
0 0 -0
0 0 -0
0 0 -0
11.097671 4.5654168 -0.67027724
13.329758 5.4836645 0
13.317867 5.4787731 0.80437273
2.7258244 1.1252167 -0.9723562
3.2108011 1.3254144 -0.95835882
0 0 -0
0 0 -0
0 0 -0
11.164197 4.6085653 -0.67463112
13.339964 5.5067191 0
13.325644 5.5008078 0.80524331
2.7541456 1.1408045 -0.98294997
3.2230997 1.3350517 -0.96251047
0 0 -0
0 0 -0
0 0 -0
11.180233 4.6310043 -0.67593783
13.34532 5.5278125 0
13.335794 5.5238671 0.80625939
2.7573256 1.146027 -0.98457831
3.172837 1.3187259 -0.9479757
0 0 -0
0 0 -0
0 0 -0
0 0 -0
13.360257 5.5529222 0
13.338708 5.5439658 0.80683994
2.73154 1.1372455 -0.97561604
3.2368894 1.3476419 -0.96735626
0 0 -0
0 0 -0
0 0 -0
11.203004 4.6642427 -0.6778245
13.371311 5.5669928 0
13.347348 5.5570164 0.80756551
2.6982312 1.127205 -0.96420497
3.2051673 1.3389813 -0.95835882
0 0 -0
0 0 -0
0 0 -0
0 0 -0
13.390992 5.5941811 0
13.367001 5.5841589 0.8091622
2.7401788 1.1486198 -0.97969013
3.3030303 1.3845541 -0.98811978
0 0 -0
0 0 -0
0 0 -0
0 0 -0
13.398619 5.6163921 0
13.379415 5.6083422 0.8103233
2.7365129 1.1509726 -0.97887594
3.2597334 1.3710383 -0.97566217
0 0 -0
0 0 -0
0 0 -0
0 0 -0
13.403825 5.6376257 0
13.394183 5.6335702 0.81162941
2.7282865 1.1513944 -0.97643024
3.2002926 1.3505908 -0.95835882
0 0 -0
0 0 -0
0 0 -0
0 0 -0
13.420976 5.6639342 0
13.404118 5.6568198 0.81264496
2.7610261 1.1691436 -0.98865235
3.2679594 1.3838021 -0.97912234
0 0 -0
0 0 -0
0 0 -0
0 0 -0
13.421313 5.6831923 0
13.409243 5.678081 0.81337112
2.7505124 1.1686128 -0.98539251
3.2408838 1.3769575 -0.97150791
0 0 -0
0 0 -0
0 0 -0
0 0 -0
13.445573 5.7126341 0
13.414328 5.6993589 0.81409663
2.7513785 1.1729076 -0.98620981
3.1630619 1.3484074 -0.94866723
0 0 -0
0 0 -0
0 0 -0
0 0 -0
13.450628 5.7339778 0
13.419381 5.7206569 0.8148222
2.7340498 1.1694263 -0.98050427
3.1775789 1.3591355 -0.95351303
0 0 -0
0 0 -0
0 0 -0
0 0 -0
13.467614 5.7604589 0
13.441128 5.7491302 0.8165639
2.7553432 1.1824745 -0.98865235
3.1574907 1.3550589 -0.9479757
0 0 -0
0 0 -0
0 0 -0
0 0 -0
13.472599 5.7818584 0
13.443723 5.7694659 0.81714445
2.7039745 1.1643002 -0.9707247
3.2388036 1.3945915 -0.97289354
0 0 -0
0 0 -0
0 0 -0
11.468005 4.9379907 -0.69741732
13.487123 5.8073997 0
13.465381 5.7980375 0.8188861
2.7411354 1.1842295 -0.98457831
3.1611183 1.3656712 -0.95005286
0 0 -0
0 0 -0
0 0 -0
11.476337 4.958025 -0.6982879
13.494426 5.8298826 0
13.479831 5.8235774 0.82019222
2.7056928 1.1727991 -0.9723562
3.2078021 1.3904414 -0.96458763
0 0 -0
0 0 -0
0 0 -0
0 0 -0
13.511246 5.8565321 0
13.499002 5.8512254 0.82178837
2.7269349 1.1859227 -0.98050427
3.2567289 1.416326 -0.97981381
0 0 -0
0 0 -0
0 0 -0
0 0 -0
13.518483 5.8790827 0
13.527668 5.8830771 0.82396561
2.7390876 1.1951455 -0.98539251
3.2044325 1.3981894 -0.96458763
0 0 -0
0 0 -0
0 0 -0
0 0 -0
13.518518 5.8985324 0
13.532455 5.9046135 0.82469112
2.7376416 1.1984544 -0.98539251
3.193548 1.398036 -0.96181893
0 0 -0
0 0 -0
0 0 -0
11.407011 4.9936347 -0.69553012
13.52569 5.9211264 0
13.546732 5.9303379 0.82599723
2.715827 1.1928171 -0.97805864
3.1573994 1.3867599 -0.95143586
0 0 -0
0 0 -0
0 0 -0
0 0 -0
13.563792 5.9573469 0
13.553836 5.9529738 0.82686836
2.7415249 1.2080575 -0.98783821
3.2108197 1.4148531 -0.96804774
0 0 -0
0 0 -0
0 0 -0
0 0 -0
13.544679 5.9684854 0
13.565656 5.9777288 0.82802951
2.7016361 1.1943808 -0.97398454
3.1930439 1.4116299 -0.96320194
0 0 -0
0 0 -0
0 0 -0
0 0 -0
13.585063 6.0058932 0
13.575051 6.0014677 0.82904506
2.7175367 1.2073032 -0.98050427
3.2340436 1.4367685 -0.9763537
0 0 -0
0 0 -0
0 0 -0
0 0 -0
13.607448 6.0452962 0
13.609273 6.0461073 0.83180285
2.6957603 1.2015311 -0.9731704
3.2254286 1.4376103 -0.97427654
0 0 -0
0 0 -0
0 0 -0
11.629889 5.1835737 -0.71120459
13.621524 6.0712686 0
13.613822 6.0678353 0.83252841
2.7258904 1.2189106 -0.98457831
3.1733086 1.4189782 -0.9590503
0 0 -0
0 0 -0
0 0 -0
0 0 -0
13.623681 6.0919724 0
13.620708 6.0906429 0.83339894
2.7356889 1.2272607 -0.98865235
3.2105021 1.4402673 -0.97081637
0 0 -0
0 0 -0
0 0 -0
0 0 -0
13.628181 6.1137547 0
13.627568 6.1134796 0.83427006
2.704906 1.2173793 -0.97805864
3.1858866 1.4338511 -0.9638961
0 0 -0
0 0 -0
0 0 -0
11.52572 5.1873055 -0.70597959
13.63977 6.138762 0
13.646229 6.1416693 0.83586615
2.7147028 1.2257353 -0.98213577
3.1955819 1.4428606 -0.96735626
0 0 -0
0 0 -0
0 0 -0
0 0 -0
13.663175 6.1691599 0
13.662485 6.1688485 0.83731782
2.7042141 1.2249353 -0.97887594
3.1686964 1.4353331 -0.95974183
0 0 -0
0 0 -0
0 0 -0
0 0 -0
13.66757 6.1910367 0
13.666854 6.1907125 0.83804339
2.7117326 1.2322921 -0.98213577
3.1349881 1.424632 -0.95005286
0 0 -0
0 0 -0
0 0 -0
0 0 -0
13.681401 6.217236 0
13.685379 6.2190437 0.83963954
2.701246 1.2314668 -0.97887594
3.1674991 1.4440261 -0.9604333
0 0 -0
0 0 -0
0 0 -0
0 0 -0
13.704661 6.2477961 0
13.692045 6.2420444 0.84051067
2.6885111 1.229587 -0.97479874
3.1771657 1.4530724 -0.9638961
0 0 -0
0 0 -0
0 0 -0
11.654857 5.3303332 -0.7158491
13.708934 6.269762 0
13.703397 6.26723 0.84167176
2.7139807 1.2452029 -0.98457831
3.2004836 1.4684155 -0.97150791
0 0 -0
0 0 -0
0 0 -0
11.757034 5.3942504 -0.72252464
13.720271 6.2950044 0
13.707621 6.2892003 0.84239733
2.7034934 1.2443477 -0.98131847
3.182761 1.464942 -0.96666473
0 0 -0
0 0 -0
0 0 -0
11.663183 5.3682594 -0.71715522
13.736291 6.3224573 0
13.716537 6.3133645 0.84341341
2.6885285 1.2413987 -0.97643024
3.1718776 1.4645798 -0.9638961
0 0 -0
0 0 -0
0 0 -0
0 0 -0
13.771176 6.3586903 0
13.718334 6.334291 0.84399396
2.6959972 1.2488016 -0.97969013
3.1837599 1.4747361 -0.96804774
0 0 -0
0 0 -0
0 0 -0
0 0 -0
13.857932 6.419075 0
13.727168 6.3585043 0.84500957
2.6944864 1.2520583 -0.97969013
3.1387546 1.4584982 -0.95489866
0 0 -0
0 0 -0
0 0 -0
0 0 -0
13.965811 6.4895515 0
23.074167 10.72197 1.4211835
2.6952097 1.2563564 -0.98050427
3.1847301 1.4845434 -0.96943074
0 0 -0
0 0 -0
0 0 -0
0 0 -0
14.026354 6.5383034 0
23.065908 10.75204 1.421474
2.7004085 1.262754 -0.98294997
3.1488519 1.4724532 -0.9590503
0 0 -0
0 0 -0
0 0 -0
0 0 -0
14.046733 6.5684757 0
23.092913 10.798614 1.4239413
2.6697936 1.2523714 -0.9723562
3.1834111 1.4933039 -0.9701249
0 0 -0
0 0 -0
0 0 -0
0 0 -0
14.076484 6.6031275 0
23.091608 10.832026 1.4246668
2.7085288 1.2745368 -0.98702401
3.1793277 1.4960781 -0.96943074
0 0 -0
0 0 -0
0 0 -0
0 0 -0
14.077914 6.6245637 0
23.090256 10.86545 1.4253924
2.6823986 1.266202 -0.97805864
3.2070174 1.5138437 -0.97843081
0 0 -0
0 0 -0
0 0 -0
0 0 -0
14.112258 6.6615639 0
25.379807 11.980309 1.5676217
2.725543 1.2905974 -0.99435794
3.175703 1.5037569 -0.96943074
0 0 -0
0 0 -0
0 0 -0
0 0 -0
14.085382 6.6697006 0
25.332438 11.9954 1.5655901
2.6994214 1.2822237 -0.98539251
3.1625555 1.502212 -0.96597058
0 0 -0
0 0 -0
0 0 -0
11.742976 5.5779076 -0.72615302
14.100824 6.6978836 0
25.303839 12.019309 1.564719
2.7045662 1.288675 -0.98783821
3.185653 1.5179039 -0.97358507
3.8137672 1.8171884 -0.93586814
0 0 -0
0 0 -0
11.799566 5.622272 -0.7300719
14.073925 6.7059612 0
25.272875 12.04205 1.5637028
2.6703343 1.2743442 -0.97561604
3.1666222 1.5111841 -0.96804774
0 0 -0
0 0 -0
0 0 -0
0 0 -0
14.091008 6.7245498 0
25.239805 12.04501 1.5621067
2.6777098 1.2818387 -0.97887594
3.1738453 1.5193423 -0.97081637
3.8883853 1.8613976 -0.95500517
0 0 -0
0 0 -0
11.876064 5.6851563 -0.73544139
14.141555 6.7696629 0
25.197107 12.062035 1.5603651
2.6806109 1.2872109 -0.98050427
3.1923587 1.5329489 -0.97704518
3.8449085 1.8462988 -0.94487429
0 0 -0
0 0 -0
11.862165 5.6961308 -0.73500639
14.159174 6.7991381 0
25.156746 12.080097 1.5587684
2.6946428 1.2979581 -0.98620981
3.1859882 1.5346298 -0.97566217
3.8999021 1.8785084 -0.95894587
0 0 -0
0 0 -0
11.836546 5.7014389 -0.73384523
14.179075 6.8297901 0
25.09532 12.087937 1.5558661
2.6975193 1.3033617 -0.98783821
3.1434667 1.5188303 -0.96320194
3.9388061 1.9031148 -0.96907669
0 0 -0
0 0 -0
11.892813 5.7462559 -0.73776358
14.175503 6.8491845 0
25.010509 12.08434 1.5515122
2.6892679 1.3033851 -0.98539251
3.2161276 1.5587339 -0.98604262
3.8999195 1.8901417 -0.96007055
0 0 -0
7.3495126 3.5620275 -0.9103272
11.909248 5.7719564 -0.73921525
14.178925 6.8719821 0
24.848585 12.043158 1.5423689
2.6832495 1.3044745 -0.98376417
3.1916835 1.551652 -0.97912234
3.8496466 1.871524 -0.94825053
4.9727511 2.4175265 -0.92180616
7.3638124 3.5799522 -0.91263354
11.890574 5.7806587 -0.73848915
14.191673 6.8993492 0
24.759233 12.036819 1.5377244
2.717216 1.325049 -0.99680358
3.1379404 1.530215 -0.96320194
3.8816419 1.8928808 -0.9566943
4.9813609 2.4291582 -0.92394561
7.3269391 3.572978 -0.90859801
11.878914 5.7927461 -0.73819917
14.20204 6.9256177 0
24.711977 12.050783 1.5356928
2.6645455 1.3033519 -0.97805864
3.1428523 1.5373137 -0.9652791
3.8770716 1.8964542 -0.95613199
4.9507504 2.4216399 -0.91880995
7.2900839 3.5659156 -0.90456134
11.890579 5.8162293 -0.73936027
14.221715 6.9564953 0
24.68339 12.073782 1.5348216
2.6851621 1.3174596 -0.98620981
3.2017972 1.5709436 -0.98396546
3.8724897 1.900015 -0.95556748
4.9616528 2.4344068 -0.92137861
7.2973781 3.5804169 -0.90600252
11.918528 5.8477578 -0.74153697
14.241336 6.9874306 0
24.687445 12.112755 1.5359827
3.197648 1.5737045 -0.98327398
3.8975482 1.9181565 -0.96232212
4.9540968 2.4381309 -0.92052186
7.3301768 3.6075056 -0.91061521
11.906795 5.8598623 -0.74124694
14.256228 7.0161228 0
24.698439 12.155198 1.5375794
2.6731055 1.3195685 -0.98294997
3.2002478 1.5797902 -0.98465961
3.8542206 1.9026215 -0.95219123
4.9603548 2.4486604 -0.9222337
7.3072586 3.6072006 -0.90830886
11.916018 5.8822975 -0.74226308
14.261738 7.0402536 0
24.714022 12.199984 1.5394661
2.6626492 1.3184105 -0.97969013
3.2050748 1.5869924 -0.98673409
3.8724101 1.9174235 -0.95725667
4.9389882 2.4455395 -0.91880995
7.2866759 3.6079967 -0.90629166
11.925195 5.9047589 -0.74327862
14.26022 7.0609465 0
24.71323 12.236753 1.5403366
2.6588428 1.3205285 -0.97887594
3.1537273 1.5663154 -0.97150791
3.8678169 1.920972 -0.9566943
4.9521255 2.4594998 -0.92180616
7.2985201 3.6248488 -0.90830886
11.904093 5.9122314 -0.7424081
14.281977 7.0932202 0
24.6961 12.26545 1.5401917
2.6749351 1.3325527 -0.98539251
3.1585712 1.573482 -0.97358507
3.8632209 1.9245121 -0.95613199
4.9721231 2.4769258 -0.926085
7.2756138 3.6244388 -0.90600252
11.931821 5.9439869 -0.74458474
14.326975 7.1371632 0
24.662655 12.286013 1.5390306
2.6799581 1.3390992 -0.98783821
3.1544256 1.5761771 -0.97289354
3.8631635 1.9303133 -0.9566943
4.9553533 2.4760497 -0.923518
7.2781725 3.6366966 -0.90686768
11.945557 5.9688563 -0.74589139
14.341617 7.1661 0
24.636171 12.309998 1.538305
2.6916001 1.348983 -0.99272954
3.1592407 1.5833565 -0.97496802
3.8653669 1.9372547 -0.95781904
4.9271107 2.469382 -0.91880995
7.2737727 3.6454883 -0.90686768
11.933685 5.9809551 -0.74560088
14.367849 7.2009158 0
24.600374 12.329279 1.5369989
2.683341 1.3489029 -0.99028385
3.173018 1.5950612 -0.97981381
3.8539426 1.9373589 -0.95556748
4.9310064 2.4787936 -0.92009431
7.2739892 3.6566 -0.90744483
11.92413 5.9942045 -0.74545586
14.368439 7.2229466 0
24.569206 12.350824 1.5359827
2.6839142 1.353256 -0.99109805
3.1576519 1.5921192 -0.97566217
3.8742914 1.9534559 -0.96119744
4.9234276 2.4824407 -0.91923916
7.2695656 3.6653867 -0.90744483
11.942394 6.0214729 -0.74705195
14.387578 7.2543588 0
24.510187 12.358278 1.5332255
2.6844804 1.3576124 -0.99191225
3.1534805 1.594798 -0.97496802
3.8537889 1.9489623 -0.9566943
4.9272904 2.4918602 -0.92052186
7.2951345 3.6893413 -0.91119236
11.93511 6.0358987 -0.74705195
14.402031 7.2834854 0
24.488277 12.384366 1.5327899
2.6541851 1.3463209 -0.98131847
3.1560304 1.6008792 -0.9763537
3.8446307 1.950168 -0.95500517
4.9219885 2.4966519 -0.92009431
7.2468419 3.675921 -0.90571451
11.918538 6.0456138 -0.74647141
14.418743 7.3138289 0
24.447811 12.401019 1.5311939
2.6657779 1.3562536 -0.98620981
3.1429157 1.5990045 -0.97289354
3.8377466 1.9525099 -0.95388043
4.9212542 2.5037603 -0.92052186
7.2377887 3.6823313 -0.90513849
11.922812 6.0659051 -0.74719751
14.435413 7.3442283 0
24.421223 12.424656 1.5304677
2.6451402 1.3477663 -0.97887594
3.1262996 1.5929292 -0.96804774
3.8320339 1.9525188 -0.9527536
4.9197407 2.5067329 -0.92052186
7.244781 3.6914003 -0.90629166
11.907561 6.0672054 -0.74647141
14.442565 7.3588548 0
24.390564 12.427613 1.5290166
2.6677129 1.3633304 -0.98783821
3.1467078 1.60812 -0.97496802
3.8364618 1.9606177 -0.9544428
4.9212842 2.5150144 -0.92137861
7.2541299 3.7072113 -0.90802085
11.902542 6.0827751 -0.74661696
14.461472 7.390512 0
24.359331 12.448797 1.5280005
2.6572657 1.3620431 -0.98457831
3.1336017 1.6062003 -0.97150791
3.838608 1.9675676 -0.95556748
4.9068217 2.5151052 -0.91923916
7.2381387 3.7100759 -0.90657967
11.902114 6.1007047 -0.74705195
14.475687 7.4198494 0
24.311903 12.46163 1.5259688
2.6644104 1.3697731 -0.98783821
3.1272006 1.6076936 -0.9701249
3.8430092 1.9756907 -0.95725667
4.9174728 2.5280724 -0.92180616
7.2336507 3.7188191 -0.90657967
11.899361 6.1174603 -0.74734253
14.503743 7.4563732 0
24.282967 12.483871 1.5250983
3.1743071 1.6367632 -0.98535115
3.8406191 1.9803329 -0.95725667
4.9075675 2.5304818 -0.92052186
7.2222528 3.7239997 -0.90571451
11.882722 6.1270704 -0.74676198
14.517859 7.4858222 0
24.247072 12.502482 1.5237916
2.6610925 1.3762081 -0.98783821
3.1277587 1.6175488 -0.97150791
3.8314505 1.9814693 -0.95556748
4.9181919 2.5434873 -0.92309046
7.2200432 3.7339106 -0.90600252
11.886847 6.1473908 -0.74748755
14.531916 7.5153112 0
24.206566 12.518644 1.5221955
2.6528435 1.3760073 -0.98539251
3.1124442 1.6143982 -0.96735626
3.8403289 1.9919459 -0.95838135
4.9082766 2.545881 -0.92180616
7.2086449 3.7390625 -0.90513849
11.872489 6.1581588 -0.74705195
14.541306 7.5424514 0
24.179892 12.541903 1.52147
2.6643391 1.386058 -0.99028385
3.1394222 1.6332085 -0.9763537
3.8289115 1.9918987 -0.95613199
4.8983626 2.5482547 -0.92052186
7.1995282 3.7453804 -0.90456134
11.883481 6.1820936 -0.74821311
14.548336 7.5684204 0
24.134754 12.555522 1.5195832
3.1152 1.6253933 -0.96943074
3.8287525 1.9976979 -0.9566943
4.9089398 2.5612986 -0.92309046
7.2133422 3.7636485 -0.90686768
11.876002 6.1964478 -0.74821311
14.555334 7.5944219 0
24.105738 12.577461 1.5187122
2.6675534 1.3959315 -0.99272954
3.1199043 1.6326469 -0.97150791
3.8330832 2.0058537 -0.95838135
4.9103856 2.5696065 -0.92394561
7.213377 3.7747624 -0.90744483
11.870815 6.2120018 -0.74835867
14.54845 7.6132088 0
24.069805 12.595737 1.517406
2.6374164 1.3842229 -0.98213577
3.1512525 1.6539049 -0.98189098
3.8239136 2.0069447 -0.9566943
4.9027357 2.5731542 -0.92309046
7.1904888 3.7738597 -0.90513849
11.870196 6.22996 -0.74879366
14.555374 7.6392498 0
24.033863 12.613944 1.5160999
2.6751056 1.4081291 -0.99680358
3.1181676 1.6413492 -0.97219938
3.8282247 2.0151107 -0.95838135
4.908709 2.5838592 -0.92480236
7.2019386 3.7909751 -0.90715569
11.853463 6.2394567 -0.74821311
14.562256 7.665318 0
23.995615 12.630875 1.5146488
2.6799531 1.4148188 -0.99924612
3.1250565 1.6498007 -0.97496802
3.8257868 2.0197351 -0.95838135
4.9078517 2.5909858 -0.92522991
7.1904974 3.7960553 -0.90629166
11.84822 6.2549915 -0.74835867
14.578293 7.6962695 0
23.957352 12.647726 1.5131971
2.6607754 1.4088081 -0.99272954
3.1208458 1.6524028 -0.97427654
3.8233438 2.0243564 -0.95838135
4.9047174 2.5969141 -0.92522991
7.1973324 3.8107913 -0.90773284
11.856721 6.2778111 -0.74937421
14.61728 7.7394514 0
23.912201 12.660859 1.5113105
3.1055565 1.6491151 -0.9701249
3.8298714 2.0337412 -0.96063292
4.8947721 2.5992255 -0.92394561
7.1813025 3.813421 -0.90629166
11.849127 6.2921329 -0.74937421
14.62401 7.7656531 0
23.889999 12.686086 1.5108749
2.6573632 1.415234 -0.99272954
3.1190555 1.6611179 -0.97496802
3.8206897 2.0347877 -0.95894587
4.8871007 2.6027269 -0.92309046
7.1698389 3.8184466 -0.9054265
11.846107 6.3088908 -0.74966478
14.639877 7.796771 0
23.858604 12.706396 1.5098593
3.1214762 1.6672517 -0.9763537
3.8159804 2.0382023 -0.95838135
4.8997955 2.6170926 -0.926085
7.1697783 3.8295422 -0.90600252
11.840765 6.3244228 -0.74980974
14.644223 7.8218136 0
23.81802 12.721748 1.5082626
2.6539352 1.4216517 -0.99272954
3.1327238 1.6781276 -0.98050535
3.8247204 2.0488141 -0.96119744
4.8921084 2.6205893 -0.92522991
7.1651454 3.8382025 -0.90600252
11.835403 6.3399515 -0.74995476
14.669166 7.8579326 0
23.77973 12.738251 1.5068115
2.6678905 1.4374353 -0.99924612
3.1176186 1.6797446 -0.97704518
3.8175147 2.0568423 -0.96063292
4.897059 2.6384909 -0.9273693
7.1604075 3.8579628 -0.90657967
11.833777 6.3759317 -0.75082588
14.695956 7.9180479 0
23.661955 12.748847 1.5012965
2.6335411 1.4230367 -0.98702401
3.1133816 1.6823189 -0.9763537
3.8172684 2.062665 -0.96119744
4.8916106 2.6431868 -0.92694175
7.1534677 3.8653834 -0.90629166
11.826064 6.3902259 -0.75082588
14.718428 7.9531174 0
23.58024 12.741607 1.4970876
2.6274695 1.4238603 -0.98539251
3.1179657 1.6896666 -0.97843081
3.8103011 2.0648522 -0.96007055
4.8906684 2.6503174 -0.9273693
7.1533356 3.8764865 -0.90686768
11.818335 6.4045105 -0.75082588
14.722541 7.9783382 0
23.49172 12.730473 1.4924431
2.6604929 1.4459176 -0.99843198
3.1247389 1.6982248 -0.9811995
3.8100336 2.0706668 -0.96063292
4.8897157 2.6574495 -0.9277969
7.1486464 3.8851271 -0.90686768
11.812868 6.4200258 -0.7509709
14.72432 8.0023346 0
23.428379 12.732793 1.4893954
2.633568 1.4333463 -0.98865235
3.1016726 1.6881169 -0.97427654
3.8087819 2.0729682 -0.96063292
4.8790903 2.6554945 -0.926085
7.1440282 3.8882101 -0.90657967
11.802138 6.4234338 -0.75053531
14.746914 8.0261574 0
23.400145 12.735766 1.4880892
3.1040392 1.6942697 -0.97566217
3.8151956 2.0824385 -0.96288443
4.8826399 2.6650789 -0.9273693
7.148406 3.9017961 -0.90773284
11.801212 6.4414258 -0.7509709
14.769181 8.0614243 0
23.361935 12.751585 1.4866381
2.6452749 1.448015 -0.99435794
3.1085851 1.7016295 -0.97773665
3.8126767 2.0870469 -0.96288443
4.8884234 2.6759071 -0.9290812
7.1459527 3.9116714 -0.90802085
11.791143 6.4544339 -0.75082588
14.773131 8.0867643 0
23.357904 12.786041 1.4873637
2.6261907 1.441695 -0.98783821
3.1175292 1.7114242 -0.9811995
3.8101521 2.0916522 -0.96288443
4.8739371 2.6756363 -0.92694175
7.1366911 3.9178162 -0.90744483
11.778776 6.4661732 -0.75053531
14.770187 8.1083622 0
23.351549 12.819257 1.4879442
2.6266098 1.446058 -0.98865235
3.1044641 1.7091367 -0.97773665
3.8053982 2.0950303 -0.96232212
4.8661985 2.6790452 -0.926085
7.1319518 3.9264367 -0.90744483
11.766406 6.4778967 -0.75024533
14.760379 8.1262035 0
23.347422 12.853728 1.4886698
3.0936115 1.7080363 -0.97496802
3.8184369 2.1082249 -0.96626282
4.8854351 2.6973331 -0.9303655
7.1249313 3.9337976 -0.90715569
11.756289 6.49085 -0.75009978
14.771051 8.1553526 0
23.356897 12.895746 1.4902664
2.6490548 1.4667683 -0.99843198
3.117883 1.726356 -0.98327398
3.8114364 2.110373 -0.96513599
4.8799291 2.701992 -0.92993796
7.1269636 3.9461637 -0.90802085
11.732532 6.496243 -0.74908423
14.772577 8.1795015 0
20.127089 11.144267 1.2850496
2.6191919 1.4543711 -0.98783821
3.1223767 1.7337769 -0.98535115
3.8088837 2.1149769 -0.96513599
4.8721676 2.7053916 -0.9290812
7.12219 3.9547722 -0.90802085
11.711039 6.5028439 -0.74821311
14.828655 8.2339773 0
20.113609 11.168579 1.2850496
2.61959 1.4587361 -0.98865235
3.0983653 1.7253454 -0.97843081
3.795228 2.1133981 -0.96232212
4.8801069 2.71752 -0.93122059
7.1151485 3.9621179 -0.90773284
11.67593 6.5018196 -0.74647141
14.82779 8.2569532 0
20.106911 11.196668 1.2854851
2.637253 1.4727495 -0.99598938
3.1181777 1.7413174 -0.98535115
3.7926717 2.1179821 -0.96232212
4.8768196 2.7234147 -0.93122059
7.1193891 3.9757566 -0.90888602
11.649925 6.5057926 -0.74531084
14.856427 8.2964344 0
20.077484 11.212085 1.284469
2.6440892 1.4807611 -0.99924612
3.0985603 1.7352772 -0.97981381
3.8078451 2.1324956 -0.96682519
4.8645663 2.724288 -0.92950875
7.1123252 3.9830935 -0.90859801
11.630713 6.5135126 -0.74458474
14.855474 8.3194656 0
20.050323 11.228721 1.2835984
3.1205249 1.7525344 -0.98742825
3.8096921 2.1395812 -0.96794987
4.8747048 2.7377086 -0.93207735
7.0962253 3.9853482 -0.90715569
11.613772 6.5224714 -0.74400419
14.847687 8.3386879 0
20.01409 11.240218 1.2821473
2.6340485 1.4835113 -0.99680358
3.0812464 1.7353758 -0.97566217
3.8048923 2.1429372 -0.9673875
4.8758626 2.7461138 -0.9329325
7.1116934 4.0053468 -0.90975118
11.608153 6.5377784 -0.74414974
14.882944 8.3821592 0
19.986906 11.25674 1.2812762
2.6214957 1.4806167 -0.99272954
3.0900674 1.7452651 -0.97912234
3.8000898 2.1462848 -0.96682519
4.8635998 2.7469535 -0.93122059
7.0888319 4.0037608 -0.90744483
11.602506 6.5530767 -0.74429476
14.897734 8.414216 0
19.950668 11.268106 1.2798251
2.617548 1.4825616 -0.99191225
3.0901372 1.7502328 -0.97981381
3.7974937 2.1508749 -0.96682519
4.8714433 2.7591527 -0.93336004
7.0997362 4.0212426 -0.90946203
11.614925 6.5786152 -0.74560088
14.903409 8.4411907 0
19.914433 11.279401 1.278374
2.6243513 1.490606 -0.99517208
3.0945666 1.7576838 -0.98189098
3.7904775 2.1529543 -0.96570051
4.8681059 2.7650368 -0.93336004
7.0903788 4.027266 -0.90888602
11.631824 6.6067629 -0.74719751
14.929398 8.4797525 0
19.894009 11.299603 1.2779385
2.6053669 1.4839897 -0.98865235
3.0924404 1.7614216 -0.98189098
3.7989106 2.1638196 -0.96851438
4.8536105 2.7645657 -0.93122059
7.0922518 4.0396724 -0.90975118
11.632864 6.625957 -0.74777812
14.923667 8.5003643 0
19.864534 11.31463 1.2769223
2.6100125 1.4908155 -0.99109805
3.0903099 1.765157 -0.98189098
3.8051186 2.1734493 -0.97076589
4.856956 2.7742491 -0.93250495
7.0918531 4.0508022 -0.9103272
11.645154 6.6516061 -0.74908423
14.945019 8.536459 0
19.835051 11.329601 1.2759062
2.6253669 1.5037959 -0.99761778
3.0794671 1.7639019 -0.97912234
3.7914593 2.1717272 -0.96794987
4.8602848 2.7839448 -0.93378925
7.0936885 4.0632262 -0.91119236
11.648379 6.6721282 -0.74980974
14.986635 8.5842628 0
19.803318 11.343232 1.2747456
2.6171162 1.5032727 -0.99517208
3.0903819 1.7751166 -0.98327398
3.7910421 2.1775761 -0.96851438
4.8591413 2.7910929 -0.9342168
7.0775619 4.0653543 -0.90975118
11.669599 6.703022 -0.75169647
15.028151 8.6321754 0
19.778324 11.360678 1.2740195
3.0882347 1.7788494 -0.98327398
3.8016143 2.1897621 -0.97189063
4.8535433 2.795682 -0.93378925
7.0726442 4.0739031 -0.90975118
11.677255 6.7261977 -0.75271255
15.040256 8.6633148 0
19.760084 11.381976 1.2737296
3.0839128 1.7813261 -0.98258245
3.7923629 2.1905401 -0.97020143
4.8590531 2.8066804 -0.9355011
7.0587578 4.0772715 -0.90859801
11.700615 6.7584953 -0.75474423
15.045554 8.6905947 0
19.728317 11.395447 1.2725685
2.6137948 1.513992 -0.99598938
3.0730746 1.7800212 -0.97981381
3.7853203 2.1925762 -0.96907669
4.8578773 2.8138351 -0.93592864
7.060534 4.0896831 -0.90946203
11.710428 6.7830477 -0.75590533
15.055308 8.7205067 0
19.687551 11.403647 1.2708267
3.0893595 1.7919476 -0.98535115
3.7883863 2.1974101 -0.97020143
4.8606133 2.8193431 -0.93678379
7.0603061 4.0952492 -0.90975118
11.722055 6.7992435 -0.75692087
15.081558 8.7478848 0
19.669422 11.409022 1.2701012
2.6067693 1.516239 -0.99435794
3.0893586 1.7969394 -0.98604262
3.7879312 2.2032671 -0.97076589
4.8594284 2.8265085 -0.937213
7.0531101 4.1024733 -0.90946203
11.725068 6.8199387 -0.75764704
15.095716 8.7804909 0
19.657866 11.434086 1.2702461
3.0958536 1.8057269 -0.98881125
3.7918444 2.2116795 -0.97245294
4.8626556 2.8362544 -0.93849564
7.054853 4.1149035 -0.9103272
11.732525 6.8432617 -0.75866258
15.130056 8.8249493 0
19.641792 11.456522 1.2701012
3.0915058 1.808201 -0.98811978
3.786978 2.214978 -0.97189063
4.8525839 2.8382435 -0.937213
7.0565758 4.1273437 -0.91119236
11.748922 6.8718653 -0.76025927
15.130612 8.8497934 0
19.636908 11.485495 1.2706817
2.6097839 1.5306801 -0.99761778
3.0720067 1.8017812 -0.98258245
3.7864885 2.2208364 -0.97245294
4.8557873 2.8479972 -0.93849564
7.0471172 4.1332474 -0.91061521
11.756302 6.8952599 -0.76127535
15.146847 8.8838692 0
19.663355 11.532874 1.273294
3.082798 1.8131205 -0.98673409
3.7794263 2.2228363 -0.97132826
4.8523426 2.8538625 -0.93849564
7.0465808 4.1443844 -0.91119236
11.756921 6.9147291 -0.7618559
15.171993 8.923274 0
19.705399 11.589557 1.2769223
2.6060772 1.5369824 -0.99761778
3.0698023 1.8104731 -0.98327398
3.789865 2.2351434 -0.9747045
4.8488908 2.8597236 -0.93849564
7.0393338 4.1515779 -0.91090322
11.764218 6.9381666 -0.7628715
15.176886 8.9508505 0
19.713766 11.626561 1.278374
3.0762501 1.8192892 -0.98604262
3.7806067 2.2358446 -0.97301745
4.8520627 2.8695018 -0.93977994
7.0254154 4.154819 -0.90975118
11.767007 6.9589887 -0.76359701
15.188464 8.9824324 0
19.742193 11.6755 1.2811313
3.0805252 1.8268452 -0.98811978
3.7735271 2.2378166 -0.97189063
4.8485918 2.8753626 -0.93977994
7.0248351 4.1659412 -0.9103272
11.772004 6.9811568 -0.76446813
15.18879 9.0074148 0
19.75489 11.715251 1.2828729
2.5877464 1.5388418 -0.99272954
3.0739989 1.8279991 -0.98673409
3.7708206 2.2423744 -0.97189063
4.8473182 2.8825297 -0.94020754
7.0242386 4.1770678 -0.91090322
11.781427 7.0060005 -0.76562929
15.20026 9.0390606 0
19.780918 11.763017 1.2854851
2.5901268 1.5444968 -0.99435794
3.0653298 1.8278611 -0.98465961
3.7746575 2.2508345 -0.97357982
4.8504486 2.8923302 -0.94149184
7.0169668 4.1842284 -0.91061521
11.78634 7.0282135 -0.76649982
15.222857 9.0774145 0
19.79793 11.805538 1.2875168
3.0760341 1.8392861 -0.98881125
3.7697563 2.254091 -0.97301745
4.8359361 2.8916032 -0.93935239
7.0185676 4.1966877 -0.91148037
11.773383 7.0397854 -0.76620984
15.234211 9.1091557 0
19.817106 11.849455 1.2896941
3.075959 1.8442904 -0.98950279
3.7866406 2.2704024 -0.9780829
4.8346381 2.8987632 -0.93977994
7.0201488 4.2091565 -0.91234553
11.784923 7.0660305 -0.76751596
15.261135 9.1503057 0
19.849571 11.901451 1.2927418
3.0780325 1.8505936 -0.99088842
3.781719 2.2736683 -0.97752053
4.839932 2.9098938 -0.94149184
7.0128345 4.2162995 -0.91205639
11.783051 7.0842781 -0.76795095
15.265683 9.1781273 0
19.859674 11.940156 1.2943385
3.0607524 1.8452432 -0.98604262
3.781143 2.2795467 -0.9780829
4.8386087 2.9170637 -0.94191939
7.0055218 4.2234359 -0.91176838
11.78116 7.1025367 -0.76838648
15.285781 9.2153749 0
19.883062 11.986949 1.2968057
3.0585206 1.8489401 -0.98604262
3.7762134 2.2828007 -0.97752053
4.8306913 2.9202547 -0.9410643
7.002625 4.2332344 -0.91205639
11.779243 7.1208005 -0.76882207
15.303586 9.2513399 0
19.919703 12.04188 1.3001435
2.5873158 1.5683589 -0.99761778
3.0820289 1.8682401 -0.99434859
3.7669318 2.2834091 -0.97583133
4.8315454 2.9287484 -0.94191939
7.0041423 4.2457161 -0.91292155
11.781738 7.1417618 -0.76954764
15.325781 9.290062 0
19.934023 12.083449 1.3020302
3.0862029 1.8758732 -0.99642569
3.7750242 2.2945566 -0.97864521
4.8345861 2.9385855 -0.94320369
6.996799 4.2528338 -0.91263354
11.788646 7.1654415 -0.77056372
15.330106 9.3180313 0
19.959372 12.131818 1.3046424
3.0667961 1.8691556 -0.99088842
3.7809277 2.3044057 -0.98089677
4.8288417 2.9430902 -0.94277614
6.9916553 4.2612853 -0.91263354
11.782196 7.1810317 -0.77070874
15.338842 9.3487425 0
19.975765 12.174861 1.3066746
3.0623965 1.8715529 -0.99019694
3.7629619 2.2996964 -0.97695601
4.8230853 2.9475803 -0.94234693
6.9865012 4.2697301 -0.91263354
11.782379 7.2006826 -0.77128929
15.336418 9.3726978 0
19.996506 12.220664 1.3089963
3.7688463 2.309552 -0.97920758
4.8326573 2.9614563 -0.94491559
6.9901586 4.2835746 -0.91378671
11.771457 7.2135577 -0.77114427
15.336174 9.3980198 0
20.012747 12.263827 1.3110286
3.0706856 1.886826 -0.99434859
3.7725494 2.3180962 -0.98089677
4.8268905 2.9659507 -0.94448799
6.9849772 4.2920175 -0.91378671
11.764943 7.229135 -0.77128929
15.371369 9.4451542 0
20.033337 12.309766 1.3133508
2.5779798 1.5883703 -0.99843198
3.064136 1.8879056 -0.99296558
3.7632539 2.3186531 -0.97920758
4.8167443 2.9677398 -0.94320369
6.975378 4.2977386 -0.91320956
11.767259 7.2501593 -0.77201486
15.373236 9.4719095 0
20.064894 12.36258 1.316398
3.0693939 1.8937044 -0.99504006
3.7661815 2.323597 -0.9803344
4.8258719 2.9773877 -0.94534314
6.9793859 4.3060274 -0.91407472
11.769513 7.2613616 -0.77245039
15.405161 9.5044241 0
20.072905 12.384252 1.3174142
3.7720144 2.333493 -0.98258597
4.8331842 2.9899678 -0.94748253
6.9741778 4.3144574 -0.91407472
11.767362 7.2796798 -0.77288598
15.400308 9.5271406 0
22.051043 13.641505 1.448323
3.0690765 1.9037639 -0.99642569
3.7691922 2.3380492 -0.98258597
4.8295679 2.9958057 -0.94748253
6.9711556 4.3242435 -0.91436273
11.756343 7.2925196 -0.77274042
12.790324 7.9339037 0
22.016886 13.657187 1.4471624
3.0710306 1.9101183 -0.99780869
3.7706754 2.345283 -0.98371065
4.8259444 3.0016391 -0.94748253
6.9703221 4.3353982 -0.91493988
11.745318 7.3053484 -0.77259541
12.776304 7.9466004 0
21.991543 13.67829 1.4465818
3.0580788 1.907191 -0.99434859
3.7592149 2.3444593 -0.98145908
4.8223143 3.0074682 -0.94748253
6.9584928 4.3397098 -0.91407472
11.740896 7.3222876 -0.77288598
12.737988 7.9441304 0
21.957359 13.693852 1.4454207
3.0557721 1.9108847 -0.99434859
3.7585316 2.3503456 -0.98202145
4.8208513 3.0146525 -0.94791013
6.9510527 4.3467445 -0.91378671
11.729831 7.3350873 -0.77274042
12.710727 7.9484773 0
21.925373 13.710729 1.4444046
3.0513375 1.9132441 -0.99365705
3.7664587 2.3616383 -0.98483747
4.8150325 3.0191131 -0.94748253
6.9457955 4.3551402 -0.91378671
11.71656 7.3464971 -0.77245039
12.687888 7.9555373 0
21.904392 13.734453 1.4441146
3.0681365 1.9289461 -0.99988586
3.754998 2.3607781 -0.98258597
4.8135519 3.0262938 -0.94791013
6.9427156 4.3649054 -0.91407472
11.714277 7.3647995 -0.77288598
12.65844 7.9583969 0
21.874578 13.752609 1.4432435
3.7564375 2.3680208 -0.98371065
4.8164086 3.036216 -0.94919443
6.9374366 4.373291 -0.91407472
11.711957 7.3831015 -0.77332097
12.644406 7.9709082 0
21.838163 13.766561 1.4419374
3.0592206 1.9336716 -0.99850023
3.7557192 2.3739142 -0.98427296
4.8192482 3.0461495 -0.95047873
6.9583836 4.3982534 -0.91753423
11.707425 7.4000268 -0.77361155
12.619373 7.9764509 0
21.810534 13.785997 1.4412118
3.7550004 2.3798146 -0.98483747
4.806891 3.0464737 -0.94876689
6.9355865 4.3955817 -0.91522789
11.707254 7.4197316 -0.77419209
12.598737 7.9847288 0
21.780685 13.803992 1.4403408
3.7499714 2.3829834 -0.98427296
4.8053708 3.0536551 -0.94919443
6.9324512 4.4053445 -0.9155159
11.69389 7.4310822 -0.77390152
12.573702 7.9901738 0
21.744255 13.817759 1.4390346
3.7620916 2.3970718 -0.98821372
4.8038406 3.0608373 -0.94962198
6.9293022 4.4151063 -0.91580391
11.689289 7.4480019 -0.77419209
12.559645 8.0025616 0
21.718777 13.838437 1.438454
3.0496011 1.9534756 -0.99919438
3.7520127 2.4034178 -0.98708904
4.8007569 3.0752094 -0.95047873
6.9186125 4.431839 -0.91580391
11.671256 7.4762287 -0.77419209
12.509593 8.0132399 0
12.631655 8.0914288 0.83789843
3.7448261 2.4052007 -0.98596215
4.8013535 3.0837798 -0.95133382
6.9132524 4.4401956 -0.91580391
11.655653 7.4861116 -0.7737565
12.484579 8.018508 0
12.61093 8.0996609 0.83717227
3.733372 2.4042211 -0.98371065
4.8041005 3.09375 -0.95261818
6.9252791 4.4597487 -0.91811025
11.644417 7.4987841 -0.77361155
12.470501 8.0307665 0
12.574927 8.0980158 0.83543116
3.7411351 2.4156203 -0.98652452
4.7960501 3.0967703 -0.95176303
6.9090228 4.4610996 -0.91666907
11.624434 7.5058022 -0.77288598
12.460789 8.0458288 0
12.556401 8.1075659 0.83485061
3.7424836 2.4229035 -0.98765135
4.7987633 3.1067443 -0.95304573
6.9101429 4.4736629 -0.91753423
11.606632 7.514194 -0.77230543
12.45324 8.0622931 0
12.531325 8.1128454 0.83383453
3.7352867 2.4246542 -0.98652452
4.7885523 3.1083515 -0.95176303
6.902565 4.4806023 -0.91724622
11.601899 7.5310397 -0.77259541
12.441308 8.0759182 0
12.50844 8.1194954 0.83296394
3.0332501 1.9741607 -0.99850023
3.7344899 2.4305558 -0.98708904
4.7933989 3.1197362 -0.95347494
6.8971462 4.4889393 -0.91724622
11.599326 7.5493064 -0.77303094
12.429362 8.0895271 0
12.489909 8.1289339 0.83238339
3.7251647 2.4308994 -0.98539984
4.7874699 3.124119 -0.95304573
6.9133735 4.5114021 -0.92012858
11.59237 7.5647354 -0.77317595
12.439192 8.1173391 0
12.475721 8.1411762 0.83209282
3.7307296 2.4409633 -0.98765135
4.7815456 3.1284974 -0.95261818
6.892765 4.5098381 -0.91811025
11.596263 7.5872703 -0.77404654
12.43155 8.1337862 0
12.446308 8.1434422 0.83078671
3.7356241 2.4473901 -0.9893384
4.7903891 3.1384182 -0.95475757
6.8943701 4.516839 -0.9186874
11.593857 7.5957026 -0.77419209
12.430992 8.1441507 0
12.43052 8.1438417 0.83006114
3.7369158 2.4546947 -0.99046528
4.7930322 3.1484334 -0.95604187
6.8867478 4.5237474 -0.91839939
11.604215 7.6225443 -0.77549821
12.434189 8.1677361 0
12.411983 8.1531496 0.82948059
3.7254589 2.453618 -0.98821372
4.7892241 3.1542227 -0.95604187
6.8899169 4.5377564 -0.91955256
11.636221 7.6637115 -0.7782554
12.441699 8.1942053 0
12.395611 8.1638517 0.82904506
3.7330911 2.4651172 -0.99102759
4.7875495 3.1614203 -0.95646948
6.8801079 4.5432248 -0.91897541
11.646465 7.6906509 -0.77956152
12.440475 8.2149696 0
12.390079 8.1816902 0.82933563
3.7322264 2.4710274 -0.99158996
4.7794495 3.1643713 -0.95561433
6.8853946 4.5586729 -0.92041659
11.67183 7.7276697 -0.78188378
12.4479 8.2414885 0
12.373681 8.1923504 0.82890004
3.727123 2.4741313 -0.99102759
4.7820325 3.1743991 -0.95689702
6.8691087 4.5598378 -0.91897541
11.699286 7.7661963 -0.78435099
12.450938 8.2651567 0
12.37027 8.2116079 0.82933563
3.7220175 2.4772265 -0.99046528
4.7824712 3.1830225 -0.95775378
6.8722067 4.5738668 -0.92012858
11.722342 7.8019238 -0.78652823
12.460439 8.2931719 0
12.353848 8.2222281 0.82890004
3.721133 2.4831312 -0.99102759
4.7743473 3.1859462 -0.95689702
6.8602185 4.5778589 -0.91926342
11.730198 7.8276205 -0.78768933
12.46989 8.3212214 0
12.343904 8.2371502 0.82890004
3.7244675 2.4918656 -0.99271679
4.7726336 3.1931443 -0.95732623
6.8525348 4.5847077 -0.91897541
11.727203 7.8461194 -0.78812438
12.459826 8.3362827 0
12.336099 8.2535028 0.82904506
3.7214539 2.4963641 -0.99271679
4.766634 3.1974747 -0.95689702
6.8491359 4.5944242 -0.91926342
11.741454 7.8762078 -0.78972101
12.462716 8.360033 0
12.326118 8.2684021 0.82904506
3.724762 2.5051143 -0.99440598
4.7755518 3.2118304 -0.95946562
6.856461 4.6113601 -0.92099375
11.753486 7.9048882 -0.79117215
12.456921 8.3779879 0
12.322588 8.2876415 0.82948059
3.7196195 2.5081885 -0.99384147
4.7674065 3.2147253 -0.95860887
6.850884 4.6196413 -0.92099375
11.769778 7.9365168 -0.79291379
16.045759 10.819867 0
12.319031 8.3068848 0.82991618
3.7102773 2.5084159 -0.99215448
4.755012 3.2147322 -0.95689702
6.8474379 4.6293631 -0.92128175
11.77525 7.9609213 -0.79392993
16.002493 10.818844 0
12.311134 8.3232174 0.83006114
3.7135475 2.5171702 -0.99384147
4.7575011 3.2247977 -0.95818132
6.8375611 4.6347342 -0.92070574
11.793583 7.9940958 -0.7958166
16.049721 10.879052 0
12.305367 8.3410006 0.83035117
3.7063041 2.5188017 -0.99271679
4.7599726 3.234874 -0.95946562
6.8319559 4.6429925 -0.92070574
11.841935 8.0477705 -0.79973495
16.060242 10.91453 0
12.310325 8.3660879 0.83136725
3.7011602 2.5218489 -0.99215448
4.7602992 3.2435114 -0.96032077
6.8306117 4.6541543 -0.92128175
11.991102 8.1703434 -0.81047499
16.072851 10.951512 0
12.304498 8.3838797 0.83165729
3.7043986 2.5306149 -0.99384147
4.7542591 3.2478142 -0.95989317
6.8292503 4.6653194 -0.92185777
12.105654 8.2698298 -0.81889224
16.068203 10.976797 0
12.305093 8.4060745 0.83238339
3.6971495 2.5322201 -0.99271679
4.7566872 3.2579095 -0.96117753
6.8300123 4.6779537 -0.92272294
12.147104 8.3196917 -0.8223756
16.089273 11.019729 0
12.297069 8.4224033 0.83252841
3.6982722 2.5395596 -0.99384147
4.7506328 3.262203 -0.96074992
6.8200946 4.6832776 -0.92214692
12.152039 8.3446608 -0.82339174
16.131721 11.077462 0
12.29331 8.4416704 0.83296394
3.7014816 2.5483503 -0.99553066
4.7445669 3.2664809 -0.96032077
6.8101659 4.6885786 -0.92156976
12.159069 8.3711252 -0.82455283
16.171913 11.13384 0
12.289516 8.4609346 0.83339894
3.6963105 2.551379 -0.99496835
4.7406168 3.2722116 -0.96032077
6.806622 4.6982722 -0.92185777
12.163908 8.3961401 -0.82556838
16.21414 11.191813 0
20.755791 14.326689 1.4087023
3.6973996 2.5587325 -0.99609303
4.7451029 3.2837803 -0.96203262
6.8115807 4.7138567 -0.92330009
12.166578 8.4197063 -0.8264395
16.217716 11.223238 0
20.725641 14.342882 1.4078312
3.6943052 2.5631981 -0.99609303
4.7453542 3.2924411 -0.96288937
6.7973795 4.716186 -0.92214692
12.167068 8.4418058 -0.82716507
16.234083 11.263598 0
20.704029 14.364955 1.4075412
3.6906712 2.5639813 -0.99553066
4.7433639 3.2953074 -0.96288937
6.8008957 4.7247148 -0.92301095
12.176907 8.4595346 -0.82818115
16.259329 11.295673 0
20.684679 14.370049 1.4068156
3.6896536 2.5698898 -0.99609303
4.7309527 3.2951677 -0.96117753
6.7994304 4.735888 -0.9235881
12.183734 8.4861221 -0.82934231
16.275572 11.336138 0
20.648113 14.381668 1.4055095
3.690716 2.5772583 -0.99721986
4.733284 3.3052924 -0.96246183
6.7937031 4.7441006 -0.9235881
12.188378 8.5112476 -0.83035785
16.317335 11.394533 0
20.62007 14.39917 1.404784
3.6875994 2.5817161 -0.99721986
4.7313876 3.31248 -0.96288937
6.7921996 4.75527 -0.92416412
12.197241 8.5393791 -0.83166397
16.329138 11.432152 0
20.583492 14.410658 1.4034772
3.6823995 2.5847116 -0.99665755
4.7294807 3.3196681 -0.96331692
6.7864485 4.7634735 -0.92416412
12.201803 8.5645628 -0.83268011
16.338737 11.468317 0
20.551184 14.425073 1.4024616
3.6875854 2.5950081 -0.99890906
4.7275634 3.3268561 -0.96374446
6.7785749 4.7701831 -0.92387611
12.204191 8.5882692 -0.83355063
16.361048 11.513511 0
20.525238 14.443913 1.4018811
3.6823649 2.5979929 -0.99834454
4.725636 3.3340445 -0.96417207
6.7770371 4.7813549 -0.92445326
12.215042 8.6179924 -0.8350023
16.364138 11.545274 0
20.497158 14.461215 1.4011556
3.6792231 2.6024406 -0.99834454
4.7216039 3.339752 -0.96417207
6.7691369 4.7880425 -0.92416412
12.217344 8.6417456 -0.83587289
16.386293 11.590586 0
20.473303 14.481468 1.40072
4.7175651 3.3454547 -0.96417207
6.7717857 4.8022027 -0.92531729
12.217489 8.6640158 -0.83659846
16.408363 11.635968 0
20.432472 14.489659 1.3991233
4.7197976 3.3556163 -0.96545637
6.7638726 4.8088841 -0.92502928
12.221838 8.6893129 -0.83761454
16.434593 11.68444 0
20.414949 14.514338 1.3991233
3.6718404 2.6172392 -0.99890906
4.7157397 3.3613169 -0.96545637
6.7622733 4.8200588 -0.92560643
12.247298 8.7297125 -0.84008175
16.4692 11.739028 0
20.384705 14.529948 1.3982527
4.7137613 3.3685036 -0.96588391
6.7585468 4.8297286 -0.92589444
12.266335 8.7656527 -0.84211344
16.486767 11.781617 0
20.356565 14.547016 1.3975272
4.7180347 3.380177 -0.96759576
6.7484965 4.8348761 -0.92531729
12.281082 8.7986279 -0.84385514
16.504246 11.824261 0
20.322075 14.559496 1.3963661
3.662329 2.6305323 -0.99890906
4.7097812 3.3828831 -0.96674067
6.7447567 4.8445401 -0.92560643
12.299984 8.8346796 -0.84588683
16.525879 11.870003 0
20.300241 14.581006 1.3960756
4.70152 3.3855684 -0.96588391
6.7493906 4.8602419 -0.92704761
12.323038 8.8738298 -0.84820902
16.519972 11.896046 0
20.267855 14.594899 1.3950599
4.7015924 3.3942549 -0.96674067
6.7414098 4.8668752 -0.92675847
12.339693 8.9084845 -0.85009569
16.520359 11.926662 0
20.233351 14.607211 1.3938988
4.7037282 3.4044502 -0.96802497
6.7439055 4.8810835 -0.92791164
12.362599 8.9477644 -0.85241795
16.55864 11.984761 0
20.200949 14.620982 1.3928827
4.6996112 3.4101312 -0.96802497
6.7401018 4.8907518 -0.92820078
12.374915 8.9794846 -0.85401464
16.598907 12.044497 0
20.172754 14.637752 1.3921572
4.6975613 3.417316 -0.96845251
6.7341876 4.8988924 -0.92820078
12.37456 9.0020714 -0.85474014
16.613802 12.085976 0
20.148746 14.657528 1.3917216
4.701725 3.4290402 -0.97016442
6.721992 4.902452 -0.92733562
12.369974 9.0216122 -0.85517573
16.613907 12.116777 0
20.114225 14.669614 1.3905605
4.6913595 3.430172 -0.96888012
6.7285872 4.9197273 -0.92906481
12.373741 9.0472841 -0.85619128
16.65597 12.178313 0
20.090199 14.689311 1.3901255
4.6996298 3.444941 -0.97144705
6.7226377 4.9278541 -0.92906481
12.377472 9.0729837 -0.85720742
16.670633 12.219973 0
20.059856 14.704355 1.3892545
4.687202 3.4401865 -0.96930766
6.7217503 4.9334493 -0.92935395
12.386654 9.0912237 -0.8582235
16.694712 12.253136 0
20.046783 14.7134 1.3889644
4.6789107 3.4428077 -0.96845251
6.7157841 4.9415679 -0.92935395
12.386123 9.1138821 -0.85894907
16.728109 12.308776 0
20.014339 14.72683 1.3879483
4.6850743 3.4560769 -0.97059196
6.7202134 4.9573545 -0.93079513
12.385554 9.1365528 -0.85967463
16.796988 12.390771 0
19.988165 14.744833 1.3873677
4.6891508 3.4678409 -0.97230381
6.7204595 4.9700861 -0.93166029
12.393307 9.1654158 -0.86098075
16.830124 12.446645 0
19.953621 14.756614 1.3862066
4.6787686 3.4689162 -0.97101951
6.7144489 4.9782033 -0.93166029
12.394743 9.1896667 -0.86185127
16.867336 12.50572 0
19.923256 14.77143 1.385336
4.6807566 3.4791627 -0.97230381
6.7146506 4.9909368 -0.93252432
12.398231 9.2154884 -0.86286741
16.910696 12.569562 0
19.901218 14.79239 1.3850455
4.6765494 3.4848158 -0.97230381
6.706543 4.9975028 -0.93223631
12.397502 9.238224 -0.86359298
16.933056 12.617974 0
19.868752 14.805561 1.38403
4.6723351 3.490464 -0.97230381
6.7004995 5.0056024 -0.93223631
12.394657 9.2594175 -0.86417353
16.961578 12.671132 0
19.838352 14.820225 1.3831588
4.670167 3.4976444 -0.97273141
6.7027273 5.019897 -0.93338948
12.408418 9.2930794 -0.86591524
16.967091 12.707222 0
19.807957 14.834842 1.3822882
4.6740108 3.5181859 -0.97530001
6.6926413 5.0376344 -0.93367749
12.429519 9.3558531 -0.868963
17.011179 12.804525 0
19.751284 14.867037 1.3808366
4.6554103 3.5130055 -0.97230381
6.7030663 5.0581813 -0.93598384
12.422358 9.3739986 -0.86925358
17.004004 12.831341 0
19.722937 14.883067 1.3801111
4.6573062 3.5232759 -0.97358817
6.6866379 5.058476 -0.93454266
12.419311 9.3952723 -0.86983413
16.984341 12.848741 0
19.692509 14.897484 1.3792405
4.6550889 3.5304506 -0.97401571
6.680521 5.0665517 -0.93454266
12.420367 9.4196901 -0.87070465
16.96258 12.864534 0
19.65793 14.908707 1.3780794
4.6508198 3.5360727 -0.97401571
6.6764512 5.0761843 -0.93483067
12.41311 9.4378328 -0.87099469
16.934589 12.875566 0
19.633696 14.927729 1.3776438
4.6506228 3.5447991 -0.9748708
6.6785407 5.0905194 -0.93598384
12.405834 9.4559784 -0.87128526
16.904537 12.88498 0
19.611515 14.948294 1.3773538
4.6381774 3.5441813 -0.97315896
6.670332 5.0970163 -0.93569583
12.400596 9.4756956 -0.87172079
16.872412 12.892756 0
19.57692 14.959358 1.3761927
4.6420431 3.5560274 -0.9748708
6.6682711 5.1082153 -0.93627185
12.397388 9.4969931 -0.87230134
16.863022 12.917883 0
19.546457 14.973524 1.3753221
4.6377425 3.5616338 -0.9748708
6.6682496 5.1209965 -0.93713701
12.37766 9.5056353 -0.87172079
16.865974 12.952514 0
19.522167 14.992382 1.3748866
4.6354756 3.5688057 -0.97530001
6.6743498 5.138514 -0.9388662
12.382628 9.5332594 -0.87288135
16.887426 13.001458 0
19.49168 15.006446 1.3740155
4.6311603 3.574404 -0.97530001
6.6579003 5.1386747 -0.93742502
12.373163 9.5498066 -0.87302691
16.912909 13.053656 0
19.469423 15.026814 1.3737254
4.6268377 3.5799973 -0.97530001
6.6537304 5.1482973 -0.93771303
12.361615 9.5647507 -0.87302691
16.940346 13.107526 0
19.438917 15.040785 1.3728544
4.6306224 3.5918789 -0.97701186
6.6577291 5.1642642 -0.93915534
12.364416 9.5908241 -0.87404245
16.95739 13.153501 0
19.398149 15.046747 1.3712583
4.6284513 3.5946758 -0.97701186
6.6546078 5.1682854 -0.93915534
12.362727 9.6014833 -0.87433302
17.004938 13.206845 0
19.387005 15.056872 1.3711132
4.6241045 3.6002657 -0.97701186
6.6524358 5.1794972 -0.93973136
12.365463 9.6275835 -0.87534857
17.017714 13.249763 0
19.358541 15.0723 1.3703871
4.619751 3.6058505 -0.97701186
6.6584101 5.1970835 -0.94146168
12.370208 9.6553078 -0.87650967
17.044771 13.303942 0
19.338268 15.094083 1.3702421
4.6234775 3.6177576 -0.97872376
6.6561956 5.2083097 -0.9420377
12.362629 9.6734533 -0.87680024
17.075827 13.361416 0
19.299557 15.101429 1.368791
4.6211205 3.6249244 -0.97915131
6.6560049 5.2211394 -0.94290286
12.377508 9.7092314 -0.8786869
17.100616 13.414157 0
19.279253 15.123136 1.368646
4.6086655 3.6241581 -0.97743946
6.6496911 5.229178 -0.94290286
12.388237 9.7418499 -0.88028359
17.102804 13.449287 0
