# .PCD v0.7 - Point Cloud Data file format
VERSION 0.7
FIELDS x y z
SIZE 4 4 4
TYPE F F F
COUNT 1 1 1
WIDTH 1570
HEIGHT 1
VIEWPOINT 0 0 0 1 0 0 0
POINTS 1570
DATA ascii
-1.1588905 5.4956722 -0.93635625
-1.6761144 7.9484439 -0.9054265
-2.7290897 12.941847 -0.73877972
-2.730267 12.947431 0
-2.3510964 11.149333 0.63645488
-0.74478287 3.5108805 -0.99019694
-0.92781687 4.3736968 -0.99046528
-1.172987 5.5294199 -0.94234693
-1.6835704 7.9362922 -0.90427333
-2.7495778 12.961414 -0.74008584
-2.7496884 12.961936 0
-2.3645666 11.146484 0.63645488
-0.74274158 3.4805357 -0.98189098
-0.92567801 4.3377876 -0.98258597
-1.1743109 5.5028977 -0.93806809
-1.6926193 7.931725 -0.90398532
-2.7690337 12.975874 -0.74110198
-2.7626333 12.945881 0
-2.3818297 11.16141 0.63747096
-0.75379115 3.5115209 -0.99088842
-0.9314515 4.339148 -0.98314828
-1.1863461 5.5265694 -0.94234693
-1.6973169 7.9069166 -0.90139097
-2.786345 12.980133 -0.74153697
-2.7853742 12.97561 0
-2.3953145 11.158525 0.63747096
-0.75750458 3.5081577 -0.99019694
-0.93615806 4.3355384 -0.98258597
-1.1924816 5.522625 -0.94191939
-1.7079604 7.9099116 -0.90196699
-2.8003833 12.969144 -0.74110198
-2.8021502 12.977327 0
-0 0 0
-0.76014501 3.4998827 -0.98811978
-0.94031638 4.329433 -0.98145908
-1.1969744 5.5111456 -0.94020754
-1.7164198 7.902792 -0.90139097
-2.8199108 12.983519 -0.74211752
-2.8216937 12.991727 0
-2.4244792 11.16286 0.63805151
-0.75955504 3.4769053 -0.98189098
-0.94988531 4.3481526 -0.98596215
-1.2091124 5.5347791 -0.94448799
-1.7254139 7.8981781 -0.90110183
-2.8411436 13.005492 -0.7435692
-2.8379445 12.990848 0
-2.4401839 11.170076 0.63863212
-0.76429349 3.4784329 -0.98258245
-0.95404893 4.3420429 -0.98483747
-1.214146 5.5257902 -0.94320369
-1.7355127 7.8986211 -0.90139097
-2.8579702 13.007121 -0.74385917
-2.8575494 13.005205 0
-2.4536788 11.16712 0.63863212
-0.96258342 4.3557687 -0.98821372
-1.2213753 5.526823 -0.94363123
-1.7467282 7.9040875 -0.902255
-2.8770502 13.018887 -0.74473029
-2.8715763 12.994117 0
-2.468853 11.171762 0.63906765
-0.76779902 3.4545372 -0.9763537
-0.9601289 4.3198819 -0.9803344
-1.228609 5.5278468 -0.94405884
-1.751788 7.881772 -0.89994866
-2.8950338 13.025547 -0.74531084
-2.8917923 13.010962 0
-2.4840398 11.176373 0.63950264
-0.78018004 3.490325 -0.98673409
-0.96978217 4.3385563 -0.98483747
-1.2431283 5.5614367 -0.95005119
-1.76244 7.8847027 -0.90052581
-2.915303 13.042316 -0.74647141
-2.9137566 13.035398 0
-2.4986773 11.178439 0.63979322
-0.78714961 3.5016253 -0.99019694
-0.97558051 4.3398576 -0.98539984
-1.2470306 5.5474005 -0.94791013
-1.771399 7.8800464 -0.9002378
-2.9322009 13.043859 -0.74676198
-2.9312181 13.039488 0
-2.51617 11.193151 0.64080876
-0.79303801 3.5080056 -0.99227142
-0.9808237 4.338676 -0.98539984
-1.2554314 5.5534034 -0.94919443
-1.7786379 7.8678093 -0.89908463
-2.9473875 13.037775 -0.74661696
-2.9463964 13.033391 0
-2.528548 11.185039 0.64051878
-0.79116023 3.4801419 -0.98465961
-0.98493779 4.3325276 -0.98427296
-1.2621406 5.5518827 -0.94919443
-1.7904369 7.8757429 -0.9002378
-2.9654429 13.044339 -0.74719751
-2.9661815 13.047587 0
-2.5466692 11.202245 0.64167988
-0.79424542 3.4742875 -0.98327398
-0.9845106 4.3065691 -0.97864521
-1.2705649 5.5578632 -0.95047873
-1.7987978 7.868526 -0.89966065
-2.9754102 13.01541 -0.74574584
-2.9790454 13.031311 0
-2.5625196 11.209292 0.64226043
-0.79900438 3.4757679 -0.98396546
-0.98971349 4.3053761 -0.97864521
-1.2755537 5.5488162 -0.94919443
-1.8059863 7.8562636 -0.89850748
-2.9882245 12.999146 -0.74502033
-2.9930391 13.020091 0
-2.5766435 11.208717 0.64240545
-0.80489916 3.4821351 -0.98604262
-0.99777567 4.3165531 -0.98145908
-1.2805225 5.5397654 -0.94791013
-1.8183897 7.8666735 -0.89994866
-2.9986629 12.972743 -0.74371421
-3.0052538 13.001256 0
-2.5919414 11.213194 0.64284098
-0.8125149 3.4958265 -0.99019694
-1.0058663 4.3277164 -0.98427296
-1.2889593 5.5457177 -0.94919443
-1.8255538 7.854403 -0.89879662
-3.0202174 12.994415 -0.74516529
-3.0186043 12.987475 0
-2.6090169 11.225235 0.64371157
-0.81045771 3.4679675 -0.98258245
-1.0070488 4.3091855 -0.9803344
-1.2968287 5.5491605 -0.95005119
-1.835043 7.8521914 -0.89879662
-2.760376 11.811712 -0.67753392
-3.029557 12.963545 0
-2.6237621 11.227139 0.64400214
-0.69094366 2.9405255 -0.99598938
-0.81694293 3.4767547 -0.98535115
-1.012255 4.3079653 -0.9803344
-1.3017707 5.5400901 -0.94876689
-1.843345 7.8449278 -0.89821947
-2.7776175 11.821014 -0.67825949
-3.0416458 12.944669 0
-2.63673 11.221424 0.64385653
-0.81825984 3.4635596 -0.98189098
-1.0157063 4.2993183 -0.97864521
-1.3084638 5.5385127 -0.94876689
-1.8540132 7.847734 -0.89879662
-2.0087047 8.5025167 -0.48799154
-3.0501065 12.910601 0
-2.6538727 11.233408 0.64472765
-0.83827949 3.5103657 -0.99573153
-1.0260931 4.2968512 -0.97864521
-1.3170744 5.5153599 -0.94534314
-1.8675641 7.8205814 -0.89620113
-2.0232117 8.4723692 -0.48654041
-3.0734398 12.870287 0
-2.6840289 11.239596 0.64545321
-0.82846689 3.4508128 -0.97912234
-1.0330644 4.3030229 -0.9803344
-1.3213406 5.5037799 -0.94363123
-1.8806363 7.8334141 -0.89793146
-2.0340533 8.4724426 -0.48668543
-3.0859492 12.853904 0
-2.6976078 11.236345 0.64545321
-0.83499032 3.4595642 -0.98189098
-1.0376651 4.299294 -0.97976989
-1.3328081 5.5221424 -0.94705498
-1.8846391 7.8085098 -0.8953371
-2.0442894 8.4699783 -0.48668543
-3.0959837 12.827399 0
-2.7130122 11.240657 0.64588881
-0.8397609 3.4609885 -0.98258245
-1.0428592 4.2980371 -0.97976989
-1.3352419 5.5030627 -0.94405884
-1.8946822 7.8087382 -0.89562511
-2.0502326 8.4498234 -0.48566931
-3.1065717 12.803416 0
-2.7284286 11.244939 0.6463238
-0.83947963 3.4507298 -0.97981381
-1.0436555 4.2900066 -0.9780829
-1.3385664 5.502255 -0.94405884
-1.8993995 7.8075919 -0.89562511
-2.0688512 8.5041342 -0.48886266
-3.1075411 12.773728 0
-2.7370651 11.250866 0.64675933
-0.84543705 3.4570262 -0.98189098
-1.0542703 4.3109536 -0.98314828
-1.3488739 5.5156002 -0.94662744
-1.9063743 7.7952414 -0.89447194
-2.0988758 8.5823879 -0.49350655
-3.1198826 12.757326 0
-2.7525101 11.255125 0.64719492
-0.85500324 3.477926 -0.98811978
-1.0521994 4.2800674 -0.9763937
-1.3524739 5.5015044 -0.94448799
-1.9188787 7.8054886 -0.89591312
-2.1464615 8.7312355 -0.50221437
-3.1297016 12.730795 0
-2.7679691 11.259363 0.64763045
-0.85679758 3.4671483 -0.98535115
-1.0567613 4.2763286 -0.97583133
-1.3572723 5.4923873 -0.94320369
-1.9233446 7.7830768 -0.89360678
-2.1588807 8.7362051 -0.5026499
-3.1419609 12.714374 0
-2.7840655 11.266101 0.648211
-0.86522049 3.4831562 -0.99019694
-1.0649898 4.2873759 -0.97864521
-1.3651443 5.4957213 -0.94405884
-1.9339958 7.7857723 -0.89418393
-2.1800838 8.7764587 -0.50511718
-3.1535583 12.695418 0
-2.7976763 11.262729 0.648211
-0.86578095 3.4674993 -0.98604262
-1.0720166 4.2934842 -0.9803344
-1.37365 5.5015421 -0.94534314
-1.9427761 7.7809224 -0.89389592
-2.1730616 8.703229 -0.50105327
-3.1625903 12.666344 0
-2.8131697 11.266895 0.648646
-0.8705802 3.4688816 -0.98673409
-1.0765834 4.2897143 -0.97976989
-1.3784213 5.4924064 -0.94405884
-1.9528054 7.7810755 -0.89418393
-2.1785185 8.6804438 -0.49989268
-3.1747258 12.649895 0
-2.8286796 11.271051 0.64908159
-0.87231654 3.4580967 -0.98396546
-1.0792823 4.2785649 -0.97752053
-1.3863137 5.4957194 -0.94491559
-1.9596753 7.7686787 -0.89303076
-2.1705749 8.6047421 -0.49568379
-3.1836443 12.62082 0
-2.8442037 11.275187 0.64951712
-0.87526238 3.4521813 -0.98258245
-1.0838251 4.2747874 -0.97695601
-1.3942138 5.4990125 -0.94577068
-1.9716035 7.7763338 -0.89418393
-2.1739454 8.5744038 -0.49408713
-3.1988916 12.616963 0
-2.8591013 11.276774 0.64980716
-0.87881416 3.4486926 -0.98189098
-1.0877359 4.2685552 -0.97583133
-1.4027596 5.5047889 -0.94705498
-1.9790815 7.7664242 -0.89331877
-2.177248 8.5440807 -0.49249101
-3.1999974 12.557612 0
-2.8759327 11.285899 0.65053266
-0.74084163 2.8926415 -0.98457831
-0.88049084 3.4379067 -0.97912234
-1.0954144 4.2770834 -0.9780829
-1.4030422 5.4782267 -0.94277614
-1.9865385 7.7565079 -0.89245361
-2.1869237 8.5389185 -0.49234545
-2.1666186 8.4596376 0
-2.8895674 11.282415 0.65053266
-0.88777047 3.4489858 -0.98258245
-1.1005816 4.2757568 -0.9780829
-1.4128594 5.488955 -0.94491559
-1.9959093 7.7541022 -0.89245361
-2.1965926 8.5337563 -0.49220043
-2.1885149 8.5023746 0
-2.903198 11.278915 0.65053266
-0.88816863 3.4333425 -0.97843081
-1.1032019 4.2645841 -0.97583133
-1.4188485 5.4847612 -0.94448799
-2.002686 7.7416687 -0.89130044
-2.2075524 8.5336094 -0.49234545
-3.1203592 12.062194 0
-2.9226804 11.298038 0.65183878
-0.76127261 2.9282105 -0.99761778
-0.88726658 3.4128423 -0.97289354
-1.1057967 4.2534113 -0.97357982
-1.4261199 5.4855247 -0.94491559
-2.0120389 7.739243 -0.89130044
-2.2185178 8.5334578 -0.49249101
-3.1329691 12.050865 0
-2.9350233 11.289474 0.6515488
-0.75481367 2.8890271 -0.98457831
-0.89582705 3.4287517 -0.97773665
-1.1102936 4.2496161 -0.97301745
-1.4301515 5.4738626 -0.94320369
-2.0226977 7.741816 -0.89187759
-2.2281685 8.5282497 -0.49234545
-3.1416054 12.024402 0
-2.9539173 11.306031 0.6527099
-0.90251786 3.4373729 -0.98050535
-1.1231683 4.2777534 -0.97976989
-1.4341569 5.4621992 -0.94149184
-2.032707 7.7418656 -0.8921656
-2.2437506 8.5456572 -0.49350655
-3.160099 12.035706 0
-2.967576 11.302454 0.6527099
-0.76368541 2.8943665 -0.98702401
-0.90091079 3.4144504 -0.97427654
-1.1212076 4.2493749 -0.97357982
-1.4374819 5.4480538 -0.93935239
-2.0400796 7.7318988 -0.89130044
-2.2573886 8.5554991 -0.49423212
-3.1832702 12.064589 0
-2.9845448 11.311419 0.65343547
-0.77098161 2.9077713 -0.99191225
-0.90632302 3.4182141 -0.97566217
-1.1256907 4.2455635 -0.97301745
-1.444721 5.448792 -0.93977994
-2.0494206 7.7294278 -0.89130044
-2.2837076 8.6130457 -0.49771547
-3.1958439 12.053185 0
-3.000874 11.317852 0.65401602
-0.77131343 2.8948984 -0.98783821
-0.91174316 3.4219601 -0.97704518
-1.1393235 4.2761159 -0.9803344
-1.4532871 5.4544864 -0.9410643
-2.0587587 7.7269459 -0.89130044
-2.3181968 8.7006702 -0.50294048
-3.2063866 12.03423 0
-3.0165548 11.321753 0.65445161
-0.91717619 3.4257076 -0.97843081
-1.1379168 4.2501869 -0.9747045
-1.4585477 5.447762 -0.94020754
-2.0647497 7.7119627 -0.88985926
-2.3327389 8.7129183 -0.50381106
-3.2263098 12.050459 0
-3.0329208 11.328139 0.65503216
-0.77830702 2.8930261 -0.98783821
-0.91675186 3.4076359 -0.97358507
-1.1496538 4.2733502 -0.9803344
-1.4651291 5.4459958 -0.94020754
-2.0767543 7.7194529 -0.89101243
-2.358115 8.7652922 -0.50700384
-3.242219 12.051573 0
-3.0472808 11.326973 0.65517718
-0.92021465 3.4041064 -0.97289354
-1.1455323 4.2376132 -0.97245294
-1.4690289 5.434309 -0.93849564
-2.0833805 7.7069507 -0.88985926
-2.3795538 8.8025703 -0.50932604
-0 0 0
-3.0643549 11.335823 0.65590268
-0.77817136 2.8649065 -0.97887594
-0.9170928 3.376358 -0.9652791
-1.1506518 4.2362261 -0.97245294
-1.476269 5.4350142 -0.93892485
-2.0893021 7.6919498 -0.88841808
-2.3963177 8.8222551 -0.51063216
-0 0 0
-3.0787303 11.334617 0.6560477
-0.79659784 2.9187984 -0.99761778
-0.92513376 3.3897643 -0.96943074
-1.1584456 4.2446375 -0.9747045
-1.481482 5.4282689 -0.93806809
-2.0979145 7.6869268 -0.88813007
-2.4056089 8.8143444 -0.51034218
-3.2899961 12.05481 0
-3.0951602 11.340916 0.65662825
-0.91990149 3.3625934 -0.96181893
-1.1569881 4.2292366 -0.97132826
-1.4800189 5.410038 -0.93507189
-2.099828 7.6756787 -0.8869769
-2.4068184 8.7978468 -0.50947106
-3.2972784 12.05282 0
-3.103384 11.344061 0.65691882
-0.93194288 3.3905079 -0.9701249
-1.1647913 4.2376356 -0.97357982
-1.4892763 5.4181466 -0.93678379
-2.1091011 7.6731358 -0.8869769
-2.4140043 8.7824068 -0.50874549
-3.3111477 12.04631 0
-3.1225984 11.360348 0.65807992
-0.79685849 2.8854096 -0.98702401
-0.93002903 3.3676176 -0.9638961
-1.1685567 4.2313218 -0.97245294
-1.4978727 5.423769 -0.93806809
-2.1163049 7.6630998 -0.88611174
-2.410089 8.7268877 -0.50569773
-3.32778 12.049829 0
-3.138396 11.364073 0.65851492
-0.93476754 3.3689065 -0.96458763
-1.1729898 4.2274609 -0.97189063
-1.5030538 5.4170127 -0.937213
-2.1290197 7.6729965 -0.88755292
-2.403264 8.661375 -0.50206935
-3.3430326 12.048305 0
-3.1535158 11.365285 0.65880549
-0.81113046 2.909667 -0.99598938
-0.92671251 3.32428 -0.95213002
-1.1726385 4.20646 -0.9673875
-1.5102868 5.4176631 -0.93764055
-2.1362078 7.662951 -0.88668889
-2.4095428 8.6434517 -0.50119883
-3.358289 12.046771 0
-3.1686404 11.366467 0.65909553
-0.80797857 2.8848798 -0.98783821
-0.93613881 3.3424749 -0.95766467
-1.1811461 4.2172713 -0.97020143
-1.5175235 5.4183035 -0.93806809
-2.1405818 7.6429272 -0.88467056
-2.419282 8.6380243 -0.50105327
-3.3763516 12.055232 0
-3.1865783 11.377648 0.65996659
-0.8067795 2.8672538 -0.98213577
-0.9422161 3.3485887 -0.95974183
-1.1903716 4.2305212 -0.97357982
-1.5205934 5.4041128 -0.93592864
-2.1533175 7.652782 -0.88611174
-2.4353483 8.6551056 -0.50221437
-3.3909154 12.051144 0
-3.2024331 11.381287 0.66040164
-0.81898308 2.8971939 -0.99272954
-0.93670869 3.3136542 -0.95005286
-1.1940988 4.224185 -0.97245294
-1.5320109 5.4195657 -0.93892485
-2.1625626 7.6501746 -0.88611174
-2.4479256 8.6596603 -0.5026499
-3.4054744 12.047037 0
-3.2211313 11.394914 0.66141772
-0.94139659 3.3149309 -0.95074439
-1.1985086 4.2202969 -0.97189063
-1.5336486 5.4004226 -0.93592864
-2.1718049 7.6475558 -0.88611174
-2.4534175 8.6391964 -0.50163382
-3.4221592 12.050417 0
-3.233479 11.38602 0.66112775
-0.8246246 2.8904481 -0.99109805
-0.95021993 3.3306808 -0.95559019
-1.2029108 4.2164049 -0.97132826
-1.545807 5.418314 -0.93935239
-2.179626 7.6399565 -0.88553572
-2.4602909 8.6237345 -0.50090826
-3.4381466 12.051283 0
-3.2493711 11.389593 0.66156274
-0.94733047 3.305409 -0.94866723
-1.2024043 4.1954079 -0.96682519
-1.5488173 5.4041061 -0.937213
-2.1895678 7.639801 -0.88582373
-2.4528127 8.5583105 -0.49727991
-3.4534221 12.04962 0
-3.2674274 11.400651 0.66243386
-0.95410013 3.3139052 -0.95143586
-1.2095823 4.2012792 -0.96851438
-1.5532146 5.3948278 -0.93592864
-2.2002273 7.6421161 -0.88639975
-2.4653091 8.5628338 -0.49771547
-3.4730201 12.062946 0
-3.2812006 11.396694 0.66243386
-0.83097798 2.8731987 -0.98620981
-0.96089172 3.3223898 -0.9542045
-1.2146579 4.1998148 -0.96851438
-1.5568792 5.3830829 -0.9342168
-2.2101803 7.6419439 -0.88668889
-2.4705997 8.5423737 -0.49669936
-3.4854236 12.051239 0
-3.2949688 11.392721 0.66243386
-0.83720732 2.8816864 -0.98946971
-0.96630669 3.3260493 -0.95559019
-1.2126415 4.1739392 -0.96288443
-1.5590839 5.3664021 -0.93164819
-2.2150815 7.6243601 -0.88495857
-2.4801955 8.5368891 -0.49655434
-3.5115998 12.087006 0
-3.3080053 11.38623 0.66228831
-0.83861071 2.8735526 -0.98702401
-0.96610647 3.3104248 -0.95143586
-1.2212452 4.1846738 -0.96570051
-1.5713204 5.3842287 -0.93507189
-2.2250164 7.6241589 -0.88524657
-2.4977899 8.558835 -0.49800602
-3.5903592 12.302593 0
-3.3246727 11.392201 0.66286886
-0.96516758 3.2924099 -0.94659275
-1.2227247 4.1709967 -0.96288443
-1.5756607 5.3749428 -0.93378925
-2.2385941 7.6363616 -0.8869769
-2.5073967 8.5533094 -0.49786046
-3.6235242 12.360679 0
-3.3391688 11.390676 0.66301441
-0.97693825 3.3177068 -0.9542045
-1.2227416 4.1524611 -0.95894587
-1.5799781 5.3656454 -0.93250495
-1.2827393 4.356215 -0.50616175
-2.5191991 8.5552635 -0.49815103
-3.6450725 12.378757 0
-3.353663 11.389124 0.66315943
-0.97312123 3.2900677 -0.94659275
-1.2342435 4.1729074 -0.96401131
-1.5908275 5.3784976 -0.93507189
-1.2916721 4.3670702 -0.507604
-2.5280592 8.547225 -0.49786046
-3.6629796 12.384326 0
-3.3718426 11.400009 0.66402996
-0.85952687 2.8931539 -0.99517208
-0.97352427 3.2768674 -0.94313258
-1.2378361 4.1665368 -0.96288443
-1.5914766 5.356885 -0.93164819
-1.2954733 4.3605428 -0.50702685
-2.5383852 8.5441647 -0.49786046
-3.6823864 12.394855 0
-3.3856149 11.395926 0.66402996
-0.85524988 2.8660676 -0.98620981
-0.98250258 3.29251 -0.9479757
-1.2421438 4.1626058 -0.96232212
-1.5964814 5.3500433 -0.93079305
-1.3029608 4.3664122 -0.50789201
-2.5509369 8.548563 -0.49829602
-3.7025704 12.407856 0
-3.4030964 11.404274 0.66475552
-0.86722761 2.8934426 -0.99598938
-0.99656266 3.3249598 -0.95766467
-1.2471726 4.1611018 -0.96232212
-1.6014721 5.3431969 -0.92993796
-1.3052654 4.3549242 -0.50673884
-2.560519 8.5429878 -0.49815103
-3.7205491 12.413344 0
-3.4183674 11.405137 0.6650461
-0.99117887 3.292526 -0.94866723
-1.2565956 4.1741948 -0.96570051
-1.6108843 5.3510809 -0.93164819
-1.3090339 4.3483858 -0.50616175
-2.5790768 8.5672503 -0.49974713
-3.7377939 12.416308 0
-3.4336424 11.40597 0.66533607
-0.86706275 2.8676755 -0.98783821
-0.99298036 3.2841287 -0.94659275
-1.2594315 4.1653743 -0.96401131
-1.618094 5.3515949 -0.93207735
-1.3157858 4.351757 -0.50673884
-2.5916836 8.5715923 -0.50018269
-3.756562 12.424246 0
-3.7587488 12.431479 0.72542077
-0.85688376 2.8216984 -0.9723562
-1.0027797 3.3021307 -0.95213002
-1.2629856 4.1589823 -0.96288443
-1.6245592 5.3496356 -0.93207735
-1.3180368 4.3402648 -0.50558567
-2.6043048 8.5759153 -0.50061828
-3.7768629 12.437122 0
-3.7775445 12.439367 0.72614688
-0.8722589 2.8660994 -0.98783821
-1.0076963 3.3111246 -0.95489866
-1.2625389 4.1484952 -0.96063292
-1.3422942 4.4105587 -0.7686013
-1.321411 4.3419394 -0.50587368
-2.6193197 8.6066542 -0.50250494
-3.7866499 12.44231 0
-3.7895968 12.451993 0.7270174
-0.88583452 2.8981299 -0.99924612
-0.99776238 3.2643175 -0.94174695
-1.2697794 4.1542587 -0.96232212
-1.3483751 4.4113955 -0.76903045
-1.3281699 4.3452916 -0.50645083
-2.6297174 8.6034832 -0.50250494
-3.8039641 12.445194 0
-3.8076782 12.457345 0.72759801
-0.87628126 2.854532 -0.98457831
-1.0061219 3.2774947 -0.94589859
-1.2755431 4.155148 -0.96288443
-1.3650024 4.4465666 -0.77544874
-1.3281054 4.3263731 -0.5044325
-2.6500235 8.6325893 -0.50439161
-3.8266349 12.465464 0
-3.8196774 12.442799 0.7270174
-0.88118756 2.8581994 -0.98620981
-1.0071278 3.2666962 -0.94313258
-1.279815 4.1511784 -0.96232212
-1.3658378 4.4302001 -0.77288175
-1.3340933 4.3272343 -0.50472051
-2.6543279 8.6095161 -0.50323051
-3.8439951 12.468294 0
-3.8377714 12.448107 0.72759801
-0.88537079 2.8594913 -0.98702401
-1.0140394 3.2750537 -0.94589859
-1.2833283 4.1447792 -0.96119744
-1.3711898 4.4285464 -0.77288175
-1.3370281 4.3182139 -0.50385648
-2.6593482 8.5889254 -0.50221437
-3.8644438 12.481035 0
-3.859726 12.465797 0.72890413
-0.89542955 2.8796585 -0.99435794
-1.0261908 3.3001802 -0.95351303
-1.2928609 4.1577783 -0.96457362
-1.3727294 4.4146323 -0.77074236
-1.339173 4.306716 -0.50270331
-2.6650965 8.5708227 -0.50134379
-3.8802969 12.478848 0
-3.8747857 12.461125 0.72890413
-0.87091386 2.7889276 -0.96339083
-1.0174655 3.25823 -0.94174695
-1.2925813 4.1392331 -0.96063292
-1.3795916 4.4178662 -0.77159745
-1.3436027 4.3026185 -0.50241423
-2.670805 8.5527191 -0.50047326
-3.8976974 12.481597 0
-3.8944855 12.471312 0.72977465
-0.89942759 2.8680527 -0.99109805
-1.0221517 3.2593896 -0.94243842
-1.3029048 4.1546421 -0.96457362
-1.3833939 4.4113021 -0.77074236
-1.3503499 4.305933 -0.50299132
-0 0 -0
-3.9190061 12.496744 0
-3.911885 12.474037 0.73021024
-0 0 -0
-1.042667 3.3107915 -0.95766467
-1.2964773 4.1167183 -0.95613199
-1.3894935 4.4120731 -0.7711699
-1.3485601 4.2820969 -0.50039697
-0 0 -0
-3.9372301 12.501928 0
-3.9300768 12.479215 0.73079079
-0.89294225 2.8234572 -0.97643024
-1.0292696 3.2545202 -0.94174695
-1.3167713 4.1635919 -0.9673875
-1.3955969 4.4128366 -0.77159745
-1.3545123 4.282928 -0.50068498
-0 0 -0
-3.9578273 12.514534 0
-3.9490695 12.486842 0.73151636
-0.89784801 2.8270829 -0.97805864
-1.031684 3.2484965 -0.94036394
-1.3102669 4.1256795 -0.95894587
-1.3947117 4.3915734 -0.76817369
-1.3651675 4.2985468 -0.50270331
-1.3774464 4.3372102 -0.25418398
-3.971369 12.504777 0
-3.9657292 12.48702 0.73180687
-0.911461 2.8460872 -0.98539251
-1.0395314 3.2459941 -0.94036394
-1.3225558 4.1297536 -0.96063292
-1.4147155 4.4175277 -0.77330935
-1.3716048 4.2829118 -0.50126106
-1.3887155 4.3363409 -0.25432897
-3.7134657 11.595501 0
-3.7343802 11.660809 0.68391335
-0.91565812 2.8473437 -0.98620981
-1.0465249 3.2542887 -0.94313258
-1.3259906 4.1233191 -0.95950824
-1.4216225 4.4206977 -0.77416444
-1.3799462 4.2911005 -0.50241423
-1.3955467 4.339612 -0.25461954
-3.7362356 11.618252 0
-3.7516494 11.666183 0.68449396
-1.0481428 3.2458575 -0.94105542
-1.3325319 4.1265454 -0.96063292
-1.4316976 4.4336386 -0.77673304
-1.3883095 4.2992754 -0.50356734
-1.4015869 4.3403926 -0.25476453
-3.7438734 11.593916 0
-3.7617481 11.64927 0.6837678
-0.91643757 2.8263137 -0.97969013
-1.0582545 3.2636802 -0.94659275
-1.3351681 4.1176882 -0.95894587
-1.4362627 4.4294658 -0.7763055
-1.3919092 4.2926788 -0.50299132
-1.4044253 4.3312783 -0.25432897
-3.7538669 11.577008 0
-3.7758212 11.644716 0.6837678
-0.90760893 2.7876015 -0.96665066
-1.0575355 3.2480814 -0.94243842
-1.3393537 4.1136489 -0.95838135
-1.4495597 4.4521322 -0.78058434
-1.398695 4.295908 -0.50356734
-1.4032251 4.3098216 -0.2531684
-4.1086512 12.619182 0
-3.7858675 11.627794 0.68304229
-0.93478322 2.8593228 -0.99191225
-1.0567836 3.2324984 -0.93828678
-1.3459039 4.1168623 -0.95950824
-1.4549382 4.4503775 -0.78058434
-1.4014759 4.2868466 -0.50270331
-1.4068153 4.3031783 -0.25287786
-4.1150026 12.587005 0
-3.8015311 11.628156 0.6833328
-0.93592709 2.8511529 -0.98946971
-1.0646001 3.243135 -0.94174695
-1.3484992 4.1079884 -0.95781904
-1.4627172 4.4559355 -0.7818687
-1.4122993 4.3023453 -0.50472051
-1.3982372 4.2595077 -0.25041062
-4.1302085 12.582023 0
-3.8026118 11.584052 0.6810106
-0.93318182 2.8312409 -0.98294997
-1.0763699 3.2656684 -0.94866723
-1.3582357 4.1208396 -0.96119744
-1.4713147 4.4639168 -0.78358054
-1.4207354 4.3104615 -0.50587368
-1.4009421 4.2504091 -0.24997507
-4.1470361 12.581962 0
-4.1525278 12.598623 0.74095029
-0.93970829 2.8394971 -0.98620981
-1.0771621 3.2548387 -0.94589859
-1.3576251 4.1023078 -0.95725667
-1.4823507 4.4791884 -0.78657508
-1.4291933 4.3185635 -0.50702685
-1.3995457 4.2289782 -0.24881396
-4.1638694 12.581879 0
-4.1636634 12.581255 0.74022412
-0.9369036 2.8195956 -0.97969013
-1.0779328 3.2440207 -0.94313258
-1.3641819 4.1054821 -0.95838135
-1.4901911 4.484705 -0.78785938
-1.4393055 4.3315654 -0.50875717
-1.4030174 4.2223568 -0.24852395
-4.1790695 12.576838 0
-4.1780434 12.573751 0.74007916
-0.93014193 2.7879844 -0.96909636
-1.0834383 3.2474709 -0.94451559
-1.3675348 4.0990148 -0.95725667
-1.4956089 4.4829011 -0.78785938
-1.445356 4.3322744 -0.50904518
-1.4146971 4.2403779 -0.24968506
-4.1884999 12.554505 0
-4.1981692 12.583488 0.74095029
-0.92879826 2.7727921 -0.96420497
-1.0865654 3.243783 -0.94382405
-1.3781368 4.1142268 -0.96119744
-1.501839 4.4835224 -0.78828692
-1.448945 4.3256149 -0.50846803
-1.4156939 4.2263484 -0.24895951
-2.930748 8.7493229 0
-4.2174964 12.590723 0.74167579
-0.92820936 2.7599568 -0.96013093
-1.0848852 3.2258201 -0.93897825
-1.3725783 4.0812526 -0.95388043
-1.4851637 4.4160161 -0.77673304
-1.4541707 4.3238611 -0.50846803
-1.4191413 4.2197042 -0.24866895
-2.908134 8.6471052 0
-4.2368479 12.59793 0.74240136
-0.92521793 2.7400994 -0.9536112
-1.0919926 3.2340145 -0.94174695
-1.3815722 4.0916257 -0.9566943
-1.7729894 5.2508354 -0.92394561
-1.4618773 4.3294549 -0.50933319
-1.4259031 4.2229147 -0.24895951
-2.9194119 8.6460485 0
-4.2578864 12.610037 0.7434175
-0.94826108 2.8027556 -0.97561604
-1.0883173 3.216717 -0.93690115
-1.3832304 4.0883856 -0.95613199
-1.7843901 5.2740846 -0.92822605
-1.4595207 4.3138752 -0.507604
-1.422624 4.2048202 -0.2479434
-2.9221351 8.6368942 0
-4.267168 12.61238 0.74370748
-0.9484672 2.7922466 -0.9723562
-1.0930125 3.2177818 -0.93759531
-1.3857169 4.0794911 -0.9544428
-1.7866309 5.2597647 -0.926085
-1.4688908 4.3243513 -0.50904518
-1.4268687 4.2006402 -0.2477984
-2.9283814 8.6210289 0
-4.2890906 12.626898 0.74486864
-1.0977087 3.2188311 -0.93828678
-1.3881841 4.0705967 -0.9527536
-1.7921572 5.2551746 -0.92565745
-1.4716095 4.315227 -0.50818002
-1.4378119 4.2161217 -0.24881396
-2.9421563 8.6273375 0
-4.3102164 12.638925 0.74588472
-0.95841455 2.7993 -0.97561604
-1.1032209 3.2222447 -0.93966979
-1.4005082 4.0905495 -0.95781904
-1.7993364 5.2554317 -0.926085
-1.4743083 4.3061023 -0.50731492
-1.4454311 4.2217588 -0.24924952
-2.9610102 8.6484032 0
-4.330533 12.648453 0.7467553
-1.0916214 3.1758382 -0.92652071
-1.402146 4.0792427 -0.95556748
-1.8031843 5.2459774 -0.92480236
-1.4694244 4.2749748 -0.50385648
-1.4488435 4.2150993 -0.24895951
-2.9604611 8.6128254 0
-4.3491917 12.65304 0.74733585
-0.94502121 2.7385676 -0.95524269
-1.1085519 3.2124615 -0.93759531
-1.4054178 4.0727463 -0.9544428
-1.8120315 5.2510681 -0.926085
-1.4771175 4.2805243 -0.50472051
-1.456476 4.2207074 -0.24939451
-2.9869933 8.6559782 0
-4.372952 12.672334 0.74878699
-0.96046323 2.7724485 -0.96746486
-1.1083242 3.19926 -0.93413246
-1.4119998 4.0758424 -0.95556748
-1.8150138 5.239172 -0.92437315
-1.4789019 4.26896 -0.50356734
-1.4530705 4.194396 -0.2479434
-2.9821174 8.6081028 0
-4.3891139 12.669503 0.74893254
-1.1187818 3.2168751 -0.93966979
-1.4152559 4.0693378 -0.9544428
-1.8221886 5.2394066 -0.92480236
-1.4849111 4.2696199 -0.50385648
-1.4564321 4.1877337 -0.24765339
-2.9865313 8.587285 0
-4.4044194 12.66419 0.74893254
-0.97286409 2.7864559 -0.9731704
-1.122668 3.2155209 -0.93966979
-1.4218453 4.0724182 -0.95556748
-1.8259788 5.229928 -0.923518
-1.4917725 4.2727017 -0.5044325
-1.4614911 4.1859708 -0.24765339
-2.7850275 7.9768138 0
-4.4282818 12.683387 0.75038362
-0.97214341 2.7736182 -0.96909636
-1.1282138 3.2189016 -0.94105542
-1.4250858 4.065906 -0.9544428
-1.8314484 5.2252975 -0.92309046
-1.5012109 4.2830982 -0.50587368
-1.469124 4.1915512 -0.24808839
-2.7869172 7.9513412 0
-4.4487591 12.692736 0.7512542
-0.98697734 2.805078 -0.98050427
-1.1346011 3.224638 -0.94313258
-1.435056 4.0785575 -0.95781904
-1.8420203 5.2351861 -0.92522991
-2.454952 6.9771929 -0.82442105
-1.4819487 4.2118311 -0.24939451
-2.7878833 7.9234138 0
-4.4658194 12.692258 0.75154477
-1.1309744 3.201968 -0.93690115
-1.4374468 4.0696402 -0.95613199
-1.8440707 5.2208567 -0.92309046
-2.4547648 6.9498286 -0.82153755
-1.4818461 4.1953411 -0.24852395
-2.7879233 7.8930531 0
-4.4915371 12.716253 0.75328642
-0.96815032 2.7304766 -0.95524269
-1.1298138 3.1864164 -0.93274951
-1.4449081 4.0750775 -0.95781904
-1.8478032 5.2113638 -0.92180616
-2.453655 6.9200487 -0.81836718
-1.4799674 4.1739554 -0.24736284
-2.8113739 7.9289246 0
-4.5068989 12.710817 0.75328642
-0.98387831 2.7642257 -0.96746486
-1.1395527 3.2015958 -0.93759531
-1.449831 4.073329 -0.95781904
-1.8515155 5.2018695 -0.92052186
-2.4602785 6.9122009 -0.81779003
-1.4893655 4.1844015 -0.24808839
-2.8183336 7.9181643 0
-4.5266099 12.7176 0.75401199
-0.98389125 2.7537248 -0.96420497
-1.140044 3.1907666 -0.93482661
-1.4496238 4.0572219 -0.9544428
-1.8621207 5.2117224 -0.92266291
-2.4668899 6.9043565 -0.81721401
-1.4865527 4.1605787 -0.24678227
-3.059056 8.561717 0
-4.5515914 12.73904 0.75560868
-0.98888826 2.7571914 -0.96583647
-1.1464369 3.1964643 -0.93690115
-1.4510939 4.0459008 -0.95219123
-1.865816 5.2022171 -0.92137861
-2.4726102 6.8940644 -0.81634885
-1.4678959 4.0927477 -0.24286394
-3.0729134 8.5678139 0
-4.5696096 12.740862 0.75604367
-0.97631097 2.711808 -0.95035136
-1.1638955 3.2328441 -0.9479757
-1.4611441 4.0584841 -0.95556748
-1.8755788 5.2096205 -0.92309046
-2.4783092 6.8837686 -0.81548369
-1.5098065 4.1936488 -0.24895951
-3.0885549 8.5787907 0
-4.588522 12.745111 0.75662422
-1.0098282 2.7943075 -0.97969013
-1.1498957 3.1818898 -0.93344098
-1.4643214 4.0519409 -0.9544428
-1.8766356 5.1928601 -0.92052186
-2.4848685 6.8759089 -0.81490767
-1.5201699 4.2064795 -0.24983007
-3.1051073 8.5921783 0
-4.6083336 12.751773 0.75734979
-0.9980343 2.7512674 -0.96502227
-1.1802614 3.2536104 -0.95489866
-1.4709476 4.0549412 -0.95556748
-1.8846612 5.1954198 -0.92137861
-1.6411878 4.5242395 -0.53643101
-1.5332255 4.2266216 -0.25113618
-3.1146004 8.5859766 0
-4.6290565 12.760857 0.75822091
-0.99797535 2.7407699 -0.96176243
-1.1756066 3.2286038 -0.9479757
-1.4697632 4.0364547 -0.95162892
-1.8883017 5.1858997 -0.92009431
-1.6563885 4.5489898 -0.53960252
-1.531219 4.2052331 -0.24997507
-3.1285346 8.5919886 0
-4.64714 12.762581 0.75865644
-0.99619395 2.7256291 -0.95687109
-1.1743412 3.2130475 -0.94382405
-1.4746393 4.0346761 -0.95162892
-1.8883971 5.1667347 -0.9170981
-1.661884 4.5469851 -0.53960252
-1.5336256 4.1960649 -0.24954008
-3.1362329 8.5808668 0
-4.6714759 12.781357 0.76010758
-1.0207673 2.7824306 -0.97724444
-1.1721735 3.195137 -0.93897825
-1.4882629 4.0567408 -0.95725667
-1.8972919 5.1716814 -0.91838241
-1.6673769 4.5449739 -0.53960252
-1.5252696 4.1576147 -0.24736284
-3.1474979 8.5795212 0
-4.6887045 12.780578 0.76039755
-1.0266916 2.7881556 -0.97969013
-1.1899037 3.2313859 -0.95005286
-1.4931636 4.0549397 -0.95725667
-1.8973327 5.1525297 -0.91538787
-1.6710781 4.5380969 -0.53902537
-1.5536357 4.219162 -0.25113618
-3.1632562 8.5903597 0
-4.7104301 12.791974 0.76141369
-1.0206335 2.7614093 -0.9707247
-1.1607586 3.1405296 -0.92375207
-1.4954187 4.0459805 -0.95556748
-1.7068833 4.6181159 -0.82081079
-1.6756644 4.5336504 -0.53873736
-1.5479225 4.1880341 -0.24939451
-3.1772428 8.5962963 0
-4.7339902 12.808207 0.76271981
-1.0213928 2.7532289 -0.96828216
-1.1776389 3.1743999 -0.93413246
-1.5003064 4.0441704 -0.95556748
-1.6892493 4.5534782 -0.80968451
-2.5159495 6.7819009 -0.80625945
-1.5493666 4.1764154 -0.24881396
-3.1930568 8.6070862 0
-4.7494626 12.802477 0.76271981
-1.0359695 2.7873561 -0.98050427
-1.1830525 3.1830943 -0.93690115
-1.501865 4.040884 -0.95500517
-1.6830584 4.528399 -0.80540562
-2.5218468 6.7852235 -0.80683547
-1.5555105 4.1852217 -0.24939451
-3.1991653 8.6076021 0
-4.7644386 12.81909 0.76388091
-1.0091039 2.7050586 -0.95198286
-1.2079422 3.2380755 -0.95351303
-1.5129639 4.0557332 -0.95894587
-1.6992956 4.5552239 -0.81054127
-2.5282373 6.7773294 -0.80625945
-1.5596591 4.1809068 -0.24924952
-3.2022867 8.5842228 0
-4.7880974 12.835233 0.76518703
-1.02797 2.745497 -0.96665066
-1.1898625 3.1778786 -0.93620962
-1.5134095 4.0420065 -0.95613199
-1.7074963 4.5603724 -0.8118239
-2.5300751 6.7573113 -0.80424112
-1.5729092 4.2009177 -0.25055563
-3.2272542 8.6193342 0
-4.8063369 12.83674 0.76562256
-1.0365018 2.7581303 -0.9715389
-1.1972315 3.1858323 -0.93897825
-1.5209713 4.0473032 -0.95781904
-1.7148132 4.5631166 -0.81268066
-2.538238 6.7542496 -0.80424112
-1.5606191 4.1528063 -0.2477984
-3.2404141 8.6227398 0
-4.8282437 12.847953 0.7666387
-1.0398337 2.7568758 -0.9715389
-1.2010802 3.1843834 -0.93897825
-1.5312425 4.0597315 -0.96119744
-1.719417 4.5586324 -0.81225145
-2.5427463 6.7414975 -0.80308795
-1.5738882 4.1727967 -0.24910451
-3.261852 8.6480379 0
-4.8483486 12.854263 0.76736426
-1.0694171 2.8249674 -0.99598938
-1.1871629 3.1360042 -0.92513502
-1.5289501 4.038868 -0.9566943
-1.7294708 4.5685625 -0.81439257
-2.5435643 6.7190685 -0.80078161
-0 0 -0
-3.2861207 8.6806021 0
-4.8693948 12.862972 0.76823479
-1.0500042 2.7635968 -0.97479874
-1.2096622 3.1838145 -0.93966979
-1.5428519 4.0607653 -0.96232212
-1.7377224 4.5736618 -0.8156752
-2.5544381 6.7232461 -0.80164677
-1.5821201 4.1641183 -0.24881396
-3.3261821 8.7544661 0
-4.8877034 12.864368 0.76867038
-1.0366132 2.7184541 -0.95931673
-1.2117224 3.1776669 -0.93828678
-1.5441362 4.0494013 -0.96007055
-1.739589 4.561964 -0.81396335
-1.6917279 4.4364514 -0.52922398
-1.5945569 4.1816268 -0.24997507
-3.355303 8.7990742 0
-4.9004655 12.851167 0.76823479
-1.0328299 2.6987329 -0.95279706
-1.2308042 3.2160299 -0.95005286
-1.5390406 4.0214362 -0.95388043
-1.7441832 4.5574636 -0.81353581
-1.6943165 4.4271646 -0.52835995
-1.6070386 4.1991115 -0.25113618
-3.3854661 8.8460541 0
-5.2363963 13.682442 0.81830555
-1.0644487 2.7713153 -0.97887594
-1.2400846 3.2285876 -0.9542045
-1.548453 4.0314307 -0.9566943
-1.7552131 4.5697355 -0.81610441
-1.7052273 4.4395962 -0.53008914
-1.6298141 4.2432566 -0.25389397
-3.3942842 8.8370934 0
-5.2454715 13.656699 0.81714445
-1.0802407 2.8023095 -0.99028385
-1.2196237 3.1638901 -0.93551815
-1.5542361 4.0319257 -0.95725667
-1.7616559 4.5700045 -0.81653196
-1.7133822 4.4447751 -0.5309543
-1.6190525 4.2000694 -0.25142676
-3.4040246 8.8305597 0
-5.2591643 13.643075 0.81670886
-1.0595505 2.7387707 -0.96828216
-1.2152998 3.1413584 -0.92928934
-1.5508565 4.0087194 -0.95219123
-1.7616175 4.553503 -0.81396335
-1.7168833 4.4378724 -0.53037715
-1.6325634 4.2199183 -0.25273287
-3.4071798 8.8070221 0
-5.2709589 13.624596 0.81598336
-1.0691184 2.7536101 -0.97398454
-1.2290803 3.1656063 -0.93690115
-1.5593777 4.0163169 -0.9544428
-1.7680501 4.553771 -0.81439257
-1.7203739 4.4309769 -0.52980113
-1.6451849 4.2373209 -0.25389397
-3.4187601 8.8053226 0
-5.2827158 13.606108 0.81525779
-1.0509083 2.6970453 -0.95442539
-1.2256176 3.1454184 -0.93136382
-1.5697628 4.0286303 -0.95781904
-1.7716852 4.5468431 -0.81353581
-1.7257266 4.428895 -0.52980113
-1.6314356 4.1869073 -0.2509912
-3.4322326 8.8084621 0
-5.2972641 13.594868 0.81496722
-1.0766689 2.7533181 -0.97479874
-1.2513454 3.2000105 -0.9479757
-1.5653776 4.0030713 -0.95219123
-1.7753099 4.5399222 -0.81268066
-1.7244821 4.4099422 -0.5277828
-1.6487948 4.2163906 -0.25287786
-3.4381354 8.7921925 0
-5.3042254 13.564262 0.81351608
-1.0818025 2.7566211 -0.97643024
-1.2561266 3.2008293 -0.94866723
-1.5674278 3.9940786 -0.95050204
-1.7836049 4.5449357 -0.81396335
-1.7222503 4.3885937 -0.52547646
-1.6538883 4.214395 -0.25287786
-3.4487565 8.7880316 0
-5.319663 13.555427 0.81337112
-1.0842278 2.7530143 -0.97561604
-1.2305789 3.1246219 -0.92652071
-1.5675982 3.9803634 -0.94768816
-1.7890953 4.5427771 -0.81396335
-1.7626191 4.4755502 -0.536143
-1.6713567 4.2438216 -0.25476453
-3.4641399 8.7959633 0
-5.3303232 13.534478 0.8125
-1.0775594 2.7264156 -0.96665066
-1.2730812 3.2211204 -0.95559019
-1.5826807 4.0044618 -0.95388043
-1.7955294 4.5430064 -0.81439257
-1.807953 4.5744405 -0.54825073
-1.6841241 4.2611313 -0.25592566
-3.4929416 8.837759 0
-5.3418984 13.515947 0.81177443
-1.0817633 2.727407 -0.96746486
-1.2621732 3.1822672 -0.94451559
-1.5912653 4.0119944 -0.95613199
-1.7991226 4.5360565 -0.81353581
-1.8315947 4.6179271 -0.55372751
-1.6931037 4.268755 -0.2565062
-3.5189662 8.8722296 0
-5.355351 13.502234 0.81133884
-1.090544 2.7398806 -0.9723562
-1.2474622 3.1341214 -0.93067235
-1.5876524 3.9888148 -0.95106441
-1.8074511 4.5410366 -0.81482011
-1.8438697 4.6325345 -0.55574578
-1.6982603 4.266706 -0.2565062
-3.5383484 8.88974 0
-5.3630147 13.474028 0.81003273
-1.0874354 2.7224917 -0.96665066
-1.2633449 3.1628971 -0.93966979
-1.5877594 3.9750977 -0.94825053
-1.8148394 4.543613 -0.8156752
-1.8456281 4.6206956 -0.55459261
-1.6870301 4.2236309 -0.25403896
-3.5558422 8.9023695 0
-4.0849142 10.226949 0.61512089
-1.1026776 2.7509978 -0.97724444
-1.2550324 3.1310978 -0.93067235
-1.5906724 3.9684639 -0.94712585
-1.8174655 4.5342751 -0.81439257
-1.8165705 4.532042 -0.5442152
-1.6805311 4.1926465 -0.25229731
-3.5665963 8.8980665 0
-4.0895348 10.20271 0.61395979
-1.10139 2.7382002 -0.9731704
-1.2569442 3.1249285 -0.92928934
-1.6011537 3.9806786 -0.95050204
-1.826775 4.5416021 -0.81610441
-1.7834369 4.4338584 -0.53268349
-1.6982008 4.2219501 -0.25418398
-4.075541 10.13233 0
-4.1018596 10.197762 0.61395979
-1.1157992 2.7643709 -0.98294997
-1.2579012 3.116426 -0.92721218
-1.5907457 3.9410417 -0.9414959
-1.8351409 4.5465264 -0.8173871
-1.7626569 4.3669486 -0.52490044
-0 0 -0
-4.069272 10.081542 0
-4.1073694 10.175928 0.61294365
-1.1094455 2.7296062 -0.9715389
-1.2663724 3.1156988 -0.92790371
-1.5859168 3.9018843 -0.93305427
-1.8451571 4.5397024 -0.8169595
-1.7595685 4.3291259 -0.52086383
-0 0 -0
-4.0818639 10.042747 0
-4.1250992 10.14912 0.61192757
-1.1148225 2.7380919 -0.97479874
-1.2909596 3.1706986 -0.94451559
-1.582523 3.886801 -0.92967588
-1.8527387 4.5504723 -0.81909895
-1.7709646 4.3496284 -0.52345926
-0 0 -0
-4.0800796 10.020997 0
-4.1243734 10.129786 0.61091197
-1.1153284 2.7298853 -0.9723562
-1.2824557 3.1389472 -0.93551815
-1.5680019 3.837852 -0.91842031
-1.8592094 4.5506134 -0.81952816
-1.7703476 4.3331146 -0.52172893
-0 0 -0
-4.0833273 9.994379 0
-4.1336613 10.117578 0.61047643
-1.1186261 2.7285357 -0.9723562
-1.2824409 3.1281104 -0.93274951
-1.5620348 3.8100913 -0.91222805
-1.8744425 4.5721111 -0.823807
-1.7824509 4.3477268 -0.52374727
-0 0 -0
-4.0855303 9.9653625 0
-4.1429253 10.10536 0.61004084
-1.1191003 2.7203226 -0.9699105
-1.3043517 3.1706338 -0.94589859
-1.5482732 3.7635612 -0.90153486
-1.974695 4.8001127 -0.86531776
-1.7975414 4.3694854 -0.52662963
-0 0 -0
-4.0936079 9.9507914 0
-4.1511784 10.090734 0.60946029
-1.1101273 2.6892707 -0.95931673
-1.3005275 3.1505127 -0.94036394
-1.5392444 3.728802 -0.89365339
-2.044157 4.9519467 -0.89313358
-1.8215721 4.4127374 -0.53210747
-0 0 -0
-4.0957003 9.9217863 0
-4.1584115 10.073705 0.60873473
-1.125671 2.7176104 -0.9699105
-1.3062515 3.1535702 -0.94174695
-1.5330557 3.7011237 -0.88746327
-2.0756788 5.0111318 -0.90425992
-1.8377877 4.4368119 -0.53527784
-0 0 -0
-4.0997181 9.8975954 0
-4.1666031 10.05907 0.60815418
-1.1118809 2.6751707 -0.95524269
-1.3090991 3.1496751 -0.94105542
-1.5355743 3.6945715 -0.88633645
-2.0935552 5.037066 -0.90939552
-1.8580387 4.4704165 -0.53960252
-0 0 -0
-2.9760542 7.1603465 0
-4.1717763 10.037239 0.60713863
-1.1284297 2.7057574 -0.96665066
-1.3138686 3.1504042 -0.94174695
-1.5253698 3.6575432 -0.87789482
-2.092726 5.0179543 -0.90640098
-1.8714036 4.4872656 -0.54190886
-0 0 -0
-2.9776907 7.1399293 0
-4.1809001 10.024994 0.6067031
-1.1345615 2.7112341 -0.96909636
-1.3079916 3.1256759 -0.93482661
-1.5268446 3.6486635 -0.87620562
-2.1057217 5.031992 -0.90939552
-1.8768243 4.4850011 -0.54190886
-0 0 -0
-0 0 0
-4.1879954 10.007952 0.60597754
-1.143576 2.7235301 -0.97398454
-1.3253632 3.1564724 -0.94451559
-1.5430565 3.6749289 -0.8829602
-2.1098146 5.0247145 -0.90854043
-1.8832425 4.4851127 -0.54219687
-0 0 -0
-2.9828458 7.1039181 0
-4.1870084 9.9717407 0.60409087
-1.1430275 2.7130356 -0.9707247
-1.3106682 3.1109393 -0.93136382
-1.5484813 3.6754012 -0.88352257
-2.1148849 5.0197892 -0.90811121
-1.8896637 4.4852152 -0.54248488
-0 0 -0
-0 0 0
-4.2020779 9.9738512 0.60452586
-1.1491929 2.7184842 -0.9731704
-1.3036839 3.0839415 -0.92375207
-1.5331342 3.62672 -0.87226486
-2.1189516 5.0125055 -0.90725607
-1.8900473 4.4710193 -0.5410437
-0 0 -0
-3.0040579 7.106277 0
-4.2100792 9.9591923 0.60394531
-1.1370349 2.6806874 -0.96013093
-1.3181823 3.1077628 -0.93136382
-1.5444615 3.6412413 -0.87620562
-2.1270094 5.0146637 -0.90811121
-1.8944392 4.4663534 -0.54075569
-0 0 -0
-3.0024819 7.0786881 0
-4.2160239 9.9397497 0.60307473
-1.1393063 2.6770396 -0.95931673
-1.3180106 3.0969431 -0.92859787
-1.542892 3.625349 -0.87282938
-2.1340754 5.0144587 -0.90854043
-1.9069216 4.4807134 -0.54277295
-0 0 -0
-3.0130692 7.0798397 0
-4.2198911 9.9155207 0.60191363
-1.1522444 2.6983871 -0.96746486
-1.3414521 3.1414838 -0.94243842
-1.5512588 3.6328201 -0.87507874
-2.1461794 5.0260372 -0.91110736
-1.9052272 4.461762 -0.54075569
-0 0 -0
-3.0134454 7.0570464 0
-4.2339115 9.9151993 0.6022042
-1.1506382 2.6856358 -0.96339083
-1.3235129 3.0891325 -0.92721218
-1.5536479 3.6262765 -0.87395406
-2.1421432 4.9998484 -0.90682852
-1.915709 4.4713416 -0.54219687
-0 0 -0
-3.0076234 7.0199142 0
-4.239747 9.8957405 0.60133308
-1.158762 2.6955948 -0.96746486
-1.330218 3.0944476 -0.92928934
-1.5580283 3.6243966 -0.87395406
-2.1471703 4.9949002 -0.90640098
-1.9211103 4.4690237 -0.54219687
-0 0 -0
-3.0171301 7.0186634 0
-4.2506762 9.8882256 0.60118806
-1.1473383 2.6601565 -0.95524269
-1.3230258 3.0674958 -0.92167491
-1.5523456 3.5991845 -0.86832631
-2.1511688 4.9875832 -0.90554422
-1.9285556 4.4714446 -0.54277295
-0 0 -0
-3.0204563 7.0030665 0
-4.2564445 9.868762 0.60031694
-1.1682185 2.6995938 -0.9699105
-1.3366967 3.0889239 -0.92859787
-1.5577015 3.5996358 -0.86888862
-2.1531157 4.9755569 -0.90383238
-1.9257432 4.45013 -0.54046768
-0 0 -0
-3.0237491 6.9874716 0
-4.2570171 9.8373861 0.59872085
-1.1577008 2.6664445 -0.95850259
-1.339426 3.0849986 -0.92790371
-1.560024 3.5930851 -0.86776179
-2.1581047 4.9705992 -0.90340483
-1.944509 4.4786406 -0.5442152
-0 0 -0
-3.0332253 6.9861979 0
-4.2637272 9.8203201 0.59799528
-1.1707907 2.6876988 -0.96665066
-1.3451585 3.0879824 -0.92928934
-1.5674096 3.5981882 -0.86945099
-2.1671858 4.9750504 -0.90468913
-1.9406197 4.4549394 -0.54161978
-0 0 -0
-3.0333498 6.9634399 0
-4.2755899 9.8151608 0.59799528
-1.1641412 2.6636391 -0.95850259
-1.3639562 3.1208303 -0.93966979
-1.569723 3.5916398 -0.86832631
-2.1721644 4.9700689 -0.90425992
-1.9542878 4.4715514 -0.54392612
-0 0 -0
-3.0480168 6.9740825 0
-4.2812009 9.7956972 0.59712416
-1.171329 2.6712847 -0.96176243
-1.3385105 3.052552 -0.91959774
-1.5699803 3.5804322 -0.86607474
-2.1771383 4.9650922 -0.90383238
-1.9586517 4.4668202 -0.54363805
-0 0 -0
-3.0512168 6.9584799 0
-4.2878175 9.7786207 0.59639859
-1.1769183 2.6796284 -0.96502227
-1.3625512 3.1022806 -0.93482661
-1.5762302 3.5887887 -0.86832631
-2.1832354 4.970829 -0.90511668
-1.9592717 4.4609046 -0.54306203
-0 0 -0
-3.0470479 6.9375725 0
-4.287457 9.7617579 0.59552807
-1.1721821 2.6601105 -0.95850259
-1.3683201 3.1052191 -0.93620962
-1.5836362 3.5938504 -0.8700133
-2.188206 4.9658408 -0.90468913
-1.9584006 4.4443278 -0.54133171
-1.888445 4.2855735 -0.26158568
-3.0554285 6.9338856 0
-4.301343 9.761322 0.59581804
-1.1943808 2.7016361 -0.97398454
-1.3649693 3.0874996 -0.93136382
-1.5797583 3.5733428 -0.86551023
-2.1910899 4.9561472 -0.90340483
-1.9616796 4.4372315 -0.54075569
-1.8936219 4.2832885 -0.26158568
-3.0574887 6.9159026 0
-4.3068323 9.7418623 0.59494746
-1.1866239 2.6753447 -0.96502227
-1.3707353 3.0904391 -0.93274951
-1.5995289 3.6062739 -0.87395406
-2.2012401 4.9628825 -0.90511668
-1.962845 4.4254007 -0.53960252
-1.8935294 4.2691231 -0.26086012
-3.0637345 6.9074497 0
-4.3133335 9.7247772 0.59422195
-1.1798054 2.6513233 -0.95687109
-1.3571303 3.0498173 -0.92098343
-1.5945891 3.5834477 -0.86888862
-2.204103 4.9531808 -0.90383238
-1.988167 4.4679174 -0.54507923
-0 0 -0
-3.0784249 6.9180045 0
-4.3187404 9.7053099 0.59335083
-1.188045 2.6611781 -0.96094513
-1.3628579 3.0527527 -0.92236638
-1.6020262 3.5884812 -0.87057781
-2.2100863 4.9505138 -0.90383238
-1.9925108 4.4631524 -0.54479122
-0 0 -0
-3.0751145 6.8881459 0
-4.3262272 9.6905928 0.59277022
-1.199342 2.6777861 -0.96746486
-1.3665456 3.0511036 -0.92236638
-1.5949353 3.5610323 -0.86438555
-2.2192154 4.9548707 -0.90511668
-2.001075 4.4678254 -0.54565638
-0 0 -0
-3.0813057 6.8796701 0
-4.3336849 9.6758728 0.59218967
-1.1823202 2.6312544 -0.95116866
-1.3589234 3.0242848 -0.91475463
-1.6106936 3.5845993 -0.87057781
-2.2178349 4.9357924 -0.90212047
-2.0075309 4.467761 -0.54594439
-0 0 -0
-3.0864151 6.8688183 0
-4.3443089 9.6682615 0.59204471
-1.1885431 2.6365771 -0.9536112
-1.3574227 3.0112071 -0.91129446
-1.6087563 3.5687475 -0.86719942
-2.2396228 4.9682155 -0.90854043
-2.0086763 4.4559002 -0.54479122
-0 0 -0
-3.0840192 6.841363 0
-4.347445 9.6440544 0.59088355
-1.1968193 2.6463969 -0.95768523
-1.3703631 3.0301354 -0.91752326
-1.6088792 3.5575404 -0.86494792
-2.231874 4.935101 -0.90297723
-2.018322 4.4628968 -0.54594439
-0 0 -0
-3.0976443 6.8494854 0
-4.3526726 9.6245928 0.59001303
-1.2061452 2.658458 -0.96257663
-1.3823158 3.0467544 -0.92306054
-1.6194775 3.5694816 -0.86832631
-2.2367716 4.9300561 -0.90254807
-2.0258524 4.4651699 -0.54652154
-0 0 -0
-3.1026917 6.8386254 0
-4.3621497 9.6145897 0.58972245
-1.2124292 2.6637495 -0.96502227
-1.3766434 3.0245337 -0.91683179
-1.6164201 3.5513315 -0.86438555
-2.2416646 4.9250154 -0.90212047
-2.0323167 4.4650707 -0.54680955
-0 0 -0
-3.1055629 6.82303 0
-4.3694577 9.5998516 0.58914191
-1.2043531 2.6375489 -0.95605689
-1.4042612 3.0753503 -0.93274951
-1.6270404 3.5632393 -0.86776179
-2.2550788 4.9386516 -0.90511668
-2.0344863 4.4555511 -0.54594439
-0 0 -0
-3.1278567 6.8500462 0
-4.3767371 9.5851107 0.58856136
-1.2054785 2.6315932 -0.95442539
-1.3891716 3.0326002 -0.9202919
-1.6239405 3.5451071 -0.86382324
-2.2578363 4.9289193 -0.90383238
-2.0431011 4.4601464 -0.54680955
-0 0 -0
-3.1122887 6.7942128 0
-4.3958917 9.5963535 0.58957744
-1.19937 2.6099246 -0.94709152
-1.4095919 3.0673842 -0.93136382
-1.6314027 3.5500619 -0.86551023
-2.2627194 4.9238572 -0.90340483
-2.0614491 4.485877 -0.55026907
-0 0 -0
-3.1259284 6.802269 0
-4.3933797 9.5603437 0.58769077
-1.2170113 2.6399016 -0.95850259
-1.3870443 3.0087316 -0.9140631
-1.6335655 3.5434775 -0.86438555
-2.2611432 4.9047985 -0.90040863
-2.0571189 4.4622359 -0.54767364
-0 0 -0
-3.1330569 6.7961259 0
-4.3962255 9.53615 0.58652967
-1.2274597 2.6541262 -0.96420497
-1.4212128 3.073077 -0.93413246
-1.6421123 3.5507259 -0.86663711
-2.271378 4.9113827 -0.90212047
-2.0581706 4.4503655 -0.54652154
-0 0 -0
-3.1368966 6.7828865 0
-4.4077449 9.5308313 0.58652967
-1.2181835 2.6257362 -0.95442539
-1.4059222 3.0303979 -0.92167491
-1.6474696 3.5510421 -0.86719942
-2.2762315 4.9063082 -0.90169293
-2.0744298 4.471334 -0.54940391
-0 0 -0
-3.1461844 6.7814498 0
-4.415976 9.518425 0.58609408
-1.2192715 2.6197851 -0.95279706
-1.4117019 3.0332503 -0.92306054
-1.6549766 3.5559618 -0.86888862
-2.2843225 4.9082046 -0.90254807
-2.0732806 4.4547496 -0.54767364
-0 0 -0
-3.1401017 6.7469726 0
-4.4263787 9.5107279 0.58594912
-1.2203469 2.6138351 -0.95116866
-1.4185469 3.0383554 -0.92513502
-1.647447 3.5286317 -0.86269635
-2.2804787 4.8845086 -0.89869678
-2.0819454 4.4592748 -0.54853874
-0 0 -0
-0 0 0
-4.4257741 9.4794712 0.58435243
-1.2172126 2.5989246 -0.94627732
-1.4264734 3.0457268 -0.92790371
-1.6549436 3.5335438 -0.86438555
-2.291822 4.8933711 -0.90083617
-2.0928161 4.4684649 -0.54997993
-0 0 -0
-3.1563973 6.7393641 0
-4.4482484 9.497653 0.5858041
-1.2361181 2.6310093 -0.95850259
-1.3992161 2.9781544 -0.90783167
-1.6548901 3.5223427 -0.86213404
-2.2966423 4.8882771 -0.90040863
-2.1037164 4.4776444 -0.55142224
-0 0 -0
-3.1601114 6.7261238 0
-4.4486694 9.4687481 0.58435243
-1.218222 2.5847991 -0.94220328
-1.409233 2.990082 -0.91198599
-1.6623957 3.5272379 -0.86382324
-2.2959828 4.8715701 -0.89784163
-2.1025069 4.4610572 -0.54969192
-0 0 -0
-3.1726744 6.7317171 0
-4.4512491 9.4445715 0.58319187
-1.2456387 2.6347115 -0.96094513
-1.4257123 3.0155938 -0.9202919
-1.6655716 3.5229318 -0.86326087
-2.3128376 4.8919954 -0.90212047
-2.1034737 4.4491601 -0.54853874
-0 0 -0
-3.1752455 6.7161169 0
-4.5015268 9.5213985 0.58827132
-1.2392904 2.6131079 -0.9536112
-1.426129 3.0070665 -0.91821474
-1.6720026 3.5255039 -0.86438555
-2.3154457 4.882237 -0.90083617
-2.1110668 4.4512935 -0.5491159
-0 0 -0
-3.1822441 6.7099261 0
-4.4918714 9.4713421 0.58551353
-1.2413862 2.6093788 -0.95279706
-1.4426947 3.0325267 -0.92652071
-1.6762613 3.5234809 -0.86438555
-2.3169363 4.870172 -0.89912593
-2.1253331 4.4674249 -0.55142224
-2.0967469 4.4073367 -0.2726157
-3.1914663 6.7084236 0
-4.5167079 9.4940653 0.58725524
-1.2238276 2.5684698 -0.93812925
-1.4218656 2.9840956 -0.91198599
-1.6751097 3.515584 -0.86269635
-2.3231876 4.8757172 -0.90040863
-2.1347051 4.480145 -0.55315143
-2.0949383 4.3966856 -0.27203515
-3.1966372 6.7088418 0
-4.5202098 9.4866476 0.5869652
-1.2407852 2.5959768 -0.94872296
-1.4427803 3.0185914 -0.92306054
-1.6640183 3.4814668 -0.85481703
-2.3346114 4.8844848 -0.90254807
-2.134541 4.4658966 -0.55171025
-2.0946476 4.3824315 -0.27130958
-3.2058666 6.7073288 0
-4.5294256 9.4764862 0.58667469
-1.2460561 2.5989287 -0.95035136
-1.4377496 2.9987483 -0.91752326
-1.6748127 3.4931962 -0.85819328
-2.3316374 4.8631511 -0.89912593
-2.1544712 4.4936314 -0.55545777
-2.0853386 4.3494396 -0.26942292
-3.2105923 6.6964078 0
-4.5453663 9.4803782 0.58725524
-1.2524103 2.6041055 -0.95279706
-1.4446309 3.0037851 -0.91959774
-1.685642 3.5049133 -0.86157167
-2.3386233 4.8626413 -0.89955354
-2.1408429 4.4514017 -0.55055708
-2.1153669 4.3984299 -0.2726157
-3.227705 6.7112865 0
-4.5455585 9.4514666 0.5858041
-1.2448187 2.5803335 -0.94464892
-1.4340894 2.9726651 -0.9106003
-1.6909788 3.5051603 -0.86213404
-2.3378026 4.8459349 -0.89698488
-2.1597061 4.4767661 -0.55401659
-2.1477771 4.4520388 -0.27609906
-3.240335 6.7167578 0
-4.5445547 9.4202213 0.58420742
-1.2436291 2.5699284 -0.94138908
-1.4409597 2.9777071 -0.91267747
-1.6985343 3.5099783 -0.86382324
-2.3324764 4.820004 -0.89270604
-2.1763783 4.4974308 -0.55689895
-2.1124077 4.3652372 -0.27087402
-3.2450466 6.7058072 0
-0 0 0
-1.2553679 2.5862117 -0.94790882
-1.4467498 2.9804819 -0.9140631
-1.6950061 3.4919205 -0.85988247
