# .PCD v0.7 - Point Cloud Data file format
VERSION 0.7
FIELDS x y z
SIZE 4 4 4
TYPE F F F
COUNT 1 1 1
WIDTH 1491
HEIGHT 1
VIEWPOINT 0 0 0 1 0 0 0
POINTS 1491
DATA ascii
-3.048661 -0.73776531 -0.86539501
-3.5669298 -0.86318463 -0.81298947
-4.2231903 -1.0219973 -0.72438866
-4.1791825 -1.0113477 -0.47926217
-4.1671538 -1.0084367 -0.23947985
-4.2831001 -1.0364953 0
-0 -0 0
-2.5812383 -0.62795323 -0.87593824
-3.0989561 -0.75390148 -0.87992978
-3.5757599 -0.86989641 -0.81524104
-4.214467 -1.0252784 -0.72310436
-4.1704154 -1.0145619 -0.47839704
-4.1810861 -1.0171577 -0.24035098
-4.2919598 -1.0441306 0
-0 -0 0
-2.6428952 -0.64633626 -0.89712572
-3.0639303 -0.74930298 -0.87024081
-3.5574267 -0.86999059 -0.81130028
-4.2207084 -1.0322001 -0.72438866
-4.1817465 -1.0226718 -0.47983822
-4.1773324 -1.0215923 -0.24020597
-0 -0 0
-0 -0 0
-2.5893137 -0.63654941 -0.87919807
-3.0703242 -0.7547996 -0.87231535
-3.5465031 -0.87186205 -0.80904871
-4.2144771 -1.0360748 -0.72353357
-4.1704607 -1.025254 -0.47868505
-4.1836576 -1.0284983 -0.24064097
-0 -0 0
-0 -0 0
-2.6077383 -0.64442116 -0.88571781
-3.0572348 -0.7555002 -0.86885518
-3.5553138 -0.87858492 -0.81130028
-4.213222 -1.0411664 -0.72353357
-4.1968417 -1.0371186 -0.48185652
-4.1798916 -1.0329299 -0.24049596
-4.3108826 -1.0653002 0
-4.2958083 -1.0615751 0.24716541
-2.5925608 -0.6439954 -0.88082641
-3.0465806 -0.75677454 -0.86608654
-3.5517859 -0.88226825 -0.81073791
-4.2244153 -1.0493503 -0.72567302
-4.1830273 -1.0390694 -0.48041424
-4.191247 -1.0411112 -0.24122153
-4.2919097 -1.0661159 0
-4.2793965 -1.0630077 0.24629486
-2.6109645 -0.65191746 -0.88734615
-3.0578411 -0.76349562 -0.86954933
-3.5457823 -0.88532698 -0.80961108
-4.2380834 -1.0581838 -0.72823995
-4.1943231 -1.0472577 -0.48185652
-4.1899862 -1.0461748 -0.24122153
-4.3284955 -1.0807583 0
-4.3537359 -1.0870606 0.25064877
-2.5814078 -0.64785218 -0.87756658
-3.0763736 -0.77207303 -0.87508398
-3.55703 -0.89270264 -0.81242496
-4.2218671 -1.0595559 -0.72567302
-4.1955609 -1.052954 -0.48214456
-4.1887188 -1.0512367 -0.24122153
-5.0011168 -1.255123 0
-5.6855831 -1.4269025 0.32742351
-2.5906036 -0.651824 -0.88082641
-3.0637441 -0.77087128 -0.87162381
-3.5638845 -0.89671206 -0.81411415
-4.2286968 -1.0639861 -0.72695732
-4.1924181 -1.054858 -0.48185652
-4.1855655 -1.0531337 -0.24107653
-4.9801669 -1.253064 0
-5.7552772 -1.4480903 0.33148742
-2.6305466 -0.66525483 -0.89468008
-3.0530818 -0.77211231 -0.86885518
-3.5603375 -0.90039527 -0.81355184
-4.2249122 -1.0684637 -0.72652811
-4.193646 -1.0605564 -0.48214456
-4.1842899 -1.0581905 -0.24107653
-4.9458518 -1.2507863 0
-5.7535233 -1.4550433 0.33148742
-2.5842345 -0.65686595 -0.87919807
-3.0643015 -0.77889037 -0.87231535
-3.5420065 -0.90031439 -0.80961108
-4.2236185 -1.0735679 -0.72652811
-4.189857 -1.0649863 -0.48185652
-4.1855245 -1.0638851 -0.24122153
-4.9569459 -1.2599665 0
-5.756793 -1.4632733 0.33177739
-2.569066 -0.65631622 -0.87430674
-3.056073 -0.78073126 -0.87024081
-3.5384564 -0.90396523 -0.80904871
-4.2297821 -1.0805774 -0.72781241
-4.1835504 -1.0687665 -0.4812794
-4.1943059 -1.0715144 -0.24180208
-4.9579387 -1.2665987 0
-5.7701216 -1.4740859 0.33264795
-2.563488 -0.6581918 -0.87267834
-3.057555 -0.7850467 -0.87093234
-3.5275173 -0.90571254 -0.80679721
-4.2036138 -1.0793046 -0.72353357
-4.1947794 -1.0770363 -0.48272058
-4.2030754 -1.0791664 -0.24238265
-4.9740524 -1.2771195 0
-5.7557545 -1.4778266 0.33192241
-2.5722635 -0.66375905 -0.87593824
-3.0493143 -0.78685945 -0.86885518
-3.5288785 -0.91060841 -0.80735952
-4.2271581 -1.0907959 -0.72781241
-4.2009907 -1.0840435 -0.48358575
-4.1917043 -1.0816472 -0.24180208
-4.959908 -1.2798781 0
-5.7766066 -1.4906228 0.33322853
-2.6049495 -0.67555171 -0.88734615
-3.0483613 -0.79054338 -0.86885518
-3.5523756 -0.92125136 -0.81298947
-4.21838 -1.093969 -0.72652811
-4.1946754 -1.0878215 -0.4830097
-4.1903944 -1.0867113 -0.24180208
-4.9608746 -1.286523 0
-5.8100195 -1.5067348 0.33526075
-2.5802188 -0.67246658 -0.87919807
-3.0401278 -0.79232985 -0.8667807
-3.538959 -0.92233711 -0.81017345
-4.207119 -1.0964756 -0.72481626
-4.2008591 -1.0948441 -0.48387375
-4.1941118 -1.0930856 -0.24209264
-4.9618325 -1.293172 0
-5.8584738 -1.5268581 0.33816299
-2.6009207 -0.68121922 -0.88653195
-3.0343096 -0.79473013 -0.86539501
-3.5353863 -0.92596942 -0.80961108
-4.2281384 -1.1074114 -0.72866756
-4.1945338 -1.0986098 -0.48329774
-4.1927881 -1.0981526 -0.24209264
-4.9527111 -1.2971876 0
-5.9923577 -1.5694863 0.34600022
-2.5881472 -0.68121648 -0.88245791
-3.0624609 -0.80605882 -0.87370098
-3.5465486 -0.93347377 -0.81242496
-4.2044568 -1.1066393 -0.72481626
-4.2007098 -1.105653 -0.48416287
-4.1939688 -1.1038787 -0.24223764
-4.9385586 -1.2998595 0
-0 -0 0
-2.5682065 -0.67928725 -0.87593824
-3.0323803 -0.80206054 -0.86539501
-3.5355923 -0.9351595 -0.81017345
-4.2105641 -1.1136886 -0.72610056
-4.1968627 -1.1100646 -0.48387375
-4.1951413 -1.1096094 -0.24238265
-4.9445348 -1.3078229 0
-0 -0 0
-2.5769386 -0.68492949 -0.87919807
-3.0992973 -0.8237682 -0.88477558
-3.5393758 -0.94073749 -0.81130028
-4.2116942 -1.1194342 -0.72652811
-4.2030201 -1.1171287 -0.48473892
-4.2038426 -1.1173475 -0.24296319
-4.9303775 -1.3104546 0
-0 -0 0
-2.5665574 -0.68549156 -0.87593824
-3.0449808 -0.8132717 -0.86954933
-3.5431414 -0.94632351 -0.81242496
-4.2078605 -1.1238607 -0.72610056
-4.1991706 -1.1215397 -0.48445091
-4.1949558 -1.120414 -0.24252765
-4.9363265 -1.3184237 0
-0 -0 0
-2.5824394 -0.6930775 -0.88164377
-3.0439959 -0.81695038 -0.86954933
-3.537092 -0.94928801 -0.81130028
-4.211463 -1.1302763 -0.72695732
-4.1953168 -1.1259429 -0.48416287
-4.1910915 -1.124809 -0.24238265
-4.9196534 -1.3203411 0
-0 -0 0
-2.5792069 -0.69555199 -0.88082641
-3.0430064 -0.82062787 -0.86954933
-3.5285804 -0.95157582 -0.80961108
-4.210094 -1.1353642 -0.72695732
-4.1989431 -1.132357 -0.48473892
-4.2098002 -1.1352849 -0.24354376
-4.9230847 -1.3276411 0
-0 -0 0
-2.5978739 -0.70226997 -0.88734615
-3.0352423 -0.82050151 -0.86747217
-3.5402668 -0.95702219 -0.81242496
-4.2118831 -1.1385769 -0.72738487
-4.1982579 -1.1348935 -0.48473892
-4.1840339 -1.1310484 -0.24209264
-4.9499102 -1.3380837 0
-6.0199809 -1.6273506 0.34832248
-2.5827169 -0.70152253 -0.88245791
-3.0560358 -0.83008623 -0.87370098
-3.5219505 -0.95663887 -0.8084864
-4.1956358 -1.1396266 -0.72481626
-4.1993775 -1.1406429 -0.48502693
-4.2152605 -1.1449572 -0.24397932
-4.9307065 -1.3392879 0
-6.0054746 -1.6312184 0.34759691
-2.6104803 -0.7124517 -0.89223748
-3.0332506 -0.82783407 -0.86747217
-3.5134358 -0.95888615 -0.80679721
-4.2016873 -1.1467236 -0.72610056
-4.1955032 -1.1450359 -0.48473892
-4.2038469 -1.147313 -0.24339876
-4.9290848 -1.3452448 0
-5.9959764 -1.6364206 0.34716135
-2.5524108 -0.69991833 -0.87267834
-3.0274045 -0.83017039 -0.86608654
-3.5367744 -0.96984899 -0.81242496
-4.2077284 -1.153837 -0.72738487
-4.2065864 -1.1535238 -0.4861801
-4.2049613 -1.1530782 -0.24354376
-4.9450269 -1.3560179 0
-5.973947 -1.638167 0.34600022
-2.5610945 -0.70562792 -0.87593824
-3.0578392 -0.84249008 -0.87508398
-3.5184596 -0.96939933 -0.8084864
-4.1964316 -1.1561929 -0.72567302
-4.2026982 -1.1579194 -0.48589209
-4.2085705 -1.1595373 -0.24383377
-4.905757 -1.3516248 0
-5.9594402 -1.6419338 0.34527469
-2.5411839 -0.70344687 -0.8694185
-3.039901 -0.84150112 -0.87024081
-3.5221786 -0.97500443 -0.80961108
-4.2073994 -1.1646863 -0.72781241
-4.213757 -1.1664462 -0.48733327
-4.2046642 -1.1639291 -0.24368876
-4.9166589 -1.3610225 0
-5.9449329 -1.6456679 0.34454912
-2.5966067 -0.72554934 -0.88897765
-3.0692673 -0.85762113 -0.87923825
-3.5222569 -0.98419648 -0.81017345
-4.1946831 -1.1720872 -0.72610056
-4.2034507 -1.1745371 -0.48646811
-4.1968389 -1.1726896 -0.24339876
-4.9208674 -1.3749992 0
-5.8983974 -1.6481426 0.3420819
-2.5862095 -0.7260142 -0.88571781
-3.0175076 -0.84709042 -0.86470354
-3.5137331 -0.98639345 -0.8084864
-4.1957326 -1.1778479 -0.72652811
-4.2070136 -1.1810147 -0.48704526
-4.2029166 -1.1798646 -0.24383377
-4.9091897 -1.3781332 0
-5.8788867 -1.6503516 0.34106576
-2.6519279 -0.74792105 -0.90853369
-3.0188942 -0.85141617 -0.86539501
-3.5247638 -0.99408621 -0.81130028
-4.1869016 -1.1808283 -0.72524542
-4.2105575 -1.1875 -0.48762128
-4.2089934 -1.1870588 -0.24426931
-4.9100232 -1.3847698 0
-5.8593798 -1.652516 0.34004965
-2.5416391 -0.72013283 -0.87104684
-3.0492396 -0.86395335 -0.87439245
-3.518666 -0.99695784 -0.81017345
-4.192874 -1.1879839 -0.72652811
-4.2190733 -1.195407 -0.48877445
-4.2000532 -1.1900181 -0.24383377
-4.9158511 -1.3928279 0
-5.8248806 -1.6503869 0.33816299
-2.6382291 -0.75094497 -0.90445966
-3.0288901 -0.86214262 -0.86885518
-3.5028007 -0.9970364 -0.80679721
-4.1963782 -1.1944562 -0.72738487
-4.2076755 -1.1976718 -0.48762128
-4.2086091 -1.1979376 -0.24441431
-4.8991508 -1.3944932 0
-5.8003922 -1.6510223 0.33685687
-2.5541542 -0.73035127 -0.87593824
-3.0278461 -0.86580181 -0.86885518
-3.5162466 -1.0054581 -0.81017345
-4.1825938 -1.1959977 -0.72524542
-4.2186661 -1.2063125 -0.48906356
-4.2121601 -1.2044522 -0.24470487
-4.9049711 -1.402559 0
-5.8108821 -1.6616009 0.33758244
-2.5817761 -0.74162549 -0.88571781
-2.9978626 -0.861148 -0.86054921
-3.527247 -1.0132158 -0.81298947
-4.1860752 -1.2024668 -0.72610056
-4.2147126 -1.210693 -0.48877445
-4.2131968 -1.2102575 -0.24484988
-4.8982654 -1.4070463 0
-0 -0 0
-2.5476277 -0.73514968 -0.87430674
-3.0860031 -0.8905046 -0.88615859
-3.5138066 -1.0139526 -0.81017345
-4.1870832 -1.208235 -0.72652811
-4.2107639 -1.2150683 -0.48848644
-4.2192235 -1.2175094 -0.24528544
-4.8915653 -1.4115222 0
-5.7868867 -1.6698781 0.33642188
-2.5562332 -0.74097997 -0.87756658
-3.0271044 -0.87747222 -0.86954933
-3.5174644 -1.0196139 -0.81130028
-4.1782308 -1.2111514 -0.72524542
-4.2142658 -1.221597 -0.48906356
-4.2102594 -1.2204356 -0.24484988
-4.8898563 -1.4174316 0
-5.7823615 -1.6761438 0.33627632
-2.600883 -0.75562638 -0.89305168
-3.0193439 -0.87720048 -0.86747217
-3.49489 -1.0153594 -0.80623484
-4.1799612 -1.214391 -0.72567302
-4.2085547 -1.2226982 -0.48848644
-4.2170095 -1.2251545 -0.24528544
-4.8865023 -1.4196602 0
-5.7963243 -1.683988 0.33714741
-2.5738668 -0.75115114 -0.88408631
-3.0712597 -0.89630914 -0.88269842
-3.5204842 -1.0274097 -0.81242496
-4.1932716 -1.2237544 -0.72823995
-4.2194862 -1.2314048 -0.48992762
-4.2180181 -1.2309763 -0.24543044
-4.8897753 -1.4270203 0
-5.7867999 -1.6888058 0.33671188
-2.5848141 -0.75773644 -0.88816035
-3.0316553 -0.88872761 -0.87162381
-3.5143683 -1.0302346 -0.81130028
-4.1819363 -1.2259316 -0.72652811
-4.2105565 -1.2343216 -0.48906356
-4.1990709 -1.2309546 -0.24441431
-4.8855524 -1.4321963 0
-5.7947292 -1.6987207 0.33729243
-2.5838966 -0.76085913 -0.88816035
-3.0353971 -0.89380878 -0.8730095
-3.4984918 -1.0301725 -0.80792189
-4.1878419 -1.2331599 -0.72781241
-4.2214651 -1.2430607 -0.49050477
-4.1975803 -1.2360275 -0.24441431
-4.8838181 -1.4380984 0
-5.7901821 -1.704988 0.33714741
-2.559279 -0.75697184 -0.88001227
-3.0246918 -0.89462954 -0.87024081
-3.4826298 -1.0300764 -0.80454564
-4.188808 -1.2389466 -0.72823995
-4.217473 -1.2474248 -0.49021563
-4.2135282 -1.2462581 -0.24543044
-4.862112 -1.4380933 0
-5.7881179 -1.7119831 0.33714741
-2.5678394 -0.76287919 -0.88327211
-3.0380332 -0.90256912 -0.87439245
-3.4959919 -1.0386239 -0.80792189
-4.1750064 -1.2403524 -0.72610056
-4.2258801 -1.2554663 -0.4913688
-4.2120194 -1.2513485 -0.24543044
-4.8628631 -1.4447076 0
-5.7885332 -1.7197149 0.33729243
-2.5527098 -0.76174229 -0.87838387
-3.0201194 -0.90121979 -0.86954933
-3.5044737 -1.0457537 -0.81017345
-4.1735048 -1.2453961 -0.72610056
-4.22436 -1.2605716 -0.4913688
-4.2129917 -1.2571793 -0.24557543
-4.8785734 -1.4557923 0
-5.7864513 -1.7267079 0.33729243
-2.5423174 -0.76198775 -0.87512404
-3.0214291 -0.90558791 -0.87024081
-3.486177 -1.044883 -0.80623484
-4.1818328 -1.2533861 -0.72781241
-4.2203584 -1.2649331 -0.49108079
-4.2189393 -1.2645078 -0.24601099
-4.8468952 -1.4527198 0
-5.7868471 -1.7344438 0.33743742
-2.553226 -0.76862073 -0.87919807
-3.0251327 -0.91068304 -0.87162381
-3.5165391 -1.0586156 -0.81355184
-4.1754041 -1.2569596 -0.72695732
-4.2188268 -1.2700317 -0.49108079
-4.2223892 -1.2711041 -0.24630155
-4.8476262 -1.4593248 0
-5.7872329 -1.7421831 0.33758244
-2.5570226 -0.77313453 -0.88082641
-3.0264292 -0.91506302 -0.87231535
-3.4812026 -1.0525671 -0.80567032
-4.173882 -1.2620039 -0.72695732
-4.2197628 -1.2758762 -0.4913688
-4.2258201 -1.2777077 -0.24659155
-4.8458595 -1.4651811 0
-5.7925878 -1.7514315 0.33801797
-2.5206189 -0.76545292 -0.8686043
-3.0469327 -0.92528212 -0.87854677
-3.5115416 -1.066373 -0.81298947
-4.1846333 -1.2707752 -0.72909671
-4.2157454 -1.2802233 -0.49108079
-4.2093601 -1.2782841 -0.245721
-4.8366218 -1.4687688 0
-5.7879834 -1.7576751 0.33787298
-2.5764213 -0.78580028 -0.88816035
-3.0146196 -0.91944933 -0.86954933
-3.4810863 -1.0617201 -0.80623484
-4.1855478 -1.2765787 -0.72952431
-4.2141953 -1.2853161 -0.49108079
-4.2227201 -1.2879162 -0.24659155
-4.8447914 -1.4776459 0
-5.7957969 -1.7676996 0.33845353
-2.5542033 -0.7823984 -0.88082641
-3.0111008 -0.92235434 -0.86885518
-3.4773643 -1.0651792 -0.80567032
-4.1766362 -1.2793789 -0.72823995
-4.2126393 -1.2904073 -0.49108079
-4.2186785 -1.2922572 -0.24644655
-4.8479838 -1.4850247 0
-5.7886829 -1.7731779 0.33816299
-2.5249078 -0.77676308 -0.87104684
-3.0411539 -0.93558109 -0.87785262
-3.4809365 -1.0708759 -0.80679721
-4.1652732 -1.2814053 -0.72652811
-4.2135468 -1.2962563 -0.4913688
-4.217114 -1.2973537 -0.24644655
-4.848671 -1.4916459 0
-5.7815738 -1.7786444 0.33787298
-2.5711968 -0.79440546 -0.88734615
-3.0496092 -0.94221735 -0.88062125
-3.4820654 -1.0758305 -0.80735952
-4.1686316 -1.2879543 -0.72738487
-4.2317472 -1.3074547 -0.49367514
-4.2205038 -1.3039809 -0.24673654
-4.8394032 -1.4951981 0
-5.7843814 -1.7871616 0.33816299
-2.5230234 -0.78286248 -0.87104684
-3.0197155 -0.93697989 -0.87231535
-3.480763 -1.0800371 -0.80735952
-4.1597147 -1.2907073 -0.72610056
-4.2276964 -1.3118012 -0.49338713
-4.2288523 -1.3121599 -0.24731711
-4.8102584 -1.492563 0
-5.7797379 -1.7933803 0.33801797
-2.5433195 -0.79253042 -0.87838387
-3.0137954 -0.93913662 -0.87093234
-3.4818788 -1.0849973 -0.80792189
-4.1655073 -1.2980245 -0.72738487
-4.2310519 -1.318449 -0.49396425
-4.2173405 -1.3141764 -0.24673654
-4.8382678 -1.5076652 0
-5.7825332 -1.8019103 0.33830854
-2.5310373 -0.79038101 -0.87430674
-3.0036485 -0.93796599 -0.8681637
-3.4933567 -1.0908898 -0.81073791
-4.1818676 -1.305895 -0.7303794
-4.2401299 -1.3240889 -0.49511743
-4.2140679 -1.3159503 -0.24659155
-4.8323827 -1.5090349 0
-5.7913651 -1.8085016 0.33888909
-2.5560246 -0.80157489 -0.88327211
-2.9905462 -0.93784183 -0.86470354
-3.4823382 -1.0920688 -0.8084864
-4.1802869 -1.3109471 -0.7303794
-4.2187834 -1.3230196 -0.49281108
-4.2248693 -1.3249282 -0.24731711
-4.8181419 -1.5109798 0
-5.7966065 -1.8178284 0.33932409
-2.5385497 -0.799465 -0.87756658
-3.0276973 -0.95351219 -0.87577814
-3.4907103 -1.0993288 -0.81073791
-4.1615672 -1.3106016 -0.72738487
-4.2245755 -1.3304448 -0.49367514
-4.2232652 -1.3300321 -0.24731711
-4.8312016 -1.5214895 0
-5.7894535 -1.8232716 0.33903411
-2.5422995 -0.80402374 -0.87919807
-3.0313225 -0.9586814 -0.87716115
-3.474839 -1.0989473 -0.80735952
-4.1599803 -1.315629 -0.72738487
-4.2303658 -1.337889 -0.4945403
-4.21422 -1.3327829 -0.24688154
-4.8492107 -1.533604 0
-5.7946811 -1.832617 0.33946967
-2.517765 -0.79961228 -0.87104684
-2.9823403 -0.94715589 -0.86331791
-3.4565635 -1.0977635 -0.80342096
-4.1608319 -1.3214309 -0.72781241
-4.2287459 -1.3429996 -0.4945403
-4.2200389 -1.3402343 -0.24731711
-4.8175988 -1.5300122 0
-5.7924628 -1.8396175 0.33946967
-2.5026729 -0.79814953 -0.8661586
-3.000315 -0.95685691 -0.86885518
-3.4624898 -1.1042533 -0.80510801
-4.1592321 -1.3264575 -0.72781241
-4.2271199 -1.3481082 -0.4945403
-4.2258453 -1.3477017 -0.24775267
-4.8182235 -1.5366222 0
-5.7902355 -1.8466152 0.33946967
-2.5605507 -0.82001776 -0.88653195
-2.9800427 -0.95436031 -0.86331791
-3.468415 -1.1107618 -0.80679721
-4.1649632 -1.3338317 -0.72909671
-4.2230272 -1.3524268 -0.49425229
-4.2143154 -1.3496368 -0.2471721
-4.8089256 -1.540061 0
-5.7904725 -1.8544019 0.33961466
-2.507798 -0.80646592 -0.8686043
-3.0075471 -0.96717685 -0.87162381
-3.4525616 -1.1102861 -0.80342096
-4.1706729 -1.3412187 -0.7303794
-4.2386189 -1.3630691 -0.49626949
-4.2225761 -1.3579099 -0.24775267
-4.7872405 -1.5394965 0
-5.7857561 -1.8606025 0.33946967
-2.4997633 -0.80721623 -0.8661586
-3.0063763 -0.97081023 -0.87162381
-3.4826486 -1.1246067 -0.81073791
-4.1690493 -1.3462571 -0.7303794
-4.2394371 -1.3689867 -0.49655864
-4.2234025 -1.3638089 -0.24789767
-4.7952833 -1.5484788 0
-5.793385 -1.870783 0.34004965
-2.5246503 -0.81862271 -0.87512404
-2.9956553 -0.97134686 -0.86885518
-3.4861166 -1.1303799 -0.81186265
-4.1601009 -1.3489206 -0.72909671
-4.2500796 -1.3780963 -0.49799982
-4.2291694 -1.3713162 -0.24833322
-4.7983646 -1.5558789 0
-5.7861819 -1.8761804 0.33975965
-2.5213025 -0.82090527 -0.87430674
-2.9753952 -0.96875226 -0.86331791
-3.4799206 -1.1330196 -0.81073791
-4.1609063 -1.3547403 -0.72952431
-4.2311931 -1.3776246 -0.49598148
-4.2225628 -1.3748149 -0.24804266
-4.7915273 -1.5600626 0
-5.7937937 -1.8863883 0.34034023
-2.5625997 -0.83777714 -0.88897765
-2.993299 -0.97858334 -0.86885518
-3.4640539 -1.1324847 -0.80735952
-4.1739016 -1.3645514 -0.73209125
-4.246737 -1.3883631 -0.49799982
-4.2233758 -1.3807257 -0.24818823
-4.794591 -1.5674701 0
-5.7890425 -1.892581 0.34019521
-2.5380979 -0.83316278 -0.88082641
-2.9801986 -0.97828794 -0.86539501
-3.4771724 -1.1414258 -0.81073791
-4.1649399 -1.3671942 -0.73080862
-4.2450562 -1.3934934 -0.49799982
-4.2167621 -1.3842055 -0.24789767
-4.770432 -1.5659547 0
-5.7892179 -1.9003841 0.34034023
-2.5159652 -0.82926637 -0.87349254
-3.021898 -0.99602276 -0.87785262
-3.4685488 -1.1432396 -0.80904871
-4.1681561 -1.3738314 -0.7316637
-4.2384515 -1.3970008 -0.49742267
-4.2175517 -1.3901122 -0.24804266
-4.7907887 -1.5790521 0
-5.7869177 -1.9073778 0.34034023
-2.536077 -0.8392939 -0.88082641
-2.9849732 -0.98785245 -0.86747217
-3.4695749 -1.1482273 -0.80961108
-4.1616235 -1.3772552 -0.73080862
-4.231854 -1.4004974 -0.49684665
-4.2134047 -1.3943917 -0.24789767
-4.7938142 -1.5864735 0
-5.794476 -1.9176344 0.34092078
-2.5214982 -0.83615971 -0.87593824
-2.9677048 -0.98412734 -0.86262637
-3.466471 -1.1495243 -0.80904871
-4.1607909 -1.3797692 -0.73080862
-4.2432799 -1.4071237 -0.49828783
-4.2199626 -1.3993914 -0.24833322
-4.8027358 -1.592646 0
-5.8007178 -1.9235892 0.34135634
-2.5157914 -0.83764273 -0.87430674
-2.9760349 -0.99088264 -0.86539501
-3.4457934 -1.1472906 -0.80454564
-4.1566782 -1.3839824 -0.7303794
-4.2366734 -1.4106172 -0.49771178
-4.2182689 -1.4044894 -0.24833322
-4.8032746 -1.5992694 0
-5.788528 -1.9273134 0.34077579
-2.5265048 -0.84460235 -0.87838387
-2.9605639 -0.98970693 -0.86124337
-3.4540439 -1.1546757 -0.80679721
-4.164741 -1.3922596 -0.73209125
-4.2349658 -1.4157354 -0.49771178
-4.2264261 -1.4128807 -0.24891378
-4.7840681 -1.5992985 0
-5.793581 -1.9367754 0.34121078
-2.5418775 -0.85315746 -0.88408631
-2.964118 -0.99487853 -0.86262637
-3.457459 -1.1604638 -0.80792189
-4.1703591 -1.3997421 -0.73337561
-4.2504091 -1.4266102 -0.49972901
-4.2320991 -1.4204645 -0.24934877
-4.7623944 -1.5984532 0
-5.7912364 -1.9437745 0.34121078
-2.5127385 -0.84675676 -0.87430674
-2.9629138 -0.99845934 -0.86262637
-3.4632802 -1.1670756 -0.80961108
-4.1710954 -1.4055991 -0.73380315
-4.2462339 -1.4309198 -0.499441
-4.2279196 -1.4247481 -0.24920379
-4.7826533 -1.6116854 0
-5.7913532 -1.9516028 0.34135634
-2.5561993 -0.86484325 -0.88979185
-2.997354 -1.0140998 -0.8730095
-3.4546447 -1.1688157 -0.80792189
-4.164535 -1.4089942 -0.73294801
-4.242054 -1.4352213 -0.49915299
-4.2237358 -1.4290237 -0.24905878
-4.773304 -1.6149601 0
-5.788991 -1.9585991 0.34135634
-2.5177081 -0.85521215 -0.87675238
-2.9628654 -1.0064228 -0.86331791
-3.4532297 -1.1729891 -0.80792189
-4.1652579 -1.41485 -0.73337561
-4.2476664 -1.4428425 -0.50001812
-4.2195482 -1.4332913 -0.24891378
-4.7812061 -1.6240747 0
-5.8432016 -1.9848121 0.34469411
-2.5353873 -0.86463588 -0.88327211
-2.9426603 -1.003527 -0.85778326
-3.4590271 -1.1796221 -0.80961108
-4.173264 -1.4231962 -0.73508745
-4.2483654 -1.448808 -0.50030613
-4.2153563 -1.4375509 -0.24876878
-4.7743187 -1.6281723 0
-6.0203214 -2.053093 0.35528859
-2.5320046 -0.86689895 -0.88245791
-2.9841642 -1.0217078 -0.87024081
-3.4479835 -1.1805086 -0.80735952
-4.1691151 -1.427407 -0.73465991
-4.2343788 -1.449752 -0.49886495
-4.2234402 -1.4460068 -0.24934877
-4.7674189 -1.6322522 0
-6.0670033 -2.0771995 0.3581914
-2.5169265 -0.86513567 -0.87756658
-2.9331067 -1.0081881 -0.8557061
-3.4585667 -1.1888028 -0.81017345
-4.155251 -1.4282721 -0.73252046
-4.2424083 -1.4582304 -0.50001812
-4.224154 -1.4519559 -0.24949434
-4.7629843 -1.6371664 0
-6.0497499 -2.0794625 0.35732085
-2.5509276 -0.88027072 -0.88979185
-2.9437418 -1.0158225 -0.85916626
-3.4523287 -1.1913249 -0.80904871
-4.1559467 -1.4341285 -0.73294801
-4.2479711 -1.4658841 -0.50088215
-4.2248507 -1.4579058 -0.24963933
-4.7659183 -1.6446166 0
-5.9931893 -2.0681217 0.3541275
-2.5288455 -0.87607151 -0.88245791
-2.9543626 -1.023484 -0.86262637
-3.4388843 -1.1913376 -0.80623484
-4.1566339 -1.4399886 -0.73337561
-4.2413135 -1.4693242 -0.50030613
-4.2132649 -1.4596072 -0.24905878
-4.7688503 -1.6520796 0
-5.998054 -2.0779142 0.35456306
-2.4881017 -0.86532515 -0.8686043
-2.9341674 -1.0204602 -0.8570891
-3.4446352 -1.1979934 -0.80792189
-4.154891 -1.4450101 -0.73337561
-4.2468567 -1.4769943 -0.50117022
-4.218863 -1.4672586 -0.24949434
-4.7373538 -1.6475819 0
-5.9440017 -2.0672364 0.35151526
-2.5383861 -0.88625294 -0.88653195
-2.9305661 -1.0231788 -0.85639757
-3.4383919 -1.2004813 -0.80679721
-4.1725307 -1.4567988 -0.7367993
-4.245069 -1.4821248 -0.50117022
-4.2244401 -1.4749223 -0.24992934
-4.7476425 -1.6575934 0
-5.8850827 -2.0547197 0.34817746
-2.5046632 -0.87787563 -0.87512404
-2.9127524 -1.0209095 -0.85155177
-3.44173 -1.2063143 -0.80792189
-4.1731877 -1.4626876 -0.7372269
-4.2432752 -1.487253 -0.50117022
-4.2226548 -1.4800256 -0.24992934
-4.7259879 -1.6564422 0
-5.8580689 -2.0532327 0.34672579
-2.5315695 -0.89074236 -0.88490045
-2.9351869 -1.0327567 -0.85847473
-3.4522612 -1.2146912 -0.81073791
-4.1665788 -1.4660267 -0.73637176
-4.2561188 -1.4975315 -0.50290048
-4.2306676 -1.4885765 -0.25050989
-4.7387176 -1.6673357 0
-5.7796054 -2.033576 0.34222689
-2.5287023 -0.8914507 -0.88408631
-2.9629548 -1.0445391 -0.8667807
-3.4443352 -1.2142415 -0.80904871
-4.1729484 -1.4711016 -0.73765445
-4.2527761 -1.4992435 -0.50261247
-4.2224231 -1.488543 -0.25007489
-4.7327957 -1.6684662 0
-5.7514162 -2.0275633 0.3406302
-2.5043275 -0.8862614 -0.87593824
-2.9143898 -1.0313791 -0.85293746
-3.4644213 -1.2260308 -0.81411415
-4.1590705 -1.4718615 -0.735515
-4.2460804 -1.5026536 -0.50203532
-4.2255158 -1.495376 -0.2503649
-4.7283254 -1.6733162 0
-5.7342691 -2.0293119 0.33975965
-2.5218871 -0.89590579 -0.88245791
-2.9675071 -1.0542134 -0.86885518
-3.4413908 -1.2225616 -0.80904871
-4.1693811 -1.4811817 -0.73765445
-4.2588897 -1.5129797 -0.50376564
-4.2261519 -1.5013496 -0.25050989
-4.7262998 -1.6790283 0
-5.7244654 -2.0336287 0.33932409
-2.5184767 -0.89812297 -0.88164377
-2.9284322 -1.0443186 -0.85778326
-3.4446931 -1.2284242 -0.81017345
-4.1555014 -1.4819081 -0.735515
-4.2546153 -1.5172534 -0.50347656
-4.2292342 -1.5082023 -0.25080046
-4.7316236 -1.6873611 0
-0 -0 0
-2.4987738 -0.89450133 -0.87512404
-2.9129918 -1.0427815 -0.85362893
-0 -0 -0
-4.1633749 -1.4903888 -0.7372269
-4.2503462 -1.5215223 -0.50318849
-4.2274089 -1.5133114 -0.25080046
-4.7271242 -1.6921976 0
-0 -0 0
-2.5232704 -0.90671158 -0.88408631
-2.9188147 -1.0488465 -0.8557061
-3.4441125 -1.2376069 -0.81073791
-4.1591578 -1.4945511 -0.7367993
-4.2582407 -1.5301557 -0.50434166
-4.2329159 -1.5210552 -0.25123602
-4.7250762 -1.697908 0
-4.7658591 -1.712563 0.28286776
-2.4931843 -0.90270936 -0.87430674
-2.9634497 -1.0729789 -0.86954933
-3.4506681 -1.2493864 -0.81298947
-4.1724324 -1.5107162 -0.73979551
-4.2496715 -1.5386822 -0.50376564
-4.2292275 -1.5312802 -0.25123602
-4.7209592 -1.7093217 0
-5.7316203 -2.0752528 0.34048522
-2.5269382 -0.9183858 -0.88653195
-2.969218 -1.0791272 -0.87162381
-3.4539275 -1.2552891 -0.81411415
-4.1681843 -1.5148773 -0.73936629
-4.2648187 -1.5499978 -0.50578284
-4.2371335 -1.5399361 -0.251816
-4.7140031 -1.7132487 0
-0 -0 0
-2.4886758 -0.90788555 -0.87349254
-2.9396298 -1.0723966 -0.86331791
-3.4476388 -1.2577217 -0.81298947
-4.1687694 -1.5207949 -0.73979551
-4.2556601 -1.5524932 -0.50491881
-4.2352695 -1.5450547 -0.251816
-4.7143722 -1.7198344 0
-5.6997437 -2.0793047 0.33888909
-2.5084629 -0.91853988 -0.88082641
-2.9077089 -1.0647343 -0.85432047
-3.4604278 -1.267127 -0.81636572
-4.1669288 -1.525831 -0.73979551
-4.2610602 -1.5602998 -0.50578284
-4.2358465 -1.5510671 -0.25196156
-4.7220659 -1.729109 0
-5.697227 -2.0861902 0.33888909
-2.5003982 -0.91901469 -0.87838387
-2.9064202 -1.068247 -0.85432047
-3.458894 -1.2713073 -0.81636572
-4.1602583 -1.5290918 -0.73893875
-4.2664571 -1.568125 -0.506648
-4.2266502 -1.5534941 -0.251526
-4.7150922 -1.7330196 0
-5.6995754 -2.0948637 0.3391791
-2.4969604 -0.92117733 -0.87756658
-2.9286687 -1.080443 -0.86124337
-3.4573555 -1.2754858 -0.81636572
-4.163229 -1.5358963 -0.73979551
-4.2597108 -1.5714903 -0.50607198
-4.2320862 -1.561299 -0.25196156
-4.7227612 -1.7423186 0
-5.6994753 -2.1026475 0.33932409
-2.4796276 -0.91818833 -0.87186414
-2.9250019 -1.0831072 -0.86054921
-3.4486611 -1.2770145 -0.81467652
-4.1565509 -1.5391411 -0.73893875
-4.2505298 -1.5739409 -0.50520682
-4.2277527 -1.5655066 -0.251816
-4.718205 -1.7471176 0
-5.7018089 -2.1113391 0.33961466
-2.503994 -0.93065304 -0.88082641
-2.9072366 -1.0805252 -0.8557061
-3.4304504 -1.2749867 -0.81073791
-4.1546884 -1.5441624 -0.73893875
-4.2462029 -1.5781754 -0.50491881
-4.2258577 -1.5706139 -0.251816
-4.7185369 -1.7537266 0
-5.6895108 -2.1146059 0.33903411
-2.4635026 -0.91899312 -0.8669728
-2.9012232 -1.0822818 -0.85432047
-3.4479525 -1.2862356 -0.81524104
-4.1576343 -1.5509776 -0.73979551
-4.2612495 -1.5896305 -0.50693601
-4.2434335 -1.5829844 -0.25297713
-4.7115331 -1.7576058 0
-5.6918163 -2.1232939 0.33932409
-2.4994252 -0.93583566 -0.88001227
-2.918709 -1.0928241 -0.85985774
-3.4440093 -1.2895073 -0.81467652
-4.1605606 -1.5577986 -0.74065059
-4.2593255 -1.5947782 -0.50693601
-4.2342243 -1.5853798 -0.25254214
-4.7020917 -1.760559 0
-5.6916871 -2.1310835 0.33946967
-2.4942355 -0.93561107 -0.87838387
-2.9227507 -1.0963511 -0.86124337
-3.4218206 -1.2835569 -0.80961108
-4.166832 -1.5630176 -0.74193496
-4.2753158 -1.6037109 -0.50895435
-4.2405577 -1.5906729 -0.25297713
-4.6961589 -1.7615731 0
-5.6952596 -2.1363451 0.33975965
-2.4815309 -0.9342674 -0.87430674
-2.9261153 -1.1016482 -0.86262637
-0 -0 -0
-4.1673403 -1.5689548 -0.7423625
-4.2588463 -1.6034058 -0.50722408
-4.2386327 -1.5957955 -0.25297713
-4.6915936 -1.7663301 0
-5.6951036 -2.1441398 0.33990467
-2.5035253 -0.94600338 -0.88245791
-2.908361 -1.098978 -0.85778326
-3.4234672 -1.2936205 -0.81073791
-4.1654415 -1.5739892 -0.7423625
-4.2714276 -1.614038 -0.50895435
-4.2391391 -1.601837 -0.25312269
-4.6967521 -1.7747548 0
-5.6998029 -2.1537762 0.34034023
-2.5000715 -0.94815207 -0.88164377
-2.883569 -1.0935935 -0.8508603
-3.4195189 -1.2968525 -0.81017345
-4.1683416 -1.5808434 -0.74321926
-4.2646327 -1.6173619 -0.50837725
-4.2347636 -1.606034 -0.25297713
-4.6946044 -1.7804285 0
-5.6899052 -2.1578965 0.33990467
-2.4758203 -0.94237822 -0.87349254
-2.8986604 -1.103325 -0.8557061
-3.4250758 -1.3036959 -0.81186265
-4.1640224 -1.5849631 -0.74279004
-4.2554302 -1.619756 -0.50751317
-4.2231059 -1.6074523 -0.25239658
-4.6924496 -1.7860998 0
-5.6800151 -2.1619997 0.33946967
-2.4723732 -0.94448787 -0.87267834
-2.8926334 -1.1050344 -0.85432047
-3.3973863 -1.2978584 -0.80567032
-4.1693006 -1.5927426 -0.74407434
-4.2534699 -1.6248966 -0.50751317
-4.2357297 -1.6181195 -0.25326768
-4.680573 -1.788057 0
-4.4152374 -1.6866945 0.26400104
-2.4896927 -0.95455307 -0.87919807
-2.8959856 -1.1103266 -0.8557061
-3.4100552 -1.3074219 -0.80904871
-4.1721625 -1.5996153 -0.74492949
-4.2635765 -1.6346638 -0.50895435
-4.2240663 -1.6195154 -0.25268713
-4.6516762 -1.7834619 0
-4.4156203 -1.6929575 0.26414603
-2.4816151 -0.95489705 -0.87675238
-2.9203908 -1.1237329 -0.86331791
-3.4037254 -1.3097146 -0.80792189
-4.1678329 -1.6037345 -0.74450189
-4.2664218 -1.6416702 -0.50953043
-4.2342296 -1.6292831 -0.25341269
-4.5523624 -1.7516969 0
-4.4111485 -1.6973594 0.26400104
-2.4758525 -0.95611584 -0.87512404
-2.9120166 -1.1245521 -0.86124337
-3.4092536 -1.3165734 -0.80961108
-4.1658921 -1.6087693 -0.74450189
-4.2716756 -1.6496204 -0.51039553
-4.2322578 -1.6343981 -0.25341269
-4.4458556 -1.7168846 0
-4.4018202 -1.6998791 0.26356548
-2.4839137 -0.96267939 -0.87838387
-2.9083097 -1.1271607 -0.86054921
-3.4147701 -1.3234473 -0.81130028
-4.1711283 -1.6165857 -0.74578625
-4.2745075 -1.6566519 -0.51097268
-4.2351303 -1.6413907 -0.25370324
-4.4219408 -1.713792 0
-5.6959147 -2.2075405 0.34121078
-2.4689233 -0.96030253 -0.87349254
-2.8976021 -1.1270398 -0.85778326
-3.3894832 -1.3183599 -0.80567032
-4.1739521 -1.6234838 -0.74664134
-4.2725024 -1.6618155 -0.51097268
-4.2379827 -1.6483889 -0.25399324
-4.4222898 -1.7200762 0
-5.700511 -2.217248 0.34164634
-2.4378319 -0.95160228 -0.86289877
-2.877542 -1.1232421 -0.85224593
-3.3926263 -1.3243041 -0.80679721
-4.1791639 -1.6313273 -0.74792564
-4.2777128 -1.6697956 -0.51183671
-4.2335696 -1.6525644 -0.25384825
-4.4420342 -1.7339382 0
-5.6929908 -2.2222464 0.34135634
-2.455091 -0.96175945 -0.8694185
-2.8878601 -1.1312927 -0.8557061
-3.3791966 -1.3237693 -0.80398333
-4.1580682 -1.628885 -0.74450189
-4.2636528 -1.670247 -0.51039553
-4.2436643 -1.6624167 -0.25457379
-4.5513892 -1.7829651 0
-5.6903019 -2.2291236 0.34135634
-2.465426 -0.96924585 -0.87349254
-2.8888235 -1.1356983 -0.85639757
-3.3752322 -1.3269228 -0.80342096
-4.1680398 -1.6386033 -0.74664134
-4.2520032 -1.6716123 -0.50924236
-4.2271476 -1.6618407 -0.25370324
-4.6485333 -1.8275023 0
-5.6972771 -2.2398005 0.34193689
-2.4579387 -0.96801722 -0.87104684
-2.8717947 -1.1310073 -0.85155177
-3.3815155 -1.3317522 -0.80510801
-4.1718307 -1.6430043 -0.7474981
-4.2582145 -1.6770251 -0.51010752
-4.2285581 -1.6653454 -0.25384825
-4.661962 -1.8360342 0
-5.6983385 -2.2441933 0.3420819
-2.4797575 -0.98007292 -0.87919807
-2.8820984 -1.1390898 -0.85501462
-3.3704519 -1.3321013 -0.80285645
-4.1555138 -1.6423808 -0.74492949
-4.2537818 -1.6812192 -0.50981951
-4.2289572 -1.6714078 -0.25399324
-4.662158 -1.8426216 0
-5.6932082 -2.2501228 0.34193689
-2.462487 -0.97668892 -0.87349254
-2.9063656 -1.1527432 -0.86262637
-3.3688397 -1.3361729 -0.80285645
-4.1535263 -1.6474007 -0.74492949
-4.254149 -1.6873106 -0.51010752
-4.2365961 -1.6803485 -0.25457379
-4.6671786 -1.8511292 0
-5.6953115 -2.2589145 0.34222689
-2.4567165 -0.97783732 -0.87186414
-2.8816662 -1.1469783 -0.8557061
-3.3648643 -1.3393039 -0.80229414
-4.1610727 -1.6562155 -0.74664134
-4.2472963 -1.6905348 -0.50953043
-4.2393866 -1.6873864 -0.2548638
-4.6576915 -1.8538828 0
-5.690166 -2.2648344 0.3420819
-2.4463522 -0.97713786 -0.8686043
-2.8872697 -1.153252 -0.85778326
-3.3632436 -1.3433686 -0.80229414
-4.147151 -1.6564821 -0.74450189
-4.2404513 -1.6937486 -0.50895435
-4.2277012 -1.688656 -0.25428382
-4.6481953 -1.8566123 0
-5.689836 -2.2726712 0.34222689
-2.4589303 -0.98560876 -0.87349254
-2.8951797 -1.1604699 -0.86054921
-3.3639741 -1.3483759 -0.80285645
-4.1594481 -1.6672243 -0.74707055
-4.2191954 -1.6911727 -0.506648
-4.21842 -1.6908618 -0.25384825
-4.6652737 -1.8699735 0
-5.6919141 -2.2814801 0.34251744
-2.4715004 -0.994115 -0.87838387
-2.8821402 -1.1592871 -0.8570891
-3.3694167 -1.3552852 -0.80454564
-4.1526628 -1.6703311 -0.74621379
-4.2171488 -1.6962695 -0.506648
-4.2236085 -1.6988677 -0.25428382
-4.6533527 -1.8717245 0
-5.6939702 -2.2902935 0.34280744
-2.4611297 -0.99340016 -0.87512404
-2.8947001 -1.1684047 -0.86124337
-3.3795555 -1.3641098 -0.80735952
-4.1673069 -1.6820744 -0.74920994
-4.1959081 -1.693619 -0.50434166
-4.2070904 -1.6981325 -0.25341269
-4.6390238 -1.8724762 0
-5.6984296 -2.3000906 0.343243
-2.4301491 -0.9843117 -0.86453027
-2.8909543 -1.170957 -0.86054921
-3.3802576 -1.3691453 -0.80792189
-4.1605082 -1.6851792 -0.74835318
-4.1866646 -1.6957737 -0.50347656
-4.1905899 -1.6973636 -0.25254214
-4.6391673 -1.8790563 0
-5.6980524 -2.3079488 0.34338799
-2.4632969 -1.0012044 -0.87675238
-2.8639784 -1.164061 -0.85293746
-3.3691852 -1.3694017 -0.80567032
-4.1608539 -1.6911746 -0.7487824
-4.1702404 -1.6949897 -0.50174731
-4.1861215 -1.7014446 -0.25239658
-4.6320763 -1.8827025 0
-5.6952596 -2.3148322 0.34338799
-2.4529309 -1.0004463 -0.87349254
-2.8765032 -1.1732036 -0.8570891
-3.3698876 -1.374434 -0.80623484
-4.1445408 -1.6903822 -0.74621379
-4.1562171 -1.6951444 -0.50030613
-4.1864758 -1.7074857 -0.25254214
-4.6297979 -1.888298 0
-5.6948619 -2.3226924 0.34353301
-2.4448557 -1.0006001 -0.87104684
-2.9029458 -1.1880814 -0.86539501
-3.3682244 -1.3785049 -0.80623484
-4.1448689 -1.6963603 -0.74664134
-4.166132 -1.7050626 -0.50174731
-4.191617 -1.7154927 -0.25297713
-4.6395535 -1.8988187 0
-5.6968656 -2.3315423 0.34382355
-2.4367926 -1.0007393 -0.8686043
-2.8713412 -1.1791993 -0.85639757
-3.3689044 -1.383538 -0.80679721
-4.1451979 -1.7023454 -0.74707055
-4.1640687 -1.7100953 -0.50174731
-4.1943531 -1.7225324 -0.25326768
-4.6396608 -1.905411 0
-5.6892323 -2.336448 0.34353301
-2.4470053 -1.0083907 -0.87267834
-2.8861535 -1.1893599 -0.86124337
-3.3766272 -1.3914801 -0.80904871
-4.1455088 -1.7083299 -0.7474981
-4.1619992 -1.7151256 -0.50174731
-4.1922688 -1.7275993 -0.25326768
-4.6301346 -1.90804 0
-5.6840048 -2.3423314 0.34338799
-2.445785 -1.0113467 -0.87267834
-2.8800728 -1.1909273 -0.85985774
-3.365551 -1.3916754 -0.80679721
-4.1529307 -1.7172614 -0.74920994
-4.1670971 -1.7231193 -0.50261247
-4.1901779 -1.7326635 -0.25326768
-4.6134 -1.9076684 0
-5.6859684 -2.3511817 0.343678
-2.4491227 -1.0161937 -0.87430674
-2.8693628 -1.1905605 -0.8570891
-3.3709099 -1.3986632 -0.8084864
-4.1484838 -1.7212954 -0.7487824
-4.169785 -1.7301338 -0.50318849
-4.2000794 -1.7427034 -0.25399324
-4.6327238 -1.9222169 0
-5.6879282 -2.360044 0.34396857
-2.4576375 -1.0214677 -0.87756658
-2.8593767 -1.1884423 -0.85432047
-3.3724084 -1.4016738 -0.80904871
-4.1498113 -1.7247857 -0.74920994
-4.1711254 -1.7336444 -0.50347656
-4.1990256 -1.7452406 -0.25399324
-4.6291604 -1.9240175 0
-5.686501 -2.3634799 0.34396857
-2.4404399 -1.0177797 -0.87186414
-2.8787756 -1.2005866 -0.86054921
-3.3660176 -1.4037896 -0.80792189
-4.140614 -1.7268333 -0.74792564
-4.1690273 -1.7386831 -0.50347656
-4.163343 -1.7363124 -0.25196156
-4.6220241 -1.9276041 0
-5.693234 -2.3743498 0.34454912
-2.4414861 -1.021681 -0.87267834
-2.8611293 -1.1972877 -0.8557061
-3.3643188 -1.4078559 -0.80792189
-4.1479969 -1.7357991 -0.74963754
-4.1669235 -1.7437192 -0.50347656
-4.161242 -1.7413417 -0.25196156
-4.6196914 -1.9331875 0
-5.6951504 -2.3832316 0.34483913
-2.4311345 -1.0208027 -0.8694185
-2.8596804 -1.2007439 -0.8557061
-3.3626153 -1.41192 -0.80792189
-4.1529994 -1.7437923 -0.75092185
-4.1624312 -1.7477525 -0.50318849
-4.1615286 -1.7473736 -0.25210658
-4.6221557 -1.9407852 0
-5.6898732 -2.3891063 0.34469411
-2.4458454 -1.0304579 -0.87512404
-2.8582275 -1.2041984 -0.8557061
-3.3609068 -1.4159819 -0.80792189
-4.1461535 -1.7468139 -0.75006509
-4.1722317 -1.7578009 -0.50462973
-4.1689925 -1.7564361 -0.25268713
-4.6198072 -1.9463687 0
-5.6965609 -2.4000151 0.34527469
-2.4263861 -1.0257134 -0.8686043
-2.8567705 -1.2076511 -0.8557061
-3.3451557 -1.4141077 -0.80454564
-4.1322198 -1.7468256 -0.74792564
-4.1629648 -1.7598225 -0.50376564
-4.1644759 -1.7604614 -0.25254214
-4.6078639 -1.947896 0
-5.6936564 -2.4068966 0.34527469
-2.4251449 -1.0286446 -0.8686043
-2.8576164 -1.2120808 -0.85639757
-3.3457816 -1.4191399 -0.80510801
-4.1537342 -1.7618394 -0.75220448
-4.1727386 -1.7699003 -0.50520682
-4.1599469 -1.7644745 -0.25239658
-4.6150904 -1.9575273 0
-5.6811757 -2.4097159 0.34469411
-2.4534628 -1.0441555 -0.87919807
-2.8515375 -1.2135698 -0.85501462
-3.3604324 -1.4301475 -0.80904871
-4.1397943 -1.7618318 -0.75006509
-4.1682196 -1.773929 -0.50491881
-4.1673756 -1.7735699 -0.25297713
-4.6031427 -1.9590257 0
-5.6806483 -2.4175951 0.34483913
-2.3976464 -1.0238245 -0.85963893
-2.8546791 -1.2189829 -0.85639757
-3.3493547 -1.4302156 -0.80679721
-4.1471057 -1.7708651 -0.75177693
-4.173202 -1.7820085 -0.50578284
-4.1676259 -1.7796274 -0.25312269
-4.5959811 -1.9625403 0
-5.682507 -2.4265003 0.34512967
-2.4304876 -1.0413221 -0.87186414
-2.8393724 -1.2165053 -0.85224593
-3.3522909 -1.4362609 -0.80792189
-4.1496868 -1.7778986 -0.75263369
-4.17343 -1.7880713 -0.50607198
-4.1726313 -1.7877289 -0.25355768
-4.6007853 -1.9711679 0
-5.6843433 -2.4354093 0.34541968
-2.4224136 -1.0413289 -0.8694185
-2.8379004 -1.2199353 -0.85224593
-3.355226 -1.4423194 -0.80904871
-4.135746 -1.7778434 -0.7504943
-4.1688833 -1.7920883 -0.50578284
-4.1752472 -1.7948238 -0.25384825
-4.5960116 -1.9756988 0
-4.6812015 -2.0123196 0.28460944
-2.4143426 -1.0413177 -0.8669728
-2.8525431 -1.2303156 -0.8570891
-3.35115 -1.4453671 -0.8084864
-4.1477332 -1.7889372 -0.75306123
-4.1690969 -1.7981516 -0.50607198
-4.1635313 -1.7957511 -0.25326768
-4.5936208 -1.9812508 0
-4.7169423 -2.0344398 0.28693166
-2.4380364 -1.0550326 -0.87593824
-2.8464539 -1.2317706 -0.8557061
-3.3587289 -1.4534518 -0.81073791
-4.1455684 -1.7939477 -0.75306123
-4.1645408 -1.8021576 -0.50578284
-4.1708975 -1.8049085 -0.25384825
-4.6031637 -1.9919667 0
-4.7168632 -2.0411689 0.28707668
-2.414093 -1.0481364 -0.8677901
-2.8288527 -1.2282141 -0.8508603
-3.3476474 -1.4534613 -0.8084864
-4.1386838 -1.7969089 -0.75220448
-4.1694798 -1.8102796 -0.506648
-4.1710949 -1.8109808 -0.25399324
-4.5983682 -1.9964918 0
-4.7024779 -2.0416934 0.28635111
-2.4264159 -1.056973 -0.87267834
-2.8457668 -1.2396467 -0.85639757
-3.3412254 -1.4554738 -0.80735952
-4.1318073 -1.7998599 -0.75134939
-4.1672893 -1.8153162 -0.506648
-4.1736727 -1.8180969 -0.25428382
-4.5959525 -2.0020466 0
-5.7219305 -2.4925349 0.34861246
-2.4455178 -1.0688114 -0.88001227
-2.8419702 -1.2420806 -0.8557061
-3.3417902 -1.4605266 -0.80792189
-4.1390386 -1.8089632 -0.75306123
-4.1650929 -1.8203503 -0.506648
-4.1619487 -1.8189762 -0.25370324
-4.5982952 -2.009681 0
-5.7070122 -2.4942448 0.34788692
-2.4426095 -1.0692985 -0.87919807
-2.8641968 -1.2538563 -0.86262637
-3.3385818 -1.4615272 -0.80735952
-4.1402941 -1.8124919 -0.75348884
-4.171103 -1.825979 -0.50751317
-4.1656051 -1.8235724 -0.25399324
-4.5803986 -2.005156 0
-5.6959829 -2.4935241 0.34730634
-2.4232121 -1.0642978 -0.87267834
-2.8282316 -1.2421862 -0.85224593
-3.332165 -1.4635186 -0.80623484
-4.1475024 -1.8216226 -0.75520068
-4.173625 -1.8330959 -0.50808918
-4.172915 -1.8327841 -0.25457379
-4.5589099 -2.0023167 0
-5.7024822 -2.5045843 0.34788692
-2.4241838 -1.0682207 -0.87349254
-2.8542688 -1.2577384 -0.86054921
-3.3327172 -1.4685674 -0.80679721
-4.1429515 -1.8255985 -0.75477314
-4.1714072 -1.8381375 -0.50808918
-4.1778331 -1.8409692 -0.25500935
-4.5493402 -2.0046744 0
-5.6970758 -2.510426 0.3477419
-2.4455013 -1.0811448 -0.88164377
-2.84587 -1.2581459 -0.85847473
-3.326288 -1.4705365 -0.80567032
-4.1430883 -1.8316401 -0.75520068
-4.1810088 -1.8484046 -0.50953043
-4.1684737 -1.842863 -0.25457379
-4.5564356 -2.014379 0
-5.7035446 -2.5215108 0.34832248
-2.4148152 -1.0710686 -0.87104684
-2.8420568 -1.2605675 -0.85778326
-3.3314791 -1.4776462 -0.80735952
-4.1361833 -1.8345653 -0.7543456
-4.1740484 -1.85136 -0.50895435
-4.1733723 -1.85106 -0.25500935
-4.5444822 -2.0156624 0
-5.7004938 -2.5284004 0.34832248
-2.4090073 -1.0719779 -0.8694185
-2.8382328 -1.2629778 -0.8570891
-3.3366575 -1.4847707 -0.80904871
-4.1245823 -1.8353871 -0.75263369
-4.1765299 -1.8585031 -0.50953043
-4.1663799 -1.8539865 -0.25471881
-4.5349083 -2.017977 0
-5.6998062 -2.5363419 0.34846747
-2.4077103 -1.074888 -0.8694185
-2.8138006 -1.2561811 -0.85016882
-3.334861 -1.4888012 -0.80904871
-4.1293869 -1.843506 -0.75391638
-4.1719217 -1.8624949 -0.50924236
-4.1665072 -1.8600777 -0.2548638
-4.539598 -2.0266387 0
-5.7062283 -2.5474644 0.34904802
-2.4163759 -1.0857674 -0.87349254
-2.8107567 -1.2629774 -0.85016882
-3.317343 -1.4906055 -0.80567032
-4.1132145 -1.84822 -0.75177693
-4.1674085 -1.8725713 -0.50924236
-4.1667447 -1.8722731 -0.25515437
-4.5299349 -2.0354681 0
-5.7024236 -2.5623107 0.34919304
-2.3857722 -1.0754827 -0.86289877
-2.8275256 -1.2746208 -0.8557061
-3.3201768 -1.4967031 -0.80679721
-4.096941 -1.8468608 -0.74920994
-4.1674986 -1.8786675 -0.50953043
-4.1621127 -1.8762397 -0.25500935
-4.5156116 -2.0355935 0
-5.7087989 -2.5734706 0.34977359
-2.4182532 -1.0936426 -0.87512404
-2.8168397 -1.2739012 -0.85293746
-3.3067923 -1.4954797 -0.80398333
-4.1040626 -1.8560411 -0.75092185
-4.1793699 -1.8900986 -0.51126069
-4.1787834 -1.8898332 -0.25617048
-4.5036635 -2.0367587 0
-5.7033195 -2.5792968 0.3496286
-2.4124241 -1.0945194 -0.87349254
-2.8290019 -1.2835212 -0.8570891
-3.3142385 -1.5036736 -0.80623484
-4.0901303 -1.8556966 -0.7487824
-4.172368 -1.8930078 -0.51068354
-4.1741238 -1.8938044 -0.25602493
-4.4846163 -2.0346751 0
-5.697835 -2.5851138 0.34948358
-2.4110999 -1.0974336 -0.87349254
-2.8183155 -1.2827814 -0.85432047
-3.3239801 -1.5129391 -0.80904871
-4.0972309 -1.8648911 -0.7504943
-4.1747904 -1.9001929 -0.51126069
-4.1765671 -1.9010016 -0.25631547
-4.4892535 -2.0433238 0
-5.6899729 -2.5898416 0.34919304
-2.4322596 -1.1106143 -0.88164377
-2.8167634 -1.2861857 -0.85432047
-3.3198404 -1.5158999 -0.8084864
-4.0996404 -1.8719709 -0.75134939
-4.179543 -1.9084558 -0.51212478
-4.1766281 -1.907125 -0.25646049
-4.4275994 -2.021723 0
-5.6821165 -2.5945585 0.34890303
-2.4151843 -1.106346 -0.87593824
-2.8083713 -1.2864569 -0.85224593
-3.3180063 -1.5199102 -0.8084864
-4.0833769 -1.8705107 -0.7487824
-4.1795921 -1.9145849 -0.51241386
-4.176681 -1.9132514 -0.25660548
-4.3754768 -2.0043159 0
-4.4104414 -2.0203323 0.27096719
-2.4003663 -1.1030692 -0.87104684
-2.8068147 -1.2898493 -0.85224593
-3.3115454 -1.5217943 -0.80735952
-4.0787745 -1.8743683 -0.74835318
-4.1772757 -1.9196337 -0.51241386
-4.174366 -1.9182967 -0.25660548
-4.3706803 -2.0085113 0
-4.410356 -2.0267439 0.27111217
-2.3990316 -1.1059688 -0.87104684
-2.8234806 -1.3016424 -0.85778326
-3.3097041 -1.5257945 -0.80735952
-4.0858316 -1.8835942 -0.75006509
-4.1725974 -1.9235938 -0.51212478
-4.1767693 -1.925517 -0.25689602
-4.3753428 -2.0170608 0
-4.3961072 -2.0266333 0.27038661
-2.3938797 -1.1053478 -0.8694185
-2.8112988 -1.2980865 -0.85432047
-3.3064771 -1.5267297 -0.80679721
-4.0753703 -1.8817577 -0.74835318
-4.1761355 -1.9282849 -0.51270187
-4.1756053 -1.92804 -0.25689602
-4.3575816 -2.0120659 0
-5.7229891 -2.6425276 0.35209581
-2.4037535 -1.1134326 -0.87349254
-2.8211169 -1.3067577 -0.85778326
-3.3046298 -1.5307238 -0.80679721
-4.0707669 -1.8856028 -0.74792564
-4.1691041 -1.9311532 -0.51212478
-4.1685524 -1.9308977 -0.25660548
-4.3645935 -2.0217049 0
-5.7174363 -2.6483495 0.35195082
-2.3777571 -1.1048824 -0.86453027
-2.8172543 -1.3091053 -0.8570891
-3.3073821 -1.5368551 -0.80792189
-4.0801229 -1.8959279 -0.75006509
-4.1714635 -1.9383713 -0.51270187
-4.1779962 -1.9414071 -0.25733104
-4.3975515 -2.0434287 0
-5.7095146 -2.653064 0.35166025
-2.3898571 -1.1140181 -0.8694185
-2.8065748 -1.3082687 -0.85432047
-3.2963107 -1.5365562 -0.80567032
-4.0824871 -1.9030278 -0.75092185
-4.1761532 -1.9466897 -0.51356703
-4.1850681 -1.9508452 -0.25791159
-4.4115844 -2.0564344 0
-5.694531 -2.6544728 0.35093471
-2.4086573 -1.1263264 -0.87675238
-2.8027217 -1.3105973 -0.85362893
-3.2990594 -1.5426927 -0.80679721
-4.0662279 -1.9014329 -0.74835318
-4.1737981 -1.9517344 -0.51356703
-4.180356 -1.9548011 -0.2577666
-4.4185262 -2.0661731 0
-5.7007351 -2.6657543 0.35151526
-2.398344 -1.1250374 -0.87349254
-2.798867 -1.3129184 -0.85293746
-3.2879915 -1.5423615 -0.80454564
-4.0732236 -1.9107056 -0.75006509
-4.1761155 -1.9589709 -0.51414305
-4.1827006 -1.96206 -0.25805715
-4.4160266 -2.0715106 0
-5.6951594 -2.6715381 0.35137025
-2.4305305 -1.1437209 -0.88571781
-2.7995462 -1.3173665 -0.85362893
-3.2907193 -1.5484949 -0.80567032
-4.0616212 -1.9112538 -0.74835318
-4.1807685 -1.9673204 -0.51500821
-4.1803269 -1.9671125 -0.25805715
-4.4111676 -2.075738 0
-5.6872206 -2.6762028 0.3510797
-2.3956182 -1.1308299 -0.87349254
-2.811569 -1.3271759 -0.85778326
-3.2957413 -1.555725 -0.80735952
-4.0662751 -1.9194486 -0.74963754
-4.1760516 -1.9712676 -0.5147202
-4.1802945 -1.9732703 -0.25820214
-4.4251328 -2.0888441 0
-5.6957383 -2.688622 0.35180581
-2.3808515 -1.1273793 -0.8686043
-2.7986197 -1.3252007 -0.85432047
-3.2823789 -1.55427 -0.80454564
-4.0732336 -1.9287549 -0.75134939
-4.1666517 -1.9729903 -0.51385504
-4.1802535 -1.9794309 -0.25834715
-4.4037886 -2.0852792 0
-5.6971779 -2.6977241 0.35209581
-2.3683269 -1.124954 -0.86453027
-2.7902248 -1.3253552 -0.85224593
-3.2896791 -1.5625957 -0.80679721
-4.061625 -1.9292696 -0.74963754
-4.1759439 -1.9835711 -0.51529622
-4.1872468 -1.98894 -0.2589277
-4.4059629 -2.0928299 0
-5.7150359 -2.7146389 0.35340193
-2.4115825 -1.1490738 -0.88082641
-2.7999432 -1.3341203 -0.8557061
-3.2717297 -1.5589178 -0.80285645
-4.0616059 -1.935279 -0.75006509
-4.1898913 -1.9964045 -0.51731455
-4.1989198 -2.0007064 -0.25979882
-4.417532 -2.104871 0
-5.7023687 -2.7170715 0.35282138
-2.3477616 -1.1221472 -0.85801053
-2.7847435 -1.3310091 -0.85155177
-3.2767234 -1.5661582 -0.80454564
-4.0592647 -1.9401852 -0.75006509
-4.2131391 -2.0137317 -0.52048492
-4.217597 -2.0158625 -0.26110494
-4.407939 -2.1068392 0
-5.7061172 -2.7273226 0.35325694
-2.3753748 -1.1388732 -0.8686043
-2.7763534 -1.3311224 -0.84947729
-3.2817042 -1.5734128 -0.80623484
-4.0407205 -1.9373231 -0.74707055
-4.2433591 -2.0344782 -0.52452159
-4.2339025 -2.0299442 -0.26226604
-4.3795829 -2.0997906 0
-5.7121897 -2.7387087 0.35383749
-2.3695378 -1.139598 -0.8669728
-2.7747428 -1.3344761 -0.84947729
-3.272929 -1.5740721 -0.80454564
-4.054564 -1.9499892 -0.75006509
-4.2735262 -2.0552962 -0.52855712
-4.2525196 -2.0451934 -0.26357216
-4.3957963 -2.1141005 0
-5.7041883 -2.7433543 0.35354695
-2.3948724 -1.1553475 -0.87675238
-2.7934623 -1.3476374 -0.8557061
-3.2778924 -1.5813389 -0.80623484
-4.0591435 -1.9582342 -0.75134939
-4.2920032 -2.0705719 -0.53115147
-4.2500453 -2.0503302 -0.26357216
-4.4002728 -2.1228037 0
-0 -0 0
-2.3986292 -1.1589468 -0.87838387
-2.7768331 -1.3416837 -0.8508603
-3.2815077 -1.5855275 -0.80735952
-4.051023 -1.9573348 -0.75006509
-4.3023939 -2.0787897 -0.53259265
-4.2558184 -2.0562856 -0.26400718
-4.3802428 -2.1164041 0
-5.7015533 -2.754822 0.3536925
-2.4305828 -1.1780105 -0.89060605
-2.7639241 -1.3395683 -0.84740019
-3.2841668 -1.59171 -0.8084864
-4.0463471 -1.9611096 -0.74963754
-4.2929029 -2.0806057 -0.53172863
-4.2720366 -2.0704927 -0.26516828
-4.3917389 -2.1285076 0
-5.7028923 -2.7639737 0.35398248
-2.4113748 -1.1723013 -0.88408631
-2.7735827 -1.3483903 -0.8508603
-3.2799494 -1.594563 -0.80792189
-4.0509028 -1.9693657 -0.75092185
-4.2787485 -2.0801337 -0.53028631
-4.2648625 -2.0733831 -0.26487827
-4.3891635 -2.1338127 0
-5.7112308 -2.7765419 0.35470805
-0 -0 -0
-2.7809711 -1.3561392 -0.85362893
-3.284874 -1.6018672 -0.80961108
-4.0462155 -1.9731349 -0.7504943
-4.2832084 -2.0887043 -0.53115147
-4.2436695 -2.0694234 -0.26371717
-4.3725424 -2.1322682 0
-5.7102141 -2.7845831 0.3548536
-0 -0 -0
-2.7590501 -1.3495784 -0.84740019
-3.2692456 -1.5991385 -0.80623484
-4.0392118 -1.9757644 -0.74963754
-4.2783604 -2.0927429 -0.53086346
-4.2598395 -2.0836835 -0.26487827
-4.3769784 -2.1409817 0
-5.7161822 -2.7960477 0.35543415
-0 -0 -0
-2.7664266 -1.3573315 -0.85016882
-3.2695899 -1.6042057 -0.80679721
-4.0345192 -1.9795139 -0.74920994
-4.2874365 -2.1036065 -0.53230464
-4.2503181 -2.0853944 -0.26444274
-4.3510284 -2.1348073 0
-5.7104597 -2.8018045 0.35528859
-0 -0 -0
-2.7940445 -1.3750733 -0.85916626
-3.2722044 -1.610397 -0.80792189
-4.0390363 -1.987789 -0.7504943
-4.2895374 -2.1110718 -0.5328818
-4.2571206 -2.095118 -0.26502329
-4.3461041 -2.1389108 0
-5.7094083 -2.8098533 0.35543415
-0 -0 -0
-2.7676332 -1.3662318 -0.85155177
-3.2611425 -1.6098508 -0.80567032
-4.0251155 -1.9869832 -0.74835318
