# .PCD v0.7 - Point Cloud Data file format
VERSION 0.7
FIELDS x y z
SIZE 4 4 4
TYPE F F F
COUNT 1 1 1
WIDTH 1750
HEIGHT 1
VIEWPOINT 0 0 0 1 0 0 0
POINTS 1750
DATA ascii
0 0 0
0 0 0
0 0 0
0 0 0
0 0 0
0 0 0
0 0 0
0 0 0
0 0 0
0 0 0
0 0 0
57.969116 116.36585 0
0 0 0
57.790268 116.35889 0
0 0 0
57.677345 116.48461 0
0 0 0
0 0 0
0 0 0
0 0 -0
0 0 0
0 0 0
0 0 0
0 0 0
0 0 -0
0 0 0
0 0 0
0 0 0
0 0 0
37.109547 76.332787 0
0 0 0
37.013882 76.370544 0
0 0 0
36.918182 76.408188 0
0 0 0
36.821312 76.443367 0
0 0 0
36.76384 76.442139 0
0 0 0
36.704075 76.554558 0
0 0 0
0 0 0
0 0 0
0 0 0
0 0 0
11.626386 24.476631 0
0 0 0
11.597915 24.493011 0
0 0 0
11.566092 24.502304 0
0 0 0
11.532044 24.506842 0
0 0 0
1.7813228 3.7974069 -0.69927466
11.500212 24.516043 0
0 0 0
1.7033917 3.6427155 -0.89083952
1.7865186 3.8204827 -0.70312595
11.461761 24.511061 0
0 0 0
1.7226043 3.6954322 -0.90322191
1.7981707 3.8575416 -0.70954591
11.431038 24.522535 0
11.533657 24.74268 1.5248077
1.7296891 3.73417 -0.91166574
1.8125781 3.9131162 -0.71896034
11.376119 24.559534 0
11.460725 24.742188 1.523066
1.7283725 3.74318 -0.91335493
1.8089236 3.9176319 -0.71938789
11.346435 24.573261 0
11.41666 24.725351 1.5211793
1.7355313 3.7706485 -0.91954499
1.8041886 3.9198146 -0.71938789
11.316734 24.586954 0
0 0 0
1.7320325 3.7750499 -0.92010736
1.803733 3.9313247 -0.72109979
11.287018 24.600609 0
0 0 0
1.7316971 3.7863829 -0.92235893
1.7947108 3.9241633 -0.71938789
11.261614 24.623697 0
0 0 0
1.7355528 3.8069685 -0.926862
1.6121475 3.5362763 -0.64792192
11.238328 24.651489 0
0 0 0
1.7267467 3.7998097 -0.92461044
1.5600827 3.4330556 -0.62866378
11.209614 24.667427 0
0 0 0
1.729494 3.8180971 -0.9285512
1.5559334 3.4349382 -0.62866378
1.6389707 3.6182547 -0.44274071
11.184091 24.690428 0
11.167422 24.653629 1.511746
1.7123319 3.7923946 -0.92179656
0 0 -0
1.6260825 3.6013737 -0.44043437
11.159607 24.71579 0
0 0 0
1.6891561 3.7471004 -0.91053885
0 0 -0
1.613279 3.5787802 -0.43755201
0 0 0
0 0 0
1.5867399 3.5312905 -0.85763091
0 0 -0
1.602595 3.566576 -0.43582281
0 0 0
0 0 0
1.5191213 3.3917615 -0.82329768
0 0 -0
1.5887702 3.5472672 -0.43322846
0 0 0
0 0 0
1.5005186 3.3611076 -0.81541622
0 0 -0
1.5475779 3.4665189 -0.42313793
0 0 0
0 0 0
1.5005883 3.3722038 -0.81766772
0 0 -0
0 0 -0
21.674868 48.708946 0
0 0 0
1.4903333 3.3600829 -0.81429154
0 0 -0
0 0 -0
21.643429 48.796947 0
0 0 0
1.4801098 3.3479421 -0.81091529
0 0 -0
0 0 -0
21.578136 48.808781 0
0 0 0
1.4842561 3.3683205 -0.81541622
0 0 -0
0 0 -0
21.505503 48.80386 0
10.798379 24.505476 1.4957815
1.4730356 3.3538334 -0.8114776
0 0 -0
1.5453306 3.5184362 -0.42832777
21.449657 48.83696 0
10.799063 24.587496 1.4999903
1.472036 3.362587 -0.81316465
0 0 -0
1.5431507 3.5250351 -0.42890379
21.360367 48.793705 0
10.793309 24.655268 1.5033282
1.4659415 3.35971 -0.81203997
0 0 -0
1.5347527 3.5174146 -0.42775062
21.29723 48.80994 0
10.705321 24.534931 1.4952009
1.464922 3.3684714 -0.81372917
0 0 -0
1.5243144 3.5050397 -0.42602143
21.213327 48.778358 0
0 0 0
1.4568086 3.3609138 -0.8114776
0 0 -0
1.5180188 3.5021281 -0.42544428
21.14506 48.782467 0
10.310158 23.785931 1.448033
1.4537532 3.3650019 -0.81203997
0 0 -0
1.509683 3.4944623 -0.4242911
21.096422 48.831875 0
10.656502 24.666597 1.5008609
1.4516941 3.371419 -0.81316465
0 0 -0
1.5054595 3.4962838 -0.4242911
0 0 0
0 0 0
1.443615 3.3638396 -0.81091529
0 0 -0
1.4920545 3.476711 -0.42169675
21.174377 49.339481 0
0 0 0
1.4505382 3.3912728 -0.81710541
0 0 -0
1.4827676 3.4666233 -0.42025557
21.039009 49.187965 0
0 0 0
1.4414582 3.3813384 -0.81429154
0 0 -0
1.4694501 3.4470007 -0.41766122
21.002014 49.266026 0
0 0 0
0 0 -0
1.4383641 3.3854139 -0.81485385
0 0 -0
1.4612383 3.4392517 -0.41650805
10.392707 24.460854 0
10.223807 24.063322 1.4603691
1.4293196 3.3754528 -0.81203997
0 0 -0
1.4550625 3.4362469 -0.4159309
10.34082 24.420675 0
10.160277 23.994308 1.4554347
1.42524 3.3771775 -0.81203997
0 0 -0
1.4509095 3.4380023 -0.4159309
10.252621 24.294098 0
10.111071 23.958689 1.4525319
1.4211583 3.378897 -0.81203997
0 0 -0
1.4427431 3.4302163 -0.41477773
10.142543 24.114561 0
10.033762 23.855927 1.4455657
1.4220687 3.3867855 -0.81372917
0 0 -0
1.4416747 3.4334791 -0.41506687
10.086664 24.022306 0
9.9579878 23.715851 1.436713
1.4258223 3.407253 -0.81823224
0 0 -0
1.4325298 3.4232817 -0.41362455
10.026489 23.960058 0
9.9403553 23.754227 1.4383091
1.4226813 3.4113162 -0.81879461
0 0 -0
1.43138 3.432174 -0.41448972
10.751802 25.780754 0
9.9006472 23.739845 1.436713
1.4185584 3.4130328 -0.81879461
0 0 -0
1.4242529 3.4267335 -0.41362455
10.725637 25.80574 0
9.8330593 23.658211 1.4310523
1.4241551 3.4382145 -0.82442236
0 0 -0
1.4171448 3.4212899 -0.41276053
10.683492 25.792231 0
9.77563 23.600458 1.4268434
1.4597491 3.5362256 -0.84750009
0 0 -0
1.4149817 3.4277768 -0.41333655
11.735656 28.429493 0
9.743144 23.602655 1.4262635
1.4835081 3.6061296 -0.86382324
0 0 -0
1.4177279 3.4462302 -0.41535488
11.688426 28.412367 0
9.7264767 23.643238 1.4280045
1.4887863 3.6314249 -0.86945099
1.4226347 3.4700689 -0.62524003
1.4076742 3.4335771 -0.41362455
11.66396 28.450554 0
9.7136726 23.693441 1.4303268
1.4911253 3.6496885 -0.87339169
1.4242681 3.4860482 -0.62780869
1.399615 3.4257073 -0.41247252
11.614809 28.428486 0
9.6870041 23.709976 1.4306173
0 0 -0
1.4181169 3.483007 -0.62695193
1.3915733 3.4178138 -0.41131935
20.056273 49.259785 0
9.660306 23.726473 1.4309074
1.4823011 3.6532812 -0.87339169
1.4168037 3.4918563 -0.62823623
1.3786877 3.3979156 -0.40872386
19.957598 49.187519 0
9.6286983 23.730902 1.4304718
1.4797889 3.6597764 -0.87451643
1.4212431 3.5149825 -0.63208753
1.3600404 3.3636174 -0.40440032
0 0 0
9.6087866 23.764206 1.4317784
1.4734683 3.6568527 -0.87339169
1.4121988 3.5047941 -0.62994808
1.3801407 3.4252324 -0.41160735
0 0 0
9.590744 23.802305 1.4333745
1.4728357 3.6680622 -0.87564325
0 0 -0
1.3721459 3.4172966 -0.41045418
0 0 0
9.5629444 23.816284 1.4335196
1.4646268 3.6604028 -0.87339169
0 0 -0
1.3545656 3.3853374 -0.40641865
21.442398 53.588951 0
9.5418825 23.847122 1.4346807
1.4630233 3.6692438 -0.87507874
0 0 -0
0 0 -0
21.380524 53.622078 0
9.511138 23.853811 1.4343907
1.4614043 3.6780951 -0.87676793
0 0 -0
0 0 -0
1.8021772 4.5357599 -0.2726157
21.307068 53.626106 0
0 0 0
1.4569589 3.6798582 -0.87676793
0 0 -0
0 0 -0
1.786176 4.5113654 -0.27101961
21.234591 53.632454 0
9.4324226 23.82358 1.4311979
1.4543782 3.6863477 -0.87789482
1.3810982 3.500608 -0.62737948
0 0 -0
1.782629 4.5183501 -0.27130958
21.151623 53.612076 0
9.4427242 23.93405 1.437148
1.4489907 3.6857309 -0.8773303
1.3778093 3.5046701 -0.62780869
0 0 -0
1.7667094 4.4938974 -0.26971292
21.083971 53.630325 0
9.3938332 23.894661 1.4341002
1.4445361 3.687479 -0.8773303
1.3707637 3.4991596 -0.62652439
1.3375309 3.4143257 -0.40872386
1.7688605 4.5153842 -0.27087402
0 0 0
9.3592691 23.891481 1.4332296
1.4428521 3.6963248 -0.8790195
1.3721336 3.5151567 -0.62909132
1.3343476 3.4183557 -0.409013
1.7615153 4.512682 -0.27058405
20.366663 52.175686 0
9.3388977 23.924557 1.4345357
1.4356208 3.690959 -0.8773303
1.3697481 3.5216017 -0.62994808
1.3302162 3.4199655 -0.409013
1.7635968 4.5341806 -0.27174515
19.372507 49.806419 0
9.3109236 23.938242 1.4346807
1.4361504 3.6989338 -0.8790195
1.3731933 3.536782 -0.63251507
1.329085 3.4231775 -0.40930101
1.7655586 4.5473542 -0.27247071
18.497536 47.642056 0
9.2992821 23.951132 1.4351163
1.436263 3.712513 -0.88183337
1.3633631 3.5240784 -0.62994808
0 0 -0
1.7563126 4.5397906 -0.27189016
18.431505 47.642532 0
9.2731485 23.969624 1.4355518
1.431776 3.7142458 -0.88183337
1.358178 3.5233209 -0.62951893
0 0 -0
1.7452199 4.5273671 -0.27101961
18.365501 47.642914 0
9.2441788 23.980812 1.4355518
1.4272871 3.7159729 -0.88183337
1.3594441 3.5393424 -0.63208753
0 0 -0
1.7453365 4.5440216 -0.27189016
16.543438 43.071201 0
9.2114687 23.982262 1.4349712
1.4246141 3.7224455 -0.8829602
1.3579201 3.5481772 -0.63337183
1.3106738 3.4247253 -0.40872386
1.7277718 4.5145812 -0.27000347
16.488594 43.083874 0
9.172267 23.966677 1.4333745
1.4237365 3.7336607 -0.88521177
1.3508869 3.5426173 -0.63208753
1.3083797 3.4311447 -0.40930101
1.7334254 4.5458007 -0.27174515
16.42725 43.079445 0
0 0 0
1.4201256 3.7377512 -0.88577408
1.3438693 3.5370457 -0.63080323
1.2968837 3.4133801 -0.40699467
1.7223923 4.5333128 -0.27087402
16.378881 43.108994 0
0 0 0
1.4147096 3.7370906 -0.88521177
1.3341432 3.5242667 -0.62823623
1.2982509 3.4294538 -0.40872386
1.7215159 4.5475488 -0.27160016
16.316648 43.101986 0
0 0 0
0 0 -0
1.4191583 3.7625666 -0.89083952
1.3389415 3.5498905 -0.63251507
1.2995846 3.4455452 -0.41045418
1.7105159 4.5350332 -0.27072904
14.707869 38.994476 0
0 0 0
1.4091715 3.763608 -0.89027715
1.3294597 3.550714 -0.63208753
1.2939761 3.4559448 -0.41131935
1.6995515 4.5391536 -0.27072904
14.607203 39.012844 0
12.335605 32.945869 1.9649928
1.4046228 3.7653079 -0.89027715
1.3377278 3.5859857 -0.63807827
1.2879895 3.4526544 -0.41074219
1.7004238 4.558248 -0.27174515
14.557323 39.023148 0
0 0 0
1.4062694 3.7836766 -0.89421791
1.3244524 3.5635414 -0.63379937
1.2811126 3.4469326 -0.40987703
1.6867684 4.5383806 -0.27043903
14.507443 39.033398 0
0 0 0
1.4078703 3.8020458 -0.89815646
1.3165799 3.5555098 -0.63208753
1.2751521 3.4436314 -0.40930101
1.6776742 4.5306687 -0.26985848
14.460268 39.0509 0
0 0 0
1.4067931 3.8132796 -0.90040803
1.3140581 3.5619104 -0.63294262
1.2754655 3.4573004 -0.41074219
1.6748941 4.539999 -0.27029347
14.422078 39.092754 0
23.112873 62.650185 3.7299428
1.413579 3.845978 -0.90772498
1.312411 3.5707262 -0.63422698
1.2686094 3.4515538 -0.40987703
1.6631348 4.5249538 -0.26927793
14.377526 39.117481 0
23.042534 62.692696 3.7308135
1.422037 3.8834751 -0.91616881
1.2957395 3.5385664 -0.62823623
1.2644379 3.453084 -0.40987703
1.6531996 4.5147624 -0.26855236
14.332932 39.142151 0
8.8443575 24.153271 1.436713
1.4330163 3.9281523 -0.92629963
1.2940997 3.5473573 -0.62951893
1.2602646 3.4546094 -0.40987703
1.6370568 4.487464 -0.26681069
14.283844 39.154556 0
8.7964659 24.112679 1.4336652
1.4395509 3.9609237 -0.93361658
1.2906919 3.551338 -0.62994808
1.2534416 3.448844 -0.409013
1.623646 4.4674616 -0.26550457
14.208967 39.095966 0
8.7460222 24.064678 1.4301817
1.4390881 3.9746034 -0.93643045
1.2907686 3.5649614 -0.63208753
1.2519125 3.4576449 -0.40987703
1.6191306 4.4718609 -0.26564959
0 0 0
8.6868629 23.992163 1.4252473
1.4618732 4.0528245 -0.9544428
1.2699099 3.5206351 -0.62395573
1.2494906 3.4640257 -0.41045418
1.6101993 4.4640369 -0.26506901
0 0 0
8.6358261 23.941536 1.4216189
1.4887667 4.1430602 -0.97526902
1.280412 3.5632339 -0.63123077
1.2575477 3.4996057 -0.41448972
1.6030451 4.4610839 -0.26477847
10.414986 28.983665 0
8.5919542 23.910385 1.4191518
1.2661276 3.5301826 -0.62524003
1.2467029 3.4760232 -0.41160735
1.5959643 4.4498243 -0.2640529
0 0 0
8.5643473 23.878881 1.4169745
1.2670451 3.5462189 -0.62780869
1.2503334 3.4994459 -0.41420171
1.5888395 4.4468603 -0.26376289
9.8589668 27.593378 0
8.5258732 23.862303 1.4153785
1.2644793 3.5525794 -0.62866378
1.2443678 3.4960761 -0.41362455
1.5886915 4.46346 -0.26463345
9.8064213 27.551334 0
8.4900637 23.853003 1.4142172
1.2696233 3.5807214 -0.63337183
1.2410095 3.5000219 -0.4139137
1.5824295 4.4629297 -0.26448846
1.6468778 4.6446934 0
8.4629707 23.868137 1.4145073
1.2635841 3.5774071 -0.63251507
1.2419463 3.5161471 -0.41564289
1.5761713 4.4623909 -0.26434347
1.6195962 4.5853338 0
8.4401836 23.895498 1.4155234
1.2626687 3.5886176 -0.63422698
1.2540087 3.5640049 -0.42112073
1.5673285 4.4544873 -0.26376289
9.1346846 25.961592 0
8.415616 23.917933 1.4162489
0 0 -0
1.2642763 3.607101 -0.63722312
1.2753655 3.6387396 -0.42976895
1.5636622 4.461278 -0.2640529
9.0439157 25.803158 0
8.3927269 23.945251 1.4172651
1.2683769 3.6328573 -0.64150196
1.2829022 3.6744602 -0.43380448
1.5557034 4.4558115 -0.2636179
8.9827089 25.728077 0
8.3577909 23.9382 1.4162489
1.2580829 3.6174126 -0.63850582
1.2861072 3.6979918 -0.43639883
1.546048 4.4454093 -0.2628918
8.8208246 25.362846 0
8.3092308 23.89184 1.4129112
1.2553933 3.623786 -0.63936257
1.2867197 3.7142119 -0.43812916
1.5500329 4.4742846 -0.26448846
8.6589823 24.994797 0
8.5942068 24.807816 1.4664648
1.2267303 3.5549297 -0.62695193
1.2872915 3.7304292 -0.43985835
1.5386912 4.4589581 -0.26347235
8.5718985 24.840418 0
8.5142174 24.673265 1.457902
1.2741685 3.7069197 -0.65348506
1.2785801 3.7197542 -0.43841717
1.5273921 4.4436197 -0.26245677
8.4919672 24.705557 0
8.5072012 24.749876 1.4618202
1.2796667 3.7376006 -0.65862066
1.2740846 3.7212963 -0.43841717
1.530437 4.4700408 -0.26390791
3.1413996 9.1752777 0
8.4309998 24.624935 1.453838
1.2759774 3.7415714 -0.65904826
1.2837788 3.7644475 -0.44331786
1.5225178 4.4645061 -0.26347235
3.1126714 9.1273422 0
3.0933053 9.0705547 0.53529781
1.2772326 3.7601182 -0.6620428
1.2759017 3.7561998 -0.44216469
1.5171221 4.4663424 -0.26347235
3.1033161 9.1360292 0
3.097388 9.118578 0.53791058
1.2866737 3.8029947 -0.66931778
1.2837937 3.7944825 -0.44648823
1.5142235 4.4755592 -0.26390791
3.0922747 9.1397724 0
3.0896988 9.1321592 0.53849113
1.2845377 3.811847 -0.67060214
1.2841653 3.8107419 -0.44821855
1.5021762 4.4576864 -0.26274678
3.0762408 9.1287003 0
3.0886197 9.1654348 0.54023284
1.2840142 3.8255622 -0.67274153
1.2820296 3.8196492 -0.44908372
1.4943076 4.4521055 -0.26231122
3.0676932 9.1398144 0
3.0742354 9.1593065 0.53965229
1.2891575 3.8563263 -0.67787713
1.5734328 4.7066946 -0.55315143
1.488104 4.4514461 -0.26216623
3.0516982 9.1287098 0
3.0516307 9.1285076 0.53762001
1.5701966 4.7159572 -0.55401659
1.4786206 4.4409161 -0.26144066
3.0414872 9.1348572 0
3.0332115 9.1100025 0.53631389
1.5636806 4.7153888 -0.55372751
1.4748878 4.4476275 -0.26173067
3.0386372 9.1632233 0
3.0205674 9.1087332 0.53602391
1.5514959 4.6976361 -0.55142224
1.465439 4.4370718 -0.2610051
0 0 0
7.124589 21.571909 1.2689401
0 0 -0
1.5486575 4.6985726 -0.55142224
1.4595044 4.4280849 -0.26042455
0 0 0
7.1115551 21.576208 1.2689401
0 0 -0
1.5389433 4.6881461 -0.54997993
1.4525335 4.4249125 -0.26013455
0 0 0
7.0862889 21.587252 1.269085
0 0 -0
1.5308685 4.6826339 -0.5491159
1.4423397 4.4118409 -0.25926343
0 0 0
7.0601997 21.595798 1.269085
1.5244063 4.6820135 -0.54882681
1.4410323 4.4259415 -0.25998956
0 0 0
7.0332966 21.601847 1.2689401
1.5139627 4.6690946 -0.54709756
1.4284708 4.405436 -0.25868344
2.9656363 9.1460876 0
7.003984 21.600441 1.2683595
1.5107052 4.6783071 -0.54796273
1.4247422 4.4120994 -0.25897345
2.9561808 9.1546125 0
6.9730897 21.594057 1.267489
1.5026751 4.6727395 -0.54709756
1.4170227 4.406394 -0.25853789
2.945117 9.1581783 0
6.9406285 21.582678 1.2663279
1.4946605 4.66716 -0.5462324
1.4077357 4.3957324 -0.25781232
2.941988 9.1865196 0
6.8931494 21.52424 1.2624094
1.4850914 4.6566439 -0.54479122
1.4047925 4.4048591 -0.25824788
2.9308858 9.1900682 0
6.6295023 20.787428 1.2187244
1.4841626 4.6732306 -0.54652154
1.3955373 4.3941731 -0.25752231
2.9166281 9.1836805 0
6.546967 20.614647 1.2081299
1.4722754 4.6552916 -0.5442152
1.3910096 4.3983312 -0.25766733
2.9000354 9.1698265 0
6.4679937 20.451607 1.1981159
1.4674256 4.6595321 -0.54450321
1.3872535 4.4049611 -0.25795731
2.8819182 9.1509857 0
6.4089336 20.350355 1.1917298
1.4633408 4.6662326 -0.54507923
1.3811532 4.4041572 -0.25781232
2.880204 9.1842604 0
6.3664584 20.301065 1.1883919
2.4537551 7.8576598 -0.91753423
1.3797026 4.418222 -0.25853789
5.8695607 18.796095 0
6.3155909 20.224417 1.1834575
1.3751369 4.4223742 -0.25868344
5.8398881 18.7808 0
5.8243871 18.730949 1.0956527
0 0 -0
1.3636439 4.4041748 -0.25752231
5.7956409 18.718243 0
5.7956014 18.718115 1.0944916
0 0 -0
1.3636779 4.4231939 -0.25853789
5.7607517 18.68544 0
5.7645583 18.697788 1.0928949
1.3568088 4.4198751 -0.25824788
5.7267156 18.655075 0
5.732049 18.672449 1.0910083
2.3251545 7.6070642 -0.44430694
5.7049308 18.664469 0
5.7011299 18.652035 1.0894122
0 0 -0
2.3144495 7.6049013 -0.44401693
5.6770692 18.653917 0
5.677074 18.653933 1.0891216
0 0 -0
5.6552796 18.663252 0
5.655283 18.663263 1.0892665
2.5905907 8.5866995 -0.99969286
0 0 -0
5.6312227 18.665092 0
5.6349802 18.677549 1.0897021
2.5801857 8.5709333 -0.99767566
0 0 -0
5.6266961 18.690918 0
5.6214476 18.673483 1.0892665
2.5742817 8.5889063 -0.99940485
0 0 -0
5.6003723 18.68524 0
5.6003737 18.685244 1.0895572
2.2663755 7.5949564 -0.44271025
5.5800242 18.699478 0
5.5711055 18.66959 1.088251
2.5535181 8.5951023 -0.99940485
2.2542369 7.5877261 -0.4421297
5.5574255 18.706205 0
5.5470614 18.671322 1.0879605
2.542398 8.5957031 -0.99911684
2.2450669 7.5904441 -0.4421297
5.541461 18.735365 0
5.5186009 18.658077 1.0867994
2.5327396 8.6012478 -0.99940485
2.2358937 7.5931516 -0.4421297
5.5195532 18.744541 0
5.4887137 18.639811 1.0853482
2.2274504 7.5983481 -0.44227526
5.5005603 18.763681 0
5.4669175 18.64892 1.0854932
2.2090816 7.6037087 -0.44227526
5.4595547 18.79191 0
5.4276338 18.682039 1.0866543
0 0 -0
2.1970048 7.5963879 -0.44169471
5.4353995 18.793499 0
5.4072227 18.696074 1.0870899
2.1892607 7.6040263 -0.44198468
5.417006 18.815052 0
5.3853464 18.70509 1.087235
2.1807864 7.6091614 -0.4421297
5.3949871 18.824093 0
5.3656049 18.721573 1.0878155
2.1730177 7.6167932 -0.44242024
5.3708086 18.825588 0
5.3408403 18.720545 1.0873799
2.1623917 7.6144094 -0.4421297
5.3459239 18.824551 0
5.3196373 18.731989 1.0876704
2.1538985 7.6195245 -0.44227526
5.3146815 18.800955 0
5.2906384 18.7159 1.0863644
2.1446903 7.6221213 -0.44227526
5.2912536 18.80485 0
5.270833 18.732275 1.0869443
2.136179 7.6272068 -0.44242024
5.2699327 18.816246 0
5.2531009 18.756147 1.0879605
2.1283555 7.6347837 -0.44271025
5.2423005 18.80505 0
5.2311311 18.764982 1.0881054
2.1205196 7.6423626 -0.44300082
5.2327957 18.85902 0
5.2112322 18.781305 1.088686
2.1112838 7.6449189 -0.44300082
2.0607271 7.4618545 0
5.1878438 18.785086 1.088541
2.1068664 7.6650057 -0.44401693
2.0475695 7.4492774 0
5.1672087 18.798859 1.0889766
2.0976031 7.6675458 -0.44401693
2.0365062 7.4442129 0
5.1431174 18.800072 1.088686
2.0931134 7.6876178 -0.44503248
0 0 0
5.1210823 18.808786 1.0888315
2.0925565 7.7039313 -0.4459036
2.0202818 7.4378457 0
5.1083546 18.806858 1.088541
2.0818887 7.7014327 -0.44561306
2.0051816 7.4176731 0
5.089016 18.825556 1.0892665
2.4762452 9.2043905 -0.53240228
1.9928374 7.407527 0
5.0676169 18.836714 1.0895572
2.463105 9.1998434 -0.53196669
1.9818655 7.4023852 0
5.0488834 18.85788 1.0904278
0 0 -0
1.9709116 7.3972378 0
5.0254254 18.861458 1.0902827
2.2979915 8.6669178 -0.99940485
2.4415307 9.2082777 -0.5321117
1.9606367 7.394578 0
5.0052953 18.877563 1.0908632
2.2868586 8.6671896 -0.99911684
2.4317296 9.2162514 -0.53240228
1.947718 7.3818479 0
4.9811544 18.878567 1.0905727
2.275728 8.6674471 -0.99882883
2.4205918 9.219183 -0.53240228
1.9368137 7.3766422 0
4.9590015 18.887093 1.0907183
2.2659066 8.6726904 -0.99911684
2.4087918 9.2195797 -0.53225672
1.9265846 7.3739457 0
4.937489 18.898094 1.0910083
2.2547755 8.6729212 -0.99882883
2.3950346 9.2124233 -0.53167617
1.9163623 7.3712258 0
4.9113822 18.891474 1.0902827
2.2449415 8.6781416 -0.99911684
2.3871572 9.2278967 -0.53240228
1.908759 7.3785801 0
4.8918052 18.909971 1.0910083
2.2331634 8.6758327 -0.99853969
2.3734145 9.2207088 -0.53182173
1.8972471 7.3707995 0
4.8715434 18.925934 1.0915889
2.225889 8.6910601 -0.999982
2.3609807 9.2185307 -0.53153116
1.8883395 7.3730869 0
4.8486719 18.931807 1.0915889
2.2147455 8.6912298 -0.99969286
2.3517656 9.2289324 -0.53196669
1.8800713 7.3778825 0
4.8283596 18.947723 1.0921694
2.3393342 9.2267256 -0.53167617
1.8692358 7.3725781 0
4.8073778 18.961102 1.092605
2.3256416 9.2194672 -0.53109556
1.8635082 7.3874464 0
4.7844634 18.966896 1.092605
2.3151343 9.2247982 -0.53124118
1.8533148 7.3846493 0
4.7590122 18.962584 1.0920243
2.304615 9.2301073 -0.53138614
1.8424985 7.3793058 0
4.7386141 18.978403 1.092605
2.2934606 9.2328854 -0.53138614
1.8348367 7.3865829 0
4.7150507 18.981586 1.0924594
2.280432 9.2280798 -0.53095061
1.8265339 7.3913188 0
4.69523 18.999889 1.0931855
2.2711415 9.2384005 -0.53138614
1.8182223 7.3960452 0
4.6753702 19.018164 1.0939111
2.2593606 9.238616 -0.53124118
1.8142302 7.4184608 0
4.6530037 19.02632 1.094056
2.2469661 9.2362852 -0.53095061
1.8114158 7.44593 0
4.6306243 19.034451 1.0942011
2.1154475 8.7186003 -0.999982
2.2407734 9.2351179 -0.53080559
1.8112131 7.4647293 0
4.6191239 19.037245 1.0942011
2.2290039 9.2352953 -0.53066057
1.8046346 7.4770317 0
4.5967293 19.045345 1.0943466
2.094372 8.7236872 -0.999982
2.2184494 9.2405062 -0.53080559
1.7962056 7.4817352 0
4.5724988 19.045828 1.094056
2.2066793 9.2406549 -0.53066057
1.7859564 7.4788423 0
4.543448 19.02607 1.092605
2.1991141 9.2584791 -0.53153116
1.7787209 7.4885836 0
1.7283288 7.2764287 0.41774124
2.0627358 8.7312222 -0.999982
2.198678 9.3066435 -0.53414339
1.7690732 7.4881968 0
1.7183394 7.2734489 0.4174507
2.0492244 8.7211113 -0.99853969
2.1909986 9.3244753 -0.53501451
1.7582397 7.4827361 0
0 0 0
2.0380969 8.7210646 -0.99825168
2.1773648 9.3169947 -0.53443396
1.7515638 7.4949822 0
1.6936638 7.2472267 0.41570956
2.0304849 8.7361155 -0.99969286
2.1608117 9.2968426 -0.53312784
4.4755697 19.256035 0
1.6831403 7.2416725 0.41527402
2.0181818 8.7310095 -0.99882883
2.1413827 9.263998 -0.53109556
4.4552293 19.274105 0
1.6714635 7.2310448 0.41454846
2.0035739 8.7157936 -0.9968105
2.123204 9.2361994 -0.52935445
4.4313545 19.276939 0
1.6592309 7.2178602 0.41367733
1.9936169 8.7207279 -0.99709851
2.1126208 9.2412891 -0.52949947
4.4086385 19.284815 0
1.6505084 7.2198596 0.41367733
1.9802119 8.7105217 -0.99565732
2.0991488 9.2336998 -0.52891892
4.388217 19.302814 0
1.640057 7.2142544 0.41324234
1.9685459 8.7078676 -0.99508131
2.0868433 9.2311554 -0.52862835
4.3637438 19.30303 0
1.6290469 7.2060928 0.41266179
1.9540513 8.6925726 -0.99306297
2.0779672 9.2438116 -0.5292089
4.3432698 19.320982 0
1.6191977 7.202981 0.41237122
1.9395964 8.6772556 -0.99104464
2.0645289 9.2361717 -0.52862835
4.3204885 19.328754 0
1.6087921 7.1973219 0.41193566
1.927989 8.6745481 -0.99046862
2.0550592 9.2462721 -0.52906394
4.296566 19.331423 0
1.6000943 7.1992607 0.41193566
1.9180636 8.6793947 -0.99075663
2.0410824 9.236064 -0.52833837
4.2765732 19.351841 0
1.5863485 7.1783562 0.41062954
1.9097952 8.6918106 -0.9919098
2.0338249 9.2562914 -0.52935445
4.2520709 19.351915 0
1.5776737 7.1802678 0.41062954
1.8987399 8.6915874 -0.99162179
2.0209749 9.2511244 -0.52891892
4.229795 19.36212 0
1.5689965 7.182169 0.41062954
1.8887849 8.6964006 -0.9919098
2.0103462 9.2560959 -0.52906394
4.2124729 19.395195 0
0 0 0
1.8771827 8.693615 -0.99133265
1.9991605 9.2585182 -0.52906394
3.9270365 18.186905 0
1.5467001 7.1630826 0.40932342
1.868121 8.6770554 -0.98931545
1.9908326 9.2470255 -0.52833837
3.9133098 18.176556 0
1.5412796 7.1589403 0.40903345
1.8560107 8.6717157 -0.98845029
1.9823766 9.2621269 -0.52906394
3.8891654 18.171091 0
1.5331715 7.1633358 0.40917844
1.8433782 8.6638327 -0.98729712
1.9706434 9.2619762 -0.52891892
3.8699138 18.188501 0
1.5255954 7.1702614 0.40946844
1.8229673 8.6707907 -0.98758513
1.9498594 9.2743425 -0.52935445
3.8259482 18.1978 0
1.5050565 7.1586747 0.40859789
1.8119605 8.6704578 -0.98729712
1.9370567 9.2690592 -0.52891892
3.8060863 18.212601 0
1.4974676 7.1655703 0.40888786
1.8004315 8.6675806 -0.9867211
1.9274414 9.279027 -0.52935445
3.784606 18.219732 0
1.4877524 7.162291 0.40859789
1.7894326 8.6672096 -0.98643196
1.9167529 9.2838917 -0.52949947
3.7625883 18.224291 0
1.4806738 7.1717205 0.40903345
1.7779199 8.6643028 -0.98585594
1.9039663 9.2785625 -0.52906394
3.7400424 18.226276 0
1.4730507 7.1785903 0.40932342
1.763831 8.6487026 -0.9838376
1.8943118 9.288497 -0.52949947
3.7211361 18.246078 0
1.4643757 7.1803646 0.40932342
1.7528661 8.6482944 -0.98354959
1.8820537 9.2856808 -0.5292089
3.7001214 18.255667 0
1.458279 7.19486 0.41004899
1.7403722 8.6402645 -0.98239642
1.8728848 9.2981377 -0.52978945
3.6790872 18.265223 0
1.4526639 7.2119055 0.41092011
1.7319615 8.6525059 -0.98354959
1.8611389 9.2978477 -0.52964449
3.6580372 18.274763 0
1.4444581 7.2162008 0.4110651
1.7210013 8.6520576 -0.98326159
1.8514242 9.3077383 -0.53008002
3.6359529 18.279169 0
1.4367526 7.223043 0.41135567
0 0 -0
1.7070345 8.6363668 -0.98124325
1.8391676 9.3048649 -0.52978945
3.6168904 18.298864 0
1.4275186 7.2222171 0.41121012
1.6980938 8.646039 -0.98210841
1.8294259 9.3147326 -0.53022504
3.5927708 18.293005 0
1.4147847 7.2035389 0.41004899
1.6826924 8.6227036 -0.97922605
1.8176724 9.3143883 -0.53008002
3.5731566 18.310102 0
3.5749047 18.319061 1.0425342
1.6722723 8.6247311 -0.97922605
1.8064164 9.3165779 -0.53008002
3.554003 18.329741 0
3.5542514 18.331022 1.0429697
1.6623386 8.629282 -0.97951406
1.7956489 9.3213024 -0.53022504
3.5328362 18.339128 0
3.5316083 18.332754 1.0428247
1.6523963 8.6338224 -0.97980207
1.7868264 9.3362236 -0.53095061
3.5126312 18.353607 0
3.5123839 18.352316 1.0436953
1.6438953 8.645977 -0.98095524
1.7750591 9.3358259 -0.53080559
3.4875362 18.342505 0
3.4906909 18.359097 1.0438403
1.6338565 8.6215611 -0.97807288
2.2391806 11.815744 -0.67172891
3.4779079 18.352282 0
3.4795988 18.361202 1.0438403
1.6210439 8.6108122 -0.97663057
2.2340345 11.866952 -0.67448616
3.4552474 18.353905 0
3.4569299 18.362843 1.0436953
1.6111151 8.6153145 -0.97691971
2.2220817 11.882411 -0.67521173
3.4335475 18.360632 0
3.4309185 18.346573 1.0425342
1.5983407 8.6045322 -0.9754774
2.2081985 11.88765 -0.67535728
3.649946 19.649176 0
3.6284578 19.533497 1.1097306
1.5874739 8.6039162 -0.97518939
2.1928892 11.885194 -0.67506671
3.6276183 19.661253 0
3.5982513 19.502087 1.1076983
1.5714818 8.5752983 -0.97172987
1.7279658 9.429204 -0.53545004
3.5996373 19.642584 0
3.5765576 19.516644 1.1082789
1.5560257 8.5492077 -0.9685595
1.7179657 9.4389477 -0.53588504
3.5768316 19.652035 0
3.5548344 19.531178 1.1088594
1.5484542 8.5663481 -0.97028869
1.7056358 9.4359074 -0.53559506
3.554935 19.666588 0
3.532619 19.543131 1.109295
1.5349046 8.5503988 -0.96827149
1.401791 7.8088713 -0.44314581
3.5325491 19.678555 0
3.5099199 19.552496 1.109585
1.5313796 8.590435 -0.97259504
1.3928101 7.8131151 -0.4432908
3.5087688 19.68281 0
3.4876604 19.5644 1.1100205
1.5164909 8.5668154 -0.96971267
1.3792925 7.7917666 -0.44198468
3.4863448 19.694725 0
3.4635656 19.566044 1.1098756
1.5039001 8.5559072 -0.96827149
1.3793229 7.8471689 -0.44503248
3.4643471 19.709177 0
3.4412713 19.577894 1.1103112
1.4677696 8.4099407 -0.95155108
1.3662661 7.8283515 -0.44387138
3.4400811 19.710777 0
3.4176128 19.582039 1.1103112
1.3931339 8.0396414 -0.90946203
1.3621299 7.8607206 -0.44561306
3.4184852 19.727747 0
3.3948357 19.591269 1.1106011
1.3746495 7.9903474 -0.90369731
1.3491063 7.8418741 -0.44445193
3.3950863 19.734426 0
3.3742452 19.613285 1.1116172
1.3606384 7.9665022 -0.90081382
1.3431296 7.8639894 -0.44561306
3.3734291 19.751339 0
3.351418 19.622465 1.1119072
1.351877 7.9732456 -0.90139097
1.3297176 7.8425517 -0.44430694
3.3473861 19.742573 0
3.3251004 19.611134 1.1110367
1.3405248 7.9646707 -0.9002378
1.3219656 7.8544025 -0.44488749
2.6060991 15.484027 0
3.3039885 19.630507 1.1119072
1.3330307 7.9790378 -0.90167898
1.3146147 7.8688064 -0.44561306
2.5835285 15.464065 0
2.5913618 15.510952 0.87839025
1.3246584 7.9883003 -0.90254414
1.3068061 7.8806429 -0.44619361
2.5593071 15.433801 0
2.5666661 15.478179 0.87635797
1.3166852 8.000104 -0.90369731
1.2901095 7.8386312 -0.44372636
2.5262873 15.349576 0
2.5374126 15.417172 0.87272966
1.3136874 8.0425215 -0.90830886
1.2839882 7.8607001 -0.44488749
2.5010259 15.311522 0
2.5099859 15.366376 0.86968184
1.3056241 8.0543156 -0.90946203
1.1302185 6.9722486 -0.39452675
2.4800253 15.299125 0
2.4855967 15.333493 0.86765021
0.94869077 5.8975215 -0.99584079
1.2967135 8.0609989 -0.91003919
1.121793 6.973609 -0.39452675
2.46071 15.296966 0
2.4658287 15.328786 0.86721462
0.94472182 5.8955612 -0.99541324
1.2959349 8.0873156 -0.91292155
1.1192243 6.9845486 -0.3951073
2.4522922 15.303595 0
2.4557459 15.325147 0.86692464
0.93517804 5.8814821 -0.99284464
1.0936531 6.8781562 -0.77627814
1.0928304 6.8729825 -0.38872117
2.433799 15.306546 0
2.4384513 15.335804 0.86736017
0.92847192 5.8851509 -0.99327379
1.0913877 6.9177985 -0.78060281
1.0804763 6.8486357 -0.38727003
2.4120579 15.28891 0
2.4203236 15.341303 0.86750519
0.92056549 5.8811913 -0.99241704
1.0850277 6.9318867 -0.78204399
1.0709944 6.8422322 -0.38683447
1.2232856 7.8151708 0
2.4029908 15.35192 0.86794072
0.9110958 5.867084 -0.9898501
1.0814139 6.9638629 -0.78550351
1.0591379 6.8204145 -0.38552836
1.2174354 7.8397856 0
2.3844392 15.354813 0.86794072
0.90439641 5.8707156 -0.99027765
1.073392 6.9677181 -0.78579152
1.0544564 6.8448005 -0.38683447
1.2032067 7.8103852 0
2.3674667 15.367955 0.86852133
0.8965258 5.866724 -0.98942089
1.067706 6.9869003 -0.78780872
1.0383359 6.7947068 -0.38393226
1.1882653 7.7758212 0
2.3485022 15.368229 0.86837578
0.88712877 5.8525791 -0.9868539
1.062364 7.0086436 -0.79011506
1.030125 6.7959566 -0.38393226
1.1788689 7.7772512 0
2.3318777 15.383898 0.86910129
0.87967515 5.8511109 -0.98642635
1.0642775 7.0789833 -0.79789925
1.0161176 6.7586503 -0.38175502
1.1702439 7.7838125 0
2.3125157 15.381571 0.86881131
0.87260461 5.8521695 -0.98642635
1.057249 7.090497 -0.79905242
1.0125489 6.7907133 -0.3834967
1.1577673 7.7646284 0
2.296227 15.399769 0.86968184
0.86478096 5.8481355 -0.9855696
1.0501941 7.1020041 -0.80020559
1.0001614 6.7636542 -0.38190001
1.1388688 7.7016716 0
2.2776177 15.402532 0.86968184
0.85808754 5.8517237 -0.98599881
1.043488 7.1160607 -0.80164677
0.99010342 6.7520051 -0.38117447
1.1306937 7.7107592 0
2.2597597 15.410419 0.86997241
0.84990776 5.8451328 -0.98471445
1.034517 7.1147594 -0.80135876
0.98306626 6.7609134 -0.38161001
1.1146359 7.6657672 0
2.2426331 15.423425 0.87055296
0.84211111 5.8410687 -0.98385769
1.0273958 7.1262441 -0.80251193
0.97415406 6.7569475 -0.38131946
1.109458 7.6954455 0
2.2236249 15.423553 0.870408
0.83505273 5.842082 -0.98385769
1.017686 7.1197968 -0.80164677
0.96966636 6.7838478 -0.38277113
1.0972127 7.6761699 0
2.2049868 15.426229 0.870408
0.82799309 5.8430867 -0.98385769
1.009445 7.1235795 -0.80193478
0 0 -0
1.0883015 7.6800647 0
2.1841576 15.413441 0.86953688
0.82021874 5.8390036 -0.9830026
0.99687868 7.0966167 -0.79876328
0 0 -0
1.0775728 7.6710653 0
1.3179493 9.382266 0.52920276
0.81422526 5.8476205 -0.9842869
0.98473674 7.0722036 -0.79588091
0 0 -0
1.068303 7.6723614 0
1.3041029 9.3658342 0.52818668
0.80680698 5.8460498 -0.98385769
0.97371507 7.0554504 -0.79386258
0.93722224 6.7910266 -0.38291612
1.0597426 7.6787982 0
1.2910093 9.3545351 0.52746111
0.79939508 5.8444796 -0.98343015
0.96273667 7.0386906 -0.79184538
0 0 -0
1.0494064 7.6723447 0
1.2786485 9.3483629 0.52702558
0.79302287 5.8505335 -0.9842869
0.9500621 7.0090923 -0.78838587
0 0 -0
1.0404844 7.6761837 0
0 0 0
0.7852689 5.8463941 -0.98343015
0.93780452 6.9820347 -0.78521436
0.91087002 6.7815051 -0.38219059
1.0294765 7.6645412 0
1.2508645 9.3127928 0.52484834
0.77332282 5.8376284 -0.9817183
0.91122353 6.8786077 -0.77339578
0.89823645 6.7805715 -0.38204557
1.0152417 7.6638169 0
1.2312548 9.2944469 0.52368778
0.76593488 5.8360157 -0.98129076
0 0 -0
0.88869029 6.7713466 -0.38146502
1.0042865 7.6521287 0
1.2186708 9.2856226 0.52310723
0.75722814 5.8242111 -0.97915131
0 0 -0
0.87715697 6.7466431 -0.38001335
0.99503976 7.6533365 0
1.2064447 9.279356 0.52267164
0.74986255 5.8225784 -0.97872376
0.87438983 6.789515 -0.76301724
0.87331873 6.7811985 -0.38190001
0.98579144 7.6545334 0
1.1942356 9.2730722 0.52223611
0.74412459 5.8336563 -0.980434
0.8678214 6.8033929 -0.76445842
0.86512434 6.782249 -0.38190001
0.97818917 7.6686344 0
1.1817148 9.2641983 0.52165556
0.73321557 5.8039989 -0.97530001
0.85473853 6.7659526 -0.76013488
0.85530066 6.770402 -0.38117447
0.96826941 7.6646419 0
1.1701946 9.2630444 0.52151054
0.72747672 5.8150697 -0.97701186
0.84078395 6.7207885 -0.75494617
0.85066777 6.7997947 -0.38277113
0.95674574 7.647727 0
1.1580333 9.2567139 0.52107495
0.71824038 5.7981086 -0.97401571
0.83329791 6.7269282 -0.75552219
0.84181142 6.7956553 -0.38248059
0.94526565 7.6308055 0
1.1465282 9.2555304 0.52092999
0.71123397 5.7989721 -0.97401571
0.82453996 6.7228007 -0.75494617
0.82885563 6.757988 -0.38030389
0.93699414 7.6396842 0
1.1356599 9.2594852 0.52107495
0.70391744 5.7972817 -0.97358817
0.81485647 6.7109466 -0.75350386
0.81880945 6.7435026 -0.3794328
0.93121338 7.6692319 0
1.1238451 9.2556963 0.52078497
0.69599271 5.7904792 -0.97230381
0.8058219 6.7042298 -0.75263983
0.81066066 6.7444868 -0.3794328
0.92225617 7.6729331 0
1.1126605 9.2570477 0.52078497
0.68929851 5.7938628 -0.97273141
0.79985857 6.7231698 -0.75465703
0.80251068 6.7454615 -0.3794328
0.9086805 7.637867 0
1.1008599 9.2532206 0.5204944
0.68079662 5.7819462 -0.97059196
0.79536384 6.7549562 -0.75811654
0.79679036 6.7670712 -0.3805939
0.90127641 7.6544623 0
1.0893748 9.2519655 0.52034944
0.67470133 5.7904167 -0.97187626
0.79318827 6.8072944 -0.7638824
0.78981602 6.7783532 -0.38117447
0.89383465 7.6710606 0
1.0787969 9.2584419 0.52063996
0.6668219 5.7835746 -0.97059196
0.78910929 6.8442154 -0.76791793
0.78192246 6.7818813 -0.38131946
0.88128579 7.6436934 0
0 0 0
0.65983313 5.7843761 -0.97059196
0.78552914 6.886281 -0.77253062
0.77313888 6.7776628 -0.38102946
0.87617922 7.6809578 0
1.0558301 9.2558537 0.52034944
0.65284336 5.7851691 -0.97059196
0.78242797 6.9334831 -0.77771932
0.76698881 6.796669 -0.38204557
0.86923122 7.7026896 0
0 0 0
0.64585263 5.785954 -0.97059196
0.77605844 6.9524198 -0.77973765
0.76050478 6.8130803 -0.38291612
0.85992336 7.7037344 0
1.0317303 9.2428885 0.51947886
0.63801557 5.7790728 -0.96930766
0.76992786 6.9739189 -0.78204399
0.75227195 6.8139944 -0.38291612
0.84890133 7.6892519 0
1.0208461 9.2467089 0.51962388
0.63075387 5.7772903 -0.96888012
0.7609387 6.969697 -0.78146684
0.74178189 6.7942333 -0.38175502
0.83791554 7.6747546 0
1.0099543 9.2505159 0.51976883
0.62432432 5.7831573 -0.96973687
0.75307238 6.9757595 -0.78204399
0.73524576 6.8106303 -0.38262615
1.0157834 9.4092693 0
0.99793917 9.2439766 0.5193333
0.61570084 5.7685871 -0.96716821
0.74491721 6.9792337 -0.782332
0.72425765 6.7856712 -0.38117447
1.0030327 9.3975534 0
0.98814857 9.2581024 0.52005941
0.61221564 5.7689581 -0.96716821
0.74070054 6.9796824 -0.782332
0.72043186 6.7886887 -0.38131946
0.99653071 9.3903913 0
0.98200613 9.2535248 0.51976883
0.60524452 5.7696939 -0.96716821
0.73064786 6.9651432 -0.78060281
0.71277124 6.7947278 -0.38161001
0.98409748 9.3812351 0
0.97082436 9.2547045 0.51976883
0.5982725 5.770421 -0.96716821
0.72356474 6.9788818 -0.78204399
0.70616794 6.8110867 -0.38248059
0.97329867 9.387599 0
0.95990884 9.2584524 0.51991385
0.59077686 5.766037 -0.96631312
0.71934962 7.0209193 -0.78665668
0.70085108 6.8403716 -0.38407725
0.96195483 9.3887682 0
0.95004612 9.2725382 0.52063996
0.58354998 5.7641854 -0.96588391
0.7113862 7.0269251 -0.7872327
0.69389367 6.8541369 -0.38480282
0.95060968 9.389924 0
0.93831742 9.2685041 0.52034944
0.57684088 5.7674479 -0.96631312
0.70057863 7.0046191 -0.78463835
0.68793845 6.8782382 -0.38610893
0.94029909 9.4014244 0
0.92815191 9.279973 0.52092999
0.5693664 5.7630267 -0.96545637
0.80857617 8.1842661 -0.91666907
0.67962694 6.8790641 -0.38610893
0.9276585 9.3895969 0
0.91744965 9.2862644 0.52122051
0.56315064 5.7713776 -0.96674067
0.79667699 8.1646433 -0.91436273
0.67156655 6.8824639 -0.38625392
0.74698418 7.6553721 0
0.90622836 9.2873659 0.52122051
0.55543774 5.7643857 -0.96545637
0.78681105 8.1655998 -0.91436273
0.66075814 6.8574109 -0.38480282
0.7377336 7.6562691 0
0.89475578 9.2858601 0.52107495
0.5489589 5.7701683 -0.96631312
0.77718961 8.1691265 -0.91465187
0.65591675 6.8944139 -0.38683447
0.72503167 7.6208887 0
0.88476527 9.2998657 0.52180052
0.5422262 5.7733808 -0.96674067
0.7680431 8.1777782 -0.9155159
0.6468575 6.8874478 -0.38639948
0.71509248 7.6139836 0
0.87279928 9.2931747 0.52136552
0.534302 5.7638073 -0.96502882
0.75696784 8.1658249 -0.91407472
0.86997467 9.3848915 -0.52645171
0.705652 7.6122532 0
0.8625291 9.3045721 0.52194607
0.52803898 5.7721205 -0.96631312
0.748043 8.1770363 -0.91522789
0.85887074 9.3885212 -0.52659667
0.69455683 7.5923667 0
0.85246903 9.3185434 0.52267164
0.52037162 5.7650819 -0.96502882
0.73723203 8.1676302 -0.91407472
0.84775931 9.3921375 -0.52674168
0.68912578 7.6346722 0
0.84167552 9.3247375 0.52296162
0.51363271 5.768261 -0.96545637
0.72805095 8.1762466 -0.91493988
0.8375631 9.4061041 -0.52746779
0 0 0
0.82948595 9.3153944 0.52238107
0.50553977 5.7560935 -0.96331692
0.71794492 8.1745462 -0.91465187
0 0 -0
0.66520911 7.5740943 0
0.81845748 9.3189859 0.52252662
0.49902686 5.7618103 -0.96417207
0.70851296 8.1805563 -0.91522789
0 0 -0
0.82312101 9.5038319 0
0.80809355 9.3303232 0.52310723
0.49053621 5.7445121 -0.96117753
0.69950813 8.1917152 -0.91638106
0 0 -0
0.80809408 9.4633303 0
0.79814517 9.3468218 0.52397776
0.48316368 5.7399797 -0.96032077
0.68960953 8.1925545 -0.91638106
0.78903997 9.3737869 -0.52543557
0.79971457 9.5006018 0
0.78576124 9.334836 0.52325219
0.47728944 5.7533584 -0.96246183
0.6805653 8.2036924 -0.91753423
0.78007627 9.4032211 -0.52703226
0.78543752 9.4678469 0
0.77512598 9.3435497 0.52368778
0.4703373 5.7539306 -0.96246183
0.6717056 8.2173958 -0.91897541
0.76892525 9.406744 -0.52717721
0.77357322 9.4636059 0
0.76425856 9.3496542 0.52397776
0.46603057 5.743979 -0.96074992
0.66611326 8.210063 -0.91811025
0.76219153 9.3942595 -0.52645171
0.7686975 9.4744473 0
0.75860983 9.3501139 0.52397776
0.45868036 5.7394152 -0.95989317
0.65660501 8.2160234 -0.9186874
0.75125349 9.4003496 -0.52674168
0.757456 9.4779615 0
0.74648345 9.340663 0.52339721
0.4529539 5.7553253 -0.96246183
0.64586532 8.2064972 -0.91753423
0.73907894 9.3908882 -0.52616113
0.74600321 9.4788694 0
0.73621571 9.3545074 0.52412277
0.44500723 5.7430639 -0.96032077
0.63654852 8.2150097 -0.91839939
0.72753078 9.3891859 -0.52601612
0.73495179 9.4849586 0
0.7261169 9.3709393 0.5249939
0.43748242 5.7359257 -0.95903808
0.62583506 8.2054577 -0.91724622
0.71638268 9.3926468 -0.52616113
0.72329205 9.4832373 0
0.71459526 9.3692112 0.52484834
0.43170378 5.7518048 -0.96160507
0.61650008 8.2139378 -0.91811025
0.70464438 9.3883286 -0.52587116
0.71222281 9.4892998 0
0.70307958 9.3674793 0.52470332
0.42399737 5.7420816 -0.95989317
0.60657471 8.2146769 -0.91811025
0.69272572 9.3813963 -0.52543557
0.70248097 9.5135098 0
0.69214338 9.3735104 0.5249939
0.41668737 5.737474 -0.95903808
0.59608692 8.2076721 -0.91724622
0.6806367 9.3718596 -0.52485502
0.68947715 9.4935865 0
0.68138093 9.3821068 0.52542889
0.4092057 5.7302895 -0.95775378
0.58598435 8.2057991 -0.91695708
0.66949779 9.3752747 -0.52500057
0.67948854 9.5151796 0
0.6705994 9.3907013 0.52586442
0.40174204 5.7230949 -0.95646948
0.57625043 8.2090883 -0.91724622
0.65762305 9.3682985 -0.52456504
0.6679908 9.5159931 0
0.65925211 9.3915052 0.52586442
0.39570963 5.7363782 -0.95860887
0.56615245 8.2071915 -0.91695708
0.64594483 9.3638964 -0.52427447
0.65738744 9.5297728 0
0.64808249 9.3948841 0.52600944
0.38825786 5.729176 -0.95732623
0.55711013 8.2207794 -0.91839939
0.63445443 9.3620796 -0.52412945
0.64552045 9.5253725 0
0.6365546 9.3930702 0.52586442
0.38116401 5.7270722 -0.95689702
0.54648948 8.2111235 -0.91724622
0.62245148 9.3524694 -0.5235489
0.63435578 9.5313339 0
0.62520444 9.3938332 0.52586442
0.37441155 5.7300978 -0.95732623
0.53673601 8.2143564 -0.91753423
0.52169877 7.9842219 -0.44691914
0.62351733 9.5424814 0
0.61470032 9.4075432 0.52658999
0.36699456 5.722858 -0.95604187
0.52714092 8.2201567 -0.91811025
0.51354748 8.0081825 -0.44822526
0.61198664 9.5432272 0
0.60349947 9.4108801 0.52673554
0.36056307 5.7309856 -0.95732623
0.51655847 8.2104616 -0.91695708
0.50501305 8.0269527 -0.4492414
0.59996468 9.5361652 0
0.59196419 9.4090014 0.52658999
0.35300565 5.7211685 -0.95561433
0.50695622 8.2162476 -0.91753423
0.49835429 8.0768366 -0.45199919
0.58844161 9.5368834 0
0.58091521 9.4149017 0.52688056
0.34547251 5.7113414 -0.95390248
0.49655947 8.2091064 -0.91666907
0.4922027 8.1370802 -0.45533696
0.57911795 9.5739613 0
0.57016623 9.425972 0.52746111
0.34008992 5.7373753 -0.95818132
0.48709929 8.2174492 -0.91753423
0.48790547 8.2310495 -0.46056199
0.566625 9.5590611 0
0.55923724 9.4344282 0.52789611
0.33196676 5.7172799 -0.95475757
0.47642028 8.2051239 -0.91609305
0.47901344 8.2497845 -0.46157753
0.55432016 9.546751 0
0.5476867 9.4325056 0.52775109
0.31886226 5.7308788 -0.95689702
0.45759571 8.2243204 -0.91811025
0.46051934 8.2768669 -0.46302924
0.53197056 9.5610523 0
0.52590102 9.4519653 0.52876723
0.31568226 5.7362018 -0.95775378
0.45276943 8.2271862 -0.91839939
0.45451915 8.2589798 -0.4620131
0.52576554 9.5535841 0
0.52004784 9.4496889 0.52862221
0.30764726 5.7160721 -0.95433003
0.44282815 8.2277269 -0.91839939
0.44453946 8.2595224 -0.4620131
0.5143612 9.5568085 0
0.50946701 9.4658737 0.5294928
0.30100974 5.7215614 -0.95518512
0.43329349 8.2359972 -0.91926342
0.43496877 8.2678413 -0.46244866
0.5019927 9.5418243 0
0.4974829 9.4561024 0.52891225
0.29356956 5.7116761 -0.95347494
0.42387265 8.2468472 -0.92041659
0.42537814 8.2761383 -0.46288365
0.49019599 9.5372305 0
0.48699048 9.474865 0.52992833
0.28692502 5.7171497 -0.95433003
0.41390765 8.2473536 -0.92041659
0.41472664 8.2636728 -0.46215811
0.4777585 9.519619 0
0.47541097 9.4728432 0.52978277
0.28039357 5.7251863 -0.95561433
0.40419531 8.2530193 -0.92099375
0.40118229 8.1914978 -0.45809421
0 0 0
0.46485442 9.491581 0.53079891
0.27347562 5.7255211 -0.95561433
0.39397582 8.2483292 -0.92041659
0.38719371 8.1063385 -0.4533053
0.45562118 9.5389452 0
0.45313767 9.4869499 0.53050888
0.26596045 5.7130284 -0.95347494
0.38412964 8.2513905 -0.92070574
0.37135693 7.9770231 -0.44604859
0.44397399 9.536891 0
0.44203636 9.4952698 0.53094387
0.25928953 5.7184696 -0.95433003
0.37462735 8.2621737 -0.92185777
0.35806966 7.8970041 -0.44154969
0.43327504 9.5556126 0
0.43056285 9.4957972 0.53094387
0.25226662 5.7162166 -0.95390248
0.36452994 8.2600393 -0.92156976
0.34440315 7.803978 -0.43632469
0.42184371 9.5587358 0
0.41943255 9.5041008 0.53137946
0.24502915 5.7088208 -0.95261818
0.35454902 8.2604733 -0.92156976
0.33207646 7.736896 -0.43255132
0.41018161 9.5566311 0
0.40805972 9.5071936 0.53152448
0.23866577 5.7219343 -0.95475757
0.3446753 8.2634773 -0.92185777
0.31731346 7.6074867 -0.42529464
0.39939329 9.5753241 0
0.39689678 9.5154715 0.53196001
0.23144042 5.7145309 -0.95347494
0.33479521 8.2664795 -0.92214692
0.30685925 7.5767088 -0.42355296
0.38792831 9.5783978 0
0.38539892 9.5159435 0.53196001
0.22463605 5.7173691 -0.95390248
0.32531416 8.2797985 -0.9235881
0.29852018 7.5978456 -0.42471406
0.37706971 9.597065 0
0.37441045 9.5293818 0.53268558
0.21733682 5.7073755 -0.95219058
0.31530941 8.2801857 -0.9235881
0.29013047 7.6189733 -0.42587519
0.36705777 9.6391239 0
0.36299455 9.5324221 0.5328306
0.21053492 5.710197 -0.95261818
0.30559018 8.2883167 -0.92445326
0.28226438 7.6556668 -0.42790687
0.35608146 9.6577578 0
0.35166788 9.5380516 0.53312111
0.20336056 5.7027483 -0.95133382
0.29539061 8.2835054 -0.92387611
0.27319917 7.661201 -0.42819741
0.34515366 9.6789875 0
0.34060568 9.5514507 0.53384668
0.19682328 5.7132521 -0.95304573
0.28538141 8.2838564 -0.92387611
0.26438916 7.6745076 -0.42892298
0.33327919 9.674201 0
0.32897499 9.5492611 0.53370172
0.19009052 5.7186217 -0.95390248
0.27545762 8.2867775 -0.92416412
0.25347552 7.6254754 -0.42616519
0.32167596 9.6771955 0
0.31769541 9.5574455 0.53413725
0.18301603 5.7137108 -0.95304573
0.26511323 8.2767639 -0.92301095
0.24467763 7.6387696 -0.4268913
0.30939943 9.6593657 0
0.3064796 9.5682106 0.5347178
0.17642832 5.7241912 -0.95475757
0.25551084 8.2900124 -0.92445326
0.23408671 7.5949092 -0.42442408
0.25507683 8.2759304 0
0.29475781 9.5633745 0.53442723
0.1692839 5.7167101 -0.95347494
0.21686254 7.3234386 -0.81663686
0.2239098 7.5614243 -0.42253739
0.24561608 8.2944441 0
0.28343296 9.5715179 0.53486282
0.16590446 5.7193747 -0.95390248
0.21258816 7.3287439 -0.81721401
0.21587588 7.4420843 -0.41586125
0.24083138 8.3023977 0
0.27780077 9.5768776 0.53515279
0.15920739 5.7272615 -0.95518512
0.20423555 7.3470864 -0.81923121
0.20262358 7.2890983 -0.40729845
0.23051012 8.2922764 0
0.26630092 9.5798016 0.53529781
0.15221883 5.7248864 -0.95475757
0.19494553 7.3318195 -0.81750202
0.19277993 7.2503719 -0.40512121
0.22062856 8.2977476 0
0.25493267 9.5879107 0.53573334
0.14601782 5.7532973 -0.95946562
0.18628325 7.3398089 -0.81836718
0.183228 7.2194285 -0.40337956
0.20868765 8.2225723 0
0.24341324 9.590807 0.53587836
0.13881785 5.7432041 -0.95775378
0.17735171 7.3374357 -0.81807804
0.17375115 7.1884723 -0.40163788
0.19793442 8.1889887 0
0.2320756 9.6014853 0.53645891
0.13258536 5.7741642 -0.96288937
0.16812959 7.322135 -0.81634885
0.16446878 7.1627045 -0.40018675
0.18678495 8.1345854 0
0.22041433 9.5991631 0.53631389
0.1263898 5.810246 -0.96888012
0.1595071 7.3326759 -0.81750202
0.15524893 7.1369243 -0.39873564
0.17763494 8.166028 0
0.20955004 9.6331921 0.53820062
0.11968543 5.8257885 -0.97144705
0.15075302 7.3380303 -0.81807804
0.14635843 7.1241198 -0.39801008
0.16562977 8.0621691 0
0.19817686 9.6464252 0.53892612
0.11329129 5.859302 -0.97701186
0.14193648 7.3408008 -0.81836718
0.13719761 7.0957112 -0.39641342
0.15624014 8.0805693 0
0.18767628 9.7064133 0.54226452
0.10653692 5.8773937 -0.9800064
0.13292578 7.3332062 -0.81750202
0.12838832 7.0828843 -0.39568785
0.14572175 8.0391293 0
0.17608917 9.7144299 0.54270005
0.099825926 5.9006162 -0.98385769
0.12402123 7.3307776 -0.81721401
0.11987385 7.0856299 -0.39583284
0.13587581 8.0314903 0
0.16465861 9.7328138 0.5437156
0.092696115 5.9007325 -0.98385769
0.11443197 7.2843661 -0.81202418
0.11135294 7.0883651 -0.39597785
0.12682527 8.0732841 0
0.15297998 9.7382069 0.54400617
0.08560349 5.9034142 -0.9842869
0.10533014 7.2638097 -0.80971783
0.10290101 7.0962915 -0.39641342
0.1165797 8.0396051 0
0.14102466 9.7253866 0.54328007
0.078470305 5.9035134 -0.9842869
0.096587643 7.2665253 -0.81000698
0.094291955 7.0938148 -0.3962684
0.10738406 8.0787668 0
0.12958425 9.7489414 0.54458672
0.071647123 5.9292679 -0.98856574
0.088338651 7.3106012 -0.81490767
0.085783131 7.0991154 -0.3965584
0.09781111 8.0945091 0
0.11777299 9.7464848 0.54444116
0.064287268 5.9113793 -0.9855696
0.080630116 7.4141459 -0.82643825
0.077459462 7.1225958 -0.39786452
0.08842656 8.1310492 0
0.10602452 9.7492256 0.54458672
0.057194151 5.9165916 -0.98642635
0.072246574 7.4737267 -0.83306926
0.069405764 7.1798525 -0.40105787
0.079255737 8.1988068 0
0.094294593 9.7545385 0.54487675
0.050023373 5.9140916 -0.98599881
0.06301903 7.4505234 -0.83047378
0.062883966 7.4345551 -0.4152807
0.069569185 8.224926 0
0.082530022 9.7572412 0.54502171
0.042970348 5.9269805 -0.9881382
0.053116489 7.3264561 -0.81663686
0.054955576 7.5801249 -0.42340797
0.059574299 8.2171936 0
0.0708156 9.7677279 0.54560226
0.035715636 5.9116211 -0.9855696
0.042951316 7.1092644 -0.7924214
0.04609466 7.6295481 -0.42616519
0.049645379 8.2172604 0
0.059123062 9.7859974 0.5466184
0.028609805 5.9193635 -0.9868539
0.034011148 7.0369005 -0.78435034
0.036787935 7.6114168 -0.42514962
0.03969121 8.2121038 0
0.047273409 9.7808599 0.54632783
0.021355022 5.8911533 -0.98214585
0.025405264 7.0084829 -0.78117883
0.027515644 7.5906682 -0.42398852
0.029711874 8.1965361 0
0.035473973 9.7861118 0.5466184
0.014267734 5.9040179 -0.9842869
0.016918104 7.0007463 -0.78031367
0.018174259 7.5205455 -0.42007017
0.019738752 8.1679363 0
0.023643071 9.7835512 0.54647338
0.010696139 5.9014506 -0.98385769
0.012669832 6.9904094 -0.7791605
0.013512965 7.4555964 -0.41644183
0.01473333 8.1289167 0
0.017746426 9.7913513 0.54690838
0.003563832 5.8988948 -0.98343015
0.004226408 6.9955978 -0.77973765
0.0044713584 7.4010425 -0.41339403
0.0048890971 8.0924883 0
0.0059233322 9.8043661 0.54763454
-0.0035684863 5.9065986 -0.98471445
-0.0042217183 6.9878359 -0.77887249
-0.0044415295 7.3516693 -0.41063625
-0.0048875264 8.0898886 0
-0.0059217578 9.8017597 0.54748899
-0.010691491 5.8988862 -0.98343015
-0.012660466 6.9852414 -0.77858448
-0.013263362 7.3178811 -0.40874958
-0.014615412 8.0638571 0
-0.017755855 9.7965536 0.54719895
-0.017826881 5.9014335 -0.98385769
-0.021085115 6.9800434 -0.77800733
-0.022027103 7.2918806 -0.40729845
-0.024398297 8.0768433 0
-0.029616617 9.8043232 0.54763454
