# .PCD v0.7 - Point Cloud Data file format
VERSION 0.7
FIELDS x y z
SIZE 4 4 4
TYPE F F F
COUNT 1 1 1
WIDTH 1568
HEIGHT 1
VIEWPOINT 0 0 0 1 0 0 0
POINTS 1568
DATA ascii
-9.9757347 8.7947931 0
-19.184326 16.91326 1.4285394
-4.268949 3.7544272 -0.94777691
-4.2425508 3.7312107 -0.6297425
-4.306242 3.7872255 -0.32031849
-9.9824419 8.7792921 0
-19.204748 16.890066 1.4285394
-4.2715473 3.7475686 -0.9473477
-4.2489986 3.7277858 -0.63003051
-4.3108149 3.7820194 -0.32031849
-9.9852171 8.7603588 0
-19.217331 16.859995 1.4279588
-4.2741423 3.7407155 -0.94692016
-4.2554445 3.7243509 -0.63031852
-4.3173351 3.7785175 -0.32046351
-9.9742584 8.7294378 0
-19.220093 16.821362 1.4266527
-4.2689924 3.7271082 -0.94478071
-4.2579947 3.7175069 -0.63003051
-4.3297272 3.780134 -0.32104406
-10.0142 8.7430496 0
-19.216923 16.777624 1.4249116
-4.2812357 3.7286913 -0.94649261
-4.2702856 3.7191539 -0.63118368
-9.1543436 7.9728665 -0.67806876
-10.040458 8.7446165 0
-19.19211 16.715139 1.4215733
-4.2954254 3.7319319 -0.948632
-4.2845368 3.7224717 -0.63262486
-9.1443596 7.9447608 -0.67661762
-10.023516 8.7085857 0
-19.108341 16.601622 1.4138815
-4.2979937 3.7250595 -0.94820446
-4.2890315 3.7172918 -0.63262486
-9.1460981 7.9268985 -0.67603707
-10.034031 8.6964674 0
-18.886871 16.3692 1.3960298
-4.3063717 3.723218 -0.94905961
-4.3013463 3.7188733 -0.63377804
-4.1533613 3.5909276 -0.30667621
-10.036657 8.6775284 0
-15.472835 13.377558 1.1424844
-4.3108673 3.7180119 -0.94905961
-4.3156281 3.7221179 -0.63521922
-0 0 -0
-10.043197 8.6619987 0
-15.477184 13.348673 1.1416138
-4.3173084 3.7144794 -0.94948876
-4.3201222 3.7169006 -0.63521922
-0 0 -0
-10.029983 8.6294889 0
-15.499207 13.335041 1.1420488
-4.3276315 3.7142711 -0.95077145
-4.3285394 3.7150502 -0.63579637
-0 0 -0
-10.050275 8.6258364 0
-0 0 0
-4.326272 3.7040353 -0.94948876
-4.3566022 3.7300034 -0.63925588
-4.1647449 3.5657403 -0.30624068
-10.066623 8.6187658 0
-0 0 0
-4.3287868 3.6971333 -0.94905961
-4.4594412 3.8087225 -0.65366995
-4.1749797 3.5657697 -0.30667621
-9.2498674 7.9001327 0
-15.521758 13.256834 1.1401622
-4.333251 3.6919 -0.94905961
-4.5152249 3.8469408 -0.661165
-4.1674142 3.5506082 -0.30580512
-0 0 0
-15.52195 13.224594 1.1390016
-4.3433008 3.695936 -0.95077145
-4.4998221 3.8291278 -0.65857065
-9.0928907 7.7376037 -0.66689372
-0 0 0
-15.523997 13.21016 1.138566
-4.3497186 3.6923449 -0.951199
-4.3348708 3.6797411 -0.63377804
-9.09233 7.718205 -0.66616815
-0 0 0
-15.535982 13.188026 1.1382755
-4.3580985 3.6904075 -0.95205575
-0 0 -0
-9.0897474 7.6971345 -0.66529703
-0 0 0
-15.508284 13.132306 1.1350827
-4.3625546 3.6851389 -0.95205575
-4.1995206 3.5474207 -0.61273408
-9.0911016 7.6794386 -0.66471648
-9.1952705 7.7674322 0
-15.331603 12.950917 1.1210048
-4.3414865 3.6583622 -0.94649261
-4.201828 3.5406787 -0.61244607
-9.0983887 7.6667757 -0.66457146
-9.1907158 7.744575 0
-14.290184 12.041653 1.0437946
-4.3144631 3.6266849 -0.93964511
-4.2100592 3.5389245 -0.61302209
-9.08179 7.6340423 -0.6626848
-9.1821394 7.7183948 0
-10.98315 9.2323017 0.80142421
-4.279501 3.5884807 -0.93108577
-4.2182999 3.5371618 -0.61359924
-9.0810537 7.6147165 -0.66195923
-9.1994362 7.7139831 0
-10.990318 9.2156878 0.80113423
-4.2503624 3.5553091 -0.92381072
-4.2305064 3.5387003 -0.61475241
-9.0663309 7.5837321 -0.66021758
-9.1967764 7.6928463 0
-11.005428 9.2057323 0.80142421
-4.2191806 3.52057 -0.91610813
-4.2308035 3.5302687 -0.61417526
-9.0535393 7.5544577 -0.65862089
-9.1980724 7.6750584 0
-0 0 0
-4.1879206 3.4859114 -0.90840554
-4.2450037 3.5334258 -0.61561644
-9.0646639 7.5451798 -0.65876645
-9.1813383 7.6422963 0
-11.017659 9.1708002 0.80069864
-4.154603 3.4496891 -0.9002738
-4.2433062 3.5233419 -0.61475241
-9.0637808 7.5259233 -0.65804088
-9.1825562 7.6245465 0
-11.020736 9.1508408 0.80011809
-4.1231866 3.4151945 -0.89257121
-4.2495503 3.5198603 -0.61504042
-9.0568581 7.5017061 -0.65687978
-9.1717243 7.596848 0
-11.039789 9.1441479 0.80069864
-4.1015859 3.3889551 -0.88700801
-4.2637677 3.5229588 -0.6164816
-9.0659161 7.490757 -0.65687978
-9.1788845 7.5840979 0
-11.056841 9.1357689 0.80113423
-4.0779486 3.3611414 -0.88101733
-4.2700157 3.5194478 -0.61676961
-9.0488958 7.4583139 -0.65499312
-10.159995 8.3741083 0
-0 0 0
-4.0463109 3.3268626 -0.87331307
-4.2722692 3.5126448 -0.6164816
-9.0398312 7.4325175 -0.65368646
-10.160057 8.3535633 0
-11.102972 9.1288252 0.80287588
-4.0285001 3.3040686 -0.86860669
-4.2725143 3.5042026 -0.61590558
-9.0307255 7.4067602 -0.65238035
-10.164104 8.3363276 0
-11.124038 9.1236401 0.80360144
-4.0007 3.2731898 -0.86175919
-4.272738 3.4957588 -0.61532843
-9.0276051 7.3859739 -0.65150976
-10.180215 8.3289862 0
-11.139072 9.1134796 0.80389142
-3.9947102 3.2602394 -0.85961974
-4.2809701 3.4938674 -0.61590558
-9.0304823 7.3701301 -0.65107423
-10.176155 8.3051586 0
-11.150076 9.1000137 0.80389142
-3.9767463 3.2375805 -0.85491168
-4.2891965 3.491955 -0.6164816
-9.0293074 7.3510118 -0.65034866
-10.212419 8.3142157 0
-11.155025 9.0816174 0.80345643
-3.9607322 3.216593 -0.85063285
-4.2954187 3.4883988 -0.61676961
-9.0159931 7.3220754 -0.64875197
-9.3356285 7.5816579 0
-11.157921 9.0615797 0.80287588
-3.9805732 3.2247322 -0.8540566
-4.3036537 3.4864655 -0.61734676
-9.0268583 7.3128166 -0.64889753
-9.342762 7.5687356 0
-12.751708 10.330382 0.91665912
-3.9804697 3.2166898 -0.85319984
-4.3038363 3.4780083 -0.61676961
-9.0195198 7.2888384 -0.64773643
-9.3296328 7.5394464 0
-12.752059 10.305171 0.91578853
-3.9823568 3.2102685 -0.8527723
-4.3160901 3.4792984 -0.61792278
-9.0222502 7.2730408 -0.64730084
-9.3488731 7.5363388 0
-12.772593 10.296278 0.91636908
-3.9822359 3.20224 -0.85191715
-4.3263397 3.4789448 -0.61878794
-8.9966087 7.2344537 -0.64483362
-9.3640509 7.5299249 0
-12.811348 10.302004 0.91825575
-3.9701574 3.1885798 -0.848921
-4.3223891 3.4714699 -0.61792278
-8.9928741 7.2225084 -0.64425308
-0 0 0
-12.801362 10.281245 0.91709465
-3.9780104 3.1869872 -0.84977609
-4.3346548 3.4727135 -0.61907595
-8.975234 7.1905179 -0.64236641
-0 0 0
-12.801604 10.256019 0.91622353
-3.9818583 3.1821783 -0.84977609
-4.3327923 3.4626336 -0.61821193
-8.9575291 7.1585808 -0.64047974
-0 0 0
-12.785573 10.217835 0.91419184
-3.9696498 3.1645691 -0.84635401
-4.3369727 3.4573958 -0.61821193
-8.945858 7.1315579 -0.63902861
-9.3876715 7.4837675 0
-2.4584706 1.9598707 0.1756157
-3.9933672 3.1677234 -0.84977609
-4.3513885 3.4517226 -0.61907595
-8.9345617 7.0873075 -0.63699639
-9.3792257 7.4400353 0
-2.4408047 1.936159 0.17401902
-3.9831061 3.1517501 -0.84678155
-4.3494773 3.4416521 -0.61821193
-8.9451542 7.0781174 -0.63714141
-9.4024963 7.4400024 0
-2.445178 1.9348192 0.17416403
-3.5427744 2.7963703 -0.99985641
-3.9788516 3.1405733 -0.84506971
-4.3515964 3.4347868 -0.61792278
-8.9210739 7.0415511 -0.63481969
-2.4356303 1.9224832 0
-2.4556727 1.938303 0.17474458
-3.5401597 2.7873704 -0.99816722
-3.9826434 3.1357632 -0.84506971
-4.3598118 3.4327295 -0.61849993
-8.9009905 7.0082593 -0.63278747
-2.4522667 1.9308101 0
-2.4498465 1.9289045 0.17416403
-3.5155532 2.7611217 -0.9902879
-3.9702787 3.118264 -0.84164596
-4.3761573 3.4370415 -0.62022913
-2.484966 1.9516968 -0.17649294
-2.440269 1.9165916 0
-2.4562664 1.9291561 0.17445458
-3.504884 2.7459011 -0.9863472
-3.9720247 3.1118827 -0.84121841
-4.3762388 3.4285641 -0.61965311
-2.4811842 1.9438837 -0.17605738
-2.4405365 1.9120382 0
-2.4606392 1.9277877 0.17459959
-3.4841824 2.7228951 -0.97959471
-4.0020747 3.1276288 -0.84678155
-4.3885303 3.4296443 -0.62080628
-2.4691975 1.9296824 -0.17504127
-2.4448936 1.9106889 0
-0 0 0
-3.4714384 2.7061856 -0.97509164
-3.9815559 3.1038516 -0.84164596
-4.3967466 3.4275167 -0.6213823
-2.4694798 1.9251014 -0.17489627
-2.4451499 1.9061348 0
-0 0 0
-3.4506359 2.6832719 -0.968337
-3.9893525 3.1021869 -0.84250104
-4.388638 3.412678 -0.61965311
-2.4882143 1.9348768 -0.17605738
-2.463887 1.9159595 0
-2.4881196 1.9348032 0.17605069
-3.4398198 2.6681979 -0.9643963
-3.9870186 3.0926487 -0.84121841
-4.3866253 3.4026155 -0.61878794
-0 0 -0
-2.4518037 1.9018139 0
-2.4904556 1.9317955 0.17605069
-3.4390261 2.6609325 -0.96327162
-3.9907527 3.0878289 -0.84121841
-2.4945288 1.9301317 -0.35155502
-2.4846623 1.9224976 -0.17547683
-2.462333 1.9052203 0
-2.4866288 1.924019 0.1756157
-3.3979905 2.6226237 -0.95088923
-2.4765186 1.9114169 -0.52154291
-2.4640985 1.9018309 -0.34694234
-2.4869835 1.919494 -0.17547683
-2.4646332 1.9022437 0
-2.4683776 1.9051335 0.17416403
-3.3971264 2.615413 -0.94976234
-2.4808586 1.9099877 -0.52197045
-2.4704895 1.9020048 -0.34751835
-2.4831223 1.9117305 -0.17504127
-2.4751785 1.9056147 0
-2.491271 1.9180042 0.1756157
-3.4043183 2.6144044 -0.95088923
-2.5014863 1.9210591 -0.52582175
-2.4727859 1.8990183 -0.34751835
-2.4936738 1.9150594 -0.17562184
-2.502248 1.9216442 0
-2.4997633 1.919736 0.17605069
-2.4978182 1.9134485 -0.69704062
-2.4915824 1.9086716 -0.52325475
-2.4874022 1.9054694 -0.34924868
-2.4918644 1.9088876 -0.17533183
-2.4756484 1.8964654 0
-2.5041418 1.9182928 0.1761957
-2.5082042 1.9166 -0.69929212
-2.5061214 1.9150084 -0.52582175
-2.4773679 1.893037 -0.34751835
-2.4982946 1.9090276 -0.17562184
-2.4696667 1.8871522 0
-2.4878778 1.901068 0.17488958
-2.5266845 1.9258902 -0.70379525
-2.494148 1.9010901 -0.52282721
-2.4755433 1.8869094 -0.34694234
-2.4964702 1.9028602 -0.17533183
-2.4740129 1.8857428 0
-13.008495 9.9153395 0.91361129
-2.5188906 1.9151422 -0.70097917
-2.5107419 1.9089465 -0.52582175
-2.4942932 1.8964403 -0.34924868
-2.500834 1.9014134 -0.17547683
-2.4907935 1.8937795 0
-13.022533 9.901185 0.91375631
-2.512049 1.9075464 -0.87024081
-2.5099313 1.9059383 -0.6981653
-2.4955392 1.8950096 -0.52239799
-2.4892566 1.8902389 -0.34838352
-2.5040498 1.9014722 -0.17562184
-2.4919372 1.8922744 0
-13.028513 9.8933153 0.91375631
-2.5163498 1.906023 -0.87093234
-2.5081854 1.8998387 -0.69704062
-2.4896498 1.8857988 -0.52068776
-2.4853516 1.8825431 -0.34751835
-2.5042763 1.8968778 -0.17547683
-7.4770374 5.6635232 0
-0 0 0
-2.5226505 1.9060029 -0.87231535
-2.5165629 1.9014033 -0.69872981
-2.4960189 1.8858813 -0.52154291
-2.5103269 1.8966916 -0.35068986
-2.5107167 1.8969862 -0.17576739
-7.4506521 5.6293826 0
-13.052383 9.8618021 0.91375631
-2.5349751 1.9105074 -0.87577814
-2.5147965 1.8952997 -0.69760293
-2.4962478 1.8813204 -0.5211153
-2.479568 1.8687494 -0.34607717
-2.508853 1.8908203 -0.17547683
-0 0 0
-13.062217 9.8444605 0.91361129
-2.5613453 1.9255334 -0.88408405
-2.5170846 1.8922597 -0.69760293
-2.4944115 1.8752147 -0.52025855
-2.5107722 1.8875141 -0.35011384
-4.4488764 3.3445158 -0.31088513
-0 0 0
-13.076177 9.8302307 0.91375631
-2.5074704 1.8802942 -0.86470354
-2.5214002 1.8907398 -0.6981653
-2.5151575 1.8860586 -0.52410984
-2.5026984 1.8767159 -0.34867153
-4.4487529 3.3360171 -0.31059456
-7.5064034 5.6288786 0
-11.732686 8.7980709 0.81913036
-2.5197835 1.884775 -0.8681637
-2.5399604 1.8998672 -0.70266837
-2.5153809 1.881482 -0.5236823
-2.5111799 1.8783396 -0.34953669
-0 0 -0
-7.5131993 5.6198049 0
-11.71626 8.7636557 0.8172437
-2.52005 1.8802302 -0.86747217
-2.5320735 1.8892009 -0.69985449
-2.5176525 1.8784412 -0.5236823
-2.5072265 1.8706623 -0.34867153
-0 0 -0
-7.5345874 5.6216178 0
-11.720591 8.7448292 0.81680816
-2.5243309 1.8786802 -0.8681637
-2.5323179 1.8846245 -0.69929212
-2.5219777 1.8769289 -0.52410984
-2.509485 1.8676314 -0.34867153
-4.4462304 3.3090138 -0.30957901
-7.5476317 5.6171665 0
-11.689466 8.6996403 0.81390589
-2.5265989 1.8756287 -0.8681637
-2.5325551 1.8800502 -0.69872981
-2.5201254 1.8708229 -0.52325475
-4.4762778 3.322979 -0.6213823
-4.4481335 3.3020856 -0.30943346
-7.5669556 5.617353 0
-11.336957 8.4160261 0.78865308
-2.5389426 1.8800377 -0.87162381
-2.5307369 1.8739617 -0.69760293
-4.0427666 2.9935904 -0.83864975
-4.4615841 3.3037164 -0.61878794
-4.4312415 3.2812483 -0.30798233
-7.5695505 5.6051054 0
-11.269855 8.345109 0.78328305
-2.5452521 1.8799524 -0.8730095
-2.5473082 1.881471 -0.70154369
-4.0381212 2.9826026 -0.8369379
-4.4697294 3.3013935 -0.61936396
-7.7729692 5.7412043 -0.53975821
-7.5867825 5.6036844 0
-11.196324 8.2697334 0.77747744
-2.5394428 1.8709233 -0.87024081
-2.5393534 1.8708576 -0.69872981
-4.0355282 2.9731576 -0.83565521
-4.4778843 3.2990615 -0.61994112
-7.7757125 5.7287221 -0.53946769
-7.5746927 5.5806217 0
-11.137283 8.2053442 0.77268857
-2.553827 1.8767644 -0.87439245
-2.4760928 1.8196388 -0.68071747
-4.0370431 2.9667547 -0.83522606
-4.4714479 3.2859917 -0.61849993
-7.7512274 5.6962461 -0.53729099
-7.5877237 5.5760899 0
-11.124155 8.1749535 0.77109188
-2.5581143 1.875159 -0.87508398
-3.2795191 2.403966 -0.90079302
-4.0302749 2.9542878 -0.83308661
-0 0 -0
-7.7350497 5.6699762 -0.5356943
-7.5965528 5.5684547 0
-0 0 0
-2.5867114 1.8913206 -0.88408405
-3.2742248 2.3940084 -0.89854366
-4.0338416 2.9494159 -0.83308661
-4.4877276 3.2812829 -0.61965311
-7.7439904 5.662158 -0.53583932
-7.607481 5.5623469 0
-11.143878 8.1480474 0.77109188
-2.736953 1.996102 -0.93460858
-3.2853189 2.3960335 -0.90079302
-4.0374022 2.9445395 -0.83308661
-4.4812422 3.268239 -0.61821193
-7.7466316 5.6497374 -0.53554934
-7.6183982 5.5562148 0
-11.160015 8.1391706 0.77152741
-2.8874516 2.100523 -0.98513305
-3.2841063 2.3890755 -0.89966834
-4.0430312 2.9411676 -0.83351415
-4.4642682 3.2476034 -0.61532843
-7.7513533 5.6388459 -0.53540432
-7.6187901 5.5424109 0
-11.171941 8.1272078 0.77167243
-2.8859305 2.0940886 -0.98375005
-3.2952166 2.3910747 -0.90191984
-4.0424304 2.9332681 -0.83265907
-5.3808746 3.9044697 -0.74101728
-7.7581611 5.6294761 -0.53540432
-7.6149516 5.5255604 0
-11.190166 8.1198063 0.77225298
-2.9230058 2.1156044 -0.99551612
-3.2939827 2.3841088 -0.90079302
-4.0376539 2.9223609 -0.83094716
-5.3185482 3.849443 -0.73179305
-7.7691636 5.6231418 -0.5356943
-7.615304 5.5117817 0
-11.187335 8.0971355 0.77138186
-2.9052153 2.0973833 -0.98859316
-3.2927449 2.3771553 -0.89966834
-4.0370231 2.9144776 -0.83009207
-5.3567414 3.8672314 -0.7364046
-7.7569933 5.6000628 -0.53438818
-7.6451631 5.5193286 0
-11.203433 8.0881758 0.77181745
-2.9036796 2.0909421 -0.98721021
-3.3018024 2.3776307 -0.90135753
-4.0342903 2.9050958 -0.82880777
-5.365612 3.8637817 -0.73698175
-7.7932706 5.6119409 -0.53641987
-7.6370411 5.4994397 0
-11.208984 8.071599 0.77152741
-2.8886485 2.0774691 -0.98167288
-3.2908573 2.3667314 -0.89797914
-4.0422988 2.907156 -0.83009207
-5.3616438 3.8560073 -0.73611659
-7.7882218 5.6011629 -0.53583932
-7.6213489 5.4811506 0
-11.211743 8.0633039 0.77138186
-2.8931932 2.0754383 -0.98236442
-3.2895894 2.3597939 -0.89685446
-4.0478926 2.9037645 -0.83051962
-5.3641996 3.8480198 -0.73582858
-7.8076563 5.6008387 -0.53671044
-7.646996 5.485589 0
-11.223596 8.0512705 0.77152741
-2.8875377 2.0661013 -0.97959572
-3.3027685 2.3632088 -0.89966834
-4.0576553 2.9033482 -0.83180231
-5.3562284 3.8325078 -0.73409939
-7.8270931 5.6004701 -0.53758103
-7.6515045 5.4748321 0
-11.233315 8.0377026 0.77152741
-2.8696156 2.0480397 -0.97267544
-3.2932165 2.3503628 -0.89629209
-4.0695186 2.9044082 -0.83351415
-5.3461161 3.8155138 -0.73208106
-7.8402019 5.5955386 -0.53801656
-7.6920075 5.4897723 0
-11.247246 8.0271397 0.77181745
-2.8577797 2.034385 -0.96782964
-3.2981219 2.3478541 -0.89685446
-4.0688462 2.8965144 -0.83265907
-5.3507228 3.8090515 -0.73208106
-7.8660069 5.5996218 -0.53932267
-7.696517 5.4789662 0
-11.263289 8.0180664 0.77225298
-2.8500099 2.0236695 -0.96436954
-3.2926693 2.3379829 -0.89460289
-4.0597887 2.8826814 -0.83009207
-5.3489923 3.7980895 -0.73121589
-7.8706503 5.5886106 -0.53917766
-7.6882758 5.4591141 0
-11.272969 8.0044508 0.77225298
-2.852453 2.0202243 -0.96436954
-3.2871978 2.3281286 -0.89235133
-4.0548892 2.871839 -0.82838023
-5.3556867 3.793117 -0.7315039
-7.8646703 5.5700822 -0.53830653
-7.6884928 5.4453063 0
-11.28687 7.9938245 0.77254301
-0 0 -0
-3.2962365 2.3285544 -0.89404052
-4.0541592 2.8639724 -0.82752347
-5.3729448 3.7955999 -0.73323423
-7.8522964 5.5470834 -0.53700042
-7.7057014 5.4435248 0
-11.30289 7.9846797 0.77297854
-0 0 -0
-3.2886562 2.3172479 -0.8912245
-4.0576167 2.8590715 -0.82752347
-5.3521552 3.7712274 -0.72977471
-7.8632455 5.5405879 -0.53729099
-7.7101393 5.4327064 0
-11.310407 7.9695215 0.77283353
-0 0 -0
-3.2935388 2.3147378 -0.89178902
-4.0610685 2.8541667 -0.82752347
-5.3609447 3.767735 -0.73035187
-7.878438 5.5370588 -0.53787154
-7.725215 5.4293723 0
-11.317904 7.9543567 0.77268857
-2.8580713 2.0035315 -0.96298385
-3.2900894 2.3063796 -0.89009982
-4.0687222 2.8522074 -0.82838023
-5.3612533 3.7582824 -0.72977471
-7.8872485 5.5290256 -0.53801656
-7.7466893 5.4304924 0
-11.329633 7.9421654 0.77283353
-2.8543279 1.9957678 -0.96090937
-3.2928739 2.3024025 -0.89009982
-4.0721655 2.8472891 -0.82838023
-5.3679085 3.7532823 -0.73006272
-7.9216051 5.5388465 -0.53990322
-7.7511144 5.4196382 0
-11.334958 7.9254889 0.77254301
-2.8567374 1.9923174 -0.96090937
-3.2977355 2.2998741 -0.89066219
-4.0713878 2.839427 -0.82752347
-5.3724394 3.7467935 -0.73006272
-7.9240336 5.5263009 -0.53961325
-7.7768669 5.4236655 0
-11.329614 7.9013867 0.77152741
-2.8673806 1.9945947 -0.963678
-3.2880008 2.2871847 -0.88728595
-4.076921 2.8359699 -0.82795101
-5.3727202 3.7373481 -0.7294867
-7.9370985 5.5211697 -0.54004824
-7.8069096 5.4306078 0
-11.347685 7.8936267 0.77210796
-2.8532989 1.9796876 -0.95814073
-3.3053694 2.293345 -0.8912245
-4.0824599 2.8325093 -0.82838023
-5.3666091 3.7234826 -0.72804552
-8.7678022 6.0833125 -0.59606957
-7.7813983 5.398922 0
-11.367887 7.8873143 0.77283353
-2.8680625 1.9848015 -0.96229237
-3.2976933 2.2821212 -0.88841063
-4.0858793 2.8275743 -0.82838023
-5.3711042 3.7169955 -0.72804552
-8.7388239 6.0475779 -0.5936023
-7.8392768 5.4250588 0
-11.368862 7.8676577 0.77225298
-2.8745921 1.9841876 -0.963678
-3.3004482 2.2781351 -0.88841063
-4.0745025 2.8124261 -0.82538402
-5.3713303 3.7075615 -0.72746837
-8.7439804 6.0355339 -0.59345675
-7.8308315 5.4052324 0
-9.6099243 6.6332517 0.65222865
-2.885253 1.9864033 -0.96644664
-3.2906454 2.2655029 -0.88503438
-4.0842433 2.8118691 -0.82666832
-5.3843274 3.7069354 -0.72862154
-8.7362909 6.0146537 -0.5924412
-7.8459311 5.40167 0
-9.5751352 6.5921707 0.64932638
-2.8876512 1.9829156 -0.96644664
-3.2933805 2.2615252 -0.88503438
-4.0876379 2.8069322 -0.82666832
-5.3845425 3.6975014 -0.72804552
-8.7306957 5.995265 -0.59157008
-7.8116879 5.3641934 0
-9.578805 6.5776515 0.64903587
-2.8817656 1.9737544 -0.963678
-3.2982049 2.2589786 -0.88559675
-4.0846705 2.7976379 -0.82538402
-5.3847342 3.6880665 -0.72746837
-8.7400751 5.9861784 -0.5917151
-7.8396397 5.3694596 0
-9.5588779 6.5469856 0.64714915
-2.8841484 1.970271 -0.963678
-3.2904437 2.2478266 -0.88278288
-4.0922832 2.7955935 -0.82623911
-5.3998632 3.6888509 -0.72890955
-8.7237072 5.9594941 -0.590119
-7.839673 5.3555775 0
-9.5496168 6.523705 0.64598805
-2.8853383 1.9685282 -0.963678
-3.2918012 2.2458384 -0.88278288
-4.0897346 2.79023 -0.82538402
-5.4063683 3.6885061 -0.7294867
-8.7101336 5.9425073 -0.58895785
-7.8622537 5.3640389 0
-9.5535564 6.5179343 0.64598805
-2.8960111 1.9706858 -0.96644664
-3.2966111 2.2432873 -0.88334519
-4.0952229 2.7867291 -0.82581156
-5.4001312 3.6746967 -0.72804552
-8.7194538 5.9334388 -0.58910286
-7.896698 5.3735676 0
-9.5528326 6.5005388 0.6454075
-2.8945305 1.9594611 -0.96436954
-3.3020227 2.2353141 -0.88334519
-4.1062012 2.7797053 -0.82666832
-5.3940005 3.651485 -0.72602719
-8.7036467 5.8919597 -0.58707118
-7.9225955 5.363225 0
-9.5706635 6.4788895 0.64555252
-2.915607 1.9685956 -0.97059828
-3.3131444 2.23701 -0.88559675
-4.1095572 2.7747416 -0.82666832
-5.4005504 3.6464107 -0.7263152
-8.6849174 5.8639903 -0.58532953
-7.9527898 5.3696632 0
-9.5914106 6.4760475 0.64642364
-2.9242282 1.9692767 -0.97267544
-3.3010902 2.2230687 -0.88165599
-4.09161 2.7554321 -0.82238781
-5.3985224 3.6355524 -0.72545117
-8.6553583 5.8288188 -0.58286226
-7.9614286 5.3615022 0
-9.5906076 6.4586477 0.64584303
-2.5088873 1.685169 -0.9965468
-2.9078641 1.9531537 -0.96644664
-3.2995594 2.2162476 -0.88053131
-4.0992026 2.7533517 -0.82324457
-5.3878798 3.6189301 -0.72343284
-8.647294 5.8082128 -0.58184618
-7.9679012 5.3518786 0
-9.6005592 6.4485021 0.64598805
-2.4739642 1.6573775 -0.981879
-2.9185591 1.9552239 -0.96921533
-3.3064528 2.2150848 -0.88165599
-4.0918651 2.7412541 -0.82110518
-5.3922486 3.6124172 -0.72343284
-8.6348791 5.7847457 -0.58054006
-7.9722018 5.3407998 0
-9.6126661 6.4397922 0.64627862
-2.4780183 1.6557589 -0.9826932
-2.9230034 1.9530885 -0.96990681
-3.3027949 2.206857 -0.879969
-4.1058445 2.7434375 -0.82324457
-5.3901558 3.6015868 -0.72256768
-8.6332197 5.7685332 -0.57995951
-7.9591765 5.3181515 0
-9.6161146 6.4252825 0.64598805
-2.4841266 1.6555021 -0.98432153
-2.9211819 1.94677 -0.96852118
-3.3139167 2.2085011 -0.88222051
-4.0877905 2.7242355 -0.81896412
-5.3966537 3.5965044 -0.72285569
-8.6337032 5.7537785 -0.57952452
-7.9785943 5.317193 0
-9.6260319 6.4150982 0.64613307
-2.4799559 1.6483988 -0.981879
-2.9068174 1.9321288 -0.96298385
-3.3081183 2.198869 -0.879969
-4.0996308 2.7249784 -0.82067597
-5.3902273 3.5828235 -0.72141451
-8.6190052 5.7289553 -0.57807285
-8.0196829 5.3305931 0
-9.6381083 6.406342 0.64642364
-2.4386871 1.6167227 -0.96476549
-2.9028831 1.9244604 -0.96090937
-3.3065333 2.1920595 -0.87884212
-4.1007829 2.7186058 -0.82024843
-5.3773065 3.5648744 -0.71910816
-8.6085949 5.7070508 -0.57691169
-8.0174417 5.3151469 0
-9.6458416 6.3946915 0.64642364
-2.4550648 1.6233133 -0.97046793
-2.9031155 1.9195691 -0.96021789
-3.3134224 2.1908681 -0.879969
-4.1040649 2.7136488 -0.82024843
-5.3902397 3.5640807 -0.72026134
-8.5959797 5.6837478 -0.57560557
-8.0542545 5.3255539 0
-9.6665621 6.3916278 0.64729416
-2.4095738 1.5890533 -0.95172608
-2.8865776 1.9036254 -0.95398641
-3.31394 2.1854601 -0.87940449
-4.122344 2.7185819 -0.82324457
-5.3664746 3.5390549 -0.71651381
-8.5746431 5.6547613 -0.57371891
-8.0519934 5.3100867 0
-9.6872978 6.3885288 0.64816529
-2.4589803 1.6173757 -0.97046793
-2.8553476 1.8780832 -0.94291449
-3.3144577 2.1800592 -0.87884212
-4.1106105 2.703723 -0.82024843
-5.375073 3.5354135 -0.71709096
-8.5684481 5.6358314 -0.57284838
-8.086668 5.3189445 0
-9.7145462 6.3896689 0.6494714
-2.4175363 1.5859345 -0.95335442
-2.8513198 1.870502 -0.94083732
-3.3128443 2.1732681 -0.87771744
-4.105289 2.6931217 -0.81853652
-5.377172 3.5274932 -0.71680182
-8.5600405 5.6154957 -0.57183224
-10.362596 6.7979946 0
-9.7244301 6.3793502 0.64961642
-2.4153183 1.5803083 -0.95172608
-2.8451805 1.8615612 -0.93806869
-3.3112113 2.1664786 -0.87659061
-4.1149864 2.6923771 -0.81982088
-5.3684483 3.5124996 -0.71507263
-8.5428991 5.5894976 -0.57023555
-10.35338 6.7740693 0
-11.669411 7.6351299 0.77892911
-2.4130821 1.5746847 -0.95009458
-2.8285208 1.8457839 -0.93183988
-3.305315 2.1569216 -0.87433904
-4.1117849 2.683193 -0.81853652
-5.3856812 3.5144885 -0.71680182
-8.5257158 5.5635548 -0.56863946
-10.357194 6.758707 0
-11.667749 7.613925 0.77820355
-2.4025581 1.5636811 -0.94520634
-2.8160284 1.8327842 -0.92699409
-3.3143096 2.1570857 -0.87602824
-4.1150241 2.6782227 -0.81853652
-5.385592 3.5051594 -0.7162258
-8.5280724 5.5504117 -0.56834888
-10.371899 6.7504478 0
-11.672581 7.5969839 0.77791303
-2.4023745 1.5594325 -0.94439214
-2.799304 1.817088 -0.92076534
-3.3190429 2.1544614 -0.87659061
-4.1010318 2.6620669 -0.81511283
-5.3854804 3.4958301 -0.71564865
-8.5195227 5.5302038 -0.56733334
-10.369136 6.7308269 0
-11.681752 7.5828743 0.77791303
-2.4125562 1.5619015 -0.94765204
-2.7867539 1.804159 -0.91591954
-3.313112 2.1449261 -0.87433904
-4.1107121 2.6612964 -0.81639713
-5.3766775 3.4808891 -0.71391946
-8.508749 5.5086083 -0.56617224
-10.364149 6.7098041 0
-11.699631 7.5744023 0.77849358
-2.3927395 1.5470215 -0.93950081
-2.754143 1.7806863 -0.90484756
-3.3229423 2.1484423 -0.87659061
-4.0993886 2.6504524 -0.81383014
-5.3809495 3.4790432 -0.71420747
-8.4989786 5.4949989 -0.56530112
-10.370393 6.7049584 0
-11.706385 7.5687418 0.77863854
-2.3904567 1.5414529 -0.93787247
-2.7710457 1.7868702 -0.90969074
-3.3255358 2.1444256 -0.87659061
-4.1112099 2.6510565 -0.81554037
-5.380806 3.469738 -0.71363145
-8.4990664 5.480505 -0.56486613
-10.385042 6.69665 0
-11.719893 7.5574107 0.77892911
-2.3964713 1.5412346 -0.93950081
-2.7647624 1.7780925 -0.9069221
-3.3153062 2.1321619 -0.87321436
-4.105782 2.640538 -0.81383014
-5.3828211 3.4618361 -0.71334344
-8.4925652 5.4617958 -0.563995
-10.393126 6.6840968 0
-11.735567 7.5474567 0.77936411
-2.3983316 1.5383378 -0.93950081
-2.7795832 1.7828801 -0.91107637
-3.3135984 2.1254082 -0.87208748
-4.1154456 2.639729 -0.81511283
-5.3761086 3.4483433 -0.71190113
-7.4821687 4.7992125 -0.49650863
-10.418719 6.6827745 0
-11.744678 7.5332708 0.77936411
-2.410605 1.5421022 -0.943578
-2.7859581 1.7822214 -0.91245937
-3.3268723 2.128253 -0.87490356
-4.1143112 2.6319902 -0.81425768
-5.380271 3.4418447 -0.71190113
-7.5054731 4.8013701 -0.49766973
-10.411438 6.6603622 0
-11.755967 7.5204787 0.77950966
-2.4103768 1.5378551 -0.94276065
-2.7733107 1.7694122 -0.90761626
-3.3230131 2.1201303 -0.87321436
-4.1109943 2.6228735 -0.81297338
-5.3887911 3.4381263 -0.71247828
-7.5134578 4.793694 -0.49781474
-11.808203 7.5338035 0
-11.769423 7.5090609 0.7797997
-2.3976426 1.5256572 -0.93705827
-2.783905 1.7714419 -0.91038221
-3.3255725 2.1161134 -0.87321436
-4.1184959 2.6206632 -0.81383014
-5.3820329 3.4246712 -0.7110371
-7.4644399 4.7497392 -0.49418637
-0 0 0
-11.776297 7.4934406 0.77965468
-2.4203486 1.536 -0.94520634
-2.7860434 1.7680769 -0.91038221
-3.3216889 2.1080079 -0.87152517
-4.1173205 2.612931 -0.81297338
-5.3796134 3.4140065 -0.71017194
-7.4372706 4.7198358 -0.4920097
-0 0 0
-11.783151 7.4778147 0.77950966
-2.403409 1.5211792 -0.93787247
-2.783942 1.7620283 -0.9089992
-3.3242335 2.1039927 -0.87152517
-4.1183076 2.6065826 -0.81254584
-5.3815513 3.4061217 -0.70988393
-7.399056 4.6830525 -0.48910692
-0 0 0
-11.800961 7.4691305 0.78009021
-2.4177814 1.5261873 -0.94276065
-2.7818303 1.7559875 -0.90761626
-3.3246269 2.0986195 -0.8709628
-4.1236229 2.6029735 -0.81297338
-5.3790994 3.3954735 -0.70901877
-7.373951 4.6546931 -0.48707524
-0 0 0
-11.818766 7.4604139 0.78067082
-2.4133549 1.5193182 -0.94031811
-2.788192 1.7552955 -0.9089992
-3.3293083 2.0959532 -0.87152517
-4.1245947 2.5966227 -0.81254584
-5.3941402 3.39586 -0.71045995
-7.3421893 4.6222467 -0.48460802
-11.813864 7.4373722 0
-11.827771 7.4461279 0.78067082
-2.4214625 1.52034 -0.94276065
-2.7796896 1.7452564 -0.9055391
-3.3275387 2.0892293 -0.87040049
-4.1277294 2.5916371 -0.81254584
-5.3807154 3.3783371 -0.70815361
-7.3103604 4.5898843 -0.48214078
-11.816227 7.4189391 0
-11.843355 7.4359717 0.78110582
-2.4232979 1.517413 -0.94276065
-2.7881773 1.745892 -0.90761626
-3.3279011 2.0838547 -0.86983597
-4.128684 2.5852866 -0.81211829
-5.3782234 3.3677189 -0.70728958
-7.280664 4.5589833 -0.47981855
-10.845881 6.79144 0
-11.830313 7.4078684 0.77965468
-2.4251297 1.5144838 -0.94276065
-2.7902849 1.7425219 -0.90761626
-3.3325779 2.0811818 -0.87040049
-4.107852 2.5653374 -0.80741024
-5.386672 3.3639555 -0.7078656
-7.2597194 4.5336661 -0.47807688
-10.836421 6.767302 0
-11.826027 7.3853073 0.77878356
-2.4290617 1.5128629 -0.943578
-2.7966433 1.7417991 -0.9089992
-3.3286178 2.0731223 -0.86871129
-4.1109486 2.5603719 -0.80741024
-5.3863459 3.354712 -0.70728958
-7.2210879 4.4974217 -0.47517464
-10.800417 6.7266917 0
-8.3127213 5.1773109 0.54700822
-2.4014902 1.4916666 -0.93216687
-2.8051412 1.7423911 -0.91107637
-3.328964 2.0677595 -0.86814892
-4.1140394 2.5554028 -0.80741024
-5.3838019 3.3441057 -0.70642442
-7.2000294 4.4722409 -0.47343299
-10.746635 6.6751871 0
-8.2704144 5.1371021 0.54381543
-2.4432142 1.513495 -0.94765204
-2.8072445 1.7390003 -0.91107637
-3.3444161 2.0717614 -0.87152517
-4.114944 2.5490794 -0.80698264
-5.3790436 3.3321497 -0.70527124
-7.1921697 4.4553246 -0.47256187
-10.728145 6.645751 0
-8.2456865 5.1079454 0.54178321
-2.4303203 1.5014472 -0.94194651
-2.8050709 1.7329674 -0.90969074
-3.3339512 2.0597086 -0.86814892
-4.1136489 2.5414042 -0.80612588
-5.3742642 3.3202102 -0.70411807
-7.179863 4.4357057 -0.47140074
-8.5067339 5.2554436 0
-8.269537 5.1089039 0.54294431
-2.425818 1.4946188 -0.93950081
-2.8007612 1.7256325 -0.90761626
-3.3364375 2.0556786 -0.86814892
-4.11235 2.5337415 -0.80527079
-5.3804722 3.3150694 -0.70440608
-7.1807971 4.4243035 -0.47111073
-8.4754124 5.2219543 0
-11.910254 7.338263 0.78139633
-2.429734 1.4929843 -0.94031811
-2.8007007 1.72093 -0.9069221
-3.3432446 2.0543036 -0.8692736
-4.1066599 2.5233948 -0.80355895
-5.3800707 3.3058603 -0.70383006
-7.1861382 4.4156237 -0.47111073
-8.4395847 5.1858215 0
-11.925748 7.3279438 0.78183132
-2.4348447 1.494099 -0.94194651
-2.8017399 1.7192376 -0.9069221
-3.344485 2.0522835 -0.8692736
-4.1081834 2.5209134 -0.80355895
-5.3732491 3.2971981 -0.70267689
-7.1445098 4.3841009 -0.46820796
-8.4072332 5.1589484 0
-11.934607 7.3234582 0.7821219
-2.445081 1.4963164 -0.94520634
-2.8038151 1.7158509 -0.9069221
-3.3491275 2.0495658 -0.86983597
-4.1221724 2.5226462 -0.80569834
-5.3860536 3.2961037 -0.70383006
-7.1409364 4.3700395 -0.46762741
-8.4067993 5.1447096 0
-11.93901 7.3063169 0.78183132
-2.4279017 1.4817739 -0.93787247
-2.7994683 1.7085447 -0.90484756
-3.3429344 2.0402279 -0.86758661
-4.1230283 2.5163274 -0.80527079
-5.3767815 3.2815061 -0.70209974
-7.1661716 4.3735895 -0.46893352
-8.4019041 5.1277704 0
-11.950054 7.2932429 0.78197694
-2.4254637 1.4762665 -0.93624097
-2.8079536 1.7090702 -0.9069221
-3.3388839 2.0322227 -0.86589742
-4.1194854 2.5073383 -0.80398649
-5.3807425 3.2750068 -0.70209974
-7.1581373 4.3568239 -0.46806297
-8.4147568 5.1216698 0
-11.976615 7.2896061 0.78313804
-2.4335864 1.4771835 -0.93868661
-2.8121674 1.7069817 -0.90761626
-3.3369884 2.0255475 -0.86477053
-4.1115417 2.4957001 -0.80184704
-5.3670077 3.257766 -0.6997934
-7.1567307 4.3441257 -0.46762741
-8.4276161 5.115551 0
-11.989852 7.2778234 0.78342801
-2.4396021 1.4768043 -0.94031811
-2.818516 1.7061783 -0.9089992
-3.3394337 2.0215137 -0.86477053
-4.1189423 2.4933865 -0.80270219
-5.359879 3.2445829 -0.69835222
-7.1619744 4.335475 -0.46762741
-8.4382477 5.1080623 0
-12.000858 7.2646751 0.78357303
-2.4392629 1.4725742 -0.93950081
-2.8055394 1.6936941 -0.90415341
-3.3484015 2.0214181 -0.86645973
-4.1153655 2.4844315 -0.8014195
-5.3682284 3.2407804 -0.69892937
-7.160532 4.3227878 -0.46719185
-8.4444141 5.0978627 0
-12.011858 7.2515159 0.78371859
-2.4431639 1.4709044 -0.94031811
-2.8183365 1.6967766 -0.90761626
-3.3377848 2.0095098 -0.86308354
-4.1073704 2.4728379 -0.79928005
-5.3898673 3.2449641 -0.70123571
-7.16575 4.3141327 -0.46719185
-8.4304943 5.0755706 0
-12.027284 7.2410135 0.78415358
-2.4385805 1.4641331 -0.93787247
-2.8096242 1.6869093 -0.90415341
-3.331497 2.0002437 -0.86083198
-4.1169515 2.4718337 -0.80056274
-5.3583045 3.2171466 -0.69662303
-7.1531444 4.2947755 -0.46603128
-8.4321632 5.0627036 0
-12.040483 7.2291532 0.78444415
-2.433984 1.4573753 -0.93542677
-2.8052094 1.6796505 -0.90207893
-3.346987 2.004046 -0.86420822
-4.1243443 2.4694972 -0.8014195
-5.3843746 3.2239544 -0.69950539
-7.1605558 4.2874627 -0.46617627
-8.4427357 5.0551825 0
-12.046974 7.2132607 0.7842986
-2.4357433 1.4544332 -0.93542677
-2.8115406 1.6788297 -0.90346193
-3.3428593 1.9960911 -0.86251903
-4.1140966 2.4566131 -0.79885089
-5.3860474 3.2161214 -0.69921738
-7.1411881 4.2641525 -0.46457961
-8.4309702 5.0343084 0
-12.066843 7.2053638 0.7850247
-2.4332557 1.4489623 -0.93379837
-2.8027916 1.6690146 -0.90000176
-3.3387256 1.9881542 -0.86083198
-4.134707 2.4621475 -0.80227458
-5.3632617 3.1937308 -0.69575787
-7.1329441 4.2475467 -0.46370906
-8.4392815 5.0254478 0
-12.07777 7.1921062 0.78516972
-2.4307504 1.4434947 -0.93216687
-2.7983329 1.6617825 -0.89792466
-3.3433082 1.9854146 -0.86139435
-4.1310554 2.4532161 -0.80099028
-5.3648953 3.1859288 -0.69546986
-7.1269021 4.2322922 -0.46298349
-8.3871717 4.9807 0
-12.090916 7.1801586 0.7854597
-2.4643948 1.4594493 -0.94439214
-2.8111298 1.6647907 -0.90138477
-3.3500731 1.9839605 -0.86251903
-4.1251898 2.4429955 -0.79928005
-5.368741 3.1794441 -0.69546986
-7.1230679 4.2183809 -0.46240294
-8.3730326 4.9586282 0
-12.101826 7.1668715 0.78560525
-2.4321055 1.4363606 -0.93135273
-2.8239465 1.6677753 -0.90484756
-3.3371592 1.9708701 -0.85858041
-4.1259217 2.4367001 -0.79885089
-5.3658953 3.1690075 -0.69460469
-7.0990758 4.1925945 -0.46051624
-8.3902206 4.9551229 0
-12.114946 7.1548839 0.78589529
-2.435967 1.4346739 -0.93216687
-2.8064978 1.6528999 -0.89861614
-3.3395381 1.9668363 -0.85858041
-4.1244435 2.4291101 -0.79799575
-5.3630323 3.1585824 -0.69373953
-7.110847 4.1879659 -0.46095127
-8.3962011 4.9449816 0
-12.12582 7.1415572 0.78604025
-2.461144 1.4454997 -0.94113231
-2.8366215 1.6660281 -0.90761626
-3.3309596 1.9563669 -0.85576653
-4.1185217 2.4189243 -0.7962839
-5.3556957 3.1455519 -0.69229835
-7.1181493 4.1806908 -0.46109682
-8.3909521 4.9282441 0
-12.13444 7.1269007 0.78604025
-2.4500885 1.4350275 -0.93624097
-2.8191433 1.6511844 -0.90138477
-3.3355114 1.9536237 -0.8563289
-4.1280885 2.4178395 -0.7975682
-5.3594928 3.1390781 -0.69229835
-7.1119781 4.1655169 -0.46037069
-8.4103708 4.9259911 0
-12.147532 7.1148624 0.78633082
-2.4667623 1.4407932 -0.94194651
-2.8233089 1.6490458 -0.90207893
-3.3378696 1.9495919 -0.8563289
-4.1332216 2.4141433 -0.79799575
-5.3543482 3.127382 -0.69114518
-7.1147647 4.155611 -0.4602257
-8.4320498 4.9250145 0
-12.158361 7.1014886 0.78647584
-2.4407389 1.4216409 -0.93135273
-2.7927797 1.6266917 -0.89169586
-3.3358274 1.9429971 -0.85520202
-4.1294789 2.4052699 -0.79671144
-5.3536572 3.118309 -0.69056916
-7.1085563 4.1404734 -0.45950013
-8.4739666 4.9357748 0
-12.171419 7.0894055 0.78676581
-2.4360411 1.4149653 -0.92890704
-2.8034205 1.6283562 -0.89446449
-3.3271892 1.9325852 -0.85238814
-4.1190677 2.392545 -0.79414445
-5.3551869 3.1105399 -0.69028115
-7.1000767 4.1240525 -0.45862958
-8.5024328 4.9386063 0
-12.184475 7.0773063 0.78705639
-2.4441674 1.4157385 -0.93135273
-2.8227532 1.6350273 -0.90000176
-3.3339233 1.9311131 -0.85351503
-4.1241751 2.3888514 -0.794572
-5.3455081 3.0962861 -0.68855083
-7.1050549 4.1154709 -0.45862958
-8.5737 4.966156 0
-12.195264 7.0638795 0.78720134
-2.4685585 1.4278755 -0.94031811
-2.8237405 1.6333215 -0.90000176
-3.3350894 1.9290986 -0.85351503
-4.1256175 2.3863595 -0.794572
-5.3294663 3.0826957 -0.68624449
-7.0985427 4.1059732 -0.45804903
-8.5969715 4.9727015 0
-12.204032 7.0591149 0.78749192
-2.4531543 1.4150121 -0.93379837
-2.8235409 1.6286561 -0.89931029
-3.3330119 1.9225258 -0.85238814
-4.1218247 2.3775237 -0.79328769
-5.3354344 3.0775499 -0.68653363
-7.0967441 4.0934968 -0.45761347
-12.232299 7.0557537 0
-12.217051 7.046958 0.78778195
-2.4634321 1.4169765 -0.93705827
-2.8276794 1.626493 -0.90000176
-3.3243217 1.9121637 -0.84957427
-4.1157937 2.3674216 -0.79157585
-5.3301811 3.0659423 -0.68538046
-7.0814157 4.0732598 -0.45630735
-12.2363 7.0383706 0
-12.230065 7.0347843 0.78807247
-2.4604108 1.4073365 -0.93461257
-2.8294261 1.6184103 -0.89931029
-3.3311365 1.905385 -0.85013664
-4.1103635 2.3510969 -0.7894364
-5.3308368 3.0491986 -0.6845153
-7.0844693 4.0522633 -0.45587179
-10.504856 6.0086985 0
-12.251536 7.0077868 0.7883625
-2.4578116 1.4019109 -0.93298107
-2.8226628 1.6100184 -0.89654166
-3.3312314 1.9001008 -0.84957427
-4.1132011 2.3461285 -0.7894364
-5.3345175 3.0427551 -0.6845153
-7.0780773 4.0372639 -0.45514622
-10.507592 5.9934249 0
-12.26225 6.9942641 0.78850746
-2.4423249 1.389169 -0.9264645
-2.8224275 1.6053674 -0.89585018
-3.3335249 1.8960743 -0.84957427
-4.1271877 2.3475015 -0.79157585
-5.3359442 3.0350296 -0.68422729
-7.0716596 4.0222864 -0.45442069
-10.498989 5.9717159 0
-12.277471 6.9832978 0.78894305
-2.452601 1.3910944 -0.92972434
-2.8156364 1.597005 -0.89308149
-3.3358135 1.892045 -0.84957427
-4.1233287 2.338717 -0.79029316
-5.3486066 3.033684 -0.68538046
-7.0697317 4.0098915 -0.45398512
-10.490349 5.9500365 0
-12.288157 6.9697385 0.78908807
-2.4392188 1.3796113 -0.9240188
-2.8262987 1.5985421 -0.89585018
-3.3336697 1.8855088 -0.84844744
-4.1306162 2.3362582 -0.7911483
-5.3455119 3.0233979 -0.6845153
-7.0790906 4.0039024 -0.45427513
-10.48168 5.9283919 0
-12.301098 6.9574466 0.78937858
-2.4667175 1.3912332 -0.93379837
-2.817296 1.5889601 -0.89238733
-3.3315234 1.8789853 -0.84732276
-4.1289687 2.3287458 -0.79029316
-5.3514123 3.0182061 -0.68480331
-7.0635562 3.9838583 -0.45296901
-10.486563 5.9144402 0
-12.314018 6.9451284 0.78966862
-2.4468498 1.3761334 -0.9256472
-2.8192139 1.5855547 -0.89238733
-3.336004 1.8762027 -0.84788507
-4.1273003 2.3212359 -0.7894364
-5.3505507 3.0092044 -0.68422729
-7.0638394 3.9727755 -0.45267901
-10.473289 5.8902845 0
-12.324663 6.9315166 0.78981358
-2.4506729 1.3743883 -0.9264645
-2.8276942 1.5858299 -0.89446449
-3.3360546 1.8709288 -0.84732276
-4.1144266 2.3074563 -0.78644025
-5.3496666 3.0002043 -0.68365014
-7.0618334 3.960423 -0.45224345
-7.2822738 4.0840507 0
-12.339831 6.920434 0.79024917
-2.445858 1.3678058 -0.9240188
-2.8208499 1.5775138 -0.89169586
-3.3338816 1.8644184 -0.84619802
-4.1306591 2.3100033 -0.78900886
-5.3578072 2.9962654 -0.68422729
-7.0666132 3.9518874 -0.45224345
-7.2758479 4.0688982 0
-12.345919 6.9042516 0.79010415
-2.4690914 1.3768849 -0.93216687
-2.8183758 1.5716629 -0.89031285
-3.336132 1.8603888 -0.84619802
-4.1132712 2.2937593 -0.78515756
-5.3523874 2.9847505 -0.68307412
-7.0645728 3.939548 -0.45180789
-7.28303 4.0613704 0
-12.356519 6.8905935 0.79024917
-2.4642792 1.3703005 -0.92972434
-2.8356147 1.5767874 -0.89515603
-3.3361504 1.8551179 -0.84563357
-4.1250138 2.2937777 -0.78686941
-5.3537316 2.9770253 -0.68278611
-7.073874 3.933537 -0.45209846
-7.29703 4.0576262 0
-12.364836 6.875658 0.79024917
-2.4335077 1.3493425 -0.91749907
-2.8287416 1.5684936 -0.89238733
-3.3339493 1.8486235 -0.84450883
-4.1277828 2.2887919 -0.78686941
-5.3686333 2.9768243 -0.68422729
-7.0740724 3.9224641 -0.45180789
-7.2973709 4.0462799 0
-12.373135 6.8607125 0.79024917
-2.4502795 1.3547738 -0.92320466
-2.8328366 1.5662919 -0.89308149
-3.3495183 1.8519682 -0.84788507
-4.1305451 2.2838025 -0.78686941
-5.3654332 2.9665792 -0.68336213
-7.0697107 3.9088843 -0.45122734
-10.506606 5.8091636 0
-11.453673 6.3328028 0.73103559
-2.4519148 1.3518121 -0.92320466
-2.8259392 1.5580227 -0.89031285
-3.3517535 1.8479196 -0.84788507
-4.1333017 2.2788098 -0.78686941
-5.3622165 2.9563465 -0.68249696
-7.0676088 3.896579 -0.45079234
-10.513618 5.7964644 0
-11.456761 6.3164468 0.73074502
-2.4405468 1.341702 -0.91831326
-2.8256149 1.5533949 -0.88961869
-3.3317223 1.8316298 -0.84225732
-4.1203032 2.2651558 -0.78387326
-5.35219 2.9423912 -0.68076777
-7.0586452 3.8805232 -0.44992122
-10.511492 5.7787414 0
-11.432511 6.2850761 0.72871339
-2.4508355 1.3435044 -0.92157316
-2.8318939 1.5523938 -0.89100438
-3.3406193 1.8312681 -0.84394652
-4.1230373 2.2601757 -0.78387326
-5.358007 2.9371641 -0.68105578
-7.0519385 3.8657472 -0.44919565
-10.523035 5.7685404 0
-11.40364 6.2512727 0.72639114
-2.4632988 1.3464683 -0.9256472
-2.8359668 1.550173 -0.89169586
-3.345057 1.8284478 -0.84450883
-4.1280155 2.2564223 -0.7843008
-5.3592849 2.9294486 -0.68076777
-7.0543265 3.8559785 -0.44905066
-10.520863 5.7508283 0
-11.379269 6.2200432 0.72435945
-2.4424212 1.3331405 -0.91749907
-2.8413112 1.5508657 -0.89308149
-3.3416963 1.8239895 -0.843382
-4.1293778 2.2539277 -0.7843008
-5.3474274 2.9187727 -0.67903745
-7.0520887 3.8492236 -0.44876009
-10.512916 5.7382379 0
-11.341974 6.1907606 0.72174722
-2.4896171 1.3549994 -0.93461257
-2.8608029 1.5570211 -0.89861614
-3.3349707 1.8150917 -0.8411305
-4.127593 2.2464845 -0.78344572
-5.3395934 2.9061282 -0.67759627
-7.0384851 3.8307672 -0.44759953
-7.0980721 3.863198 0
-11.290102 6.144753 0.71797335
-2.4456358 1.3272343 -0.91749907
-2.8692992 1.5571543 -0.9006933
-3.339401 1.8122761 -0.84169495
-4.1235337 2.2378211 -0.78216136
-5.3567452 2.9070787 -0.67932659
-7.0408182 3.8210166 -0.44745398
-7.0890059 3.847168 0
-11.26555 6.1137571 0.71594167
-2.4559326 1.3289833 -0.92075896
-2.8557401 1.5453318 -0.89585018
-3.3393474 1.8070271 -0.8411305
-4.1330099 2.2365034 -0.78344572
-5.3306842 2.8846028 -0.67557907
-7.0431466 3.811271 -0.44730899
-7.0936494 3.8385994 0
-11.229514 6.0766478 0.71318442
-2.4314346 1.311931 -0.91097939
-2.8576052 1.5418801 -0.89585018
-3.343771 1.8042009 -0.84169495
-4.1266727 2.2266319 -0.78173381
-5.3569241 2.8904393 -0.67846143
-7.036315 3.7965896 -0.44658342
-0 0 0
-11.239133 6.0643072 0.71332943
-2.4591372 1.3230444 -0.92075896
-2.868295 1.5431761 -0.89861614
-3.3548989 1.8049747 -0.84394652
-4.1271014 2.2204287 -0.78130627
-5.3421903 2.8741608 -0.67615509
-7.0363164 3.7856202 -0.44629288
-0 0 0
-11.246452 6.0507226 0.71332943
-2.4607341 1.3200721 -0.92075896
-2.8568971 1.5325956 -0.89446449
-3.350358 1.797315 -0.84225732
-4.1410899 2.2215068 -0.78344572
-5.3479366 2.8689251 -0.6764431
-7.0477571 3.7808018 -0.44672844
-7.1029353 3.8104024 0
-11.237724 6.0285292 0.71231329
-2.4536097 1.3124348 -0.91749907
-2.8675957 1.5338757 -0.89723313
-3.3547657 1.7944628 -0.84281963
-4.14151 2.215292 -0.78301811
-5.3582435 2.8661222 -0.67730826
-7.0408659 3.7661562 -0.44600287
-7.0960622 3.7956808 0
-6.0028758 3.2109356 0.38025147
-2.4660957 1.3152837 -0.92157316
-2.869447 1.5304097 -0.89723313
-3.3479636 1.7856249 -0.84056813
-4.130589 2.2030354 -0.78044951
-5.3480139 2.8523448 -0.67557907
-7.0454116 3.7576461 -0.44600287
-7.0891552 3.7809765 0
-0 0 0
-2.4502254 1.3030189 -0.91505343
-2.871294 1.5269414 -0.89723313
-3.3411453 1.7768061 -0.83831656
-4.1400495 2.2016599 -0.78173381
-5.3377504 2.8385918 -0.67384875
-7.0476546 3.7479115 -0.44585788
-7.1052141 3.7785213 0
-0 0 0
-2.4670854 1.3081634 -0.92075896
-2.8576198 1.5152429 -0.89238733
-3.3432896 1.7727677 -0.83831656
-4.1290946 2.1894381 -0.77916521
-5.3548913 2.8394125 -0.67557907
-7.033813 3.7296548 -0.44469675
-7.1143684 3.7723691 0
-0 0 0
-2.4599242 1.3005606 -0.91749907
-2.8705442 1.5176553 -0.89585018
-3.3431852 1.7675402 -0.83775425
-4.1294699 2.1832485 -0.77873766
-5.3583183 2.8329401 -0.67557907
-7.0383143 3.721153 -0.44469675
-7.1189218 3.7637701 0
-0 0 0
-2.4658625 1.2998903 -0.91912746
-2.8701503 1.5130123 -0.89515603
-3.3318365 1.7563922 -0.834378
-4.1230216 2.1734688 -0.77702576
-5.3663092 2.8288734 -0.67615509
-7.0542965 3.7187033 -0.44542232
-5.9263802 3.1241176 0
-6.010674 3.1685534 0.37952593
-2.4718113 1.2992119 -0.92075896
-2.8608749 1.5037082 -0.89169586
-3.3451998 1.7582749 -0.83719188
-4.1370039 2.1744561 -0.77916521
-5.3720107 2.8235896 -0.6764431
-7.0288858 3.6944618 -0.44353563
-6.0015578 3.1544867 0
-6.3134956 3.3184447 0.39839321
-2.4733791 1.2962242 -0.92075896
-2.8737981 1.5060719 -0.89515603
-3.3540671 1.7577665 -0.83887893
-4.1373568 2.1682653 -0.77873766
-5.3754187 2.8170965 -0.6764431
-7.0402513 3.6895857 -0.44397119
-0 0 0
-6.3405118 3.3228731 0.39984432
-2.4420829 1.2760639 -0.90853369
-2.8600578 1.4944687 -0.89031285
-3.3584471 1.7548926 -0.83944345
-4.1399736 2.1632645 -0.77873766
-5.3627782 2.8022177 -0.6744259
-7.0516067 3.6846828 -0.44440618
-0 0 0
-6.3076744 3.2959552 0.39752209
-2.4611588 1.2822483 -0.91505343
-2.8418393 1.4805804 -0.88408405
-3.344789 1.7426142 -0.83550268
-4.1334782 2.1535161 -0.77702576
-5.3753357 2.8005161 -0.67557907
-6.0352421 3.1443233 -0.38011318
-5.9806452 3.1158786 0
-6.283999 3.2739239 0.39578041
-2.4736707 1.2849691 -0.91912746
-2.8502986 1.4806117 -0.88615859
-3.3671834 1.7491118 -0.84056813
-4.1338015 2.1473379 -0.77659822
-5.3718276 2.790441 -0.67471391
-6.0505643 3.1430166 -0.38083872
-6.0028815 3.1182473 0
-6.2510648 3.2471681 0.39345875
-2.4642501 1.2762969 -0.91505343
-2.8498602 1.4760139 -0.88546705
-3.3580155 1.7392002 -0.83775425
-4.1386704 2.1435208 -0.77702576
-5.3591161 2.7756202 -0.67269558
-0 0 -0
-7.5156078 3.8925211 0
-6.234211 3.2288537 0.39215207
-2.4657905 1.2733183 -0.91505343
-2.8627849 1.4783237 -0.88892722
-3.3420534 1.7258148 -0.83325118
-4.1298552 2.1326303 -0.77488637
-5.3739548 2.7750754 -0.67413676
-0 0 -0
-11.407228 5.8906193 0
-6.2288728 3.2165496 0.39157152
-2.4753463 1.2763592 -0.91831326
-2.8681414 1.4788955 -0.89031285
-3.3340619 1.7191374 -0.83099961
-4.1311426 2.1301351 -0.77488637
-5.3733335 2.7706439 -0.67384875
-6.0369315 3.1128142 -0.37938705
-11.422349 5.889689 0
-6.2215858 3.2080269 0.39099151
-2.4549098 1.2620689 -0.91016519
-2.8498478 1.4651065 -0.88408405
-3.3451757 1.7197546 -0.83325118
-4.126862 2.1216195 -0.77360207
-5.3628802 2.7570562 -0.67211956
-6.0129657 3.0912652 -0.37764594
-11.415574 5.8687458 0
-6.2023435 3.1886241 0.38953984
-2.4564328 1.2591017 -0.91016519
-2.8672376 1.4696691 -0.88892722
-3.3404658 1.7122332 -0.83156198
-4.1385603 2.1213152 -0.77531391
-5.3754144 2.7552934 -0.67327273
-6.9924626 3.5841489 -0.43889117
-11.431921 5.8596964 0
-6.1946321 3.1752024 0.3888143
-2.4667559 1.2606317 -0.91342503
-2.8466761 1.4547892 -0.88200694
-3.3493221 1.7116656 -0.83325118
-4.1319771 2.1116402 -0.77360207
-5.3718281 2.7452641 -0.67240757
-7.00142 3.5780644 -0.43918175
-11.441308 5.8470621 0
-6.1984639 3.1677151 0.3888143
-2.4836864 1.2655015 -0.91912746
-2.8461986 1.4502106 -0.88131541
-3.3513877 1.7076174 -0.83325118
-4.1276703 2.1031532 -0.77231938
-5.379746 2.7411175 -0.67298359
-6.9663815 3.5495486 -0.4367145
-11.446048 5.8320527 0
-6.2022872 3.1602232 0.3888143
-2.4477553 1.2434704 -0.90527385
-2.8479488 1.4467704 -0.88131541
-3.3489223 1.7012672 -0.8321265
-4.1279135 2.0969982 -0.77189016
-5.376143 2.7311041 -0.67211956
-6.9683509 3.539953 -0.43656951
-11.43916 5.8111439 0
-6.1922054 3.1456676 0.38794374
-2.4470532 1.2393962 -0.90445966
-2.8474503 1.4421914 -0.88062125
-3.3509755 1.6972195 -0.8321265
-4.1373167 2.0954895 -0.77317446
-5.3794389 2.724606 -0.67211956
-6.9587102 3.5244837 -0.43569839
-7.2534146 3.6737471 0
-6.1936774 3.1370058 0.38779819
-2.4948785 1.2598335 -0.92157316
-2.8559113 1.4421434 -0.88269842
-3.3575556 1.6954577 -0.83325118
-4.1467223 2.0939615 -0.77445877
-5.3827271 2.7181041 -0.67211956
-6.9397736 3.5043623 -0.43424726
-7.2415843 3.6567674 0
-6.1951461 3.1283495 0.38765317
-2.456666 1.2368144 -0.90690535
-2.8598905 1.4398186 -0.88338989
-3.3527911 1.6879706 -0.83156198
-4.1309066 2.0797145 -0.77103508
-5.3721418 2.7046175 -0.67038924
-6.6051631 3.3253851 -0.41305774
-7.2622719 3.6562078 0
-6.1850004 3.113853 0.38678262
-2.4559519 1.2327373 -0.90609115
-2.8526595 1.4318602 -0.88062125
-3.3434761 1.67822 -0.82874811
-4.1425934 2.0793281 -0.77274692
-5.3846521 2.7027655 -0.67154241
-6.467526 3.2463017 -0.40420493
-7.2852917 3.65677 0
-6.1957188 3.1098711 0.38721761
-2.4729054 1.2375083 -0.91179353
-2.8543875 1.4284123 -0.88062125
-3.3500502 1.6764553 -0.82987493
-4.1473961 2.0754688 -0.77317446
-5.3763514 2.6904707 -0.67010123
-6.4551754 3.2303436 -0.40318882
-6.3983727 3.2019176 0
-6.1692657 3.0872664 0.38533095
-2.4611332 1.227901 -0.90690535
-2.8561113 1.4249623 -0.88062125
-3.3588879 1.6758059 -0.83156198
-4.1338196 2.0624325 -0.77017832
-5.365716 2.6770465 -0.66837204
-0 0 -0
-6.4371705 3.2116132 0
-3.1272268 1.5602263 0.195208
-2.4559741 1.2216231 -0.90445966
-2.8488462 1.4170409 -0.87785262
-3.3381646 1.6604323 -0.82593417
-4.1409097 2.0597248 -0.77103508
-5.3758874 2.6740136 -0.66923606
-0 0 -0
-0 0 0
-3.1244612 1.5541344 0.19491799
-2.490665 1.2351267 -0.91668493
-2.8505561 1.4135977 -0.87785262
-3.3515482 1.6620407 -0.82874811
-4.1433954 2.0547197 -0.77103508
-5.37217 2.6640718 -0.66837204
-6.4272704 3.1872988 -0.40072158
-0 0 0
-3.0984015 1.5365047 0.19317631
-2.4788575 1.2255418 -0.91179353
-2.8590112 1.413489 -0.87992978
-3.3603895 1.6613692 -0.8304373
-4.152781 2.0531261 -0.77231938
-5.3637853 2.6518438 -0.66692972
-6.4241266 3.1760743 -0.40028602
-6.4417686 3.1847966 0
-3.0769672 1.521246 0.19172521
-2.4648244 1.2148999 -0.90609115
-2.8382187 1.398944 -0.8730095
-3.3601174 1.6561854 -0.82987493
-4.141439 2.0412951 -0.76975077
-5.3577147 2.6407912 -0.66577768
-6.4186459 3.1637189 -0.39970604
-6.4456124 3.1770108 0
-3.0811315 1.5186746 0.1918702
-2.4662905 1.2119207 -0.90609115
-2.8466551 1.3988297 -0.87508398
-3.371238 1.6566066 -0.8321265
-4.1346869 2.0317607 -0.76803887
-5.3353643 2.6217668 -0.66260618
-6.4247937 3.1571059 -0.39985102
-6.4214177 3.155447 0
-3.0759659 1.5115116 0.19143465
-2.4699707 1.2100261 -0.90690535
-2.8573551 1.3998039 -0.87785262
