# .PCD v0.7 - Point Cloud Data file format
VERSION 0.7
FIELDS x y z
SIZE 4 4 4
TYPE F F F
COUNT 1 1 1
WIDTH 1605
HEIGHT 1
VIEWPOINT 0 0 0 1 0 0 0
POINTS 1605
DATA ascii
-5.7366943 9.7674408 0.63271165
-4.504601 7.648469 -0.98937416
-5.1419988 8.7307215 -0.56595749
-5.1292377 8.709054 0
-5.7524447 9.7672119 0.63314664
-4.5151534 7.6452456 -0.98966217
-5.139328 8.7021246 -0.56450582
-5.1476951 8.7162914 0
-5.7695274 9.7692041 0.63372719
-0 0 -0
-4.5191159 7.6308823 -0.988509
-5.1233578 8.6511917 -0.56160307
-5.147614 8.6921511 0
-5.7879467 9.7734022 0.63445276
-4.5296578 7.6276464 -0.98879814
-5.1324821 8.6427631 -0.56145805
-5.1355243 8.6478863 0
-5.7997518 9.7664013 0.63445276
-4.5322504 7.6110497 -0.98735583
-5.1442494 8.6387854 -0.56160307
-5.1260004 8.60814 0
-5.8168659 9.7683172 0.63503331
-4.5361443 7.5966935 -0.98620379
-5.1347055 8.5991049 -0.55942637
-5.1457338 8.6175747 0
-5.8326626 9.7679768 0.63546884
-4.5413327 7.5845475 -0.98533863
-5.1304073 8.5683699 -0.55782968
-5.1534715 8.6068897 0
-5.8511343 9.7720661 0.63619441
-4.5451684 7.5701847 -0.98418546
-5.1394205 8.5599384 -0.55768472
-5.1437716 8.5671854 0
-5.8669515 9.7716742 0.63663
-4.5404105 7.5519185 -0.98216712
-5.13656 8.5434742 -0.55681413
-5.1301751 8.532855 0
-5.8728538 9.7681284 0.63663
-4.5535398 7.5530739 -0.98303229
-5.1321206 8.5127811 -0.55521744
-5.1324224 8.5132809 0
-5.8873334 9.7654715 0.63691998
-4.5573106 7.5387125 -0.98187912
-5.1262717 8.4798889 -0.5534758
-5.141355 8.5048399 0
-5.9085398 9.7739182 0.63793612
-4.5570297 7.5177155 -0.97986078
-5.1270895 8.4581404 -0.55246025
-5.1435356 8.4852724 0
-5.9243875 9.7734404 0.63837165
-4.5701418 7.5188365 -0.98072594
-5.1278567 8.4363937 -0.55144411
-5.1281056 8.4368029 0
-5.937541 9.7684937 0.63851666
-4.5671101 7.4934335 -0.97813159
-5.1258774 8.4102249 -0.550138
-5.1315198 8.4194832 0
-5.9574513 9.7746201 0.63938719
-4.572113 7.4812865 -0.97726643
-5.117063 8.3729801 -0.54810578
-5.138978 8.4088392 0
-5.9719701 9.7718534 0.63967776
-4.5770993 7.4691472 -0.9764024
-5.1190329 8.3535023 -0.54723519
-5.1450539 8.3959646 0
-5.986486 9.7690573 0.63996774
-4.5834103 7.4591994 -0.97582525
-5.1182394 8.3295994 -0.54607409
-5.1347618 8.3564882 0
-6.0105329 9.7817478 0.64127445
-4.5842819 7.4404478 -0.97409606
-5.1146727 8.3012905 -0.54462296
-5.1202793 8.3103905 0
-6.0237093 9.7766886 0.64141941
-4.5959849 7.4392996 -0.97467208
-5.1165028 8.2818365 -0.54375184
-5.1166415 8.2820616 0
-6.032784 9.7649775 0.6411289
-4.5968008 7.4205523 -0.97294289
-5.1182985 8.2623987 -0.54288131
-5.1225324 8.2692337 0
-6.0486856 9.7643099 0.64156443
-4.6030316 7.410594 -0.97236574
-5.1214242 8.2451744 -0.54215574
-5.120163 8.2431431 0
-6.0687027 9.7702332 0.64243501
-4.6037807 7.3918581 -0.97063655
-5.1272607 8.2323608 -0.54172021
-5.1149888 8.212657 0
-6.0750089 9.7540712 0.64185447
-4.612709 7.3862901 -0.97063655
-5.1303234 8.2151413 -0.54099464
-5.1276631 8.2108812 0
-6.101932 9.7709694 0.64345109
-4.6147685 7.3697524 -0.96919537
-5.1361079 8.2023277 -0.54055905
-5.1403456 8.209095 0
-6.1192498 9.7723989 0.64403164
-4.6181684 7.3554087 -0.96804219
-5.1432543 8.1917181 -0.54026908
-5.1419549 8.1896496 0
-6.129673 9.7627993 0.64388669
-4.6229177 7.3432546 -0.96717703
-5.1393023 8.1635036 -0.53881741
-5.1449156 8.1724205 0
-6.1497684 9.7685747 0.64475721
-4.6317868 7.3376632 -0.96717703
-5.92169 9.3811245 -0.61965603
-5.1520057 8.1617918 0
-6.1698923 9.7743254 0.64562833
-4.6309657 7.3167605 -0.9651587
-5.9330211 9.3739624 -0.61965603
-5.1437712 8.126976 0
-6.185863 9.7734432 0.64606333
-4.6425776 7.3155317 -0.96573585
-5.9499125 9.3755617 -0.62023658
-5.1494079 8.1141691 0
-6.1976676 9.7659616 0.64606333
-4.6444721 7.2990079 -0.96429467
-5.1480117 8.0903435 -0.53562462
-5.1452346 8.0859795 0
-6.2150435 9.7672348 0.64664388
-4.6491132 7.2868471 -0.96342951
-5.1507964 8.0731668 -0.53489906
-5.1438026 8.0622053 0
-6.2310348 9.7662916 0.64707947
-4.6493359 7.2774959 -0.96256435
-5.1542754 8.0678654 -0.53475404
-6.1644354 9.649045 0
-6.2439275 9.7734728 0.64780504
-4.6497579 7.2588091 -0.96083516
-6.1801138 9.647872 -0.63997447
-6.1718769 9.6350126 0
-6.2557321 9.7659206 0.64780504
-4.6585255 7.2531857 -0.96083516
-6.195981 9.6469584 -0.64041001
-5.1442256 8.0094061 0
-6.2787619 9.7758455 0.64896613
-4.6602855 7.2366805 -0.95939398
-6.2090383 9.6416473 -0.64055502
-5.1496763 7.9966269 0
-6.2919745 9.7704344 0.64911115
-4.6648159 7.2245235 -0.95852882
-6.2249141 9.6406889 -0.64099056
-5.1508622 7.9772763 0
-6.3094139 9.7715559 0.6496917
-4.6693234 7.2123661 -0.95766366
-5.1520863 7.9580545 -0.52952904
-6.2410026 9.6400251 0
-6.3226271 9.7661047 0.64983672
-4.6709948 7.1958737 -0.95622247
-5.1560392 7.9431052 -0.52894849
-6.2554774 9.636838 0
-6.3400822 9.7671757 0.65041727
-4.6768618 7.1858845 -0.95564532
-6.2754068 9.6420107 -0.64258671
-6.267117 9.6292725 0
-6.3533006 9.761692 0.65056282
-4.6827168 7.1759005 -0.9550693
-6.2969947 9.6496553 -0.64360279
-5.1523819 7.8956256 0
-6.3707714 9.7627125 0.65114337
-4.6857195 7.1615791 -0.95391613
-6.3058071 9.6376953 -0.64331281
-5.1576424 7.8828588 0
-6.3882537 9.7637053 0.65172392
-4.6916418 7.1329474 -0.95160979
-5.1539602 7.8358335 -0.52386904
-6.3378949 9.6358318 0
-6.4261065 9.7699442 0.65317506
-4.6959839 7.1207933 -0.95074463
-5.1591315 7.8230906 -0.52343345
-6.3595643 9.6433764 0
-6.4421997 9.7686815 0.65361059
-0 0 -0
-4.7031593 7.1129584 -0.95045662
-6.3795404 9.6482811 -0.64607006
-6.3683438 9.6313477 0
-6.461163 9.7717257 0.65433615
-0 0 -0
-4.7046061 7.0964937 -0.94901544
-6.3940682 9.6449013 -0.64636058
-5.1562824 7.7778087 0
-6.4758344 9.768239 0.65462613
-4.7103167 7.0865002 -0.94843942
-6.4057174 9.6371689 -0.64636058
-5.168561 7.7759118 0
-6.4890752 9.7625771 0.65477169
-4.7117 7.0700355 -0.94699711
-5.1536541 7.7332001 -0.51907957
-5.1649647 7.7501721 0
-6.5023065 9.7568893 0.6549167
-4.7159324 7.0578918 -0.94613308
-5.1557775 7.7161665 -0.518354
-6.4408422 9.6394014 0
-6.5198655 9.7576675 0.65549725
-4.7230134 7.0500331 -0.94584394
-5.1650972 7.7099314 -0.518354
-6.4481382 9.625124 0
-6.5388803 9.7605743 0.65622282
-4.732975 7.0464745 -0.94613308
-6.482645 9.651392 -0.6494084
-6.4568644 9.6130085 0
-6.5593596 9.765605 0.65709341
-4.7328143 7.0278745 -0.94440275
-6.4899464 9.637084 -0.64897281
-5.1485767 7.6452503 0
-6.5697045 9.7555189 0.65694839
-4.7369647 7.0157256 -0.94353873
-6.5044913 9.6335373 -0.64926285
-5.165091 7.649806 0
-6.5858512 9.7540359 0.65738392
-4.7281604 6.9935718 -0.94094324
-6.514678 9.6360664 -0.64969838
-5.1653376 7.640214 0
-6.6033854 9.7672768 0.65854508
-4.7337079 6.9835758 -0.94036722
-5.1544566 7.604301 -0.513129
-5.1701889 7.6275105 0
-6.6151824 9.7592907 0.65854508
-4.7406902 6.9757137 -0.94007921
-5.1621819 7.5959201 -0.51298398
-5.1735501 7.612648 0
-6.6371894 9.7663279 0.65956062
-4.7403741 6.9571514 -0.93834889
-5.1625805 7.576797 -0.51211339
-5.1710215 7.5891857 0
-6.6504526 9.7604542 0.65970618
-4.751698 6.9556942 -0.93892604
-6.586091 9.6409397 -0.65216559
-5.1625714 7.5571446 0
-6.6607718 9.7502604 0.65956062
-4.7527928 6.93928 -0.93748486
-6.5962687 9.6308327 -0.65202063
-5.1687608 7.5466108 0
-6.6784215 9.7507801 0.66014117
-4.7611742 6.9335322 -0.93748486
-6.6181927 9.6378441 -0.65303618
-5.1675615 7.5253406 0
-6.7049103 9.7641277 0.66159284
-4.7636814 6.9192524 -0.93633169
-5.1608319 7.4961138 -0.50834006
-5.1663189 7.5040836 0
-6.7181754 9.7581568 0.66173786
-4.7661614 6.9049768 -0.93517852
-5.1743097 7.4962816 -0.50877506
-6.6522198 9.6374044 0
-6.7329106 9.7543049 0.66202784
-4.7700844 6.8928304 -0.93431336
-5.1730175 7.4750733 -0.50775951
-6.6697841 9.6379194 0
-6.7565217 9.7632561 0.66318899
-4.7754636 6.8828154 -0.93373734
-5.1657505 7.4453316 -0.50616282
-6.6799369 9.6277094 0
-6.7697935 9.7572184 0.66333395
-4.7734361 6.862175 -0.93171901
-5.1539721 7.4092245 -0.50413114
-5.1728101 7.4363055 0
-6.7890015 9.7597027 0.66406006
-4.7802458 6.8542829 -0.931431
-5.1480541 7.3816743 -0.50267947
-5.1802988 7.4279089 0
-6.805244 9.7578802 0.66449511
-4.7870383 6.8463759 -0.93114185
-5.1673942 7.390357 -0.50369561
-5.1728702 7.3981891 0
-6.8214979 9.7560406 0.66493064
-4.7893686 6.8321152 -0.92998868
-5.1763201 7.3841081 -0.50369561
-5.1653714 7.3684897 0
-6.8392477 9.7563028 0.66551119
-4.7976203 6.826323 -0.92998868
-5.1837459 7.3757243 -0.50355059
-5.8880424 8.3778372 0
-6.8540168 9.7522793 0.66580117
-4.8058648 6.8205214 -0.92998868
-5.1776843 7.3482099 -0.50209892
-5.8921647 8.3622065 0
-6.8687916 9.7482424 0.66609174
-4.8051515 6.8020382 -0.92825949
-5.9316535 8.3966827 -0.57422978
-5.1590152 7.302958 0
-6.8880601 9.7505455 0.66681731
-4.8118734 6.7941184 -0.92797148
-5.9282799 8.3704271 -0.57292366
-5.1768579 7.3094578 0
-6.9058442 9.7506971 0.66739786
-4.8110919 6.7756414 -0.92624116
-5.1621699 7.2700782 -0.49803558
-5.1871972 7.305325 0
-6.9206324 9.7465868 0.66768843
-4.8147798 6.7635083 -0.92537713
-5.1815009 7.2786555 -0.49905169
-5.1628132 7.2524047 0
-6.9369206 9.7445621 0.66812342
-4.8169384 6.7492642 -0.92422396
-5.1887779 7.2702684 -0.49890614
-5.8881512 8.2501965 0
-6.9547281 9.7446337 0.66870397
-4.8190694 6.7350254 -0.92307079
-5.1824412 7.2428656 -0.49745503
-5.8860059 8.2261515 0
-6.9725456 9.7446756 0.66928452
-4.8201222 6.7279034 -0.92249364
-5.1701679 7.216496 -0.49585834
-5.8864264 8.2162457 0
-6.9799438 9.7425718 0.66942954
-4.825233 6.7178769 -0.92191762
-5.1546359 7.1764841 -0.49353668
-5.1661124 7.1924624 0
-6.9992943 9.744689 0.67015564
-4.8288112 6.7057428 -0.92105246
-5.1602635 7.1660295 -0.49324611
-5.1839213 7.1988826 0
-7.0140977 9.7404375 0.67044568
-4.8323669 6.6936097 -0.92018729
-5.1765223 7.170321 -0.49397168
-5.1865282 7.1841812 0
-7.0319457 9.7403831 0.67102623
-4.835906 6.6814861 -0.91932327
-5.2004204 7.1851144 -0.49542335
-5.193675 7.1757946 0
-7.0558982 9.7487183 0.67218733
-4.839417 6.6693559 -0.9184581
-5.1953592 7.1598911 -0.49411666
-5.1947012 7.1589842 0
-7.0753012 9.750699 0.6729129
-4.8444262 6.6593165 -0.91788095
-5.194838 7.141005 -0.49324611
-5.1972237 7.1442838 0
-7.0870781 9.7421436 0.6729129
-4.8448501 6.6430111 -0.91643977
-5.1590614 7.0738416 -0.48903722
-5.1981859 7.1274872 0
-7.1080279 9.7461653 0.67378342
-4.849823 6.6329803 -0.91586375
-5.1415339 7.0319462 -0.48656997
-5.2021847 7.1148968 0
-7.1274719 9.7480631 0.67450958
-4.854773 6.6229396 -0.9152866
-5.1776757 7.0634475 -0.4891822
-5.2000122 7.0939188 0
-7.146925 9.7499208 0.67523515
-4.8597116 6.6129041 -0.91471058
-5.1954422 7.0697532 -0.49005333
-5.1962509 7.0708537 0
-7.1571636 9.7391863 0.67509013
-4.8661656 6.6049471 -0.91442257
-5.2070603 7.0676503 -0.49034333
-5.2017007 7.0603752 0
-7.1797104 9.7451687 0.67610568
-4.8664551 6.588654 -0.91298026
-5.212512 7.0571771 -0.49005333
-5.1978583 7.0373378 0
-7.1961131 9.7427588 0.67654121
-4.8759565 6.5848536 -0.9132694
-5.1993899 7.0216422 -0.48802164
-5.2017159 7.0247836 0
-7.217155 9.746582 0.67741179
-4.8762021 6.5685749 -0.91182822
-5.1706982 6.965281 -0.48453832
-5.2055449 7.0122223 0
-7.2351222 9.7461996 0.67799234
-4.882587 6.5605974 -0.91153908
-5.1589441 6.9319315 -0.48265162
-5.2062469 6.9954901 0
-7.2608538 9.7562094 0.67929846
-4.8812332 6.5422587 -0.90980989
-5.173532 6.9340234 -0.4832322
-5.2053547 6.976675 0
-7.2773004 9.7536793 0.67973405
-4.8829379 6.5280714 -0.90865672
-5.1959128 6.9464917 -0.48453832
-5.2044311 6.95788 0
-7.2937512 9.7511225 0.68016958
-4.8954787 6.5283761 -0.90952188
-0 0 -0
-5.208149 6.9453382 0
-7.3148785 9.7547722 0.68104017
-4.8955879 6.5121131 -0.90807956
-5.2079988 6.9276819 -0.48410276
-5.205595 6.9244847 0
-7.3235402 9.7417765 0.68075013
-4.898787 6.5000024 -0.90721554
-5.2038541 6.9047832 -0.48294163
-5.2076926 6.9098763 0
-7.3462548 9.747448 0.68176627
-4.9050798 6.4920168 -0.90692753
-5.180871 6.8570342 -0.48003939
-5.208189 6.8931904 0
-6.3164001 8.3599396 0.58525312
-4.9027591 6.4808011 -0.90577435
-5.1850128 6.8539028 -0.48003939
-5.2092152 6.8858957 0
-6.3261538 8.3623409 0.58568865
-4.909019 6.4728055 -0.90548521
-5.194859 6.8497009 -0.48018441
-5.2033796 6.8609357 0
-6.3441029 8.3650408 0.58641422
-4.9121447 6.4606986 -0.90462118
-5.2015605 6.8413525 -0.48003939
-5.2037916 6.8442869 0
-6.3479152 8.3490953 0.58583367
-4.9136758 6.4465299 -0.90346801
-5.1987953 6.8205948 -0.47902328
-5.2073236 6.8317828 0
-6.3453975 8.3248863 0.58467257
-4.9136052 6.4303064 -0.9020257
-5.1959877 6.7998533 -0.47800717
-5.2124114 6.8213463 0
-6.3507233 8.3110247 0.58423758
-4.9150858 6.4161596 -0.90087366
-5.913661 7.7197008 -0.54317129
-5.2048264 6.7943873 0
-6.3433771 8.280653 0.58264089
-4.9228349 6.4102159 -0.90087366
-5.152267 6.7089682 -0.47249216
-5.2035246 6.7757125 0
-6.3502097 8.268857 0.58235031
-4.933569 6.3921561 -0.9000085
-5.1954532 6.7314649 -0.47495937
-0 0 0
-5.2239604 6.7684007 0.47756547
-4.9365392 6.3800511 -0.89914334
-5.2067666 6.7292967 -0.47524995
-5.1898289 6.7074065 0
-5.2384958 6.7703037 0.47814605
-4.9379034 6.3659067 -0.89799017
-5.2053351 6.7106771 -0.47437882
-5.8821855 7.5832677 0
-0 0 0
-4.9424195 6.3558559 -0.89741415
-5.916841 7.6089435 -0.53838241
-5.8817616 7.5638318 0
-0 0 0
-4.9485006 6.3478336 -0.89712501
-5.8988738 7.5669522 -0.5359152
-5.1837125 6.6495581 0
-0 0 0
-4.9466143 6.3296256 -0.89539582
-5.9128079 7.5659552 -0.53635019
-5.2093663 6.6658401 0
-5.2471547 6.7141933 0.47596881
-4.949472 6.317534 -0.89453065
-5.1688046 6.5974917 -0.46813825
-5.1981568 6.6349568 0
-5.2616735 6.7160301 0.47654936
-4.9555058 6.3095169 -0.89424264
-5.1944289 6.6137223 -0.46973491
-5.9037848 7.5168977 0
-5.2617612 6.6994519 0.47582379
-4.9551272 6.2933655 -0.89280146
-5.2056284 6.6115203 -0.47002491
-5.8838868 7.4729567 0
-5.2618165 6.6828833 0.47509825
-4.9643288 6.289402 -0.89308947
-5.2023487 6.5909538 -0.46900937
-5.8832345 7.4535809 0
-5.2554002 6.6581655 0.47379214
-4.9671082 6.2773123 -0.89222431
-5.9019814 7.4587817 -0.53127068
-5.1768742 6.5424094 0
-5.2602134 6.6477313 0.47350156
-4.9746895 6.2713056 -0.89222431
-5.8980708 7.435359 -0.53010958
-5.1960988 6.5504236 0
-5.2617826 6.6332278 0.47292101
-4.974216 6.2551699 -0.89078313
-5.9054346 7.4261951 -0.52996457
-5.1959124 6.5339575 0
-5.2649403 6.6207619 0.47248545
-4.9747748 6.2481208 -0.89020711
-5.9099202 7.422626 -0.52996457
-5.1739221 6.4982414 0
-5.2624655 6.6094484 0.4719049
-4.9742551 6.2319994 -0.88876593
-5.163547 6.4691539 -0.46233323
-5.8944554 7.3848734 0
-5.2623444 6.5929327 0.47117934
-4.9785466 6.2219415 -0.88818878
-5.1810975 6.4750795 -0.46320379
-5.8919907 7.3635192 0
-5.2492037 6.5601954 0.46929267
-4.9828272 6.2118902 -0.88761276
-5.1759105 6.452599 -0.46204266
-5.0769501 6.3292294 0
-5.2213602 6.5092597 0.46609989
-4.9870844 6.2018299 -0.88703561
-5.1234565 6.371419 -0.45667264
-5.0943761 6.3352547 0
-5.1657214 6.4239783 0.46043986
-4.9945745 6.1957994 -0.88703561
-5.1034298 6.3308344 -0.45420542
-5.0971255 6.3230143 0
-5.129447 6.3631091 0.45652094
-4.9923062 6.1776934 -0.88530642
-5.102911 6.3145604 -0.45347986
-5.103128 6.3148284 0
-5.1142697 6.3286161 0.45448929
-4.9981408 6.1696486 -0.88501841
-5.1056347 6.3023386 -0.45304486
-5.1058383 6.3025894 0
-5.1071935 6.3042626 0.45318317
-4.9974341 6.1535602 -0.8835761
-5.1148829 6.2981796 -0.45318985
-5.1003308 6.2802615 0
-5.1033392 6.2839656 0.45216703
-5.0065036 6.149529 -0.88386524
-5.1110039 6.2778873 -0.45217374
-5.1046262 6.2700539 0
-3.1341817 3.8497407 0.27728304
-5.0073891 6.1354599 -0.88271207
-5.1202273 6.2737184 -0.45231873
-3.0932355 3.7900834 0
-3.1158328 3.8177714 0.27525136
-5.0082474 6.1213975 -0.8815589
-5.1097093 6.2454104 -0.45072263
-3.0994592 3.7883554 0
-3.1286688 3.8240573 0.27597693
-5.0123568 6.1113381 -0.88098174
-5.1188979 6.2412391 -0.45086762
-3.0957839 3.7745483 0
-5.1039934 6.2230663 0.4495548
-5.0131669 6.0972853 -0.87982857
-5.1115851 6.2169871 -0.44956151
-5.1067743 6.2111363 0
-5.1082115 6.2128839 0.44926482
-5.018887 6.0892296 -0.87954056
-5.1157846 6.2067919 -0.44927093
-5.1076546 6.196928 0
-5.1190171 6.2107134 0.4495548
-5.0229492 6.0791769 -0.87896454
-5.11832 6.1946025 -0.44883594
-5.1118264 6.1867433 0
-5.1099701 6.1844964 0.4481037
-5.022037 6.0631375 -0.87752223
-5.1175151 6.1784096 -0.4481104
-5.1043591 6.1625257 0
-5.1091528 6.1683135 0.44737813
-5.0260577 6.0530891 -0.87694621
-5.121654 6.1682196 -0.44781983
-5.1118016 6.1563535 0
-5.1132793 6.1581335 0.44708759
-5.0300555 6.0430322 -0.87636906
-5.1191325 6.1500473 -0.44694927
-5.099257 6.1261697 0
-5.1173949 6.1479602 0.44679758
-5.0390158 6.0389414 -0.8766582
-5.1232271 6.1398635 -0.4466587
-3.1159253 3.7342393 0
-5.1131649 6.1278048 0.44578147
-5.0363488 6.0209408 -0.87492788
-5.1173048 6.1177239 -0.4454976
-3.1054089 3.7125077 0
-5.1072278 6.1056771 0.44462034
-5.035008 6.0119543 -0.87406385
-5.1193328 6.1126409 -0.44535261
-3.1026366 3.7046435 0
-3.1873715 3.8058195 0.27728304
-5.0322866 5.9939766 -0.87233353
-5.1200318 6.0984902 -0.44477203
-5.0966735 6.0706677 0
-3.1802771 3.7880406 0.27626747
-5.0361981 5.9839377 -0.87175751
-5.124054 6.0883269 -0.44448203
-5.1073532 6.0684834 0
-3.1781592 3.776243 0.27568692
-5.0350804 5.967958 -0.87031519
-5.1213498 6.0702109 -0.44361094
-5.1180415 6.0662899 0
-3.2078488 3.8021848 0.27786359
-5.0406194 5.9598966 -0.87002718
-5.1588817 6.0997267 -0.44622317
-5.1102376 6.0422115 0
-3.2845893 3.8836126 0.28410417
-5.0511656 5.9577513 -0.87060434
-3.0927665 3.6478577 -0.26713079
-5.1158533 6.034049 0
-3.3716166 3.9767561 0.29121587
-5.0533338 5.9457293 -0.86973917
-3.1123154 3.6619358 -0.26843691
-5.1231403 6.0278635 0
-3.3898816 3.988519 0.292377
-5.0638661 5.9435525 -0.87031519
-3.1285291 3.6720121 -0.26945248
-5.127048 6.0177107 0
-3.372793 3.958709 0.2904903
-5.0609684 5.925633 -0.868586
-3.1768434 3.7196059 -0.27322638
-5.1258659 6.0016179 0
-3.3185141 3.8854806 0.28541085
-5.0681248 5.9195132 -0.868586
-3.3063817 3.8618169 -0.28396586
-5.1246462 5.9855299 0
-3.2471607 3.7926474 0.2788797
-5.0668526 5.9035735 -0.86714482
-3.3516614 3.9051421 -0.28744921
-5.1403546 5.9892135 0
-3.239893 3.7749166 0.27786359
-5.0689197 5.8915629 -0.86627966
-5.1086125 5.9376974 -0.43751535
-5.1374006 5.9711571 0
-3.2935967 3.8281198 0.28207251
-5.0726595 5.8815203 -0.86570364
-5.1174788 5.933486 -0.43766034
-3.5724382 4.1420813 0
-3.5188317 4.0799265 0.3009398
-5.0865293 5.883213 -0.86685681
-5.1178532 5.9194431 -0.43708035
-3.5740395 4.1338277 0
-3.5764375 4.1366014 0.3054387
-5.0919352 5.8751025 -0.86656767
-5.1181946 5.9054008 -0.43649977
-3.5415363 4.0862436 0
-0 0 0
-5.0922451 5.8611355 -0.8654145
-5.1219149 5.8952851 -0.43620923
-3.4389434 3.9581978 0
-0 0 0
-5.0942321 5.8491325 -0.86455047
-5.1358604 5.8969302 -0.43678978
-3.3975725 3.9010496 0
-3.59653 4.1294899 0.30587426
-5.1029954 5.8449197 -0.86483848
-5.1276035 5.873105 -0.43548366
-3.4878609 3.9949608 0
-3.5980959 4.121223 0.30558372
-5.110054 5.8387494 -0.86483848
-3.2403741 3.7024524 -0.2748225
-3.5475328 4.053412 0
-3.5962276 4.1090508 0.30500314
-5.1119862 5.826736 -0.86397332
-3.2225695 3.6731436 -0.27293584
-3.5747387 4.0745525 0
-3.6011901 4.1047025 0.30500314
-5.1086779 5.8158731 -0.86282015
-3.2367935 3.6848636 -0.27395195
-0 0 0
-3.5968165 4.0947247 0.30442315
-5.1122861 5.8058176 -0.86224413
-3.2378058 3.6770458 -0.27366138
-3.5752382 4.0602541 0
-3.5966084 4.0845232 0.30398759
-5.114161 5.793817 -0.86137897
-3.2456889 3.6770308 -0.27395195
-3.5732527 4.0481267 0
-3.599823 4.0782285 0.30384257
-5.1194458 5.7856979 -0.86109096
-3.2621779 3.6867228 -0.27496749
-3.5746956 4.0399117 0
-3.5978606 4.0660915 0.30326203
-5.1161318 5.7678943 -0.85936064
-3.2735274 3.6905541 -0.27554807
-3.5743918 4.029747 0
-3.5958738 4.0539656 0.30268148
-5.1196632 5.7578464 -0.85878462
-3.3004286 3.711838 -0.27743474
-3.5740688 4.0195885 0
-3.5990381 4.0476704 0.30253592
-5.1266165 5.7516561 -0.85878462
-3.313561 3.7175517 -0.27816084
-3.5650699 3.9997246 0
-3.6004717 4.039443 0.30224591
-5.1283913 5.7396693 -0.85791945
-3.3197801 3.715481 -0.27830586
-3.5560281 3.9798887 0
-3.5966952 4.025403 0.30152035
-5.1301508 5.727694 -0.85705543
-3.3363976 3.7250104 -0.2793214
-3.5018022 3.9096808 0
-3.5807528 3.9978273 0.29977867
-5.1283994 5.6979718 -0.85445994
-3.3384366 3.7092113 -0.27874085
-3.4503093 3.833509 0
-3.4078889 3.7863772 0.28453973
-5.1283569 5.6840968 -0.8533079
-3.3376989 3.6993926 -0.27830586
-3.53513 3.9182184 0
-3.3846111 3.7513883 0.2822175
-5.1282811 5.6702228 -0.85215473
-3.3561103 3.7107742 -0.27946696
-3.5800078 3.9583323 0
-3.4205184 3.7819886 0.2848303
-5.1316509 5.6601863 -0.85157758
-5.1180196 5.6451507 -0.42561474
-3.5900338 3.9597898 0
-3.4669664 3.8240469 0.28831309
-5.1106534 5.6233559 -0.8469649
-5.1230907 5.6370411 -0.42546976
-3.5878143 3.9477451 0
-3.4960546 3.8467801 0.29034531
-5.1087365 5.6076183 -0.84552372
-5.1281433 5.6289206 -0.4253242
-3.5855711 3.9357119 0
-3.5077 3.8502362 0.29092586
-5.1085315 5.593802 -0.84437054
-5.1331906 5.6208034 -0.42517918
-3.5903239 3.9313765 0
-3.5053406 3.8383203 0.29034531
-5.1152868 5.587625 -0.84437054
-5.1347132 5.6088448 -0.42474362
-3.589798 3.9212747 0
-3.5047104 3.8283303 0.28990975
-5.1080441 5.566195 -0.8420642
-5.1309485 5.5911531 -0.42387307
-3.5892596 3.9111874 0
-3.5093336 3.8240926 0.28990975
-5.1130166 5.5581169 -0.84177619
-5.1464949 5.5945096 -0.42459863
-3.586935 3.8991864 0
-3.4910836 3.7949908 0.28802308
-5.1092119 5.5405302 -0.840047
-5.1409254 5.5749207 -0.42358306
-3.5598836 3.8604081 0
-3.4498703 3.7411075 0.28424972
-5.1072931 5.5317392 -0.83918184
-5.1372418 5.564177 -0.42300251
-3.465122 3.7530942 0
-3.3904345 3.6721997 0.27916971
-5.110456 5.5217638 -0.83860469
-5.1439614 5.5579658 -0.42300251
-3.381278 3.6534152 0
-3.3578062 3.6280546 0.27612191
-5.1083302 5.5061059 -0.83716351
-5.1453695 5.5460296 -0.42256695
-3.3609059 3.6226132 0
-3.3533528 3.6144719 0.27539638
-5.1149797 5.4999294 -0.83716351
-5.1467566 5.5340981 -0.42213139
-3.35465 3.6071188 0
-3.354182 3.6066155 0.27510637
-5.1180973 5.489965 -0.83658749
-5.1428123 5.5164752 -0.42126083
-3.3483617 3.591645 0
-3.3585374 3.60256 0.27510637
-5.1176634 5.4762177 -0.83543432
-5.1547914 5.5159473 -0.42169583
-3.3509169 3.5856895 0
-3.3646605 3.6003959 0.27525136
-5.1136632 5.4587011 -0.83370399
-5.1454659 5.4926496 -0.42038971
-3.358809 3.5854402 0
-3.365459 3.5925388 0.27496135
-5.1202555 5.452518 -0.83370399
-5.1414299 5.4750667 -0.41951916
-3.3506665 3.5680974 0
-3.3680134 3.58657 0.2748158
-5.1162062 5.4350309 -0.8319748
-5.1426969 5.4631724 -0.4190836
-3.3621106 3.5716259 0
-3.3652205 3.5749297 0.27423525
-5.1245432 5.4307246 -0.83226281
-5.145731 5.4531784 -0.41879362
-3.3610637 3.5618806 0
-3.3677559 3.5689728 0.27409026
-5.1097727 5.4019799 -0.8288033
-5.145174 5.4394059 -0.41821304
-3.365365 3.557817 0
-3.3667073 3.5592358 0.2736547
-5.1180811 5.3976841 -0.82909244
-5.1481633 5.42941 -0.4179225
-3.3678727 3.5518613 0
-3.3710055 3.5551653 0.2736547
-5.1210318 5.387743 -0.82851529
-5.1565151 5.4250746 -0.41806805
-3.3578181 3.5326984 0
-3.3627727 3.5379112 0.27263913
-5.1239734 5.37781 -0.82793927
-5.1505179 5.4056692 -0.41705194
-3.3584974 3.524874 0
-3.3670452 3.5338452 0.27263913
-5.1233215 5.3641329 -0.8267861
-5.1552529 5.3975649 -0.41690692
-3.3645496 3.5226934 0
-3.3623409 3.5203807 0.27191359
-0 0 -0
-5.1244316 5.3523316 -0.82592094
-5.154583 5.3838239 -0.41632637
-3.3616047 3.511106 0
-3.36479 3.5144331 0.27176803
-5.1308951 5.3461361 -0.82592094
-5.1592798 5.3757114 -0.41618082
-3.3640442 3.5051658 0
-3.3672364 3.508492 0.27162302
-3.6505213 3.7944722 -0.87781554
-5.1247969 5.3268833 -0.82390261
-5.1603723 5.3638616 -0.41574582
-3.3628623 3.4954703 0
-3.3624675 3.4950597 0.27089745
-3.6461952 3.7808213 -0.87567616
-3.6177273 3.7513025 -0.58088511
-5.1614366 5.3520093 -0.41531026
-3.3688884 3.4932759 0
-3.3721011 3.4966071 0.27133301
-3.6400521 3.7653356 -0.87310749
-3.6168625 3.7413478 -0.58001995
-3.7231455 3.8512888 -0.29920483
-3.3749211 3.4910791 0
-3.3781281 3.4943964 0.27147803
-3.6280503 3.7483864 -0.86968541
-3.6173251 3.7373052 -0.57973194
-3.6947515 3.8172998 -0.29673758
-3.3734062 3.485296 0
-3.3730099 3.4848866 0.27089745
-3.6146977 3.7255721 -0.8654049
-3.6128345 3.7236519 -0.57829076
-3.6740327 3.7867272 -0.2947059
-0 0 0
-3.3717883 3.4752119 0.27046192
-3.6138256 3.7156794 -0.8641206
-3.6101179 3.7118671 -0.57713759
-3.6496189 3.7524815 -0.29238367
-3.3455288 3.4398208 0
-3.3651183 3.4599624 0.26959133
-3.6254807 3.7186623 -0.86583251
-3.6182079 3.7112026 -0.57771361
-3.6450825 3.7387679 -0.29165813
-3.3515048 3.4376447 0
-3.363853 3.4503102 0.2691558
-3.6299713 3.7142789 -0.86583251
-3.6172714 3.7012839 -0.57684958
-3.6296177 3.713917 -0.29006144
-3.3447385 3.4224215 0
-3.3716555 3.4499636 0.26944634
-3.6344566 3.7098901 -0.86583251
-3.6253576 3.7006023 -0.5774256
-3.6377361 3.7132375 -0.29035145
-3.339767 3.4090841 0
-3.3721812 3.4421711 0.2691558
-3.6389368 3.7054958 -0.86583251
-3.6352649 3.701757 -0.57829076
-3.64222 3.7088392 -0.29035145
-3.342062 3.4031911 0
-3.376338 3.4380939 0.2691558
-3.6344087 3.691951 -0.86369306
-3.63429 3.6918304 -0.5774256
-3.6430566 3.7007358 -0.29006144
-3.3425167 3.3954375 0
-3.3786685 3.4321618 0.26901078
-3.6460795 3.6948657 -0.8654049
-3.6442001 3.6929612 -0.57829076
-3.6530025 3.7018814 -0.290497
-3.3484502 3.393254 0
-3.3718588 3.416976 0.26813966
-3.6451237 3.6849806 -0.8641206
-3.6468425 3.686718 -0.57800275
-3.6611242 3.7011559 -0.29078701
-3.3598616 3.3965993 0
-3.3741596 3.4110537 0.26799467
-3.6622279 3.6933353 -0.86711681
-3.6603985 3.6914904 -0.57944393
-3.6601031 3.6911924 -0.29035145
-3.3584712 3.3869984 0
-3.3782787 3.4069741 0.26799467
-3.6630719 3.6852696 -0.86626166
-3.661206 3.6833923 -0.57886678
-3.624264 3.6462264 -0.28715867
-3.3552227 3.3755548 0
-3.3805628 3.4010487 0.26784968
-3.6729527 3.686291 -0.86754435
-3.6693087 3.6826339 -0.57944393
-3.5608089 3.57374 -0.28178865
-3.3537865 3.3659656 0
-3.3791659 3.3914375 0.26741412
-3.6774042 3.6818502 -0.86754435
-3.6737556 3.6781974 -0.57944393
-3.4788251 3.483031 -0.27496749
-3.357851 3.3619108 0
-3.3850958 3.3891885 0.26755911
-3.6854863 3.6810358 -0.86840111
-3.6745338 3.6700966 -0.57886678
-3.5253181 3.5210612 -0.27830586
-3.3637505 3.3596883 0
-3.3891885 3.3850958 0.26755911
-3.6972053 3.6838274 -0.87011296
-3.6844642 3.6711326 -0.57973194
-3.5626993 3.5498083 -0.28091809
-3.3641238 3.3519511 0
-3.3895984 3.3773336 0.2672691
-3.7034729 3.6811655 -0.87054056
-3.6833923 3.661206 -0.57886678
-3.5891011 3.5674827 -0.28265974
-3.3607883 3.3405452 0
-3.3936768 3.3732355 0.2672691
-3.7170305 3.6857235 -0.87267995
-3.6933253 3.6622179 -0.57973194
-3.5823348 3.5521622 -0.28178865
-3.3796065 3.3511415 0
-3.4088175 3.3801064 0.26813966
-3.7105346 3.6704013 -0.87011296
-3.7032659 3.6632111 -0.5805971
-3.5663087 3.5277355 -0.28019252
-3.3873501 3.3507123 0
-3.4092081 3.372334 0.26784968
-3.7222757 3.6731274 -0.87182486
-0 0 -0
-3.5668662 3.5197699 -0.27990195
-3.3839865 3.3393049 0
-3.4114327 3.3663888 0.26770467
-3.728539 3.6704264 -0.8722524
-3.713949 3.6560638 -0.58088511
-3.6063015 3.5500941 -0.28265974
-3.3954375 3.3425167 0
-3.4173477 3.3640854 0.26784968
-3.7402973 3.6731131 -0.87396425
-3.718364 3.6515737 -0.58088511
-3.6717672 3.605814 -0.28744921
-3.3994739 3.3384116 0
-3.4269738 3.3654175 0.26828521
-3.7553463 3.6834373 -0.87696046
-3.7279553 3.6565711 -0.58203828
-3.7147527 3.6436212 -0.29064199
-3.3959215 3.3308952 0
-3.4382799 3.3724425 0.26901078
-3.754288 3.6735094 -0.87567616
-3.7342179 3.6538711 -0.58232629
-3.7600086 3.679107 -0.29383481
-3.4129596 3.339525 0
-3.4442077 3.370101 0.2691558
-3.7679071 3.6779342 -0.87781554
-3.7571425 3.6674268 -0.58520979
-3.7756116 3.6854548 -0.2947059
-3.42817 3.3463094 0
-3.450135 3.3677502 0.26930079
-3.779705 3.6805425 -0.87952745
-3.7560103 3.6574693 -0.58434463
-3.7819219 3.6827011 -0.29485092
-3.4340734 3.3439786 0
-3.4616482 3.3708301 0.26988134
-3.7896752 3.6813405 -0.88081175
-3.7659943 3.6583364 -0.58520979
-3.7882309 3.6799376 -0.2949959
-3.4474435 3.348892 0
-3.471312 3.3720782 0.2703169
-3.7996459 3.6821129 -0.88209444
-3.770412 3.6537833 -0.58520979
-3.7982745 3.680784 -0.29543146
-3.4589629 3.3519683 0
-3.4735198 3.3660748 0.27017191
-3.8022482 3.6757367 -0.88166684
-3.7859781 3.6600077 -0.58693898
-3.806452 3.6798005 -0.29572147
-3.4592721 3.3441722 0
-3.4925301 3.3763237 0.27133301
-3.8140781 3.6782677 -0.88337874
-3.7885377 3.6536367 -0.58665097
-3.809027 3.6733963 -0.29557648
-3.4707963 3.3472095 0
-3.4909942 3.366688 0.27089745
-3.8240714 3.6789973 -0.88466305
-3.8022676 3.6580207 -0.58809215
-3.7909923 3.6471732 -0.29383481
-3.4729645 3.3412106 0
-3.5044208 3.3714733 0.27162302
-3.839623 3.6850357 -0.88723004
-3.8085492 3.6552131 -0.58838016
-3.7541556 3.6030097 -0.29064199
-3.4826341 3.3424196 0
-3.506619 3.3654389 0.27147803
-3.8615134 3.6881592 -0.89022619
-3.830466 3.6585054 -0.59039849
-3.698967 3.5329099 -0.28570753
-3.5095177 3.3519654 0
-3.5278897 3.3695128 0.27249357
-3.8919828 3.7082784 -0.89621693
-3.8423741 3.6610112 -0.59155166
-3.7013535 3.5266471 -0.28556255
-3.5098004 3.3441353 0
-3.5357246 3.3688359 0.27278414
-3.9076283 3.7141876 -0.89878553
-3.8467948 3.6563659 -0.59155166
-3.69996 3.5167999 -0.28512698
-3.521384 3.3470638 0
-3.5416744 3.3663497 0.27292913
-3.9288766 3.7253585 -0.90263683
-3.849335 3.6499372 -0.59126365
-5.172987 4.9050231 -0.39818463
-3.5310857 3.3481734 0
-3.5513978 3.3674333 0.27336469
-3.9333751 3.7206085 -0.90263683
-5.1426911 4.8645096 -0.78902173
-5.1656942 4.8862681 -0.39716852
-3.5426915 3.351058 0
-3.56868 3.3756406 0.2743808
-3.932265 3.710566 -0.90135252
-5.1410408 4.8511915 -0.78786856
-5.1715946 4.880023 -0.39716852
-3.5372758 3.337846 0
-3.5708609 3.3695376 0.27423525
-5.1431284 4.8414268 -0.78729141
-5.173707 4.8702116 -0.39687851
-3.5431993 3.3353515 0
-3.5787175 3.3687861 0.27452582
-5.1508656 4.8369846 -0.78758055
-5.1682262 4.8532877 -0.39600796
-3.5699925 3.3524463 0
-3.5789933 3.3608985 0.27423525
-5.1340551 4.8095379 -0.78412104
-5.177876 4.8505888 -0.39629796
-3.5740409 3.3481302 0
-3.5963278 3.3690085 0.27525136
-5.1474218 4.8103948 -0.78527421
-5.1780357 4.8390045 -0.3958624
-3.576184 3.3420339 0
-3.5984993 3.3628881 0.27510637
-3.9746511 3.7054248 -0.60567659
-5.1800814 4.8292041 -0.39557239
-3.5745072 3.3323848 0
-3.6101625 3.3656251 0.27568692
-3.988601 3.7094316 -0.6071189
-5.1744924 4.8123207 -0.3947013
-3.5975921 3.3457901 0
-3.6218376 3.3683388 0.27626747
-5.1638222 4.7965822 -0.78556222
-5.1754971 4.8074265 -0.39455628
-3.5938904 3.3383007 0
-3.6333895 3.3749905 0.27699304
-5.156332 4.7780318 -0.78354388
-5.1698699 4.790576 -0.39368573
-3.6074643 3.3427985 0
-3.6355605 3.3688333 0.27684805
-5.1621017 4.7717977 -0.78354388
-5.1622963 4.7719774 -0.39266962
-3.6229711 3.34904 0
-3.6415348 3.3662002 0.27699304
-5.1678638 4.7655568 -0.78354388
-5.1718826 4.7692628 -0.39296019
-3.6250963 3.3428905 0
-3.6513321 3.3670838 0.2774286
-5.1488738 4.7365465 -0.77979636
-5.1680741 4.754209 -0.39223406
-3.6367943 3.3455558 0
-3.6630399 3.3696995 0.27800861
-3.7730618 3.462503 -0.57079571
-5.1776476 4.7514782 -0.39252463
-3.6523426 3.3517201 0
-3.6671088 3.3652711 0.27800861
-3.7867799 3.4666722 -0.5722369
-5.1738038 4.7364473 -0.39179906
-3.6487114 3.3402753 0
-3.6750093 3.3643501 0.27829915
-3.7909658 3.4620941 -0.5722369
-5.1718483 4.7231832 -0.39121851
-3.6565845 3.3393707 0
-3.6829057 3.3634083 0.27858916
-3.7932363 3.4557707 -0.57194889
-5.1775513 4.7169304 -0.39121851
-3.6644683 3.3384588 0
-3.6984956 3.3694589 0.27946028
-3.7954893 3.4494402 -0.57165974
-5.1793976 4.7071724 -0.39092794
-3.6762033 3.3410299 0
-3.7064066 3.3684795 0.27975026
-5.1485896 4.6678262 -0.77460766
-5.175458 4.6921859 -0.39020237
-3.6937284 3.3488166 0
-3.710474 3.3639984 0.27975026
-5.146553 4.6546621 -0.77345449
-5.1772733 4.682446 -0.3899124
-3.7132134 3.3583164 0
-3.7222447 3.3664846 0.28033084
-5.1502547 4.646709 -0.77316648
-5.1732755 4.667479 -0.38918626
-3.7018104 3.3398805 0
-3.7340267 3.368947 0.28091139
-5.1597071 4.64394 -0.7737425
-5.1847072 4.666441 -0.38962182
-3.7174532 3.3458545 0
-3.7380948 3.3644328 0.28091139
-5.1576161 4.6307902 -0.77258933
-3.8737152 3.4780335 -0.29078701
-3.723428 3.3430974 0
-3.7421572 3.3599136 0.28091139
-5.1555014 4.6176519 -0.77143615
-3.8953331 3.4889514 -0.29209313
-3.7274647 3.3385959 0
-3.7558904 3.3640559 0.28163695
-5.1533623 4.604526 -0.77028298
-3.8995459 3.4842422 -0.29209313
-3.7431364 3.3444903 0
-3.7638314 3.3629811 0.2819275
-3.9232638 3.496918 -0.58578581
-3.9076364 3.4829888 -0.29238367
-3.745234 3.3382349 0
-3.7678921 3.3584309 0.2819275
-3.9197545 3.4853003 -0.58463264
-3.9564989 3.517972 -0.29572147
-3.7570443 3.3406243 0
-3.76806 3.350419 0.28163695
-3.92203 3.4788468 -0.58434463
-3.9957337 3.5442221 -0.2983337
-3.7727635 3.3464472 0
-3.7682214 3.3424184 0.28134695
-3.9281657 3.4758177 -0.58463264
-4.0000134 3.5393915 -0.2983337
-3.7846005 3.3487847 0
-3.7722573 3.337863 0.28134695
-3.9246063 3.464222 -0.58347946
-4.0003943 3.5311198 -0.2980437
-3.7925425 3.3476503 0
-3.7977185 3.3522193 0.28294361
-5.1528134 4.5428162 -0.76567143
-4.0064216 3.532136 -0.2983337
-3.792614 3.3436391 0
-3.8114343 3.3602312 0.28381419
-5.1544104 4.5331669 -0.76509428
-5.1833038 4.558578 -0.38555849
-3.8064208 3.3476458 0
-3.8369567 3.3745015 0.28541085
-5.1579418 4.5252314 -0.76480627
-5.1809955 4.5454569 -0.38497794
-3.8261135 3.3567748 0
-3.8351696 3.3647201 0.28497529
-5.1634059 4.5189958 -0.76480627
-5.1767015 4.530632 -0.3842518
-3.8380003 3.3590052 0
-3.8587821 3.3771935 0.2864264
-5.1571684 4.5025439 -0.76307595
-5.1782608 4.5209589 -0.3839618
-3.8420563 3.3543653 0
-3.86286 3.3725283 0.2864264
-5.1626048 4.4963093 -0.76307595
-5.1837201 4.514699 -0.3839618
-3.8598385 3.3616803 0
-3.8786929 3.3781011 0.28729752
-5.1602316 4.4832888 -0.76192391
-5.181325 4.501615 -0.38338125
-3.8717561 3.3638413 0
-3.8827717 3.3734119 0.28729752
-5.1675978 4.4787426 -0.76221192
-5.1847987 4.4936509 -0.38323626
-3.8856566 3.3676879 0
-3.9045155 3.384033 0.28860363
-5.1612625 4.4623423 -0.7604816
-5.1823621 4.4805851 -0.38265568
-3.9054651 3.3766007 0
-3.9105654 3.3810103 0.28874865
-5.1627369 4.4527273 -0.75990558
-5.1779356 4.465836 -0.38193014
-3.9272847 3.387182 0
-3.8949745 3.3593152 0.28729752
-5.1583118 4.4380531 -0.7584644
-5.1852961 4.4612694 -0.38207513
-3.9155922 3.3688552 0
-3.9088776 3.3630784 0.28802308
-5.1636705 4.4318171 -0.7584644
-5.1808257 4.4465408 -0.38134956
-3.9690297 3.4064941 0
-3.9306827 3.3735821 0.2893292
-5.1631255 4.4205265 -0.75759923
-5.1881666 4.4419661 -0.38149458
-3.9731429 3.4016957 0
-3.9446232 3.3772783 0.29005477
-5.1645336 4.4109282 -0.75702322
-5.1895747 4.4323153 -0.38120401
-3.9614186 3.3833711 0
-3.9605603 3.382638 0.29092586
-5.1639514 4.3996511 -0.75615805
-5.1850386 4.4176173 -0.38047847
-3.9694619 3.3819544 0
-3.9765084 3.3879578 0.29179642
-5.1712327 4.3950815 -0.75644606
-5.1883945 4.409668 -0.38033345
-3.9834588 3.385581 0
-3.9845552 3.3865128 0.29208642
-5.166677 4.3804684 -0.75500488
-5.1976867 4.4067593 -0.38062403
-4.0093842 3.3992798 0
-3.99856 3.3901026 0.29281256
-5.1680126 4.3708782 -0.75442773
-4.1217775 3.4860189 -0.30152705
-4.0115037 3.3927538 0
-4.0145535 3.3953333 0.29368311
-5.1752729 4.3663034 -0.75471687
-4.1239948 3.4793556 -0.3013815
-4.0215616 3.3929341 0
-4.026597 3.3971825 0.29426366
-3.9517086 3.3258345 -0.57569641
-4.1122994 3.4609909 -0.30022094
-4.0515494 3.4098625 0
-4.0386515 3.3990073 0.29484421
-3.9478006 3.3144047 -0.57454324
-5.193048 4.3598614 -0.37873679
-4.0417123 3.393249 0
-4.0507159 3.4008081 0.29542479
-3.9577532 3.314616 -0.5754084
-5.2003102 4.3552566 -0.37888235
-4.0557837 3.3967164 0
-4.054822 3.395911 0.29542479
-3.9577816 3.3065116 -0.57483125
-5.2055688 4.3489699 -0.37888235
-4.069869 3.4001546 0
-4.0649066 3.3960087 0.29586032
-3.9677367 3.3066962 -0.57569641
-5.2068238 4.3393464 -0.37859178
-4.0819716 3.4018989 0
-4.0769916 3.3977487 0.2964409
-3.9776905 3.3068552 -0.57656044
-5.2120633 4.3330522 -0.37859178
-4.0840797 3.3953021 0
-4.0930791 3.4027836 0.29731146
-3.9776995 3.3028009 -0.57627243
-5.2046866 4.3216043 -0.37786624
-4.1001477 3.4044733 0
-4.1031308 3.40695 0.297892
-5.1728001 4.2845788 -0.74866301
-5.2079053 4.3136563 -0.37772122
-4.1062608 3.4011753 0
-4.1092434 3.4036455 0.29803702
-5.1719894 4.2733812 -0.74779785
-5.19909 4.295773 -0.37670511
-4.1183925 3.4028418 0
-4.1253757 3.4086118 0.29890811
-5.1811371 4.2704158 -0.74837387
-5.1982594 4.2845283 -0.37626955
-4.1325407 3.4061377 0
-4.1435218 3.4151886 0.29992369
-5.1834426 4.2513218 -0.7472207
-5.2005615 4.2653623 -0.375689
-4.1628966 3.4142971 0
-4.1638212 3.4150555 0.30079481
-5.1885757 4.2450552 -0.7472207
-5.2097378 4.2623692 -0.37597954
-4.1609745 3.404319 0
-4.1779985 3.4182472 0.30152035
-5.1716647 4.220798 -0.74405032
-5.2048206 4.247858 -0.37525401
-4.1953225 3.4239671 0
-4.1841369 3.4148378 0.30166537
-5.174757 4.2129145 -0.74376231
-5.2079363 4.2399268 -0.37510899
-4.169189 3.3942537 0
-4.2003465 3.4196198 0.30253592
-5.1778302 4.2050238 -0.74347317
-5.2130556 4.2336311 -0.37510899
-4.1773238 3.3924916 0
-4.2125435 3.4210944 0.30311647
-5.1788917 4.1955109 -0.74289715
-5.2141256 4.2240543 -0.37481844
-4.1814203 3.3874416 0
-4.2227335 3.4209104 0.30355203
-5.1759105 4.1827474 -0.74174398
-5.2071033 4.2079549 -0.37394789
-4.2057557 3.3987477 0
-4.2349477 3.4223385 0.30413258
-5.1809611 4.1764903 -0.74174398
-5.210155 4.2000246 -0.37380233
-4.2139077 3.3969269 0
-4.23908 3.4172187 0.30413258
-5.1638298 4.1523962 -0.73857248
-5.2030802 4.183959 -0.37293178
-4.2098966 3.3853092 0
-4.2270064 3.3990676 0.30297148
-5.1708665 4.1477771 -0.73886162
-5.2101569 4.1792936 -0.37307677
-5.2025838 4.1732187 0
-5.2242541 4.1906013 0.3740862
-5.1738491 4.1399055 -0.73857248
-5.2111492 4.1697512 -0.37278676
-5.2177887 4.1750636 0
-5.2272868 4.1826639 0.37394118
-5.1727891 4.1288147 -0.73770845
-5.2100892 4.158587 -0.3723512
-5.2126536 4.1606336 0
-5.2262425 4.1714802 0.37350562
-5.1717019 4.1177268 -0.73684329
-5.2110486 4.1490545 -0.37206122
-5.1993551 4.1397443 0
-5.2190862 4.1554542 0.37263507
-5.1766739 4.111475 -0.73684329
-5.2119846 4.1395197 -0.37177065
-5.2063975 4.1350822 0
-5.2200298 4.1459098 0.37234452
-5.1694775 4.095583 -0.7351141
-5.212913 4.1299949 -0.37148064
-5.2032304 4.122324 0
-5.2189312 4.1347632 0.37190953
-5.1764498 4.0909357 -0.73540211
-5.2138186 4.1204677 -0.3711901
-5.2082076 4.1160336 0
-5.2239237 4.1284537 0.37190953
-5.1813893 4.0846782 -0.73540211
-5.2167549 4.1125579 -0.37104508
-5.2131772 4.1097374 0
-5.2289081 4.122139 0.37190953
-5.1761575 4.0704217 -0.73396093
-5.2135501 4.0998263 -0.37046453
-5.2119999 4.0986075 0
-5.2257152 4.1093926 0.37132895
-5.1708903 4.0561781 -0.73251861
-5.2205424 4.0951262 -0.37060952
-5.2169485 4.0923071 0
-5.2286263 4.1014671 0.3711834
-5.1713061 4.0514598 -0.7322306
-5.2127905 4.0839605 -0.36988398
-5.2112255 4.0827346 0
-5.2229214 4.0918975 0.37060285
-5.1721258 4.042026 -0.73165458
-5.2136302 4.0744619 -0.36959398
-5.21205 4.0732265 0
-5.2299151 4.0871882 0.3707484
-5.1688466 4.0294127 -0.73050141
-5.2226443 4.0713511 -0.36988398
-5.2108159 4.0621305 0
-5.2184553 4.0680857 0.36958727
-5.1696239 4.0199857 -0.72992426
-5.2173057 4.0570636 -0.36915842
-5.2033896 4.0462427 0
-5.2192607 4.0585837 0.36929673
-5.1744776 4.0137362 -0.72992426
-5.2222042 4.0507569 -0.36915842
-5.2021117 4.0351715 0
-5.2221093 4.0506835 0.36915174
-5.1772799 4.0058994 -0.72963625
-5.2229805 4.0412602 -0.36886787
-5.2049198 4.0272856 0
-5.2208328 4.0395985 0.36871618
-5.175972 3.9948983 -0.72877109
-5.2196317 4.0285959 -0.3682873
-5.2118483 4.0225883 0
-5.2257099 4.033287 0.36871618
-5.1767001 3.9854887 -0.72819507
-5.2100892 4.0111947 -0.36727175
-5.2146368 4.0146956 0
-5.2347016 4.0301433 0.36900672
-5.1733065 3.9729292 -0.7270419
-5.2169909 4.0064774 -0.36741674
-5.2071037 3.9988842 0
-5.2292652 4.0159035 0.36828116
-5.1719413 3.9619551 -0.72617674
-5.2177067 3.9970136 -0.36712673
-5.2181315 3.997339 0
-5.2341137 4.009582 0.36828116
-5.1767249 3.955703 -0.72617674
-5.2225323 3.990706 -0.36712673
-5.2167521 3.986289 0
-5.2389545 4.0032549 0.36828116
-5.1835561 3.9510114 -0.72646475
-5.221149 3.9796655 -0.3666912
-5.2132859 3.9736722 0
-5.233449 3.9890411 0.36755505
-5.1800985 3.9384894 -0.72531271
-5.2238874 3.9717829 -0.36654618
-5.2201529 3.9689436 0
-5.2341323 3.9795723 0.36726505
-5.180728 3.9290986 -0.72473556
-5.2245378 3.9623244 -0.36625564
-5.2166505 3.9563427 0
-5.2285872 3.9653955 0.36653951
-5.1813502 3.9197178 -0.72415954
-5.2251811 3.9528763 -0.36596563
-5.221427 3.9500365 0
-5.2375154 3.9622073 0.36682948
-5.190208 3.9165673 -0.72473556
-5.2195768 3.9387295 -0.3652395
-5.2158113 3.9358878 0
-5.2360826 3.9511847 0.36639449
-5.1846061 3.9025173 -0.72329438
-5.2201843 3.9292974 -0.36494952
-5.2184858 3.928019 0
-5.2283926 3.9354761 0.36552337
-5.1851768 3.8931408 -0.72271723
-5.2186923 3.9183049 -0.36451396
-5.2232285 3.9217107 0
-5.2393799 3.9338377 0.36595893
-5.1815963 3.8806708 -0.72156405
-5.2171893 3.9073279 -0.36407897
-5.2112985 3.902916 0
-5.2337322 3.9197173 0.36523339
-5.1883593 3.8759594 -0.7218532
-5.2198191 3.8994615 -0.36393338
-5.2222676 3.9012904 0
-5.2447038 3.9180515 0.36566839
-5.1805911 3.8604119 -0.72012287
-5.2203641 3.8900492 -0.36364341
-5.2186303 3.8887575 0
-5.2410998 3.9055009 0.36508781
-5.1811042 3.8510664 -0.71954685
-5.2208858 3.8806355 -0.36335284
-5.2212386 3.8808978 0
-5.2416482 3.8960679 0.36479783
-5.1855044 3.8494756 -0.71983486
-5.2211447 3.8759332 -0.36320785
-5.2131281 3.869982 0
-5.2335711 3.8851578 0.36407226
-5.1818376 3.8370504 -0.71868169
-5.2216516 3.8665318 -0.36291784
-5.2157111 3.8621328 0
-5.2319946 3.8741908 0.3636367
-5.1906352 3.8338625 -0.71925884
-5.2242236 3.8586717 -0.36277229
-5.2182822 3.8542831 0
-5.2324958 3.8647814 0.3633467
-5.1869345 3.8214512 -0.71810567
-5.2288823 3.8523562 -0.36277229
-5.2145548 3.8418005 0
-5.2308841 3.8538308 0.36291113
-5.1852937 3.8105848 -0.71724051
-5.2272577 3.8414235 -0.36233729
-5.2108045 3.8293324 0
-5.2313452 3.8444271 0.36262059
-5.1857181 3.8012552 -0.71666336
-5.2256064 3.8304946 -0.36190173
-5.2133307 3.821496 0
-5.2338929 3.8365686 0.3624756
-5.1882215 3.7934613 -0.71637535
-5.2281356 3.8226454 -0.36175671
-5.2242408 3.8197978 0
-5.2385244 3.8302417 0.3624756
-5.184442 3.7810934 -0.71522218
-5.2327509 3.8163254 -0.36175671
-5.2225504 3.8088863 0
-5.2431488 3.823909 0.3624756
-5.1869173 3.7733061 -0.71493417
-5.2289529 3.8038855 -0.36117616
-5.227149 3.8025732 0
-5.243567 3.8145168 0.3621856
-5.1789165 3.7579248 -0.71320498
-5.2293353 3.7945096 -0.36088562
-5.22121 3.7886138 0
-5.2334485 3.7974942 0.36116949
-5.1834536 3.7516642 -0.71320498
-5.2276077 3.783622 -0.3604506
-5.217351 3.7761986 0
-5.2317162 3.7865958 0.36073393
-5.1900778 3.7469108 -0.71349299
-5.2363849 3.7803416 -0.3607406
-5.2197938 3.768364 0
-5.2384009 3.7817969 0.36087948
-5.1862059 3.7345912 -0.71233982
-5.234621 3.769455 -0.36030504
-5.2180138 3.7574961 0
-5.2387452 3.7724249 0.36058891
-5.1865091 3.7253013 -0.71176267
-5.2349548 3.7600985 -0.36001506
-5.2225499 3.7511883 0
-5.2327495 3.7585142 0.35986337
-5.1868052 3.7160218 -0.71118665
-5.2310452 3.7477169 -0.35943449
-5.2270789 3.7448752 0
-5.2436256 3.7567301 0.3602989
-5.187079 3.7067413 -0.7106095
-5.2292256 3.7368598 -0.35899892
-5.2273612 3.7355273 0
-5.2439289 3.7473669 0.36000836
-5.1852417 3.6959715 -0.70974547
-5.233737 3.7305386 -0.35899892
-5.2191596 3.7201478 0
-5.2463393 3.7395213 0.35986337
-5.1833777 3.6852059 -0.70888031
-5.236125 3.7227077 -0.35885394
-5.2300076 3.7183585 0
-5.250854 3.7331793 0.35986337
-5.1878266 3.6789401 -0.70888031
-5.2363844 3.7133749 -0.35856393
-5.2281346 3.7075243 0
-5.2426391 3.7178104 0.35899225
-5.1901584 3.6711767 -0.7085923
-5.2281351 3.6980388 -0.35769281
-5.2241116 3.6951931 0
-5.2407694 3.7069757 0.35855725
-5.1945906 3.6649029 -0.7085923
-5.2304783 3.6902225 -0.35754782
-5.2221913 3.6843755 0
-5.2409945 3.6976418 0.35826668
-5.1925712 3.6587813 -0.70801514
-5.2390814 3.6915534 -0.35798338
-5.2244163 3.6812201 0
-5.2432275 3.6944747 0.35826668
-5.1929259 3.6402836 -0.70686197
-5.2309651 3.6669493 -0.35682225
-5.2332969 3.6685839 0
-5.2457633 3.6773229 0.35783169
-5.1909676 3.629564 -0.70599794
-5.2332644 3.6591384 -0.35667726
-5.2291946 3.6562924 0
-5.2416844 3.6650257 0.35725114
-5.188983 3.618849 -0.70513278
-5.2334156 3.6498368 -0.35638669
-5.2314758 3.648484 0
-5.2503676 3.6616595 0.35754111
-5.1933517 3.6125767 -0.70513278
-5.2292891 3.6375751 -0.35580614
-5.2252007 3.6347311 0
-5.2462559 3.6493773 0.35696056
-5.1892128 3.6004012 -0.70397961
-5.2315478 3.6297741 -0.35566115
-5.2253079 3.6254447 0
-5.2506614 3.6430357 0.35696056
-5.1935596 3.5941284 -0.70397961
-5.2337952 3.6219728 -0.35551614
-5.2275467 3.6176486 0
-5.2486477 3.6322513 0.356525
-5.1957722 3.5863824 -0.7036916
-5.2403045 3.617121 -0.35566115
-5.2233467 3.6054161 0
-5.2444868 3.6200078 0.35594502
-5.1979733 3.5786364 -0.70340359
-5.2382483 3.6063645 -0.35522559
-5.2255578 3.5976276 0
-5.248857 3.6136682 0.35594502
-5.1916265 3.5650282 -0.70196128
-5.2383223 3.5970933 -0.35493559
-5.2341881 3.5942545 0
-5.2467914 3.6029093 0.35550946
-5.1937985 3.5572922 -0.70167327
-5.2383728 3.587822 -0.35464504
-5.2256479 3.5791066 0
-5.2511411 3.5965669 0.35550946
-5.1938257 3.5480988 -0.70109725
-5.2362652 3.577091 -0.35420948
-5.2321157 3.5742564 0
-5.2447572 3.5828919 0.35478389
-5.19383 3.5389049 -0.7005201
-5.2384386 3.5692997 -0.35406446
-5.2299767 3.563534 0
-5.2426381 3.5721614 0.35434833
-5.1916823 3.5282638 -0.69965494
-5.2384534 3.5600493 -0.35377446
-5.2364373 3.5586791 0
-5.2490978 3.5672832 0.35449335
-5.1852388 3.5147333 -0.69821376
-5.2319989 3.5464287 -0.35304892
-5.2299562 3.5450439 0
-5.2512555 3.5594816 0.35434833
-5.1916308 3.5099182 -0.6985029
-5.2384305 3.541558 -0.35319391
-5.2320819 3.5372658 0
-5.2555528 3.5531337 0.35434833
-5.1915751 3.5007477 -0.69792575
-5.2405539 3.5337746 -0.35304892
-5.236352 3.5309412 0
-5.2512245 3.5409698 0.35376778
-5.1979456 3.4959142 -0.69821376
-5.2383494 3.523088 -0.35261336
-5.2298193 3.5173509 0
-5.2468743 3.5288217 0.35318723
-5.2021661 3.4896309 -0.69821376
-5.2469139 3.5196481 -0.35290337
-5.2254205 3.5052299 0
-5.2468228 3.519587 0.35289723
-5.195632 3.4761527 -0.69677258
-5.2446904 3.508975 -0.35246834
-5.2231607 3.4945707 0
-5.2510719 3.5132446 0.35289723
-5.1955829 3.4715774 -0.69648457
-5.2446427 3.5043581 -0.35232279
-5.2274413 3.4928646 0
-5.248868 3.5071816 0.35260665
-5.1954651 3.4624255 -0.69590741
-5.2510414 3.4994636 -0.35246834
-5.229486 3.4850981 0
-5.2509418 3.499397 0.35246167
-5.1931891 3.4518542 -0.69504339
-5.2336221 3.4787295 -0.35101667
-5.2358665 3.4802215 0
-5.2530046 3.4916129 0.35231668
-5.1930404 3.4427156 -0.69446623
-5.2464843 3.4781463 -0.35159725
-5.2292161 3.4666984 0
-5.2485566 3.4795198 0.3517361
-5.1928854 3.433588 -0.69389021
-5.2420135 3.4660716 -0.35101667
-5.2355785 3.4618168 0
-5.2570877 3.4760392 0.3520261
-5.192708 3.4244602 -0.69331306
-5.2461977 3.4597352 -0.35101667
-5.2375784 3.4540513 0
-5.2547746 3.4653914 0.35159054
-5.1968417 3.4181833 -0.69331306
-5.2460365 3.4505405 -0.35072669
-5.2352314 3.4434338 0
-5.2524514 3.4547598 0.35115555
-5.1966472 3.4090667 -0.69273704
-5.2415113 3.438498 -0.35014611
-5.2263279 3.4285376 0
-5.2522721 3.4455574 0.35086498
-5.2007627 3.4027851 -0.69273704
-5.2478342 3.4335835 -0.35029113
-5.2304668 3.4222202 0
-5.2433896 3.4306753 0.34999442
-5.1962061 3.3908446 -0.69158387
-5.2498055 3.4258213 -0.35014611
-5.2324209 3.4144769 0
-5.2562356 3.4300175 0.350575
-5.2024651 3.385973 -0.69187188
-5.2495813 3.4166379 -0.34985557
-5.2365427 3.4081519 0
-5.2516646 3.417994 0.34999442
-5.1957073 3.3726444 -0.6904307
-5.2449875 3.4046333 -0.34927502
-5.2384763 3.4004066 0
-5.2536135 3.4102325 0.34984943
-5.1976094 3.3649597 -0.69014269
-5.2360144 3.389823 -0.34840444
-5.2360249 3.3898299 0
-5.2577305 3.403882 0.34984943
-5.1973219 3.3558681 -0.68956554
-5.2466574 3.3877237 -0.34884
-5.2423015 3.3849111 0
-5.2640204 3.3989348 0.34999442
-5.1992002 3.3481867 -0.68927753
-5.2463737 3.3785653 -0.34854946
-5.2398295 3.3743513 0
