# .PCD v0.7 - Point Cloud Data file format
VERSION 0.7
FIELDS x y z
SIZE 4 4 4
TYPE F F F
COUNT 1 1 1
WIDTH 1680
HEIGHT 1
VIEWPOINT 0 0 0 1 0 0 0
POINTS 1680
DATA ascii
-2.2495623 7.571991 0.44121286
-1.8086126 6.0609255 -0.70499432
-1.8389611 6.1626277 -0.35921979
-1.8911389 6.3374834 0
-2.2579648 7.5667706 0.44106728
-1.8144481 6.0537758 -0.70441717
-1.8434221 6.150445 -0.35863921
-1.8913248 6.3102689 0
-2.2648702 7.5565767 0.44063228
-0 0 -0
-1.8217616 6.051579 -0.70441717
-1.8531001 6.1556802 -0.35907477
-1.8891962 6.2755852 0
-2.271003 7.5438819 0.44005173
-1.8283246 6.0468998 -0.70412916
-1.8597825 6.1509423 -0.35892922
-1.9178675 6.3430495 0
-7.1244826 23.563122 1.3749914
-0 0 -0
-1.8371342 6.0496407 -0.70470631
-1.8679706 6.1511841 -0.35907477
-1.9104061 6.2909231 0
-7.1325645 23.487371 1.3710731
-0 0 -0
-1.8429322 6.0424638 -0.70412916
-1.8731269 6.1414638 -0.35863921
-1.9301536 6.3284388 0
-7.1313777 23.381811 1.3654131
-1.8494751 6.0377622 -0.70384115
-1.8820668 6.1441603 -0.35892922
-1.9256032 6.2862883 0
-5.4016943 17.63427 1.0301579
-0 0 -0
-1.861331 6.0503511 -0.70557034
-1.8917824 6.1493349 -0.35936478
-1.9263111 6.2615719 0
-5.4222345 17.62525 1.0300128
-1.8686403 6.0480976 -0.70557034
-1.9007438 6.1520047 -0.35965478
-1.9369485 6.269186 0
-5.4558001 17.658407 1.0323352
-0 0 -0
-1.8744154 6.0408993 -0.70499432
-1.9074067 6.1472244 -0.35950977
-1.9483777 6.2792668 0
-2.1468451 6.918891 0.40463936
-1.8817133 6.03863 -0.70499432
-1.9171529 6.15236 -0.35994533
-1.950543 6.2595129 0
-2.1505671 6.901412 0.40376881
-1.8874619 6.0314102 -0.70441717
-1.9222566 6.1425972 -0.35950977
-1.9604375 6.264605 0
-2.1635592 6.9136829 0.40463936
-1.8947483 6.0291252 -0.70441717
-1.9288989 6.1377931 -0.35936478
-1.9609841 6.2398887 0
-2.1820381 6.9432869 0.40652606
-1.8996989 6.0194387 -0.70355314
-1.9386607 6.1428943 -0.35980034
-1.978704 6.2697763 0
-2.1857355 6.9257822 0.4056555
-1.9100965 6.0270014 -0.70470631
-1.9476503 6.1454968 -0.36009035
-1.9760578 6.2351317 0
-2.1964552 6.9305601 0.4060905
-0 0 -0
-1.9121701 6.0209112 -0.70412916
-1.9466451 6.1294641 -0.35921979
-1.9947894 6.2810574 0
-2.1990705 6.9242835 0.40580049
-1.9218022 6.0259914 -0.70499432
-1.9579968 6.1394835 -0.35994533
-1.9834025 6.2191453 0
-2.2058549 6.9166656 0.40550992
-1.9306582 6.0285869 -0.70557034
-1.9662055 6.1395855 -0.36009035
-2.0107584 6.2787042 0
-2.219759 6.9313202 0.40652606
-0 0 -0
-0 0 -0
-1.9379412 6.0262494 -0.70557034
-1.9720331 6.1322622 -0.35980034
-2.0199354 6.2812204 0
-2.2321093 6.940999 0.4072516
-0 0 -0
-1.9452213 6.0239034 -0.70557034
-1.9794413 6.1298752 -0.35980034
-2.0211258 6.2589626 0
-2.2420928 6.9432468 0.40754217
-1.9540956 6.026474 -0.70614749
-1.9868467 6.1274791 -0.35980034
-2.026278 6.2490864 0
-0 0 0
-1.9686536 6.0217342 -0.70614749
-2.0024552 6.1251268 -0.35994533
-2.040566 6.2417002 0
-2.2543278 6.8955569 0.40521994
-1.97754 6.0242615 -0.70672351
-2.0098548 6.1227031 -0.35994533
-2.0740802 6.318356 0
-2.2561746 6.8730774 0.40405881
-0 0 -0
-1.9840089 6.0194135 -0.7064355
-2.020505 6.1301413 -0.36052591
-2.0792685 6.3084278 0
-2.268544 6.8826828 0.40478438
-1.9912807 6.0170116 -0.7064355
-2.0270951 6.1252313 -0.36038089
-2.0631781 6.2342625 0
-2.2760432 6.8774724 0.40463936
-2.0001824 6.019515 -0.70701265
-2.0369503 6.130168 -0.36081588
-2.0797374 6.258934 0
-2.2859888 6.8796444 0.40492937
-2.0099077 6.0244474 -0.70787668
-2.0435345 6.1252394 -0.36067089
-2.0914159 6.2687578 0
-2.3017032 6.8990684 0.40623605
-0 0 -0
-2.0180094 6.0244741 -0.70816582
-2.053411 6.1301599 -0.36110646
-2.1031213 6.2785625 0
-2.3108623 6.8987436 0.40638104
-2.0236368 6.0171232 -0.70758867
-2.0624716 6.1325955 -0.36139646
-2.116514 6.2932863 0
-2.3233371 6.9082584 0.40710661
-0 0 -0
-2.030906 6.0146737 -0.70758867
-2.0673885 6.1227202 -0.36096147
-2.1041348 6.2315469 0
-2.3383329 6.9251413 0.40826771
-0 0 -0
-2.0356798 6.0048647 -0.70672351
-2.0731151 6.1152911 -0.36067089
-2.1183474 6.2487178 0
-2.3492024 6.9296956 0.40870327
-2.0462675 6.0121946 -0.70787668
-2.0830152 6.1201639 -0.36110646
-2.1627884 6.3545475 0
-2.3492 6.9022484 0.4072516
-2.0552049 6.0146174 -0.70845383
-2.091248 6.1200991 -0.36125144
-0 0 0
-2.3449378 6.8625293 0.40507492
-2.0607908 6.0072322 -0.70787668
-2.099484 6.1200228 -0.36139646
-2.4627154 7.1788473 0
-2.3540704 6.8621464 0.40521994
-2.0722582 6.0169625 -0.70931786
-2.1094165 6.1248546 -0.36183202
-2.4883368 7.2250795 0
-2.3733592 6.891233 0.40710661
-0 0 -0
-2.0778382 6.0095701 -0.70874184
-2.1159673 6.1198478 -0.361687
-2.4817591 7.1777987 0
-2.4029112 6.9497528 0.41073495
-2.0893381 6.0192699 -0.71018302
-2.1216547 6.1123724 -0.36139646
-2.5015235 7.2067542 0
-2.4257913 6.9885731 0.4132022
-2.0957594 6.0143008 -0.70989501
-2.1316047 6.1171679 -0.36183202
-2.5110853 7.2061815 0
-2.4342337 6.9856372 0.4132022
-2.1064413 6.0215302 -0.71104819
-2.1415694 6.1219482 -0.36226758
-2.5060413 7.1638379 0
-2.4461048 6.9925017 0.41378275
-2.1102874 6.0092187 -0.70989501
-2.1498251 6.1218057 -0.36241257
-2.527631 7.197639 0
-2.446804 6.9674783 0.41247663
-2.1192651 6.0115385 -0.71047103
-2.1572206 6.1192031 -0.36241257
-2.5363262 7.1945796 0
-2.4560843 6.9669647 0.41262162
-2.1228967 6.0102572 -0.71047103
-2.1574554 6.1080985 -0.36183202
-2.5380712 7.1856818 0
-2.457696 6.958127 0.41218606
-2.1318877 6.012568 -0.71104819
-2.1648343 6.1054873 -0.36183202
-2.5467517 7.18261 0
-2.465234 6.9527054 0.41204107
-2.1365483 6.0026751 -0.71018302
-2.1765656 6.1151047 -0.36255756
-2.5589194 7.1893349 0
-2.4727628 6.9472761 0.41189608
-2.1455421 6.0049648 -0.71076018
-2.1865768 6.1198134 -0.36299312
-2.5597246 7.1641831 0
-2.4802821 6.9418387 0.41175106
-2.1527963 6.002368 -0.71076018
-2.1913371 6.109827 -0.36255756
-2.2064104 6.1518531 0
-2.483403 6.9241567 0.41087994
-2.1653025 6.0143595 -0.71248937
-2.2031183 6.1193962 -0.36328313
-2.2429328 6.2299857 0
-2.4856055 6.9040346 0.40986383
-2.17169 6.0093083 -0.71220136
-2.2113965 6.1191807 -0.36342868
-2.2522297 6.2321706 0
-2.485116 6.8765931 0.40841272
-2.1807117 6.011538 -0.71277738
-2.2170148 6.1116142 -0.36313814
-2.276618 6.2759213 0
-2.4978528 6.8857965 0.40913829
-2.1888614 6.0113363 -0.71306652
-2.225286 6.1113701 -0.36328313
-2.3046803 6.3294129 0
-2.507951 6.8876615 0.40942883
-2.1970105 6.0111141 -0.71335453
-2.2335634 6.1111245 -0.36342868
-2.2926702 6.2728434 0
-2.518945 6.8919406 0.40986383
-2.2007089 5.9987421 -0.71220136
-2.2409458 6.1084213 -0.36342868
-2.2850111 6.2285352 0
-2.5227969 6.8766971 0.40913829
-2.2079556 5.9960785 -0.71220136
-2.2483251 6.1057091 -0.36342868
-0 0 0
-2.5221269 6.8492641 0.40768716
-2.2223725 6.012815 -0.7145077
-2.2575009 6.1078577 -0.36371869
-2.3162985 6.2669396 0
-2.5150876 6.80478 0.40521994
-2.2242367 5.9955707 -0.71277738
-2.2657824 6.1075592 -0.36386368
-2.3175321 6.2470536 0
-2.5169806 6.7846804 0.4042038
-2.2350898 6.0025744 -0.71393055
-2.2758815 6.1121249 -0.36429924
-2.3114557 6.2076631 0
-2.5215499 6.7718935 0.40362325
-2.2432492 6.0022988 -0.71421969
-2.284174 6.1118021 -0.36444426
-2.3244231 6.2194972 0
-2.5288217 6.7664104 0.40347826
-2.2550414 6.0116901 -0.71566087
-2.2933841 6.1139083 -0.3647348
-2.771564 7.3886824 0
-2.5379076 6.7657804 0.40362325
-2.2613897 6.0065336 -0.71537173
-2.2989371 6.1062641 -0.36444426
-2.7511466 7.3073888 0
-2.5424187 6.7529817 0.4030427
-2.2677324 6.0013795 -0.71508372
-2.3072348 6.1059198 -0.36458981
-2.7562943 7.2943211 0
-2.542311 6.7280307 0.40173659
-2.274066 5.9962192 -0.71479571
-2.314611 6.1031275 -0.36458981
-2.3415341 6.174118 0
-2.5393815 6.6957989 0.39999491
-2.2831478 5.9982967 -0.71537173
-2.3219836 6.1003261 -0.36458981
-2.3730652 6.2345276 0
-2.3783224 6.2483397 0.37343591
-2.2903941 5.9955335 -0.71537173
-2.3330586 6.1072164 -0.36516979
-2.3536642 6.1611547 0
-2.3459997 6.1410918 0.36719534
-2.3041193 6.0096693 -0.71739006
-2.3422985 6.1092501 -0.36546037
-2.782202 7.256619 0
-2.3515561 6.1333957 0.3669048
-2.3113792 6.0068812 -0.71739006
-2.3496788 6.1064153 -0.36546037
-2.8171337 7.3212514 0
-2.3552363 6.1208587 0.36632478
-2.3187289 6.0151372 -0.71854323
-2.3552349 6.109839 -0.36575037
-2.817812 7.309835 0
-2.3589339 6.1194348 0.36632478
-2.3259954 6.012331 -0.71854323
-2.3607423 6.1021466 -0.36546037
-0 0 0
-2.3775733 6.1456513 0.36806589
-2.3379383 6.0215693 -0.71998441
-2.3746982 6.1162477 -0.36647648
-2.4116182 6.211339 0
-2.5542758 6.5787663 0.39418989
-2.3480306 6.0259724 -0.72084957
-2.3801982 6.1085272 -0.3661859
-2.4342399 6.2472191 0
-2.6103339 6.6991463 0.40159157
-2.3496599 6.0086823 -0.71912038
-2.3875773 6.1056466 -0.3661859
-2.4323068 6.2200308 0
-2.6610105 6.8048849 0.40812272
-2.3569186 6.0058389 -0.71912038
-2.3987501 6.1124325 -0.36676648
-0 0 0
-2.6825185 6.8355241 0.4101544
-2.3632233 6.0005732 -0.71883124
-2.4080403 6.1143699 -0.36705703
-2.4578221 6.2407732 0
-2.6955359 6.8443642 0.41087994
-2.3676226 5.9905038 -0.71796721
-2.4144685 6.1090322 -0.36691147
-2.4605792 6.2256999 0
-2.7047582 6.8435163 0.41102496
-2.3834407 6.009275 -0.72056156
-2.4247234 6.113359 -0.36734703
-0 0 0
-2.706322 6.8233423 0.41000938
-2.3849592 5.9919672 -0.71883124
-2.4378722 6.1249056 -0.36821759
-0 0 0
-2.7097609 6.8079982 0.40928385
-2.399873 6.0082965 -0.72113758
-2.445271 6.1219554 -0.36821759
-0 0 0
-2.4057136 6.0229192 0.36226088
-2.4052083 6.0005956 -0.72056156
-2.4507349 6.1141768 -0.36792758
-0 0 0
-2.414921 6.0248275 0.36255088
-2.41535 6.0048771 -0.72142559
-2.4600585 6.1160278 -0.36821759
-0 0 0
-2.4202616 6.0170879 0.36226088
-2.4226038 6.0019541 -0.72142559
-2.4693937 6.1178746 -0.36850816
-2.5777273 6.3862696 0
-2.4353111 6.0334358 0.36342201
-2.4250002 5.9870381 -0.71998441
-2.476784 6.1148868 -0.36850816
-0 0 0
-2.4425995 6.030489 0.36342201
-2.4419734 6.0080695 -0.72286791
-2.4841709 6.1118894 -0.36850816
-2.5539594 6.2835922 0
-2.4547753 6.039567 0.36414754
-2.4482517 6.0027127 -0.72257876
-2.494499 6.1161036 -0.36894372
-0 0 0
-2.4601104 6.0317888 0.36385754
-2.4584429 6.0069337 -0.72344393
-2.5038538 6.1178904 -0.3692337
-2.5651939 6.2677674 0
-2.4713302 6.0384221 0.36443755
-2.4617691 5.9943886 -0.72229075
-2.5102582 6.1124592 -0.36908871
-0 0 0
-2.4786246 6.0354314 0.36443755
-2.4811888 6.0003705 -0.72373194
-2.530978 6.1207776 -0.36995926
-0 0 0
-2.5041258 6.05584 0.36603424
-2.4914119 6.0045376 -0.7245971
-2.5383718 6.1177149 -0.36995926
-2.6752443 6.4475908 0
-2.507458 6.0432096 0.36545366
-2.4966791 5.9967518 -0.72402108
-2.5457621 6.1146436 -0.36995926
-2.717041 6.5260367 0
-2.5237458 6.0617628 0.36675978
-2.5019271 5.9889526 -0.72344393
-2.5501466 6.1043768 -0.36952427
-2.7189033 6.5083361 0
-2.5300677 6.0563135 0.36661479
-2.5101607 5.9883084 -0.72373194
-2.5635459 6.115665 -0.37039483
-2.7237501 6.4978528 0
-2.5373838 6.0532522 0.36661479
-0 0 -0
-2.5234132 5.9995804 -0.72546226
-2.5759697 6.124537 -0.37112039
-2.7053676 6.4321885 0
-2.5457025 6.0525746 0.36675978
-2.525027 5.9932833 -0.72488511
-2.5786614 6.1205873 -0.37097538
-2.720365 6.4569278 0
-2.5574296 6.0701923 0.36792091
-0 0 -0
-2.5342832 5.994997 -0.72546226
-2.5901022 6.1270404 -0.37155592
-2.7068858 6.4032989 0
-2.6123123 6.1795797 0.37474203
-2.5435431 5.9966884 -0.72603828
-2.6015623 6.1334748 -0.3721365
-2.6831207 6.325758 0
-2.6958733 6.355824 0.38562709
-2.5517988 5.9959884 -0.72632629
-2.6049013 6.1207633 -0.37155592
-2.7091045 6.3656106 0
-2.7249186 6.4027691 0.38867486
-2.5641236 6.0048008 -0.7277686
-2.6163769 6.1271701 -0.3721365
-2.7035089 6.3312201 0
-2.7316337 6.3970842 0.38852987
-2.5713773 6.001698 -0.7277686
-2.6329873 6.1454983 -0.37344262
-2.7162805 6.3399076 0
-2.7403836 6.3961654 0.38867486
-2.5806684 6.0033345 -0.72834462
-2.6363063 6.1327634 -0.37286204
-2.7290771 6.3485732 0
-2.7501605 6.3976192 0.38896486
-2.5899711 6.0049667 -0.72892177
-2.6437144 6.1295733 -0.37286204
-2.7449915 6.3643889 0
-2.7630372 6.4062285 0.389691
-2.597225 6.001833 -0.72892177
-2.6562779 6.1382957 -0.37358761
-2.7557814 6.3682351 0
-2.7749038 6.4124241 0.39027154
-2.604475 5.9986901 -0.72892177
-2.6636927 6.1350818 -0.37358761
-2.7551825 6.3458028 0
-6.9984064 16.118898 0.98153883
-2.6148174 6.0026455 -0.7297858
-2.6762915 6.1437678 -0.37431318
-2.7670054 6.3520131 0
-7.0033512 16.077084 0.97950715
-2.6272464 6.0113297 -0.73122698
-2.6837132 6.1405292 -0.37431318
-2.7757199 6.3510475 0
-7.0092454 16.037659 0.97762048
-2.6313951 6.0010514 -0.73036295
-2.6911309 6.1372824 -0.37431318
-5.1180472 11.672009 0
-7.0004435 15.964924 0.97370154
-0 0 -0
-2.6396847 6.0002327 -0.73065096
-2.7016847 6.1411638 -0.37474874
-5.122716 11.644379 0
-7.0082221 15.930297 0.97210544
-2.6511106 6.0065036 -0.73180413
-2.7185452 6.159287 -0.37605485
-5.1241717 11.609609 0
-7.0001879 15.860015 0.96833211
-2.6625552 6.0127559 -0.7329573
-2.721777 6.1464939 -0.37547427
-5.1266041 11.57723 0
-7.006721 15.823034 0.9665904
-2.6761172 6.0237122 -0.73468649
-2.7334218 6.1526995 -0.37605485
-5.1353068 11.559138 0
-7.0142293 15.788432 0.96499372
-2.6812899 6.0157537 -0.73411047
-2.7419109 6.1517634 -0.37619984
-5.1513872 11.557674 0
-7.0005112 15.706378 0.96049482
-2.6885569 6.0125093 -0.73411047
-2.7493422 6.1484456 -0.37619984
-5.1515388 11.520558 0
-7.0046363 15.664703 0.95846319
-2.6979351 6.0139718 -0.73468649
-2.7535818 6.1380138 -0.37576485
-5.1675878 11.519079 0
-7.0001583 15.604065 0.95526981
-2.707325 6.015429 -0.73526365
-2.7791247 6.1749616 -0.37823206
-5.1761632 11.500963 0
-6.997683 15.548214 0.9523676
-2.7167182 6.0168638 -0.73583966
-2.7887204 6.176331 -0.37852207
-5.1846981 11.482834 0
-7.010047 15.525534 0.95149648
-2.736793 6.0418491 -0.73929918
-2.781173 6.1398244 -0.37649041
-5.1878328 11.452859 0
-7.0062871 15.467348 0.94844866
-2.7440915 6.038538 -0.73929918
-2.8090122 6.1813998 -0.37924764
-5.1909027 11.422894 0
-7.0056233 15.416294 0.94583642
-2.7535336 6.0399294 -0.73987633
-2.8304904 6.2087355 -0.3811343
-5.1906681 11.385831 0
-2.544821 5.5821137 0.34266803
-2.7614796 6.0476756 -0.7410295
-2.8623049 6.2684846 -0.3849082
-5.1683583 11.318771 0
-2.548193 5.5805755 0.34266803
-2.763396 6.0325704 -0.73958719
-2.836329 6.1917853 -0.38040876
-5.1516876 11.246277 0
-2.5560153 5.5798521 0.34281301
-2.7750032 6.0386276 -0.74074036
-5.1070333 11.113311 -0.68315434
-5.1424527 11.190387 0
-6.9763637 15.181123 0.93320972
-2.7898788 6.0517149 -0.74275869
-5.0997872 11.062294 -0.68039656
-5.1527009 11.177072 0
-6.9773006 15.134934 0.93088806
-2.8026164 6.0600753 -0.74419987
-5.1164236 11.063202 -0.68083215
-5.1563716 11.149581 0
-6.9781313 15.088758 0.9285658
-2.814291 6.0660691 -0.74535304
-5.1232243 11.042864 -0.67996103
-5.1501274 11.100852 0
-6.9788613 15.042601 0.9262436
-2.8216186 6.0626645 -0.74535304
-5.1223111 11.006042 -0.67807436
-5.1448698 11.054513 0
-6.9794893 14.996465 0.92392135
-0 0 -0
-2.8322256 6.0662837 -0.7462182
-5.1235175 10.973952 -0.67647821
-5.1373034 11.003481 0
-6.9844136 14.959766 0.9221797
-2.8428414 6.0698771 -0.74708223
-5.1268559 10.946578 -0.67517209
-5.1494927 10.994911 0
-6.9826488 14.908964 0.91956747
-2.8600755 6.0875134 -0.74967772
-5.1268191 10.912153 -0.67343044
-5.1306815 10.920374 0
-6.9741397 14.844072 0.91608411
-5.1200628 10.863647 -0.67081821
-5.1349969 10.895333 0
-6.9821014 14.814483 0.91477799
-5.114306 10.817518 -0.66835099
-5.1314759 10.853836 0
-6.9822311 14.768458 0.91245633
-5.1151242 10.785503 -0.66675431
-5.132319 10.821759 0
-6.9800262 14.717746 0.9098435
-5.1248026 10.772273 -0.66631871
-5.1353297 10.794401 0
-6.9844093 14.681144 0.90810186
-5.1187906 10.726209 -0.6638515
-5.1270709 10.74356 0
-2.6422262 5.5366731 0.34266803
-5.1227717 10.701265 -0.6626904
-5.1288137 10.713887 0
-2.6365716 5.5076928 0.34107134
-5.1222053 10.666968 -0.66094929
-5.1282372 10.67953 0
-2.6510994 5.5209022 0.34208748
-5.1238122 10.637357 -0.65949762
-5.1309743 10.652225 0
-6.9605727 14.450587 0.89591128
-5.1242294 10.605428 -0.65790147
-5.1336527 10.62493 0
-6.9497676 14.383677 0.8922829
-5.1223044 10.568824 -0.65601426
-5.1328664 10.590616 0
-6.9660063 14.372924 0.89213735
-5.1134887 10.518232 -0.65325701
-5.1342831 10.561006 0
-6.9663296 14.32945 0.88996071
-5.1170826 10.493361 -0.65209591
-5.1401935 10.540754 0
-6.9551668 14.262635 0.88633233
-5.1171975 10.461493 -0.65049922
-5.1300559 10.48778 0
-6.9518461 14.21221 0.8837201
-5.1161041 10.427318 -0.64875811
-5.1473098 10.490919 0
-6.9632916 14.192138 0.88299453
-5.1160774 10.39548 -0.64716142
-5.1392994 10.442666 0
-6.9804349 14.183714 0.88299453
-5.1177616 10.383065 -0.64658087
-5.1283517 10.404551 0
-6.9832559 14.167833 0.88226843
-5.1084266 10.332623 -0.64382362
-5.1213131 10.358688 0
-7.0026751 14.164048 0.882559
-5.1128259 10.310145 -0.64280754
-5.1234164 10.331502 0
-7.0244021 14.164888 0.88313955
-5.1067638 10.266735 -0.64048529
-5.1196723 10.292686 0
-7.0484538 14.170345 0.88401008
-5.1156845 10.25358 -0.64004976
-5.1123548 10.246906 0
-7.067893 14.166473 0.88430065
-5.1059794 10.203247 -0.6372925
-5.1212373 10.233737 0
-7.09198 14.171861 0.88517123
-5.1101432 10.180812 -0.63627642
-5.12076 10.201962 0
-7.1149259 14.174891 0.8858968
-5.1089659 10.117408 -0.63308358
-5.1172447 10.133803 0
-7.1526752 14.164616 0.88633233
-5.1117945 10.092683 -0.63192248
-5.1271362 10.122973 0
-3.3331132 6.5808702 0.41204107
-5.1039801 10.047118 -0.62945527
-5.1075377 10.054122 0
-3.3493018 6.5930567 0.41305718
-5.112576 10.033996 -0.62901968
-5.112596 10.034035 0
-3.366703 6.6075268 0.41421831
-5.1105113 10.000053 -0.62727857
-5.115242 10.00931 0
-3.3794143 6.612709 0.41479886
-5.1036267 9.9568729 -0.62495637
-5.1119013 9.9730167 0
-0 0 0
-5.1061492 9.9322119 -0.62379521
-5.112051 9.9436913 0
-3.4036977 6.6206932 0.41581443
-5.099093 9.8890829 -0.62147301
-5.1073623 9.9051189 0
-3.4200323 6.6327443 0.41683054
-5.100297 9.8621435 -0.6201669
-5.1169381 9.8943224 0
-3.430429 6.6332188 0.41712055
-5.1110144 9.8536692 -0.62002188
-5.10852 9.8488607 0
-3.4312654 6.6152334 0.41624996
-5.1049275 9.8129072 -0.61784464
-5.1072035 9.8172817 0
-3.4380579 6.6087799 0.41610497
-5.1011558 9.7767849 -0.61595798
-5.1082282 9.7903404 0
-3.4412329 6.5954061 0.41552442
-5.1057391 9.7568054 -0.61508745
-5.1104012 9.7657137 0
-3.4479914 6.5889339 0.41537887
-5.1078644 9.7322226 -0.61392629
-5.1088972 9.73419 0
-3.4571612 6.5870705 0.41552442
-5.1087279 9.7053509 -0.61262017
-5.1097417 9.7072763 0
-3.4602766 6.5736909 0.41494384
-5.1119585 9.6830835 -0.61160409
-5.1008134 9.661973 0
-2.6045201 4.9334884 0.31160957
-5.0995936 9.6455431 -0.60942739
-5.1017842 9.6496868 0
-2.6135762 4.9434061 0.3123357
-5.0942001 9.6072302 -0.60739517
-5.1061273 9.6297235 0
-2.6244121 4.9494185 0.31291568
-5.100925 9.5918903 -0.60681462
-5.1055422 9.6005735 0
-2.6267338 4.9393678 0.31248069
-5.0966153 9.5559168 -0.60492796
-5.0999904 9.5622444 0
-4.3567896 8.1687775 0.51711649
-5.0946803 9.5245543 -0.6033318
-5.0980415 9.530839 0
-4.3678861 8.1658058 0.51726204
-5.0988126 9.5046482 -0.60246074
-5.1046329 9.5154982 0
-4.3838902 8.1719685 0.51798761
-5.0979843 9.4756021 -0.60100961
-5.0951662 9.4703646 0
-4.3900666 8.1597986 0.51755202
-5.1020246 9.4557104 -0.60013849
-5.0954843 9.4435892 0
-7.6424212 14.163891 0.89895904
-5.1023173 9.4289732 -0.59883237
-5.0994577 9.4236879 0
-7.6620007 14.159213 0.89924908
-5.1075106 9.4113836 -0.5981068
-5.0934644 9.3855009 0
-7.6890192 14.168215 0.90041018
-5.101491 9.3732576 -0.59607512
-0 0 0
-4.4232435 8.1270752 0.51682645
-5.1016097 9.3465614 -0.594769
-5.1061554 9.3548899 0
-4.4343042 8.1240034 0.51697147
-5.099174 9.3153162 -0.59317237
-5.0974612 9.3121872 0
-4.4491076 8.1277571 0.51755202
-5.1029258 9.2954855 -0.59230179
-5.1024485 9.2946167 0
-4.4601746 8.124651 0.51769704
-5.1053801 9.2733765 -0.59128565
-5.1048884 9.2724838 0
-4.476253 8.1306353 0.5184226
-5.093977 9.2262592 -0.58867341
-5.0921922 9.2230272 0
-4.4948668 8.1411457 0.51943868
-5.1000867 9.2110043 -0.58809286
-5.0970306 9.2054853 0
-4.5135126 8.1516237 0.52045482
-5.0746322 9.138958 -0.583884
-5.0967808 9.1788454 0
-4.5359707 8.1688766 0.52190596
-5.0692382 9.1033087 -0.58199728
-5.0926743 9.1453953 0
-4.5521579 8.1747389 0.52263147
-5.0586977 9.0586119 -0.57953006
-5.0986452 9.130146 0
-4.5709019 8.1851149 0.52364761
-5.0505934 9.0184832 -0.57735282
-0 0 0
-4.5769782 8.1727829 0.52321208
-5.0449471 8.9829235 -0.57546616
-0 0 0
-4.5893974 8.1717815 0.52350259
-5.0392218 8.9473906 -0.57357949
-0 0 0
-7.9794698 14.167948 0.90824741
-5.0461946 8.9345055 -0.57314396
-5.0940814 9.0192909 0
-8.0055246 14.174128 0.90926296
-0 0 -0
-5.0841546 8.9890289 0
-8.0153694 14.171556 0.90940851
-5.0482817 8.9004889 -0.57154781
-5.0783224 8.9534531 0
-8.0260735 14.150554 0.90868241
-5.0538936 8.8853483 -0.57096726
-5.0801287 8.9314728 0
-8.0508766 14.154402 0.90955353
-5.0736346 8.8950281 -0.5719828
-5.0831828 8.9117689 0
-8.0718374 14.151437 0.90998912
-5.0727687 8.8685932 -0.57067668
-5.0823193 8.8852901 0
-8.0824757 14.130389 0.90926296
-5.0873609 8.8692217 -0.57111228
-5.081399 8.8588276 0
-6.9062834 12.040301 0.77530634
-5.0851202 8.8405485 -0.56966114
-5.0856075 8.8413954 0
-6.9091673 12.011679 0.77400023
-5.0815158 8.8096361 -0.56806445
-5.0806875 8.8082008 0
-6.9171858 11.992069 0.77327466
-5.084353 8.7899981 -0.56719393
-5.0782938 8.7795229 0
-6.9147587 11.954464 0.77138799
-5.0832381 8.7636213 -0.56588781
-5.08498 8.7666245 0
-6.914856 11.921373 0.76979131
-5.0872874 8.7462358 -0.56516171
-5.0798721 8.7334871 0
-6.9083519 11.877071 0.76746911
-5.0808334 8.7109051 -0.56327498
-5.0786161 8.7071037 0
-6.9096084 11.846274 0.76601797
-5.0887341 8.7002783 -0.562985
-5.0799394 8.6852417 0
-6.9160438 11.824454 0.76514685
-5.0847812 8.669466 -0.56138831
-5.0785818 8.6588964 0
-6.9132376 11.786954 0.76326019
-5.0820818 8.6409216 -0.55993724
-5.0798035 8.6370478 0
-6.9129882 11.753961 0.76166409
-5.0845966 8.6213417 -0.55906612
-5.0770178 8.6084909 0
-6.9126639 11.720977 0.7600674
-5.0817852 8.5928297 -0.55761498
-5.0728421 8.5777073 0
-6.9188876 11.6992 0.75919682
-5.0881867 8.5799761 -0.55717945
-5.0739093 8.5559006 0
-6.9197621 11.668477 0.75774515
-5.0852718 8.5514917 -0.55572832
-5.0749359 8.534111 0
-6.9219041 11.640009 0.75643903
-5.0836248 8.5252571 -0.5544222
-5.0785809 8.516799 0
-6.9160056 11.598166 0.75426239
-5.0832539 8.5012674 -0.5532611
-5.0755095 8.4883156 0
-6.918014 11.569732 0.75295627
-5.0828328 8.4772902 -0.55209994
-5.0763984 8.4665585 0
-6.9159546 11.534621 0.75121456
-5.0877166 8.4622345 -0.55151939
-5.0772367 8.4448032 0
-3.2922859 5.4759526 0.35689086
-5.0802174 8.415185 -0.54905218
-5.0710135 8.3999395 0
-0 0 0
-5.0769281 8.386816 -0.54760104
-5.0649872 8.3670902 0
-0 0 0
-5.0789657 8.3673429 -0.54672992
-5.0683427 8.3498421 0
-0 0 0
-5.0823188 8.3501043 -0.54600441
-5.070312 8.3303776 0
-3.336874 5.4823885 0.35848752
-5.0829325 8.3284378 -0.54498881
-5.0654593 8.2998075 0
-3.340786 5.4739122 0.35819697
-5.0834966 8.3067732 -0.54397273
-5.0646167 8.2759218 0
-3.3446877 5.4654431 0.35790697
-5.0812998 8.280694 -0.54266661
-5.0623636 8.249835 0
-3.3485684 5.456964 0.35761642
-5.0844946 8.263485 -0.54194105
-5.0614176 8.2259798 0
-3.3442662 5.4352093 0.3564553
-5.0903811 8.250699 -0.54150546
-5.0590563 8.1999264 0
-5.1012335 8.2682886 0.54265988
-0 0 -0
-5.0880451 8.2246561 -0.54019934
-5.0621161 8.1827431 0
-5.1098547 8.2599106 0.54251492
-0 0 -0
-5.082911 8.194211 -0.53860271
-5.063766 8.1633472 0
-5.1170893 8.2493105 0.54222435
-0 0 -0
-5.0804582 8.1682072 -0.53729659
-5.0681281 8.1483831 0
-5.1298008 8.2475386 0.54251492
-0 0 -0
-5.0875716 8.157649 -0.53700602
-5.0655766 8.1223812 0
-5.1383834 8.2391224 0.54236937
-5.0864081 8.1338787 -0.53584546
-5.0629697 8.0963974 0
-5.151093 8.237319 0.54265988
-5.0824265 8.1057081 -0.53439379
-5.0644565 8.0770483 0
-5.1638007 8.235487 0.54294991
-5.0825396 8.0841684 -0.53337824
-5.0672879 8.0599089 0
-5.1585383 8.2050505 0.54135376
-5.0867615 8.0692282 -0.53279769
-5.0589824 8.0251617 0
-3.4004049 5.3941288 0.35616529
-5.0909543 8.0542908 -0.53221709
-5.0575514 8.0014448 0
-3.41664 5.4053936 0.3571814
-5.0839906 8.0217962 -0.53047544
-5.0616431 7.9865346 0
-3.4273379 5.4078393 0.35761642
-5.0853152 8.0024843 -0.52960432
-5.062912 7.9672294 0
-3.4366596 5.4080844 0.35790697
-5.0684557 7.9547029 -0.52684706
-5.0627499 7.9457488 0
-3.4501719 5.4148827 0.35863253
-5.0696726 7.9354386 -0.52597654
-5.0611382 7.9220805 0
-3.4623079 5.4194689 0.35921308
-5.0688648 7.9236188 -0.52539599
-5.0589128 7.908062 0
-3.4669805 5.4195628 0.3593581
-5.0587916 7.8868637 -0.52336377
-5.0558143 7.8822217 0
-3.4763348 5.4197483 0.35964864
-5.0528607 7.8567114 -0.52176762
-5.0540781 7.858604 0
-3.4814715 5.413352 0.35950309
-5.051085 7.8331299 -0.52060652
-5.0565143 7.8415494 0
-3.4837894 5.4025965 0.3590681
-5.054903 7.8182926 -0.52002597
-5.0546813 7.8179498 0
-3.4874904 5.3940148 0.35877752
-0 0 -0
-5.0572801 7.8012791 -0.5193004
-5.0542183 7.7965565 0
-3.4855275 5.3767185 0.35790697
-5.0667028 7.7951627 -0.5193004
-5.0551229 7.7773471 0
-4.139143 6.3681045 0.42423221
-5.0704432 7.7803268 -0.51871985
-5.0559936 7.7581553 0
-4.1411595 6.3543906 0.42365167
-5.0642042 7.7502646 -0.51712316
-5.055398 7.7367878 0
-4.1488347 6.3493824 0.42365167
-5.0593281 7.7224088 -0.51567203
-5.0561881 7.7176166 0
-4.1636219 6.3552299 0.42437723
-5.0501108 7.6880589 -0.51378536
-5.0583668 7.7006273 0
-4.1755795 6.3567119 0.42481279
-5.0536795 7.6732707 -0.51320481
-5.0590763 7.6814651 0
-4.190402 6.3625102 0.42553833
-5.0529232 7.6519785 -0.51218867
-5.055449 7.6558027 0
-4.1952257 6.3531098 0.42524835
-5.0549946 7.635036 -0.51146317
-5.0503311 7.6279931 0
-4.2057652 6.352365 0.42553833
-5.0541553 7.6137662 -0.51044703
-5.0537872 7.6132121 0
-4.2206221 6.3581009 0.4262639
-5.0547156 7.5946794 -0.50957644
-5.0514469 7.5897679 0
-4.2311835 6.357327 0.42655447
-5.0610013 7.584239 -0.50928593
-5.0577221 7.5793252 0
-4.2590518 6.3824654 0.42858613
-5.0528226 7.5522022 -0.50754422
-5.0538535 7.5537429 0
-4.2812071 6.3989067 0.43003726
-5.054708 7.5353041 -0.50681865
-5.057178 7.5389857 0
-4.2976236 6.4066811 0.43090835
-5.0522084 7.5119414 -0.50565755
-5.0590229 7.5220742 0
-4.3111625 6.4101081 0.43148893
-5.0525675 7.492909 -0.50478703
-5.0579271 7.5008578 0
-4.3218074 6.4091988 0.43177891
-5.0215244 7.4274955 -0.9993251
-5.05725 7.4803386 -0.50435144
-5.0611563 7.4861169 0
-4.3368239 6.4147334 0.43250448
-5.017314 7.4116135 -0.99759591
-5.0559421 7.4686747 -0.50377089
-5.0525494 7.4636636 0
-4.3334165 6.4013553 0.43177891
-5.0190048 7.3948469 -0.99615473
-5.05621 7.4496646 -0.5029003
-5.0440259 7.4317126 0
-4.3338532 6.3853664 0.43105337
-5.0206618 7.3780875 -0.99471349
-5.0520525 7.4242172 -0.50159419
-5.0456772 7.4148483 0
-5.2785611 7.7570815 0.52408314
-5.0149937 7.3506455 -0.99183005
-5.055162 7.4095216 -0.50101364
-5.0502367 7.4023032 0
-6.8826175 10.088085 0.68213153
-5.0224128 7.3424478 -0.99154204
-5.0538406 7.3883929 -0.49999756
-5.0503588 7.3833032 0
-6.8669324 10.039019 0.67937434
-5.0239682 7.3257108 -0.99010086
-5.0539494 7.3694277 -0.49912697
-5.0489774 7.3621774 0
-5.7195845 8.3400249 0.56486499
-5.0225568 7.3047137 -0.98808253
-5.0540142 7.3504643 -0.49825588
-5.0549173 7.3517785 0
-6.8676176 9.9881363 0.67705208
-5.0181689 7.2794762 -0.98548818
-5.0569925 7.3357949 -0.4976753
-5.0534616 7.3306723 0
-6.876729 9.9755478 0.67676151
-5.0196095 7.2627707 -0.984047
-5.0643768 7.3275437 -0.49753031
-5.050478 7.3074336 0
-6.8769641 9.9501381 0.67560095
-5.0195398 7.2439399 -0.98231667
-5.0687857 7.3150096 -0.49709475
-5.0593038 7.3013258 0
-6.8815775 9.9311371 0.67487484
-5.0209117 7.2272506 -0.98087549
-5.0524192 7.272603 -0.49462754
-5.0562439 7.2781086 0
-6.8757877 9.8972139 0.67313373
-5.0222511 7.2105689 -0.97943431
-5.0552626 7.2579641 -0.49404696
-5.0501571 7.2506342 0
-6.878828 9.8761015 0.67226261
-5.0205927 7.1896486 -0.97741598
-5.0536189 7.2369437 -0.49303141
-5.0499773 7.2317281 0
-5.3674383 7.6863427 0.52364761
-5.0218606 7.1729851 -0.9759748
-5.0653377 7.2350855 -0.49332142
-5.0482621 7.2106953 0
-5.3752327 7.6777248 0.52350259
-5.0230956 7.1563287 -0.97453362
-5.069602 7.2225852 -0.49288639
-5.0494967 7.1939416 0
-5.375546 7.6584592 0.52263147
-5.021318 7.1354456 -0.97251529
-5.0648623 7.1973228 -0.49157974
-5.049202 7.1750693 0
-6.8711524 9.7641163 0.66689259
-5.0165181 7.1103539 -0.96992093
-5.0540829 7.1635981 -0.48969305
-5.0548644 7.1647058 0
-6.87396 9.7430716 0.66602206
-5.0161467 7.0916219 -0.96819174
-5.0582376 7.1511278 -0.48925805
-5.0514946 7.1415954 0
-6.8782268 9.7241535 0.66529649
-5.0187273 7.077116 -0.96703857
-5.0578532 7.1322894 -0.48838693
-5.0540986 7.1269946 0
-6.8779464 9.6988783 0.6641354
-5.0268106 7.0523338 -0.96530932
-5.0660281 7.1073542 -0.48751637
-5.0546951 7.0914545 0
-6.8727074 9.642024 0.66137761
-5.0278049 7.035727 -0.96386707
-5.0549736 7.0737462 -0.48562971
-5.0526667 7.070518 0
-6.863205 9.6041193 0.65934592
-5.0215235 7.0179701 -0.96184987
-5.0471497 7.0537853 -0.48446858
-5.0448222 7.0505319 0
-6.8644681 9.5936289 0.65891033
-5.0209508 6.9992833 -0.96011955
-5.0511241 7.0413451 -0.48403305
-5.0487909 7.0380931 0
-6.8669705 9.5726633 0.65803981
-5.0188375 6.9785185 -0.95810229
-5.0535598 7.0267987 -0.48345247
-5.0436115 7.0129662 0
-6.866395 9.5474825 0.65687865
-5.0136476 6.9535613 -0.95550686
-5.05901 7.0164762 -0.48316249
-5.0459991 6.9984307 0
-6.8657689 9.5223179 0.65571755
-5.0114436 6.9328308 -0.95348966
-5.0492177 6.9850874 -0.48142081
-5.0437779 6.9775624 0
-6.8681388 9.5013838 0.65484703
-5.0167785 6.9225779 -0.95291251
-5.0408797 6.9558349 -0.47982413
-5.0445709 6.9609284 0
-6.8613172 9.4678288 0.65310532
-5.0129771 6.8997707 -0.95060617
-5.0431714 6.9413304 -0.47924358
-5.0468593 6.9464059 0
-6.8559499 9.4364052 0.65150863
-5.0136976 6.8832574 -0.94916499
-5.0500269 6.9331331 -0.47909856
-5.0445218 6.9255753 0
-6.8612275 9.419713 0.65092808
-5.0189633 6.8730206 -0.94858897
-5.0553384 6.922833 -0.47880858
-5.0436807 6.9068685 0
-6.8618822 9.3967323 0.64991254
-5.0180941 6.854425 -0.94685864
-5.0560207 6.9062304 -0.47808245
-5.038188 6.8818722 0
-6.8624849 9.3737555 0.6488964
-5.0217857 6.8421073 -0.94599462
-5.0474539 6.8770795 -0.47648636
-5.043417 6.8715792 0
-6.8645844 9.3528929 0.64802587
-5.0223808 6.8256121 -0.9445523
-5.0480614 6.8605132 -0.47576079
-5.0440059 6.8550014 0
-6.8604774 9.323658 0.6465742
-5.0198808 6.8049746 -0.9425351
-5.0470891 6.8418584 -0.47488967
-5.0399256 6.8321471 0
-6.8686562 9.311183 0.64628416
-5.0173326 6.7843447 -0.94051677
-5.0553527 6.8357549 -0.47488967
-5.0435333 6.8197727 0
-6.8644485 9.2819815 0.64483249
-5.0178256 6.7678909 -0.93907559
-5.0605164 6.8254709 -0.47459966
-5.0409245 6.7990456 0
-6.8632841 9.2569895 0.64367193
-5.0151973 6.7472901 -0.93705726
-5.0548105 6.8005838 -0.47329354
-5.0429258 6.784595 0
-6.8651609 9.2361727 0.64280087
-5.0140767 6.728785 -0.93532807
-5.0459437 6.7715497 -0.47169688
-5.0464535 6.772234 0
-6.8701057 9.2195368 0.64222026
-5.0160117 6.7144332 -0.9341749
-5.0479016 6.7571211 -0.47111633
-5.0437284 6.7515349 0
-6.8641386 9.1883364 0.64062417
-5.0194683 6.7021546 -0.93330973
-5.0545063 6.748939 -0.47097132
-5.0409665 6.7308602 0
-6.8643308 9.1654749 0.63960803
-5.0197992 6.6857448 -0.93186855
-5.0548582 6.732439 -0.47024575
-5.038156 6.7101941 0
-6.8660364 9.144702 0.63873696
-5.02632 6.6776099 -0.93158054
-5.0629892 6.726326 -0.47024575
-5.04 6.6957841 0
-6.8723974 9.1301765 0.63830191
-5.0265965 6.661211 -0.93013936
-5.0585914 6.7036104 -0.46908465
-5.0418162 6.6813798 0
-6.8662062 9.0990486 0.63670528
-5.0299587 6.648942 -0.9292742
-5.0431709 6.6664071 -0.46690741
-5.0436053 6.6669812 0
-6.8771954 9.0907459 0.63670528
-5.0246077 6.6335354 -0.92754501
-5.037787 6.6509352 -0.46603686
-5.0350614 6.6473365 0
-6.8701348 9.0700188 0.63554412
-5.018537 6.6089144 -0.92494953
-5.0411038 6.6386328 -0.4656013
-5.0367942 6.632957 0
-6.8763795 9.0555086 0.63510913
-5.0202522 6.5946136 -0.92379636
-5.0506945 6.6346021 -0.46574631
-5.0400805 6.6206598 0
-6.8747249 9.030653 0.63394803
-5.018805 6.57621 -0.92206717
-5.0555573 6.6243672 -0.46545631
-5.0386 6.6021481 0
-7.8046455 10.226536 0.71856004
-5.0157442 6.5557594 -0.92004883
-5.0509267 6.6017442 -0.46429518
-5.0355086 6.5815926 0
-7.7948885 10.188202 0.71652782
-5.0126472 6.5353336 -0.91803163
-5.0446682 6.5770822 -0.46298906
-5.0291982 6.5569119 0
-7.7945418 10.162282 0.71536666
-5.018959 6.527216 -0.91774249
-5.0399404 6.5545025 -0.46182796
-5.035532 6.5487695 0
-7.7957325 10.138443 0.71435112
-5.0142159 6.5047665 -0.91543728
-5.0415111 6.5401759 -0.46124738
-5.0354986 6.5323763 0
-7.7968707 10.114608 0.71333498
-5.0157456 6.4905167 -0.91428411
-5.0319309 6.5114608 -0.45965073
-5.0370226 6.5180497 0
-7.805912 10.101071 0.713045
-5.0156598 6.4742222 -0.9128418
-5.0334296 6.4971595 -0.45907018
-5.0321441 6.4955001 0
-7.8037844 10.073139 0.71173835
-5.0155478 6.4579453 -0.91140062
-5.0349069 6.482872 -0.45849016
-5.039989 6.4894152 0
-7.8095808 10.055501 0.71115834
-5.0042796 6.4273901 -0.9079411
-5.0299659 6.460381 -0.45732903
-5.036633 6.4689441 0
-7.8089547 10.029655 0.70999724
-4.9929509 6.3968792 -0.90448272
-5.0265751 6.4399581 -0.45631292
-5.0268364 6.4402924 0
-7.7970843 9.9894848 0.70782
-4.9895177 6.3765807 -0.90246439
-5.0151377 6.4093227 -0.45457125
-5.0298014 6.4280629 0
-4.0095172 5.1241446 0.36342201
-4.9828534 6.3522334 -0.89987004
-5.0036335 6.3787246 -0.45282957
-5.0247149 6.4055996 0
-4.007689 5.1090755 0.36269644
-4.9857273 6.340107 -0.89900488
-4.9968829 6.3542929 -0.45152345
-5.0179744 6.3811135 0
-3.9961891 5.0817595 0.36109975
-4.9821739 6.3198576 -0.89698654
-4.9997296 6.3421268 -0.45108792
-5.0176263 6.3648286 0
-7.7905822 9.8823061 0.70288551
-4.991415 6.3158679 -0.89727569
-4.9977255 6.323853 -0.45021734
-5.0237012 6.3567214 0
-7.8041272 9.8749228 0.70303053
-4.9829779 6.2895551 -0.89439219
-4.9892297 6.2974463 -0.44876623
-5.0216784 6.3384032 0
-7.8047628 9.8512344 0.70201498
-4.9793181 6.2693577 -0.89237499
-4.9855213 6.2771678 -0.44775012
-5.0131507 6.3119555 0
-4.9030318 6.1733069 0.44034174
-4.9702263 6.2501526 -0.89006865
-4.9828434 6.2660193 -0.44716957
-5.0088658 6.2987428 0
-4.9164677 6.1825504 0.44121286
-4.9729362 6.2380733 -0.88920349
-4.9823141 6.2498369 -0.446444
-5.0067363 6.2804723 0
-4.9223099 6.1745677 0.44106728
-4.9723978 6.2219591 -0.88776231
-4.9801259 6.2316289 -0.44557288
-5.0078225 6.2662859 0
-5.3385453 6.6801195 0.47764078
-4.971828 6.2058554 -0.88632113
-4.9827824 6.2195292 -0.44513789
-5.0040045 6.2460189 0
-5.3449898 6.671638 0.47749576
-4.9809408 6.201858 -0.88660914
-4.9870367 6.2094483 -0.44484732
-5.0066576 6.2338786 0
-5.3497901 6.661119 0.47720522
-4.9673457 6.1696467 -0.88286161
-4.997798 6.2074695 -0.44513789
-5.0043969 6.2156653 0
-5.3676152 6.6667976 0.47807631
-4.9682989 6.1555891 -0.88170844
-4.9938693 6.1872702 -0.44412178
-5.0020933 6.1974592 0
-4.6674128 5.7827988 0.41508886
-0 0 -0
-4.9724765 6.1455564 -0.88113129
-5.0046139 6.1852756 -0.44441232
-5.0046654 6.185339 0
-0 0 0
-0 0 -0
-4.98316 6.1435647 -0.88170844
-5.0055366 6.1711516 -0.44383177
-5.0023022 6.1671643 0
-4.7059283 5.8017755 0.4172661
-0 0 -0
-4.9840527 6.1295123 -0.88055527
-5.0097075 6.1610627 -0.44354123
-5.0064697 6.1570807 0
-4.7162108 5.8001132 0.41755608
-0 0 -0
-4.9914556 6.1234856 -0.88055527
-5.0220752 6.1610494 -0.44397676
-5.0056791 6.1409349 0
-4.7133684 5.78233 0.41668552
-4.9923043 6.1094384 -0.8794021
-5.0229392 6.1469283 -0.44339621
-5.0098052 6.1308556 0
-4.7071981 5.7605338 0.41552442
-4.9931269 6.0953979 -0.87824893
-5.0237765 6.1328139 -0.44281566
-5.0089655 6.1147332 0
-7.7915249 9.5115643 0.68677598
-5.0004883 6.0893607 -0.87824893
-5.0278883 6.1227269 -0.44252566
-5.0163503 6.1086764 0
-7.7980633 9.4961166 0.68634045
-4.997982 6.0713363 -0.87651974
-5.0286765 6.1086226 -0.44194511
-5.0088429 6.0845294 0
-7.7930202 9.46663 0.68488932
-5.0036635 6.063292 -0.8762306
-5.032743 6.0985298 -0.44165453
-5.006249 6.0664253 0
-7.7978373 9.4491901 0.68430877
-0 0 -0
-4.9994502 6.0432973 -0.8742134
-5.0318284 6.0824356 -0.440929
-5.0135756 6.0603719 0
-7.7993083 9.4277439 0.68343765
-0 0 -0
-5.0001445 6.0292883 -0.87306023
-5.0308819 6.0663524 -0.44020343
-5.0092702 6.0402923 0
-7.7974243 9.4023123 0.68227655
-0 0 -0
-5.0031071 6.0032768 -0.87104189
-5.0322189 6.038208 -0.4390423
-5.0138526 6.01617 0
-7.7968364 9.3554993 0.68024486
-5.0053811 5.9912705 -0.87017673
-5.0328474 6.0241466 -0.43846175
-5.0144439 6.0021186 0
-7.7964716 9.3321114 0.67922878
-5.0040259 5.9822993 -0.8693127
-5.0314827 6.0151238 -0.43802619
-5.0113902 5.9911032 0
-7.7954459 9.3194342 0.67864877
-5.0062633 5.9703007 -0.86844754
-5.0287328 5.997097 -0.43715563
-5.0102663 5.9750743 0
-7.7900019 9.2900934 0.6771971
-5.0034914 5.9523716 -0.86671835
-5.0259404 5.9790783 -0.43628451
-5.0074377 5.957067 0
-7.791193 9.2687435 0.67632651
-5.0056782 5.9403858 -0.86585319
-5.0314884 5.9710159 -0.43613952
-5.0028915 5.937079 0
-7.7973619 9.2533598 0.67589098
-5.0011673 5.9205003 -0.86383486
-5.0336676 5.9589748 -0.43570396
-5.0100617 5.9310298 0
-7.7984796 9.2320251 0.6750204
-4.9966221 5.9006414 -0.86181766
-5.040864 5.9528885 -0.43570396
-5.0071368 5.9130592 0
-7.7995505 9.2106934 0.67414927
-4.9970527 5.8867126 -0.86066449
-5.0396471 5.9368901 -0.4349784
-5.0109062 5.9030328 0
-4.7133656 5.5525184 0.4068166
-4.997457 5.8727908 -0.85951132
-5.04177 5.9248652 -0.4345434
-5.0129738 5.8910255 0
-4.7268004 5.5547271 0.40739661
-4.9944749 5.8549376 -0.85778099
-5.0404887 5.9088788 -0.4338173
-5.0082703 5.87111 0
-4.7301393 5.5450616 0.40710661
-4.9931426 5.8390718 -0.85633981
-5.0273595 5.879086 -0.43207562
-5.0102849 5.8591185 0
-4.7402101 5.5432882 0.40739661
-4.9934607 5.8251791 -0.85518664
-5.0293913 5.8670945 -0.43164062
-5.0156689 5.8510861 0
-4.748601 5.539535 0.40754217
-4.9971275 5.8152218 -0.85461062
-5.0330863 5.8570676 -0.43135005
-5.0108604 5.831203 0
-4.7519007 5.5298481 0.4072516
-4.9990845 5.8032985 -0.85374546
-5.0384655 5.8490152 -0.43120506
-5.0111084 5.8172569 0
-4.7551904 5.5201683 0.40696162
-4.9976425 5.787468 -0.85230428
-5.0421362 5.8389931 -0.43091506
-5.0113301 5.8033185 0
-4.7652502 5.5183482 0.4072516
-4.9978604 5.7736025 -0.85115111
-5.045783 5.8289633 -0.43062449
-5.0030107 5.779552 0
-7.7887173 8.9976416 0.66471595
-4.9946589 5.7558346 -0.84942079
-5.0391984 5.8071618 -0.42946339
-5.0116944 5.7754664 0
-7.7859592 8.9725237 0.66355479
-4.9982181 5.7458959 -0.84884477
-5.029161 5.7814674 -0.42801225
-5.0084243 5.7576289 0
-7.7950912 8.9611502 0.66340983
-4.9932566 5.7262049 -0.84682643
-5.027606 5.7655964 -0.42728671
-5.0119534 5.7476463 0
-7.7939572 8.938014 0.66239369
-4.9967704 5.7162762 -0.84625041
-5.0294366 5.7536459 -0.42685115
-5.0034809 5.7239532 0
-7.789362 8.910984 0.66108757
-4.990037 5.6946721 -0.84394407
-5.0363851 5.7475648 -0.42685115
-5.0155411 5.7237773 0
-7.7984128 8.8996134 0.66094255
-4.9934764 5.6916561 -0.84394407
-5.0381446 5.7425694 -0.42670617
-5.0087032 5.7090116 0
-5.5572829 6.3342929 0.47067463
-0 0 -0
-4.9935179 5.6778493 -0.8427909
-5.0399299 5.7306223 -0.4262706
-5.0052824 5.6912265 0
-5.5580688 6.3197689 0.47009405
-0 0 -0
-4.9935327 5.6640511 -0.84163773
-5.043417 5.720634 -0.4259806
-5.0087166 5.6812739 0
-5.5691342 6.3169427 0.47038406
-0 0 -0
-4.9952331 5.6521969 -0.84077257
-5.0296769 5.6911712 -0.42423892
-5.0035119 5.6615653 0
-4.847209 5.4847054 0.40884829
-0 0 -0
-4.9969182 5.6403546 -0.83990854
-5.0244865 5.671473 -0.42322281
-4.9999981 5.6438308 0
-4.8727818 5.5002337 0.41044441
-0 0 -0
-4.9985757 5.628509 -0.83904338
-5.0175323 5.6498547 -0.42206168
-5.0068135 5.6377854 0
-5.4643235 6.1529517 0.45964459
-0 0 -0
-4.9984937 5.614738 -0.83789021
-5.0174441 5.6360245 -0.42148113
-5.0067005 5.6239562 0
-5.4527469 6.1249938 0.45804793
-0 0 -0
-4.9932175 5.5951838 -0.83587188
-5.0138731 5.6183295 -0.42061058
-5.0030918 5.6062484 0
-5.4687924 6.1280923 0.45877346
-0 0 -0
-4.991354 5.5795097 -0.83443069
-5.0137281 5.6045203 -0.42003003
-5.0046616 5.5943856 0
-5.4727316 6.1176105 0.45848346
-0 0 -0
-4.9929099 5.5676956 -0.83356553
-5.0118241 5.5887876 -0.41930446
-5.0114179 5.5883346 0
-5.4749136 6.1051879 0.45804793
-0 0 -0
-4.994451 5.5558939 -0.8327015
-5.020309 5.5846581 -0.41944945
-5.0181665 5.5822749 0
-5.4788156 6.094707 0.45775792
-0 0 -0
-4.9994245 5.5479279 -0.83241236
-5.0148754 5.565074 -0.41843334
-5.016192 5.566535 0
-5.4826932 6.084218 0.45746735
-0 0 -0
-4.9939928 5.5284534 -0.83039516
-5.021596 5.5590105 -0.41843334
-4.9984941 5.5334368 0
-5.4935279 6.081449 0.45775792
-0 0 -0
-4.9989347 5.5204997 -0.83010715
-5.0178475 5.5413857 -0.41756278
-5.005177 5.5273929 0
-5.5340056 6.1113973 0.46051514
-0 0 -0
-5.0056014 5.5144553 -0.83010715
-5.0175538 5.5276227 -0.41698223
-5.0101042 5.5194159 0
-5.5833015 6.1508822 0.4639985
-0 0 -0
-4.9948502 5.4892688 -0.82722366
-5.018981 5.5157886 -0.41654667
-5.0115137 5.5075817 0
-5.6222043 6.1787219 0.46661073
-0 0 -0
-4.9997382 5.4813204 -0.82693565
-5.0168886 5.5001225 -0.41582111
-5.0076451 5.4899893 0
-5.6384196 6.1815209 0.46733627
-0 0 -0
-5.0011196 5.4695468 -0.82607049
-5.0147653 5.4844704 -0.41509554
-5.0142751 5.4839344 0
-5.6511469 6.1804585 0.46777183
-0 0 -0
-5.0077248 5.4635 -0.82607049
-5.0196342 5.4764934 -0.41495055
-5.0103436 5.4663568 0
-5.6463189 6.1602149 0.46675572
-0 0 -0
-5.0005355 5.4490433 -0.8243413
-5.0176697 5.4677143 -0.41451499
-5.0013328 5.4499121 0
-5.6289563 6.1338286 0.46501404
-0 0 -0
-4.9948564 5.4296703 -0.82232296
-5.0242724 5.4616475 -0.41451499
-5.0096745 5.4457784 0
-5.6047015 6.0926042 0.46240181
-0 0 -0
-4.9961581 5.4179325 -0.82145894
-5.0326281 5.4574809 -0.41466001
-5.0091939 5.4320683 0
-7.7645283 8.4200077 0.63975304
-0 0 -0
-4.9956784 5.404294 -0.82030576
-5.0374565 5.4494901 -0.41451499
-5.0069227 5.4164581 0
-7.7729344 8.4087133 0.63960803
-0 0 -0
-4.9969287 5.3925605 -0.8194406
-5.0387373 5.4376793 -0.41407943
-5.004621 5.4008617 0
-7.76896 8.3840675 0.63844693
-0 0 -0
-4.9963999 5.3789387 -0.81828743
-5.0311565 5.4163566 -0.41291833
-5.0129128 5.3967156 0
-7.7720108 8.3670588 0.63786638
-0 0 -0
-4.9905558 5.3596449 -0.8162691
-5.0306149 5.4026666 -0.41233775
-5.0141077 5.3849387 0
-7.7785773 8.3538618 0.6375764
-0 0 -0
-4.9917388 5.3479443 -0.81540507
-5.0140915 5.3718915 -0.41045108
-5.0117335 5.3693652 0
-7.7762527 8.3311577 0.63656026
-0 0 -0
-4.9911284 5.3343539 -0.8142519
-5.018805 5.3639336 -0.4103061
-5.0075455 5.3519001 0
-7.7827597 8.3179569 0.63626969
-0 0 -0
-4.9940281 5.3245425 -0.81367475
-5.0270586 5.3597589 -0.41045108
-5.0015512 5.3325634 0
-7.7821422 8.2971792 0.63539916
-0 0 -0
-4.9933715 5.310967 -0.81252158
-5.0353093 5.3555722 -0.41059607
-5.0079908 5.3265162 0
-7.781486 8.2764149 0.63452858
-0 0 -0
-4.9926891 5.2974005 -0.81136841
-5.0435638 5.3513803 -0.41074166
-5.01085 5.3166695 0
-7.7754426 8.2499895 0.63322246
-0 0 -0
-4.9919815 5.2838435 -0.81021523
-5.0411057 5.3358402 -0.41001609
-5.0047646 5.2973742 0
-7.7746954 8.2292519 0.63235134
-0 0 -0
-4.9912481 5.2702961 -0.80906206
-5.0439725 5.3259683 -0.40972552
-5.0129495 5.293211 0
-5.5834665 5.8956237 0.453549
-0 0 -0
-4.9993982 5.2661424 -0.80935121
-5.0307231 5.2991385 -0.40812886
-4.99963 5.2663865 0
-5.5834298 5.8813348 0.45296845
-0 0 -0
-4.9897051 5.2432294 -0.80675572
-5.029964 5.2855339 -0.40754884
-5.0077891 5.2622323 0
-5.5762019 5.8595257 0.45180732
-0 0 -0
-5.0013947 5.2428126 -0.80762088
-5.0327563 5.2756882 -0.4072583
-5.012342 5.2542887 0
-7.7659564 8.1408205 0.62843299
-0 0 -0
-4.9987898 5.2274208 -0.8061797
-5.0337381 5.2639675 -0.40682274
-5.0078988 5.2369466 0
-7.7775817 8.1333075 0.62857801
-0 0 -0
-4.9943666 5.2101774 -0.80445051
-5.0400949 5.2578816 -0.40682274
-5.0142231 5.2308917 0
-7.7784142 8.1145258 0.62785244
-0 0 -0
-5.0006585 5.2041388 -0.80445051
-5.0500484 5.2555385 -0.40711328
-5.0133271 5.2173228 0
-7.7810121 8.0976267 0.62727189
-0 0 -0
-4.9997659 5.1906414 -0.80329734
-5.0419741 5.2344608 -0.40595219
-5.010602 5.2018914 0
-7.7781706 8.0751171 0.62625575
-0 0 -0
-4.995719 5.1801729 -0.80214417
-5.0343161 5.2201953 -0.40508163
-5.0029006 5.1876197 0
-7.7668152 8.0535851 0.62494963
-0 0 -0
-4.9938231 5.1532254 -0.79983783
-5.0234036 5.1837502 -0.4031944
-5.0081782 5.1680388 0
-7.7735953 8.0217285 0.62393355
-0 0 -0
-4.9946375 5.1416202 -0.79897267
-5.0224214 5.1702213 -0.40261385
-5.0071654 5.1545167 0
-7.7687979 7.9974189 0.62277246
-0 0 -0
-4.993629 5.1281691 -0.7978195
-5.0322938 5.1678758 -0.40290439
-5.0025001 5.137279 0
-7.7675824 7.9768596 0.62190187
-0 0 -0
-4.9944 5.1165771 -0.79695433
-5.0312743 5.1543536 -0.40232384
-5.0014324 5.1237817 0
-7.7735887 7.9637527 0.62161189
-0 0 -0
-4.9915357 5.1012969 -0.79551315
-5.0465837 5.1575551 -0.40304938
-5.0112634 5.1214585 0
-7.7795672 7.9506359 0.62132132
-4.9922676 5.0897279 -0.79464912
-5.0455337 5.1440334 -0.40246883
-5.0156202 5.1135364 0
-7.7764301 7.9282432 0.62030518
-4.9947839 5.0799994 -0.79407197
-5.0353513 5.1212592 -0.40116271
-5.0035529 5.0889182 0
-7.7787237 7.9114366 0.61972523
-4.9900279 5.0629115 -0.79234278
-5.0287657 5.1022148 -0.4001466
-5.0133481 5.0865722 0
-7.7773299 7.8909245 0.61885411
-4.9906869 5.0513568 -0.79147762
-5.0203242 5.0813546 -0.39898604
-5.0103469 5.0712562 0
-7.7686 7.86304 0.61740297
-4.9986048 5.0471587 -0.79176563
-5.0246267 5.0734329 -0.39884049
-5.0091457 5.0578017 0
-7.7707815 7.8462625 0.61682242
-4.9955902 5.0319395 -0.79032445
-5.0252662 5.0618315 -0.39840549
-5.0060873 5.0425129 0
-7.7674398 7.8239574 0.61580628
-4.9943686 5.0185661 -0.78917128
-5.0240469 5.0483885 -0.39782494
-5.0121765 5.0364604 0
-7.7713871 7.8090391 0.61537075
-4.9894724 5.0015445 -0.78744209
-5.0283031 5.0404692 -0.39767936
-5.0127425 5.0248713 0
-7.7679763 7.7867713 0.61435521
-4.9936776 4.9936776 -0.78715295
-5.02704 5.02704 -0.39709881
-5.0114498 5.0114498 0
-7.77003 7.77003 0.6137746
-4.9887247 4.9766836 -0.78542376
-5.0202389 5.0081215 -0.39608327
-5.0101385 4.9980454 0
-7.7720547 7.7532949 0.61319405
-4.9892325 4.9651766 -0.78455859
-5.0336537 5.0093837 -0.39666381
-5.0143242 4.9901471 0
-7.7611556 7.7237344 0.61159742
-4.9915609 4.9555035 -0.78398257
-5.0360112 4.9996328 -0.39637324
-5.0185046 4.9822526 0
-7.7557302 7.6997051 0.61043626
-4.993866 4.9458251 -0.78340542
-5.0494337 5.0008578 -0.39695382
-5.0152774 4.9670305 0
-7.7447248 7.6702204 0.60884017
-4.9943242 4.934339 -0.78254139
-5.0517793 4.9911041 -0.39666381
-5.0083146 4.9481611 0
-0 0 0
-4.998435 4.9264798 -0.78225225
-5.046699 4.9740491 -0.39579269
-5.0105863 4.9384561 0
-7.7391815 7.6277714 0.6069535
-4.9903545 4.9125757 -0.78052306
-5.0274892 4.9491315 -0.39405158
-5.0117159 4.9336038 0
-7.747488 7.6267366 0.60724348
-4.9962869 4.9065423 -0.78052306
-5.0204859 4.9303064 -0.39303547
-5.0102463 4.9202509 0
-7.7492819 7.6100874 0.60666293
-4.9929757 4.8914533 -0.77908188
-5.0152993 4.9133229 -0.39216435
-5.012466 4.9105473 0
-7.7473383 7.5898113 0.60579234
-4.9877801 4.8745661 -0.77735156
-5.0156627 4.9018159 -0.39172935
-5.0128102 4.8990283 0
-7.7453499 7.5695438 0.60492128
-4.9825583 4.8577061 -0.77562237
-5.0234404 4.8975639 -0.39187434
-5.0187259 4.8929677 0
-7.7396064 7.5456686 0.60376012
-4.9921288 4.8552852 -0.77619839
-5.0256329 4.8878708 -0.39158434
-5.0171719 4.879642 0
-7.7114706 7.5000844 0.60085791
-4.9887118 4.8402457 -0.77475721
-5.0389876 4.8890252 -0.39216435
-5.0062556 4.8572679 0
-7.6552529 7.4274297 0.59577787
-4.9834094 4.8234248 -0.77302802
-5.0448914 4.8829331 -0.39216435
-5.0121212 4.8512149 0
-7.610085 7.3657756 0.59156954
-4.9929519 4.8209896 -0.77360404
-5.0451851 4.8714242 -0.39172935
-5.016109 4.8433495 0
-7.6077604 7.3457417 0.59069842
-4.9894609 4.8059831 -0.77216285
-5.0342264 4.8491025 -0.39042324
-5.0163326 4.8318667 0
-7.6147609 7.334743 0.5905534
-4.9840775 4.7892017 -0.77043366
-5.0307083 4.8340092 -0.3896971
-5.0165429 4.8203974 0
-7.6236181 7.3255367 0.5905534
-4.989861 4.7831759 -0.77043366
-5.0290422 4.8207345 -0.38911656
-5.0167255 4.808928 0
-7.63059 7.3145232 0.59040844
-4.9881592 4.7699928 -0.76928049
-5.0217228 4.8020883 -0.38810101
-5.0187674 4.799262 0
-7.6394224 7.3052979 0.59040844
-4.9845638 4.7550373 -0.76783931
-5.0200009 4.7888427 -0.38752043
-5.018919 4.7878103 0
-7.6576428 7.305028 0.59113395
