# .PCD v0.7 - Point Cloud Data file format
VERSION 0.7
FIELDS x y z
SIZE 4 4 4
TYPE F F F
COUNT 1 1 1
WIDTH 1650
HEIGHT 1
VIEWPOINT 0 0 0 1 0 0 0
POINTS 1650
DATA ascii
-4.93507 -0.77552682 -0.5568192
-4.9927702 -0.78459418 -0.28229949
-4.9935384 -0.78471494 0
-7.8110175 -1.2274706 0.44164786
-0 -0 -0
-4.940743 -0.7825368 -0.83395982
-4.9417958 -0.78270358 -0.55768436
-4.9866905 -0.78981417 -0.28200948
-4.9745913 -0.78789783 0
-7.8121023 -1.2373154 0.44179341
-0 -0 -0
-4.944859 -0.78931469 -0.83481491
-4.9536147 -0.7907123 -0.55912554
-7.6362343 -1.2189208 -0.4319306
-4.9787803 -0.79472929 0
-7.8003378 -1.2451156 0.44121286
-0 -0 -0
-4.9489756 -0.79610515 -0.83567166
-4.9475532 -0.79587638 -0.55854952
-7.6347556 -1.2281469 -0.4319306
-4.9752398 -0.8003301 0
-7.8142152 -1.2570152 0.44208342
-0 -0 -0
-4.9454784 -0.80167407 -0.83524412
-4.9389262 -0.80061197 -0.55768436
-7.6307039 -1.2369556 -0.43178561
-4.9871211 -0.80842447 0
-7.8075657 -1.2656255 0.44179341
-0 -0 -0
-4.9495683 -0.80847603 -0.83609927
-4.9379549 -0.80657911 -0.55768436
-7.6266418 -1.2457565 -0.43164062
-4.9861407 -0.81444985 0
-7.8060308 -1.2750585 0.44179341
-0 -0 -0
-4.9435263 -0.81362301 -0.83524412
-4.9420862 -0.81338596 -0.55826151
-7.6148748 -1.253283 -0.43106005
-4.9851527 -0.82047403 0
-7.8096075 -1.2853328 0.44208342
-0 -0 -0
-4.9400001 -0.81917459 -0.83481491
-4.9206867 -0.81597191 -0.55595517
-7.6159163 -1.2629079 -0.43120506
-4.9867229 -0.82692236 0
-7.8131709 -1.2956176 0.44237339
-0 -0 -0
-4.9344444 -0.82131678 -0.83395982
-4.9482503 -0.82361472 -0.55912554
-4.9828944 -0.82938099 -0.28215447
-4.9939165 -0.83121562 0
-7.7995729 -1.2982049 0.44164786
-0 -0 -0
-4.9334488 -0.82727849 -0.83395982
-4.9166412 -0.82446009 -0.55566603
-0 -0 -0
-4.9980469 -0.8381108 0
-7.7979989 -1.3076283 0.44164786
-0 -0 -0
-4.9400415 -0.83452219 -0.83524412
-4.9436979 -0.83513987 -0.55883753
-0 -0 -0
-4.9970303 -0.84414935 0
-7.7989826 -1.3174837 0.44179341
-0 -0 -0
-4.9390297 -0.84049064 -0.83524412
-4.9528842 -0.84284842 -0.5599907
-0 -0 -0
-4.9857445 -0.84844029 0
-7.7922568 -1.3260336 0.44150284
-0 -0 -0
-4.9455934 -0.84775782 -0.83652681
-4.9467587 -0.84795755 -0.55941355
-0 -0 -0
-4.9821529 -0.85402465 0
-7.7906489 -1.335448 0.44150284
-0 -0 -0
-4.9420385 -0.85329658 -0.83609927
-2.6697989 -0.46096978 -0.30198202
-0 -0 -0
-4.9913754 -0.86181521 0
-5.3540602 -0.92443663 0.30348232
-2.9484842 -0.51275748 -0.98679852
-4.9410038 -0.85926747 -0.83609927
-2.7049201 -0.47040036 -0.30601865
-0 -0 -0
-4.9851975 -0.86695302 0
-5.3683043 -0.93357736 0.30435345
-2.9868152 -0.52314234 -0.99983799
-4.9424882 -0.86567956 -0.83652681
-2.7374673 -0.47946894 -0.30976617
-0 -0 -0
-4.9841466 -0.87297601 0
-5.3799672 -0.94230425 0.30507898
-2.9594042 -0.52202767 -0.99087256
-4.9338617 -0.87031442 -0.83524412
-2.6884875 -0.47423899 -0.30428836
-0 -0 -0
-4.9779668 -0.87809443 0
-5.3685889 -0.94699866 0.30449843
-2.9247069 -0.51955187 -0.97946465
-4.9302716 -0.87582511 -0.83481491
-2.6599071 -0.47251222 -0.30111796
-4.9863701 -0.88579053 -0.28288004
-4.9717727 -0.88319743 0
-5.3597631 -0.95212096 0.30406287
-2.9654353 -0.53048396 -0.99331826
-4.9266853 -0.88133013 -0.83438736
-2.7102458 -0.48483336 -0.30688271
-7.6222987 -1.3635459 -0.43251118
-4.9194751 -0.88004029 0
-5.3560534 -0.95813936 0.30391788
-2.9234428 -0.52661818 -0.97946465
-4.9281406 -0.8877371 -0.83481491
-2.7096581 -0.4881078 -0.30688271
-0 -0 -0
-5.7558985 -1.0368464 0
-5.3548918 -0.96461046 0.30391788
-2.9033489 -0.52662134 -0.97294492
-4.9371676 -0.89552373 -0.83652681
-2.6912589 -0.48815155 -0.30486548
-0 -0 -0
-5.803288 -1.0526241 0
-5.3562765 -0.97154337 0.30406287
-0 -0 -0
-4.9335594 -0.90102792 -0.83609927
-2.7186482 -0.49651331 -0.30803588
-0 -0 -0
-5.807137 -1.0605716 0
-5.3550987 -0.97801465 0.30406287
-2.9458277 -0.54168266 -0.98761588
-4.9349895 -0.90745229 -0.83652681
-0 -0 -0
-0 -0 -0
-5.8160896 -1.0694702 0
-5.3692417 -0.9873032 0.30493343
-0 -0 -0
-4.9389424 -0.91435009 -0.83738357
-0 -0 -0
-7.6215897 -1.4109906 -0.43294674
-4.9294176 -0.91258681 0
-5.3629398 -0.99284506 0.30464342
-2.9278286 -0.54386079 -0.98191029
-4.9409103 -0.91780221 -0.83781111
-0 -0 -0
-4.9690404 -0.92302746 -0.28229949
-4.9902749 -0.92697191 0
-5.3700056 -0.99750906 0.30507898
-2.8858702 -0.53967494 -0.96805668
-4.9397979 -0.92377162 -0.83781111
-0 -0 -0
-4.9602661 -0.92759931 -0.28186449
-0 -0 0
-7.7900238 -1.4567809 0.44266397
-0 -0 -0
-4.9336376 -0.92879081 -0.83695602
-0 -0 -0
-4.9642439 -0.93455273 -0.28215447
-0 -0 0
-7.7984724 -1.4681154 0.44324452
-2.8869839 -0.54710716 -0.96887088
-4.9249425 -0.93331707 -0.83567166
-0 -0 -0
-4.9656615 -0.94103372 -0.28229949
-4.9894366 -0.94553924 0
-7.7864809 -1.475602 0.44266397
-0 -0 -0
-4.9288497 -0.94022834 -0.83652681
-0 -0 -0
-4.956871 -0.94557375 -0.28186449
-4.9831729 -0.95059103 0
-7.7872419 -1.4854959 0.44280896
-0 -0 -0
-4.9277101 -0.9461832 -0.83652681
-4.9339561 -0.94738257 -0.5599907
-4.9582744 -0.952052 -0.28200948
-4.9743605 -0.95514071 0
-7.7803426 -1.4939251 0.44251895
-0 -0 -0
-4.9215269 -0.95116341 -0.83567166
-4.9353447 -0.95383394 -0.56027871
-4.9596691 -0.95853496 -0.28215447
-4.9680872 -0.96016192 0
-7.7377119 -1.495436 0.44019672
-0 -0 -0
-4.932971 -0.95955974 -0.83781111
-4.9367251 -0.96029001 -0.56056672
-4.9585075 -0.96452707 -0.28215447
-4.9745898 -0.96765542 0
-7.7358994 -1.5047843 0.44019672
-2.8496726 -0.55789167 -0.95746291
-4.931808 -0.96551961 -0.83781111
-4.9330254 -0.96575797 -0.56027871
-4.9624434 -0.97151721 -0.28244504
-4.9708652 -0.97316599 0
-7.7468233 -1.5166264 0.44092229
-2.9047639 -0.57232237 -0.97620475
-4.9432287 -0.97395873 -0.83995056
-4.9369354 -0.97271878 -0.56085587
-4.9638128 -0.97801447 -0.28259003
-4.969686 -0.97917163 0
-7.7449851 -1.5259857 0.44092229
-0 -0 -0
-4.9344916 -0.9784326 -0.8386662
-4.9357562 -0.97868341 -0.56085587
-7.5801382 -1.503023 -0.43164062
-7.7075038 -1.5282776 0
-7.7482381 -1.5363547 0.44121286
-2.8524745 -0.56918418 -0.95909131
-4.9383454 -0.9853999 -0.83952296
-4.9269581 -0.98312771 -0.5599907
-7.5885091 -1.5142149 -0.43222117
-7.7133107 -1.5391178 0
-7.746376 -1.5457158 0.44121286
-0 -0 -0
-2.2206144 -0.4458932 -0.50175148
-4.9295983 -0.98984963 -0.83823866
-4.9282999 -0.98958898 -0.56027871
-7.5917645 -1.5244051 -0.43251118
-7.7191024 -1.5499743 0
-7.7495933 -1.5560968 0.44150284
-2.7953768 -0.56481856 -0.94034946
-2.2449751 -0.45360741 -0.50737923
-4.9258847 -0.99529743 -0.83781111
-4.9271007 -0.99554312 -0.56027871
-7.5975604 -1.5351216 -0.43294674
-7.7172241 -1.5593002 0
-7.7451625 -1.5649453 0.44135785
-2.8673491 -0.58296794 -0.96479684
-2.3191192 -0.47150591 -0.52426475
-4.9246783 -1.0012487 -0.83781111
-4.9335008 -1.0030423 -0.56114388
-7.5931559 -1.5437834 -0.43280172
-7.7025852 -1.5660317 0
-7.7381687 -1.5732663 0.44106728
-2.8061087 -0.57404858 -0.9444235
-2.2812147 -0.46667051 -0.51582307
-4.9435849 -1.0113144 -0.84123486
-4.9297533 -1.0084848 -0.56085587
-7.5887318 -1.5524349 -0.43265617
-7.6955829 -1.5742935 0
-7.7439017 -1.5841781 0.44150284
-0 -0 -0
-2.268208 -0.46686578 -0.51300919
-4.9448714 -1.017804 -0.84166241
-4.9310622 -1.0149617 -0.56114388
-7.5995836 -1.564224 -0.43338227
-5.0325904 -1.0358592 0
-7.739439 -1.5930105 0.44135785
-0 -0 -0
-2.2800803 -0.47218195 -0.51582307
-4.9411268 -1.0232581 -0.84123486
-4.9298325 -1.0209192 -0.56114388
-4.9643049 -1.0280582 -0.28317061
-4.9829221 -1.0319135 0
-7.7425928 -1.6034138 0.44164786
-2.6954663 -0.55990279 -0.90775084
-2.2972116 -0.47717723 -0.51976383
-0 -0 -0
-4.9292145 -1.0238974 -0.56114388
-4.9662247 -1.0315851 -0.2833156
-4.9848433 -1.0354526 0
-7.7390809 -1.6075633 0.44150284
-0 -0 -0
-2.2692721 -0.47423464 -0.51357156
-4.9392638 -1.032212 -0.84123486
-4.9330325 -1.0309098 -0.56171989
-0 -0 -0
-4.9733987 -1.0393456 0
-7.7345915 -1.6163822 0.44135785
-2.7932708 -0.58726382 -0.9411636
-2.2662134 -0.47645399 -0.51300919
-0 -0 -0
-4.9267259 -1.0358063 -0.56114388
-4.9510055 -1.040911 -0.28259003
-4.9797821 -1.0469611 0
-7.7351732 -1.6262609 0.44150284
-2.6208804 -0.55432767 -0.8833034
-2.2631428 -0.47866461 -0.51244467
-0 -0 -0
-4.9330645 -1.0433648 -0.56200904
-4.9497437 -1.0468925 -0.28259003
-4.9759698 -1.0524393 0
-7.7382917 -1.6366826 0.44179341
-2.6105387 -0.55543661 -0.88004357
-2.2451732 -0.47769886 -0.50850612
-0 -0 -0
-4.9242082 -1.0477093 -0.56114388
-4.9510145 -1.0534128 -0.28273505
-4.9797807 -1.0595332 0
-7.7363086 -1.6460316 0.44179341
-2.6726995 -0.57203889 -0.90123111
-2.2644713 -0.48466566 -0.51300919
-0 -0 -0
-4.9229388 -1.0536585 -0.56114388
-4.9573631 -1.0610263 -0.28317061
-4.9759545 -1.0650054 0
-7.7470164 -1.6580969 0.44251895
-2.6744297 -0.57578963 -0.90204841
-2.2763016 -0.4900749 -0.51582307
-0 -0 -0
-4.9216619 -1.0596061 -0.56114388
-4.9560776 -1.0670155 -0.28317061
-4.9746637 -1.0710171 0
-7.7577057 -1.6701903 0.44324452
-2.668896 -0.57797348 -0.90041691
-2.2632935 -0.49013659 -0.51300919
-0 -0 -0
-4.9330153 -1.0682888 -0.56258506
-4.9573216 -1.0735527 -0.2833156
-4.9759073 -1.0775776 0
-7.7633033 -1.6812133 0.44368008
-2.6126583 -0.5691005 -0.88167506
-2.2726302 -0.49503413 -0.51526076
-0 -0 -0
-4.926671 -1.0731487 -0.56200904
-4.9585576 -1.0800943 -0.28346059
-4.9695206 -1.0824825 0
-7.776495 -1.6939096 0.44455063
-2.708533 -0.59341323 -0.91427052
-2.2769897 -0.49886632 -0.51638544
-0 -0 -0
-4.9278951 -1.0796539 -0.56229705
-4.9547129 -1.0855294 -0.2833156
-7.7543154 -1.6988952 0
-7.7795138 -1.7044159 0.44484064
-2.6250517 -0.58177513 -0.8865633
-2.268333 -0.50271761 -0.51469624
-4.9439774 -1.0957053 -0.84423101
-4.9252715 -1.0915595 -0.56229705
-4.9495406 -1.0969381 -0.28317061
-7.7501874 -1.7176293 0
-7.7829857 -1.7248982 0.4452762
-2.7425525 -0.61129367 -0.92649579
-2.2503707 -0.50159019 -0.51075763
-0 -0 -0
-4.9214268 -1.0969478 -0.56200904
-4.9507456 -1.1034827 -0.2833156
-7.7481065 -1.7269927 0
-7.7859731 -1.7354329 0.44556674
-2.6260476 -0.5886572 -0.88737744
-2.2720752 -0.50931042 -0.51582307
-0 -0 -0
-4.9200978 -1.1028936 -0.56200904
-4.9468756 -1.1088961 -0.28317061
-7.7561717 -1.7386305 0
-7.7787943 -1.7437016 0.4452762
-2.6687388 -0.60161453 -0.90204841
-2.4652956 -0.55575228 -0.6972363
-2.2788966 -0.51373225 -0.51751226
-0 -0 -0
-4.9187617 -1.1088377 -0.56200904
-4.9455318 -1.1148726 -0.28317061
-7.7489829 -1.7468553 0
-7.7665424 -1.7508137 0.44469565
-2.66801 -0.60483873 -0.90204841
-2.5037694 -0.56760532 -0.7083109
-2.2510135 -0.51030546 -0.51131999
-0 -0 -0
-4.9224582 -1.1159229 -0.56258506
-4.944181 -1.1208475 -0.28317061
-7.7316427 -1.7527659 0
-7.7618895 -1.7596229 0.44455063
-2.6576381 -0.60586464 -0.89878857
-2.456605 -0.56003493 -0.69515914
-2.2627795 -0.51584828 -0.51413387
-4.9347577 -1.124982 -0.84380186
-4.9236255 -1.1224443 -0.56287307
-4.9504261 -1.128554 -0.28360617
-4.9486752 -1.1281549 0
-7.7673607 -1.7707336 0.44498619
-2.5849929 -0.59094673 -0.87434113
-2.4733884 -0.5654332 -0.70000494
-2.2624674 -0.51721525 -0.51413387
-4.944087 -1.1302515 -0.8455137
-4.9254751 -1.1259967 -0.56316221
-4.9522738 -1.1321231 -0.28375116
-4.975893 -1.1375226 0
-7.7865539 -1.7800586 0.44614732
-0 -0 -0
-2.4604807 -0.56561166 -0.69654483
-2.2519357 -0.51767164 -0.51188236
-4.9402184 -1.13565 -0.84508616
-4.9291477 -1.1331052 -0.56373823
-4.9559622 -1.1392694 -0.28404117
-4.9694471 -1.1423692 0
-7.7793279 -1.7883004 0.44585675
-0 -0 -0
-2.4671214 -0.57027763 -0.69861931
-2.2537818 -0.52096397 -0.51244467
-0 -0 -0
-4.9277749 -1.1390603 -0.56373823
-4.9520531 -1.1446722 -0.28389615
-4.9655299 -1.1477875 0
-7.7721028 -1.7965297 0.44556674
-0 -0 -0
-2.4297831 -0.56474048 -0.68823886
-2.2556326 -0.52426374 -0.51300919
-0 -0 -0
-4.9263949 -1.1450137 -0.56373823
-4.9481378 -1.1500672 -0.28375116
-4.9742694 -1.1561409 0
-7.7648597 -1.8047417 0.4452762
-0 -0 -0
-2.3997836 -0.56082505 -0.67993289
-2.27231 -0.53103477 -0.51694775
-4.9410734 -1.1547199 -0.84594291
-4.922492 -1.1503774 -0.56345022
-4.9467444 -1.1560452 -0.28375116
-4.9627419 -1.1597838 0
-7.7677388 -1.8153064 0.44556674
-0 -0 -0
-2.433291 -0.57175732 -0.68962187
-2.2642534 -0.53203803 -0.51526076
-0 -0 -0
-4.9160576 -1.15514 -0.56287307
-4.9478712 -1.1626153 -0.28389615
-4.9638677 -1.1663742 0
-7.7655396 -1.8246909 0.44556674
-0 -0 -0
-2.395982 -0.56604654 -0.67924142
-2.2413557 -0.52951628 -0.51019531
-0 -0 -0
-4.9196973 -1.1622698 -0.56345022
-4.9439363 -1.1679962 -0.28375116
-4.9624548 -1.1723711 0
-7.7734447 -1.8364625 0.44614732
-0 -0 -0
-2.4050598 -0.57126021 -0.68201005
-2.2753191 -0.54044366 -0.51807463
-0 -0 -0
-4.9208035 -1.1688106 -0.56373823
-4.9197707 -1.1685653 -0.28244504
-4.976222 -1.1819739 0
-7.7611074 -1.8434519 0.44556674
-0 -0 -0
-2.4336495 -0.5811584 -0.69031602
-2.2450075 -0.53611046 -0.51131999
-4.9329309 -1.1779897 -0.8455137
-4.9193878 -1.1747556 -0.56373823
-4.9360394 -1.178732 -0.28346059
-4.9570785 -1.1837561 0
-7.7639241 -1.8540342 0.44585675
-0 -0 -0
-2.4426939 -0.58643895 -0.69308197
-2.2468264 -0.5394153 -0.51188236
-0 -0 -0
-4.9255118 -1.1825109 -0.56460339
-4.9346118 -1.1846955 -0.28346059
-4.9556446 -1.1897449 0
-7.7465229 -1.8597757 0.44498619
-0 -0 -0
-2.4785671 -0.59821975 -0.7034651
-2.2387702 -0.54034305 -0.51019531
-4.9275765 -1.1893055 -0.84508616
-4.9240794 -1.1884614 -0.56460339
-4.9432802 -1.1930957 -0.28404117
-4.9542031 -1.195732 0
-7.7518406 -1.8709617 0.44542119
-0 -0 -0
-2.4217749 -0.58761013 -0.68754739
-2.2479832 -0.54544199 -0.51244467
-4.9410992 -1.1988893 -0.84765315
-4.9226398 -1.1944104 -0.56460339
-4.9443579 -1.19968 -0.28418615
-4.952755 -1.2017174 0
-7.7445288 -1.8791026 0.44513118
-0 -0 -0
-2.4308124 -0.59291393 -0.69031602
-2.2473226 -0.54815781 -0.51244467
-0 -0 -0
-4.9237037 -1.2009699 -0.5648914
-4.9454365 -1.2062708 -0.28433171
-4.9512992 -1.2077008 0
-7.7472968 -1.8896893 0.44542119
-2.6690042 -0.65443057 -0.90612245
-2.4666359 -0.6048106 -0.70069641
-2.2293911 -0.54663897 -0.50850612
-0 -0 -0
-4.9247584 -1.2075337 -0.56517941
-4.9389229 -1.2110068 -0.28404117
-4.9574118 -1.2155402 0
-7.7273493 -1.8947192 0.44440565
-2.8025904 -0.69077647 -0.95175737
-2.4415493 -0.60178787 -0.69377613
-2.2484655 -0.55419695 -0.51300919
-4.9392204 -1.2174085 -0.8480823
-4.923296 -1.2134835 -0.56517941
-4.9298944 -1.2151098 -0.28360617
-4.9559393 -1.2215294 0
-5.0281658 -1.2393316 0.28925949
-2.6674149 -0.6608786 -0.90612245
-2.4310799 -0.60232425 -0.69100749
-2.2477942 -0.55691338 -0.51300919
-0 -0 -0
-4.9168096 -1.2181885 -0.56460339
-4.9309425 -1.2216901 -0.28375116
-4.959517 -1.2287697 0
-5.0039673 -1.2397827 0.28795338
-2.7625391 -0.68799055 -0.93871796
-2.4327824 -0.60586697 -0.69169903
-2.244647 -0.55901319 -0.51244467
-0 -0 -0
-4.9153342 -1.2241287 -0.56460339
-4.9370198 -1.2295293 -0.28418615
-4.9630747 -1.2360181 0
-4.9848132 -1.241432 0.28693727
-2.6350412 -0.65792906 -0.89552867
-2.432416 -0.60733664 -0.69169903
-2.239383 -0.55913931 -0.51131999
-0 -0 -0
-4.9145937 -1.2270981 -0.56460339
-4.936276 -1.2325118 -0.28418615
-4.9598045 -1.2383864 0
-4.9588566 -1.2381498 0.28548613
-2.6582124 -0.66712773 -0.90367675
-2.4779062 -0.62187654 -0.70484805
-2.2584217 -0.56679285 -0.51582307
-4.9265561 -1.2364106 -0.846798
-4.9131074 -1.2330354 -0.56460339
-4.9398284 -1.2397417 -0.28447673
-4.9456859 -1.2412117 0
-0 -0 0
-2.698143 -0.68061566 -0.91753042
-2.4309411 -0.61321306 -0.69169903
-2.2552738 -0.56890041 -0.51526076
-4.9300318 -1.2436171 -0.84765315
-4.9141192 -1.2396032 -0.5648914
-4.9181709 -1.2406251 -0.2833156
-4.9265156 -1.2427301 0
-4.9608841 -1.2513996 0.28577614
-2.6757588 -0.67840904 -0.91019648
-2.4642394 -0.6247806 -0.70138794
-2.2348809 -0.56662935 -0.51075763
-4.9160862 -1.2464193 -0.8455137
-4.9201417 -1.2474476 -0.56575656
-4.9141517 -1.2459289 -0.28317061
-4.935101 -1.2512404 0
-4.961885 -1.258031 0.28592113
-2.715651 -0.6920166 -0.92405015
-2.4148703 -0.61537009 -0.68754739
-2.2514231 -0.57371956 -0.51469624
-4.9096065 -1.251092 -0.84465861
-4.8985801 -1.2482822 -0.56345022
-4.9050865 -1.2499402 -0.28273505
-4.9184589 -1.2533479 0
-4.960361 -1.2640256 0.28592113
-2.6789048 -0.68610096 -0.91182798
-2.4092598 -0.61704147 -0.6861617
-2.2359643 -0.57265836 -0.51131999
-4.9006281 -1.2551121 -0.84337425
-4.8995714 -1.2548413 -0.56373823
-4.8909888 -1.2526433 -0.28200948
-4.9194598 -1.259935 0
-4.9638696 -1.2713089 0.2862117
-2.745085 -0.70658606 -0.93464386
-2.4036579 -0.61870259 -0.68477869
-2.2451134 -0.5778932 -0.51357156
-4.8941407 -1.2597539 -0.84251916
-4.888032 -1.2581816 -0.56258506
-4.9045653 -1.2624373 -0.28288004
-4.9154158 -1.2652302 0
-4.9623294 -1.2773058 0.2862117
-0 -0 -0
-2.449049 -0.63354254 -0.69792777
-2.2394888 -0.57933158 -0.51244467
-4.8901224 -1.2650219 -0.84208995
-4.8840065 -1.2634398 -0.56229705
-4.8929739 -1.2657596 -0.28229949
-4.9214349 -1.2731221 0
-4.9632959 -1.283951 0.28635669
-0 -0 -0
-2.4288573 -0.63145137 -0.6923905
-2.2338736 -0.5807597 -0.51131999
-0 -0 -0
-4.8774652 -1.2680374 -0.56171989
-4.8939629 -1.2723265 -0.28244504
-4.9173765 -1.2784135 0
-4.961741 -1.2899473 0.28635669
-0 -0 -0
-2.3844061 -0.62297171 -0.67993289
-2.2405479 -0.58538604 -0.51300919
-0 -0 -0
-4.8784389 -1.2745856 -0.56200904
-4.8848777 -1.2762678 -0.28200948
-4.9284158 -1.2876431 0
-4.9652114 -1.2972566 0.28664726
-2.705786 -0.71043211 -0.92242175
-2.4127698 -0.63349766 -0.68823886
-2.2398388 -0.58809286 -0.51300919
-0 -0 -0
-4.8768954 -1.2804793 -0.56200904
-4.8984065 -1.2861273 -0.28288004
-4.9167876 -1.2909535 0
-4.9661512 -1.3039144 0.28679225
-0 -0 -0
-2.4459584 -0.64537191 -0.69792777
-2.2292993 -0.58820587 -0.51075763
-0 -0 -0
-4.8803415 -1.2876897 -0.56258506
-4.9094186 -1.2953616 -0.28360617
-4.917748 -1.2975594 0
-4.9319124 -1.3012967 0.28490558
-2.6037257 -0.69036531 -0.8881948
-2.4088092 -0.63868415 -0.68754739
-2.2384112 -0.59350395 -0.51300919
-0 -0 -0
-4.8837872 -1.2949127 -0.56316221
-4.8978033 -1.2986289 -0.28302559
-4.9111404 -1.3021653 0
-4.9303365 -1.307255 0.28490558
-2.4094498 -0.64197105 -0.82218653
-2.4419699 -0.65063566 -0.6972363
-2.2180505 -0.59097481 -0.50850612
-0 -0 -0
-4.8897095 -1.3028086 -0.56402624
-4.8987389 -1.3052144 -0.28317061
-4.9095635 -1.3080986 0
-4.9312615 -1.3138797 0.28505057
-2.6139851 -0.69985098 -0.89226884
-2.4024072 -0.64320457 -0.6861617
-2.2148826 -0.59299797 -0.50794375
-0 -0 -0
-4.8881316 -1.3087159 -0.56402624
-4.8896255 -1.3091159 -0.28273505
-4.902956 -1.3126849 0
-4.9246554 -1.3184946 0.28476059
-2.4961894 -0.67154658 -0.85233629
-2.3992081 -0.64545578 -0.68547022
-2.2117038 -0.59501177 -0.50737923
-0 -0 -0
-4.8815565 -1.3132788 -0.56345022
-4.9056072 -1.3197491 -0.28375116
-4.9088988 -1.3206346 0
-4.9255652 -1.3251184 0.28490558
-2.4695401 -0.66597736 -0.84337401
-2.4351442 -0.65670156 -0.69585067
-2.2334208 -0.60230154 -0.51244467
-0 -0 -0
-4.8807621 -1.3162277 -0.56345022
-4.8972802 -1.3206823 -0.2833156
-4.920671 -1.3269902 0
-4.9347992 -1.3308003 0.28548613
-2.4567988 -0.66572684 -0.83929688
-2.4537203 -0.66489267 -0.70138794
-2.2302413 -0.60433578 -0.51188236
-0 -0 -0
-4.879168 -1.3221242 -0.56345022
-4.8931751 -1.3259197 -0.28317061
-4.9215732 -1.3336149 0
-4.9306822 -1.3360831 0.28534114
-2.3677669 -0.64467359 -0.80914706
-2.4117665 -0.65665346 -0.68962187
-2.2221615 -0.60502958 -0.51019531
-0 -0 -0
-4.8775668 -1.3280188 -0.56345022
-4.8815408 -1.3291007 -0.28259003
-4.909914 -1.3368258 0
-4.9290643 -1.3420399 0.28534114
-2.3932033 -0.65470636 -0.81810933
-2.4206507 -0.66221511 -0.6923905
-2.2165225 -0.60637194 -0.50906843
-0 -0 -0
-4.8734665 -1.3332295 -0.56316221
-4.8949647 -1.3391107 -0.28346059
-4.9208441 -1.3461906 0
-4.932447 -1.3493648 0.28563115
-2.4090953 -0.6621837 -0.82381487
-2.4392011 -0.67045885 -0.69792777
-2.2157881 -0.60904974 -0.50906843
-0 -0 -0
-4.8743434 -1.339802 -0.56345022
-4.8808179 -1.3415816 -0.28273505
-4.9242277 -1.3535137 0
-4.9358191 -1.3566997 0.28592113
-2.4368825 -0.67298955 -0.83359444
-2.4819131 -0.68542552 -0.71038538
-2.2272944 -0.61510795 -0.51188236
-0 -0 -0
-4.8727212 -1.3456907 -0.56345022
-4.8842072 -1.3488629 -0.28302559
-4.9200826 -1.3587705 0
-4.9266691 -1.3605895 0.28548613
-2.3598554 -0.65478706 -0.80751556
-2.4738376 -0.68641359 -0.7083109
-2.2510381 -0.62459362 -0.51751226
-0 -0 -0
-4.8760715 -1.3529593 -0.56402624
-4.8825741 -1.3547635 -0.28302559
-4.905901 -1.3612361 0
-4.9325261 -1.3686237 0.28592113
-2.4257257 -0.67622173 -0.8303346
-2.4923394 -0.69479173 -0.71384817
-2.2380369 -0.62389958 -0.51469624
-0 -0 -0
-4.8694549 -1.3574623 -0.56345022
-4.900948 -1.3662417 -0.28418615
-4.9017482 -1.3664647 0
-4.9258676 -1.3731885 0.28563115
-2.3463683 -0.65715569 -0.80344152
-2.5204785 -0.70591938 -0.72215146
-2.22505 -0.62317765 -0.51188236
-0 -0 -0
-4.8777738 -1.3661354 -0.56460339
-4.8917942 -1.3700621 -0.28375116
-4.9101176 -1.3751941 0
-4.9217048 -1.3784393 0.28548613
-2.4121907 -0.67873514 -0.82626057
-2.6331306 -0.74090254 -0.75468373
-2.2169647 -0.62380302 -0.51019531
-0 -0 -0
-4.8761191 -1.3720282 -0.56460339
-4.8826289 -1.3738598 -0.2833156
-4.9059496 -1.3804218 0
-4.9325399 -1.3879036 0.2862117
-2.4089835 -0.68097502 -0.82544321
-2.6080871 -0.7372579 -0.74776077
-2.2210948 -0.62786239 -0.51131999
-0 -0 -0
-4.8669887 -1.3758076 -0.56373823
-4.8859711 -1.3811735 -0.28360617
-4.9067798 -1.3870559 0
-4.9333572 -1.3945688 0.28635669
-2.4176693 -0.68658614 -0.82870311
-2.6120255 -0.74178076 -0.74914646
-2.2203345 -0.63054568 -0.51131999
-0 -0 -0
-4.8653226 -1.3816874 -0.56373823
-4.8842983 -1.3870763 -0.28360617
-4.9151144 -1.3958275 0
-4.92167 -1.3976893 0.28577614
-2.3883257 -0.68137258 -0.81892663
-2.7027981 -0.77108938 -0.77544725
-2.2537739 -0.64298594 -0.51919931
-0 -0 -0
-4.8636498 -1.3875651 -0.56373823
-4.8851151 -1.3936892 -0.28375116
-4.9159245 -1.4024788 0
-4.9274764 -1.4057745 0.2862117
-2.313844 -0.66314787 -0.79366195
-2.6632776 -0.76329565 -0.76437265
-2.2114742 -0.63380873 -0.5096308
-0 -0 -0
-4.8669472 -1.3948675 -0.56431538
-4.8809323 -1.3988756 -0.28360617
-4.9142261 -1.4084177 0
-4.9282699 -1.4124426 0.28635669
-2.4032912 -0.69192702 -0.82462907
-2.6623533 -0.76651311 -0.76437265
-2.2253618 -0.64069968 -0.51300919
-0 -0 -0
-4.8627653 -1.4000295 -0.56402624
-4.8867221 -1.406927 -0.28404117
-4.9000187 -1.410755 0
-4.919066 -1.4162389 0.28592113
-2.3644645 -0.68384343 -0.8115896
-2.6807053 -0.77530557 -0.76990998
-2.236788 -0.64691716 -0.51582307
-0 -0 -0
-4.8635621 -1.4066249 -0.56431538
-4.8900156 -1.4142758 -0.28433171
-4.895813 -1.4159524 0
-4.9173512 -1.4221816 0.28592113
-2.3256702 -0.67566967 -0.79855329
-2.6725366 -0.77644366 -0.76783282
-2.214047 -0.64324009 -0.51075763
-0 -0 -0
-4.8717842 -1.4153842 -0.56546742
-4.8932891 -1.4216319 -0.28462172
-4.9115853 -1.4269475 0
-4.9206243 -1.4295735 0.2862117
-2.3656013 -0.68882078 -0.8124069
-2.6696608 -0.77735746 -0.76714128
-2.2160952 -0.64528728 -0.51131999
-0 -0 -0
-4.8758998 -1.4197749 -0.56604457
-4.8974237 -1.4260422 -0.28491229
-4.9007273 -1.4270042 0
-4.9222522 -1.4332719 0.28635669
-2.3623881 -0.69098276 -0.8115896
-2.6614935 -0.77846909 -0.76506418
-2.2031226 -0.64439869 -0.50850612
-0 -0 -0
-4.8816304 -1.4278444 -0.56690973
-4.8931961 -1.4312272 -0.2847667
-4.9040003 -1.4343873 0
-4.9280009 -1.4414074 0.28679225
-2.4042408 -0.70637912 -0.82626057
-2.6701791 -0.78451324 -0.76783282
-2.2364676 -0.65708643 -0.51638544
-0 -0 -0
-4.8774133 -1.4330107 -0.56662059
-4.8790002 -1.4334769 -0.28404117
-4.912251 -1.4432462 0
-4.9212651 -1.4458946 0.28650171
-2.372571 -0.70018965 -0.81566679
-2.6596045 -0.78489864 -0.76506418
-2.2186108 -0.65475321 -0.51244467
-0 -0 -0
-4.8657551 -1.4359746 -0.56546742
-4.8772645 -1.4393712 -0.28404117
-4.9105039 -1.4491807 0
-4.9294829 -1.4547819 0.28708225
-2.3740904 -0.70375776 -0.81648099
-2.6682754 -0.79096371 -0.76783282
-2.2105167 -0.65526915 -0.51075763
-0 -0 -0
-4.8640165 -1.4418529 -0.56546742
-4.8854866 -1.4482174 -0.28462172
-4.9012613 -1.4528934 0
-4.9327092 -1.4622155 0.28737283
-2.3329706 -0.69463617 -0.80262733
-2.6745334 -0.7963357 -0.76990998
-2.2072904 -0.65721524 -0.51019531
-0 -0 -0
-4.8647566 -1.4484693 -0.56575656
-4.8737717 -1.4511534 -0.28404117
-4.914463 -1.4632691 0
-4.9259529 -1.4666903 0.28708225
-2.3723829 -0.70949292 -0.81648099
-2.6687574 -0.79812771 -0.76852429
-2.2064946 -0.65988183 -0.51019531
-0 -0 -0
-4.860518 -1.453603 -0.56546742
-4.8894439 -1.4622537 -0.28505728
-4.9201736 -1.471444 0
-7.5977659 -2.2722139 0.44295397
-2.3753893 -0.71665037 -0.81810933
-2.6956429 -0.81327027 -0.77683026
-2.1975935 -0.6630097 -0.50850612
-0 -0 -0
-4.861948 -1.4668404 -0.56604457
-4.9082828 -1.4808195 -0.28636339
-4.929059 -1.4870876 0
-7.5972328 -2.2920706 0.44324452
-2.3674324 -0.71737188 -0.81566679
-2.6706533 -0.80925292 -0.76990998
-2.2186737 -0.67229551 -0.51357156
-0 -0 -0
-4.877502 -1.4779652 -0.5680629
-4.9238997 -1.4920245 -0.2873795
-4.9197936 -1.4907804 0
-7.5944581 -2.3012486 0.44324452
-2.359468 -0.71807241 -0.8132211
-2.6504729 -0.80663586 -0.76437265
-2.2081366 -0.67201668 -0.51131999
-0 -0 -0
-4.8880825 -1.4876223 -0.56950408
-4.9196 -1.4972143 -0.28723395
-4.90803 -1.493693 0
-7.5916719 -2.3104234 0.44324452
-2.4082332 -0.736094 -0.8303346
-2.65429 -0.81130308 -0.76575565
-2.212178 -0.67616832 -0.51244467
-0 -0 -0
-4.9035888 -1.4988176 -0.57152128
-4.9227624 -1.5046781 -0.28752449
-2.9625399 -0.90552187 0
-7.5913572 -2.3203535 0.44338953
-2.3789885 -0.73029941 -0.82055503
-2.6724944 -0.82039952 -0.77129292
-2.2040794 -0.676606 -0.51075763
-0 -0 -0
-4.8968339 -1.503225 -0.57094526
-4.913486 -1.5083368 -0.28708896
-3.0435424 -0.93430346 0
-7.598484 -2.3325748 0.44397008
-2.420614 -0.74627924 -0.83522284
-2.2129726 -0.68226308 -0.51300919
-0 -0 -0
-4.8999524 -1.5106633 -0.57152128
-4.9091792 -1.513508 -0.28694394
-3.0051041 -0.92647845 0
-7.5906987 -2.3402247 0.44368008
-2.3654139 -0.73239189 -0.81648099
-2.2121468 -0.68493652 -0.51300919
-0 -0 -0
-4.9006014 -1.51735 -0.57181042
-4.9147959 -1.521745 -0.2873795
-2.9443169 -0.91163492 0
-7.5977941 -2.352469 0.44426063
-2.3716099 -0.73745185 -0.81892663
-2.2185893 -0.68987018 -0.51469624
-4.8943796 -1.521907 -0.85450059
-4.8962874 -1.5225002 -0.57152128
-4.9154325 -1.5284532 -0.28752449
-2.9680693 -0.92292088 0
-7.5874996 -2.3593323 0.44382507
-2.3499198 -0.73226464 -0.8115896
-2.9516175 -0.91976124 -0.85296404
-2.2230287 -0.69272375 -0.51582307
-4.8738527 -1.518754 -0.85107684
-4.8978434 -1.5262296 -0.57181042
-4.9120297 -1.5306504 -0.2873795
-2.9774499 -0.92781085 0
-7.5959964 -2.3670082 0.44440565
-2.3773389 -0.74396145 -0.82136917
-2.9768434 -0.93156958 -0.86057848
-2.1930907 -0.68630302 -0.50906843
-4.8891659 -1.5300094 -0.85407305
-4.8984613 -1.5329183 -0.57209843
-7.5510898 -2.3630285 -0.44194511
-2.9763265 -0.93140787 0
-7.5931306 -2.3761847 0.44440565
-2.3740826 -0.74609315 -0.82055503
-2.9302394 -0.92087424 -0.84742677
-2.2067993 -0.69352174 -0.51244467
-4.9264975 -1.5482299 -0.86092055
-4.8966055 -1.5388361 -0.57209843
-7.5507054 -2.3729291 -0.44209009
-2.9578171 -0.92954099 0
-7.5927305 -2.3861361 0.44455063
-2.366106 -0.74672896 -0.81810933
-2.9195547 -0.92139399 -0.84465814
-2.2059598 -0.69618767 -0.51244467
-4.8658695 -1.5356394 -0.8506493
-4.8996711 -1.5463068 -0.57267445
-7.562696 -2.3867416 -0.44296065
-2.9815149 -0.94094825 0
-7.5947928 -2.3968713 0.44484064
-2.3604944 -0.74809539 -0.81648099
-2.925616 -0.92719555 -0.84673524
-2.202697 -0.69808573 -0.51188236
-4.9251862 -1.5609057 -0.86134809
-4.897799 -1.5522261 -0.57267445
-7.5498981 -2.3927379 -0.4423801
-2.9977348 -0.95005167 0
-7.5918913 -2.4060464 0.44484064
-2.3242583 -0.73970306 -0.80425572
-2.907757 -0.92540342 -0.84188944
-2.2139559 -0.70459884 -0.51469624
-4.9012833 -1.5598499 -0.8574968
-4.9082503 -1.5620672 -0.57411677
-7.5643368 -2.4073756 -0.44339621
-2.9668255 -0.94420213 0
-7.5964088 -2.4175828 0.4452762
-2.2974725 -0.73423672 -0.79529345
-2.9090333 -0.92968214 -0.8425836
-2.2131028 -0.70727348 -0.51469624
-0 -0 -0
-4.8965044 -1.5648472 -0.5729636
-4.9651523 -1.5867859 -0.29115286
-3.0276546 -0.96759164 0
-7.5959549 -2.4275498 0.44542119
-2.3624694 -0.75815612 -0.81810933
-2.9198494 -0.93702871 -0.84604377
-2.2049954 -0.70762008 -0.51300919
-0 -0 -0
-4.8970704 -1.5715522 -0.57325161
-4.9459095 -1.5872254 -0.29013672
-3.0017078 -0.96329838 0
-7.5905447 -2.4359331 0.4452762
-2.323921 -0.74888366 -0.80507302
-2.8996124 -0.9344002 -0.84050649
-2.2041388 -0.71028388 -0.51300919
-0 -0 -0
-4.9000869 -1.5790533 -0.57382762
-4.9340954 -1.5900124 -0.28955618
-3.0352156 -0.97809839 0
-0 -0 0
-2.4123693 -0.7806049 -0.83604014
-2.884155 -0.93326747 -0.83635217
-2.1984394 -0.7113806 -0.51188236
-0 -0 -0
-0 -0 -0
-2.9915683 -0.96802467 -0.17562796
-3.016706 -0.97615886 0
-0 -0 0
-2.3526604 -0.76442575 -0.81566679
-2.9116571 -0.94605476 -0.84465814
-2.2241623 -0.72267419 -0.51807463
-0 -0 -0
-4.8987236 -1.5916919 -0.57411677
-2.9385021 -0.95477718 -0.17258018
-7.6115904 -2.4731557 0
-0 -0 0
-2.365829 -0.77186608 -0.82055503
-2.9105117 -0.94957221 -0.84465814
-2.2160385 -0.72299606 -0.51638544
-0 -0 -0
-4.8992534 -1.5984113 -0.57440478
-2.9052348 -0.94785053 -0.1706935
-7.5863318 -2.4750869 0
-0 -0 0
-2.3508062 -0.77010894 -0.81566679
-2.9475079 -0.96558458 -0.85573268
-2.2199972 -0.72725677 -0.51751226
-0 -0 -0
-4.9046946 -1.6067463 -0.57526994
-2.9114881 -0.9537847 -0.1711285
-0 -0 0
-7.5855665 -2.4849827 0.44585675
-2.3991768 -0.78916609 -0.8327803
-2.8724682 -0.94484681 -0.83427769
-2.1973867 -0.72279096 -0.51244467
-0 -0 -0
-4.9076591 -1.6142863 -0.57584596
-2.922673 -0.96136081 -0.17185406
-4.9945426 -1.6428651 0
-7.5850244 -2.4949577 0.44600177
-2.3841355 -0.78741229 -0.82788891
-0 -0 -0
-2.1747997 -0.71827465 -0.50737923
-0 -0 -0
-4.8934274 -1.6161602 -0.57440478
-2.9363182 -0.96978253 -0.17272517
-0 -0 0
-7.5820041 -2.5041208 0.44600177
-2.3714545 -0.78640342 -0.82381487
-2.8892264 -0.95810294 -0.83981496
-2.2101088 -0.73289919 -0.51582307
-0 -0 -0
-4.8914709 -1.6220716 -0.57440478
-2.9302068 -0.97169244 -0.17243461
-0 -0 0
-7.5789728 -2.5132804 0.44600177
-2.3822255 -0.79317147 -0.82788891
-2.861881 -0.95287472 -0.83220053
-2.2068131 -0.7347672 -0.51526076
-0 -0 -0
-2.9018402 -0.96617919 -0.34089956
-2.9019184 -0.96620524 -0.17083851
-0 -0 0
-7.5759306 -2.5224361 0.44600177
-2.4028449 -0.80164969 -0.83522284
-2.8993819 -0.96730703 -0.84327513
-2.2184181 -0.74012023 -0.51807463
-0 -0 -0
-2.9135213 -0.9720242 -0.34234074
-2.9111936 -0.97124767 -0.17141905
-4.9702759 -1.6582096 0
-7.5670176 -2.5245481 0.44556674
-2.4510882 -0.82103753 -0.85233629
-2.8839333 -0.96602708 -0.83912081
-2.1886103 -0.73311567 -0.51131999
-0 -0 -0
-4.9429502 -1.655733 -0.58103466
-2.9149411 -0.97641361 -0.17170906
-4.9682689 -1.6642139 0
-7.5565677 -2.5312128 0.44513118
-2.3681076 -0.7964254 -0.82381487
-0 -0 -0
-2.2045836 -0.7414301 -0.51526076
-0 -0 -0
-4.9139857 -1.6526374 -0.57786429
-2.8989863 -0.97496682 -0.17083851
-4.9687185 -1.6710447 0
-7.553504 -2.5403416 0.44513118
-2.4420786 -0.8245886 -0.84989375
-0 -0 -0
-2.203686 -0.74409342 -0.51526076
-0 -0 -0
-0 -0 -0
-2.9076538 -0.98179406 -0.17141905
-4.9666958 -1.6770473 0
-3.0872467 -1.0424352 0.18200685
-2.4644835 -0.83547258 -0.85804182
-0 -0 -0
-2.2027855 -0.74675554 -0.51526076
-4.8833652 -1.6554859 -0.85963619
-4.8928285 -1.658694 -0.57584596
-2.9039974 -0.98447007 -0.1712735
-4.9474106 -1.6771976 0
-3.1155155 -1.0561757 0.18374853
-2.4213603 -0.82411689 -0.84337401
-0 -0 -0
-2.1802351 -0.74204928 -0.51019531
-4.8619199 -1.6547682 -0.8562125
-4.8908205 -1.6646048 -0.57584596
-2.9003482 -0.98714179 -0.1711285
-4.9404578 -1.6814989 0
-7.5786791 -2.5794251 0.44716287
-2.4624572 -0.84142578 -0.85804182
-0 -0 -0
-2.1745236 -0.74303842 -0.50906843
-4.8866401 -1.6697731 -0.86092055
-4.8912511 -1.6713487 -0.57613397
-2.9163678 -0.99652779 -0.17214462
-4.9285717 -1.6841012 0
-7.558352 -2.5827017 0.44614732
-2.4427359 -0.8379845 -0.85152215
-0 -0 -0
-2.1928515 -0.75226128 -0.51357156
-4.8627677 -1.6681803 -0.85706925
-4.8818955 -1.6747422 -0.57526994
-2.8438864 -0.97559983 -0.16793571
-0 -0 0
-7.5748887 -2.598578 0.44730842
-2.4884593 -0.85703212 -0.86782146
-0 -0 -0
-2.2039506 -0.75904655 -0.51638544
-4.8243384 -1.6615152 -0.8506493
-4.9361081 -1.7000089 -0.58189982
-2.8205962 -0.971421 -0.1666296
-3.1135397 -1.0723114 0
-0 -0 0
-2.4336936 -0.84146148 -0.84907645
-0 -0 -0
-2.2006328 -0.76087952 -0.51582307
-4.8247514 -1.6681814 -0.85107684
-0 -0 -0
-2.7924044 -0.96548748 -0.16503292
-3.0556679 -1.0565121 0
-0 -0 0
-2.4116628 -0.83710796 -0.84174252
-2.1997118 -0.763538 -0.51582307
-4.8154635 -1.671487 -0.84979421
-2.6425703 -0.91725779 -0.3117834
-2.7298687 -0.94755983 -0.16140458
-2.9978483 -1.0405778 0
-0 -0 0
-2.4106495 -0.84002137 -0.84174252
-2.2275803 -0.77622861 -0.5225777
-4.8231368 -1.6806831 -0.85150605
-2.6439095 -0.92130375 -0.31207252
-2.7287219 -0.95085764 -0.16140458
-7.5551419 -2.6326849 0
-7.581861 -2.6419954 0.44846898
-2.4866188 -0.8698647 -0.86863559
-2.1906626 -0.76633382 -0.51413387
-4.7968674 -1.6780317 -0.84722555
-2.6086099 -0.91253936 -0.30803588
-2.6736159 -0.93527973 -0.15821178
-7.5765162 -2.6504037 0
-7.5762129 -2.6502976 0.44832399
-2.4715786 -0.86795658 -0.86374742
-0 -0 -0
-2.1753557 -0.7639305 -0.51075763
-4.8287497 -1.6957362 -0.85321796
-2.5806682 -0.90626615 -0.30486548
-2.6896479 -0.94453716 -0.15922791
-4.9411545 -1.7352099 0
-7.5779133 -2.6611736 0.44861454
-2.4845095 -0.8758713 -0.86863559
-0 -0 -0
-2.2079751 -0.77838391 -0.51863694
-4.8145852 -1.6972996 -0.85107684
-2.5356584 -0.89390302 -0.29967567
-2.6566489 -0.93655616 -0.15734123
-0 -0 0
-7.5771403 -2.6711912 0.44875956
-2.4554894 -0.8689779 -0.85885602
-2.6283226 -0.93014216 -0.76921582
-2.2118282 -0.78274822 -0.51976383
-4.810113 -1.7022603 -0.8506493
-2.5687172 -0.90904838 -0.30371231
-2.6555154 -0.93976551 -0.15734123
-0 -0 0
-7.5714598 -2.6794786 0.44861454
-2.4735999 -0.87706906 -0.86537576
-2.7554402 -0.97700173 -0.80659121
-2.1969814 -0.77898794 -0.51638544
-4.8090835 -1.705166 -0.8506493
-2.5584166 -0.90714264 -0.30255914
-2.6378014 -0.93529028 -0.15632512
-0 -0 0
-7.5673838 -2.6831818 0.44846898
-2.4725382 -0.88005728 -0.86537576
-2.5273783 -0.8995766 -0.74014902
-2.1912558 -0.77993959 -0.51526076
-4.8094358 -1.7118355 -0.85107684
-2.5573187 -0.91023332 -0.30255914
-2.5779171 -0.91756505 -0.15284176
-4.9386802 -1.7578379 0
-7.564136 -2.6923234 0.44846898
-2.4458683 -0.87389576 -0.85641032
-0 -0 -0
-2.2094538 -0.78942609 -0.51976383
-4.8097882 -1.7185118 -0.85150605
-2.5026364 -0.89417875 -0.29621726
-2.5939376 -0.92680013 -0.15385789
-4.9365525 -1.763804 0
-7.5633311 -2.702338 0.44861454
-2.4657557 -0.88436264 -0.86374742
-0 -0 -0
-2.1965327 -0.78780365 -0.51694775
-4.8028708 -1.7225872 -0.8506493
-2.4893742 -0.89283353 -0.29477498
-2.5879288 -0.92818093 -0.15356788
-4.9368653 -1.7706453 0
-7.5722876 -2.7158601 0.44934011
-2.4553835 -0.88399243 -0.86048752
-0 -0 -0
-2.2314417 -0.80336851 -0.52539158
-4.8056211 -1.7301301 -0.85150605
-2.5199275 -0.90722978 -0.2985225
-2.5868053 -0.93130726 -0.15356788
-4.9420705 -1.7792548 0
-7.5690007 -2.7250078 0.44934011
-2.4519825 -0.88611621 -0.85967022
-2.6645572 -0.96293813 -0.78167605
-2.1970191 -0.79397559 -0.51751226
-4.801106 -1.7350606 -0.85107684
-2.4507287 -0.88566309 -0.29045144
-2.5954533 -0.9379648 -0.15414844
-4.9521523 -1.7896467 0
-7.5681438 -2.7350338 0.44948509
-2.3812106 -0.86379457 -0.83522284
-2.5100987 -0.91054922 -0.73668617
-2.1984444 -0.79749531 -0.51807463
-4.8062482 -1.7434875 -0.8523612
-2.4229083 -0.87892061 -0.28727993
-2.5723267 -0.93312275 -0.15284176
-4.9279699 -1.7876427 0
-7.5575032 -2.7415173 0.44904953
-0 -0 -0
-0 -0 -0
-2.2237353 -0.80971158 -0.52426475
-4.7944894 -1.7457803 -0.8506493
-2.4242725 -0.88273168 -0.28756794
-2.5785246 -0.93889821 -0.15327732
-4.918468 -1.7909237 0
-7.5541849 -2.7506471 0.44904953
-0 -0 -0
-0 -0 -0
-2.1869648 -0.79931682 -0.51582307
-4.787559 -1.7498115 -0.84979421
-2.4329214 -0.88921189 -0.28872111
-2.5578637 -0.93487722 -0.15211621
-4.9431906 -1.8066936 0
-7.5581799 -2.7624497 0.44948509
-0 -0 -0
-2.5020754 -0.9179157 -0.73530322
-2.2026978 -0.80808544 -0.51976383
-4.7878485 -1.7564784 -0.85022175
-2.4269934 -0.89037097 -0.2881451
-2.5421002 -0.93259925 -0.15124565
-5.1095777 -1.8745085 0
-7.5621572 -2.774266 0.44992065
-0 -0 -0
-0 -0 -0
-2.189791 -0.80635381 -0.51694775
-4.8098078 -1.771131 -0.85450059
-2.3943651 -0.88168484 -0.28439757
-2.5312178 -0.9320786 -0.15066509
-5.1463842 -1.8950697 0
-7.5636716 -2.7851954 0.45021066
-0 -0 -0
-0 -0 -0
-2.2031195 -0.81428623 -0.52032614
-4.7908158 -1.7707144 -0.85150605
-2.3860176 -0.88188642 -0.28353241
-2.4959724 -0.92252636 -0.14863342
-5.1025944 -1.8859495 0
-7.5651798 -2.7961359 0.4505012
-0 -0 -0
-2.4187639 -0.897313 -0.71177101
-2.199754 -0.81606472 -0.51976383
-4.7910771 -1.7773938 -0.8519336
-2.3776729 -0.88206905 -0.28266725
-2.5070345 -0.93005961 -0.14935897
-5.0271163 -1.8649596 0
-7.5593529 -2.8043685 0.45035565
-0 -0 -0
-2.7632694 -1.0289178 -0.81351417
-2.1916206 -0.81606132 -0.51807463
-4.7961454 -1.7858698 -0.85321796
-2.3596451 -0.87862611 -0.28065005
-2.4669471 -0.91858059 -0.14703675
-4.9833999 -1.855595 0
-7.5632663 -2.8162217 0.45079121
-0 -0 -0
-2.5105798 -0.93828315 -0.73945487
-2.2334702 -0.83471853 -0.52820545
-4.7891703 -1.7898647 -0.8523612
-2.3537314 -0.87966394 -0.2800729
-2.4585309 -0.91883087 -0.14660119
-0 -0 0
-7.5671625 -2.828088 0.45122677
-0 -0 -0
-0 -0 -0
-2.222944 -0.83384705 -0.52595389
-4.7749887 -1.7911431 -0.85022175
-2.3623536 -0.88614094 -0.28122607
-2.46472 -0.92453951 -0.14703675
-4.9252887 -1.847522 0
-7.5515776 -2.8326674 0.4505012
-0 -0 -0
-0 -0 -0
-2.1862724 -0.82310599 -0.51751226
-4.7728209 -1.7969114 -0.85022175
-2.3322339 -0.87805873 -0.27776656
-2.4587328 -0.92568415 -0.14674619
-4.9279289 -1.8553076 0
-7.5481491 -2.84179 0.4505012
-0 -0 -0
-0 -0 -0
-2.2042911 -0.83293217 -0.52201533
-4.7754445 -1.8044901 -0.85107684
-2.3456929 -0.88636345 -0.27949688
-2.443033 -0.92314517 -0.14587563
-4.9110718 -1.8557394 0
-7.5495667 -2.8527434 0.45079121
-2.3268425 -0.88245499 -0.82055503
-0 -0 -0
-2.1890237 -0.8301872 -0.51863694
-4.7636595 -1.8066177 -0.849365
-2.3349466 -0.88552839 -0.27834371
-2.400615 -0.91043317 -0.1434084
-4.9136972 -1.8635195 0
-7.546114 -2.8618636 0.45079121
-2.3378592 -0.88824898 -0.82462907
-0 -0 -0
-2.1885219 -0.83150959 -0.51863694
-4.7577724 -1.8076737 -0.84850991
-2.3271551 -0.8841821 -0.27747855
-2.4292128 -0.92295802 -0.14515007
-4.9125705 -1.8664879 0
-7.5516729 -2.8691916 0.45122677
-0 -0 -0
-0 -0 -0
-2.1922684 -0.83596575 -0.51976383
-4.7651792 -1.8170798 -0.85022175
-2.3284996 -0.88791406 -0.27776656
-2.4062469 -0.91756105 -0.14384395
-4.9127412 -1.8733488 0
-7.5506263 -2.8792391 0.45137179
-2.2202935 -0.84972674 -0.78388238
-0 -0 -0
-2.210232 -0.8458761 -0.52426475
-4.7725701 -1.8265064 -0.8519336
-2.3225985 -0.88887978 -0.27719054
-2.4051366 -0.92046785 -0.14384395
-4.9129024 -1.8802128 0
-7.5495663 -2.8892884 0.45151678
-2.2620535 -0.87198162 -0.79936749
-0 -0 -0
-2.2105591 -0.85213143 -0.52482921
-4.8328075 -1.8629619 -0.86348748
-2.3228545 -0.89541942 -0.27747855
-2.3713882 -0.91412824 -0.14195728
-4.9107795 -1.8930186 0
-7.5474157 -2.9093955 0.45180732
-0 -0 -0
-0 -0 -0
-2.2095277 -0.85480183 -0.52482921
-0 -0 -0
-2.307302 -0.89262784 -0.27574936
-2.3727031 -0.91792959 -0.14210229
-4.9109135 -1.8998891 0
-7.5511675 -2.9213264 0.45224288
-2.3290563 -0.90428084 -0.82381487
-0 -0 -0
-2.2179677 -0.86114955 -0.52708077
-0 -0 -0
-2.3230927 -0.90196544 -0.27776656
-2.3643231 -0.91797358 -0.14166673
-4.9061904 -1.9048805 0
-7.5524721 -2.9323275 0.45253289
-2.3740211 -0.92504144 -0.84011418
-0 -0 -0
-2.2169256 -0.86382896 -0.52708077
-4.7303557 -1.8431913 -0.84637046
-2.3075459 -0.89913923 -0.27603737
-2.3874283 -0.93026555 -0.1431184
-4.9111528 -1.9136392 0
-7.5416574 -2.9386199 0.45209733
-2.3061497 -0.90180629 -0.81648099
-0 -0 -0
-2.22771 -0.87113297 -0.52989465
-4.7735429 -1.8666661 -0.85450059
-2.3016448 -0.90004468 -0.27546132
-2.3814578 -0.9312551 -0.14282784
-4.9112678 -1.9205226 0
-7.5453634 -2.9505703 0.45253289
-2.325763 -0.91271752 -0.82381487
-0 -0 -0
-2.2550392 -0.8849628 -0.53664929
-4.7712841 -1.8724326 -0.85450059
-2.29333 -0.89998955 -0.27459618
-2.3561468 -0.92464131 -0.14137672
-4.9089437 -1.9264555 0
-7.5417929 -2.9596853 0.45253289
-2.3246586 -0.91552711 -0.82381487
-0 -0 -0
-2.2917857 -0.90258068 -0.54565328
-4.7737994 -1.8800795 -0.85535735
-2.323524 -0.91508031 -0.27834371
-2.3501878 -0.9255814 -0.14108616
-4.8969264 -1.9285709 0
-7.5382113 -2.9687958 0.45253289
-0 -0 -0
-1.9116421 -0.75553697 -0.56711519
-2.3308628 -0.92122531 -0.55522174
-4.7858443 -1.8915058 -0.85792434
-2.3103919 -0.91313457 -0.2769025
-2.3394015 -0.92460006 -0.14050561
-4.8970103 -1.9354421 0
-7.5442848 -2.9817226 0.45311344
-0 -0 -0
-1.9153963 -0.75969797 -0.56850088
-2.3415642 -0.92872769 -0.55803782
-4.7429914 -1.8811986 -0.8506493
-2.2948565 -0.91020215 -0.2751722
-2.3696804 -0.93987936 -0.14239228
-4.8995023 -1.943275 0
-7.5406766 -2.9908361 0.45311344
-0 -0 -0
-2.0077047 -0.79911882 -0.59618467
-2.3003097 -0.91558319 -0.54846931
-4.7812591 -1.9030659 -0.85792434
-0 -0 -0
-2.3782001 -0.94658571 -0.14297284
-4.9116631 -1.9549701 0
-7.544302 -3.0028291 0.453549
-0 -0 -0
-2.0160568 -0.8052665 -0.59895331
-2.301559 -0.9193036 -0.54903167
-4.7598848 -1.901224 -0.85450059
-0 -0 -0
-2.3842962 -0.95235103 -0.1434084
-4.9165502 -1.9638004 0
-7.5503206 -3.0157981 0.45412958
-0 -0 -0
-1.9061028 -0.76268357 -0.56642371
-2.3175187 -0.9273023 -0.55297238
-4.7420583 -1.8974266 -0.85150605
-2.3233123 -0.92962044 -0.27891973
-2.3596001 -0.94414014 -0.14195728
-4.9201908 -1.9687022 0
-7.5460777 -3.0193911 0.45398399
-0 -0 -0
-2.061156 -0.82761526 -0.61279655
-2.3281839 -0.9348349 -0.55578625
-4.7731085 -1.9165446 -0.8574968
-2.283793 -0.91701055 -0.27430815
-2.3415759 -0.94021213 -0.14094116
-4.9129829 -1.9727082 0
-7.5472512 -3.0304451 0.45427456
-0 -0 -0
-1.9949993 -0.8038519 -0.59341604
-2.3199801 -0.93479759 -0.55409706
-4.7564983 -1.9165523 -0.85492814
-2.28508 -0.92073512 -0.27459618
-2.3476708 -0.9459551 -0.14137672
-4.9178305 -1.9815583 0
-7.5387588 -3.0376182 0.45398399
-1.926753 -0.77906066 -0.68527859
-1.956822 -0.7912187 -0.58234411
-2.3188488 -0.93760014 -0.55409706
-4.756566 -1.9232633 -0.85535735
-2.2863615 -0.92446417 -0.27488419
-2.3585687 -0.95366043 -0.14210229
-4.9154325 -1.9874991 0
-7.537499 -3.0477018 0.45412958
-1.9143611 -0.77674276 -0.68120456
-1.9698083 -0.79924017 -0.58649576
-2.3224187 -0.94231009 -0.55522174
-4.7637534 -1.9328699 -0.85706925
-2.2948296 -0.93111593 -0.27603737
-2.3646405 -0.95944136 -0.14253783
-4.9250827 -1.9983284 0
-7.5386219 -3.0587592 0.45441955
-0 -0 -0
-1.9200487 -0.78175372 -0.57196099
-2.2977498 -0.93553585 -0.54959399
-4.7471447 -1.9328145 -0.85450059
-2.2984893 -0.93583691 -0.27661338
-2.3706923 -0.96523464 -0.14297284
-5.0238953 -2.0454943 0
-7.532516 -3.0668871 0.45427456
-0 -0 -0
-1.9353619 -0.79071599 -0.57680678
-2.3036764 -0.94119549 -0.55128318
-4.766191 -1.9472862 -0.85835189
-2.2806032 -0.93176866 -0.27459618
-2.3430715 -0.95729083 -0.14137672
-5.1515112 -2.1047137 0
-7.5432329 -3.081881 0.45514512
-0 -0 -0
-1.9738643 -0.80923116 -0.58857286
-2.2954822 -0.94108588 -0.54959399
-4.754334 -1.9491488 -0.85664004
-2.2890484 -0.93844819 -0.27574936
-2.3515301 -0.96406394 -0.14195728
-5.1610022 -2.1158719 0
-7.5419149 -3.0919819 0.45529068
-0 -0 -0
-1.8963236 -0.78011936 -0.56573218
-2.2896483 -0.94192731 -0.54846931
-4.7519751 -1.954892 -0.85664004
-2.2807345 -0.93826032 -0.27488419
-4.9647441 -2.0424218 -0.29986066
-5.0694017 -2.0854766 0
-7.5405741 -3.1020801 0.45543569
-0 -0 -0
-1.9347996 -0.79868263 -0.57749832
-2.2814603 -0.94178373 -0.54678011
-4.7472391 -1.9596539 -0.8562125
-2.2867739 -0.94397718 -0.27574936
-4.9406581 -2.0394969 -0.29855454
-4.9610319 -2.0479074 0
-7.5392199 -3.1121798 0.45558068
-0 -0 -0
-1.9106596 -0.79142112 -0.57057798
-2.263886 -0.93773228 -0.54283941
-4.7567239 -1.9702995 -0.85835189
-2.2999647 -0.95267653 -0.27747855
-4.9285874 -2.0414877 -0.29797399
-4.9297009 -2.041949 0
-7.5426579 -3.1242712 0.45601624
-0 -0 -0
-1.8865311 -0.78409868 -0.56365508
-2.2345955 -0.9287647 -0.53608477
-4.7448578 -1.9721047 -0.85664004
-2.3011978 -0.95644659 -0.27776656
-0 -0 -0
-4.9224286 -2.0459085 0
-7.5364709 -3.1323826 0.45587069
-0 -0 -0
-1.9388404 -0.8085888 -0.57957542
-2.2123678 -0.92266279 -0.53101933
-4.7519484 -1.9817889 -0.85835189
-2.2737882 -0.94827801 -0.27459618
-0 -0 -0
-4.915144 -2.0498493 0
-7.5302849 -3.1404874 0.45572567
-0 -0 -0
-1.9447981 -0.81383348 -0.58164996
-2.2276611 -0.93220234 -0.53496009
-4.740078 -1.9835653 -0.85664004
-2.2798009 -0.9540211 -0.27546132
-0 -0 -0
-4.907867 -2.0537794 0
-7.5288792 -3.1505861 0.45587069
-1.9185051 -0.80555618 -0.68609279
-1.9137449 -0.80355746 -0.57265252
-2.2569869 -0.94768041 -0.54227704
-4.7542481 -1.9962491 -0.85963619
-2.2977157 -0.96478194 -0.27776656
-0 -0 -0
-4.9029846 -2.0587015 0
-7.5322566 -3.1626999 0.45630625
-0 -0 -0
-1.8318607 -0.77178031 -0.54842883
-2.2535007 -0.94942129 -0.54171467
-4.7423701 -1.9980055 -0.85792434
-2.3132355 -0.9745881 -0.27978489
-0 -0 -0
-4.9052854 -2.0666432 0
-7.5356159 -3.1748264 0.45674181
-0 -0 -0
-2.0186038 -0.85189337 -0.60449058
-2.2224965 -0.9379403 -0.53439772
-4.7411618 -2.0008702 -0.85792434
-4.8861237 -2.062047 -0.59112519
-4.9244876 -2.0782375 -0.29855454
-4.904036 -2.0696065 0
-7.5336967 -3.1793785 0.45674181
-0 -0 -0
-1.8974521 -0.80346715 -0.56850088
-2.2096648 -0.93567216 -0.53158385
-4.7481961 -2.0106015 -0.85963619
-0 -0 -0
-4.926754 -2.0862107 -0.29884455
-4.9087234 -2.0785758 0
-7.5346303 -3.1905038 0.45703179
-0 -0 -0
-1.884937 -0.8008551 -0.56504071
-2.1594248 -0.91747695 -0.51976383
-4.7481236 -2.0173402 -0.86006379
-0 -0 -0
-4.9218402 -2.0911472 -0.29869956
-4.9109941 -2.086539 0
-7.5379467 -3.2026548 0.45746735
-0 -0 -0
-1.9878087 -0.84739918 -0.59618467
-2.1933684 -0.93502891 -0.52820545
-4.7409644 -2.0210643 -0.85920864
-0 -0 -0
-4.9336562 -2.1032085 -0.29957065
-4.9276218 -2.100636 0
-7.5340714 -3.2117605 0.45746735
-0 -0 -0
-1.9152846 -0.81921852 -0.57472962
-2.1408458 -0.9156971 -0.51582307
-4.7361608 -2.0257828 -0.8587811
-0 -0 -0
-4.9788837 -2.129602 -0.30247289
-4.9944692 -2.1362681 0
-7.5373545 -3.2239282 0.45790291
-0 -0 -0
-1.8981531 -0.81460541 -0.56988382
-2.1163929 -0.90826452 -0.51019531
-4.7313437 -2.0304887 -0.85835189
-4.8783259 -2.0935671 -0.59170121
-5.1959796 -2.2298903 -0.31582516
-5.1234136 -2.1987481 0
-7.5358391 -3.2340572 0.45804793
-0 -0 -0
-1.9340352 -0.83277321 -0.58095843
-2.1782982 -0.93795007 -0.52539158
-4.7265315 -2.0351899 -0.85792434
-4.8805389 -2.1015038 -0.59227723
-5.3316998 -2.2957685 -0.32424298
-5.0944571 -2.1936145 0
-7.5271573 -3.241107 0.45775792
-1.9169394 -0.82815915 -0.68853843
-2.0274498 -0.87590194 -0.60933638
-2.0792015 -0.89825982 -0.50175148
-4.7169971 -2.0378444 -0.85664004
-4.8874936 -2.1115026 -0.5934304
-5.307456 -2.2929354 -0.32293686
-4.9986358 -2.1595182 0
-7.5303845 -3.2532885 0.45819291
-0 -0 -0
-1.8859804 -0.81748974 -0.56711519
-2.1224027 -0.91996849 -0.51244467
-4.7145314 -2.0435424 -0.85664004
-4.8849387 -2.1174066 -0.5934304
-5.1377983 -2.22701 -0.31277737
-4.9530463 -2.1469281 0
-7.5288301 -3.2634175 0.4583379
-0 -0 -0
-1.9494088 -0.84778267 -0.58649576
-2.1352746 -0.92861426 -0.51582307
-4.702642 -2.0451424 -0.85492814
-0 -0 -0
-4.9706974 -2.1617174 -0.30276346
-4.9265871 -2.1425343 0
-7.5248814 -3.2725122 0.4583379
-0 -0 -0
-1.9115924 -0.83408469 -0.57542115
-2.1271622 -0.92814422 -0.51413387
-4.7072287 -2.0539041 -0.8562125
-0 -0 -0
-4.9347348 -2.1531718 -0.30073121
-4.9144535 -2.1443224 0
-7.530448 -3.2857587 0.45891848
-0 -0 -0
-1.9680358 -0.86154491 -0.5927245
-2.2749987 -0.9959237 -0.55015635
-4.735312 -2.0729723 -0.86177564
-0 -0 -0
-4.9083304 -2.1487143 -0.29928011
-4.9166226 -2.1523445 0
-7.5312376 -3.2969415 0.45920902
-0 -0 -0
-1.8797125 -0.82558763 -0.56642371
-2.1039777 -0.92408705 -0.50906843
-4.7281075 -2.0766299 -0.86092055
-4.8817549 -2.1441131 -0.59429556
-4.9128699 -2.1577792 -0.29971567
-4.9187884 -2.1603787 0
-7.5224857 -3.3039474 0.45891848
-0 -0 -0
-2.0325229 -0.89563465 -0.61279655
-2.0726347 -0.91330993 -0.50175148
-4.7091489 -2.0750942 -0.85792434
-4.8791604 -2.1500101 -0.59429556
