# .PCD v0.7 - Point Cloud Data file format
VERSION 0.7
FIELDS x y z
SIZE 4 4 4
TYPE F F F
COUNT 1 1 1
WIDTH 1607
HEIGHT 1
VIEWPOINT 0 0 0 1 0 0 0
POINTS 1607
DATA ascii
-0 0 0
-0.25833759 2.6475399 -0.73391753
-0.18072692 1.8521569 -0.4122566
-0.17818002 1.8260554 -0.30587533
-0.18600474 1.9062459 -0.2134815
-0.20467569 2.0975928 -0.11771996
-0.35493192 3.6374745 0
-0 0 0
-0.2573435 2.6047857 -0.72215146
-0.17921825 1.8140156 -0.40381494
-0.18190017 1.8411616 -0.30844229
-0.18474728 1.8699795 -0.20944485
-0.19903588 2.0146062 -0.11307606
-0.35958245 3.6396303 0
-0 0 0
-0.26049069 2.6044729 -0.72215146
-0.18292674 1.8289626 -0.40719119
-0.18412472 1.8409405 -0.30844229
-0.1890659 1.890344 -0.21175119
-0.19862518 1.9859208 -0.11147939
-0.36423871 3.6417804 0
-0 0 0
-0.26206413 2.604315 -0.72215146
-0.18047059 1.7934628 -0.39931187
-0.18138237 1.8025237 -0.30202404
-0.18787752 1.8670706 -0.20915684
-0.19696292 1.9573586 -0.10988271
-0.37060788 3.6829903 0
-0 0 0
-0.26604232 2.5812166 -0.71592265
-0.18350188 1.7803863 -0.39649799
-0.18336937 1.7791007 -0.29817274
-0.19132823 1.8563197 -0.20800367
-0.19822948 1.9232776 -0.10799604
-0.37657186 3.653605 0
-0 0 0
-0.2644774 2.5359838 -0.7034651
-0.18407112 1.7649952 -0.3931196
-0.18551894 1.7788779 -0.29817274
-0.19437622 1.8638072 -0.20886882
-0.19974543 1.9152908 -0.10756104
-0.38044685 3.6479752 0
-0 0 0
-0.26411957 2.5032308 -0.69446766
-0.18647102 1.7673057 -0.39368412
-0.18685989 1.7709912 -0.29688841
-0.19499922 1.8481328 -0.20713851
-0.20287672 1.9227929 -0.10799604
-0.38458058 3.6449172 0
-0 0 0
-0.26661101 2.4979157 -0.69308197
-0.18617855 1.7443329 -0.38861653
-0.18845528 1.7656639 -0.29603332
-0.19668369 1.8427571 -0.20656249
-0.20464887 1.9173838 -0.10770604
-0.39064223 3.6599817 0
-0 0 0
-0.26882201 2.4901161 -0.69100749
-0.19074136 1.7668499 -0.39368412
-0.19003701 1.7603254 -0.29517657
-0.19502412 1.8065214 -0.20252694
-0.20612854 1.9093823 -0.10727048
-0.39255062 3.6362224 0
-0 0 0
-0.26883525 2.4623537 -0.68339306
-0.19011787 1.7413543 -0.38805416
-0.19216388 1.7600946 -0.29517657
-0.1977677 1.8114219 -0.20310298
-0.20900008 1.9143031 -0.10756104
-0.39863819 3.6512632 0
-0 0 0
-0.27236146 2.4670191 -0.68477869
-0.19333711 1.7512256 -0.39030573
-0.19429047 1.7598611 -0.29517657
-0.19541509 1.7700478 -0.19849029
-0.21102703 1.9114588 -0.10741548
-0.40447739 3.6637104 0
-0 0 0
-0.2761763 2.4741609 -0.68685323
-0.19601728 1.7560461 -0.39143255
-0.19641678 1.7596251 -0.29517657
-0.19784147 1.7723883 -0.19877942
-0.21276054 1.9060427 -0.10712548
-0.40746069 3.6502891 0
-0 0 0
-0 0 -0
-0.27860352 2.4688442 -0.68547022
-0.19842362 1.7583303 -0.39199492
-0.19940665 1.7670416 -0.29646087
-0.19940227 1.7670027 -0.19820228
-0.21389794 1.895456 -0.10654492
-0.41128796 3.6446269 0
-0.41580033 3.6846132 0.20711473
-0 0 -0
-0.28073317 2.4610257 -0.68339306
-0.20141228 1.7656653 -0.39368412
-0.2000872 1.7540491 -0.29432145
-0.20007178 1.7539139 -0.1967611
-0.21559964 1.8900377 -0.10625492
-0.41805112 3.6648133 0
-0.41288996 3.6195681 0.20348638
-0 0 -0
-0.28341955 2.4581947 -0.68270159
-0.20296298 1.7603674 -0.39255726
-0.20161787 1.7487009 -0.29346469
-0.20337589 1.7639487 -0.19791427
-0.21758474 1.887187 -0.10610937
-0.42307463 3.6694713 0
-0.42470336 3.6835978 0.20711473
-0 0 -0
-0.28609952 2.4553611 -0.68201005
-0.20450231 1.7550781 -0.39143255
-0.20254226 1.7382566 -0.29175282
-0.20371044 1.7482821 -0.19618396
-0.22016649 1.8895111 -0.10625492
-0.42780909 3.6715398 0
-0.42674807 3.6624341 0.20595361
-0.28927201 2.4567621 -0.81566679
-0.28495839 2.4201269 -0.67231846
-0.206028 1.7497779 -0.39030573
-0.20584321 1.7482084 -0.29346469
-0.2052184 1.7429022 -0.19560793
-0.22214469 1.8866557 -0.10610937
-0.43255031 3.6736124 0
-0.42965412 3.6490149 0.20522806
-0.29953974 2.5177658 -0.83604014
-0.28699416 2.4123144 -0.67024398
-0.20904294 1.7570995 -0.39199492
-0.20795542 1.7479584 -0.29346469
-0.21007396 1.7657658 -0.19820228
-0.22381084 1.8812304 -0.10581937
-0.43299109 3.6394839 0
-0.43222165 3.6330166 0.20435749
-0.30494028 2.5370243 -0.84255672
-0.28721455 2.3895507 -0.66401517
-0.21116589 1.7568456 -0.39199492
-0.21006733 1.7477059 -0.29346469
-0.21097274 1.7552387 -0.19704911
-0.22825351 1.8990102 -0.10683493
-0.43956268 3.657048 0
-0.4421922 3.6789246 0.20696972
-0.29579228 2.4360688 -0.80914706
-0.28737918 2.3667805 -0.65778375
-0.21451363 1.7666787 -0.39424646
-0.21310753 1.7550983 -0.29474899
-0.21215785 1.7472771 -0.19618396
-0.22960921 1.8910019 -0.10639992
-0.4433544 3.6513519 0
-0.44475728 3.6629057 0.20609862
-0.29843384 2.4332492 -0.80832976
-0.29359853 2.3938251 -0.66539818
-0.21602893 1.7613693 -0.3931196
-0.21522805 1.7548395 -0.29474899
-0.21395437 1.7444547 -0.19589594
-0.23157793 1.8881465 -0.10625492
-0.45061707 3.6740594 0
-0.44886684 3.6597888 0.20595361
-0.30623528 2.4721324 -0.82136917
-0.29741633 2.4009402 -0.66747534
-0.21909444 1.7686743 -0.3948088
-0.21734828 1.7545782 -0.29474899
-0.21637972 1.7467593 -0.19618396
-0.23226109 1.8749642 -0.10552881
-0.45537576 3.6760926 0
-0.45680282 3.6876125 0.20755029
-0.30406481 2.4425149 -0.8115896
-0.29638746 2.3808436 -0.66193801
-0.21922097 1.7609749 -0.3931196
-0.21809146 1.7519016 -0.29432145
-0.21839385 1.7543308 -0.19704911
-0.23371573 1.8774095 -0.10567436
-0.45823899 3.6809769 0
-0.45196924 3.6306129 0.20435749
-0.29622653 2.3563223 -0.78306818
-0.29895139 2.3779969 -0.66124654
-0.22103198 1.75819 -0.39255726
-0.22052802 1.7541814 -0.29474899
-0.22083578 1.7566293 -0.19733712
-0.23598404 1.8771257 -0.10567436
-0.46106359 3.6675122 0
-0 0 0
-0.30280855 2.3853858 -0.79284775
-0.31035388 2.4448245 -0.67993289
-0.22283657 1.7554035 -0.39199492
-0.2216773 1.7462713 -0.29346469
-0.22393563 1.7640615 -0.19820228
-0.23857893 1.8794146 -0.10581937
-0.46615085 3.6721208 0
-0 0 0
-0.31008905 2.4193351 -0.80425572
-0.30214566 2.3573604 -0.65570927
-0.22624958 1.7652141 -0.39424646
-0.22346112 1.7434584 -0.29303712
-0.2277108 1.7766145 -0.19964346
-0.23919825 1.8662405 -0.10509381
-0.47323442 3.6922061 0
-0 0 0
-0.31237838 2.4140611 -0.80262733
-0.31078833 2.4017732 -0.66816682
-0.22609951 1.7472978 -0.39030573
-0.22721443 1.7559139 -0.29517657
-0.22819802 1.7635151 -0.19820228
-0.24312004 1.8788325 -0.10581937
-0.47569087 3.6761408 0
-0 0 0
-0.31305376 2.396524 -0.79692179
-0.317265 2.4287622 -0.67578125
-0.22985588 1.7596183 -0.3931196
-0.22800592 1.7454562 -0.29346469
-0.23133411 1.7709346 -0.19906743
-0.24471627 1.8733792 -0.10552881
-0.48148081 3.6858854 0
-2.390907 18.303139 1.031029
-0.30851883 2.339792 -0.77817994
-0.31429553 2.3836021 -0.66332102
-0.23264682 1.7643824 -0.39424646
-0.23380652 1.7731774 -0.29817274
-0.23516405 1.7834728 -0.20050862
-0.24732037 1.8756658 -0.10567436
-0.48389351 3.6698251 0
-0 0 0
-0.31330153 2.3541126 -0.78306818
-0.31717542 2.3832207 -0.66332102
-0.23511346 1.7666162 -0.3948088
-0.23459426 1.7627151 -0.29646087
-0.23595397 1.7729318 -0.19935545
-0.2502715 1.8805121 -0.10596436
-0.49210307 3.6976075 0
-0 0 0
-0.31844929 2.370882 -0.78877372
-0.31638211 2.3554919 -0.65570927
-0.23623282 1.7587736 -0.3931196
-0.23569846 1.7547952 -0.29517657
-0.23878534 1.7777773 -0.19993259
-0.25185239 1.8750626 -0.10567436
-0.49587831 3.6918564 0
-0 0 0
-0.32264173 2.3802924 -0.79203355
-0.32124925 2.3700194 -0.65986091
-0.23835778 1.7584869 -0.3931196
-0.23885337 1.762143 -0.29646087
-0.24058485 1.774917 -0.19964346
-0.25237176 1.8618751 -0.10494824
-0.49754232 3.6706233 0
-0 0 0
-0.31982392 2.3382735 -0.77817994
-0.3227528 2.3596869 -0.65709221
-0.2404824 1.7581975 -0.3931196
-0.2409824 1.7618531 -0.29646087
-0.24272931 1.7746251 -0.19964346
-0.25426948 1.8589967 -0.10480325
-0.50374025 3.6829095 0
-3.49581 25.558313 1.4408817
-0.32095984 2.3256457 -0.77410591
-0.3238892 2.3468716 -0.6536321
-0.24295503 1.76043 -0.39368412
-0.24205787 1.7539293 -0.29517657
-0.24734901 1.7922683 -0.2016618
-0.25722671 1.8638412 -0.10509381
-0.50498813 3.6590979 0
-0 0 0
-0.32649526 2.3448308 -0.78062248
-0.32776299 2.3539352 -0.65570927
-0.24473056 1.7576113 -0.3931196
-0.24488571 1.7587255 -0.29603332
-0.24666081 1.771474 -0.19935545
-0.25840321 1.8558056 -0.10465825
-0.51371598 3.6894166 0
-0 0 0
-0.32795435 2.3346536 -0.77736574
-0.33095565 2.3560195 -0.65640074
-0.24685413 1.7573143 -0.3931196
-0.24808086 1.7660474 -0.29731598
-0.24916057 1.7737335 -0.19964346
-0.26173013 1.8632141 -0.10509381
-0.51889694 3.6939428 0
-0 0 0
-0.32834733 2.3171232 -0.77166021
-0.33450553 2.3605809 -0.65778375
-0.24933483 1.7595377 -0.39368412
-0.24913515 1.7581285 -0.29603332
-0.25275517 1.7836747 -0.20079663
-0.26434547 1.8654667 -0.1052388
-0.52116984 3.6778574 0
-0 0 0
-0.33709195 2.3583169 -0.78551388
-0.33593762 2.3502409 -0.65501511
-0.25253829 1.7667739 -0.39537114
-0.2519851 1.7629038 -0.29688841
-0.25600851 1.7910519 -0.2016618
-0.26586327 1.8599964 -0.10494824
-0.52745432 3.690104 0
-0.63608098 4.4500628 0.2510899
-0.33465064 2.3212109 -0.77328861
-0.33662993 2.3349395 -0.65086347
-0.25431067 1.763955 -0.3948088
-0.25374907 1.7600597 -0.29646087
-0.25706488 1.7830588 -0.20079663
-0.26922324 1.8673918 -0.10538381
-0.53191268 3.6894641 0
-0.64516467 4.4750047 0.25254101
-0.33532196 2.3061342 -0.76840037
-0.34017366 2.3395011 -0.6522491
-0.25790432 1.7737043 -0.39706033
-0.2562446 1.7622898 -0.29688841
-0.26033604 1.7904279 -0.2016618
-0.27073234 1.8619274 -0.10509381
-0.5378682 3.6991203 0
-0.64758021 4.4536505 0.25137991
-0.33385819 2.2863657 -0.76188064
-0.33941141 2.3243959 -0.64809483
-0.25860909 1.7710363 -0.39649799
-0.2569387 1.7595969 -0.29646087
-0.26029617 1.7825899 -0.20079663
-0.27148065 1.8591849 -0.10494824
-0.54160708 3.7090955 0
-0.65214765 4.4661121 0.25210544
-0.33950117 2.3055227 -0.76840037
-0.34075776 2.3140559 -0.64532614
-0.26111868 1.7732339 -0.39706033
-0.2609342 1.7719811 -0.29860029
-0.26169699 1.7771612 -0.2002206
-0.27448475 1.8640019 -0.1052388
-0.5449506 3.7007117 0
-0.65640903 4.4576159 0.25167045
-0.33938247 2.2855523 -0.76188064
-0.34244779 2.3061955 -0.64324903
-0.26288822 1.7704061 -0.39649799
-0.26307508 1.7716646 -0.29860029
-0.26384413 1.7768437 -0.2002206
-0.2752102 1.8533877 -0.10465825
-0.55056894 3.7077758 0
-0.66103065 4.451674 0.25137991
-0.34763396 2.3218083 -0.77410591
-0.34412074 2.2983439 -0.6411745
-0.26540312 1.7725977 -0.39706033
-0.26331538 1.758654 -0.29646087
-0.26828814 1.7918665 -0.20194981
-0.27706507 1.8504865 -0.10451325
-0.55196571 3.6865172 0
-0.66525447 4.4431605 0.25094435
-0.34601191 2.2920594 -0.76432633
-0.34689757 2.2979264 -0.6411745
-0.26526982 1.757206 -0.39368412
-0.26620582 1.7634063 -0.29731598
-0.26929593 1.7838758 -0.20108576
-0.28007582 1.8552841 -0.10480325
-0.55991566 3.7090054 0
-0.67023522 4.4397864 0.25079933
-0.34580606 2.2720921 -0.7578066
-0.34967393 2.2975056 -0.6411745
-0.26777482 1.7593937 -0.39424646
-0.26910961 1.7681639 -0.29817274
-0.27106091 1.7809848 -0.20079663
-0.28153616 1.8498116 -0.10451325
-0.56361443 3.7031853 0
-0.67442751 4.4312739 0.25036433
-0.35942122 2.3425176 -0.78143978
-0.35054773 2.2846849 -0.63771439
-0.27182686 1.771624 -0.39706033
-0.27163485 1.7703724 -0.29860029
-0.27478173 1.7908822 -0.20194981
-0.28495219 1.8571678 -0.10494824
-0.56690419 3.6947818 0
-0.67859876 4.4227481 0.24992879
-0.3531844 2.2834601 -0.76188064
-0.35177419 2.2743425 -0.63494575
-0.27241379 1.7612501 -0.3948088
-0.27377379 1.7700429 -0.29860029
-0.2781319 1.7982196 -0.20281497
-0.28799114 1.8619629 -0.1052388
-0.57136816 3.6940942 0
-0.68036807 4.3988161 0.24862267
-0.36355814 2.3318739 -0.77817994
-0.3560679 2.2838311 -0.63771439
-0.27688947 1.7759782 -0.39818501
-0.27709907 1.7773225 -0.29988462
-0.27990642 1.7953291 -0.20252694
-0.29024073 1.8616135 -0.1052388
-0.57663393 3.698549 0
-0.68208051 4.3748865 0.24731655
-0.35448059 2.2557397 -0.75291526
-0.3553209 2.2610869 -0.6314829
-0.27864113 1.7731347 -0.39762267
-0.27964455 1.7795199 -0.30031216
-0.28287783 1.8000948 -0.20310298
-0.29370046 1.8689648 -0.10567436
-0.58190972 3.7029865 0
-0.6865586 4.3689203 0.247026
-0.35797998 2.2601967 -0.75454676
-0.36119241 2.280479 -0.63702023
-0.27998921 1.7677823 -0.39649799
-0.28259692 1.7842468 -0.30116728
-0.28464845 1.7971996 -0.20281497
-0.29758447 1.8788744 -0.10625492
-0.58923388 3.7202764 0
-0.69346309 4.3783536 0.24760655
-0.35915235 2.2499995 -0.75128686
-0.36592454 2.2924256 -0.64048034
-0.28492749 1.7849994 -0.40043655
-0.28394413 1.7788389 -0.30031216
-0.28559631 1.7891895 -0.20194981
-0.31336895 1.963178 -0.11104383
-0.59906125 3.7529688 0
-0.69629622 4.3621216 0.24673599
-0.3614786 2.2471261 -0.75047266
-0.36232063 2.2523606 -0.62940842
-0.28466359 1.7696067 -0.39706033
-0.28609329 1.7784945 -0.30031216
-0.28775799 1.788843 -0.20194981
-0.32812068 2.039757 -0.11539774
-0.59615636 3.7059965 0
-0.70362949 4.3741016 0.24746154
-0.37170675 2.2930362 -0.76595467
-0.36744973 2.2667749 -0.63356006
-0.28842792 1.7792941 -0.39931187
-0.28824204 1.7781476 -0.30031216
-0.29074779 1.7936052 -0.20252694
-0.36176795 2.2317243 -0.12628278
-0.60021627 3.7026973 0
-0.71099275 4.3860707 0.24818711
-0.36411852 2.2291687 -0.74476713
-0.36735705 2.2489953 -0.62871426
-0.29016843 1.7764391 -0.39874953
-0.29121724 1.78286 -0.30116728
-0.29458264 1.8034632 -0.20368011
-0.38373226 2.349246 -0.13295892
-0.60930514 3.7302248 0
-0.71838599 4.3980284 0.24891266
-0.37403595 2.2726207 -0.75943494
-0.36885315 2.2411304 -0.62663978
-0.29231468 1.7760872 -0.39874953
-0.29420584 1.7875777 -0.30202404
-0.29718119 1.8056557 -0.20396812
-0.38488266 2.3385248 -0.13237835
-0.61296582 3.724345 0
-0.71272886 4.3304992 0.24513932
-0.37354702 2.2526608 -0.75291526
-0.36909759 2.2258286 -0.62248546
-0.29446054 1.7757326 -0.39874953
-0.29594603 1.7846909 -0.30159646
-0.29894003 1.8027461 -0.20368011
-0.39365837 2.3739412 -0.13441002
-0.61618954 3.7159066 0
-0 0 0
-0.37369168 2.2451274 -0.75047266
-0.37044227 2.2256052 -0.62248546
-0.29720202 1.7855802 -0.40100107
-0.2966015 1.7819723 -0.30116728
-0.30130187 1.8102119 -0.20454416
-0.39935964 2.3993399 -0.13586169
-0.61928815 3.7206633 0
-0 0 0
-0.38089928 2.2714806 -0.75943494
-0.37188771 2.2177403 -0.62041098
-0.30061874 1.7927302 -0.40268809
-0.29748207 1.7740247 -0.29988462
-0.30348894 1.8098465 -0.20454416
-0.40268779 2.4014158 -0.1360067
-0.63196135 3.7686813 0
-0 0 0
-0.36347252 2.1516135 -0.71950555
-0.36955252 2.1876047 -0.61210507
-0.30236188 1.7898626 -0.40212575
-0.30047977 1.7787215 -0.30073971
-0.30524516 1.8069307 -0.20425615
-0.40861934 2.418865 -0.13702282
-0.6317457 3.7396848 0
-0.62716353 3.7125602 0.21030752
-0 0 -0
-0.37471998 2.2019911 -0.61625671
-0.30452433 1.7894961 -0.40212575
-0.30607405 1.7986026 -0.30416346
-0.30829692 1.8116651 -0.20483328
-0.41241276 2.4234877 -0.13731281
-0.63713795 3.744055 0
-0.63426536 3.7271745 0.21117863
-0 0 -0
-0.37695691 2.1990664 -0.61556518
-0.30496922 1.7791092 -0.39987421
-0.30781379 1.7957038 -0.30373591
-0.30829951 1.7985374 -0.20339099
-0.41577938 2.4255462 -0.13745782
-0.64034194 3.7355847 0
-0.63393885 3.6982307 0.20958196
-0 0 -0
-0.35443085 2.0527573 -0.57472962
-0.30927986 1.7912563 -0.40268809
-0.30954698 1.7928033 -0.30330834
-0.31047246 1.7981635 -0.20339099
-0.42047831 2.4352844 -0.13803838
-0.6448552 3.7348082 0
-0.64548075 3.7384312 0.21190418
-0 0 -0
-0.34315616 1.9732341 -0.55258048
-0.30839789 1.7733653 -0.39874953
-0.3103931 1.7848382 -0.30202404
-0.31353211 1.8028884 -0.20396812
-0.42253101 2.4296594 -0.13774838
-0.65025848 3.7391493 0
-0.64955264 3.735091 0.21175919
-0 0 -0
-0 0 -0
-0.31360772 1.7905037 -0.40268809
-0.31343439 1.7895142 -0.30287915
-0.31704944 1.8101538 -0.20483328
-0.42681178 2.4368279 -0.13818394
-0.65522629 3.7409317 0
-0.65989274 3.7675741 0.21364586
-0 0 -0
-0 0 -0
-0.31665459 1.7951328 -0.40381494
-0.3169347 1.7967206 -0.30416346
-0.31923643 1.8097694 -0.20483328
-0.4297559 2.4363105 -0.13818394
-0.65974599 3.7401373 0
-0.66218811 3.7539818 0.21292031
-0 0 -0
-0 0 -0
-0.31660178 1.7822427 -0.40100107
-0.31730947 1.7862264 -0.30245158
-0.32096925 1.8068284 -0.20454416
-0.43315345 2.4383454 -0.13832894
-0.66517425 3.7444572 0
-0.66444987 3.7403796 0.21219419
-0.34916672 1.9383472 -0.64942014
-0 0 -0
-0.32360974 1.7964714 -0.40437728
-0.32390022 1.798084 -0.304591
-0.32900304 1.8264116 -0.2068505
-0.43904468 2.4372914 -0.13832894
-0.67329931 3.7377212 0
-0.67947513 3.7720053 0.21408087
-0.34312871 1.8917243 -0.63393813
-0 0 -0
-0.32623321 1.7985767 -0.40493965
-0.3256149 1.7951679 -0.30416346
-0.3293632 1.8158329 -0.20569733
-0.44245267 2.4393134 -0.13847393
-0.68013704 3.749706 0
-0.68403238 3.7711816 0.21408087
-0.36228731 1.9836965 -0.66490525
-0 0 -0
-0.32703802 1.7906898 -0.4032526
-0.32870707 1.7998285 -0.30502021
-0.33016431 1.8078077 -0.20483328
-0.44446701 2.4336696 -0.13818394
-0.68980926 3.777036 0
-0.69045597 3.7805769 0.21466142
-0.3472527 1.8884611 -0.63312393
-0 0 -0
-0.33195773 1.8052826 -0.40662885
-0.32902455 1.7893311 -0.30330834
-0.3337504 1.8150316 -0.20569733
-0.44787678 2.435684 -0.13832894
-0.69154948 3.7608471 0
-0.69455403 3.7771866 0.21451642
-0.35358319 1.9099106 -0.64045787
-0 0 -0
-0.33043849 1.7848926 -0.40212575
-0.33212009 1.7939757 -0.30416346
-0.33688584 1.8197185 -0.20627446
-0.45223716 2.4427989 -0.13876393
-0.6927765 3.7420931 0
-0.69911754 3.7763448 0.21451642
-0.36177742 1.9410665 -0.65105164
-0 0 -0
-0.33352697 1.7894926 -0.4032526
-0.33475742 1.7960943 -0.304591
-0.33718872 1.8091393 -0.20512129
-0.45280844 2.4294808 -0.13803838
-0.70015955 3.756609 0
-0.70558441 3.7857151 0.21509698
-0.35910836 1.9139043 -0.64208621
-0 0 -0
-0.33568898 1.7890882 -0.4032526
-0.33740216 1.7982188 -0.30502021
-0.34080589 1.8163593 -0.20598646
-0.45813912 2.4416988 -0.13876393
-0.70325792 3.7480841 0
-0.70824146 3.7746441 0.21451642
-0.36050409 1.9086163 -0.64045787
-0 0 -0
-0.33596411 1.7786943 -0.40100107
-0.3386209 1.79276 -0.30416346
-0.34300035 1.8159462 -0.20598646
-0.46157277 2.4437041 -0.13890949
-0.70826882 3.7497864 0
-0.71135455 3.7661233 0.21408087
-0.3621169 1.9108242 -0.64127201
-0 0 -0
-0.34224141 1.8059449 -0.40719119
-0.3411383 1.8001242 -0.30544776
-0.3436144 1.8131901 -0.20569733
-0.46304905 2.4434247 -0.13890949
-0.71004999 3.7468033 0
-0.71411496 3.7682533 0.21422642
-0.36303565 1.9030994 -0.63882637
-0 0 -0
-0.34347197 1.8005431 -0.40606648
-0.34331316 1.7997106 -0.30544776
-0.34822789 1.8254745 -0.20713851
-0.46600112 2.4428635 -0.13890949
-0.71701461 3.7587221 0
-0.72353572 3.792907 0.21567754
-0.3653349 1.9026594 -0.63882637
-0 0 -0
-0.34516865 1.7976339 -0.40550414
-0.3450039 1.7967758 -0.30502021
-0.3509225 1.8275998 -0.20742764
-0.46895251 2.4422987 -0.13890949
-0.72106546 3.7552998 0
-0.72321928 3.7665164 0.21422642
-0.36810398 1.9046503 -0.63964367
-0 0 -0
-0.34734049 1.7972155 -0.40550414
-0.34766135 1.7988757 -0.30544776
-0.3526383 1.8246276 -0.20713851
-0.4719032 2.4417303 -0.13890949
-0.72807121 3.7671993 0
-0.73220694 3.7885985 0.21553254
-0.37559497 1.9308846 -0.64860594
-0 0 -0
-0.35048121 1.801778 -0.40662885
-0.35081407 1.8034891 -0.30630288
-0.35089374 1.8038988 -0.20483328
-0.47485322 2.4411583 -0.13890949
-0.73262262 3.7663169 0
-0.73628855 3.7851629 0.21538754
-0.37792781 1.9304293 -0.64860594
-0 0 -0
-0.35363534 1.8063451 -0.40775567
-0.35151479 1.7955134 -0.30502021
-0.35555732 1.8161625 -0.20627446
-0.47730187 2.4380252 -0.13876393
-0.7321738 3.7398937 0
-0.74185914 3.7893658 0.21567754
-0.38026008 1.9299713 -0.64860594
-0 0 -0
-0.3553251 1.8034164 -0.40719119
-0.35417983 1.7976036 -0.30544776
-0.35725203 1.8131963 -0.20598646
-0.48225665 2.4476445 -0.1393445
-0.74172217 3.7645354 0
-0.7489484 3.8012114 0.2164031
-0.38307205 1.9319324 -0.64942014
-0 0 -0
-0.35701019 1.8004957 -0.40662885
-0.35834879 1.8072466 -0.30715963
-0.361453 1.822902 -0.20713851
-0.48521379 2.4470601 -0.1393445
-0.74778938 3.7712972 0
-0.75151926 3.7901082 0.21582253
-0.38492295 1.9290468 -0.64860594
-0 0 -0
-0.35669988 1.7876065 -0.40381494
-0.35852289 1.7967424 -0.30544776
-0.36416292 1.8250077 -0.20742764
-0.48918816 2.4515734 -0.13963506
-0.75438273 3.7805996 0
-0.75457436 3.7815602 0.21538754
-0.38968596 1.9406941 -0.65267998
-0 0 -0
-0.36136022 1.7996277 -0.40662885
-0.36271513 1.8063753 -0.30715963
-0.36483976 1.8169563 -0.20656249
-0.49215004 2.4509804 -0.13963506
-0.75946218 3.7822344 0
-0.75965416 3.7831907 0.21553254
-0.3915416 1.9378015 -0.65186578
-0 0 -0
-0.36403722 1.8016779 -0.40719119
-0.36540544 1.8084495 -0.30758721
-0.3701075 1.8317207 -0.20829168
-0.49511123 2.4503839 -0.13963506
-0.76145506 3.7685618 0
-0.76628339 3.7924581 0.21611309
-0.39437473 1.9397466 -0.65267998
-0 0 -0
-0.36672163 1.8037338 -0.40775567
-0.3681013 1.8105198 -0.30801475
-0.3723205 1.8312721 -0.20829168
-0.49858886 2.4523277 -0.13978004
-0.77067417 3.7905893 0
-0.77138245 3.7940731 0.21625809
-0.3952336 1.9320114 -0.65023744
-0 0 -0
-0.36890081 1.8032894 -0.40775567
-0.3692607 1.8050486 -0.30715963
-0.37557071 1.8358939 -0.20886882
-0.50311452 2.4593632 -0.14021561
-0.7736885 3.7820039 0
-0.775446 3.7905951 0.21611309
-0.39806557 1.9339509 -0.65105164
-0 0 -0
-0.37364024 1.8152837 -0.41056958
-0.37144148 1.8046011 -0.30715963
-0.37622392 1.8278362 -0.20800367
-0.50556242 2.4562109 -0.1400706
-0.77825779 3.7810664 0
-0.78159571 3.7972834 0.2165481
-0.40190619 1.9407316 -0.65349728
-0 0 -0
-0.3742871 1.8073641 -0.40888038
-0.37570399 1.8142059 -0.30887151
-0.37895626 1.8299105 -0.20829168
-0.50905633 2.4581401 -0.14021561
-0.78388238 3.7852249 0
-0.78671187 3.798888 0.21669365
-0.40374529 1.9378179 -0.65267998
-0 0 -0
-0.37698847 1.8093957 -0.40944272
-0.37527829 1.8011875 -0.30673209
-0.38116705 1.8294513 -0.20829168
-0.51361668 2.4651573 -0.14065117
-0.78792316 3.7817199 0
-0.79236048 3.8030174 0.21698365
-0.40507334 1.9324952 -0.65105164
-0 0 -0
-0.37656862 1.7965069 -0.40662885
-0.37850669 1.8057529 -0.30758721
-0.38337731 1.8289894 -0.20829168
-0.51659501 2.4645348 -0.14065117
-0.79516315 3.7935081 0
-0.79802233 3.8071485 0.2172742
-0.40740809 1.9320043 -0.65105164
-0 0 -0
-0.37716573 1.7885895 -0.40493965
-0.38121748 1.8078036 -0.30801475
-0.38718858 1.8361197 -0.20915684
-0.5190348 2.461359 -0.14050561
-0.80243069 3.8052747 0
-0.80530214 3.8188915 0.21799977
-0.40755138 1.9269171 -0.64942014
-0 0 -0
-0.38087666 1.8007981 -0.40775567
-0.38284028 1.8100821 -0.30844229
-0.38776311 1.8333573 -0.20886882
-0.5199846 2.4585052 -0.14036061
-0.80095935 3.7869635 0
-0.80492127 3.8056958 0.2172742
-0.41090909 1.9312629 -0.65105164
-0 0 -0
-0.38358057 1.8028194 -0.40831801
-0.38449341 1.8071097 -0.30801475
-0.3915934 1.8404795 -0.20973398
-0.52565813 2.4705803 -0.14108616
-0.80661881 3.7910888 0
-0.80897683 3.8021715 0.21712865
-0.41427591 1.935594 -0.65267998
-0 0 -0
-0.38628992 1.8048369 -0.40888038
-0.38828897 1.8141769 -0.30929905
-0.39219248 1.832415 -0.20886882
-0.52973163 2.4750302 -0.14137672
-0.814466 3.8053758 0
-0.81357044 3.8011913 0.21712865
-0.41609469 1.9326781 -0.65186578
-0 0 -0
-0.38953897 1.8093319 -0.41000506
-0.39210218 1.8212374 -0.31058338
-0.39440629 1.8319397 -0.20886882
-0.53600222 2.4896247 -0.14224727
-0.81851625 3.801847 0
-0.8181628 3.8002055 0.21712865
-0.41581455 1.9200982 -0.64779174
-0.41116726 1.8986385 -0.53597122
-0.39280152 1.8138313 -0.41113192
-0.39484531 1.8232689 -0.31101093
-0.39990312 1.8466243 -0.21059802
-0.5373596 2.4813542 -0.14181173
-0.81980342 3.7855892 0
-0.82550544 3.8119192 0.21785477
-0.41918537 1.9244196 -0.64942014
-0 0 -0
-0.39445263 1.8108752 -0.41056958
-0.39595431 1.8177692 -0.31015417
-0.3993822 1.833506 -0.20915684
-0.54035741 2.4807031 -0.14181173
-0.82991701 3.8100295 0
-0.82845116 3.8032999 0.21741921
-0.42098191 1.9214997 -0.64860594
-0.42058602 1.9196928 -0.54220003
-0.39718369 1.8128768 -0.41113192
-0.39760157 1.8147842 -0.30972663
-0.40215033 1.8355463 -0.20944485
-0.54391217 2.482594 -0.14195728
-0.83340508 3.8039346 0
-0.83471495 3.8099132 0.21785477
-0.42170721 1.9137462 -0.64616024
-0.42398399 1.9240785 -0.54358304
-0.40046644 1.8173536 -0.4122566
-0.39869031 1.8092934 -0.30887151
-0.4038119 1.8325355 -0.20915684
-0.54970688 2.4946203 -0.14268284
-0.83968145 3.8105519 0
-0.8437891 3.8291926 0.21901533
-0.42134586 1.9011723 -0.64208621
-0.42413723 1.9137673 -0.5408144
-0.40156356 1.8119117 -0.41113192
-0.40309799 1.8188354 -0.31058338
-0.40546674 1.8295234 -0.20886882
-0.5566569 2.5117149 -0.14369896
-0.84147012 3.7968326 0
-0.84673023 3.8205669 0.21858032
-0.43117169 1.9344401 -0.65349728
-0.42699671 1.9157093 -0.54150856
-0.40320036 1.8089476 -0.41056958
-0.40585336 1.8208501 -0.31101093
-0.40823922 1.8315543 -0.20915684
-0.55743021 2.5008957 -0.1431184
-0.84945327 3.8110492 0
-0.85078126 3.8170073 0.21843533
-0.4275614 1.9073861 -0.64453191
-0.42821261 1.9102912 -0.54012287
-0.40649629 1.813413 -0.41169426
-0.40636814 1.8128413 -0.30972663
-0.41045201 1.8310597 -0.20915684
-0.56101948 2.5027533 -0.1432634
-0.85690325 3.822715 0
-0.85766405 3.8261089 0.21901533
-0.42769164 1.8972237 -0.64127201
-0.43217614 1.9171168 -0.54220003
-0.40868714 1.8129205 -0.41169426
-0.41081643 1.8223659 -0.3114385
-0.41380286 1.8356136 -0.20973398
-0.56575799 2.5096805 -0.14369896
-0.85923237 3.8115215 0
-0.86114472 3.8200049 0.21872532
-0.43818101 1.9328644 -0.65349728
-0.43504643 1.9190375 -0.54289156
-0.41424909 1.8272983 -0.41507265
-0.4118841 1.8168659 -0.31058338
-0.41602054 1.8351122 -0.20973398
-0.56534195 2.4937854 -0.14282784
-0.86441427 3.813026 0
-0.86920571 3.8341615 0.21959588
-0.43282408 1.8985921 -0.64208621
-0.43625072 1.9136231 -0.54150856
-0.41589034 1.8243119 -0.41450813
-0.41693145 1.8288788 -0.3127228
-0.41996065 1.8421663 -0.21059802
-0.56893182 2.4956315 -0.14297284
-0.86959881 3.8145137 0
-0.87383789 3.8331087 0.21959588
-0.43732694 1.9077041 -0.64534605
-0.43912268 1.9155376 -0.54220003
-0.41695994 1.8188595 -0.41338345
-0.41741964 1.8208647 -0.3114385
-0.42160887 1.8391389 -0.21031001
-0.57194686 2.4949422 -0.14297284
-0.87130022 3.8007791 0
-0.87730873 3.8269892 0.21930589
-0.44351852 1.9240358 -0.65105164
-0.44030878 1.9101115 -0.5408144
-0.41744459 1.8109241 -0.41169426
-0.42019558 1.8228581 -0.31186604
-0.42266992 1.8335922 -0.20973398
-0.57262641 2.4841211 -0.14239228
-0.8758921 3.7997236 0
-0.88251537 3.8284559 0.21945089
-0.44416818 1.9162729 -0.64860594
-0.43865269 1.8924774 -0.53597122
-0.42250058 1.8227923 -0.41450813
-0.42123964 1.8173523 -0.31101093
-0.42488515 1.8330802 -0.20973398
-0.57328063 2.4733021 -0.14181173
-0.88342035 3.8113365 0
-0.88948756 3.8375123 0.22003144
-0.45041084 1.9325867 -0.65431148
-0.44720122 1.9188151 -0.54358304
-0.42528114 1.8247622 -0.41507265
-0.42518383 1.8243446 -0.31229526
-0.42827278 1.8375986 -0.21031001
-0.5839377 2.505513 -0.14369896
-0.89156812 3.8254688 0
-0.89235389 3.8288403 0.21959588
-0.44879776 1.9151938 -0.64860594
-0.45009345 1.920723 -0.54427719
-0.4274857 1.824247 -0.41507265
-0.42680049 1.8213229 -0.31186604
-0.42872193 1.8295225 -0.20944485
-0.58637017 2.5022686 -0.14355339
-0.88728487 3.7863882 0
-0.89875877 3.8353515 0.22003144
-0.45221621 1.9245466 -0.65186578
-0.45182708 1.9228907 -0.54496866
-0.4291684 1.8264595 -0.41563499
-0.42966294 1.8285642 -0.31315035
-0.4345603 1.8494064 -0.21175119
-0.58669418 2.4968596 -0.1432634
-0.89611894 3.8137126 0
-0.90226561 3.8398719 0.220322
-0.45738211 1.9360235 -0.65593982
-0.45588118 1.9296703 -0.54704583
-0.4290382 1.8160484 -0.41338345
-0.43128243 1.8255478 -0.3127228
-0.43441588 1.8388112 -0.21059802
-0.58971071 2.4961488 -0.1432634
-0.90192425 3.8176975 0
-0.90391582 3.8261273 0.21959588
-0.475714 2.0028012 -0.67875886
-0.46284837 1.9486356 -0.55258048
-0.43240547 1.8204681 -0.41450813
-0.43230033 1.8200253 -0.31186604
-0.4366374 1.838285 -0.21059802
-0.58852237 2.477735 -0.14224727
-0.90713739 3.8191345 0
-0.90914047 3.8275678 0.21974145
-0.46435571 1.9445286 -0.65919971
-0.46928212 1.9651582 -0.55742627
-0.43401524 1.8174752 -0.41394579
-0.4333078 1.8145127 -0.31101093
-0.44486707 1.8629183 -0.2134815
-0.59151584 2.4770222 -0.14224727
-0.9123553 3.8205645 0
-0.91436768 3.8289914 0.21988644
-0.4788211 1.9944334 -0.67631322
-0.47048607 1.9597156 -0.55604327
-0.43977109 1.8317784 -0.41732419
-0.43849573 1.8264662 -0.31315035
-0.44590896 1.8573445 -0.21290436
-0.59086996 2.4611506 -0.14137672
-0.91758037 3.8219972 0
-0.91777921 3.8228257 0.21959588
-0.48239151 1.9986632 -0.67794466
-0.47756255 1.9786556 -0.56158054
-0.44079068 1.826301 -0.41619733
-0.44010064 1.823442 -0.3127228
-0.44572553 1.8467473 -0.21175119
-0.5932343 2.4579115 -0.14123172
-0.92464024 3.8310051 0
-1.2467144 5.1654348 0.29680619
-0.47664595 1.9644475 -0.66653359
-0.480544 1.9805129 -0.56227207
-0.44299707 1.825767 -0.41619733
-0.44290832 1.8254012 -0.31315035
-0.44734734 1.8436962 -0.21146318
-0.59558934 2.4546604 -0.14108616
-0.92619848 3.8172321 0
-1.2541814 5.1689801 0.29709673
-0.50420463 2.0671244 -0.7015779
-0.48234278 1.9774958 -0.56158054
-0.4446013 1.8227643 -0.41563499
-0.44572136 1.8273562 -0.31357792
-0.45141408 1.8506951 -0.21232833
-0.59855485 2.453939 -0.14108616
-1.2601184 5.1661987 0
-1.2622716 5.1750269 0.29753175
-0 0 -0
-0.48950911 1.9963949 -0.56711519
-0.44801247 1.8271567 -0.41675967
-0.44792902 1.8268163 -0.31357792
-0.45488068 1.8551676 -0.21290436
-0.60337651 2.4607873 -0.14152172
-1.2700771 5.1798334 0
-1.2660486 5.163403 0.29695117
-0.54468596 2.2098777 -0.75047266
-0.48951945 1.9860585 -0.56434655
-0.4502199 1.8266139 -0.41675967
-0.44952232 1.8237836 -0.31315035
-0.45526442 1.8470803 -0.2120392
-0.60572821 2.457536 -0.14137672
-1.2769573 5.1808195 0
-1.274774 5.1719613 0.29753175
-0.53011894 2.1396472 -0.72683948
-0.49191886 1.9854655 -0.56434655
-0.45242667 1.8260686 -0.41675967
-0.45049214 1.8182606 -0.31229526
-0.45874113 1.8515549 -0.21261635
-0.60682195 2.4492333 -0.14094116
-1.2832164 5.1792727 0
-1.2810223 5.1704173 0.29753175
-0.55121821 2.2133472 -0.75210106
-0.49492556 1.9873111 -0.56504071
-0.45524859 1.8279933 -0.41732419
-0.45579004 1.8301674 -0.31443468
-0.46285382 1.858531 -0.2134815
-0.61229271 2.4585841 -0.14152172
-1.2882169 5.1726723 0
-1.2878987 5.1713943 0.29767731
-0.55809408 2.2294652 -0.7578066
-0.49671552 1.9842709 -0.56434655
-0.45745704 1.8274419 -0.41732419
-0.45737833 1.8271275 -0.3140071
-0.4663541 1.8629837 -0.21405753
-0.61400217 2.4528058 -0.14123172
-1.2950975 5.1736341 0
-1.2947767 5.1723528 0.2978223
-0.55234551 2.1952372 -0.74639863
-0.49544099 1.9690764 -0.56019491
-0.46090361 1.8318113 -0.41844887
-0.46021152 1.8290606 -0.31443468
-0.46860483 1.8624189 -0.21405753
-0.61632961 2.4495349 -0.14108616
-1.2994422 5.1644917 0
-1.2972201 5.1556602 0.29695117
-0 0 -0
-0.49781987 1.9684763 -0.56019491
-0.46373904 1.833714 -0.41901121
-0.46367881 1.8334758 -0.3152898
-0.4664152 1.8442961 -0.2120392
-0.61865246 2.4462719 -0.14094116
-1.3088738 5.1755404 0
-1.3085454 5.174242 0.2981123
-0 0 -0
-0.50637716 1.9921832 -0.56711519
-0.46720746 1.8380822 -0.42013806
-0.4639985 1.8254576 -0.3140071
-0.46864334 1.8437312 -0.2120392
-0.62096834 2.4430065 -0.14079617
-1.3183314 5.186564 0
-1.3147964 5.172657 0.2981123
-0 0 -0
-0.51189059 2.0037303 -0.57057798
-0.46816903 1.832588 -0.41901121
-0.46683866 1.8273803 -0.31443468
-0.47279203 1.850684 -0.21290436
-0.62327725 2.4397392 -0.14065117
-3.8946974 15.245296 0
-1.3236183 5.1811352 0.29869285
-0 0 -0
-0.52491713 2.0444171 -0.58234411
-0.47164804 1.8369478 -0.42013806
-0.47159997 1.8367606 -0.31614655
-0.47631556 1.8551266 -0.2134815
-0.62816149 2.4465275 -0.14108616
-3.9144111 15.245625 0
-3.5255802 13.731228 0.7918514
-0 0 -0
-0.53427583 2.0653195 -0.58857286
-0.47306696 1.8287078 -0.41844887
-0.47364119 1.8309275 -0.3152898
-0.48097143 1.8592635 -0.21405753
-0.63129443 2.4403586 -0.14079617
-3.942688 15.241022 0
-3.5556676 13.744941 0.79301256
-0 0 -0
-0.54055727 2.079236 -0.5927245
-0.47783357 1.8379714 -0.4207004
-0.47585315 1.8303539 -0.3152898
-0.48517063 1.8661933 -0.21492268
-0.6348958 2.4421065 -0.14094116
-3.9643743 15.248838 0
-0 0 0
-0 0 -0
-0.51516789 1.97179 -0.56227207
-0.47748485 1.8275592 -0.41844887
-0.48001179 1.837231 -0.3165741
-0.48742521 1.8656057 -0.21492268
-0.64244473 2.4589384 -0.14195728
-3.9887168 15.266697 0
-0 0 0
-0 0 -0
-0.51691353 1.9687418 -0.56158054
-0.48421025 1.8441865 -0.4223896
-0.48092631 1.8316791 -0.31571734
-0.48836413 1.8600072 -0.21434554
-0.64277589 2.4481072 -0.14137672
-4.0117879 15.279489 0
-0 0 0
-0 0 -0
-0.50264972 1.9050416 -0.54358304
-0.48319519 1.831309 -0.41957358
-0.48641562 1.8435144 -0.3178584
-0.4932507 1.8694193 -0.21549872
-0.64374405 2.4397891 -0.14094116
-4.0342321 15.289733 0
-0 0 0
-0 0 -0
-0.49852276 1.8801877 -0.53666276
-0.48866552 1.843011 -0.4223896
-0.48864281 1.8429254 -0.3178584
-0.49285761 1.8588215 -0.21434554
-0.65068603 2.4540744 -0.14181173
-4.0560384 15.297422 0
-0 0 0
-0 0 -0
-0.49821064 1.8698872 -0.53389412
-0.49023601 1.8399569 -0.42182511
-0.49020645 1.8398459 -0.31742921
-0.49310747 1.850734 -0.2134815
-0.65097749 2.4432526 -0.14123172
-4.0751886 15.295023 0
-0 0 0
-0 0 -0
-0.49982145 1.8668628 -0.53320259
-0.49443093 1.8467289 -0.42351431
-0.4924292 1.8392522 -0.31742921
-0.49734822 1.8576251 -0.21434554
-0.65594333 2.4499872 -0.14166673
-4.0956864 15.297632 0
-0 0 0
-0 0 -0
-0.50533497 1.8783684 -0.53666276
-0.49600253 1.8436788 -0.42295194
-0.49265242 1.8312262 -0.31614655
-0.50295407 1.8695184 -0.21578784
-0.65620297 2.4391558 -0.14108616
-4.1188984 15.310257 0
-0 0 0
-0 0 -0
-0 0 -0
-0.49690247 1.8381678 -0.42182511
-0.49620324 1.8355812 -0.31700164
-0.50453573 1.8664052 -0.21549872
-0.66525185 2.4609346 -0.14239228
-4.1421494 15.322858 0
-0 0 0
-0 0 -0
-0.51184624 1.8844072 -0.53873992
-0.49845779 1.8351163 -0.42126274
-0.50044012 1.8424145 -0.31828597
-0.50679058 1.8657942 -0.21549872
-0.66618353 2.4526134 -0.14195728
-4.1620245 15.32286 0
-0 0 0
-0 0 -0
-0 0 -0
-0.50268245 1.8418688 -0.42295194
-0.49996245 1.8319025 -0.3165741
-0.50904465 1.8651805 -0.21549872
-0.66983002 2.4543109 -0.14210229
-4.1798515 15.315311 0
-0 0 0
-0 0 -0
-0.52634859 1.9194494 -0.54912031
-0.50490761 1.84126 -0.42295194
-0.50421286 1.8387265 -0.3178584
-0.5160867 1.8820273 -0.21751705
-0.66935986 2.4409726 -0.14137672
-4.201107 15.320289 0
-3.7490866 13.671894 0.7918514
-0 0 -0
-0.54132938 1.9647686 -0.56227207
-0.50915742 1.8479998 -0.42464113
-0.5064342 1.8381159 -0.3178584
-0.5156123 1.871428 -0.21636388
-0.6764487 2.4551878 -0.14224727
-4.2216897 15.322731 0
-5.604897 20.343115 1.1786278
-0 0 -0
-0.5343315 1.9302588 -0.55258048
-0.51071018 1.8449274 -0.42407665
-0.51002324 1.842446 -0.31871352
-0.52132273 1.8832649 -0.21780506
-0.67456424 2.436846 -0.14123172
-4.2402015 15.317618 0
-5.6474986 20.401443 1.1824018
-0 0 -0
-0.57363379 2.0625415 -0.5906474
-0.51293904 1.844309 -0.42407665
-0.51156193 1.8393575 -0.31828597
-0.52082568 1.872666 -0.21665189
-0.6844694 2.4610586 -0.14268284
-4.2600999 15.317493 0
-5.6860681 20.444664 1.185304
-0 0 -0
-0.57218766 2.0525372 -0.58788139
-0.51337153 1.8415534 -0.42351431
-0.51474178 1.8464688 -0.31957027
-0.52195698 1.8723511 -0.21665189
-0.68037397 2.4406207 -0.14152172
-1.014261 3.6383317 0
-5.6998158 20.446236 1.1855946
-0.60316581 2.1535981 -0.73743325
-0.5915792 2.1122279 -0.60518211
-0.51696813 1.8458301 -0.42464113
-0.51835585 1.8507847 -0.32042539
-0.52352208 1.8692307 -0.21636388
-0.68682581 2.4523051 -0.14224727
-1.0186565 3.6371033 0
-5.7259169 20.444334 1.1858846
-0.58568519 2.0814958 -0.71298587
-0.59549129 2.1163461 -0.60656774
-0.52057326 1.8500912 -0.42576584
-0.5164212 1.8353351 -0.3178584
-0.52438051 1.863622 -0.21578784
-0.6933068 2.4639776 -0.14297284
-1.033622 3.6734409 0
-5.7442822 20.41489 1.1845784
-0.61979747 2.1925647 -0.75128686
-0.60009605 2.12287 -0.6086449
-0.51727891 1.8299001 -0.42126274
-0.51863849 1.8347098 -0.3178584
-0.53014916 1.8754294 -0.21722902
-0.69628352 2.4631381 -0.14297284
-1.0366454 3.6671853 0
-5.7731848 20.422934 1.185449
-0.63257241 2.2274711 -0.76350898
-0.59101027 2.0811188 -0.59687883
-0.52226615 1.8390508 -0.42351431
-0.52295685 1.8414829 -0.31914109
-0.53100032 1.8698064 -0.21665189
-0.69571066 2.4497993 -0.14224727
-1.0488943 3.6934614 0
-5.7914701 20.393448 1.1841429
-0.60882038 2.1340179 -0.73172772
-0.61004037 2.1382942 -0.61348802
-0.52727622 1.848192 -0.42576584
-0.52729499 1.8482578 -0.32042539
-0.53751814 1.8840916 -0.21838219
-0.70080954 2.4564555 -0.14268284
-0 0 0
-1.4713563 5.1573515 0.29956397
-0.63386911 2.2116849 -0.7586208
-0.5953446 2.077266 -0.59618467
-0.53020841 1.8499937 -0.42632818
-0.52882129 1.8451539 -0.31999785
-0.53765583 1.8759793 -0.21751705
-0.703062 2.4531114 -0.14253783
-1.0506481 3.6659029 0
-1.4847444 5.1805444 0.30101508
-0.63312256 2.199044 -0.75454676
-0.60063052 2.0861883 -0.59895331
-0.53244334 1.8493518 -0.42632818
-0.53175998 1.8469781 -0.32042539
-0.54206967 1.8827872 -0.21838219
-0.71105587 2.469732 -0.14355339
-1.0543575 3.6621323 0
-1.4924423 5.1837454 0.30130565
-0.64607757 2.233885 -0.76676887
-0.61012232 2.1095657 -0.60587627
-0.53467757 1.8487071 -0.42632818
-0.53399128 1.8463342 -0.32042539
-0.546498 1.8895776 -0.21924624
-0.71764851 2.4813495 -0.14427896
-1.0638411 3.6783488 0
-1.5001472 5.1869254 0.30159566
-0.62533271 2.1524093 -0.73906159
-0.60987121 2.0991905 -0.60310763
-0.5390383 1.855382 -0.42801738
-0.53693736 1.8481504 -0.32085294
-0.54517347 1.8764994 -0.21780506
-0.71557367 2.4630208 -0.1432634
-1.0697384 3.6820636 0
-0 0 0
-0.65078235 2.2299469 -0.76595467
-0.61873204 2.1201243 -0.60933638
-0.53843242 1.8449727 -0.42576584
-0.53845161 1.8450384 -0.32042539
-0.54599261 1.8708782 -0.21722902
-0.71199834 2.4397073 -0.14195728
-1.0705419 3.6682794 0
-0 0 0
-0 0 -0
-0.61211932 2.0880806 -0.60033894
-0.54280639 1.851638 -0.42745504
-0.54068059 1.8443865 -0.32042539
-0.54897976 1.8726968 -0.21751705
-0.72225404 2.4637754 -0.1434084
-1.0742393 3.6644785 0
-1.5167458 5.1739707 0.3011601
-0.66315228 2.2520816 -0.77410591
-0.63377351 2.1523108 -0.61902535
-0.54360646 1.8461013 -0.42632818
-0.54580921 1.8535819 -0.32213727
-0.55343461 1.879478 -0.21838219
-0.72376394 2.4579206 -0.1431184
-1.080138 3.6681757 0
-1.5200605 5.1621637 0.30057952
-0.65115225 2.2015088 -0.7569924
-0.62997031 2.129894 -0.61279655
-0.54367679 1.8381404 -0.42464113
-0.54586357 1.8455337 -0.32085294
-0.55570519 1.8788078 -0.21838219
-0.73410189 2.4819567 -0.14456952
-1.0860443 3.6718543 0
-1.5292449 5.17029 0.3011601
-0 0 -0
-0.62968558 2.1195118 -0.61002791
-0.55168355 1.8569583 -0.42914206
-0.54736274 1.8424144 -0.32042539
-0.56018263 1.885566 -0.21924624
-0.74524105 2.5084698 -0.14616619
-1.09715 3.6929896 0
-1.5332731 5.1609731 0.30072507
-0.66565752 2.2307158 -0.76758617
-0.63081276 2.113946 -0.6086449
-0.55392694 1.8562902 -0.42914206
-0.55325806 1.8540487 -0.32256481
-0.5646801 1.8923256 -0.2201114
-0.76238668 2.5548694 -0.14892341
-1.0986376 3.6816955 0
-1.5372783 5.1516447 0.30028954
-0 0 -0
-0.65281194 2.1780603 -0.62733126
-0.55398309 1.8483249 -0.42745504
-0.55549788 1.8533789 -0.32256481
-0.56919461 1.8990771 -0.22097655
-0.93331915 3.1139524 -0.18157798
-4.6318636 15.45388 0
-6.1566734 20.5413 1.1977857
-0.65822059 2.1864955 -0.75291526
-0.63881224 2.1220245 -0.61141354
-0.55914581 1.8573862 -0.42970657
-0.55699766 1.8502506 -0.32213727
-0.5662691 1.8810487 -0.21895823
-0.9498139 3.1551185 -0.18404523
-4.6475325 15.438305 0
-6.1949701 20.578627 1.200398
-0 0 -0
-0.64444053 2.1360445 -0.61556518
-0.55586296 1.8424479 -0.42632818
-0.55885613 1.852369 -0.32256481
-0.56815183 1.8831801 -0.21924624
-0.95397222 3.1620097 -0.18448077
-4.655354 15.430506 0
-6.2051497 20.567415 1.1999624
-0 0 -0
-0.64920431 2.1424694 -0.61764234
-0.56030005 1.8490723 -0.42801738
-0.56258428 1.8566107 -0.32342157
-0.57342714 1.8923936 -0.22039941
-0.95553082 3.1533918 -0.18404523
-5.4165959 17.875561 0
-6.2390389 20.589745 1.2017041
-0 0 -0
-0.64594913 2.1224828 -0.61210507
-0.56549305 1.8581172 -0.43026891
-0.5663206 1.8608365 -0.32427669
-0.57345629 1.8842832 -0.21953537
-0.95782876 3.1472681 -0.18375522
-5.4283414 17.836637 0
-6.2661839 20.589651 1.2021396
-0 0 -0
-0.65804589 2.1528881 -0.62110251
-0.5669958 1.855005 -0.42970657
-0.567819 1.8576982 -0.32384914
-0.57648796 1.88606 -0.21982338
-0.96087211 3.1436257 -0.18361022
-5.4339147 17.777802 0
-6.2986517 20.606909 1.2035908
-0 0 -0
-0.66359168 2.1616845 -0.62387115
-0.56998175 1.8567452 -0.43026891
-0.56855512 1.852098 -0.32299238
-0.57724696 1.8804121 -0.21924624
-0.98144448 3.1971066 -0.18680301
-5.4492817 17.75132 0
-6.3265967 20.609219 1.2041713
-0 0 -0
-0.67137492 2.1776562 -0.62871426
-0.57372057 1.8609067 -0.43139359
-0.57306224 1.8587714 -0.32427669
-0.58409226 1.8945481 -0.22097655
-1.0143962 3.290272 -0.19231802
-5.472259 17.749693 0
-6.353024 20.606522 1.2044613
-0 0 -0
-0.67252308 2.172055 -0.62733126
-0.57446706 1.8553624 -0.43026891
-0.57606632 1.8605275 -0.32470423
-0.58638102 1.8938409 -0.22097655
-1.0306679 3.328759 -0.19464026
-5.0626674 16.35095 0
-6.3856053 20.623655 1.2059129
-0 0 -0
-0.6766355 2.1760273 -0.62871426
-0.57821596 1.8595148 -0.43139359
-0.57526505 1.8500248 -0.32299238
-0.58790165 1.8906636 -0.22068854
-1.0308293 3.3150978 -0.19391415
-5.0746946 16.319975 0
-6.4112911 20.618404 1.206058
-0 0 -0
-0.68001431 2.1776099 -0.62940842
-0.57970577 1.8563918 -0.43083125
-0.5805608 1.8591299 -0.32470423
-0.59326965 1.8998275 -0.22184171
-1.0325129 3.306416 -0.19347915
-5.0913072 16.303894 0
-6.4431696 20.632963 1.2073641
-0 0 -0
-0.6743865 2.1504524 -0.62179399
-0.582708 1.8581121 -0.43139359
-0.58357716 1.8608836 -0.32513344
-0.59401536 1.8941685 -0.22126457
-1.0326173 3.2927618 -0.19275303
-5.0993214 16.260479 0
-6.4712062 20.63508 1.2079446
-0 0 -0
-0.67472291 2.1424549 -0.61971682
-0.58495277 1.8574066 -0.43139359
-0.5858252 1.860177 -0.32513344
-0.5963037 1.8934494 -0.22126457
-1.0381578 3.2964735 -0.19304359
-5.1103683 16.227007 0
-6.5023789 20.647074 1.2091058
-0 0 -0
-0.68865919 2.1775203 -0.63009995
-0.5894959 1.8639687 -0.43308279
-0.58884579 1.8619131 -0.32556099
-0.5993703 1.8951912 -0.22155258
-1.039006 3.2853067 -0.19246303
-5.1229067 16.198481 0
-6.5382905 20.673882 1.2111374
-0 0 -0
-0.69356871 2.183862 -0.63217705
-0.59097934 1.8608357 -0.43252045
-0.59420323 1.8709868 -0.32727286
-0.59852821 1.8846051 -0.22039941
-1.0445465 3.2889972 -0.19275303
-5.1322355 16.160036 0
-6.5632658 20.665966 1.2111374
-0 0 -0
-0.6954425 2.1806254 -0.6314829
-0.59476995 1.8649572 -0.43364513
-0.59022367 1.8507018 -0.32384914
-0.60394847 1.8937372 -0.22155258
-1.0508891 3.2951617 -0.19318859
-5.1422725 16.124079 0
-6.5969172 20.685255 1.2127341
-0 0 -0
-0.69272298 2.1630657 -0.62663978
-0.59470034 1.8569846 -0.43195811
-0.59559119 1.8597664 -0.32556099
-0.60466003 1.8880843 -0.22097655
-1.0572482 3.3013158 -0.19362414
-5.1530194 16.090588 0
-6.6306248 20.704493 1.2143308
-0 0 -0
-0.69763803 2.1693852 -0.62871426
-0.60005522 1.8659402 -0.43420964
-0.59783792 1.8590454 -0.32556099
-0.61089939 1.8996614 -0.22241774
-1.0572597 3.2876699 -0.19289859
-5.1628971 16.054619 0
-6.6651802 20.726141 1.216072
-0 0 -0
-0.70796955 2.1924191 -0.63563722
-0.60230941 1.8652139 -0.43420964
-0.60165995 1.8632027 -0.32641611
-0.61398834 1.9013809 -0.22270575
-1.0692148 3.3111126 -0.19434971
-5.1678987 16.003796 0
-6.6950111 20.732912 1.216943
-0 0 -0
-0.69901019 2.1557629 -0.62525415
-0.6045627 1.8644847 -0.43420964
-0.6039108 1.8624743 -0.32641611
-0.61469132 1.8957216 -0.22212972
-0 0 -0
-5.1759958 15.962886 0
-6.7168522 20.71492 1.2163625
-0 0 -0
-0.71194202 2.1911323 -0.63563722
-0.60725784 1.8689475 -0.43533432
-0.60741651 1.8694357 -0.32770044
-0.62142909 1.912562 -0.22414693
-1.0744121 3.3067002 -0.1942047
-5.1808119 15.9449 0
-6.7381964 20.738035 1.2179586
-0 0 -0
-0.71069914 2.1783476 -0.63217705
-0.61188072 1.8754616 -0.43702352
-0.60887945 1.8662623 -0.32727286
-0.62053061 1.9019741 -0.22299376
-1.0784068 3.3053997 -0.1942047
-5.1887751 15.903995 0
-6.7680864 20.744705 1.2188298
-0.74779576 2.2826939 -0.79203355
-0.71567154 2.1846325 -0.63425159
-0.61335617 1.8723085 -0.43646118
-0.6119324 1.8679624 -0.32770044
-0.6228283 1.9012228 -0.22299376
-1.0799724 3.2966838 -0.19376914
-5.1998849 15.872977 0
-6.7939558 20.738979 1.2189747
-0 0 -0
-0.70733768 2.1504066 -0.62456262
-0.61561805 1.8715661 -0.43646118
-0.61258632 1.8623493 -0.32684532
-0.62593561 1.902933 -0.22328289
-1.0815184 3.2879691 -0.19333358
-5.2109303 15.841966 0
-6.8198209 20.733221 1.2191197
-0 0 -0
-0.70285529 2.1281128 -0.61833382
-0.62106639 1.8804717 -0.43871272
-0.61724901 1.8689133 -0.32812798
-0.62742102 1.8997122 -0.22299376
-1.0863078 3.2891345 -0.19347915
-5.2210894 15.808472 0
-6.8432398 20.720036 1.2188298
-0 0 -0
-0.71884948 2.1677411 -0.63009995
-0.62013906 1.8700728 -0.43646118
-0.61869955 1.865732 -0.32770044
-0.62646264 1.889142 -0.22184171
-1.0902812 3.2878194 -0.19347915
-5.2295389 15.770041 0
-6.8789024 20.743813 1.2207164
-0 0 -0
-0.72226006 2.1692488 -0.63079143
-0.62320018 1.8717307 -0.43702352
-0.62014335 1.8625497 -0.32727286
-0.63364577 1.9031032 -0.22357091
-1.0917897 3.2791011 -0.19304359
-5.2403703 15.739023 0
-6.9203796 20.784792 1.2236192
-0 0 -0
-0.721699 2.1588573 -0.62802279
-0.6246565 1.8685688 -0.43646118
-0.6232065 1.8642313 -0.32770044
-0.63758337 1.9072375 -0.22414693
-1.095751 3.2777796 -0.19304359
-5.2470064 15.695654 0
-6.9570208 20.810913 1.2256509
-0 0 -0
-0.73628199 2.1936615 -0.63840586
-0.62691385 1.8678126 -0.43646118
-0.6279099 1.8707802 -0.32898474
-0.63988739 1.9064658 -0.22414693
-1.102192 3.2838457 -0.19347915
-5.2518907 15.647362 0
-6.9879503 20.819736 1.2266669
-0 0 -0
-0.72691399 2.1571069 -0.62802279
-0.63484782 1.8839018 -0.44039977
-0.63344896 1.8797507 -0.33069661
-0.64384407 1.910598 -0.22472407
-3.2153792 9.5415916 -0.56240445
-5.2641482 15.621284 0
-7.0205688 20.833437 1.2279731
-0 0 -0
-0.72791344 2.1514785 -0.62663978
-0.63793725 1.8855379 -0.44096211
-0.63325089 1.8716867 -0.32941228
-0.64698029 1.9122664 -0.22501209
-3.2219079 9.5229263 -0.56153333
-5.2730107 15.585329 0
-7.0515642 20.842163 1.2289886
-0 0 -0
-0.73472852 2.1544578 -0.62802279
-0.642492 1.8839908 -0.44096211
-0.6427421 1.8847243 -0.33197927
-0.65243369 1.9131429 -0.2253001
-3.2264616 9.4610109 -0.55834055
-5.2972188 15.53313 0
-7.1136541 20.859497 1.2310209
-0 0 -0
-0.7478947 2.1844218 -0.63702023
-0.64312345 1.8784099 -0.43983743
-0.64003146 1.8693789 -0.32941228
-0.65474486 1.9123533 -0.2253001
-3.2336833 9.4448166 -0.55761498
-5.3168259 15.529178 0
-7.144743 20.868088 1.2320365
-0 0 -0
-0.74645686 2.1716561 -0.63356006
-0.64621782 1.8800319 -0.44039977
-0.64813173 1.8856001 -0.33240849
-0.65537518 1.9066733 -0.22472407
-3.240871 9.4286184 -0.55688941
-5.3355861 15.522742 0
-7.1716437 20.864359 1.232327
-0 0 -0
-0.75480974 2.1873555 -0.63840586
-0.64931703 1.8816494 -0.44096211
-0.64622349 1.8726847 -0.33026904
-0.6551466 1.8985428 -0.22385892
-3.2514143 9.4222412 -0.55674446
-5.3577342 15.526124 0
-7.1976957 20.858131 1.2324719
-0 0 -0
-0.75006187 2.1651094 -0.63217705
-0.64992827 1.8760662 -0.43983743
-0.64764309 1.8694699 -0.32983986
-0.66252178 1.9124182 -0.22558923
-3.2576916 9.4035692 -0.55587333
-5.3841567 15.541769 0
-7.2331009 20.878883 1.2342137
-0 0 -0
-0.75762039 2.1784141 -0.6363287
-0.65553325 1.8848792 -0.44208896
-0.65243202 1.8759621 -0.33112416
-0.66737849 1.9189382 -0.22645327
-3.2656374 9.3898087 -0.55529273
-5.4020782 15.532796 0
-7.265152 20.889761 1.2353748
-0 0 -0
-0.7668677 2.1964457 -0.64186603
-0.65697354 1.8816891 -0.44152662
-0.65469831 1.8751724 -0.33112416
-0.66969669 1.9181304 -0.22645327
-3.2726991 9.3735924 -0.55456722
-5.424274 15.536085 0
-7.2989511 20.905495 1.2368259
-0 0 -0
-0.76902217 2.1983476 -0.6425575
-0.6606248 1.8884801 -0.44321364
-0.65837479 1.8820481 -0.33240849
-0.6725651 1.922613 -0.22703041
-3.2757866 9.364253 -0.55413163
-5.4379549 15.545086 0
-7.3115802 20.901081 1.2368259
-0 0 -0
-0.77250832 2.1997817 -0.64324903
-0.66375053 1.8900847 -0.44377816
-0.66064841 1.8812512 -0.33240849
-0.67145973 1.9120374 -0.22587724
-3.2853789 9.3553896 -0.55384165
-5.4619098 15.553242 0
-7.3445773 20.914295 1.238132
-0.77644306 2.2024698 -0.77002871
-0.76348984 2.1657264 -0.63356006
