# .PCD v0.7 - Point Cloud Data file format
VERSION 0.7
FIELDS x y z
SIZE 4 4 4
TYPE F F F
COUNT 1 1 1
WIDTH 1659
HEIGHT 1
VIEWPOINT 0 0 0 1 0 0 0
POINTS 1659
DATA ascii
3.5628414 -2.7498584 -0.9970209
4.5572834 -3.5173848 -0.95974189
6.3746266 -4.9200397 -0.89754039
11.228788 -8.6665602 -0.79228193
16.945137 -13.078529 0
23.15057 -17.867983 1.6334602
0 -0 -0
0 -0 -0
3.5721958 -2.7501972 -0.99870795
4.5554261 -3.5071759 -0.95845759
6.3682742 -4.9028697 -0.8958112
11.237195 -8.6514015 -0.79213697
16.962996 -13.059637 0
23.147434 -17.820974 1.6317185
0 -0 -0
0 -0 -0
3.5674553 -2.7396884 -0.99645638
4.5576262 -3.500107 -0.95803005
6.3741937 -4.8951712 -0.8958112
11.2497 -8.6393986 -0.79228193
16.980825 -13.040715 0
23.063854 -17.71228 1.6243168
0 -0 -0
0 -0 -0
3.5667329 -2.7322884 -0.9953317
4.5577803 -3.4914782 -0.9571749
6.3760014 -4.8843226 -0.89523518
11.243628 -8.6131582 -0.79112083
16.986242 -13.012276 0
22.944979 -17.576954 1.6144478
0 -0 -0
0 -0 -0
3.5692797 -2.7205775 -0.99420482
4.5723238 -3.4851177 -0.95845759
6.3754401 -4.8594899 -0.89350486
11.276814 -8.5954161 -0.79199195
16.994867 -12.953833 0
22.538967 -17.179659 1.5829544
0 -0 -0
0 -0 -0
3.5604324 -2.7070384 -0.99082863
4.5622325 -3.468719 -0.95546305
6.3833642 -4.8533468 -0.89379287
11.27271 -8.5707731 -0.79097581
16.985647 -12.914387 0
22.450083 -17.069061 1.5752622
0 -0 -0
0 -0 -0
3.5839419 -2.7180855 -0.99645638
4.5664206 -3.4632039 -0.95546305
6.3830471 -4.8409457 -0.89292884
11.295476 -8.5665646 -0.79184639
16.980507 -12.87813 0
22.379602 -16.972839 1.5688766
0 -0 -0
0 -0 -0
3.5791183 -2.7076213 -0.99420482
4.5746922 -3.4607782 -0.95631814
6.3785801 -4.8254285 -0.89148766
11.295459 -8.5450726 -0.79112083
16.987753 -12.851323 0
22.323421 -16.887783 1.5635066
0 -0 -0
0 -0 -0
3.5763083 -2.6987076 -0.99251783
4.5706744 -3.4490631 -0.95460629
6.3926568 -4.8239436 -0.8926397
11.309928 -8.5345516 -0.7914114
16.9825 -12.815114 0
22.227665 -16.773153 1.5553793
0 -0 -0
0 -0 -0
3.5795665 -2.6943843 -0.99251783
4.5809937 -3.4481707 -0.9558906
6.394352 -4.813108 -0.89206368
11.307772 -8.5115004 -0.79054028
17.00005 -12.796148 0
22.19187 -16.704096 1.551461
0 -0 -0
0 -0 -0
3.5685942 -2.6793764 -0.98857707
4.5810471 -3.4395473 -0.95503384
6.3939557 -4.8007178 -0.89119852
11.309736 -8.4915905 -0.78995973
17.017578 -12.777159 0
22.145542 -16.627344 1.5468165
0 -0 -0
0 -0 -0
3.5718291 -2.6750624 -0.98857707
4.5810943 -3.4309347 -0.95417875
6.3997517 -4.7929883 -0.89119852
11.330385 -8.4857054 -0.7906853
17.030922 -12.755028 0
22.105305 -16.555403 1.5426075
0 -0 -0
0 -0 -0
3.5811675 -2.6753082 -0.99026626
4.5934625 -3.4315424 -0.9558906
6.3972502 -4.7790604 -0.89004534
11.336472 -8.4689007 -0.79039526
17.050488 -12.737553 0
22.056599 -16.477362 1.5378181
0 -0 -0
0 -0 -0
3.5803187 -2.6679397 -0.98913944
4.5976057 -3.4259896 -0.9558906
6.400948 -4.769783 -0.88975734
11.323774 -8.438117 -0.78879863
18.722725 -13.951579 0
22.013988 -16.404123 1.5334642
0 -0 -0
0 -0 -0
3.5737765 -2.6597083 -0.98688787
4.6017318 -3.4247425 -0.95631814
6.3996825 -4.7628293 -0.88918132
11.337209 -8.437479 -0.78937918
18.731152 -13.940266 0
21.944687 -16.331873 1.5279492
0 -0 -0
0 -0 -0
3.5790339 -2.6569068 -0.98745239
4.5914364 -3.4084673 -0.95332199
6.3971257 -4.7489262 -0.88802814
11.330704 -8.4113836 -0.78821802
22.036909 -16.359169 0
21.889303 -16.249592 1.5227247
0 -0 -0
0 -0 -0
3.5781536 -2.6495533 -0.98632556
4.5872993 -3.3968062 -0.95161009
6.3945446 -4.7350364 -0.88687497
11.361746 -8.4131527 -0.78966969
22.008562 -16.296913 0
21.869242 -16.19375 1.519967
0 -0 -0
0 -0 -0
3.571135 -2.6376812 -0.98351169
4.5955343 -3.3943141 -0.95246685
6.4002614 -4.7273064 -0.88687497
11.367719 -8.396328 -0.78937918
21.959158 -16.219286 0
21.813557 -16.111742 1.5147425
0 -0 -0
0 -0 -0
3.578407 -2.6363757 -0.98463637
4.59343 -3.3841894 -0.95118254
6.4038801 -4.7180309 -0.88658583
11.377856 -8.3825855 -0.78937918
21.894938 -16.130999 0
21.776522 -16.043758 1.5108236
0 -0 -0
0 -0 -0
3.5795445 -2.6305468 -0.984074
4.5995822 -3.3801553 -0.95161009
6.4012475 -4.7041688 -0.88543379
11.379601 -8.3626766 -0.78879863
21.847303 -16.055216 0
21.726797 -15.966657 1.5060341
0 -0 -0
0 -0 -0
3.5847678 -2.6277206 -0.98463637
4.5933132 -3.3670084 -0.9494707
6.4110951 -4.6994863 -0.88600981
11.389697 -8.3489208 -0.78879863
21.818417 -15.993422 0
21.676926 -15.889705 1.5012453
0 -0 -0
0 -0 -0
3.585891 -2.6218889 -0.984074
4.5911674 -3.3569148 -0.94818801
6.4084172 -4.6856298 -0.88485664
11.3851 -8.3244209 -0.78778303
21.7684 -15.916358 0
21.612207 -15.802155 1.4954396
0 -0 -0
0 -0 -0
3.5972681 -2.623543 -0.98632556
4.611805 -3.3634601 -0.95161009
6.4078031 -4.6733093 -0.88399148
11.386753 -8.304534 -0.78720248
21.737152 -15.853239 0
21.570404 -15.731627 1.4912307
0 -0 -0
0 -0 -0
3.5860584 -2.6087356 -0.98238695
4.6034141 -3.3488274 -0.94904315
6.4197216 -4.6701293 -0.88485664
11.396779 -8.2907686 -0.78720248
21.686844 -15.776442 0
21.517958 -15.653583 1.4862963
0 -0 -0
0 -0 -0
3.5850909 -2.6014132 -0.98126012
4.6178436 -3.3507993 -0.95118254
6.4128036 -4.6532578 -0.88312745
11.402578 -8.2739372 -0.7869119
21.636391 -15.699795 0
21.488491 -15.592476 1.4829584
0 -0 -0
0 -0 -0
3.5964649 -2.6030385 -0.98351169
4.6073384 -3.3346856 -0.94818801
6.4184213 -4.6455054 -0.88312745
11.427304 -8.2708197 -0.78792804
21.579449 -15.618708 0
21.442068 -15.519275 1.4784596
0 -0 -0
0 -0 -0
3.5975494 -2.5972052 -0.98294932
4.6134439 -3.3306172 -0.94861555
6.4156413 -4.631691 -0.88197428
11.458353 -8.272213 -0.78937918
21.556103 -15.562155 0
21.391281 -15.443165 1.4736701
0 -0 -0
0 -0 -0
3.604805 -2.595823 -0.984074
4.6091323 -3.3190401 -0.94690371
6.4128375 -4.6178899 -0.88082111
11.43461 -8.2340727 -0.78705752
21.511538 -15.490477 0
21.350885 -15.37479 1.4696062
0 -0 -0
0 -0 -0
3.6100006 -2.5929463 -0.98463637
4.6235619 -3.3209548 -0.94904315
6.4142075 -4.6071172 -0.88024396
11.440326 -8.2172155 -0.78676695
21.468943 -15.420445 0
21.297695 -15.297443 1.4646717
0 -0 -0
0 -0 -0
3.5945435 -2.5752656 -0.97957093
4.6213093 -3.310879 -0.94775879
6.4218779 -4.6008739 -0.8805331
11.446026 -8.2003622 -0.78647691
21.438908 -15.359636 0
21.263357 -15.233867 1.4610434
0 -0 -0
0 -0 -0
3.6017909 -2.5738778 -0.98069775
4.6211329 -3.3023105 -0.94690371
6.4253221 -4.5916028 -0.88024396
11.479176 -8.2031403 -0.78807306
21.368523 -15.270172 0
21.214106 -15.159823 1.4563994
0 -0 -0
0 -0 -0
3.6012793 -2.5702267 -0.98013544
4.6105862 -3.2905676 -0.9443351
6.4238887 -4.5847182 -0.87966794
11.458749 -8.1780891 -0.78633136
21.331144 -15.224002 0
21.166153 -15.106247 1.4524806
0 -0 -0
0 -0 -0
3.5961022 -2.5599792 -0.97788388
4.6208348 -3.2894619 -0.9456194
6.4315286 -4.5784512 -0.87995595
11.481327 -8.1732826 -0.78720248
21.275318 -15.14539 0
21.084904 -15.009839 1.4456594
0 -0 -0
0 -0 -0
3.6116195 -2.5644555 -0.98126012
4.6289964 -3.2868514 -0.94647616
6.4391627 -4.5721726 -0.88024396
11.501786 -8.1669235 -0.78792804
21.204491 -15.056397 0
21.071251 -14.961789 1.4434828
0 -0 -0
0 -0 -0
3.6043499 -2.5527484 -0.97844625
4.6224842 -3.273833 -0.9443351
6.4383569 -4.5599084 -0.87937993
11.505282 -8.1485128 -0.78749251
21.212044 -15.02324 0
21.000257 -14.873244 1.4373872
0 -0 -0
0 -0 -0
3.6095049 -2.5498562 -0.97900856
4.6306338 -3.2712104 -0.94519186
6.4375219 -4.547647 -0.87851477
11.493901 -8.1196156 -0.78604138
21.134539 -14.930034 0
20.971519 -14.814873 1.4341938
0 -0 -0
0 -0 -0
3.6146584 -2.5469549 -0.97957093
4.6324868 -3.2641356 -0.94476426
6.4345551 -4.533906 -0.8773616
11.520697 -8.1176949 -0.78720248
21.095119 -14.864011 0
20.938435 -14.753607 1.430711
0 -0 -0
2.9479322 -2.0718415 -0.99410391
3.619818 -2.5440507 -0.98013544
4.6427221 -3.2629597 -0.94604695
6.4400287 -4.5261278 -0.8773616
11.513489 -8.0918159 -0.78604138
21.070488 -14.808587 0
20.911604 -14.696921 1.4276632
0 -0 -0
3.6228893 -2.539675 -0.98013544
4.6340532 -3.2485092 -0.94347996
6.4200778 -4.5005269 -0.87390208
11.523258 -8.077898 -0.78604138
21.020174 -14.735313 0
20.861259 -14.623913 1.4230188
0 -0 -0
3.623867 -2.5338354 -0.97957093
4.6421785 -3.2458465 -0.9443351
6.440351 -4.5031424 -0.87592041
11.535138 -8.0654564 -0.7861864
20.956919 -14.653237 0
20.819296 -14.55701 1.4189554
0 -0 -0
2.9595346 -2.0640094 -0.99548686
3.6144254 -2.5207367 -0.97619468
4.6460972 -3.2402351 -0.9443351
6.4394212 -4.4909172 -0.87505525
11.521437 -8.0351658 -0.78459024
20.923378 -14.592175 0
20.777193 -14.490224 1.4148915
0 -0 -0
3.6195524 -2.517817 -0.97675705
4.643693 -3.2302253 -0.94305241
6.4469643 -4.4846087 -0.87534326
11.533268 -8.0227213 -0.78473526
20.889729 -14.53122 0
20.724295 -14.416143 1.4101021
0 -0 -0
3.622592 -2.5134418 -0.97675705
4.6496997 -3.2260737 -0.94347996
6.4523783 -4.4768157 -0.87534326
11.560033 -8.0206299 -0.78589636
20.864506 -14.476297 0
20.696869 -14.359986 1.4070543
0 -0 -0
3.617269 -2.503279 -0.97450548
4.6388164 -3.2102261 -0.94048381
6.4471507 -4.461658 -0.87390208
11.544075 -7.9889116 -0.78415471
20.817785 -14.40665 0
20.650108 -14.29061 1.4027004
0 -0 -0
3.6223803 -2.5003486 -0.97506785
4.6426916 -3.2046187 -0.94048381
6.4546633 -4.4553328 -0.87419009
11.583654 -7.9956193 -0.7861864
20.747366 -14.320872 0
20.609627 -14.225799 1.398782
0 -0 -0
3.6274977 -2.4974148 -0.97563237
4.6507936 -3.2019207 -0.94134057
6.4493923 -4.4401979 -0.87274891
11.58047 -7.9727788 -0.78531581
20.713207 -14.260374 0
20.577574 -14.166993 1.3954437
0 -0 -0
3.6326051 -2.4944668 -0.97619468
4.6546588 -3.1962988 -0.94134057
6.4611511 -4.4367957 -0.87361407
11.581527 -7.9528966 -0.78473526
20.689669 -14.207349 0
20.528278 -14.096525 1.3909448
0 -0 -0
3.6335223 -2.4886413 -0.97563237
4.6585174 -3.1906724 -0.94134057
6.4665074 -4.4289856 -0.87361407
11.595411 -7.9418306 -0.78502524
20.63382 -14.13234 0
20.500278 -14.040876 1.387897
0 -0 -0
3.6323264 -2.4813797 -0.97450548
4.645412 -3.1734567 -0.93791682
6.4675789 -4.4182477 -0.87303692
11.598568 -7.9234209 -0.78459024
20.605755 -14.076571 0
20.463591 -13.979454 1.3842686
0 -0 -0
3.638027 -2.4820516 -0.97563237
4.6558108 -3.1764367 -0.93962866
6.4638433 -4.4099708 -0.87217289
11.603354 -7.9164124 -0.78459024
20.539019 -14.012789 0
20.396914 -13.915837 1.3791891
0 -0 -0
3.6368179 -2.4747922 -0.97450548
4.6553965 -3.1679175 -0.9387719
6.4648862 -4.3992443 -0.87159574
11.589277 -7.8863044 -0.78299356
20.499998 -13.949897 0
20.375048 -13.864871 1.3765769
0 -0 -0
3.6313961 -2.4646883 -0.97225398
4.6655951 -3.1666164 -0.9400562
6.4637747 -4.3870707 -0.87073058
11.603094 -7.8752112 -0.78328359
20.46731 -13.8915 0
20.344482 -13.808135 1.3733836
0 -0 -0
3.6343715 -2.4602985 -0.97225398
4.6630387 -3.1566579 -0.9387719
6.4712191 -4.3807111 -0.87101972
11.612601 -7.8611851 -0.78328359
20.43667 -13.834666 0
20.315968 -13.752954 1.3703358
0 -0 -0
3.6352377 -2.4544849 -0.97169161
4.6562138 -3.1438403 -0.93663251
6.4743576 -4.3714371 -0.87073058
11.615637 -7.8427901 -0.7828486
20.392981 -13.769185 0
20.263664 -13.681873 1.3656919
0 -0 -0
3.6445255 -2.45435 -0.9733808
4.6557546 -3.1353469 -0.93577737
6.4753485 -4.3607244 -0.87015456
11.640185 -7.8389049 -0.78386414
20.372908 -13.719823 0
20.226301 -13.621094 1.3620635
0 -0 -0
3.6453731 -2.4485235 -0.97281629
4.6616688 -3.1311488 -0.93620491
6.4870563 -4.3572249 -0.87101972
11.630238 -7.8117962 -0.78255802
20.322504 -13.650216 0
20.188822 -13.560425 1.3584352
0 -0 -0
3.6441112 -2.4412913 -0.97169161
4.6675797 -3.1269412 -0.93663251
6.485868 -4.3450632 -0.87015456
11.635355 -7.794848 -0.78226805
20.289259 -13.59234 0
20.153381 -13.50131 1.3549519
0 -0 -0
3.649169 -2.4382968 -0.97225398
4.6628165 -3.1155944 -0.93492061
6.4803624 -4.3300395 -0.86871338
11.642607 -7.7793407 -0.78212303
20.236423 -13.521546 0
20.107027 -13.435086 1.3507429
0 -0 -0
3.6500001 -2.432478 -0.97169161
4.6623096 -3.1071136 -0.93406552
6.4920487 -4.3265109 -0.86957854
11.649829 -7.7638221 -0.78197747
20.207272 -13.466778 0
20.060551 -13.368999 1.3465346
0 -0 -0
3.6444724 -2.4224396 -0.9694401
4.6660604 -3.1014779 -0.93406552
6.4951115 -4.3172274 -0.8692894
11.67219 -7.7583733 -0.7828486
20.17585 -13.41066 0
20.039904 -13.320298 1.3440673
0 -0 -0
3.6579835 -2.4250529 -0.97225398
4.6805005 -3.1029284 -0.93620491
6.4917002 -4.3036594 -0.86813623
11.672894 -7.7385211 -0.78226805
20.129137 -13.34457 0
20.004005 -13.261615 1.340584
0 -0 -0
3.6651542 -2.4234366 -0.9733808
4.6714025 -3.0887783 -0.93363798
6.4968953 -4.2958121 -0.86813623
11.686565 -7.7272744 -0.78255802
20.099661 -13.290096 0
19.96583 -13.201607 1.3369557
0 -0 -0
3.6638334 -2.4162059 -0.97225398
4.6772723 -3.0845435 -0.93406552
6.4956098 -4.2836914 -0.8672722
11.672039 -7.6974158 -0.78096193
20.072252 -13.237144 0
19.938383 -13.148862 1.3340529
0 -0 -0
3.6625085 -2.408987 -0.9711293
4.6638384 -3.0676041 -0.93064177
6.4986138 -4.2744141 -0.86698306
11.685669 -7.6861601 -0.78125191
20.027359 -13.172843 0
19.895647 -13.08621 1.3301345
0 -0 -0
3.6654167 -2.4045599 -0.9711293
4.6847129 -3.0732312 -0.93406552
6.5016136 -4.265141 -0.86669505
11.684087 -7.6649094 -0.78052634
20.001915 -13.121511 0
19.863649 -13.030807 1.3269417
0 -0 -0
3.6661952 -2.3987393 -0.97056693
4.6884227 -3.0675685 -0.93406552
6.500267 -4.2530322 -0.86582989
11.706382 -7.6593194 -0.78139693
19.961136 -13.060288 0
19.820671 -12.968383 1.3230228
0 -0 -0
3.669091 -2.3943079 -0.97056693
4.6792231 -3.0534811 -0.93149686
6.5054011 -4.2451749 -0.86582989
11.704749 -7.6380701 -0.78067136
19.918062 -12.997763 0
19.779751 -12.907506 1.3192495
0 -0 -0
3.671288 -2.386265 -0.97000241
4.6847496 -3.0449953 -0.93149686
6.5065851 -4.2291527 -0.86496586
11.73165 -7.6253424 -0.78154248
19.834669 -12.892145 0
19.715975 -12.814997 1.3134445
0 -0 -0
3.6656401 -2.3762987 -0.96775091
4.6862736 -3.0379374 -0.93106931
6.5138588 -4.2226934 -0.86525387
11.73649 -7.6083317 -0.78125191
19.810928 -12.84269 0
19.685659 -12.761483 1.3103967
0 -0 -0
3.6685088 -2.3718677 -0.96775091
4.6877871 -3.0308802 -0.93064177
6.4994102 -4.2021818 -0.86265951
11.739127 -7.589911 -0.78081638
19.778355 -12.78766 0
19.657423 -12.709471 1.3074939
0 -0 -0
3.0366135 -1.9581181 -0.99687254
3.6863222 -2.3770738 -0.97169161
4.6914458 -3.0252137 -0.93064177
6.5044827 -4.1943254 -0.86265951
11.737372 -7.5686817 -0.78009081
19.715052 -12.712978 0
19.613808 -12.647693 1.3035755
0 -0 -0
3.6720951 -2.3616223 -0.96718854
4.6821389 -3.0112088 -0.92807317
6.5138927 -4.1892586 -0.86323553
11.731216 -7.5446591 -0.77907526
19.691004 -12.66381 0
19.57225 -12.587437 1.2998017
0 -0 -0
3.6813641 -2.3613005 -0.96887773
4.694417 -3.0110929 -0.92978501
6.5167751 -4.1799893 -0.86294752
11.775311 -7.5529199 -0.78139693
19.653717 -12.606286 0
19.532766 -12.528707 1.2961733
0 -0 -0
3.6842146 -2.3568506 -0.96887773
4.6915708 -3.0012724 -0.92850232
6.5174675 -4.1693273 -0.8623715
11.762544 -7.5246859 -0.77994579
19.620708 -12.551678 0
19.50631 -12.478496 1.293416
0 -0 -0
3.054502 -1.9488162 -0.99964118
3.6806314 -2.3482959 -0.96718854
4.6951942 -2.9956014 -0.92850232
6.5181355 -4.1586642 -0.86179435
11.762865 -7.5048776 -0.77936524
19.598564 -12.504166 0
19.486322 -12.432554 1.2910938
0 -0 -0
3.0462735 -1.9383912 -0.99618101
3.6856079 -2.3452096 -0.96775091
4.6944742 -2.9871671 -0.92764556
6.5187955 -4.1480107 -0.86121833
11.789463 -7.5018187 -0.78052634
19.563156 -12.44834 0
16.254765 -10.34316 1.0761535
0 -0 -0
3.0549619 -1.9387379 -0.99825549
3.6798575 -2.3353086 -0.96549934
4.7002459 -2.9828668 -0.92807317
6.5150671 -4.1345873 -0.86006516
11.776584 -7.4736471 -0.77907526
19.534245 -12.396809 0
16.247507 -10.310982 1.0748475
0 -0 -0
3.0594285 -1.9363906 -0.99894965
3.6912646 -2.3362961 -0.96775091
4.6973457 -2.9730704 -0.92679048
6.5222416 -4.1280942 -0.86035317
11.770234 -7.4496832 -0.77805912
19.496431 -12.339792 0
16.213848 -10.262161 1.0717996
0 -0 -0
3.0553994 -1.9286739 -0.99687254
3.6940849 -2.3318341 -0.96775091
4.7009344 -2.9673924 -0.92679048
6.5294104 -4.1215897 -0.86064118
11.814384 -7.4576478 -0.78038138
19.451914 -12.278722 0
16.175697 -10.210659 1.0684613
0 -0 -0
3.6840022 -2.3192494 -0.96437466
4.695827 -2.9562397 -0.92507863
6.5168748 -4.1026731 -0.85833484
11.799195 -7.4281378 -0.77878469
19.431498 -12.233025 0
16.166037 -10.177266 1.0670102
0 -0 -0
3.6932597 -2.3188508 -0.96606386
4.7080917 -2.9560235 -0.92679048
6.519639 -4.0934219 -0.85804683
11.801558 -7.409729 -0.7783491
19.395569 -12.177707 0
16.132111 -10.128711 1.0639625
0 -0 -0
3.6960588 -2.3143866 -0.96606386
4.7029572 -2.9448831 -0.92507863
6.5267701 -4.0869126 -0.85833484
11.817112 -7.3996019 -0.77878469
19.374987 -12.132168 0
16.1047 -10.084391 1.0613502
0 -0 -0
3.0646853 -1.9138839 -0.99687254
3.6988525 -2.3099189 -0.96606386
4.7130461 -2.9432788 -0.92636293
6.5317035 -4.0790234 -0.85833484
11.845878 -7.3977041 -0.78009081
19.371973 -12.09772 0
16.086014 -10.045652 1.0593179
0 -0 -0
3.7016411 -2.3054478 -0.96606386
4.7035208 -2.9294364 -0.92379427
6.5344343 -4.0697618 -0.85804683
11.804085 -7.3517938 -0.77675301
16.081963 -10.016132 0
16.056238 -10.000112 1.0565608
0 -0 -0
3.0693016 -1.9064722 -0.99687254
3.700103 -2.2982895 -0.96493697
4.7136011 -2.9278159 -0.92507863
6.5349569 -4.0591364 -0.85747081
11.826199 -7.3457489 -0.77762353
16.065315 -9.9788427 0
16.039618 -9.9628811 1.054674
0 -0 -0
3.0747125 -1.9072599 -0.99825549
3.7122848 -2.3027494 -0.96775091
4.7153692 -2.9249675 -0.92507863
6.5330081 -4.0524583 -0.85689366
11.841673 -7.3454504 -0.7783491
16.02932 -9.9430685 0
15.992639 -9.9203157 1.0511907
0 -0 -0
3.0791545 -1.9048669 -0.99894965
3.7150645 -2.2982621 -0.96775091
4.7145295 -2.9165642 -0.92422187
6.5357022 -4.0432019 -0.85660565
11.835077 -7.3215714 -0.77733356
15.985994 -9.8894653 0
15.980312 -9.885951 1.0495946
0 -0 -0
3.0750465 -1.8971919 -0.99687254
3.7156785 -2.2924385 -0.96718854
4.722424 -2.913564 -0.92507863
6.5361762 -4.0325832 -0.8560285
11.854971 -7.314086 -0.77805912
15.944783 -9.8373518 0
15.967918 -9.8516254 1.047998
0 -0 -0
3.06879 -1.8882161 -0.99410391
3.7206078 -2.2892776 -0.96775091
4.7193799 -2.9038186 -0.92379427
6.5366426 -4.0219741 -0.85545248
11.857159 -7.2956696 -0.77762353
15.894595 -9.779891 0
15.946612 -9.8118973 1.0458207
0 -0 -0
3.0860393 -1.8936929 -0.99894965
3.7125449 -2.2781367 -0.96493697
4.7163191 -2.8940849 -0.92250997
6.5436997 -4.0154243 -0.85574049
11.879258 -7.289494 -0.77849466
15.859821 -9.7320957 0
15.96289 -9.7953424 1.0461112
0 -0 -0
3.0819035 -1.8860327 -0.99687254
3.723964 -2.2789545 -0.96718854
4.7263832 -2.8924053 -0.92379427
6.5353141 -3.9994168 -0.8540113
11.874755 -7.2669945 -0.77762353
15.824955 -9.6843987 0
15.925959 -9.7462101 1.0429184
0 -0 -0
3.0756145 -1.8770796 -0.99410391
3.7180395 -2.2691584 -0.96493697
4.7189207 -2.8800068 -0.92165488
6.5489731 -3.996907 -0.85516447
11.890182 -7.2567029 -0.77805912
15.787777 -9.6354456 0
15.904451 -9.7066526 1.0407412
0 -0 -0
3.0950243 -1.8837969 -0.99964118
3.7251236 -2.267309 -0.96606386
4.7289782 -2.8783081 -0.92293918
6.5515823 -3.9876423 -0.85487533
11.894499 -7.2396264 -0.77776855
15.783845 -9.6068897 0
15.880654 -9.6658125 1.038419
0 -0 -0
3.0951557 -1.8787552 -0.99894965
3.7278607 -2.2628062 -0.96606386
4.7302518 -2.8712561 -0.92250997
6.5475597 -3.9743598 -0.85372329
11.894353 -7.2198558 -0.777188
15.759846 -9.5662041 0
15.850124 -9.6210032 1.0356617
0 -0 -0
3.0952713 -1.8737111 -0.99825549
3.734935 -2.2609291 -0.96718854
4.7205453 -2.8575647 -0.91994298
6.5457172 -3.9624259 -0.85285813
11.907518 -7.2081723 -0.77747858
15.746909 -9.5323334 0
15.826171 -9.5803146 1.0333395
0 -0 -0
3.7267902 -2.24985 -0.96437466
4.7349811 -2.8584912 -0.92208242
6.5549245 -3.9571846 -0.85343415
11.913997 -7.1924372 -0.77733356
15.740592 -9.5025396 0
15.797699 -9.537014 1.0307273
0 -0 -0
3.0868986 -1.8584641 -0.99410391
3.7316806 -2.2466545 -0.96493697
4.7318316 -2.8487942 -0.92079812
6.5530601 -3.9452631 -0.85257012
11.924903 -7.1793752 -0.77747858
15.72308 -9.4660635 0
15.766912 -9.4924526 1.0279695
0 -0 -0
3.0869932 -1.8534427 -0.99341238
3.7300401 -2.2395306 -0.96381229
4.7308726 -2.8404346 -0.91994298
6.5600376 -3.9386723 -0.85285813
11.922432 -7.1582747 -0.77675301
15.698807 -9.4256248 0
15.753871 -9.4586859 1.0263734
0 -0 -0
3.0999904 -1.856154 -0.99687254
3.7414632 -2.240243 -0.96606386
4.7431111 -2.8399911 -0.92165488
6.5625753 -3.9294155 -0.85257012
11.935527 -7.1465306 -0.77704298
15.685629 -9.3919458 0
15.731846 -9.4196196 1.0241961
0 -0 -0
3.0936151 -1.8472621 -0.99410391
3.7398 -2.2331128 -0.96493697
4.7421269 -2.8316231 -0.92079812
6.5539899 -3.9135242 -0.85083979
11.944154 -7.1321034 -0.77704298
15.663447 -9.3529711 0
15.691911 -9.3699675 1.0208584
0 -0 -0
3.1023135 -1.8473748 -0.99618101
3.7468662 -2.231195 -0.96606386
4.7455449 -2.8258913 -0.92079812
6.5609341 -3.9069242 -0.8511278
11.932672 -7.1057024 -0.77573687
15.64567 -9.3167295 0
15.669729 -9.3310566 1.0186812
0 -0 -0
3.0937519 -1.8372163 -0.99271822
3.7495594 -2.226666 -0.96606386
4.742341 -2.8162265 -0.91951543
6.5523105 -3.8910723 -0.84939861
11.941249 -7.091279 -0.77573687
15.634543 -9.2845325 0
15.63855 -9.286911 1.0159239
0 -0 -0
3.1132386 -1.8437037 -0.99825549
3.7587996 -2.2260141 -0.96775091
4.7391119 -2.8065689 -0.91823113
6.572588 -3.8923793 -0.85141695
11.956518 -7.0808187 -0.77617246
15.634548 -9.2589998 0
15.620696 -9.2507963 1.0140373
0 -0 -0
3.1025071 -1.8322885 -0.99410391
3.7549293 -2.2175982 -0.96606386
4.7491326 -2.8047581 -0.91951543
6.5661445 -3.8778546 -0.84997463
11.982965 -7.0769372 -0.77733356
15.605392 -9.2162828 0
15.602778 -9.2147388 1.0121505
0 -0 -0
3.1036136 -1.8304138 -0.99410391
3.7540736 -2.2140348 -0.96549934
4.7441907 -2.7979748 -0.91823113
6.5551233 -3.8660059 -0.84824544
11.967096 -7.0578175 -0.77602744
15.615445 -9.2094994 0
15.570296 -9.1828718 1.0096834
0 -0 -0
3.105823 -1.8266623 -0.99410391
3.7523699 -2.2069232 -0.96437466
4.7542086 -2.7961457 -0.91951543
6.5731621 -3.8659475 -0.84997463
11.998009 -7.0565228 -0.77747858
15.617589 -9.1853466 0
15.554503 -9.1482439 1.0079416
0 -0 -0
3.116684 -1.8279852 -0.99687254
3.7572234 -2.2036719 -0.96493697
4.7509384 -2.7865016 -0.91823113
6.5733709 -3.8553877 -0.84939861
11.97739 -7.0249319 -0.77559191
15.639898 -9.1730518 0
15.529683 -9.1084089 1.0056194
0 -0 -0
3.1102283 -1.8191515 -0.99410391
3.7533014 -2.1952806 -0.96324778
4.7520881 -2.7794642 -0.91780359
6.5668635 -3.8409142 -0.84795743
12.001573 -7.019639 -0.77660799
15.65097 -9.1541471 0
15.50255 -9.067337 1.0031521
3.0994174 -1.8078057 -0.98994958
3.7559512 -2.1907439 -0.96324778
4.7487888 -2.769839 -0.91651928
6.5737319 -3.8342786 -0.84824544
12.00331 -7.0012035 -0.77617246
15.682251 -9.1470289 0
15.502274 -9.0420532 1.0024266
0 -0 -0
3.1211231 -1.8154153 -0.99618101
3.7651868 -2.1900377 -0.96493697
4.7676673 -2.7731349 -0.91951543
6.569417 -3.8211308 -0.84709227
12.022989 -6.9932261 -0.77689803
15.70229 -9.1333075 0
15.495219 -9.0128641 1.0012655
0 -0 -0
3.7634387 -2.1829393 -0.96381229
4.7443681 -2.7519162 -0.91437984
6.5829787 -3.8183811 -0.84824544
12.02244 -6.9734783 -0.77631742
15.72232 -9.1195507 0
15.51059 -8.9967394 1.0015556
0 -0 -0
3.1255012 -1.8078675 -0.99618101
3.7594731 -2.1745725 -0.9621231
4.7676864 -2.7577481 -0.91823113
6.576395 -3.8039501 -0.84680426
12.026363 -6.956347 -0.77602744
15.744589 -9.1070604 0
15.530446 -8.9831953 1.0021361
0 -0 -0
3.1276834 -1.8040895 -0.99618101
3.768703 -2.1738384 -0.96381229
4.7554474 -2.7430055 -0.91523492
6.5742631 -3.7921228 -0.8459391
12.039257 -6.9444046 -0.77631742
15.74206 -9.0802307 0
15.550292 -8.9696169 1.0027167
3.1298611 -1.8003091 -0.99618101
3.7669177 -2.1667466 -0.96268547
4.7609901 -2.7385411 -0.91566414
6.5788403 -3.7841763 -0.8459391
12.063408 -6.9389229 -0.77733356
15.725948 -9.0456314 0
15.572379 -8.9572973 1.0034422
3.1146245 -1.7865399 -0.99064374
3.7805512 -2.1685135 -0.96549934
4.7553883 -2.7276773 -0.91395229
6.5789251 -3.773653 -0.84536308
12.056004 -6.9152899 -0.77631742
15.725581 -9.0201492 0
15.587703 -8.9410629 1.0037327
0 -0 -0
3.1124215 -1.7802815 -0.98925811
3.7787616 -2.1614232 -0.96437466
4.7609072 -2.7232029 -0.91437984
6.5789852 -3.7631299 -0.84478593
12.071119 -6.9045892 -0.77675301
15.731947 -8.9985552 0
15.612024 -8.9299603 1.0046033
3.1298268 -1.7852217 -0.99410391
3.7747471 -2.1530778 -0.96268547
4.7575021 -2.7136314 -0.91309553
6.5790386 -3.7526174 -0.84420991
12.088482 -6.8951483 -0.77733356
15.751851 -8.9846973 0
15.631831 -8.9162388 1.0051838
3.1254373 -1.7777163 -0.99202675
3.7861805 -2.1535401 -0.96493697
4.7585483 -2.7066128 -0.91266799
6.5790672 -3.742105 -0.84363276
12.110353 -6.8882427 -0.77820414
15.828297 -9.0029707 0
15.64485 -8.8986282 1.0053289
0 -0 -0
3.1406803 -1.7813672 -0.99618101
3.7777312 -2.1426971 -0.9621231
4.7618155 -2.7008612 -0.91266799
6.5858316 -3.7354276 -0.84392077
12.120924 -6.8748851 -0.7783491
15.873113 -9.0030947 0
15.671414 -8.8886929 1.0063449
3.1297243 -1.7701582 -0.99202675
3.7847366 -2.1406302 -0.96324778
4.7650752 -2.6951056 -0.91266799
6.5835929 -3.7236509 -0.84305674
12.13375 -6.8627954 -0.77863967
15.902102 -8.9941578 0
15.697977 -8.878706 1.0073611
3.1274948 -1.7639127 -0.99064374
3.7961731 -2.1410484 -0.96549934
4.7616186 -2.6855614 -0.91138363
6.5835772 -3.7131495 -0.84247959
12.13298 -6.8430233 -0.77805912
15.922025 -8.980051 0
15.720008 -8.8661127 1.0080867
0 -0 -0
3.1383705 -1.7650516 -0.99341238
3.7876861 -2.1302333 -0.96268547
4.7648597 -2.679806 -0.91138363
6.5903201 -3.7064633 -0.84276873
12.148037 -6.8321805 -0.77849466
15.935139 -8.9620848 0
15.735235 -8.8496571 1.0083766
3.121937 -1.7533274 -0.9878751
3.7934074 -2.1304355 -0.96381229
4.7709589 -2.6794431 -0.91224039
6.5812755 -3.6961448 -0.84132642
12.134038 -6.8146605 -0.77733356
15.933741 -8.9486313 0
15.745114 -8.8426962 1.0086672
3.1284268 -1.7520032 -0.98925811
3.7937555 -2.1246052 -0.96324778
4.7809057 -2.6774359 -0.91352308
6.5857368 -3.68819 -0.84132642
12.16493 -6.8126884 -0.77878469
18.083405 -10.127193 0
15.744454 -8.817318 1.0079416
3.1349263 -1.7506706 -0.99064374
3.800761 -2.1224997 -0.96437466
4.768455 -2.6628995 -0.91052854
6.5856767 -3.6777098 -0.8407504
12.173153 -6.7979841 -0.77878469
18.068361 -10.090109 0
15.739214 -8.7894173 1.0069256
2.6361017 -1.4679308 -0.99488401
3.1458068 -1.7517635 -0.99341238
3.803323 -2.1179056 -0.96437466
4.7761502 -2.659631 -0.91138363
6.5855918 -3.6672306 -0.84017324
12.201788 -6.7946467 -0.78009081
15.74326 -8.7667398 0
17.85873 -9.9447527 1.1417533
3.1435304 -1.745523 -0.99202675
3.7969935 -2.1083746 -0.9621231
4.7816029 -2.6551032 -0.91181123
6.5854998 -3.6567616 -0.83959723
12.209989 -6.7798982 -0.78009081
15.747014 -8.7439194 0
17.834385 -9.9029837 1.139431
2.6504507 -1.4675411 -0.99895805
3.1346653 -1.7356484 -0.98856658
3.8017592 -2.1050148 -0.96268547
4.7825637 -2.6480813 -0.91138363
6.5876527 -3.6475501 -0.83930922
12.215901 -6.7638826 -0.77994579
15.746186 -8.7185841 0
17.814518 -9.8638077 1.1373993
3.1455452 -1.7367098 -0.99133521
3.8131974 -2.1053321 -0.96493697
4.7790246 -2.6385818 -0.910101
6.5897846 -3.6383338 -0.83902007
12.246808 -6.7616739 -0.78139693
15.731646 -8.6857128 0
17.787754 -9.8209257 1.1349322
2.6561608 -1.4623271 -0.99977535
3.1366551 -1.7268592 -0.9878751
3.8179622 -2.1019473 -0.96549934
4.7844558 -2.6340423 -0.91052854
6.5896487 -3.627876 -0.83844405
12.248147 -6.7431154 -0.78096193
15.714771 -8.6516361 0
17.77684 -9.786891 1.1334804
3.1694252 -1.734933 -0.99687254
3.8096621 -2.0853965 -0.9621231
4.7862992 -2.6200049 -0.90967178
6.5893216 -3.6069732 -0.83729088
12.275801 -6.7197337 -0.78168744
15.689984 -8.5886469 0
17.729788 -9.7052288 1.1289816
3.1539025 -1.7214864 -0.99133521
3.8099508 -2.0795758 -0.96156079
4.7781973 -2.6080713 -0.90753233
6.5914068 -3.5977707 -0.83700287
12.28619 -6.7061396 -0.78183246
15.686641 -8.5621986 0
17.707287 -9.665123 1.1268044
3.147166 -1.7128772 -0.98856658
3.8191497 -2.0786111 -0.96324778
4.7835979 -2.6035218 -0.90795994
6.5912013 -3.5873284 -0.83642572
12.298853 -6.6937761 -0.78212303
15.6604 -8.5233326 0
17.682446 -9.6238508 1.1244826
3.1448276 -1.7066822 -0.98718357
3.8194275 -2.0727842 -0.96268547
4.7867403 -2.5977399 -0.90795994
6.5909886 -3.5768964 -0.8358497
12.327485 -6.690064 -0.78342915
15.65239 -8.4944725 0
17.648384 -9.5776892 1.1215799
3.1755691 -1.7184016 -0.99618101
3.8264029 -2.0705884 -0.96381229
4.7898755 -2.5919542 -0.90795994
6.5998511 -3.5713894 -0.83642572
12.324126 -6.6689768 -0.78270304
15.628315 -8.4569788 0
17.623379 -9.5365715 1.1192576
3.1533544 -1.7014577 -0.98856658
3.8199573 -2.0611372 -0.96156079
4.7884898 -2.583729 -0.90710479
6.5996137 -3.5609581 -0.8358497
12.327606 -6.6516151 -0.78241301
15.617911 -8.4269676 0
17.596016 -9.4942951 1.1167904
3.1509936 -1.6952713 -0.98718357
3.826916 -2.0589254 -0.96268547
4.7916083 -2.5779412 -0.90710479
6.6039114 -3.5529814 -0.8358497
12.356227 -6.6477938 -0.78371912
15.60058 -8.3932934 0
17.575443 -9.4557934 1.1147587
3.1552484 -1.6926475 -0.9878751
3.8338835 -2.0567045 -0.96381229
4.7901912 -2.5697203 -0.90624803
6.5990829 -3.5401084 -0.83469653
12.357379 -6.6291728 -0.78328359
15.576308 -8.3559818 0
17.543348 -9.4112101 1.1120009
2.673636 -1.4301267 -0.99977535
3.1705601 -1.6959312 -0.99202675
3.8274038 -2.0472767 -0.96156079
4.7955627 -2.5651445 -0.90667725
6.6033554 -3.5321321 -0.83469653
12.388297 -6.6264949 -0.78473526
15.561156 -8.3236561 0
17.524923 -9.374074 1.1101142
3.1538808 -1.6845598 -0.98648942
3.8241532 -2.0425675 -0.9604339
4.797112 -2.5622468 -0.90667725
6.6054883 -3.528142 -0.83469653
12.406046 -6.6263518 -0.78560579
15.573071 -8.3179331 0
17.493912 -9.3438969 1.107792
3.1625593 -1.6842867 -0.98856658
3.8243778 -2.036752 -0.95987159
4.7866054 -2.5492063 -0.90410864
6.6051764 -3.517724 -0.83411938
12.414043 -6.6113567 -0.78560579
15.567029 -8.2905455 0
17.459328 -9.2983284 1.1048898
2.6757545 -1.4208813 -0.99895805
3.1712413 -1.683995 -0.99064374
3.8223522 -2.0297484 -0.95874691
4.7987509 -2.5482364 -0.90582049
6.6048574 -3.5073166 -0.83354336
12.428909 -6.6000094 -0.78604138
15.590822 -8.2790508 0
17.44301 -9.2626009 1.1031481
3.1488829 -1.6672477 -0.98302931
3.8427577 -2.0346355 -0.96324778
4.7927518 -2.5376313 -0.90410864
6.6113744 -3.5005424 -0.83383137
12.429984 -6.5813375 -0.78560579
15.614618 -8.2675152 0
17.417448 -9.222064 1.1008259
3.1597695 -1.6681266 -0.98579794
3.8384788 -2.0264354 -0.96156079
4.8048949 -2.5366323 -0.90582049
6.5995946 -3.4841022 -0.83181417
12.437927 -6.5663137 -0.78560579
15.629195 -8.2510691 0
17.384924 -9.1779661 1.0980687
3.1706626 -1.6689817 -0.98856658
3.8364234 -2.0194266 -0.9604339
4.7966008 -2.5248473 -0.90368104
6.6106591 -3.4797361 -0.8326782
12.445852 -6.55128 -0.78560579
15.655276 -8.2406654 0
17.366112 -9.1412191 1.096182
3.1660106 -1.6616507 -0.98648942
3.8321176 -2.0112505 -0.95874691
4.790556 -2.5142777 -0.90196919
6.6034102 -3.4657371 -0.83123702
12.460664 -6.5398607 -0.78604138
15.683658 -8.2314186 0
17.340332 -9.1009083 1.0938598
3.1880193 -1.6682916 -0.99271822
3.8480484 -2.013685 -0.9621231
4.7981439 -2.5108702 -0.90282595
6.6167598 -3.4625525 -0.83239019
12.468556 -6.5247998 -0.78604138
15.709726 -8.2209053 0
17.30987 -9.0582609 1.091247
3.1811359 -1.6597962 -0.98994958
3.8392174 -2.0031581 -0.95930922
4.8034477 -2.5062571 -0.9032535
6.6117663 -3.449769 -0.83123702
12.492559 -6.5181441 -0.78705752
15.733497 -8.2091427 0
17.274738 -9.0133038 1.0883447
3.1942737 -1.6617436 -0.99341238
3.8348706 -1.9949987 -0.95762002
4.8132982 -2.5040019 -0.90453619
6.6090441 -3.4381952 -0.83037186
12.516556 -6.5114355 -0.78807306
15.754946 -8.1961298 0
17.260256 -8.9792309 1.086748
3.1784632 -1.6486417 -0.9878751
3.8305094 -1.9868526 -0.95593083
4.8140435 -2.4970033 -0.90410864
6.6177897 -3.4325912 -0.83094901
12.52211 -6.4951119 -0.78792804
15.77177 -8.1806831 0
17.234188 -8.9392262 1.0844258
2.6844678 -1.3882968 -0.99651551
3.169313 -1.6390388 -0.98441494
3.8554811 -1.993897 -0.96156079
4.8239002 -2.4947236 -0.90539294
6.6196375 -3.4234054 -0.830661
12.527643 -6.4787841 -0.78778303
15.802446 -8.1723785 0
17.212667 -8.9016867 1.0823941
3.1913571 -1.6455548 -0.99064374
3.8578877 -1.989237 -0.96156079
4.8132257 -2.4818363 -0.90282595
6.6168704 -3.4118471 -0.82979584
12.551622 -6.4719748 -0.78879863
15.819252 -8.1568575 0
17.186459 -8.8618288 1.0800719
3.1576443 -1.6233447 -0.97956914
3.8467255 -1.9776013 -0.95818239
4.8162208 -2.4760187 -0.90282595
6.6117868 -3.3991191 -0.82864267
12.559434 -6.4568038 -0.78879863
15.852237 -8.1496334 0
17.160179 -8.8220472 1.0777497
3.1819248 -1.6309694 -0.98648942
3.8694606 -1.9833819 -0.96324778
4.8100715 -2.4655137 -0.90111411
6.6089816 -3.3875871 -0.8277775
12.548736 -6.4321461 -0.78763807
15.8667 -8.1328459 0
17.140768 -8.7858982 1.075863
2.6999497 -1.379805 -0.99977535
3.1928289 -1.6316901 -0.98925811
3.8469727 -1.9659891 -0.95705771
4.8153305 -2.4608669 -0.90154165
6.6038575 -3.3748908 -0.82662433
12.581944 -6.4299822 -0.78923416
17.259949 -8.8206682 0
17.121294 -8.7498093 1.0739764
3.1724491 -1.6164436 -0.98233777
3.8289719 -1.9509586 -0.95199227
4.8091516 -2.4503851 -0.89982975
6.6056285 -3.3657358 -0.82633632
12.582756 -6.4112344 -0.78879863
17.226534 -8.7773571 0
17.106394 -8.7161427 1.0723802
3.183347 -1.6171541 -0.98510647
3.8539755 -1.9578365 -0.95762002
4.8166819 -2.4468954 -0.90068489
6.6096902 -3.3577516 -0.82633632
12.59976 -6.4007335 -0.78937918
17.209284 -8.7423916 0
17.068264 -8.6707535 1.0693325
3.1830626 -1.612174 -0.98441494
3.8382046 -1.9439937 -0.95311695
4.8196349 -2.4410737 -0.90068489
6.6137428 -3.3497627 -0.82633632
12.612126 -6.3878551 -0.78966969
17.19894 -8.711009 0
17.032368 -8.6266422 1.0664296
2.6925232 -1.3616797 -0.99488401
3.1997008 -1.6181729 -0.98925811
3.848448 -1.9462613 -0.95536852
4.8211088 -2.4381614 -0.90068489
6.6134591 -3.3446002 -0.82604831
12.625258 -6.3849249 -0.7902503
17.187941 -8.6923933 0
16.991201 -8.5928965 1.0635269
2.7074125 -1.3651041 -0.99977535
3.1926932 -1.6097875 -0.98648942
3.8507969 -1.9416097 -0.95536852
4.8240514 -2.4323342 -0.90068489
6.6105652 -3.3331122 -0.82518315
12.651525 -6.379024 -0.7914114
17.17985 -8.6622505 0
16.978373 -8.5606632 1.0620757
2.6935997 -1.3540599 -0.99406981
3.1811914 -1.59917 -0.98233777
3.8417914 -1.9312505 -0.95255464
4.8292871 -2.4276597 -0.90111411
6.6215224 -3.3286083 -0.82604831
12.649938 -6.3590641 -0.79083085
17.141478 -8.6169395 0
16.960846 -8.5261374 1.0603341
2.6996489 -1.353017 -0.99569821
3.1965742 -1.6020674 -0.98648942
3.8418527 -1.9254696 -0.95199227
4.8322167 -2.4218228 -0.90111411
6.6093512 -3.3124917 -0.82402998
12.676196 -6.3530884 -0.79199195
17.086731 -8.563571 0
16.940939 -8.4905033 1.0584474
2.6946552 -1.3464429 -0.99325562
3.2187033 -1.608295 -0.99271822
3.8532681 -1.925369 -0.95424384
4.8351393 -2.4159822 -0.90111411
6.608726 -3.3021932 -0.82345396
12.709425 -6.3505397 -0.79358804
17.062141 -8.5254688 0
16.920969 -8.4549294 1.0565608
3.1914542 -1.5898632 -0.98372078
3.8555918 -1.9207116 -0.95424384
4.8311596 -2.406703 -0.89982975
6.6080766 -3.2918966 -0.82287681
12.71709 -6.3351784 -0.79358804
17.049141 -8.4932442 0
16.903263 -8.4205732 1.054819
2.7089672 -1.3454231 -0.99732965
3.1641653 -1.5714996 -0.97472334
3.8670125 -1.9205724 -0.95649534
4.8225708 -2.3951557 -0.89769036
6.6166868 -3.2862129 -0.82345396
12.761971 -6.3383007 -0.7959103
17.019768 -8.4529591 0
16.887823 -8.3874283 1.0532224
2.7128038 -1.3432446 -0.99814385
3.1885488 -1.5788095 -0.9816463
3.8898215 -1.9260448 -0.96156079
4.8369617 -2.395021 -0.89982975
6.6160126 -3.2759178 -0.82287681
12.771946 -6.324028 -0.79605532
16.987993 -8.411603 0
16.844395 -8.3404999 1.0498846
2.7122107 -1.3388727 -0.99732965
3.190454 -1.5749557 -0.9816463
3.8739188 -1.9123454 -0.95705771
4.8283448 -2.3834944 -0.89769036
6.6130147 -3.2644899 -0.82201278
12.819186 -6.3281431 -0.79852253
16.984138 -8.3841562 0
16.821844 -8.30404 1.0478529
3.235116 -1.5921443 -0.99479538
3.8534334 -1.8964456 -0.9514299
4.8312216 -2.3776584 -0.89769036
6.6123085 -3.2542105 -0.82143563
12.836149 -6.3172388 -0.79910308
16.963903 -8.34869 0
16.810886 -8.2733831 1.0465468
2.7220972 -1.3355815 -0.99977535
3.2122691 -1.5760815 -0.98718357
3.858001 -1.8929062 -0.95199227
4.8386955 -2.3740785 -0.89854544
6.6115961 -3.243942 -0.82085961
12.862435 -6.3108807 -0.80026418
16.929594 -8.3064089 0
16.792877 -8.2393293 1.0448052
3.2051566 -1.5677896 -0.98441494
3.846586 -1.8815423 -0.94861388
4.8369532 -2.3659763 -0.89769036
6.6201534 -3.2382216 -0.82143563
12.884061 -6.302187 -0.8011353
16.906883 -8.2699347 0
16.753805 -8.1950569 1.0417573
3.2318466 -1.5760083 -0.99202675
3.8808346 -1.892487 -0.95649534
4.8444185 -2.3623784 -0.89854544
6.6194162 -3.2279549 -0.82085961
12.900999 -6.2911658 -0.80171531
16.881783 -8.2323933 0
16.723993 -8.1554461 1.0392901
3.2314944 -1.5710063 -0.99133521
3.8739779 -1.8833526 -0.95424384
4.8426566 -2.3542805 -0.89769036
6.6279597 -3.222214 -0.82143563
12.917939 -6.2801175 -0.80229586
16.865971 -8.1994715 0
16.715139 -8.1261444 1.038129
3.2085545 -1.5550636 -0.98372078
3.8648202 -1.8731304 -0.9514299
4.8478055 -2.3495457 -0.8981179
6.6202126 -3.2085638 -0.81999445
12.927863 -6.2656403 -0.80244142
16.840742 -8.1620636 0
16.701567 -8.0946102 1.0366778
2.6989558 -1.3040557 -0.98836428
3.2352815 -1.5631924 -0.99133521
3.8602152 -1.865142 -0.94974071
4.8483319 -2.3425708 -0.89769036
6.6287379 -3.2028105 -0.82057047
0 -0 -0
16.827154 -8.1303844 0
16.66688 -8.0529442 1.03392
2.7116611 -1.3061556 -0.99243832
3.2123032 -1.5473052 -0.98372078
3.8693357 -1.8637853 -0.9514299
4.8604097 -2.3411667 -0.8994022
6.6256194 -3.1914346 -0.81970644
0 -0 -0
16.794767 -8.0897198 0
16.641481 -8.0158844 1.0317428
2.7110114 -1.3018092 -0.99162412
3.2096517 -1.5412527 -0.98233777
3.8509638 -1.8492064 -0.94636232
4.863235 -2.3352923 -0.8994022
6.6318002 -3.184545 -0.81999445
12.994989 -6.2401052 -0.80519867
16.774033 -8.0547762 0
16.623055 -7.9822769 1.0300018
3.2137723 -1.5384556 -0.98302931
3.8577833 -1.8467484 -0.9474892
4.849843 -2.3216543 -0.89640605
6.635643 -3.1765294 -0.81999445
13.00252 -6.2243986 -0.80519867
16.750895 -8.0187721 0
16.611595 -7.9520888 1.0286956
2.7178307 -1.2990272 -0.99325562
3.2011244 -1.5300245 -0.97887766
3.8909888 -1.8597554 -0.95536852
4.8581953 -2.322046 -0.89769036
6.6375608 -3.1725199 -0.81999445
13.006278 -6.2165418 -0.80519867
16.736952 -7.9996724 0
16.588264 -7.9286051 1.0269539
2.7104733 -1.2914896 -0.98999578
3.2142928 -1.5315502 -0.98233777
3.8611243 -1.8397532 -0.9474892
4.854043 -2.3128603 -0.89640605
6.6413894 -3.1644974 -0.81999445
13.027859 -6.20753 -0.80606979
16.697269 -7.9559355 0
16.548573 -7.8850846 1.0239061
3.2002761 -1.5201293 -0.97749197
3.8794127 -1.8427188 -0.9514299
4.8568339 -2.3069935 -0.89640605
6.6381969 -3.1531401 -0.81912929
13.072895 -6.2096181 -0.80839145
16.685717 -7.9257059 0
16.536966 -7.8550501 1.0226001
2.7113547 -1.283879 -0.98918158
3.1998453 -1.5151887 -0.9768005
3.8862247 -1.8402027 -0.95255464
4.8596182 -2.3011234 -0.89640605
6.6490173 -3.1484385 -0.81999445
13.272958 -6.2850027 -0.82029259
16.662346 -7.8899436 0
16.522957 -7.8239403 1.0211483
2.7374837 -1.2922045 -0.99814385
3.2198234 -1.5198886 -0.98233777
3.8769588 -1.8300835 -0.94974071
4.8577476 -2.293056 -0.8955493
6.6504803 -3.1392992 -0.81970644
13.386272 -6.3188696 -0.82682317
16.650688 -7.8598075 0
16.506557 -7.7917714 1.0195522
3.2602453 -1.534155 -0.99410391
3.872268 -1.8221509 -0.94805151
4.8674855 -2.2904646 -0.8968336
6.6542687 -3.1312611 -0.81970644
13.412707 -6.3115411 -0.82798433
16.622505 -7.8219571 0
16.478342 -7.7541189 1.01723
2.7226975 -1.2771881 -0.99162412
3.2212179 -1.5110387 -0.9816463
3.879072 -1.819631 -0.9491784
4.8679276 -2.2834926 -0.89640605
6.6603866 -3.1243157 -0.81999445
13.422674 -6.296432 -0.82812929
16.610733 -7.7919164 0
16.45006 -7.7165461 1.0149078
2.7085726 -1.2665716 -0.98592174
3.254853 -1.5220211 -0.99133521
3.8812678 -1.8149426 -0.9491784
4.8730063 -2.2786953 -0.8968336
6.6641569 -3.1162658 -0.81999445
13.42792 -6.2791095 -0.82798433
16.58478 -7.7553067 0
16.426422 -7.6812563 1.0128762
2.7302606 -1.2726952 -0.99325562
3.2225797 -1.5021869 -0.98095214
3.8926699 -1.8145455 -0.9514299
4.8757563 -2.2728055 -0.8968336
6.6726012 -3.1103945 -0.82057047
13.423724 -6.2573915 -0.82725877
16.549318 -7.7143693 0
16.407431 -7.6482286 1.0111344
2.7385142 -1.2725168 -0.99569821
3.2334929 -1.5025207 -0.98372078
3.8948596 -1.8098407 -0.9514299
4.8784986 -2.2669125 -0.8968336
6.6716681 -3.100152 -0.81999445
13.417141 -6.2345991 -0.82638818
16.53503 -7.6834021 0
16.38131 -7.6119719 1.0089571
2.7041752 -1.2525897 -0.98266184
3.2603488 -1.5102125 -0.99133521
3.885509 -1.7997904 -0.94861388
4.8812342 -2.2610161 -0.8968336
6.6754093 -3.0920882 -0.81999445
13.410514 -6.2118278 -0.82551706
16.513607 -7.6491985 0
16.373999 -7.5845308 1.0079416
2.7415814 -1.2658952 -0.99569821
3.2439497 -1.4978583 -0.98579794
3.8853762 -1.7940301 -0.94805151
4.8816342 -2.2540414 -0.89640605
6.6861877 -3.0872741 -0.82085961
13.406217 -6.1901736 -0.82479155
16.496843 -7.6172371 0
16.347761 -7.5484004 1.0057644
2.7071943 -1.2460511 -0.98266184
3.2252488 -1.484498 -0.97956914
3.8852353 -1.7882726 -0.9474892
4.8866839 -2.2492135 -0.8968336
6.6875567 -3.0781083 -0.82057047
13.411328 -6.1728849 -0.82464653
16.472942 -7.5820665 0
16.326187 -7.5145192 1.0038778
2.7311583 -1.2530841 -0.99080998
3.24756 -1.4900146 -0.98579794
3.8827698 -1.7814555 -0.94636232
4.8893981 -2.2433071 -0.8968336
6.686574 -3.0678704 -0.81999445
13.41169 -6.1534238 -0.82421094
13.553861 -6.2186532 0
16.321089 -7.488287 1.0030072
2.7281792 -1.2477291 -0.98918158
3.2197008 -1.4725258 -0.9768005
3.8687513 -1.7693682 -0.94242376
4.8827672 -2.2331269 -0.89512175
6.7043843 -3.066241 -0.82172364
13.414393 -6.1350546 -0.82392097
0 -0 0
16.289957 -7.4501896 1.0005399
2.7409275 -1.249557 -0.99325562
3.2351699 -1.4748764 -0.98095214
3.8870637 -1.7720672 -0.94636232
4.8854618 -2.2272255 -0.89512175
6.703382 -3.055994 -0.82114762
13.424159 -6.1199183 -0.82406598
13.540432 -6.1729259 0
13.643922 -6.2201061 0.83755654
2.7281771 -1.2357899 -0.98755008
3.2181597 -1.4577386 -0.97472334
3.8913348 -1.7626686 -0.94636232
4.9001837 -2.2196496 -0.8968336
6.7013235 -3.035517 -0.81999445
13.403402 -6.0713758 -0.82188874
13.552942 -6.1391134 0
13.680214 -6.196764 0.83886266
2.716157 -1.2263919 -0.98266184
3.2496409 -1.4672692 -0.98372078
3.9004114 -1.7611032 -0.94805151
4.9005246 -2.2126718 -0.89640605
6.7120605 -3.0306115 -0.82085961
13.39889 -6.0498309 -0.82116318
13.572207 -6.1280866 0
13.713744 -6.1919932 0.84045935
2.7371743 -1.2338914 -0.98999578
3.2230814 -1.4529334 -0.97541487
3.8991604 -1.7577032 -0.9474892
4.8901615 -2.2044368 -0.89426661
6.7068143 -3.023366 -0.81999445
13.385958 -6.0342584 -0.82014704
0 -0 0
13.748276 -6.197588 0.84234601
2.7566991 -1.2386873 -0.99651551
3.233988 -1.4531509 -0.97818351
3.88274 -1.7446592 -0.94298613
4.8975 -2.2006285 -0.89512175
6.7151766 -3.0173781 -0.82057047
13.374288 -6.0095639 -0.81898648
13.573796 -6.0992107 0
0 -0 0
2.7401481 -1.2272731 -0.98999578
3.2357416 -1.4492422 -0.97818351
3.8918042 -1.7430832 -0.94467533
4.907186 -2.1978583 -0.89640605
6.7117424 -3.0060933 -0.81970644
13.364936 -5.9859633 -0.8179704
13.574038 -6.079617 0
13.737124 -6.1526613 0.84074932
2.7416291 -1.2239612 -0.98999578
3.2649803 -1.4576039 -0.98648942
3.8846269 -1.7342362 -0.94242376
4.8910856 -2.1835554 -0.8929823
6.7177296 -2.9990346 -0.81999445
13.327075 -5.9496827 -0.81521261
13.583748 -6.0642705 0
13.685233 -6.1095772 0.83712101
2.7272971 -1.2136128 -0.98429024
3.2461128 -1.4444792 -0.98026067
3.8983245 -1.7347052 -0.94523764
4.8984156 -2.1797333 -0.89383906
6.7284398 -2.994071 -0.82085961
13.286783 -5.9124513 -0.81231034
13.581554 -6.0436206 0
13.659373 -6.078249 0.83508933
2.7558734 -1.2223418 -0.99406981
3.2386825 -1.4364872 -0.97749197
3.8888063 -1.7248436 -0.94242376
4.896348 -2.1717293 -0.8929823
6.7249575 -2.9827917 -0.81999445
13.258286 -5.8805885 -0.81013316
13.576955 -6.0219307 0
13.638205 -6.0490975 0.83334762
2.7415223 -1.2120143 -0.98836428
3.249594 -1.4366305 -0.98026067
3.8885572 -1.7191131 -0.94185925
4.8942776 -2.1637373 -0.89212716
6.7332835 -2.9767535 -0.82057047
13.236863 -5.8519559 -0.80839145
13.565179 -5.9971027 0
13.688277 -6.0515242 0.83595985
2.718112 -1.1977407 -0.97940201
3.2306678 -1.4235992 -0.97403187
3.8859856 -1.7123661 -0.94073457
4.8945322 -2.1567838 -0.891698
6.7297816 -2.9654894 -0.81970644
13.227286 -5.8286262 -0.80737591
13.570036 -5.9796591 0
13.712227 -6.0423155 0.83697599
2.7467129 -1.2063824 -0.98918158
3.2576547 -1.4307929 -0.9816463
3.9020057 -1.713798 -0.94411081
4.8971348 -2.1508682 -0.891698
6.7286191 -2.9552734 -0.81912929
13.23432 -5.8126392 -0.80737591
16.110035 -7.0756803 0
13.776616 -6.0508208 0.84045935
2.7776003 -1.215947 -0.99977535
3.2455876 -1.4208173 -0.97749197
3.8924377 -1.7039882 -0.94129694
4.904438 -2.1470103 -0.89255476
6.736928 -2.9492176 -0.81970644
13.227047 -5.7903895 -0.80650479
16.11619 -7.0551667 0
13.793438 -6.0383382 0.8410399
2.7790675 -1.21259 -0.99977535
3.2381043 -1.4128814 -0.97472334
3.9131248 -1.7074128 -0.94580001
4.909379 -2.1421084 -0.8929823
6.7357411 -2.9390044 -0.81912929
13.236413 -5.7754412 -0.8066498
16.103237 -7.0263224 0
15.948823 -6.9589467 0.97194874
2.7397285 -1.1914866 -0.98510444
3.258214 -1.4169719 -0.98026067
3.9128571 -1.701671 -0.94523764
4.895483 -2.1290073 -0.8899861
6.7464051 -2.933959 -0.81999445
13.241001 -5.7584081 -0.80650479
16.075914 -6.9912901 0
15.9596 -6.9407058 0.9720937
2.7479715 -1.1911252 -0.98755008
3.2369099 -1.4030584 -0.97334033
3.9055851 -1.6928998 -0.94298613
4.900414 -2.1241145 -0.89041531
6.7404528 -2.9216905 -0.81884128
13.238413 -5.7382712 -0.80592424
16.065248 -6.9635801 0
15.946521 -6.912117 0.97078758
2.7584846 -1.1917248 -0.99080998
3.2570271 -1.4071059 -0.97887766
3.9052975 -1.6871727 -0.94242376
4.9053311 -2.1192088 -0.89084285
6.7416062 -2.912519 -0.81855327
13.219105 -5.710938 -0.80432808
16.030651 -6.9255867 0
15.928629 -6.8815107 0.96919149
2.7848959 -1.199144 -0.99977535
3.277159 -1.4111068 -0.98441494
3.8933263 -1.6764214 -0.93904537
4.9149642 -2.1163268 -0.89212716
6.749867 -2.906415 -0.81912929
13.192578 -5.680572 -0.80229586
16.017498 -6.8969498 0
15.893969 -6.8437595 0.96657872
2.7545404 -1.18213 -0.98836428
3.2719431 -1.4041768 -0.98233777
3.8976908 -1.6727208 -0.93960989
4.9033589 -2.1043103 -0.88955855
6.7581325 -2.9002988 -0.81970644
13.182725 -5.6574569 -0.80128032
15.997121 -6.8652744 0
15.890289 -6.819427 0.96585315
2.780966 -1.1894935 -0.99732965
3.2528799 -1.3913438 -0.97610903
3.9207325 -1.6770022 -0.94467533
4.917697 -2.1034307 -0.891698
6.7544951 -2.8890784 -0.81884128
13.156099 -5.6272159 -0.7992481
15.986261 -6.8377523 0
15.872245 -6.7889838 0.96425706
2.7437518 -1.1696563 -0.98347604
3.2314761 -1.3775723 -0.96918607
3.9040568 -1.6642922 -0.94017226
4.9155164 -2.0954757 -0.89084285
6.7651215 -2.8839588 -0.81970644
13.15094 -5.6062212 -0.79852253
15.970576 -6.8082271 0
15.830242 -6.7484026 0.96120924
2.7497082 -1.1682712 -0.98510444
3.2793183 -1.3932872 -0.98302931
3.906065 -1.6595737 -0.94017226
4.9133153 -2.0875251 -0.8899861
6.7709794 -2.8767927 -0.81999445
13.150537 -5.5872812 -0.79808754
15.940467 -6.7726417 0
15.831207 -6.7262206 0.96077371
2.7708898 -1.175295 -0.99243832
3.2524443 -1.3795502 -0.97472334
3.9070671 -1.6572136 -0.94017226
4.9122143 -2.0835547 -0.88955855
6.7798619 -2.8757324 -0.82085961
13.163469 -5.5833902 -0.79866755
15.920601 -6.7528496 0
15.794604 -6.6994071 0.95830643
2.7290599 -1.1536638 -0.97695631
3.2910814 -1.3912487 -0.98579794
3.9114046 -1.6534798 -0.94073457
4.9241862 -2.0816162 -0.89127046
6.7738023 -2.8635097 -0.81970644
13.167815 -5.5664697 -0.79852253
15.909573 -6.7255011 0
15.766785 -6.6651402 0.95612919
2.7668953 -1.1657193 -0.98999578
3.2580783 -1.3726593 -0.97541487
3.9110603 -1.6477668 -0.94017226
4.9101357 -2.068687 -0.88827425
6.7796388 -2.8563261 -0.81999445
13.186502 -5.5555983 -0.7992481
15.872116 -6.6870732 0
15.760464 -6.6400328 0.95525867
2.7774174 -1.1662027 -0.99325562
3.2597346 -1.3687216 -0.97541487
3.910708 -1.6420572 -0.93960989
4.9173703 -2.0647418 -0.88913101
6.7783108 -2.8461275 -0.8194173
13.205192 -5.5446939 -0.7999742
15.858591 -6.658823 0
15.739725 -6.6089129 0.95351702
2.7879446 -1.1666623 -0.99651551
3.2660191 -1.3667207 -0.9768005
