# .PCD v0.7 - Point Cloud Data file format
VERSION 0.7
FIELDS x y z
SIZE 4 4 4
TYPE F F F
COUNT 1 1 1
WIDTH 1526
HEIGHT 1
VIEWPOINT 0 0 0 1 0 0 0
POINTS 1526
DATA ascii
-4.9451299 -0.93714273 0.28113222
-4.1839981 -0.79814035 -0.94359386
-4.2077155 -0.80266464 -0.71413553
-4.2389879 -0.80863023 -0.48100245
-4.2652011 -0.81363064 -0.24253377
-18.009932 -3.4355783 0
-4.9133649 -0.93727446 0.27939057
-4.1730494 -0.80127877 -0.94134235
-4.1966586 -0.805812 -0.71242368
-4.2278476 -0.81180072 -0.47984928
-4.2591062 -0.81780279 -0.24224322
-17.814089 -3.4205325 0
-4.8765078 -0.93635178 0.27735889
-4.1795554 -0.80776554 -0.94302934
-4.2007179 -0.81185555 -0.71327877
-4.2243266 -0.81641835 -0.47956127
-4.2581148 -0.82294846 -0.24224322
-17.720518 -3.424772 0
-4.8268967 -0.93287462 0.2746011
-4.1910543 -0.81524235 -0.94584543
-4.2022514 -0.81742042 -0.71370637
-4.2284098 -0.82250881 -0.48013732
-4.2622237 -0.82908624 -0.24253377
-17.634619 -3.4302797 0
-4.807909 -0.93523276 0.27358499
-4.1800919 -0.81835312 -0.94359386
-4.2012606 -0.82249743 -0.71370637
-4.2324944 -0.82861221 -0.48071444
-4.2612185 -0.83423567 -0.24253377
-17.599813 -3.4455853 0
-4.8271761 -0.94503534 0.27474609
-4.1865716 -0.82487547 -0.94528091
-4.2027893 -0.82807088 -0.71413553
-4.2289548 -0.8332262 -0.48042643
-4.2602077 -0.8393839 -0.24253377
-17.6033 -3.4683583 0
-4.8515296 -0.95589149 0.27619776
-4.1805921 -0.82894611 -0.94415623
-4.2043014 -0.83364731 -0.71456313
-4.2330146 -0.83934063 -0.48100245
-4.2668295 -0.84604567 -0.24296878
-17.596546 -3.4891202 0
-4.8784008 -0.96731073 0.27779388
-4.1795874 -0.83399695 -0.94415623
-4.2058063 -0.83922863 -0.71499068
-4.2345309 -0.84496045 -0.48129049
-4.2709055 -0.85221857 -0.24325934
-17.651011 -3.5220914 0
-4.8925228 -0.97625643 0.27866501
-4.1735892 -0.83804512 -0.94302934
-4.2073035 -0.84481484 -0.71541822
-4.241117 -0.85160452 -0.48215562
-4.2622271 -0.85584337 -0.24282378
-17.700321 -3.5541754 0
-0 -0 0
-4.180048 -0.84459764 -0.94471854
-4.2062798 -0.84989792 -0.71541822
-4.2248783 -0.85365587 -0.48042643
-4.2229929 -0.85327488 -0.24064711
-4.62818 -0.93514478 0
-4.9079709 -0.99167782 0.27968055
-4.1840091 -0.85066128 -0.94584543
-4.1926742 -0.85242295 -0.71327877
-4.2111731 -0.85618407 -0.47898525
-4.2270465 -0.85941136 -0.2409371
-4.6015482 -0.93555224 0
-4.9067688 -0.99760741 0.27968055
-4.1779947 -0.85469675 -0.94471854
-4.1866159 -0.85646039 -0.71242368
-4.1949267 -0.85816056 -0.47725493
-4.2107353 -0.86139458 -0.24006654
-4.4703875 -0.91451186 0
-4.8979301 -1.0019747 0.27924556
-4.1719861 -0.85872084 -0.94359386
-4.1704869 -0.85841227 -0.70985508
-4.183753 -0.86114287 -0.47610176
-4.214777 -0.8675285 -0.24035655
-4.3851624 -0.90259904 0
-4.8967161 -1.0078921 0.27924556
-4.1560121 -0.86066872 -0.94021547
-4.1719675 -0.86397296 -0.71028423
-4.1725788 -0.8640995 -0.47494859
-4.2315392 -0.87630963 -0.24137266
-4.338202 -0.8983984 0
-4.9082146 -1.0164423 0.27997112
-4.1599488 -0.86672735 -0.94134235
-4.1608682 -0.86691892 -0.70857239
-4.1841898 -0.87177795 -0.4763898
-4.2228432 -0.87983143 -0.2409371
-4.2887125 -0.89355534 0
-4.9018903 -1.0213112 0.27968055
-4.1395268 -0.86508226 -0.93683928
-4.1804361 -0.87363154 -0.71199447
-4.1735349 -0.87218928 -0.47523662
-4.2324848 -0.88450873 -0.24151766
-4.2779822 -0.89401674 0
-4.906364 -1.0253366 0.27997112
-4.1558771 -0.87374139 -0.94077784
-4.1643095 -0.87551415 -0.70942748
-4.1775451 -0.87829685 -0.47581375
-4.2161608 -0.88641554 -0.24064711
-0 -0 0
-4.8949499 -1.0291257 0.27939057
-4.1448846 -0.87666118 -0.93852848
-4.1732945 -0.88267004 -0.71113938
-4.1840749 -0.8849501 -0.47667891
-4.2227063 -0.89312083 -0.2410821
-4.268168 -0.90273619 0
-4.8886137 -1.0339632 0.2791
-4.1512709 -0.88325363 -0.94021547
-4.1747336 -0.88824576 -0.71156693
-4.1880574 -0.89108062 -0.47725493
-4.2216239 -0.89822245 -0.2410821
-4.2848954 -0.91168451 0
-4.8797436 -1.0382487 0.27866501
-4.1402621 -0.8861419 -0.93796396
-4.1761651 -0.89382619 -0.71199447
-4.1793876 -0.89451593 -0.4763898
-4.2052951 -0.90006089 -0.24021155
-4.2761536 -0.91522676 0
-4.8683219 -1.0419688 0.27808446
-4.1466427 -0.89274877 -0.93965316
-4.1650534 -0.89671254 -0.71028423
-4.1808395 -0.9001112 -0.47667891
-4.2169032 -0.90787548 -0.2409371
-4.2674093 -0.91874921 0
-4.8670592 -1.0478504 0.27808446
-4.1480417 -0.89829582 -0.94021547
-4.1639667 -0.90174448 -0.71028423
-4.187325 -0.90680301 -0.47754297
-4.2158031 -0.91297013 -0.2409371
-4.2815623 -0.92721093 0
-4.8607054 -1.0526296 0.27779388
-4.1295819 -0.89952332 -0.93627691
-4.1678858 -0.90786684 -0.71113938
-4.1786523 -0.91021198 -0.47667891
-4.21977 -0.91916841 -0.24122711
-4.2753482 -0.93127477 0
-17.924009 -3.904285 1.0246428
-4.1408997 -0.90723085 -0.93909079
-4.1592607 -0.91125357 -0.70985508
-4.1825976 -0.91636646 -0.47725493
-4.2110486 -0.92259979 -0.24079211
-4.2767596 -0.93699646 0
-17.95989 -3.9348376 1.0269651
-4.1398005 -0.91223365 -0.93909079
-4.1656799 -0.91793638 -0.71113938
-4.1890674 -0.92308998 -0.47812009
-4.2302313 -0.93216074 -0.24195322
-4.270546 -0.94104439 0
-17.937368 -3.9526231 1.0259495
-4.1411734 -0.91778439 -0.93965316
-4.1645675 -0.9229691 -0.71113938
-4.1803708 -0.92647147 -0.47725493
-4.2138758 -0.93389696 -0.2410821
-4.2694058 -0.94620383 0
-17.871693 -3.9608004 1.0224662
-4.125186 -0.91947192 -0.93627691
-4.1759748 -0.93079233 -0.71327877
-4.1843023 -0.93264842 -0.47783208
-4.2127442 -0.93898791 -0.2410821
-0 -0 0
-7.8772669 -1.7557815 0.45079121
-4.1339893 -0.92667884 -0.93852848
-4.1748471 -0.93583751 -0.71327877
-4.1882153 -0.93883407 -0.4784081
-4.2192154 -0.9457832 -0.24151766
-4.2772646 -0.95879555 0
-7.8878145 -1.7681397 0.45151678
-4.1303806 -0.93111289 -0.93796396
-4.196249 -0.94596153 -0.71713006
-4.1820359 -0.94275755 -0.47783208
-4.2104626 -0.94916576 -0.2410821
-4.2786393 -0.96453488 0
-7.8780751 -1.7759566 0.45108178
-4.1416407 -0.93891126 -0.94077784
-4.1825876 -0.94819397 -0.71499068
-4.1859341 -0.94895262 -0.4784081
-4.2245226 -0.95770061 -0.24195322
-4.2673187 -0.96740252 0
-7.8784552 -1.7860484 0.45122677
-4.1504121 -0.94617397 -0.94302934
-4.1764379 -0.95210701 -0.71413553
-4.1822648 -0.95343548 -0.47812009
-4.2157593 -0.96107119 -0.24151766
-4.2737613 -0.97429395 0
-18.75437 -4.275454 1.0744236
-4.1374574 -0.94585055 -0.94021547
-4.1733522 -0.95405632 -0.71370637
-4.1791692 -0.95538616 -0.47783208
-4.2075763 -0.96188021 -0.2410821
-4.2680926 -0.97571468 0
-7.8524098 -1.7951137 0.44992065
-4.1462169 -0.95312613 -0.94246703
-4.1671972 -0.95794916 -0.71285123
-4.1754837 -0.95985401 -0.47754297
-4.2064109 -0.96696353 -0.2410821
-4.2669106 -0.98087114 0
-7.8654246 -1.8080921 0.45079121
-0 -0 -0
-4.1425886 -0.95756364 -0.94190466
-4.1735425 -0.9647187 -0.71413553
-4.1743207 -0.96489859 -0.47754297
-4.2052393 -0.97204542 -0.2410821
-4.2631893 -0.98544061 0
-7.863234 -1.8175946 0.45079121
-0 -0 -0
-4.1265841 -0.95911819 -0.93852848
-4.1623721 -0.96743625 -0.71242368
-4.1907897 -0.97404116 -0.47956127
-4.2091289 -0.97830361 -0.24137266
-4.2670703 -0.99177057 0
-7.8407841 -1.8223884 0.44963011
-4.1353092 -0.96641433 -0.94077784
-4.1586933 -0.97187912 -0.71199447
-4.1820512 -0.97733784 -0.47869614
-4.2180648 -0.98575407 -0.24195322
-4.2734642 -0.9987008 0
-7.8259277 -1.8289051 0.44890454
-4.1316676 -0.97082967 -0.94021547
-4.1650152 -0.97866553 -0.71327877
-4.1859078 -0.98357475 -0.47927326
-4.2092795 -0.98906636 -0.24151766
-4.2570581 -1.000293 0
-22.974974 -5.3984952 1.3182451
-4.1342583 -0.98198694 -0.94134235
-4.1676383 -0.98991549 -0.71413553
-4.1835189 -0.99368757 -0.47927326
-4.2068768 -0.99923563 -0.24151766
-4.2571578 -1.0111786 0
-22.959335 -5.4534006 1.3181001
-4.1231833 -0.98462099 -0.93909079
-4.1639347 -0.99435258 -0.71370637
-4.1823153 -0.99874181 -0.47927326
-4.2031417 -1.0037152 -0.24137266
-4.2635293 -1.0181358 0
-23.579481 -5.6308079 1.3540925
-4.1392779 -0.99375272 -0.94302934
-4.157743 -0.99818575 -0.71285123
-4.1710453 -1.0013794 -0.47812009
-4.2044497 -1.0093991 -0.24151766
-4.2673526 -1.0245006 0
-18.388237 -4.4146252 1.0562819
-4.1306715 -0.99696684 -0.94134235
-4.16152 -1.0044123 -0.71370637
-4.1773777 -1.0082396 -0.47898525
-4.2133307 -1.0169172 -0.24209823
-4.2686386 -1.0302662 0
-18.352579 -4.4295249 1.0545402
-4.1245208 -1.0007578 -0.94021547
-4.1652975 -1.0106517 -0.71456313
-4.1786675 -1.0138958 -0.47927326
-4.2221999 -1.0244583 -0.24267878
-4.2623372 -1.0341971 0
-21.546455 -5.2279487 1.2384225
-4.1381245 -1.0093546 -0.94359386
-4.164073 -1.0156839 -0.71456313
-4.1799498 -1.0195564 -0.47956127
-4.2108612 -1.0270963 -0.24209823
-4.2661366 -1.0405788 0
-21.477015 -5.2385864 1.2347943
-4.1393671 -1.0149585 -0.94415623
-4.1628428 -1.0207146 -0.71456313
-4.1762052 -1.023991 -0.47927326
-4.2045646 -1.0309447 -0.24180767
-4.2648759 -1.0457329 0
-21.475712 -5.26577 1.2350842
-4.1430669 -1.0211743 -0.94528091
-4.1591163 -1.0251302 -0.71413553
-4.1749644 -1.0290364 -0.47927326
-4.2058463 -1.0366479 -0.24195322
-4.2661438 -1.05151 0
-21.542496 -5.3097482 1.2392931
-4.1245728 -1.021904 -0.94134235
-4.1603642 -1.0307716 -0.71456313
-4.1837606 -1.0365683 -0.48042643
-4.2071104 -1.0423534 -0.24209823
-4.2598128 -1.055411 0
-21.838717 -5.4107594 1.2567093
-4.1313457 -1.0262315 -0.94302934
-4.1622295 -1.0339031 -0.71499068
-4.1806159 -1.0384704 -0.48013732
-4.2014313 -1.043641 -0.24180767
-4.2642307 -1.0592405 0
-21.951443 -5.4527669 1.2633854
-4.1473613 -1.035532 -0.94697011
-4.1634655 -1.0395529 -0.71541822
-4.1718373 -1.0416433 -0.47927326
-4.2077327 -1.0506058 -0.24224322
-4.2629476 -1.0643921 0
-21.914585 -5.4717331 1.2616438
-4.1239295 -1.0349766 -0.94190466
-4.1647034 -1.0452095 -0.71584743
-4.1806102 -1.0492017 -0.48042643
-4.2014246 -1.0544255 -0.24195322
-4.2692237 -1.0714409 0
-18.049593 -4.5298805 1.0394468
-4.1300693 -1.0418239 -0.94359386
-4.1634374 -1.050241 -0.71584743
-4.1818447 -1.0548844 -0.48071444
-4.2152596 -1.0633134 -0.24282378
-4.2729778 -1.077873 0
-18.021423 -4.5459647 1.0381402
-4.1238766 -1.0455633 -0.94246703
-4.1472306 -1.0514845 -0.71327877
-4.1755481 -1.0586641 -0.48013732
-4.2013803 -1.0652136 -0.24209823
-4.264102 -1.081116 0
-15.137133 -3.8378527 0.87225449
-4.1349192 -1.0536821 -0.94528091
-4.1658573 -1.061566 -0.71670252
-4.1817875 -1.0656253 -0.48100245
-4.2101622 -1.0728559 -0.24267878
-4.2678413 -1.087554 0
-15.147588 -3.8599889 0.87312508
-4.1484165 -1.0624611 -0.9486593
-4.1745191 -1.0691464 -0.71841443
-4.1830001 -1.0713185 -0.48129049
-4.2113776 -1.0785863 -0.24282378
-4.261477 -1.0914174 0
-15.122785 -3.8731339 0.87196451
-4.1446714 -1.0668402 -0.94809693
-4.1782007 -1.0754708 -0.71927118
-4.1842146 -1.0770186 -0.4815796
-4.2100711 -1.0836742 -0.24282378
-4.2500734 -1.0939708 0
-0 -0 0
-4.1359968 -1.0699377 -0.94640774
-4.1744061 -1.0798738 -0.71884197
-4.1854119 -1.0827209 -0.48186761
-4.2137947 -1.0900632 -0.24311434
-4.2638707 -1.1030173 0
-0 -0 0
-4.1519175 -1.0794104 -0.9503485
-4.158196 -1.0810426 -0.71627498
-4.1866012 -1.0884274 -0.48215562
-4.2099524 -1.0944983 -0.24296878
-4.2675676 -1.109477 0
-0 -0 0
-4.1530662 -1.0850681 -0.95091087
-4.16434 -1.0880136 -0.71755928
-4.177773 -1.0915233 -0.48129049
-4.2136598 -1.1008993 -0.24325934
-4.2737803 -1.116607 0
-0 -0 0
-4.1492968 -1.0894408 -0.9503485
-4.1679835 -1.0943472 -0.71841443
-4.1714525 -1.0952581 -0.48071444
-4.2047844 -1.1040096 -0.24282378
-4.2699132 -1.1211098 0
-0 -0 0
-4.1356864 -1.0912106 -0.94753247
-4.171627 -1.1006937 -0.71927118
-4.1701264 -1.1002977 -0.48071444
-4.2034473 -1.1090895 -0.24282378
-4.2760973 -1.1282583 0
-14.953609 -3.9455452 0.86383671
-4.1417351 -1.0981612 -0.94922167
-4.1653266 -1.1044164 -0.71841443
-4.173789 -1.1066601 -0.48129049
-4.2347531 -1.1228245 -0.24471045
-14.550328 -3.8579495 0
-14.906136 -3.9522903 0.86136943
-4.1379523 -1.1025113 -0.9486593
-4.1714334 -1.111432 -0.71969873
-4.1749554 -1.1123704 -0.4815796
-4.2283769 -1.1266038 -0.24442045
-14.538118 -3.8735199 0
-14.828537 -3.9508984 0.85716057
-4.1218858 -1.1035664 -0.94528091
-4.1725645 -1.1171347 -0.72012627
-4.1810966 -1.119419 -0.48244366
-4.2470927 -1.1370884 -0.24558157
-14.46807 -3.873585 0
-14.750973 -3.9493275 0.85295218
-4.1236796 -1.1067169 -0.94584543
-4.1793294 -1.1216522 -0.72141057
-4.1954126 -1.1259687 -0.48417395
-4.2464051 -1.139654 -0.24558157
-14.407912 -3.8668089 0
-14.668276 -3.9366853 0.84830773
-4.1296921 -1.1136817 -0.94753247
-4.1853995 -1.1287047 -0.72269326
-4.219017 -1.1377705 -0.48705631
-4.2425089 -1.1441057 -0.24543601
-14.315291 -3.8605003 0
-14.578214 -3.9314041 0.8433733
-4.147963 -1.1239871 -0.95203555
-4.2112899 -1.141147 -0.72740132
-4.217639 -1.1428676 -0.48705631
-4.2461438 -1.1505916 -0.24572657
-14.245312 -3.8600988 0
-14.488185 -3.9259112 0.83843881
-4.1392541 -1.1269977 -0.9503485
-4.2148571 -1.1475822 -0.7282564
-4.2237444 -1.150002 -0.48792148
-4.2472553 -1.1564034 -0.24587157
-14.185398 -3.8622687 0
-14.385658 -3.9167936 0.83277881
-4.1721964 -1.1413838 -0.95822781
-4.2085199 -1.1513207 -0.72740132
-4.2198596 -1.1544229 -0.48763347
-4.2283082 -1.1567342 -0.24485545
-14.117967 -3.8622386 0
-14.288182 -3.9088042 0.82740879
-4.1732616 -1.147097 -0.95879012
-4.1972246 -1.1536835 -0.72568941
-4.21596 -1.1588334 -0.48734435
-4.2369294 -1.1645972 -0.24543601
-14.053063 -3.8627403 0
-14.213294 -3.9067826 0.82334489
-4.1645226 -1.1501088 -0.95710093
-4.1884017 -1.1567035 -0.72440511
-4.2145572 -1.1639267 -0.48734435
-4.2405334 -1.1711006 -0.24572657
-13.975638 -3.8596275 0
-14.120906 -3.8997457 0.81826538
-4.1704774 -1.1571788 -0.95879012
-4.2043185 -1.1665686 -0.72740132
-4.2131476 -1.1690184 -0.48734435
-4.2366138 -1.1755296 -0.24558157
-13.915799 -3.8612046 0
-14.068618 -3.9036071 0.81550819
-4.169076 -1.1622171 -0.95879012
-4.1979651 -1.1702706 -0.72654617
-4.2167196 -1.1754987 -0.48792148
-4.2477031 -1.1841359 -0.24630712
-13.835921 -3.8570521 0
-13.991305 -3.9003689 0.81129926
-4.1676688 -1.1672537 -0.95879012
-4.1990175 -1.1760337 -0.72697377
-4.2202725 -1.1819867 -0.48849753
-4.2487688 -1.1899678 -0.24645212
-13.738528 -3.8477983 0
-13.924031 -3.8997526 0.80767089
-4.1784825 -1.1757292 -0.96160406
-4.2025309 -1.182496 -0.72782886
-4.2213383 -1.1877879 -0.48878664
-4.2448292 -1.1943976 -0.24630712
-13.703806 -3.855937 0
-13.856778 -3.8989797 0.80404258
-4.1623931 -1.1766315 -0.95822781
-4.203567 -1.1882706 -0.7282564
-4.2223868 -1.1935905 -0.48907465
-4.2533846 -1.202353 -0.24688768
-13.611492 -3.8477168 0
-13.789548 -3.8980498 0.8004142
-4.1731873 -1.18513 -0.96104169
-4.2070718 -1.1947528 -0.72911316
-4.2159605 -1.1972771 -0.48849753
-4.2569232 -1.2089099 -0.24717769
-13.541746 -3.8456771 0
-13.729841 -3.8990934 0.79722142
-4.1766343 -1.1915644 -0.96216637
-4.2006831 -1.1984255 -0.7282564
-4.2219748 -1.2044998 -0.48936266
-4.2429676 -1.210489 -0.24645212
-13.484536 -3.8470438 0
-13.675144 -3.901423 0.79431862
-4.1654305 -1.1938128 -0.95991701
-4.2041721 -1.2049162 -0.72911316
-4.2155485 -1.2081765 -0.48878664
-4.2415023 -1.2156149 -0.24645212
-13.422335 -3.8468425 0
-13.607976 -3.9000471 0.7906903
-4.1720281 -1.1984316 -0.96160406
-4.2108479 -1.2095828 -0.73039746
-4.2197847 -1.21215 -0.48936266
-4.2457571 -1.2196106 -0.24674213
-13.357477 -3.8369884 0
-13.555668 -3.8939197 0.7877875
-4.1754642 -1.2048821 -0.96273088
-4.2069097 -1.2139561 -0.72996831
-4.218317 -1.2172478 -0.48936266
-4.2542667 -1.2276216 -0.24732268
-13.295327 -3.8365321 0
-13.483553 -3.890847 0.78386915
-4.1715579 -1.2092171 -0.96216637
-4.1955776 -1.2161797 -0.7282564
-4.2193251 -1.2230635 -0.48965067
-4.2502871 -1.2320384 -0.24717769
-13.233198 -3.8359313 0
-13.411465 -3.8876057 0.7799508
-4.1627817 -1.2121277 -0.96047932
-4.2015014 -1.223402 -0.72954071
-4.232749 -1.2325008 -0.49138099
-4.2512875 -1.2378989 -0.24732268
-13.166088 -3.8337293 0
-13.346881 -3.886373 0.77646744
-4.1686234 -1.2192945 -0.96216637
-4.195097 -1.2270379 -0.72868562
-4.4199147 -1.2927957 -0.51329011
-4.2472973 -1.2423061 -0.24717769
-13.111489 -3.8350232 0
-13.274846 -3.8828039 0.77254909
-4.1720276 -1.2257645 -0.96329325
-4.1960721 -1.232829 -0.72911316
-4.8203435 -1.4162433 -0.5599907
-4.2457929 -1.2474372 -0.24717769
-13.041929 -3.8317902 0
-13.217793 -3.8834598 0.76950133
-4.1681085 -1.2300862 -0.96273088
-4.1994987 -1.23935 -0.72996831
-4.8211069 -1.4227982 -0.56027871
-4.2467723 -1.2533013 -0.24732268
-13.00983 -3.8394425 0
-13.155767 -3.8825111 0.76616299
-4.1666193 -1.2351216 -0.96273088
-4.197998 -1.2444234 -0.72996831
-4.8193846 -1.4286225 -0.56027871
-4.2477531 -1.2591724 -0.24746825
-12.967762 -3.8440669 0
-13.088787 -3.8799427 0.76253462
-4.1797304 -1.2445045 -0.96610713
-4.2063327 -1.2524252 -0.73168015
-4.8176546 -1.4344447 -0.56027871
-4.2362671 -1.261338 -0.24688768
-12.93816 -3.8523049 0
-13.036778 -3.8816683 0.75977743
-4.1684866 -1.2466418 -0.96385556
-4.1949787 -1.2545646 -0.72996831
-4.8134422 -1.4395245 -0.5599907
-4.2671013 -1.2761338 -0.24877435
-12.908566 -3.8604801 0
-12.982288 -3.8825276 0.75687462
-4.1669769 -1.2516776 -0.96385556
-4.2032938 -1.2625866 -0.73168015
-4.8067403 -1.4438499 -0.55941355
-4.2779965 -1.2850257 -0.24949992
-14.900263 -4.4757447 0
-12.905421 -3.8765337 0.7526657
-4.1751919 -1.2596474 -0.96610713
-4.1943994 -1.2654423 -0.73039746
-4.7752867 -1.4406948 -0.55595517
-4.288877 -1.2939459 -0.25022548
-14.884877 -4.4907389 0
-12.853468 -3.8778665 0.74990845
-4.1590815 -1.2602717 -0.96273088
-4.1928673 -1.2705094 -0.73039746
-4.3057256 -1.3047073 -0.50147039
-4.2848258 -1.2983744 -0.25008047
-14.886915 -4.5109859 0
-12.796553 -3.8775711 0.74686068
-4.1721358 -1.2697334 -0.96610713
-4.1888661 -1.2748252 -0.72996831
-4.2274456 -1.2865663 -0.49253416
-0 -0 -0
-14.876478 -4.5274568 0
-12.729713 -3.8741176 0.74323231
-4.1657434 -1.2732898 -0.96498245
-4.1946898 -1.2821375 -0.73125261
-4.2159939 -1.2886492 -0.49138099
-4.246891 -1.2980932 -0.2480488
-14.873484 -4.5461884 0
-12.677807 -3.8750639 0.74047452
-4.169055 -1.2798122 -0.96610713
-4.1857729 -1.2849443 -0.72996831
-4.2045431 -1.2907064 -0.49022782
-4.2478013 -1.3039856 -0.2481938
-14.86798 -4.564157 0
-12.618471 -3.8736053 0.73728174
-4.158567 -1.2793422 -0.96385556
-4.2070856 -1.2942685 -0.73382121
-4.2161212 -1.2970482 -0.491669
-4.2470126 -1.3065517 -0.2481938
-14.87019 -4.5746675 0
-12.563976 -3.8651836 0.73423398
-4.1788645 -1.2911159 -0.96892101
-4.1932483 -1.2955599 -0.73168015
-4.2170196 -1.3029044 -0.49195701
-4.2454309 -1.3116823 -0.2481938
-14.879575 -4.5972428 0
-12.482341 -3.8565857 0.72973508
-4.1748772 -1.2954121 -0.96835864
-4.1916795 -1.3006257 -0.73168015
-4.2179103 -1.3087647 -0.49224505
-4.2438426 -1.3168112 -0.2481938
-14.881459 -4.6175303 0
-12.403225 -3.8485653 0.72538114
-4.178165 -1.3019689 -0.96948552
-4.1999083 -1.3087443 -0.733392
-4.2163258 -1.3138602 -0.49224505
-4.2397699 -1.3211658 -0.2480488
-14.870904 -4.6339612 0
-12.274531 -3.8248985 0.71812445
-4.1814342 -1.3085327 -0.9706102
-4.1983237 -1.3138182 -0.733392
-4.2122688 -1.3181821 -0.49195701
-4.2406483 -1.3270631 -0.2481938
-14.872747 -4.6542587 0
-12.175671 -3.8102388 0.71260947
-4.1725755 -1.3112981 -0.96892101
-4.1918402 -1.3173523 -0.73253691
-4.2131381 -1.3240455 -0.49224505
-4.2489572 -1.3353022 -0.24877435
-14.872074 -4.6737852 0
-12.109087 -3.8054729 0.7089811
-4.1782598 -1.3186338 -0.9706102
-4.1951365 -1.3239601 -0.733392
-4.2140093 -1.3299161 -0.49253416
-4.2374287 -1.3373072 -0.2481938
-14.868895 -4.6925344 0
-12.062357 -3.8068078 0.70651388
-4.1581097 -1.3233324 -0.96666944
-4.1943779 -1.3348749 -0.73382121
-4.2748599 -1.3604884 -0.50002921
-4.2267542 -1.3451786 -0.24775824
-14.867432 -4.7316098 0
-11.921892 -3.7941823 0.6988216
-4.1540899 -1.327583 -0.96610713
-4.1952052 -1.3407227 -0.73424876
-4.7782459 -1.5270535 -0.55912554
-0 -0 -0
-14.864189 -4.7503653 0
-11.890079 -3.799886 0.69722551
-4.1548996 -1.3333771 -0.96666944
-4.1886888 -1.3442205 -0.733392
-4.8010297 -1.540731 -0.56200904
-4.3199763 -1.3863529 -0.25341827
-14.860914 -4.7691169 0
-11.833525 -3.7975767 0.69417769
-4.1605434 -1.3407353 -0.96835864
-4.1943936 -1.3516436 -0.73467636
-4.8016238 -1.5473235 -0.56229705
-4.2960415 -1.3843997 -0.25211215
-14.867524 -4.7910604 0
-11.784414 -3.797528 0.69156545
-4.1565051 -1.34498 -0.96779633
-4.2000871 -1.3590825 -0.73596066
-4.7972922 -1.5523287 -0.56200904
-4.2770672 -1.383992 -0.25109658
-14.869155 -4.8114257 0
-11.737791 -3.7981656 0.68909824
-4.1524625 -1.3492169 -0.96723396
-4.200881 -1.3649489 -0.73638821
-4.7855735 -1.5549271 -0.56085587
-4.2926836 -1.3947774 -0.25211215
-14.868276 -4.8309956 0
-11.688705 -3.7978907 0.68648547
-4.1604915 -1.3573858 -0.96948552
-4.1894665 -1.3668389 -0.73467636
-4.7664762 -1.5550919 -0.55883753
-0 -0 -0
-14.862428 -4.8489575 0
-11.632235 -3.7950873 0.68343765
-4.1467686 -1.3584545 -0.96666944
-4.1829376 -1.3703034 -0.73382121
-4.3443098 -1.4231678 -0.50954258
-0 -0 -0
-14.871401 -4.8717752 0
-11.58073 -3.7937725 0.68068045
-4.145947 -1.3609595 -0.96666944
-4.1845455 -1.37363 -0.73424876
-4.225491 -1.3870709 -0.49570453
-4.2514253 -1.3955841 -0.24993548
-14.873396 -4.8823805 0
-11.534001 -3.7861822 0.67806822
-4.1491303 -1.3675604 -0.96779633
-4.1853185 -1.3794881 -0.73467636
-4.2164493 -1.3897489 -0.4948405
-4.2620726 -1.4047863 -0.25066105
-14.855129 -4.896276 0
-11.484992 -3.7854731 0.67545539
-4.1281772 -1.3661864 -0.96329325
-4.1812139 -1.3837385 -0.73424876
-4.2172203 -1.3956544 -0.49512851
-4.2603722 -1.4099352 -0.25066105
-14.868968 -4.920763 0
-11.440949 -3.7862885 0.67313373
-4.1458135 -1.3775833 -0.96779633
-4.1990275 -1.3952655 -0.73767251
-4.2204351 -1.4023788 -0.49570453
-4.2586656 -1.4150821 -0.25066105
-14.858068 -4.9370828 0
-11.391975 -3.7853596 0.67052096
-4.1393209 -1.3809818 -0.96666944
-4.1827235 -1.395462 -0.73510391
-4.2236495 -1.409116 -0.49628168
-4.2618775 -1.4218699 -0.25095102
-14.861966 -4.9583268 0
-11.335633 -3.7818534 0.66747314
-4.1448793 -1.3884044 -0.96835864
-4.1980753 -1.4062234 -0.73810005
-4.2121334 -1.4109323 -0.49512851
-4.2576947 -1.426194 -0.25080603
-14.853498 -4.9754553 0
-11.296565 -3.7839944 0.66544151
-4.1456046 -1.3942207 -0.96892101
-4.1866407 -1.4080217 -0.73638821
-4.2153239 -1.4176682 -0.49570453
-4.2535081 -1.43051 -0.25066105
-14.864745 -4.999207 0
-11.255039 -3.7852161 0.66326427
-4.1487365 -1.4008563 -0.97004783
-4.187366 -1.4138999 -0.73681575
-4.2087116 -1.4211073 -0.49512851
-4.2468476 -1.4339844 -0.25037047
-14.861157 -5.0179963 0
-11.208608 -3.7846818 0.660797
-4.154253 -1.408313 -0.97173488
-4.1856546 -1.4189584 -0.73681575
-4.2020874 -1.4245292 -0.49455136
-4.2524972 -1.4416183 -0.25080603
-14.867404 -5.0401263 0
-11.162193 -3.7840409 0.65832978
-4.145339 -1.4108779 -0.97004783
-4.1839371 -1.4240149 -0.73681575
-4.2199516 -1.4362725 -0.4968577
-4.2433701 -1.4442431 -0.25037047
-14.87362 -5.0622792 0
-11.108425 -3.7807844 0.65542758
-4.1412292 -1.4150649 -0.96948552
-4.1870766 -1.4307311 -0.73767251
-4.2793989 -1.4622779 -0.50406474
-4.1703267 -1.4250077 -0.24616213
-14.850261 -5.0743589 0
-11.059585 -3.7790787 0.65281475
-4.1515307 -1.4241894 -0.9722994
-4.1877704 -1.4366214 -0.73810005
-4.747334 -1.6285807 -0.55941355
-5.3458462 -1.8339013 -0.31568018
-14.824425 -5.0855432 0
-11.003398 -3.7747335 0.64976698
-4.149807 -1.4292047 -0.9722994
-4.1884561 -1.4425156 -0.73852766
-4.7722659 -1.6435812 -0.56258506
-5.3780174 -1.8522037 -0.31771183
-14.7912 -5.0941291 0
-10.961983 -3.7753367 0.64759028
-4.1528754 -1.435877 -0.97342408
-4.1867104 -1.4475756 -0.73852766
-4.7824965 -1.6535715 -0.56402624
-5.365952 -1.8553042 -0.31713128
-14.718631 -5.0890384 0
-10.91075 -3.7724454 0.64483249
-4.1535354 -1.4417262 -0.97398639
-4.184958 -1.4526333 -0.73852766
-4.7731714 -1.6568071 -0.56316221
-4.2664766 -1.4809291 -0.25225714
-14.651008 -5.085485 0
-6.0631733 -2.1045771 0.35848752
-4.1589909 -1.4492531 -0.97567558
-4.1904745 -1.4602239 -0.73981196
-4.7516265 -1.6557645 -0.56085587
-4.2965899 -1.4972012 -0.25414437
-14.588326 -5.083487 0
-6.0827069 -2.1195962 0.35979363
-4.160511 -1.4526021 -0.97623795
-4.1895914 -1.4627553 -0.73981196
-4.6187658 -1.6125975 -0.54528862
-0 -0 -0
-14.501718 -5.0631342 0
-10.791373 -3.7677033 0.63844693
-4.151566 -1.4551094 -0.9745509
-4.1926613 -1.4695131 -0.74066705
-4.2433782 -1.4872892 -0.50118238
-4.2497253 -1.4895138 -0.2515316
-14.431737 -5.0582733 0
-10.781913 -3.7790227 0.63815695
-4.1498051 -1.4601246 -0.9745509
-4.1787772 -1.4703187 -0.73852766
-4.2196217 -1.48469 -0.49858803
-4.2528296 -1.4963742 -0.25182214
-14.398617 -5.0662084 0
-10.747925 -3.7816982 0.63641524
-4.1528249 -1.4668287 -0.97567558
-4.1794157 -1.476221 -0.7389552
-4.210506 -1.4872023 -0.49772286
-4.2485609 -1.500644 -0.25167659
-14.353223 -5.0697346 0
-6.0295916 -2.1297257 0.3571814
-4.14147 -1.4684489 -0.97342408
-4.1824727 -1.4829874 -0.73981196
-4.2062702 -1.4914253 -0.49743485
-4.258997 -1.5101207 -0.25240269
-14.275955 -5.0618529 0
-5.9829259 -2.1213775 0.35456863
-4.1396928 -1.473452 -0.97342408
-4.1976094 -1.4940665 -0.7428081
-4.2093339 -1.4982396 -0.49801087
-4.2571692 -1.5152658 -0.25240269
-14.233048 -5.0660076 0
-5.955883 -2.1198936 0.3531175
-4.1450896 -1.4810185 -0.97511327
-4.1909614 -1.4974083 -0.74195135
-4.2148299 -1.5059363 -0.49887604
-4.2602243 -1.5221555 -0.2526927
-14.187715 -5.0691948 0
-0 -0 0
-4.1504745 -1.4886003 -0.97680247
-4.1867352 -1.5016053 -0.7415238
-4.2203135 -1.5136484 -0.4997412
-4.2657223 -1.5299346 -0.25312826
-14.120338 -5.0643697 0
-5.8651438 -2.1035795 0.34803805
-4.1510615 -1.4944741 -0.97736478
-4.1897435 -1.5084004 -0.74237895
-4.2209125 -1.5196221 -0.50002921
-4.258976 -1.5333257 -0.25283772
-14.067682 -5.0646772 0
-5.8577032 -2.1089029 0.34774747
-4.1564236 -1.5020803 -0.97905397
-4.1927509 -1.5152085 -0.74323571
-4.2166433 -1.5238428 -0.4997412
-4.247345 -1.5349382 -0.25225714
-14.022391 -5.0675192 0
-5.8551507 -2.1159792 0.34774747
-4.1498241 -1.5053668 -0.97792715
-4.190917 -1.5202736 -0.74323571
-4.2147989 -1.5289367 -0.4997412
-4.2381663 -1.5374134 -0.25182214
-13.96244 -5.0649362 0
-5.8501492 -2.1221673 0.34760249
-4.1527815 -1.5121204 -0.97905397
-4.1818385 -1.5227005 -0.74195135
-4.203227 -1.5304885 -0.49858803
-5.4961181 -2.0012591 -0.32671022
-13.900071 -5.0613256 0
-5.854908 -2.1319025 0.34803805
-4.1509514 -1.5171371 -0.97905397
-4.170351 -1.5242274 -0.7402395
-4.2086554 -1.5382273 -0.49945208
-5.5010109 -2.010572 -0.32714522
-13.847501 -5.0611424 0
-5.8450036 -2.1362987 0.34760249
-4.1467233 -1.521274 -0.97848952
-4.1805539 -1.5336852 -0.74237895
-4.201942 -1.5415316 -0.49887604
-5.5107818 -2.0216949 -0.32787132
-13.804733 -5.0644279 0
-5.8497391 -2.1460452 0.34803805
-4.1401176 -1.524529 -0.97736478
-4.1883335 -1.5422837 -0.7440908
-4.2073598 -1.5492898 -0.4997412
-5.5107708 -2.029249 -0.32801634
-13.737552 -5.0586233 0
-5.8495779 -2.1540091 0.34818304
-4.150187 -1.533934 -0.98017871
-4.1816559 -1.5455651 -0.74323571
-4.2054849 -1.5543724 -0.4997412
-5.5253782 -2.042213 -0.32903245
-13.687493 -5.05898 0
-5.8640342 -2.1673822 0.34919918
-4.1435704 -1.5371817 -0.97905397
-4.1942215 -1.5559722 -0.74580264
-4.2060261 -1.5603516 -0.50002921
-4.2634454 -1.5816529 -0.25399882
-13.644769 -5.0619364 0
-5.8614111 -2.1744661 0.34919918
-4.1497793 -1.5423379 -0.98074102
-4.1836557 -1.5549287 -0.7440908
-4.2099271 -1.5646929 -0.50060523
-4.2697983 -1.5869449 -0.25443438
-13.578287 -5.046607 0
-5.8479109 -2.1734781 0.34847304
-4.1479125 -1.547351 -0.98074102
-4.1865888 -1.5617788 -0.74494755
-4.2007704 -1.5670692 -0.4997412
-4.2557073 -1.5875629 -0.25370881
-13.535601 -5.049365 0
-5.8501544 -2.1823606 0.34876361
-4.1531811 -1.5550355 -0.98243022
-4.1871004 -1.5677356 -0.7453751
-4.1988735 -1.5721438 -0.4997412
-4.2586479 -1.5945245 -0.25399882
-13.488059 -5.0502038 0
-5.8572469 -2.1930726 0.34934416
-4.1560516 -1.5618386 -0.9835549
-4.1900043 -1.5745981 -0.74623024
-4.1969709 -1.5772161 -0.4997412
-4.2494283 -1.5969294 -0.25356382
-13.438101 -5.0500207 0
-5.8716216 -2.2065477 0.35036027
-4.154161 -1.5668592 -0.9835549
-4.1784911 -1.576036 -0.74451834
-4.1926351 -1.5813708 -0.49945208
-4.2572203 -1.605731 -0.25414437
-13.373548 -5.0442114 0
-5.8689513 -2.2136407 0.35036027
-4.1451426 -1.5691814 -0.98186791
-4.1813898 -1.5829031 -0.7453751
-4.1955638 -1.5882689 -0.50002921
-4.2552772 -1.6108738 -0.25414437
-13.340677 -5.0502343 0
-5.8759832 -2.224407 0.35094029
-4.1479897 -1.5759921 -0.98299259
-4.1794744 -1.5879544 -0.7453751
-4.2033134 -1.5970118 -0.50118238
-4.2533274 -1.6160144 -0.25414437
-13.283478 -5.0469403 0
-10.748116 -4.083652 0.64222026
-4.1437106 -1.5800985 -0.98243022
-4.1823449 -1.5948309 -0.74623024
-4.2013803 -1.6020895 -0.50118238
-4.2610741 -1.6248522 -0.25472438
-13.226307 -5.0435152 0
-10.740748 -4.0957108 0.6420753
-4.1489196 -1.5878297 -0.98411942
-4.1852145 -1.6017201 -0.747087
-4.1970191 -1.6062376 -0.50089324
-4.2566833 -1.6290718 -0.25457937
-13.178885 -5.0436807 0
-10.735791 -4.108686 0.6420753
-4.1469979 -1.5928416 -0.98411942
-4.1880641 -1.608615 -0.74794209
-4.1999087 -1.6131644 -0.50147039
-4.2547116 -1.634214 -0.25457937
-13.126619 -5.0418701 0
-10.730819 -4.121655 0.6420753
-4.1498075 -1.5996774 -0.9852441
-4.1813316 -1.6118294 -0.747087
-4.2076101 -1.6219592 -0.50262356
-4.2478895 -1.6374863 -0.25428939
-13.079239 -5.0418153 0
-10.752503 -4.1448998 0.64367193
-4.145504 -1.6037745 -0.98468179
-4.1937413 -1.6224362 -0.74965394
-4.1984081 -1.6242416 -0.5017584
-4.2410564 -1.640741 -0.25399882
-13.029452 -5.0407147 0
-10.747487 -4.1578894 0.64367193
-4.1459293 -1.6097012 -0.9852441
-4.1846056 -1.6247176 -0.7483713
-4.1940336 -1.628378 -0.50147039
-4.2366509 -1.6449248 -0.25385383
-13.003943 -5.0489192 0
-10.754564 -4.1755738 0.6443975
-4.1463466 -1.6156312 -0.98580647
-4.1898084 -1.632566 -0.74965394
-4.1944704 -1.6343827 -0.5017584
-4.2443447 -1.6538162 -0.25443438
-6.0047369 -2.339756 0
-10.749512 -4.1885657 0.6443975
-4.1430054 -1.6172129 -0.9852441
-4.1768665 -1.6304306 -0.74751455
-4.1958895 -1.6378561 -0.50204641
-4.2409267 -1.6554363 -0.25428939
-0 -0 0
-10.749397 -4.1960034 0.64454252
-4.1386847 -1.6212918 -0.98468179
-4.1772814 -1.6364118 -0.74794209
-4.1939073 -1.6429248 -0.50204641
-4.2389231 -1.6605594 -0.25428939
-0 -0 0
-10.744319 -4.2089887 0.64454252
-4.1390848 -1.6272202 -0.9852441
-4.18964 -1.6470952 -0.75051069
-4.2015476 -1.6517764 -0.50319958
-4.2393298 -1.6666299 -0.25443438
-0 -0 0
-10.748899 -4.225771 0.64512306
-4.1418476 -1.6340871 -0.98637098
-4.1828666 -1.6502703 -0.74965394
-4.1995487 -1.656852 -0.50319958
-4.2421422 -1.6736565 -0.25472438
-5.9730024 -2.3565342 0
-10.751039 -4.2416177 0.64555866
-4.1445904 -1.6409594 -0.98749566
-4.1880322 -1.6581593 -0.7509383
-4.2047606 -1.6647825 -0.50406474
-4.2473674 -1.6816516 -0.25515994
-12.689431 -5.0241013 0
-10.741069 -4.2526898 0.64526808
-4.1426048 -1.6459662 -0.98749566
-4.1812587 -1.6613245 -0.75008315
-4.2027459 -1.6698619 -0.50406474
-4.2453322 -1.6867825 -0.25515994
-12.673677 -5.0355864 0
-10.74317 -4.2685447 0.64570361
-4.1500535 -1.6547347 -0.98974717
-4.1816306 -1.6673254 -0.75051069
-4.2055349 -1.6768566 -0.50464189
-4.2432909 -1.691911 -0.25515994
-12.636159 -5.0383668 0
-10.740416 -4.2824841 0.64584863
-4.1456943 -1.6588051 -0.98918486
-4.1867561 -1.675235 -0.75179338
-4.2035055 -1.681937 -0.50464189
-4.2340035 -1.6941401 -0.25472438
-12.591402 -5.0381627 0
-10.744883 -4.2993197 0.64642918
-4.1463823 -1.6707162 -0.99030954
-4.1731806 -1.6815139 -0.75008315
-4.2018256 -1.693056 -0.5049299
-4.2395377 -1.7082516 -0.25530493
-12.49471 -5.0345364 0
-10.74651 -4.3301282 0.64715475
-4.1396542 -1.6738219 -0.98918486
-4.1687589 -1.6855901 -0.74965394
-4.2069726 -1.7010415 -0.50579506
-4.2495227 -1.718246 -0.25603107
-12.442774 -5.0310936 0
-10.74127 -4.3431101 0.64715475
-4.1399808 -1.679777 -0.98974717
-4.1786103 -1.6954509 -0.75179338
-4.2049141 -1.7061236 -0.50579506
-4.237812 -1.7194717 -0.25545049
-12.395691 -5.0294914 0
-10.745646 -4.3599935 0.6477353
-4.1332459 -1.6828637 -0.98862249
-4.1789432 -1.7014695 -0.7522226
-4.2100296 -1.7141263 -0.50665909
-4.2477622 -1.7294893 -0.25617605
-12.353456 -5.0297475 0
-10.742774 -4.3739533 0.64788032
-4.1335592 -1.6888168 -0.98918486
-4.1792583 -1.7074877 -0.75265014
-4.2079554 -1.7192121 -0.50665909
-4.2384505 -1.7316715 -0.25574049
-12.308823 -5.0289216 0
-10.735078 -4.3859487 0.6477353
-4.1503239 -1.7015209 -0.99368793
-4.1771922 -1.7125362 -0.75265014
-4.2082658 -1.7252755 -0.5069471
-4.255589 -1.7446768 -0.25690162
-12.261804 -5.0270095 0
-10.729771 -4.3989167 0.6477353
-4.1482649 -1.7065345 -0.99368793
-4.1774917 -1.718558 -0.75307769
-4.2085767 -1.731346 -0.50723624
-4.2486763 -1.7478424 -0.25661162
-12.224435 -5.0289512 0
-10.731659 -4.414845 0.64817089
-4.1414981 -1.7096047 -0.99256104
-4.1801624 -1.7255653 -0.75393444
-4.2016954 -1.7344543 -0.50665909
-4.2441525 -1.7519804 -0.25646606
-12.182263 -5.0288219 0
-10.716709 -4.4238429 0.64759028
-4.145165 -1.7140503 -0.99368793
-4.1862288 -1.7310305 -0.75521713
-4.1982589 -1.7360049 -0.50637108
-4.2406945 -1.7535523 -0.25632104
-12.14796 -5.0232534 0
-10.714034 -4.4303169 0.64759028
-4.1430907 -1.7190577 -0.99368793
-4.184134 -1.7360874 -0.75521713
-4.1913848 -1.7390959 -0.50579506
-4.2457747 -1.7616636 -0.2567566
-12.103421 -5.0219703 0
-5.7216163 -2.374022 0.34600583
-4.1433539 -1.7250382 -0.99425024
-4.179666 -1.7401562 -0.75478959
-4.1988225 -1.7481319 -0.5069471
-4.2340479 -1.7627975 -0.25617605
-12.058912 -5.0205903 0
-5.7091484 -2.3769388 0.34542525
-4.1365733 -1.7280825 -0.99312341
-4.1775603 -1.7452052 -0.75478959
-4.1967072 -1.753204 -0.5069471
-4.2415051 -1.7719188 -0.2567566
-12.009607 -5.0170979 0
-5.7062721 -2.3838353 0.34542525
-4.1438556 -1.7370087 -0.99537498
-4.1707177 -1.7482688 -0.75393444
-4.1945858 -1.7582736 -0.5069471
-4.2417555 -1.778046 -0.25690162
-11.977141 -5.0205417 0
-5.705791 -2.391736 0.3455708
-4.1277051 -1.7361057 -0.99199873
-4.1733303 -1.7552956 -0.75478959
-4.1876945 -1.761337 -0.50637108
-4.2491846 -1.7871997 -0.25748217
-11.937476 -5.0208821 0
-5.7124777 -2.4026582 0.34615138
-4.1419935 -1.7480085 -0.99593943
-4.175941 -1.7623352 -0.75564635
-4.1927142 -1.7694137 -0.50723624
-4.256598 -1.7963741 -0.25806272
-11.893046 -5.0191164 0
-5.7119617 -2.4105682 0.34629637
-4.1445532 -1.7549917 -0.99706417
-4.1832643 -1.7713835 -0.75735819
-4.1953321 -1.7764937 -0.50781226
-4.2616048 -1.8045566 -0.25849828
-11.853417 -5.0192738 0
-5.673151 -2.4022691 0.34411913
-4.1424298 -1.7599982 -0.99706417
-4.1763911 -1.7744273 -0.75650144
-4.197948 -1.7835864 -0.50838941
-4.2546339 -1.8076705 -0.25820774
-11.809029 -5.017314 0
-5.6798105 -2.4131868 0.34469971
-4.1473145 -1.7679925 -0.99875337
-4.1766028 -1.7804781 -0.75692898
-4.1981668 -1.7896708 -0.50867742
-4.2500582 -1.811792 -0.25806272
-5.6697421 -2.4170005 0
-5.6745024 -2.41903 0.34455469
-4.1381645 -1.7700037 -0.99706417
-4.1791735 -1.7875445 -0.75778574
-4.1983771 -1.7957584 -0.50896543
-4.2502527 -1.8179469 -0.25820774
-5.6620274 -2.4218006 0
-5.6739621 -2.4269056 0.34469971
-4.1430297 -1.7780098 -0.99875337
-4.1817241 -1.7946156 -0.75864089
-4.186697 -1.7967498 -0.50781226
-4.255219 -1.8261565 -0.25864327
-5.6686635 -2.4327459 0
-5.6662545 -2.4317122 0.3444097
-4.1338749 -1.7799989 -0.99706417
-4.1748414 -1.7976387 -0.75778574
-4.1868963 -1.8028293 -0.50810027
-4.2506251 -1.8302701 -0.25849828
-5.6633315 -2.4385653 0
-5.6680808 -2.4406102 0.34469971
-4.1293907 -1.7839857 -0.9965018
-4.1679487 -1.8006437 -0.75692898
-4.1942124 -1.81199 -0.50925344
-4.2460179 -1.8343713 -0.25835273
-11.587384 -5.0059996 0
-5.6651278 -2.4474571 0.34469971
-4.1295614 -1.7899836 -0.99706417
-4.1681323 -1.8067024 -0.75735819
-4.1920199 -1.8170567 -0.50925344
-4.2437987 -1.8395004 -0.25835273
-11.55983 -5.0106788 0
-5.6645575 -2.455337 0.34484527
-4.1227398 -1.7929473 -0.99593943
-4.1824179 -1.8189009 -0.76035273
-4.196939 -1.8252161 -0.5101186
-11.494638 -4.9989285 -0.7001344
-11.522743 -5.0111513 0
-5.6591964 -2.4611404 0.34469971
-4.1333008 -1.8005105 -0.99875337
-4.1742644 -1.8183547 -0.75907004
-4.200583 -1.8298192 -0.51069576
-11.489236 -5.0048351 -0.69998944
-11.483932 -5.0025249 0
-5.6577086 -2.4645591 0.34469971
-4.1241355 -1.8024498 -0.99706417
-4.1838236 -1.8285364 -0.76120949
-4.2078395 -1.8390328 -0.51184779
-4.3072686 -1.8824881 -0.26256162
-11.444497 -5.0018077 0
-5.6642504 -2.4755559 0.34528026
-4.1289377 -1.8104938 -0.99875337
-4.1839595 -1.8346204 -0.76163703
-4.1985149 -1.8410027 -0.51098377
-4.2930946 -1.8824748 -0.26183608
-11.414606 -5.0051794 0
-5.6588778 -2.4813557 0.34513524
-4.1793923 -1.8386418 -0.76120949
-4.2081227 -1.8512812 -0.51242495
-4.3050833 -1.893937 -0.26270664
-11.375205 -5.0042982 0
-5.6558752 -2.4881916 0.34513524
-4.1291952 -1.8225166 -0.99987805
-4.18186 -1.8457615 -0.76206458
-4.2058825 -1.8563645 -0.51242495
-4.2885327 -1.8928441 -0.26183608
-11.359626 -5.0138359 0
-5.6599984 -2.4981725 0.3455708
-4.1772819 -1.8497747 -0.76163703
-4.2036366 -1.8614451 -0.51242495
-0 -0 -0
-5.6475062 -2.5008163 0
-5.6403422 -2.4976439 0.34455469
-4.1680036 -1.8516932 -0.76035273
-4.2061071 -1.8686212 -0.51300097
-4.248333 -1.8873807 -0.25965941
-5.6706357 -2.5192583 0
-5.6420741 -2.5065694 0.34484527
-4.1751418 -1.8609083 -0.76206458
-4.1967659 -1.8705462 -0.51213694
-4.2484207 -1.8935695 -0.2598044
-5.6580791 -2.5218701 0
-5.6366611 -2.5123239 0.34469971
-4.1752315 -1.8669987 -0.76249218
-4.2039471 -1.8798392 -0.51329011
-4.2508693 -1.9008209 -0.2600944
-5.6526542 -2.5276437 0
-5.6146445 -2.5106473 0.34353858
-4.1706324 -1.8709925 -0.76206458
-4.2016726 -1.8849175 -0.51329011
-4.2556839 -1.9091475 -0.26052997
-5.6424704 -2.5312753 0
-5.5973864 -2.5110502 0.34266803
-4.1753936 -1.8791922 -0.76334894
-4.2017484 -1.8910534 -0.51357812
-4.2533741 -1.9142883 -0.26052997
-5.6465297 -2.5412967 0
-5.5825028 -2.5124805 0.34194246
-4.1801414 -1.8874061 -0.76463324
-4.2041707 -1.8982558 -0.51415414
-4.2534237 -1.9204946 -0.26067495
-5.6434546 -2.5481174 0
-5.5676241 -2.5138786 0.34121692
-4.1755128 -1.8913934 -0.76420403
-4.2018738 -1.9033344 -0.51415414
-4.2534647 -1.9267037 -0.26081997
-5.6356349 -2.552789 0
-5.5645823 -2.5206041 0.34121692
-4.184916 -1.9017506 -0.76634508
-4.2019324 -1.9094832 -0.51444328
-4.2440438 -1.9286197 -0.26038495
-5.6420236 -2.5639036 0
-5.5426073 -2.5187259 0.34005579
-4.1802726 -1.9057379 -0.76591587
-4.2043247 -1.9167029 -0.5150193
-4.2369771 -1.9315886 -0.2600944
-5.6602316 -2.5804338 0
-5.5301027 -2.5211096 0.33947524
-4.1709704 -1.9075875 -0.76463324
-4.2208228 -1.9303876 -0.51732564
-5.5885959 -2.5559368 -0.34325528
-5.6949768 -2.6045899 0
-5.5341349 -2.531029 0.33991024
-4.1733241 -1.9147649 -0.76548833
-4.2796049 -1.9635277 -0.52482069
-5.5902224 -2.5648527 -0.34354529
-5.6918259 -2.6114693 0
-5.5287127 -2.5366316 0.33976522
-4.1651669 -1.9140692 -0.76420403
-4.5721822 -2.1011097 -0.56085587
-5.5815954 -2.5649776 -0.34311026
-5.685513 -2.6127322 0
-5.5130177 -2.5334632 0.33889467
-4.1768432 -1.9255509 -0.76677263
-4.6706357 -2.1531925 -0.57325161
-4.2854047 -1.9755986 -0.26357776
-5.6539903 -2.6065252 0
-5.5075946 -2.539036 0.33874968
-4.1721854 -1.92952 -0.76634508
-4.6821117 -2.1653466 -0.5749808
-4.2995257 -1.9884113 -0.26459387
-5.6390285 -2.6078942 0
-10.730572 -4.9625916 0.66036201
-4.1745038 -1.9367185 -0.76720023
-4.6583776 -2.1612067 -0.57238644
-4.2900462 -1.9903232 -0.26415831
-5.6358733 -2.6147058 0
-10.717494 -4.9722719 0.65992647
-4.1744857 -1.9428432 -0.76762778
-4.3462467 -2.0227823 -0.53433406
-0 -0 -0
-5.6279955 -2.6193197 0
-10.687925 -4.9742565 0.65847534
-4.1767917 -1.9500599 -0.76848453
-4.238338 -1.9787946 -0.52136117
-4.2499046 -1.9841949 -0.26198107
-5.6342497 -2.6305177 0
-10.665423 -4.9794712 0.65745926
-4.1744323 -1.9551053 -0.76848453
-4.2101851 -1.9718503 -0.5181908
-4.2428021 -1.9871265 -0.26169106
-5.6287127 -2.6362209 0
-10.640574 -4.9835377 0.6562981
-4.1790304 -1.9634196 -0.76976717
-4.1984358 -1.9725366 -0.51703763
-4.2450972 -1.9944594 -0.26198107
-5.6184635 -2.6397035 0
-10.618079 -4.9886556 0.65528202
-4.1650467 -1.9629967 -0.76762778
-4.1960492 -1.9776081 -0.51703763
-4.2426839 -1.9995873 -0.26198107
-5.6270385 -2.6520369 0
-10.579142 -4.9859748 0.65325034
-4.1673179 -1.9702244 -0.76848453
-4.2030096 -1.9870988 -0.5181908
-4.2473145 -2.0080452 -0.26241663
-5.6144185 -2.6543846 0
-10.547276 -4.9865403 0.65165418
-4.1788464 -1.9818563 -0.77105153
-4.2029405 -1.9932832 -0.51847881
-4.2401938 -2.010951 -0.26212662
-5.6064997 -2.6589341 0
-10.489586 -4.9747829 0.64846087
-4.1718168 -1.9847007 -0.77019638
-4.2005286 -1.9983602 -0.51847881
-4.247138 -2.0205338 -0.26270664
-5.600935 -2.6645894 0
-10.481223 -4.9863386 0.64831585
-4.169416 -1.9897401 -0.77019638
-4.2027755 -2.0056601 -0.51905483
-4.2540736 -2.0301409 -0.26328719
-5.6024132 -2.673599 0
-10.435327 -4.9799752 0.64584863
-4.1739483 -1.9980986 -0.77147907
-4.2073498 -2.0140882 -0.51991999
-4.2375598 -2.0285499 -0.26241663
-5.5991788 -2.6803665 0
-10.396493 -4.9768753 0.64381695
-4.1669073 -2.0009203 -0.77062392
-4.2095809 -2.0214119 -0.52049714
-9.4443016 -4.535089 -0.58519012
-5.5865517 -2.6826239 0
-10.367043 -4.9781837 0.64236528
-4.1667967 -2.0070667 -0.77105153
-4.246747 -2.0455773 -0.52539784
-9.4317894 -4.5431132 -0.58475453
-5.5786123 -2.6871114 0
-10.321226 -4.9715381 0.63989806
-4.1771417 -2.0151596 -0.77319092
-4.5180497 -2.1796222 -0.55912554
-9.4360666 -4.5521989 -0.58519012
-8.9568481 -4.3210115 0
-10.313544 -4.9755168 0.63960803
-4.167778 -2.016854 -0.77190828
-4.6434569 -2.2470427 -0.5749808
-4.2827325 -2.0724823 -0.26575443
-8.9469395 -4.329566 0
-10.272438 -4.9709959 0.63743085
-4.1699524 -2.0241284 -0.77276337
-4.6756434 -2.2695949 -0.57930547
-4.2802253 -2.0776556 -0.26575443
-8.9299974 -4.3346925 0
-10.236037 -4.9686546 0.63554412
-4.1721244 -2.0314152 -0.77362013
-4.6449919 -2.2616553 -0.57584596
-4.2753778 -2.0816896 -0.26560941
-8.9177313 -4.3420601 0
-10.197324 -4.965096 0.6335125
-4.1627445 -2.0330741 -0.77233583
-4.4238033 -2.1605747 -0.54874814
-4.2681942 -2.0845754 -0.26531941
-8.9077969 -4.3505459 0
-10.163299 -4.9637299 0.63177079
-4.1718092 -2.0437481 -0.77447522
-4.2423501 -2.078306 -0.52655101
-0 -0 -0
-8.9142256 -4.367034 0
-10.136294 -4.9657192 0.63046467
-4.1714587 -2.0560915 -0.77533036
-4.2001958 -2.0702558 -0.52193832
-4.2419639 -2.0908432 -0.26415831
-8.9783363 -4.4253778 0
-10.065999 -4.9614816 0.62683636
-4.1666722 -2.0599937 -0.77490282
-4.2046404 -2.0787652 -0.52280235
-4.2347713 -2.0936618 -0.26386774
-8.9963074 -4.4477553 0
-10.041362 -4.9644275 0.6256752
-4.1710815 -2.0684495 -0.77618712
-4.1998105 -2.082696 -0.52251434
-4.2299128 -2.0976238 -0.26372275
-8.9909267 -4.458622 0
-10.014407 -4.9661684 0.62436908
-4.173172 -2.075772 -0.77704221
-4.1903501 -2.0843167 -0.52165031
-4.2320328 -2.1050501 -0.26401329
-9.0041742 -4.478755 0
-9.987462 -4.9678512 0.62306297
-4.1660709 -2.0785232 -0.77618712
-4.1970773 -2.0939929 -0.52280235
-4.2341318 -2.1124799 -0.2643033
-8.9987555 -4.4896317 0
-9.9512281 -4.9648361 0.6211763
-4.172739 -2.0881507 -0.77789897
-4.1968637 -2.1002235 -0.5230915
-4.236228 -2.1199226 -0.26459387
-8.9886742 -4.4981742 0
-9.9289532 -4.9687152 0.62016022
-4.1725049 -2.0943418 -0.77832651
-4.201251 -2.1087706 -0.52395552
-4.2429438 -2.1296978 -0.26517385
-9.0018396 -4.5183721 0
-9.8904343 -4.9643917 0.61812854
-4.1745615 -2.1016929 -0.77918327
-4.2056332 -2.1173358 -0.52482069
-4.2403674 -2.1348231 -0.26517385
-8.9847536 -4.5233955 0
-9.8426571 -4.9553089 0.6155163
-4.180161 -2.1076784 -0.78046596
-4.2089763 -2.1222074 -0.52539784
-4.2669196 -2.151423 -0.26691553
-8.9936361 -4.5346799 0
-9.8350163 -4.9589124 0.61522573
-4.1753225 -2.1115704 -0.78003842
-4.2664156 -2.1576385 -0.53289288
-4.2712755 -2.1600962 -0.26735109
-8.9974394 -4.5502419 0
-9.7942419 -4.9532056 0.61304909
-4.1704807 -2.1154537 -0.77961087
-4.595952 -2.3312716 -0.57440478
-4.268662 -2.1652555 -0.26735109
-8.9872885 -4.558753 0
-9.7743416 -4.9579816 0.61217797
-4.1724935 -2.1228173 -0.78046596
-4.6461468 -2.3637953 -0.58103466
-4.2590928 -2.1668758 -0.26691553
-8.9910517 -4.5743299 0
-9.7359247 -4.9532948 0.61014628
-4.1722183 -2.1290276 -0.78089517
-4.6525025 -2.37411 -0.58218783
-4.2495346 -2.1684809 -0.26648054
-8.990159 -4.5875583 0
-9.7067919 -4.9532466 0.60869515
-4.1764917 -2.1375725 -0.78217781
-4.6427212 -2.3761935 -0.58132267
-4.237659 -2.1688786 -0.26589999
-8.9846096 -4.5984178 0
-9.6869164 -4.9578662 0.60782403
-4.1647711 -2.1379282 -0.78046596
-4.6168408 -2.369992 -0.57844031
-4.2535281 -2.1834905 -0.26706108
-8.9790459 -4.6092706 0
-9.6716719 -4.9648209 0.60724348
-4.1644735 -2.1441374 -0.78089517
-4.4415112 -2.2867742 -0.5568192
-4.2462621 -2.1862473 -0.26677054
-8.9873486 -4.6272621 0
-9.6287022 -4.9574723 0.60492128
-4.1664371 -2.1515212 -0.78175026
-4.2503095 -2.1948323 -0.53318089
-4.248239 -2.1937633 -0.26706108
-8.9817514 -4.6381183 0
-9.5926933 -4.9536047 0.60303456
-4.1661115 -2.1577334 -0.78217781
-4.2086124 -2.1797457 -0.5282802
-4.2501955 -2.2012827 -0.26735109
-8.9692049 -4.6453757 0
-9.5590124 -4.9508519 0.60129291
-0 -0 -0
-4.1748896 -2.1686814 -0.78431726
-4.1922083 -2.1776779 -0.52655101
-4.2475328 -2.2064166 -0.26735109
-8.9728241 -4.6610088 0
-9.5276651 -4.9492259 0.59969682
-4.1745491 -2.1749139 -0.78474647
-4.1918654 -2.1839356 -0.52683902
-4.2425613 -2.2103479 -0.2672061
-8.967185 -4.6718473 0
-9.4986382 -4.9487309 0.59824568
-4.1673636 -2.1775765 -0.78388971
-4.2029734 -2.1961839 -0.52856821
-4.2421885 -2.2166748 -0.26735109
-8.9684553 -4.686296 0
-9.4742279 -4.9505773 0.59708458
-0 -0 -0
-4.1715527 -2.1861863 -0.78517401
-4.2003169 -2.2012608 -0.52856821
-4.2464137 -2.2254186 -0.26778665
-8.9720068 -4.701961 0
-9.445219 -4.9499574 0.59563291
-4.1666379 -2.190032 -0.78474647
-4.190783 -2.202723 -0.52770305
-4.2460194 -2.2317557 -0.26793164
-8.9778357 -4.7188516 0
-9.4277334 -4.9553232 0.59490734
-4.1730719 -2.1998534 -0.78645831
-4.1881185 -2.2077851 -0.52770305
-4.2433195 -2.2368846 -0.26793164
-8.9744272 -4.7309089 0
-9.3895626 -4.949749 0.59287566
-0 -0 -0
-4.1671977 -2.1999748 -0.78560156
-4.1936483 -2.2139387 -0.52856821
-4.2465587 -2.2418718 -0.26822165
-8.980773 -4.74119 0
-9.3704824 -4.946928 0.59185952
-0 -0 -0
-4.1577282 -2.2014036 -0.78431726
-4.1886864 -2.2177951 -0.5282802
-4.2438469 -2.2470012 -0.26822165
-8.9773445 -4.7532592 0
-9.3415384 -4.9460902 0.59040844
-0 -0 -0
-4.1664076 -2.2124491 -0.78645831
-4.1882858 -2.2240667 -0.52856821
-4.2480159 -2.2557847 -0.26865721
-8.9624004 -4.7592206 0
-9.3080158 -4.94275 0.58866674
-4.1637316 -2.2174819 -0.78645831
-4.199297 -2.236423 -0.53029853
-4.2498784 -2.2633612 -0.26894778
-8.9658318 -4.77494 0
-9.2676325 -4.9356704 0.5864895
-0 -0 -0
-4.1587782 -2.2212982 -0.7860291
-4.1988711 -2.2427127 -0.53058654
-4.2448421 -2.267267 -0.2688022
-8.9600554 -4.7857699 0
-9.2479143 -4.9395223 0.58561897
-0 -0 -0
-4.1583605 -2.2275374 -0.78645831
-4.1938801 -2.2465646 -0.53029853
-4.2443962 -2.2736249 -0.26894778
-8.9611416 -4.8002763 0
-9.2236147 -4.940877 0.58445781
-0 -0 -0
-4.1669707 -2.2386336 -0.78859776
-4.193439 -2.2528534 -0.53058654
-4.2393503 -2.2775183 -0.2688022
-8.9690952 -4.8184929 0
-9.1947527 -4.9397235 0.58300674
-0 -0 -0
-4.1710448 -2.2473211 -0.78988206
-4.1952634 -2.26037 -0.53116256
-4.2388897 -2.2838752 -0.26894778
-8.967844 -4.8317928 0
-9.1704769 -4.9409695 0.58184558
-0 -0 -0
-4.163805 -2.2499163 -0.78902531
-4.1970844 -2.267899 -0.53173971
-4.2521224 -2.2976387 -0.26996332
-8.9665833 -4.8451023 0
-9.1484947 -4.9433985 0.5808295
-0 -0 -0
-4.1723661 -2.26106 -0.79116476
-4.2193489 -2.2865207 -0.53491008
-9.3413706 -5.0622115 -0.59346288
-8.9698744 -4.8608928 0
-9.1196737 -4.9420714 0.57937837
-0 -0 -0
-4.1606088 -2.2611966 -0.78945285
-4.291575 -2.3323739 -0.54442346
-9.3283958 -5.0697718 -0.59302735
-8.966279 -4.8729692 0
-9.0908613 -4.9406767 0.5779267
-0 -0 -0
-4.1578736 -2.2662222 -0.78945285
-4.5794311 -2.4959896 -0.58132267
-4.2893972 -2.3379083 -0.27286613
-8.9581013 -4.8825555 0
-9.0597935 -4.9379821 0.5763306
-0 -0 -0
-4.1596417 -2.2737095 -0.79030961
-4.6218033 -2.5263324 -0.58708853
-4.272893 -2.335614 -0.27199554
-8.9521952 -4.8933759 0
-9.0333023 -4.9377098 0.57502449
-0 -0 -0
-4.1591401 -2.2799666 -0.79073715
-4.5643225 -2.5020804 -0.58017063
