# .PCD v0.7 - Point Cloud Data file format
VERSION 0.7
FIELDS x y z
SIZE 4 4 4
TYPE F F F
COUNT 1 1 1
WIDTH 1532
HEIGHT 1
VIEWPOINT 0 0 0 1 0 0 0
POINTS 1532
DATA ascii
-1.7967318 3.0255785 -0.77953213
-2.1289012 3.5849299 -0.69509941
-2.6980484 4.5433364 -0.5889684
-3.7554195 6.3238802 -0.41081694
-5.6564541 9.5250978 0
-9.8316488 16.555853 1.0755144
-1.3472427 2.2624371 -0.86824417
-1.5426635 2.5906091 -0.83186805
-1.7964849 3.0168538 -0.77784294
-2.1411142 3.595593 -0.69766808
-2.6982427 4.5311837 -0.58781523
-3.7617297 6.3171077 -0.41067192
-5.6506505 9.4891901 0
-9.8609543 16.559591 1.0765306
-1.342375 2.2480793 -0.86335593
-1.5264986 2.5564313 -0.82148498
-1.8014303 3.0168605 -0.77840531
-2.1415079 3.5863891 -0.69638377
-2.7023911 4.525702 -0.58752722
-3.7560358 6.2902436 -0.40922025
-5.6968002 9.5404463 0
-6.6333032 11.108811 0.72269869
-1.3387383 2.2358468 -0.8592788
-1.5321665 2.5588939 -0.82287061
-1.8076874 3.0190458 -0.77953213
-2.1445222 3.5815985 -0.69595617
-2.7105124 4.5268669 -0.58810323
-3.7569606 6.2745557 -0.40849471
-5.7016401 9.5223942 0
-6.6574001 11.118623 0.72385979
-1.3223586 2.2024486 -0.84705663
-1.552044 2.585 -0.83186805
-1.8087157 3.0124984 -0.77840531
-2.1448829 3.5723999 -0.69467187
-2.7026689 4.5014181 -0.58522087
-3.7618668 6.2655602 -0.4082047
-5.7144804 9.5177269 0
-6.6681571 11.106119 0.72356975
-1.3492368 2.2410748 -0.86253864
-1.5629278 2.5960145 -0.83601969
-1.8058028 2.9994285 -0.77559143
-2.1399281 3.5544088 -0.69167572
-2.7107716 4.5025764 -0.58579689
-3.7613907 6.2476492 -0.40733358
-5.748795 9.5487165 0
-6.7043548 11.135896 0.72603703
-1.3545009 2.2436788 -0.86417013
-1.5414321 2.5533233 -0.82287061
-1.8081138 2.9950712 -0.77502906
-2.1482029 3.5584157 -0.69296002
-2.7162101 4.4992976 -0.58579689
-3.7662537 6.2386551 -0.40704358
-5.7845416 9.581871 0
-6.7701759 11.214537 0.73169702
-1.3456929 2.2230132 -0.85683626
-1.5510108 2.5621877 -0.82633078
-1.813046 2.9950559 -0.77559143
-2.1525009 3.5558174 -0.69296002
-2.7162869 4.4871621 -0.58464372
-3.7670624 6.2229872 -0.40631804
-5.7920709 9.5681934 0
-6.8294702 11.281922 0.73663151
-1.3547891 2.2319477 -0.8609103
-1.547598 2.5495908 -0.82287061
-1.8153465 2.9906929 -0.77502906
-2.1554651 3.5510216 -0.69253248
-2.7243936 4.4883027 -0.58522087
-3.7691858 6.2095461 -0.40573746
-5.8144312 9.5789862 0
-6.8687162 11.315868 0.7393893
-1.3369244 2.1965284 -0.84787083
-1.5519806 2.5498598 -0.82356215
-1.8202786 2.9906657 -0.77559143
-2.1557488 3.5418339 -0.69124812
-2.7271228 4.4805846 -0.58464372
-3.7699323 6.193891 -0.40501192
-5.8490024 9.6097431 0
-6.8864331 11.314213 0.7398243
-1.3537422 2.2181206 -0.85683626
-1.5537548 2.5458434 -0.82287061
-1.8225685 2.9862974 -0.77502906
-2.1613631 3.5414157 -0.69167572
-2.7204089 4.4574184 -0.58204937
-3.7679367 6.1738033 -0.40399578
-5.8619642 9.6048889 0
-6.9095764 11.321412 0.74084038
-1.3744808 2.2459936 -0.86824417
-1.5542083 2.5396802 -0.82148498
-1.8195453 2.9732585 -0.77221519
-2.1616244 3.532239 -0.69039303
-2.7311933 4.4629526 -0.58320254
-3.7740388 6.1670318 -0.40385079
-5.8776422 9.6044598 0
-6.9408822 11.341866 0.74272704
-1.3513401 2.202199 -0.85194486
-1.5572759 2.5378003 -0.82148498
-1.8271195 2.9775486 -0.77390224
-2.1632032 3.5252442 -0.68953627
-2.7352326 4.4574466 -0.58291453
-3.7665372 6.138103 -0.40225413
-5.9001322 9.6150961 0
-7.0048642 11.415413 0.74809706
-1.3397561 2.1774151 -0.84298259
-1.5524554 2.5231009 -0.81733334
-1.836042 2.983995 -0.77615374
-2.1674612 3.5226278 -0.68953627
-2.7379029 4.4497285 -0.58233738
-3.7698646 6.1269059 -0.40181857
-5.9117455 9.6079607 0
-7.0567746 11.468898 0.75216043
-1.3579594 2.2010365 -0.85276216
-1.555503 2.5212231 -0.81733334
-1.8343097 2.9731245 -0.77390224
-2.167671 3.5134501 -0.68825197
-2.7432775 4.4464169 -0.58233738
-3.773176 6.1157184 -0.40138358
-0 0 0
-7.0965519 11.502382 0.75491822
-1.3710154 2.2162011 -0.8592788
-1.5519502 2.5086763 -0.81387317
-1.8285472 2.9557862 -0.76996368
-2.1759677 3.5173798 -0.68953627
-2.74457 4.4365067 -0.58147335
-3.7750945 6.1023154 -0.400803
-5.952745 9.6224155 0
-7.1692238 11.588814 0.76115882
-1.3684809 2.2061415 -0.8560189
-1.5589489 2.5131969 -0.81595033
-1.8321174 2.9535747 -0.76996368
-2.1748035 3.506022 -0.68782443
-2.7403834 4.417799 -0.57945502
-3.7742443 6.0844965 -0.39993188
-5.9561338 9.6019421 0
-7.1873317 11.586769 0.76159436
-1.3633157 2.1918979 -0.85113066
-1.5659558 2.5176964 -0.81802481
-1.8329984 2.9470394 -0.7688368
-2.1817524 3.5077555 -0.68868119
-2.7457194 4.414485 -0.57945502
-3.7788515 6.0755229 -0.3996419
-5.9663582 9.5925303 0
-7.1779981 11.540568 0.75912714
-1.3855833 2.2217088 -0.86335593
-1.5822752 2.5370936 -0.82494777
-1.840593 2.9512925 -0.77052599
-2.1832697 3.5007563 -0.68782443
-2.752419 4.4133563 -0.57974303
-3.784816 6.0687499 -0.39949688
-5.9765687 9.5831079 0
-7.1740627 11.503226 0.75724047
-1.3777832 2.2032681 -0.85683626
-1.5653859 2.5032711 -0.8145647
-1.8455037 2.9512186 -0.77108836
-2.190223 3.5024729 -0.68868119
-2.7563796 4.4078364 -0.57945502
-3.7852535 6.0531502 -0.39877078
-5.981246 9.5648489 0
-7.1769352 11.476924 0.75607932
-1.3817561 2.2036936 -0.8576504
-1.5790713 2.5183818 -0.82010198
-1.8477198 2.9468358 -0.77052599
-2.1835437 3.4824247 -0.68525743
-2.7575803 4.3979268 -0.57858986
-3.7842853 6.0353675 -0.39790022
-5.9941797 9.5598173 0
-7.1866555 11.461637 0.75564378
-1.3791558 2.1936529 -0.85439056
-1.5781059 2.5100982 -0.81802481
-1.8526301 2.9467502 -0.77108836
-2.1918502 3.4863055 -0.68654174
-2.7601416 4.3902164 -0.57801384
-3.7832744 6.0175872 -0.3970291
-5.9988022 9.5415535 0
-7.2170954 11.479342 0.75738543
-1.371261 2.1752582 -0.84787083
-1.5891675 2.5209274 -0.82217914
-1.8561894 2.9445095 -0.77108836
-2.2001641 3.4901631 -0.68782443
-2.758549 4.3759398 -0.57657266
-3.7808468 5.9976311 -0.39601356
-6.0047755 9.5254917 0
-7.2406621 11.486003 0.75840157
-1.3778514 2.1798694 -0.85031652
-1.5774665 2.495676 -0.8145647
-1.8502467 2.9272358 -0.76714981
-2.1947825 3.4723189 -0.68482989
-2.7596874 4.3660426 -0.5757075
-3.7853117 5.9886608 -0.39572299
-6.007935 9.5050259 0
-7.2614756 11.488226 0.75912714
-1.3857766 2.1865535 -0.85357636
-1.5912247 2.5107205 -0.82010198
-1.8510593 2.9207015 -0.76602292
-2.1975985 3.4674897 -0.68440068
-2.7608056 4.3561487 -0.57484233
-3.7828121 5.9687257 -0.39470744
-6.0082755 9.4801826 0
-7.2670031 11.46627 0.75825602
-1.3831153 2.1765332 -0.85031652
-1.5888751 2.5003264 -0.81733334
-1.8559486 2.9206054 -0.76658529
-2.1935284 3.4518363 -0.68183368
-2.7743933 4.365912 -0.57657266
-3.7914138 5.9663415 -0.39485243
-6.0071597 9.4531412 0
-7.2808523 11.457481 0.75825602
-1.4136337 2.2186317 -0.86742997
-1.5878495 2.4920552 -0.81525618
-1.8622096 2.9226506 -0.76771212
-2.1990757 3.4513462 -0.68226123
-2.7782726 4.3603687 -0.57628351
-3.7846599 5.939846 -0.39340132
-6.0003991 9.417345 0
-7.3072619 11.468405 0.75956267
-1.3790551 2.1586025 -0.84461099
-1.6043687 2.5112803 -0.82217914
-1.8589011 2.9096942 -0.76489824
-2.2046251 3.4508476 -0.68268877
-2.7779746 4.3482981 -0.57513148
-3.7946293 5.9396439 -0.3936913
-5.9935603 9.3815784 0
-7.4162364 11.60846 0.76943159
-1.3950113 2.1806734 -0.85357636
-1.612644 2.5208752 -0.82563931
-1.8675036 2.9192705 -0.76771212
-2.2039456 3.4451945 -0.68183368
-2.7778111 4.3422575 -0.57455432
-3.787015 5.9198394 -0.3925302
-5.9725847 9.3363085 0
-7.5408597 11.787827 0.78162223
-1.380299 2.1519427 -0.84298259
-1.583181 2.4682441 -0.80902737
-1.8696592 2.9148753 -0.76714981
-2.212266 3.4490132 -0.68311799
-2.7788651 4.3323646 -0.57368916
-3.7885537 5.9065104 -0.39194962
-5.9740248 9.3137493 0
-7.5761423 11.811516 0.78379947
-1.4002771 2.1772959 -0.85357636
-1.5956628 2.4811018 -0.81387317
-1.8690553 2.9062006 -0.76546061
-2.2136521 3.4420154 -0.68226123
-2.7868986 4.3333583 -0.57426631
-3.7928793 5.8975616 -0.39165965
-5.9824615 9.3021498 0
-7.6058712 11.826396 0.7853961
-1.3895099 2.1548264 -0.84542513
-1.6068145 2.4918184 -0.81802481
-1.8698088 2.8996651 -0.76433372
-2.2205944 3.4436572 -0.68311799
-2.7795186 4.3104262 -0.57167196
-3.7887371 5.875504 -0.39049852
-0 0 0
-7.6018505 11.78881 0.78350943
-1.3961397 2.1593745 -0.84787083
-1.6030148 2.4793432 -0.8145647
-1.876073 2.9016755 -0.76546061
-2.220571 3.4345021 -0.68183368
-2.7805107 4.3005466 -0.5708068
-3.7901905 5.8621931 -0.38991797
-0 0 0
-7.4834743 11.574504 0.76986665
-1.3906837 2.1452463 -0.84298259
-1.6032828 2.4731982 -0.8131817
-1.8740491 2.890878 -0.76320904
-2.2261145 3.4339685 -0.68226123
-2.7828884 4.2928391 -0.57022965
-3.7944415 5.8532443 -0.3896274
-5.9835796 9.2301741 0
-7.2812071 11.231874 0.74766153
-1.3757654 2.1166263 -0.83238882
-1.6226714 2.4964929 -0.82148498
-1.8720019 2.8800898 -0.76095748
-2.2246661 3.4226665 -0.68054938
-2.7908952 4.2938147 -0.5708068
-3.7916026 5.8334107 -0.38861185
-5.9833817 9.2054806 0
-7.2664514 11.179494 0.74475873
-1.3850681 2.1253138 -0.83646286
-1.6065127 2.4651089 -0.81179607
-1.8810297 2.8863406 -0.76320904
-2.2288001 3.419976 -0.68054938
-2.7946706 4.2882743 -0.57051879
-3.8029003 5.8353496 -0.38904685
-5.9845581 9.1829882 0
-7.2785368 11.16853 0.74461377
-1.4160252 2.1670868 -0.85357636
-1.5943987 2.4400702 -0.80418426
-1.887293 2.8883159 -0.76433372
-2.2287223 3.4108398 -0.67926669
-2.79985 4.2848945 -0.57051879
-3.8042686 5.8220577 -0.38846684
-5.988533 9.1648588 0
-7.3247194 11.209761 0.7479521
-1.4132248 2.1571047 -0.85031652
-1.6110916 2.4591229 -0.81110454
-1.8838207 2.8754084 -0.76151985
-2.2342474 3.4102895 -0.67969424
-2.7993557 4.2728543 -0.56936562
-3.8027539 5.8044114 -0.38759574
-5.9910426 9.1445513 0
-7.4706821 11.403029 0.76144934
-1.3954743 2.1244066 -0.83809125
-1.6113045 2.4529767 -0.80971891
-1.8859 2.8710084 -0.76095748
-2.2369585 3.4054439 -0.67926669
-2.8016739 4.265141 -0.56878847
-3.802633 5.7889557 -0.38687018
-5.9835143 9.1090298 0
-7.5400887 11.478688 0.76710939
-1.408916 2.1392322 -0.84461099
-1.6294475 2.474077 -0.81733334
-1.8865752 2.8644876 -0.7598328
-2.2410717 3.4027386 -0.67926669
-2.8068254 4.2617526 -0.56878847
-3.8110528 5.7865243 -0.38701516
-5.9887905 9.0930996 0
-7.5811043 11.510795 0.76986665
-1.4033307 2.1251571 -0.83972275
-1.6116979 2.4407015 -0.80695027
-1.8956356 2.8706872 -0.76208436
-2.243763 3.3978798 -0.67883748
-2.8034241 4.2454119 -0.56705928
-3.8094537 5.7689095 -0.38614461
-5.9854355 9.0641432 0
-10.431362 15.796907 1.0573733
-1.4154447 2.1378798 -0.84542513
-1.6132622 2.4366624 -0.80625874
-1.890684 2.8556788 -0.75870597
-2.2365298 3.3780425 -0.67541379
-2.8056931 4.2377038 -0.56648213
-3.8049457 5.7469692 -0.38498351
-5.9777074 9.028697 0
-10.449009 15.782126 1.0572283
-1.4084623 2.1217597 -0.83972275
-1.6273052 2.4514327 -0.81179607
-1.895537 2.8555071 -0.75926828
-2.2448704 3.3817558 -0.67669809
-2.8079534 4.2300048 -0.56590611
-3.8032618 5.7293739 -0.38411239
-5.9742165 8.9997807 0
-10.463758 15.762993 1.0567927
-1.427458 2.1447468 -0.84950233
-1.6330488 2.4536457 -0.8131817
-1.9032108 2.8595624 -0.76095748
-2.248955 3.379041 -0.67669809
-2.8101935 4.2222986 -0.56532896
-3.8058667 5.7182913 -0.38367739
-5.9692292 8.96873 0
-7.6539264 11.499976 0.77160829
-1.4327897 2.1471283 -0.85113066
-1.6137317 2.4182818 -0.8021071
-1.9024321 2.8509181 -0.75926828
-2.2487602 3.3699131 -0.67541379
-2.813859 4.2167506 -0.56504095
-3.8055632 5.7028832 -0.38295183
-5.9569488 8.9268742 0
-7.6548367 11.47127 0.77030218
-1.4216417 2.1248572 -0.84298259
-1.6152589 2.414247 -0.80141562
-1.9072925 2.8507352 -0.7598328
-2.2514043 3.365062 -0.67498618
-2.8189521 4.2133474 -0.56504095
-3.8138947 5.7004385 -0.38309681
-5.9648337 8.9153395 0
-7.6701355 11.46417 0.77044719
-1.4200763 2.1169782 -0.84053695
-1.6293501 2.4289529 -0.80695027
-1.9050738 2.839988 -0.75758129
-2.2497485 3.3538117 -0.67327434
-2.8240411 4.209938 -0.56504095
-3.8091996 5.6785626 -0.38193572
-5.9567556 8.8800316 0
-7.6912184 11.46568 0.77117276
-1.4240112 2.1173096 -0.84135109
-1.6364855 2.4332297 -0.80902737
-1.9014097 2.8271358 -0.75476521
-2.2566674 3.3553553 -0.6741311
-2.8233521 4.197938 -0.56388777
-3.8131552 5.6696396 -0.38164514
-5.95296 8.8512363 0
-7.7195706 11.477944 0.77262443
-1.4307153 2.121737 -0.84379679
-1.6366218 2.4270945 -0.80764443
-1.9133506 2.8374805 -0.7581436
-2.2621539 3.3547523 -0.67455864
-2.8284223 4.1945233 -0.56388777
-3.815649 5.6585708 -0.38121015
-5.9476442 8.8202991 0
-7.7465072 11.487996 0.77393055
-1.4235865 2.1056719 -0.83809125
-1.6283123 2.4084883 -0.8021071
-1.9110852 2.8267467 -0.7558921
-2.2662058 3.3520164 -0.67455864
-2.8291469 4.1846805 -0.56302375
-3.8166621 5.6453457 -0.3806296
-5.9393497 8.78508 0
-7.783668 11.51307 0.77625275
-1.428906 2.1080458 -0.83972275
-1.6467012 2.4293563 -0.80971891
-1.9144994 2.8244355 -0.7558921
-2.2688153 3.3471529 -0.6741311
-2.8342011 4.1812592 -0.56302375
-3.8191054 5.634275 -0.38019404
-5.9426608 8.767128 0
-7.8121505 11.525162 0.77770388
-1.4286709 2.1022255 -0.83809125
-1.6383597 2.410773 -0.80418426
-1.9250504 2.8326256 -0.75870597
-2.2699695 3.3401587 -0.67327434
-2.8377934 4.1756859 -0.5627346
-3.8156853 5.6146107 -0.37917793
-5.9283834 8.7233515 0
-7.8362961 11.53076 0.77871996
-1.43121 2.1004977 -0.83809125
-1.6511558 2.4232984 -0.80902737
-1.9184551 2.8155971 -0.75476521
-2.2740037 3.3374133 -0.67327434
-2.8326461 4.1572981 -0.5607174
-3.8180814 5.60356 -0.37874293
-5.9286599 8.7011242 0
-7.8867998 11.574965 0.78234833
-1.4504772 2.1232569 -0.84787083
-1.6441808 2.4068067 -0.80418426
-1.9218559 2.8132768 -0.75476521
-2.2707958 3.3240669 -0.67113489
-2.8391249 4.1560059 -0.56100541
-3.8145881 5.5839214 -0.37772679
-5.9200864 8.6660204 0
-7.9374223 11.619064 0.78597671
-1.4486098 2.1095603 -0.84379679
-1.6471493 2.3986862 -0.80279863
-1.9171476 2.7918754 -0.75026429
-2.2701061 3.3058765 -0.66856796
-2.8447661 4.1427341 -0.56014025
-3.8163037 5.5575504 -0.37656569
-5.9115529 8.6087894 0
-10.72036 15.611687 1.0578089
-1.4455515 2.0996652 -0.84053695
-1.6443559 2.3884287 -0.80002999
-1.9291621 2.80211 -0.75364053
-2.2857389 3.3200383 -0.67199004
-2.8497698 4.1392937 -0.56014025
-3.8274379 5.5593576 -0.37700126
-5.9071898 8.5802002 0
-10.711218 15.558055 1.0550511
-1.4508928 2.1019812 -0.84216529
-1.6543649 2.3967614 -0.8034901
-1.9282149 2.7935016 -0.75195134
-2.2839215 3.3088317 -0.6702798
-2.8547692 4.1358471 -0.56014025
-3.8267736 5.5440388 -0.37627569
-5.9042492 8.5537815 0
-10.7182 15.527993 1.0538899
-1.4604681 2.1103942 -0.84624249
-1.6444124 2.3761961 -0.7972613
-1.9344835 2.7953525 -0.75307822
-2.2849934 3.3018436 -0.66942304
-2.858294 4.13027 -0.55985224
-3.8245947 5.5265865 -0.37540457
-5.9086566 8.5380812 0
-10.742869 15.523579 1.0544705
-1.4432892 2.0801945 -0.83483142
-1.6658727 2.4010012 -0.80625874
-1.9393069 2.7950985 -0.75364053
-2.2962968 3.309624 -0.67156249
-2.8573849 4.1183128 -0.55869907
-3.8253448 5.5134215 -0.37482402
-5.9085822 8.5159655 0
-10.758659 15.50632 1.0541805
-1.4445456 2.0793221 -0.83483142
-1.6487164 2.3732116 -0.7972613
-1.9322997 2.78141 -0.75026429
-2.2924376 3.299803 -0.66985059
-2.8583982 4.1144638 -0.55841106
-3.8257129 5.5068455 -0.37453401
-5.8899746 8.4782057 0
-7.9913702 11.503017 0.78234833
-1.4541187 2.087714 -0.83890545
-1.6630536 2.387687 -0.80279863
-1.9429188 2.7894962 -0.75307822
-2.296423 3.2970307 -0.66985059
-2.8574545 4.1025176 -0.55725789
-3.8234503 5.4894214 -0.37366289
-5.8927784 8.4604063 0
-8.0112038 11.501882 0.78292888
-1.4523991 2.0798819 -0.83646286
-1.6659375 2.3856757 -0.80279863
-1.9390156 2.7767322 -0.75026429
-2.2930579 3.2837319 -0.6677112
-2.8609302 4.0969434 -0.55696988
-3.8285942 5.4826689 -0.3735179
-5.882134 8.4234037 0
-8.0265827 11.494322 0.7830739
-1.4662514 2.0943232 -0.84298259
-1.668819 2.383661 -0.80279863
-1.9423693 2.7743874 -0.75026429
-2.2940822 3.276757 -0.66685605
-2.8629088 4.0892415 -0.55639273
-3.8247886 5.4631448 -0.37250236
-5.8788757 8.3971043 0
-8.0464258 11.49313 0.78365445
-1.4545785 2.0723162 -0.83483142
-1.6702579 2.3795915 -0.8021071
-1.9384172 2.7616336 -0.74744827
-2.2921407 3.2655783 -0.66514421
-2.8648787 4.0815492 -0.55581671
-3.8328784 5.4606442 -0.37264735
-5.884531 8.3836021 0
-8.0737419 11.502538 0.78496057
-1.4741503 2.0948124 -0.84461099
-1.6687993 2.3714144 -0.80002999
-1.9563783 2.7800729 -0.75307822
-2.2990365 3.2670009 -0.66599929
-2.8727825 4.0823112 -0.55639273
-3.8275104 5.4390087 -0.37148622
-5.885673 8.3637199 0
-10.788198 15.330357 1.0470688
-1.4823798 2.1011078 -0.84787083
-1.6629885 2.3571007 -0.79587835
-1.9480177 2.7610977 -0.74857509
-2.3029826 3.2642205 -0.66599929
-2.8762233 4.0767255 -0.55610472
-3.8295844 5.4280081 -0.37105066
-5.8777709 8.3310843 0
-10.797729 15.304574 1.0461982
-1.4492368 2.048871 -0.82749748
-1.6716305 2.3632822 -0.79864699
-1.9454833 2.7504442 -0.74632359
-2.3113737 3.2677248 -0.66728359
-2.8796551 4.0711374 -0.55581671
-3.834641 5.4212575 -0.37090567
-5.8637872 8.2899809 0
-10.799706 15.268179 1.0446016
-1.4545735 2.0511546 -0.82912898
-1.6788343 2.367394 -0.80072147
-1.9517421 2.7522328 -0.74744827
-2.3034408 3.2481778 -0.6638599
-2.8770869 4.0570998 -0.5543744
-3.8336747 5.4060245 -0.3701801
-5.8692875 8.2765265 0
-10.810633 15.244522 1.0438761
-1.4556146 2.0473754 -0.82831168
-1.6671594 2.3449209 -0.79380119
-1.9580137 2.7540181 -0.74857509
-2.3147998 3.255851 -0.66599929
-2.8849874 4.0578408 -0.55495155
-3.8386998 5.3992724 -0.37003511
-5.8611879 8.2439756 0
-10.807968 15.201804 1.0418444
-1.4537877 2.039583 -0.82586914
-1.6758163 2.3510766 -0.79656982
-1.9583875 2.747508 -0.74744827
-2.3142607 3.2467785 -0.66471499
-2.8823833 4.0438228 -0.55351037
-3.8331554 5.3777027 -0.36887398
-5.8635936 8.2262936 0
-10.797671 15.148529 1.0390866
-1.4663061 2.0518954 -0.83157152
-1.6961594 2.3735437 -0.80487573
-1.9631875 2.7472131 -0.74801278
-2.3152001 3.2398067 -0.6638599
-2.8827546 4.0340219 -0.55264521
-3.8351166 5.3667226 -0.36843845
-5.8674765 8.2107334 0
-10.806906 15.12279 1.038216
-1.4659082 2.0461078 -0.82994318
-1.7077899 2.3837249 -0.80902737
-1.9576237 2.7324419 -0.74463439
-2.3131328 3.2286596 -0.662148
-2.8816013 4.0221252 -0.55149204
-3.8385689 5.3578563 -0.36814788
-5.8728447 8.1972885 0
-10.814576 15.094933 1.0371999
-1.4611715 2.0342996 -0.82586914
-1.6813978 2.3409073 -0.7951842
-1.9624048 2.7321362 -0.74519676
-2.315536 3.2237792 -0.66172045
-2.8909874 4.0249448 -0.5523572
-3.8450401 5.3532138 -0.36814788
-5.8554201 8.1521425 0
-7.9239883 11.032084 0.75869155
-1.4780687 2.0525858 -0.83401722
-1.6856953 2.3409157 -0.79587835
-1.9627379 2.7256432 -0.74407202
-2.3194296 3.220979 -0.66172045
-2.8867772 4.0088511 -0.55062687
-3.8393641 5.3317032 -0.36698732
-5.8515801 8.1260567 0
-7.928205 11.009853 0.75782102
-1.4776571 2.0467942 -0.83238882
-1.6826487 2.3307407 -0.79310966
-1.9660299 2.7232695 -0.74407202
-2.3188107 3.2119281 -0.66043615
-2.8946497 4.0095582 -0.55120403
-3.841239 5.3207378 -0.36655176
-5.858345 8.1147556 0
-7.9156475 10.964453 0.75535381
-1.4728793 2.0349905 -0.82831168
-1.6854637 2.3287058 -0.79310966
-1.9737897 2.7270689 -0.74576122
-2.3287106 3.217442 -0.662148
-2.8979774 4.0039644 -0.55091602
-3.8476653 5.3160925 -0.36655176
-5.8544145 8.0886993 0
-7.8968973 10.910678 0.75230598
-1.4666305 2.0212104 -0.82342345
-1.6823827 2.3185456 -0.79034102
-1.9755869 2.7226195 -0.74519676
-2.3371208 3.220861 -0.6634323
-2.9012899 3.9983606 -0.55062687
-3.8464572 5.3009257 -0.36582622
-5.8458424 8.0563431 0
-7.8902378 10.87379 0.75041932
-1.4807035 2.0354264 -0.82994318
-1.6999385 2.3367946 -0.7972613
-1.9699095 2.707906 -0.74182051
-2.3304384 3.2035015 -0.66043615
-2.9000328 3.9864857 -0.5494737
-3.8513265 5.294167 -0.36568063
-5.8402658 8.0282316 0
-7.8926692 10.849537 0.74940318
-1.4831618 2.0336359 -0.82994318
-1.7027609 2.3347387 -0.7972613
-1.9836621 2.7198963 -0.74576122
-2.340358 3.2089796 -0.662148
-2.9018023 3.9788032 -0.54889768
-3.8408825 5.2664218 -0.36408454
-5.8484302 8.0190687 0
-7.8889289 10.816896 0.74780655
-1.4783254 2.0218682 -0.82586914
-1.6952198 2.3185093 -0.79241818
-1.992946 2.7257018 -0.74801278
-2.3381732 3.1978605 -0.66043615
-2.9035575 3.9711223 -0.54832166
-3.8472431 5.2617774 -0.36408454
-5.8442864 7.9930825 0
-10.791287 14.758971 1.0212353
-1.4763823 2.0140984 -0.82342345
-1.7083981 2.330617 -0.7972613
-1.9857212 2.7089448 -0.74407202
-2.3390031 3.190896 -0.65958101
-2.9052925 3.9634347 -0.54774451
-3.8459187 5.2466483 -0.36335897
-5.8431745 7.9713283 0
-10.798358 14.731249 1.0202192
-1.5080873 2.0521457 -0.83972275
-1.6829902 2.2901468 -0.78411222
-1.9844776 2.7003989 -0.74238282
-2.3367763 3.1797931 -0.65786916
-2.9085493 3.9578393 -0.5474565
-3.8476377 5.235714 -0.36292341
-5.8466372 7.9558735 0
-10.7823 14.67213 1.0170264
-1.4944381 2.0284317 -0.83075732
-1.700634 2.3083055 -0.79103255
-1.9862334 2.6959555 -0.74182051
-2.3390899 3.1748946 -0.65743995
-2.9133294 3.9543219 -0.5474565
-3.8508756 5.2268729 -0.36263287
-5.8346319 7.9194655 0
-10.798481 14.657001 1.0168815
-1.4836735 2.0087333 -0.82342345
-1.7183242 2.3264251 -0.79795283
-1.9759046 2.6751609 -0.73675507
-2.3398769 3.1679401 -0.65658486
-2.9165702 3.9487202 -0.54716849
-3.8571885 5.2222161 -0.36263287
-5.8333778 7.8977623 0
-10.791483 14.6105 1.0145593
-1.5037496 2.0307751 -0.83320302
-1.7002355 2.2961242 -0.78826386
-1.998791 2.6993158 -0.74407202
-2.3421769 3.1630495 -0.65615731
-2.9167202 3.9389553 -0.54630333
-3.8588612 5.2112927 -0.36219785
-5.8305264 7.8739758 0
-10.784388 14.564037 1.012237
-1.4885235 2.005142 -0.82342345
-1.7209533 2.3182409 -0.79656982
-2.0005381 2.6948605 -0.74350971
-2.3475258 3.1622763 -0.65658486
-2.9230177 3.9375031 -0.54659134
-3.8589599 5.1982808 -0.3616173
-5.8167663 7.8355784 0
-10.784945 14.528052 1.0106409
-1.5086528 2.0271351 -0.83320302
-1.7282481 2.3221993 -0.79864699
-1.9977248 2.6842878 -0.74125814
-2.3498139 3.1573801 -0.65615731
-2.9246879 3.9298224 -0.54601532
-3.8605826 5.1873584 -0.36118174
-5.8277879 7.8306379 0
-10.810246 14.525431 1.0113665
-1.4874526 1.993615 -0.82016355
-1.7355492 2.3261359 -0.80072147
-2.0085626 2.6920526 -0.74407202
-2.3536272 3.1545386 -0.65615731
-2.9294341 3.9262855 -0.54601532
-3.8637431 5.1785288 -0.36089173
-5.8279047 7.8110709 0
-10.816911 14.497777 1.0103503
-1.4987401 2.0036876 -0.82505178
-1.7278442 2.3099802 -0.79587835
-2.0072467 2.6835177 -0.74238282
-2.355901 3.1496387 -0.65572971
-2.9279792 3.9144583 -0.54486215
-3.8653266 5.1676121 -0.3604562
-5.8155179 7.7748513 0
-10.840647 14.49302 1.0109309
-1.4881032 1.986963 -0.81853521
-1.7126952 2.2868457 -0.78826386
-1.9966824 2.6660345 -0.73787975
-2.3578036 3.1482148 -0.65572971
-2.9241416 3.9044077 -0.54370898
-3.8606613 5.1548786 -0.35973063
-5.8248959 7.7775879 0
-10.850957 14.488545 1.0110759
-1.4860495 1.9792321 -0.81608951
-1.7154572 2.2847745 -0.78826386
-2.0029564 2.6676877 -0.73900664
-2.3631456 3.1474144 -0.65615731
-2.9272997 3.8987973 -0.54341984
-3.8606465 5.1418982 -0.35915008
-5.8170991 7.7476487 0
-10.862215 14.467112 1.0104953
-1.5211377 2.020875 -0.83401722
-1.7197239 2.2847025 -0.78895539
-2.0122907 2.6733856 -0.74125814
-2.362314 3.1384017 -0.65487295
-2.9335685 3.8973298 -0.54370898
-3.8652954 5.1351557 -0.35900506
-5.8076754 7.715663 0
-10.876565 14.449828 1.0102053
-1.5176233 2.0111437 -0.83075732
-1.7164387 2.2746124 -0.78618675
-2.0048044 2.6567528 -0.73731744
-2.3676493 3.1375923 -0.65530056
-2.939832 3.8958449 -0.54399699
-3.8699279 5.1284013 -0.35885951
-5.8122897 7.7024055 0
-10.88306 14.422154 1.0091892
-1.534961 2.029016 -0.83890545
-1.7161616 2.2685392 -0.78480375
-2.0110819 2.658385 -0.73844427
-2.3606019 3.1204042 -0.65230602
-2.9460962 3.8943505 -0.544285
-3.8635802 5.1071434 -0.35769838
-5.8058939 7.6746259 0
-10.908315 14.419353 1.0099148
-1.5224789 2.0074704 -0.83075732
-1.7401224 2.294445 -0.79449266
-2.0127528 2.6539228 -0.73787975
-2.3690197 3.1236799 -0.65358865
-2.9492383 3.8887291 -0.54399699
-3.8681796 5.1004028 -0.35755339
-5.7962914 7.6427217 0
-10.933585 14.41652 1.0106409
-1.5009688 1.9741492 -0.81771791
-1.7216387 2.2643852 -0.78480375
-2.0128853 2.6474473 -0.73675507
-2.3650255 3.1105998 -0.65144926
-2.9461091 3.8748701 -0.54255581
-3.8680489 5.0874515 -0.35697284
-5.7992215 7.6274257 0
-10.943129 14.39295 1.0099148
-1.5123458 1.9841322 -0.82260925
-1.7182902 2.2543223 -0.78203511
-2.0037603 2.6288469 -0.732252
-2.3718975 3.1118269 -0.65230602
-2.9492226 3.8692522 -0.5422678
-3.8710458 5.0786448 -0.35668284
-5.7879257 7.5935078 0
-10.968392 14.390056 1.0106409
-1.5072402 1.9724858 -0.81853521
-1.73777 2.274174 -0.78964955
-2.0239069 2.648634 -0.73844427
-2.3756559 3.1089587 -0.65230602
-2.9538956 3.8656859 -0.5422678
-3.8677106 5.0615716 -0.35581172
-5.7986751 7.5885744 0
-10.985772 14.376792 1.0106409
-1.511124 1.9726233 -0.81934941
-1.7313597 2.2601194 -0.78549522
-2.0178318 2.6340802 -0.73506588
-2.3794107 3.1060858 -0.65230602
-2.9522729 3.8539009 -0.54111463
-3.8675029 5.0486436 -0.35523117
-5.7951851 7.5650425 0
-10.99523 14.353188 1.0099148
-1.5074849 1.962955 -0.81608951
-1.7371484 2.2620089 -0.78688091
-2.021013 2.6316402 -0.73506588
-2.3847241 3.1052425 -0.65273356
-2.9553473 3.8482735 -0.54082549
-3.8672698 5.0357232 -0.35465062
-5.7821269 7.5291338 0
-11.012565 14.339891 1.0099148
-1.5128683 1.9650452 -0.81771791
-1.7551819 2.2797832 -0.79380119
-2.0272946 2.6332269 -0.73619276
-2.3822105 3.0942225 -0.65102166
-2.9568424 3.8406048 -0.54024947
-3.8686006 5.0248756 -0.35421559
-5.7928061 7.5242019 0
-11.0283 14.324517 1.0097698
-1.5288314 1.9808233 -0.82505178
-1.725747 2.2359562 -0.77926642
-2.0196059 2.6166933 -0.732252
-2.3781066 3.081183 -0.64888227
-2.959902 3.8349836 -0.53996146
-3.8651407 5.0078516 -0.3533445
-5.7828183 7.4924822 0
-11.051951 14.319409 1.0103503
-1.5176126 1.9613835 -0.81771791
-1.7422632 2.251725 -0.78549522
-2.0243196 2.6162586 -0.73281437
-2.3833973 3.0803354 -0.64930981
-2.9613652 3.8273091 -0.53938431
-3.8759606 5.0093451 -0.35378006
-5.7807174 7.4710789 0
-11.064473 14.299878 1.0099148
-1.5230141 1.9634579 -0.81934941
-1.7388321 2.2416887 -0.78272659
-2.030597 2.61783 -0.7339412
-2.3902612 3.0815063 -0.6501649
-2.9675713 3.8257699 -0.53967232
-3.8756402 4.9964452 -0.35319948
-5.7674127 7.4353032 0
-11.092894 14.300872 1.0109309
-1.528417 1.9655147 -0.82097775
-1.740001 2.2376075 -0.78203511
-2.0306363 2.6113589 -0.73281437
-2.3939829 3.0786159 -0.6501649
-2.9674332 3.8160617 -0.53880829
-3.8768878 4.9856029 -0.35276392
-5.7827826 7.4365468 0
-11.116546 14.295663 1.0115114
-1.5292727 1.961719 -0.82016355
-1.7488731 2.243418 -0.78480375
-2.0353508 2.6109054 -0.73337668
-2.3992839 3.0777514 -0.65059412
-2.9720418 3.8124735 -0.53880829
-3.8845112 4.9829702 -0.35290948
-5.7693601 7.400815 0
-11.13701 14.286324 1.011802
-1.5194664 1.9442902 -0.81364387
-1.7500392 2.2393281 -0.78411222
-2.0353777 2.604444 -0.732252
-2.3935137 3.06271 -0.64802551
-2.9734581 3.8047998 -0.53823113
-3.8809261 4.9659843 -0.35203838
-5.7734957 7.3876925 0
-11.167058 14.289227 1.0129626
-1.5096203 1.926888 -0.80712414
-1.7450092 2.2273395 -0.78065211
-2.0338206 2.5959804 -0.73056281
-2.3908799 3.0517328 -0.64631361
-2.9716728 3.7930598 -0.53707796
-3.8821146 4.955153 -0.35160282
-5.764761 7.3581738 0
-11.185923 14.277775 1.0131081
-1.528742 1.9464457 -0.81608951
-1.7476991 2.2252295 -0.78065211
-2.0479436 2.6075108 -0.73450357
-2.400908 3.056917 -0.64802551
-2.9746575 3.7874343 -0.53678995
-3.8880992 4.950459 -0.35160282
-5.7704358 7.3471136 0
-11.209586 14.272423 1.0136887
-1.5310928 1.9445971 -0.81608951
-1.7565886 2.230993 -0.78341806
-2.0448053 2.5970488 -0.732252
-2.4014268 3.0499837 -0.64717036
-2.9744301 3.7777388 -0.53592479
-3.8828304 4.9314718 -0.35058725
-5.7599897 7.3155985 0
-11.226823 14.258867 1.0136887
-1.5456918 1.9582663 -0.82260925
-1.7561773 2.2249341 -0.78203511
-2.0432174 2.5885909 -0.73056281
-2.4035215 3.0450668 -0.64674282
-2.9757907 3.7700853 -0.53534877
-3.8855634 4.9226937 -0.35029671
-5.7575364 7.2943316 0
-11.247261 14.249367 1.0139787
-1.5526536 1.9622062 -0.82505178
-1.7635361 2.2287145 -0.78411222
-2.0368869 2.5741687 -0.72718656
-2.4119732 3.0481939 -0.64802551
-2.9819474 3.7685134 -0.53563678
-3.8882871 4.9139237 -0.3500067
-5.7469673 7.2628794 0
-11.261249 14.231695 1.0136887
-1.5412008 1.9429033 -0.81771791
-1.7553126 2.2128217 -0.77926642
-2.0463121 2.5796683 -0.72943813
-2.4028919 3.0291879 -0.64460176
-2.9864986 3.7649076 -0.53563678
-3.8829162 4.8949695 -0.34899059
-5.7411842 7.2375817 0
-11.265518 14.201792 1.0125276
-1.525087 1.9178256 -0.80793834
-1.764231 2.2185535 -0.78203511
-2.0541735 2.5831618 -0.73112732
-2.4145439 3.0363343 -0.64674282
-2.9862146 3.7552209 -0.53477162
-3.8872123 4.8882422 -0.34884557
-5.741828 7.2204566 0
-11.274585 14.178002 1.011802
-1.5320268 1.9217812 -0.81038398
-1.7543995 2.2007265 -0.77649778
-2.0509577 2.5727305 -0.72887576
-2.4134088 3.0273907 -0.64545852
-2.9923668 3.7536383 -0.53506076
-3.893116 4.8835421 -0.34884557
-5.7327013 7.1911263 0
-11.294944 14.168428 1.012092
-1.5405198 1.9276518 -0.81364387
-1.7617576 2.2044864 -0.77857494
-2.054065 2.5702505 -0.72887576
-2.4154639 3.022469 -0.64503098
-2.9985132 3.7520385 -0.53534877
-3.9006345 4.8808622 -0.34899059
-5.7316408 7.1719999 0
-11.312056 14.154771 1.012092
-1.5555804 1.9440875 -0.82097775
-1.7599512 2.1995003 -0.77718931
-2.0476754 2.5590837 -0.72605973
-2.4156811 3.0189989 -0.64460176
-2.9878519 3.7340698 -0.53304243
-3.8938451 4.8663354 -0.34812003
-5.7278447 7.1583776 0
-11.31249 14.137791 1.0113665
-1.5478832 1.9249136 -0.81445801
-1.7526844 2.1796 -0.77165198
-2.0570414 2.5580916 -0.72718656
-2.4197555 3.0091553 -0.64374667
-2.9952476 3.7248247 -0.53275442
-3.8925672 4.8407116 -0.34695891
-5.714139 7.1059785 0
-11.314055 14.069913 1.0084636
-1.5191903 1.8845646 -0.79816186
-1.7742107 2.2009187 -0.77995795
-2.0585377 2.553628 -0.72662425
-2.4137201 2.9942341 -0.64117801
-2.9981246 3.7191911 -0.53246641
-3.8951485 4.831955 -0.34666836
-5.7063909 7.0788112 0
-11.329419 14.054211 1.0083187
-1.5509783 1.9192469 -0.81364387
-1.7784501 2.2007303 -0.78065211
-2.056829 2.5452082 -0.72493505
-2.4157243 2.9893205 -0.64075047
-2.9977376 3.7095287 -0.53160125
-3.8993526 4.8252258 -0.34652334
-5.7165742 7.0739331 0
-11.359458 14.056679 1.0094798
-1.5501876 1.9135342 -0.81201547
-1.7637352 2.177135 -0.77303767
-2.0630987 2.5466659 -0.72605973
-2.4225695 2.9903927 -0.64160722
-3.000591 3.703896 -0.53131324
-3.9002714 4.8144512 -0.34608778
-5.7185645 7.0589318 0
-11.378069 14.04496 1.0096247
-1.5602878 1.9212509 -0.81608951
-1.7726908 2.1827919 -0.77580631
-2.0725815 2.5520608 -0.72831124
-2.4358878 2.9994156 -0.64417422
-3.0050642 3.7002676 -0.53131324
-3.902813 4.8057051 -0.34579781
-5.7074018 7.0277743 0
-11.408135 14.047338 1.0107858
-1.5376408 1.8886967 -0.8030501
-1.7848275 2.192318 -0.77995795
-2.0660417 2.5377357 -0.72493505
-2.4297891 2.9845295 -0.64160722
-3.0111647 3.6986377 -0.53160125
-3.9020545 4.7929254 -0.34521723
-5.7027445 7.0047274 0
-11.434941 14.04563 1.0116564
-1.5617976 1.9136413 -0.81445801
-1.7668551 2.1648946 -0.77096051
-2.0771379 2.545078 -0.72774893
-2.4317656 2.9795969 -0.64117801
-3.0058157 3.6829698 -0.52987093
-3.9078431 4.7882071 -0.34521723
-5.6963959 6.9796872 0
-11.460123 14.041875 1.0123825
-1.5312434 1.8715829 -0.79734457
-1.7647023 2.1569312 -0.76888335
-2.0689473 2.5287986 -0.72380817
-2.4369943 2.9786489 -0.64160722
-3.0102639 3.6793351 -0.52987093
-3.9103382 4.7794633 -0.34492725
-5.6982336 6.9647422 0
-11.477082 14.028017 1.0123825
-1.5585821 1.900308 -0.81038398
-1.7641284 2.1509213 -0.76750034
-2.0720015 2.5262966 -0.72380817
-2.4389591 2.9737115 -0.64117801
-3.0097914 3.6697013 -0.5290069
-3.9128115 4.7707129 -0.34463668
-5.6967459 6.9457822 0
-11.494023 14.014139 1.0123825
-1.567156 1.9060601 -0.81364387
-1.7874376 2.1739786 -0.77649778
-2.0718281 2.5198698 -0.72268349
-2.4425504 2.9707623 -0.64117801
-3.0142233 3.6660619 -0.5290069
-3.9070199 4.7519293 -0.34362057
-5.6902604 6.9208035 0
-11.517544 14.008261 1.0129626
-1.585181 1.9232413 -0.82179505
-1.7741097 2.1524615 -0.7695775
-2.0797212 2.5232484 -0.72437268
-2.4396136 2.9598927 -0.63946778
-3.0153575 3.6584215 -0.52842975
-3.9061544 4.7391925 -0.34304056
-5.6903439 6.9038835 0
-11.517938 13.974287 1.0115114
-1.5670331 1.8965493 -0.81119817
-1.7719138 2.1445124 -0.76750034
-2.0779116 2.5148556 -0.72268349
-2.4497225 2.9648509 -0.64117801
-3.0148318 3.6487918 -0.52756459
-3.9118779 4.7344689 -0.34304056
-5.6870766 6.882957 0
-11.531507 13.956357 1.0112214
-1.5693235 1.8946545 -0.81119817
-1.7921087 2.1636245 -0.77511477
-2.0696015 2.4986434 -0.71874279
-2.4483953 2.9559636 -0.63989538
-3.0208931 3.6471438 -0.52785373
-3.9175956 4.7297387 -0.34304056
-5.6937304 6.8740778 0
-11.536758 13.928403 1.0102053
-1.5621413 1.8813514 -0.80630994
-1.7947217 2.1614575 -0.77511477
-2.0839829 2.5098267 -0.72268349
-2.4437673 2.94313 -0.63775593
-3.0252976 3.643491 -0.52785373
-3.9150033 4.7150002 -0.34231445
-5.683743 6.8451662 0
-11.53366 13.890464 1.0084636
-1.5375345 1.8471704 -0.79245633
-1.794119 2.1554272 -0.77372915
-2.0821359 2.5014462 -0.72099429
-2.4555316 2.9500382 -0.63989538
-3.021426 3.6298952 -0.52641255
-3.9256864 4.7162595 -0.34275001
-5.6870131 6.8322911 0
-11.522178 13.842568 1.0059965
-1.5745993 1.8870575 -0.81038398
-1.8047571 2.1628873 -0.77718931
-2.0932946 2.5086813 -0.72380817
-2.4607375 2.949038 -0.64032292
-3.024148 3.6242499 -0.5261234
-3.9180639 4.6955519 -0.34158888
-5.6719246 6.7974429 0
-11.525577 13.812675 1.0048352
-1.5594391 1.8643051 -0.8014217
-1.8105916 2.1645572 -0.77857494
-2.0849173 2.4925129 -0.71986961
-2.4560654 2.9362195 -0.63818347
-3.0268672 3.6186113 -0.52583539
-3.9220693 4.6888227 -0.3414439
-5.6868134 6.7985697 0
-11.503918 13.752902 1.0014975
-1.5839207 1.8889303 -0.81282967
-1.7954726 2.1412201 -0.77096051
-2.0928206 2.4958274 -0.72155666
-2.4596114 2.9332495 -0.63818347
-3.0328975 3.6169312 -0.5261234
-3.9243896 4.6800947 -0.34115332
-5.6716166 6.7637782 0
-11.492146 13.705146 0.99903029
-1.5623449 1.8586338 -0.8006044
-1.7867632 2.1256115 -0.76611733
-2.0942016 2.4913535 -0.72099429
-2.4631538 2.9302754 -0.63818347
-3.0339403 3.609308 -0.52554739
-3.9317183 4.6773438 -0.34129888
-5.6764326 6.7529321 0
-11.491975 13.671355 0.99757862
-1.569369 1.8624165 -0.8030501
-1.8103446 2.1483893 -0.77511477
-2.0955746 2.4868803 -0.72043198
-2.4666927 2.9272971 -0.63818347
-3.0349627 3.6016798 -0.52497023
-3.9306695 4.6646419 -0.34071833
-5.6694965 6.728159 0
-11.476677 13.619711 0.99482137
-1.5652385 1.8529664 -0.7997902
-1.7951295 2.1251168 -0.76750034
-2.0953019 2.4804678 -0.7193073
-2.4569757 2.9086261 -0.63475972
-3.0326362 3.5901065 -0.52381706
-3.9312711 4.6539321 -0.34028277
-5.6742663 6.7173309 0
-11.452882 13.558193 0.99133801
-1.5850472 1.8718237 -0.80875564
-1.8058006 2.1325171 -0.77096051
-2.1048591 2.4856832 -0.72155666
-2.4588311 2.903698 -0.63433218
-3.0386481 3.5884192 -0.5241062
-3.9335365 4.645216 -0.33999276
-5.6722851 6.6985497 0
-11.439034 13.508655 0.98872578
-1.5889057 1.8717896 -0.80956984
-1.8148702 2.137984 -0.77372915
-2.1045754 2.4792676 -0.72043198
-2.4706426 2.9105082 -0.63647163
-3.0413032 3.5827672 -0.52381706
-3.9391465 4.64046 -0.33999276
-5.6702728 6.6797905 0
-11.426763 13.461148 0.98625857
-1.5911663 1.8698684 -0.80956984
-1.8044454 2.1205046 -0.76819187
-2.0993378 2.4670491 -0.71761811
-2.4675031 2.8997006 -0.63475972
-3.04563 3.5790899 -0.52381706
-3.9380147 4.6277809 -0.33941221
-5.6614704 6.65311 0
-11.411023 13.40973 0.98350078
-1.6142755 1.8923876 -0.82016355
-1.798867 2.1087811 -0.76473171
-2.1039648 2.4664419 -0.71818042
-2.4660053 2.890856 -0.63347542
-3.0449214 3.5695095 -0.52295303
-3.9419124 4.6210365 -0.33926666
-5.6509314 6.6244903 0
-11.408672 13.374192 0.98190463
-1.5956804 1.8660177 -0.80956984
-1.8226082 2.1313913 -0.77372915
-2.0953825 2.4503782 -0.71423972
-2.4728365 2.8917799 -0.63433218
-3.0509117 3.5677917 -0.52324104
-3.9424317 4.6103516 -0.33883166
-5.6487799 6.6057863 0
-11.384294 13.313001 0.97842133
-1.5935894 1.8612947 -0.80793834
-1.8059525 2.1093323 -0.76611733
-2.1117399 2.4664886 -0.7193073
-2.4729087 2.88833 -0.63390297
-3.0530665 3.5659478 -0.52324104
-3.9384565 4.6000733 -0.33825111
-5.6459994 6.5944648 0
-11.331504 13.23507 0.97319686
-1.5942291 1.8574941 -0.80712414
-1.824836 2.1261826 -0.77303767
-2.1064396 2.454289 -0.71649122
-2.4730563 2.8814476 -0.63304788
-3.0506349 3.5544052 -0.52208787
-3.9507813 4.6031985 -0.33883166
-5.6488838 6.5817189 0
-11.267953 13.128699 0.96637571
-1.5980828 1.8574382 -0.80793834
-1.8044997 2.0973549 -0.7633487
-2.1160321 2.4594464 -0.71874279
-2.4798815 2.8823454 -0.63390297
-3.0532422 3.5487578 -0.52179986
-3.9427829 4.5826635 -0.33767053
-5.6330662 6.5472651 0
-11.173654 12.987043 0.95694178
-1.5680473 1.8180802 -0.79164213
-1.8201345 2.110364 -0.76888335
-2.1123643 2.4491913 -0.71649122
-2.4833624 2.8793468 -0.63390297
-3.0541463 3.5411448 -0.52122271
-3.9432244 4.571991 -0.33723497
-5.6443758 6.5443993 0
-11.102791 12.873186 0.94954008
-1.589641 1.8386204 -0.8014217
-1.8144807 2.098676 -0.76542318
-2.1169889 2.4485648 -0.71705574
-2.483485 2.8724639 -0.63304788
-3.0567327 3.5354972 -0.5209347
-3.9470479 4.565259 -0.33708999
-5.6454706 6.5296993 0
-11.062257 12.794896 0.94475061
-1.6112804 1.859104 -0.81119817
-1.8038704 2.0813155 -0.75988591
-2.1066327 2.4306443 -0.71255267
-2.4802289 2.8617015 -0.63133603
-3.0626948 3.5337539 -0.52122271
-3.9440536 4.5506706 -0.33636442
-5.6397204 6.5071402 0
-11.045379 12.744218 0.94199342
-1.605422 1.8478286 -0.80712414
-1.809678 2.0829256 -0.76127154
-2.1078968 2.4261734 -0.71198815
-2.483685 2.8587027 -0.63133603
-3.0652678 3.5281 -0.5209347
-3.9546571 4.5517807 -0.33679941
-5.6407518 6.4924626 0
-11.024983 12.689672 0.93894559
-1.5881743 1.8235216 -0.79734457
-1.8204302 2.0901949 -0.76473171
-2.117502 2.431289 -0.71423972
-2.4871373 2.8556995 -0.63133603
-3.0644307 3.5185404 -0.52006954
-3.9550395 4.5411263 -0.33636442
-5.6349187 6.4699416 0
-11.007881 12.63911 0.9361878
-1.6001328 1.8327761 -0.8022359
-1.8097547 2.0728748 -0.75919443
-2.1187687 2.4268165 -0.71367735
-2.4956527 2.8584952 -0.63262033
-3.0703859 3.5167892 -0.52035868
-3.9536879 4.5285144 -0.33578387
-5.6256194 6.4435277 0
-10.956501 12.549466 0.93052781
-1.6186208 1.8494365 -0.81038398
-1.8172164 2.0763519 -0.76127154
-2.1233714 2.4261646 -0.71423972
-2.4923422 2.8477509 -0.63090843
-3.0644093 3.5013947 -0.51862836
-3.9574406 4.5217729 -0.33563831
-5.6334009 6.4367256 0
-10.913476 12.46974 0.92559332
-1.5931456 1.8158965 -0.79653037
-1.818071 2.0722706 -0.76058006
-2.1263013 2.4235973 -0.71423972
-2.4940898 2.8428094 -0.63048089
-3.0737567 3.5035243 -0.51949352
-3.9594772 4.5130849 -0.33534831
-5.6308727 6.4181724 0
-10.897692 12.42139 0.92298108
-1.6100273 1.830672 -0.80386424
-1.8172568 2.0663011 -0.75919443
-2.1292281 2.4210262 -0.71423972
-2.4992168 2.8417194 -0.63090843
-3.0728617 3.4939792 -0.51862836
-3.9649274 4.5082974 -0.33534831
-5.623157 6.3937774 0
-10.873222 12.363333 0.91964275
-1.5893583 1.8027731 -0.79245633
-1.8230736 2.0678711 -0.76058006
-2.1321521 2.4184518 -0.71423972
-2.495858 2.8309953 -0.62919658
-3.0822144 3.4960859 -0.51949352
-3.9600651 4.4918122 -0.33447775
-5.6291595 6.3850279 0
-10.831455 12.285874 0.91485387
-1.6046294 1.8156674 -0.79897606
-1.8305501 2.0713007 -0.76265454
-2.1350727 2.4158738 -0.71423972
-2.4958737 2.8241267 -0.62833983
-3.0761564 3.480727 -0.5177632
-3.963764 4.4850712 -0.3343322
-5.6282549 6.3684731 0
-10.811877 12.233836 0.91195107
-1.6297646 1.8396239 -0.81038398
-1.8280655 2.0634594 -0.76058006
-2.1430466 2.4189997 -0.71592891
-2.4941823 2.8153498 -0.62705714
-3.0803597 3.4770074 -0.5177632
-3.9691803 4.4802785 -0.3343322
-5.6307669 6.3558216 0
-10.785297 12.174085 0.90846771
-1.6418366 1.8487451 -0.81527537
-1.8305575 2.061249 -0.76058006
-2.1358478 2.4050128 -0.71255267
-2.495873 2.8104093 -0.62662798
-3.075973 3.4636152 -0.51632202
-3.9694197 4.469656 -0.3338972
-5.6263504 6.3353977 0
-10.78965 12.14939 0.90759712
-1.6342055 1.8356801 -0.81038398
-1.8363798 2.0627797 -0.76196307
-2.1370578 2.400527 -0.71198815
-2.5043893 2.8131454 -0.62791228
-3.0870352 3.4676232 -0.51747519
-3.9679062 4.4570932 -0.33331662
-5.632266 6.3266454 0
-10.783589 12.113054 0.90585548
-1.611742 1.8060484 -0.79816186
-1.8305205 2.0512021 -0.7585029
-2.139957 2.397943 -0.71198815
-2.506079 2.8082037 -0.62748474
-3.0826137 3.4542437 -0.51603401
-3.9750173 4.4542327 -0.33346164
-5.6156502 6.2926545 0
-10.765344 12.063178 0.90309769
-1.5941483 1.7819946 -0.78838229
-1.8430305 2.0602038 -0.76265454
-2.1377754 2.3896799 -0.7103011
-2.5146067 2.810915 -0.62876904
-3.0902309 3.4543681 -0.51661003
-3.9734666 4.44168 -0.33288109
-5.6111016 6.2722855 0
-10.736609 12.001756 0.89946991
-1.6309513 1.8187072 -0.80549574
-1.8572446 2.0710514 -0.76750034
-2.1440508 2.3908749 -0.71142578
-2.5128579 2.8021393 -0.62748474
-3.0840449 3.4390817 -0.51488084
-3.9770975 4.4349427 -0.33273607
-5.6186762 6.265501 0
-10.725079 11.959754 0.89729267
-1.5885327 1.7671049 -0.7834909
-1.841295 2.048281 -0.75988591
-2.1503386 2.3920653 -0.71255267
-2.5110919 2.7933719 -0.62620038
-3.0899258 3.4372742 -0.51516885
-3.9789758 4.4262652 -0.33244553
-5.6088476 6.2393565 0
-10.692623 11.894616 0.89337432
-1.6039033 1.7798729 -0.79001063
-1.8387351 2.0404689 -0.75781143
-2.148123 2.3838007 -0.71086347
-2.5179055 2.7941535 -0.62705714
-3.0940766 3.4335382 -0.51516885
-3.986059 4.4233828 -0.33259052
-5.6129017 6.2287121 0
-10.6548 11.823774 0.88901985
-1.6408436 1.8164479 -0.80712414
-1.8395127 2.0363786 -0.75711727
-2.1475985 2.3774359 -0.70973879
-2.5143967 2.7834892 -0.62534529
-3.0878239 3.4182849 -0.51343966
-3.9809532 4.4069977 -0.33171996
-5.6151886 6.2161298 0
-10.625543 11.762695 0.88539207
-1.5932705 1.7595047 -0.78267676
-1.8285069 2.0192845 -0.75158262
-2.1589956 2.3842549 -0.71255267
-2.5212011 2.784251 -0.62620038
-3.0936863 3.4164667 -0.51372766
-3.9775565 4.3925557 -0.3309944
-5.6191983 6.2054782 0
-10.583935 11.688211 0.88074762
-1.6153299 1.7795392 -0.79245633
-1.8359991 2.0226412 -0.7536571
-2.1516249 2.3703523 -0.70917428
-2.521116 2.7774048 -0.62534529
-3.0960755 3.4108129 -0.51343966
-3.9863505 4.3915906 -0.3312844
-5.6214499 6.1929088 0
-10.585823 11.661944 0.87973148
-1.6357782 1.7976967 -0.8014217
-1.8485756 2.031558 -0.75781143
-2.1527791 2.3658733 -0.70861191
-2.5158334 2.7648649 -0.62320584
-3.0949707 3.4013283 -0.51257449
-3.989907 4.3848505 -0.33113942
-5.625422 6.1822581 0
-10.533456 11.576117 0.87421644
-1.6312866 1.7884146 -0.79816186
-1.8527181 2.0311747 -0.7585029
-2.157347 2.3651459 -0.70917428
-2.5260856 2.769402 -0.62491608
-3.1008196 3.3994951 -0.5128625
-3.9917035 4.3761902 -0.33084941
-5.6171055 6.1581535 0
-10.507165 11.519232 0.8708787
-1.6457007 1.8020293 -0.8046816
-1.8607121 2.0374651 -0.76127154
-2.1604939 2.3657236 -0.70973879
-2.5294943 2.7697763 -0.62534529
-3.0993876 3.393805 -0.51228648
-3.9925892 4.3718538 -0.33070385
-5.6067848 6.1393852 0
-10.480828 11.476424 0.86812091
-1.6412011 1.7927473 -0.8014217
-1.854704 2.0259647 -0.75781143
-2.153053 2.3518629 -0.7063604
-2.524174 2.7572525 -0.62320584
-3.0999899 3.3862383 -0.51170933
-3.9943631 4.3631968 -0.33041385
-5.6124434 6.1306882 0
-10.45609 11.42159 0.86492807
-1.6283211 1.7743684 -0.79408467
-1.8588454 2.025569 -0.7585029
-2.1610489 2.3548777 -0.7080496
-2.5344398 2.7617586 -0.62491608
-3.1128283 3.392024 -0.51315165
-3.9978771 4.3564544 -0.33026886
-5.6110501 6.1143165 0
-10.411907 11.345772 0.86013865
-1.620427 1.761489 -0.78919643
-1.8409095 2.0011652 -0.75019699
-2.160449 2.3485212 -0.70692271
-2.5343022 2.7549193 -0.62406099
-3.1204236 3.3920639 -0.51372766
-3.9996161 4.3477921 -0.32997829
-5.6149068 6.1036978 0
-10.397468 11.302592 0.85781693
-1.6510367 1.7904167 -0.8030501
-1.84843 2.0044739 -0.75227416
-2.1701751 2.3533807 -0.70917428
-2.534152 2.7480845 -0.62320584
-3.1087408 3.3711798 -0.51113331
-4.0013471 4.3391395 -0.32968828
-5.6205153 6.0949974 0
-10.354749 11.228893 0.85317248
-1.6213269 1.7539415 -0.78756809
-1.8508507 2.002239 -0.75227416
-2.1661181 2.3432934 -0.70692271
-2.5357232 2.74313 -0.62277669
-3.112812 3.3674212 -0.51113331
-3.999532 4.3266692 -0.32910773
-5.6190448 6.0786481 0
-10.33127 11.176305 0.85012472
-1.648639 1.7791699 -0.7997902
-1.8703171 2.0183995 -0.75919443
-2.1724052 2.3444054 -0.7080496
-2.5285704 2.72877 -0.62020969
-3.1168785 3.3636575 -0.51113331
-4.0012212 4.318018 -0.32881716
-5.6140018 6.0584898 0
-10.30238 11.118071 0.84664136
-1.657516 1.7844201 -0.8030501
-1.8556839 1.9977603 -0.75227416
-2.176964 2.3436387 -0.70861191
-2.5423448 2.736994 -0.62277669
-3.1121409 3.3504152 -0.50969213
-4.0011353 4.3074741 -0.32838216
-5.6071482 6.0364475 0
-10.268064 11.054215 0.84272301
-1.6243023 1.7444316 -0.78593659
-1.8649349 2.0028608 -0.75504279
-2.1676719 2.3279877 -0.7046712
-2.5334098 2.7207744 -0.61978215
-3.1179478 3.3485434 -0.50998014
-4.0063372 4.3026361 -0.32838216
-5.6162167 6.0315781 0
-10.219442 10.975247 0.83764356
-1.6466466 1.7641497 -0.79571617
-1.8673536 2.0006061 -0.75504279
-2.1704834 2.3253667 -0.7046712
-2.5437019 2.7252178 -0.621494
-3.1202285 3.3428845 -0.50969213
-4.0044413 4.290194 -0.32780161
-5.6057391 6.0057592 0
-10.199007 10.926798 0.83488578
-1.6525943 1.7619662 -0.79653037
-1.868747 1.9924242 -0.7536571
-2.1795764 2.3238249 -0.70579803
-2.5520346 2.7209332 -0.62192154
-3.1229877 3.3296731 -0.50882697
-4.0076866 4.2729235 -0.32722107
-5.5970931 5.9675198 0
-10.154285 10.826315 0.82908076
-1.6479501 1.7527653 -0.79327053
-1.8608456 1.9792017 -0.74950546
-2.1823826 2.3211896 -0.70579803
-2.5553205 2.7178476 -0.62192154
-3.1305556 3.3296695 -0.50940412
-4.0164032 4.2718601 -0.32751107
-5.6078687 5.9645481 0
-10.124641 10.768603 0.82559741
-1.6517602 1.7525697 -0.79408467
-1.8838838 1.9988601 -0.75781143
-2.1851857 2.3185508 -0.70579803
-2.553319 2.709152 -0.62063724
-3.1292529 3.320236 -0.50853896
-4.0144334 4.2594404 -0.32693049
-5.6168547 5.9596596 0
-10.087745 10.703415 0.8215335
-1.6216316 1.7164423 -0.77860272
-1.8639019 1.9728771 -0.74881399
-2.189729 2.317754 -0.7063604
-2.5583518 2.7079289 -0.62106478
-3.1332624 3.3164525 -0.50853896
-4.0088735 4.243257 -0.32605994
-5.6097536 5.9377346 0
-10.063205 10.651562 0.81848627
-1.6525949 1.7449872 -0.79245633
-1.8680078 1.9724433 -0.74950546
-2.1872847 2.3095701 -0.7046712
-2.5633922 2.7067049 -0.621494
-3.1372674 3.312664 -0.50853896
-4.0122128 4.2365255 -0.32591495
-5.609766 5.9233937 0
-10.04748 10.609208 0.81616402
-1.6598089 1.7483684 -0.79490203
-1.8721154 1.9720024 -0.75019699
-2.1813283 2.2977135 -0.70185733
-2.5578187 2.6942916 -0.61935294
-3.1323657 3.2994936 -0.50709778
-4.01196 4.2260189 -0.32547939
-5.6079617 5.9071755 0
-10.033454 10.568791 0.81398678
-1.6942888 1.7803748 -0.81038398
-1.8589331 1.9533844 -0.74396819
-2.1893597 2.3005998 -0.70354652
-2.5593042 2.6893413 -0.61892539
-3.1309993 3.2900836 -0.50623262
-4.0206428 4.2249293 -0.32576939
-5.6025348 5.8871965 0
-10.003233 10.511492 0.81050402
-1.6708534 1.7515057 -0.79816186
-1.8924589 1.9838082 -0.75642574
-2.1816113 2.2869182 -0.70016813
-2.5590117 2.6825354 -0.61807024
-3.1421137 3.2937839 -0.50738579
-4.0275435 4.2219534 -0.32591495
-5.6024585 5.8728905 0
-9.9657059 10.446753 0.80644011
-1.6575963 1.7334104 -0.79082793
-1.8775191 1.9633918 -0.74950546
-2.1913974 2.291626 -0.70241964
-2.5551543 2.6720202 -0.6163584
-3.1407268 3.2843752 -0.50652063
-4.0290465 4.2133245 -0.32562438
-5.605957 5.8623581 0
-9.9460001 10.400903 0.80382788
-1.6716572 1.7438909 -0.79653037
-1.8903031 1.9719847 -0.7536571
-2.1941648 2.2889764 -0.70241964
-2.5672615 2.678195 -0.61849779
-3.1393287 3.2749815 -0.5056566
-4.0305419 4.2047052 -0.32533437
-5.6004281 5.8424273 0
-9.9225979 10.351361 0.80092508
-1.6840414 1.7525662 -0.8014217
-1.8787786 1.9552274 -0.74811983
-2.188128 2.2771645 -0.69960576
-2.5704956 2.675091 -0.61849779
-3.1486547 3.2767756 -0.50652063
-4.0302167 4.1942091 -0.32489884
-5.5984693 5.8262749 0
-9.8954926 10.298147 0.79773229
-1.6484321 1.7113642 -0.7834909
-1.8707005 1.942118 -0.74396819
-2.2049799 2.2891591 -0.70410883
-2.5737262 2.671983 -0.61849779
-3.1526117 3.2729688 -0.50652063
-4.0298719 4.1837201 -0.32446328
