# .PCD v0.7 - Point Cloud Data file format
VERSION 0.7
FIELDS x y z
SIZE 4 4 4
TYPE F F F
COUNT 1 1 1
WIDTH 1770
HEIGHT 1
VIEWPOINT 0 0 0 1 0 0 0
POINTS 1770
DATA ascii
0.59011412 32.555222 0
0.42158478 23.257851 1.2993081
0.54919225 32.462234 0
0.39335001 23.250546 1.2988726
0.50751507 32.306755 0
0.36570495 23.279587 1.3004692
0.46583712 32.125202 0
0.33787727 23.300797 1.3016304
0.42636251 32.076298 0
0.310137 23.332367 1.303372
0.38653517 31.988316 0
0.28213248 23.348309 1.3042426
0 0 0
0.25417468 23.372015 1.3055487
0 0 0
0.22595918 23.37491 1.3056942
0 0 0
0.19804461 23.414135 1.3078709
0 0 0
0.16999795 23.448133 1.3097576
0 0 0
0.14204209 23.510683 1.3132409
0 0 0
0.11407345 23.601774 1.3183204
0 0 0
0.085658848 23.63048 1.3199171
0 0 0
0.057181321 23.661749 1.3216587
0 0 0
0.028606378 23.674789 1.3223842
-0 0 0
-0 23.685202 1.3229649
-0 0 0
-0.028675446 23.731951 1.3255771
-0 0 0
-0.043041404 23.747515 1.3264476
-0.069680236 23.067036 0
-0.071743473 23.750051 1.3265932
-0.097332068 23.014885 0
-0.10666013 25.220572 1.4087374
-0.12521173 23.02776 0
-0.1382927 25.433489 1.4206386
-0.15291516 23.009382 0
-0.17023268 25.615175 1.4307975
-0.18090133 23.0326 0
-0.20173453 25.68511 1.4347163
-0.20825991 22.980316 0
-0.23307592 25.718624 1.4366031
-0.23666847 23.042505 0
-0.26457867 25.759895 1.4389253
-0.26391318 22.990156 0
-0.29615158 25.798525 1.441102
-0.29225338 23.034056 0
-0.31769824 25.039501 1.3987235
-0.320447 23.059713 0
-0.32528028 23.40752 1.3075809
-0.37562037 23.025036 0
-0.3818036 23.40406 1.3074354
-0.40357819 23.032375 0
-0.41012821 23.406187 1.3075809
-0.43155429 23.039679 0
-0.43933415 23.455029 1.3103381
-0.45944473 23.04174 0
-0.4685035 23.496048 1.3126603
-0.48767108 23.059383 0
-0.49815702 23.555208 1.3159982
-0.51535892 23.05097 0
-0.52702516 23.572777 1.3170142
-0.54302716 23.042522 0
-0.55581391 23.585108 1.3177398
-0.57041812 23.023645 0
-0.58392543 23.568838 1.3168693
-0.59931862 23.064554 0
-0.61172825 23.542135 1.3154176
-0.62669218 23.04561 0
-0.63904399 23.499828 1.3130959
-0.64256746 23.115461 0
-0.6523028 23.465673 1.3112092
-0.6675548 23.01322 0
-0.67892301 23.405127 1.3078709
-0.6996057 23.152863 0
-0.70531952 23.341955 1.3043876
-0.72537369 23.081764 0
-0.73384964 23.351475 1.3049681
-0 0 0
-0.76282787 23.373953 1.3062748
-0.86583406 25.581991 0
-0.79124582 23.378202 1.3065648
-0.89647067 25.573122 0
-0.8197664 23.385023 1.3070004
-0.92878497 25.611034 0
-0.84717458 23.360647 1.3056942
-0.96012008 25.620296 0
-0.87481672 23.344021 1.3048232
-0.99610603 25.74913 0
-0.90171707 23.309195 1.3029364
-1.0327165 25.885729 0
-0.93070966 23.328859 1.3040975
-1.754874 42.691959 0
-0.95815021 23.309542 1.3030814
-1.8059076 42.676807 0
-0.98587513 23.297981 1.3025008
-1.8560017 42.640797 0
-1.0118788 23.247458 1.2997437
-1.9046158 42.573528 0
-1.0392711 23.230639 1.2988726
-1.8378036 39.99757 0
-1.0667439 23.216389 1.298147
-1.8850278 39.971916 0
-1.0947956 23.215084 1.298147
-1.9310616 39.922825 0
-1.1234732 23.226719 1.2988726
-1.9753044 39.83989 0
-1.1515373 23.225344 1.2988726
-2.0060165 39.494408 0
-1.1786774 23.205776 1.2978569
-2.0246787 38.933201 0
-1.2055019 23.180984 1.2965509
-2.0509765 38.540916 0
-1.234063 23.18989 1.2971314
-2.030365 37.304115 0
-1.2623647 23.193565 1.2974215
-2.0526156 37.29768 0
-1.4734102 26.773052 1.4977033
-2.0935895 37.222427 0
-1.502987 26.721968 1.4949461
-2.1315479 37.097763 0
-1.5340818 26.699377 1.4937849
-2.1580813 36.783405 0
-1.557515 26.547058 1.4853672
-2.1798141 36.401512 0
-1.5827571 26.43104 1.4789816
-2.202214 36.045589 0
-1.6119992 26.385019 1.4765143
-2.2278023 35.754593 0
-1.644202 26.388233 1.4768044
-2.2025394 34.674065 0
-1.6754268 26.375854 1.4762238
-2.2415769 34.627232 0
-2.0856287 32.218189 1.8033516
-2.2808471 34.585552 0
-2.1242142 32.210457 1.8030611
-2.3170547 34.49968 0
-2.1613917 32.181946 1.80161
-2.341342 34.242416 0
-1.7422692 25.480904 1.4265891
-2.3431506 33.671021 0
-1.7730566 25.478781 1.4265891
-2.3704169 33.478668 0
-1.8031074 25.466251 1.4260086
-2.3929217 33.226593 0
-1.8357432 25.489967 1.4274597
-2.4201431 33.047192 0
-1.8654032 25.472185 1.4265891
-2.3785393 31.949074 0
-1.8965654 25.475092 1.4268792
-2.415375 31.922823 0
-1.9253856 25.446875 1.425428
-2.4495573 31.862801 0
-1.9571275 25.457481 1.4261535
-2.4819772 31.781984 0
-1.9893028 25.473234 1.4271697
-2.4564624 31.212315 0
-2.0065267 25.49534 1.4284759
-2.4709558 30.918791 0
-2.0402291 25.529154 1.4305075
-2.4900041 30.690113 0
-2.072335 25.542206 1.431378
-2.5087175 30.464039 0
-2.1049023 25.5604 1.4325391
-2.5310054 30.28723 0
-2.1377327 25.581141 1.4338453
-2.4836168 29.293594 0
-2.1688612 25.581135 1.4339908
-2.5174503 29.272429 0
-2.1997695 25.578495 1.4339908
-2.5476174 29.209732 0
-2.230448 25.573223 1.4338453
-2.5762615 29.131454 0
-2.1377463 24.172882 1.3554745
-2.5986784 28.985764 0
-2.1646323 24.144394 1.3540227
-2.1845131 23.721457 0
-2.2155874 24.058887 1.3495238
-2.2112401 23.698069 0
-2.2518981 24.133804 1.3538778
-2.2371786 23.666878 0
-2.2967067 24.296619 1.3631661
-2.2637894 23.643431 0
-2.3344827 24.381767 1.3681005
-2.2931099 23.648453 0
-2.3649447 24.389273 1.3686812
-0 0 -0
-2.3193944 23.622356 0
-2.3982217 24.42519 1.3708583
-0 0 -0
-2.347163 23.611765 0
-2.3385463 23.525082 1.3204976
-0 0 -0
-2.7183175 27.013826 0
-2.3711314 23.563595 1.3228194
-2.7383001 26.886255 0
-2.4030252 23.594326 1.3247066
-2.7473056 26.655123 0
-2.4384587 23.658606 1.3284799
-2.7722232 26.581903 0
-2.4848311 23.826199 1.3380582
-2.798332 26.521591 0
-2.5174363 23.859362 1.3400905
-2.819881 26.419859 0
-2.5286143 23.690941 1.3308016
-2.8141778 26.21633 0
-2.5296156 23.565405 1.3238354
-2.8290002 26.057682 0
-2.419549 22.286261 1.2521402
-2.8434436 25.899036 0
-2.4498787 22.314316 1.2538818
-2.8557844 25.724871 0
-2.4774134 22.316509 1.2541723
-2.8610332 25.491238 0
-2.5008988 22.282513 1.2524307
-2.8756962 25.345545 0
-2.5266495 22.269148 1.2518501
-2.8911977 25.210196 0
-2.7299976 23.80459 1.3383487
-2.8979859 25.00246 0
-2.7387147 23.628344 1.3286248
-2.9070024 24.818018 0
-2.7533579 23.506304 1.3219488
-2.9223053 24.690434 0
-2.7774835 23.466839 1.3199171
-2.9311249 24.511175 0
-2.6626844 22.266375 1.2525756
-2.8989398 23.996065 0
-2.6936381 22.296675 1.2544624
-2.9206824 23.933136 0
-2.7212076 22.298567 1.2547529
-2.9460962 23.901175 0
-2.7456059 22.274632 1.2535918
-2.9685452 23.845955 0
-2.4669421 19.816641 1.1154257
-2.9850214 23.744234 0
-2.4957469 19.85232 1.1176029
-2.9907682 23.559889 0
-2.5305309 19.934353 1.1223924
-3.0050075 23.445267 0
-2.5651855 20.013746 1.1270363
-3.0186393 23.328056 0
-2.5963688 20.064747 1.1300842
-3.0340157 23.226334 0
-2.6243138 20.089939 1.1316807
-3.0471098 23.109135 0
-2.6533415 20.122814 1.1337124
-3.0650742 23.030624 0
-2.6783404 20.12475 1.134003
-1.6536322 12.368063 0
-2.6150887 19.559114 1.102219
-1.6626595 12.322213 0
-2.6686001 19.777386 1.1147002
-1.6761428 12.30988 0
-2.7054663 19.869408 1.1200702
-1.6888896 12.292372 0
-2.7301793 19.871267 1.1203601
-1.6998115 12.261972 0
-1.6867068 12.167439 0.68612576
-1.7110209 12.234131 0
-1.695649 12.124218 0.6838035
-1.7196218 12.188249 0
-0 0 0
-1.7321482 12.170708 0
-0 0 0
-1.748332 12.17891 0
-0 0 0
-1.7619275 12.169059 0
-0 0 0
-1.7815182 12.200397 0
-0 0 0
-1.798154 12.211106 0
-1.7800956 12.088472 0.68249738
-1.8155836 12.226947 0
-1.7947009 12.086312 0.68249738
-1.8315127 12.232468 0
-1.8085332 12.078991 0.68220681
-1.845126 12.222524 0
-1.824291 12.084507 0.6826424
-1.8602844 12.222856 0
-1.8396741 12.087437 0.68293297
-1.8762364 12.228318 0
-1.8538828 12.082629 0.68278742
-1.886237 12.195179 0
-1.869276 12.085521 0.68307793
-1.9119138 12.263078 -0.69324356
-1.9001701 12.187754 0
-1.8846775 12.088384 0.68336797
-1.9247134 12.247926 -0.692518
-1.9169149 12.1983 0
-1.9000901 12.091236 0.68365854
-1.9338211 12.209666 -0.69048631
-1.9308378 12.19083 0
-1.9163246 12.099197 0.68423909
-0 0 -0
-1.9373859 12.184525 0
-1.9228171 12.0929 0.68394852
-0 0 -0
-1.9525186 12.184743 0
-1.9386615 12.098268 0.68438405
-0 0 -0
-1.963921 12.161821 0
-1.9524508 12.090791 0.68409407
-1.9791787 12.162906 -0.68830913
-1.9794514 12.164581 0
-1.9674757 12.090985 0.68423909
-1.9896702 12.134868 -0.686858
-1.9937263 12.159605 0
-1.9825038 12.091161 0.68438405
-2.0043314 12.132455 -0.686858
-2.0130839 12.185434 0
-1.9979584 12.093879 0.68467408
-2.0198421 12.135145 -0.68714797
-2.027806 12.182993 0
-2.0138505 12.099148 0.68510962
-2.0539236 12.158415 -0.68874466
-2.0650437 12.224243 0
-2.0448146 12.104494 0.68569016
-2.0760233 12.19947 -0.69121188
-2.0763202 12.201214 0
-2.0594392 12.102015 0.68569016
-2.0907624 12.196952 -0.69121188
-3.3111639 19.31645 0
-2.0749395 12.104645 0.68598074
-2.1072669 12.204659 -0.69179243
-3.3145761 19.197033 0
-2.0882373 12.094444 0.68554521
-2.1184509 12.181624 -0.69063133
-3.3212719 19.098148 0
-2.1006238 12.079115 0.68481964
-2.1340642 12.18417 -0.69092137
-3.3245919 18.981337 0
-2.1134243 12.06633 0.68423909
-3.107033 17.613945 -0.99903697
-3.3190441 18.815849 0
-3.4703598 19.673666 1.1158613
-3.1187701 17.556454 -0.9959892
-3.3158319 18.665771 0
-3.5082166 19.74876 1.1203601
-3.1221356 17.452915 -0.99032861
-0 0 0
-3.5416851 19.79822 1.123408
-3.1298649 17.374981 -0.98612022
-3.3420157 18.552704 0
-3.2767861 18.190592 1.0324104
-3.1485367 17.358395 -0.98539412
-3.3560708 18.502563 0
-3.2931983 18.155937 1.0306687
-3.168576 17.34947 -0.98510414
-3.3662674 18.431927 0
-3.3006632 18.072712 1.0261698
-3.189537 17.345629 -0.98510414
-3.3645341 18.297314 0
-3.3069909 17.984377 1.0213803
-3.2014308 17.351368 -0.98553967
-3.3571732 18.195473 0
-3.2980547 17.875057 1.0152848
-3.2223942 17.347486 -0.98553967
-3.3639486 18.109533 0
-3.3049409 17.79187 1.0107858
-3.2452633 17.353796 -0.98612022
-3.3686061 18.013363 0
-3.3135414 17.718908 1.0068675
-3.2676704 17.357515 -0.98655528
-3.3730359 17.917206 0
-3.3181229 17.625513 1.0017875
-0 0 -0
-3.2954156 17.389303 -0.9885875
-3.3811166 17.841532 0
-3.3244205 17.542355 0.99728858
-3.3276222 17.444006 -0.9919253
-3.3851166 17.745401 0
-3.3271132 17.441338 0.99177361
-3.3565371 17.480803 -0.9942475
-3.3898714 17.654406 0
-3.3325057 17.355646 0.98712909
-3.3870237 17.5252 -0.99700475
-3.3919427 17.550652 0
-3.3460796 17.313347 0.98495245
-3.4081969 17.521093 -0.99700475
-3.3972471 17.464802 0
-3.3665013 17.306742 0.98480743
-3.4163864 17.450666 -0.99323142
-3.3978474 17.355972 0
-0 0 0
-3.4254141 17.38534 -0.98974806
-3.404227 17.277807 0
-3.4063058 17.288359 0.98422688
-3.4322691 17.309832 -0.98568469
-3.4195328 17.245598 0
-3.4271929 17.284229 0.98422688
-3.4445388 17.262354 -0.98321748
-0 0 0
-3.4511249 17.295361 0.98509747
-0 0 -0
-0 0 0
-3.4725316 17.293724 0.98524243
-0 0 -0
-3.4763558 17.205036 0
-3.4944553 17.294613 0.985533
-3.4962192 17.196283 -0.98016965
-3.4986963 17.208467 0
-3.5163844 17.295467 0.98582298
-3.5149119 17.181864 -0.9795891
-3.5205309 17.209332 0
-3.5393631 17.301388 0.98640358
-3.5356703 17.177605 -0.9795891
-3.5418468 17.207611 0
-3.5623612 17.30728 0.98698413
-3.5611653 17.196217 -0.98089522
-3.5663309 17.221161 0
-3.584326 17.308056 0.98727465
-3.58936 17.22751 -0.98292691
-3.5887299 17.224485 0
-3.6047053 17.301161 0.98712909
-3.6096408 17.220619 -0.98278189
-3.6084707 17.215036 0
-3.6277401 17.306965 0.9877097
-3.6227167 17.231148 -0.98350745
-3.6199424 17.217953 0
-3.6392658 17.309862 0.98800021
-3.6467617 17.242016 -0.98437858
-3.6450505 17.233925 0
-3.6623294 17.31562 0.98858076
-3.6665101 17.23251 -0.984088
-3.672914 17.262608 0
-3.6843297 17.316261 0.9888708
-3.6895049 17.23823 -0.98466855
-3.700304 17.288685 0
-3.7068825 17.319422 0.98930633
-3.7212691 17.284563 -0.98757136
-3.7239316 17.29693 0
-3.7288995 17.320005 0.98959637
-3.7454503 17.295288 -0.98844194
-3.7453792 17.294958 0
-3.7509255 17.32057 0.98988688
-3.7707698 17.31106 -0.98960304
-3.7640584 17.280249 0
-3.7729564 17.321098 0.99017692
-3.7922397 17.309027 -0.98974806
-3.7854919 17.278229 0
-3.796665 17.329226 0.99090302
-3.8131514 17.304432 -0.98974806
-3.8114064 17.296513 0
-3.8170404 17.322081 0.99075747
-3.8351831 17.304892 -0.99003857
-3.833993 17.29952 0
-3.8413424 17.332682 0.99162859
-3.8600478 17.318001 -0.99105471
-3.8526285 17.284714 0
-3.8611512 17.32295 0.99133801
-3.8832438 17.323465 -0.99163526
-3.8757877 17.290203 0
-3.8854911 17.33349 0.99220914
-3.9036 17.316219 -0.99148971
-3.8978202 17.290581 0
-3.9064324 17.328783 0.99220914
-3.9262443 17.319094 -0.9919253
-3.9204364 17.293476 0
-3.9302399 17.33672 0.9929347
-3.9465911 17.311806 -0.99178028
-3.944221 17.301411 0
-3.9534953 17.342091 0.99351525
-3.9675062 17.307026 -0.99178028
-3.9651237 17.296631 0
-3.9756069 17.342361 0.99380523
-3.987247 17.29715 -0.99148971
-3.9871907 17.296906 0
-3.9971421 17.340075 0.99395025
-4.0057974 17.282194 -0.99090916
-4.0033865 17.271791 0
-4.0175052 17.332705 0.99380523
-4.0296273 17.290001 -0.99163526
-4.0242529 17.266943 0
-4.0413938 17.340488 0.9945308
-4.0528851 17.295229 -0.99221528
-4.0445209 17.259535 0
-4.0629377 17.338129 0.99467635
-4.0743775 17.292856 -0.99236083
-4.070147 17.2749 0
-4.0850754 17.338261 0.99496639
-4.0988622 17.303087 -0.99323142
-4.0928154 17.277561 0
-4.1078196 17.3409 0.99540192
-4.1063132 17.28797 -0.99250585
-4.1032529 17.275085 0
-4.1224971 17.356104 0.99641746
-4.1229744 17.265301 -0.99148971
-4.1259375 17.27771 0
-4.1428628 17.348585 0.9962725
-4.1468654 17.272938 -0.99221528
-4.1468115 17.272713 0
-4.1674628 17.358732 0.99714363
-4.1665149 17.262867 -0.9919253
-4.1676788 17.267689 0
-4.1896524 17.35873 0.9974336
-4.1800184 17.227518 -0.99018359
-4.1891537 17.265167 0
-4.2118506 17.358711 0.99772418
-4.2045274 17.237606 -0.99105471
-4.2100124 17.260094 0
-4.2359004 17.366228 0.99844974
-4.2247319 17.229982 -0.99090916
-4.2314839 17.257519 0
-4.2581172 17.36614 0.99873972
-4.2744808 17.252508 -0.99279583
-4.2738037 17.249777 0
-4.3038225 17.370937 0.99961084
-4.2990928 17.262465 -0.99366695
-4.299675 17.264803 0
-4.3254361 17.368242 0.99975586
-4.3224716 17.26734 -0.9942475
-4.3192677 17.254539 0
-4.3483129 17.370569 1.0001915
-4.3433328 17.262104 -0.9942475
-4.3432879 17.261925 0
-4.3705654 17.370337 1.0004814
-4.3711934 17.284546 -0.99584365
-4.3698845 17.279369 0
-4.3928261 17.370087 1.000772
-4.3946362 17.289326 -0.9964242
-4.3933244 17.284166 0
-4.4163718 17.37484 1.0013525
-4.4213114 17.30666 -0.99773031
-4.4148517 17.281374 0
-4.4380054 17.372005 1.0014975
-4.4448047 17.311371 -0.99831086
-4.4396119 17.291147 0
-4.4596381 17.369144 1.0016425
-4.4618244 17.290897 -0.99744028
-4.4631028 17.295849 0
-4.4819198 17.368771 1.0019325
-4.4827142 17.285492 -0.99744028
-4.4853034 17.295477 0
-4.5055122 17.373404 1.0025131
-4.4976997 17.257437 -0.99613416
-4.5121074 17.312717 0
-4.5291224 17.378004 1.0030936
-4.5297403 17.294718 -0.99860144
-4.5336819 17.309769 0
-4.552093 17.380062 1.0035292
-4.5454593 17.312056 0
-4.5645723 17.384851 1.0039648
-4.565711 17.304037 0
-4.5888896 17.391884 1.0046903
-4.5859499 17.295994 0
-4.6118994 17.393864 1.0051259
-4.6034956 17.277868 0
-4.6335812 17.390787 1.0052708
-3.6060662 13.468872 0
-4.6566081 17.392708 1.0057064
-3.6135495 13.431836 0
-4.6782947 17.389574 1.0058514
-3.6320796 13.43598 -0.77741998
-3.6202672 13.392282 0
-4.7006578 17.388922 1.0061414
-3.6401408 13.4015 -0.77567887
-3.6330364 13.375343 0
-4.7250733 17.395775 1.0068675
-3.6433318 13.349461 -0.77292109
-3.6471388 13.36341 0
-4.7488232 17.40007 1.0074475
-3.6491537 13.307467 -0.77074444
-3.6564021 13.333899 0
-4.7732821 17.406857 1.0081736
-3.6541872 13.262966 -0.76842219
-3.6725109 13.329472 0
-4.7936192 17.398563 1.008028
-3.6591187 13.218472 -0.76609999
-0 0 0
-4.818799 17.407789 1.0088992
-3.6583779 13.153959 -0.76261663
-0 0 0
-4.8419189 17.409466 1.0093348
-3.6644807 13.114497 -0.76058495
-0 0 0
-4.8650475 17.411104 1.0097698
-3.6690874 13.070032 -0.75826269
-0 0 0
-4.8881893 17.41272 1.0102053
-3.6721828 13.020578 -0.75565046
-0 0 0
-4.9085207 17.404303 1.0100603
-3.6765795 12.97613 -0.75332826
-0 0 0
-4.9309621 17.403355 1.0103503
-3.6787419 12.924202 -0.75057101
-0 0 0
-4.9534116 17.402386 1.0106409
-3.680068 12.869781 -0.74766821
-0 0 0
-4.9744353 17.396389 1.0106409
-3.6742399 12.820093 -0.74491042
-0 0 0
-4.9856596 17.395876 1.0107858
-3.6803827 12.783185 -0.74302375
-3.6870351 12.806292 0
-5.0059571 17.387344 1.0106409
-3.6835539 12.736297 -0.74055654
-3.6482794 12.614331 0
-5.0377893 17.418716 1.0128175
-3.6866171 12.68942 -0.73808932
-3.6606145 12.599917 0
-5.0624571 17.425091 1.0135431
-3.688118 12.637569 -0.73533207
-3.670732 12.577994 0
-5.0878773 17.433933 1.0144142
-3.6931531 12.598199 -0.73330039
-0 0 0
-5.1089392 17.427773 1.0144142
-3.6973624 12.556335 -0.73112315
-0 0 0
-5.1307268 17.424076 1.0145593
-3.7014759 12.514481 -0.72894591
-0 0 0
-5.1547246 17.427832 1.0151398
-3.7017972 12.460192 -0.7260437
-3.6862738 12.40794 0
-5.1794782 17.434042 1.0158653
-3.7064466 12.420845 -0.72401148
-3.6871238 12.356091 0
-5.2005401 17.427771 1.0158653
-0 0 -0
-3.7110093 12.381516 -0.7219798
-3.6908453 12.31424 0
-5.2268171 17.4389 1.0168815
-3.7109864 12.32726 -0.71907699
-3.6937187 12.269899 0
-5.2501326 17.440039 1.0173171
-3.7153518 12.28795 -0.71704531
-3.698751 12.233045 0
-5.2757125 17.448601 1.0181875
-3.7196276 12.248648 -0.71501368
-3.7036994 12.196197 0
-5.2975464 17.444698 1.0183326
-3.724571 12.211836 -0.71312696
-3.7055271 12.149397 0
-5.3201385 17.44326 1.0186231
-3.7248633 12.160119 -0.71036917
-3.708009 12.105097 0
-5.3419714 17.439301 1.0187681
-3.727329 12.115872 -0.70804697
-3.7073281 12.050858 0
-5.3599834 17.422899 1.0181875
-3.7273941 12.064197 -0.70528972
-3.7103651 12.009079 0
-5.3802652 17.413929 1.0180426
-3.7311895 12.024944 -0.70325804
-3.7148473 11.972277 0
-3.8551252 12.424366 0.72661757
-3.7348924 11.985691 -0.70122582
-3.7153759 11.92306 0
-3.8685873 12.414733 0.726327
-3.7274189 11.936314 -0.69846857
-3.7093885 11.878575 0
-3.876087 12.412394 0.726327
-3.729398 11.892131 -0.69614637
-3.7128377 11.839323 0
-5.4795198 17.472837 1.022832
-3.7304964 11.845485 -0.69367915
-3.7224514 11.81994 0
-5.5053101 17.48107 1.0237026
-3.7401068 11.826108 -0.69280857
-3.7257428 11.780689 0
-5.5248599 17.469444 1.023412
-3.7449553 11.791862 -0.69106692
-3.7368267 11.766267 0
-5.5451784 17.460283 1.023267
-3.7520959 11.76505 -0.6897608
-0 0 0
-5.5686412 17.460999 1.0237026
-0 0 -0
-3.7358825 11.6655 0
-5.5929055 17.464155 1.0242832
-3.766196 11.711417 -0.68714797
-3.7523632 11.668403 0
-5.6171851 17.467279 1.0248637
-3.7715633 11.679665 -0.68555188
-3.7704604 11.67625 0
-5.6406832 17.467901 1.0252993
-3.7968922 11.709699 -0.68758357
-3.7829592 11.66673 0
-5.6649914 17.470959 1.0258799
-3.7716205 11.584037 -0.68047184
-3.8840671 11.929401 0
-5.6885085 17.471506 1.0263149
-3.7953041 11.609109 -0.68221354
-3.9421439 12.058263 0
-5.7128453 17.474499 1.0268954
-3.8404286 11.651726 -0.68526131
-4.0079322 12.159925 0
-5.7607522 17.477921 1.0279115
-4.0218577 12.152763 -0.71501368
-4.0357046 12.194605 0
-5.7786012 17.461079 1.027331
-4.0545635 12.20214 -0.71820647
-0 0 0
-5.7964177 17.444221 1.0267503
-4.0742369 12.212016 -0.71907699
-4.0692797 12.197158 0
-5.8166699 17.434742 1.0266054
-4.0889897 12.207085 -0.71907699
-4.0873213 12.202104 0
-5.8336062 17.415384 1.0258799
-4.0987682 12.187363 -0.71820647
-3.7768769 11.230243 0
-5.8662395 17.442799 1.0279115
-4.1209722 12.204556 -0.71951258
-3.783783 11.205946 0
-5.8964534 17.46277 1.0295076
-4.1332126 12.192183 -0.71907699
-3.7806127 11.152081 0
-5.9267268 17.482706 1.0311043
-4.145432 12.179807 -0.718642
-3.7882144 11.130256 0
-5.9520326 17.487827 1.0318298
-4.1645303 12.211726 -0.72067368
-3.7806585 11.086093 0
-5.9659514 17.494066 1.0324104
-4.1818085 12.214063 -0.72110921
-3.7881494 11.064279 0
-5.9896111 17.494223 1.032846
-4.1974072 12.211456 -0.72125423
-3.7862899 11.015397 0
-6.0115891 17.489428 1.0329909
-4.2087688 12.19655 -0.72067368
-3.7792225 10.951771 0
-6.0361075 17.491976 1.0335715
-4.2362595 12.228278 -0.72285032
-4.2379823 12.23325 0
-6.0597916 17.492039 1.0340071
-4.2518878 12.225612 -0.72299594
-4.2519064 12.225664 0
-6.0843368 17.49452 1.0345876
-4.2632308 12.210652 -0.72241533
-4.2606697 12.203317 0
-6.1106086 17.501871 1.0354582
-4.2745442 12.195683 -0.72183478
-4.2840219 12.222724 0
-6.1334724 17.499384 1.0357487
-4.2978997 12.215016 -0.72328591
-0 0 0
-6.1580625 17.501764 1.0363293
-4.3135209 12.212262 -0.72343093
-4.3074789 12.195156 0
-6.1843958 17.509007 1.0371999
-4.3282738 12.207041 -0.72343093
-4.3239489 12.194843 0
-6.2081537 17.508871 1.0376354
-4.3430204 12.201802 -0.72343093
-4.3474092 12.214132 0
-6.2301755 17.503801 1.0377804
-4.3673787 12.223464 -0.72502756
-4.3604116 12.203964 0
-6.253068 17.50115 1.0380704
-4.3882866 12.235302 -0.7260437
-4.3725214 12.191344 0
-6.2785988 17.505819 1.0387965
-4.3942637 12.205538 -0.72459203
-4.3916559 12.198294 0
-6.3015051 17.503103 1.0390866
-4.4098945 12.20267 -0.72473758
-4.4108138 12.205214 0
-6.3270645 17.507694 1.0398121
-4.4281802 12.207103 -0.72531813
-4.4282212 12.207217 0
-6.3490996 17.502476 1.039957
-4.4464793 12.211501 -0.72589815
-4.4438577 12.2043 0
-6.3693552 17.492353 1.0398121
-4.4532042 12.184156 -0.72459203
-4.4577084 12.19648 0
-6.3860278 17.472443 1.0390866
-4.4571838 12.149493 -0.72285032
-4.4822993 12.217954 0
-7.1749606 19.557671 1.1636097
-4.4763532 12.156298 -0.72357649
-4.4988594 12.217418 0
-7.1949954 19.539234 1.1630292
-4.4971843 12.190151 -0.72575313
-4.5035367 12.207371 0
-7.2023029 19.522696 1.1623037
-4.4947691 12.138417 -0.72299594
-4.5146689 12.192158 0
-7.68153 20.744473 1.2355951
-4.4904232 12.081831 -0.71994811
-4.5375566 12.208647 0
-7.7038765 20.727877 1.2351601
-3.8357084 10.282207 -0.61298549
-4.5604906 12.225098 0
-7.7307315 20.723417 1.23545
-3.8399301 10.255666 -0.61167938
-4.5761743 12.222023 0
-7.0578694 18.850122 1.1242791
-3.8523192 10.251019 -0.61167938
-4.5946007 12.226229 0
-7.077898 18.834282 1.1238436
-3.8628707 10.241499 -0.6113894
-4.6029401 12.203621 0
-7.0795617 18.769802 1.1205057
-3.8826022 10.256265 -0.6125505
-4.6278152 12.224816 0
-6.8492618 18.092979 1.0805944
-3.8765342 10.202986 -0.60964769
-4.6499777 12.238678 0
-6.8821931 18.113838 1.0823362
-4.6720667 12.252206 -0.73242927
-0 0 0
-6.9420295 18.205042 1.0882862
-4.6822248 12.23442 -0.7317037
-4.6720986 12.20796 0
-7.0401783 18.395634 1.1001873
-4.6951394 12.223897 -0.73141319
-4.6877818 12.204742 0
-7.081965 18.438051 1.1032351
-4.7099061 12.218215 -0.73141319
-4.7128196 12.225774 0
-7.111712 18.448868 1.1043956
-4.7302928 12.22706 -0.73228431
-4.7238326 12.210361 0
-7.1311889 18.432997 1.1039606
-4.7460032 12.223756 -0.73242927
-4.740469 12.209502 0
-7.9537592 20.485619 1.2274678
-4.7626581 12.222859 -0.73271984
-4.7589974 12.213465 0
-7.9671855 20.446939 1.2257261
-4.7802601 12.224349 -0.73315483
-4.7756457 12.212548 0
-7.9966164 20.449396 1.2264518
-4.7931304 12.213731 -0.73286486
-4.7970548 12.22373 0
-7.4271197 18.925592 1.1355991
-4.8250222 12.251444 -0.73547709
-4.8204031 12.239716 0
-7.4528394 18.923861 1.1360347
-4.300221 10.880319 -0.65347731
-4.8342333 12.231464 0
-7.4737916 18.910013 1.1357447
-4.3057041 10.855802 -0.65231675
-4.8461294 12.218354 0
-7.4851389 18.871984 1.134003
-4.2825174 10.778337 -0.64781731
-4.8592782 12.22994 0
-7.4955769 18.865036 1.1338575
-0 0 -0
-4.875978 12.22889 0
-7.53088 18.88735 1.1357447
-0 0 -0
-4.8907504 12.222989 0
-7.5450058 18.856518 1.134438
-0 0 -0
-4.902606 12.209824 0
-7.557137 18.820869 1.1328419
-0 0 -0
-4.9183311 12.206311 0
-7.977046 19.797428 1.192201
-0 0 -0
-3.8405037 9.4982367 0
-8.0866699 19.999748 1.2049721
-0 0 -0
-3.8461049 9.4791155 0
-7.6448503 18.841509 1.1357447
-0 0 -0
-3.8349867 9.4190292 0
-7.6656494 18.827438 1.1354542
-4.333436 10.606547 -0.63998002
-3.843411 9.4071589 0
-7.6608758 18.750811 1.1313902
-4.3413215 10.589285 -0.63925445
-3.8350308 9.3543482 0
-7.6785994 18.729521 1.1306647
-4.3373084 10.543182 -0.63678724
-3.8433633 9.342494 0
-7.7012248 18.72023 1.1306647
-4.3262529 10.480298 -0.63330448
-3.8427327 9.3089762 0
-7.7159066 18.691696 1.1295036
-0 0 -0
-3.8562291 9.2780361 0
-7.7780075 18.713783 1.1319708
-4.3422089 10.411781 -0.6301111
-3.8464015 9.2229309 0
-7.8646255 18.857859 1.1412597
-4.3487697 10.392149 -0.62924057
-3.8485019 9.1966715 0
-8.0278292 19.183908 1.1615782
-4.3502569 10.360531 -0.62764388
-3.8626311 9.1992064 0
-8.0499945 19.171791 1.1614325
-0 0 -0
-3.8585901 9.1585646 0
-8.1034222 19.233894 1.165787
-0 0 -0
-3.8595183 9.12992 0
-8.1064215 19.17622 1.1628842
-0 0 -0
-3.8624172 9.106082 0
-8.1082792 19.116179 1.1598364
-0 0 -0
-5.2318482 12.293328 0
-7.7650757 18.245678 1.107589
-0 0 -0
-5.2415895 12.275032 0
-7.8095641 18.288851 1.1107818
-0 0 -0
-5.2387681 12.247931 0
-7.8144789 18.269791 1.1099107
-0 0 -0
-5.2586942 12.253548 0
-7.8345008 18.255564 1.1096207
-4.3689537 10.146472 -0.6170494
-5.267323 12.232847 0
-7.8801861 18.30097 1.1129584
-0 0 -0
-3.8217044 8.846097 0
-8.1588821 18.885361 1.1490964
-0 0 -0
-3.8292882 8.8343163 0
-8.20753 18.935089 1.1527247
-0 0 -0
-3.8389192 8.8272896 0
-8.2480192 18.965664 1.155192
-0 0 -0
-3.8443794 8.8107195 0
-8.2813234 18.979504 1.1566436
-0 0 -0
-3.8675468 8.8346767 0
-8.3052912 18.971863 1.1567887
-3.861455 8.7918291 -0.53635633
-3.8688009 8.8085546 0
-8.3094025 18.918993 1.1541765
-3.8741689 8.7919073 -0.53664631
-3.8720946 8.7872 0
-8.3437786 18.935089 1.1557726
-0 0 -0
-5.4368849 12.297991 0
-8.3550978 18.898857 1.1541765
-3.8817091 8.7516432 -0.53475964
-3.8838229 8.7564087 0
-8.7203093 19.660679 1.2013444
-3.85531 8.6638632 -0.52968019
-5.4824562 12.320475 0
-8.7366638 19.633507 1.2003282
-0 0 -0
-5.4835482 12.28295 0
-8.7593222 19.620565 1.2001833
-3.8741095 8.6497736 -0.52938962
-5.5026407 12.285816 0
-8.8085108 19.666874 1.2036661
-3.9026623 8.6853762 -0.53185683
-5.5228138 12.291025 0
-8.8556957 19.708355 1.2068589
-4.4855027 9.9503107 -0.60964769
-5.5280366 12.262992 0
-8.9222174 19.792397 1.2126645
-4.4825344 9.9117422 -0.60761601
-5.5535717 12.280012 0
-9.0114355 19.926012 1.2215172
-4.4981699 9.9303322 -0.60892212
-5.5566945 12.267172 0
-9.0352678 19.946602 1.2231139
-4.4961915 9.8941393 -0.60703546
-5.5898156 12.300725 0
-9.0765629 19.97352 1.2254361
-4.5027547 9.8768797 -0.60630989
-5.6003604 12.284499 0
-9.1179361 20.000368 1.2277584
-4.5168452 9.876153 -0.60659993
-5.6195254 12.287181 0
-9.1280432 19.958611 1.2258711
-4.5190244 9.8494349 -0.60529381
-5.6365404 12.285117 0
-8.8379316 19.262705 1.1837832
-4.5211449 9.8227262 -0.60398769
-5.6492023 12.273564 0
-8.9035683 19.344061 1.1894432
-4.5308299 9.8125334 -0.60369712
-5.6629386 12.264369 0
-8.923666 19.32621 1.1890076
-4.5437784 9.8094158 -0.60384268
-5.6985373 12.302388 0
-8.9306326 19.280054 1.186831
-4.5567217 9.8062725 -0.60398769
-5.7112026 12.290769 0
-8.9604902 19.283382 1.1877016
-4.5685673 9.8007593 -0.60398769
-5.722754 12.276789 0
-8.9343863 19.166571 1.1811709
-4.5793066 9.792881 -0.60384268
-5.7364783 12.267501 0
-8.8937016 19.019245 1.1727532
-4.5867224 9.7779303 -0.60326213
-5.771194 12.302976 0
-8.8946056 18.961435 1.1698503
-4.597424 9.7700233 -0.60311657
-5.7871623 12.298346 0
-9.385479 19.945158 1.2312411
-0 0 -0
-4.6125546 9.771513 -0.6035521
-5.8075719 12.303109 0
-9.4129 19.940855 1.2316767
-4.6321435 9.7823734 -0.60456824
-5.8591871 12.373701 0
-9.4314289 19.917727 1.2309512
-4.6383867 9.7650366 -0.60384268
-5.841753 12.298442 0
-0 0 0
-4.6479449 9.7547283 -0.6035521
-5.8566093 12.291374 0
-9.2492962 19.411669 1.2010539
-4.6608477 9.7514477 -0.60369712
-5.8748245 12.291335 0
-15.954238 33.379532 2.0664754
-4.6737537 9.7481585 -0.60384268
-0 0 0
-15.976589 33.32275 2.0641539
-4.6889043 9.7495222 -0.60427767
-3.9284105 8.1682463 0
-15.995442 33.258926 2.0613961
-4.7074575 9.7578964 -0.60514879
-0 0 0
-16.042389 33.253613 2.0622666
-4.7144814 9.7573881 -0.60529381
-0 0 0
-16.076042 33.271988 2.0640082
-4.721735 9.7423306 -0.60471326
-0 0 0
-9.3440981 19.279629 1.1967
-4.7437272 9.7576485 -0.60601938
-0 0 0
-9.3821554 19.298702 1.1985866
-4.74754 9.7355585 -0.60500324
-0 0 0
-0 0 0
-4.7638674 9.739152 -0.60558379
-3.9139993 8.0016994 0
-0 0 0
-4.7779231 9.7380581 -0.60587436
-3.9500279 8.0506954 0
-0 0 0
-4.7988648 9.7509289 -0.60703546
-0 0 0
-0 0 0
-4.8152447 9.7544432 -0.60761601
-0 0 0
-16.107304 32.629242 2.0325148
-4.8224154 9.7393036 -0.60703546
-0 0 0
-0 0 0
-4.8376441 9.7404451 -0.60747045
-0 0 0
-0 0 0
-4.8424602 9.7206421 -0.60659993
-3.9312947 7.8915892 0
-0 0 0
-4.8774314 9.7612724 -0.60950267
-3.9466424 7.8984714 0
-0 0 0
-4.8973684 9.7716255 -0.61051828
-3.9608476 7.9030032 0
-0 0 0
-5.0095377 9.9653559 -0.62299997
-3.9423406 7.8424063 0
-0 0 0
-5.0859146 10.0869 -0.63098222
-0 0 0
-7.7097402 15.290736 0.95650619
-5.0291691 9.9146833 -0.62096775
-0 0 0
-7.7666512 15.311453 0.95897347
-5.0164027 9.8599672 -0.61791992
-0 0 0
-16.050304 31.547598 1.9770746
-5.0424857 9.8816729 -0.61966163
-3.9825535 7.8045411 0
-16.074238 31.500406 1.9753329
-3.962955 7.743011 -0.48585001
-0 0 0
-16.120571 31.497147 1.9763485
-3.9581501 7.7221165 -0.48468888
-0 0 0
-15.295736 29.841076 1.8730147
-4.9998474 9.7254391 -0.61080879
-5.138844 9.9958076 0
-15.32703 29.81333 1.8724341
-5.0080214 9.7124596 -0.61037326
-0 0 0
-15.357089 29.783243 1.8717086
-5.0209455 9.7087069 -0.61051828
-3.9735274 7.6833763 0
-15.388291 29.755432 1.8711281
-5.045835 9.7280083 -0.61211491
-0 0 0
-15.427824 29.743738 1.8715637
-3.9807513 7.651968 -0.48178664
-3.9740663 7.6391177 0
-15.466148 29.729681 1.8718536
-3.9767711 7.621809 -0.48018998
-3.9748654 7.6181569 0
-15.502059 29.710972 1.8718536
-3.9775431 7.6008801 -0.47917387
-5.1749787 9.8891182 0
-15.540359 29.696829 1.8721442
-5.1652422 9.841547 -0.62082273
-5.1893406 9.8874626 0
-15.594341 29.712534 1.8743209
-5.1480865 9.7801228 -0.61733997
-5.196435 9.871973 0
-15.621762 29.677582 1.8733053
-5.15626 9.7670002 -0.61690438
-5.214438 9.8772011 0
-15.656394 29.65638 1.8731598
-5.1267195 9.6826887 -0.61196995
-5.2141886 9.8478889 0
-15.666684 29.589218 1.8701119
-5.1847224 9.76369 -0.61748493
-3.9531035 7.4443479 0
-15.724364 29.61158 1.8727248
-0 0 -0
-3.9669843 7.4487453 0
-0 0 0
-4.0221066 7.530303 -0.47685218
-3.9772115 7.446249 0
-0 0 0
-3.9894879 7.4475646 -0.47191772
-3.9886613 7.4460216 0
-0 0 0
-3.9997125 7.4450254 -0.47206274
-3.9927287 7.4320259 0
-0 0 0
-3.9932089 7.4114256 -0.93836105
-4.0000768 7.4241719 -0.4710466
-5.3200107 9.8739796 0
-0 0 0
-3.9861732 7.377007 -0.93461245
-4.0139856 7.4284778 -0.47162718
-5.3047214 9.8171768 0
-0 0 0
-4.0140185 7.4178205 -0.9400903
-4.0172372 7.423768 -0.47148216
-5.3279896 9.8460102 0
-0 0 0
-4.0143414 7.3970494 -0.93807197
-4.0187654 7.4052014 -0.47061107
-5.3498135 9.8578644 0
-0 0 0
-4.0257516 7.3967414 -0.93864906
-4.0078402 7.363832 -0.46828938
-5.3604779 9.8491087 0
-0 0 0
-4.0284915 7.3805223 -0.93720788
-5.3338003 9.7719536 -0.62183887
-5.3686328 9.8357697 0
-0 0 0
-4.0249848 7.3529568 -0.93432444
-4.0081544 7.3222103 -0.46625715
-5.3705163 9.8110123 0
-0 0 0
-4.0313797 7.3435578 -0.93374836
-4.0032477 7.2923126 -0.46466103
-5.4061637 9.8478642 0
-0 0 0
-4.0265269 7.3137555 -0.93057692
-4.0183206 7.2988496 -0.4653866
-5.4293542 9.8618402 0
-0 0 0
-4.0228624 7.2862463 -0.9276945
-4.0208583 7.2826171 -0.46466103
-5.4349732 9.8438749 0
-16.447659 29.790155 1.9007349
-4.0191321 7.2587481 -0.92481107
-4.0145512 7.2504745 -0.46291935
-5.4216552 9.7917738 0
-16.520142 29.836182 1.9049437
-3.9804225 7.1683841 -0.45798489
-5.4397988 9.7965899 0
-16.535999 29.77985 1.9026215
-4.0194216 7.2180538 -0.46146825
-0 0 0
-16.58082 29.775742 1.9036376
-4.0319371 7.2199917 -0.46190324
-0 0 0
-16.642124 29.80106 1.9065404
-3.9835298 7.1131043 -0.45537266
-4.0027952 7.1475048 0
-16.71113 29.83987 1.9103137
-4.0315623 7.1785126 -0.45987156
-3.9795702 7.085937 0
-16.214067 28.870419 1.8495035
-4.0096297 7.1192985 -0.45638821
-4.0545344 7.199029 0
-16.259142 28.868919 1.8506646
-4.0282378 7.1321692 -0.91299242
-4.0335636 7.1415987 -0.45812988
-0 0 0
-16.26462 28.797211 1.8473263
-4.0191417 7.0960269 -0.45551765
-5.5570903 9.8113642 0
-16.264832 28.716497 1.843408
-4.0366926 7.1069746 -0.45653322
-5.6152134 9.8861084 0
-16.286682 28.674225 1.8419563
-5.6077628 9.8452702 -0.63286889
-5.5910888 9.8159971 0
-16.293026 28.604856 1.8387635
-5.5835686 9.7753105 -0.62880498
-4.0140576 7.027524 0
-16.312113 28.558073 1.8370218
-4.0052524 7.0022821 -0.45058319
-3.9898777 6.9754028 0
-16.319046 28.530178 1.8358612
-4.0085392 6.9884214 -0.45000264
-4.0008907 6.9750872 0
-16.344456 28.494658 1.8348452
-4.0260968 6.9994221 -0.90001959
-4.015686 6.9813228 -0.44985765
-5.6610966 9.8418903 0
-16.345192 28.41633 1.8310719
-4.0138741 6.9587045 -0.8954069
-4.016326 6.962956 -0.44898653
-5.6638856 9.8192692 0
-0 0 0
-4.0248718 6.9583316 -0.89598399
-4.0182328 6.9468536 -0.44826096
-5.6965952 9.8484621 0
-8.7042656 15.048223 0.97101963
-5.675786 9.7851877 -0.63185281
-5.7097955 9.8438215 0
-8.7094078 15.015223 0.96956849
-5.6993623 9.7985353 -0.63315892
-5.7072906 9.8121672 0
-8.7366858 15.020404 0.97058403
-5.7177472 9.8028708 -0.63388503
-5.7361875 9.834486 0
-8.7692308 15.034529 0.97218072
-4.026834 6.8847332 -0.44550318
-5.7441282 9.8208151 0
-8.7821426 15.01495 0.97160017
-4.0259514 6.8641796 -0.44448763
-5.7480879 9.8003931 0
-8.7976522 14.999849 0.9713102
-4.0355587 6.8615475 -0.44463262
-5.7810354 9.8293333 0
-8.3468285 14.191879 0.91964275
-5.7676973 9.7795935 -0.634175
-5.8048058 9.842514 0
-8.3877335 14.222075 0.92225552
-4.0287466 6.8122387 -0.882146
-5.7993522 9.8061686 -0.63635224
-5.8127184 9.8287706 0
-8.4168148 14.232057 0.92356163
-5.8138447 9.8036194 -0.63664222
-5.8365364 9.8418837 0
-8.4326811 14.219644 0.92341667
-5.8150616 9.7787209 -0.63548112
-5.8444376 9.8281202 0
-0 0 0
-5.8321962 9.7806139 -0.63606167
-5.8469772 9.8054018 0
-8.5069418 14.266172 0.92777056
-5.8360114 9.7601833 -0.63519114
-5.8481359 9.7804604 0
-8.5508385 14.300478 0.93067276
-5.8651695 9.782094 -0.63707781
-5.8733349 9.7957115 0
-8.549408 14.258941 0.92864114
-4.0414467 6.7220078 -0.43810147
-5.9146662 9.8376732 0
-0 0 0
-5.9075718 9.7990417 -0.63910949
-5.9332657 9.8416605 0
-0 0 0
-4.0462651 6.6842155 -0.87090343
-5.9293604 9.7949886 -0.63954502
-5.9457026 9.8219852 0
-0 0 0
-4.0476298 6.6682682 -0.86946225
-5.9438853 9.7922554 -0.63983506
-5.9670205 9.830369 0
-0 0 0
-5.9611173 9.7939453 -0.64041561
-5.9788942 9.8231516 0
-0 0 0
-5.9688845 9.7800789 -0.63998002
-5.9880447 9.8114729 0
-0 0 0
-5.9834127 9.7772961 -0.64027059
-5.9876709 9.784255 0
-0 0 0
-5.9965801 9.7722721 -0.64041561
-4.0327382 6.5719151 0
-8.9631176 14.606664 0.95723236
-6.0111098 9.7694502 -0.64070612
-4.0420384 6.569252 0
-8.9630594 14.567055 0.95534569
-4.0564833 6.5749149 -0.86110204
-6.0638385 9.8285179 -0.64506006
-6.073658 9.8444338 0
-8.9779234 14.551786 0.95505512
-4.0494604 6.5458193 -0.85793161
-6.0716071 9.8145523 -0.64462447
-6.088284 9.8415098 0
-9.007802 14.560814 0.95636123
-6.0766144 9.7961702 -0.64389896
-6.1001711 9.8341465 0
-9.0295 14.556545 0.95679677
-6.0939364 9.7976465 -0.64447951
-6.1148009 9.831192 0
-9.0470819 14.545625 0.95679677
-6.1043968 9.7880735 -0.6443345
-6.1252999 9.8215904 0
-9.0673981 14.539088 0.9570868
-6.1189718 9.7850924 -0.64462447
-6.1357789 9.8119688 0
-9.0532761 14.477455 0.953749
-6.1280327 9.7732935 -0.6443345
-6.1379566 9.7891197 0
-16.460875 26.252625 1.7307853
-6.1370687 9.7614775 -0.64404392
-6.1553211 9.7905092 0
-8.9444065 14.226763 0.93865502
-6.1377735 9.7364702 -0.64288282
-4.0452394 6.4170418 0
-8.9740601 14.235725 0.93996114
-6.200901 9.8103132 -0.64825284
-6.2053785 9.8173971 0
-8.987093 14.218288 0.93952614
-4.0553269 6.3987141 -0.84438163
-6.2224889 9.8181791 -0.64926898
-6.2242012 9.8208809 0
-9.0000925 14.200832 0.93909061
-4.04811 6.3788009 -0.84207636
-6.2270226 9.8122177 -0.64912343
-6.2315264 9.819314 0
-16.459976 25.936771 1.7158369
-4.0572019 6.3760848 -0.84236443
-6.2374806 9.8024969 -0.64897841
-6.2531676 9.8271494 0
-16.459223 25.866449 1.7124991
-4.0412545 6.3341117 -0.83746374
-6.2521186 9.7993383 -0.64926898
-6.263639 9.8173943 0
-16.456923 25.793968 1.7090157
-4.0544801 6.3379393 -0.83861691
-6.2681513 9.798337 -0.64970398
-6.2768979 9.8120089 0
-16.482477 25.765308 1.7084352
-4.0579448 6.3265023 -0.83775175
-6.2799864 9.7907553 -0.64970398
-6.2873454 9.8022289 0
-16.493959 25.714758 1.7064035
-4.0585923 6.310719 -0.83631057
-6.2875991 9.7766104 -0.64926898
-6.2879229 9.7771139 0
-16.487068 25.635799 1.7024846
-4.0704207 6.3123341 -0.83717567
-6.2951818 9.7624521 -0.64883339
-4.0502892 6.2811141 0
-16.492687 25.576555 1.6998724
-4.065402 6.2878561 -0.83458024
-6.3323655 9.7941122 -0.65144563
-4.0635281 6.2849574 0
-16.491129 25.506418 1.696534
-4.0617414 6.2655768 -0.8322739
-6.3653984 9.8191614 -0.65362287
-6.3629613 9.815402 0
-16.500738 25.453773 1.6943574
-4.0693088 6.2606645 -0.8322739
-6.3843374 9.8223543 -0.65434843
-6.381907 9.818615 0
-16.510239 25.401134 1.6921802
-4.07546 6.2535782 -0.83198589
-6.3990359 9.8189821 -0.65463841
-6.3994498 9.8196182 0
-16.50971 25.333279 1.6889874
-6.4066353 9.8047237 -0.65420341
-6.4170046 9.8205929 0
-16.510462 25.267633 1.6859396
-6.4241738 9.8056698 -0.65478396
-6.4260111 9.8084736 0
-16.526743 25.225933 1.6844884
-6.4374428 9.8000698 -0.65492898
-6.4450006 9.8115759 0
-16.527254 25.160339 1.6814407
-6.45928 9.8074684 -0.65594453
-6.4539914 9.7994385 0
-16.540493 25.114311 1.6796989
-6.453949 9.7736444 -0.65420341
-6.4600911 9.7829466 0
-16.546486 25.057447 1.6772318
-4.068872 6.1456022 -0.41168749
-4.0267553 6.0819893 0
-16.532288 24.970276 1.6727328
-4.0705462 6.1320214 -0.41110694
-4.0341015 6.0771194 0
-16.549515 24.930799 1.6714268
-4.0560865 6.1022344 -0.81670779
-4.0541153 6.0992689 -0.40907526
-0 0 0
-16.538679 24.881842 1.6688139
-4.0648899 6.0994792 -0.8169958
-4.0672464 6.1030149 -0.40965581
-0 0 0
-16.538471 24.816433 1.6657661
-4.0636377 6.0816641 -0.81526655
-4.0327539 6.0354428 -0.40544692
-0 0 0
-16.562672 24.78779 1.6651856
-4.0623431 6.0638523 -0.81353629
-4.0631833 6.0651064 -0.40776914
-0 0 0
-16.559351 24.718113 1.6618478
-4.0566893 6.0396175 -0.81094193
-4.0734038 6.0645022 -0.40805915
-4.0293593 5.9989285 0
-6.9998398 10.421393 0.70121914
-4.0293097 5.9832225 -0.80402291
-4.060411 6.0294061 -0.40602747
-4.0351524 5.991899 0
-7.0080771 10.406468 0.70078415
-4.0553503 6.0062146 -0.80777043
-4.0284386 5.9663563 -0.40210912
-4.0249138 5.9611363 0
-7.0133772 10.387227 0.70005858
-4.0640588 6.003458 -0.80805957
-4.047298 5.9786987 -0.40327024
-4.0423279 5.9713564 0
-7.0215516 10.372288 0.69962299
-4.0393515 5.9514565 -0.80171657
-4.0793247 6.0103521 -0.40573746
-4.04808 5.9643164 0
-7.070559 10.417544 0.70325136
-4.0523601 5.9551249 -0.80286974
-4.0558867 5.9603076 -0.4026897
-4.0684595 5.9787831 0
-7.0626731 10.378914 0.70121914
-4.0639272 5.956636 -0.8037349
-4.0865169 5.9897461 -0.40501192
-4.0580797 5.9480648 0
-7.0942507 10.398283 0.70310634
-4.069663 5.9495883 -0.80344689
-4.0834808 5.969789 -0.40399578
-4.0696735 5.9496036 0
-7.0906711 10.36611 0.70150971
-4.0636845 5.9254708 -0.80085254
-4.0980377 5.975563 -0.40472135
-4.0577259 5.9167824 0
-7.1399302 10.411105 0.70513803
-4.0737696 5.9248152 -0.80142856
-4.1185036 5.9898753 -0.40602747
-4.0692916 5.9183021 0
-7.1333675 10.374638 0.70325136
-4.1029468 5.9518332 -0.80575323
-4.0814972 5.9207172 -0.40167356
-4.0542874 5.8812466 0
-7.1444249 10.363873 0.70310634
-4.095427 5.9255896 -0.80286974
-4.1063766 5.9414325 -0.40341523
-4.0850601 5.9105897 0
-7.174665 10.380877 0.70484746
-4.0834346 5.8930011 -0.79912221
-4.0928359 5.906569 -0.40138358
-4.0818272 5.8906817 0
-7.1724062 10.350845 0.70339638
-4.097929 5.8986816 -0.8005634
-4.089591 5.8866792 -0.40036744
-4.0889421 5.8857455 0
-7.1878705 10.346436 0.70368636
-4.0941086 5.8855906 -0.79912221
-6.8722157 9.8793297 -0.67219961
-6.8298321 9.8183994 0
-7.2134137 10.369827 0.70557362
-4.1100974 5.8933725 -0.80085254
-6.8811722 9.8667517 -0.67190903
-6.8610425 9.8378887 0
-7.2229629 10.356837 0.70528305
-4.1364818 5.915956 -0.80460006
-6.899045 9.8669481 -0.67248958
-6.8669596 9.8210592 0
-7.2310033 10.341712 0.70484746
-4.1495657 5.9194255 -0.80575323
-6.9049964 9.8500938 -0.67190903
-6.8803139 9.8148842 0
-7.24648 10.337227 0.70513803
-4.1775336 5.9440289 -0.80978876
-6.912415 9.835372 -0.67147404
-6.8951583 9.8108177 0
-7.2649417 10.336967 0.70571858
-4.1742826 5.9241743 -0.80777043
-6.9362679 9.8440056 -0.67263514
-6.9189997 9.819499 0
-7.2684436 10.315432 0.70484746
-6.9361629 9.8186388 -0.67147404
-6.9263592 9.80476 0
-7.3048906 10.340599 0.70716971
-6.9660439 9.8356962 -0.67321575
-6.9351902 9.7921324 0
-7.3203864 10.33601 0.70746028
-6.9794264 9.8293886 -0.67336071
-4.0874009 5.7564406 0
-7.3148174 10.301733 0.70571858
-7.0469337 9.873827 -0.67756963
-7.0250669 9.8431883 0
-16.663363 23.347908 1.6021987
-7.0633907 9.8716383 -0.67800462
-7.0308976 9.8262272 0
-16.637127 23.25168 1.5969737
-7.0798588 9.8694334 -0.67844015
-7.05338 9.8325205 0
-16.637951 23.19356 1.5943614
-7.08571 9.8524332 -0.6778596
-7.0652552 9.8239908 0
-16.665962 23.173439 1.5943614
-7.1006522 9.8480835 -0.67815018
-7.0771208 9.8154469 0
-16.672678 23.123781 1.5923297
-7.1140671 9.8416004 -0.6782952
-7.0996494 9.8216543 0
-16.661032 23.04887 1.5885564
-7.1259537 9.8329973 -0.6782952
-7.1008201 9.798316 0
-16.690392 23.030825 1.5887014
-7.1408815 9.8285799 -0.67858517
-7.1172447 9.7960472 0
-16.67697 22.953878 1.5847825
-7.1542864 9.822051 -0.67873073
-7.1352053 9.7958546 0
-16.677158 22.895908 1.5821702
-7.1630816 9.8091984 -0.67844015
-4.086812 5.5965228 0
-16.631262 22.775023 1.5752041
-4.1217251 5.6371794 -0.77836627
-7.2226806 9.8782778 -0.68351966
-7.2220693 9.8774414 0
-16.623543 22.7356 1.573172
-4.0994844 5.592566 -0.77288955
-7.2376866 9.8737383 -0.68381017
-7.1970725 9.8183327 0
-16.635643 22.694544 1.5717208
-4.1108298 5.5938549 -0.77375358
-7.2480745 9.8628941 -0.68366522
-7.230504 9.8389845 0
-16.633821 22.634649 1.5689635
-4.1160531 5.5868034 -0.77346557
-7.2630663 9.8583088 -0.68395519
-7.2393026 9.8260546 0
-16.653448 22.604067 1.5682374
-7.2749729 9.8495264 -0.68395519
-7.2650847 9.8361387 0
-16.677664 22.579752 1.5679475
-7.2915092 9.8469954 -0.68439078
-7.2754173 9.825263 0
-16.697205 22.549145 1.5672219
-7.3018546 9.8360929 -0.68424577
-7.293489 9.8248243 0
-16.710501 22.510178 1.5659158
-7.3230395 9.8397665 -0.68511629
-7.3069072 9.8180895 0
-16.711317 22.454535 1.5634485
-7.3333712 9.8288298 -0.68497133
-7.3078694 9.7946501 0
-16.715126 22.403084 1.5612713
-7.3359008 9.8074732 -0.68410021
-7.3228197 9.7899847 0
-16.728178 22.364147 1.5599653
-7.3586597 9.8131561 -0.68511629
-4.0903525 5.4546981 0
-16.720896 22.298185 1.5567725
-7.4220366 9.872797 -0.68990576
-4.0953779 5.4476738 0
-16.732208 22.257193 1.5553207
-4.1127453 5.4570351 -0.76164699
-7.4417787 9.8741951 -0.69063133
-7.4365683 9.8672819 0
-16.730942 22.19961 1.5527085
-7.4537044 9.8651962 -0.69063133
-7.4375081 9.8437595 0
-16.729561 22.142063 1.5500963
-7.4609108 9.849966 -0.6901958
-7.4572525 9.8451366 0
-16.740612 22.101116 1.5486447
-7.4806628 9.8512888 -0.69092137
-7.4770107 9.8464794 0
-16.743736 22.049837 1.5464679
-0 0 -0
-7.4988565 9.8505135 -0.69150192
-7.4857531 9.8333006 0
-16.745184 21.99651 1.5441457
-0 0 -0
-7.5079598 9.8501177 -0.69179243
-7.4916925 9.8287764 0
-16.736422 21.95746 1.542114
-0 0 -0
-7.5230083 9.8451643 -0.69208246
-7.5051417 9.8217831 0
-16.732964 21.897991 1.5393562
-0 0 -0
-7.5364838 9.8381357 -0.69222802
-7.5185852 9.8147707 0
-16.746769 21.861254 1.5381951
-7.5499468 9.8310814 -0.69237304
-7.5082502 9.7767859 0
-16.746267 21.805971 1.5357279
-7.5745015 9.8384228 -0.69353414
-4.0909629 5.3136992 0
-16.755171 21.763077 1.5341318
-4.1159787 5.332849 -0.37627569
-4.1053295 5.3190513 0
-16.760818 21.716076 1.532245
-4.1049266 5.3052635 -0.37467903
-0 0 0
-16.766375 21.669094 1.5303584
-4.1120811 5.3012629 -0.74780893
-4.1208868 5.3126149 -0.37554958
-0 0 0
-16.768656 21.618021 1.5281812
-4.1200695 5.2983303 -0.74809694
-7.6714072 9.8652821 -0.69803303
-0 0 0
-16.774029 21.571079 1.5262945
-7.6945062 9.8703527 -0.69904917
-0 0 0
-16.78091 21.526203 1.5245528
-7.730423 9.8917532 -0.70122582
-0 0 0
-16.781309 21.473152 1.5222306
-7.7423697 9.8824053 -0.70122582
-0 0 0
-16.783209 21.422184 1.520054
-7.7543049 9.8730421 -0.70122582
-4.1083798 5.2309275 0
-16.793036 21.381458 1.5186028
-7.7678351 9.8657055 -0.70137084
-4.1082573 5.2177806 0
-16.794744 21.330524 1.5164256
-7.760437 9.8318443 -0.69962972
-4.1081095 5.2046413 0
-16.79797 21.281666 1.5143939
-7.7835937 9.8367186 -0.70064527
-4.1111684 5.1955962 0
-16.802713 21.234865 1.5125072
-7.7728686 9.79881 -0.69861358
-4.1125898 5.1845059 0
-16.812208 21.194185 1.5110556
-4.1184754 5.17906 -0.36959955
-4.1172328 5.1774979 0
-16.815165 21.145386 1.5090239
-4.1355119 5.1940393 -0.74002588
-7.8796306 9.8965044 -0.70659584
-4.117115 5.1709337 0
-16.810131 21.112862 1.5074272
-4.127265 5.1708474 -0.73743153
-7.9029312 9.9011936 -0.70761198
-4.1152439 5.155787 0
-16.8097 21.060047 1.5051055
-7.9213829 9.8997526 -0.70819253
-4.1214709 5.1508107 0
-16.817276 21.017401 1.5035089
-7.9252048 9.8800335 -0.70746642
-4.1179242 5.1336503 0
-16.823149 20.972742 1.5017672
-7.9420238 9.8765278 -0.70790195
-4.114336 5.1164985 0
-16.809399 20.903801 1.4982839
-7.9572163 9.8709736 -0.70819253
-4.1172519 5.1074748 0
-16.823233 20.86932 1.4972683
-7.9756703 9.8694363 -0.70877308
-4.1283226 5.1085629 0
-16.805977 20.796434 1.493495
-7.9843154 9.8557501 -0.7084825
-4.1230297 5.0894213 0
-16.82291 20.76601 1.4927689
-7.9913025 9.8400421 -0.70804697
-4.1242523 5.0783734 0
-16.843079 20.739624 1.4923339
-8.0163107 9.8464994 -0.70920807
-4.1254549 5.0673294 0
-16.825476 20.666868 1.4885604
-8.0610619 9.8770685 -0.71211088
-4.1266427 5.0562983 0
-16.837292 20.630419 1.4873993
-8.1108303 9.9135704 -0.71544868
-4.1261578 5.043251 0
-16.837524 20.579889 1.4852221
-8.1392841 9.9238577 -0.71690035
-4.1256466 5.0302129 0
-16.832722 20.523369 1.4826099
-8.151269 9.9140158 -0.71690035
-4.1284127 5.0211997 0
-16.842657 20.484953 1.4813038
-8.1582832 9.8981419 -0.71646476
-4.1262021 5.0061684 0
-16.852524 20.446543 1.4799976
-8.1619635 9.8782635 -0.71573919
-4.1289363 4.9971704 0
-16.852388 20.396116 1.4778204
-8.1722374 9.866395 -0.71559423
-4.1333065 4.9901676 0
-16.862106 20.357729 1.4765143
-8.1781969 9.8614559 -0.71559423
-4.1296749 4.9796567 0
-16.861132 20.331537 1.4753532
-8.2535696 9.9035378 -0.72009313
-4.1367035 4.9636703 0
-16.873621 20.24682 1.4721605
-8.2788572 9.9095106 -0.72125423
-4.1310163 4.9446859 0
-16.87808 20.202488 1.4704187
-8.3208532 9.9353542 -0.72386646
-4.1319733 4.9337029 0
-16.877453 20.152197 1.4682416
-8.3428793 9.9372368 -0.72473758
-4.1295667 4.9187427 0
-16.878403 20.103931 1.4662099
-4.1469417 4.9273362 -0.71782875
-4.1336417 4.9115334 -0.3585695
-4.1304779 4.907774 0
-16.884281 20.061659 1.4646137
-4.1428819 4.9104567 -0.71609843
-4.1529779 4.9224234 -0.35973063
-4.1313753 4.8968182 0
-16.886723 20.015419 1.4627265
-4.1387939 4.8936019 -0.71436924
-4.1505346 4.9074836 -0.35900506
-4.1305666 4.8838739 0
-16.897476 19.979136 1.461566
-4.1413555 4.8846478 -0.71379209
-10.447492 12.322613 -0.9023788
-4.1330953 4.8749056 0
-16.901442 19.934919 1.4598243
-4.1338544 4.863874 -0.71148574
-10.484248 12.335718 -0.90426546
-4.1372991 4.8679266 0
-16.901955 19.886761 1.457792
-4.1430864 4.8628168 -0.7120629
-10.497462 12.321065 -0.9041205
-4.138113 4.8569794 0
-16.902382 19.838636 1.4557604
-4.143918 4.8519049 -0.71119773
-10.503906 12.298494 -0.90339494
-4.1321521 4.8381286 0
-16.89934 19.786585 1.4534382
-10.518759 12.285793 -0.90339494
-4.1329155 4.8271995 0
-16.909716 19.75036 1.4522771
-10.526827 12.265187 -0.90281439
-8.5013628 9.9052458 0
-16.901419 19.692455 1.4495198
-10.550111 12.262305 -0.90353996
-8.516717 9.8989086 0
-16.913336 19.658228 1.4485036
-10.553039 12.235773 -0.90252382
-8.5388737 9.9004383 0
-16.913321 19.610233 1.446472
-10.555924 12.209259 -0.90150827
-8.5474224 9.8861732 0
-16.918308 19.568159 1.4448754
-10.5735 12.214664 -0.9023788
-8.5533934 9.8810072 0
-16.906321 19.530434 1.4428437
-10.543975 12.150855 -0.89860547
-8.5312195 9.8313599 0
