# .PCD v0.7 - Point Cloud Data file format
VERSION 0.7
FIELDS x y z
SIZE 4 4 4
TYPE F F F
COUNT 1 1 1
WIDTH 1835
HEIGHT 1
VIEWPOINT 0 0 0 1 0 0 0
POINTS 1835
DATA ascii
0 0 -0
0 0 -0
0 0 -0
7.2481718 2.9766715 -0.43766648
7.199935 2.9568615 0
6.0919642 2.5018415 0.3678512
0 0 -0
0 0 -0
0 0 -0
7.2613802 2.9923546 -0.43868205
7.2083855 2.970516 0
6.0961466 2.5121717 0.36828676
0 0 -0
0 0 -0
0 0 -0
7.2433562 2.9951708 -0.43781149
0 0 0
6.1075096 2.5254915 0.36915731
0 0 -0
0 0 -0
0 0 -0
7.3189316 3.0367823 -0.44260094
7.2156043 2.9939096 0
6.102056 2.5318744 0.3690123
0 0 -0
0 0 -0
0 0 -0
7.2073107 3.0006816 -0.43606982
7.2167912 3.0046287 0
6.1061912 2.542243 0.36944786
0 0 -0
0 0 -0
0 0 -0
7.2420421 3.0254142 -0.43839204
7.2179537 3.0153511 0
6.1079054 2.5516205 0.36973786
0 0 -0
0 0 -0
0 0 -0
7.2287955 3.0301445 -0.43781149
7.2071114 3.0210547 0
6.1072121 2.5600026 0.36988285
0 0 -0
0 0 -0
0 0 -0
7.1939936 3.0257812 -0.4359248
7.2178445 3.0358131 0
6.1041141 2.56738 0.36988285
0 0 -0
0 0 -0
0 0 -0
7.3148103 3.0870042 -0.44347149
7.2141709 3.0445323 0
6.0938325 2.5717256 0.36944786
0 0 -0
0 0 -0
0 0 -0
7.2751904 3.0806451 -0.44129482
7.2200732 3.0573061 0
6.0883212 2.5780709 0.3693023
0 0 -0
0 0 -0
0 0 -0
7.2379766 3.0752063 -0.4392626
7.2283478 3.0711153 0
6.0565124 2.5732362 0.36756119
0 0 -0
0 0 -0
0 0 -0
7.2438169 3.0880256 -0.43984315
7.22224 3.0788274 0
7.102685 3.0278614 0.43127364
0 0 -0
0 0 -0
0 0 -0
7.2663622 3.1080177 -0.44143984
7.2328668 3.0936906 0
7.115747 3.0435956 0.43228978
0 0 -0
0 0 -0
0 0 -0
7.2421217 3.1183741 -0.44042373
7.2277665 3.1121929 0
7.1155329 3.0638664 0.43272534
0 0 -0
0 0 -0
0 0 -0
7.2502732 3.1322742 -0.44114926
7.2311611 3.1240175 0
7.1070504 3.0703988 0.43243477
0 0 -0
0 0 -0
0 0 -0
7.251256 3.1431012 -0.44143984
7.2297759 3.1337905 0
7.1033354 3.0789843 0.43243477
0 0 -0
0 0 -0
0 0 -0
7.2784276 3.1653314 -0.4433265
7.2235904 3.1414831 0
7.097229 3.0865295 0.43228978
0 0 -0
0 0 -0
0 0 -0
7.2884231 3.1749158 -0.44405207
7.2360115 3.1520848 0
7.1025124 3.093931 0.43272534
0 0 -0
0 0 -0
0 0 -0
7.2702999 3.1774783 -0.44318151
7.23458 3.1618671 0
7.1059136 3.1056335 0.43316087
0 0 -0
0 0 -0
0 0 -0
7.249795 3.1789556 -0.44216537
7.2283731 3.1695621 0
7.0997696 3.1131709 0.43301532
0 0 -0
0 0 -0
0 0 -0
7.2174072 3.1751568 -0.44042373
7.2435956 3.1866779 0
7.1007643 3.123842 0.43330589
0 0 -0
0 0 -0
0 0 -0
7.2943854 3.219547 -0.44535819
7.2397394 3.1954281 0
7.1088681 3.1376648 0.43403143
0 0 -0
0 0 -0
0 0 -0
7.2952461 3.2304649 -0.44564873
7.2334867 3.2031167 0
7.1098189 3.1483543 0.43432143
0 0 -0
0 0 -0
0 0 -0
7.2984548 3.2424393 -0.44608372
7.2367487 3.2150254 0
7.1107635 3.159055 0.43461201
0 0 -0
0 0 -0
0 0 -0
7.2423215 3.2279851 -0.44289094
7.2471256 3.2301264 0
7.1093121 3.1687014 0.43475699
0 0 -0
0 0 -0
0 0 -0
7.2502742 3.2420363 -0.44361651
7.238461 3.2367539 0
7.1078482 3.178349 0.43490201
0 0 -0
0 0 -0
0 0 -0
7.2534661 3.2539861 -0.44405207
7.2416706 3.2486947 0
7.1087489 3.1890643 0.43519256
0 0 -0
0 0 -0
0 0 -0
7.2969198 3.2840769 -0.44695485
7.2448621 3.2606478 0
7.1072574 3.1987169 0.43533754
0 0 -0
0 0 -0
0 0 -0
7.2811074 3.2875459 -0.44622928
7.2409167 3.2693992 0
7.1104941 3.2105112 0.4357731
0 0 -0
0 0 -0
0 0 -0
7.3031592 3.3081319 -0.4478254
7.2345834 3.2770691 0
7.1066098 3.2191005 0.4357731
0 0 -0
0 0 -0
0 0 -0
7.2920666 3.3137321 -0.44739041
7.2400961 3.2901151 0
7.1145411 3.2330592 0.43649867
0 0 -0
0 0 -0
0 0 -0
7.259685 3.3096063 -0.44564873
7.2574253 3.3085759 0
7.1224484 3.2470417 0.43722424
0 0 -0
0 0 -0
0 0 -0
7.2863979 3.3324242 -0.4475354
7.2510576 3.3162613 0
7.1232505 3.2578089 0.43751478
0 0 -0
0 0 -0
0 0 -0
7.2658315 3.3336399 -0.44651929
7.2399468 3.3217635 0
7.1216683 3.2674961 0.4376598
0 0 -0
0 0 -0
0 0 -0
7.3113647 3.3652308 -0.44956708
7.2477551 3.335953 0
7.1200733 3.2771842 0.43780479
0 0 -0
0 0 -0
0 0 -0
7.2907772 3.3664367 -0.44855097
7.25317 3.349072 0
7.1184649 3.2868733 0.43794978
0 0 -0
5.2739377 2.4429185 -0.96898532
0 0 -0
7.2985001 3.3807075 -0.44927707
7.2467499 3.3567367 0
7.1168528 3.2965677 0.43809536
0 0 -0
0 0 -0
0 0 -0
7.2849841 3.385144 -0.44869652
7.2403307 3.3643949 0
7.1222901 3.3095446 0.43867591
0 0 -0
5.2610364 2.4524016 -0.96770102
0 0 -0
7.2738204 3.3906493 -0.44826096
7.2409825 3.3753421 0
7.1276975 3.322535 0.43925589
0 0 -0
0 0 -0
0 0 -0
7.2579517 3.3939335 -0.4475354
7.251039 3.3907013 0
7.1236777 3.331145 0.43925589
0 0 -0
5.2969236 2.4847298 -0.97540361
0 0 -0
9.490941 4.4520984 -0.58555591
7.263432 3.407198 0
7.1220069 3.340857 0.43940148
0 0 -0
5.2730145 2.4812922 -0.97155231
0 0 -0
9.5443316 4.4912214 -0.58918428
7.2616625 3.417079 0
7.1367741 3.3583109 0.44056258
5.2468028 2.476706 -0.96727347
0 0 -0
9.5294981 4.4983139 -0.58860373
9.5073299 4.4878492 0
7.1327109 3.3669319 0.44056258
5.2901998 2.505012 -0.97583115
0 0 -0
9.5357962 4.5153842 -0.5893293
9.5089588 4.502676 0
7.1380315 3.3799961 0.44114313
5.2547107 2.4959846 -0.96984047
0 0 -0
9.5162458 4.5202117 -0.58845818
9.4776506 4.5018787 0
7.1292434 3.3863866 0.44085258
5.2934003 2.5222058 -0.97754306
6.0357242 2.8759091 -0.74521458
9.5365829 4.5440025 -0.59005487
9.4675093 4.5110903 0
7.1345296 3.3994694 0.44143313
5.2362819 2.4988728 -0.96727347
5.9662929 2.8472507 -0.73685437
9.5525961 4.5587163 -0.59121597
9.4624271 4.5156856 0
7.1348171 3.4048972 0.44157815
0 0 -0
5.9628482 2.8544579 -0.73685437
9.5423985 4.5680137 -0.59092593
9.4663534 4.5316105 0
7.1330485 3.4146409 0.4417237
0 0 -0
5.9967003 2.8795745 -0.74146706
9.534523 4.5784125 -0.59078038
9.4890232 4.5565639 0
7.1312575 3.424381 0.44186869
0 0 -0
6.0607915 2.9193678 -0.74982727
9.519619 4.5854192 -0.59019983
9.4928894 4.5725436 0
7.1317921 3.4352484 0.4421587
0 0 -0
6.2528772 3.0212054 -0.77404273
9.5374727 4.6082253 -0.5916515
9.4920483 4.5862775 0
7.1299734 3.4449925 0.44230369
0 0 -0
6.3260279 3.0659835 -0.7835561
9.5435867 4.6254115 -0.59237707
9.4911795 4.6000113 0
7.1117802 3.4468076 0.44143313
0 0 -0
5.7687149 2.8044882 -0.71494526
9.5543518 4.6448936 -0.59339321
9.5043383 4.6205792 0
9.5308704 4.6334777 0.5919348
0 0 -0
5.8211174 2.8386648 -0.72186428
9.5393906 4.6518788 -0.59281266
9.4987488 4.6320601 0
9.5135899 4.639297 0.59120929
5.179594 2.5335779 -0.96128112
5.7735357 2.8241019 -0.71638644
9.5407581 4.6668239 -0.59324765
9.4954805 4.6446762 0
9.5523281 4.6724834 0.59396708
5.2641001 2.5828006 -0.97754306
5.8049521 2.8481667 -0.72071111
9.5607758 4.6909399 -0.59484428
9.4921951 4.6572914 0
9.6073236 4.7137785 0.59774041
5.2701883 2.5936937 -0.9792549
5.8107891 2.8597472 -0.72186428
9.5317907 4.6910172 -0.59339321
9.4982424 4.6745067 0
9.6412525 4.7448883 0.60020763
5.3107886 2.6216507 -0.9873867
5.788775 2.8576071 -0.71955794
9.5354271 4.7071276 -0.59397322
9.4855843 4.6825233 0
9.6774483 4.777236 0.60281986
5.25701 2.603008 -0.97797227
5.757503 2.8508272 -0.71609843
9.5600109 4.7336383 -0.59586042
9.4752502 4.6916695 0
9.6390724 4.7727857 0.60078818
5.2860446 2.6253421 -0.98396295
5.7123618 2.837075 -0.71090972
9.568243 4.7521191 -0.59673101
9.4882212 4.7123761 0
9.637948 4.7867384 0.60107821
5.2736773 2.6271489 -0.98225111
6.7645707 3.3698561 -0.84236443
9.5624943 4.7636771 -0.59673101
9.4988289 4.7319613 0
9.52285 4.743928 0.59425706
5.2704992 2.6335192 -0.98225111
5.7633295 2.8797727 -0.71811676
9.5799713 4.78684 -0.59818208
9.5070686 4.7504129 0
9.4613247 4.7275558 0.5907737
5.2787857 2.6456354 -0.9843905
5.7945242 2.9041145 -0.7224403
0 0 -0
9.5083036 4.7653961 0
9.4463129 4.7343278 0.59019315
5.2847595 2.6566238 -0.9861024
0 0 -0
9.5730228 4.8123136 -0.59847265
9.4653349 4.7581792 0
9.4405861 4.745738 0.59019315
5.3067617 2.6757216 -0.99081045
0 0 -0
9.585763 4.8332362 -0.59963375
9.3480444 4.713376 0
9.434845 4.7571416 0.59019315
5.3058138 2.6832893 -0.991238
0 0 -0
9.5822325 4.8459868 -0.59977877
9.230876 4.6682963 0
9.4638739 4.78613 0.59237039
5.2728076 2.674603 -0.98567486
5.8265543 2.955488 -0.72820616
9.5740547 4.8563871 -0.59963375
9.229866 4.6817989 0
9.4905224 4.8140159 0.59440207
5.294733 2.6937733 -0.99038124
5.8275938 2.9648738 -0.72878331
0 0 -0
9.3308973 4.747231 0
9.5148039 4.840796 0.59628874
5.2823372 2.6955063 -0.988671
5.7525849 2.9354675 -0.71984595
0 0 -0
9.4665489 4.8306541 0
9.5135813 4.8546538 0.59657931
5.2950659 2.7100706 -0.99166554
6.4995899 3.3265588 -0.8138243
9.574893 4.9005313 -0.60079491
9.5278873 4.8764734 0
9.4868927 4.8554921 0.5952732
5.2940688 2.7176378 -0.99209309
6.4288383 3.3001564 -0.80546409
9.5851393 4.9204001 -0.60181046
9.545145 4.8998699 0
9.474082 4.8633904 0.59483761
5.2839408 2.7205107 -0.99081045
6.3926563 3.2913485 -0.80142856
9.5745707 4.9296017 -0.60152042
9.5415297 4.91259 0
9.4728231 4.8772154 0.59512818
5.3011756 2.7374928 -0.99466175
0 0 -0
9.5616789 4.9375892 -0.60108489
9.5332766 4.9229226 0
9.5038548 4.9077291 0.59744984
5.2750649 2.7320881 -0.99038124
6.3732023 3.3008409 -0.79998738
9.5464764 4.9443588 -0.60050434
9.5250034 4.9332376 0
9.5256062 4.9335499 0.59919155
5.2808719 2.7431934 -0.99209309
0 0 -0
9.572773 4.9726577 -0.60253602
9.5190353 4.9447432 0
9.528861 4.9498472 0.5997721
5.292882 2.753494 -0.99466175
6.3465605 3.3016446 -0.79739302
6.3426905 3.2996314 -0.39935133
9.5160465 4.9504929 0
8.3479843 4.3428373 0.52560955
5.2953105 2.7710376 -0.99637359
0 0 -0
6.3277979 3.3113387 -0.39891633
9.534029 4.9891605 0
9.5161657 4.9798126 0.59991705
5.3033214 2.7833977 -0.99851304
6.3185167 3.3162136 -0.79537469
6.330688 3.3226013 -0.39935133
6.3135319 3.313597 0
9.4917355 4.981647 0.59875596
5.2817817 2.7802379 -0.99508929
6.2939086 3.313004 -0.79278034
6.3082738 3.3205655 -0.39819023
6.3141246 3.3236454 0
9.4558191 4.9773788 0.59686929
5.2829628 2.7890172 -0.99594605
6.2693172 3.3097401 -0.79018599
9.4315214 4.9791517 -0.59571487
6.2985988 3.3251984 0
9.4337196 4.9803123 0.59585375
5.2886553 2.8001988 -0.99765629
6.2538867 3.3112626 -0.78874481
9.4232035 4.9893298 -0.59556985
9.5558043 5.0595379 0
9.4001379 4.9771171 0.59411204
5.2966104 2.8126101 -0.99979734
6.2475986 3.3176048 -0.7884568
9.4217625 5.0031519 -0.59586042
9.5634794 5.0784063 0
9.3596907 4.9701905 0.5919348
6.2435856 3.3251514 -0.7884568
9.4822102 5.0499482 -0.60006875
9.5504427 5.086287 0
9.3238659 4.9656186 0.59004813
6.2327166 3.3290362 -0.78759164
9.5586138 5.1054735 -0.60529381
9.5442896 5.0978231 0
9.3201485 4.9781041 0.59019315
6.2081723 3.3255742 -0.78499728
9.5890856 5.136651 -0.60761601
9.5404148 5.1105795 0
9.330163 4.997952 0.59120929
6.2064257 3.334296 -0.78528529
9.5897322 5.1519198 -0.608051
9.5571632 5.1344223 0
9.3492985 5.0227504 0.59280592
6.2502074 3.3675549 -0.79133916
0 0 -0
9.5646944 5.1533709 0
9.3706732 5.0488338 0.59454763
6.2552357 3.380023 -0.79249233
9.6001196 5.1874342 -0.60950267
9.5653324 5.1686368 0
9.369133 5.0626206 0.59483761
6.2102189 3.3653991 -0.78730363
9.5961266 5.2002673 -0.60964769
9.5590801 5.180191 0
9.3812857 5.0838423 0.5959987
6.1493363 3.3420248 -0.78009659
9.5989685 5.2168217 -0.61022824
9.5482359 5.1892495 0
9.2815332 5.0443025 0.59004813
6.1293941 3.3407867 -0.77807826
9.5972166 5.2309012 -0.61051828
9.5579567 5.2095027 0
9.1567984 4.9908538 0.58250147
6.141242 3.3568757 -0.78009659
9.6045742 5.2499738 -0.6113894
9.5676336 5.2297821 0
9.1234007 4.986959 0.58075976
6.191606 3.3941283 -0.78701448
9.5959473 5.2603273 -0.61124438
9.5681562 5.2450929 0
9.1014166 4.9892344 0.57974368
6.2486997 3.4352515 -0.79479867
9.5918589 5.273169 -0.6113894
9.5549679 5.2528877 0
9.1022148 5.0039849 0.58017921
6.2400098 3.4402995 -0.79422152
9.5900269 5.2872615 -0.61167938
9.5508995 5.2656894 0
9.1075373 5.0212507 0.58090478
6.2494335 3.4553483 -0.79595184
6.5047874 3.5965347 -0.41517085
9.5468054 5.2784843 0
9.0991917 5.0309958 0.58075976
6.2520337 3.4666562 -0.79681587
6.5004368 3.6043918 -0.41517085
9.5472507 5.2938032 0
9.0931053 5.0419869 0.58075976
6.1958551 3.4453008 -0.79018599
6.4824553 3.6046693 -0.41430029
6.4090176 3.563833 0
9.1051741 5.0630727 0.58192092
6.1171432 3.4112153 -0.78067261
6.4848971 3.6162925 -0.41473529
6.4024358 3.5703082 0
9.1512403 5.1031747 0.58525866
6.0362678 3.3756835 -0.77087122
6.4782567 3.6228585 -0.41459027
6.4276433 3.5945539 0
9.2357836 5.1649599 0.59106427
5.9848123 3.3564072 -0.76481736
6.4784117 3.6332281 -0.41488084
6.4119482 3.5959539 0
9.1864729 5.1519651 0.58830649
5.9649692 3.3547597 -0.76279902
9.6332941 5.4178634 -0.61733997
6.4234705 3.6126256 0
9.1236229 5.1312184 0.58467811
5.9496493 3.355613 -0.76135784
9.6267414 5.4294991 -0.61733997
6.4372354 3.6306124 0
6.4083972 3.6143477 0.41095525
5.9656377 3.3693826 -0.76366419
9.6234589 5.4353142 -0.61733997
6.4327769 3.6332221 0
6.4016919 3.6156654 0.41066524
5.9863205 3.3906114 -0.76683569
9.6281872 5.4533401 -0.61806554
9.6143675 5.4455132 0
6.3950596 3.6221187 0.41052026
0 0 -0
6.004705 3.410614 -0.76971805
9.6215906 5.4649701 -0.61806554
9.6009903 5.453269 0
6.3929358 3.6311252 0.41066524
0 0 -0
6.0253038 3.4319499 -0.77288955
9.6194916 5.4791617 -0.61835551
9.5989122 5.4674397 0
6.393055 3.6414168 0.41095525
0 0 -0
6.0054288 3.4302466 -0.77087122
9.6083565 5.4882059 -0.61806554
9.5945654 5.4803286 0
6.3751168 3.6414087 0.41008469
0 0 -0
6.0035219 3.4387846 -0.77115923
9.6220083 5.5114341 -0.61937159
9.5969696 5.4970918 0
6.3864975 3.6581509 0.4111008
0 0 -0
6.0105829 3.4524813 -0.77260154
9.6153421 5.523056 -0.61937159
9.6106281 5.520349 0
6.4113622 3.682689 0.41298747
0 0 -0
6.017611 3.4661951 -0.77404273
9.5974054 5.5281868 -0.61864609
9.6129713 5.5371532 0
6.4001503 3.6865411 0.41255191
0 0 -0
6.0044599 3.4682889 -0.77288955
9.5727177 5.5293822 -0.61748493
9.5927486 5.5409517 0
6.3889389 3.6903713 0.41211635
6.0092173 3.4807272 -0.77404273
9.5705223 5.5435472 -0.61777496
9.5860462 5.5525389 0
6.4406853 3.7306471 0.41574469
6.0184221 3.4957778 -0.77577192
9.5548296 5.5498867 -0.61719441
9.5680799 5.5575833 0
7.649446 4.443152 0.49411613
6.014194 3.5030472 -0.77577192
9.5279112 5.5496588 -0.6158883
7.6836815 4.4754629 0
7.6508102 4.4563165 0.49455169
6.012188 3.511615 -0.77605993
9.5256901 5.5637908 -0.61617881
9.5299082 5.5662546 0
7.6499033 4.4681759 0.49484167
6.0034809 3.5162652 -0.77548391
9.5122318 5.5713558 -0.61574328
9.5096979 5.5698714 0
7.6310501 4.4695392 0.49397111
5.999228 3.5235167 -0.77548391
9.5077314 5.5841599 -0.6158883
9.507453 5.5839963 0
7.6189198 4.4748077 0.49353555
5.9927397 3.5294516 -0.7751959
9.5121698 5.6022363 -0.61661381
9.4984503 5.5941558 0
6.4560127 3.8022983 0.41850248
6.0018287 3.5445793 -0.77692509
9.507637 5.6150508 -0.61675942
9.4984083 5.6096001 0
6.4424639 3.804811 0.41792193
6.01089 3.5597339 -0.77865428
9.5209656 5.6384501 -0.61806554
9.4983435 5.6250529 0
15.279971 9.0490141 0.99191856
6.0043626 3.565675 -0.77836627
9.5208416 5.6539268 -0.61850053
9.4960108 5.6391807 0
15.271257 9.0687962 0.99206358
5.9756112 3.5583744 -0.7751959
9.5184727 5.6680884 -0.61879104
9.4959002 5.6546464 0
15.273688 9.0952206 0.9929347
5.9912915 3.5775251 -0.77779025
9.5160751 5.6822472 -0.61908108
9.5024633 5.674119 0
15.262688 9.1136694 0.9929347
5.9692116 3.5741322 -0.77548391
9.5181198 5.6990805 -0.61966163
9.4955997 5.6855969 0
6.4684014 3.873028 0.42111471
5.9626732 3.5800121 -0.7751959
9.5112267 5.7105775 -0.61966163
9.4842653 5.6943898 0
6.4837646 3.8928776 0.42242083
5.9605565 3.588547 -0.77548391
6.5259056 3.9289148 -0.42547533
6.5344501 3.9340589 0
6.4723759 3.896687 0.4219853
5.9584284 3.5970819 -0.77577192
6.5211535 3.9367971 -0.42547533
6.5475159 3.9527118 0
0 0 0
5.9673576 3.612318 -0.77750224
6.5186129 3.9460182 -0.42562032
6.5627699 3.9727485 0
0 0 0
5.9828858 3.6316035 -0.78009659
6.5160589 3.9552388 -0.42576534
0 0 0
0 0 0
5.9895382 3.6455524 -0.78153777
6.5268149 3.9725676 -0.42678145
6.5464787 3.9845359 0
0 0 0
5.963047 3.6393101 -0.77865428
6.5330977 3.9872179 -0.42750698
6.5460982 3.9951522 0
0 0 0
5.9696822 3.6532669 -0.78009659
6.5637369 4.0168104 -0.42982924
6.5523715 4.0098553 0
6.4838543 3.9679248 0.42459807
5.9079504 3.625308 -0.77260154
6.6053858 4.053277 -0.432877
6.5452971 4.0164046 0
6.4879141 3.9811924 0.42517862
5.8947344 3.6221025 -0.77115923
9.5516977 5.8691754 -0.62619275
6.5539622 4.0271745 0
6.4899311 3.9878294 0.42546862
5.8925619 3.630583 -0.77144837
9.5600872 5.890255 -0.62720889
6.5557323 4.0391822 0
6.4961672 4.0024824 0.42619419
5.8969722 3.6431382 -0.77260154
9.550746 5.9004326 -0.62706333
6.5530672 4.0484724 0
6.5045938 4.0185256 0.42706531
5.9255414 3.6706879 -0.77692509
9.570117 5.9283891 -0.62880498
6.5636511 4.0659771 0
6.5063543 4.0304832 0.42750031
5.9518576 3.6969488 -0.78096062
9.5585365 5.9372087 -0.62851501
6.563159 4.076654 0
6.5081034 4.0424566 0.42793587
6.021884 3.7606428 -0.79133916
9.5573807 5.9685464 -0.62938553
6.5687337 4.1021485 0
6.5005174 4.0595474 0.42808086
6.0085669 3.7624254 -0.79018599
9.5589705 5.9856062 -0.62996608
6.5659847 4.1114678 0
6.5044165 4.0729151 0.42866141
5.9996309 3.7669296 -0.78960884
9.5671377 6.0068254 -0.63098222
6.5808463 4.1318517 0
6.5215011 4.0945911 0.43011311
6.014781 3.786582 -0.79220432
9.5554705 6.0156097 -0.63069165
6.5824499 4.1439557 0
6.5209427 4.1052341 0.43040308
6.0386324 3.8117938 -0.79595184
9.5811567 6.0479574 -0.63286889
6.5906467 4.160244 0
6.5379462 4.1269779 0.43185422
6.077724 3.8467474 -0.80171657
9.5870113 6.0678654 -0.63373947
6.5922141 4.1723814 0
6.5417376 4.1404333 0.43243477
6.1080132 3.8762629 -0.80632925
9.5665131 6.071094 -0.63286889
6.6025429 4.1901011 0
6.5498977 4.1566916 0.43330589
6.0880561 3.8739247 -0.80431205
9.5657492 6.0868349 -0.63330448
6.6040645 4.2022686 0
6.5558295 4.171576 0.43403143
6.076827 3.8771031 -0.80344689
6.6275487 4.2284713 -0.43911761
6.6187258 4.2228422 0
6.5639234 4.1878777 0.43490201
6.0917449 3.896986 -0.80604124
6.6268167 4.2392797 -0.43940815
6.624578 4.2378473 0
6.5676136 4.201407 0.43548256
6.1175075 3.9238913 -0.81007677
6.6260595 4.2500868 -0.43969816
6.6282148 4.2514691 0
6.5734749 4.2163577 0.43620867
6.1475682 3.9536655 -0.81468946
0 0 -0
6.6252599 4.2608814 0
6.572742 4.2271061 0.43649867
6.1580048 3.9709041 -0.81670779
0 0 -0
6.6354189 4.2787576 0
6.5829182 4.2449036 0.43751478
6.1379962 3.9685102 -0.81468946
0 0 -0
6.6389861 4.2924242 0
6.5996008 4.2669601 0.43896592
6.0919662 3.9491959 -0.80921274
0 0 -0
6.6447115 4.3075199 0
6.6031618 4.2805853 0.43954647
6.0633326 3.9410472 -0.80604124
6.6220446 4.3041987 -0.44114926
6.6569581 4.3268924 0
6.6088762 4.2956395 0.44027203
6.0824046 3.9639063 -0.80921274
6.6473203 4.3320622 -0.44318151
6.6560903 4.3377771 0
6.6102138 4.3078799 0.44070756
6.0970955 3.9839847 -0.8118071
6.6551285 4.3486161 -0.44405207
6.6639113 4.3543553 0
6.6202326 4.3258147 0.4417237
6.1225624 4.0111899 -0.81584263
6.67378 4.3723197 -0.44564873
6.6782355 4.3752389 0
6.6323805 4.3451972 0.44288427
6.1241984 4.0228467 -0.81670779
6.7119198 4.4089074 -0.44855097
6.6859994 4.3918805 0
6.6314735 4.3560638 0.44317481
6.1236496 4.0330863 -0.81728381
6.7065873 4.4170141 -0.44855097
6.6958957 4.4099722 0
6.6327171 4.3683624 0.44361037
6.1015048 4.0290804 -0.81497747
6.7142596 4.4337082 -0.44942209
6.6905622 4.4180598 0
6.64044 4.3849621 0.44448093
6.0836964 4.0278854 -0.81324828
6.6785693 4.4217381 -0.44739041
6.7177711 4.4476929 0
6.6416388 4.3972874 0.44491649
6.0747924 4.0272713 -0.81238312
6.5979295 4.374084 -0.44216537
6.7259259 4.4589391 0
6.6584706 4.4142199 0.4462226
6.1022344 4.0560865 -0.81670779
6.5104113 4.3273969 -0.43665037
6.7422032 4.4814663 0
6.672606 4.4352059 0.44752872
6.1145477 4.0749321 -0.81901413
6.5008569 4.3323812 -0.43636036
6.7909222 4.5256896 0
6.6802115 4.4519086 0.44839928
6.1375747 4.1009965 -0.82276165
6.4848084 4.3330107 -0.43563426
6.8049221 4.5469036 0
6.6813111 4.4643092 0.44883484
6.1841793 4.1429539 -0.82967955
6.475255 4.3379536 -0.43534425
6.8080716 4.5609164 0
6.6845474 4.4781642 0.44941539
6.2199659 4.1778255 -0.83515739
6.4807916 4.3530173 -0.43606982
6.8068805 4.5720444 0
6.6963878 4.4978285 0.45057651
6.2449441 4.2055621 -0.83919293
6.4755273 4.3608446 -0.43606982
10.162184 6.8435674 0
6.6995692 4.5117221 0.45115706
6.2591481 4.2261295 -0.84178728
6.5154753 4.3991995 -0.43911761
0 0 0
6.7242579 4.5401678 0.45318875
6.2326226 4.2191925 -0.83890492
6.5252194 4.4172668 -0.44013372
0 0 0
6.7574949 4.5745063 0.45580098
6.1975627 4.206388 -0.83486938
6.5284772 4.430985 -0.44071427
0 0 0
6.7412148 4.5753736 0.45507541
6.134738 4.1745839 -0.8270852
6.5381503 4.4490991 -0.44172984
0 0 0
6.750721 4.59375 0.45609152
6.0912347 4.1557579 -0.82189649
6.5435081 4.4643221 -0.44245595
0 0 0
6.7473097 4.6033664 0.45623654
6.0563254 4.142674 -0.81786096
6.52953 4.4663572 -0.4418754
0 0 0
6.7181573 4.5953827 0.45464042
6.0427833 4.1441374 -0.81670779
6.5091262 4.4639549 -0.44085926
0 0 0
12.766066 8.754961 0.86463809
6.054822 4.1631594 -0.81901413
6.4908848 4.4629865 -0.4399887
0 0 0
12.757617 8.7718506 0.86478311
6.0987597 4.2042322 -0.82564402
6.4747844 4.463448 -0.4392626
10.093593 6.9581041 0
12.753428 8.7916851 0.86521864
6.1426072 4.2454171 -0.8322739
6.4223633 4.4387684 -0.43606982
10.125849 6.998405 0
12.738517 8.8041306 0.86492807
6.1757445 4.2793555 -0.83746374
6.4041848 4.4376488 -0.43519926
10.098136 6.9972959 0
12.727869 8.8195162 0.86492807
6.1599507 4.2794375 -0.8360225
6.396678 4.4438968 -0.43505371
10.091808 7.0109758 0
14.038095 9.7525377 0.95476508
6.1038375 4.251399 -0.82910353
6.3742542 4.4397473 -0.43389314
10.100414 7.0350642 0
14.015633 9.762063 0.95403898
6.0711303 4.2395215 -0.82535601
6.3731418 4.4504185 -0.43418312
10.096178 7.0502467 0
14.014485 9.7864342 0.95476508
6.019393 4.2142224 -0.81901413
6.3571181 4.4506664 -0.43345758
10.094041 7.0669141 0
14.023932 9.8182602 0.95621622
6.0375776 4.237834 -0.8221845
9.6609011 6.7810793 -0.65928286
10.09828 7.0880795 0
14.018441 9.8396778 0.95665181
6.1212883 4.307641 -0.83429223
9.6697006 6.8047109 -0.66044402
10.089708 7.100276 0
14.021411 9.8670731 0.95766735
6.1921625 4.3687129 -0.84467077
9.6826992 6.8313665 -0.6618951
10.093876 7.1214614 0
14.037078 9.9034805 0.95955402
6.2206573 4.400084 -0.84928232
9.6744385 6.8430614 -0.6618951
10.095885 7.1411657 0
14.035714 9.9279413 0.96028012
6.2090125 4.4031129 -0.8484183
9.6746407 6.8607583 -0.66247571
10.091499 7.156373 0
14.032187 9.9509058 0.96086067
6.2036877 4.4106121 -0.8484183
9.6769304 6.8799701 -0.66320121
10.089211 7.1730866 0
14.041326 9.9829073 0.9623118
6.1794004 4.4045949 -0.84582388
9.6855383 6.9037232 -0.66436237
10.089012 7.1913147 0
14.039831 10.007405 0.96303737
6.1340885 4.3834844 -0.8403461
9.670845 6.9108877 -0.66392678
10.093017 7.2125759 0
14.044641 10.036449 0.96419847
6.0536122 4.3315024 -0.82967955
11.646644 8.3334484 -0.79991567
10.090772 7.2201853 0
14.055481 10.057029 0.96535957
6.0231624 4.3207283 -0.82622111
11.661902 8.3656902 -0.80165732
10.096845 7.2429929 0
14.053874 10.081576 0.96608514
5.9486446 4.2781692 -0.81670779
11.64124 8.3721914 -0.80093175
10.098647 7.262784 0
14.056451 10.109172 0.96710128
5.9224868 4.2702236 -0.8138243
11.62479 8.381691 -0.80049622
10.104644 7.2856369 0
14.067404 10.142861 0.96869737
5.9173231 4.2773767 -0.8138243
11.623077 8.4018202 -0.80107677
10.089503 7.2932653 0
14.078305 10.176598 0.97029406
5.9268126 4.2951493 -0.81584263
11.615019 8.4173813 -0.80122179
10.082788 7.3069773 0
14.072312 10.198177 0.97072959
5.9634686 4.3327136 -0.82160848
11.615349 8.439045 -0.8019473
10.101321 7.3390398 0
14.072589 10.224334 0.97160017
6.0543957 4.4099631 -0.83486938
11.607249 8.454608 -0.80209285
10.098759 7.3558378 0
14.077027 10.25357 0.97276127
6.1702027 4.5057368 -0.85158867
11.599122 8.4701576 -0.80223787
10.108778 7.3818469 0
17.484997 12.768267 1.2093266
6.1877127 4.5299969 -0.85476017
11.593068 8.4872341 -0.8025279
10.101949 7.3955917 0
17.442295 12.769426 1.2074394
6.1850805 4.5510688 -0.85591334
9.7245741 7.1554775 -0.67437685
10.075662 7.4138126 0
17.373716 12.783823 1.2048272
6.1754103 4.5554652 -0.85533619
9.6908283 7.1487122 -0.67263514
10.077174 7.4337111 0
17.345715 12.795554 1.2039566
6.1532726 4.5506258 -0.85303092
10.772684 7.9668913 -0.74839377
10.087015 7.4598074 0
17.30517 12.797963 1.202215
6.1207533 4.5380273 -0.84928232
10.754701 7.973712 -0.74781322
10.130257 7.5107388 0
17.260475 12.7972 1.2001833
6.0779042 4.5176497 -0.84409362
10.740891 7.983604 -0.74752325
10.125347 7.5260758 0
17.226225 12.804091 1.1988766
6.0537772 4.5110822 -0.84149927
9.7019987 7.2296214 -0.67582792
10.109983 7.533638 0
17.179493 12.801612 1.1967
6.029675 4.5044637 -0.83890492
9.7161493 7.258441 -0.67742407
10.096707 7.5427365 0
17.141111 12.805253 1.1951033
6.0076661 4.499342 -0.83659858
9.7219324 7.2810807 -0.67844015
10.085505 7.5533724 0
17.117308 12.819724 1.1945227
5.9732718 4.4848595 -0.83256304
9.7131271 7.2928224 -0.67844015
10.082608 7.5702362 0
17.070641 12.817 1.192346
5.9823079 4.5029573 -0.83458024
9.7043085 7.3045535 -0.67844015
9.8073206 7.382092 0
17.028154 12.817304 1.1904594
5.9830585 4.5148578 -0.8354454
9.7099962 7.3272319 -0.67945629
9.6529875 7.2842126 0
16.967028 12.803439 1.1872666
5.9445949 4.4971166 -0.83083272
9.7011356 7.3389592 -0.67945629
9.6441793 7.2958708 0
16.89974 12.78474 1.1836382
5.8855786 4.4636621 -0.82333767
9.6694851 7.3334022 -0.6778596
9.73281 7.3814282 0
16.84494 12.775316 1.1808804
5.7875381 4.4003334 -0.81036586
10.516923 7.9961395 -0.7379443
10.067766 7.6546407 0
16.817085 12.786227 1.1800098
5.7616425 4.3916407 -0.80748242
10.498987 8.0025406 -0.73736376
10.178554 7.7583003 0
16.809889 12.812839 1.1805904
5.7748265 4.4127316 -0.81007677
10.464534 7.9962888 -0.73562205
10.189847 7.7863917 0
16.800583 12.83787 1.1810254
5.8495693 4.4810505 -0.82132041
10.432179 7.99155 -0.73402596
0 0 0
16.780937 12.855003 1.1807355
5.9241476 4.5495505 -0.83256304
10.422516 8.0041494 -0.73402596
0 0 0
16.755091 12.867358 1.1800098
5.9739757 4.5993028 -0.8403461
9.7251873 7.4873223 -0.68555188
0 0 0
16.708645 12.863815 1.1778326
5.9896302 4.6171217 -0.84294045
10.391527 8.010335 -0.73286486
0 0 0
16.690582 12.865977 1.1771071
5.9901891 4.6291018 -0.84380561
10.412676 8.0467138 -0.7350415
0 0 0
16.648296 12.865481 1.1752204
5.9661908 4.6220818 -0.84121126
10.392677 8.0513344 -0.73431593
0 0 0
16.622471 12.877632 1.1744949
10.3932 8.0718536 -0.7350415
0 0 0
16.574062 12.872207 1.1721727
11.529497 8.9767113 -0.81617069
0 0 0
16.542095 12.879453 1.1710114
11.498155 8.9746447 -0.81471902
0 0 0
16.499893 12.878649 1.1691248
11.479116 8.9821262 -0.81413847
0 0 0
16.469994 12.887365 1.1681087
11.46417 8.9927864 -0.8138485
10.17624 7.9825015 0
16.429876 12.888012 1.1663671
11.447165 9.001811 -0.8134129
14.000091 11.009377 0
16.39591 12.8934 1.1650609
11.428118 9.009202 -0.81283236
13.980644 11.021451 0
16.361956 12.898726 1.1637548
11.400914 9.0101147 -0.81167126
13.961197 11.0335 0
16.33005 12.905598 1.1625937
11.396132 9.0287266 -0.81210679
13.921338 11.029353 0
16.300192 12.914029 1.1615782
11.38114 9.0392542 -0.81181628
13.910037 11.047783 0
16.258125 12.912708 1.1596915
11.353955 9.0400581 -0.81065571
13.8865 11.056479 0
16.22625 12.919394 1.1585304
11.351147 9.0602541 -0.81123626
13.84669 11.052146 0
16.186256 12.91954 1.1567887
11.334103 9.0690908 -0.81080067
13.825197 11.062365 0
16.156429 12.927723 1.1557726
11.321111 9.0811548 -0.81065571
13.789488 11.061148 0
16.114449 12.926101 1.1538858
11.304053 9.089941 -0.81022012
13.757861 11.063125 0
16.072496 12.924396 1.1519992
11.278898 9.0921764 -0.80920404
13.728274 11.066674 0
16.046755 12.935654 1.1512736
11.265885 9.104167 -0.80905902
13.708818 11.078345 0
16.012926 12.940336 1.1499676
11.252859 9.1161385 -0.80891401
13.687333 11.088348 0
15.979109 12.944956 1.1486614
11.241836 9.1297283 -0.80891401
13.647664 11.083552 0
15.951349 12.954423 1.1477903
11.232809 9.1449442 -0.80905902
13.626189 11.093462 0
15.921585 12.962208 1.1467748
11.21571 9.1535797 -0.80862343
13.60471 11.103336 0
15.883765 12.963363 1.1451781
11.214695 9.1753511 -0.809349
13.563088 11.096699 0
15.843956 12.962801 1.1434364
11.191549 9.1790113 -0.80847847
13.543632 11.108126 0
15.808194 12.965461 1.1419853
11.17644 9.18923 -0.80818844
13.530199 11.124483 0
15.77646 12.97135 1.1408242
11.157308 9.1961164 -0.80760789
13.506708 11.132548 0
15.74874 12.980484 1.139953
11.144179 9.2079315 -0.80746233
13.471184 11.13063 0
15.72704 12.994543 1.139518
11.129046 9.2180786 -0.80717236
13.447698 11.138595 0
15.711328 13.013536 1.139518
11.113477 9.2165089 -0.80644679
13.418936 11.128448 0
15.725458 13.041267 1.1411141
11.088344 9.2183008 -0.80543065
13.409478 11.147978 0
15.727671 13.075208 1.1424203
11.077196 9.2316923 -0.80543065
13.378007 11.149179 0
15.727829 13.107511 1.1435814
11.058058 9.2384062 -0.8048501
13.352547 11.155327 0
15.739901 13.149832 1.1456137
11.054854 9.2584343 -0.80543065
13.321103 11.156416 0
15.741927 13.183855 1.1469197
11.0357 9.2651024 -0.8048501
13.311595 11.175847 0
15.727974 13.204535 1.1470647
11.020524 9.2750864 -0.80456012
11.812758 9.9418459 0
15.706041 13.218509 1.1466292
10.935827 9.2264004 -0.7991901
13.23681 11.167706 0
12.421214 10.479601 0.90774214
10.502102 8.8822174 -0.76827717
9.926877 8.3957167 0
12.386717 10.476142 0.90614545
10.509197 8.9100227 -0.76958328
9.9068012 8.399292 0
10.439743 8.8511362 0.76449716
10.466744 8.8957901 -0.76726109
9.8946638 8.4095726 0
12.349488 10.495952 0.90527493
10.4461 8.9000063 -0.76653552
9.8706264 8.4097061 0
12.340749 10.514234 0.9055649
10.38397 8.8687487 -0.76276219
9.8624353 8.423315 0
12.339894 10.539266 0.90643603
0 0 -0
9.8443422 8.4284554 0
12.344913 10.569376 0.90774214
0 0 -0
9.8416986 8.467495 0
12.335093 10.612736 0.90890324
0 0 -0
9.8452578 8.4912806 0
11.450614 9.8758602 0.84460968
0 0 -0
9.8468065 8.5133867 0
11.470123 9.9168797 0.84693193
10.276198 8.906353 -0.75956881
9.85814 8.5440226 0
11.477764 9.9477472 0.84838301
10.25955 8.9136553 -0.75913382
9.8615627 8.5678778 0
11.463777 9.9599056 0.84823805
10.237012 8.915803 -0.75826269
9.8649349 8.5917473 0
11.469367 9.9891081 0.84954417
10.210572 8.9144945 -0.7571016
9.8898382 8.6344728 0
11.461207 10.00638 0.84983468
10.180243 8.9097157 -0.75565046
10.047809 8.7938089 0
11.44324 10.015086 0.84939915
10.142128 8.8980217 -0.75361878
10.101732 8.8625803 0
11.409643 10.010054 0.84780246
10.098201 8.8810987 -0.75115156
10.098833 8.8816547 0
11.40925 10.034132 0.84867358
10.101101 8.9053183 -0.75216711
10.070526 8.8783627 0
11.430251 10.077122 0.8511408
10.096176 8.9226809 -0.7526027
10.067592 8.897419 0
15.855159 14.012287 1.1818966
10.073721 8.9245377 -0.75173211
10.074364 8.925107 0
15.830437 14.024543 1.181316
10.031844 8.9090967 -0.74940991
10.051892 8.9269018 0
15.836794 14.064365 1.1830577
9.9531498 8.8607445 -0.74433041
10.027497 8.9269323 0
15.841131 14.102492 1.1846538
9.9191713 8.8520021 -0.74258876
9.9720421 8.8991852 0
15.851225 14.145847 1.186686
9.9258957 8.8795719 -0.74389488
9.9050341 8.8609095 0
15.841867 14.17192 1.1872666
9.9499769 8.9227819 -0.74650711
9.919507 8.8954573 0
15.847939 14.211863 1.1890076
9.939188 8.9347982 -0.74650711
9.9300423 8.9265766 0
15.853944 14.251847 1.1907493
9.931859 8.939065 -0.74636209
0 0 0
15.856923 14.271856 1.1916205
9.9229784 8.9527979 -0.74650711
0 0 0
15.851238 14.301446 1.1924911
9.9102278 8.9630404 -0.74636209
9.901104 8.9547882 0
15.841655 14.32756 1.1930716
9.9090137 8.9837332 -0.74708766
9.8864164 8.9632463 0
11.219823 10.172142 0.84591579
9.9096851 9.0061817 -0.74795824
9.8852148 8.983942 0
11.197911 10.176955 0.84519023
9.9084063 9.0269041 -0.74868435
9.8878136 9.0081434 0
11.181767 10.186981 0.84490025
9.9109173 9.0511312 -0.74969989
9.8884554 9.0306177 0
11.159851 10.191719 0.84417415
9.9153061 9.077136 -0.75086099
9.8890505 9.0531006 0
11.151365 10.208708 0.84446466
9.9253922 9.1084375 -0.75245768
9.8915281 9.0773621 0
11.163909 10.245013 0.84635139
9.9334984 9.1380129 -0.75390881
9.8901281 9.098115 0
11.172559 10.277848 0.84794801
9.9663868 9.190526 -0.75724715
9.894433 9.1241732 0
10.191695 9.3982944 0.77436608
10.029685 9.2713461 -0.76290715
9.9139776 9.1643867 0
10.199409 9.428237 0.77581722
10.079459 9.3399677 -0.76755106
9.9639759 9.2329569 0
10.176578 9.4299603 0.77494663
10.094824 9.3769007 -0.76958328
10.027172 9.3140612 0
10.170881 9.4475498 0.77538162
10.092993 9.3979435 -0.77030885
10.061623 9.3687344 0
10.159459 9.4598331 0.77538162
10.093023 9.4207668 -0.77117944
10.063615 9.3933172 0
10.163218 9.4862862 0.77654278
10.091118 9.4418306 -0.771905
10.071257 9.4232473 0
10.165031 9.5109882 0.77755886
10.094864 9.4682379 -0.7730661
10.071249 9.4460888 0
10.142157 9.5125942 0.77668774
10.106133 9.5017872 -0.77480775
10.080687 9.4778624 0
10.0928 9.4892511 0.77378553
10.096535 9.5157719 -0.77495277
10.076803 9.4971762 0
10.037832 9.4604473 0.77044719
10.096365 9.5386753 -0.77582389
10.086131 9.529006 0
9.9999542 9.4475899 0.76841551
10.07917 9.5455055 -0.77538836
10.085943 9.5519199 0
9.9772158 9.4489489 0.76754493
10.082705 9.57199 -0.77654946
10.089494 9.5784349 0
9.9657907 9.4609976 0.76754493
10.073012 9.5859556 -0.77669448
10.087337 9.5995874 0
9.9562321 9.474822 0.76768994
10.089626 9.6250248 -0.77887166
10.088914 9.6243458 0
9.989893 9.5298843 0.77117276
10.093014 9.651576 -0.78003281
10.096084 9.6545124 0
10.019691 9.58146 0.77436608
10.086966 9.6691542 -0.78046781
10.095687 9.6775131 0
7.185143 6.8875275 0.55594248
10.077154 9.6831408 -0.78061336
10.098991 9.7041235 0
7.1824312 6.9015999 0.55637747
10.089774 9.7187424 -0.78250003
10.107878 9.7361813 0
7.1759634 6.9120812 0.55652303
10.113535 9.7652149 -0.78525728
10.101725 9.7538118 0
7.1507773 6.9044976 0.55521637
10.139391 9.8020239 -0.78772449
10.114538 9.777998 0
7.1391392 6.9015994 0.55463636
10.149932 9.835968 -0.78946614
10.119534 9.8065109 0
7.121459 6.9011741 0.55391026
10.154812 9.8645182 -0.79077226
10.126348 9.8368683 0
7.1131153 6.9097738 0.55391026
10.152192 9.8858433 -0.79149783
10.121913 9.8563595 0
7.102901 6.9165525 0.55376524
10.158837 9.9162569 -0.7929495
10.123028 9.8813028 0
7.0926809 6.9233165 0.55362022
10.161706 9.9430628 -0.79411066
10.12782 9.9099064 0
7.0787368 6.9264283 0.55318469
10.164525 9.9698906 -0.79527175
10.138134 9.944005 0
7.0703621 6.9349766 0.55318469
10.167287 9.9967327 -0.79643232
10.139103 9.9690218 0
7.0416017 6.92348 0.55158854
10.164458 10.018136 -0.79715842
10.141878 9.9958801 0
7.0295258 6.9283319 0.55129802
10.167127 10.045013 -0.79831898
10.142747 10.020926 0
7.0248494 6.9404769 0.55158854
10.177136 10.079232 -0.80006063
10.138027 10.0405 0
7.0164585 6.9489598 0.55158854
10.181545 10.107997 -0.80136675
10.144361 10.071081 0
0 0 0
10.178538 10.129461 -0.80209285
10.146942 10.098018 0
7.027267 6.9933844 0.55376524
10.190205 10.165608 -0.80397958
10.156836 10.13232 0
7.0353661 7.0183849 0.55507135
10.194964 10.219631 -0.80630124
10.161729 10.186315 0
7.0293994 7.0464072 0.55594248
10.19911 10.248524 -0.80760789
10.164099 10.213344 0
7.019042 7.0530486 0.55579692
10.1977 10.2719 -0.80847847
10.166419 10.240393 0
7.0178375 7.0689006 0.55637747
10.201735 10.30083 -0.80978459
10.165023 10.263761 0
7.0129514 7.0810714 0.55666804
10.205716 10.329783 -0.81109071
10.169081 10.292703 0
6.9970851 7.0821462 0.55608749
10.220589 10.369868 -0.81326795
10.167594 10.3161 0
6.9867005 7.0887465 0.55594248
10.215339 10.389622 -0.8138485
10.173365 10.346932 0
6.9726629 7.0916233 0.55550689
10.211873 10.411231 -0.81457406
10.182723 10.381513 0
6.9640889 7.1000433 0.55550689
10.217455 10.442132 -0.81602514
10.182915 10.406832 0
6.9536891 7.1065974 0.55536193
10.228424 10.478641 -0.8179118
10.188508 10.437748 0
6.9233165 7.0926809 0.55362022
10.221195 10.496579 -0.81834739
10.195862 10.470563 0
6.9074903 7.0935946 0.55303967
10.222989 10.523832 -0.81950849
10.190456 10.490342 0
6.900723 7.1037979 0.55318469
10.233772 10.560433 -0.82139516
10.194072 10.519465 0
6.9120274 7.132659 0.55478138
10.237257 10.589603 -0.82270128
10.192204 10.542999 0
6.9088168 7.1466045 0.55521637
10.238884 10.616928 -0.82386243
10.19933 10.575914 0
6.874927 7.1287656 0.55318469
10.245867 10.649892 -0.82545906
10.204584 10.606982 0
6.8374839 7.1071067 0.55086243
10.249183 10.679135 -0.82676518
10.204376 10.63245 0
6.8270936 7.1134901 0.55071747
10.25531 10.698451 -0.82778078
10.219562 10.661158 0
6.8227949 7.1176133 0.55071747
10.258544 10.727742 -0.82908744
10.224656 10.692304 0
6.8177848 7.129612 0.55100799
10.258123 10.753285 -0.83010298
10.224305 10.717834 0
6.823514 7.1528859 0.55216914
10.266619 10.78826 -0.83184469
10.231077 10.750913 0
6.8148661 7.1611257 0.55216914
10.262519 10.810078 -0.8325702
10.234204 10.780252 0
6.7936831 7.1561618 0.551153
10.272676 10.846995 -0.83445686
10.233699 10.80584 0
6.7582283 7.1360636 0.54897577
10.275627 10.876405 -0.83576357
10.236718 10.83522 0
6.7424631 7.1366692 0.54839522
10.283857 10.911497 -0.83750468
10.236115 10.860841 0
6.7320542 7.1429219 0.5482502
10.279571 10.933386 -0.83823079
10.244377 10.895954 0
6.7162991 7.1434784 0.54766965
10.284124 10.964747 -0.83968192
10.243661 10.921607 0
6.6970005 7.1402206 0.54679912
10.276196 10.982861 -0.84011745
10.253571 10.958679 0
6.6812668 7.140718 0.54621851
10.285966 11.019961 -0.84200412
10.259857 10.99199 0
6.6744046 7.1506834 0.54636353
10.286808 11.047595 -0.84316528
10.266078 11.025332 0
10.508054 11.285203 0.86129975
10.291133 11.079052 -0.84461635
10.268688 11.054888 0
10.471421 11.273144 0.85941309
10.300696 11.116254 -0.84650302
10.262398 11.074924 0
10.397747 11.220989 0.8544786
10.294312 11.136325 -0.84708363
10.266671 11.106422 0
10.311866 11.155314 0.84852803
10.307267 11.177403 -0.84926027
10.263833 11.130302 0
10.234972 11.099005 0.84330356
10.302555 11.199416 -0.84998637
10.269753 11.163759 0
10.214517 11.103714 0.84272301
10.304826 11.229086 -0.85129249
10.273849 11.195332 0
16.191818 17.644094 1.3376232
10.301774 11.253025 -0.85216308
10.283165 11.232697 0
16.186277 17.680895 1.3389294
10.309196 11.288488 -0.85390472
10.288884 11.266248 0
10.296855 11.274975 0.8528825
10.302548 11.30862 -0.85448527
10.291037 11.295984 0
10.328719 11.337346 0.85665584
10.302858 11.336445 -0.85564643
10.293132 11.325742 0
10.306276 11.340205 0.85593027
10.297877 11.358509 -0.856372
10.303915 11.365168 0
10.280347 11.339173 0.85491419
10.298089 11.386361 -0.8575331
10.300645 11.389187 0
10.235269 11.316901 0.85230196
10.324353 11.443163 -0.8608709
10.306055 11.422882 0
10.207662 11.313826 0.8511408
10.320952 11.467222 -0.86174202
10.307913 11.452734 0
10.19572 11.328081 0.85128582
10.32618 11.500947 -0.86333811
10.313187 11.486477 0
10.204591 11.365526 0.85317248
10.324412 11.526967 -0.86435425
10.318402 11.520256 0
10.275797 11.472689 0.86028421
10.319132 11.54912 -0.86507976
10.318346 11.548241 0
10.272312 11.496719 0.86115474
10.306903 11.563525 -0.86522532
10.313042 11.570412 0
16.271421 18.255239 1.3659239
10.303368 11.573628 -0.86551535
10.316436 11.588307 0
16.286301 18.294172 1.3681005
10.289375 11.586069 -0.86551535
10.295513 11.59298 0
16.29179 18.344925 1.3704228
10.265034 11.586827 -0.86464477
10.27114 11.59372 0
16.29546 18.393772 1.3726001
10.242416 11.589481 -0.86391866
10.238171 11.584678 0
16.290428 18.432917 1.3740512
10.226689 11.599901 -0.86377364
10.225885 11.59899 0
16.307661 18.49741 1.377389
10.212666 11.61225 -0.86377364
10.203271 11.601568 0
16.309326 18.544422 1.3794212
10.202057 11.628491 -0.86406422
10.184094 11.608018 0
16.319462 18.601221 1.3821784
10.208529 11.664268 -0.86580533
10.176917 11.628148 0
16.3158 18.642437 1.3837751
10.208098 11.692253 -0.86696649
10.178262 11.658078 0
16.329149 18.703243 1.3868228
10.211032 11.724177 -0.86841816
10.181257 11.68999 0
16.323601 18.74255 1.388274
10.219011 11.762005 -0.87030482
10.191024 11.729792 0
16.316278 18.779913 1.3895801
10.218407 11.790052 -0.87146592
10.202406 11.771591 0
9.343626 10.780725 0.79686117
10.202449 11.80042 -0.87132037
10.212008 11.811476 0
9.3305922 10.792007 0.79686117
10.194971 11.820609 -0.87190092
10.241918 11.875043 0
9.309062 10.793438 0.7961356
10.178988 11.830952 -0.8717559
10.361641 12.043248 0
9.2909279 10.798767 0.79570007
10.141919 11.845649 -0.87103039
10.52207 12.28966 0
9.2614269 10.817244 0.79541004
10.122534 11.851965 -0.8705948
10.568052 12.3736 0
16.389727 19.189903 1.4096085
10.11158 11.868147 -0.87088537
10.546343 12.378436 0
16.385065 19.231453 1.4112052
10.095551 11.878378 -0.87074035
10.558344 12.422898 0
16.393784 19.288851 1.4139624
10.087906 11.898488 -0.87132037
10.555109 12.449545 0
16.387266 19.328461 1.4154135
10.009761 11.83528 -0.86580533
13.694389 16.191889 0
16.395782 19.385946 1.4181713
10.667331 12.643726 -0.92400336
10.582047 12.542643 0
16.390774 19.427584 1.4197675
10.657067 12.662573 -0.92443889
13.651865 16.220949 0
16.402422 19.48912 1.4228152
10.656795 12.69335 -0.92574501
10.573459 12.594089 0
16.410608 19.54674 1.425573
10.636442 12.700239 -0.92530948
10.596662 12.652739 0
16.411999 19.59643 1.4277498
10.667736 12.768917 -0.92937338
10.596387 12.683515 0
16.421627 19.656128 1.4306525
10.65563 12.785793 -0.9296639
10.602712 12.722297 0
16.421158 19.703907 1.4326847
10.653456 12.814636 -0.93082446
10.605628 12.757107 0
16.427235 19.759695 1.4352969
10.656212 12.849504 -0.93242115
10.600177 12.781936 0
16.436516 19.819525 1.4381992
10.678768 12.908413 -0.93575895
10.586382 12.796738 0
16.442373 19.875414 1.440812
10.658206 12.9153 -0.93532395
10.5941 12.837618 0
16.451416 19.935343 1.4437143
10.663623 12.937778 -0.93648505
10.602898 12.864102 0
16.465813 19.97736 1.4460365
10.684285 12.994807 -0.93967783
10.587346 12.876904 0
16.471369 20.033373 1.4486492
10.691642 13.035831 -0.94170952
10.621288 12.950052 0
16.476809 20.08942 1.4512614
10.72031 13.103043 -0.9456284
10.660007 13.029337 0
16.48543 20.149538 1.4541643
10.69625 13.105915 -0.9449023
10.611352 13.001891 0
16.487352 20.201645 1.4564859
10.693531 13.134951 -0.94606346
10.682711 13.121659 0
16.499025 20.265888 1.4596792
10.725156 13.206355 -0.95027232
10.691459 13.164863 0
16.504009 20.322111 1.4622915
10.715733 13.227381 -0.95085287
10.687007 13.191921 0
16.508881 20.378378 1.4649037
10.732407 13.28074 -0.95375568
10.674334 13.208878 0
16.520174 20.44277 1.4680965
10.710632 13.286602 0
16.526447 20.501154 1.4708543
10.69457 13.299534 0
16.52771 20.553499 1.473176
10.714314 13.357104 0
16.530508 20.60792 1.4756438
10.681904 13.349716 0
16.534813 20.664394 1.478256
10.682004 13.382957 0
16.547112 20.731062 1.4815938
10.72 13.463896 -0.9613024
10.686897 13.422321 0
16.549562 20.785597 1.484061
10.744123 13.527706 -0.96493071
10.698186 13.469867 0
16.558371 20.848307 1.4871088
10.750358 13.569189 -0.9669624
10.722304 13.533779 0
16.567053 20.911068 1.4901567
10.733954 13.582169 -0.9669624
10.701101 13.540598 0
16.572388 20.969807 1.4929144
10.780275 13.674714 -0.97262299
10.705676 13.580085 0
16.572769 21.022457 1.495236
8.4750032 10.777249 -0.76580995
10.698915 13.605289 0
16.582695 21.087408 1.4984294
8.4683838 10.795651 -0.76638997
10.721011 13.667343 0
16.590881 21.150362 1.5014772
8.4473276 10.795646 -0.7656644
10.7526 13.741772 0
16.592533 21.205179 1.5039444
8.4262848 10.795605 -0.76493883
10.726382 13.742449 0
16.597271 21.264126 1.5067017
0 0 -0
10.738545 13.792358 0
16.598701 21.319017 1.5091689
8.3714857 10.779 -0.7623266
8.3945389 10.808683 0
16.592056 21.363686 1.5109106
8.3520889 10.780891 -0.76174605
8.3655367 10.798249 0
16.586916 21.410419 1.5127972
8.3327007 10.782751 -0.7611655
8.341342 10.793933 0
8.2913198 10.729203 0.75738543
8.3149052 10.786636 -0.76072997
8.3139954 10.785455 0
8.2656584 10.72275 0.75622433
8.287612 10.778138 -0.75942385
8.2993727 10.793432 0
8.2321072 10.705953 0.75433767
8.2635117 10.773709 -0.75840771
8.2720709 10.784869 0
8.2096796 10.703525 0.75346708
8.2441721 10.775432 -0.75782716
8.240057 10.770053 0
8.1809483 10.692796 0.75201541
8.2264214 10.779194 -0.75739217
8.2175674 10.767592 0
8.1664467 10.700609 0.75187045
8.201005 10.759363 -0.75565046
8.2142124 10.776691 0
8.1505327 10.693146 0.75099987
8.1879988 10.769265 -0.75565046
8.1885843 10.770035 0
8.1313152 10.694713 0.75041932
8.1671305 10.768801 -0.75492489
8.166132 10.767484 0
8.1168118 10.702454 0.75027376
8.1462755 10.768302 -0.75419939
8.1546841 10.779416 0
8.1038742 10.712253 0.75027376
8.1332579 10.778137 -0.75419939
8.1306782 10.774718 0
8.0862341 10.71582 0.74983877
8.1171007 10.783801 -0.75390881
8.1176529 10.784534 0
8.0717125 10.723501 0.74969321
8.0993824 10.787365 -0.75347322
8.1077442 10.798502 0
8.0603142 10.735331 0.74983877
8.0941353 10.807549 -0.75419939
8.0946903 10.80829 0
8.0411062 10.736743 0.74925822
8.0826235 10.819401 -0.75434434
8.0676088 10.799301 0
8.0343475 10.754778 0.74983877
8.0757551 10.837493 -0.75492489
8.0576611 10.81321 0
8.029108 10.774894 0.75056434
8.065752 10.85141 -0.75521493
8.060112 10.843822 0
8.0176315 10.786671 0.7507093
8.0619221 10.873676 -0.75608605
8.0423574 10.847287 0
8.0138807 10.808879 0.75158042
8.0472288 10.881314 -0.7559405
8.0261469 10.852808 0
8.0069885 10.826903 0.75216043
8.0417919 10.901491 -0.7566666
8.0284796 10.883446 0
8.0016174 10.847032 0.75288653
8.0316906 10.915382 -0.75695658
8.0168648 10.895233 0
8.0023642 10.875526 0.75419265
8.0237083 10.959919 -0.75869828
8.0028105 10.931374 0
7.988338 10.911606 0.75535381
8.0196505 10.982193 -0.75956881
7.9880624 10.938936 0
7.9766788 10.923347 0.75549877
8.0094376 10.99608 -0.75985938
7.9870915 10.965401 0
7.9650025 10.935076 0.75564378
8.0022545 11.014159 -0.76043993
7.9753699 10.977155 0
7.9609509 10.957309 0.75651491
7.9697347 10.997318 0
7.956851 10.97954 0.75738543
7.9533887 11.002718 0
7.9420576 10.987042 0.75724047
7.9400883 11.01232 0
7.9515676 11.02824 0.75941712
10.860813 15.101583 0
7.9397578 11.039956 0.75956267
10.847111 15.12104 0
7.9370103 11.064315 0.76057827
0 0 -0
0 0 0
16.428478 22.960079 1.5769458
0 0 0
16.400724 22.979912 1.5769458
0 0 0
13.401413 18.825485 1.2907453
0 0 0
13.3591 18.814123 1.2888587
10.72247 15.139578 0
13.331851 18.823889 1.2884231
10.698163 15.14402 0
13.301601 18.829374 1.2876974
10.670859 15.144167 0
13.287823 18.858181 1.2885686
10.657219 15.144233 0
13.280909 18.872576 1.2890036
10.629939 15.144314 0
13.262575 18.894991 1.2894392
10.610141 15.155017 0
13.241223 18.91313 1.2895842
10.578413 15.148624 0
13.239192 18.958944 1.2916164
10.552665 15.15072 0
13.214785 18.97279 1.2914709
10.535834 15.165595 0
16.149366 23.24588 1.5810091
10.523431 15.186871 0
16.073914 23.197041 1.5763652
10.530226 15.235969 0
16.004505 23.156593 1.5723014
10.56646 15.327959 0
15.966189 23.160936 1.5712852
10.875251 15.816764 0
15.958806 23.210192 1.5733175
10.879683 15.864233 0
15.941032 23.244452 1.5743331
10.879605 15.905291 0
15.918802 23.272276 1.5749136
10.886777 15.957117 0
15.884813 23.282907 1.5743331
10.892377 16.006836 0
15.839132 23.276314 1.5725919
10.897872 16.056589 0
15.7964 23.273932 1.5711403
10.903263 16.10638 0
15.737679 23.247816 1.5680925
10.90418 16.149736 0
15.647057 23.174219 1.5618519
10.913732 16.206074 0
15.597271 23.160776 1.5596746
10.924614 16.264614 0
15.556236 23.160194 1.5583686
10.923782 16.305908 0
15.522455 23.17034 1.557788
10.941661 16.375353 0
15.482898 23.171795 1.5566269
10.939186 16.414551 0
15.456333 23.192654 1.5567725
10.943833 16.4646 0
15.455624 23.252422 1.5595297
10.946939 16.512516 0
15.450489 23.305733 1.5618519
10.952814 16.564804 0
15.42805 23.333055 1.5624324
10.960014 16.619307 0
15.396981 23.347338 1.5621419
10.961373 16.665146 0
15.355909 23.346388 1.5608357
10.972637 16.726257 0
15.314862 23.345373 1.5595297
10.978064 16.778698 0
15.286643 23.363861 1.5595297
10.992125 16.822363 0
15.265419 23.362219 1.558804
10.997364 16.874874 0
15.211645 23.341465 1.5561918
11.002493 16.927423 0
15.173516 23.344576 1.5551758
11.025918 17.008404 0
15.148128 23.367258 1.5554663
11.023726 17.050123 0
15.112823 23.374628 1.5547402
11.017218 17.085299 0
15.084569 23.392872 1.5547402
11.02472 17.142376 0
15.553832 24.184708 1.606117
11.033504 17.201687 0
15.482513 24.137873 1.6017631
11.033745 17.247883 0
15.387528 24.053692 1.594942
11.04789 17.31605 0
15.317924 24.008743 1.5907331
11.056297 17.375494 0
15.276349 24.007505 1.589427
11.068762 17.441578 0
15.236191 24.008394 1.5882659
11.071339 17.492321 0
15.198834 24.013618 1.5873953
11.07381 17.543097 0
15.15455 24.007793 1.5857986
