# .PCD v0.7 - Point Cloud Data file format
VERSION 0.7
FIELDS x y z
SIZE 4 4 4
TYPE F F F
COUNT 1 1 1
WIDTH 1793
HEIGHT 1
VIEWPOINT 0 0 0 1 0 0 0
POINTS 1793
DATA ascii
6.9819584 17.207745 0
9.8321333 24.232288 1.4606948
1.1251053 2.782582 -0.989667
1.3286616 3.2860122 -0.97790688
1.6276459 4.0254526 -0.961896
2.0921514 5.1742558 -0.9304691
2.9745054 7.3564715 -0.88445234
5.4043403 13.365877 -0.80528569
6.9718933 17.24271 0
9.808692 24.25861 1.461566
1.1115839 2.7587285 -0.98070472
1.3275039 3.2945983 -0.97998405
1.6227807 4.0274162 -0.961896
2.0849392 5.1744013 -0.93004155
2.9646485 7.3576632 -0.88416433
5.3852715 13.365165 -0.8048501
6.9685593 17.294567 0
9.7910233 24.299356 1.463307
1.1202213 2.7898843 -0.9912985
1.3281951 3.3078384 -0.98344421
1.6169673 4.0270185 -0.96133369
2.0796411 5.1792965 -0.9304691
2.9576855 7.3660455 -0.88474143
5.3749299 13.386134 -0.80572122
6.9641418 17.344028 0
9.7703714 24.332878 1.4646137
1.1196014 2.7981136 -0.99374104
1.3111477 3.2768271 -0.97375262
1.616819 4.0407624 -0.96414757
2.0724287 5.1794248 -0.93004155
2.9507029 7.3744116 -0.8853175
5.3886728 13.4674 -0.81022012
6.9509144 17.371761 0
9.7351694 24.330187 1.4637426
1.1116434 2.7879872 -0.989667
1.3136925 3.2947237 -0.97859842
1.6015862 4.016758 -0.95795745
2.0690222 5.1890807 -0.93132585
2.946579 7.3899822 -0.88675869
5.3887563 13.514931 -0.81268734
6.9501595 17.43091 0
9.6999912 24.327454 1.462872
1.1146631 2.8054092 -0.99537253
1.3152703 3.310302 -0.98275268
1.609865 4.051744 -0.96583676
2.0674891 5.2035031 -0.9334653
2.9414678 7.403152 -0.88791186
5.3820148 13.545576 -0.81413847
6.9367805 17.458645 0
9.6667519 24.329498 1.4622915
1.1130905 2.8113458 -0.99700087
1.302955 3.2908888 -0.97652125
1.602161 4.046597 -0.96414757
2.0640361 5.21316 -0.9347496
2.9344263 7.4115152 -0.88848895
5.3713851 13.566569 -0.81500959
6.9338799 17.512981 0
10.981234 27.73543 1.6662017
1.1106025 2.8149943 -0.99781817
1.3109497 3.3228056 -0.98552132
1.5944755 4.0414457 -0.96246052
2.0558493 5.2108698 -0.93389285
2.9254689 7.4150553 -0.88848895
5.3626175 13.592387 -0.81617069
6.9289498 17.5625 0
10.947713 27.748678 1.6662017
1.1062933 2.8140275 -0.99700087
1.2959189 3.2963693 -0.97721541
1.589591 4.0433693 -0.96246052
2.0504899 5.2157369 -0.93432039
2.9212379 7.4306183 -0.88993019
5.3537917 13.618194 -0.81733125
6.9258165 17.61688 0
10.903717 27.735283 1.664605
1.0920775 2.787755 -0.9872244
1.2946776 3.3049338 -0.97928989
1.5911891 4.0618415 -0.96639907
2.0385699 5.2038741 -0.9317534
2.9113147 7.4317365 -0.88964212
5.3506041 13.658529 -0.81936347
6.9206619 17.666428 0
8.3113003 21.216324 1.2727491
1.0985918 2.8143926 -0.99618667
1.2934209 3.3135092 -0.98136705
1.5890527 4.0708642 -0.96808827
2.0388157 5.2230749 -0.9347496
2.9032724 7.4376559 -0.88993019
5.3425994 13.686768 -0.82066959
6.9116116 17.706291 0
8.2799873 21.211823 1.271878
1.0907115 2.8042026 -0.99211264
1.2957832 3.3314388 -0.98621285
0 0 -0
2.0352921 5.2327051 -0.9360323
2.8924065 7.4363327 -0.88935304
5.3345342 13.715006 -0.82197571
6.90908 17.76314 0
8.2477608 21.204866 1.2708625
1.0837497 2.7963002 -0.9888528
1.2890362 3.3259821 -0.98413569
1.5764549 4.0675826 -0.96639907
2.0261877 5.2279868 -0.9347496
2.8890288 7.4542971 -0.8910833
5.316082 13.7166 -0.82168573
6.9007769 17.805443 0
8.2164965 21.200275 1.2699913
1.0901653 2.8229721 -0.99781817
1.2877285 3.3345604 -0.98621285
1.5715388 4.0694842 -0.96639907
2.01617 5.2208524 -0.93303776
2.8828123 7.465014 -0.89194739
5.3079281 13.744827 -0.82299185
6.8914447 17.845327 0
8.18713 21.200493 1.2694107
1.0840898 2.8173649 -0.99537253
1.2791946 3.3244092 -0.98275268
1.5711856 4.0832443 -0.96921515
2.0153897 5.2376552 -0.93560469
2.8737903 7.468492 -0.89194739
5.2978458 13.7682 -0.82400739
6.8876352 17.899792 0
8.1577749 21.200668 1.2688302
1.2733788 3.3212628 -0.98136705
1.5644296 4.08039 -0.96808827
2.0136538 5.252069 -0.93774414
2.8721714 7.4912791 -0.89425373
5.2914391 13.801282 -0.82560408
6.8771782 17.937252 0
8.1330843 21.212944 1.2689757
1.0790404 2.8245897 -0.99700087
1.2738403 3.3345149 -0.98482716
1.556777 4.0751543 -0.96639907
2.0063908 5.2521024 -0.9373166
2.8594255 7.4850798 -0.89310056
5.2849603 13.83437 -0.82720077
6.8750024 17.996601 0
8.1055908 21.217896 1.2686852
1.0747483 2.8235838 -0.99618667
1.2698103 3.3360515 -0.98482716
1.55818 4.0936575 -0.97033983
1.9982187 5.2497292 -0.93646145
2.8540595 7.4981985 -0.89425373
5.2700872 13.845597 -0.82749075
6.8671398 18.041382 0
8.0799475 21.227674 1.2686852
1.0634487 2.8040836 -0.9888528
1.2595537 3.3211701 -0.97998405
1.5496284 4.0860343 -0.96808827
1.9955151 5.2617407 -0.93817335
2.8505023 7.5161567 -0.89598399
5.2570391 13.861673 -0.8280713
6.8582535 18.083729 0
8.0616627 21.256859 1.2698463
1.0661761 2.821553 -0.99455833
1.2715002 3.3649275 -0.99244165
1.5482826 4.0974112 -0.97033983
1.9909688 5.2689462 -0.93902844
2.8395879 7.5147514 -0.8954069
5.2457952 13.882595 -0.82894188
6.8529582 18.135828 0
8.0469942 21.295752 1.271588
1.062766 2.8228393 -0.99455833
1.2647806 3.3594155 -0.99036449
1.5451194 4.1040301 -0.97146451
1.9855045 5.2737484 -0.93945599
2.8341513 7.5278597 -0.89656007
5.2308502 13.893791 -0.82923245
6.8484592 18.190365 0
8.0175943 21.295732 1.2710074
1.0654068 2.8350468 -0.99863237
1.2592207 3.3507855 -0.98759586
1.5435361 4.1073484 -0.97202903
1.9832237 5.2773566 -0.9398852
2.8314242 7.5344176 -0.89713717
5.2261114 13.906679 -0.829813
6.8530312 18.23591 0
10.779729 28.684851 1.711628
1.0515805 2.8085558 -0.9888528
1.2516522 3.3429065 -0.98482716
1.5350082 4.0996919 -0.96977746
1.9795434 5.2869544 -0.94116789
2.8223183 7.5378332 -0.89713717
5.2175035 13.934882 -0.83111912
6.8492427 18.292923 0
10.732306 28.66379 1.7095963
1.2572583 3.3702748 -0.99244165
1.5336057 4.1110663 -0.97202903
1.9695648 5.2797217 -0.93945599
2.8186305 7.5557733 -0.89886642
5.1997547 13.938745 -0.8309741
6.8416882 18.3402 0
10.699479 28.681602 1.7098863
1.0430697 2.8064599 -0.9872244
1.2435701 3.3459215 -0.98482716
1.526865 4.1081486 -0.97090214
1.9667611 5.2917228 -0.94116789
2.8131032 7.5688715 -0.90001959
5.1910553 13.966935 -0.83228022
6.8322144 18.382601 0
9.1033287 24.493208 1.4595337
1.243011 3.3568323 -0.98759586
1.5236664 4.1147604 -0.97202903
1.9568 5.2844663 -0.93945599
2.8057537 7.5771208 -0.90059668
5.1732736 13.970763 -0.8321352
6.8235507 18.427444 0
9.0610962 24.470081 1.457502
1.0482595 2.8414316 -0.99863237
1.2363516 3.3512776 -0.98552132
1.5186934 4.1165986 -0.97202903
1.9521921 5.2916479 -0.94031274
2.7983849 7.5853539 -0.90117276
5.1635804 13.996497 -0.83329576
6.8165922 18.47718 0
10.627817 28.807961 1.7151114
1.0439736 2.8403785 -0.99781817
1.2392218 3.371598 -0.99105597
1.5163454 4.1255784 -0.97371608
1.9511086 5.3084555 -0.94287974
2.7865396 7.5814443 -0.9003076
5.1475635 14.005172 -0.83344132
6.8113203 18.531818 0
10.583139 28.793951 1.7135147
1.2282492 3.3542554 -0.98552132
1.5122355 4.1298003 -0.97428054
1.9499907 5.3252769 -0.9454484
2.7809343 7.594521 -0.90146077
5.1359963 14.026017 -0.8343119
6.8032413 18.579136 0
10.547447 28.804279 1.7133697
1.0362569 2.8405645 -0.99700087
1.2267723 3.3628008 -0.98759586
1.504631 4.1244612 -0.97259134
1.9391533 5.3155642 -0.94330728
2.7779617 7.6148868 -0.9034791
5.1190453 14.032213 -0.8343119
6.8030839 18.648462 0
10.523321 28.846296 1.7151114
1.0336705 2.8441441 -0.99781817
1.2269919 3.3760679 -0.99105597
1.5039852 4.1382146 -0.97540528
1.9353606 5.3251438 -0.94459164
2.7652245 7.6085143 -0.90232593
5.1047497 14.045716 -0.83474743
6.7903218 18.683567 0
10.492896 28.871199 1.7158369
1.2203519 3.3704779 -0.98898149
1.4989839 4.140029 -0.97540528
1.9271785 5.3226557 -0.94373649
2.7577887 7.6167092 -0.90290195
5.0921969 14.064089 -0.835473
6.7898908 18.752934 0
8.8684177 24.493595 1.4550349
1.2213843 3.3861053 -0.99313313
1.4913931 4.1346641 -0.97371608
1.921616 5.3273926 -0.94416404
2.7538505 7.6346388 -0.90463227
5.079607 14.08245 -0.83619857
6.774291 18.780708 0
8.8203011 24.452965 1.451987
1.2189903 3.3923051 -0.99451876
1.4889746 4.1436391 -0.97540528
1.9125723 5.3224611 -0.94287974
2.7498698 7.6525607 -0.90636146
5.0634651 14.091021 -0.83634359
6.7718325 18.845203 0
8.7907476 24.463606 1.451987
1.2106605 3.3819587 -0.99105597
1.4788302 4.1310863 -0.97202903
1.9121969 5.3416886 -0.94587594
2.7406213 7.6558776 -0.90636146
5.0508165 14.109367 -0.83706969
6.7604618 18.885233 0
8.7646856 24.483995 1.4525676
1.2082601 3.3881497 -0.99244165
1.4729816 4.1304703 -0.97146451
1.9074639 5.3488264 -0.94673103
2.7339759 7.6664948 -0.90722662
5.0459819 14.14972 -0.83910137
6.7638612 18.966921 0
8.7272406 24.472542 1.4512614
1.2092026 3.4037867 -0.9965933
1.4696925 4.1370401 -0.97259134
1.9035784 5.3583865 -0.94801533
2.730772 7.6868558 -0.90924489
5.0306191 14.1607 -0.83939135
6.749649 18.999599 0
8.7037497 24.500202 1.4522771
1.0104015 2.855113 -0.99863237
1.2025805 3.3981571 -0.99451876
1.4646926 4.138813 -0.97259134
1.8945323 5.3534203 -0.94673103
2.7197547 7.6852684 -0.9086678
5.0204401 14.186364 -0.84055245
6.7344999 19.029819 0
8.6828108 24.535202 1.4537287
1.2034765 3.4137993 -0.9986704
1.4613785 4.1453676 -0.97371608
1.8906237 5.3629708 -0.94801533
2.7130473 7.6958694 -0.90953296
5.0084801 14.207129 -0.84142357
6.7132335 19.042856 0
8.6531582 24.545675 1.4537287
1.1918703 3.3939497 -0.99244165
1.4555275 4.1447353 -0.97315371
1.8866948 5.37252 -0.94929969
2.7046025 7.70158 -0.90982097
4.999918 14.237682 -0.84287471
6.6910806 19.053408 0
8.6209097 24.548756 1.4532931
1.1910821 3.4048598 -0.99521029
1.4521979 4.1512923 -0.97428054
1.8818954 5.3796372 -0.95015478
2.699564 7.7170472 -0.91126215
4.9887176 14.260884 -0.84389085
6.6637573 19.049198 0
8.5792303 24.524822 1.4512614
1.1861424 3.4039297 -0.99451876
1.4471809 4.1530442 -0.97428054
1.873706 5.3770638 -0.94929969
2.6885369 7.7154231 -0.91068614
4.9766111 14.28162 -0.84476137
6.6381655 19.04986 0
8.5359106 24.495911 1.4489392
1.1803817 3.4006157 -0.99313313
1.442994 4.1571879 -0.97484291
1.8663665 5.3769011 -0.94887209
2.6766672 7.7113333 -0.90982097
4.9678736 14.312175 -0.84621304
6.6066098 19.033287 0
8.5284576 24.570026 1.4527125
1.18037 3.4138925 -0.9965933
1.4363077 4.1541209 -0.97371608
1.8581889 5.3742952 -0.94801533
2.6724203 7.7292337 -0.91155124
4.957366 14.337804 -0.8473736
6.5836072 19.041256 0
8.5420656 24.705551 1.4601142
0.98058218 2.8471963 -0.99292684
1.1746118 3.4105766 -0.99521029
1.432117 4.1582627 -0.97428054
1.8567077 5.3910947 -0.95058233
2.6656034 7.7397866 -0.91241533
4.9510369 14.37572 -0.84926027
6.5521188 19.024586 0
8.5071316 24.701118 1.4592437
1.1758131 3.4207759 -0.99797893
1.4304296 4.1615276 -0.97484291
1.8534503 5.3922157 -0.95058233
2.66429 7.7511797 -0.9135685
4.9541774 14.413116 -0.85129249
6.5347042 19.01132 0
8.5158539 24.775049 1.463307
1.1708671 3.4198229 -0.99728745
1.4311622 4.1800828 -0.97878367
1.8502595 5.4041657 -0.95229423
2.6565995 7.7592921 -0.91414559
4.9434919 14.438759 -0.85245365
5.3223228 15.545233 0
8.4867563 24.787786 1.4634526
1.1675431 3.4236073 -0.99797893
1.4244685 4.1769948 -0.97765678
1.8404139 5.3966789 -0.95058233
2.6472218 7.7624965 -0.91414559
4.9260421 14.444721 -0.85245365
5.2942944 15.524554 0
8.4702148 24.837364 1.4657743
1.1593717 3.4131405 -0.99451876
1.4194205 4.1787128 -0.97765678
1.8380225 5.4110589 -0.95272338
2.6395028 7.7705827 -0.91472167
4.9194484 14.482645 -0.85434031
5.2755322 15.53094 0
8.4360199 24.835281 1.4650487
1.1528339 3.4074073 -0.99244165
1.4184411 4.1924567 -0.98047066
1.8331267 5.4181347 -0.95357853
2.6342554 7.7860141 -0.91616285
4.9052768 14.498425 -0.85492086
5.2542624 15.529915 0
8.400178 24.828234 1.4640331
1.4058822 4.188653 -0.97878367
1.8224791 5.429852 -0.95486283
2.6162574 7.7948165 -0.91645193
4.9016428 14.603841 -0.8604359
5.2216845 15.557365 0
8.3178291 24.781946 1.4601142
1.4048473 4.2023954 -0.98159754
1.8151038 5.4296179 -0.95443529
2.6101139 7.807775 -0.91760403
4.8996439 14.656569 -0.86319309
5.2020583 15.561198 0
8.2697554 24.737766 1.4569215
1.3957558 4.1920381 -0.97878367
1.8077285 5.4293647 -0.95400608
2.5974126 7.8011165 -0.91645193
4.8999877 14.716712 -0.86638588
5.1824274 15.564996 0
5.2094011 15.646009 0.92109442
1.1401221 3.438118 -0.99936193
1.3922875 4.1985407 -0.97990835
1.8019773 5.4339886 -0.95443529
2.5920544 7.8165216 -0.91789311
4.8977427 14.769485 -0.86914366
5.1611609 15.563843 0
5.1847658 15.635025 0.92007828
1.135181 3.437113 -0.9986704
1.3888086 4.20505 -0.98103517
1.79541 5.436162 -0.95443529
2.5850389 7.8270092 -0.9187572
4.8896718 14.805001 -0.87088537
6.6334167 20.084732 0
5.163425 15.633874 0.91964275
1.3853129 4.2115474 -0.98215985
1.7912441 5.4456358 -0.95571792
2.5796227 7.8424187 -0.92019945
4.8815222 14.840519 -0.87262702
6.6172738 20.117449 0
5.1461558 15.645043 0.91993332
1.3818036 4.2180429 -0.98328453
1.7870611 5.4551172 -0.95700228
2.5717537 7.8504415 -0.92077553
4.8724828 14.873562 -0.87422317
6.6034927 20.157579 0
5.1240125 15.641373 0.91935277
1.3767059 4.2197094 -0.98328453
1.7836533 5.4670343 -0.95871413
2.5582559 7.8412509 -0.91933435
4.873045 14.936257 -0.87756151
6.5815535 20.172968 0
5.1067195 15.652489 0.91964275
1.3723937 4.2237935 -0.98384905
1.7722881 5.4545417 -0.95614713
2.5551734 7.8640151 -0.92164063
4.8726578 14.996498 -0.88075429
5.0228086 15.458615 0
5.0910149 15.668532 0.9202233
1.3719811 4.2399487 -0.98722529
1.7688543 5.4664392 -0.95785737
2.5520399 7.8867836 -0.92394698
4.8697309 15.04934 -0.88351154
5.0009212 15.454769 0
5.0680795 15.662313 0.91949773
1.3645182 4.2343459 -0.9855361
1.7630374 5.4710231 -0.95828658
2.5369544 7.8726268 -0.9219287
4.8690786 15.109629 -0.88670486
4.9830408 15.463275 0
5.0403867 15.641228 0.91790164
1.3609551 4.2408352 -0.98666292
1.7540715 5.4658141 -0.95700228
2.5321805 7.8904581 -0.92365789
4.860343 15.145182 -0.88844597
4.9611721 15.459373 0
7.9988356 24.924953 1.4621465
1.3581512 4.2497396 -0.98835212
1.7505916 5.4777107 -0.95871413
2.5226445 7.8935122 -0.92365789
4.8570695 15.198073 -0.89120376
4.9401112 15.457916 0
7.9774117 24.961819 1.4637426
1.3499329 4.2416925 -0.98610061
1.7455271 5.4847093 -0.95956922
2.5146751 7.9014883 -0.92423505
4.8505201 15.241065 -0.89338046
4.9190645 15.456442 0
7.9275446 24.90954 1.4601142
1.3478773 4.2530093 -0.98835212
1.7404513 5.4917135 -0.96042597
2.5090322 7.9168468 -0.92567623
4.8501573 15.303888 -0.8967188
4.9003849 15.462374 0
7.8864517 24.884428 1.4580826
1.3412064 4.249784 -0.98722529
1.7376766 5.5060506 -0.96256542
2.5002422 7.9223371 -0.92596424
4.8379178 15.329562 -0.8978799
4.8832631 15.473243 0
7.8391747 24.839428 1.4548898
1.3368315 4.2538233 -0.98778766
1.7333319 5.5154953 -0.96384972
2.4906678 7.9253521 -0.92596424
4.8287401 15.365143 -0.89962161
4.8676839 15.489063 0
7.8091555 24.848881 1.4548898
1.3395842 4.2716036 -0.99172837
1.7276943 5.5091906 -0.96256542
2.4905245 7.941668 -0.9276945
4.828784 15.3978 -0.90136272
6.5566998 20.907698 0
7.7918081 24.846155 1.4544543
1.3344219 4.2732191 -0.99172837
1.724097 5.5210757 -0.96427727
2.4816968 7.9471383 -0.92798257
4.8171482 15.425955 -0.90266937
6.526001 20.898214 0
7.7617807 24.855551 1.4544543
1.3269935 4.2675471 -0.99003917
1.7159016 5.5182571 -0.96342218
2.4766991 7.9649453 -0.92971176
4.8093057 15.466496 -0.90470105
6.5131087 20.945847 0
7.7386851 24.887241 1.4557604
1.3255929 4.2812815 -0.99285305
1.7061955 5.5105176 -0.96171033
2.4655447 7.9629955 -0.92913574
4.7998366 15.502083 -0.9064427
6.5055003 21.010881 0
7.7285891 24.961105 1.4595337
1.3189231 4.2780285 -0.99172837
1.7025611 5.5223875 -0.96342218
2.4559212 7.9659686 -0.92913574
4.7918181 15.54263 -0.90847439
6.4992728 21.080891 0
7.7022495 24.98284 1.4602593
1.3137529 4.2796187 -0.99172837
1.698145 5.531796 -0.96470487
2.4516079 7.9862409 -0.93115401
4.7852349 15.588153 -0.91079664
6.4890704 21.138487 0
7.6598592 24.952393 1.4579376
1.3085809 4.2812033 -0.99172837
1.6907099 5.5313911 -0.96427727
2.4389322 7.9793034 -0.93000084
4.7732315 15.616286 -0.91210276
6.4840646 21.213512 0
7.6259036 24.949198 1.4572115
1.3063661 4.2925043 -0.99397993
1.6870148 5.5432534 -0.96598917
2.4390781 8.01441 -0.93374836
4.7641931 15.654356 -0.91398942
6.4713078 21.263655 0
7.5934844 24.950943 1.4567765
1.3004423 4.2916503 -0.99341756
1.6795719 5.5428333 -0.96556163
2.4263921 8.0074492 -0.93259519
4.7610979 15.712321 -0.91703719
6.4607015 21.321262 0
7.568603 24.977501 1.457792
1.2989247 4.3053794 -0.99623144
1.6743548 5.5497694 -0.96641672
2.4182076 8.0153236 -0.93317127
4.7443614 15.725529 -0.91747278
6.4604907 21.413763 0
7.5481763 25.018974 1.4596792
1.2929912 4.3045144 -0.99566913
1.6713395 5.5640788 -0.96855617
2.4100106 8.0231981 -0.93374836
4.7380643 15.773554 -0.91993999
6.4495854 21.471403 0
7.5306478 25.070381 1.4621465
1.2892437 4.3109379 -0.99679381
1.6638803 5.5636373 -0.96812856
2.4010546 8.0285807 -0.93403643
4.7346358 15.831544 -0.92298776
6.4415331 21.539021 0
4.6661086 15.602405 0.90962881
1.2847583 4.3149252 -0.99735612
1.6593549 5.5730271 -0.96941292
2.3913519 8.031476 -0.93403643
4.7281079 15.879588 -0.92545503
6.4325819 21.604151 0
4.6442866 15.598069 0.90904826
1.2788222 4.3140407 -0.99679381
1.6526198 5.5750279 -0.96941292
2.3875265 8.0541983 -0.93634278
4.7170386 15.912686 -0.92705113
6.4168296 21.646845 0
4.6276522 15.611146 0.90948385
1.2700132 4.3034 -0.99397993
1.6444277 5.5720921 -0.96855617
2.3785243 8.0595551 -0.93663079
4.7147245 15.975698 -0.93038946
6.4120278 21.726955 0
4.6080508 15.614237 0.90933883
1.269827 4.3219991 -0.99792063
1.6391424 5.5790052 -0.96941292
2.3702438 8.0673914 -0.93720788
4.7071342 16.021261 -0.93271118
6.4004426 21.784628 0
0 0 0
1.2646037 4.3235302 -0.99792063
1.6352826 5.5908375 -0.97112477
2.3626704 8.0776892 -0.93807197
4.7001753 16.069342 -0.93517894
6.3909202 21.849798 0
0 0 0
1.2600883 4.3274922 -0.998483
1.6313968 5.6026678 -0.97283661
2.3543558 8.0855103 -0.93864906
4.6996417 16.139872 -0.93895227
6.3827004 21.91996 0
0 0 0
1.256272 4.3338881 -0.99960768
1.6239117 5.6021719 -0.97240907
2.3445845 8.0883484 -0.93864906
4.6844759 16.160507 -0.93982285
6.3764977 21.997644 0
4.523849 15.606378 0.90759712
1.6221215 5.621388 -0.97540361
2.3412628 8.1135397 -0.94124347
4.6807933 16.221075 -0.94301564
6.3657856 22.060339 0
4.5057082 15.614326 0.90774214
1.613201 5.6159396 -0.97411931
2.3257446 8.0964746 -0.93893713
4.6705155 16.259184 -0.9449023
6.3578057 22.133045 0
4.478229 15.589789 0.90600049
1.605004 5.6129532 -0.97326422
2.3188043 8.1092262 -0.9400903
4.6658673 16.317278 -0.94795012
6.3439379 22.185757 0
4.4572449 15.587692 0.9055649
1.2353108 4.3399091 -0.99960768
1.5982206 5.6148882 -0.97326422
2.3075867 8.1070423 -0.93951315
4.4092774 15.490727 -0.89962161
6.3470488 22.298529 0
8.3030577 29.170406 1.6940669
1.5935349 5.6242275 -0.97454852
2.3027256 8.1272469 -0.94153148
4.4089723 15.56104 -0.90339494
6.3364158 22.363766 0
8.2267256 29.035431 1.6856496
1.586738 5.6261487 -0.97454852
2.2929037 8.130023 -0.94153148
4.4035654 15.613866 -0.90615219
6.3206916 22.411482 0
8.1979828 29.067854 1.6869557
1.584728 5.6320438 -0.97540361
2.2914937 8.1438532 -0.94297266
4.3920221 15.609027 -0.90571719
6.3247728 22.477924 0
8.1811228 29.075302 1.6871006
1.5786133 5.6364241 -0.97583115
2.2865353 8.164053 -0.94499099
4.3738585 15.616822 -0.90586215
6.3179617 22.558224 0
8.138979 29.060148 1.6856496
1.5731816 5.6432776 -0.97668791
2.2787533 8.1742868 -0.94585609
4.3605676 15.642119 -0.90702331
6.3067718 22.623493 0
8.0996714 29.054939 1.6847785
1.5649877 5.6402225 -0.97583115
2.2661085 8.1670647 -0.94470292
4.3381882 15.634851 -0.90629715
6.3051758 22.723883 0
8.0652552 29.067215 1.684924
1.5595394 5.6470633 -0.97668791
2.2631223 8.1947241 -0.94758534
4.3262119 15.665133 -0.90774882
6.2818694 22.746531 0
8.034276 29.091963 1.6857946
1.5561161 5.6613173 -0.97882736
2.2484198 8.1799917 -0.94556701
4.3107233 15.682874 -0.90847439
6.2716231 22.816837 0
8.009449 29.139235 1.6879718
1.5479209 5.658246 -0.97797227
2.2412641 8.1926823 -0.94672018
4.3109689 15.758249 -0.91253829
6.2564087 22.869579 0
7.6807847 28.07622 1.6258548
1.5404066 5.6576281 -0.97754306
2.2374806 8.2178526 -0.94931561
4.3205943 15.868743 -0.91863388
6.2410789 22.922327 0
7.6564126 28.120586 1.6278871
1.5342426 5.6619701 -0.97797227
2.2214592 8.1980743 -0.94672018
4.3136487 15.919091 -0.92124611
4.2592998 15.718523 0
7.6244655 28.137333 1.6283221
1.5294034 5.6712484 -0.9792549
2.2169394 8.2207308 -0.94902653
4.2991443 15.941847 -0.92226166
4.2430143 15.733709 0
7.5897856 28.144018 1.6281772
1.5252113 5.6830096 -0.98096681
2.2063348 8.2209082 -0.94873852
4.2899823 15.984676 -0.92443889
4.2199516 15.723739 0
7.557795 28.1607 1.6286126
1.5176816 5.6823707 -0.9805392
2.197736 8.22857 -0.94931561
4.2780409 16.017466 -0.92603558
4.1942348 15.703687 0
6.9920774 26.179123 1.5135227
1.5141109 5.6966023 -0.98267865
2.1924407 8.2487106 -0.95133287
4.2513409 15.994997 -0.92443889
4.1658969 15.673526 0
7.4336543 27.967947 1.6164216
1.5085406 5.7033958 -0.98353541
2.1818113 8.2488556 -0.95104486
4.2433057 16.042826 -0.92690611
4.1442933 15.668485 0
7.4071646 28.004543 1.6180182
1.5009929 5.7027249 -0.9831062
2.1705246 8.2464781 -0.95046771
4.2153206 16.015276 -0.92501944
4.1147618 15.633222 0
7.366045 27.985828 1.6164216
1.4947534 5.7070251 -0.98353541
2.1638374 8.2616129 -0.95190996
4.1985998 16.030413 -0.92559999
4.0945487 15.633142 0
7.3276153 27.97711 1.6154054
1.4872072 5.7063355 -0.9831062
2.153199 8.2617111 -0.95162088
4.1884003 16.070671 -0.92763168
4.071064 15.620457 0
7.0886979 27.198961 1.5699791
1.4796673 5.705646 -0.98267865
2.1471119 8.2793341 -0.95335114
4.174849 16.098354 -0.92893779
4.0482655 15.610245 0
7.0499582 27.184872 1.568673
1.4734129 5.7099128 -0.9831062
2.1377518 8.2844238 -0.95363921
4.1605883 16.123516 -0.93009895
4.0267997 15.605045 0
7.0145087 27.183306 1.5680925
1.4697064 5.7241282 -0.98524725
2.1290278 8.292016 -0.9542163
4.1411028 16.128531 -0.93009895
4.0014701 15.584697 0
6.9777818 27.176666 1.5672219
1.4646932 5.7333546 -0.98652995
2.1228471 8.3096142 -0.95594555
4.1460509 16.229187 -0.93561393
3.982636 15.58952 0
6.9423661 27.175007 1.5666413
1.4520936 5.7418594 -0.9873867
2.1033933 8.3172245 -0.95623356
4.1023617 16.221533 -0.93459839
3.9404836 15.581435 0
7.1295829 28.191751 1.6242588
1.4457804 5.7460971 -0.98781425
2.0958664 8.3297939 -0.95738673
4.0840249 16.231512 -0.93488836
3.9108586 15.543283 0
7.0872717 28.167589 1.6223722
1.4435595 5.7519541 -0.988671
2.0902047 8.3285522 -0.95709866
4.0780115 16.249094 -0.93575895
3.9046345 15.558261 0
6.6230869 26.390106 1.5197634
1.4372296 5.7561822 -0.98909855
2.0845263 8.3486404 -0.959117
4.0684462 16.294346 -0.9380812
3.8858323 15.562968 0
6.6069307 26.461113 1.5233917
1.43151 5.7628927 -0.9899537
2.0756829 8.3561687 -0.95969307
4.0575261 16.33456 -0.94011343
3.8569889 15.527249 0
6.561173 26.413603 1.5201989
1.4226998 5.7571487 -0.988671
2.0680666 8.3687143 -0.96084625
4.0440183 16.364672 -0.9415645
3.8394718 15.536946 0
6.5155392 26.366018 1.5170062
1.4181913 5.7688255 -0.99038124
2.0598061 8.3787441 -0.96171135
4.0205188 16.354403 -0.94069344
3.8244224 15.556733 0
6.4768524 26.346113 1.5154095
1.4118314 5.7730355 -0.99081045
2.0527523 8.3937864 -0.96315253
4.0075455 16.387014 -0.94229007
3.8012962 15.543654 0
6.4456325 26.356451 1.515555
1.4048548 5.7747374 -0.99081045
2.0438302 8.4012823 -0.96372861
4.0024834 16.45244 -0.94577342
3.7695937 15.495135 0
6.4143949 26.366743 1.5157
1.3996857 5.7839088 -0.99209309
2.0336773 8.4037457 -0.96372861
3.9764879 16.432005 -0.94432175
3.7539282 15.512323 0
6.3843651 26.382053 1.5161356
1.3950992 5.795579 -0.99380499
2.0247333 8.411231 -0.9643057
3.9608877 16.454483 -0.94533789
3.7370098 15.524441 0
6.3421431 26.346794 1.5136678
1.3869009 5.7922721 -0.99294984
2.016376 8.4212198 -0.96517086
3.9506838 16.499691 -0.94766009
3.7176409 15.526407 0
6.3030448 26.324123 1.5119267
1.3816859 5.8014379 -0.9942342
2.0061991 8.4236507 -0.96517086
3.9325509 16.512037 -0.94809568
3.6928492 15.505575 0
6.2646098 26.303913 1.51033
1.3758572 5.808094 -0.99508929
1.9989997 8.4386501 -0.96661204
3.9191833 16.544582 -0.94969177
3.6741111 15.510026 0
6.4867678 27.383478 1.5718658
1.3700169 5.8147545 -0.99594605
1.9852417 8.4259491 -0.96488178
3.9117029 16.602417 -0.9527396
3.6571586 15.522057 0
6.4429502 27.345776 1.5692536
1.3618174 5.8114018 -0.99508929
1.9774196 8.4384146 -0.96603495
3.8999381 16.642546 -0.95477122
3.6401825 15.534068 0
6.3944907 27.287767 1.5654802
1.3571252 5.8230433 -0.99680114
1.967222 8.4407978 -0.96603495
3.875699 16.629539 -0.95375568
3.6178646 15.523243 0
6.3532581 27.26005 1.5634485
1.3524067 5.834682 -0.99851304
1.9616938 8.4633265 -0.96834129
3.8679235 16.687365 -0.9568035
3.594991 15.509853 0
6.315033 27.244917 1.5621419
1.3442013 5.8313041 -0.99765629
1.9532095 8.4732542 -0.96920639
3.8477573 16.692026 -0.9568035
3.5750797 15.509119 0
6.285028 27.265196 1.562868
1.3377296 5.8354335 -0.9980855
1.9429698 8.4756079 -0.96920639
3.831068 16.711855 -0.95767403
3.5615704 15.536255 0
6.2619486 27.315825 1.5653353
1.3329599 5.8470573 -0.99979734
1.9356012 8.4905558 -0.97064763
3.8258874 16.782337 -0.96144736
3.5427954 15.540547 0
6.2260489 27.310696 1.5646091
1.9230533 8.4827986 -0.96949446
3.8084807 16.799625 -0.96217352
3.5199869 15.527047 0
6.1913228 27.310604 1.5641741
1.9133703 8.4876366 -0.96978247
3.7893205 16.80928 -0.9624635
3.5086646 15.564301 0
6.1743169 27.38903 1.5682374
1.9042459 8.4949951 -0.97035956
3.7673013 16.806238 -0.96202791
3.4841621 15.54313 0
6.1855493 27.594238 1.579558
1.8996059 8.5225306 -0.97324198
3.7605588 16.871647 -0.96551126
3.4642475 15.542253 0
6.1962929 27.799501 1.5908781
1.893896 8.5211544 -0.97295392
3.7531834 16.886595 -0.96623683
3.459374 15.564667 0
6.1828804 27.818464 1.5917492
1.8863884 8.5360613 -0.97439516
3.736702 16.908882 -0.96725297
3.4388795 15.56121 0
6.1408515 27.787853 1.589572
1.8782932 8.54844 -0.97554833
3.7246311 16.951445 -0.96942961
3.4150481 15.542479 0
6.1095014 27.805405 1.5901525
1.8679627 8.550703 -0.97554833
3.7174556 17.016859 -0.97291297
3.3984873 15.556765 0
6.0831084 27.845766 1.5920392
1.8565326 8.5479031 -0.97497225
3.6891713 16.985794 -0.97088128
3.3824489 15.573573 0
6.0500088 27.855633 1.5921842
1.8511155 8.5728922 -0.9775666
3.6872904 17.076591 -0.97581577
3.3746145 15.628526 0
6.0190902 27.875629 1.5929103
1.8391263 8.5675335 -0.9767015
3.6628358 17.063248 -0.97479963
3.3453496 15.584244 0
5.9990373 27.946394 1.5965387
1.8266137 8.5596313 -0.97554833
3.6492651 17.100695 -0.9766863
3.3297763 15.60355 0
5.967432 27.963778 1.5971187
1.8178804 8.5694246 -0.97641343
3.6383045 17.150841 -0.97929853
3.3168592 15.635559 0
5.9244728 27.927757 1.5946515
1.8112588 8.589324 -0.97843069
3.622941 17.180655 -0.9807502
3.288836 15.596268 0
5.8826823 27.896765 1.5924748
1.8067164 8.6193542 -0.98160219
3.6123059 17.233334 -0.98350745
3.2763956 15.630796 0
5.8303142 27.81485 1.5873953
1.7973543 8.6265907 -0.98217821
3.5957201 17.258036 -0.98466855
3.255383 15.624553 0
5.7924609 27.801523 1.5862342
1.7827355 8.6085043 -0.97987294
3.5811877 17.292902 -0.98641026
3.2380853 15.636122 0
5.761498 27.821222 1.5869597
1.7733744 8.6157141 -0.98044902
3.5665762 17.327757 -0.98815191
3.2186635 15.637466 0
5.7430687 27.901968 1.5911686
1.7691833 8.6482582 -0.98390847
3.544594 17.326958 -0.98786139
3.2049832 15.666846 0
5.7156 27.939436 1.5929103
1.7561562 8.6377192 -0.98246729
3.5391853 17.407614 -0.99221528
3.1808646 15.6452 0
5.7004719 28.037981 1.5981348
1.7462296 8.6423674 -0.9827553
3.5166066 17.404243 -0.99178028
3.168143 15.679643 0
5.6696777 28.060135 1.5990059
1.7383312 8.6571484 -0.98419654
3.5042703 17.451786 -0.9942475
3.152782 15.701323 0
5.6357684 28.066965 1.5990059
1.7283752 8.6617765 -0.98448455
3.4877565 17.478939 -0.99555361
3.1353359 15.71278 0
5.6013412 28.071199 1.5988604
1.7209271 8.6790857 -0.98621482
3.4686556 17.493338 -0.99613416
0 0 0
5.5866222 28.174797 1.6043754
1.7099395 8.6786232 -0.98592681
3.4560544 17.540854 -0.99860144
3.0988631 15.727963 0
5.559608 28.217224 1.6064076
1.7024324 8.6959085 -0.987656
3.4373531 17.557764 -0.99932694
0 0 0
5.5295029 28.244322 1.6075687
1.6904417 8.69034 -0.9867909
0 0 0
5.4368281 27.950022 1.5904431
1.6814128 8.6999969 -0.987656
0 0 0
5.3872738 27.874931 1.5857986
1.6786022 8.7137079 -0.98909724
0 0 0
5.3674841 27.862875 1.584928
1.671476 8.7335148 -0.99111551
3.014827 15.752566 -0.89584768
0 0 0
5.3323474 27.861683 1.5844926
1.6575397 8.7177391 -0.98909724
2.9894819 15.723015 -0.89396101
0 0 0
5.3015895 27.883417 1.585363
1.6479659 8.724823 -0.98967433
2.9608378 15.675559 -0.8910588
0 0 0
5.2606611 27.851509 1.5831864
1.6383755 8.7318878 -0.99025041
2.9174576 15.548884 -0.8836571
0 0 0
5.2327542 27.888493 1.584928
1.6349326 8.7720032 -0.99457502
2.8786724 15.445116 -0.87756151
0 0 0
5.2019086 27.910116 1.5857986
1.6257433 8.7815952 -0.99543911
2.8623724 15.461356 -0.87828708
0 0 0
5.1577754 27.860176 1.5826058
1.6141967 8.77847 -0.99486303
2.8446271 15.46991 -0.87857705
0 0 0
5.1241078 27.866388 1.5826058
1.6086986 8.8083954 -0.99803346
2.8203306 15.442661 -0.87683541
2.9174263 15.974307 0
4.0284286 22.057575 1.2524307
1.5943631 8.7899828 -0.99572819
2.8114076 15.499746 -0.87988317
2.9013743 15.995748 0
4.0013103 22.059874 1.2522857
1.5892416 8.8224392 -0.99918664
2.7908344 15.492904 -0.87930262
2.8820443 15.999242 0
3.9732697 22.057016 1.2518501
1.5758485 8.809082 -0.99745744
2.7730284 15.501385 -0.87959319
2.861335 15.995025 0
3.9447849 22.051571 1.2512696
1.5652032 8.8109789 -0.99745744
2.7520239 15.491935 -0.87886763
2.8406417 15.99079 0
3.9145012 22.035854 1.2501085
2.8222213 15.999332 0
3.8874214 22.038012 1.2499634
2.7897906 16.041998 0
3.8345976 22.049898 1.2501085
2.7730627 16.060749 0
3.8057418 22.041716 1.2493829
2.7655251 16.133337 0
3.776911 22.033495 1.2486573
2.7421 16.113579 0
4.7628736 27.988382 1.5857986
2.7234957 16.122017 0
4.7203951 27.942873 1.5828959
2.7053034 16.13299 0
4.678894 27.902433 1.5802836
2.6870902 16.143951 0
4.6379237 27.864494 1.5778164
2.6675813 16.147186 0
4.5851927 27.754715 1.5712852
2.6480687 16.150396 0
4.5495515 27.747416 1.5705597
2.6314785 16.171568 0
4.5093436 27.711857 1.5682374
2.6208742 16.168013 0
4.4863648 27.676109 1.5660608
2.599683 16.160889 0
4.4368267 27.581465 1.5604007
2.5809753 16.169165 0
4.6115565 28.890247 1.6341277
2.5622494 16.177406 0
4.5839605 28.94199 1.63674
2.5410843 16.170206 0
4.5570545 28.998846 1.6396427
0 0 0
4.2066035 26.981293 1.5252784
0 0 0
4.1894894 27.086506 1.530939
0 0 0
4.1543922 27.076134 1.5300679
0 0 0
4.1248007 27.101685 1.531229
2.6989496 17.878439 0
4.1060138 27.199144 1.536454
2.9285898 19.559723 0
4.0750694 27.216932 1.5371796
2.4496131 16.496784 -0.93155062
2.9011316 19.53751 0
4.0395083 27.203842 1.5361634
2.4376276 16.553715 -0.93459839
2.8718348 19.502377 0
4.310976 29.275459 1.6528494
2.4131184 16.525793 -0.93285674
2.8509004 19.523861 0
4.2658386 29.2138 1.6490761
2.3916593 16.51841 -0.93227613
2.8235776 19.501532 0
4.2338867 29.242077 1.6503822
2.3716981 16.521288 -0.93227613
2.8033397 19.528111 0
4.1985502 29.247171 1.6503822
2.3517337 16.524141 -0.93227613
2.7801096 19.534067 0
4.1643066 29.259943 1.6508178
2.3353951 16.552696 -0.93372726
2.7557766 19.532253 0
4.1307635 29.277815 1.6515434
2.3171921 16.568371 -0.93445283
2.7300115 19.520109 0
4.0950241 29.280214 1.6513983
2.3018086 16.604616 -0.9363395
2.7107115 19.554329 0
4.0660634 29.331465 1.6540105
2.2902319 16.669167 -0.93982285
2.6863728 19.552427 0
4.0341568 29.362104 1.6554623
2.2697387 16.66935 -0.93967783
2.3334093 17.136959 0
3.9976234 29.359232 1.6550267
2.2551548 16.713282 -0.94200009
2.3071342 17.098509 0
3.7846 28.048223 1.5808642
2.2404668 16.757195 -0.94432175
2.2854373 17.093544 0
3.7531173 28.070808 1.5818803
2.2443969 16.864147 -0.95027232
2.2672129 17.035583 0
3.732044 28.042162 1.5801386
2.2532291 17.088381 -0.96275347
2.2364213 16.960911 0
3.6981578 28.04665 1.5801386
2.2362821 17.119436 -0.96435016
2.2112069 16.927479 0
3.6612372 28.027912 1.5788325
2.2149286 17.116976 -0.96406019
2.1864104 16.896587 0
3.6290355 28.045197 1.579558
2.20052 17.168602 -0.96681738
2.1626847 16.873407 0
3.5911815 28.018633 1.5778164
2.1853361 17.215069 -0.96928465
2.1406553 16.863092 0
3.554379 27.999754 1.5765103
2.1690705 17.253786 -0.97131628
2.117681 16.845009 0
3.5147107 27.957628 1.5738981
2.148221 17.256393 -0.97131628
2.0979691 16.852726 0
3.4767542 27.928335 1.5720114
2.128005 17.264139 -0.97160685
2.076967 16.850077 0
3.4404626 27.911884 1.5708503
2.1055696 17.253805 -0.97088128
2.0559754 16.847412 0
3.408622 27.931492 1.5717208
2.0828497 17.240852 -0.97001016
2.0362408 16.855047 0
3.3708186 27.902056 1.5698341
2.0589311 17.217562 -0.96855909
2.0161834 16.860086 0
3.3386445 27.919006 1.5705597
2.0399575 17.235514 -0.96942961
1.9958097 16.862511 0
3.3134589 27.995274 1.5746236
1.9751296 16.862318 0
0 0 0
1.9562523 16.877626 0
3.2610528 28.13483 1.5820253
1.9367464 16.887726 0
3.2288308 28.154236 1.5828959
1.9154601 16.882303 0
3.196274 28.171022 1.5836214
1.8953497 16.88719 0
3.1575966 28.133558 1.5812998
1.8746566 16.886883 0
3.1210203 28.114113 1.5799936
1.8545345 16.89172 0
3.0850623 28.099779 1.5789775
1.8349657 16.901714 0
3.048583 28.08024 1.5776714
1.8112087 16.872868 0
3.0113235 28.0529 1.5759298
0 0 0
2.9675529 27.963497 1.5707047
0 0 0
2.9231906 27.866283 1.5650446
0 0 0
2.8944962 27.754339 1.5586591
0 0 0
2.8625565 27.773319 1.5595297
0 0 0
2.8268895 27.756077 1.5583686
0 0 0
2.7949111 27.77499 1.5592396
0 0 0
2.7657177 27.822302 1.5617069
0 0 0
2.7017341 27.862524 1.5635935
0 0 0
2.6618743 27.801104 1.5599653
0 0 0
2.6172764 27.687891 1.553434
0 0 0
2.5775428 27.623772 1.5496607
0 0 0
2.5429718 27.613932 1.5489352
0 0 0
2.5084283 27.604046 1.5482095
0 0 0
2.4746079 27.601877 1.547919
0 0 0
2.4417129 27.610027 1.5482095
0 0 0
2.4072211 27.600018 1.547484
0 0 0
2.3725338 27.587368 1.546613
0 0 0
2.4335864 28.703499 1.6090199
0 0 0
2.4069083 28.802225 1.6143899
0 0 0
2.3789282 28.887972 1.6190338
0 0 0
2.3469632 28.92709 1.621066
0 0 0
2.3101451 28.906584 1.6197593
0 0 0
2.2762356 28.922314 1.6204854
0 0 0
2.239681 28.904318 1.6193243
0 0 0
2.2250061 28.941933 1.621356
0 0 0
2.1874852 28.910919 1.6194693
2.2780724 30.599579 0
2.3882806 32.079918 1.7968205
2.2376761 30.555593 0
2.3519835 32.11647 1.7987072
2.1994452 30.540102 0
2.3129888 32.116699 1.7985623
2.1656663 30.586866 0
2.2750978 32.132427 1.7992878
2.126358 30.555714 0
2.2368116 32.142929 1.7997234
2.0873053 30.527103 0
2.1993897 32.166351 1.8008845
2.0507669 30.534801 0
2.1613917 32.181946 1.80161
2.0133562 30.529463 0
1.8997149 28.806267 1.6125032
1.973776 30.49032 0
1.8652422 28.813723 1.6127932
1.9390781 30.526455 0
1.8271306 28.764091 1.6098903
1.9015441 30.518387 0
1.7928584 28.774061 1.6103259
1.8619694 30.476503 0
1.7585648 28.783989 1.6107615
1.8270093 30.509895 0
1.724094 28.791277 1.6110516
1.7866373 30.452333 0
1.6897608 28.801123 1.611487
1.752229 30.496042 0
1.6571945 28.842049 1.6136638
1.7139174 30.472149 0
1.849967 32.891006 1.8400697
1.6768107 30.469006 0
1.8089383 32.869869 1.8387635
1.6378956 30.432024 0
1.7664278 32.820145 1.8358612
1.6016701 30.444378 0
1.4772331 28.07909 1.5705597
1.5663525 30.474882 0
1.4446379 28.10681 1.5720114
1.5293981 30.474157 0
1.4097635 28.090366 1.5709952
1.4915564 30.455187 0
1.3756937 28.089457 1.5708503
1.4742881 30.479475 0
1.3565891 28.046162 1.568383
1.4379489 30.491632 0
1.6350577 34.671314 1.9387594
1.4025381 30.524546 0
1.5930438 34.67067 1.9386145
1.3643746 30.497616 0
1.5496403 34.638828 1.9367278
1.3267308 30.481039 0
1.5084627 34.656246 1.9375983
1.2914401 30.519028 0
1.454942 34.38287 1.9222144
1.2544557 30.517958 0
1.4117955 34.345665 1.9200377
1.2161276 30.483051 0
1.1193252 28.056633 1.568383
1.1820103 30.554716 0
1.0864277 28.083925 1.5698341
1.1455772 30.569122 0
1.0526874 28.090406 1.5701241
1.1079793 30.552277 0
1.0188392 28.094261 1.5702697
1.0721561 30.584803 0
0.98470986 28.090273 1.5699791
1.0351115 30.583479 0
0.95085537 28.094038 1.5701241
0.9983263 30.589903 0
0.91648477 28.082182 1.5693985
0.96340722 30.656116 0
0.88165474 28.054708 1.5678024
0.9251858 30.618244 0
0.85089439 28.159634 1.5736074
0.88788712 30.608934 0
0.82553226 28.45932 1.5902976
0.85198611 30.649 0
0.79237151 28.50445 1.5927647
0.8164047 30.704638 0
0.75813615 28.513182 1.5932003
0.77910542 30.697794 0
0.72229862 28.45953 1.5901525
0.744528 30.802784 0
0.68772185 28.452587 1.589717
0.70784593 30.827074 0
0.65364039 28.466393 1.5904431
0 0 0
0.58527315 28.488663 1.5916036
0.64859915 32.528072 0
0.56806153 28.489012 1.5916036
0.61026961 32.580875 0
0.53271329 28.440323 1.5888464
0 0 0
0.59653759 34.044647 1.901896
0 0 0
0.55586714 34.073925 1.9034927
0 0 0
0.51457727 34.066776 1.9030571
0 0 0
0.47395548 34.10635 1.9052343
0 0 0
0.43346947 34.164055 1.9084271
0 0 0
0.39287451 34.224304 1.9117649
0 0 0
0.3524549 34.315697 1.916845
0 0 0
0.31080246 34.295311 1.9156837
0.54689741 69.631714 0
0.26887324 34.233303 1.9122005
0.36025709 54.208443 0
0.22716343 34.181633 1.9092977
0.29478484 54.21405 0
0.18548001 34.111732 1.9053793
0.22896938 54.141495 0
0.14421855 34.10154 1.9047987
0.1635105 54.128723 0
0.10306048 34.117275 1.9056693
0.098063946 54.105461 0
0.061902292 34.153755 1.9077015
0.032719444 54.157589 0
0.02065294 34.184978 1.9094427
-0.032717869 54.15498 0
-0.020654514 34.187584 1.9095882
-0.098134704 54.144501 0
-0.061954085 34.182331 1.9092977
-0.16356553 54.146942 0
-0.10334306 34.210819 1.9108943
-0.29494762 69.742538 0
-0.14497674 34.280819 1.9148127
-0.37889221 69.682281 0
-0.1881078 34.595013 1.9323739
-0 0 0
-0.23021978 34.641525 1.9349861
-0 0 0
-0.27205673 34.638626 1.934841
-0 0 0
-0.31360444 34.604496 1.9329544
-0 0 0
-0.35515007 34.578106 1.9315027
-0 0 0
-0.37550366 34.528522 1.9287455
-0 0 0
-0.41659641 34.476078 1.9258428
-0 0 0
-0.45770115 34.433979 1.9235204
-0 0 0
-0.49840349 34.371056 1.9200377
-0 0 0
-0.79329813 50.498775 2.8210168
-0 0 0
-0.85506266 50.541943 2.8234839
-0 0 -0
-0 0 0
-0.91848665 50.670769 2.8307407
-0 0 0
-0.9819721 50.78653 2.8372717
-0 0 0
-1.0436572 50.800888 2.8381424
-0 0 0
-1.1061695 50.851547 2.8410451
-1.8288541 79.647583 0
-1.1666585 50.808609 2.8387229
-1.9252172 79.650528 0
-0.79621446 32.941166 1.8405051
-2.0205333 79.611717 0
-0.83476442 32.890835 1.8377479
-2.1169345 79.61702 0
-1.3408823 50.430023 2.8178239
-2.211616 79.559776 0
-1.4010218 50.399792 2.8162272
-2.307445 79.546638 0
-1.4599603 50.330536 2.812454
-2.4025383 79.509979 0
-1.5186552 50.258614 2.8085356
-2.500489 79.566849 0
-1.0337852 32.89558 1.8383285
-2.5967128 79.566368 0
-1.07421 32.915073 1.8394891
-0 0 0
-1.116969 33.002041 1.8444235
-0 0 0
-1.1573001 33.01366 1.8451496
-0 0 0
-1.1999207 33.08754 1.8493586
-3.2116268 85.700562 0
-1.2410669 33.117218 1.8510996
-3.2630062 85.688202 0
-1.2625579 33.155411 1.8532768
-0 0 0
-1.3006804 33.104527 1.8505191
-0 0 0
-1.3238567 32.68755 1.8272984
-0 0 0
-1.359887 32.602848 1.822654
-0 0 0
-1.3970517 32.549259 1.8197511
-0 0 0
-1.4369528 32.560524 1.8204768
-0 0 0
-1.4762948 32.558765 1.8204768
-0 0 0
-1.5151517 32.546585 1.8198968
-0 0 0
-1.5617903 32.697845 1.828459
-0 0 0
-1.6072723 32.817921 1.8352807
-3.6710925 73.148682 0
-1.6456225 32.789997 1.833829
-0 0 0
-1.6841745 32.767223 1.8326679
-0 0 0
-1.724449 32.778145 1.8333941
-0 0 0
-3.0750928 55.876919 3.1257939
-0 0 0
-3.2343862 57.504925 3.217082
-0 0 0
-0 0 0
-0 0 0
-3.3072965 56.371204 3.1540947
-0 0 0
-3.3702822 56.281574 3.1493051
-0 0 0
-3.4343238 56.212624 3.1456769
-0 0 0
-3.4954567 56.099514 3.1395812
-4.7576404 74.89843 0
-3.5556624 55.975967 3.132905
-0 0 -0
-0 0 0
-2.1348083 32.977901 1.8458751
-0 0 0
-2.1737993 32.962337 1.8451496
-0 0 0
-2.1935401 32.95842 1.8450041
-0 0 0
-2.2312548 32.924644 1.8432629
-0 0 0
-3.8014989 55.108173 3.0854471
-0 0 -0
-0 0 0
-2.2756984 32.418907 1.8152523
-0 0 0
-2.3119073 32.374664 1.8129301
-0 0 -0
-0 0 0
-2.3461308 32.30447 1.8091567
-0 0 -0
-0 0 0
-2.3834407 32.278294 1.8078506
-6.7198682 89.53215 0
-2.4210794 32.257248 1.8068345
-6.8236918 89.466881 0
-2.4561028 32.202492 1.8039323
-6.9315882 89.455971 0
-0 0 0
-0 0 -0
-0 0 0
-4.3346243 55.076626 3.0858827
-7.1676502 89.687996 0
-4.3875089 54.900402 3.0763037
-0 0 -0
-0 0 0
-4.4527917 54.882111 3.0755782
-0 0 -0
-0 0 0
-4.4886079 54.506386 3.0548244
-0 0 -0
-0 0 0
-4.5544648 54.500919 3.0548244
-0 0 0
-4.6211934 54.505733 3.0554049
-6.473155 75.268608 0
-4.5982184 53.467201 2.9974973
-0 0 -0
-0 0 0
-4.6621423 53.453838 2.9970617
-0 0 -0
-0 0 0
-4.7255831 53.435226 2.9963362
-0 0 -0
-0 0 0
-4.7871294 53.395832 2.9944496
-0 0 -0
-8.1677408 89.882057 0
-4.8504686 53.377075 2.9937241
-0 0 -0
-0 0 0
-4.9125776 53.345295 2.9922724
-0 0 -0
-0 0 0
-4.9811354 53.383301 2.9947395
-0 0 -0
-0 0 0
-5.0524821 53.449677 2.9988036
-0 0 -0
-0 0 0
-6.4596539 67.89814 3.8096554
-0 0 -0
-0 0 0
-0 0 0
-0 0 -0
-0 0 0
-6.5770354 67.403915 3.7828059
-0 0 -0
-0 0 0
-6.6543889 67.354553 3.7804842
-0 0 -0
-0 0 0
-2.9715517 29.710566 1.6677984
-0 0 -0
-0 0 0
-3.0111125 29.743141 1.6698301
-0 0 -0
-0 0 0
-3.0494325 29.762743 1.6711361
-0 0 -0
-0 0 0
-3.0910196 29.813311 1.674184
-0 0 -0
-6.9490194 66.243828 0
-3.1275837 29.814728 1.6744745
-0 0 -0
-0 0 0
-2.0706465 19.511871 1.0959784
-0 0 -0
-0 0 0
-2.0931118 19.499022 1.0953978
-0 0 -0
-0 0 0
-2.1183534 19.511972 1.0962684
-0 0 -0
-7.5244298 68.535027 0
-2.141645 19.506819 1.0961235
-0 0 -0
-7.6049385 68.505188 0
-2.168654 19.535208 1.0978651
-0 0 -0
-7.6978664 68.586464 0
-2.1960242 19.566139 1.0997518
-0 0 -0
-7.7789745 68.5616 0
-2.2193718 19.560892 1.0996068
-0 0 -0
-7.8517308 68.464249 0
-2.2415245 19.54528 1.0988806
-0 0 -0
-0 0 0
-2.2549679 19.454803 1.0939462
-0 0 -0
-0 0 0
-2.2748473 19.421104 1.092205
-0 0 -0
-0 0 0
-2.2970905 19.40802 1.0916245
-0 0 -0
-0 0 0
-2.3205397 19.40523 1.0916245
-0 0 -0
-8.2368097 68.18045 0
-2.343673 19.399826 1.0914789
-0 0 -0
-8.3179255 68.160118 0
-2.374352 19.456306 1.0948173
-0 0 -0
-8.3983679 68.134521 0
-6.5711317 53.310467 3.0002546
-0 0 -0
-8.469759 68.036522 0
-2.424252 19.473715 1.0961235
-0 0 -0
-0 0 0
-2.4461601 19.457884 1.0953978
-0 0 -0
-0 0 0
-2.4549844 19.433203 1.0940918
-0 0 -0
-0 0 0
-2.4771488 19.419912 1.0935112
-0 0 -0
-0 0 0
-2.497957 19.396288 1.0923501
-0 0 -0
-7.5346575 57.410076 0
-2.5454984 19.395342 1.09264
-7.6067548 57.42157 0
-2.5720029 19.415434 1.0939462
-7.6864781 57.489719 0
-2.5964942 19.42004 1.0943818
-7.7423663 57.37981 0
-2.6199577 19.416889 1.0943818
-0 0 -0
-7.8043199 57.316261 0
-2.6413145 19.398266 1.0935112
-0 0 -0
-0 0 0
-2.6622753 19.377039 1.0924951
-0 0 -0
-7.9588885 57.413235 0
-3.7035768 26.716585 1.5065566
-3.829021 27.378241 0
-3.7336957 26.696646 1.5056856
-0 0 -0
-3.8566453 27.334936 0
-3.7681293 26.707558 1.5065566
-0 0 -0
-3.8735383 27.216898 0
-3.7963698 26.674685 1.5049599
-3.8979173 27.152956 0
-2.9572539 20.600281 1.1624486
-0 0 -0
-3.9269936 27.122465 0
-2.9791646 20.576118 1.1612875
-3.9642754 27.148602 0
-3.0032744 20.567366 1.1609975
-3.9929051 27.115467 0
-3.0277441 20.561144 1.160852
-4.0191679 27.066864 0
-4.0200448 27.072767 1.5287617
-4.0349154 26.94875 0
-3.0928142 20.656559 1.1666576
-4.0632014 26.915545 0
-3.1173837 20.65024 1.1665126
-4.0561738 26.650778 0
-3.1442878 20.6593 1.1672381
-4.0642972 26.488943 0
-3.1704309 20.663195 1.1676737
-4.0620732 26.36817 0
-3.1844966 20.671547 1.1682543
-4.0695724 26.206381 0
-3.2054837 20.642002 1.1668025
-4.0919781 26.142305 0
-3.1621151 20.201717 1.1421303
-4.1337013 26.201607 0
-3.1634417 20.051582 1.1338575
-4.1653581 26.196592 0
-3.1795084 19.996429 1.1309552
-2.5927668 16.180227 -0.91529554
-4.1850672 26.117022 0
-3.1975005 19.954086 1.128778
-2.5924335 16.053963 -0.90832943
-4.2124734 26.086258 0
-3.2133241 19.898903 1.1258752
-2.6022305 15.991828 -0.90499103
-4.2481694 26.106833 0
-3.452702 21.21834 1.2007638
-2.6148264 15.947654 -0.90266937
-4.2843442 26.129932 0
-3.2677095 19.929544 1.1280525
-2.631129 15.926535 -0.90165329
-4.3184581 26.140139 0
-3.2968705 19.956347 1.1297941
-2.6448252 15.890025 -0.89976656
-4.3573055 26.178551 0
-3.3150094 19.91647 1.1277624
-2.6605856 15.866316 -0.89860547
-4.3919454 26.191225 0
-3.3274689 19.843254 1.1238436
-2.6814861 15.873339 -0.89918602
-4.417521 26.149979 0
-3.3536069 19.852028 1.1245691
-2.6980476 15.854712 -0.89831489
-4.4499874 26.149748 0
-3.3828228 19.8787 1.1263107
-2.7193995 15.864253 -0.89904106
-4.4864182 26.172569 0
-3.4064014 19.87204 1.1261657
-2.7350295 15.840471 -0.8978799
-4.5087409 26.113277 0
-3.4321787 19.878151 1.1267463
-2.7532763 15.83203 -0.89758933
-4.5278053 26.036018 0
-3.454859 19.866306 1.1263107
-2.7759905 15.849168 -0.89875048
-4.5561199 26.01259 0
-3.4761722 19.846766 1.1254402
-2.7978482 15.86116 -0.89962161
-4.5916162 26.03013 0
-3.0438213 17.255594 0.97871184
-2.8192835 15.870558 -0.90034717
-4.6262498 26.042492 0
-3.071939 17.29283 0.98103356
-2.8434896 15.895268 -0.90194327
-4.6572561 26.034325 0
-3.0937479 17.294226 0.98132408
-2.8645365 15.90205 -0.90252382
-4.6910167 26.041481 0
-3.1155627 17.295584 0.98161411
-2.8814309 15.885796 -0.90179825
-4.7229447 26.038363 0
-3.1355321 17.286697 0.98132408
-2.8891666 15.873826 -0.9012177
-4.7368112 26.025263 0
-3.1464403 17.287355 0.98146909
-2.9060032 15.857547 -0.90049213
-4.7649698 26.001598 0
-3.1659207 17.275869 0.98103356
-2.9171474 15.810586 -0.89802492
-4.7940235 25.983028 0
-3.1867929 17.272032 0.98103356
-2.9376733 15.814716 -0.89846045
-4.8239894 25.969538 0
-3.2033899 17.245178 0.97972745
-2.9567802 15.811155 -0.89846045
-4.8534513 25.953457 0
-3.2218373 17.228527 0.97900188
-2.9705942 15.779479 -0.89686382
-4.8756604 25.898987 0
-3.2474585 17.250153 0.98045295
-2.9882066 15.768217 -0.89642823
-4.893383 25.821482 0
-3.273622 17.274302 0.98204964
-3.0053096 15.754385 -0.89584768
-4.9158025 25.769541 0
-3.2993603 17.295853 0.98350078
-3.021894 15.737986 -0.89512211
-4.9322152 25.686913 0
-3.321727 17.299511 0.98393631
-3.0389359 15.724117 -0.89454156
-4.9657178 25.693707 0
-3.3431203 17.298035 0.98408133
-3.0589263 15.72554 -0.89483213
-5.0002389 25.705572 0
-3.3660038 17.304184 0.98466188
-3.08092 15.737128 -0.89570266
-5.0217948 25.650984 0
-3.7967596 19.393587 1.1038157
-3.0984254 15.725743 -0.89526713
-5.0402083 25.581064 0
-3.8206918 19.391533 1.1039606
-3.1194463 15.732183 -0.89584768
-5.0635233 25.536671 0
-3.8420985 19.376707 1.1033801
-3.1354034 15.713118 -0.89497715
-5.1035414 25.576468 0
-3.8655086 19.372051 1.1033801
-3.1543872 15.709318 -0.89497715
-5.1380286 25.588146 0
-4.0418591 20.129061 1.1467748
-3.1723385 15.700406 -0.89468712
-5.1514177 25.495182 0
-4.0600028 20.093599 1.145033
-3.1913071 15.696561 -0.89468712
-5.1713333 25.435394 0
-4.0816889 20.075939 1.1443069
-3.2107911 15.695237 -0.89483213
-4.0478349 19.786938 0
-4.1038628 20.06082 1.1437269
-3.2292302 15.688804 -0.89468712
-4.0727906 19.787136 0
-4.1254787 20.043114 1.1430008
-3.2471297 15.679796 -0.89439654
-4.0940566 19.769451 0
-5.4780235 26.452375 1.5088789
-3.2855446 15.674444 -0.89454156
-5.3489299 25.518297 0
-4.109087 19.603342 1.118764
-3.3034105 15.665382 -0.89425159
-5.3829832 25.5271 0
-4.1349158 19.608534 1.1193446
-3.3139486 15.668464 -0.89454156
-5.4021726 25.541658 0
-4.1505237 19.623819 1.1203601
-3.3296349 15.649203 -0.89367104
-5.4444036 25.588566 0
-4.1796408 19.644211 1.1218119
-3.3518033 15.660409 -0.89454156
-5.4785876 25.597242 0
-4.2011986 19.628983 1.1212313
-3.3745522 15.674131 -0.8955577
-5.5243006 25.65929 0
-4.2178044 19.590872 1.1193446
-3.4050379 15.723372 -0.89860547
-5.555851 25.655138 0
-4.234324 19.552748 1.117458
-3.4339876 15.764941 -0.9012177
-5.5868464 25.648405 0
-4.2463331 19.494303 1.1144102
-3.4558139 15.773469 -0.90194327
-5.6206179 25.654345 0
-4.2682161 19.481541 1.1139746
-3.4715166 15.754062 -0.90107268
-5.6560922 25.667868 0
-4.2939897 19.486519 1.1145551
-3.4838028 15.719413 -0.89933103
-4.2889647 19.352417 0
-4.3197808 19.491465 1.1151357
-3.4982717 15.694902 -0.89816993
-4.307816 19.3269 0
-4.2692785 19.154003 1.0961235
-3.5166657 15.68813 -0.89802492
-0 0 0
-4.2662754 19.032202 1.0894473
-0 0 -0
-3.5339043 15.676263 -0.89758933
-4.3825517 19.440832 0
-4.2864127 19.01436 1.0887218
