# .PCD v0.7 - Point Cloud Data file format
VERSION 0.7
FIELDS x y z
SIZE 4 4 4
TYPE F F F
COUNT 1 1 1
WIDTH 1737
HEIGHT 1
VIEWPOINT 0 0 0 1 0 0 0
POINTS 1737
DATA ascii
-1.7317668 2.5219119 -0.51002187
-1.7752988 2.5853059 -0.34955996
-0 0 -0
-6.016911 8.7622175 0
-6.0262036 8.7757511 0.59462291
-1.7418283 2.5300076 -0.84745336
-1.7382866 2.5248632 -0.67907369
-1.74209 2.5303876 -0.51216131
-1.781352 2.5874157 -0.35013598
-0 0 -0
-6.012733 8.7335014 0
-6.0176487 8.7406416 0.59273624
-1.7434603 2.5258384 -0.84676188
-1.7398942 2.5206718 -0.67851138
-1.7436893 2.52617 -0.51173377
-1.7741907 2.570359 -0.34811765
-0 0 -0
-5.9981503 8.6898212 0
-6.0178719 8.7183924 0.5917201
-1.7308111 2.5010433 -0.83915007
-1.7328159 2.5039401 -0.67457062
-1.7423565 2.5177267 -0.51044947
-1.7861291 2.5809784 -0.34984797
-0 0 -0
-6.0101252 8.6847048 0
-6.012135 8.6876087 0.59012341
-1.7366894 2.5030687 -0.84053308
-1.7401868 2.5081093 -0.67625982
-1.7453974 2.5156195 -0.51044947
-1.775978 2.5596948 -0.34725362
-0 0 -0
-6.0087519 8.6603384 0
-6.0181885 8.6739397 0.58968842
-1.7311196 2.4886153 -0.83638144
-1.7432162 2.5060048 -0.67625982
-1.7469714 2.5114033 -0.51002187
-1.7805451 2.5596683 -0.34754163
-0 0 -0
-6.0088077 8.6381149 0
-6.0167942 8.6495962 0.58852732
-1.7326862 2.4844582 -0.83568728
-1.7389712 2.4934702 -0.67344379
-1.7455978 2.5029719 -0.50873756
-1.7821586 2.5553954 -0.34725362
-0 0 -0
-6.0088181 8.6159039 0
-6.0212955 8.6337948 0.58794677
-1.7371286 2.4844246 -0.83638144
-1.7419828 2.4913671 -0.67344379
-1.7500962 2.5029707 -0.50916678
-1.7793164 2.5447614 -0.34610045
-0 0 -0
-6.0043139 8.5873127 0
-6.0123682 8.5988312 0.58606011
-1.7300473 2.4679418 -0.83153564
-1.7406205 2.4830246 -0.67175674
-1.7398531 2.48193 -0.50531381
-1.7734791 2.5298979 -0.34437013
-1.7333357 2.4726326 -0.16866685
-6.0116954 8.5757847 0
-6.0212636 8.5894346 0.58591509
-1.7315869 2.463799 -0.8308441
-1.739235 2.4746811 -0.67006755
-1.7413762 2.4777277 -0.50488627
-1.7780262 2.5298753 -0.34465927
-1.7318441 2.464165 -0.16823184
-6.010087 8.5514889 0
-6.0166936 8.5608892 0.58446342
-1.7345628 2.461705 -0.8308441
-1.7392941 2.4684198 -0.66894072
-1.7369771 2.4651313 -0.50274688
-1.7780993 2.5234923 -0.34408212
-1.7063818 2.4217103 -0.16547406
-6.0144196 8.5357113 0
-6.0075779 8.5260019 0.58257675
-1.737536 2.4596074 -0.8308441
-1.7393461 2.4621696 -0.66781604
-1.7443993 2.4693229 -0.50403118
-1.7781653 2.5171211 -0.3435061
-1.7048132 2.413286 -0.16503906
-6.0067096 8.5029306 0
-6.0178757 8.5187368 0.58257675
-1.7405066 2.4575059 -0.8308441
-1.7335113 2.447629 -0.6644398
-1.7444115 2.4630194 -0.50317442
-1.7812054 2.5149708 -0.3435061
-1.7122291 2.4175797 -0.16547406
-6.0079517 8.4829197 0
-2.2933362 3.2380731 0.22163369
-1.7347572 2.4431238 -0.82668984
-1.7408766 2.4517419 -0.66612685
-1.7399566 2.4504464 -0.50103498
-1.784243 2.5128167 -0.3435061
-1.7076286 2.4049175 -0.1647485
-6.0046382 8.4565582 0
-2.3333523 3.2861478 0.22511704
-1.7289813 2.4287672 -0.8225382
-1.7364713 2.4392889 -0.66331297
-1.7429162 2.4483423 -0.50103498
-1.7767766 2.4959071 -0.34148777
-1.7090276 2.4007378 -0.1646035
-5.9786348 8.3984203 0
-2.3192379 3.2579238 0.22337537
-1.7289971 2.4225883 -0.82115251
-1.7394174 2.4371889 -0.66331297
-1.7399082 2.4378765 -0.4993231
-1.7782899 2.4916551 -0.34119976
-0 0 -0
-2.1987705 3.0808125 0
-2.3231728 3.2551191 0.22337537
-1.7275476 2.4143825 -0.81907803
-1.7364467 2.4268196 -0.66106141
-1.7473356 2.4420376 -0.50060743
-1.7767826 2.4831922 -0.34033459
-1.7117974 2.3923702 -0.16431294
-2.196434 3.0696876 0
-5.9845629 8.3638926 0.57444948
-1.7275362 2.4082124 -0.8176924
-1.7378982 2.422657 -0.66049904
-1.7413042 2.4274051 -0.4980388
-1.770739 2.4684374 -0.3386054
-1.6980306 2.3670809 -0.16271682
-2.2289593 3.107204 0
-5.9976907 8.3608742 0.57473952
-1.7289814 2.4040883 -0.81700087
-1.7348901 2.4123042 -0.65824753
-1.7412412 2.4211352 -0.49718368
-1.7722057 2.4641902 -0.33831626
-0 0 -0
-2.1977677 3.0559192 0
-6.0002046 8.3430748 0.57401395
-1.7333509 2.4040306 -0.8176924
-1.7303748 2.3999028 -0.65543365
-1.7426655 2.4169493 -0.49675614
-1.7721595 2.4578552 -0.33774024
-1.6870277 2.3397837 -0.16112015
-2.2166762 3.0743673 0
-6.0178781 8.3463554 0.57473952
-1.7347862 2.3999031 -0.81700087
-1.7273192 2.3895733 -0.65318209
-1.7440822 2.4127634 -0.49632856
-1.7645199 2.4410367 -0.33572191
-1.6837647 2.32932 -0.1605396
-2.1898971 3.0295036 0
-0 0 0
-1.7332966 2.3947937 -0.81561792
-1.7332333 2.3947065 -0.65487128
-1.7395191 2.4033911 -0.49461672
-1.7690302 2.4441648 -0.33629906
-1.6882216 2.3325162 -0.16083016
-2.2069888 3.0492663 0
-0 0 0
-1.736189 2.3926978 -0.81561792
-1.72866 2.3823218 -0.65205526
-1.7333732 2.3888171 -0.49204808
-1.7659061 2.4336517 -0.33514589
-1.6818795 2.317852 -0.15995903
-5.9765453 8.2364683 0
-6.0033884 8.2734623 0.57096612
-1.730221 2.3784218 -0.81146359
-1.730044 2.3781786 -0.65149289
-1.7362584 2.3867209 -0.49204808
-1.7642792 2.4252396 -0.33428073
-1.6816247 2.3116195 -0.15966904
-5.9987407 8.2460775 0
-6.0057392 8.2556982 0.57024056
-1.725665 2.3661437 -0.96564233
-1.7286572 2.3702466 -0.80938643
-1.7314205 2.3740354 -0.65093058
-1.7361186 2.3804772 -0.49119297
-1.7702537 2.4272814 -0.33485675
-1.6905411 2.3179836 -0.16024959
-5.9964323 8.2220011 0
-5.9988666 8.2253389 0.56864393
-1.7226875 2.3560762 -0.96238244
-1.7241178 2.3580322 -0.80592632
-1.7327895 2.3698924 -0.65036821
-1.746568 2.3887367 -0.49333239
-1.7701349 2.4209688 -0.33428073
-1.6887382 2.3096445 -0.15981403
-5.9848604 8.1853428 0
-5.9949989 8.1992092 0.56733781
-1.7328434 2.3639657 -0.96645963
-1.7328985 2.3640409 -0.80869496
-1.7281424 2.3575525 -0.64755434
-1.7342794 2.3659246 -0.48905355
-1.7608259 2.4021397 -0.33197439
-1.685383 2.2992196 -0.15923348
-5.9885921 8.1697092 0
-5.994153 8.1772947 0.56632227
-1.7093505 2.3260167 -0.95178872
-1.7268428 2.3498194 -0.80454332
-1.7264743 2.3493183 -0.64586514
-1.7356123 2.3617527 -0.48862433
-1.7652572 2.4020925 -0.3322624
-1.6912403 2.301373 -0.15952404
-5.9815111 8.1394043 0
-5.9978743 8.1616707 0.56574166
-1.732687 2.3518116 -0.96319979
-1.7237284 2.3396521 -0.80177468
-1.7323232 2.3513179 -0.64698982
-1.7323742 2.351387 -0.48691246
-1.7666258 2.3978775 -0.33197439
-1.6878548 2.2909598 -0.15894347
-5.985167 8.1237898 0
-5.9954014 8.137682 0.56458056
-1.7149665 2.3218791 -0.95178872
-1.7250651 2.3355515 -0.80108315
-1.7321466 2.3451393 -0.64586514
-1.7275897 2.3389697 -0.48477304
-1.7618399 2.3853407 -0.33053321
-1.6890734 2.2868226 -0.15879792
-5.9841537 8.1018963 0
-5.9820714 8.0990772 0.56240332
-1.7177708 2.3198051 -0.95178872
-1.7353493 2.3435445 -0.80454332
-1.7289307 2.3348765 -0.64361358
-1.7380514 2.3471937 -0.48691246
-1.758564 2.3748953 -0.32938004
-1.6887457 2.2806075 -0.15850793
-5.9753542 8.069562 0
-5.9732976 8.0667839 0.56066167
-1.7161572 2.31178 -0.94934613
-1.7247226 2.3233185 -0.79831451
-1.7347769 2.3368621 -0.64473832
-1.737829 2.3409734 -0.48605737
-1.7629726 2.3748436 -0.32966805
-1.6915002 2.2785654 -0.15850793
-5.9711404 8.0435314 0
-5.9799457 8.0553923 0.56037164
-1.7159952 2.3057353 -0.94771463
-1.7305214 2.325254 -0.79969752
-1.7285002 2.3225381 -0.64136207
-1.7345258 2.3306346 -0.4843455
-1.7596639 2.3644121 -0.32851487
-1.6927023 2.2744374 -0.15836293
-5.9839659 8.0404902 0
-5.9803696 8.0356579 0.55950111
-1.7113912 2.2937572 -0.94364059
-1.719829 2.3050663 -0.79346871
-1.7313052 2.3204479 -0.64136207
-1.7419475 2.3347116 -0.4856298
-1.7656161 2.3664341 -0.32909203
-1.6923385 2.2682211 -0.15807237
-0 0 0
-5.9869637 8.0242567 0.55921054
-1.7141615 2.2916877 -0.94364059
-1.722613 2.3029866 -0.79346871
-1.7280201 2.3102155 -0.63911051
-1.7309245 2.3140984 -0.48177686
-1.7638249 2.3580835 -0.32822686
-1.693523 2.2640958 -0.15792736
-5.9909081 8.0093336 0
-5.9857588 8.002449 0.5581944
-1.7198921 2.2935658 -0.94526899
-1.7253944 2.3009036 -0.79346871
-1.7323332 2.3101566 -0.63967288
-1.7368025 2.3161166 -0.48263362
-1.7542591 2.339396 -0.32592052
-1.6947001 2.2599709 -0.15778236
-5.97716 7.9708548 0
-5.9876308 7.984818 0.55746889
-1.7090706 2.2676966 -0.93630672
-1.7264185 2.2907147 -0.79139155
-1.730266 2.2958198 -0.636859
-1.7346708 2.3016644 -0.4804942
-1.7583522 2.3330863 -0.32563251
-1.6954633 2.2496417 -0.1573468
-5.988575 7.9459972 0
-5.9850178 7.9412775 0.55543721
-1.7088267 2.261682 -0.93467522
-1.7291851 2.2886269 -0.79139155
-1.7284421 2.2876437 -0.6351698
-1.7312605 2.291374 -0.47878233
-1.7533754 2.3206437 -0.32419133
-1.7013103 2.2517338 -0.15763681
-1.9334306 2.5589519 0
-5.9867783 7.923676 0.55471164
-1.7145457 2.2635598 -0.93630672
-1.7243767 2.2765386 -0.78793144
-1.7220027 2.2734046 -0.63179356
-1.7355765 2.2913249 -0.47920987
-1.7546179 2.3164635 -0.32390332
-1.700895 2.2455378 -0.1573468
-1.9223802 2.5379448 0
-5.9837966 7.8998656 0.55355054
-1.706815 2.2477057 -0.93060118
-1.7271262 2.2744534 -0.78793144
-1.7324302 2.2814384 -0.63460743
-1.7367929 2.2871835 -0.47878233
-1.7574157 2.3143418 -0.32390332
-1.7083228 2.2496912 -0.15778236
-1.9270178 2.5376909 0
-5.9791961 7.8740067 0.55224442
-1.7245036 2.2653115 -0.93875241
-1.7283551 2.2703707 -0.78723991
-1.7274916 2.2692366 -0.63179356
-1.7302227 2.272824 -0.47621369
-1.753944 2.3039844 -0.32275015
-1.7110398 2.2476254 -0.15778236
-1.9158967 2.5167258 0
-5.9839826 7.8605719 0.55180883
-1.7032479 2.2317894 -0.92571294
-1.7234885 2.2583108 -0.7837798
-1.7302324 2.2671475 -0.63179356
-1.7283 2.2646155 -0.47493103
-1.7598621 2.3059719 -0.32332617
-1.7074487 2.2372937 -0.15720181
-1.9268292 2.5247512 0
-5.97929 7.8347468 0.55050272
-1.7060951 2.232722 -0.92652714
-1.7187595 2.2492957 -0.78101116
-1.7285132 2.2620602 -0.63066673
-1.7281047 2.2615254 -0.47450185
-1.759686 2.302855 -0.32303816
-1.7119523 2.2403872 -0.1574918
-0 0 0
-5.9745531 7.8187413 0.5496316
-1.7238191 2.2502759 -0.93467522
-1.719952 2.2452276 -0.78031963
-1.7266142 2.2539244 -0.62897968
-1.7292764 2.2573998 -0.47407427
-1.749884 2.2843008 -0.32073182
-1.7130796 2.2362564 -0.1573468
-1.9092481 2.4923351 0
-5.97926 7.8053341 0.5491966
-1.6994425 2.2129107 -0.92000741
-1.7226636 2.2431476 -0.78031963
-1.724692 2.2457891 -0.62729049
-1.7335649 2.2573426 -0.47450185
-1.7542168 2.2842343 -0.32101983
-1.7126181 2.230067 -0.15705681
-1.9090849 2.4858942 0
-5.9776068 7.7836757 0.54818052
-1.696084 2.2030218 -0.91674751
-1.7207799 2.2350991 -0.77824247
-1.7258558 2.2416921 -0.62672812
-1.7284626 2.2450778 -0.4723624
-1.7506641 2.2739151 -0.31986666
-1.7184787 2.2321098 -0.1573468
-1.9120873 2.4835856 0
-5.9743261 7.7599754 0.54701936
-1.7198895 2.2283671 -0.92815864
-1.7234794 2.2330182 -0.77824247
-1.7239043 2.2335687 -0.62503892
-1.7296071 2.2409575 -0.47193485
-1.7518317 2.2697525 -0.31957865
-1.7259389 2.2362049 -0.15778236
-1.9182701 2.4853978 0
-5.9725895 7.738358 0.54600382
-1.7059419 2.2047827 -0.91919321
-1.7231028 2.2269619 -0.77685684
-1.7219356 2.2254534 -0.62334973
-1.7323136 2.2388661 -0.47193485
-1.749823 2.2614954 -0.31871349
-1.7143301 2.2156239 -0.15647624
-1.9276422 2.4913113 0
-5.9739799 7.7208543 0.54527771
-1.7025452 2.1949081 -0.91593337
-1.7150334 2.2110076 -0.77201372
-1.7246234 2.223371 -0.62334973
-1.7271522 2.2266312 -0.46979544
-1.754138 2.261421 -0.31900153
-1.7249675 2.2238147 -0.15720181
-1.91151 2.4643037 0
-5.9721613 7.699264 0.54426217
-1.7158182 2.2065089 -0.92163891
-1.7238638 2.2168555 -0.77478236
-1.7179531 2.2092545 -0.61997354
-1.723538 2.2164366 -0.46808356
-1.748932 2.2490928 -0.31756032
-1.7292469 2.223778 -0.1573468
-1.9160823 2.4640448 0
-5.9671059 7.6735826 0.54295605
-1.7200011 2.2063816 -0.92245311
-1.7126549 2.1969581 -0.76855087
-1.7253094 2.2131908 -0.62166274
-1.7309513 2.2204282 -0.46936786
-1.7484709 2.242902 -0.3169843
-1.7319325 2.2216871 -0.1573468
-1.9078624 2.4473662 0
-5.9619908 7.6479173 0.54164934
-1.7013617 2.1770411 -0.91104513
-1.7184008 2.1988442 -0.76993656
-1.7170286 2.1970882 -0.61772197
-1.733633 2.2183352 -0.46936786
-1.7559594 2.2469037 -0.31784946
-1.7282156 2.2114031 -0.15676625
-1.9268404 2.4655609 0
-5.9632287 7.6304727 0.54092383
-1.7024623 2.1730325 -0.91022784
-1.7226021 2.1987393 -0.77062804
-1.7243847 2.2010143 -0.61941117
-1.7283918 2.2061291 -0.4672268
-1.7475055 2.230526 -0.31583112
-1.7356955 2.2154517 -0.15720181
-1.9105581 2.4386473 0
-5.9724441 7.6232619 0.54092383
-1.7218812 2.1923571 -0.91919321
-1.7190593 2.1887643 -0.7678594
-1.7176232 2.1869359 -0.61603278
-1.727888 2.2000053 -0.46637169
-1.7501994 2.2284129 -0.31583112
-1.7223183 2.1929135 -0.15575013
-1.9183273 2.4424789 0
-5.9752312 7.6078658 0.54034323
-1.7015928 2.1611443 -0.90696794
-1.7170513 2.1807778 -0.76578492
-1.7218348 2.1868532 -0.61659515
-1.7241929 2.1898482 -0.46465981
-1.7512922 2.2242663 -0.31554312
-1.7297906 2.1969576 -0.15618569
-1.9035661 2.417665 0
-5.968348 7.5802283 0.53889215
-1.702673 2.1571486 -0.9061538
-1.7196851 2.1787014 -0.76578492
-1.7213304 2.1807861 -0.61547047
-1.7347885 2.1978364 -0.46679926
-1.7443604 2.2099631 -0.31381279
-1.7292272 2.1907907 -0.1558957
-1.9016533 2.4092405 0
-5.9646235 7.556694 0.53773099
-1.7083485 2.1589699 -0.9077853
-1.7145282 2.1667795 -0.76232213
-1.720814 2.1747234 -0.61434573
-1.7262971 2.1816528 -0.46380472
-1.7470294 2.2078538 -0.31381279
-1.7399334 2.1988859 -0.15662125
-0 0 0
-5.9640789 7.5372591 0.53686047
-1.7048119 2.1491585 -0.9045254
-1.7218239 2.1706047 -0.76439923
-1.7218568 2.170646 -0.61378127
-1.7161692 2.163476 -0.46038097
-1.7464843 2.2016923 -0.31323677
-1.7442024 2.1988158 -0.15676625
-1.9284941 2.4311419 0
-5.9634895 7.5178289 0.53598934
-1.7197143 2.1625731 -0.91104513
-1.7291313 2.1744151 -0.76647639
-1.7181524 2.160609 -0.61152971
-1.7251732 2.1694376 -0.46209285
-1.7427039 2.1914828 -0.3120836
-1.7420045 2.1906035 -0.15633069
-1.9265692 2.4226971 0
-5.9596305 7.4943476 0.53482825
-1.6945908 2.1257021 -0.89637417
-1.7192466 2.1566308 -0.76093912
-1.7128439 2.1485991 -0.60871583
-1.7245898 2.1633332 -0.46123609
-1.7453506 2.1893756 -0.3120836
-1.7511292 2.1966243 -0.15691125
-0 0 0
-5.9589663 7.4749541 0.53395766
-1.7141328 2.1448936 -0.9053396
-1.7281162 2.1623909 -0.76370776
-1.7233688 2.1564505 -0.61152971
-1.7272025 2.1612477 -0.46123609
-1.7479948 2.1872652 -0.3120836
-1.753782 2.1945066 -0.15691125
-0 0 0
-5.9420385 7.4352703 0.53163546
-1.7167232 2.1428208 -0.9053396
-1.718179 2.1446381 -0.75817049
-1.7212117 2.1484234 -0.60984266
-1.7298127 2.1591592 -0.46123609
-1.7490207 2.1831348 -0.31179559
-1.7548093 2.1903601 -0.15676625
-0 0 0
-5.947772 7.4240332 0.53134543
-1.7056453 2.1263595 -0.89881986
-1.711627 2.1338165 -0.75471032
-1.7209148 2.1453953 -0.60927814
-1.7230871 2.1481035 -0.45909667
-1.7470994 2.1780386 -0.31121844
-1.7561322 2.1892996 -0.15676625
-0 0 0
-5.9490013 7.4163809 0.53105485
-1.6989232 2.1127439 -0.89393163
-1.7189159 2.1376064 -0.7567848
-1.7187337 2.1373796 -0.60759115
-1.7240744 2.1440213 -0.4586691
-1.7448659 2.1698771 -0.31035328
-1.7604032 2.189199 -0.15691125
-1.931561 2.4020472 0
-5.943305 7.3909645 0.52974874
-1.6906152 2.097218 -0.88822609
-1.7089076 2.11991 -0.75125021
-1.7149364 2.1273887 -0.60533959
-1.7314923 2.1479263 -0.45995176
-1.7393717 2.1577008 -0.3089121
-1.7711993 2.1971834 -0.15763681
-1.9083288 2.3672931 0
-5.9457078 7.3756857 0.52916819
-1.704024 2.1086321 -0.89393163
-1.7130432 2.1197929 -0.75194168
-1.7175057 2.125315 -0.60533959
-1.7195665 2.1278651 -0.45610046
-1.7452321 2.1596248 -0.30948925
-1.7852871 2.2091906 -0.15865292
-1.9177309 2.3730822 0
-5.9448195 7.3563738 0.52829766
-1.6925638 2.0892818 -0.88659459
-1.7187587 2.1216166 -0.75332469
-1.7200724 2.1232381 -0.60533959
-1.7205219 2.1237929 -0.45567292
-1.7478403 2.1575143 -0.30948925
-0 0 -0
-1.904218 2.3505452 0
-5.9438868 7.3370671 0.52742654
-1.7013196 2.0949094 -0.88985449
-1.7102547 2.1059117 -0.74848151
-1.7130227 2.1093202 -0.6019612
-1.7230868 2.1217124 -0.45567292
-1.7357725 2.1373329 -0.3068949
-1.8168303 2.2371428 -0.16097516
-1.9168975 2.3603601 0
-5.9461956 7.3218117 0.52684599
-1.6929309 2.0794406 -0.88415205
-1.7143804 2.1057873 -0.74917305
-1.7171789 2.1092248 -0.60252571
-1.7224109 2.1156514 -0.4548178
-1.7399852 2.1372378 -0.30718291
-0 0 -0
-1.8967479 2.3297908 0
-5.9435592 7.3005214 0.52583039
-1.6954422 2.0773935 -0.88415205
-1.7074029 2.0920486 -0.74501872
-1.7197263 2.1071484 -0.60252571
-1.7265877 2.1155555 -0.45524538
-1.7409325 2.133132 -0.3068949
-0 0 -0
-1.9061438 2.3355622 0
-5.9343019 7.2711887 0.52423376
-1.6822973 2.0562103 -0.87600082
-1.7099295 2.0899842 -0.74501872
-1.7142217 2.0952303 -0.59970969
-1.7242644 2.1075053 -0.45396104
-1.7418661 2.1290193 -0.30660576
-0 0 -0
-0 0 0
-5.9332137 7.2519498 0.52336317
-1.6910502 2.0618203 -0.87926072
-1.7029109 2.0762815 -0.74086708
-1.7183681 2.0951278 -0.60027415
-1.7251832 2.1034372 -0.4535335
-1.7444373 2.1269128 -0.30660576
-0 0 -0
-1.9315808 2.3550885 0
-5.9419723 7.2447758 0.52336317
-1.6872615 2.0521388 -0.87600082
-1.7117916 2.0819738 -0.74363571
-1.7128252 2.083231 -0.59745812
-1.7195735 2.0914385 -0.45139408
-1.7486534 2.1268072 -0.3068949
-0 0 -0
-1.9327738 2.3507445 0
-5.9391685 7.2235389 0.52234709
-1.6913164 2.0520115 -0.87681818
-1.7047353 2.0682921 -0.73948407
-1.7185764 2.0850849 -0.59858501
-1.7269928 2.0952964 -0.45267674
-1.7495722 2.1226912 -0.30660576
-0 0 -0
-1.887612 2.2901695 0
-5.9462409 7.214354 0.52220207
-1.6922157 2.0480554 -0.87600082
-1.7152215 2.0758989 -0.74294424
-1.7178545 2.0790856 -0.59745812
-1.7180822 2.0793612 -0.44968221
-1.742254 2.1086159 -0.30487657
-0 0 -0
-1.872148 2.2658241 0
-5.9499869 7.2011523 0.52176648
-1.6868076 2.0364938 -0.87192678
-1.712926 2.0680268 -0.74086708
-1.7155077 2.0711436 -0.59577107
-1.7222295 2.0792587 -0.45010975
-1.7448007 2.1065092 -0.30487657
-0 0 -0
-1.9163855 2.3136647 0
-0 0 0
-1.6845288 2.0287478 -0.86948109
-1.7042035 2.0524428 -0.73602128
-1.713138 2.0632029 -0.59408188
-1.7231022 2.0752032 -0.44968221
-1.7456939 2.1024113 -0.30458856
-0 0 -0
-1.9042122 2.2933214 0
-5.9540925 7.1707597 0.52060539
-1.6917241 2.0324116 -0.87192678
-1.7131022 2.0580947 -0.73878992
-1.7107515 2.0552707 -0.59239268
-1.7173986 2.0632565 -0.44754279
-1.7548518 2.1082523 -0.30574173
-0 0 -0
-1.9186381 2.3050225 0
-5.961092 7.1615648 0.52046037
-1.6862626 2.020879 -0.86785275
-1.7155877 2.0560234 -0.73878992
-1.7132336 2.0532022 -0.59239268
-1.7149549 2.0552649 -0.44625846
-1.7424793 2.0882511 -0.30314627
-0 0 -0
-1.9180903 2.2987099 0
-5.951427 7.1324086 0.51886374
-1.6791916 2.0074689 -0.86296451
-1.7100241 2.0443292 -0.73532981
-1.7124559 2.0472364 -0.591268
-1.717437 2.0531912 -0.44625846
-1.7416855 2.0821803 -0.30257022
-0 0 -0
-1.9058402 2.2784266 0
-5.9517064 7.1152487 0.51813817
-1.6943145 2.0205824 -0.86948109
-1.7108827 2.0403409 -0.73463827
-1.71166 2.0412679 -0.59014118
-1.7166146 2.0471766 -0.4454017
-1.7442001 2.0800741 -0.30257022
-0 0 -0
-1.9186217 2.2880836 0
-5.9536209 7.1000876 0.51755762
-1.6983497 2.020431 -0.87029845
-1.7068896 2.0305905 -0.73186964
-1.7092251 2.0333688 -0.58845413
-1.7174368 2.0431378 -0.44497415
-1.7467122 2.0779653 -0.30257022
-0 0 -0
-0 0 0
-5.9555078 7.0849323 0.51697707
-1.6753073 1.9881366 -0.85725898
-1.709342 2.0285265 -0.73186964
-1.7116808 2.031302 -0.58845413
-1.7132876 2.0332088 -0.44326228
-1.7475567 2.0738771 -0.30228221
-0 0 -0
-1.9543282 2.3192589 0
-5.9556937 7.0677977 0.5162515
-1.6908507 2.0041242 -0.86459291
-1.7040962 2.0198236 -0.729101
-1.7047105 2.0205517 -0.58563811
-1.709548 2.0262854 -0.44197798
-1.747143 2.0708458 -0.3019942
-0 0 -0
-1.9439864 2.3041596 0
-5.9448838 7.0463257 0.51494539
-1.678908 1.9850969 -0.85725898
-1.7065355 2.0177629 -0.729101
-1.7153596 2.0281963 -0.58845413
-1.718626 2.0320585 -0.44368982
-1.7412878 2.0588531 -0.30055189
-0 0 -0
-0 0 0
-5.9517174 7.0371552 0.51480037
-1.6829021 1.9849503 -0.85807317
-1.7073514 2.0137877 -0.72840953
-1.7013742 2.0067377 -0.58282423
-1.7111228 2.0182359 -0.44112286
-1.7404321 2.0528059 -0.29997587
-0 0 -0
-1.9680573 2.3212852 0
-5.9501305 7.0180631 0.51392925
-1.6724943 1.967849 -0.85155344
-1.7000322 2.0002499 -0.7242552
-1.7054479 2.0066221 -0.58338869
-1.7102383 2.0122585 -0.44026774
-1.7429113 2.0507014 -0.29997587
-0 0 -0
-1.9506358 2.295109 0
-5.9501939 7.0009704 0.51320368
-1.6812824 1.9733521 -0.85481328
-1.7024479 1.9981943 -0.7242552
-1.7029262 1.9987558 -0.58169949
-1.7109989 2.0082309 -0.43983853
-1.7437122 2.046627 -0.29968786
-0 0 -0
-1.933154 2.2689784 0
-5.9451675 6.9779525 0.51204258
-1.686879 1.9750817 -0.85644478
-1.6999778 1.9904182 -0.72218072
-1.7102922 2.0024948 -0.58338869
-1.7067555 1.998354 -0.43812668
-1.7444992 2.042546 -0.29939872
-0 0 -0
-1.9578716 2.2923729 0
-5.9417868 6.9569383 0.51102704
-1.6844405 1.9674077 -0.85399914
-1.6991152 1.9845476 -0.72079504
-1.7027923 1.9888424 -0.58001029
-1.7108432 1.9982458 -0.43855587
-1.7486529 2.042407 -0.29968786
-0 0 -0
-0 0 0
-5.945117 6.9438305 0.51059145
-1.6964717 1.9766206 -0.85888737
-1.6933439 1.9729762 -0.71733493
-1.700228 1.9809972 -0.5783211
-1.7182673 2.0020156 -0.43983853
-1.7511195 2.0402927 -0.29968786
-0 0 -0
-0 0 0
-5.9433455 6.9248071 0.50972033
-1.6762941 1.9483426 -0.8474794
-1.7022715 1.9785358 -0.72010356
-1.7092491 1.9866459 -0.58057266
-1.7089702 1.9863217 -0.43684399
-1.7434589 2.0264075 -0.29795754
-0 0 -0
-0 0 0
-5.9398503 6.9038382 0.50870478
-1.6834913 1.9519324 -0.8499251
-1.7013807 1.9726743 -0.71871793
-1.7066747 1.9788123 -0.57888561
-1.713044 1.9861974 -0.43727157
-1.7492878 2.0282204 -0.29853469
-0 0 -0
-0 0 0
-5.9430952 6.8907509 0.50826925
-1.6680655 1.9293284 -0.84095967
-1.7070478 1.9744163 -0.72010356
-1.7057376 1.9729007 -0.57775879
-1.7187974 1.9880061 -0.43812668
-1.7331277 2.004581 -0.29536319
-0 0 -0
-1.9733857 2.2824695 0
-5.9429212 6.8737388 0.50754368
-1.6833457 1.9422534 -0.8474794
-1.7012184 1.9628749 -0.71664339
-1.7081202 1.9708383 -0.57775879
-1.7111138 1.9742923 -0.43555969
-1.7474082 2.0161691 -0.29738152
-0 0 -0
-1.9590939 2.2604132 0
-5.9478154 6.8626218 0.50725311
-1.6727232 1.9252917 -0.84095967
-1.7085203 1.966494 -0.71871793
-1.6988399 1.9553518 -0.57382023
-1.7101276 1.968344 -0.43470293
-1.7328762 1.9945275 -0.29449803
-0 0 -0
-1.9925506 2.2934108 0
-5.9458814 6.8436646 0.50638258
-1.6653117 1.9120898 -0.83607143
-1.7059569 1.958758 -0.71664339
-1.6978605 1.9494619 -0.57269335
-1.7108203 1.9643422 -0.43427539
-1.7352849 1.9924321 -0.29449803
-0 0 -0
-1.9748094 2.267451 0
-5.9439101 6.8247223 0.505512
-1.6838731 1.9286911 -0.84421957
-1.7083224 1.9566953 -0.71664339
-1.7002149 1.9474089 -0.57269335
-1.7064394 1.9545385 -0.43256351
-1.7410965 1.9942344 -0.29507518
-0 0 -0
-1.9895307 2.2787883 0
-5.9401879 6.8038311 0.50449592
-1.6634165 1.9006202 -0.83281159
-1.7024258 1.9451922 -0.71318328
-1.7008948 1.9434429 -0.57213104
-1.7037327 1.9466856 -0.43128085
-1.7452067 1.9940736 -0.29536319
-0 0 -0
-1.9905638 2.2744188 0
-5.9364238 6.7829595 0.50347978
-1.6565773 1.8836014 -0.82710606
-1.7021496 1.9354191 -0.71110612
-1.6988744 1.9316949 -0.56987947
-1.7067319 1.9406294 -0.43085164
-1.7363555 1.9743127 -0.29305685
-0 0 -0
-1.999495 2.273514 0
-2.7165353 3.0888202 0.22976094
-1.6768333 1.901994 -0.83607143
-1.6961931 1.9239534 -0.70764595
-1.7062497 1.9353604 -0.57156867
-1.7022851 1.9308634 -0.42913976
-1.737031 1.9702749 -0.29276884
-0 0 -0
-0 0 0
-2.7357292 3.1030757 0.23106706
-1.6567205 1.8768934 -0.82547766
-1.7039961 1.9304518 -0.71041465
-1.7006928 1.9267095 -0.56931716
-1.7085493 1.9356102 -0.43042409
-1.7330844 1.9634058 -0.29190367
-0 0 -0
-0 0 0
-2.7255716 3.0877914 0.2300515
-1.6557083 1.8711846 -0.82384616
-1.7046601 1.9265071 -0.70972049
-1.701331 1.9227448 -0.56875265
-1.7091874 1.9316236 -0.42999652
-1.7405992 1.9671234 -0.29276884
-0 0 -0
-0 0 0
-2.7499635 3.1078479 0.23179318
-1.6743721 1.8876766 -0.83199739
-1.7003276 1.9169387 -0.7069518
-1.7070284 1.924493 -0.56987947
-1.7047063 1.9218751 -0.42828465
-1.7326801 1.9534127 -0.29103965
-0 0 -0
-0 0 0
-2.7640591 3.1161828 0.23266374
-1.6602254 1.867178 -0.82384616
-1.7009772 1.9130098 -0.70626032
-1.6958455 1.9072384 -0.5653764
-1.7070273 1.919814 -0.42828465
-1.7281646 1.943586 -0.28988647
-0 0 -0
-0 0 0
-2.7712722 3.1167207 0.23295374
-1.6707015 1.8743941 -0.82792026
-1.7032875 1.910953 -0.70626032
-1.7015269 1.9089777 -0.56650108
-1.7059263 1.9139136 -0.42742789
-1.7339504 1.9453543 -0.29046249
-0 0 -0
-0 0 0
-2.7923291 3.132771 0.23440541
-1.6548551 1.8521055 -0.81895798
-1.6972392 1.8995414 -0.70280015
-1.6970605 1.8993415 -0.56424958
-1.7031114 1.9061136 -0.42614523
-1.7294064 1.9355428 -0.28930932
-0 0 -0
-0 0 0
-1.9443523 2.1761091 0.16300014
-1.6620405 1.8556296 -0.82140362
-1.6961887 1.8937553 -0.70141721
-1.6976606 1.8953986 -0.56368721
-1.6985625 1.8964056 -0.42443335
-1.7369225 1.9392335 -0.29017448
-0 0 -0
-0 0 0
-1.9504509 2.177633 0.16329069
-1.6659311 1.8554573 -0.82221782
-1.6967949 1.8898323 -0.70072305
-1.7033479 1.8971308 -0.56481403
-1.7059928 1.9000767 -0.42571604
-1.7306261 1.9275124 -0.2887333
-0 0 -0
-0 0 0
-1.9513464 2.1733432 0.16314569
-1.66652 1.8516077 -0.82140362
-1.6957237 1.8840548 -0.69934005
-1.6954368 1.8837361 -0.56143564
-1.7134411 1.9037399 -0.42700034
-1.7312186 1.923492 -0.28844419
-0 0 -0
-0 0 0
-1.959181 2.1767724 0.16358069
-1.6571647 1.8367453 -0.81569809
-1.6946346 1.8782755 -0.69795442
-1.6909033 1.8741399 -0.55918413
-1.7088616 1.8940443 -0.42528847
-1.7335415 1.9213986 -0.28844419
-0 0 -0
-0 0 0
-1.9531082 2.1647589 0.16285513
-1.6643581 1.8402426 -0.81814378
-1.6884904 1.866925 -0.69449425
-1.7068017 1.8871713 -0.56368721
-1.7059882 1.886272 -0.42400581
-1.7271888 1.909713 -0.28700298
-0 0 -0
-0 0 0
-1.960953 2.1681807 0.16329069
-1.668239 1.8400595 -0.81895798
-1.6924284 1.8667402 -0.69518572
-1.6954274 1.8700482 -0.55918413
-1.7048143 1.8804018 -0.42314905
-1.7347085 1.913375 -0.28786814
-0 0 -0
-0 0 0
-1.9600775 2.1619558 0.16300014
-1.6671333 1.8343807 -0.81732649
-1.6879336 1.8572676 -0.69241709
-1.7028142 1.8736411 -0.56087333
-1.6932729 1.8631427 -0.4197253
-1.7231026 1.8959649 -0.2855618
-0 0 -0
-0 0 0
-1.9574505 2.1538227 0.16256513
-1.6477114 1.8086149 -0.80673271
-1.6952467 1.8607922 -0.69449425
-1.6896778 1.8546795 -0.55580789
-1.7041655 1.8705817 -0.42186475
-1.7341 1.9034395 -0.28700298
-0 0 -0
-0 0 0
-1.9705479 2.1629772 0.1634357
-1.666566 1.8248767 -0.81488389
-1.7008808 1.862451 -0.69587988
-1.6850637 1.8451315 -0.55355638
-1.7116194 1.8742098 -0.42314905
-1.7241943 1.8879791 -0.28498578
-0 0 -0
-0 0 0
-0 0 0
-1.6637614 1.8173907 -0.81243825
-1.6980462 1.8548412 -0.69380277
-1.6975831 1.8543354 -0.55693257
-1.7017473 1.8588842 -0.42015287
-1.7282192 1.8878003 -0.28527379
-0 0 -0
-5.8013763 6.3370671 0
-1.9476959 2.1275432 0.16111346
-1.6726407 1.8226632 -0.81569809
-1.7002861 1.8527882 -0.69380277
-1.6946734 1.8466721 -0.55524558
-1.6970494 1.8492612 -0.418441
-1.7235036 1.8780881 -0.28412062
-0 0 -0
-0 0 0
-1.9555374 2.1309335 0.16154902
-1.6647986 1.8097233 -0.81080675
-1.692336 1.8396578 -0.68965113
-1.7020593 1.8502276 -0.55693257
-1.7044983 1.8528788 -0.4197253
-1.7310266 1.8817167 -0.28498578
-0 0 -0
-0 0 0
-1.9616327 2.1323974 0.16183957
-1.6468841 1.7859136 -0.80103028
-1.6911528 1.8339194 -0.68826544
-1.6870719 1.829494 -0.55130482
-1.7015134 1.8451546 -0.418441
-1.7280372 1.8739176 -0.28412062
-0 0 -0
-0 0 0
-1.9518754 2.1166523 0.16082346
-1.667491 1.8038816 -0.80999255
-1.6933675 1.8318746 -0.68826544
-1.6892812 1.8274542 -0.55130482
-1.7020009 1.8412141 -0.41801345
-1.735569 1.877528 -0.28498578
-0 0 -0
-0 0 0
-1.9473763 2.1066599 0.1602429
-1.6663128 1.798243 -0.80836421
-1.6904626 1.8243049 -0.68618828
-1.6932136 1.8272736 -0.55186719
-1.7024812 1.8372751 -0.41758588
-1.7308043 1.8678408 -0.28383261
-0 0 -0
-0 0 0
-1.9393202 2.0928657 0.15937179
-1.6539508 1.7827407 -0.80184448
-1.6881551 1.8196084 -0.68480533
-1.7012297 1.8337013 -0.55411869
-1.6966071 1.8287187 -0.415874
-1.7231318 1.8573086 -0.28239033
-0 0 -0
-0 0 0
-1.9405842 2.0916939 0.15937179
-1.6628366 1.7879804 -0.80510432
-1.6937662 1.821238 -0.68618828
-1.6982579 1.8260678 -0.55243164
-1.6970689 1.8247893 -0.41544646
-1.7200954 1.8495487 -0.28152627
-0 0 -0
-5.8013492 6.2379551 0
-1.9484206 2.0950575 0.15980734
-1.6649957 1.78597 -0.80510432
-1.6874136 1.8100168 -0.68272817
-1.6969945 1.8202938 -0.55130482
-1.6852688 1.807716 -0.41202271
-1.7258531 1.851249 -0.28210229
-0 0 -0
-0 0 0
-1.9474103 2.0889041 0.15951735
-1.653652 1.7695104 -0.79858458
-1.6878881 1.8061453 -0.68203664
-1.6991928 1.818242 -0.55130482
-1.690954 1.8094258 -0.41287783
-1.7280886 1.8491623 -0.28210229
-0 0 -0
-0 0 0
-1.9392844 2.075155 0.15864623
-1.659165 1.7711151 -0.80021298
-1.6917828 1.8059336 -0.68272817
-1.7048662 1.8198998 -0.55243164
-1.6931391 1.8073814 -0.41287783
-1.7232486 1.8395225 -0.28094912
-0 0 -0
-0 0 0
-1.9329098 2.0633304 0.15792067
-1.6613039 1.769109 -0.80021298
-1.6888099 1.7983999 -0.68065101
-1.6861916 1.7956116 -0.54567707
-1.6988397 1.8090805 -0.41373459
-1.7254701 1.8374389 -0.28094912
-2.1275761 2.2656384 -0.17360131
-5.7441373 6.1168852 0
-1.9407395 2.0666778 0.15835623
-1.6651393 1.7689052 -0.80103028
-1.6841034 1.7890511 -0.67788237
-1.6970663 1.8028218 -0.54849094
-1.70454 1.8107612 -0.4145897
-1.7241467 1.8315897 -0.2803731
-2.2175817 2.3557742 -0.18071301
-0 0 0
-1.9396698 2.0605435 0.15806568
-1.6537052 1.7525109 -0.79451054
-1.6879907 1.7888447 -0.67857653
-1.6852927 1.7859856 -0.54398787
-1.7102537 1.812438 -0.41544646
-1.7245851 1.8276256 -0.28008509
-2.1883302 2.3190784 -0.17810078
-0 0 0
-1.9368132 2.0525341 0.15763067
-1.647331 1.7415352 -0.79043651
-1.683255 1.7795136 -0.67580789
-1.6874495 1.7839479 -0.54398787
-1.6912738 1.7879909 -0.41031086
-1.7250097 1.8236561 -0.27979594
-2.1804135 2.3051026 -0.17722966
-0 0 0
-1.9375012 2.0482991 0.15748511
-1.654531 1.7449189 -0.79287905
-1.6923087 1.7847604 -0.67857653
-1.6896038 1.7819077 -0.54398787
-1.6987336 1.7915363 -0.41159517
-1.7236561 1.8178202 -0.27921993
-2.1885626 2.308125 -0.17766522
-0 0 0
-1.9417678 2.0478475 0.15763067
-1.6634494 1.7500843 -0.79613894
-1.6910038 1.7790738 -0.67719084
-1.6865025 1.774338 -0.54229867
-1.6955897 1.7838986 -0.41031086
-1.7258513 1.8157362 -0.27921993
-0 0 -0
-0 0 0
-1.9388685 2.0398479 0.15719511
-1.658743 1.7409154 -0.79287905
-1.682772 1.766135 -0.6730392
-1.6921539 1.7759815 -0.5434255
-1.6995131 1.7837052 -0.41073841
-1.7262615 1.8117788 -0.27893192
-0 0 -0
-0 0 0
-1.9664227 2.0638373 0.15922679
-1.6608453 1.73891 -0.79287905
-1.6970294 1.7767947 -0.67788237
-1.6907854 1.7702572 -0.54229867
-1.6963531 1.7760866 -0.40945575
-1.7213036 1.8022099 -0.27777874
-0 0 -0
-5.7974644 6.0699625 0
-1.9437925 2.0351562 0.15719511
-1.6492711 1.7226195 -0.78635937
-1.6870352 1.7620631 -0.6730392
-1.6841389 1.759038 -0.5394848
-1.6913967 1.7666186 -0.40774387
-1.7252669 1.8019952 -0.27806675
-0 0 -0
-5.7832041 6.0404019 0
-1.9480454 2.0346813 0.15734011
-1.6616231 1.7313282 -0.79125071
-1.6874276 1.7582152 -0.67234772
-1.6809832 1.7515004 -0.5377956
-1.6935301 1.7645737 -0.40774387
-1.7292323 1.8017735 -0.27835476
-0 0 -0
-5.8283401 6.0728388 0
-1.9415079 2.022954 0.15661456
-1.6568596 1.7221946 -0.78799087
-1.6965082 1.7634066 -0.67511636
-1.684865 1.7513044 -0.53836012
-1.69032 1.7569745 -0.40645957
-1.7170624 1.7847713 -0.27604842
-0 0 -0
-5.8356738 6.0657921 0
-1.9637692 2.0412066 0.15821123
-1.6675164 1.7290851 -0.79206491
-1.6812191 1.7432938 -0.6681934
-1.6834488 1.7456058 -0.53723323
-1.6960024 1.7586228 -0.40731466
-1.7263995 1.7901423 -0.27720159
-0 0 -0
-5.7273769 5.9388452 0
-1.9283565 1.9995561 0.15516344
-1.6421183 1.6986369 -0.77902544
-1.6780915 1.7358482 -0.6661163
-1.6855569 1.7435704 -0.53723323
-1.6892066 1.7473458 -0.40517524
-1.7249693 1.7843394 -0.27662557
-0 0 -0
-0 0 0
-0 0 0
-1.6510497 1.7037512 -0.78228533
-1.6871712 1.7410257 -0.66888493
-1.6770563 1.7305878 -0.53385699
-1.6913167 1.7453034 -0.40517524
-1.7163209 1.7711058 -0.27489525
-0 0 -0
-0 0 0
-0 0 0
-1.6427774 1.6911212 -0.7773971
-1.6822815 1.7317878 -0.6661163
-1.6897655 1.7394919 -0.53723323
-1.6970052 1.7469447 -0.406032
-1.7166592 1.7671771 -0.27460724
-0 0 -0
-0 0 0
-0 0 0
-1.6369059 1.6830412 -0.7741372
-1.6850816 1.7325747 -0.66681045
-1.690816 1.7384708 -0.53723323
-1.6891061 1.7367127 -0.40389094
-1.7195281 1.767992 -0.27489525
-0 0 -0
-5.7923636 5.9556184 0
-0 0 0
-1.651011 1.6934451 -0.77983963
-1.6854175 1.7287359 -0.6661163
-1.6822764 1.7255139 -0.53385699
-1.6858325 1.7291615 -0.40260828
-1.7180554 1.7622126 -0.27431923
-0 0 -0
-0 0 0
-0 0 0
-1.6703345 1.7091287 -0.78799087
-1.6910155 1.7302901 -0.66750193
-1.68436 1.72348 -0.53385699
-1.6932981 1.7326257 -0.40389094
-1.7201835 1.7601354 -0.27431923
-0 0 -0
-0 0 0
-0 0 0
-1.6464521 1.6806242 -0.7757656
-1.6843283 1.7192867 -0.66404176
-1.6917707 1.7268834 -0.53554404
-1.6828204 1.7177474 -0.4008964
-1.7259256 1.7617472 -0.27489525
-0 0 -0
-5.8029833 5.9234247 0
-0 0 0
-1.6450213 1.6751101 -0.7741372
-1.6758543 1.7065071 -0.65988749
-1.6813987 1.712153 -0.53160548
-1.6902856 1.7212023 -0.40217906
-1.724432 1.7559732 -0.27431923
-0 0 -0
-5.8393121 5.9461184 0
-0 0 0
-1.6539798 1.6801666 -0.7773971
-1.68672 1.7134253 -0.66335028
-1.6852472 1.7119291 -0.53216779
-1.6815623 1.7081858 -0.39961207
-1.7211072 1.7483569 -0.27345407
-0 0 -0
-5.7844214 5.8760037 0
-0 0 0
-1.6403861 1.6623352 -0.77006316
-1.674692 1.6971002 -0.65781301
-1.6783926 1.7008504 -0.52935392
-1.6908374 1.7134616 -0.40132394
-1.7195885 1.7425975 -0.27287805
-0 0 -0
-0 0 0
-0 0 0
-1.6493461 1.6673806 -0.77332306
-1.6837986 1.7022097 -0.66058165
-1.6822318 1.7006258 -0.52991629
-1.6892995 1.7077707 -0.40046883
-1.7198687 1.7386743 -0.27258894
-0 0 -0
-5.8040967 5.8675604 0
-0 0 0
-1.6513596 1.6653864 -0.77332306
-1.6840826 1.6983874 -0.65988749
-1.6896544 1.7040064 -0.53160548
-1.689549 1.7039002 -0.40003964
-1.7146837 1.7292483 -0.27143577
-0 0 -0
-5.7433834 5.7921686 0
-0 0 0
-1.646401 1.656378 -0.77006316
-1.6808329 1.6910185 -0.65781301
-1.6899226 1.7001632 -0.53104311
-1.6934215 1.7036834 -0.40046883
-1.7204221 1.7308476 -0.27201289
-0 0 -0
-0 0 0
-0 0 0
-1.6693288 1.675391 -0.77983963
-1.6722469 1.6783197 -0.65365869
-1.6848019 1.6909202 -0.52879161
-1.6918515 1.6979955 -0.39961207
-1.7188575 1.7250996 -0.27143577
-0 0 -0
-5.78859 5.8096113 0
-0 0 0
-1.6416609 1.6436458 -0.76598603
-1.6742737 1.6762979 -0.65365869
-1.6760668 1.6780932 -0.52541322
-1.6848333 1.6868703 -0.39747265
-1.7191147 1.7211932 -0.27114773
-0 0 -0
-5.7514663 5.75842 0
-0 0 0
-1.6384045 1.636426 -0.76354343
-1.6798514 1.6778228 -0.65504432
-1.6834882 1.6814553 -0.52710241
-1.6850557 1.6830209 -0.39704511
-1.7340051 1.7319112 -0.27316606
-0 0 -0
-0 0 0
-0 0 0
-1.6561366 1.6501441 -0.77087736
-1.6818775 1.6757919 -0.65504432
-1.6873169 1.6812116 -0.52766472
-1.6889049 1.6827937 -0.39747265
-1.7269371 1.7206883 -0.27172488
-0 0 -0
-0 0 0
-0 0 0
-1.6493661 1.6394315 -0.76680332
-1.6750063 1.6649171 -0.65158421
-1.6821387 1.6720066 -0.52541322
-1.6872921 1.6771289 -0.39661589
-1.7253425 1.7149502 -0.27114773
-0 0 -0
-0 0 0
-0 0 0
-1.6495858 1.635692 -0.76598603
-1.6752301 1.6611204 -0.65089005
-1.6805527 1.6663982 -0.52428854
-1.6874963 1.6732832 -0.39618835
-1.7274134 1.7128642 -0.27114773
-0 0 -0
-0 0 0
-0 0 0
-1.6410214 1.6232721 -0.76109779
-1.6808068 1.662627 -0.65227568
-1.6879791 1.6697218 -0.52597553
-1.6913402 1.6730466 -0.39661589
-1.7294818 1.7107757 -0.27114773
-0 0 -0
-0 0 0
-0 0 0
-1.6464968 1.6247567 -0.76272613
-1.6810304 1.6588345 -0.65158421
-1.6809541 1.6587591 -0.52316165
-1.6824007 1.6601866 -0.39404893
-1.7352333 1.7123216 -0.27172488
-0 0 -0
-0 0 0
-0 0 0
-1.6555042 1.6297017 -0.76598603
-1.6830336 1.6568021 -0.65158421
-1.6883912 1.6620761 -0.52485085
-1.686233 1.6599517 -0.39447647
-1.7243967 1.6975205 -0.26970655
-0 0 -0
-0 0 0
-0 0 0
-1.639841 1.6103857 -0.75783789
-1.6814508 1.6512482 -0.65019858
-1.6849579 1.6546922 -0.52316165
-1.6827482 1.6525222 -0.39319381
-1.7301409 1.6990637 -0.2702837
-0 0 -0
-0 0 0
-0 0 0
-1.656103 1.6185124 -0.76354343
-1.6818514 1.6436764 -0.64881557
-1.6816828 1.6435117 -0.52091014
-1.6757177 1.637682 -0.39062518
-1.7249876 1.6858335 -0.26884139
-0 0 -0
-0 0 0
-0 0 0
-1.6606145 1.6209611 -0.76517183
-1.6774566 1.6374011 -0.64673841
-1.680859 1.6407222 -0.52034777
-1.6767069 1.6366693 -0.39062518
-1.7241566 1.682986 -0.26855338
-0 0 -0
-5.7812309 5.6431823 0
-1.9376626 1.8913937 0.15124454
-1.6590338 1.6155081 -0.76354343
-1.6812295 1.6371216 -0.64742988
-1.6810216 1.636919 -0.51978546
-1.6786833 1.6346421 -0.39062518
-1.7317499 1.6863165 -0.26941854
-0 0 -0
-5.7078757 5.5581264 0
-1.9957922 1.9434315 0.15559845
-1.652122 1.6048931 -0.75946939
-1.6742107 1.6263503 -0.64396977
-1.6775289 1.6295736 -0.51809627
-1.6880225 1.6397673 -0.39233705
-1.7282188 1.6788144 -0.26855338
-0 0 -0
-0 0 0
-2.0093255 1.9518853 0.15646955
-1.6434071 1.5925722 -0.75457805
-1.6761745 1.6243261 -0.64396977
-1.6922712 1.6399249 -0.52203697
-1.6844703 1.6323653 -0.39105272
-1.7302459 1.676725 -0.26855338
-0 0 -0
-0 0 0
-1.9911546 1.929563 0.15487288
-1.6559956 1.6008959 -0.75946939
-1.6727232 1.6170669 -0.64189261
-1.6759797 1.6202152 -0.51640707
-1.695675 1.639255 -0.39319381
-1.7229745 1.6656463 -0.2671122
-0 0 -0
-0 0 0
-1.9953511 1.92896 0.15501788
-1.6436962 1.585168 -0.75294966
-1.6692566 1.6098182 -0.63981545
-1.6779363 1.6181889 -0.51640707
-1.6828722 1.622949 -0.38977006
-1.7212588 1.6599687 -0.26653507
-0 0 -0
-0 0 0
-2.0126433 1.9409778 0.156179
-1.6491692 1.5866046 -0.75457805
-1.6675881 1.6043248 -0.63843244
-1.689051 1.6249734 -0.51922309
-1.6811285 1.6173514 -0.3889133
-1.7158076 1.6507149 -0.2653819
-0 0 -0
-0 0 0
-2.0149872 1.9385445 0.156179
-1.6386008 1.5726291 -0.74887252
-1.6749573 1.6075218 -0.64050961
-1.6873432 1.6194091 -0.51809627
-1.6830815 1.6153189 -0.3889133
-1.7196723 1.6504365 -0.26567101
-0 0 -0
-0 0 0
-2.039825 1.9576994 0.15792067
-1.6565726 1.5860364 -0.75620955
-1.6805192 1.6089634 -0.64189261
-1.6782902 1.6068294 -0.51472002
-1.6831796 1.6115105 -0.38848576
-1.7216653 1.6483575 -0.26567101
-0 0 -0
-5.7659574 5.5204453 0
-1.9971431 1.9121056 0.15443732
-1.6620591 1.5874445 -0.75783789
-1.6788372 1.6034694 -0.64050961
-1.6636952 1.5890073 -0.50965458
-1.6777 1.6023834 -0.38677388
-1.7217799 1.6444844 -0.2653819
-0 0 -0
-0 0 0
-2.0107303 1.9204628 0.15530844
-1.642503 1.5649757 -0.74805832
-1.669872 1.5910529 -0.63635534
-1.6711274 1.592249 -0.51134163
-1.6777782 1.598586 -0.38634634
-1.7237657 1.6424028 -0.2653819
-0 0 -0
-5.7792816 5.506495 0
-1.9904742 1.8965224 0.15356676
-1.6515588 1.5698011 -0.75131816
-1.6772503 1.5942208 -0.63843244
-1.6675304 1.5849822 -0.50965458
-1.6797086 1.5965575 -0.38634634
-1.7145042 1.6296306 -0.26365268
-0 0 -0
-0 0 0
-2.0134838 1.9138095 0.15516344
-1.6606284 1.5746068 -0.75457805
-1.6773566 1.5904684 -0.63774097
-1.6805036 1.5934525 -0.51303083
-1.6760464 1.5892261 -0.38506201
-1.716472 1.6275578 -0.26365268
-0 0 -0
-0 0 0
-1.9950516 1.8917067 0.15356676
-1.6427836 1.5539211 -0.74561578
-1.670166 1.5798223 -0.6342808
-1.6750441 1.5844365 -0.51077926
-1.6779654 1.5871998 -0.38506201
-1.7165601 1.6237068 -0.26336467
-0 0 -0
-0 0 0
-2.0294254 1.9196484 0.15603399
-1.6320748 1.5400593 -0.73991024
-1.6592993 1.5657489 -0.629435
-1.6732649 1.578927 -0.50965458
-1.6724137 1.5781239 -0.38335013
-1.7166414 1.6198581 -0.26307666
-0 0 -0
-0 0 0
-2.026072 1.9118432 0.15559845
-1.6429312 1.546555 -0.74398428
-1.66484 1.5671786 -0.63081801
-1.6825649 1.5838639 -0.51190394
-1.6799288 1.5813823 -0.38463446
-1.7072939 1.6071422 -0.26134634
-0 0 -0
-0 0 0
-2.0643313 1.9432353 0.15835623
-1.6628125 1.5614848 -0.75213236
-1.6722206 1.5703197 -0.63289517
-1.6770756 1.5748788 -0.50965458
-1.6780921 1.5758333 -0.38377771
-1.707351 1.6033093 -0.26105833
-0 0 -0
-0 0 0
-2.0439475 1.9193944 0.15661456
-1.6466638 1.5425802 -0.74398428
-1.6667932 1.5614372 -0.63012654
-1.6697003 1.5641606 -0.50683856
-1.6799949 1.5738045 -0.38377771
-1.697965 1.5906388 -0.25932914
-0 0 -0
-0 0 0
-1.9817934 1.8565267 0.1516801
-1.6485265 1.5405895 -0.74398428
-1.6741793 1.5645627 -0.6322037
-1.6660252 1.5569423 -0.50515151
-1.6875238 1.5770334 -0.38506201
-1.7017736 1.5903503 -0.25961715
-0 0 -0
-5.746676 5.3704128 0
-2.0276947 1.8949317 0.15501788
-1.6449616 1.5335386 -0.74153858
-1.6687285 1.5556957 -0.629435
-1.6753393 1.5618587 -0.50740308
-1.6819174 1.5679913 -0.38335013
-1.6904491 1.575945 -0.25759882
-2.2296269 2.0786011 -0.17026353
-5.7893305 5.3971853 0
-2.0109804 1.8747648 0.15356676
-1.6576761 1.5416523 -0.74642998
-1.6779554 1.5605123 -0.6322037
-1.6846677 1.5667548 -0.50965458
-1.6650165 1.5484791 -0.3790713
-1.6942443 1.5756611 -0.25788686
-2.3044384 2.1431465 -0.17577854
-5.7348647 5.3334708 0
-1.9599668 1.8227853 0.14950286
-1.6622255 1.5440116 -0.74805832
-1.669709 1.5509628 -0.62874353
-1.6651338 1.5467131 -0.50346231
-1.6697098 1.5509636 -0.37992641
-1.6933026 1.5728786 -0.25759882
-2.2828867 2.1205325 -0.17403688
-5.7304587 5.3229208 0
-0 0 0
-1.6532159 1.5319257 -0.74317008
-1.6697364 1.5472342 -0.62804937
-1.6744566 1.5516081 -0.50571388
-1.6697016 1.5472019 -0.37949884
-1.695202 1.5708314 -0.25759882
-2.291167 2.1230726 -0.17447242
-0 0 0
-0 0 0
-1.6568788 1.5316031 -0.74398428
-1.6716046 1.5452155 -0.62804937
-1.6707308 1.5444077 -0.50402468
-1.6715698 1.5451832 -0.37949884
-1.6933038 1.5652739 -0.2570228
-2.2956369 2.1220648 -0.17461742
-5.7433052 5.3090568 0
-0 0 0
-1.656913 1.527926 -0.74317008
-1.6642507 1.5346925 -0.6245892
-1.6688635 1.5389462 -0.50289994
-1.679099 1.5483848 -0.38078317
-1.6894877 1.5579648 -0.25615764
-2.3001077 2.1210494 -0.17476243
-5.7478046 5.3003507 0
-0 0 0
-1.6332885 1.5024929 -0.73175901
-1.6624148 1.5292867 -0.62320626
-1.6782018 1.5438095 -0.50515151
-1.6771865 1.5428755 -0.37992641
-1.6856565 1.5506673 -0.25529248
-2.2988479 2.1147535 -0.17447242
-5.7369685 5.2775459 0
-2.8437502 2.6160195 0.21582812
-1.6351027 1.5005183 -0.73175901
-1.6735016 1.5357566 -0.62666637
-1.680066 1.5417806 -0.50515151
-1.6639186 1.5269623 -0.37650266
-1.6894329 1.5503764 -0.25558051
-2.2918308 2.1031914 -0.17374687
-0 0 0
-0 0 0
-1.6460351 1.506891 -0.73583621
-1.6716588 1.5303485 -0.62528336
-1.6631826 1.5225888 -0.49952158
-1.669553 1.5284208 -0.37735942
-1.689399 1.5465891 -0.25529248
-2.2867041 2.0934024 -0.1731663
-0 0 0
-0 0 0
-1.6533246 1.5098964 -0.73827875
-1.6660967 1.5215604 -0.62251472
-1.6744004 1.5291438 -0.50233549
-1.675186 1.5298613 -0.37821454
-1.696998 1.549781 -0.25615764
-2.2949824 2.0958896 -0.17360131
-5.744535 5.2461886 0
-0 0 0
-1.6533226 1.5062346 -0.73746455
-1.6642213 1.5161638 -0.6211291
-1.6762469 1.5271195 -0.50233549
-1.6694428 1.5209208 -0.37650266
-1.6969591 1.5459892 -0.25586963
-2.3071229 2.1018698 -0.17432743
-5.7354794 5.2252221 0
-0 0 0
-1.6331923 1.484288 -0.72768497
-1.6734784 1.5209011 -0.62389773
-1.6630552 1.5114282 -0.49783456
-1.6731845 1.5206339 -0.37693188
-1.7064824 1.5508959 -0.2570228
-0 0 -0
-0 0 0
-0 0 0
-1.631326 1.4789965 -0.72605664
-1.6641667 1.5087707 -0.61974609
-1.6629924 1.507706 -0.49727005
-1.6731133 1.5168819 -0.37650266
-1.6987686 1.5401415 -0.25558051
-0 0 -0
-0 0 0
-0 0 0
-1.6367745 1.4803369 -0.72768497
-1.6641226 1.5050712 -0.61905193
-1.6704682 1.5108103 -0.49895924
-1.686372 1.525194 -0.3790713
-1.7044686 1.541561 -0.25615764
-0 0 -0
-5.785265 5.2323284 0
-0 0 0
-1.633062 1.4733958 -0.72524244
-1.6659399 1.5030593 -0.61905193
-1.6722926 1.5087907 -0.49895924
-1.6710618 1.5076803 -0.37522
-1.7024856 1.5360317 -0.25558051
-0 0 -0
-5.7316809 5.1712885 0
-0 0 0
-1.6293281 1.4664595 -0.72279674
-1.6565702 1.4909785 -0.61490029
-1.6835556 1.5152664 -0.50177312
-1.6766948 1.5090914 -0.37607512
-1.7101096 1.5391661 -0.25644565
-0 0 -0
-5.7263222 5.1539159 0
-0 0 0
-1.6439742 1.47605 -0.72850227
-1.6677024 1.4973545 -0.61836046
-1.6721561 1.5013533 -0.49783456
-1.6670599 1.4967775 -0.37350813
-1.7004244 1.526734 -0.25471646
-0 0 -0
-5.7073731 5.124392 0
-0 0 0
-1.6660031 1.4921969 -0.73746455
-1.6583015 1.4852986 -0.61420882
-1.6720709 1.4976315 -0.49727005
-1.6707776 1.4964732 -0.3739357
-1.7061175 1.5281262 -0.25529248
-0 0 -0
-5.779469 5.1765242 0
-0 0 0
-1.6420054 1.4671309 -0.72605664
-1.6582187 1.4816175 -0.61351466
-1.6625143 1.4854556 -0.49389383
-1.6591829 1.4824789 -0.37093949
-1.6906059 1.5105554 -0.25269812
-0 0 -0
-5.7061534 5.0984449 0
-0 0 0
-1.6585375 1.4783022 -0.73257631
-1.6656281 1.4846222 -0.61559176
-1.6605108 1.4800612 -0.49276698
-1.6686382 1.4873054 -0.37265137
-1.6827776 1.4999082 -0.25125694
-0 0 -0
-5.7064795 5.08635 0
-0 0 0
-1.638158 1.4565892 -0.72279674
-1.6655476 1.4809432 -0.61490029
-1.6642023 1.4797469 -0.49333146
-1.6761912 1.490407 -0.3739357
-1.6981208 1.5099061 -0.25327528
-0 0 -0
-5.7340169 5.098475 0
-0 0 0
-1.6510074 1.4644462 -0.72768497
-1.6617036 1.4739337 -0.61282313
-1.6754916 1.4861637 -0.49614537
-1.6645458 1.4764547 -0.37093949
-1.6941373 1.5027025 -0.25241011
-0 0 -0
-5.7051315 5.060461 0
-0 0 0
-1.6287143 1.4411596 -0.7170912
-1.655968 1.4652748 -0.61005449
-1.6601617 1.4689858 -0.49107993
-1.6836293 1.4897509 -0.37479079
-1.7075703 1.5109349 -0.2541393
-0 0 -0
-0 0 0
-0 0 0
-1.6601024 1.4653605 -0.73013067
-1.6539792 1.4599556 -0.60867149
-1.6657418 1.4703385 -0.49220464
-1.6873583 1.4894191 -0.37522
-1.7016383 1.5020241 -0.25298616
-0 0 -0
-0 0 0
-0 0 0
-1.6276193 1.4349394 -0.71546286
-1.6642684 1.4672499 -0.61213166
-1.6685339 1.4710104 -0.49276698
-1.6709219 1.4731159 -0.37136707
-1.7044911 1.5027111 -0.25327528
-0 0 -0
-5.7184343 5.0414782 0
-0 0 0
-1.6349144 1.4378637 -0.7179054
-1.6509691 1.4519835 -0.60659432
-1.668404 1.4673169 -0.49220464
-1.6881218 1.4846582 -0.37479079
-1.7063056 1.5006505 -0.25327528
-0 0 -0
-5.7088952 5.0208216 0
-0 0 0
-1.6366506 1.4358872 -0.7179054
-1.6546065 1.4516405 -0.60728586
-1.6682675 1.4636258 -0.49164227
-1.6667657 1.4623082 -0.36965683
-1.6945058 1.4866456 -0.25125694
-0 0 -0
-5.7423425 5.0379453 0
-0 0 0
-1.6402496 1.435541 -0.7187227
-1.6639106 1.4562491 -0.61005449
-1.6681246 1.4599371 -0.49107993
-1.682048 1.4721228 -0.37265137
-1.6807302 1.4709696 -0.24895062
-0 0 -0
-5.7014241 4.9898677 0
-0 0 0
-1.6345356 1.4270561 -0.71546286
-1.6581097 1.4476377 -0.60728586
-1.6717997 1.45959 -0.49164227
-1.6741585 1.4616494 -0.37051195
-1.6903 1.475742 -0.25010377
-0 0 -0
-5.715291 4.9898214 0
-0 0 0
-1.6679419 1.452674 -0.72931647
-1.6636449 1.4489317 -0.60867149
-1.6582335 1.4442186 -0.4871392
-1.6681801 1.4528816 -0.36880007
-1.6862286 1.4686007 -0.24923863
-0 0 -0
-5.7448668 5.0034227 0
-0 0 0
-1.6286523 1.4149983 -0.71138883
-1.6635025 1.4452766 -0.60798001
-1.6542212 1.4372129 -0.48545
-1.6602471 1.4424483 -0.36666065
-1.703622 1.4801331 -0.25154495
-0 0 -0
-5.762692 5.0067158 0
-0 0 0
-1.6284878 1.4114059 -0.71057147
-1.6614523 1.4399762 -0.60659432
-1.6540383 1.4335505 -0.48488766
-1.6581053 1.4370754 -0.3658039
-1.6975909 1.4712975 -0.25039178
-0 0 -0
-5.7667727 4.9980459 0
-0 0 0
-1.6245884 1.4045923 -0.70812893
-1.6537038 1.4297651 -0.60313421
-1.653849 1.4298906 -0.48432532
-1.6734357 1.446825 -0.36880007
-1.6778506 1.450642 -0.24722141
-0 0 -0
-0 0 0
-0 0 0
-1.6169207 1.3945525 -0.70405173
-1.6630293 1.43432 -0.60590285
-1.6709685 1.4411672 -0.48882839
-1.6771247 1.4464769 -0.36922765
-1.6952637 1.4621214 -0.24952663
-0 0 -0
-5.7157769 4.9297104 0
-0 0 0
-1.6335933 1.4054935 -0.71057147
-1.6514471 1.4208543 -0.60105705
-1.6592239 1.4275453 -0.48488766
-1.6691434 1.4360797 -0.3670882
-1.6931117 1.4567013 -0.24895062
-0 0 -0
-5.6743817 4.8820639 0
-0 0 0
-1.6540494 1.4196188 -0.7187227
-1.6550646 1.4204903 -0.60174853
-1.6628739 1.4271927 -0.48545
-1.6786693 1.4407494 -0.36880007
-1.7007606 1.4597096 -0.24981576
-0 0 -0
-0 0 0
-0 0 0
-1.6182138 1.3854703 -0.70242339
-1.6624987 1.4233857 -0.60382569
-1.6607406 1.4218806 -0.48432532
-1.6765127 1.4353842 -0.36794496
-1.7005527 1.4559665 -0.24952663
-0 0 -0
-5.7217441 4.8988004 0
-0 0 0
-1.629282 1.3915383 -0.70649743
-1.6565866 1.4148587 -0.60105705
-1.6663181 1.4231701 -0.48545
-1.6684802 1.4250168 -0.3658039
-1.6846116 1.4387943 -0.24693228
-0 0 -0
-0 0 0
-0 0 0
-1.6309623 1.3895687 -0.70649743
-1.6640258 1.4177386 -0.60313421
-1.6564355 1.4112717 -0.48207378
