# .PCD v0.7 - Point Cloud Data file format
VERSION 0.7
FIELDS x y z
SIZE 4 4 4
TYPE F F F
COUNT 1 1 1
WIDTH 1754
HEIGHT 1
VIEWPOINT 0 0 0 1 0 0 0
POINTS 1754
DATA ascii
7.110158 5.0486174 0.48708028
6.8342147 4.8651137 -0.93505108
7.1401267 5.0828853 -0.48955363
7.1094317 5.0610342 0
7.1082826 5.060216 0.48737028
6.84307 4.8838873 -0.93706942
7.1466742 5.1005688 -0.49042475
7.1096601 5.074152 0
7.10851 5.0733314 0.48780581
6.8287501 4.8861318 -0.93591624
7.1341643 5.1046629 -0.48998919
7.1119895 5.0887966 0
7.1002555 5.0804005 0.48766026
6.8232155 4.9071465 -0.93678033
7.1386838 5.1340256 -0.49115032
7.1102414 5.1135707 0
7.1048336 5.1096816 0.48882139
6.8193855 4.9169044 -0.93706942
7.1388001 5.1472082 -0.49158588
7.1061668 5.1236787 0
7.1007681 5.1197867 0.48896694
6.8092432 4.9221072 -0.93649226
7.1367831 5.1588721 -0.49187586
7.108407 5.13836 0
7.0924649 5.1268358 0.48882139
6.8074832 4.9333696 -0.93706942
7.1410627 5.1751142 -0.49260142
7.1064038 5.1499968 0
7.0967913 5.1430306 0.48954749
6.8056984 4.9446292 -0.93764544
7.1390128 5.1867967 -0.49289197
7.1001759 5.1585798 0
7.0926719 5.1531277 0.48969251
6.7997189 4.9528489 -0.93764544
7.1411419 5.2015381 -0.49347255
7.0960393 5.1686859 0
7.0906367 5.1647511 0.48998249
6.7999978 4.9656391 -0.9385106
7.1390443 5.2132249 -0.49376255
7.1087108 5.1910739 0
7.0927849 5.1794443 0.49056306
6.7981629 4.9769049 -0.93908668
7.1348348 5.2233806 -0.49390754
7.1024327 5.1996593 0
7.0928135 5.1926169 0.49099863
6.7796373 4.9759359 -0.93735743
7.1368971 5.2381477 -0.49448809
7.104537 5.214397 0
7.094913 5.2073336 0.49157917
6.7777824 4.9871869 -0.9379335
7.1263809 5.2436905 -0.49419808
7.1045141 5.2276006 0
7.0990782 5.2236009 0.49230474
6.7696719 4.9938393 -0.93764544
7.1346793 5.2630968 -0.49521422
7.1002846 5.2377248 0
7.0948505 5.233716 0.49244973
6.7740288 5.0097036 -0.93908668
7.1345763 5.2763448 -0.49564922
7.1023202 5.25249 0
7.0989656 5.2500091 0.4931753
6.7679706 5.0178847 -0.93908668
7.1344595 5.2896056 -0.49608478
7.104331 5.2672677 0
7.0905313 5.2570367 0.49303028
6.7660584 5.0291481 -0.93966377
7.1364045 5.3044229 -0.49666533
7.0958748 5.2742972 0
7.0966907 5.2749038 0.4939014
6.7661924 5.0419517 -0.94052786
7.1320715 5.3145928 -0.49681032
7.0957589 5.2875338 0
7.0861406 5.2803669 0.49361086
6.7621737 5.0516758 -0.94081694
7.1298122 5.3263202 -0.49710089
7.0977044 5.3023343 0
7.0901618 5.2966995 0.4943364
6.7581329 5.0613918 -0.94110495
7.1337681 5.3427181 -0.49782646
7.0975356 5.3155823 0
7.0920758 5.3114929 0.49491698
6.7509313 5.0623674 -0.94052786
7.1388545 5.3532624 -0.49840701
7.1047397 5.3276806 0
7.1034198 5.3266907 0.49593309
6.7386131 5.0658631 -0.93966377
7.1303062 5.3603244 -0.49826199
7.1107745 5.3456411 0
7.0969782 5.3352699 0.49593309
6.7428131 5.0817838 -0.94110495
7.1321244 5.3751922 -0.49884257
7.1022339 5.3526645 0
7.0988269 5.3500972 0.49651363
6.7346058 5.0883694 -0.94081694
7.1422024 5.3963313 -0.5000031
7.1019921 5.3659506 0
7.0964999 5.3618007 0.49680364
6.7284527 5.0965033 -0.94081694
7.1418924 5.4096656 -0.50043869
7.1079469 5.3839531 0
7.0983014 5.376647 0.49738419
6.7346449 5.1140118 -0.94254613
7.1663942 5.4418645 -0.50261593
7.1097264 5.3988333 0
7.0938749 5.386796 0.49752975
6.7325807 5.1252818 -0.94312328
7.1866894 5.4709792 -0.50450259
7.1114812 5.4137259 0
7.1038928 5.407949 0.49869031
6.7304912 5.1365485 -0.9436993
7.2027893 5.496995 -0.50609869
7.1338944 5.444416 0
7.1118145 5.4275656 0.49970642
6.7222276 5.1431069 -0.94341129
7.2147136 5.5199032 -0.5074048
7.1521139 5.4720087 0
7.1258845 5.451941 0.50115752
6.7160082 5.151226 -0.94341129
7.2142258 5.5333624 -0.50784039
7.1640797 5.4948997 0
7.1502209 5.4842701 0.50333476
6.7036262 5.1546059 -0.94254613
7.2054768 5.540493 -0.50769538
7.1677485 5.5114827 0
7.1683078 5.5119123 0.50507647
6.6973929 5.1627021 -0.94254613
7.2070088 5.555541 -0.50827593
7.1755142 5.5312634 0
7.1698742 5.5269156 0.50565702
6.6952467 5.1739569 -0.94312328
7.2023449 5.5658326 -0.50842094
7.1750054 5.5447049 0
7.1672988 5.5387497 0.50594699
6.6971612 5.1883731 -0.94427538
7.205883 5.5824862 -0.50914651
7.172411 5.5565553 0
7.1667657 5.5521817 0.50638258
6.6949763 5.1996374 -0.94485247
7.2073412 5.5975647 -0.50972706
7.1718602 5.5700078 0
7.1641521 5.5640216 0.50667256
6.6825643 5.2029548 -0.94398737
7.2026286 5.6078701 -0.50987262
7.1671762 5.580267 0
7.1635766 5.5774646 0.50710809
6.6803546 5.2142115 -0.94456446
7.2060871 5.6245613 -0.51059818
7.1686344 5.5953283 0
7.1588788 5.5877137 0.50725311
6.6781192 5.2254643 -0.94514054
7.2033749 5.6364641 -0.51088816
7.1659713 5.6071968 0
7.1644044 5.6059704 0.50812423
6.6677341 5.23034 -0.94456446
7.2006516 5.6483741 -0.51117873
7.165328 5.6206656 0
7.1617103 5.6178274 0.50841421
6.6614094 5.2383928 -0.94456446
7.1979027 5.6602802 -0.51146871
7.1626267 5.6325397 0
7.1590061 5.6296926 0.50870478
6.653038 5.2448325 -0.94427538
7.1910582 5.668973 -0.51146871
7.1578574 5.6427999 0
7.1583142 5.6431599 0.50913978
6.6426411 5.2496629 -0.9436993
7.1984758 5.6889377 -0.51248485
7.1694088 5.665966 0
7.1576085 5.6566405 0.50957537
6.6444025 5.2641101 -0.94485247
7.2038131 5.7073102 -0.51335537
7.1707168 5.6810894 0
7.1650271 5.6765819 0.51059145
6.6371646 5.2649055 -0.94427538
7.1983294 5.7100477 -0.51321042
7.1672831 5.6854205 0
7.1615963 5.6809092 0.51059145
6.6287756 5.2713132 -0.94398737
7.1954885 5.7219729 -0.51350039
7.1665211 5.6989374 0
7.1526952 5.687943 0.51044649
6.6203809 5.2777081 -0.9436993
7.1966968 5.7371421 -0.51408094
7.1616631 5.7092133 0
7.1498771 5.6998177 0.51073647
6.6059165 5.2792449 -0.94254613
7.2019424 5.7555699 -0.51495206
7.1527281 5.7162395 0
7.1551676 5.7181892 0.51160759
6.6096239 5.2953072 -0.94398737
7.1970086 5.7658911 -0.51509708
7.1579986 5.7346382 0
7.1604166 5.7365756 0.51247811
6.6173391 5.3146286 -0.94600564
7.2001643 5.7827172 -0.51582265
7.1632423 5.7530642 0
7.1555037 5.7468486 0.51262313
6.6451597 5.350194 -0.95090634
7.1850758 5.7848945 -0.51524204
7.1664195 5.7698741 0
7.1526065 5.7587528 0.5129137
6.839952 5.5206618 -0.97973448
7.1861687 5.8001003 -0.51582265
7.1574192 5.776896 0
7.161819 5.780447 0.5140748
6.941844 5.6167665 -0.99530065
7.1811733 5.8104119 -0.51596761
7.1645904 5.7969947 0
7.1548295 5.7890968 0.5140748
6.9671926 5.6512198 -0.99991328
7.1882753 5.8305445 -0.51698375
7.1636462 5.8105669 0
7.1619496 5.8091912 0.51509035
7.1852612 5.8425078 -0.51727432
7.1626797 5.8241458 0
7.1589613 5.8211226 0.51538092
7.1882648 5.8593926 -0.51799983
7.1596675 5.836082 0
7.1438661 5.8232017 0.51480037
7.1952586 5.8795786 -0.51901543
7.158658 5.8496704 0
7.1529212 5.8449826 0.51596147
7.1881495 5.8882685 -0.51901543
7.1636605 5.8682079 0
7.147862 5.8552661 0.51610649
0 0 -0
7.1870556 5.9018984 -0.51945096
7.1565647 5.8768597 0
7.1488142 5.8704948 0.51668704
7.1879435 5.9171839 -0.52003151
7.155488 5.8904662 0
7.1517444 5.8873844 0.5174126
7.1807885 5.9258647 -0.52003151
7.1543894 5.904079 0
7.1446257 5.8960218 0.5174126
7.1736231 5.9345369 -0.52003151
7.1492534 5.9143767 0
7.1394963 5.9063048 0.51755762
7.1864448 5.959785 -0.52148265
7.1481133 5.9279966 0
7.1403551 5.9215622 0.51813817
7.1772418 5.9668045 -0.52133763
7.1589546 5.951601 0
7.1431832 5.9384899 0.51886374
7.1859961 5.9887805 -0.52249879
7.1557527 5.9635763 0
7.1439872 5.9537706 0.51944429
7.17277 5.9924598 -0.5220632
7.1565304 5.9788923 0
7.1367879 5.9623985 0.51944429
7.1834512 6.0161362 -0.52336931
7.1473079 5.9858661 0
7.1415348 5.9810309 0.52031541
7.17453 6.0308228 -0.52351487
7.150394 6.0105343 0
7.138639 6.0006528 0.52089596
7.1791563 6.0495305 -0.52438545
7.1570516 6.0309038 0
7.1492648 6.0243421 0.52220207
7.1758151 6.0615573 -0.52467597
7.1577115 6.0462646 0
7.1459465 6.0363264 0.52249205
7.1744289 6.0752563 -0.52511102
7.1444407 6.0498619 0
7.1505494 6.0550351 0.52336317
7.173028 6.0889668 -0.52554655
7.1510153 6.0702815 0
7.1511517 6.0703969 0.52394372
7.1795197 6.1094193 -0.52656269
7.1575513 6.0907254 0
7.1438117 6.0790334 0.52394372
7.1760826 6.1214595 -0.52685267
7.1620631 6.1094999 0
7.1404109 6.0910301 0.52423376
7.1746073 6.1351938 -0.5272882
7.1467638 6.1113839 0
7.1429181 6.1080956 0.52495933
7.1731091 6.1489334 -0.52772379
7.1453037 6.1250982 0
7.1453948 6.125176 0.52568483
7.1696119 6.1609797 -0.52801377
7.1536884 6.1472964 0
7.1399651 6.1355038 0.52583039
7.1779118 6.1832056 -0.52917492
7.146255 6.1559358 0
7.1345129 6.1458211 0.52597541
7.1704354 6.1918745 -0.52917492
7.1427474 6.1679649 0
7.1349487 6.1612301 0.52655596
7.1629486 6.2005339 -0.52917492
7.1451259 6.1851058 0
7.1353574 6.1766496 0.5271365
7.1593728 6.2125869 -0.5294649
7.1356835 6.1920309 0
7.1376996 6.1937804 0.52786207
7.1616688 6.2297649 -0.530191
7.1439052 6.2143126 0
7.1341276 6.2058077 0.52815211
7.1639266 6.2469511 -0.53091657
7.144237 6.2297821 0
7.1364217 6.2229671 0.52887821
7.166153 6.2641521 -0.53164214
7.1386619 6.2401209 0
7.1269355 6.2298703 0.52873266
7.1663961 6.2796559 -0.53222269
7.1389461 6.2556028 0
7.1272197 6.2453275 0.52931321
7.1646619 6.293457 -0.53265822
7.1294289 6.2625084 0
7.1255269 6.2590809 0.52974874
7.1648526 6.3089781 -0.53323883
7.1413846 6.2883139 0
7.1296558 6.277986 0.53061932
7.1669626 6.3262272 -0.53396434
7.1318321 6.2952175 0
7.1279111 6.2917566 0.53105485
7.1534739 6.3297153 -0.5335288
7.1300693 6.3090057 0
7.1280875 6.3072524 0.53163546
7.165256 6.3555932 -0.53497994
7.1360717 6.3297067 0
7.1282372 6.3227577 0.53221601
7.1614585 6.367703 -0.53527045
7.1323042 6.3417802 0
7.1069975 6.3192782 0.53119987
7.1595492 6.3737545 -0.53541547
7.1401305 6.3564672 0
7.1148267 6.333941 0.53207099
7.1595974 6.3893213 -0.53599602
7.1402116 6.3720217 0
7.1187968 6.3529105 0.53294158
7.1615529 6.4066286 -0.53672159
7.1325073 6.3806443 0
7.1188617 6.3684373 0.53352213
7.1596122 6.4204831 -0.53715718
7.1306067 6.3944721 0
7.1247053 6.3891797 0.53453821
7.1576481 6.4343424 -0.53759271
7.1267495 6.4065666 0
7.1189103 6.3995194 0.53468323
7.1614466 6.4534202 -0.53846329
7.1325312 6.4273634 0
7.1227584 6.4185567 0.53555435
7.15943 6.4672956 -0.53889883
7.1286259 6.4394693 0
7.1207767 6.4323792 0.53598934
7.1535344 6.477684 -0.53904384
7.1246943 6.4515686 0
7.1226277 6.4496975 0.53671491
7.1514764 6.4915643 -0.53947937
7.1265268 6.4689169 0
7.1225257 6.4652848 0.53729546
7.1474671 6.503695 -0.53976941
7.128335 6.4862862 0
7.1185555 6.4773874 0.53758603
7.1511259 6.5228362 -0.54064047
7.1281762 6.5019031 0
7.1222391 6.4964871 0.53845656
7.1528258 6.5402379 -0.54136604
7.122241 6.5122724 0
7.1163073 6.5068469 0.53860211
7.1525798 6.5558987 -0.54194659
7.1220412 6.5279074 0
7.1084399 6.5154409 0.53860211
7.152307 6.571569 -0.5425272
7.1218138 6.5435514 0
7.1139503 6.5363264 0.53961772
7.14818 6.5837235 -0.54281718
7.1215591 6.5592046 0
7.1175189 6.5554833 0.54048878
7.1497636 6.6011677 -0.54354274
7.1327462 6.5854554 0
7.1076779 6.5623107 0.54034323
7.1475053 6.6150985 -0.54397827
7.1209602 6.5905304 0
7.1035609 6.5744276 0.5406338
7.1509399 6.6343369 -0.5448494
7.1187167 6.6044416 0
7.1032314 6.590075 0.54121435
7.1505222 6.6500444 -0.54542941
7.1221695 6.6236758 0
7.1142874 6.6163459 0.54266548
7.1481853 6.6639967 -0.54586494
7.121768 6.6393685 0
7.1081867 6.6267071 0.5428105
7.142025 6.6744018 -0.54600996
7.117547 6.6515265 0
7.1096721 6.6441674 0.5435366
7.1491256 6.6972384 -0.54717106
7.1152043 6.6654611 0
7.1092167 6.659852 0.54411662
7.1429276 6.7076554 -0.54731661
7.1147337 6.6811795 0
7.1049566 6.6719985 0.54440713
7.1423783 6.7233987 -0.54789662
7.1047554 6.6879826 0
7.1025677 6.6859231 0.54484272
7.1458793 6.7348413 -0.54847717
7.1158648 6.7065535 0
7.1117582 6.7026834 0.54585826
7.1434045 6.748826 -0.54891276
7.1172128 6.7240815 0
7.1074352 6.7148438 0.54614884
7.1390214 6.7610297 -0.54920334
7.116641 6.7398343 0
7.0993166 6.7234268 0.54614884
7.1402674 6.778594 -0.54992884
7.1122708 6.7520156 0
7.1043735 6.7445183 0.54716438
7.1264229 6.7818413 -0.54949331
7.1154151 6.7713656 0
7.1075163 6.7638488 0.5480355
7.1332645 6.8047957 -0.55065441
7.1166415 6.7889385 0
7.1087375 6.7813983 0.54876107
7.1344252 6.8223877 -0.55137998
7.1159568 6.8047271 0
7.1080503 6.7971663 0.54934162
7.1393089 6.8435917 -0.55239612
7.1096139 6.8151264 0
7.1054611 6.8111463 0.54977715
7.1385293 6.8594146 -0.55297667
7.1032486 6.8255138 0
7.0972261 6.8197265 0.54977715
7.1358447 6.8734379 -0.55341166
7.1156163 6.8539534 0
7.0983362 6.8373089 0.55050272
7.1368861 6.8910851 -0.55413777
7.1073294 6.862546 0
7.0994139 6.8549037 0.55122828
7.1360226 6.9069319 -0.55471832
7.1083803 6.880177 0
7.1004596 6.8725109 0.55195385
7.1332612 6.9209728 -0.55515331
7.10566 6.8941927 0
7.0958838 6.8847079 0.55224442
7.1267614 6.9314036 -0.55529886
7.1029234 6.9082189 0
7.1005936 6.9059529 0.55325997
7.1351242 6.9563336 -0.55660498
7.1132016 6.9349604 0
7.1034107 6.925415 0.55413109
7.1275716 6.982646 -0.55733055
7.1001434 6.9557757 0
7.0996418 6.9552846 0.55514663
7.1228337 6.9948912 -0.55762058
7.1047335 6.9771161 0
7.093092 6.9656839 0.55529219
7.1254907 7.0144334 -0.55849171
7.1037164 6.9929986 0
7.095777 6.9851832 0.55616277
7.1281033 7.0339856 -0.55936223
7.1063724 7.0125413 0
7.0965776 7.0028758 0.55688828
7.1325321 7.0553865 -0.56037837
7.0978937 7.0211229 0
7.0936546 7.0169291 0.55732387
7.1258454 7.0658274 -0.56052333
7.0949507 7.035193 0
7.0962381 7.0364695 0.5581944
7.1173024 7.0744324 -0.56052333
7.0938282 7.0510998 0
7.0932612 7.0505362 0.55862999
7.1240745 7.089725 -0.56139392
7.1006317 7.0663953 0
7.1000547 7.0658212 0.55950111
7.1283817 7.111176 -0.56241
7.1049871 7.0878377 0
7.0951877 7.0780621 0.55979109
7.1216197 7.1216197 -0.56255502
7.1092939 7.1092939 0
7.0958152 7.0958152 0.56051666
7.1276908 7.1449366 -0.56371611
7.1062145 7.1234083 0
7.09091 7.1080666 0.56080723
7.1245527 7.159071 -0.5641517
7.095768 7.1301465 0
7.0933104 7.127677 0.56167775
7.1250491 7.1768928 -0.56487727
7.0963135 7.1479478 0
7.0901866 7.1417761 0.56211334
7.1236858 7.1928816 -0.56545782
7.0913305 7.160212 0
7.0925193 7.1614122 0.56298387
7.1222944 7.2088776 -0.56603837
7.0936518 7.1798868 0
7.0929904 7.1792173 0.56370944
7.1172304 7.2211833 -0.56632894
7.0886211 7.1921563 0
7.0879622 7.1914873 0.56400001
7.1139598 7.2353311 -0.56676394
7.0908771 7.2118545 0
7.0865545 7.207458 0.56458056
7.1124902 7.2513418 -0.56734449
7.0912676 7.2297049 0
7.0905719 7.2289953 0.5655961
7.1146307 7.2710776 -0.56821561
7.0861635 7.2419848 0
7.0854702 7.2412758 0.56588668
7.114913 7.2889643 -0.56894118
7.0883188 7.2617192 0
7.0839753 7.2572699 0.56646723
7.1115336 7.3031354 -0.56937617
7.0868015 7.2777371 0
7.0788231 7.2695436 0.56675726
7.111762 7.3210478 -0.57010227
7.0761909 7.28443 0
7.079092 7.2874165 0.56748337
7.119184 7.3464279 -0.57140839
7.0836825 7.309793 0
7.0793214 7.3052931 0.56820893
7.1175261 7.3624973 -0.57198894
7.0838876 7.3277011 0
7.0831261 7.3269138 0.56922448
7.11584 7.3785734 -0.57256949
7.0804496 7.3418765 0
7.077879 7.339211 0.56951505
7.1123185 7.3927784 -0.57300448
7.089613 7.3691778 0
7.0744123 7.3533773 0.56995058
7.1033807 7.4013672 -0.57300448
7.0807037 7.377739 0
7.076314 7.3731651 0.57082117
7.1016202 7.4174523 -0.57358509
7.080781 7.3956866 0
7.0763831 7.3910928 0.57154667
7.1070104 7.4410605 -0.57474619
7.0772338 7.4098845 0
7.074626 7.4071541 0.57212728
7.1033931 7.4552879 -0.57518172
7.07725 7.4278498 0
7.0746312 7.4251013 0.57285279
7.1033287 7.4732809 -0.57590729
7.0772328 7.4458256 0
7.0692382 7.4374146 0.57314336
7.1041813 7.4832263 -0.57634288
7.0781102 7.4557643 0
7.0718994 7.4492221 0.57372391
7.1058512 7.5031209 -0.57721341
7.0726719 7.4680867 0
7.0700407 7.4653082 0.57430446
7.1057005 7.5211439 -0.57793897
7.0797334 7.4936585 0
7.0681529 7.481401 0.57488507
7.1055236 7.5391846 -0.57866508
7.0742402 7.5059915 0
7.0733652 7.5050635 0.57604617
7.1035285 7.555337 -0.57924563
7.0794268 7.5297027 0
7.0678482 7.5173874 0.57633615
7.0943942 7.5639148 -0.57924563
7.0756664 7.5439477 0
7.0712047 7.5391908 0.57735229
7.0994453 7.5876536 -0.58040619
7.0807638 7.5676875 0
7.0691915 7.5553188 0.57793283
7.1026845 7.6095247 -0.58142233
7.0751696 7.5800462 0
7.0689206 7.5733514 0.5786584
7.1023369 7.6276083 -0.5821479
7.0748711 7.5981112 0
7.0686164 7.5913939 0.57938397
7.1001887 7.6437998 -0.58272845
7.0674548 7.6085591 0
7.0612054 7.6018314 0.57952893
7.0980124 7.659997 -0.58330899
7.06003 7.6190076 0
7.0643792 7.6237016 0.58054507
7.1046243 7.685739 -0.58461511
7.0667162 7.6447306 0
7.0639801 7.6417704 0.58127064
7.0953321 7.6943183 -0.58461511
7.0680561 7.6647391 0
7.0617871 7.6579413 0.58185118
7.0930672 7.710535 -0.58519566
7.0605497 7.6751876 0
7.0613232 7.6760283 0.58257675
7.0942898 7.7305908 -0.58606678
7.0688705 7.7028918 0
7.0555606 7.6883874 0.58286732
7.0884495 7.7429867 -0.58635676
7.0683427 7.7210236 0
7.0603023 7.7122402 0.58402842
7.0843472 7.7573042 -0.58679235
7.0695353 7.7410851 0
7.0562301 7.7265162 0.58446342
7.0837169 7.7754607 -0.58751792
7.0584254 7.7476997 0
7.0538888 7.7427197 0.58504397
7.0847988 7.7955484 -0.58838844
7.0648098 7.7735543 0
7.0515184 7.7589293 0.58562452
7.0893369 7.8195038 -0.5895496
7.0571651 7.7840185 0
7.0508628 7.7770677 0.58635008
7.0920858 7.8415561 -0.59056568
7.0564814 7.8021894 0
7.0536633 7.7990732 0.58736622
7.0878291 7.8559093 -0.59100127
7.0540223 7.818439 0
7.0442343 7.8075905 0.58736622
7.0870214 7.8741231 -0.59172678
7.0567522 7.8404918 0
7.0504384 7.833477 0.58867234
7.0874763 7.8842025 -0.59216237
7.0589733 7.8524957 0
7.0561309 7.8493333 0.58954346
7.0883498 7.9043641 -0.5930329
7.0564299 7.8687692 0
7.0570469 7.8694572 0.59041399
7.083993 7.9187346 -0.59346849
7.0573316 7.8889313 0
7.0509944 7.8818479 0.59070402
7.0882607 7.9427981 -0.59462959
7.0564566 7.9071598 0
7.0483861 7.8981166 0.59128457
7.0855694 7.9591203 -0.59521013
7.0555477 7.9253979 0
7.0474815 7.916337 0.59201068
7.0862966 7.9793296 -0.59608072
7.0511522 7.9397569 0
7.0413589 7.9287291 0.59230065
7.0835423 7.995666 -0.59666127
7.0467257 7.9541092 0
7.0438366 7.9508476 0.59331679
7.0807586 8.0120077 -0.59724182
7.0508971 7.978219 0
7.0462646 7.9729767 0.59433234
7.0813794 8.0322485 -0.5981124
7.0481362 7.9945412 0
7.0400658 7.9853873 0.59462291
7.0739455 8.0630131 -0.59912848
7.0493922 8.0350266 0
7.0378809 8.0219059 0.59607404
7.0727525 8.0813293 -0.59985405
7.0499654 8.0552921 0
7.040164 8.0440931 0.59709013
7.0715261 8.0996542 -0.60057962
7.0504932 8.0755644 0
7.0424032 8.0662975 0.59810627
7.0702715 8.1179962 -0.60130572
7.0458598 8.0899668 0
7.041183 8.0845966 0.59883183
7.0689769 8.1363392 -0.60203129
7.0411949 8.1043625 0
7.0416307 8.1048641 0.59970236
7.065948 8.152729 -0.60261184
7.0365124 8.1187658 0
7.0335331 8.1153278 0.59984738
7.0628896 8.1691236 -0.60319239
7.028398 8.1292295 0
7.03052 8.1316833 0.60042793
7.0699811 8.1973248 -0.60464352
7.0270672 8.1475677 0
7.034266 8.1559143 0.60158902
5.3448138 6.2122321 -0.91343004
7.0685434 8.2157087 -0.60536909
7.039288 8.1817055 0
7.0311847 8.172287 0.60216957
5.3322487 6.2127957 -0.91256487
7.0603018 8.2262135 -0.60551405
7.0293965 8.1902046 0
7.0314622 8.1926107 0.6030407
5.328105 6.2231674 -0.91314197
7.0621881 8.2485571 -0.60653019
7.0397997 8.2224073 0
7.0232463 8.2030735 0.60318571
5.3256226 6.2355032 -0.91400713
7.0623384 8.2689352 -0.60740077
7.0332432 8.23487 0
7.0335798 8.2352638 0.60492736
5.3096924 6.2320838 -0.91256487
7.0590825 8.2853746 -0.60798132
7.02666 8.2473202 0
7.0320482 8.253644 0.60565293
7.0541158 8.29984 -0.60841686
7.0352306 8.2776194 0
7.0304828 8.2720327 0.6063785
7.0659127 8.3239059 -0.60986799
7.0386477 8.2917871 0
7.0322099 8.2842026 0.60695904
7.0642505 8.3423586 -0.61059409
7.0252633 8.2963171 0
7.0272341 8.298645 0.60739464
7.0591908 8.3568373 -0.61102909
7.0353804 8.3286495 0
7.0255842 8.3170528 0.6081202
7.0641623 8.3832502 -0.6123358
7.0253115 8.3371449 0
7.0272455 8.3394394 0.60913575
7.0640564 8.4037104 -0.61320633
7.0286293 8.3615646 0
7.0255284 8.3578758 0.60986185
7.0572329 8.4162178 -0.6134963
7.0302277 8.3840122 0
7.0271068 8.38029 0.61087739
7.0587301 8.438693 -0.61451244
7.0234351 8.3964968 0
7.0236444 8.3967476 0.61145794
7.0518613 8.45121 -0.61480302
7.0332861 8.4289484 0
7.0251484 8.4191961 0.61247408
7.0582647 8.4796915 -0.61625415
7.0330892 8.4494457 0
7.0216198 8.435667 0.61305463
7.0546536 8.4962111 -0.6168347
7.0295248 8.4659472 0
7.0147386 8.4481392 0.61334467
7.0510125 8.5127335 -0.61741525
7.0275888 8.4844542 0
7.0177855 8.4726181 0.61450577
7.0605826 8.5452843 -0.6191569
7.0206442 8.4969482 0
7.0125098 8.4871025 0.6149413
7.0519032 8.5558128 -0.61930192
7.0169935 8.5134583 0
7.0105114 8.5055943 0.61566687
7.0531135 8.5783796 -0.62031806
7.0116615 8.5279627 0
7.0167284 8.5341263 0.617118
7.0493279 8.594924 -0.62089801
7.014555 8.5525274 0
7.0163016 8.554657 0.61798912
7.0488133 8.6155062 -0.62176913
7.0091615 8.5670414 0
7.0108976 8.5691633 0.61842465
7.0416808 8.6280394 -0.62205917
7.0152569 8.5956631 0
7.0087519 8.5876923 0.61915022
7.0443745 8.6526623 -0.62322026
7.0114379 8.6122055 0
7.0114942 8.6122751 0.62031132
7.043746 8.673274 -0.62409139
7.0125127 8.6348152 0
7.0076356 8.628809 0.62089187
7.0398035 8.6898546 -0.62467194
7.0102639 8.6533909 0
7.0021062 8.643322 0.62132686
7.0374632 8.7084579 -0.6253975
7.014523 8.6800709 0
7.0014601 8.6639061 0.62219799
7.046505 8.741231 -0.62713915
7.0040298 8.6885405 0
7.0040326 8.6885433 0.62335914
7.0391912 8.7537851 -0.62742919
7.0016789 8.7071352 0
7.0032959 8.7091465 0.62422967
7.0485435 8.7762671 -0.6287353
7.0094543 8.7275963 0
7.0126753 8.7316074 0.62553579
7.039557 8.7868032 -0.62888026
7.0102959 8.7502794 0
7.0118709 8.7522459 0.62640691
7.0419126 8.8115425 -0.63004142
7.0143385 8.7770386 0
7.0012903 8.7607117 0.62640691
7.0409822 8.8322392 -0.63091248
7.0085902 8.7916069 0
7.0020332 8.7833815 0.62742245
7.0383897 8.8509073 -0.63163805
7.0125456 8.818408 0
7.0043535 8.8081064 0.62858361
7.0389957 8.8736582 -0.63265419
6.9954157 8.8187189 0
6.9969382 8.8206387 0.62887412
7.0331011 8.8882637 -0.63308918
7.0025139 8.8496084 0
6.9975572 8.8433447 0.62988973
7.0384583 8.9171553 -0.63454086
6.9918156 8.8580637 0
7.0029688 8.8721933 0.6313414
7.0341082 8.9338198 -0.63512141
7.0020351 8.8930855 0
7.0051031 8.8969812 0.6325025
7.0409584 8.9647856 -0.63671756
7.0057507 8.9199572 0
7.008791 8.9238291 0.63380861
7.0397396 8.9855633 -0.63758862
7.0013871 8.9366102 0
7.0044131 8.9404726 0.63438916
7.032074 8.9981537 -0.63787866
7.0066123 8.9655733 0
7.0080042 8.9673548 0.63569528
7.033977 9.0230389 -0.63903975
7.0117717 8.9945545 0
7.0099444 8.9922104 0.63685638
7.0262623 9.0356379 -0.63933033
7.0056925 9.0091858 0
7.0022612 9.0047722 0.63714641
7.0248919 9.0564365 -0.64020085
6.9932084 9.0155897 0
7.0104866 9.0378647 0.63888806
7.0266647 9.0813589 -0.64136201
6.9982324 9.0446119 0
7.0011497 9.0483818 0.63903308
7.0252094 9.1021805 -0.64223254
6.9920707 9.0592442 0
6.996562 9.0650635 0.63961363
7.0332279 9.1353693 -0.64397424
6.9954062 9.0862436 0
6.9935279 9.0838032 0.6403392
7.0221848 9.1438618 -0.64397424
6.9923463 9.1050081 0
6.996789 9.1107931 0.64164531
7.0221939 9.1667805 -0.64499032
6.9876704 9.1217136 0
6.9968381 9.1336813 0.64266139
7.0221515 9.1897058 -0.64600593
6.9892845 9.1466932 0
6.9921074 9.1503878 0.643242
7.0157695 9.2043858 -0.64644146
6.9908485 9.17169 0
6.9952211 9.1774273 0.64454812
7.0187955 9.2314701 -0.64774758
6.9907827 9.1946268 0
6.993566 9.198288 0.64541918
7.0170598 9.2523708 -0.6486187
6.9953971 9.2238073 0
6.9887271 9.2150126 0.64599979
7.0105739 9.2670536 -0.64905369
6.9920959 9.2426281 0
6.9901228 9.2400208 0.64716035
7.0222058 9.294095 -0.65065038
6.9943533 9.2572317 0
6.9908051 9.2525349 0.6477409
7.0200224 9.3380365 -0.65253705
6.981348 9.2865925 0
6.9949675 9.3047085 0.65020812
7.0227623 9.3652201 -0.65384316
6.9794869 9.3075094 0
6.9883976 9.3193932 0.65064365
7.0238924 9.3903446 -0.65500426
6.9884987 9.3430262 0
6.9864731 9.3403187 0.65151477
7.0140934 9.4009056 -0.65514928
6.9896545 9.3681507 0
6.9876075 9.365407 0.65267533
7.0089345 9.4177122 -0.65572983
6.9845452 9.3849411 0
6.9886966 9.3905191 0.65383649
7.011488 9.4449501 -0.65703595
6.9871602 9.412178 0
6.9866409 9.411479 0.65470755
7.0108962 9.4680347 -0.65805209
6.9804296 9.4268904 0
6.986084 9.4345264 0.65572315
7.0118012 9.4932203 -0.65921319
6.9814038 9.4520655 0
6.9870296 9.4596815 0.65688425
7.0064902 9.5100536 -0.65979373
6.9746041 9.466774 0
6.9832988 9.4785748 0.65760982
7.0011492 9.5268879 -0.66037428
6.9770293 9.4940662 0
6.9841509 9.5037575 0.65877092
7.0065265 9.5583878 -0.66197038
6.9624782 9.4982958 0
6.983417 9.5268612 0.65978706
7.0118442 9.589922 -0.66356707
6.9663539 9.5277061 0
6.9826379 9.5499773 0.66080314
7.0079055 9.608882 -0.66429263
6.9732385 9.5613489 0
6.9772182 9.5668049 0.66138369
7.0085187 9.6341534 -0.66545373
6.9693341 9.5802879 0
6.9763489 9.5899315 0.66239929
7.0029769 9.6510267 -0.66603434
6.9684534 9.6034489 0
6.9784894 9.61728 0.66370541
6.9943542 9.6636877 -0.66632432
6.9675274 9.6266222 0
6.9805799 9.6446562 0.66501206
7.0009246 9.6974134 -0.66806597
6.9711208 9.6561308 0
6.9795637 9.6678247 0.66602761
6.9967985 9.7164145 -0.66879213
6.9716144 9.6814423 0
6.9754672 9.6867924 0.66675317
7.0032377 9.7501793 -0.67053324
6.975091 9.7109919 0
6.9652781 9.6973305 0.66689873
7.0005341 9.7713118 -0.67140436
6.9618378 9.7172995 0
6.9671741 9.7247486 0.66820484
6.9917407 9.783988 -0.67169434
6.959167 9.7384052 0
6.9659896 9.7479525 0.66922039
6.9965057 9.8157063 -0.67329103
6.9640126 9.7701206 0
6.9723048 9.7817535 0.6709621
7.0011244 9.8347511 -0.67430711
6.9762201 9.7997675 0
6.9663935 9.785964 0.6709621
6.9907384 9.8453207 -0.67445213
6.9553308 9.795454 0
6.9786344 9.8282728 0.67328429
6.9938526 9.8749609 -0.67590326
6.963048 9.8314667 0
6.9772677 9.8515434 0.67430043
6.9969053 9.904623 -0.67735434
6.9661765 9.861125 0
6.9758496 9.8748169 0.67531598
6.9864335 9.9152012 -0.67749989
6.9722447 9.8950644 0
6.9654136 9.8853693 0.67546153
6.9878936 9.9427662 -0.67880601
6.9632735 9.9077358 0
6.9728861 9.9214134 0.6773482
6.9833307 9.9618397 -0.67953157
6.9617553 9.9310617 0
6.9683495 9.9404678 0.67807376
6.9921317 10.000079 -0.68156326
6.9586954 9.9522591 0
6.9622889 9.9573984 0.67865431
6.9949102 10.029838 -0.68301493
6.95262 9.9691992 0
6.987411 10.019085 0.68228269
6.981298 10.036143 -0.68286937
6.9613776 10.007506 0
6.961947 10.008325 0.68097657
6.9899063 10.074465 -0.6849016
6.9670777 10.041561 0
6.9602132 10.031668 0.68199211
6.9806828 10.087173 -0.68519163
6.9579039 10.054256 0
6.949564 10.042205 0.68213713
6.9817729 10.114844 -0.68649775
6.951664 10.071224 0
6.9433293 10.059149 0.68271768
6.9739676 10.129696 -0.68693328
6.9512963 10.096766 0
6.9444356 10.0868 0.68402433
6.9779043 10.161679 -0.68852997
6.9552922 10.12875 0
11.022642 16.051889 1.0876359
6.9758949 10.185104 -0.68954551
6.9518752 10.150034 0
11.004705 16.067339 1.087781
6.9797077 10.217129 -0.6911422
6.9542828 10.179912 0
12.19885 17.857084 1.2079502
6.9805241 10.24488 -0.69244832
6.9419775 10.188307 0
12.159712 17.84605 1.2062092
6.9769006 10.266197 -0.69331884
6.9545283 10.233277 0
12.10747 17.815599 1.2031614
6.983448 10.302588 -0.69520611
6.9523811 10.256755 0
12.094679 17.843119 1.2040319
6.9782696 10.321779 -0.69593167
6.950182 10.280234 0
12.065835 17.846958 1.2033063
6.9701467 10.33666 -0.69636667
6.9552155 10.314518 0
9.8158646 14.556832 0.98067385
6.9750538 10.37095 -0.69810832
6.9514647 10.335876 0
9.7968197 14.566528 0.98052883
6.9832778 10.396736 -0.69955999
6.9524727 10.350873 0
9.789465 14.574599 0.98067385
6.9837251 10.424593 -0.7008661
6.9501014 10.374404 0
9.7848616 14.605844 0.98197997
6.981225 10.448142 -0.70188165
6.9476781 10.397935 0
9.7903042 14.652225 0.98430216
6.984448 10.480356 -0.70347834
6.9466553 10.423647 0
9.7999678 14.705121 0.98705941
6.9804068 10.501768 -0.70434892
6.9513426 10.458042 0
9.7980156 14.740758 0.9886561
6.984942 10.536184 -0.70609057
6.9487686 10.48162 0
11.80598 17.808304 1.1934375
6.9808078 10.557625 -0.70696169
6.9490156 10.509544 0
11.751489 17.772703 1.1900991
6.9780555 10.581231 -0.70797724
6.9434743 10.528793 0
11.731441 17.789064 1.1902447
6.9709764 10.598338 -0.70855778
6.9364681 10.545874 0
11.704226 17.794542 1.1896641
6.9752688 10.632826 -0.71029949
6.9422765 10.582534 0
11.689841 17.819534 1.1903896
6.9752188 10.660813 -0.71160561
6.9451542 10.614863 0
11.648381 17.8032 1.1883574
6.9779539 10.693173 -0.7132023
6.9408593 10.636329 0
11.625442 17.815088 1.1882124
6.9735303 10.71466 -0.71407282
6.9421959 10.666515 0
11.592568 17.811699 1.1870513
6.9662375 10.731796 -0.71465337
6.9378071 10.687998 0
11.566797 17.81916 1.1866163
6.9673896 10.762022 -0.71610504
6.9319582 10.707294 0
11.533961 17.815674 1.1854552
0 0 -0
6.9628348 10.783526 -0.71697563
6.9345403 10.739706 0
11.508196 17.823048 1.1850196
0 0 -0
6.9666824 10.818148 -0.71871728
6.9271946 10.756829 0
7.0144482 10.892321 0.72364509
0 0 -0
6.9606256 10.837487 -0.71944284
6.9282589 10.787093 0
7.0026846 10.902972 0.72379005
0 0 -0
6.9526 10.882741 -0.72132951
6.9329925 10.852049 0
6.9581313 10.891398 0.72190338
6.9506159 10.908665 -0.72249067
6.9324594 10.88017 0
11.351441 17.815556 1.1799401
6.9471865 10.932409 -0.72350675
6.924891 10.897325 0
11.321543 17.816095 1.179069
6.9545007 10.95854 -0.72495788
6.929462 10.919086 0
11.295465 17.798805 1.1774729
6.9579306 10.993282 -0.72669953
6.9260077 10.942845 0
11.261445 17.792683 1.1761668
6.9543529 11.017065 -0.72771567
6.9238939 10.968812 0
11.232999 17.795284 1.1754407
6.9507222 11.040847 -0.72873122
6.9244976 10.99919 0
11.211489 17.808844 1.1754407
6.9470496 11.064644 -0.72974735
6.9250379 11.029586 0
11.148513 17.756361 1.1710868
6.9488406 11.097249 -0.73134345
6.9199958 11.051184 0
11.076033 17.688345 1.1657174
6.949193 11.127681 -0.73279512
6.9204197 11.081607 0
11.003727 17.620171 1.1603473
6.946732 11.153715 -0.73395622
6.9207807 11.112047 0
10.983801 17.635656 1.1604923
6.9442182 11.179759 -0.73511738
6.9197116 11.140305 0
10.978936 17.675404 1.1622339
6.9484921 11.216856 -0.73700404
6.9185791 11.168568 0
10.973991 17.715164 1.1639756
6.9485884 11.247345 -0.73845512
6.9201212 11.201267 0
10.971695 17.759354 1.1660073
6.9513493 11.28228 -0.74019682
6.9147754 11.222919 0
10.952951 17.77702 1.1662973
6.9472356 11.30617 -0.74121296
6.9161925 11.255651 0
10.923305 17.776962 1.1654267
6.9403563 11.325632 -0.74193847
6.9175467 11.28841 0
10.892311 17.774635 1.1644106
6.9375067 11.351748 -0.74309963
6.9120417 11.31008 0
10.869473 17.78557 1.1642656
6.9359546 11.380089 -0.74440575
6.9146242 11.345091 0
10.831746 17.772064 1.162524
6.939743 11.417325 -0.74629241
6.9117246 11.371229 0
10.815662 17.794022 1.1631045
6.9367185 11.443479 -0.74745351
6.9168639 11.410726 0
10.783379 17.789301 1.1619434
6.9403601 11.480758 -0.74934018
6.9138422 11.436892 0
10.756498 17.793423 1.1613629
6.9345298 11.502483 -0.75021076
6.9094248 11.460841 0
10.716211 17.775255 1.1593312
6.9340181 11.533128 -0.75166243
6.9076395 11.489253 0
10.685351 17.7726 1.1583151
6.9334369 11.563779 -0.75311351
6.8991051 11.506519 0
10.659864 17.77882 1.1578801
6.9327917 11.594446 -0.75456464
6.9065661 11.550586 0
10.630371 17.778301 1.157009
6.9320879 11.625136 -0.75601631
6.8992677 11.570097 0
10.607552 17.788904 1.1568639
6.9317093 11.640483 -0.75674188
6.9109154 11.605563 0
10.578193 17.764057 1.1548322
6.9348855 11.677893 -0.75862855
6.9088454 11.634043 0
10.556721 17.776825 1.1548322
6.9326854 11.706384 -0.75993466
6.9093714 11.667016 0
10.533911 17.787334 1.1546873
6.934392 11.741601 -0.76167637
6.9058566 11.693283 0
10.509765 17.79557 1.1543968
6.9360232 11.776839 -0.76341802
6.9049273 11.72404 0
10.472431 17.781389 1.152655
6.927052 11.794173 -0.76399857
6.9026165 11.752569 0
10.443045 17.78059 1.1517845
6.9351201 11.84065 -0.76646578
6.8989334 11.778866 0
9.3408041 15.947984 1.0323406
6.9326015 11.869212 -0.7677719
6.8951964 11.805172 0
9.3162851 15.950284 1.0317601
6.9274058 11.893291 -0.7687875
6.8992629 11.844974 0
8.490118 14.576228 0.94221365
6.9273877 11.926372 -0.77038413
6.9032478 11.884811 0
8.475112 14.590974 0.94250423
6.9220901 11.950475 -0.77140027
6.8993177 11.91116 0
8.4444494 14.578714 0.94105256
6.9050431 11.954325 -0.7711097
6.8992357 11.944271 0
9.2169914 15.956876 1.0292929
6.8828144 11.949155 -0.77023917
6.8977904 11.975154 0
10.237812 17.773718 1.1456889
4.8882909 8.5102501 -0.5481872
6.896276 12.006042 0
10.212445 17.779314 1.1452533
4.8276391 8.4282207 -0.5425272
6.8921123 12.032434 0
9.497448 16.580898 1.0673175
4.825182 8.4475822 -0.54339772
6.889184 12.061089 0
9.4722509 16.583336 1.0667369
4.7892499 8.4082489 -0.54049492
6.8900623 12.09654 0
9.4367743 16.567675 1.0649953
4.782938 8.4208097 -0.54093051
6.8882918 12.127482 0
9.4103327 16.56777 1.0642697
4.7766027 8.4333677 -0.54136604
6.8851752 12.156175 0
9.3877478 16.574612 1.0639797
4.7727971 8.4504433 -0.54209161
6.8781633 12.178086 0
8.2739134 14.649322 0.93974644
4.7702312 8.4697847 -0.54296219
6.8864293 12.227201 0
8.2613077 14.668365 0.94032699
4.7663593 8.4868765 -0.5436883
6.8805723 12.251398 0
8.249938 14.689662 0.94105256
4.7345181 8.4540911 -0.54122108
6.8810186 12.286942 0
9.3075304 16.619791 1.0639797
4.7103844 8.4229288 -0.53904384
6.8837562 12.309269 0
9.3038282 16.636749 1.0647053
4.6786904 8.3900356 -0.53657657
6.8891582 12.353945 0
9.9063339 17.764479 1.1361099
4.6344571 8.3343735 -0.53265822
6.8818169 12.375912 0
9.8709745 17.751461 1.1345139
4.6256423 8.3422375 -0.53280324
6.8819971 12.411522 0
7.9910274 14.411632 0.92044413
4.6105294 8.3387251 -0.53222269
6.8732953 12.431222 0
7.9572639 14.391716 0.91855747
4.5853958 8.3169832 -0.53048104
6.8796291 12.47826 0
7.9223022 14.369459 0.91652524
4.5740924 8.3202429 -0.53033602
6.8770819 12.509365 0
7.8786469 14.331205 0.91347748
4.5627875 8.3234873 -0.530191
6.8769736 12.545052 0
7.8463407 14.313381 0.91173637
4.5589576 8.3403931 -0.53091657
6.8742905 12.576183 0
7.8140845 14.29549 0.90999466
4.5575776 8.3618593 -0.53193212
6.8752799 12.614184 0
7.8005323 14.31176 0.91042966
4.5561571 8.3833437 -0.53294826
6.8761873 12.652206 0
7.785718 14.325746 0.91072023
4.5584025 8.411684 -0.53439939
6.8658543 12.669659 0
6.9624844 12.847971 0.8162393
0 0 -0
6.8690996 12.712292 0
6.9346046 12.833518 0.81478816
4.5352616 8.4418917 -0.53527045
6.864223 12.776997 0
7.7852488 14.491385 0.9188475
4.5176935 8.4336176 -0.53439939
6.8622937 12.81051 0
7.7677331 14.500782 0.9188475
4.50138 8.4276123 -0.53367382
6.8664274 12.855521 0
7.7342925 14.480363 0.91696078
4.4826474 8.4169979 -0.53265822
6.864347 12.889079 0
7.7082386 14.473641 0.9159447
4.4590673 8.3971615 -0.53106159
6.8609715 12.920344 0
7.689527 14.480652 0.91579968
4.4440541 8.3933573 -0.53048104
6.8599682 12.956225 0
7.7194405 14.579487 0.92145973
4.4448261 8.4194002 -0.53178716
6.8613157 12.99672 0
7.7709651 14.719781 0.9297325
4.4431229 8.4408617 -0.53280324
6.8540936 13.021125 0
7.8040051 14.825727 0.93582809
4.4365444 8.4531288 -0.53323883
6.8504472 13.052437 0
7.8114433 14.883462 0.93887591
4.4227118 8.4515743 -0.53280324
6.8491507 13.088375 0
7.7886348 14.88368 0.9382953
4.4016795 8.4361811 -0.53149712
6.850183 13.128939 0
7.7466049 14.847006 0.93539256
4.3806911 8.4207497 -0.530191
6.847527 13.162605 0
7.6591077 14.72266 0.92697471
4.3636227 8.4003305 -0.52873933
6.8539701 13.194453 0
7.5148683 14.466738 0.91057521
4.339129 8.3779097 -0.52699769
6.8535805 13.232765 0
7.4985766 14.478112 0.91072023
4.3147001 8.3554497 -0.52525657
6.8554988 13.275725 0
7.6014881 14.720339 0.92537862
4.3034081 8.3583403 -0.52511102
6.8525538 13.309444 0
7.6146193 14.789575 0.92915195
4.2933059 8.363534 -0.52511102
6.8459749 13.336237 0
7.5931821 14.791827 0.92871642
4.2831969 8.3687153 -0.52511102
6.8417106 13.367661 0
7.5753036 14.800991 0.92871642
4.2683578 8.3646269 -0.52453041
6.8421164 13.408377 0
7.5645027 14.824025 0.92958754
4.2441125 8.3419952 -0.5227893
6.8412499 13.446787 0
7.5454035 14.830832 0.92944199
0 0 -0
4.2069931 8.2938156 -0.51945096
6.8355918 13.47593 0
7.4969177 14.779691 0.9256686
4.180553 8.2664347 -0.51741928
6.8357449 13.516688 0
7.4438763 14.71918 0.92131472
4.1635404 8.2575541 -0.51654816
6.8311267 13.548182 0
7.3956709 14.667843 0.91754138
4.1500616 8.255621 -0.51611316
6.8240981 13.575018 0
7.3802786 14.681416 0.9178319
4.1354265 8.2513371 -0.51553261
6.8088598 13.585588 0
7.3660231 14.697285 0.91826689
4.1277738 8.260972 -0.51582265
4.7719574 9.5501852 0
7.3680024 14.745687 0.92073417
4.1166315 8.2636299 -0.51567763
4.7871013 9.6095152 0
7.3710375 14.79645 0.92334694
4.0997109 8.2546396 -0.51480705
4.7789602 9.6222868 0
7.9356613 15.978206 0.99649334
4.0874257 8.2549257 -0.51451653
4.7188301 9.5301046 0
7.923265 16.001751 0.99736387
4.0728474 8.2505379 -0.51393592
4.7303514 9.5824718 0
7.9165773 16.036945 0.99896055
4.0674648 8.2647791 -0.51451653
4.6992345 9.5484877 0
7.3315597 14.897173 0.9274103
4.0483189 8.2510252 -0.51335537
4.6842537 9.5471468 0
7.3215671 14.922352 0.92842638
4.0360646 8.2512474 -0.5130654
4.6772885 9.5621519 0
7.3035312 14.931188 0.92842638
4.0306473 8.26546 -0.51364595
4.6702938 9.5771532 0
7.292316 14.954011 0.92929697
4.0172482 8.2633114 -0.51321042
4.6666846 9.5991755 0
7.2799211 14.974494 0.93002254
4.001595 8.2564707 -0.51248485
4.6618905 9.6188545 0
7.2788219 15.018355 0.93219978
3.9938745 8.265974 -0.51277483
4.6378088 9.5987015 0
7.2742357 15.055216 0.93394142
3.9900079 8.2707233 -0.51291984
0 0 0
7.2719107 15.073646 0.93481201
3.9845164 8.2849054 -0.51350039
0 0 0
7.249187 15.073054 0.9342314
3.9891057 8.3201714 -0.51538706
0 0 0
7.2231083 15.065408 0.93321586
3.9880137 8.3437414 -0.51654816
0 0 0
7.2138638 15.092879 0.93437696
3.9768124 8.3462105 -0.5164032
0 0 0
7.2067966 15.125038 0.93582809
3.9611514 8.3392763 -0.51567763
0 0 0
7.8250799 16.473871 1.0186985
3.944402 8.3299694 -0.51480705
0 0 0
7.0378985 14.862959 0.91855747
3.9265685 8.3182793 -0.51379097
0 0 0
7.0199347 14.871451 0.91855747
3.9198349 8.3300734 -0.5142265
0 0 0
7.0318289 14.943398 0.92247581
3.9207997 8.3583231 -0.51567763
0 0 0
7.2168074 15.384722 0.94918036
3.919503 8.3818855 -0.51683873
0 0 0
7.2147198 15.428731 0.95135707
3.9148602 8.3983889 -0.5175643
0 0 0
7.20156 15.44921 0.95208263
3.9036157 8.4007587 -0.51741928
0 0 0
7.1894598 15.472044 0.9529537
3.8901846 8.3983936 -0.51698375
0 0 0
7.1718507 15.483075 0.95309871
3.8735003 8.388938 -0.51611316
0 0 0
7.149868 15.484651 0.95266318
3.8622715 8.3912449 -0.51596761
0 0 0
7.1246362 15.47912 0.9517926
3.8477952 8.3864584 -0.51538706
4.8275309 10.521841 0
7.1113443 15.499524 0.95251817
3.8290174 8.3722067 -0.5142265
4.8148141 10.527666 0
7.1077394 15.541183 0.95454985
3.8145869 8.3673697 -0.51364595
4.8118048 10.554787 0
7.1072783 15.589952 0.95701706
3.8066218 8.3766994 -0.51393592
4.7549043 10.463452 0
7.0733876 15.565414 0.95498538
3.800786 8.3907614 -0.51451653
4.7744708 10.540305 0
7.0149059 15.486375 0.94961536
3.7906446 8.3953476 -0.51451653
4.7360325 10.489149 0
6.9715977 15.440377 0.94627756
3.7855718 8.3976355 -0.51451653
4.7361097 10.506239 0
6.9558587 15.430368 0.9454065
3.7679663 8.3856106 -0.51350039
4.7180791 10.500087 0
6.9361453 15.436394 0.94526148
3.7525213 8.3783026 -0.51277483
4.7309194 10.562784 0
6.9047422 15.416306 0.94351977
3.6570668 8.1916981 -0.99991328
3.7402785 8.378089 -0.51248485
4.7255764 10.585121 0
6.8267946 15.291774 0.93539256
3.6372602 8.2005119 -0.99991328
3.7273929 8.4037237 -0.51350039
0 0 0
6.7276649 15.168092 0.92682976
3.6263039 8.2025375 -0.99962527
3.7203889 8.4153538 -0.51393592
0 0 0
6.7387509 15.242753 0.93089366
3.6132603 8.19981 -0.9987601
3.703933 8.4055805 -0.5130654
0 0 0
6.7936673 15.417319 0.94105256
3.6043887 8.2065363 -0.99904817
3.6843705 8.3886404 -0.51175928
0 0 0
6.7927966 15.465959 0.94351977
3.5923977 8.206151 -0.99847209
3.655473 8.350235 -0.50914651
0 0 0
6.7782722 15.483677 0.94410038
3.5814462 8.2081175 -0.99818408
3.6277158 8.3141603 -0.50667924
0 0 0
6.7637148 15.501382 0.94468093
0 0 -0
3.6124868 8.3066263 -0.50595367
0 0 0
6.7460189 15.511933 0.94482648
3.5451415 8.1787786 -0.9935714
3.5983136 8.3014479 -0.50537312
0 0 0
6.7324367 15.531991 0.94555205
3.5352564 8.1830559 -0.9935714
3.5893097 8.3081732 -0.50551814
0 0 0
6.7177863 15.549656 0.9461326
0 0 -0
3.583379 8.3220501 -0.50609869
0 0 0
7.3350706 17.03499 1.035969
0 0 -0
3.5722971 8.3239889 -0.50595367
0 0 0
7.2970619 17.00325 1.0335019
0 0 -0
3.5653031 8.3354683 -0.50638926
4.5802212 10.708288 0
7.1293693 16.668045 1.0126028
0 0 -0
3.5603225 8.3517199 -0.50711483
4.5397267 10.649182 0
7.0715222 16.588209 1.0072328
0 0 -0
3.5725808 8.4086246 -0.51030761
4.5217681 10.642686 0
7.03725 16.563263 1.0052011
0 0 -0
3.5715358 8.4344683 -0.51161373
4.5200653 10.674496 0
6.9979796 16.526291 1.0024433
0 0 -0
3.5603325 8.4363861 -0.51146871
4.513237 10.694341 0
6.9386063 16.441374 0.99678332
0 0 -0
3.5471129 8.4334936 -0.51103318
4.4972839 10.692587 0
7.2743387 17.295218 1.0480152
0 0 -0
3.5449564 8.4569454 -0.51219428
4.479331 10.686015 0
7.2494173 17.294409 1.0474347
0 0 -0
3.5357397 8.4636269 -0.51233983
4.4543777 10.662603 0
7.229516 17.305552 1.0475796
0 0 -0
3.5155213 8.4439001 -0.51088816
4.438489 10.660768 0
7.2076025 17.311878 1.0474347
0 0 -0
3.5183976 8.4652176 -0.51204926
4.4390402 10.680272 0
7.1931529 17.306631 1.0468541
0 0 -0
3.502202 8.4550638 -0.51117873
4.4101968 10.647158 0
7.1563258 17.276899 1.0445318
0 0 -0
3.4949548 8.4664879 -0.51161373
4.3804483 10.611586 0
5.4718237 13.25543 0.80100036
0 0 -0
3.4906554 8.4851274 -0.51248485
4.391386 10.674634 0
5.4587698 13.269243 0.80143589
0 0 -0
3.4774423 8.4821243 -0.51204926
4.3883548 10.704007 0
5.4318891 13.24938 0.79983926
0 0 -0
3.4662089 8.4839163 -0.5119043
0 0 0
5.4040828 13.227069 0.79809755
0 0 -0
3.4549763 8.4856939 -0.51175928
0 0 0
5.3802609 13.214345 0.79693699
0 0 -0
3.4476485 8.4970789 -0.51219428
0 0 0
5.3506112 13.187123 0.79490477
0 0 -0
3.4373791 8.5012388 -0.51219428
0 0 0
5.3298039 13.181536 0.7941792
0 0 -0
3.425164 8.5005703 -0.5119043
0 0 0
5.309988 13.178326 0.79359865
0 0 -0
3.4090791 8.4902306 -0.51103318
0 0 0
5.2872825 13.16785 0.79258257
0 0 -0
3.3891666 8.4702225 -0.50958204
0 0 0
5.2675066 13.164579 0.79200196
3.3082099 8.2969475 -0.99558973
3.3683424 8.4477596 -0.50798535
0 0 0
0 0 0
3.2972245 8.2985287 -0.99530065
3.3562152 8.4469976 -0.50769538
0 0 0
5.2337604 13.172445 0.79171199
3.2843411 8.2952986 -0.99443656
3.3431358 8.4437971 -0.50725979
4.5815458 11.571664 0
5.2235775 13.193252 0.79258257
3.2733636 8.2968483 -0.99414748
3.3462832 8.4816751 -0.50929207
4.5646939 11.569926 0
5.2066798 13.197139 0.79243755
3.2737467 8.3272781 -0.99731892
3.335079 8.4832869 -0.50914651
4.5440445 11.558476 0
5.1897798 13.201004 0.79229254
3.2599087 8.3215952 -0.99616575
3.3267236 8.4921541 -0.50943702
4.5291266 11.561538 0
5.1766696 13.214526 0.79272813
3.2554924 8.3399801 -0.997895
3.315516 8.4937487 -0.50929207
4.4990664 11.52579 0
5.1625867 13.225608 0.7930181
3.2435396 8.3390913 -0.99731892
3.3052506 8.4977493 -0.50929207
4.4955149 11.5579 0
5.1466022 13.231836 0.7930181
3.2977946 8.5089979 -0.50972706
4.4589748 11.505085 0
5.1287341 13.233204 0.79272813
3.2987437 8.5420647 -0.51146871
4.4591341 11.546884 0
5.1146111 13.244235 0.7930181
3.3052149 8.5896912 -0.51408094
4.4489169 11.561978 0
5.1051373 13.267384 0.79403424
3.2957666 8.5961123 -0.5142265
4.4228287 11.535748 0
5.0918941 13.280823 0.79446977
3.2924283 8.602951 -0.51451653
4.4223709 11.555435 0
5.0885124 13.296028 0.79519534
3.281106 8.604497 -0.51437151
4.4084053 11.56077 0
5.0761461 13.311879 0.79577589
3.2753203 8.6205978 -0.51509708
4.3768735 11.519872 0
5.0628238 13.325283 0.79621089
3.2731802 8.6464186 -0.5164032
4.3730836 11.551918 0
5.0559206 13.355697 0.79766256
3.2673147 8.6625214 -0.51712877
4.3416743 11.510935 0
5.0416112 13.366654 0.79795259
3.2714705 8.7053804 -0.51945096
0 0 0
6.7840543 18.052362 1.0771865
3.2618597 8.7117586 -0.51959598
0 0 0
6.7649708 18.06785 1.0776219
3.2595036 8.7376022 -0.5209021
0 0 0
6.7349615 18.054102 1.0763159
3.2516603 8.7488432 -0.52133763
0 0 0
8.9861231 24.17786 1.4407423
3.2501116 8.7771378 -0.5227893
0 0 0
8.9722414 24.230122 1.4432095
3.2439997 8.7932453 -0.52351487
0 0 0
8.9573469 24.279951 1.4455317
3.2378535 8.809351 -0.52424043
0 0 0
8.9208317 24.271246 1.4443706
3.2352474 8.8352146 -0.52554655
3.468709 9.4727812 0
9.4561424 25.824009 1.5360937
3.2308037 8.8562078 -0.52656269
3.4643958 9.4965248 0
9.4276047 25.842741 1.5365293
3.2307513 8.889411 -0.52830434
3.0351303 8.35116 0
9.3981457 25.858994 1.5368193
3.2253139 8.9079628 -0.52917492
3.0090911 8.3107796 0
9.3518553 25.828798 1.5343521
3.2242472 8.9387436 -0.53077155
3.0264187 8.3902931 0
9.2994823 25.781425 1.5308692
3.2187147 8.9573002 -0.53164214
0 0 0
9.2621717 25.775522 1.5298531
3.2148952 8.9807539 -0.53280324
0 0 0
9.2564173 25.857639 1.534062
3.0235722 8.5110588 -0.50450259
0 0 0
9.2052097 25.911762 1.5359488
2.9786105 8.4167233 -0.49869701
0 0 0
9.535368 26.94429 1.5964689
0 0 -0
0 0 0
9.5097122 26.975389 1.5976295
0 0 -0
2.9260283 8.3321085 0
9.4788342 26.991768 1.5979201
2.8050528 8.0186005 -0.9468708
0 0 -0
2.910804 8.3209038 0
9.4470701 27.005651 1.5980651
2.8070283 8.0398283 -0.94917715
0 0 -0
2.9014881 8.3103781 0
9.4256153 26.996639 1.5971946
2.7981606 8.0456553 -0.94946516
0 0 -0
2.8880248 8.3040457 0
9.3955469 27.015364 1.5976295
0 0 -0
2.8817854 8.3184872 -0.49173087
2.8754325 8.300149 0
9.3994732 27.132277 1.6038706
2.785459 8.0719538 -0.9517715
0 0 -0
2.8637016 8.2986927 0
9.4768648 27.462912 1.6227374
2.7757037 8.0753136 -0.9517715
2.8506947 8.2934847 -0.4898442
2.8494432 8.2898436 0
9.4529667 27.501375 1.6243341
2.7651038 8.0762072 -0.95148242
2.8373048 8.2870893 -0.48926362
2.8377402 8.2883606 0
9.4172039 27.5054 1.6238985
2.7553434 8.0795431 -0.95148242
2.8230968 8.2782173 -0.48853809
2.8277233 8.2917833 0
9.3831234 27.514303 1.6237535
2.7489064 8.0926619 -0.95263559
2.811419 8.2766972 -0.48824751
2.8168659 8.2927322 0
9.3540487 27.53792 1.6244791
2.7399573 8.0984354 -0.95292467
2.7939219 8.2579374 -0.4869414
2.8068438 8.2961302 0
9.3365917 27.59597 1.6272368
2.7293415 8.0992813 -0.95263559
2.782284 8.2563877 -0.48665139
2.7926595 8.2871771 0
9.3073883 27.619541 1.6279625
2.7121468 8.0805073 -0.95004123
2.7706504 8.2548122 -0.48636085
2.7793317 8.2806759 0
9.2723541 27.625835 1.6276718
2.5810208 7.7207475 -0.90737617
2.7540834 8.2384386 -0.48519972
2.7684996 8.2815628 0
9.2307301 27.612381 1.6262207
2.548815 7.6551566 -0.89930505
2.7433069 8.2392969 -0.48505473
2.758491 8.2849016 0
9.1924353 27.608727 1.6253502
2.5257242 7.616498 -0.89440435
2.7349865 8.2475433 -0.48534527
2.7484784 8.288229 0
9.1598854 27.622278 1.6254952
2.5246291 7.6440997 -0.89728671
2.720942 8.2384977 -0.48461917
2.7311168 8.2693052 0
9.1232433 27.623455 1.6249146
2.5202384 7.6618814 -0.89901596
2.7101743 8.2393141 -0.48447418
2.7219355 8.2750692 0
9.0874224 27.627052 1.6244791
2.5319157 7.7288327 -0.90651208
2.6977892 8.2351723 -0.48403862
2.7127471 8.2808323 0
9.0588894 27.652832 1.6253502
2.68945 8.243371 -0.48432916
2.7027395 8.2841043 0
9.0238562 27.658813 1.6250596
2.6802897 8.2490835 -0.48447418
2.6919212 8.2848816 0
8.9960508 27.686998 1.6260757
2.6743195 8.2646751 -0.48519972
2.6787038 8.278224 0
9.2841644 28.691635 1.6844188
2.6635351 8.2654295 -0.48505473
2.6710947 8.288888 0
9.2319574 28.648428 1.681226
2.6591048 8.285964 -0.48607084
2.6626692 8.2970705 0
9.2108316 28.70162 1.6836932
2.6530452 8.3015442 -0.48679641
2.6494727 8.2903652 0
9.164279 28.6756 1.6815159
2.5064561 7.8756628 -0.92121416
2.6437998 8.3072176 -0.4869414
2.641819 8.3009939 0
9.1185923 28.651991 1.6794842
2.5118744 7.9092202 -0.92496169
2.6372089 8.3038645 -0.48665139
2.6368036 8.3025885 0
9.079258 28.588152 1.6754204
2.498414 7.8999119 -0.92351943
2.6248221 8.2996101 -0.48621583
2.6252015 8.3008099 0
9.3667221 29.6173 1.7350695
2.4958615 7.9251351 -0.92611486
2.6108897 8.2903862 -0.48549029
2.6151698 8.3039761 0
8.9648752 28.466265 1.6670026
2.5125968 8.0120516 -0.93591624
3.1894391 10.170335 -0.59535515
2.605134 8.3071299 0
8.9219217 28.44981 1.6654065
2.5244985 8.0842018 -0.94398737
3.1794722 10.181624 -0.59579068
2.5981977 8.3202085 0
8.8728228 28.413441 1.6626487
2.5254817 8.1218281 -0.94802397
