# .PCD v0.7 - Point Cloud Data file format
VERSION 0.7
FIELDS x y z
SIZE 4 4 4
TYPE F F F
COUNT 1 1 1
WIDTH 1972
HEIGHT 1
VIEWPOINT 0 0 0 1 0 0 0
POINTS 1972
DATA ascii
7.3408556 11.102154 0
9.3510675 14.142357 0.94700313
4.6597629 7.0658693 -0.94341129
4.7479596 7.1996074 -0.48171693
7.3403287 11.130568 0
9.3296795 14.147136 0.9465676
4.6597471 7.084456 -0.94514054
4.7521067 7.2248755 -0.48302305
7.3311663 11.145953 0
9.3154373 14.162745 0.94685817
4.6455083 7.0814304 -0.94398737
4.7291179 7.2088814 -0.48157138
0 0 0
9.3182688 14.204403 0.94888979
4.6312842 7.0783811 -0.9428342
4.7460146 7.2537332 -0.48418418
7.3013625 11.159286 0
9.3082113 14.226521 0.94961536
4.6184916 7.0774798 -0.94197011
4.732985 7.2529321 -0.48374861
7.2836051 11.16156 0
9.303793 14.257341 0.95092148
4.6071119 7.0787153 -0.94139296
4.7298875 7.2673569 -0.48432916
7.2587562 11.152903 0
9.2823114 14.262046 0.95048648
4.5929222 7.0755992 -0.94023985
4.764957 7.3406258 -0.48882806
7.2396069 11.152934 0
9.3966389 14.475937 0.96398377
4.5885878 7.0876594 -0.94110495
4.7645593 7.3594699 -0.48969918
7.2218809 11.155117 0
9.4723339 14.631229 0.97356212
4.5772114 7.0888486 -0.94052786
4.7739854 7.3935976 -0.49158588
7.1971035 11.146344 0
9.4532404 14.640483 0.9734171
4.5644455 7.0878568 -0.93966377
4.7988076 7.4517837 -0.49506867
7.1822224 11.152846 0
9.4355431 14.651895 0.9734171
4.5558782 7.0933666 -0.93966377
4.8614116 7.5690737 -0.50247037
7.160305 11.148382 0
0 0 0
4.5375366 7.0836186 -0.93764544
0 0 -0
7.1412144 11.14826 0
9.3846941 14.650592 0.97182101
4.5247951 7.0825553 -0.93678033
0 0 -0
7.1235337 11.1503 0
9.3613892 14.653162 0.97124046
4.5217934 7.0967426 -0.9379335
0 0 -0
7.1114531 11.161092 0
9.3366919 14.653499 0.97051436
4.5035086 7.0869265 -0.93591624
0 0 -0
7.0854006 11.14991 0
9.3106194 14.651615 0.96964377
4.5061541 7.100563 -0.93735743
0 0 -0
7.07727 11.151993 0
9.3031569 14.65943 0.96978879
4.4765577 7.0917492 -0.93476307
7.0403395 11.153285 -0.73671347
7.0364103 11.14706 0
9.2857332 14.710432 0.97167546
4.4693618 7.09934 -0.93505108
7.0227032 11.155185 -0.73627794
7.0173898 11.146745 0
9.2762613 14.734839 0.97254658
4.4511518 7.0893993 -0.93303281
6.9954052 11.14166 -0.7348268
6.9956102 11.141987 0
9.2584496 14.746037 0.97254658
4.4508214 7.1079297 -0.93476307
6.9791818 11.145704 -0.73453683
6.9766178 11.141609 0
9.2364874 14.750605 0.97211099
4.438118 7.106719 -0.93389791
6.9643292 11.151918 -0.73439121
6.9590187 11.143414 0
7.896029 12.643842 0.8326394
4.4308939 7.1142697 -0.93418598
6.9398646 11.142689 -0.73323071
6.9400454 11.142979 0
7.8972301 12.679841 0.83438104
4.4182038 7.1130333 -0.93332189
6.9222813 11.144442 -0.73279512
6.9210835 11.142513 0
7.8956113 12.711442 0.83583218
4.4150491 7.1271534 -0.93447399
6.9019699 11.141755 -0.73206955
6.9062457 11.148658 0
7.8898263 12.736438 0.83684826
4.3833256 7.0950775 -0.9295733
6.8844037 11.143453 -0.73163402
6.8872981 11.148138 0
7.8867211 12.765856 0.83815438
4.3733935 7.0981688 -0.92928529
6.8668437 11.145124 -0.73119843
6.8697262 11.149803 0
7.8781042 12.786435 0.83887994
4.3661666 7.1056499 -0.9295733
6.8479304 11.144558 -0.73061788
6.8467102 11.142571 0
7.8612895 12.793733 0.83873492
4.3508215 7.0998955 -0.92813212
6.8263159 11.139535 -0.72974735
6.8305244 11.146403 0
7.8471813 12.805436 0.83887994
4.3489823 7.1161804 -0.9295733
6.8074312 11.138906 -0.72916681
6.80755 11.139101 0
7.8709965 12.879205 0.84308887
4.3336515 7.1103892 -0.92813212
6.7926159 11.144907 -0.72902179
6.7900209 11.14065 0
7.8905869 12.946391 0.8468622
4.3237147 7.1134124 -0.92784405
6.7683473 11.135343 -0.72786069
6.7697973 11.137729 0
7.885735 12.973679 0.8480233
4.3164558 7.120841 -0.92813212
6.7508454 11.136845 -0.7274251
6.752286 11.139222 0
7.8754411 12.992086 0.8486039
4.3011594 7.1149864 -0.92669088
6.7320065 11.136099 -0.72684455
6.7347865 11.140697 0
6.75211 11.169354 0.72901511
4.2925591 7.1201782 -0.92669088
6.7118392 11.133101 -0.72611898
6.717288 11.142138 0
0 0 0
4.2786217 7.1164932 -0.92553771
6.6957016 11.136744 -0.72582841
6.6944318 11.134632 0
0 0 0
4.2700195 7.1216578 -0.92553771
6.6688809 11.122545 -0.72437733
6.6823149 11.144951 0
6.7236023 11.213812 0.73032123
4.2600851 7.1245942 -0.9252497
6.6514344 11.123902 -0.72394174
6.6608272 11.139611 0
6.7060456 11.215235 0.72988564
4.2531257 7.1227212 -0.9246726
6.6447129 11.127919 -0.72394174
6.6434221 11.125757 0
6.7005997 11.221513 0.73003066
4.2431941 7.1256347 -0.92438459
6.6312623 11.13594 -0.72394174
6.6246481 11.124832 0
6.6857076 11.22737 0.72988564
4.234581 7.1307564 -0.92438459
6.6124945 11.135007 -0.72336119
6.6085458 11.128358 0
6.6734624 11.237673 0.73003066
4.2272782 7.1380916 -0.9246726
6.5963898 11.138522 -0.72307122
6.5884652 11.12514 0
7.9269509 13.38528 0.86892229
4.2107611 7.1298356 -0.92294335
6.5736752 11.13082 -0.72205508
6.5723681 11.128607 0
7.9213428 13.412746 0.87008339
4.2021432 7.1349182 -0.92294335
6.5589037 11.136518 -0.72191006
6.5575972 11.1343 0
7.9117222 13.433501 0.87080896
4.1935186 7.1399908 -0.92294335
6.552021 11.155636 -0.72263563
6.5401835 11.135481 0
7.9099617 13.4677 0.87240565
4.1796598 7.1361251 -0.92179018
6.5621777 11.203908 -0.72524846
6.5319848 11.152358 0
7.8963065 13.481728 0.87269562
4.1710339 7.14117 -0.92179018
6.5460119 11.207337 -0.72495788
6.5316329 11.182719 0
7.8996701 13.524918 0.87487286
4.1663089 7.1529121 -0.92265534
6.5573149 11.257902 -0.72771567
6.528595 11.208594 0
7.8767791 13.523219 0.87414676
4.1615567 7.1646442 -0.92351943
6.5437074 11.265817 -0.72771567
6.5241933 11.232222 0
6.5788813 11.326374 0.73162735
4.1645679 7.189817 -0.92611486
6.5509233 11.309683 -0.73003733
6.5223551 11.260362 0
6.5638895 11.332068 0.73148233
4.1649294 7.2105155 -0.92813212
6.5489488 11.337838 -0.73134345
6.5321774 11.308804 0
0 0 0
4.1678314 7.2357116 -0.93072647
6.5482163 11.368264 -0.73279512
6.525002 11.327962 0
0 0 0
4.1616645 7.2452326 -0.93130356
6.5435314 11.391933 -0.73381066
6.5229745 11.356146 0
6.5085311 11.331 0.72988564
4.1464806 7.2390361 -0.92986238
6.5400939 11.417871 -0.73497182
6.5325294 11.404664 0
6.4793367 11.311799 0.72814399
4.1428618 7.2530246 -0.93101555
6.5404706 11.450586 -0.73656845
6.5290704 11.430627 0
6.4656639 11.31962 0.72814399
4.1366529 7.262516 -0.93159157
6.5330591 11.469768 -0.73729402
6.5319977 11.467904 0
6.4545565 11.331944 0.7284345
4.1265984 7.2652621 -0.93130356
6.5397286 11.513804 -0.73961627
6.5322762 11.500683 0
6.4588232 11.371363 0.73046619
4.1152649 7.2657375 -0.93072647
6.527091 11.523956 -0.73976123
6.5299172 11.528946 0
6.4463577 11.381417 0.73061121
4.1204753 7.2954798 -0.93389791
6.5310497 11.563505 -0.74179292
6.5236583 11.550419 0
6.4441056 11.409567 0.73191786
4.092617 7.2666469 -0.9295733
6.5119772 11.562341 -0.74121296
6.525023 11.585505 0
6.4417896 11.437719 0.73322397
4.085104 7.2738481 -0.92986238
6.5298052 11.62683 -0.74484074
6.521214 11.611533 0
6.4279647 11.445495 0.73322397
4.0655265 7.2492437 -0.92640287
6.5151558 11.617179 -0.74397016
6.5320177 11.647245 0
6.4375706 11.478837 0.73511064
4.0567646 7.2541509 -0.92640287
4.1206608 7.3684082 -0.47155747
6.5319133 11.680118 0
6.4262304 11.491138 0.73540068
4.0429573 7.2500114 -0.9252497
4.1433921 7.4301152 -0.47518581
6.5253983 11.701635 0
6.4275274 11.526129 0.73714232
4.0404778 7.2661915 -0.92669088
4.0977912 7.3692608 -0.47097689
6.5327544 11.748176 0
6.432539 11.567953 0.73931956
4.0316954 7.2710686 -0.92669088
4.0951829 7.3855667 -0.47170246
6.5223413 11.762891 0
6.4160337 11.571168 0.73902899
4.0166502 7.2646189 -0.9252497
4.0799704 7.3791418 -0.47097689
6.5232348 11.798094 0
6.4196477 11.610744 0.74106067
3.9841413 7.226429 -0.91977191
4.0748162 7.3908949 -0.47141245
6.5190263 11.8242 0
6.42694 11.657174 0.74352789
3.9455063 7.1768494 -0.91285396
4.0558681 7.3775969 -0.47025135
6.516017 11.852592 0
6.4316282 11.699089 0.74570513
3.9132075 7.1385164 -0.90737617
4.0556955 7.3984442 -0.47126746
6.5179529 11.890121 0
6.4487128 11.763813 0.7493335
3.9021003 7.1387048 -0.90680009
4.0380278 7.3873768 -0.47025135
6.5098209 11.909404 0
6.4556799 11.810355 0.75180072
3.9033744 7.1615829 -0.90910643
4.0402894 7.4127827 -0.47155747
6.5228248 11.967529 0
6.4637861 11.859211 0.75441295
3.8848376 7.1481137 -0.90680009
4.0214033 7.3993945 -0.47039634
6.5257597 12.007419 0
6.4581389 11.882996 0.75542909
3.8724995 7.145978 -0.90593493
4.0062704 7.3928275 -0.46967077
6.5224051 12.035887 0
6.4598689 11.920487 0.75731575
3.8687804 7.1597543 -0.9070881
3.9936278 7.3908029 -0.46923521
6.5251756 12.075809 0
6.4553428 11.946573 0.75847685
3.8552191 7.1553154 -0.90593493
3.9871619 7.4002023 -0.46952578
6.5167503 12.095138 0
6.4544573 11.979521 0.76007301
3.8514669 7.1690826 -0.9070881
3.9757555 7.4004321 -0.46923521
6.516911 12.130514 0
6.4498153 12.005623 0.7612341
3.848907 7.1851287 -0.90852934
3.9704926 7.4121046 -0.46967077
6.5194511 12.170493 0
6.4438944 12.029444 0.76225019
3.8426619 7.1943417 -0.90910643
3.9603107 7.4146066 -0.46952578
6.5145497 12.196726 0
6.4464908 12.069304 0.76428187
3.8315322 7.1944089 -0.90852934
3.9256997 7.3712258 -0.46647799
6.5120435 12.227564 0
6.4490051 12.109198 0.76631409
3.8068755 7.1899366 -0.90680009
3.9176021 7.3990626 -0.46763912
6.509264 12.29386 0
6.4537635 12.189038 0.77037746
3.8005979 7.1991014 -0.90737617
3.9074421 7.4014864 -0.46749356
6.5004783 12.313222 0
6.4729981 12.261168 0.77444136
3.7906928 7.2014022 -0.9070881
3.8960776 7.401608 -0.46720356
6.4989314 12.346402 0
6.472702 12.296573 0.77618307
3.7795868 7.2014012 -0.90651208
3.8883379 7.4086089 -0.46734855
6.4852166 12.356547 0
6.4699125 12.327389 0.77763414
3.7744768 7.212831 -0.90737617
3.8757677 7.4063926 -0.46691298
6.4847612 12.392045 0
6.46947 12.362824 0.77937585
3.7689219 7.2128201 -0.9070881
3.8712924 7.4087329 -0.46691298
6.4893236 12.419022 0
6.4752383 12.392066 0.78097248
3.7661779 7.2288356 -0.90852934
3.8659406 7.4203205 -0.46734855
6.4875412 12.452245 0
6.4770665 12.432139 0.78300416
3.7514801 7.2219067 -0.9070881
0 0 -0
6.4868865 12.487788 0
6.4716225 12.458404 0.78416532
3.7403743 7.2218456 -0.90651208
0 0 -0
6.4753799 12.502543 0
6.4720984 12.496207 0.78605199
3.7352023 7.2332478 -0.90737617
0 0 -0
6.465045 12.519608 0
6.4713016 12.531724 0.78779364
3.7276425 7.2400527 -0.90766418
0 0 -0
6.4808846 12.587566 0
6.4739928 12.574181 0.78997034
3.7153513 7.2376552 -0.90680009
0 0 -0
6.4989481 12.660215 0
6.4694734 12.602797 0.79127645
3.7042444 7.2375302 -0.906223
0 0 -0
6.4990592 12.698174 0
6.4708171 12.642993 0.79330868
3.7025526 7.2558284 -0.90795326
0 0 -0
6.4931746 12.724562 0
6.468524 12.676255 0.79490477
3.6949544 7.2625999 -0.90824127
3.7963917 7.4619799 -0.46763912
6.4966764 12.769511 0
6.4626288 12.702589 0.79606587
3.679158 7.2532234 -0.90651208
3.7850194 7.4619222 -0.46734855
6.491837 12.798239 0
6.460207 12.735882 0.79766256
3.6680546 7.2530432 -0.90593493
3.7771719 7.4688067 -0.46749356
6.4904618 12.833942 0
6.4577093 12.769178 0.79925871
3.6534667 7.2459245 -0.90449375
3.7646384 7.4664116 -0.46705854
6.4866648 12.865009 0
6.4574828 12.807133 0.80114537
3.6563234 7.2734385 -0.90737617
3.7614481 7.4825606 -0.46778411
6.4956603 12.921665 0
6.4548421 12.840466 0.802742
3.6915679 7.365715 -0.91833073
3.7500734 7.4824495 -0.46749356
6.4952002 12.959748 0
6.4544563 12.878453 0.80462873
3.702318 7.4095011 -0.92323142
3.7456753 7.496273 -0.46807411
6.4911666 12.990864 0
6.4563136 12.921111 0.80680597
3.6979754 7.4232297 -0.92438459
3.7354574 7.4984698 -0.4679291
6.4905539 13.028987 0
6.4545951 12.956804 0.80854708
3.6936054 7.4369588 -0.92553771
3.7321723 7.5146122 -0.46865466
6.4898543 13.067119 0
6.457428 13.001829 0.81086928
3.6846166 7.4414163 -0.92553771
3.734622 7.542407 -0.47010633
6.482141 13.09127 0
6.4520893 13.030578 0.81217539
3.6744785 7.4435458 -0.9252497
3.7128522 7.5212812 -0.46850967
6.4835992 13.1341 0
6.4524446 13.07099 0.81420761
3.6689091 7.4549446 -0.92611486
3.7094975 7.5374169 -0.46923521
6.4803619 13.167603 0
6.4515615 13.109082 0.81609428
3.7129786 7.5675569 -0.4708319
6.4747672 13.196459 0
6.4460168 13.137861 0.8174004
3.7026913 7.5581331 -0.47010633
6.4690809 13.205037 0
6.4506497 13.167415 0.81899655
3.6645298 7.5031705 -0.93072647
3.735743 7.6489801 -0.47547579
4.6361079 9.4924889 0
6.4575415 13.221896 0.82189935
3.6475384 7.4913211 -0.92870921
3.7526622 7.7072244 -0.47881415
4.6155205 9.4793644 0
6.4495244 13.246045 0.82291543
3.6204123 7.4584932 -0.92409652
3.7490191 7.7234387 -0.47953972
4.6006527 9.4779091 0
6.449398 13.286551 0.82494712
3.59112 7.4209595 -0.91890782
3.7442114 7.737319 -0.48012027
0 0 0
6.4469218 13.322401 0.82668877
3.5821507 7.425293 -0.91890782
3.7326038 7.7371612 -0.47983027
4.5619059 9.4561872 0
6.4477563 13.365289 0.828866
3.5799 7.4435968 -0.92063701
3.717618 7.7299504 -0.47910416
4.5482187 9.4569979 0
6.4361067 13.382437 0.82944655
3.5921502 7.4922328 -0.92611486
4.5350413 9.4588423 -0.58592123
4.5435414 9.4765711 0
7.5814466 15.812802 0.97951269
3.6109784 7.5549059 -0.93332189
4.5292149 9.4760447 -0.58664733
4.5085201 9.4327469 0
7.5623345 15.821952 0.97951269
3.6118593 7.580276 -0.93591624
0 0 -0
4.5127897 9.4710751 0
7.5365071 15.817008 0.97864217
4.5029559 9.4799185 -0.5862118
4.4924092 9.457715 0
7.5129304 15.816714 0.97806162
0 0 -0
4.4881611 9.4783049 -0.58577621
4.4910011 9.4843035 0
7.4949245 15.828127 0.97820657
0 0 -0
4.4733763 9.4766693 -0.58534068
4.485096 9.5014973 0
7.4624834 15.808973 0.97646493
0 0 -0
4.4619222 9.4820671 -0.58534068
0 0 0
7.4433761 15.817979 0.97646493
4.4449453 9.4756918 -0.58461511
4.442225 9.4698925 0
7.4209456 15.819901 0.97602934
4.4400988 9.495183 -0.58548623
4.4318805 9.4776087 0
7.3985262 15.821802 0.97559434
4.4363041 9.5170202 -0.58650178
4.41713 9.4758873 0
7.3761086 15.823663 0.97515881
0 0 -0
4.4056768 9.4812174 0
7.346036 15.809003 0.97370768
4.4078326 9.5159264 -0.58577621
4.3942175 9.4865341 0
7.3302016 15.824935 0.97414267
4.3941545 9.5165319 -0.58548623
4.3827515 9.4918365 0
7.303453 15.817273 0.97312713
4.3869982 9.5312767 -0.58606678
4.3745408 9.5042105 0
7.2767296 15.809561 0.97211099
4.3700576 9.5247545 -0.58534068
4.3598008 9.5024004 0
7.2565389 15.815983 0.97196603
4.3599777 9.5179529 -0.58476067
4.3594775 9.51686 0
7.2426538 15.810914 0.97138548
4.3473916 9.5208435 -0.58461511
4.3512187 9.5292253 0
7.220305 15.812561 0.97094989
4.3401899 9.5355492 -0.58519566
4.3386202 9.5321007 0
7.2044239 15.828371 0.97138548
4.3340321 9.5526161 -0.58592123
4.3292522 9.5420809 0
6.661406 14.682367 0.90056074
4.3224864 9.5578461 -0.58592123
4.3155723 9.5425577 0
6.6575785 14.721183 0.9024474
4.3120055 9.5654373 -0.58606678
4.3029704 9.5453949 0
6.6365857 14.722116 0.90201241
4.2983122 9.565896 -0.58577621
4.2967658 9.5624542 0
6.6155958 14.723012 0.90157688
4.2878118 9.573452 -0.58592123
4.2873378 9.5723934 0
6.5999274 14.735742 0.90186739
4.2720037 9.5691347 -0.58534068
4.2789521 9.5846987 0
6.5725808 14.722344 0.90056074
4.2614975 9.5766706 -0.58548623
4.2673678 9.5898619 0
7.0502162 15.843632 0.96862769
4.2457089 9.5723114 -0.58490568
4.2631602 9.6116571 0
7.0152674 15.816516 0.96645099
4.235189 9.5798092 -0.58505064
4.2589107 9.6334658 0
6.9929981 15.817849 0.96601546
4.2225637 9.5825434 -0.58490568
4.2451663 9.6338367 0
6.9717865 15.821536 0.96572542
4.2130699 9.5923929 -0.58519566
4.237709 9.6484909 0
6.9463925 15.81567 0.9648543
4.1929951 9.6096926 -0.58563125
4.2216663 9.6754026 0
6.8998389 15.813357 0.9636932
4.182416 9.6171331 -0.58577621
4.2099724 9.6804972 0
6.8786559 15.816921 0.96340322
4.1759586 9.6340981 -0.58650178
4.1993065 9.6879625 0
6.8585067 15.82284 0.96325821
4.1632853 9.6367531 -0.58635676
4.1917262 9.7025862 0
6.8342271 15.819181 0.9625321
5.6210933 13.054444 -0.79389536
6.7982683 15.788321 0
6.8130546 15.822659 0.96224207
5.6022439 13.05407 -0.79346037
6.7832918 15.806089 0
6.7918797 15.826099 0.96195155
5.5793123 13.044104 -0.79244423
6.761117 15.807094 0
6.7656016 15.817578 0.96093595
5.561511 13.04606 -0.79215425
6.7358909 15.800892 0
6.7413902 15.813792 0.96021044
5.5454879 13.03029 -0.79099315
6.7273617 15.80735 0
6.7135172 15.774821 0.95759761
5.5439425 13.070467 -0.79302478
6.7102871 15.820255 0
6.6883659 15.768573 0.95672709
5.5230875 13.065191 -0.79229927
6.6546903 15.742064 0
6.6672821 15.771852 0.95643651
5.5133481 13.086219 -0.7931698
6.6558728 15.79806 0
6.647212 15.777504 0.9562915
5.4864693 13.066524 -0.7915737
6.6327491 15.796494 0
6.6271381 15.783131 0.95614654
5.4626522 13.053967 -0.79041255
6.6056199 15.78529 0
6.6030483 15.779144 0.95542097
5.4448729 13.055758 -0.79012203
6.5825348 15.783652 0
6.5829782 15.784715 0.95527595
5.4111443 13.019141 -0.7875098
6.5614591 15.786783 0
6.5599113 15.78306 0.9546954
5.769278 13.928269 -0.84207946
5.7785392 13.950627 0
6.5388451 15.786169 0.95440483
5.7544255 13.94003 -0.84236944
5.7567139 13.945574 0
6.5158 15.784451 0.95382428
5.7464776 13.968607 -0.84367609
6.5061722 15.815283 0
6.4927688 15.782701 0.95324373
5.7502894 14.026018 -0.84672332
6.4732389 15.789425 0
6.4707394 15.783328 0.95280874
5.7726483 14.129173 -0.85252893
6.4492311 15.785182 0
6.4477324 15.781513 0.95222819
5.7790885 14.193897 -0.85601228
6.4281926 15.788147 0
6.4227777 15.774848 0.95135707
5.7775612 14.239385 -0.85833395
6.4081335 15.793493 0
6.4017601 15.777786 0.95106703
5.7584052 14.241542 -0.85804391
6.3978243 15.822937 0
6.3895068 15.802366 0.95208263
5.7586713 14.291868 -0.86065614
6.3932877 15.866858 0
6.3742924 15.819715 0.95266318
5.7162266 14.236126 -0.85688281
7.2507005 18.057697 0
6.3648567 15.851524 0.95411485
6.5214195 16.298365 -0.98053551
7.2240429 18.054365 0
6.359211 15.892974 0.95614654
6.522892 16.359329 -0.98372829
7.1993299 18.055826 0
14.658459 36.763226 2.2106669
6.5366988 16.45171 -0.9888078
7.1746273 18.057264 0
14.635138 36.834042 2.2138603
6.5483809 16.539322 -0.99359721
7.1460962 18.048979 0
14.619315 36.924175 2.218214
4.7324004 11.973809 -0.71915287
7.1342349 18.050875 0
14.617061 36.983746 2.221262
4.6979342 11.928749 -0.71610504
6.6537328 16.894812 0
6.6535525 16.894352 1.0141995
4.6787682 11.922316 -0.71537894
6.636167 16.910109 0
6.6378794 16.914471 1.0149251
4.6586828 11.913445 -0.71450841
0 0 0
0 0 0
0 0 -0
6.5971704 16.930941 0
6.589437 16.911095 1.0137639
0 0 -0
6.5823579 16.953451 0
6.568059 16.916624 1.0136189
0 0 -0
6.57971 17.007511 0
6.5448003 16.917274 1.0131834
0 0 -0
6.5788116 17.066442 0
6.5159435 16.903353 1.0118773
4.5419054 11.824949 -0.70754224
6.592711 17.164267 0
6.4945836 16.908791 1.0117322
4.5211115 11.813439 -0.70652616
6.587779 17.213537 0
21.133831 55.221645 3.30264
4.5049844 11.814042 -0.70623612
6.5938649 17.292002 0
21.067091 55.247143 3.30264
4.4842448 11.802471 -0.70522004
6.5840545 17.329142 0
20.986481 55.23613 3.3004632
4.4681392 11.803016 -0.70492947
6.582459 17.388195 0
20.919722 55.261444 3.3004632
4.4520416 11.803549 -0.70463943
6.579813 17.444836 0
14.145293 37.502937 2.2388225
4.4377761 11.808919 -0.70463943
6.5733776 17.491753 0
14.094485 37.505413 2.237952
4.4198599 11.804539 -0.70405889
6.5650115 17.5338 0
14.040957 37.500519 2.2366459
4.3974199 11.787962 -0.70275277
6.5747457 17.624619 0
20.618786 55.271832 3.2950933
4.3768358 11.776215 -0.70173669
6.5761108 17.693535 0
20.545649 55.279655 3.2940772
4.3626032 11.781495 -0.70173669
6.5728011 17.750278 0
0 0 0
4.3483644 11.786757 -0.70173669
6.5702639 17.809481 0
0 0 0
4.3350148 11.79444 -0.70188165
6.5631051 17.856489 0
0 0 0
4.3368449 11.843595 -0.70449448
6.5486832 17.883957 0
13.040574 35.61282 2.1183631
4.3082824 11.809769 -0.70217222
6.5243926 17.88452 0
0 0 0
4.3002234 11.832063 -0.70318836
6.5001101 17.88505 0
10.056693 27.670988 1.6445075
4.2833261 11.807787 -0.70159167
6.4830904 17.871845 0
10.0382 27.672169 1.6442169
4.2611084 11.790962 -0.70028555
6.4818358 17.935963 0
10.001224 27.674501 1.6436363
4.2433372 11.786323 -0.699705
0 0 0
9.963377 27.674345 1.6429108
4.2185659 11.762091 -0.6979633
6.6554756 18.556616 0
9.9185276 27.65457 1.6410241
4.2061009 11.772079 -0.69825387
0 0 0
9.881608 27.656746 1.6404436
4.1875143 11.764905 -0.69752777
6.6341753 18.638847 0
9.8490534 27.67111 1.6405885
4.1767693 11.779752 -0.69810832
6.6116495 18.646851 0
9.8069296 27.658506 1.6391375
4.1599388 11.777447 -0.69767332
6.6437163 18.809416 0
9.7769642 27.680136 1.6397181
4.1439786 11.777558 -0.69738275
6.6348014 18.856699 0
9.7711086 27.770367 1.6443624
4.1189308 11.797351 -0.6979633
6.6509752 19.049576 0
11.368957 32.562714 1.9264985
4.1080871 11.812137 -0.69854391
6.6330833 19.072351 0
11.337283 32.598511 1.9278047
4.0938115 11.817091 -0.69854391
6.6211076 19.112318 0
11.291934 32.595009 1.9267892
4.0727491 11.802379 -0.69738275
6.6149879 19.169508 0
9.5768795 27.752743 1.639863
4.0559502 11.799917 -0.69694722
6.6112757 19.234087 0
9.5019541 27.643896 1.6327519
4.0366411 11.790064 -0.69607663
6.6032023 19.286375 0
9.4348783 27.557024 1.6269463
4.0181994 11.782639 -0.69535106
6.5908132 19.326359 0
9.3864784 27.524139 1.6243341
3.9964385 11.765344 -0.69404495
4.5101137 13.27758 0
9.3448582 27.510862 1.622883
3.9813843 11.767695 -0.69389939
4.4915638 13.275622 0
9.3265982 27.566435 1.6254952
3.9688237 11.777427 -0.69418997
4.4780135 13.288441 0
9.3148556 27.641701 1.6292685
3.9504569 11.769899 -0.6934644
4.4495349 13.256841 0
9.2864084 27.667711 1.6301391
3.9345829 11.769731 -0.69317389
4.4285607 13.247394 0
9.2488527 27.666592 1.6294135
3.9137919 11.754753 -0.69201273
4.4174852 13.267555 0
9.1883287 27.596392 1.6246241
3.9075112 11.759588 -0.69215828
4.3979783 13.235641 0
9.1224957 27.453995 1.6159163
3.8851337 11.739628 -0.69070661
4.3827991 13.243413 0
9.0452328 27.331791 1.608079
3.8709459 11.744314 -0.69070661
4.3716836 13.263535 0
9.0081348 27.330364 1.6073534
3.8583746 11.753925 -0.69099718
4.3467245 13.241605 0
9.0447998 27.553543 1.6198351
3.8417466 11.751166 -0.69056165
4.3210168 13.217163 0
9.079319 27.771898 1.6320257
3.8170874 11.723682 -0.68867493
4.3106842 13.239699 0
9.0634546 27.83721 1.6352191
3.7981086 11.71345 -0.68780386
4.2818398 13.205289 0
9.0354204 27.865437 1.6362346
3.7783654 11.700729 -0.68678826
4.2554851 13.17826 0
9.0033426 27.881285 1.6365253
3.7705884 11.725076 -0.68794942
4.2395587 13.183393 0
8.9783945 27.919346 1.6381214
3.7492864 11.707354 -0.6866433
4.2244191 13.190982 0
8.9676352 28.001936 1.6423303
3.7319796 11.701973 -0.68606269
4.1823864 13.114266 0
8.9685326 28.121677 1.6487163
3.7194088 11.711422 -0.68635273
4.1633863 13.109388 0
8.9384785 28.144875 1.649442
3.7005556 11.701048 -0.68548214
4.1412649 13.094559 0
0 0 0
3.6856315 11.703025 -0.68533659
4.1270018 13.104512 0
0 0 0
3.6730447 11.712433 -0.68562716
4.1329699 13.179021 0
11.769909 37.531338 2.1970246
3.6557915 11.706942 -0.68504661
4.1030803 13.139295 0
11.060025 35.417522 2.0725014
3.6416433 11.71135 -0.68504661
0 0 0
11.016452 35.428379 2.0723565
3.6251833 11.708293 -0.68461102
4.0643888 13.1268 0
10.959035 35.394512 2.0695992
3.6156285 11.727569 -0.68548214
0 0 0
10.921617 35.425102 2.0706146
3.5999286 11.726955 -0.68519163
4.0410538 13.163943 0
11.639788 37.917217 2.2154562
3.5857563 11.731297 -0.68519163
4.0122128 13.126509 0
10.785851 35.287399 2.0610363
0 0 -0
3.9925613 13.1189 0
0 0 0
0 0 -0
4.0058088 13.191036 0
10.721118 35.304394 2.0608907
0 0 -0
0 0 0
10.684468 35.337223 2.0620518
3.5368602 11.748842 -0.68533659
0 0 0
10.63727 35.335182 2.0611813
3.5204256 11.745647 -0.6849016
0 0 0
10.608739 35.395294 2.0639386
3.5062306 11.749892 -0.6849016
3.9271235 13.160366 0
10.558534 35.383194 2.0624874
3.4935093 11.759097 -0.68519163
0 0 0
10.527613 35.43578 2.0648096
3.484458 11.780754 -0.68620771
3.9012139 13.189783 0
10.45752 35.356281 2.0594397
3.4672847 11.774985 -0.68562716
0 0 0
14.088195 47.843864 2.7858253
3.4567084 11.791632 -0.68635273
3.8700593 13.201667 0
9.5270872 32.4991 1.8916674
3.4511936 11.825733 -0.68809438
0 0 0
9.4870815 32.508083 1.8915218
3.4470499 11.864823 -0.69012606
0 0 0
9.4390984 32.48959 1.8897806
3.4283807 11.854008 -0.68925554
3.8062732 13.160613 0
9.386838 32.456036 1.8871678
3.4169307 11.86813 -0.68983608
0 0 0
9.3418636 32.44738 1.8860067
3.4018726 11.869754 -0.68969107
0 0 0
9.2954922 32.43367 1.8845556
3.3882401 11.876352 -0.68983608
0 0 0
9.2534447 32.434883 1.883975
3.3738873 11.880438 -0.68983608
3.7461751 13.191371 0
9.2199259 32.466038 1.8851361
3.3538749 11.864502 -0.68867493
0 0 0
9.1729145 32.449646 1.8835396
3.343055 11.88105 -0.68940049
4.1851416 14.873783 0
9.1414413 32.488224 1.8851361
3.3244932 11.870072 -0.68852997
3.7123706 13.254985 0
9.0986757 32.486736 1.8844106
3.3129392 11.884093 -0.68911052
4.1673541 14.949028 0
9.0656939 32.520229 1.8857168
3.2992713 11.890589 -0.68925554
4.1353717 14.903898 0
9.0382032 32.573723 1.888184
3.2855926 11.897069 -0.68940049
3.6483634 13.210655 0
9.0140533 32.639721 1.8913767
3.2739697 11.911053 -0.68998104
0 0 0
8.9945803 32.723244 1.8955857
3.2616327 11.922521 -0.69041663
3.6226075 13.242023 0
8.9680595 32.781704 1.8983428
3.2506368 11.938987 -0.6911422
3.601135 13.226302 0
0 0 0
3.2441037 11.943454 -0.69128716
3.5938277 13.230994 0
0 0 0
3.2357721 11.969938 -0.69259328
3.5825901 13.252906 0
0 0 0
3.2267067 11.993913 -0.69375443
3.5692782 13.267278 0
12.100493 44.978451 2.6016529
3.2044041 12.026789 -0.69520611
3.5412276 13.290957 0
11.882054 44.595798 2.5778511
3.1958625 12.053255 -0.69651222
3.5218313 13.282651 0
11.81351 44.554871 2.5746582
3.1852725 12.072178 -0.69738275
3.5150733 13.322122 0
11.785518 44.667091 2.5803182
3.1753032 12.093613 -0.69839889
3.4831116 13.265946 0
11.705145 44.58078 2.5745132
3.1652842 12.115032 -0.69941443
3.4756315 13.302877 0
11.647326 44.5798 2.5736423
3.1571825 12.144001 -0.7008661
3.4608657 13.312109 0
0 0 0
3.1477127 12.167932 -0.7020272
3.4389129 13.293608 0
12.772703 49.374706 2.8486671
3.1427219 12.209466 -0.7042039
3.4286857 13.320434 0
14.061537 54.629032 3.1508322
3.1318362 12.228362 -0.70507503
3.4061298 13.299351 0
13.992295 54.6334 3.1501067
3.1241145 12.259828 -0.70667112
3.3868451 13.29085 0
13.916005 54.609978 3.1477845
3.1150455 12.286261 -0.70797724
3.3669467 13.279801 0
13.846176 54.611633 3.1469133
3.1078243 12.32025 -0.70971894
3.3502598 13.281329 0
13.776366 54.613213 3.1460426
3.1036875 12.366838 -0.71218616
3.3361106 13.292943 0
13.685066 54.529007 3.1402371
3.0975561 12.405879 -0.71421838
3.3288739 13.332318 0
9.8715105 39.535931 2.2761216
3.088201 12.432306 -0.71552449
3.3127618 13.336331 0
9.8268633 39.560436 2.2768471
3.0887606 12.499091 -0.71915287
3.2972689 13.342849 0
9.7790556 39.572281 2.2768471
3.0922642 12.578508 -0.72350675
3.2805235 13.344297 0
9.7560453 39.685001 2.2826526
3.0894063 12.632708 -0.72640896
3.2699606 13.371001 0
9.706851 39.691708 2.2823622
3.090111 12.702081 -0.73018289
3.2581065 13.392637 0
9.6668692 39.736229 2.2842488
3.0953026 12.756972 -0.73323071
3.2635164 13.450249 0
9.6514397 39.77742 2.2862811
3.089638 12.801107 -0.73555237
3.2588615 13.502242 0
9.6149511 39.837036 2.2890382
3.086906 12.857889 -0.73860013
3.2522652 13.546659 0
9.5498257 39.777889 2.2849751
3.0804212 12.899523 -0.74077737
3.2449598 13.588541 0
9.5029612 39.794449 2.285265
3.0768423 12.953797 -0.74368018
3.2435732 13.655751 0
9.7070618 40.867649 2.3462203
3.07672 13.023251 -0.74745351
3.2444227 13.733109 0
6.2405353 26.415163 1.5160658
3.0693018 13.062367 -0.74948519
3.2504468 13.833287 0
6.1973195 26.37462 1.513308
3.0653427 13.116673 -0.752388
3.2443888 13.882815 0
6.1577597 26.349197 1.5114214
3.0600791 13.165919 -0.75500023
3.2393954 13.937425 0
6.1182709 26.323719 1.5095347
3.0558724 13.220242 -0.75790298
3.2436526 14.032611 0
6.0835338 26.318436 1.5088092
3.0544491 13.287231 -0.76153135
3.2354386 14.074558 0
6.0383387 26.267521 1.5054709
3.0488143 13.336504 -0.76414359
3.2277098 14.11905 0
6.0071735 26.277328 1.5056158
3.0442181 13.390854 -0.76704639
3.2291064 14.204138 0
5.9713879 26.266838 1.5046003
3.0383477 13.440139 -0.76965863
3.2400596 14.332411 0
5.9511042 26.324724 1.507503
3.0335038 13.494504 -0.77256137
3.2301588 14.369322 0
5.9181509 26.32682 1.5072125
3.0273979 13.5438 -0.7751736
3.2275536 14.439245 0
5.8897357 26.349161 1.5080831
3.0279427 13.62354 -0.77952754
3.2219613 14.496482 0
5.8539486 26.338511 1.5070676
3.0215707 13.672853 -0.78213978
3.2179208 14.561354 0
5.8215594 26.343031 1.5069225
3.0178738 13.734869 -0.78547812
3.2165201 14.638943 0
5.7936263 26.367804 1.507938
3.0162475 13.80704 -0.78939646
3.2121577 14.70383 0
5.7745175 26.433174 1.5112764
3.0133493 13.874153 -0.79302478
3.2048841 14.756023 0
5.7304397 26.384264 1.5080831
3.0102932 13.941279 -0.79665315
5.6872902 26.338997 0
5.7133636 26.459749 1.512002
3.0139008 13.998976 -0.79984593
5.6642561 26.309355 0
5.6831589 26.397154 1.5082287
3.0122108 14.073753 -0.80390984
5.5779963 26.061703 0
5.6365747 26.335396 1.5043098
3.0081794 14.13837 -0.80739266
5.5589571 26.126965 0
5.5863647 26.255779 1.4993752
3.0099132 14.230974 -0.81247264
5.514461 26.072563 0
5.5282912 26.137953 1.4922642
3.0039423 14.287998 -0.81552047
5.4856305 26.09194 0
5.4908233 26.11664 1.4906675
3.0036831 14.373 -0.82016432
5.451438 26.085814 0
5.4470387 26.064762 1.4873296
3.001111 14.447855 -0.82422823
5.4151511 26.06945 0
5.3959875 25.977194 1.4819596
2.9973106 14.51763 -0.82800162
5.3778586 26.047937 0
5.3514609 25.920078 1.4783313
2.9886458 14.56451 -0.83046883
5.3453336 26.049313 0
5.3331952 25.990158 1.4819596
2.9798717 14.611391 -0.83293605
5.3102155 26.037909 0
5.3168449 26.070417 1.4861685
2.981828 14.71175 -0.83845109
5.2611737 25.95759 0
5.2832751 26.066635 1.485588
3.034853 15.066853 -0.8584795
5.2416229 26.0226 0
5.2681918 26.154503 1.4902319
3.0309238 15.141841 -0.86254287
5.2214127 26.085051 0
5.2370968 26.163404 1.4903774
3.0126257 15.145492 -0.86254287
5.1609526 25.94586 0
5.164927 25.965841 1.4787668
2.9933164 15.144028 -0.86225283
5.1406994 26.008242 0
5.1365709 25.987354 1.4796374
2.9720099 15.13233 -0.86138171
5.085197 25.891865 0
0 0 0
2.9537234 15.13591 -0.86138171
5.0284877 25.767729 0
0 0 0
5.0062647 25.819769 0
0 0 0
4.9745712 25.823246 0
5.3269434 27.65243 1.5729572
4.9409194 25.81646 0
5.2989006 27.686922 1.5745538
4.9481215 26.024372 0
0 0 0
4.9099112 25.994535 0
0 0 0
4.865674 26.106096 0
0 0 0
0 0 0
5.0932317 27.418983 1.5577183
0 0 0
5.0992284 27.637201 1.5697644
0 0 0
5.0695777 27.66379 1.5709256
9.9557438 54.699429 0
5.0612726 27.80794 1.5787628
9.8864021 54.693489 0
5.0258198 27.803806 1.5781822
5.2369466 29.173138 0
5.214879 29.050207 1.6485708
5.1911888 29.120523 0
5.1843348 29.082073 1.6500225
5.1541843 29.116524 0
5.1451149 29.06529 1.6487163
5.1158447 29.104786 0
5.103693 29.035652 1.6466842
5.0811219 29.113518 0
3.4675405 19.868111 1.1265316
5.0459404 29.119635 0
3.445749 19.885086 1.1272571
5.0147223 29.148792 0
3.4181948 19.868748 1.126096
0 0 -0
4.9672298 29.083 0
3.3981216 19.895914 1.1274022
0 0 -0
4.9377403 29.122335 0
3.355402 19.78985 1.1211616
0 0 -0
3.9596539 23.526115 0
3.3267429 19.765701 1.1195649
0 0 -0
3.9132135 23.423077 0
3.303287 19.772278 1.1197104
0 0 -0
3.9040666 23.54332 0
3.2789674 19.773684 1.1195649
0 0 -0
3.8773067 23.558292 0
0 0 0
0 0 -0
0 0 0
2.3515575 14.396461 0.81478816
0 0 -0
0 0 0
2.3354065 14.40698 0.81522322
0 0 -0
0 0 0
2.3151093 14.39184 0.81420761
0 0 -0
0 0 0
3.3380158 20.911835 1.1828424
0 0 -0
5.2464695 33.124905 0
3.3107135 20.903023 1.1821169
5.0040388 31.843235 0
3.2777908 20.858244 1.1793596
4.9876175 31.864254 0
0 0 0
4.9590955 31.934546 0
4.9624166 31.955933 1.8063297
4.9240713 31.963661 0
4.9238005 31.961905 1.8063297
4.8870182 31.979879 0
4.8863535 31.975529 1.8067647
4.852273 32.011486 0
4.8414831 31.940304 1.8044425
4.8066258 31.971006 0
4.8025002 31.943563 1.8042976
4.7699103 31.98966 0
4.7577677 31.908222 1.8019753
4.8625889 32.88356 0
4.7283316 31.975641 1.8054587
4.8171878 32.850784 0
4.6795139 31.911922 1.8015403
4.7763681 32.848866 0
4.6540365 32.007545 1.8066198
4.7348151 32.841724 0
4.6131344 31.997719 1.8057492
4.6925521 32.829395 0
4.580718 32.046997 1.8082165
4.6590881 32.878845 0
4.5427208 32.057648 1.8085065
4.6273208 32.941143 0
0 0 0
4.6194558 33.176105 0
2.7703187 19.895933 1.1220322
4.6007118 33.336338 0
2.0749035 15.03456 0.84773278
4.7067828 34.411888 0
2.0570889 15.039639 0.84787834
4.6679959 34.438183 0
2.0392635 15.044685 0.8480233
4.6225705 34.415432 0
2.0214291 15.049711 0.84816831
4.5789223 34.40551 0
2.0029004 15.04957 0.8480233
4.5458517 34.475521 0
1.981997 15.03137 0.8468622
4.5085731 34.51453 0
2.6191032 20.050051 1.1294339
4.4782205 34.607704 0
2.5962086 20.063509 1.1300144
0 0 -0
4.4380546 34.625992 0
2.5779107 20.113029 1.1326271
0 0 -0
4.3994908 34.657154 0
2.5545869 20.123856 1.1330622
0 0 0
2.5394979 20.102196 1.1317561
0 0 -0
0 0 0
2.6671236 21.319595 1.2001135
0 0 0
2.6352913 21.273804 1.1973557
0 0 0
2.6057882 21.246023 1.1956141
0 0 -0
0 0 0
2.5782361 21.233685 1.1947435
0 0 -0
0 0 0
2.5507164 21.2213 1.1938725
0 0 -0
6.8845587 57.867798 0
2.5229247 21.206312 1.1928569
6.8088503 57.826977 0
2.5006406 21.237724 1.194453
6.73596 57.809303 0
2.4710679 21.20718 1.1925663
0 0 -0
6.6690855 57.843262 0
2.4427631 21.18692 1.1912602
0 0 -0
4.7814527 41.916237 0
2.417161 21.189857 1.1912602
4.7252574 41.872856 0
2.3866024 21.14887 1.1887929
4.6723495 41.857845 0
2.3743057 21.270525 1.1954691
4.5717459 41.874184 0
2.326844 21.312359 1.1975008
4.5233808 41.900375 0
2.3013701 21.317745 1.1976464
4.476892 41.94463 0
2.2717488 21.284332 1.1956141
4.4335794 42.019882 0
2.2449386 21.276726 1.1950336
4.3790245 41.988972 0
2.2186897 21.274258 1.1947435
6.7503748 65.494011 0
2.1921828 21.269167 1.1943079
6.6743965 65.53318 0
2.2488852 22.080887 1.2397343
6.598856 65.577454 0
2.2380724 22.241295 1.2485876
6.5167813 65.556892 0
2.2145379 22.277596 1.2504743
6.4804997 65.594482 0
2.1975012 22.242722 1.2484421
6.3971934 65.560822 0
2.163811 22.175541 1.2445238
6.3194695 65.584053 0
2.1352696 22.160032 1.2435076
0 0 0
2.1089847 22.167774 1.2437981
0 0 0
2.0834124 22.183239 1.2445238
0 0 0
2.055887 22.177977 1.2440882
0 0 0
2.0269575 22.157158 1.242782
0 0 0
1.9997168 22.154419 1.2424921
0 0 0
1.9678754 22.099874 1.2392987
0 0 0
1.9441266 22.135893 1.2411859
0 0 0
3.1459897 36.323887 2.036509
0 0 0
3.1036439 36.345776 2.0375245
0 0 0
3.0605967 36.359859 2.038105
0 0 0
1.8757827 22.611122 1.2673094
0 0 0
1.8497308 22.628916 1.2681805
0 0 0
1.8232203 22.641483 1.2687604
0 0 -0
0 0 0
1.7975047 22.664392 1.2699217
0 0 -0
0 0 0
2.803853 35.903641 2.0115461
0 0 -0
0 0 0
2.7634563 35.945866 2.0137234
0 0 -0
0 0 0
2.717864 35.920673 2.0121267
4.4314518 59.524254 0
2.6792817 35.988712 2.0157549
4.3545828 59.462074 0
2.6348457 35.97897 2.0150294
4.2836666 59.480278 0
2.5932364 36.008038 2.0164807
4.2252102 59.674908 0
2.5502765 36.018925 2.016916
0 0 -0
2.5811689 36.770546 0
2.5246942 35.966026 2.0138683
2.5360205 36.763252 0
2.4830225 35.994968 2.0153193
0 0 -0
2.4886062 36.722153 0
2.4397032 36.000534 2.0154645
0 0 -0
2.4445782 36.73032 0
2.3965473 36.008644 2.0157549
0 0 -0
2.3976502 36.694302 0
2.3503253 35.970028 2.0134327
0 0 -0
2.3061793 35.962212 0
2.3050315 35.944313 2.0118361
0 0 -0
2.2591295 35.907833 0
2.2612722 35.941891 2.0115461
0 0 -0
2.2168617 35.928715 0
2.2151215 35.900509 2.009079
0 0 -0
2.1734471 35.931366 0
2.1667206 35.820164 2.0044343
0 0 -0
2.1312616 35.95475 0
2.1242065 35.835732 2.0051606
0 0 -0
2.0953581 36.0872 0
2.082109 35.859013 2.0063212
0 0 -0
2.0709548 36.427467 0
2.0373042 35.835567 2.0048699
0 0 -0
2.0184081 36.276642 0
1.9970337 35.892483 2.0079179
0 0 -0
1.9694817 36.185501 0
1.2730289 23.3895 1.3083818
0 0 -0
1.9245126 36.164471 0
1.2446284 23.388428 1.3082367
0 0 -0
1.8791916 36.135582 0
1.2163671 23.389915 1.3082367
0 0 -0
1.8364516 36.156021 0
1.1886313 23.401749 1.3088173
0 0 -0
1.7919893 36.142612 0
1.1618981 23.434311 1.310559
0 0 -0
1.7756003 36.708813 0
1.1348367 23.461647 1.31201
0 0 -0
1.7344308 36.778515 0
1.1078336 23.491554 1.3136067
0 0 -0
1.6924983 36.835178 0
1.0796862 23.498062 1.3138968
0 0 -0
1.6478727 36.834599 0
1.0518731 23.512327 1.3146223
0 0 -0
1.606759 36.914558 0
1.0243663 23.534348 1.3157835
0 0 -0
1.5627038 36.92947 0
0.99581903 23.532976 1.3156384
0 0 -0
1.5362713 36.831604 0
0.98073506 23.512802 1.3144773
0 0 -0
1.4910291 36.815228 0
0.9519031 23.503586 1.3138968
0 0 -0
1.4473614 36.837807 0
1.4172283 36.070869 2.0163355
0 0 -0
1.4058198 36.917542 0
1.3727529 36.049191 2.0150294
0 0 -0
1.3622661 36.947826 0
1.3297678 36.066399 2.0159001
0 0 -0
1.3185481 36.975449 0
1.2854468 36.047203 2.0147388
0 0 -0
0 0 0
0.72753131 21.886816 1.2231892
0 0 -0
2.2313435 69.661942 0
0.70150071 21.900663 1.2239147
0 0 -0
2.149334 69.734825 0
0.67479759 21.893711 1.2234797
0 0 -0
2.064301 69.711349 0
0.64834285 21.89451 1.2234797
0 0 -0
0 0 0
0.62063307 21.851124 1.2210125
0 0 -0
1.9038239 70.010101 0
0.59083933 21.727179 1.2140459
0 0 -0
1.82342 70.173645 0
0.56242621 21.644764 1.209402
0 0 -0
0 0 0
0.53755927 21.697371 1.2123041
0 0 -0
0 0 0
0.51170927 21.713596 1.2131753
0 0 -0
1.7592428 78.687393 0
0.48413634 21.654446 1.209837
0 0 -0
0 0 0
0.45747641 21.631638 1.2085308
0 0 -0
0 0 0
0.43159762 21.645172 1.2092569
0 0 -0
0 0 0
0.40627056 21.68984 1.2117242
0 0 -0
0 0 0
0.64262885 36.675095 2.0488451
0 0 -0
0 0 0
0.5984832 36.686237 2.0494256
0 0 -0
0 0 0
0.55462557 36.718109 2.0511675
0 0 -0
0 0 0
0.51112491 36.781101 2.0546501
0 0 -0
0 0 0
0.48928335 36.809986 2.0562468
0 0 -0
0 0 0
0.44537041 36.857315 2.0588591
0 0 -0
0 0 0
0.40128732 36.899399 2.0611813
0 0 -0
0 0 0
0.35702783 36.933632 2.0630679
0 0 -0
0.67979389 80.369698 0
0.31248838 36.944431 2.0636485
0 0 -0
0 0 0
0.26782921 36.942184 2.0635035
0 0 -0
0 0 0
0.13617933 22.540283 1.2590371
0 0 -0
0.38928691 80.543388 0
0.10913204 22.579401 1.2612138
0 0 -0
0 0 0
0.081971616 22.613293 1.2631005
0 0 -0
0.19431701 80.408775 0
0.0546855 22.628971 1.2639716
0 0 -0
0 0 0
0.027355328 22.639414 1.2645521
-0 0 -0
-0 0 0
-0 22.629038 1.2639716
-0 0 -0
-0 0 0
-0.044761024 37.04446 2.0691636
-0 0 -0
-0.21630926 89.509216 0
-0.052475233 21.714359 1.2128847
-0 0 -0
-0 0 0
-0.078788109 21.735067 1.2140459
-0 0 -0
-0 0 0
-0.10492507 21.708977 1.2125947
-0 0 -0
-0 0 0
-0.2256875 37.355598 2.0865791
-0 0 -0
-0 0 0
-0.27176616 37.485214 2.0938358
-0 0 -0
-0 0 0
-0.31732324 37.516037 2.0955775
-0 0 -0
-0 0 0
-0.36260355 37.510426 2.0952871
-0 0 -0
-0 0 0
-0.40792727 37.50996 2.0952871
-0 0 -0
-0 0 0
-0.4512727 37.345768 2.0861442
-0 0 -0
-1.2036753 90.555443 0
-0.49429077 37.186707 2.0772908
-0 0 -0
-0 0 0
-0.53937393 37.196472 2.0778713
-0 0 -0
-0 0 0
-0.58448148 37.206188 2.0784519
-0 0 -0
-0 0 0
-0.62992102 37.234035 2.0800486
-0 0 -0
-0 0 0
-0.65177852 37.197269 2.0780163
-0 0 -0
-0 0 0
-0.40466475 21.604109 1.2069347
-0 0 -0
-0 0 0
-0.42973277 21.551645 1.2040319
-0 0 -0
-0 0 0
-0.45549875 21.538124 1.2033063
-0 0 -0
-0 0 0
-0.48158106 21.540154 1.2034514
-0 0 -0
-0 0 0
-0.50650597 21.492802 1.2008392
-0 0 -0
-0 0 0
-0.5324111 21.489578 1.2006941
-0 0 -0
-0 0 0
-0.98715878 37.99044 2.1227171
-0 0 -0
-0 0 0
-0.5618099 20.659668 1.1543968
-0 0 -0
-0 0 0
-0.58677268 20.658974 1.1543968
-0 0 -0
-0 0 0
-0.6105811 20.619297 1.15222
-0 0 -0
-0 0 0
-0.63453448 20.587378 1.1504784
-0 0 -0
-0 0 0
-1.2575029 39.2589 2.1939769
-0 0 -0
-0 0 0
-1.3024353 39.182041 2.1897678
-0 0 -0
-0 0 0
-0.71327281 20.704395 1.1571546
-0 0 -0
-0 0 0
-0.73995614 20.750256 1.1597668
-0 0 -0
-0 0 0
-0.76474094 20.741554 1.1593312
-0 0 -0
-0 0 0
-0.78950578 20.732822 1.1588956
-0 0 -0
-0 0 0
-0.81414866 20.721468 1.1583151
-0 0 -0
-0 0 0
-0.83876532 20.710083 1.1577345
-0 0 -0
-0 0 0
-1.0653006 24.819944 1.3876237
-0 0 -0
-0 0 0
-1.0939151 24.787489 1.385882
-0 0 -0
-0 0 0
-1.1232768 24.773172 1.3851565
-0 0 -0
-0 0 0
-1.1518806 24.743252 1.3835604
-0 0 -0
-0 0 0
-1.1665841 24.737356 1.3832698
-0 0 -0
-0 0 0
-1.1998627 24.805998 1.3871882
-0 0 -0
-0 0 0
-1.2327948 24.864223 1.3905265
-0 0 -0
-0 0 0
-1.2637602 24.880882 1.3915427
-0 0 -0
-2.9366097 56.469013 0
-1.2935528 24.874144 1.391252
-0 0 -0
-3.006222 56.491409 0
-2.1085663 39.623116 2.2163274
-0 0 -0
-3.0727813 56.456551 0
-2.1536174 39.568645 2.2134247
-0 0 -0
-0 0 0
-2.2525251 40.484402 2.2648015
-0 0 -0
-3.2037408 56.352837 0
-2.3011456 40.476456 2.2645109
-0 0 -0
-3.2709246 56.333328 0
-2.3495998 40.465862 2.2640755
-0 0 -0
-3.3385279 56.321541 0
-2.3948038 40.400749 2.2605927
-0 0 -0
-3.4054794 56.299286 0
-2.4338915 40.237022 2.2515943
-0 0 -0
-3.473824 56.30032 0
-2.480588 40.20293 2.2498527
-0 0 -0
-3.5449543 56.345436 0
-2.5275323 40.173973 2.2484014
-0 0 -0
-3.610702 56.304745 0
-2.5782344 40.204597 2.2502882
-0 0 -0
-3.677376 56.279575 0
-2.6220679 40.128853 2.2462242
-0 0 -0
-3.8271182 57.503284 0
-0.99096662 14.889489 0.83350992
-0 0 -0
-3.8973007 57.509003 0
-1.008606 14.883101 0.83321995
-0 0 -0
-3.9701893 57.553585 0
-1.0267671 14.884461 0.8333649
-0 0 -0
-4.0404577 57.559132 0
-1.0451149 14.888389 0.83365494
-0 0 -0
-4.1124134 57.587952 0
-1.0649551 14.913039 0.83510661
-0 0 -0
-0 0 0
-1.0903138 15.012807 0.84076661
-0 0 -0
-3.9135199 52.999737 0
-1.1206987 15.177318 0.85005498
-0 0 -0
-3.9457321 52.999958 0
-1.6213902 21.778877 1.2198514
-0 0 -0
-4.0125179 53.031479 0
-1.1534977 15.245213 0.85397333
-0 0 -0
-4.0799842 53.070702 0
-1.1743078 15.274898 0.85571504
-0 0 -0
-4.1455255 53.083897 0
-1.19418 15.291604 0.85673112
-0 0 -0
-4.2131615 53.122952 0
-1.7336175 21.858852 1.2247859
-0 0 -0
-4.2808981 53.161919 0
-1.1593875 14.39774 0.80680597
-0 0 -0
-4.3506432 53.22414 0
-1.179323 14.427397 0.80854708
-0 0 -0
-4.4194689 53.273308 0
-1.1963255 14.420787 0.80825704
-0 0 -0
-4.4858007 53.291267 0
-1.2126598 14.406387 0.80753148
-0 0 -0
-4.5504107 53.288399 0
-1.8249683 21.371618 1.1980814
-0 0 -0
-4.6179399 53.319164 0
-1.8507904 21.369398 1.1980814
-4.686233 53.357616 0
-1.8759284 21.359388 1.1976464
-0 0 -0
-4.766397 53.528179 0
-1.9015046 21.354509 1.1975008
-0 0 -0
-4.8451085 53.677887 0
-1.9261382 21.33926 1.1967752
-0 0 -0
-4.9125724 53.700504 0
-1.300501 14.216086 0.79737198
-0 0 -0
-4.9810581 53.733395 0
-1.319117 14.230034 0.79824311
-0 0 -0
-5.0506048 53.776569 0
-1.3348519 14.212902 0.79737198
-0 0 -0
-5.1155796 53.770428 0
-1.3498098 14.188001 0.79606587
-0 0 -0
-4.3236713 44.871475 0
-1.4402207 14.946747 0.83873492
-0 0 -0
-4.3806663 44.894703 0
-1.4597934 14.960507 0.83960551
-4.4343982 44.884201 0
-0 0 0
-4.4886289 44.878811 0
-1.4956845 14.954353 0.83946049
-4.5467839 44.912186 0
-1.5150611 14.965459 0.84018606
-4.6060886 44.955853 0
-1.5328783 14.961035 0.84004104
-4.6566486 44.914017 0
-1.5504183 14.953998 0.83975053
-4.7076569 44.877296 0
-2.1317856 20.321953 1.141335
-0 0 -0
-4.7331295 44.85891 0
-2.1527867 20.403343 1.1459789
-0 0 -0
-4.7953391 44.928204 0
-2.2632005 21.204243 1.1911151
-0 0 -0
-4.8627505 45.04398 0
-2.2910514 21.22216 1.1922764
-0 0 -0
-4.9338379 45.190704 0
-2.3183839 21.234871 1.1931468
-0 0 -0
-5.0124264 45.401989 0
-2.2043295 19.966566 1.1220322
-5.0681486 45.40366 0
-1.8202989 16.307383 0.91652524
-5.1057887 45.244934 0
-1.8417507 16.320669 0.91739637
-5.0881934 44.605259 0
-1.7207063 15.08444 0.8480233
-5.1286731 44.482738 0
-1.7410141 15.100412 0.8490389
-5.1766963 44.427402 0
-2.3204069 19.914177 1.1198555
-5.2865043 44.435436 0
-2.0572691 17.292269 0.9726916
-5.348887 44.501354 0
-2.0797122 17.302668 0.9734171
-2.2347958 18.405199 0
-2.1021833 17.313036 0.97414267
-2.2563992 18.397314 0
-2.3211102 18.924931 1.0649953
-2.2760675 18.373913 0
-2.3426979 18.911798 1.0644147
-2.2976215 18.36599 0
-2.3661931 18.914114 1.0647053
-2.318507 18.352873 0
-2.3877428 18.90093 1.0641247
-2.3387046 18.334562 0
-2.2244952 17.439203 0.98197997
-2.3581986 18.311085 0
-2.228308 17.3025 0.97443324
-2.3793154 18.300476 0
-2.2485423 17.294638 0.97414267
-2.4068446 18.338873 0
-2.1095114 16.073353 0.90549523
-2.428659 18.333364 0
-2.1330261 16.101704 0.90723687
-5.9467778 44.477924 0
-2.1535139 16.106844 0.90767246
-5.9952974 44.432026 0
-2.172627 16.101658 0.90752745
-6.0577569 44.489204 0
-2.1910291 16.091293 0.90709186
-6.150229 44.965111 0
-2.1866665 15.986998 0.90128684
-6.2066917 44.973122 0
-2.1867995 15.84535 0.8934496
-6.2599511 44.957851 0
-2.1966276 15.775786 0.88967627
-3.0547647 21.746372 0
-2.2171338 15.783414 0.89025682
-3.0689909 21.657646 0
-2.2467742 15.855321 0.89446515
-3.0929475 21.638458 0
-2.2736514 15.90661 0.89751297
-3.1138928 21.598648 0
-2.2950952 15.919288 0.89838409
-3.1399882 21.59487 0
-2.4631307 16.939869 0.95614654
-3.1657019 21.588488 0
-2.4926455 16.998583 0.95962983
-3.1864545 21.548599 0
-2.5196447 17.039255 0.96209711
-0 0 -0
-3.2044299 21.490681 0
-2.3773737 15.943984 0.90041572
-3.2296216 21.481651 0
-2.4055228 16.000202 0.90375412
-3.2512851 21.449427 0
-2.4349785 16.064075 0.90752745
-2.936367 19.215124 0
-2.2075005 14.445535 0.8162393
-2.958395 19.203852 0
-2.2273264 14.458261 0.81710988
-2.9811964 19.197685 0
-2.2455931 14.4607 0.8174004
-3.001977 19.178646 0
-2.2618585 14.450272 0.81696486
-3.0263655 19.18272 0
-2.2789125 14.444963 0.81681985
-3.0495417 19.179049 0
-2.2975893 14.449901 0.81725544
-3.0727136 19.17535 0
-2.3117583 14.426588 0.81609428
-3.0946362 19.163914 0
-3.0387409 18.817776 1.0647053
-3.1140282 19.137045 0
-2.3470318 14.423522 0.8162393
-3.1320963 19.102449 0
-2.3627765 14.410419 0.81565875
-3.1449049 19.108259 0
-2.3761244 14.437195 0.81725544
-3.1692669 19.112141 0
-2.4007931 14.477889 0.81972265
-0 0 -0
-3.1915011 19.103168 0
-2.426847 14.526226 0.82262486
-0 0 -0
-3.2176054 19.117266 0
-2.4456916 14.530972 0.82306045
-0 0 -0
-3.2407024 19.113363 0
-2.4615102 14.517759 0.8224799
-0 0 -0
-3.2659853 19.122257 0
-2.4541168 14.36879 0.81420761
-0 0 -0
-3.295265 19.1542 0
-2.4516521 14.250579 0.80767649
-0 0 -0
-3.3188505 19.152767 0
-2.4648767 14.224566 0.80637038
-0 0 -0
-3.3464658 19.174385 0
-2.4811683 14.216453 0.8060798
-0 0 -0
-3.3804431 19.231834 0
-2.4978948 14.210888 0.80593485
-0 0 -0
-3.4095755 19.261047 0
-2.5177824 14.223216 0.80680597
-0 0 -0
-3.4438078 19.318405 0
-2.5887749 14.522007 0.82393157
-0 0 -0
-3.4699061 19.329594 0
-2.6334047 14.669747 0.83249384
-0 0 -0
-3.4983521 19.353559 0
-2.6469691 14.643544 0.83118773
-2.7842574 15.297429 -0.86849344
-2.8115573 15.447421 0
-2.657218 14.599442 0.828866
-2.7966509 15.26083 -0.86660677
-2.8349106 15.469606 0
-2.6711097 14.575773 0.82770491
-2.8174455 15.270213 -0.86733228
-2.8531289 15.463614 0
-2.6882467 14.569972 0.82755935
-2.8316238 15.243808 -0.86602616
-2.8699102 15.44992 0
-2.7067997 14.571828 0.82784992
-0 0 -0
-2.8861849 15.433652 0
-2.7215383 14.553217 0.8269788
-0 0 -0
-2.9029055 15.419923 0
-2.7372 14.539713 0.82639879
-0 0 -0
-2.9200811 15.408731 0
-3.0774539 16.239157 0.92320138
-0 0 -0
-2.9338217 15.379632 0
-3.0995073 16.248186 0.92392695
-0 0 -0
-2.9568191 15.399076 0
-3.1225684 16.262295 0.92494303
-0 0 -0
-2.9739418 15.387824 0
-3.1446807 16.271263 0.9256686
-2.848387 14.690532 -0.83583885
-2.9802666 15.3707 0
-3.1614358 16.305079 0.92770082
-2.880374 14.665754 -0.83482271
-3.0163987 15.35834 0
-3.2163522 16.376427 0.93219978
-2.8960772 14.652067 -0.83424217
-3.0324314 15.341921 0
-3.234122 16.362331 0.93161917
-2.5994987 13.068563 -0.74426073
-5.0893679 25.585981 0
-3.8865089 19.538799 1.1127437
-2.6142666 13.060311 -0.74397016
-5.1172142 25.564497 0
-3.7504897 18.736635 1.0673175
-2.6320977 13.067331 -0.7445507
-4.010407 19.910095 0
-3.7649171 18.691334 1.0649953
-2.6468539 13.059053 -0.74426073
-4.022573 19.846579 0
-3.7911127 18.704601 1.0660114
-2.6636686 13.060933 -0.7445507
-3.9747863 19.489817 0
-3.841749 18.837488 1.0738486
-2.6773591 13.047523 -0.74397016
-3.9821174 19.405977 0
-3.8645077 18.832832 1.0738486
-2.6941743 13.049373 -0.74426073
-4.0003014 19.375668 0
-3.3886852 16.413273 0.93611813
-2.7109959 13.051191 -0.7445507
-4.0189471 19.347889 0
-3.4227843 16.477859 0.94003701
-2.7257016 13.042824 -0.74426073
-7.0686994 33.824612 0
-3.4724565 16.616138 0.94816428
-2.7403891 13.034431 -0.74397016
-4.0501642 19.264265 0
-3.5117753 16.703465 0.95338875
-2.7561367 13.03111 -0.74397016
-4.0680523 19.233891 0
-3.5448601 16.760221 0.95687205
-2.7772868 13.053181 -0.74542129
-4.0902076 19.223875 0
-3.5753839 16.804218 0.95962983
-2.7936025 13.052363 -0.74556684
-4.1117983 19.211283 0
-3.597316 16.807501 0.96006483
