# .PCD v0.7 - Point Cloud Data file format
VERSION 0.7
FIELDS x y z
SIZE 4 4 4
TYPE F F F
COUNT 1 1 1
WIDTH 1622
HEIGHT 1
VIEWPOINT 0 0 0 1 0 0 0
POINTS 1622
DATA ascii
-5.8925905 7.7211437 0.54252046
-6.3740592 8.3311272 -0.58592123
-6.0476041 7.9044375 0
-5.9050708 7.7181416 0.5428105
-6.3698897 8.3048649 -0.58461511
-6.0698214 7.9136448 0
-5.915978 7.7130685 0.54295605
-6.3733249 8.2989559 -0.58447009
-6.0872827 7.9264889 0
-5.9269676 7.7177362 0.5435366
-6.3674994 8.2706633 -0.58301902
-6.1016202 7.9253163 0
-5.9346991 7.7085042 0.54339105
-6.3647871 8.2465076 -0.58185786
-6.1334505 7.9467769 0
-5.945601 7.7033906 0.5435366
-6.3620257 8.2223701 -0.58069676
-6.2194872 8.0381508 0
-5.9549046 7.6962008 0.5435366
-6.3560333 8.194149 -0.57924563
-6.1925125 7.9833388 0
-5.9849019 7.7156892 0.54542327
-6.3595495 8.1782579 -0.57866508
-6.111094 7.8587489 0
-5.9974079 7.7125506 0.54571325
-6.359838 8.158268 -0.57779396
-6.0885906 7.810317 0
-6.0035305 7.7012033 0.54542327
-6.3600941 8.1382971 -0.57692343
-6.0852032 7.7865496 0
-6.0128312 7.693944 0.54542327
-6.3587036 8.1162853 -0.57590729
-6.1090508 7.797627 0
-6.0429549 7.7132621 0.54730994
-6.3620863 8.1004219 -0.57532674
-6.1570477 7.8393607 0
-6.0795536 7.7406921 0.54977715
-6.3654394 8.0845633 -0.57474619
-6.179389 7.8482656 0
-6.1097975 7.7598791 0.55166388
-6.3623242 8.0605488 -0.57358509
-6.1533976 7.795855 0
-6.0901937 7.7157817 0.54905164
-6.3575492 8.0345173 -0.57227898
-6.1256747 7.7414804 0
-6.0575876 7.6554337 0.54527771
-6.3478746 8.0024014 -0.57053727
-6.1156158 7.7096062 0
-6.0474615 7.6236873 0.5435366
-6.3478384 7.9825263 -0.56966674
-6.1540809 7.7388721 0
-6.0421081 7.5980649 0.54222995
-6.3493819 7.9646931 -0.56894118
-6.1812739 7.7538176 0
-6.0448055 7.5826311 0.54164934
-6.3492646 7.9448323 -0.56807005
-6.2280025 7.793097 0
-6.0993853 7.6321583 0.54571325
-6.350738 7.9270172 -0.56734449
-6.2553153 7.8079095 0
-6.1865802 7.7221146 0.55267942
-6.3456693 7.9011059 -0.56603837
-6.2745199 7.8125162 0
-6.3293262 7.8807569 0.56458056
-6.3423014 7.8871479 -0.5653128
-6.267827 7.7945333 0
-6.3519936 7.8992004 0.56617665
-6.345304 7.871387 -0.56473225
-6.2560091 7.7606163 0
-6.3647981 7.8955693 0.56646723
-6.3417444 7.8475456 -0.56357116
-6.2375751 7.7186422 0
-6.4020967 7.9222283 0.56893444
-6.3430452 7.8297839 -0.56284559
-6.2305117 7.6908741 0
-6.3724089 7.8660297 0.56545115
-6.341033 7.8079925 -0.56182945
-6.3119888 7.7722292 0
-6.3524261 7.822021 0.56283891
-6.3406229 7.7882385 -0.56095892
-6.3608036 7.8130264 0
-6.3536716 7.804266 0.56211334
-6.340168 7.7684889 -0.5600878
-6.3866982 7.8255014 0
-6.3302374 7.7563214 0.55921054
-6.3363867 7.7447333 -0.5589267
-6.4159184 7.8419418 0
-6.2737951 7.6682296 0.55340552
-6.3375025 7.7270279 -0.55820113
-6.456748 7.8724184 0
-6.3028235 7.6847453 0.55514663
-6.336936 7.7073255 -0.55733055
-6.4811296 7.8827014 0
-6.4276195 7.8176193 0.56530613
-6.3330226 7.6836219 -0.55616945
-6.51548 7.9049907 0
-6.456893 7.833909 0.56704777
-6.3373356 7.6699524 -0.55573386
-6.5266829 7.8991165 0
-6.429945 7.7820363 0.56385499
-6.3366566 7.6502867 -0.55486333
-6.4963803 7.843122 0
-6.3713865 7.6922164 0.55790442
-6.3309579 7.6246343 -0.55355722
-6.3695345 7.6710939 0
-6.0951796 7.3406763 0.53294158
-6.3335166 7.6089902 -0.55297667
-6.3321805 7.6073852 0
-6.0242581 7.2374516 0.52597541
-6.3293881 7.585371 -0.55181557
-6.3096929 7.5617681 0
-6.0163541 7.2102199 0.52452427
-6.3318801 7.5697451 -0.55123496
-6.3972998 7.6479545 0
-6.0167212 7.1929736 0.52379817
-6.3326755 7.5521355 -0.55050945
-6.6122041 7.8854914 0
-6.0220723 7.1817203 0.52350819
-6.330091 7.5305524 -0.54949331
-6.6602378 7.9233103 0
-6.0290751 7.1724515 0.52336317
-6.3291421 7.5109801 -0.54862273
-6.6832228 7.9311776 0
-6.0410829 7.1691313 0.52365321
-6.3252959 7.4972191 -0.54789662
-6.6578088 7.8913383 0
-6.0638461 7.1873288 0.52524984
-6.3276448 7.4816422 -0.54731661
-6.6337271 7.8435459 0
-6.0943384 7.2057867 0.5271365
-6.3265948 7.4620953 -0.54644555
-6.6263728 7.8156776 0
-6.3601251 7.5016437 0.54934162
-6.3238258 7.4405837 -0.54542941
-6.5970459 7.7620535 0
-6.4465895 7.5850267 0.55601776
-6.3243871 7.4230494 -0.54470384
-6.6722455 7.8313375 0
-6.4928203 7.6207423 0.55921054
-6.3181658 7.3976216 -0.54339772
-6.7121234 7.8588867 0
-6.5307102 7.6464796 0.56167775
-6.3237228 7.3860378 -0.54310775
-6.7385373 7.8705363 0
-5.9755325 6.9793558 0.51320368
-6.3207951 7.3645868 -0.54209161
-6.7022829 7.8090725 0
-5.9653506 6.9504461 0.51160759
-6.3229103 7.3490653 -0.54151106
-6.659101 7.7398167 0
-5.9788241 6.9491367 0.51204258
-6.3199043 7.3276439 -0.54049492
-6.5494699 7.5938153 0
-5.9889116 6.9438734 0.5121876
-6.3219557 7.31214 -0.53991437
-6.4412031 7.4500647 0
-5.9955997 6.9346681 0.51204258
-6.3188787 7.2907562 -0.53889883
-6.4041777 7.3891745 0
-6.0039744 6.9274182 0.51204258
-6.315752 7.269383 -0.53788269
-6.373848 7.3362513 0
-6.0038214 6.9103527 0.51131701
-6.3142948 7.2499933 -0.53701216
-6.3861232 7.3324656 0
-6.0121665 6.9030933 0.51131701
-6.3076715 7.2247438 -0.53570604
-6.4086714 7.3404274 0
-6.0136676 6.8879943 0.51073647
-6.3112612 7.2112489 -0.53527045
-6.4141111 7.3287654 0
-6.0202761 6.8787694 0.51059145
-6.3165393 7.1997075 -0.53497994
-6.4195261 7.3170934 0
-6.0268717 6.8695388 0.51044649
-6.3132272 7.1784172 -0.53396434
-6.4386783 7.3210607 0
-6.0283036 6.8544464 0.50986594
-6.3038249 7.1590004 -0.53280324
-6.4499798 7.3249822 0
-6.0324435 6.8508034 0.50986594
-6.3038745 7.1416397 -0.53207767
-6.4588256 7.3171835 0
-6.0389924 6.8415556 0.50972033
-6.3038688 7.1069417 -0.530626
-6.4989381 7.3268619 0
-6.0417209 6.8113976 0.50855982
-6.3020949 7.0876722 -0.52975547
-6.5112419 7.3228898 0
-6.030952 6.7827306 0.50696313
-6.3002772 7.0684099 -0.52888435
-6.561645 7.3616438 0
-6.0339546 6.7696171 0.50652754
-6.3018951 7.0530491 -0.52830434
-6.5982795 7.3847609 0
-6.04213 6.7623215 0.50652754
-6.3000073 7.033812 -0.52743322
-6.6141429 7.3845372 0
-6.0398979 6.7434058 0.50565702
-6.301558 7.0184608 -0.52685267
-6.6108885 7.3629823 0
-6.0480418 6.7361031 0.50565702
-6.3048172 7.0050454 -0.52641714
-6.5797353 7.3104963 0
-6.0561767 6.7287903 0.50565702
-6.3045754 6.9877777 -0.52569157
-7.3364296 8.1314497 0
-6.0434151 6.6983161 0.50391531
-6.3077903 6.9743786 -0.52525657
-7.3532324 8.1302996 0
-6.0532455 6.6929345 0.50406033
-6.3022504 6.9513516 -0.52409542
-7.3752885 8.1349077 0
-6.0595846 6.683692 0.50391531
-6.2984099 6.9302688 -0.52307934
-7.3973598 8.1394663 0
-6.0729008 6.6821361 0.5043509
-6.2892833 6.9034486 -0.5216282
-6.4765701 7.1090245 0
-6.0739703 6.66711 0.50377035
-6.2906108 6.8881693 -0.52104765
-6.4500551 7.0627594 0
-6.1135592 6.6942992 0.50638258
-6.293664 6.8748116 -0.52061206
-6.4462814 7.0415215 0
-6.1497169 6.7175732 0.50870478
-6.3019662 6.8672018 -0.52061206
-6.4424725 7.0203109 0
-6.677845 7.2767944 0.55166388
-6.2979431 6.8461938 -0.51959598
-6.4403753 7.0010257 0
-6.7112584 7.2954893 0.5536955
-6.2956452 6.8271213 -0.5187254
-6.4470677 6.9913268 0
-6.6848383 7.2491703 0.55079275
-6.2962399 6.8194947 -0.51843488
-6.453054 6.9893413 0
-6.6574917 7.2107692 0.54818052
-6.2921252 6.7985382 -0.51741928
-6.4685655 6.9891787 0
-6.6873798 7.2256041 0.54992217
-6.2879629 6.7775941 -0.5164032
-6.477006 6.9813576 0
-6.7243819 7.2479968 0.55224442
-6.2943797 6.7680907 -0.51625818
-6.4783473 6.9659033 0
-6.7260566 7.232255 0.55166388
-6.2830606 6.7395716 -0.51466149
-6.4849863 6.9561687 0
-6.6019044 7.0815816 0.54077882
-0 0 -0
-6.2894268 6.7300782 -0.51451653
-6.4809465 6.9350157 0
-6.4862671 6.9407091 0.53061932
-6.2886739 6.7129936 -0.51379097
-6.4946609 6.9328794 0
-6.4413581 6.8759804 0.52626544
-6.2896657 6.6978135 -0.51321042
-6.4727488 6.8927774 0
-6.4425468 6.8606153 0.52568483
-6.2906299 6.6826406 -0.51262981
-6.4364786 6.8375783 0
-6.4027486 6.8017464 0.52176648
-6.2844329 6.6599154 -0.51146871
-6.4215183 6.8051915 0
-6.3235807 6.7014022 0.51465482
-6.2853332 6.6447663 -0.51088816
-6.4082756 6.7747393 0
-6.2013321 6.5559616 0.50406033
-6.28442 6.6277409 -0.51016259
-6.4164567 6.7669911 0
-6.1663465 6.5032172 0.50057757
-6.2852631 6.6126089 -0.50958204
-6.4389725 6.7743239 0
-6.1670394 6.4882278 0.49999699
-6.2842879 6.5956054 -0.50885648
-6.4435658 6.762774 0
-6.1910048 6.4977012 0.50130308
-6.2796879 6.5748515 -0.50784039
-6.4445429 6.7474551 0
-6.2150021 6.5071254 0.50260919
-6.2912254 6.5710163 -0.50813091
-6.4364877 6.7227392 0
-6.2623906 6.5408993 0.50580198
-6.2811646 6.5446591 -0.50667924
-6.4157801 6.6849217 0
-6.3062744 6.5708227 0.50870478
-6.2872682 6.5351939 -0.50653428
-6.3931813 6.6452837 0
-6.3538394 6.6043906 0.51189756
-0 0 -0
-6.2274165 6.4573479 -0.99991328
-6.2879448 6.5201106 -0.50595367
-6.3831367 6.6188173 0
-6.4051056 6.6415973 0.51538092
-6.2313166 6.4535842 -0.99991328
-6.2846632 6.5088334 -0.50537312
-6.3817163 6.6093483 0
-6.4271626 6.6564159 0.51683205
-6.2283206 6.4349027 -0.99818408
-6.2834892 6.4919014 -0.50464755
-6.4132257 6.6259408 0
-6.4388185 6.6523829 0.51712263
-6.2306862 6.4218016 -0.99731892
-6.2804756 6.4731183 -0.50377703
-6.4429741 6.6406012 0
-6.4685583 6.6669698 0.51886374
-6.2222128 6.3975825 -0.99472457
-6.2792292 6.4562058 -0.50305092
-6.4491735 6.63094 0
-6.554513 6.7392483 0.52510488
-4.6681991 4.7881808 -0.74536413
-6.274333 6.4355955 -0.50203538
-6.457181 6.6231427 0
-6.6279454 6.798296 0.53032935
-4.6631379 4.7714415 -0.74363494
-6.2766547 6.4224324 -0.50159979
-6.4633617 6.6134763 0
-6.6198111 6.7735591 0.52902323
-4.6580362 4.7547145 -0.74190462
-6.2771368 6.4074192 -0.50101924
-6.485918 6.6205339 0
-6.5752587 6.7117286 0.52481431
-4.6547184 4.7398572 -0.74046344
-6.2739539 6.3887095 -0.50014865
-6.4939132 6.6126924 0
-6.5269284 6.6463113 0.52031541
-4.6531844 4.7268562 -0.73931026
-6.2798405 6.3792667 -0.5000031
-6.4964194 6.5992751 0
-6.5076094 6.610642 0.51813817
-4.6443586 4.7065024 -0.73700392
-6.2802434 6.3642759 -0.49942255
-6.497077 6.5840106 0
-6.5192461 6.6064768 0.51842874
-4.6409492 4.6916947 -0.73556274
-6.2787938 6.3474479 -0.49869701
-6.4922214 6.5632091 0
-6.5308752 6.6022859 0.51871872
-4.6101985 4.6493578 -0.72979796
-6.2773128 6.3306327 -0.49797145
-6.4763269 6.5313377 0
-6.5425105 6.5980835 0.51900929
-4.6012259 4.6291084 -0.72749162
-6.2776303 6.3156714 -0.4973909
-6.4768753 6.5161242 0
-6.5541387 6.5938559 0.51929927
-4.601337 4.6180468 -0.72662652
-6.2760882 6.2988801 -0.49666533
-10.303471 10.340888 0
-6.5455966 6.5693669 0.51799315
-4.5977764 4.6033354 -0.72518533
-6.2726808 6.2802644 -0.49579477
-10.301245 10.3137 0
-6.5333285 6.5412278 0.51639646
-4.6015072 4.5959506 -0.72489727
-6.2710667 6.263494 -0.49506867
-7.6530824 7.6438408 0
-6.5228462 6.5149693 0.51494539
-4.6107178 4.5940347 -0.72547334
-6.2731137 6.2504153 -0.49463364
-6.440083 6.4167805 0
-6.51231 6.4887462 0.51349425
-4.6162658 4.5884604 -0.72547334
-6.2696004 6.2318363 -0.49376255
-6.4219937 6.3833122 0
-6.4703851 6.4314117 0.50957537
-4.61446 4.5755944 -0.72432017
-6.2771258 6.224256 -0.49376255
-6.407526 6.3535581 0
-6.443099 6.3888316 0.50681812
-4.6236663 4.5736566 -0.72489727
-6.2791052 6.2111902 -0.49332753
-6.4262962 6.3567891 0
-6.4341898 6.3645973 0.505512
-4.6218252 4.5607996 -0.72374409
-6.2755046 6.1926441 -0.49245644
-6.4247122 6.3398814 0
-6.4326224 6.3476872 0.5047859
-4.620892 4.5543718 -0.723167
-6.275547 6.1852074 -0.49216643
-6.4489317 6.3560958 0
-6.4290538 6.336504 0.50420535
-4.633769 4.5560389 -0.72432017
-6.2756047 6.1703329 -0.49158588
-6.477015 6.3683648 0
-6.4181805 6.3105168 0.50275421
-4.6355815 4.5468173 -0.72374409
-6.2663622 6.1463714 -0.49027976
-6.4791298 6.3550649 0
-6.3886995 6.2663665 0.49985144
-4.6447659 4.5448275 -0.72432017
-6.2644925 6.1297035 -0.48955363
-6.4514666 6.3126545 0
-7.2394204 7.0836544 0.56574166
-4.6558084 4.5446334 -0.72518533
-6.2644567 6.1148696 -0.48897308
-6.4274311 6.2739525 0
-7.2591276 7.0857887 0.56661224
-4.6761208 4.5534401 -0.72749162
-6.2625346 6.0982332 -0.48824751
-6.4182281 6.2498426 0
-7.2918835 7.1005769 0.56849891
-4.7354002 4.588922 -0.73498672
-6.2716603 6.077662 -0.48781252
-6.4108858 6.2125807 0
-7.3426061 7.1154804 0.57111114
-4.7427993 4.5849929 -0.73527473
-6.2640538 6.0556312 -0.48665139
-6.4165187 6.2030225 0
-8.0704241 7.8018985 0.62698746
-4.7483363 4.5792589 -0.73527473
-6.2657533 6.0426445 -0.48621583
-6.4108939 6.1826172 0
-8.0293436 7.7434373 0.62306857
-6.2002068 5.9649892 -0.95897853
-6.2636895 6.0260634 -0.48549029
-6.4127316 6.1694517 0
-7.999372 7.6958995 0.62002075
-6.2018099 5.9521184 -0.95811337
-6.2578411 6.0058942 -0.48447418
-6.3957739 6.1382737 0
-11.66983 11.199991 0.90346354
-6.2015243 5.9374657 -0.9569602
-6.2557106 5.9893451 -0.48374861
-6.3806281 6.1089435 0
-11.672096 11.175103 0.90259296
-6.2030807 5.9246068 -0.95609504
-6.261066 5.9799891 -0.48360363
-6.3748364 6.0886517 0
-11.679952 11.155606 0.90215743
-6.2064934 5.9135423 -0.95551902
-6.2645206 5.9688311 -0.48331305
-6.3708801 6.0701699 0
-6.704627 6.3881636 0.51726758
-6.2023821 5.8953438 -0.95378876
-6.2604318 5.9505196 -0.4824425
-6.3499203 6.0355783 0
-6.716104 6.3836346 0.51755762
-6.2019935 5.8807263 -0.95263559
-6.2619586 5.9375854 -0.48200694
-6.3496542 6.0207381 0
-6.7162704 6.3683634 0.51697707
-6.2053404 5.8696771 -0.95205951
-6.2653565 5.9264469 -0.48171693
-6.3455768 6.0023279 0
-6.7296252 6.365602 0.5174126
-6.2067828 5.8568478 -0.95119435
-6.2611699 5.9081688 -0.48084581
-6.3301182 5.9732294 0
-6.7581024 6.3770843 0.51900929
-6.1971498 5.8406839 -0.94917715
-6.2628493 5.9026041 -0.48070082
-6.3375101 5.9729705 0
-6.7676215 6.3783417 0.51944429
-6.2023129 5.8314147 -0.94888806
-6.2605128 5.8861346 -0.47997525
-6.3295541 5.9510469 0
-6.7980409 6.3915186 0.52118593
-6.2037001 5.8186131 -0.94802397
-6.2562456 5.8678966 -0.47910416
-6.33674 5.9433947 0
-7.1639471 6.719254 0.54861605
-6.1975036 5.7987413 -0.94600564
-6.2538457 5.8514581 -0.47837859
-6.3496199 5.9410696 0
-7.2024193 6.7389979 0.55093831
-6.1931577 5.7806559 -0.94427538
-6.2552114 5.8385763 -0.47794303
-6.3663044 5.9422703 0
-7.2162499 6.7356043 0.5513733
-6.1925731 5.7661247 -0.94312328
-6.2565618 5.825707 -0.47750804
-6.4001417 5.9593992 0
-7.2300901 6.7321939 0.55180883
-6.2033224 5.7621555 -0.9436993
-6.2578831 5.8128357 -0.47707248
-6.4187822 5.9622922 0
-7.2762961 6.7588215 0.55471164
-6.1951027 5.7405915 -0.94139296
-6.2534699 5.7946768 -0.47620192
-6.4355245 5.9633746 0
-7.3759365 6.8347921 0.56167775
-6.1982398 5.7295938 -0.94081694
-6.2528348 5.7800612 -0.47562137
-6.4312625 5.9449978 0
-6.4530883 5.9651732 0.49085361
-6.1975527 5.7150869 -0.93966377
-6.2502651 5.7636957 -0.47489581
-6.421217 5.921339 0
-6.4965801 5.9908357 0.49361086
-6.2006431 5.7040882 -0.93908668
-6.2533965 5.7526174 -0.47460523
-8.0850515 7.4375916 0
-6.6720943 6.1377854 0.50638258
-6.1941962 5.6843553 -0.93706942
-6.2488594 5.734519 -0.47373468
-8.1151266 7.4471745 0
-6.9685793 6.394999 0.52829766
-6.1915159 5.668129 -0.93562716
-6.2481174 5.7199459 -0.47315413
-8.1260366 7.4391193 0
-6.9973783 6.40587 0.52989376
-6.1888127 5.6519246 -0.93418598
-6.2492666 5.7071338 -0.47271857
-6.4401541 5.8814616 0
-7.0281382 6.4184375 0.53163546
-6.1879892 5.637475 -0.93303281
-6.2503934 5.6943269 -0.47228301
-6.4588027 5.8841953 0
-7.0627766 6.4344363 0.53366709
-6.1890602 5.6247802 -0.93216872
-6.2495775 5.67978 -0.47170246
-6.5891614 5.9884024 0
-7.078238 6.4328885 0.5342477
-6.1920156 5.6138196 -0.93159157
-6.2506661 5.6669936 -0.47126746
-6.6503706 6.0293746 0
-7.0744591 6.4138627 0.53337711
-6.1949615 5.6028671 -0.93101555
-6.2459426 5.6489754 -0.47039634
-6.5920291 5.9619842 0
-7.0764203 6.4000793 0.53294158
-6.1978827 5.5919089 -0.9304384
-6.2450466 5.6344619 -0.46981579
-6.5509229 5.9104323 0
-7.0841484 6.3915238 0.53294158
-6.195024 5.5757661 -0.92899722
-6.2460618 5.6217017 -0.4693808
-6.525177 5.8729167 0
-7.0918665 6.3829594 0.53294158
-6.1921358 5.5596385 -0.92755604
-6.2470474 5.6089411 -0.46894524
-6.4064059 5.7520218 0
-7.1247072 6.3969517 0.53482825
-6.1949921 5.5486979 -0.92697895
-6.246078 5.5944538 -0.46836466
-6.372643 5.7078152 0
-7.1653342 6.4178085 0.53729546
-6.1906323 5.5380559 -0.92582577
-6.233964 5.5768199 -0.46720356
-6.3702698 5.6987572 0
-6.3268247 5.6598916 0.474163
-6.1838169 5.5185218 -0.92380852
-6.2348795 5.5640912 -0.466768
-6.382978 5.6962557 0
-6.3995786 5.7110705 0.47909802
-6.1846828 5.5058846 -0.92294335
-6.2338352 5.5496421 -0.46618745
-6.4326162 5.7266064 0
-6.3987117 5.6964226 0.47851744
-6.1835952 5.4915376 -0.92179018
-6.238595 5.5403819 -0.46604243
-6.4375873 5.717103 0
-6.3220439 5.6144915 0.47227633
-6.186358 5.4806352 -0.92121416
-6.2433419 5.5311184 -0.46589744
-6.4211144 5.688611 0
-6.2763147 5.5603299 0.46835798
-6.1852236 5.4663048 -0.92006099
-6.2383347 5.5132427 -0.46502632
-6.4162865 5.6705108 0
-6.2791386 5.549304 0.46806797
-6.1860018 5.4536939 -0.91919583
-6.2430444 5.503984 -0.46488133
-6.4777865 5.710937 0
-6.3404074 5.5898209 0.47213131
-6.186758 5.4410896 -0.91833073
-6.243835 5.4912868 -0.46444577
-6.5667567 5.7752881 0
-6.378376 5.609612 0.47445354
-6.1836085 5.4250827 -0.91688949
-6.24266 5.4768906 -0.46386576
-6.6148114 5.803391 0
-7.4535317 6.5392275 0.55384052
-6.1784849 5.4073896 -0.9151603
-6.2414517 5.4624982 -0.46328521
-6.6276956 5.8005376 0
-7.47121 6.5387783 0.55456662
-6.1811137 5.3965149 -0.91458321
-6.234344 5.4429884 -0.4622691
-6.615099 5.7754121 0
-6.5474238 5.7163277 0.48548359
-6.1798282 5.3822474 -0.91343004
-6.2389584 5.4337463 -0.46212408
-6.590672 5.740067 0
-0 0 0
-6.1785169 5.367991 -0.91227686
-6.2396331 5.4210896 -0.46168852
-6.5268779 5.6706519 0
-6.5906363 5.7260466 0.48766026
-6.1830459 5.358829 -0.91198879
-6.2383246 5.4067388 -0.46110797
-6.5081601 5.640605 0
-6.5975504 5.7180786 0.48766026
-6.1836448 5.3462777 -0.91112369
-6.2389541 5.3940973 -0.46067241
-6.4716635 5.5952935 0
-6.5828381 5.6914134 0.48606417
-6.1861868 5.3354268 -0.91054761
-6.2415357 5.3831639 -0.4603824
-6.4390039 5.5534749 0
-6.4991999 5.6053925 0.47938803
-6.1867452 5.3228855 -0.90968251
-6.2421246 5.3705325 -0.45994684
-6.4259853 5.5287204 0
-6.4842992 5.5788922 0.47779134
-6.1853213 5.3086681 -0.90852934
-6.2486091 5.3629861 -0.45994684
-6.4721584 5.5548511 0
-6.5265317 5.6015182 0.48040414
-6.1878057 5.2978296 -0.90795326
-6.2353501 5.3385358 -0.45849574
-8.4734621 7.254746 0
-6.4977622 5.5632057 0.47779134
-6.1804333 5.2785888 -0.90593493
-6.2338929 5.3242474 -0.45791519
-6.5983543 5.6355271 0
-6.3642058 5.435545 0.46748742
-6.1789317 5.2644076 -0.90478182
-6.234386 5.3116541 -0.45747963
-6.6784539 5.6899967 0
-6.3351626 5.3975148 0.46487463
-6.1774049 5.2502375 -0.90362865
-6.2348576 5.299067 -0.45704406
-6.7785211 5.7611322 0
-6.3337598 5.3831253 0.46429408
-6.1817732 5.2410984 -0.90334058
-6.231348 5.2831292 -0.4563185
-6.8728204 5.8269897 0
-6.3481879 5.3821898 0.46487463
-6.1790152 5.2323465 -0.90247548
-6.2345386 5.2793636 -0.4563185
-6.9279742 5.86656 0
-6.4029999 5.4220157 0.46864852
-6.181385 5.2215419 -0.9018994
-6.2329731 5.2651196 -0.45573795
-6.9310775 5.8548226 0
-6.4849663 5.477983 0.474163
-6.1758184 5.2040658 -0.90016913
-6.2353601 5.2542386 -0.45544794
-6.3968582 5.3903251 0
-6.5213881 5.4952607 0.47634023
-6.1781459 5.1932745 -0.89959306
-6.233748 5.2400126 -0.45486739
-6.4133253 5.3909636 0
-6.5280232 5.4873767 0.47634023
-6.1784687 5.1808181 -0.89872795
-6.2340999 5.2274661 -0.45443183
-6.5035872 5.4534388 0
-6.5246954 5.4711385 0.47561467
-6.1748066 5.1650529 -0.89728671
-6.2344303 5.2149267 -0.45399627
-6.5560789 5.4839764 0
-6.5313015 5.4632511 0.47561467
-6.1713672 5.1368785 -0.89498037
-6.2290425 5.1848855 -0.45269015
-6.2132888 5.1717725 0
-6.362752 5.2961817 0.46240738
-6.1735935 5.1261163 -0.89440435
-6.229311 5.17238 -0.45225516
-0 0 0
-6.2911863 5.2237568 0.45674738
-6.1698174 5.1103988 -0.8929621
-6.2275519 5.1582193 -0.45167461
-6.2498198 5.1766639 0
-6.3014998 5.2194695 0.45703793
-6.1759882 5.1029401 -0.8929621
-6.2257676 5.1440706 -0.45109403
-6.2881703 5.195631 0
-6.3178158 5.2201257 0.45776349
-6.1741657 5.0888934 -0.89180893
-6.2299676 5.1348867 -0.45094848
-6.3165364 5.2062387 0
-6.3201046 5.2091794 0.45747292
-6.1763182 5.0781474 -0.89123285
-6.2321572 5.1240578 -0.4506585
-6.3288474 5.2035565 0
-6.2902694 5.1718378 0.45486069
-6.1784539 5.0674033 -0.89065683
-6.2303076 5.1099324 -0.45007792
-6.323061 5.1860061 0
-6.2683902 5.1411667 0.45282903
-6.1745572 5.0517402 -0.88921458
-6.230442 5.0974627 -0.44964236
-6.2930698 5.1487021 0
-6.2564998 5.118782 0.45152292
-6.1706395 5.0361004 -0.88777339
-6.2265329 5.0817175 -0.44891682
-6.2690411 5.1164098 0
-6.2485862 5.0997162 0.45050681
-6.1626778 5.0172081 -0.88575506
-6.2266216 5.0692673 -0.44848126
-6.2610888 5.0973277 0
-6.2446704 5.083961 0.44978124
-6.1707487 5.0113935 -0.88604414
-6.226697 5.0568299 -0.44804627
-6.2733059 5.0946822 0
-6.2629075 5.0862374 0.45065179
-6.1687608 4.9974213 -0.88489097
-6.2206845 5.0394855 -0.44717515
-6.3300104 5.1280522 0
-6.2670312 5.0770321 0.45050681
-6.1687574 4.985085 -0.88402587
-6.228796 5.0336032 -0.4473207
-6.4313321 5.1972766 0
-6.2670965 5.0645547 0.45007125
-6.1727648 4.976006 -0.8837378
-6.2267818 5.0195503 -0.44674015
-6.5612001 5.2891326 0
-6.2550063 5.0423026 0.44876513
-6.1747379 4.9652991 -0.88316071
-6.2247424 5.0055094 -0.44615957
-6.610167 5.3154416 0
-6.2610946 5.0347414 0.44876513
-6.1676555 4.9534712 -0.88171953
-6.2216854 4.9968648 -0.44572401
-6.5788846 5.2837443 0
-6.2904701 5.0521083 0.45065179
-6.1655617 4.9395466 -0.88056636
-6.2196069 4.9828448 -0.44514346
-6.4776268 5.189558 0
-6.2904844 5.0396285 0.45021623
-6.1674886 4.9288664 -0.87999028
-6.219532 4.970458 -0.4447079
-6.4533954 5.1573544 0
-7.9873638 6.383255 0.57111114
-6.1613011 4.9117341 -0.87826002
-6.2194433 4.9580846 -0.44427291
-6.5206685 5.1982183 0
-7.9280305 6.3201547 0.56632227
-6.1652088 4.9026771 -0.87797201
-0 0 -0
-6.559536 5.2162528 0
-7.9112558 6.291163 0.56458056
-6.1650472 4.8904004 -0.87710685
-6.1988354 4.9172025 -0.44195068
-6.3945732 5.0724711 0
-10.322931 8.1886263 0.73598123
-6.1608124 4.8749242 -0.87566566
-6.1884708 4.8968101 -0.44078955
-6.3170319 4.998538 0
-8.2850456 6.5557866 0.59012341
-6.158577 4.8610668 -0.87451249
-6.1821489 4.8796725 -0.43991899
-6.2781291 4.955431 0
-8.3011198 6.5522108 0.59070402
-6.1542873 4.845623 -0.87307131
-6.1880407 4.8721991 -0.43991899
-6.2963767 4.9574981 0
-8.288619 6.5261045 0.58925289
-6.1601381 4.8381834 -0.87307131
-6.1857491 4.8582983 -0.43933845
-6.3391991 4.9788184 0
-8.2903652 6.5112677 0.5888173
-6.161911 4.827549 -0.87249523
-6.18752 4.8476124 -0.43904787
-6.3185802 4.9502912 0
-8.3145905 6.5140657 0.58997846
-6.16366 4.8169117 -0.87191814
-6.1872287 4.835331 -0.43861234
-6.2856016 4.9122095 0
-8.324501 6.5056129 0.59012341
-6.1633544 4.8046885 -0.87105298
-6.1807752 4.8182688 -0.43774176
-6.2730541 4.8902059 0
-6.3896995 4.9811378 0.45253846
-6.1589484 4.7893004 -0.8696118
-6.1865926 4.8107972 -0.43774176
-6.2789583 4.8826227 0
-6.4121237 4.9861741 0.45369959
-6.1565557 4.7755141 -0.86845863
-6.1780267 4.7921686 -0.43672565
-6.2684102 4.8622775 0
-6.4140415 4.9752407 0.45340958
-6.154139 4.7617407 -0.86730546
-6.1817594 4.7831116 -0.43658066
-6.2598705 4.8435502 0
-6.4221015 4.9690752 0.45355457
-6.1516981 4.7479796 -0.86615229
-6.1854792 4.7740526 -0.43643564
-6.2842588 4.8502922 0
-6.4260459 4.9597259 0.45340958
-6.1615334 4.7437019 -0.86672938
-6.1788855 4.757061 -0.43556455
-6.2983632 4.8490458 0
-6.4402699 4.9582982 0.45399013
-6.1570058 4.7283778 -0.8652882
-6.184629 4.7495918 -0.43556455
-6.2959619 4.8350916 0
-6.4668608 4.9663363 0.45544127
-6.1606555 4.7193575 -0.86499912
-6.1821127 4.7357945 -0.43498397
-6.2832074 4.8132381 0
-6.4893589 4.9711604 0.45660236
-6.1581407 4.7056346 -0.86384702
-6.1878304 4.7283211 -0.43498397
-6.2373238 4.7661405 0
-6.4747181 4.9475417 0.45515126
-6.1617589 4.6966176 -0.86355793
-6.1894097 4.7176938 -0.43469399
-6.2492895 4.7633352 0
-6.4538202 4.9192328 0.45326403
-6.1543074 4.6850624 -0.86211675
-6.1819234 4.7060852 -0.43396842
-6.326705 4.8163028 0
-6.4588647 4.9169111 0.45340958
-6.1537819 4.6729283 -0.86125159
-6.1669068 4.6828947 -0.43251675
-6.3553209 4.8259687 0
-6.4565234 4.9028177 0.45282903
-6.1429296 4.6529956 -0.85894525
-6.1808462 4.6817155 -0.4330973
-6.365293 4.8214259 0
-6.4727974 4.9028559 0.45355457
-6.1506171 4.6471334 -0.85923433
-6.1740632 4.6648483 -0.43222675
-6.3877254 4.826282 0
-6.5512733 4.9498515 0.45863405
-6.1520925 4.6365819 -0.85865724
-6.1859226 4.6620779 -0.43266231
-6.4122558 4.8326559 0
-6.6734476 5.0295057 0.46676129
-6.1556249 4.6275921 -0.85836923
-6.1687021 4.637423 -0.43106562
-6.3848143 4.7998891 0
-6.7314429 5.0604725 0.47038963
-6.1508675 4.6123939 -0.85692799
-6.1659856 4.6237302 -0.43048507
-6.3343902 4.7500129 0
-6.7541838 5.0648065 0.47155076
-6.1522899 4.6018567 -0.8563509
-6.1715679 4.6162767 -0.43048507
-6.3005347 4.7127428 0
-6.791512 5.079989 0.473728
-6.1557746 4.5928745 -0.85606289
-6.1750607 4.6072636 -0.43034008
-6.2853618 4.6895604 0
-6.8122177 5.0826516 0.47474355
-6.1530204 4.5792561 -0.85490972
-6.1722851 4.5935936 -0.4297595
-6.2952032 4.6850729 0
-9.4572239 7.0383401 0.65848094
-6.1523166 4.5671916 -0.85404456
-6.1757464 4.5845847 -0.42961451
-6.3468275 4.7115874 0
-9.4740667 7.0331035 0.65906149
-6.1516008 4.555141 -0.85318047
-6.1666617 4.5662937 -0.4285984
-6.5888476 4.8789139 0
-9.5013504 7.0355659 0.66036761
-6.1446133 4.5384817 -0.8514502
-6.1659026 4.5542064 -0.42816284
-9.7241859 7.182395 0
-9.5558233 7.0580411 0.66356039
-6.1459317 4.5279884 -0.85087413
-6.1776786 4.5513778 -0.4285984
-6.4497685 4.7518387 0
-9.671031 7.1250896 0.6709621
-6.1555629 4.5236192 -0.8514502
-6.1685147 4.5331373 -0.42758229
-6.4051747 4.7070546 0
-9.671257 7.107244 0.67038155
-6.1485119 4.5070062 -0.84972095
-6.1635113 4.5180011 -0.42685673
-6.3164053 4.6300764 0
-9.700799 7.110918 0.67183322
-6.1414218 4.4904113 -0.84799069
-6.1815553 4.5197554 -0.42772785
-6.1749492 4.514925 0
-9.7534313 7.1313968 0.67488098
-6.1489391 4.4845157 -0.84827977
-6.1786141 4.5061584 -0.4271473
-6.1446562 4.4813924 0
-9.8082237 7.1532884 0.67807376
-6.1438971 4.4694762 -0.84683859
-6.171443 4.4895148 -0.42627618
-6.1605873 4.4816179 0
-8.6107941 6.2640595 0.59476793
-6.1471939 4.460526 -0.84654951
-6.1705599 4.4774809 -0.42584118
-6.1617894 4.4711165 0
-8.6099434 6.2475462 0.59418732
-6.1441979 4.4470291 -0.84539634
-6.1696486 4.4654498 -0.42540562
-6.1692934 4.4651923 0
-8.6238031 6.2417102 0.59462291
-6.1406012 4.4387746 -0.84453225
-6.1723452 4.4617214 -0.42540562
-6.1698828 4.4599414 0
-8.6338921 6.2410674 0.59505844
-6.1396637 4.4268122 -0.84366715
-6.1714067 4.4496994 -0.42497006
-0 0 0
-8.6646061 6.2473426 0.59665459
-6.1429105 4.417882 -0.84337908
-6.1662331 4.4346552 -0.42424449
-0 0 0
-8.7059011 6.2611432 0.59897679
-6.1335306 4.3999014 -0.84136081
-6.1694775 4.4256878 -0.4240995
-6.1944594 4.4436088 0
-8.7451248 6.273334 0.60115349
-6.140944 4.3939905 -0.84164882
-6.168479 4.4136925 -0.42366394
-6.2019467 4.4376397 0
-8.7505875 6.2612519 0.60100847
-6.1368008 4.3686419 -0.83963156
-6.1748977 4.395762 -0.42337394
-6.2211337 4.4286761 0
-6.8775554 4.895967 0.47155076
-6.1420751 4.3612232 -0.83963156
-6.1759629 4.3852859 -0.42308339
-6.2413278 4.4316983 0
-6.8834662 4.8876534 0.47155076
-6.1452236 4.3522997 -0.83934247
-6.1685386 4.3688121 -0.42221281
-6.2445564 4.4226513 0
-9.8897085 7.0042977 0.67691267
-6.1378069 4.3359199 -0.83761328
-6.1653237 4.3553586 -0.42163226
-6.2583981 4.4211092 0
-9.8769455 6.9773531 0.67546153
-6.134584 4.3225412 -0.83646011
-6.1642075 4.3434143 -0.4211967
-6.265861 4.4150414 0
-9.8789949 6.9609222 0.675026
-6.1376882 4.3136396 -0.83617204
-6.1673269 4.3344703 -0.42105171
-6.2946148 4.4239292 0
-9.8746395 6.9400125 0.67415488
-6.1365404 4.301765 -0.83530694
-6.1661749 4.3225389 -0.42061615
-6.3170042 4.4282713 0
-9.8766403 6.9236054 0.67371988
-6.1417336 4.2943468 -0.83530694
-6.1671381 4.3121099 -0.42032614
-6.3287425 4.4251051 0
-9.8700905 6.9012423 0.67270374
-6.138432 4.2810044 -0.83415377
-6.1595521 4.2957339 -0.41945502
-6.3020711 4.3951283 0
-9.8677673 6.8818803 0.67197818
-6.141479 4.2721086 -0.8338657
-6.1626072 4.2868056 -0.41931003
-6.2026935 4.3146906 0
-6.7256269 4.6784511 0.45761847
-6.1423821 4.2617331 -0.83328861
-6.1656494 4.2778764 -0.41916505
-6.1480403 4.2656584 0
-6.7227354 4.6643963 0.45703793
-6.13902 4.2484207 -0.83213544
-6.1665363 4.2674632 -0.41887447
-6.1467676 4.2537823 0
-9.7217207 6.7277775 0.66036761
-6.1398954 4.2380638 -0.83155942
-6.1631346 4.2541046 -0.41829392
-6.1369085 4.236002 0
-9.6870737 6.6865044 0.6574648
-6.1300969 4.2203736 -0.82954109
-6.1554327 4.2378163 -0.41742337
-6.1548882 4.2374411 0
-6.6497126 4.5781116 0.45094234
-6.1326456 4.2166691 -0.82954109
-6.1579919 4.2340965 -0.41742337
-6.1467266 4.2263508 0
-9.6477976 6.6336083 0.65398204
-6.1313434 4.2048717 -0.828677
-6.152391 4.219306 -0.4166978
-6.1668463 4.2292199 0
-9.651516 6.6190038 0.65369147
-6.1342788 4.1959958 -0.82838792
-6.1617699 4.2148004 -0.41698781
-6.1719522 4.2217655 0
-9.6830997 6.623476 0.65528816
-6.1307979 4.1827497 -0.82723475
-6.1647139 4.2058887 -0.41684279
-6.1727533 4.2113743 0
-9.7254314 6.6351962 0.65760982
-6.1315746 4.1724315 -0.82665873
-6.167645 4.1969767 -0.4166978
-6.190743 4.2126942 0
-6.7754683 4.61059 0.45776349
-6.1387501 4.1664705 -0.82694674
-6.1598077 4.1807628 -0.41582668
-6.2022905 4.2095971 0
-6.8003821 4.6155314 0.45906961
-6.124505 4.1460023 -0.82435238
-6.1605554 4.1704063 -0.41553667
-6.2181463 4.2093925 0
-6.8446817 4.6335282 0.46168184
-6.1338015 4.1414962 -0.82492948
-6.1634383 4.1615067 -0.41539168
-6.2491107 4.2193522 0
-6.8502755 4.6252542 0.46168184
-6.1280684 4.1268539 -0.82348722
-6.1598411 4.1482506 -0.41481113
-6.2585173 4.2147026 0
-6.789052 4.5719829 0.45718294
-6.1244621 4.1136775 -0.82233405
-6.1605306 4.1379042 -0.41452056
-6.2700887 4.2114921 0
-6.7255459 4.5174136 0.45253846
-6.1251345 4.1033978 -0.82175803
-6.1590476 4.1261172 -0.414085
-6.2686844 4.1995659 0
-6.6748753 4.4716845 0.44876513
-6.1279397 4.0945582 -0.82146996
-6.1553864 4.1128979 -0.41350445
-6.2867417 4.2006664 0
-6.6349044 4.4333014 0.44571733
-6.1264238 4.0828466 -0.82060486
-6.1560316 4.1025782 -0.41321445
-6.2939763 4.194509 0
-6.6510658 4.4324846 0.4464429
-6.1292005 4.0740104 -0.82031679
-6.15449 4.0908203 -0.41277888
-6.3055444 4.1912241 0
-6.7321591 4.4747901 0.45152292
-6.1276493 4.0623126 -0.81945169
-6.163764 4.0862551 -0.41306946
-6.386517 4.2339287 0
-6.7765403 4.4924936 0.45413515
-6.1433387 4.062037 -0.82089287
-6.1686969 4.0788045 -0.41306946
-6.5349011 4.3209419 0
-6.7819638 4.4843025 0.45413515
-6.1482425 4.0546112 -0.82089287
-6.1801224 4.075635 -0.41350445
-6.5987711 4.3517237 0
-6.7721906 4.4660892 0.45311904
-6.1661067 4.0557098 -0.82262313
-6.1872196 4.0695968 -0.41365001
-6.5974994 4.3394551 0
-6.7515306 4.4407682 0.45137736
-6.1710029 4.0482564 -0.82262313
-6.1899533 4.0606885 -0.41350445
-6.5918598 4.3243442 0
-6.73734 4.4197807 0.45007125
-6.1799321 4.0487757 -0.82348722
-6.2076225 4.0669169 -0.41452056
-6.5922966 4.3189359 0
-6.7378373 4.4142871 0.44992623
-6.1978149 4.0497971 -0.82521749
-6.212532 4.0594134 -0.41452056
-6.5931487 4.3081174 0
-6.740993 4.4047222 0.44978124
-6.2113719 4.0479541 -0.82637066
-6.2413812 4.0675111 -0.41611725
-6.5896282 4.2944641 0
-6.672298 4.34834 0.44484678
-6.2314324 4.0503087 -0.82838792
-6.24193 4.0571318 -0.41582668
-6.5991807 4.2893376 0
-6.6383271 4.3147821 0.44223398
-6.24718 4.0498152 -0.82983017
-6.2642708 4.0608945 -0.41698781
-6.6611328 4.3181653 0
-6.6435356 4.3067579 0.44223398
-6.260757 4.0478811 -0.83098334
-6.2888093 4.0660186 -0.41829392
-6.7275391 4.3496785 0
-6.6836481 4.3213005 0.44455621
-6.2786818 4.0487208 -0.83271259
-6.302453 4.0640492 -0.41887447
-6.7524729 4.3542385 0
-6.7434573 4.3484249 0.44818455
-6.2879157 4.0439267 -0.83328861
-6.3095427 4.0578351 -0.41901946
-6.7577291 4.346076 0
-6.7749324 4.3571401 0.44992623
-6.2971559 4.0391216 -0.8338657
-6.3231897 4.05582 -0.41960004
-6.7826886 4.3505521 0
-6.7780075 4.3475494 0.44978124
-6.286778 4.0217519 -0.83184743
-6.3368411 4.0537777 -0.42018059
-6.8449359 4.3788142 0
-6.7613626 4.3253508 0.44832957
-6.300355 4.0197172 -0.8330006
-6.352694 4.0531101 -0.42090669
-6.9226213 4.4167323 0
-6.7556334 4.3101912 0.447604
-6.3183045 4.0204353 -0.83473086
-6.3729262 4.055192 -0.42192227
-6.976254 4.4390988 0
-6.758646 4.3006315 0.44745901
-6.3821154 4.0502133 -0.84251398
-6.3909893 4.0558453 -0.42279339
-7.0453339 4.4711051 0
-6.7528701 4.2855015 0.44673344
-0 0 -0
-6.465683 4.0922966 -0.85289246
-6.4090548 4.0564551 -0.42366394
-7.136488 4.5168662 0
-6.7558498 4.2759504 0.44658846
-6.5668507 4.1452231 -0.86557621
-6.4183421 4.0514798 -0.42395395
-7.1639519 4.5221343 0
-6.7654018 4.270556 0.44687843
-6.6003075 4.1551981 -0.86932379
-9.7479162 6.1367626 -0.6433937
-7.142982 4.4968367 0
-6.7683601 4.2609949 0.44673344
-6.6097002 4.1499677 -0.86989981
-9.7751274 6.137414 -0.64469981
-7.1351814 4.4798965 0
-6.7690983 4.2500477 0.4464429
-6.6278672 4.1502171 -0.87163007
-9.7869453 6.1283588 -0.64499032
-7.0126686 4.391171 0
-6.7786374 4.244626 0.44673344
-6.6350689 4.1435742 -0.87191814
-9.7745094 6.1041427 -0.64368421
-6.9142189 4.3179026 0
-6.7903752 4.2405629 0.44716901
-6.6309848 4.1354575 -0.87105298
-9.7781954 6.0982361 -0.64368421
-6.874876 4.2875619 0
-6.8083634 4.2460809 0.44818455
-6.6425676 4.1315417 -0.87191814
-9.7348061 6.0548506 -0.64034587
-6.8579564 4.2655091 0
-6.8179064 4.2405987 0.44847512
-6.6519551 4.1262417 -0.87249523
-7.6974945 4.7747951 -0.50595367
-6.8631058 4.2572193 0
-6.7899013 4.2118106 0.44629788
-6.7053232 4.1481352 -0.87883711
-7.7275681 4.7805295 -0.50755036
-6.8638139 4.2461824 0
-6.7286963 4.1625943 0.44194397
-6.7323389 4.1536083 -0.88171953
-7.6714187 4.7329865 -0.50348645
-6.8578672 4.2310548 0
-6.7315116 4.1530981 0.44179899
-6.768189 4.164444 -0.88575506
-7.6771321 4.7237134 -0.50348645
-6.8696265 4.2268581 0
-6.7409468 4.1476822 0.44208899
-6.7754269 4.1576195 -0.88604414
-9.6051111 5.8940043 -0.62946081
-6.8836017 4.223999 0
-6.7503872 4.1422544 0.44237953
-0 0 -0
-9.647687 5.9040956 -0.63178307
-6.8798213 4.2102447 0
-6.7908406 4.1557913 0.44470122
-6.7722034 4.1331468 -0.88431388
-9.6304226 5.8775477 -0.63018698
-6.9026752 4.2127748 0
-6.842433 4.1760087 0.44774902
-6.7904534 4.1330318 -0.88604414
-9.6130991 5.8510447 -0.62859029
-6.9277658 4.2166076 0
-6.9007454 4.2001615 0.45123234
-6.8087044 4.132874 -0.88777339
-9.5824022 5.816505 -0.62612307
-6.9350786 4.2095828 0
-6.9124813 4.1958666 0.4516679
-6.8208842 4.1177435 -0.8880614
-9.70543 5.8591337 -0.63323474
-6.9162693 4.1753273 0
-6.9359436 4.1872044 0.45253846
-6.8280768 4.1108365 -0.88835049
-9.7414398 5.8648243 -0.63512141
-6.9101634 4.1602569 0
-6.9231887 4.1680989 0.45137736
-6.8529944 4.1145644 -0.89094484
-8.9287481 5.3608556 -0.5817129
-6.9151855 4.1519041 0
-6.9037213 4.145021 0.44978124
-6.8779306 4.118238 -0.89353919
-8.9641991 5.367415 -0.58359957
-6.920197 4.1435456 0
-6.9064975 4.1353426 0.44963622
-6.9250889 4.1351151 -0.89901596
-8.9572878 5.3485837 -0.58272845
-6.9587092 4.1551905 0
-6.911489 4.1269946 0.44963622
-6.9345293 4.1293936 -0.89959306
-8.9458838 5.3271208 -0.58156735
-7.0285687 4.1853929 0
-6.923162 4.1226249 0.45007125
-6.9395137 4.1210117 -0.89959306
-7.7816563 4.6211162 -0.50551814
-6.9262209 4.1131177 0
-6.9303703 4.115582 0.45021623
-6.9289074 4.1033964 -0.89757478
-7.7760572 4.6050911 -0.50479257
-6.8841629 4.0768986 0
-6.9398141 4.1098557 0.45050681
-6.9113507 4.0873613 -0.89498037
-7.7654228 4.5924582 -0.50392205
-6.8754268 4.0661159 0
-6.9378185 4.1030145 0.45021623
-6.8539038 4.0422173 -0.88690823
-7.782155 4.5896707 -0.50464755
-6.8736076 4.0538378 0
-6.9472518 4.097271 0.45050681
-6.7629223 3.9775529 -0.87451249
-9.7653236 5.7433891 -0.63279921
-6.8874736 4.050807 0
-6.9499598 4.0875573 0.45036179
-6.7498746 3.95891 -0.87220615
-9.7431211 5.7144971 -0.63091248
-6.9439888 4.0727611 0
-6.9638591 4.0844154 0.45094234
-6.7367926 3.9403043 -0.86989981
-9.7522593 5.7040305 -0.6310575
-7.476799 4.3731294 0
-6.9665399 4.0746822 0.45079678
-6.7504854 3.9373741 -0.87105298
-9.7322102 5.6765327 -0.62931585
-7.5180464 4.3850713 0
-6.9579954 4.0584087 0.44992623
-6.7641811 3.9344163 -0.87220615
-9.7166052 5.6517067 -0.62786472
-7.5233393 4.3759842 0
-6.965138 4.0513039 0.45007125
-6.786829 3.9366221 -0.87451249
-8.72999 5.0637302 -0.56371611
-7.5196161 4.3616672 0
-6.9700279 4.0428848 0.45007125
-6.7960629 3.9310114 -0.87508959
-7.05373 4.0800524 -0.4551574
-7.4820762 4.3278184 0
-6.981658 4.0383644 0.45050681
-6.7963223 3.9202096 -0.87451249
-7.0609121 4.0728283 -0.45530295
-7.4174213 4.2784677 0
-6.9955359 4.0351186 0.45108736
-6.8167505 3.9210234 -0.87653077
-7.0545597 4.0578122 -0.45457682
-7.5421391 4.3382697 0
-6.9958973 4.0240693 0.45079678
-6.8371911 3.9217935 -0.8785491
-8.4478388 4.8456564 -0.54397827
-7.5880146 4.3524637 0
-6.9985027 4.0143213 0.45065179
-6.8464108 3.9160953 -0.87912518
-8.428874 4.8212523 -0.54238164
-7.5864887 4.3394141 0
-7.0123701 4.011023 0.45123234
-6.8601241 3.9129457 -0.88027829
-8.3985891 4.7904706 -0.54005992
-7.607553 4.3392715 0
-7.0352683 4.0128465 0.45239347
-6.8738403 3.9097688 -0.88143146
-7.1079712 4.0429401 -0.45675406
-7.621839 4.3352232 0
-7.0423684 4.0056262 0.45253846
-6.901053 3.9142184 -0.88431388
-7.1151094 4.0356293 -0.45689908
-7.6248016 4.3247228 0
-7.0856247 4.0189061 0.45500571
-6.9057775 3.9058771 -0.88431388
-0 0 -0
-7.6390829 4.3206315 0
-7.3415232 4.1523328 0.47111577
-6.9240136 3.9051561 -0.88604414
-7.1429472 4.028635 -0.45806018
-7.6556296 4.3177891 0
-7.4415803 4.1970644 0.47721079
-6.9309793 3.8980536 -0.88633215
-7.170454 4.0327368 -0.45951131
-7.6676488 4.3123641 0
-7.5213833 4.230103 0.48200026
-6.9492154 3.8972647 -0.8880614
-7.1934524 4.0342379 -0.46067241
-7.6796656 4.3069162 0
-7.5287619 4.2222862 0.48214582
-6.9606943 3.8926537 -0.88892657
-7.2051277 4.0293489 -0.46110797
-7.684864 4.2976336 0
-7.522512 4.206841 0.48141968
-6.9743338 3.8947518 -0.89036775
-7.2143688 4.0287971 -0.46154353
-7.705637 4.3031411 0
-7.5091782 4.1934309 0.48040414
-6.9971123 3.8963888 -0.89267409
-7.1897211 4.003644 -0.45965686
-7.6971841 4.2862282 0
-7.5142398 4.1843543 0.48040414
-7.0018153 3.8879311 -0.89267409
-7.1741104 3.9836023 -0.45835075
-7.7228327 4.2882938 0
-7.5351858 4.1840982 0.48141968
-7.02461 3.8894911 -0.89498037
-7.1425467 3.9547918 -0.45602852
-7.7325664 4.2814827 0
-7.540236 4.1749902 0.48141968
-7.0406241 3.8872499 -0.89642161
-7.1131964 3.9273183 -0.45385128
-7.7445712 4.2759113 0
-7.5293584 4.1570883 0.48040414
-7.0634422 3.8887193 -0.89872795
-7.1133881 3.9162166 -0.45356128
-7.7588515 4.2715712 0
-7.5047865 4.1316977 0.47851744
-7.0704012 3.8814251 -0.89901596
-7.113555 3.9051154 -0.4532707
-7.7662864 4.2634439 0
-7.5074887 4.1213722 0.47837189
-7.0750856 3.872879 -0.89901596
-7.6082945 4.1647558 -0.48447418
-7.7896953 4.2640538 0
-7.5580492 4.1372519 0.48127469
-7.1001906 3.875479 -0.90161031
-7.7182341 4.2128239 -0.49115032
-7.8039789 4.2596259 0
-7.5607643 4.1268725 0.48112968
-7.1321301 3.8817344 -0.90506983
-7.7164698 4.1997671 -0.49071476
-7.8319745 4.2626319 0
-7.4858708 4.0742612 0.47605023
-7.4027796 4.0174513 -0.93879861
-7.7261109 4.1929216 -0.4910053
-7.8439837 4.2568908 0
-7.435977 4.0354671 0.47256687
-7.635098 4.1315947 -0.96762675
-7.7334547 4.1848183 -0.49115032
-7.8697195 4.2585554 0
-7.3974242 4.0029817 0.46980909
-7.6378021 4.1211343 -0.96733767
-7.7385054 4.1754708 -0.49115032
-7.8817325 4.2527523 0
-7.3633823 3.9730656 0.46734187
-7.6518869 4.1168041 -0.96849084
-7.7275248 4.1574984 -0.49013418
-7.9074898 4.2543216 0
-7.3430133 3.9506266 0.46574575
-7.6705356 4.1148939 -0.9702211
-7.6982026 4.1297364 -0.48795751
-7.9034514 4.2398429 0
-7.34091 3.9380648 0.46531019
-7.666379 4.1007428 -0.96906793
-7.6344538 4.0836663 -0.48360363
-7.9567575 4.2560663 0
-7.3479519 3.9304163 0.46545517
-7.6690483 4.0902605 -0.96877992
-7.6026988 4.054873 -0.48128137
-8.0032234 4.2684917 0
-7.3504052 3.9203134 0.46531019
-7.6899643 4.0894885 -0.97079718
-7.6098847 4.0469027 -0.48142639
-8.0589228 4.2856989 0
-7.3597298 3.9138713 0.46560073
-7.7152815 4.0969748 -0.97368062
-7.6100354 4.0410872 -0.48128137
-8.1028795 4.3027973 0
-7.3712635 3.9142942 0.46618074
-7.7339368 4.0949087 -0.97540981
-7.6263928 4.0379672 -0.48200694
-8.1011791 4.2893534 0
-6.3403621 3.3570487 0.40072662
-7.7297301 4.0807309 -0.97425663
-7.6289706 4.0275373 -0.48186195
-8.1730967 4.314796 0
-6.3788753 3.3675785 0.40290329
-7.7529655 4.0810261 -0.97656298
-7.6315346 4.017107 -0.48171693
-8.3003483 4.3691592 0
-6.3898401 3.3635006 0.40333885
-7.8174319 4.1029048 -0.98405802
-6.9024563 3.6226885 -0.43541953
-8.683526 4.557466 0
-6.3961983 3.3569837 0.40348384
-7.8246732 4.0946541 -0.98434609
-6.9413652 3.6324186 -0.43759677
-8.670579 4.5373168 0
-0 0 0
-7.8548417 4.0983586 -0.98751754
-6.9826088 3.6432605 -0.43991899
-8.6714449 4.5244312 0
-6.434238 3.3571415 0.4053705
-7.8597879 4.0888648 -0.98751754
-6.9962177 3.6396129 -0.44049901
-9.0762939 4.7217226 0
-6.4336839 3.3469684 0.4050805
-7.846355 4.0698371 -0.98521119
-6.9821663 3.6215899 -0.43933845
-9.1050987 4.7227373 0
-6.4354191 3.337997 0.40493551
-7.8305922 4.0496616 -0.98261684
-8.3205242 4.3030343 -0.52322429
-9.0830593 4.6973863 0
-6.4163623 3.31828 0.40348384
-7.7757134 4.0093794 -0.9751218
-8.3072414 4.2834506 -0.5220632
-9.0748539 4.6792536 0
-6.4088221 3.3045714 0.40275827
-7.5413294 3.876997 -0.94514054
-7.0044918 3.6010087 -0.43991899
-8.9231119 4.5873713 0
-6.3989491 3.2896991 0.40188771
-7.4493403 3.8183324 -0.93303281
-7.0134583 3.5949109 -0.440209
-8.8105402 4.516047 0
-6.3867307 3.2736669 0.4008716
-0 0 -0
-7.440134 3.8022687 -0.93130356
-7.0085416 3.5817039 -0.43962845
-8.7487965 4.4710584 0
-6.4068804 3.2742257 0.40188771
-0 0 -0
-7.456244 3.7991459 -0.93274474
-8.2097769 4.1830902 -0.51466149
-8.5918779 4.3777804 0
-6.4061971 3.2641203 0.40159717
-8.221777 4.1766987 -0.51509708
-8.4045858 4.2695665 0
-6.4263554 3.2646165 0.40261328
-0 0 -0
-8.2040129 4.1427627 -0.51335537
-8.3521614 4.2175732 0
-6.4203043 3.2420473 0.40174216
-0 0 -0
-8.2113314 4.1340141 -0.51350039
-8.2828665 4.1700287 0
-6.449749 3.2471414 0.40333885
-6.9787989 3.5082095 -0.43629065
-8.2179642 4.1311316 0
-7.0065513 3.5221605 0.43802562
-6.9946456 3.5055945 -0.43701622
-8.1624527 4.090879 0
-6.9039474 3.4601381 0.43134949
-7.0011988 3.4983008 -0.43716121
-8.1813622 4.0879951 0
-6.4455867 3.2206769 0.40246826
-7.0054207 3.4898386 -0.43716121
-8.225894 4.0978327 0
-6.4401698 3.208252 0.40188771
-8.4524431 4.1979508 -0.52714324
-8.293766 4.1191435 0
-6.4533505 3.2050912 0.40246826
-8.436554 4.1773586 -0.52583712
-6.9554305 3.4439807 0
-6.4385896 3.188067 0.40130717
-8.3996506 4.1464558 -0.52322429
-6.9735842 3.4424837 0
-7.0971336 3.5034733 0.44208899
-8.3323879 4.1007376 -0.5187254
-6.9637332 3.4271622 0
-7.1340055 3.5109608 0.44412121
-8.2183714 4.0322971 -0.51132369
-8.4000235 4.1214237 0
-7.1335731 3.500047 0.44383067
-8.1975594 4.0098033 -0.50972706
-8.3792791 4.098691 0
-8.6315842 4.222105 0.53671491
-8.2444429 4.0203981 -0.51233983
-8.3842249 4.0885634 0
-8.6016531 4.194592 0.53453821
-8.7703943 4.2637687 -0.54470384
-8.3891592 4.0784297 0
-8.6043806 4.1830606 0.53439325
-8.6820173 4.2078414 -0.53889883
-8.4034491 4.0728302 0
-8.6234541 4.1794581 0.53526378
-8.4274082 4.0718751 -0.5227893
-8.4013414 4.0592799 0
-8.6518898 4.1803379 0.53671491
-8.2754803 3.9861412 -0.5130654
-6.9760561 3.3602333 0
-8.6943913 4.1879225 0.53903711
-8.2217331 3.9480202 -0.50943702
-6.9871516 3.3551824 0
-8.7228737 4.1886644 0.54048878
-8.217123 3.9335952 -0.50885648
-6.979466 3.3411198 0
-8.7302694 4.1792421 0.5406338
-8.2218704 3.9236634 -0.50885648
-6.9764495 3.3293204 0
-8.7259331 4.1642137 0.54005325
-8.2312937 3.9159565 -0.50914651
-6.9828148 3.3220053 0
-8.7286139 4.1525521 0.53990823
-8.2336578 3.9109828 -0.50914651
-8.1813116 3.8861184 0
-8.7381554 4.150619 0.54034323
-8.2501268 3.9065948 -0.50987262
-8.183651 3.8751173 0
-8.7478657 4.1422839 0.5406338
-8.2689352 3.9032762 -0.51074314
-8.2212715 3.8807771 0
-8.7951565 4.1516743 0.54324603
-8.2948036 3.9032383 -0.51204926
-8.2353735 3.8752728 0
-8.9365292 4.2052112 0.55166388
-8.3418541 3.913074 -0.51466149
-8.2565365 3.8730526 0
-8.9768839 4.2109599 0.55384052
-8.3913012 3.9239056 -0.51741928
-8.3201456 3.8906324 0
-9.7963448 4.5809264 0.6040563
-9.1543512 4.2672477 -0.5641517
-9.7306204 4.5358725 0
-9.8089409 4.572381 0.60449183
-9.1712809 4.2616572 -0.56487727
-9.7691412 4.5394678 0
-9.7979603 4.5528593 0.60347569
-9.185854 4.254941 -0.56545782
-8.6458979 4.0048304 0
-7.1015692 3.2894881 0.43715453
-9.193346 4.2449269 -0.56560284
-9.7800827 4.5158463 0
-7.0772295 3.2678332 0.43541285
-8.3204365 3.8296804 -0.51161373
-9.7737045 4.4985819 0
-7.0292482 3.2353799 0.43222004
-8.3746529 3.8423784 -0.51466149
-9.7720432 4.4835162 0
-6.9741111 3.1997955 0.4285917
-8.4336414 3.8571143 -0.51799983
-9.7324839 4.4511385 0
-6.9448943 3.1762381 0.42656004
-8.4903069 3.8706324 -0.52119267
-9.2832203 4.2321129 0
-6.9274502 3.1581442 0.42525393
-8.5564795 3.888319 -0.524966
-9.2101421 4.1853628 0
-6.9312615 3.1497715 0.42525393
-8.5753775 3.8844125 -0.52583712
-9.2080784 4.1710086 0
-6.9516239 3.1488962 0.42626947
-8.5776901 3.8729756 -0.52569157
-9.2154903 4.1609535 0
-6.9909496 3.1565347 0.42844671
-8.5823631 3.8626082 -0.52569157
-9.2299948 4.1540837 0
-7.0113473 3.1555512 0.42946282
-8.5633211 3.8416016 -0.52424043
-9.2635021 4.1557107 0
-6.9961886 3.1385686 0.42830172
-8.5561543 3.8321788 -0.52365988
-9.2755117 4.1543684 0
-6.9696259 3.1215956 0.42656004
-8.5726404 3.8271329 -0.52438545
-9.3019094 4.1527052 0
-6.9306879 3.0941069 0.42394781
-8.638978 3.8442364 -0.52815878
-9.3283272 4.1509881 0
-6.9462895 3.0910113 0.42467335
-8.6982508 3.8580275 -0.53149712
-9.3547449 4.149209 0
-6.9927697 3.1015775 0.42728558
-8.7813301 3.8821855 -0.53628659
-9.3478432 4.132638 0
-7.0749369 3.1277969 0.43207505
-7.9110193 3.4860039 -0.48287806
-9.3075876 4.1014042 0
-7.1429052 3.1475332 0.4359934
-7.9318724 3.4837539 -0.4838936
-9.2577391 4.0660872 0
-9.7992573 4.3039269 0.59781569
-7.9455976 3.4783354 -0.48447418
-9.2674084 4.0569835 0
-9.80445 4.2920833 0.59781569
-7.9497948 3.4687321 -0.48447418
-9.3056936 4.0603514 0
-9.8024826 4.2771149 0.59738016
-7.9492192 3.4570534 -0.48418418
-9.4084406 4.0916576 0
-9.8100328 4.2663069 0.59752572
-7.960536 3.4505429 -0.48461917
-9.5805216 4.1527357 0
-9.8104076 4.2523813 0.59723514
-7.9766331 3.4460773 -0.48534527
-9.6571999 4.1721187 0
-9.8059969 4.236402 0.59665459
-8.0118151 3.449795 -0.48723197
-9.70047 4.1769104 0
-9.8111095 4.2245502 0.59665459
-8.0231342 3.4431832 -0.48766696
-9.7126875 4.1682663 0
-9.799489 4.2055182 0.59563845
-8.0272884 3.4334862 -0.48766696
-9.7153263 4.1555052 0
-9.7902336 4.1875448 0.59476793
-8.0457773 3.4299002 -0.48853809
-9.7418842 4.1529469 0
-9.7952862 4.1757126 0.59476793
-9.7430382 4.139534 -0.59129125
-9.7492876 4.1421895 0
-9.8027143 4.1648889 0.59491289
-9.7336807 4.1216812 -0.59042066
-9.7614775 4.1334519 0
-9.7957773 4.1479759 0.59418732
-9.7386541 4.1099172 -0.59042066
-9.7329016 4.1074896 0
-9.803174 4.137146 0.59433234
-9.7412195 4.0971403 -0.5902757
-9.0493946 3.80616 0
-9.8057728 4.1242914 0.59418732
-9.7245264 4.0832067 -0.58911455
-9.0660849 3.8067353 0
-9.8034763 4.1163564 0.59389734
-9.7222605 4.0684433 -0.58867902
-9.0778828 3.7987928 0
-9.8060389 4.1035018 0.59375179
-9.727169 4.0566926 -0.58867902
-9.0824661 3.7878213 0
-8.9524689 3.7336061 0.5417949
-9.7273417 4.0291967 -0.58809847
-9.7383461 4.0337553 0
-9.8016443 4.0599737 0.59259069
-9.734602 4.0184307 -0.58824348
-9.7528353 4.0259576 0
-8.9419212 3.6912129 0.54034323
-9.727438 4.0017233 -0.58751792
-9.7504702 4.0111985 0
-8.9704094 3.6902933 0.5417949
-9.7322655 3.9899669 -0.58751792
-9.7504892 3.997438 0
-8.9868813 3.6843791 0.54252046
-9.7515078 3.9840991 -0.58838844
-9.7673655 3.9905777 0
-8.0219898 3.2774832 0.48403248
-9.7900124 3.9860334 -0.59042066
-9.7866373 3.9846594 0
-8.0548143 3.2795424 0.48577359
