# .PCD v0.7 - Point Cloud Data file format
VERSION 0.7
FIELDS x y z
SIZE 4 4 4
TYPE F F F
COUNT 1 1 1
WIDTH 1789
HEIGHT 1
VIEWPOINT 0 0 0 1 0 0 0
POINTS 1789
DATA ascii
-1.3586489 4.4837403 0.26168996
-1.473657 4.842195 -0.84381992
-1.4560242 4.784256 -0.55740744
-1.395118 4.5841289 -0.26764724
-1.3921916 4.574513 0
-1.3610394 4.4721518 0.26110941
-1.4765053 4.8305907 -0.84210807
-1.4527314 4.752811 -0.55394793
-1.4021736 4.5874047 -0.26793724
-1.3954351 4.5653586 0
-0 0 0
-1.4853544 4.8386192 -0.84381992
-1.4357035 4.6768789 -0.54529971
-1.4031417 4.5708075 -0.26706666
-1.3994244 4.5586982 0
-1.3733695 4.4738226 0.26139995
-1.4896858 4.8319101 -0.84296316
-1.4230649 4.6158204 -0.53838068
-1.4094285 4.5715895 -0.26721168
-1.4056977 4.5594888 0
-1.379539 4.4746408 0.26154494
-1.4947646 4.8276567 -0.84253561
-1.4209926 4.5893946 -0.53549832
-1.4134157 4.5649238 -0.26692167
-1.4127469 4.5627637 0
-1.3895545 4.4878588 0.26241553
-1.5013583 4.8282962 -0.84296316
-1.4257697 4.585207 -0.53521031
-1.4173859 4.5582452 -0.26663113
-1.4190311 4.5635362 0
-1.3934346 4.4812188 0.26212552
-1.4926548 4.7799282 -0.83483303
-1.4305388 4.5810142 -0.5349223
-1.4267646 4.5689282 -0.26735666
-1.4191132 4.5444264 0
-1.4011726 4.4869752 0.26256108
-1.4792262 4.7168875 -0.82413423
-1.4345236 4.5743418 -0.53434515
-1.4353944 4.5771189 -0.26793724
-1.4222692 4.5352654 0
-1.4073701 4.4877558 0.26270607
-1.4725868 4.6759205 -0.81728679
-1.4423813 4.5800085 -0.53521031
-1.4424865 4.5803428 -0.26822779
-1.4277481 4.5335436 0
-1.4096694 4.4761381 0.26212552
-0 0 -0
-1.4735898 4.6594477 -0.81471813
-1.4455738 4.5708618 -0.53434515
-1.4448857 4.5686865 -0.26764724
-1.4363641 4.5417409 0
-1.4158597 4.4769068 0.26227051
-1.4761136 4.6478863 -0.81300789
-1.4518778 4.5715747 -0.53463316
-1.4535512 4.5768433 -0.26822779
-1.4371227 4.5251145 0
-1.4220539 4.4776669 0.26241553
-1.4817286 4.6460996 -0.81300789
-1.4589739 4.5747499 -0.53521031
-1.4590803 4.5750837 -0.26822779
-1.4441724 4.5283384 0
-1.4314132 4.4883304 0.26314163
-1.4849918 4.6369691 -0.81172359
-1.460557 4.5606699 -0.53376913
-1.4677774 4.5832157 -0.26880834
-1.449643 4.5265903 0
-1.4384189 4.4915423 0.26343164
-1.492952 4.6425052 -0.81300789
-1.4652725 4.5564322 -0.53347999
-1.4733143 4.581439 -0.26880834
-1.4519244 4.514925 0
-1.4478216 4.5021672 0.26415718
-1.4969813 4.635807 -0.81215113
-1.4739562 4.5645037 -0.53463316
-1.475655 4.5697646 -0.26822779
-1.4605777 4.5230737 0
-1.4572523 4.5127754 0.26488274
-1.5025817 4.6339951 -0.81215113
-1.4738883 4.5455041 -0.53261596
-1.4835777 4.5753865 -0.26866278
-1.464435 4.5163498 0
-1.4723216 4.5406723 0.26662442
-1.5073858 4.6297374 -0.81172359
-1.4817795 4.5510907 -0.53347999
-1.4883014 4.5711222 -0.26851779
-1.4674731 4.5071507 0
-1.4826354 4.5537195 0.26749554
-1.5097882 4.6181526 -0.81001174
-1.4824567 4.5345511 -0.5317508
-1.49544 4.5742645 -0.26880834
-1.4753449 4.5127974 0
-0 0 0
-1.5117795 4.6148028 -0.8095842
-1.4900258 4.548398 -0.53347999
-1.4973921 4.5708838 -0.26866278
-1.4788805 4.5143762 0
-1.4973578 4.5707798 0.26865664
-1.5181558 4.6154089 -0.81001174
-1.496331 4.549058 -0.53376913
-1.502914 4.5690713 -0.26866278
-1.4843341 4.5125861 0
-1.505313 4.576365 0.26909167
-1.5205114 4.6038208 -0.80829984
-1.5050712 4.5570707 -0.5349223
-1.5068054 4.5623221 -0.26837277
-1.4881549 4.5058513 0
-1.5092133 4.5696125 0.26880166
-1.5252658 4.599546 -0.8078723
-1.5073199 4.5454288 -0.53376913
-1.5147715 4.5678997 -0.26880834
-1.4935982 4.5040503 0
-1.5196395 4.5825791 0.26967221
-1.5291989 4.5928235 -0.80701554
-1.510359 4.5362396 -0.53290397
-1.5202898 4.5660658 -0.26880834
-1.4998608 4.5047088 0
-1.528459 4.5906014 0.27025276
-1.5282362 4.5714955 -0.80359179
-1.5174776 4.5393128 -0.53347999
-1.528275 4.5716114 -0.26924336
-1.4987017 4.4831476 0
-1.5389493 4.6035423 0.27112389
-1.5378454 4.581821 -0.80573291
-1.524609 4.5423846 -0.53405714
-1.535453 4.5746932 -0.2695339
-1.5049449 4.483798 0
-1.5469887 4.6090622 0.27155888
-1.5441995 4.5823898 -0.80616045
-1.5276178 4.5331836 -0.53319198
-1.5409795 4.5728345 -0.2695339
-1.5095314 4.4795127 0
-1.5500698 4.5998096 0.27112389
-1.5464444 4.5707936 -0.80444854
-1.5339222 4.5337825 -0.53347999
-1.5448366 4.5660419 -0.26924336
-1.5132763 4.4727597 0
-1.5589577 4.607779 0.27170444
-1.5494884 4.5616274 -0.80316424
-1.5418957 4.5392752 -0.53434515
-1.5520258 4.569097 -0.2695339
-1.517004 4.4659948 0
-1.5712068 4.6255655 0.272865
-1.5566579 4.5646157 -0.804021
-1.5482135 4.5398545 -0.53463316
-1.5609003 4.5770559 -0.27011445
-1.52156 4.4616976 0
-1.5717641 4.608912 0.27199444
-1.5654984 4.5724463 -0.80573291
-1.5562122 4.5453238 -0.53549832
-1.5672705 4.5776229 -0.27025947
-1.5244201 4.452467 0
-12.649098 36.944992 2.181205
-1.5701852 4.5681167 -0.80530369
-1.5617032 4.5434399 -0.53549832
-1.5744883 4.5806355 -0.27054945
-1.5331829 4.4604664 0
-12.665013 36.846138 2.1762707
-1.5815662 4.5832052 -0.80829984
-1.5714097 4.5537724 -0.5369395
-1.5791751 4.5762758 -0.27040446
-1.541119 4.4659934 0
-12.695117 36.789051 2.1738033
-1.5845813 4.5740113 -0.80701554
-1.5743732 4.5445457 -0.53607547
-1.5847034 4.5743642 -0.27040446
-1.5431064 4.4542913 0
-12.714897 36.702496 2.169595
-1.591795 4.5769472 -0.8078723
-1.581561 4.5475211 -0.53665149
-1.5927911 4.5798116 -0.27084002
-1.5484875 4.4524236 0
-12.739603 36.630653 2.1662567
-1.5990149 4.5798631 -0.80872744
-1.5879064 4.5480461 -0.5369395
-1.5983237 4.5778832 -0.27084002
-1.5572977 4.4603777 0
-7.0548902 20.206461 1.1954691
-1.6087923 4.5900383 -0.81086683
-1.5916911 4.5412474 -0.53636348
-1.6021334 4.5710397 -0.27054945
-1.5601027 4.4511223 0
-7.0767212 20.190563 1.1950336
-1.6168942 4.5953579 -0.81215113
-1.5997535 4.5466423 -0.53722864
-1.6093819 4.5740075 -0.27084002
-1.562891 4.4418759 0
-7.1011124 20.181997 1.1950336
-1.6284311 4.6103468 -0.81514734
-1.6061066 4.5471425 -0.53751665
-1.6183692 4.5818601 -0.27142057
-1.5691229 4.4424357 0
-7.1228995 20.166058 1.1945986
-1.663667 4.6741052 -0.82712877
-1.6196901 4.5505514 -0.53838068
-1.6276927 4.5730348 -0.27113003
-1.5746162 4.4239154 0
-7.1742234 20.156124 1.1950336
-1.6304106 4.5632095 -0.54011101
-1.6253494 4.5490446 -0.26982391
-1.5782108 4.4171128 0
-7.1985731 20.14744 1.1950336
-1.6333027 4.5539303 -0.53924584
-1.6115474 4.4932723 -0.26663113
-1.583547 4.4152026 0
-7.2255445 20.146067 1.1954691
-1.6150649 4.4945335 -0.53232795
-1.5905389 4.42628 -0.26271278
-1.5879726 4.4191389 0
-7.2456222 20.163704 1.1967752
-1.5818796 4.3855247 -0.51964307
-1.5888326 4.4048009 -0.26155165
-1.5906645 4.4098792 0
-7.2699809 20.154934 1.1967752
-1.5669274 4.3276815 -0.51301318
-1.5923829 4.3979864 -0.26126111
-1.5942181 4.4030552 0
-7.2952127 20.148577 1.1969202
-1.563319 4.3014712 -0.51012969
-1.5959224 4.3911796 -0.2609711
-1.6039811 4.4133534 0
-7.3204432 20.142197 1.1970657
-1.5764922 4.3214455 -0.51272404
-1.5967753 4.3770452 -0.26024553
-1.6128802 4.4211917 0
-7.3429928 20.128448 1.1967752
-1.5754898 4.3025432 -0.51070684
-1.6038482 4.3799877 -0.26053554
-1.6182213 4.4192395 0
-3.1878562 8.7057934 0.51784813
-1.5842565 4.3103471 -0.51186001
-1.6082438 4.3756099 -0.26039052
-1.6262542 4.4246116 0
-3.2001643 8.706809 0.51813817
-1.6002063 4.3375492 -0.51531953
-1.6144282 4.3760991 -0.26053554
-1.6352023 4.4324098 0
-0 0 0
-2.9023163 7.8378944 -0.93159157
-1.6170069 4.3668327 -0.26009998
-1.6387477 4.4255452 0
-3.2121744 8.6746864 0.51668704
-2.920794 7.8586216 -0.93447399
-1.6222821 4.3648758 -0.26009998
-1.6468147 4.4308825 0
-3.2190328 8.6610565 0.51610649
-2.9212489 7.8308578 -0.93159157
-1.627555 4.3629122 -0.26009998
-1.6558058 4.438643 0
-3.2258627 8.6474228 0.51552594
-2.9352427 7.8394313 -0.93303281
-1.6300948 4.3536491 -0.25966498
-7.8443561 20.950666 0
-3.2308407 8.6289129 0.51465482
-2.9347072 7.8092532 -0.92986238
-1.6380937 4.3589664 -0.26009998
-7.8449454 20.875393 0
-7.5500126 20.090578 1.1988069
-2.948704 7.8177996 -0.93130356
-1.6461115 4.3642797 -0.26053554
-7.8224077 20.739286 0
-7.5788703 20.093603 1.199533
-2.9563148 7.8093882 -0.93072647
-1.6495456 4.3574319 -0.26024553
-7.8032384 20.612999 0
-7.6059012 20.091715 1.199968
-2.9629955 7.798564 -0.92986238
-1.6529619 4.3505731 -0.25995499
-7.7754536 20.464888 0
-7.6255589 20.070368 1.1992425
-2.9761028 7.8046451 -0.93101555
-1.6609958 4.3558588 -0.26039052
-7.7491784 20.321741 0
-7.6516581 20.065998 1.199533
-2.9762843 7.7768822 -0.92813212
-1.676475 4.3805456 -0.26198721
-7.7086186 20.142237 0
-3.2868147 8.5882826 0.51363927
-2.9912453 7.7877722 -0.92986238
-1.6873552 4.3930659 -0.26285776
-7.7040229 20.05759 0
-3.2860093 8.5551968 0.51189756
-3.0034413 7.7913852 -0.93072647
-1.7020066 4.4152646 -0.26430887
-7.7151494 20.014277 0
-3.291672 8.5390997 0.51117206
-3.0147216 7.7925797 -0.93130356
-1.7007802 4.3962483 -0.26329333
-7.733695 19.990381 0
-3.2916734 8.5084562 0.50957537
-3.0213261 7.7816954 -0.9304384
-1.7070304 4.3966098 -0.26343831
-7.7634935 19.995573 0
-3.2934885 8.4826746 0.50826925
-3.0279083 7.7708068 -0.9295733
-7.7895403 19.991032 0
-3.3037357 8.4786882 0.50826925
-3.039187 7.7858443 -0.93159157
-7.8016167 19.986322 0
-3.3031902 8.4621725 0.50739866
-3.0476501 7.7797604 -0.93130356
-0 0 -0
-7.8248086 19.974451 0
-3.308671 8.4460707 0.50667256
-3.0655642 7.7977343 -0.93389791
-0 0 -0
-7.8546529 19.979519 0
-3.3008132 8.3961267 0.50391531
-3.0949171 7.8445482 -0.93995178
-0 0 -0
-7.8749681 19.960329 0
-7.9081821 20.044518 1.2035964
-3.1253388 7.8937049 -0.94629365
-0 0 -0
-7.9029126 19.96048 0
-7.9362226 20.044611 1.2041769
-3.1511097 7.9307833 -0.95119435
-0 0 -0
-7.9337492 19.967838 0
-7.9604368 20.035006 1.2041769
-3.1923018 8.0062513 -0.96070772
-3.0834901 7.7333531 -0.46502632
-7.9867892 20.030764 0
-7.9913769 20.042271 1.205193
-3.2125437 8.0288057 -0.96387923
-3.0947645 7.7344518 -0.46531686
-8.0235538 20.052509 0
-8.0300655 20.068781 1.2073697
-3.2318785 8.0489159 -0.96676159
-3.1050751 7.7331157 -0.46546188
-8.0662003 20.088678 0
-3.4593818 8.6155081 0.5185737
-3.2483692 8.061801 -0.96877992
-3.1027632 7.7004361 -0.4637202
-8.1021385 20.107883 0
-3.465905 8.6016808 0.51799315
-3.2697389 8.0866356 -0.97223836
-3.1188846 7.7135468 -0.46473631
-8.1235018 20.090839 0
-3.4811652 8.6095295 0.51871872
-3.2756178 8.0730915 -0.97108519
-3.1282027 7.7097726 -0.46473631
-8.1526632 20.093065 0
-3.4788661 8.5740175 0.51683205
-3.2892716 8.0787106 -0.97223836
-3.1375163 7.705987 -0.46473631
-8.1769361 20.083199 0
-3.4774652 8.5409288 0.51509035
-3.3049021 8.0891008 -0.97396863
-3.1507561 7.711812 -0.46531686
-8.198246 20.066084 0
-3.4809062 8.5198898 0.5140748
-3.323503 8.106638 -0.97656298
-3.1669726 7.7248311 -0.466333
-8.232357 20.080238 0
-3.477397 8.4820127 0.51204258
-3.3372319 8.1121836 -0.97771615
-3.1861882 7.7450247 -0.46778411
-8.2595854 20.077499 0
-3.426357 8.3288298 0.50304478
-3.3401222 8.0914078 -0.97569788
-3.1935594 7.736361 -0.46749356
-8.2868147 20.074715 0
-3.4274921 8.3030605 0.50173807
-3.3192155 8.0132952 -0.96676159
-3.1949537 7.7133007 -0.466333
-7.7603455 18.735132 0
-3.4285736 8.2773094 0.50043195
-3.2881963 7.9113564 -0.95494193
-3.2341881 7.7814136 -0.47068688
-7.792964 18.749767 0
-3.3847251 8.1436033 0.49259529
-3.2738631 7.8500938 -0.94802397
-3.2275851 7.7391281 -0.46836466
-7.8316417 18.77877 0
-3.358556 8.0531712 0.48737028
-3.276356 7.8294282 -0.94600564
-3.2459607 7.7567935 -0.46967077
-7.8452854 18.747688 0
-3.3552451 8.0179482 0.48548359
-3.2828088 7.8183069 -0.94514054
-3.2814844 7.8151522 -0.47344413
-7.8709526 18.745386 0
-3.3639259 8.0114946 0.4853386
-3.2962701 7.8238688 -0.94629365
-3.2878973 7.8039956 -0.47300857
-8.4442596 20.042889 0
-3.3705761 8.0002375 0.48490304
-3.308037 7.8385592 -0.94831198
-3.2895834 7.7948327 -0.47257358
-8.4573812 20.040188 0
-3.3713677 7.9886241 0.48432249
-3.3175061 7.8345561 -0.94831198
-3.3020363 7.7980232 -0.47300857
-8.4775305 20.020369 0
-3.38203 7.9869351 0.48446748
-3.321914 7.8186417 -0.9468708
-3.3378768 7.8562126 -0.47678247
-8.5098572 20.029272 0
-3.398792 7.9995861 0.48548359
-3.3425131 7.8407874 -0.95004123
-3.3381932 7.8306541 -0.47547579
-8.5391541 20.030943 0
-3.4104915 8.0002489 0.48577359
-3.3509686 7.8343673 -0.94975317
-0 0 -0
-8.5633516 20.020611 0
-3.4232223 8.0032921 0.48620915
-3.3543141 7.8160558 -0.94802397
-0 0 -0
-8.6039534 20.048506 0
-3.4185455 7.9657245 0.48417747
-3.3637559 7.8119974 -0.94802397
-0 0 -0
-8.6189098 20.016584 0
-3.4548848 8.0236359 0.48795083
-3.3731928 7.8079271 -0.94802397
-4.0633287 9.405385 -0.57227898
-8.6482534 20.018106 0
-3.5428934 8.2007332 0.49898088
-3.3867393 7.8133383 -0.94917715
-4.0333581 9.3051128 -0.5664739
-8.6786432 20.021965 0
-3.5869014 8.2751198 0.50377035
-3.4013343 7.8210974 -0.95061833
-4.0653205 9.3478804 -0.56937617
-8.7152843 20.040104 0
-3.6010427 8.2803116 0.5043509
-3.4169862 7.8312011 -0.95234752
-4.0599899 9.3048649 -0.56705451
-8.7301264 20.008093 0
-3.6141598 8.2830925 0.5047859
-3.4264462 7.8270664 -0.95234752
-4.120203 9.4118223 -0.57387561
-8.7595129 20.009447 0
-3.6012428 8.2263556 0.50159311
-3.4286196 7.8063416 -0.95032924
-4.1190333 9.3782883 -0.57213396
-8.7889166 20.010759 0
-3.5965531 8.1886959 0.49956143
-3.4338815 7.7927346 -0.94917715
-4.1198864 9.3495302 -0.57068282
-8.8214846 20.019178 0
-3.631592 8.2414122 0.50304478
-3.4432623 7.7631273 -0.94658172
-4.1403594 9.3347912 -0.57039225
-8.8708916 20.000177 0
-3.693635 8.3276138 0.5088498
-3.4473834 7.747148 -0.94514054
-4.1283965 9.2775583 -0.56719947
-8.8939943 19.98707 0
-3.717427 8.3540049 0.51073647
-3.4599059 7.7500648 -0.94600564
-4.1470194 9.2891741 -0.56821561
-8.9213219 19.98344 0
-3.7190442 8.3305254 0.50957537
-3.4692678 7.7458787 -0.94600564
-4.1646113 9.2983809 -0.56908613
-5.3787374 12.009176 0
-3.7322948 8.3331423 0.5100109
-3.4648445 7.7110128 -0.94225812
-4.1886239 9.321784 -0.57082784
-5.3857765 11.986049 0
-3.7338409 8.3096647 0.5088498
-3.4380209 7.6266541 -0.93245673
-4.1678505 9.2456541 -0.5664739
-5.3852844 11.946321 0
-3.7396073 8.2956715 0.50826925
-3.3129492 7.3255658 -0.89613354
-4.1800885 9.2429771 -0.56661892
-5.3846993 11.906603 0
-3.7560506 8.3053484 0.50913978
-0 0 -0
-4.2060399 9.2854147 -0.56937617
-5.3972602 11.915198 0
-5.3799491 11.876982 0.72828954
-0 0 -0
-4.2312346 9.3110857 -0.57126337
-5.406271 11.896823 0
-3.5733063 7.8632751 0.48243579
-0 0 -0
-4.2381706 9.2965097 -0.57068282
-5.4292784 11.909226 0
-3.5558591 7.7998457 0.47880745
-0 0 -0
-4.2558832 9.3055553 -0.57155341
-5.4317608 11.876631 0
-3.566361 7.797904 0.47895247
-3.2901752 7.1710987 -0.87941319
-4.2898784 9.3500004 -0.57460117
-5.4504442 11.879511 0
-3.5757804 7.7935891 0.47895247
-3.294512 7.1577196 -0.87826002
-4.2924809 9.3259268 -0.57344007
-5.4593549 11.861098 0
-3.5775928 7.7727466 0.47793689
-3.2966547 7.1396484 -0.87653077
-4.3113728 9.3372488 -0.57445616
-5.4725928 11.852133 0
-3.5837133 7.7613387 0.47750133
-3.303103 7.1309619 -0.87595367
-4.3455858 9.3815441 -0.57750398
-5.5055041 11.885654 0
-3.5854428 7.7404962 0.47648522
-3.3117168 7.1269655 -0.87595367
-4.3514442 9.3645067 -0.57677841
-5.5056057 11.848313 0
-3.6002669 7.7479382 0.47721079
-3.3094003 7.0995202 -0.87307131
-4.3704381 9.375721 -0.57779396
-5.530911 11.865236 0
-3.6041379 7.7318087 0.47648522
-3.3168817 7.0931754 -0.87278324
-4.4092798 9.4292765 -0.58142233
-5.5706 11.912768 0
-3.6222832 7.7462788 0.47764635
-3.3287463 7.0961895 -0.87364841
-4.4250841 9.4333515 -0.58200288
-5.5982533 11.934303 0
-3.6349521 7.7489557 0.47808191
-3.3318088 7.0804539 -0.87220615
-4.4043956 9.3598166 -0.57779396
-5.6071258 11.915749 0
-3.6443124 7.7445583 0.47808191
-3.3392587 7.0740862 -0.87191814
-4.4001751 9.3215952 -0.57576227
-9.4384966 19.995079 0
-3.6603208 7.7542434 0.47895247
-3.3433762 7.0606956 -0.87076497
-4.4136572 9.3209639 -0.57605231
-9.4570818 19.971901 0
-3.6607912 7.7310271 0.47779134
-3.3474662 7.0473056 -0.8696118
-4.4416409 9.3508339 -0.57822955
-9.4879045 19.97456 0
-3.6656704 7.7172098 0.47721079
-3.355979 7.0432553 -0.8696118
-4.4518194 9.3431158 -0.57808453
-9.5142736 19.967783 0
-3.6671717 7.6963611 0.47619522
-3.3678343 7.0461984 -0.8704769
-0 0 -0
-9.540637 19.960964 0
-3.6764686 7.6919246 0.47619522
-3.3696387 7.0281348 -0.86874771
-0 0 -0
-9.5703773 19.961163 0
-3.6801441 7.6757636 0.47546968
-3.3792481 7.0263867 -0.86903572
-0 0 -0
-9.6001282 19.961308 0
-3.6849113 7.6619444 0.4748891
-3.3922312 7.0316167 -0.87018889
-0 0 -0
-9.6219769 19.945002 0
-3.6998107 7.6691856 0.47561467
-3.3928373 7.0112133 -0.86817062
-0 0 -0
-9.6483393 19.938051 0
-3.7045472 7.6553535 0.47503412
-3.4013066 7.0071082 -0.86817062
-0 0 -0
-9.6837854 19.949785 0
-3.7103894 7.643857 0.47459856
-3.410902 7.0053167 -0.86845863
-0 0 -0
-9.7113028 19.945091 0
-3.7116635 7.6230211 0.47358298
-3.4185357 7.0102315 -0.86932379
-0 0 -0
-9.7187881 19.929865 0
-3.7094324 7.6067595 0.47271189
-3.4315498 7.0153894 -0.8704769
-3.861387 7.8941393 -0.49086031
-9.7577276 19.948496 0
-3.7106276 7.5859303 0.47169575
-3.4183762 6.9671168 -0.86499912
-3.8892312 7.9267836 -0.49318197
-9.7772388 19.927345 0
-3.7186477 7.5791106 0.47155076
-3.4370744 6.9838738 -0.86759454
-3.8988063 7.9220786 -0.49318197
-9.8001614 19.913183 0
-3.7232132 7.5652862 0.47097021
-3.4432185 6.9750729 -0.86701745
-3.908376 7.9173617 -0.49318197
-9.828824 19.910662 0
-3.7381015 7.5724301 0.47169575
-3.4550881 6.9778628 -0.86788255
-3.935236 7.9475651 -0.49535921
-9.8609552 19.915091 0
-3.7449448 7.5632548 0.47140577
-3.4485614 6.9435706 -0.86413503
-3.9194102 7.8916097 -0.49216643
-7.3904457 14.880431 0
-3.7517715 7.5540743 0.47111577
-3.4442616 6.9139304 -0.86096358
-0 0 -0
-7.3933358 14.84121 0
-3.7550998 7.5378995 0.47038963
-3.4549274 6.9143953 -0.86154068
-3.9512422 7.9076772 -0.49376255
-7.3705478 14.750782 0
-3.7607241 7.5263901 0.46995464
-3.4713886 6.9263954 -0.86355793
-3.9188855 7.8192768 -0.48853809
-7.3872008 14.739541 0
-3.7686479 7.5195107 0.46980909
-3.4785948 6.9198871 -0.86326993
-3.9341648 7.8261418 -0.48926362
-7.3804598 14.681776 0
-3.7789013 7.5172801 0.46995464
-3.5102432 6.9618692 -0.86903572
-3.9728639 7.8793855 -0.49289197
-7.3853049 14.647284 0
-3.7833023 7.5034275 0.46937409
-3.4824662 6.8860688 -0.86009842
-0 0 -0
-7.3712897 14.575651 0
-3.7818131 7.477984 0.46806797
-3.5141852 6.92799 -0.86586428
-4.0189261 7.9230542 -0.49622977
-7.3641739 14.517995 0
-3.7720385 7.4363308 0.46574575
-3.5237255 6.9260421 -0.86615229
-4.0308557 7.9228287 -0.49652034
-7.3675494 14.481252 0
-3.7562785 7.3831353 0.46269795
-3.5226912 6.903357 -0.86384702
-4.0238886 7.8855448 -0.49448809
-7.3637514 14.430616 0
-3.7604725 7.3693328 0.4621174
-3.5428119 6.9221153 -0.86672938
-4.0535383 7.9199972 -0.49695534
-7.3645849 14.389279 0
-3.7658215 7.3578424 0.46168184
-3.5310941 6.8787146 -0.86182868
-4.0654807 7.9197216 -0.49724588
-7.3843412 14.384996 0
-3.7758946 7.3555961 0.46182683
-3.5417688 6.8790379 -0.86240476
-4.075047 7.9148035 -0.49724588
-7.3898063 14.352929 0
-3.7907305 7.362586 0.46255296
-3.552454 6.879354 -0.86298186
-7.3261476 14.18714 -0.89185965
-7.3987837 14.327801 0
-3.7936592 7.3464499 0.46182683
-3.545301 6.8452015 -0.85923433
-7.3277502 14.148284 -0.88997293
-7.416091 14.318851 0
-3.8049257 7.3464794 0.4621174
-3.5654902 6.8638611 -0.86211675
-7.354423 14.157866 -0.89113408
-7.447783 14.337593 0
-3.8066103 7.3280368 0.46124628
-3.5672512 6.857121 -0.86154068
-7.3569803 14.141897 -0.89040852
-7.4516397 14.323855 0
-3.8062446 7.316524 0.46066627
-3.5803201 6.8619781 -0.86269385
-7.366848 14.11917 -0.88953739
-7.4677391 14.312536 0
-3.8078682 7.2980928 0.45979518
-3.5802131 6.8416028 -0.86067551
-4.0926185 7.8207836 -0.49303699
-7.4874387 14.30811 0
-3.8130682 7.2865772 0.45935962
-3.6041019 6.8670425 -0.86442304
-4.1020656 7.8158326 -0.49303699
-7.5156054 14.31979 0
-3.8327415 7.3026786 0.46066627
-3.6196232 6.876411 -0.86615229
-4.117557 7.8223653 -0.49376255
-7.5365405 14.317609 0
-3.0161507 5.729959 0.3616859
-3.6351767 6.8857603 -0.86788255
-4.1354985 7.8334718 -0.49477866
-7.5550489 14.310791 0
-3.0218601 5.7240148 0.36154088
-3.6434941 6.8813629 -0.86788255
-4.1619811 7.8606143 -0.49681032
-7.5832939 14.32235 0
-3.0263402 5.7157621 0.36125034
-3.6724269 6.9157877 -0.87278324
-4.1873174 7.8854117 -0.49869701
-7.6030378 14.317778 0
-0 0 0
-3.6710541 6.8930821 -0.8704769
-4.2163854 7.9170423 -0.50101924
-10.60146 19.906199 0
-3.0425894 5.7130232 0.36154088
-3.6793804 6.8886414 -0.8704769
-4.2332916 7.9256892 -0.50188977
-10.618151 19.879606 0
-3.0445933 5.7001748 0.36096033
-0 0 -0
-4.283175 7.9726596 -0.50551814
-10.674784 19.869938 0
-0 0 0
-3.7116857 6.8889165 -0.87220615
-4.2977352 7.9766283 -0.50609869
-10.695081 19.850149 0
-0 0 0
-3.7187784 6.882153 -0.87191814
-4.3110771 7.9782901 -0.50653428
-10.730191 19.857817 0
-3.0572846 5.6579604 0.35921866
-3.7233932 6.8708305 -0.87105298
-4.3318553 7.9936342 -0.50784039
-10.760377 19.856276 0
-3.0628822 5.6519794 0.35907367
-3.7329314 6.8686056 -0.87134206
-4.3514371 8.0066586 -0.50900149
-10.784361 19.84326 0
-3.0697091 5.6482744 0.35907367
-3.7412279 6.86409 -0.87134206
-4.3623509 8.0036745 -0.50914651
-10.827014 19.864492 0
-3.0727999 5.6377144 0.35863811
-3.7495191 6.8595643 -0.87134206
-4.3620481 7.9801569 -0.50798535
-10.839775 19.830845 0
-3.0833499 5.6408401 0.35907367
-3.7491004 6.8391504 -0.86932379
-4.3654432 7.9634895 -0.50725979
-10.876237 19.840549 0
-3.0864151 5.6302724 0.35863811
-3.7735589 6.864078 -0.87307131
-4.3675542 7.9445515 -0.50638926
-10.897696 19.822838 0
-3.0932159 5.6265388 0.35863811
-3.776855 6.8504534 -0.87191814
-4.3746386 7.9347129 -0.50609869
-10.926667 19.818771 0
-3.1012657 5.6250706 0.3587831
-3.7872424 6.8594894 -0.87335932
-4.3580818 7.8933992 -0.50363147
-10.941152 19.816719 0
-3.1046634 5.6231956 0.3587831
-3.8030479 6.8684893 -0.87508959
-4.3814631 7.9131355 -0.50522816
-10.971391 19.814865 0
-3.1177528 5.6308131 0.35950923
-3.8251524 6.8887568 -0.87826002
-4.401113 7.9260097 -0.50638926
-10.991533 19.794765 0
-3.1258144 5.6293116 0.35965422
-3.8397689 6.8954349 -0.87970227
-4.4347024 7.9638133 -0.50914651
-3.2531066 5.8419104 0
-3.1389337 5.636879 0.36037979
-3.816572 6.8343368 -0.87249523
-4.4481239 7.9652572 -0.50958204
-3.2614357 5.8402543 0
-3.1457424 5.6330824 0.36037979
-3.8741121 6.9177251 -0.8837378
-4.4742494 7.989347 -0.51146871
-0 0 0
-3.1525466 5.6292772 0.36037979
-3.8900647 6.9265652 -0.88546705
-4.4571805 7.9363594 -0.50842094
-0 0 0
-3.1682544 5.641325 0.3613959
-3.8882773 6.903831 -0.88316071
-4.489717 7.9717169 -0.51103318
-3.2647026 5.7966428 0
-3.1712418 5.6306987 0.36096033
-3.9156973 6.9329114 -0.88748533
-7.1980643 12.744484 -0.81755209
-0 0 0
-3.1767664 5.6246023 0.36081535
-3.9176991 6.916924 -0.88604414
-7.2288256 12.762909 -0.8192938
-3.2658777 5.7660956 0
-3.1861191 5.625277 0.36110535
-3.9388258 6.9346714 -0.88892657
-7.2031755 12.681864 -0.81464934
-0 0 0
-3.1877804 5.6123857 0.36052477
-3.9638426 6.9591217 -0.89267409
-7.222353 12.679927 -0.81508487
-3.2913938 5.7785368 0
-3.1945596 5.6085296 0.36052477
-3.9722486 6.9543271 -0.89267409
-7.2054505 12.614785 -0.81145656
-3.3048265 5.7858524 0
-3.2052016 5.6114368 0.36096033
-3.9742219 6.938303 -0.89123285
-7.2129412 12.592545 -0.81058598
-3.2988822 5.7592769 0
-3.2003572 5.5872693 0.35965422
-3.9954829 6.9559197 -0.89411527
-7.2242675 12.577059 -0.81015044
-3.3019488 5.7485142 0
-3.209692 5.5879002 0.35994422
-4.0103436 6.9622993 -0.89555752
-7.2044401 12.507524 -0.8062315
-3.3101902 5.7467732 0
-3.2073667 5.5682626 0.35892865
-4.0265131 6.9708824 -0.89728671
-7.205255 12.474066 -0.80463541
-3.3132303 5.7360148 0
-3.2114906 5.5598788 0.35863811
-4.0375233 6.9704843 -0.89786279
-7.2033925 12.436122 -0.80274874
-3.3201587 5.7320075 0
-3.2221148 5.5627418 0.35907367
-4.0368528 6.9499512 -0.89584553
-7.2092767 12.411678 -0.8017326
-3.3244655 5.7234864 0
-3.2314415 5.563334 0.35936368
-7.1928806 12.349071 -0.79824924
-3.3313787 5.7194653 0
-3.2342417 5.5526958 0.35892865
-7.2064877 12.338129 -0.79810429
-3.3409147 5.7199345 0
-3.2383251 5.544292 0.35863811
-7.1833076 12.264391 -0.79389536
-3.3451908 5.7113981 0
-3.2463338 5.5426154 0.3587831
-7.1854572 12.251083 -0.79331481
-3.349956 5.7116184 0
-3.2575719 5.5541053 0.35965422
-7.1818156 12.21104 -0.79128313
-3.3594961 5.7120576 0
-3.2629647 5.5479274 0.35950923
-7.1952462 12.200117 -0.79113811
-3.3650749 5.7057543 0
-3.2709846 5.546217 0.35965422
-7.178237 12.137736 -0.78765476
-3.3732903 5.7039223 0
-3.2803266 5.5467296 0.35994422
-7.1769929 12.102234 -0.78591311
-3.3761961 5.6931243 0
-3.2870264 5.5427618 0.35994422
-7.1305199 11.990821 -0.77923697
-3.3923852 5.7047009 0
-3.2990339 5.5477195 0.36052477
-7.1529908 11.995591 -0.78010809
-3.3992758 5.7005978 0
-3.3017461 5.5370402 0.36008978
-7.1714816 11.993632 -0.78054363
-3.4074957 5.6987181 0
-3.3084342 5.5330467 0.36008978
-7.1832933 11.980497 -0.78025311
-3.418395 5.7012949 0
-3.323132 5.5424123 0.36096033
-0 0 -0
-3.4145536 5.679317 0
-3.3351822 5.5473008 0.36154088
-7.1988111 11.940854 -0.77880198
-3.4254458 5.6818752 0
-3.3472488 5.5521679 0.36212146
-7.2091999 11.925473 -0.77836639
-3.4282684 5.6710486 0
-3.3579893 5.5547929 0.36255702
-7.211483 11.896757 -0.77706027
-3.4445629 5.6824827 0
-3.3714323 5.5618396 0.36328256
-7.2177572 11.874717 -0.77618974
-3.441963 5.6627474 0
-3.3808467 5.5621982 0.36357257
-0 0 -0
-3.499867 5.7423668 -0.37562543
-3.4460914 5.6541352 0
-3.3889215 5.5603342 0.36371812
-0 0 -0
-0 0 -0
-3.4488533 5.643312 0
-3.4078312 5.5761881 0.36502424
-4.4616365 7.2807293 -0.9517715
-0 0 -0
-3.4597452 5.6457911 0
-3.4159229 5.5742798 0.36516926
-0 0 -0
-4.4785528 7.2885509 -0.95350069
-0 0 -0
-3.4597533 5.6305218 0
-3.4335387 5.5878592 0.36633036
-4.4765019 7.2655177 -0.95119435
-0 0 -0
-3.4679182 5.628551 0
-3.4566445 5.6102533 0.36807203
-4.4580894 7.216095 -0.94542855
-3.5262985 5.70785 -0.37475431
-3.47335 5.6221447 0
-3.4716125 5.6193318 0.36894259
-4.4354815 7.1601372 -0.93879861
-3.5277193 5.6947489 -0.37417376
-3.476028 5.6113043 0
-3.4948204 5.6416407 0.37068427
-4.4086494 7.0976515 -0.93130356
-3.5250044 5.6750374 -0.37315819
-3.4855545 5.6115255 0
-3.4947808 5.6263795 0.3699587
-4.3857713 7.041821 -0.9246726
-3.5249918 5.6597481 -0.37243262
-3.486829 5.5984735 0
-3.515311 5.6442046 0.37140983
-4.3846903 7.0211658 -0.92265534
-3.5304475 5.6532741 -0.37228706
-3.4880769 5.5854268 0
-0 0 0
-4.3793306 7.0031624 -0.92063701
-3.5255988 5.6379256 -0.37141651
-3.4928293 5.5855231 0
-0 0 0
-4.3767972 6.9803352 -0.91833073
-3.529645 5.6292543 -0.37112597
-3.4981947 5.5790958 0
-0 0 0
-4.3824778 6.9706664 -0.91775465
-3.5350626 5.6227875 -0.37098095
-3.510474 5.5836778 0
-11.32796 18.017988 1.1887929
-4.3853803 6.9566135 -0.91660148
-3.5376956 5.6119156 -0.37054539
-3.5199914 5.5838308 0
-0 0 0
-4.4200354 6.9928441 -0.92207825
-3.5444741 5.6076369 -0.37054539
-3.5197845 5.5685763 0
-11.375636 17.99715 1.1892285
-4.3994069 6.9416223 -0.91602439
-3.5498576 5.6011572 -0.3704004
-3.5265105 5.5643191 0
-11.351472 17.910967 1.1844391
-4.4147258 6.9472141 -0.91746557
-3.5580151 5.5990548 -0.37054539
-3.5346313 5.5622568 0
-0 0 0
-4.4134007 6.9081922 -0.91371804
-3.5673428 5.5838771 -0.37011039
-3.5564666 5.5668535 0
-11.308612 17.701103 1.173264
-4.4259315 6.90939 -0.91458321
-3.5782878 5.5861206 -0.37054539
-3.5561731 5.5515966 0
-11.28094 17.610851 1.1681845
-4.4342766 6.9040375 -0.91458321
-3.5780151 5.5708632 -0.36981985
-3.5642834 5.5494833 0
-11.279743 17.562225 1.1658623
-4.4510207 6.911726 -0.91631347
-3.5875602 5.5709095 -0.37011039
-3.5695786 5.5429869 0
-4.0686202 6.3179183 0.41973889
-4.4607706 6.9085135 -0.91660148
-3.5928807 5.5643897 -0.3699654
-3.5805047 5.5452223 0
-4.0917516 6.3370037 0.42133501
-4.4634924 6.8944335 -0.91544831
-3.5981855 5.5578566 -0.36981985
-3.5829635 5.5343442 0
-4.1022325 6.336422 0.42162558
-4.4774528 6.8977132 -0.91660148
-3.6034851 5.5513277 -0.36967483
-3.5910637 5.5321918 0
-4.1098857 6.3314605 0.42162558
-4.492837 6.9031353 -0.91804266
-3.6158597 5.5556808 -0.37025541
-3.6048424 5.5387526 0
-4.1118636 6.3177786 0.42104501
-4.4941087 6.8868728 -0.91660148
-3.6239886 5.5534816 -0.3704004
-3.6101112 5.5322156 0
-4.1166515 6.3084493 0.42075446
-4.5038419 6.8836002 -0.91688949
-3.6264324 5.5425816 -0.3699654
-3.6196404 5.5322008 0
-4.1242709 6.3034706 0.42075446
-4.5064812 6.8695025 -0.91573632
-3.6359749 5.5425367 -0.37025541
-3.6306062 5.5343533 0
-4.1162105 6.2745895 0.41915834
-4.5233035 6.8770137 -0.91746557
-3.6498075 5.5489922 -0.37098095
-3.6344333 5.5256176 0
-4.1337857 6.2848096 0.42017445
-4.5274572 6.8742795 -0.91746557
-3.6517313 5.5446181 -0.37083596
-3.642061 5.5299354 0
-0 0 0
-4.5357604 6.868804 -0.91746557
-3.6641557 5.5488749 -0.37141651
-3.6501784 5.5277085 0
-0 0 0
-4.5412035 6.8590093 -0.91688949
-3.6809003 5.5596118 -0.37243262
-3.6626017 5.5319738 0
-0 0 0
-3.7069867 5.584342 -0.74709445
-3.6947994 5.5659828 -0.37315819
-3.6735973 5.5340428 0
-0 0 0
-0 0 -0
-3.7000782 5.5593448 -0.37301263
-3.6860492 5.5382662 0
-11.150095 16.752949 1.1240643
-0 0 -0
-3.7154498 5.5678425 -0.37388375
-3.6927383 5.5338082 0
-11.154463 16.715687 1.1224678
-0 0 -0
-3.7322905 5.5784688 -0.37489986
-3.7052109 5.5379944 0
-11.171765 16.69788 1.1221777
-0 0 -0
-3.744813 5.5825782 -0.37547988
-3.7191474 5.5443172 0
-11.189035 16.68005 1.1218871
-0 0 -0
-3.761708 5.5931444 -0.37649599
-3.736012 5.5549383 0
-11.207733 16.664364 1.1217421
-0 0 -0
-3.7742743 5.5972128 -0.37707654
-3.747088 5.5568953 0
-11.214787 16.631422 1.1204361
-3.7077301 5.4842205 -0.73786908
-3.769392 5.5754271 -0.37591541
-3.7392206 5.5307994 0
-11.230507 16.611399 1.1200005
-3.7056491 5.4668946 -0.73613989
-3.7790449 5.5751743 -0.37620598
-3.7575824 5.5435114 0
-10.075523 14.864285 1.0030239
-3.7093418 5.4581308 -0.73556274
-3.7711701 5.5491085 -0.37475431
-7.1929584 10.584117 0
-10.087635 14.843504 1.0024433
-3.7115691 5.4472384 -0.73469865
-3.7661674 5.527369 -0.37359318
-7.1822953 10.541007 0
-10.104101 14.829159 1.0022984
-3.7181482 5.4427495 -0.73469865
-3.7669804 5.5142317 -0.37301263
-7.1906214 10.525871 0
-10.104424 14.791192 1.0005567
-3.7217963 5.4339809 -0.73412156
-3.7736406 5.509676 -0.37301263
-7.1695147 10.467797 0
-10.106141 14.755396 0.99896055
-3.7283595 5.4294801 -0.73412156
-3.7744172 5.4965525 -0.37243262
-7.1806803 10.456975 0
-10.101897 14.711041 0.99678332
-3.7334518 5.422843 -0.73383355
-3.7825279 5.4941258 -0.37257764
-7.1874127 10.439725 0
-10.097567 14.666727 0.99460667
-3.7400014 5.4183278 -0.73383355
-3.7906384 5.4916878 -0.37272263
-7.1793218 10.401043 0
-10.091664 14.620299 0.99228442
-3.7509627 5.4201875 -0.73469865
-3.7972713 5.4871035 -0.37272263
-7.1755977 10.368826 0
-10.091578 14.582455 0.99054277
-3.7560306 5.4135199 -0.73440957
-3.7994535 5.4761047 -0.37228706
-7.1762524 10.343042 0
-10.094381 14.548905 0.98909163
-3.7593005 5.4112496 -0.73440957
-3.8057292 5.4780803 -0.37257764
-7.1735878 10.325877 0
-10.076481 14.504388 0.98647887
-3.7643595 5.404583 -0.73412156
-3.8138292 5.4756079 -0.37272263
-7.1682105 10.291575 0
-10.076183 14.466623 0.98473775
-3.7694075 5.397912 -0.73383355
-3.8100274 5.4560809 -0.37170652
-7.1553116 10.246634 0
-10.07134 14.422479 0.98256052
-3.7744451 5.3912368 -0.73354548
-3.8210895 5.4578609 -0.37214208
-7.1617227 10.229462 0
-10.076837 14.39327 0.98139936
-3.7809567 5.386672 -0.73354548
-3.82619 5.4511151 -0.37199709
-7.1665978 10.210144 0
-10.073323 14.351313 0.97936773
-3.7904367 5.3863258 -0.73412156
-3.8357618 5.4507341 -0.37228706
-7.1594605 10.173811 0
-10.074206 14.315753 0.97777104
-2.9311922 4.1546378 -0.84767121
-3.7984321 5.3838534 -0.73440957
-3.8498335 5.4567094 -0.37301263
-7.1537447 10.139634 0
-10.073521 14.278091 0.97602934
-2.9362102 4.151093 -0.84767121
-3.809417 5.3855968 -0.73527473
-3.8519268 5.4456954 -0.37257764
-7.1569767 10.118238 0
-3.6642976 5.1804333 0.35442922
-2.9352839 4.1391659 -0.84595937
-3.8174162 5.3830976 -0.73556274
-3.8615074 5.4452724 -0.37286764
-7.1421022 10.071376 0
-3.6795759 5.1887231 0.35530031
-2.9551551 4.1565342 -0.8502382
-3.8224206 5.3763752 -0.73527473
-3.8741066 5.4490733 -0.37344819
-7.1452155 10.050008 0
-0 0 0
-2.9586866 4.1508722 -0.84981066
-3.8334193 5.3780732 -0.73613989
-3.8837073 5.4486241 -0.37373874
-7.1498022 10.030773 0
-0 0 0
-2.9711614 4.1577349 -0.85195005
-3.8384068 5.3713269 -0.73585075
-3.8948162 5.450264 -0.37417376
-7.1331725 9.9819021 0
-0 0 0
-2.9746892 4.1520572 -0.85152251
-3.8448942 5.3666849 -0.73585075
-3.9029164 5.4476724 -0.37431931
-7.1224914 9.9415398 0
-3.7409251 5.2215652 0.3587831
-2.9871905 4.1588826 -0.85366195
-3.8468537 5.3557391 -0.73498672
-3.9064615 5.4387274 -0.37402874
-7.0874376 9.8674059 0
-3.7381394 5.2043829 0.35791254
-2.9907148 4.1531887 -0.85323435
-0 0 -0
-3.9206209 5.4445443 -0.37475431
-7.0567732 9.7997017 0
-3.7246871 5.172452 0.35602587
-2.9867125 4.1370802 -0.85066575
-0 0 -0
-3.9363256 5.4524479 -0.37562543
-7.0609937 9.7806187 0
-3.6974757 5.1216021 0.35283309
-2.9751573 4.1105995 -0.84595937
-0 0 -0
-3.945955 5.4518933 -0.37591541
-0 0 0
-3.6960454 5.1066079 0.35210752
-2.9514754 4.067523 -0.83782756
-0 0 -0
-3.9601684 5.4576349 -0.37664098
-7.0463996 9.7108688 0
-0 0 0
-2.9246767 4.0203619 -0.82884067
-2.9221268 4.0168567 -0.55365992
-3.9805219 5.4717636 -0.37794766
-7.0397563 9.6770935 0
-3.7221313 5.1165705 0.35341364
-2.9068468 3.9857199 -0.82242239
-2.94679 4.0404878 -0.55740744
-3.9917195 5.4732418 -0.37838265
-6.979373 9.5697594 0
-3.7252455 5.1078668 0.3531231
-2.910147 3.9801345 -0.82199484
-2.9379318 4.0181351 -0.55481309
-4.0029325 5.4747095 -0.37881821
-6.9279537 9.4751873 0
-3.7176132 5.0844855 0.35181698
-2.90042 3.9618051 -0.81857109
-0 0 -0
-4.0047059 5.4701953 -0.3786732
-6.9321408 9.4689016 0
-10.01515 13.680113 0.94700313
-2.9127979 3.968643 -0.82071048
-0 0 -0
-3.0212271 4.1163764 -0.28520784
-7.0005512 9.5381451 0
-10.02245 13.655437 0.9461326
-2.9099855 3.9547844 -0.81857109
-0 0 -0
-3.0477619 4.1420279 -0.28724009
-7.0429192 9.5716028 0
-10.012764 13.607739 0.94366533
-0 0 -0
-2.9208577 3.9595284 -0.82028294
-0 0 -0
-3.0219138 4.0965209 -0.28433728
-0 0 0
-10.016859 13.578902 0.94250423
-2.910373 3.9353528 -0.81600243
-0 0 -0
-3.042309 4.1137543 -0.28578842
-0 0 0
-10.010082 13.535449 0.94032699
-2.9151258 3.9318333 -0.81600243
-0 0 -0
-3.0287066 4.0850277 -0.28404674
-7.0636206 9.5271969 0
-10.003221 13.49204 0.93815035
-2.9260001 3.9365492 -0.81771433
-2.8922541 3.8911483 -0.54039901
-3.0553448 4.1105652 -0.28607896
-7.0611501 9.4998503 0
-10.008663 13.465343 0.93713421
-2.9200161 3.9185998 -0.81471813
-0 0 -0
-3.0199442 4.0527015 -0.28230563
-7.0617428 9.4767094 0
-10.006295 13.428237 0.93539256
-2.9247487 3.9150686 -0.81471813
-0 0 -0
-0 0 -0
-6.9953132 9.3639269 0
-9.9960775 13.380749 0.93292528
-2.9295819 3.9018366 -0.81343549
-0 0 -0
-0 0 -0
-6.9241719 9.2221317 0
-9.9971809 13.314995 0.93002254
-2.9342942 3.898294 -0.81343549
-0 0 -0
-2.9301124 3.8927383 -0.27214614
-6.92905 9.2054415 0
-10.011701 13.300831 0.92987752
-2.9297218 3.882447 -0.81086683
-2.8315914 3.7524049 -0.52396774
-3.0130699 3.9928992 -0.27940282
-6.9354634 9.1908274 0
-9.9995947 13.251393 0.92726529
-2.9251213 3.8666246 -0.80829984
-2.9110196 3.8479838 -0.53780466
-3.0084832 3.9768178 -0.2785317
-6.9292908 9.1596079 0
-9.9952211 13.212363 0.92537862
-2.9344463 3.8692255 -0.8095842
-2.8375223 3.7414255 -0.52339059
-2.9599028 3.902791 -0.27359724
-6.9356399 9.1450138 0
-4.2049265 5.5444217 0.38868046
-2.9313464 3.8554535 -0.80744308
-2.8592622 3.7606447 -0.52656209
-2.9866371 3.9281745 -0.27562949
-6.9325099 9.1179838 0
-4.2053323 5.5310631 0.38809988
-2.9344482 3.849869 -0.80701554
-2.8559661 3.7469037 -0.52512091
-3.0055566 3.9431601 -0.27693561
-6.9419403 9.1075249 0
-4.2183132 5.5342441 0.38868046
-2.9375408 3.8442829 -0.80658799
-2.9044569 3.8009868 -0.53319198
-0 0 -0
-4.0140305 5.2530565 0
-4.2328839 5.5394645 0.389406
-2.9390645 3.8366587 -0.80573291
-2.8744469 3.7523067 -0.5268501
-0 0 -0
-4.0219617 5.2502742 0
-10.033779 13.098108 0.92160529
-2.9436982 3.8331046 -0.80573291
-2.8821263 3.7529294 -0.52742612
-2.9691851 3.866292 -0.27229112
-6.9416223 9.0389576 0
-10.055929 13.094218 0.92218584
-2.931926 3.8130045 -0.80187994
-2.8686302 3.7306874 -0.52454376
-2.9636023 3.8541999 -0.27156559
-6.9375668 9.0223875 0
-10.067003 13.092257 0.92247581
-2.9271307 3.7972641 -0.79931295
-2.8920848 3.7518005 -0.52800328
-2.9634964 3.8444402 -0.27113003
-6.934165 8.99545 0
-10.092337 13.092435 0.92334694
-2.9160228 3.773416 -0.79503411
-2.8396797 3.6746261 -0.51762474
-2.9427235 3.8079677 -0.26880834
-6.933888 8.9726477 0
-10.120853 13.096671 0.9245075
-2.9111443 3.75771 -0.79246551
-2.8932245 3.7345791 -0.52656209
-0 0 -0
-6.9383492 8.9560337 0
-10.141447 13.090597 0.92494303
-2.9078109 3.7440546 -0.79032606
-2.9326351 3.7760174 -0.53290397
-3.0029142 3.866508 -0.27345225
-6.9044747 8.8900995 0
-10.160447 13.082442 0.9252336
-2.8997164 3.724334 -0.78690231
-2.8879418 3.7092109 -0.52396774
-2.9900291 3.8403294 -0.27185613
-0 0 0
-10.182633 13.078357 0.92581415
-2.8994744 3.7147548 -0.78561801
-2.8590028 3.6629031 -0.51791388
-2.983474 3.8223734 -0.27084002
-3.0734222 3.9376135 0
-10.208018 13.07833 0.92668474
-2.9102886 3.7193353 -0.78732985
-2.8905215 3.694073 -0.52281457
-2.983285 3.8126245 -0.27040446
-0 0 0
-10.228619 13.072127 0.92712027
-2.8957741 3.6915865 -0.78219593
-2.8710358 3.6600497 -0.5184899
-2.9862874 3.8069744 -0.27025947
-0 0 0
-10.252423 13.069979 0.92784584
-2.8891234 3.6739576 -0.77919972
-2.9058354 3.6952095 -0.52396774
-2.9860651 3.7972336 -0.26982391
-0 0 0
-10.287483 13.082091 0.92958754
-2.890379 3.6664281 -0.77834296
-2.8718677 3.6429467 -0.51704872
-2.9729602 3.7711821 -0.26822779
-0 0 0
-10.306497 13.073729 0.92987752
-2.90277 3.6730092 -0.78048402
-2.8971143 3.6658525 -0.52079624
-2.9839594 3.7757416 -0.26880834
-0 0 0
-10.331956 13.073502 0.93074864
-2.8960457 3.6554122 -0.77748787
-2.8774474 3.6319373 -0.51647156
-2.9530168 3.7273219 -0.26561499
-3.0711803 3.8764687 0
-10.359036 13.075259 0.93176419
-2.8892829 3.6378369 -0.77449167
-2.8850541 3.6325126 -0.51704872
-0 0 -0
-3.0612962 3.8544154 0
-10.381291 13.070872 0.93234473
-2.9032733 3.6463966 -0.77706033
-2.8926601 3.6330669 -0.51762474
-2.9571648 3.714082 -0.26517999
-3.1210639 3.9199328 0
-10.401935 13.064419 0.93278033
-2.8900602 3.6208143 -0.77235228
-2.8793039 3.6073382 -0.51445436
-0 0 -0
-3.0738459 3.8510704 0
-10.429062 13.066059 0.93379641
-2.8976438 3.6213322 -0.77320904
-0 0 -0
-0 0 -0
-0 0 0
-10.456202 13.067644 0.93481201
-2.8988018 3.6138196 -0.77235228
-2.8750658 3.5842288 -0.51214802
-0 0 -0
-0 0 0
-10.478487 13.063107 0.93539256
-2.9144285 3.6243198 -0.77534842
-2.8680472 3.5666409 -0.51012969
-0 0 -0
-0 0 0
-10.49915 13.056514 0.93582809
-2.9139709 3.6147981 -0.77406412
-2.8658617 3.5551181 -0.50897652
-2.9387815 3.6455758 -0.26155165
-0 0 0
-10.527965 13.060002 0.93698919
-2.9097052 3.6050465 -0.77235228
-2.85339 3.5352738 -0.50638217
-2.9230299 3.6215556 -0.25995499
-0 0 0
-10.544011 13.063747 0.93771476
-2.9156721 3.6035218 -0.77277982
-2.9064641 3.5921414 -0.51503038
-0 0 -0
-3.0862811 3.8143799 0
-10.571232 13.06514 0.9387309
-2.9151773 3.5940208 -0.77149713
-2.8602972 3.526361 -0.50609416
-0 0 -0
-0 0 0
-10.590281 13.056389 0.93902087
-2.9097977 3.5785418 -0.76892853
-2.8841374 3.546984 -0.50955367
-0 0 -0
-3.0757873 3.7826798 0
-10.619164 13.059712 0.94018203
-2.918987 3.5809944 -0.77021283
-2.872076 3.5234444 -0.50667018
-0 0 -0
-3.0836413 3.7829912 0
-10.641503 13.054928 0.94076258
-2.8713331 3.5138547 -0.75651789
-2.8894243 3.5359941 -0.50897652
-0 0 -0
-3.0783327 3.767175 0
-10.670424 13.058157 0.94192368
-0 0 -0
-2.9018946 3.5425103 -0.51041883
-0 0 -0
-3.0812285 3.7614336 0
-10.69278 13.053294 0.94250423
-2.8798163 3.5069056 -0.75651789
-2.8569262 3.4790311 -0.50176948
-0 0 -0
-3.0692582 3.7375989 0
-10.715141 13.048397 0.94308478
-2.8758955 3.4935157 -0.75437844
-2.9022229 3.525497 -0.50897652
-0 0 -0
-3.0770833 3.73791 0
-10.740806 13.047474 0.94395536
-2.8833857 3.4940019 -0.7552352
-2.8636806 3.4701238 -0.50148147
-0 0 -0
-3.0120289 3.649888 0
-10.764831 13.044505 0.94468093
-2.8761497 3.4766676 -0.75223905
-2.9074399 3.5144913 -0.5084005
-2.9334486 3.5459301 -0.25705218
-3.0877647 3.7324662 0
-10.793835 13.047505 0.94584203
-0 0 -0
-2.8539009 3.441299 -0.49831107
-0 0 -0
-3.0839674 3.7187183 0
-10.817884 13.044453 0.9465676
-0 0 -0
-0 0 -0
-2.9486537 3.5468233 -0.25763273
-3.0768106 3.7009785 0
-10.840283 13.039364 0.94714814
-2.8476481 3.4169204 -0.74154025
-0 0 -0
-0 0 -0
-3.0846095 3.7012527 0
-10.857699 13.028258 0.9472937
-0 0 -0
-0 0 -0
-0 0 -0
-3.074064 3.6795499 0
-10.875097 13.017121 0.94743872
-0 0 -0
-0 0 -0
-2.9598243 3.5341213 -0.25748774
-3.0868676 3.6858146 0
-10.890819 13.003971 0.94743872
-0 0 -0
-0 0 -0
-2.9022751 3.4569113 -0.25211772
-3.0846252 3.6741092 0
-10.906523 12.990803 0.94743872
-0 0 -0
-0 0 -0
-0 0 -0
-3.0991139 3.6823225 0
-10.913848 12.967676 0.94671315
-2.9105742 3.4498327 -0.99990183
-0 0 -0
-0 0 -0
-0 0 -0
-3.1236994 3.7024448 0
-10.92448 12.94852 0.94627756
-0 0 -0
-2.8615992 3.387629 -0.49427444
-2.9613297 3.5056922 -0.25632662
-3.0957098 3.6647747 0
-10.937333 12.947874 0.94671315
-0 0 -0
-0 0 -0
-2.9286246 3.4584894 -0.25313383
-3.1455395 3.7146499 0
-10.96472 12.948524 0.94772869
-0 0 -0
-2.8446746 3.3511317 -0.4899509
-0 0 -0
-3.1550798 3.7168005 0
-10.946732 12.895655 0.94482648
-0 0 -0
-0 0 -0
-0 0 -0
-3.1528223 3.7050574 0
-10.975771 12.898242 0.94598705
-0 0 -0
-0 0 -0
-3.0322025 3.5545993 -0.2609711
-3.16574 3.7111433 0
-10.957627 12.84544 0.94308478
-0 0 -0
-0 0 -0
-2.9199796 3.4146771 -0.25095716
-3.1194837 3.6479809 0
-10.998467 12.861808 0.94526148
-0 0 -0
-0 0 -0
-2.9325573 3.4210086 -0.25168273
-0 0 0
-10.971724 12.799191 0.94163311
-2.8487411 3.3151166 -0.72870207
-0 0 -0
-0 0 -0
-0 0 0
-10.987181 12.785924 0.94163311
-0 0 -0
-0 0 -0
-2.9577718 3.4335952 -0.25313383
-0 0 0
-11.009405 12.780514 0.94221365
-2.848357 3.2985101 -0.72656262
-0 0 -0
-2.9432359 3.4083836 -0.25153717
-0 0 0
-10.970502 12.704275 0.9375698
-2.8540189 3.2970049 -0.72699022
-0 0 -0
-2.9218471 3.3753612 -0.24936049
-0 0 0
-10.987543 12.692973 0.93771476
-2.8495898 3.2838616 -0.72485077
-2.8622999 3.2985084 -0.48677939
-0 0 -0
-0 0 0
-11.02501 12.705199 0.93960142
-2.8468165 3.2726686 -0.72313893
-0 0 -0
-2.9282918 3.3663318 -0.2492155
-0 0 0
-10.968731 12.60953 0.93350589
-2.8305233 3.2460089 -0.71800327
-0 0 -0
-2.9716308 3.4078295 -0.25255328
-0 0 0
-10.936141 12.541431 0.92944199
-2.8434362 3.2449532 -0.71928763
-2.8867302 3.2943606 -0.48822057
-2.9644468 3.3830514 -0.25124717
-3.0690048 3.5023739 0
-10.933885 12.47784 0.92668474
-2.8473551 3.2415152 -0.71928763
-2.8497484 3.2442396 -0.48130265
-0 0 -0
-3.0509083 3.4732463 0
-10.909517 12.419724 0.92334694
-2.8427889 3.228441 -0.71714818
-0 0 -0
-0 0 -0
-3.0585394 3.47346 0
-10.921079 12.402629 0.92305636
-2.8534832 3.232702 -0.71886003
-0 0 -0
-2.9079146 3.2943673 -0.24544214
-3.0799599 3.4892769 0
-10.85696 12.299815 0.91638023
-2.8452325 3.2194326 -0.71629143
-0 0 -0
-0 0 -0
-3.0768955 3.4815633 0
-10.809332 12.230956 0.91173637
-2.8423114 3.2083063 -0.71457958
-0 0 -0
-0 0 -0
-3.082824 3.479789 0
-10.867178 12.266508 0.91536468
-2.8427801 3.2010345 -0.71372443
-0 0 -0
-2.9437294 3.3147058 -0.24761882
-0 0 0
-10.816428 12.179543 0.90984964
-2.9843426 3.3522701 -0.99427187
-2.8466458 3.1975973 -0.71372443
-0 0 -0
-0 0 -0
-6.9136586 7.7660155 0
-10.825953 12.16064 0.90941411
-2.9900813 3.3505557 -0.99483424
-2.8419564 3.1845732 -0.71158338
-0 0 -0
-0 0 -0
-0 0 0
-10.826797 12.13204 0.90825301
-2.9754972 3.3261149 -0.98864412
-2.8355362 3.1696613 -0.70901638
-0 0 -0
-2.9851758 3.3369339 -0.25008604
-6.9341393 7.7512231 0
-10.834518 12.111203 0.90767246
-2.9862998 3.3300838 -0.99089569
-2.8393641 3.1662328 -0.70901638
-0 0 -0
-2.966655 3.3081775 -0.24819937
-6.9417644 7.7409029 0
-10.83006 12.076821 0.90607578
-2.9903212 3.326473 -0.99089569
-2.8431876 3.1627996 -0.70901638
-2.7986186 3.1132205 -0.46660057
-2.9532819 3.28527 -0.24674825
-0 0 0
-0 0 0
-2.9756262 3.3020923 -0.98470342
-2.8298259 3.1402955 -0.70473754
-0 0 -0
-2.9241977 3.2450211 -0.24399047
-6.9012194 7.6583753 0
-0 0 0
-2.9864271 3.3060365 -0.98695493
-2.8422203 3.1463966 -0.70687699
-0 0 -0
-2.9263763 3.2395592 -0.24384548
-6.9628005 7.7079639 0
-0 0 0
-2.9904196 3.3024254 -0.98695493
-2.8322356 3.1277373 -0.70345324
-0 0 -0
-2.9233119 3.2283163 -0.24326491
-0 0 0
-0 0 0
-2.972208 3.2743535 -0.97963798
-2.8239334 3.1110055 -0.70045704
-0 0 -0
-2.9394376 3.2382514 -0.24428102
-0 0 0
-0 0 0
-0 0 -0
-2.8104169 3.088608 -0.6961782
-0 0 -0
-2.9590857 3.2519927 -0.24558714
-0 0 0
-0 0 0
-0 0 -0
-2.8106904 3.0814204 -0.69532311
-0 0 -0
-2.9314964 3.2138624 -0.24297491
-7.0157561 7.6915245 0
-0 0 0
-0 0 -0
-2.8196034 3.0836999 -0.69660574
-0 0 -0
-0 0 -0
-0 0 0
-0 0 0
-0 0 -0
-2.8528128 3.1124599 -0.70388079
-0 0 -0
-0 0 -0
-0 0 0
-0 0 0
-0 0 -0
-2.8322594 3.0825498 -0.69789004
-0 0 -0
-3.0064104 3.2720907 -0.24819937
-7.0752821 7.7005339 0
-0 0 0
-0 0 -0
-2.8377194 3.0810118 -0.69831765
-0 0 -0
-2.9909961 3.2474296 -0.2466027
-7.1004477 7.7092061 0
-0 0 0
-0 0 -0
-2.8135779 3.0474029 -0.69147015
-2.8590441 3.0966477 -0.46977097
-2.9561422 3.2018151 -0.24340992
-7.1132922 7.7044487 0
-10.811909 11.710443 0.89025682
-2.8639312 3.0944307 -0.93404698
-2.815516 3.0421188 -0.6910426
-0 0 -0
-2.945889 3.1829846 -0.2422488
-7.1526461 7.7283163 0
-10.84546 11.718342 0.89185292
-0 0 -0
-2.8349016 3.0556498 -0.6948939
-0 0 -0
-2.9550364 3.1851394 -0.24268435
-7.1849875 7.7444687 0
-10.840177 11.68428 0.89025682
-0 0 -0
-2.8053031 3.0200851 -0.68719131
-0 0 -0
-2.935739 3.1605074 -0.24094269
-7.0940242 7.6371632 0
-10.785336 11.611093 0.88517678
-0 0 -0
-2.8124456 3.020447 -0.6880464
-0 0 -0
-2.9537215 3.1721714 -0.2421038
-0 0 0
-10.786968 11.584746 0.88416123
-0 0 -0
-2.8143432 3.0151718 -0.68761885
-0 0 -0
-2.943368 3.1534038 -0.24094269
-0 0 0
-10.848825 11.622986 0.88807958
-0 0 -0
-2.8214955 3.0155215 -0.68847561
-0 0 -0
-2.9525039 3.155539 -0.24137823
-0 0 0
-10.857534 11.604175 0.88764405
-0 0 -0
-2.8128424 2.9990017 -0.6854794
-2.8195841 3.0061896 -0.45939356
-2.9545386 3.1500757 -0.24123324
-0 0 0
-10.821781 11.537988 0.88358068
-0 0 -0
-2.8199842 2.9993448 -0.68633616
-0 0 -0
-2.9530013 3.1408222 -0.24079768
-0 0 0
-10.837493 11.526794 0.8837257
-0 0 -0
-2.832408 3.0052741 -0.68847561
-0 0 -0
-2.9532332 3.1334736 -0.24050768
-0 0 0
-10.794382 11.45318 0.87908119
-0 0 -0
-2.804301 2.9682579 -0.68077135
-0 0 -0
-2.9248934 3.0959008 -0.23789489
-0 0 0
-10.817142 11.449578 0.87980735
-0 0 -0
-2.8078856 2.9648674 -0.68077135
-0 0 -0
-2.928632 3.0923643 -0.23789489
-0 0 0
-10.746988 11.347825 0.87298566
-0 0 -0
-2.8079345 2.9577525 -0.67991626
-0 0 -0
-2.9198482 3.0756373 -0.23687933
-0 0 0
-10.748175 11.321645 0.87197006
-0 0 -0
-2.8150423 2.9580731 -0.68077135
-0 0 -0
-2.9414721 3.0909266 -0.23833045
-0 0 0
-10.740351 11.286062 0.87022841
-0 0 -0
-2.8008988 2.9360986 -0.67649251
-2.8109868 2.9466736 -0.45391572
-2.9469967 3.0892487 -0.23847546
-0 0 0
-10.752188 11.271197 0.87008339
-0 0 -0
-2.8150928 2.9438474 -0.67906117
-2.7948871 2.9227176 -0.45074531
-2.9040384 3.0368614 -0.2347021
-0 0 0
-7.0790997 7.4028788 0.57212728
-0 0 -0
-2.807986 2.9293213 -0.67649251
-0 0 -0
-2.9472611 3.0746145 -0.23789489
-0 0 0
-7.1006279 7.4074521 0.57314336
-0 0 -0
-2.7972941 2.911118 -0.67306876
-0 0 -0
-2.914973 3.0335855 -0.23499265
-0 0 0
-0 0 0
-0 0 -0
-2.7990305 2.9058888 -0.67264122
-2.739074 2.8436434 -0.44007879
-2.9132268 3.0244448 -0.23455711
-7.2583485 7.53545 0
-0 0 0
-0 0 -0
-2.7900562 2.889576 -0.66964507
-0 0 -0
-2.9385381 3.043354 -0.23629877
-0 0 0
-0 0 0
-0 0 -0
-2.7953362 2.8880525 -0.67007422
-0 0 -0
-2.9385953 3.0360634 -0.23600821
-0 0 0
-0 0 0
-2.8086543 2.8948047 -0.89352149
-2.8095458 2.8957236 -0.67264122
-0 0 -0
-2.940454 3.0306473 -0.23586322
-0 0 0
-7.1524882 7.3718781 0.57372391
-2.8511178 2.9350207 -0.90646619
-2.8166625 2.8995514 -0.67392552
-0 0 -0
-2.9187491 3.0046422 -0.23397654
-0 0 0
-7.1750426 7.3861904 0.57517505
-2.8369391 2.913373 -0.90083843
-2.7968838 2.8722386 -0.66836238
