# .PCD v0.7 - Point Cloud Data file format
VERSION 0.7
FIELDS x y z
SIZE 4 4 4
TYPE F F F
COUNT 1 1 1
WIDTH 1585
HEIGHT 1
VIEWPOINT 0 0 0 1 0 0 0
POINTS 1585
DATA ascii
-3.78649 -1.0432465 -0.43777245
-4.4918375 -1.2375826 -0.26024553
-4.5070338 -1.2417694 0
-4.5117626 -1.2430724 0.26139995
-2.7596362 -0.76391852 -0.7900086
-2.8759196 -0.79610795 -0.66106141
-4.4376621 -1.2284273 -0.76764423
-3.7852266 -1.047821 -0.43777245
-4.4978442 -1.2450869 -0.26068053
-4.5030241 -1.2465208 0
-4.5227766 -1.2519885 0.26212552
-2.8239639 -0.78540057 -0.80869496
-2.8847475 -0.8023057 -0.66331297
-4.4584408 -1.2399811 -0.77149713
-3.7914357 -1.0544738 -0.43863761
-4.5013485 -1.2519146 -0.2609711
-4.5015149 -1.2519609 0
-4.5137477 -1.2553631 0.26168996
-2.8109341 -0.78543711 -0.80523479
-2.8788862 -0.80442446 -0.66218823
-4.4594092 -1.2460575 -0.77192467
-3.8125761 -1.0653181 -0.44123197
-4.4998322 -1.2573527 -0.2609711
-4.5075207 -1.259501 0
-4.5047269 -1.2587203 0.26125497
-2.7930727 -0.78408593 -0.80038899
-2.8779123 -0.80790246 -0.66218823
-4.4579 -1.2514449 -0.77192467
-3.8013251 -1.0671278 -0.44007879
-4.5008092 -1.2634906 -0.26111609
-4.513515 -1.2670573 0
-4.5132003 -1.266969 0.26183495
-2.9185286 -0.82311016 -0.99986929
-2.7872989 -0.78609955 -0.79900604
-2.8695951 -0.80930948 -0.66049904
-4.4637995 -1.2589216 -0.77320904
-3.7875886 -1.0682105 -0.43863761
-4.5042858 -1.27034 -0.26140666
-4.5169854 -1.2739216 0
-4.5216694 -1.2752427 0.26241553
-2.879493 -0.8158583 -0.98683298
-2.7597933 -0.78194338 -0.79139155
-2.88573 -0.81762552 -0.6644398
-4.4647422 -1.2650135 -0.77363658
-3.7837994 -1.0720791 -0.43834847
-4.5002403 -1.2750713 -0.26126111
-4.4979129 -1.2744118 0
-4.5101252 -1.277872 0.26183495
-2.8642373 -0.81527591 -0.98194164
-2.7323112 -0.7777245 -0.7837798
-2.8749647 -0.81832933 -0.66218823
-2.8856032 -0.82135743 -0.50017989
-3.7974319 -1.0809002 -0.44007879
-4.4986963 -1.2805079 -0.26126111
-4.5113931 -1.2841219 0
-4.516078 -1.2854553 0.26227051
-2.7829385 -0.79395288 -0.95423436
-2.7656114 -0.78900957 -0.79346871
-2.8500311 -0.8130939 -0.65655833
-2.8925049 -0.82521141 -0.50146252
-3.7818501 -1.0789353 -0.43834847
-4.492929 -1.2818012 -0.2609711
-4.5231271 -1.2904165 0
-4.5302978 -1.2924622 0.26314163
-2.7534659 -0.78914356 -0.94445479
-2.7357159 -0.78405643 -0.78516281
-2.8588166 -0.81933713 -0.65880984
-2.8841097 -0.82658613 -0.50017989
-3.785521 -1.0849308 -0.43892562
-4.4938726 -1.2879443 -0.26111609
-4.509058 -1.2922964 0
-4.5287328 -1.2979352 0.26314163
-2.7382641 -0.7883684 -0.93956655
-2.7395928 -0.78875101 -0.78654844
-2.8675914 -0.82560283 -0.66106141
-2.8707674 -0.82651716 -0.4980388
-3.8016086 -1.0945139 -0.44094393
-4.4948077 -1.2940916 -0.26126111
-4.4974895 -1.2948637 0
-4.5321503 -1.3048428 0.26343164
-2.7458448 -0.79774165 -0.94282645
-2.7689955 -0.80446756 -0.79554588
-2.8436303 -0.82615095 -0.65599597
-2.8736966 -0.83488607 -0.49889556
-3.7815635 -1.0986458 -0.43892562
-4.5066438 -1.309301 -0.2621322
-4.4968443 -1.3064539 0
-4.5190024 -1.3128916 0.26285106
-2.6665843 -0.77820957 -0.91593337
-2.7246673 -0.79516035 -0.78308564
-2.847513 -0.83101135 -0.65712285
-0 -0 -0
-3.797616 -1.1082872 -0.44094393
-4.5075502 -1.3154727 -0.26227722
-4.5027595 -1.3140745 0
-4.5199051 -1.3190782 0.26299608
-2.7130778 -0.79533684 -0.93223268
-2.7477837 -0.80551082 -0.7900086
-2.8440614 -0.83373457 -0.65655833
-0 -0 -0
-3.7987537 -1.1136019 -0.44123197
-4.5034666 -1.320188 -0.2621322
-4.4836841 -1.3143889 0
-4.5133257 -1.3230782 0.26270607
-2.6884007 -0.79163158 -0.92408144
-2.7468083 -0.80883038 -0.7900086
-2.8649864 -0.8436293 -0.66162378
-0 -0 -0
-3.8048418 -1.1203809 -0.44209599
-4.514329 -1.3292978 -0.26285776
-4.5070624 -1.3271582 0
-4.5216942 -1.3314667 0.26328662
-2.7016675 -0.79908687 -0.92897278
-2.7963474 -0.82709086 -0.80454332
-2.863965 -0.84709048 -0.66162378
-0 -0 -0
-4.3044753 -1.2731581 -0.5003283
-4.5102301 -1.3340153 -0.26271278
-4.4829879 -1.3259578 0
-4.5175924 -1.336193 0.26314163
-2.7220211 -0.808685 -0.93630672
-2.7520626 -0.81761009 -0.79208571
-2.8458965 -0.84548718 -0.65768516
-2.8784432 -0.85515648 -0.50060743
-0 -0 -0
-4.5061169 -1.3387219 -0.26256722
-4.5013404 -1.3373028 0
-4.525938 -1.3446106 0.26372218
-2.7092021 -0.80844039 -0.93223268
-2.7654922 -0.82523763 -0.79623735
-2.8375661 -0.84674489 -0.65599597
-2.8798654 -0.85936725 -0.50103498
-0 -0 -0
-4.5069928 -1.3449107 -0.26271278
-4.507205 -1.344974 0
-4.5243101 -1.3500783 0.26372218
-2.7153192 -0.81384015 -0.93467522
-2.7668939 -0.8292982 -0.79692888
-2.8341093 -0.84944409 -0.65543365
-2.8566964 -0.85621393 -0.49718368
-0 -0 -0
-4.5003819 -1.3488622 -0.2624222
-4.4856334 -1.3444417 0
-4.5201793 -1.3547959 0.26357663
-2.7190716 -0.81854677 -0.93630672
-2.7923172 -0.8405965 -0.80454332
-2.8282101 -0.85140169 -0.65430677
-2.8630364 -0.86188573 -0.49846801
-0 -0 -0
-4.496263 -1.3535507 -0.26227722
-4.486495 -1.3506103 0
-4.5309772 -1.3640012 0.26430219
-2.6991541 -0.81610906 -0.92978698
-2.7696891 -0.83743584 -0.79831451
-2.8198898 -0.8526144 -0.65261978
-2.847245 -0.86088538 -0.49589938
-4.4576287 -1.3477968 -0.51906705
-4.5095429 -1.3634933 -0.26314777
-4.4998112 -1.360551 0
-4.5144072 -1.3649641 0.26343164
-2.7123513 -0.82367754 -0.93467522
-2.7878795 -0.84661371 -0.80385184
-2.8091326 -0.85306776 -0.65036821
-2.8412948 -0.86283469 -0.49504426
-4.4535151 -1.3524282 -0.51877791
-4.5228148 -1.3734729 -0.26401889
-4.510613 -1.3697674 0
-4.5301614 -1.3757039 0.26444775
-2.7160866 -0.82839775 -0.93630672
-2.7484601 -0.83827156 -0.79277724
-2.8080997 -0.85646141 -0.65036821
-4.4607325 -1.3605092 -0.77748787
-4.4642544 -1.3615834 -0.52022022
-4.51121 -1.3759047 -0.26343831
-4.5014839 -1.3729383 0
-4.5309792 -1.381934 0.26459274
-2.7387114 -0.8389166 -0.94445479
-2.7522383 -0.84306008 -0.79416025
-2.8167806 -0.86283064 -0.65261978
-4.446815 -1.3621395 -0.77534842
-4.447763 -1.3624299 -0.5184899
-4.5120263 -1.3821149 -0.26358333
-4.5023174 -1.3791409 0
-4.524332 -1.3858843 0.26430219
-2.7334831 -0.83912182 -0.94282645
-2.7469363 -0.84325165 -0.79277724
-2.7992535 -0.85931188 -0.64867902
-4.4631624 -1.370097 -0.77834296
-4.451889 -1.3666363 -0.51906705
-4.5136724 -1.3856025 -0.26372832
-4.4915318 -1.3788058 0
-4.5259852 -1.3893822 0.26444775
-2.7419147 -0.84533679 -0.94608629
-2.7579002 -0.85026509 -0.79623735
-2.8297763 -0.8724246 -0.65599597
-4.4884906 -1.383809 -0.78305101
-4.455173 -1.3735371 -0.51964307
-4.5318599 -1.3971797 -0.26488945
-4.5047798 -1.3888309 0
-4.5367165 -1.398677 0.26517332
-2.7479677 -0.85084021 -0.94852883
-2.7568707 -0.85359687 -0.79623735
-2.8335791 -0.87734771 -0.65712285
-2.8806963 -0.89193636 -0.50274688
-4.5053935 -1.3949838 -0.52569693
-4.5500259 -1.408803 -0.26605055
-4.5279541 -1.401969 0
-4.5524006 -1.4095383 0.26618943
-2.7233407 -0.84682256 -0.94038075
-2.7941673 -0.86884612 -0.80731195
-2.8446462 -0.88454247 -0.65993673
-0 -0 -0
-4.5160518 -1.4042659 -0.52713811
-4.5557661 -1.4166151 -0.26648611
-4.5486302 -1.414396 0
-4.590385 -1.4273797 0.26851109
-2.7293956 -0.85232347 -0.94282645
-2.7763503 -0.86698627 -0.80246615
-2.8435752 -0.88797903 -0.65993673
-0 -0 -0
-4.5118852 -1.4089514 -0.5268501
-4.5540514 -1.4221188 -0.26648611
-4.5667815 -1.4260942 0
-4.563858 -1.4251813 0.26705998
-2.7071407 -0.84896523 -0.93549252
-2.7824843 -0.87259316 -0.80454332
-2.8182509 -0.88380963 -0.65430677
-0 -0 -0
-4.5101795 -1.414402 -0.5268501
-4.5622473 -1.4307307 -0.26706666
-4.5650554 -1.4316113 0
-4.5745273 -1.4345818 0.26778555
-2.6943188 -0.84852135 -0.93141532
-2.752713 -0.86691141 -0.79623735
-2.8196113 -0.88797969 -0.65487128
-4.5035377 -1.4182982 -0.52627409
-4.5481253 -1.4323403 -0.26634112
-4.560842 -1.4363452 0
-9.9482651 -3.1330054 0.58257675
-2.7239337 -0.86146712 -0.94201225
-2.7564428 -0.87174845 -0.79762036
-2.8500283 -0.90134561 -0.66218823
-4.5116754 -1.4268556 -0.52742612
-6.3152375 -1.9972475 -0.3699654
-4.5665498 -1.4442101 0
-9.9370375 -3.1426723 0.58214116
-2.7770643 -0.88196266 -0.9607541
-2.7529988 -0.87431973 -0.79692888
-2.8634627 -0.90940177 -0.66556448
-6.255188 -1.9865736 -0.73152721
-6.3029137 -2.0017307 -0.36938486
-4.5648012 -1.4497267 0
-9.9381905 -3.1562514 0.58243173
-2.6959393 -0.8597858 -0.93304682
-2.7447674 -0.87535805 -0.79485172
-2.8381586 -0.90514225 -0.65993673
-0 -0 -0
-6.2478499 -1.992557 -0.73095006
-0 -0 -0
-6.3357677 -2.0205956 0
-9.92694 -3.1658883 0.5819962
-2.7490301 -0.88037843 -0.95178872
-2.7747748 -0.88862312 -0.80385184
-2.841898 -0.91011935 -0.66106141
-0 -0 -0
-6.2405162 -1.9985287 -0.73037404
-6.2782607 -2.0106163 -0.36822373
-6.3258839 -2.0258677 0
-9.9206352 -3.177089 0.58185118
-2.7244396 -0.87613422 -0.94364059
-2.7259328 -0.87661445 -0.7900086
-2.8456385 -0.91510981 -0.66218823
-6.2454858 -2.0084438 -0.7312392
-0 -0 -0
-6.3259158 -2.0343089 0
-9.9291553 -3.1930504 0.58257675
-2.7304373 -0.88170481 -0.94608629
-2.7654548 -0.89301258 -0.80177468
-2.8517778 -0.92088771 -0.66387528
-6.2504315 -2.0183711 -0.73210323
-6.2733836 -2.0257826 -0.36822373
-6.3209696 -2.0411489 0
-9.9351807 -3.2082396 0.5831573
-2.7646296 -0.89643639 -0.9583084
-2.7405047 -0.88861382 -0.79485172
-2.8555017 -0.92590177 -0.66500217
-0 -0 -0
-6.2578297 -2.0291131 -0.7332564
-6.2734003 -2.034162 -0.36836872
-6.3209815 -2.0495901 0
-9.9189405 -3.2162354 0.58243173
-2.7447431 -0.89365476 -0.95178872
-2.7370458 -0.89114863 -0.79416025
-2.8567944 -0.93013734 -0.66556448
-6.2455359 -2.0334699 -0.73210323
-6.2635231 -2.0393264 -0.36793315
-6.3234448 -2.0588362 0
-9.9224625 -3.2306323 0.58286732
-2.6943293 -0.88084275 -0.93467522
-2.7621996 -0.90303123 -0.80177468
-2.8580813 -0.93437731 -0.66612685
-6.2553735 -2.0450358 -0.73354548
-6.2635221 -2.0476999 -0.36807817
-6.3234239 -2.0672834 0
-9.9111395 -3.240196 0.58243173
-2.7478209 -0.90016836 -0.95342022
-2.766417 -0.90626037 -0.80315763
-2.8502793 -0.93373311 -0.6644398
-3.7446921 -1.2267369 -0.43921363
-6.2746372 -2.0555308 -0.36880428
-6.3122811 -2.0678625 0
-9.9116468 -3.2469914 0.58257675
-2.7232482 -0.89576358 -0.94526899
-2.7248087 -0.89627689 -0.79139155
-2.8539717 -0.93876272 -0.66556448
-0 -0 -0
-3.726006 -1.2256027 -0.4371953
-6.2820225 -2.0663586 -0.36938486
-6.3171968 -2.0779285 0
-9.9324045 -3.2670863 0.58402842
-2.7503269 -0.90835488 -0.95504856
-2.764219 -0.91294307 -0.80315763
-2.8576653 -0.94380575 -0.66669136
-3.6901431 -1.2187495 -0.43315977
-6.2967854 -2.0796497 -0.3704004
-6.4184675 -2.1198375 0
-9.9309149 -3.2798994 0.58417344
-2.7374997 -0.90778846 -0.95097452
-2.7726388 -0.91944104 -0.80592632
-2.8541043 -0.94645596 -0.66612685
-3.6911204 -1.2240207 -0.43344778
-6.6839414 -2.2164769 -0.39333159
-6.4504795 -2.1390581 0
-9.917079 -3.288625 0.58359283
-2.787987 -0.92827135 -0.96890217
-2.7477274 -0.91486681 -0.79900604
-2.8770709 -0.95793223 -0.67175674
-0 -0 -0
-3.6798224 -1.2252115 -0.43229461
-6.8119121 -2.2680533 -0.4010233
-9.8898201 -3.292855 0
-9.920496 -3.3030686 0.58402842
-2.7001431 -0.90264916 -0.93875241
-2.7228312 -0.91023368 -0.79208571
-2.8734946 -0.96059996 -0.67119223
-3.7077761 -1.2394975 -0.43575412
-6.7377014 -2.2523918 -0.39681438
-6.504529 -2.174443 0
-9.9238844 -3.3175225 0.58446342
-2.7295091 -0.91613424 -0.94934613
-2.7883148 -0.93587178 -0.81146359
-2.8723319 -0.96407133 -0.67119223
-3.6940176 -1.2398626 -0.43431294
-6.629056 -2.2249808 -0.3905738
-6.4846239 -2.1765034 0
-9.9469681 -3.3386068 0.58606011
-2.7471378 -0.92574596 -0.95586586
-2.7277489 -0.91921216 -0.79416025
-2.8783908 -0.96997631 -0.67288142
-3.680264 -1.240196 -0.43287176
-6.6559114 -2.2429466 -0.39231548
-9.8926115 -3.333668 0
-9.965086 -3.3580906 0.58736622
-2.7132354 -0.91797352 -0.94445479
-2.7480218 -0.92974293 -0.80038899
-2.8531525 -0.96531188 -0.66725367
-3.6689625 -1.2413263 -0.43171859
-6.7270336 -2.2759686 -0.39666939
-9.8836508 -3.3439522 0
-9.9880991 -3.3792903 0.58896285
-2.7612679 -0.93794429 -0.9615683
-2.7944057 -0.94920057 -0.81423223
-2.864011 -0.97284406 -0.67006755
-3.6772561 -1.2490861 -0.43287176
-6.736578 -2.2882731 -0.39739496
-9.8722076 -3.3533804 0
-9.9692411 -3.3863406 0.58809179
-2.7203662 -0.92771876 -0.94771463
-2.7766333 -0.94690728 -0.80938643
-2.8580191 -0.97466207 -0.66894072
-3.6561599 -1.2468497 -0.43056542
-6.6698694 -2.2746065 -0.39362159
-9.8681488 -3.3653066 0
-9.9503908 -3.3933532 0.58722121
-2.7075539 -0.92700291 -0.94364059
-2.784981 -0.95351213 -0.81215507
-2.8448222 -0.97400033 -0.66612685
-3.6570952 -1.2521036 -0.43085343
-6.5982819 -2.2590969 -0.38955769
-9.8714638 -3.3797576 0
-9.9339933 -3.4011662 0.58649564
-2.7227957 -0.93589848 -0.94934613
-2.7601061 -0.94872308 -0.80523479
-2.8460529 -0.97826535 -0.66669136
-3.66292 -1.2590446 -0.43171859
-6.6078415 -2.2712936 -0.39028382
-9.8649139 -3.3908377 0
-9.9347868 -3.4148548 0.58678567
-2.7356768 -0.94402367 -0.95423436
-2.7281301 -0.94141948 -0.79623735
-2.8808906 -0.99413383 -0.67513299
-3.6369507 -1.2550341 -0.42883623
-6.7107067 -2.3157215 -0.3965244
-9.8632679 -3.4036031 0
-9.9404783 -3.4302471 0.58736622
-2.7462091 -0.9513731 -0.9583084
-2.7435868 -0.95046461 -0.80108315
-2.8676851 -0.99345618 -0.67231911
-3.6598668 -1.2678928 -0.43171859
-6.7447257 -2.3365848 -0.39870107
-9.8640614 -3.4172206 0
-9.9338741 -3.4414058 0.58722121
-0 -0 -0
-2.7732382 -0.96449143 -0.81008059
-2.8592806 -0.99441576 -0.67062992
-3.6412289 -1.2663659 -0.42970026
-6.7566276 -2.3498559 -0.39957219
-9.8648462 -3.4308484 0
-9.9223433 -3.450845 0.58678567
-2.7695725 -0.96696937 -0.96727383
-2.7270658 -0.95212865 -0.79692888
-2.8604734 -0.99870664 -0.67119223
-3.6201608 -1.2639441 -0.42739391
-6.7537837 -2.3580182 -0.39957219
-9.8729763 -3.4470541 0
-9.9476051 -3.47311 0.58852732
-2.7380819 -0.95968807 -0.95668006
-2.7282786 -0.9562521 -0.79762036
-2.856869 -1.0013226 -0.67062992
-3.6308424 -1.2725976 -0.42883623
-6.7901645 -2.3799288 -0.40189442
-9.8737116 -3.4607012 0
-9.9434013 -3.4851272 0.58852732
-2.7468295 -0.96461791 -0.9599399
-2.7537403 -0.96704477 -0.80523479
-2.8634579 -1.0055749 -0.67231911
-3.6203115 -1.2713629 -0.42768306
-6.8034306 -2.3891947 -0.40276498
-9.8716183 -3.4666657 0
-9.9486513 -3.4937174 0.58896285
-2.7596436 -0.97286516 -0.96482813
-2.8022547 -0.98788691 -0.81976956
-2.8790176 -1.0149485 -0.67625982
-3.633404 -1.2808944 -0.42941225
-6.8127894 -2.4017324 -0.40349051
-9.8625183 -3.4768622 0
-9.9199114 -3.4970951 0.58751118
-2.739826 -0.96960235 -0.9583084
-2.7915988 -0.98792434 -0.81700087
-2.8586266 -1.011645 -0.67175674
-6.2211924 -2.2016299 -0.73556274
-6.8172336 -2.412564 -0.40392607
-9.8534079 -3.4870417 0
-9.9107838 -3.5073466 0.58722121
-2.7479684 -0.97622174 -0.9615683
-2.7407608 -0.97366118 -0.80246615
-2.8741553 -1.0210499 -0.6756953
-6.2258415 -2.2117436 -0.7364279
-6.809412 -2.4190583 -0.40363553
-9.8516378 -3.4998155 0
-9.8942986 -3.514971 0.58649564
-2.7351491 -0.97539121 -0.95749426
-2.7632077 -0.98539734 -0.80938643
-2.8753197 -1.025378 -0.67625982
-0 -0 -0
-6.7697787 -2.4141948 -0.40145886
-9.8547487 -3.5143368 0
-9.9145145 -3.53565 0.58794677
-2.7107029 -0.9703669 -0.94934613
-2.7218635 -0.97436213 -0.79762036
-2.8860376 -1.0331324 -0.67907369
-0 -0 -0
-6.7472854 -2.4153669 -0.40029773
-9.8602953 -3.5297503 0
-0 -0 0
-2.6899939 -0.96662199 -0.78862292
-2.8800001 -1.0348988 -0.67794687
-2.9128389 -1.0466992 -0.51601261
-0 -0 -0
-6.6930118 -2.4050658 -0.39724994
-9.8437796 -3.5372622 0
-0 -0 0
-2.7525446 -0.99285597 -0.80731195
-2.9146023 -1.0513109 -0.6863907
-2.8946757 -1.0441233 -0.51301807
-0 -0 -0
-6.6265535 -2.3902295 -0.39347661
-9.8590832 -3.5562184 0
-0 -0 0
-2.7395506 -0.99191147 -0.80385184
-2.9204993 -1.0574278 -0.68807989
-2.9078896 -1.0528622 -0.51558506
-0 -0 -0
-6.7067261 -2.4283102 -0.39841107
-9.8547792 -3.5681286 0
-9.9021921 -3.5852952 0.58823675
-2.6959038 -0.97979438 -0.79139155
-2.8953342 -1.0522751 -0.68244994
-2.8728426 -1.0441006 -0.50959432
-0 -0 -0
-6.7623987 -2.4577138 -0.40189442
-9.850461 -3.5800335 0
-9.9003019 -3.5981476 0.5883823
-2.7536366 -1.0045451 -0.80869496
-2.8940606 -1.0557727 -0.68244994
-2.8739882 -1.0484501 -0.51002187
-0 -0 -0
-6.7887077 -2.4765661 -0.40363553
-9.8485699 -3.5928242 0
-9.9008245 -3.6118867 0.58867234
-2.7335744 -1.0009705 -0.80315763
-2.9023268 -1.0627636 -0.6847015
-2.8847697 -1.0563346 -0.51216131
-6.2308903 -2.281605 -0.73959935
-6.7930326 -2.4874482 -0.40407109
-9.8442221 -3.6047218 0
-9.8842554 -3.619381 0.58794677
-2.8124201 -1.0336975 -0.82668984
-2.9535038 -1.0855525 -0.69708389
-2.8883147 -1.0615923 -0.51301807
-6.2402649 -2.2935927 -0.74104059
-6.7875857 -2.4947591 -0.40392607
-9.842309 -3.6175144 0
-9.8823109 -3.6322169 0.58809179
-2.8347106 -1.0457799 -0.8336128
-2.9593439 -1.0917596 -0.69877309
-2.8798025 -1.0624152 -0.51173377
-6.2326312 -2.2993391 -0.74046344
-6.7431254 -2.4876702 -0.40145886
-6.7787046 -2.5007961 0
-9.873044 -3.6423583 0.58780175
-2.805213 -1.0387503 -0.82530683
-2.9389603 -1.088276 -0.69427001
-6.2322807 -2.3077691 -0.74075252
-6.7108736 -2.4849885 -0.39971718
-6.8196125 -2.5252538 0
-9.8637571 -3.6524789 0.58751118
-2.7757366 -1.0316509 -0.81700087
-2.9328845 -1.0900576 -0.69314528
-6.2294879 -2.3152978 -0.74075252
-6.7444034 -2.506675 -0.40189442
-9.8535213 -3.6622329 0
-9.9007406 -3.6797831 0.58997846
-2.7732356 -1.0383558 -0.81700087
-0 -0 -0
-6.228714 -2.3321574 -0.7413286
-6.7358851 -2.5220525 -0.40174887
-9.8470774 -3.6869462 0
-9.9112873 -3.7109876 0.59113955
-2.7913992 -1.0470799 -0.8225382
-6.2200365 -2.333194 -0.74046344
-6.7368002 -2.5270369 -0.40189442
-9.8521605 -3.6956375 0
-9.9066124 -3.7160633 0.59099454
-2.8183067 -1.0610595 -0.8308441
-6.2147946 -2.3397975 -0.74017543
-6.7118487 -2.5269325 -0.40058774
-9.8671722 -3.714875 0
-9.9167013 -3.7335222 0.59186512
-2.7560098 -1.0414094 -0.81284922
-0 -0 -0
-6.2143803 -2.3482184 -0.74046344
-6.7087903 -2.5350406 -0.40058774
-9.8602438 -3.7258759 0
-9.9097548 -3.7445843 0.5917201
-2.7828894 -1.0554107 -0.82115251
-6.2163796 -2.3575618 -0.74104059
-6.7057223 -2.5431452 -0.40058774
-9.8508635 -3.7359397 0
-9.9295139 -3.7657681 0.59317124
-2.7534852 -1.0480665 -0.81284922
-6.2328649 -2.3724322 -0.74334687
-6.7026448 -2.5512457 -0.40058774
-9.848772 -3.7487648 0
-9.9395323 -3.7833111 0.59404236
-2.8108041 -1.0737741 -0.83015263
-6.2251568 -2.3781137 -0.74276978
-6.7117009 -2.5639818 -0.40131384
-9.8442354 -3.7606623 0
-9.9422379 -3.7981009 0.59447789
-2.8540053 -1.0942312 -0.84330171
-6.2222786 -2.3856339 -0.74276978
-6.7183027 -2.5758107 -0.40189442
-9.851841 -3.7772155 0
-9.9473467 -3.8138325 0.59505844
-2.8175576 -1.0841639 -0.83291864
-6.2242241 -2.3950102 -0.74334687
-6.7273088 -2.5885913 -0.40261996
-9.8545494 -3.791918 0
-9.954854 -3.830514 0.59578401
-2.8279538 -1.0920891 -0.83638144
-2.9259229 -1.1299224 -0.69483232
-6.2189059 -2.4015946 -0.74305779
-6.721745 -2.5957794 -0.4024744
-9.84025 -3.8000722 0
-9.9284048 -3.8341157 0.59447789
-2.8336432 -1.0982225 -0.83845592
-2.8937583 -1.1215211 -0.68751538
-6.2208276 -2.4109786 -0.74363494
-6.7331452 -2.6095352 -0.40334553
-9.8550634 -3.8194833 0
-9.928606 -3.8479857 0.59476793
-2.8977818 -1.1271096 -0.85783643
-2.9160864 -1.1342293 -0.69314528
-6.2155013 -2.4175568 -0.74334687
-6.7057748 -2.6082516 -0.40189442
-9.8455954 -3.8295035 0
-9.9069948 -3.8533852 0.59375179
-2.9291317 -1.14338 -0.8675254
-2.8839455 -1.1257417 -0.68582833
-6.2222133 -2.428827 -0.74450004
-6.7147188 -2.6210756 -0.40261996
-9.8482265 -3.8442335 0
-0 -0 0
-2.9020596 -1.1368552 -0.85991359
-2.8896739 -1.1320033 -0.68751538
-6.219274 -2.4363437 -0.74450004
-6.728476 -2.635819 -0.40363553
-9.8508463 -3.858979 0
-0 -0 0
-2.8890119 -1.1357723 -0.85645348
-6.2307639 -2.449533 -0.74622929
-6.7325435 -2.6468 -0.40407109
-9.8485966 -3.8718302 0
-0 -0 0
-2.8852971 -1.138339 -0.85575926
-6.2205791 -2.4542112 -0.74536413
-6.7390089 -2.6587477 -0.40465164
-9.8366547 -3.8808649 0
-9.8761721 -3.8964555 0.59302622
-2.8489373 -1.127974 -0.84537888
-6.2152066 -2.4607744 -0.74507612
-6.7357917 -2.6668885 -0.40465164
-9.8488903 -3.8994513 0
-9.852128 -3.9007337 0.59186512
-2.8412569 -1.1269193 -0.84330171
-6.2233362 -2.4683433 -0.74622929
-6.729353 -2.6690433 -0.40436164
-9.8465319 -3.905401 0
-16.170542 -6.4136744 0.97167546
-2.8398931 -1.1303515 -0.84330171
-6.2251506 -2.4777725 -0.74680531
-6.7019758 -2.6675613 -0.40290996
-9.8466463 -3.9192224 0
-16.170027 -6.4360924 0.97211099
-6.2173529 -2.4833755 -0.74622929
-6.6673803 -2.6631284 -0.4010233
-9.8443184 -3.9320817 0
-16.188784 -6.466229 0.97370768
-6.2239509 -2.4947355 -0.74738246
-6.6617479 -2.6702168 -0.40087831
-9.8371468 -3.9430063 0
-16.205072 -6.495451 0.97515881
-6.220932 -2.502254 -0.74738246
-6.665751 -2.6811743 -0.40131384
-9.8589277 -3.96557 0
-14.639953 -5.8886485 0.88140345
-6.2203002 -2.5107362 -0.74767047
-6.6793666 -2.6960318 -0.40232942
-6.5432258 -2.6410806 0
-14.652103 -5.914114 0.88256454
-0 -0 -0
-6.2220612 -2.5201943 -0.74824756
-6.7025986 -2.7148318 -0.40392607
-6.5496783 -2.6528928 0
-14.62568 -5.9240103 0.88140345
-0 -0 -0
-6.2166085 -2.5267339 -0.74795848
-6.7257857 -2.7336884 -0.4055222
-6.5271807 -2.6529655 0
-14.620915 -5.9426556 0.88154846
-0 -0 -0
-6.2231307 -2.5381508 -0.74911165
-6.7296982 -2.7447581 -0.40595776
-14.30232 -5.8333092 0
-14.601697 -5.9554119 0.8808229
-0 -0 -0
-6.2224598 -2.5466509 -0.74940073
-6.7287793 -2.753871 -0.40610275
-14.273586 -5.8417153 0
-14.551208 -5.955337 0.87821066
-0 -0 -0
-6.2145882 -2.5522006 -0.74882364
-6.6990137 -2.7511437 -0.40450665
-14.264112 -5.8579702 0
-14.505543 -5.9571209 0.87588841
-0 -0 -0
-6.2067218 -2.5577388 -0.74824756
-6.6908751 -2.7572541 -0.40421608
-14.259428 -5.8761921 0
-14.493534 -5.9726653 0.87559843
-6.2084026 -2.5672112 -0.74882364
-6.7019506 -2.7712963 -0.4050872
-14.245109 -5.8904371 0
-14.45989 -5.9792504 0.87400174
-6.2148519 -2.578676 -0.74997681
-6.7273979 -2.7913423 -0.40682888
-14.252399 -5.9136276 0
-14.435852 -5.9897461 0.87298566
-6.2141171 -2.5871768 -0.75026482
-6.7432017 -2.8074551 -0.40798944
-14.257254 -5.9358449 0
-14.387826 -5.9902072 0.87051839
-6.2133799 -2.5956833 -0.75055391
-6.7326183 -2.8125987 -0.40755442
-7.0343046 -2.9386303 0
-14.359001 -5.9985743 0.86921227
-6.2150054 -2.6051869 -0.75112998
-6.7268209 -2.8197284 -0.40740943
-7.0115566 -2.9390829 0
-14.356541 -6.0179305 0.86950284
-6.2253518 -2.6139469 -0.75257117
-6.71313 -2.818759 -0.40668333
-6.6930475 -2.8103266 0
-14.360083 -6.0296183 0.86993784
-6.215045 -2.6184576 -0.75170708
-6.7025423 -2.8238447 -0.40624833
-6.5145802 -2.7446544 0
-14.348001 -6.0449495 0.86964786
-6.2142568 -2.6269712 -0.75199515
-6.7134809 -2.8380101 -0.40711889
-6.4992757 -2.7474582 0
-14.319149 -6.0531769 0.86834174
-6.2158356 -2.6364961 -0.75257117
-6.7243953 -2.8522058 -0.40798944
-14.871539 -6.3078818 0
-14.263982 -6.0501814 0.86543894
-6.215023 -2.6450167 -0.75285918
-6.7376828 -2.8674526 -0.40900555
-14.837563 -6.3146348 0
-14.239931 -6.0602922 0.86442339
-6.2046933 -2.6494801 -0.75199515
-6.743772 -2.8796735 -0.4095861
-14.82514 -6.3305163 0
-14.270823 -6.0938168 0.86674505
-6.2133722 -2.6620674 -0.75343633
-6.7617817 -2.8970287 -0.41089222
-14.810301 -6.3453493 0
-14.299279 -6.1264067 0.86892229
-6.2077775 -2.6685526 -0.75314826
-6.7821531 -2.9154608 -0.41234389
-14.862394 -6.3889341 0
-14.296637 -6.1457305 0.86921227
-6.2069211 -2.6770749 -0.75343633
-6.800097 -2.9329145 -0.41365001
-14.914404 -6.4326544 0
-14.272505 -6.1558003 0.86819673
-6.222672 -2.6927905 -0.75574267
-6.806087 -2.9452569 -0.41423056
-14.91856 -6.4558377 0
-14.267439 -6.1740723 0.86834174
-6.2099237 -2.6961873 -0.7545895
-6.8025231 -2.9534786 -0.41423056
-14.762747 -6.4096003 0
-12.748913 -5.5352464 0.77632803
-6.2113991 -2.7057526 -0.75516552
-6.7918005 -2.9585817 -0.41379502
-14.688193 -6.3983359 0
-12.732687 -5.5464959 0.77574748
-6.2152376 -2.7163644 -0.75603068
-6.7929783 -2.9688654 -0.414085
-14.706676 -6.4275403 0
-12.714073 -5.5566745 0.77502191
-6.2095842 -2.7228346 -0.75574267
-6.8084235 -2.985419 -0.41524613
-14.772788 -6.4777055 0
-12.69783 -5.5678592 0.77444136
-6.2086549 -2.7313762 -0.75603068
-6.8381143 -3.0082946 -0.41727835
-14.853079 -6.5343213 0
-12.667314 -5.5727363 0.77299023
-6.2148151 -2.7430537 -0.75718385
-6.8725004 -3.0333385 -0.41960004
-14.888034 -6.5711808 0
-12.679579 -5.5964279 0.77415079
-6.2114964 -2.750561 -0.75718385
-6.8973413 -3.0542655 -0.42134172
-14.901497 -6.5986481 0
-12.689442 -5.6191106 0.77516693
-6.208168 -2.7580645 -0.75718385
-6.9031444 -3.0668173 -0.42192227
-14.888752 -6.6145334 0
-12.70164 -5.642879 0.77632803
-6.2112222 -2.7639158 -0.75775987
-6.8799267 -3.0614805 -0.42061615
-14.887137 -6.6245885 0
-12.7006 -5.651607 0.77647305
-6.2078781 -2.7714188 -0.75775987
-6.8714814 -3.0676749 -0.42032614
-14.874365 -6.6404481 0
-12.705624 -5.6722445 0.77719861
-6.2163343 -2.7842071 -0.75920212
-6.8677697 -3.0759757 -0.42032614
-14.854457 -6.6530981 0
-12.703507 -5.6897187 0.77748919
-6.2153225 -2.7927754 -0.75949019
-6.8711514 -3.0874636 -0.42076114
-14.808425 -6.653975 0
-12.698992 -5.7061286 0.77763414
-6.2119436 -2.8002832 -0.75949019
-6.8792582 -3.1011021 -0.42148671
-6.5584774 -2.9564972 0
-12.694454 -5.7225356 0.77777916
-6.2203369 -2.8131151 -0.76093137
-6.887351 -3.1147687 -0.42221281
-14.690344 -6.6436319 0
-12.69227 -5.7400136 0.77806973
-6.2051582 -2.8152869 -0.75949019
-6.8717442 -3.1177175 -0.42148671
-14.675193 -6.6581507 0
-12.685325 -5.7553453 0.77806973
-6.2041039 -2.823853 -0.7597782
-6.8064866 -3.0980327 -0.41771337
-12.63018 -5.7487392 0
-12.680724 -5.7717443 0.77821469
-6.2030377 -2.8324208 -0.76006621
-6.6821966 -3.0512135 -0.41031167
-12.618485 -5.7618318 0
-12.673741 -5.7870622 0.77821469
-6.2043185 -2.8420703 -0.76064336
-6.5911078 -3.0192506 -0.40494221
-12.620979 -5.7814102 0
-12.683278 -5.809948 0.77923083
-6.2126284 -2.854964 -0.76208454
-6.6323085 -3.0478246 -0.40769944
-12.63054 -5.8042636 0
-12.749435 -5.8589015 0.78372973
-6.2057109 -2.8699691 -0.76208454
-6.853682 -3.1696377 -0.42177728
-12.649541 -5.8500614 0
-12.973432 -5.9998517 0.79838812
-6.2069268 -2.8796403 -0.76266056
-6.8427734 -3.1746349 -0.42134172
-12.647189 -5.8675346 0
-12.963818 -6.0144305 0.79824311
-6.2104797 -2.8904133 -0.76352572
-6.7588396 -3.1456249 -0.41640726
-12.673119 -5.8981833 0
-12.909425 -6.0081625 0.79534036
-6.2023001 -2.8957291 -0.76294965
-6.6208401 -3.0911367 -0.408135
-12.717857 -5.9377112 0
-12.89509 -6.0204577 0.79490477
-6.2058167 -2.9065092 -0.76381373
-6.548861 -3.0671747 -0.40392607
-12.731883 -5.9630075 0
-12.887806 -6.0360346 0.79490477
-4.0710893 -1.9097043 -0.74967206
-6.2040596 -2.9102578 -0.76381373
-6.5422974 -3.0689213 -0.40363553
-12.690588 -5.9530187 0
-12.790067 -5.9996829 0.78909975
-3.9277108 -1.8482404 -0.96162564
-4.0594878 -1.9102501 -0.74796015
-6.205224 -2.9199567 -0.76439089
-6.5621004 -3.0878899 -0.4050872
-12.624518 -5.9406471 0
-12.735785 -5.9930053 0.78619695
-3.9967074 -1.8866097 -0.97907561
-4.0757394 -1.923916 -0.75138229
-6.2087102 -2.9307656 -0.76525599
-6.837976 -3.2278049 -0.42235783
-12.589089 -5.9425659 0
-12.773183 -6.0294657 0.78895473
-3.9875333 -1.8881743 -0.97738642
-4.087337 -1.9354331 -0.75395089
-6.2051644 -2.9382656 -0.76525599
-6.8552046 -3.2460723 -0.42366394
-12.572491 -5.9533181 0
-12.819896 -6.0704689 0.79229254
-3.985249 -1.8929911 -0.97738642
-4.0618119 -1.9293585 -0.74967206
-6.208612 -2.9490871 -0.76612008
-6.748013 -3.2053025 -0.41727835
-12.569985 -5.970736 0
-12.777343 -6.0692306 0.7901153
-3.9944258 -1.9032688 -0.98020029
-4.0710626 -1.939785 -0.75181144
-6.2073855 -2.9577029 -0.76640916
-6.725369 -3.2045121 -0.41611725
-12.576862 -5.9926391 0
-12.711357 -6.0567231 0.78648698
-3.9783726 -1.9015217 -0.9768241
-4.0548148 -1.9380584 -0.74924284
-6.2038074 -2.9652009 -0.76640916
-6.8246374 -3.2619359 -0.42250282
-12.59779 -6.0212989 0
-12.711065 -6.0754409 0.78692251
-3.9806499 -1.9085222 -0.97794878
-4.0154428 -1.9252037 -0.74239701
-6.209549 -2.9771678 -0.76756233
-6.8698931 -3.2937698 -0.42555061
-12.604581 -6.0432649 0
-12.717778 -6.0975375 0.78779364
-3.9852126 -1.9166355 -0.97963798
-4.008482 -1.9278268 -0.74154025
-6.2082758 -2.9857886 -0.76785034
-6.8424959 -3.2908082 -0.4240995
-12.58085 -6.0505939 0
-12.696346 -6.1061406 0.78692251
-3.9783213 -1.9192436 -0.9785133
-3.9807148 -1.9203982 -0.7368322
-6.1999998 -2.9910381 -0.76727325
-6.7308631 -3.2471399 -0.41742337
-12.566504 -6.0624018 0
-12.646837 -6.1011567 0.78431028
-3.9668505 -1.9196219 -0.97626173
-3.9460456 -1.9095541 -0.73084152
-6.2010422 -3.0007827 -0.76785034
-6.6824918 -3.2337639 -0.41466558
-12.55448 -6.0753121 0
-12.604369 -6.0994544 0.78213304
-3.9622357 -1.923301 -0.97569722
-3.9552801 -1.9199246 -0.73298091
-6.2043858 -3.0116584 -0.76871443
-12.662551 -6.1465034 -0.78620368
-12.575225 -6.104115 0
-12.578298 -6.1056066 0.78097248
-3.9576266 -1.926976 -0.97513491
-3.9575779 -1.9269521 -0.73383766
-6.2077208 -3.0225511 -0.76957959
-12.650437 -6.1595221 -0.78591311
-12.6123 -6.1409531 0
-12.589592 -6.1298962 0.78213304
-3.9416008 -1.9250681 -0.97175866
-3.9298711 -1.9193394 -0.72912961
-6.1994205 -3.0277817 -0.76900351
-12.652326 -6.1793647 -0.78649366
-12.710092 -6.2075777 0
-12.624208 -6.1656322 0.78474587
-3.9483991 -1.9343008 -0.97401023
-3.9206309 -1.9206973 -0.72784531
-6.2143393 -3.0443735 -0.77130985
-12.649521 -6.1969366 -0.78678423
-12.810085 -6.2755957 0
-12.59575 -6.1705942 0.78343976
-3.9414937 -1.9368269 -0.97288334
-3.9160056 -1.9243021 -0.72741777
-6.1851192 -3.0393312 -0.76813841
-12.649022 -6.2156553 -0.78721976
-12.828188 -6.3036962 0
-12.576618 -6.1800761 0.78271365
-3.9494419 -1.9436957 -0.97513491
-3.9079392 -1.9232703 -0.72613508
-3.9369922 -1.9375687 -0.48908573
-6.7611065 -3.3274407 -0.42090669
-12.777677 -6.2884617 0
-12.563556 -6.1830835 0.78213304
-3.9516518 -1.950718 -0.97626173
-3.9010043 -1.9257162 -0.72527832
-3.9694397 -1.959499 -0.49341038
-6.7827044 -3.3482566 -0.42250282
-12.702395 -6.2704897 0
-12.544428 -6.1925097 0.78140754
-3.9333503 -1.947598 -0.97232103
-3.9101748 -1.9361227 -0.72741777
-3.9717004 -1.9665871 -0.49398643
-6.7786541 -3.3564498 -0.42250282
-12.669152 -6.2731295 0
-16.437178 -8.1388674 1.0245035
-3.9264383 -1.9500866 -0.97119415
-3.8894396 -1.931711 -0.72399402
-3.9716356 -1.9725341 -0.49427444
-12.60633 -6.2610011 -0.78620368
-12.645254 -6.280333 0
-16.401739 -8.1460114 1.0229074
-3.9036124 -1.9446337 -0.96612877
-3.8802161 -1.9329785 -0.72271132
-3.955363 -1.9704139 -0.49254525
-12.5941 -6.2739096 -0.78591311
-12.635329 -6.2944484 0
-16.338388 -8.1391735 1.0195689
-3.9103518 -1.953892 -0.96838027
-3.8732805 -1.9353685 -0.72185457
-3.9691775 -1.9832855 -0.49456355
-12.605105 -6.2984142 -0.78707421
-12.627714 -6.309711 0
-16.284384 -8.1368456 1.0168117
-3.9079881 -1.9586154 -0.96838027
-3.870939 -1.9400473 -0.72185457
-3.9760187 -1.9927113 -0.49571562
-12.61839 -6.3241177 -0.78838032
-12.613099 -6.3214655 0
-16.214146 -8.1262474 1.0130384
-3.9033506 -1.962196 -0.96781796
-3.8777664 -1.949335 -0.72356647
-3.9597468 -1.9905461 -0.49398643
-12.60842 -6.3381939 -0.78823531
-12.619398 -6.3437123 0
-16.171808 -8.1294918 1.0110061
-3.8919015 -1.9623351 -0.9655664
-3.882287 -1.9574875 -0.72485077
-3.9781222 -2.0058086 -0.49658078
-14.113445 -7.1161385 -0.88286126
-12.653557 -6.3800483 0
-16.13414 -8.1349926 1.0092651
-3.8804579 -1.9624496 -0.96331483
-3.8776302 -1.9610196 -0.72442323
-3.9756956 -2.0106139 -0.49658078
-12.460907 -6.3018084 -0.77996308
-12.682988 -6.4141207 0
-16.110382 -8.1474438 1.0083939
-3.8894117 -1.972883 -0.96612877
-3.8775451 -1.9668636 -0.72485077
-3.9732633 -2.0154161 -0.49658078
-12.390712 -6.2851214 -0.77604419
-12.7054 -6.4447446 0
-16.051863 -8.1422195 1.0053462
-3.8779664 -1.9729724 -0.9638772
-3.8843176 -1.9762037 -0.72656262
-3.9823494 -2.0260787 -0.49802196
-6.405961 -3.2591267 -0.40145886
-12.690651 -6.4565549 0
-16.00033 -8.1404028 1.0027339
-3.8891635 -1.9845884 -0.96725559
-3.8704963 -1.9750627 -0.72442323
-3.9660797 -2.0238376 -0.49629277
-6.4066429 -3.2692244 -0.40174887
-13.827939 -7.0562129 0
-15.937246 -8.1325645 0.99939555
-3.8415256 -1.9661334 -0.95599788
-3.8749559 -1.9832433 -0.72570586
-3.9659317 -2.0298057 -0.49658078
-6.402688 -3.2769632 -0.40174887
-13.793917 -7.0598722 0
-15.878835 -8.126956 0.99634778
-3.7509954 -1.9255222 -0.93404698
-3.8588586 -1.9808923 -0.72313893
-3.9634759 -2.0345962 -0.49658078
-6.4033513 -3.2870729 -0.40203941
-13.75528 -7.0610847 0
-15.845892 -8.1342716 0.99489665
-3.3985271 -1.7497792 -0.84680367
-3.8496132 -1.9820272 -0.72185457
-3.977114 -2.0476727 -0.49859911
-6.3970671 -3.2936194 -0.40189442
-13.712029 -7.0598297 0
-15.815262 -8.1427088 0.99359053
-0 -0 -0
-3.3568234 -1.7308739 -0.83667278
-3.8598208 -1.9902338 -0.72399402
-3.9597819 -2.0417764 -0.49658078
-6.3950758 -3.2974837 -0.40189442
-13.666129 -7.0466461 0
-15.789556 -8.1415453 0.99228442
-3.2915349 -1.7022471 -0.82091206
-3.8597 -1.9960787 -0.72442323
-3.9665017 -2.0513122 -0.49773395
-6.3980045 -3.3087859 -0.40232942
-13.632174 -7.0500021 0
-15.749704 -8.1451015 0.99039775
-0 -0 -0
-3.2782001 -1.7003745 -0.81809813
-3.8595619 -2.0019219 -0.72485077
-3.9846818 -2.0668206 -0.5003283
-0 -0 -0
-13.586691 -7.0473008 0
-15.719093 -8.1533594 0.98909163
-0 -0 -0
-3.2468419 -1.689091 -0.81078118
-3.8639743 -2.0101392 -0.72613508
-3.977597 -2.0692487 -0.49975228
-6.4015136 -3.3302326 -0.40305498
-13.538918 -7.0432954 0
-15.667732 -8.1507587 0.98647887
-0 -0 -0
-3.2402976 -1.6906644 -0.8096565
-3.8615427 -2.0148067 -0.72613508
-3.9636304 -2.0680721 -0.49831107
-6.3905802 -3.3343625 -0.40261996
-13.505015 -7.0464053 0
-15.604894 -8.1420422 0.98314106
-0 -0 -0
-3.220242 -1.6851537 -0.80515343
-3.8636498 -2.0218492 -0.72699022
-3.9794533 -2.0824492 -0.50061631
-6.3819375 -3.3396699 -0.40232942
-13.450375 -7.0385852 0
-15.512162 -8.1175194 0.97791606
-0 -0 -0
-3.2092042 -1.6843202 -0.80290186
-3.8521121 -2.0217443 -0.72527832
-3.958621 -2.0776446 -0.49831107
-6.3778977 -3.347379 -0.40232942
-13.41882 -7.0427403 0
-15.394211 -8.079505 0.97109491
-0 -0 -0
-3.186933 -1.677546 -0.79783648
-3.8428493 -2.022809 -0.72399402
-3.9835641 -2.096879 -0.50176948
-6.3761454 -3.356292 -0.4024744
-13.378064 -7.0419803 0
-15.313164 -8.0605831 0.96659601
-0 -0 -0
-3.1646829 -1.6707206 -0.79277104
-3.842679 -2.0286529 -0.72442323
-3.9810276 -2.1016908 -0.50176948
-6.4065561 -3.3821919 -0.40465164
-13.341928 -7.04356 0
-15.257456 -8.0548182 0.9636932
-0 -0 -0
-3.1334631 -1.6590832 -0.78545189
-3.8424916 -2.0344946 -0.72485077
-3.9807777 -2.1077132 -0.50205863
-12.241964 -6.4817863 -0.77372253
-13.310403 -7.0474958 0
-15.199489 -8.0477152 0.96064544
-0 -0 -0
-3.1471672 -1.6712111 -0.78939265
-3.8558946 -2.0475602 -0.72784531
-3.9667995 -2.1064529 -0.50061631
-6.4626222 -3.4317868 -0.40871555
-6.4802032 -3.4411225 0
-15.153044 -8.0465813 0.95832372
-0 -0 -0
-3.162823 -1.6844271 -0.98864901
-3.1384153 -1.6714283 -0.78770345
-3.8466268 -2.0486012 -0.72656262
-3.9825146 -2.120971 -0.50292265
-6.4859838 -3.4542456 -0.41045666
-6.4967208 -3.4599636 0
-15.122662 -8.0538883 0.95701706
-0 -0 -0
-3.169637 -1.6929754 -0.99141771
-3.1274285 -1.6704309 -0.78545189
-3.8441486 -2.0532475 -0.72656262
-3.9753904 -2.1233468 -0.50234663
-6.4772258 -3.4596341 -0.41016665
-6.4741707 -3.4580023 0
-15.096882 -8.0635891 0.95600152
-0 -0 -0
-3.1344149 -1.6790335 -0.98103458
-3.1097357 -1.6658134 -0.78151333
-3.8371348 -2.0554643 -0.72570586
-3.9773774 -2.130589 -0.50292265
-0 -0 -0
-0 -0 0
-15.055056 -8.0646448 0.9539693
-0 -0 -0
-3.1102877 -1.6709489 -0.9741143
-3.1189101 -1.6755811 -0.78432721
-3.8233438 -2.0540259 -0.72356647
-3.9611337 -2.1280513 -0.50119346
-0 -0 -0
-6.4497447 -3.4650149 0
-15.015545 -8.0668449 0.95208263
-0 -0 -0
-3.099432 -1.669946 -0.97134566
-3.0989883 -1.6697068 -0.77982414
-3.7711451 -2.0318587 -0.71415198
-3.9517262 -2.1291542 -0.5003283
-6.455492 -3.4781606 -0.4095861
-6.4363885 -3.4678679 0
-14.985201 -8.0738907 0.95077652
-0 -0 -0
-3.0885835 -1.6689192 -0.96857703
-3.0925019 -1.6710366 -0.77869946
-3.6738367 -1.9851614 -0.6961782
-3.9355018 -2.1265523 -0.49859911
-6.4124241 -3.4649599 -0.40711889
-6.413877 -3.465745 0
-14.961722 -8.0845823 0.94990593
-0 -0 -0
-3.058893 -1.6552644 -0.95957959
-3.0758469 -1.6644386 -0.7747587
-3.4333324 -1.8578855 -0.65081614
-3.8750763 -2.0969272 -0.49110407
-6.39433 -3.4601755 -0.40610275
-6.4003396 -3.4634275 0
-14.945412 -8.0874376 0.94918036
-0 -0 -0
-3.0568907 -1.6589593 -0.95957959
-3.0492656 -1.6548212 -0.76856643
-3.3543775 -1.8204038 -0.63626605
-3.8634467 -2.096673 -0.4899509
-6.3787279 -3.4617035 -0.40537721
-6.3915796 -3.4686782 0
-14.921921 -8.098052 0.94830924
-0 -0 -0
-3.0504727 -1.6602508 -0.9581939
-3.040575 -1.654864 -0.76687944
-3.2755184 -1.7827342 -0.62171602
-3.8359184 -2.0877376 -0.48677939
-6.3562818 -3.459471 -0.40421608
-6.3668046 -3.465198 0
-14.907565 -8.1135941 0.94801927
-0 -0 -0
-3.037456 -1.6579268 -0.95473379
-3.0430295 -1.660969 -0.76800412
-3.2891283 -1.7952964 -0.62471056
-3.8447423 -2.0985658 -0.48822057
-6.3406954 -3.4609253 -0.40349051
-6.3534751 -3.4679012 0
-14.900029 -8.1328449 0.94816428
-0 -0 -0
-3.0200438 -1.6531622 -0.94988799
-3.0321052 -1.6597645 -0.76575255
-3.2689509 -1.7894132 -0.62128842
-3.8422039 -2.10321 -0.48822057
-6.3228374 -3.4611006 -0.40261996
-6.3355875 -3.4680803 0
-14.897032 -8.1545868 0.94859982
-0 -0 -0
-3.0070505 -1.650775 -0.94642782
-2.9989188 -1.646311 -0.75787324
-3.2015302 -1.7575382 -0.60887778
-3.8419335 -2.1090991 -0.48850968
-6.3140907 -3.4662347 -0.40232942
-6.3154211 -3.466965 0
-14.980546 -8.2238426 0.95454985
-0 -0 -0
-3.0072577 -1.6556206 -0.94712198
-3.0102785 -1.6572837 -0.76124948
-3.1881626 -1.7552162 -0.60673839
-3.8484368 -2.1187248 -0.48966175
-6.2939706 -3.4650929 -0.40131384
-6.3089495 -3.4733396 0
-15.011576 -8.2644978 0.95716262
-0 -0 -0
-2.9679122 -1.6386355 -0.93535322
-3.0105045 -1.6621515 -0.761814
-3.1725512 -1.7516203 -0.60416973
-3.8300304 -2.1146259 -0.48764455
-6.2715807 -3.4626479 -0.40015274
-6.2956347 -3.4759285 0
-6.4079533 -3.5379415 0.40885386
-0 -0 -0
-3.0120187 -1.6677394 -0.94988799
-2.9595859 -1.6387076 -0.74942946
-3.1412392 -1.7392882 -0.59860659
-3.8297331 -2.1205039 -0.48793256
-6.2582994 -3.4651885 -0.39957219
-6.2550015 -3.4633627 0
-6.3673015 -3.5255425 0.40653163
-0 -0 -0
-2.9597631 -1.6481638 -0.93466175
-2.9334221 -1.6334957 -0.74380171
-3.1213253 -1.7381308 -0.59561038
-3.8087771 -2.1209428 -0.48591423
-6.243094 -3.4765086 -0.39913663
-6.2443423 -3.4772036 0
-6.3746567 -3.5497701 0.40754774
-0 -0 -0
-2.9796774 -1.6639732 -0.94158471
-2.924789 -1.6333212 -0.74211252
-3.1259487 -1.7456571 -0.59689474
-3.8152444 -2.1305878 -0.4870674
-6.2388887 -3.4840496 -0.39913663
-6.2583137 -3.4948971 0
-6.3635545 -3.553668 0.40711218
-0 -0 -0
-2.9338868 -1.6430556 -0.92774147
-2.9338956 -1.6430606 -0.74492639
-3.1215997 -1.7481798 -0.59646714
-3.8104126 -2.1339338 -0.48677939
-6.2437429 -3.4966643 -0.39971718
-6.2586322 -3.5050023 0
-6.3637948 -3.5638962 0.40740275
-0 -0 -0
-2.9603336 -1.6625684 -0.93673891
-2.9385567 -1.6503382 -0.74661559
-3.117249 -1.7506945 -0.59603959
-3.8145993 -2.1423371 -0.48764455
-6.2463126 -3.5080245 -0.40015274
-6.2543921 -3.512562 0
-6.3572116 -3.570307 0.40725717
-0 -0 -0
-2.9320915 -1.6513708 -0.92843294
-2.9099934 -1.638925 -0.73986095
-3.1307819 -1.7632743 -0.59903413
-3.8052447 -2.1431358 -0.48677939
-6.2375369 -3.5130165 -0.39986217
-6.2592053 -3.5252204 0
-6.3347893 -3.5677898 0.40609664
-0 -0 -0
-2.9606719 -1.6721827 -0.93812191
-2.9146502 -1.6461898 -0.74155015
-3.115242 -1.7594838 -0.59646714
-3.8026524 -2.147732 -0.48677939
-6.2445979 -3.5269389 -0.40058774
-6.2594776 -3.5353429 0
-6.3349943 -3.5779948 0.40638661
-0 -0 -0
-2.9290936 -1.6566824 -0.92843294
-2.9180741 -1.6504499 -0.74267483
-3.1208839 -1.7651582 -0.5977515
-3.8013542 -2.1500289 -0.48677939
-6.242466 -3.5307109 -0.40058774
-6.2596035 -3.5404041 0
-6.3147373 -3.5715876 0.40522552
-0 -0 -0
-2.9336383 -1.6639347 -0.9305101
-2.927135 -1.660246 -0.74549091
-0 -0 -0
-3.7987535 -2.1546206 -0.48677939
-6.2381949 -3.5382512 -0.40058774
-6.2621145 -3.5518181 0
-6.3217163 -3.5856235 0.40595105
-0 -0 -0
-2.9447057 -1.6749179 -0.93466175
-2.9361677 -1.6700617 -0.74830478
-0 -0 -0
-3.7983935 -2.1604867 -0.4870674
-6.2339153 -3.5457861 -0.40058774
-6.255558 -3.5580964 0
-6.306088 -3.5868373 0.40522552
-0 -0 -0
-2.9121752 -1.6610754 -0.92497283
-2.9231143 -1.6673149 -0.74549091
-0 -0 -0
-3.7778065 -2.1548228 -0.48476106
-6.2341447 -3.5558934 -0.40087831
-6.2557712 -3.568229 0
-6.335608 -3.6137669 0.40740275
-0 -0 -0
-2.9232278 -1.6720643 -0.92912447
-2.916682 -1.6683202 -0.74436402
-0 -0 -0
-3.7931612 -2.1696596 -0.4870674
-6.2366123 -3.5672953 -0.40131384
-6.2604914 -3.5809538 0
-6.3109393 -3.6098096 0.40609664
-0 -0 -0
-2.9190314 -1.6743482 -0.92843294
-2.8948298 -1.6604662 -0.73929858
-0 -0 -0
-3.7905369 -2.1742413 -0.4870674
-6.2413135 -3.5799999 -0.40189442
-6.2629347 -3.5924017 0
-6.3223443 -3.6264789 0.40711218
-0 -0 -0
-2.917006 -1.6778741 -0.92843294
-2.9104414 -1.674098 -0.74380171
-0 -0 -0
-3.7879069 -2.1788199 -0.4870674
-6.2414837 -3.5901275 -0.4021844
-6.2427955 -3.5908821 0
-13.955497 -8.0272598 0.89925462
-0 -0 -0
-2.9323618 -1.6914256 -0.93397027
-2.8974137 -1.6712669 -0.74098778
-3.0991695 -1.7876424 -0.59646714
-3.7942333 -2.1885645 -0.48822057
-6.243896 -3.6015627 -0.40261996
-6.2542348 -3.6075263 0
-15.066652 -8.6906462 0.97153044
-0 -0 -0
-2.9172902 -1.6874331 -0.92981863
-2.8975894 -1.6760377 -0.74155015
-3.1014471 -1.793954 -0.59732229
-3.7893493 -2.1918538 -0.48793256
-6.2350368 -3.6064999 -0.40232942
-6.2611332 -3.6215947 0
-15.024654 -8.6906328 0.96949881
-0 -0 -0
-2.9217534 -1.6947294 -0.93189311
-2.9087455 -1.6871845 -0.74492639
-3.092622 -1.7938398 -0.59603959
-3.7934124 -2.2003253 -0.48879772
-6.2419109 -3.6205487 -0.40305498
-6.2522459 -3.6265433 0
-14.98717 -8.6931362 0.96775711
-0 -0 -0
-2.917537 -1.6969985 -0.93120158
-2.9045105 -1.6894215 -0.74436402
-3.0815761 -1.7924126 -0.59432775
-3.7952182 -2.2075057 -0.48937374
-6.2352877 -3.6267829 -0.40290996
-6.2546101 -3.6380222 0
-14.951946 -8.696866 0.96616042
-0 -0 -0
-2.937151 -1.71316 -0.93812191
-2.8871095 -1.6839722 -0.74042547
-3.0771844 -1.7948377 -0.59389853
-3.788084 -2.209486 -0.48879772
-6.235394 -3.6369352 -0.40320054
-6.2569561 -3.6495118 0
-14.925721 -8.7057657 0.96514487
-0 -0 -0
-2.9502397 -1.7255752 -0.94296771
-2.8872638 -1.6887411 -0.74098778
-3.0772357 -1.7998544 -0.59432775
-3.8010335 -2.2231989 -0.49081492
-6.2377176 -3.6483989 -0.40363553
-6.2502975 -3.655757 0
-14.881544 -8.7041149 0.96296763
-0 -0 -0
-2.9806149 -1.7481785 -0.95335078
-2.8983674 -1.699939 -0.74436402
-3.0551319 -1.7918839 -0.59047645
-3.7916577 -2.2238681 -0.4899509
-6.2333045 -3.6559331 -0.40363553
-6.2615833 -3.6725192 0
-14.835155 -8.7010565 0.96064544
-0 -0 -0
-3.1125617 -1.8306258 -0.99626082
-2.865653 -1.6854085 -0.73648471
-3.0485349 -1.7929689 -0.5896197
-3.78005 -2.2232029 -0.48879772
-6.2311287 -3.6647832 -0.40378109
-6.2593908 -3.6814055 0
-14.815671 -8.713706 0.96006483
-0 -0 -0
-2.8789368 -1.6979065 -0.74042547
-3.0375216 -1.7914349 -0.58790779
-3.7706752 -2.2238257 -0.48793256
-6.2311683 -3.6749473 -0.40407109
-6.2549381 -3.688966 0
-14.798423 -8.7276449 0.95962983
-0 -0 -0
-2.8746898 -1.7000868 -0.73986095
-3.0353546 -1.7951038 -0.58790779
-3.7746663 -2.2323315 -0.48879772
-6.2334352 -3.6864431 -0.40450665
-6.2415161 -3.6912222 0
-14.774443 -8.7375813 0.95875877
-0 -0 -0
-3.1027045 -1.8374654 -0.99487782
-2.8824072 -1.7070022 -0.74211252
-2.998929 -1.776008 -0.58106035
-3.7710936 -2.2332947 -0.48850968
-6.237916 -3.6941819 -0.40494221
-6.2348018 -3.6923375 0
-13.5619 -8.0315485 0.8803879
-0 -0 -0
-3.0983272 -1.8399333 -0.99418634
-2.87816 -1.7091876 -0.74155015
-2.9747128 -1.7665254 -0.57678151
-3.7639403 -2.2352059 -0.48793256
-6.2379122 -3.7043674 -0.40523219
-6.221385 -3.6945531 0
-0 -0 0
-0 -0 -0
-3.0637665 -1.8244207 -0.98380321
-0 -0 -0
-2.9218531 -1.7399137 -0.56693947
-3.7545676 -2.235781 -0.4870674
-6.235662 -3.7132304 -0.40537721
-11.681585 -6.9561849 0
-0 -0 0
-0 -0 -0
-3.0874076 -1.8435556 -0.99210918
-2.8892941 -1.7252579 -0.74549091
-2.9814532 -1.780288 -0.5789209
-3.7496448 -2.2389913 -0.48677939
-11.687872 -6.9790721 -0.76037025
-11.653064 -6.9582877 0
-0 -0 0
-0 -0 -0
-3.0485885 -1.8253766 -0.9803431
-2.8981054 -1.735273 -0.74830478
-2.9484699 -1.7654294 -0.57293022
-3.7269669 -2.2315631 -0.48418504
-11.66605 -6.985178 -0.75949913
-11.622324 -6.9589963 0
-13.442667 -8.0489473 0.87516284
-0 -0 -0
-3.0721912 -1.8445555 -0.98864901
-2.8829317 -1.7309234 -0.74492639
-2.9529393 -1.7729563 -0.57421452
-3.7065279 -2.2254138 -0.4818787
-11.633102 -6.98456 -0.75790298
-11.582665 -6.954277 0
-13.417335 -8.0558205 0.87414676
-0 -0 -0
-3.0463157 -1.8340312 -0.98103458
-2.869956 -1.7278541 -0.74211252
-2.9639862 -1.7844648 -0.57678151
-3.6905451 -2.2218888 -0.48014951
-11.604621 -6.9865503 -0.75659686
-11.569798 -6.9655852 0
-13.385334 -8.0586262 0.87269562
-0 -0 -0
-3.0333607 -1.8312291 -0.97757447
-2.8678663 -1.7313206 -0.74211252
-2.9574368 -1.7853941 -0.57592636
-3.685637 -2.2250059 -0.47986037
-11.571699 -6.9857936 -0.75500023
-11.539098 -6.9661126 0
-13.351115 -8.0600204 0.87109894
-0 -0 -0
-3.0182648 -1.8270954 -0.97342014
-2.8701236 -1.7374188 -0.74323934
-2.950881 -1.786305 -0.57506961
-3.6785247 -2.2267814 -0.47928435
-11.532133 -6.9809341 -0.75296855
-11.497275 -6.9598331 0
-13.319142 -8.0626936 0.86964786
-0 -0 -0
-3.0053339 -1.8242335 -0.96995997
-2.8441274 -1.7263814 -0.73704708
-2.9618828 -1.7978587 -0.5776366
-3.6802492 -2.2339063 -0.47986037
-11.501472 -6.9813781 -0.75151688
-11.473282 -6.9642663 0
-13.278296 -8.0599079 0.86761618
-0 -0 -0
-2.9795604 -1.8135192 -0.96234822
-2.8442078 -1.7311364 -0.73760939
-2.9465556 -1.7934308 -0.57506961
-3.6687183 -2.2329776 -0.4787083
-11.481933 -6.9885163 -0.75079131
-11.451525 -6.9700084 0
-13.241913 -8.0597343 0.86587447
-0 -0 -0
-2.9516695 -1.8014348 -0.95404226
-2.8442891 -1.7358994 -0.7381739
-2.959727 -1.8063524 -0.57806581
-3.6660175 -2.2374089 -0.4787083
-11.469049 -6.9996805 -0.75050128
-11.42977 -6.975708 0
-13.207764 -8.0608368 0.86427784
-0 -0 -0
-2.9366474 -1.7971402 -0.94988799
-2.8443546 -1.74066 -0.73873627
-2.9641047 -1.8139434 -0.57934844
-3.6699233 -2.2458832 -0.47957236
-11.414041 -6.9850512 -0.74745351
-6.1517553 -3.7646899 0
-13.171418 -8.0605135 0.86253613
-0 -0 -0
-2.8788824 -1.7665747 -0.93189311
-2.8379138 -1.7414351 -0.73760939
-2.966291 -1.8202114 -0.5802052
-3.6628022 -2.2476132 -0.47899634
-11.3923 -6.9906812 -0.74658239
-6.1294565 -3.7612314 0
-13.139526 -8.0628357 0.86108506
-0 -0 -0
-2.8211958 -1.7358723 -0.91389823
-2.8379779 -1.7461983 -0.7381739
-2.955344 -1.8184133 -0.57849336
-3.6534729 -2.2479696 -0.47813118
-6.0882225 -3.746063 -0.39928162
-6.1093979 -3.7590921 0
-13.105428 -8.0637255 0.85948837
-0 -0 -0
-2.7785354 -1.7142553 -0.90074915
-2.8336973 -1.7482882 -0.73760939
-2.948771 -1.8192844 -0.5776366
-3.6485548 -2.2510257 -0.47784317
-6.1080198 -3.7684262 -0.40087831
-6.1137023 -3.7719321 0
-13.073565 -8.0659142 0.85803723
-0 -0 -0
-2.79353 -1.7281703 -0.90628642
-2.8315828 -1.7517109 -0.73760939
-2.9443896 -1.8214968 -0.57720906
-3.6480298 -2.2567921 -0.47813118
-6.1012545 -3.7744379 -0.40073329
-6.1113596 -3.7806897 0
-13.037292 -8.0653009 0.85629559
-0 -0 -0
-2.7775545 -1.7206084 -0.90144062
-2.83269 -1.7547631 -0.7381739
-2.9498374 -1.8273323 -0.57849336
-3.6400673 -2.2549081 -0.47726601
-6.0967574 -3.776751 -0.40058774
-6.1134953 -3.7871196 0
-13.001495 -8.0540209 0.8542639
-0 -0 -0
-2.8031759 -1.7411704 -0.91043806
-2.8262467 -1.7555007 -0.73704708
-2.949806 -1.8322484 -0.5789209
-3.6373401 -2.2593048 -0.47726601
-6.1054378 -3.7923439 -0.40145886
-6.1022801 -3.7903829 0
-12.963062 -8.0519028 0.85237724
-0 -0 -0
-2.7946794 -1.740576 -0.9083609
-2.8262782 -1.7602564 -0.73760939
-2.951952 -1.8385283 -0.57977766
-3.6433892 -2.2691677 -0.47841918
-6.0964355 -3.7969685 -0.40116829
-6.1153684 -3.8087604 0
-12.933475 -8.0551977 0.85107112
-0 -0 -0
-2.7819366 -1.7373085 -0.90490079
-2.8219962 -1.7623255 -0.73704708
-2.9475448 -1.8407301 -0.57934844
-3.6296778 -2.2667196 -0.476978
-11.132085 -6.9519429 -0.7330851
-6.1173863 -3.8202837 0
-12.903898 -8.0584335 0.849765
-0 -0 -0
