# .PCD v0.7 - Point Cloud Data file format
VERSION 0.7
FIELDS x y z
SIZE 4 4 4
TYPE F F F
COUNT 1 1 1
WIDTH 1661
HEIGHT 1
VIEWPOINT 0 0 0 1 0 0 0
POINTS 1661
DATA ascii
-7.868474 16.260004 1.0089744
-2.9371202 6.0508275 -0.7496888
-0 0 -0
-3.0210509 6.2237353 0
-7.8529434 16.178026 1.0044756
-2.9387689 6.0356488 -0.74824756
-0 0 -0
-3.0171783 6.1966863 0
-7.6472678 15.705973 0.97573936
-0 0 -0
-2.9437873 6.027441 -0.74767047
-3.0321944 6.2084551 -0.38592991
-3.0212359 6.186018 0
-7.6365933 15.63602 0.97196603
-2.9522049 6.0262003 -0.74795848
-3.0214033 6.1674514 -0.38360769
-2.9920747 6.1075845 0
-7.6406207 15.596448 0.97007936
-2.9606283 6.0249567 -0.74824756
-3.0151014 6.1358109 -0.38186601
-0 0 0
-7.6697731 15.608191 0.97138548
-2.9736226 6.0329723 -0.7496888
-3.0041325 6.094872 -0.37954378
-0 0 0
-7.6932225 15.608234 0.97196603
-2.9717395 6.0108261 -0.74738246
-3.0172517 6.1028819 -0.38026932
-0 0 0
-7.7212892 15.617562 0.97312713
-2.9822545 6.022933 -0.74911165
-3.0151742 6.089417 -0.37954378
-0 0 0
-7.716887 15.584951 0.97138548
-0 0 -0
-3.0317764 6.1043873 -0.38070488
-0 0 0
-7.7426453 15.589574 0.972256
-0 0 -0
-3.0379927 6.0983958 -0.38055989
-0 0 0
-7.7719035 15.601138 0.97356212
-0 0 -0
-3.0395532 6.0831003 -0.37983432
-0 0 0
-7.8012004 15.612653 0.97486824
-0 0 -0
-3.042244 6.0701313 -0.37925377
-0 0 0
-7.8421817 15.647355 0.97762603
-0 0 -0
-3.0484059 6.0641227 -0.37910822
-3.1095784 6.1858115 0
-7.8832536 15.681972 0.98038328
-3.0470972 6.0251908 -0.75257117
-3.0595369 6.0497885 -0.3786732
-3.1573997 6.2432976 0
-7.9645157 15.748669 0.9857533
-3.0532064 6.0191998 -0.75228316
-3.0703678 6.0530324 -0.37910822
-3.1378665 6.1861019 0
-8.002346 15.776112 0.98807549
-3.0639968 6.0224242 -0.75314826
-3.0741479 6.042377 -0.3786732
-3.1488802 6.1892667 0
-8.0461454 15.815063 0.99112332
-3.0700924 6.0164075 -0.75285918
-3.0873511 6.0502286 -0.37939876
-3.172915 6.217907 0
-8.0735178 15.821533 0.9921394
-3.0844326 6.0265121 -0.7545895
-3.098212 6.0534353 -0.37983432
-3.175683 6.2048016 0
-8.1032829 15.832582 0.99344552
-3.0893476 6.0181746 -0.75401235
-3.1078951 6.054306 -0.38012433
-3.1748571 6.1847506 0
-8.1342716 15.845892 0.99489665
-3.0918813 6.005239 -0.75285918
-3.1223428 6.0644031 -0.38099489
-3.1870933 6.1901655 0
-8.1819592 15.891497 0.99838001
-3.1026967 6.0083952 -0.75372434
-3.1201348 6.0421648 -0.37983432
-3.1754694 6.1493206 0
-8.2071152 15.893141 0.99910557
-3.1040077 5.9931607 -0.75228316
-3.125041 6.033771 -0.37954378
-3.2032435 6.184763 0
-8.2370672 15.903976 1.0004116
-3.1124382 5.9916987 -0.75257117
-3.1383173 6.0415177 -0.38026932
-3.2107141 6.1808877 0
-8.2646637 15.910155 1.0014278
-3.1256499 5.9994006 -0.75401235
-3.1516168 6.0492415 -0.38099489
-3.2133703 6.1677718 0
-8.2898836 15.911677 1.0021534
-3.1281054 5.9864497 -0.75285918
-3.1553171 6.0385265 -0.38055989
-3.2268457 6.175415 0
-8.3235445 15.929285 1.003895
-3.1353366 5.9826655 -0.75285918
-3.1565816 6.0232043 -0.37983432
-3.2463832 6.1945586 0
-8.3403711 15.914608 1.0036044
-3.1497858 5.9926143 -0.7545895
-3.1868236 6.0630808 -0.38259155
-3.2490225 6.1814165 0
-7.1229033 13.551656 0.85513443
-3.1582294 5.9910898 -0.75487751
-3.2026308 6.0753179 -0.38360769
-3.2637732 6.1913042 0
-7.1332154 13.531549 0.85440892
-3.1642585 5.9849849 -0.7545895
-3.2063246 6.0645504 -0.38317212
-3.2590854 6.1643443 0
-7.1179857 13.463198 0.85063553
-3.1642416 5.9762125 -0.75372434
-3.2185001 6.0786891 -0.38418823
-3.2640305 6.1646805 0
-7.1054492 13.419858 0.84816831
-3.1738889 5.9769578 -0.75430143
-3.231935 6.0862684 -0.3849138
-3.2775784 6.1722226 0
-7.0777917 13.328653 0.84294385
-3.1859717 5.9822502 -0.7554546
-3.2380664 6.0800676 -0.38476878
-3.2862561 6.1705527 0
-7.0670176 13.26963 0.83975053
-3.1944151 5.9806752 -0.75574267
-3.2552042 6.0944862 -0.38592991
-3.2912598 6.1619906 0
-7.0989599 13.290875 0.84163719
-3.2040796 5.9813666 -0.75631869
-3.2564275 6.0790896 -0.38520378
-3.2999306 6.1603012 0
-7.1297379 13.309774 0.84337884
-3.2064083 5.9683771 -0.75516552
-3.2699227 6.0866022 -0.38592991
-3.3110633 6.1631804 0
-7.1802478 13.365243 0.84744275
-3.2160735 5.9690566 -0.75574267
-3.2858989 6.0986528 -0.38694546
-3.3222122 6.1660509 0
-7.2161121 13.393158 0.849765
-3.2282021 5.9742684 -0.75689584
-3.2821491 6.0741057 -0.38563934
-3.3284242 6.1597447 0
-7.2495813 13.416429 0.85179669
-3.2317202 5.9635391 -0.75603068
-3.295675 6.0815558 -0.38636491
-3.3371036 6.1580043 0
-8.9308548 16.480232 1.0469991
-3.2488043 5.9778104 -0.75833702
-3.3030212 6.0775695 -0.38636491
-3.3544836 6.1722608 0
-8.9557247 16.478561 1.0475796
-3.2424076 5.9488964 -0.75516552
-3.3091199 6.0712943 -0.38621992
-3.3582015 6.1613455 0
-8.9706545 16.458603 1.0469991
-3.2582786 5.9608636 -0.75718385
-3.3239288 6.0809674 -0.38709047
-3.3556578 6.1390142 0
-8.9880447 16.443195 1.0467091
-3.2642367 5.9546561 -0.75689584
-3.3275306 6.070118 -0.38665545
-3.3593237 6.1281152 0
-9.0016584 16.420923 1.045983
-3.2714293 5.9507079 -0.75689584
-3.33987 6.075201 -0.38723603
-3.3867862 6.1605411 0
-9.0252495 16.416868 1.0464185
-3.2886074 5.9648709 -0.75920212
-3.3446965 6.0666056 -0.38694546
-3.3904567 6.1496048 0
-10.652092 19.320747 1.2323326
-3.2870505 5.9450459 -0.75718385
-3.3557975 6.0693836 -0.38738102
-3.4004009 6.1500545 0
-10.669144 19.296494 1.231607
-3.3067718 5.9636855 -0.76006621
-3.3681691 6.0744143 -0.38796157
-3.40026 6.1322894 0
-10.688671 19.27677 1.2311715
-3.3064358 5.9461269 -0.75833702
-3.3780296 6.0748777 -0.38825157
-3.4139898 6.1395469 0
-10.685437 19.216152 1.2281237
-3.3199155 5.9534202 -0.7597782
-3.3815744 6.0639901 -0.38781658
-3.4150693 6.1240544 0
-7.2766666 13.048842 0.83452606
-3.3258452 5.9471493 -0.75949019
-3.390166 6.0621653 -0.38796157
-3.445329 6.1608052 0
-7.2911611 13.037775 0.83438104
-3.3380895 5.9521499 -0.76064336
-3.4038424 6.0693941 -0.38868713
-3.4362226 6.127131 0
-7.2853031 12.990429 0.83191383
-3.3440125 5.9458599 -0.76035529
-3.4073513 6.0584803 -0.38825157
-3.4487264 6.1320481 0
-11.239269 19.984112 1.2806617
-3.3501401 5.9483414 -0.76093137
-3.4135635 6.0609531 -0.38854215
-3.467756 6.1571746 0
-7.274406 12.916072 0.82799488
-3.3611422 5.9510474 -0.76179653
-3.4221611 6.0590844 -0.38868713
-3.472631 6.1484432 0
-7.2555084 12.846191 0.82407653
-3.3683305 5.9469819 -0.76179653
-3.441004 6.0752916 -0.38999325
-3.4736459 6.1329226 0
-7.2466927 12.794455 0.82131875
-3.3729565 5.9384055 -0.76121938
-3.4380758 6.0530539 -0.38883215
-3.4913366 6.1468244 0
-7.2390494 12.745024 0.81870651
-3.3916495 5.9545507 -0.76381373
-3.4505312 6.0579267 -0.3894127
-3.4923222 6.1312966 0
-7.2518744 12.731756 0.81841654
-3.3975604 5.948204 -0.76352572
-3.4552736 6.0492444 -0.38912269
-3.4932754 6.1157751 0
-7.2595177 12.709442 0.81754541
-3.3996027 5.9351172 -0.76237255
-3.4651608 6.0495706 -0.3894127
-3.5097134 6.1273513 0
-7.2555003 12.666846 0.81536877
-3.4119248 5.9399762 -0.76352572
-3.4724681 6.0453792 -0.3894127
-3.5197096 6.1276236 0
-7.2720933 12.660321 0.81551373
-3.4152255 5.9291234 -0.76266056
-3.4836624 6.047936 -0.38984826
-3.5310092 6.1301341 0
-7.3016486 12.676286 0.81710988
-3.4327366 5.9429102 -0.76496691
-3.4883657 6.0392175 -0.38955769
-3.5384138 6.1258631 0
-7.3494506 12.723703 0.8207382
-3.4347293 5.9298053 -0.76381373
-3.502176 6.046247 -0.39028382
-3.5445049 6.1193247 0
-7.4546833 12.869958 0.83075267
-3.4483912 5.9368401 -0.76525599
-3.501646 6.0285254 -0.3894127
-4.2211199 7.26719 0
-7.2353187 12.456513 0.80462873
-3.4568627 5.9349017 -0.76554406
-3.5154657 6.0355144 -0.39013824
-4.2312117 7.2643399 0
-7.2359772 12.423061 0.80303204
-3.4601166 5.9240184 -0.7646789
-3.5175138 6.0222869 -0.38955769
-4.2281737 7.2389989 0
-7.2549157 12.421042 0.80346757
-3.4725008 5.9287605 -0.76583207
-3.5261049 6.0202813 -0.38970324
-4.2434931 7.2451105 0
-7.2528481 12.383121 0.80158091
-3.4809706 5.9267883 -0.76612008
-3.5452189 6.0361791 -0.39100936
-4.2351112 7.2108073 0
-7.242806 12.331783 0.79882371
-3.4868183 5.9203515 -0.76583207
-3.5591021 6.0430837 -0.39173493
-4.2741938 7.2572551 0
-7.7561278 13.169313 0.85368335
-3.4966023 5.9205923 -0.76640916
-3.5571506 6.0231152 -0.39071882
-3.6027515 6.1003284 0
-7.7720346 13.159932 0.85368335
-3.5050704 5.9185867 -0.76669723
-3.5432456 5.9830484 -0.38839713
-3.6220589 6.1161308 0
-7.7932262 13.159474 0.8542639
-3.5175018 5.9232426 -0.76785034
-3.5703702 6.012269 -0.3905738
-3.6400771 6.1296511 0
-7.8038144 13.141111 0.85368335
-3.5220072 5.9145393 -0.76727325
-3.5789604 6.010181 -0.39071882
-3.630167 6.0961728 0
-7.8183589 13.129442 0.85353833
-3.5278265 5.9080606 -0.76698524
-3.5862198 6.0058522 -0.39071882
-3.6468713 6.1074257 0
-7.8382101 13.126672 0.85397333
-3.5349627 5.9037938 -0.76698524
-3.6041529 6.0193496 -0.39187992
-3.6595962 6.1119461 0
-7.8567376 13.121655 0.8542639
-3.5451777 5.9127464 -0.76842642
-3.6184785 6.0349994 -0.39304104
-3.6512446 6.0896478 0
-7.861989 13.112444 0.85397333
-3.5656495 5.9306293 -0.77130985
-3.629786 6.0373058 -0.39347661
-3.6813955 6.1231465 0
-7.8644404 13.080669 0.85252219
-3.5772922 5.9175644 -0.77073276
-3.634954 6.0129485 -0.3924605
-3.6988723 6.1186819 0
-7.190321 11.894243 0.77632803
-3.58444 5.9132376 -0.77073276
-3.6476047 6.0174403 -0.39304104
-3.7143598 6.1275659 0
-7.1494632 11.794443 0.77037746
-3.5915823 5.9089022 -0.77073276
-3.6535246 6.0108099 -0.39289606
-3.7150035 6.1119556 0
-7.1488671 11.761377 0.76878136
-3.6041038 5.9133925 -0.77188593
-3.6783638 6.0352335 -0.39478272
-3.7278037 6.1163516 0
-7.1590147 11.746073 0.76834577
-3.6125939 5.9112382 -0.77217394
-3.6626196 5.9930949 -0.39231548
-3.7297628 6.1029601 0
-7.2003026 11.781757 0.77124858
-3.6183836 5.9046655 -0.77188593
-3.6698585 5.9886646 -0.39231548
-3.7371345 6.0984492 0
-7.2050281 11.757538 0.77023244
-3.6322849 5.9113054 -0.77332711
-3.6730096 5.9775825 -0.39187992
-3.7540338 6.1094441 0
-7.2083468 11.731112 0.76907134
-3.6448519 5.9157205 -0.77448028
-3.6952243 5.9974766 -0.39347661
-3.7627823 6.1071258 0
-7.2184258 11.715755 0.76863581
-3.6615145 5.9267173 -0.77649862
-3.71066 6.0062666 -0.39434716
-3.7865677 6.1291347 0
-7.2284837 11.700398 0.76820081
-3.6659462 5.9178867 -0.77592146
-3.7288618 6.0194502 -0.39550826
-3.7802682 6.1024351 0
-8.1196976 13.107517 0.86123002
-3.6662719 5.9024692 -0.77448028
-3.7539546 6.043633 -0.39739496
-3.7986245 6.1155491 0
-8.1149683 13.064593 0.85905337
-3.672035 5.8958416 -0.77419227
-3.7488923 6.0192442 -0.39608884
-3.8087604 6.1153684 0
-8.0867891 12.984198 0.85440892
-3.6873739 5.9045591 -0.77592146
-3.7231297 5.9618144 -0.39260548
-3.8147695 6.1085567 0
-8.0460424 12.884056 0.84845829
-3.7013731 5.9110665 -0.77736372
-0 0 -0
-3.8276725 6.1127658 0
-8.0409231 12.841296 0.84628165
-3.7126348 5.9131551 -0.77822781
-3.7513459 5.9748106 -0.39405715
-3.8364384 6.1103382 0
-8.0578136 12.83377 0.84642667
-3.7239122 5.9152336 -0.77909297
-3.7433331 5.9460826 -0.3924605
-3.839663 6.0990973 0
-7.4365425 11.812546 0.77966583
-3.7310569 5.9107294 -0.77909297
-0 0 -0
-3.860919 6.1164565 0
-8.1040621 12.838432 0.8480233
-3.7492623 5.9237013 -0.78139931
-0 0 -0
-3.8683066 6.1117868 0
-8.100111 12.797888 0.84599108
-3.7494891 5.9082494 -0.77995807
-0 0 -0
-3.8728971 6.1027093 0
-8.1281042 12.807842 0.84729779
-3.7641556 5.9234471 -0.78226441
-0 0 -0
-3.8905442 6.1223378 0
-8.1595306 12.84021 0.849765
-3.76158 5.9036231 -0.78024614
-0 0 -0
-3.9007332 6.1220179 0
-8.180625 12.839108 0.85034555
-3.7784593 5.9143333 -0.78226441
-0 0 -0
-3.898324 6.1019545 0
-8.2017288 12.837972 0.8509261
-3.7814162 5.9032273 -0.78139931
-0 0 -0
-3.9211316 6.1213393 0
-8.2228355 12.836797 0.85150611
-3.7885463 5.898654 -0.78139931
-0 0 -0
-3.9172738 6.0990787 0
-8.2341318 12.820298 0.85107112
-3.8040705 5.9071155 -0.7831285
-0 0 -0
-3.9457777 6.1271639 0
-8.1919365 12.720772 0.84512055
-3.8126125 5.9046936 -0.78341758
-0 0 -0
-3.9447107 6.1092777 0
-8.1903868 12.684669 0.84337884
-3.8225529 5.9044209 -0.78399366
-3.8862519 6.0028119 -0.39942718
-3.9591601 6.115428 0
-8.2254801 12.705304 0.84541106
-3.8324983 5.9041324 -0.78456968
-3.8991561 6.0068216 -0.40000719
-3.9594631 6.0997272 0
-8.2549715 12.717148 0.8468622
-3.845273 5.9081683 -0.78572285
-3.9163344 6.0173526 -0.4010233
-3.981024 6.1167464 0
-7.2087469 11.076064 0.73815846
-3.846755 5.8948536 -0.78456968
-3.8952017 5.9690943 -0.39812049
-3.982723 6.1032138 0
-7.2150259 11.056467 0.7374329
-3.8581247 5.8966966 -0.78543484
-3.9265952 6.0013456 -0.40058774
-4.0043406 6.1201706 0
-7.2169991 11.030346 0.7362718
-3.879437 5.913661 -0.78831828
-3.9238708 5.9813943 -0.39957219
-4.0131645 6.1175098 0
-7.208941 10.989026 0.73409456
-3.8766289 5.8938408 -0.7863
-3.9296689 5.9744802 -0.39942718
-4.0277028 6.1235261 0
-7.2065105 10.956433 0.73249841
-3.8894434 5.897789 -0.78745317
-0 0 -0
-4.0350986 6.1186547 0
-7.2068653 10.928188 0.73119175
-3.912255 5.9168115 -0.79062355
-0 0 -0
-4.0453572 6.1181121 0
-7.2157693 10.912976 0.73075676
-3.915118 5.9056187 -0.78975946
-0 0 -0
-4.0541835 6.115387 0
-7.217464 10.886923 0.72959566
-3.9337051 5.9181161 -0.7920658
-3.9714429 5.9748912 -0.40073329
-4.0558071 6.1018143 0
-7.2320504 10.880356 0.72974062
-3.9494567 5.9262686 -0.79379505
-3.9829783 5.9765687 -0.40116829
-4.0703974 6.1077433 0
-7.249516 10.878098 0.73017621
-3.955179 5.9193435 -0.79350698
-3.9930871 5.9760771 -0.40145886
-4.0792189 6.1049824 0
-7.320394 10.955744 0.73598123
-3.9601912 5.9191008 -0.79379505
-3.9981403 5.975821 -0.40160385
-4.0843525 6.1046777 0
-7.6029773 11.363791 0.76370132
-3.9745433 5.9250488 -0.79523623
-4.006804 5.9731417 -0.40174887
-4.1062264 6.1213551 0
-7.6239448 11.365393 0.76442742
-3.9845893 5.9245386 -0.79581332
-4.0183706 5.9747663 -0.4021844
-4.1354017 6.1487756 0
-7.6318712 11.347548 0.76384687
-4.0033135 5.9368758 -0.79811966
-4.0343003 5.9828291 -0.40305498
-4.145741 6.1480942 0
-7.1632881 10.623087 0.71566284
-4.0075841 5.9277444 -0.79754257
-4.0386186 5.9736485 -0.40276498
-4.1589918 6.1516962 0
-7.1659298 10.599354 0.7146467
-4.0219984 5.9336009 -0.79898375
-4.0560408 5.9838228 -0.40378109
-0 0 0
-7.1670737 10.573488 0.71348614
-4.0335279 5.9351563 -0.79984891
-4.0647273 5.9810643 -0.40392607
-0 0 0
-7.1666956 10.545472 0.71217948
-4.0436068 5.9345489 -0.80042493
-4.0778036 5.9847383 -0.40450665
-4.1783357 6.1322823 0
-7.8407383 11.507362 0.77777916
-4.0507746 5.9296589 -0.80042493
-4.0908952 5.988389 -0.4050872
-4.1842756 6.1250825 0
-7.1804385 10.510966 0.71101892
-4.0637827 5.9332957 -0.8015781
-4.0981278 5.9834414 -0.4050872
-6.7327604 9.8301172 0
-7.1931338 10.502282 0.71101892
-4.0416718 5.8857455 -0.79581332
-4.108294 5.9827652 -0.40537721
-6.7387462 9.8134012 0
-7.210227 10.500003 0.71145391
-4.0678463 5.9085512 -0.79956084
-4.1287799 5.9970574 -0.40668333
-6.7491188 9.8031025 0
-7.1846008 10.43564 0.70768058
-4.0867372 5.9206605 -0.80186719
-4.1714492 6.0433874 -0.41016665
-6.7550454 9.7863731 0
-7.1883512 10.414124 0.70681
-4.0865245 5.9050779 -0.80042493
-4.190578 6.0554361 -0.41132778
-6.7698302 9.7824879 0
-7.7243476 11.161777 0.75818628
-4.0951352 5.902267 -0.80071402
-0 0 -0
-6.7727413 9.761467 0
-7.7304239 11.141763 0.75746077
-0 0 -0
-4.1377063 5.9482656 -0.80763197
-0 0 -0
-6.7815619 9.7490072 0
-7.1607656 10.294142 0.70042384
-4.1227012 5.9114451 -0.80330843
-0 0 -0
-6.7918491 9.7386732 0
-7.170229 10.281223 0.70013386
-4.138731 5.9191732 -0.80503762
-4.2406387 6.0649209 -0.41335946
-6.8006263 9.7261896 0
-7.1826468 10.272552 0.70013386
-4.1547914 5.9268799 -0.80676788
-4.2554202 6.0704293 -0.414085
-6.8078961 9.7115784 0
-7.1861014 10.251096 0.69926274
-4.1649213 5.9260836 -0.80734396
-7.0431743 10.021423 -0.68417603
-6.812139 9.6926937 0
-7.19699 10.240281 0.69911772
-4.1735673 5.9231591 -0.80763197
-7.0507865 10.006532 -0.6837405
-6.8088584 9.6631851 0
-7.222827 10.250692 0.70042384
-4.1911688 5.9329014 -0.8096503
-7.053874 9.9852667 -0.68286937
-6.8010101 9.6273203 0
-7.265193 10.284404 0.70332664
-7.0644341 9.974618 -0.68272436
-12.164158 17.175165 0
-7.3632107 10.396476 0.71159893
-7.0629449 9.9597521 -0.68199879
-12.157976 17.144468 0
-7.4100757 10.449256 0.71551782
-7.0492887 9.8897581 -0.67837048
-6.784265 9.5179443 0
-7.3493385 10.310711 0.70724499
-7.095983 9.9298601 -0.68170881
-6.7851672 9.494916 0
-7.3829455 10.331426 0.70927721
-7.1034346 9.9149399 -0.68127328
-6.8026981 9.4951735 0
-7.4060125 10.337276 0.71029282
-7.1138949 9.9042406 -0.68112826
-6.8293514 9.5080881 0
-7.3912148 10.290337 0.70768058
-7.1258574 9.8956385 -0.68112826
-6.8712449 9.5420599 0
-7.3641672 10.226578 0.70390719
-7.1378088 9.8870211 -0.68112826
-6.8919129 9.5464144 0
-7.3552279 10.188181 0.70187551
-7.1375623 9.8615494 -0.67996716
-6.9263268 9.5696974 0
-7.3157363 10.107721 0.69694108
-7.1357398 9.833992 -0.67866105
-6.9501123 9.5781727 0
-7.2516441 9.9937229 0.68968439
-7.1460838 9.8232546 -0.67851549
-6.9923 9.6118584 0
-7.2377295 9.949234 0.68721718
-7.1502938 9.8041182 -0.67778993
-7.0422459 9.6559677 0
-0 0 0
-7.1207304 9.738843 -0.67387158
-7.1168795 9.7335758 0
-0 0 0
-7.120203 9.7134657 -0.67271048
-7.142487 9.743866 0
-7.298326 9.9564638 0.68953937
-7.1150069 9.6818209 -0.67111379
-7.1450057 9.7226419 0
-7.3272729 9.970664 0.69113547
-7.1082053 9.6481133 -0.66937208
-8.0813608 10.968997 0
-7.3439407 9.9680815 0.69157106
-7.1028805 9.6165314 -0.66777599
-7.1545663 9.6865082 0
-7.3173862 9.906949 0.68794268
-7.1160398 9.6100283 -0.66792101
-7.1445861 9.6485796 0
-7.2551341 9.7978716 0.68097657
-7.1291938 9.603508 -0.66806597
-8.1272736 10.947989 0
-7.2204995 9.7265024 0.67662209
-7.1314874 9.5823832 -0.66719544
-8.121851 10.913108 0
-7.2229419 9.7052679 0.67575157
-7.1310649 9.5697384 -0.66661489
-8.1393299 10.922809 0
-7.219491 9.688405 0.67488098
-7.1317353 9.5465412 -0.66559875
-8.1462917 10.904626 0
-7.223412 9.66926 0.67415488
-7.1401529 9.533761 -0.66530877
-8.1688194 10.907269 0
-7.2382088 9.6646881 0.67444545
-6.3887858 8.5090637 -0.59433901
-8.1694918 10.880741 0
-7.2374001 9.6393118 0.67328429
-6.3943734 8.4951077 -0.59390348
-8.1638517 10.845911 0
-7.2084155 9.5765867 0.66951096
-6.4155912 8.5018969 -0.59491962
-8.1628437 10.817344 0
-7.1871142 9.5243139 0.6664632
-6.4336963 8.5044975 -0.59564513
-8.1319513 10.749367 0
-7.1782389 9.4886856 0.66457653
-6.4565291 8.5132809 -0.59680629
-8.0898895 10.666955 0
-7.2116785 9.5089865 0.66660815
-6.4683819 8.5075397 -0.59695125
-8.0508013 10.588816 0
-7.2703409 9.5623159 0.6709621
-6.488111 8.5121212 -0.59782237
-8.0399237 10.548032 0
-7.3307219 9.61759 0.67546153
-6.5031261 8.5104713 -0.59825796
-8.0368643 10.517634 0
-7.392817 9.6747866 0.68010545
-6.5149832 8.5046682 -0.59840292
-8.0147457 10.46246 0
-7.3966026 9.6555347 0.67937988
-6.5268359 8.4988489 -0.59854794
-7.1096373 9.2577362 0
-7.3845224 9.6156759 0.67720264
-6.5260029 8.4765415 -0.59753186
-8.2813129 10.756492 0
-7.3755302 9.5799818 0.67531598
-6.5394187 8.4727678 -0.59782237
-8.3420048 10.80828 0
-7.3886929 9.5731258 0.67546153
-6.5480628 8.4628067 -0.59767741
-8.1337032 10.51211 0
-7.4002542 9.5641909 0.67546153
-6.5343933 8.4240885 -0.59550017
-8.1144972 10.461146 0
-7.4165788 9.5613956 0.67589653
-7.115581 9.1505003 -0.6474576
-8.125535 10.449282 0
-7.4026051 9.5196075 0.67357433
-7.1202421 9.1336985 -0.64687699
-8.1509562 10.455876 0
-7.3454113 9.4225407 0.66733372
-7.1129689 9.1130085 -0.64571589
-7.1324916 9.1380205 0
-7.1880341 9.2091808 0.65253037
-7.1175699 9.096221 -0.64513534
-7.121078 9.1007051 0
-7.157526 9.1472855 0.64875698
-7.1125212 9.067173 -0.64368421
-7.1224289 9.0798035 0
-7.1717844 9.1427231 0.64904755
-7.0961676 9.0238514 -0.64121699
-8.2690935 10.515404 0
-7.1474862 9.0891104 0.64585423
-0 0 -0
-7.1054525 9.0132236 -0.64107144
-8.2769642 10.499279 0
-7.1214685 9.0335398 0.64251643
-0 0 -0
-6.5154123 8.2442522 -0.58693737
-8.3025541 10.505605 0
-7.1146545 9.0025005 0.64091974
-0 0 -0
-6.5850711 8.3117304 -0.59230739
-8.3136206 10.49352 0
-7.1303692 9.0000095 0.64135528
-6.6048026 8.3159714 -0.59317791
-8.3214426 10.477359 0
-7.1234603 8.9690037 0.63975865
-6.6229372 8.3181467 -0.59390348
-8.3146439 10.442864 0
-7.1084023 8.9278727 0.63743693
-6.6313639 8.3081093 -0.59375846
-8.3288784 10.434842 0
-7.1110754 8.9091167 0.63671082
-6.6495132 8.3102331 -0.59448403
-8.2813215 10.349586 0
-7.120213 8.8984909 0.63656586
-6.6611805 8.3042259 -0.59462959
-7.1197934 8.8759604 0
-7.1147041 8.8696156 0.63511473
-6.6744628 8.3002167 -0.59491962
-8.1579094 10.144999 0
-7.1172762 8.8508892 0.63438916
-6.6861167 8.2941666 -0.59506458
-8.2044601 10.177681 0
-7.0920854 8.7977734 0.63119584
-6.6928701 8.2820435 -0.5947746
-8.2461929 10.204191 0
-7.7690339 9.6137352 0.69040996
-6.6963301 8.2658749 -0.59419405
-8.2404947 10.171974 0
-7.7790108 9.6023235 0.69026494
-6.7145019 8.2678604 -0.59491962
-8.2675495 10.180198 0
-7.7889647 9.5908947 0.69011939
-6.734333 8.2718363 -0.59579068
-8.2699833 10.158087 0
-7.039382 8.6465302 0.62277859
-6.754178 8.2757673 -0.59666127
-8.2411146 10.097683 0
-7.0678926 8.6601562 0.62437469
-6.7822738 8.2897243 -0.59825796
-7.1162715 8.697958 0
-7.0832891 8.6576452 0.62481022
-6.7939315 8.2835302 -0.59840292
-8.2951965 10.113955 0
-8.8469496 10.786682 0.77923083
-6.8022294 8.2834368 -0.59869295
-8.3079119 10.116986 0
-8.8551121 10.783341 0.77937585
-6.8221455 8.2872524 -0.59956408
-8.3366737 10.127037 0
-8.8697853 10.774638 0.77952081
-6.8354588 8.2830076 -0.59985405
-8.347249 10.114951 0
-8.907608 10.793977 0.78169805
-6.8653378 8.298768 -0.60159576
-7.0655899 8.5408316 0
-7.8291888 9.4638634 0.68605602
-6.8819952 8.2984667 -0.60217631
-6.9479914 8.378046 0
-7.8057861 9.4123955 0.68300825
-6.9402866 8.3277168 -0.60551405
-0 0 0
-7.7420111 9.2897139 0.67546153
-6.9886627 8.3651915 -0.60885245
-0 0 0
-7.6016316 9.0988941 0.66225427
-7.0171127 8.3786478 -0.61044854
-6.8630843 8.1947336 0
-7.6059465 9.0817337 0.66167372
-7.0205483 8.3622026 -0.60986799
-6.8713093 8.1844435 0
-7.672049 9.1382074 0.6664632
-0 0 -0
-7.0339971 8.3576937 -0.61015856
-6.8694611 8.1621943 0
-7.6964703 9.1448355 0.66762429
-0 0 -0
-7.0474381 8.3531561 -0.61044854
-6.8977804 8.1757708 0
-7.8499317 9.3043327 0.67996043
-0 0 -0
-7.0541735 8.3406706 -0.61015856
-6.8925304 8.1495476 0
-7.8359971 9.2650785 0.67778319
-7.0558462 8.3222332 -0.609433
-6.8956404 8.1332731 0
-7.8438287 9.2516432 0.67749321
-7.0557971 8.3018179 -0.60856187
-6.9054627 8.1249352 0
-7.8297586 9.2124577 0.67531598
-7.0523415 8.277463 -0.60740077
-6.9321499 8.1363916 0
-7.8038139 9.1594801 0.67212319
-7.0420938 8.2452326 -0.60565966
-6.9588747 8.1477957 0
-7.7575021 9.0828676 0.66718876
-7.0216293 8.2011852 -0.60304683
-6.9771824 8.149271 0
-7.7143993 9.0103321 0.66254485
-7.0027657 8.1591759 -0.60057962
-6.9954972 8.1507072 0
-7.6880465 8.9576216 0.65935147
-7.0058408 8.1428299 -0.59999907
-6.9985514 8.1343575 0
-7.6937852 8.9424219 0.65891647
-7.0022807 8.1287537 -0.5992735
-7.0051613 8.1320972 0
-7.0429044 8.1759119 0.60275018
-7.0002146 8.1065254 -0.59825796
-7.0132833 8.1216593 0
-7.0612679 8.177228 0.60347569
-0 0 -0
-7.0014968 8.088233 -0.59753186
-7.0299048 8.1210499 0
-7.0643406 8.1608315 0.60289514
-0 0 -0
-7.0260668 8.0968246 0
-7.0690923 8.1464071 0.60246015
-7.0107932 8.0595303 -0.59666127
-7.0443835 8.0981455 0
-7.0721087 8.1300182 0.6018796
-7.010283 8.0393057 -0.59579068
-7.0490308 8.0837412 0
-7.0699711 8.1077557 0.60086346
-7.009728 8.0190878 -0.59491962
-7.0587931 8.0752182 0
-7.0489836 8.0639963 0.59825122
-7.0074234 7.9969301 -0.59390348
-7.0513968 8.0471134 0
-7.6323752 8.7101307 0.64687032
-7.0153675 7.9865065 -0.59375846
-7.0216169 7.9936213 0
-7.6463203 8.7048025 0.64716035
-7.0147128 7.9663267 -0.59288794
-7.0278277 7.9812212 0
-7.6671395 8.707262 0.64803141
-7.026051 7.9597912 -0.5930329
-7.0271363 7.9610205 0
-7.6948471 8.7174683 0.64948255
-7.037384 7.9532399 -0.59317791
-7.0281224 7.9427729 0
-7.7208705 8.7256765 0.65078866
-7.0504408 7.9486227 -0.59346849
-7.0377145 7.9342752 0
-7.7520995 8.7396679 0.65253037
-7.0548587 7.9342704 -0.5930329
-7.0386515 7.9160428 0
-0 0 0
-7.0627131 7.9238024 -0.59288794
-7.0430217 7.9017096 0
-0 0 0
-7.0653572 7.9075117 -0.59230739
-7.038692 7.8776684 0
-0 0 0
-7.0783706 7.9028363 -0.59259737
-7.0516748 7.8730311 0
-7.8046546 8.7137156 0.65340143
-7.113956 7.9232817 -0.5947746
-6.5900245 7.3397446 0
-7.809968 8.6984768 0.6529659
-6.525578 7.2503242 -0.5448494
-6.6215196 7.3569217 0
-7.827426 8.6967592 0.65354645
-6.5169239 7.2231379 -0.54339772
-6.6147156 7.3315268 0
-7.8483691 8.6988668 0.65441704
-6.5125794 7.2095599 -0.54267216
-6.6226363 7.3313951 0
-7.8588505 8.6999102 0.65485257
-7.0322905 7.7660055 -0.58519566
-6.6297383 7.3214531 0
-7.8780756 8.700036 0.65557814
-7.048655 7.7651987 -0.58577621
-6.6175895 7.2903128 0
-7.902554 8.7059031 0.65673923
-7.0440421 7.7413011 -0.58461511
-6.6491685 7.3073406 0
-7.920063 8.7040358 0.65731978
-6.809998 7.4659476 -0.56444168
-6.7018309 7.3473611 0
-7.9358292 8.7002201 0.65775537
-6.6822572 7.308147 -0.55312169
-7.7099109 8.4320555 0
-7.9445772 8.6887016 0.65760982
-6.6717677 7.2789946 -0.551525
-6.6826406 7.2908568 0
-7.956831 8.6810169 0.65775537
-6.6770453 7.2671046 -0.55123496
-6.6720815 7.2617021 0
-7.9567628 8.6599121 0.65688425
-6.6611795 7.2322769 -0.54920334
-6.7601824 7.3397679 0
-7.0113931 7.6125164 0.57807785
-6.6575732 7.2108569 -0.5481872
-6.9897156 7.5706024 0
-7.0188255 7.6021314 0.57793283
-6.6627479 7.1989899 -0.54789662
-6.995326 7.5583348 0
-7.0156493 7.5802941 0.57691669
-6.6661448 7.1852245 -0.54746163
-6.9832134 7.5269828 0
-7.0283346 7.5756173 0.57720673
-6.6907463 7.1942878 -0.54876775
-6.7406406 7.2479367 0
-7.0321794 7.5614166 0.57677174
-6.7118392 7.1995044 -0.54978389
-6.6766343 7.1617413 0
-7.0324531 7.5434132 0.57604617
-6.7027884 7.1724005 -0.54833221
-6.6781821 7.1460705 0
-7.0202727 7.5121284 0.57430446
-6.7007947 7.1529217 -0.54746163
-6.6618991 7.111402 0
-7.0364504 7.5112257 0.57488507
-6.6880875 7.1220899 -0.54571998
-6.638423 7.0692024 0
-7.036622 7.4932413 0.57415891
-6.6877847 7.1045451 -0.54499441
-6.5988016 7.0100169 0
-7.0438919 7.4828434 0.57401395
-6.6749644 7.0737801 -0.54325271
-6.5679693 6.9603925 0
-7.05828 7.4799981 0.57444948
-6.6727896 7.0543799 -0.54238164
-6.5817418 6.9581251 0
-7.0673127 7.4714642 0.57444948
-6.6777363 7.0425444 -0.54209161
-6.5901442 6.9501672 0
-7.4964719 7.9060082 0.60855573
-6.6819897 7.0385089 -0.54209161
-6.5925522 6.9442987 0
-7.5119777 7.9127812 0.60942632
-6.6851139 7.0247808 -0.54165608
-6.6278443 6.9646015 0
-7.5734797 7.9582839 0.61363518
-6.6935968 7.0166979 -0.54165608
-6.6111093 6.9302282 0
-7.0575929 7.3982639 0.57111114
-6.7038717 7.0104885 -0.54180163
-6.6194782 6.922235 0
-7.0485721 7.3709545 0.56966001
-6.7105341 7.0005016 -0.54165608
-6.6674542 6.9555602 0
-7.0412917 7.345552 0.56835389
-6.7153907 6.9886446 -0.54136604
-6.6470027 6.9174738 0
-7.0447593 7.3314157 0.56791836
-6.7256312 6.9823952 -0.54151106
-6.6734142 6.928185 0
-7.0464025 7.315412 0.56733781
-6.7322598 6.9723959 -0.54136604
-6.6402016 6.8770537 0
-7.0570464 7.3087673 0.56748337
-6.7671804 6.9747519 -0.54281718
-6.7872758 6.9954634 0
-7.0620208 7.2786355 0.56646723
-6.7701664 6.9609799 -0.54238164
-6.8084264 7.0003185 0
-7.0617537 7.2607851 0.56574166
-6.7658801 6.9397759 -0.54136604
-6.8023462 6.9771791 0
-7.0632658 7.2448053 0.56516111
-6.7560954 6.9130087 -0.53991437
-6.76894 6.9261513 0
-7.0647502 7.2288318 0.56458056
-6.7571769 6.8974228 -0.53933436
-6.7864084 6.9272609 0
-7.066206 7.2128654 0.56400001
-6.7764268 6.900373 -0.54020494
-6.7655978 6.8893461 0
-7.6556721 7.7957006 0.61029685
-0 0 -0
-6.7956934 6.9032869 -0.54107553
-6.7593112 6.8663292 0
-7.6796689 7.8012586 0.61145794
-6.8277545 6.9191132 -0.54296219
-6.7621245 6.8526049 0
-7.7128148 7.8160157 0.61334467
-6.8598709 6.9348788 -0.5448494
-6.7960191 6.8703289 0
-7.7533164 7.8380938 0.61581188
-6.8865376 6.9450326 -0.54630053
-6.7988162 6.8565664 0
-7.7737627 7.8397942 0.61668301
-6.9040818 6.9459195 -0.5470261
-6.8199406 6.8612685 0
-7.78689 7.8340774 0.61697298
-6.9247718 6.9583216 -0.54833221
-6.8791552 6.9124842 0
-7.0053363 7.0392766 0.55471164
-6.9478555 6.9646664 -0.54949331
-6.9003701 6.9170661 0
-7.0303516 7.0473614 0.55601776
-6.9783144 6.9783144 -0.55123496
-6.8884788 6.8884788 0
-7.0296764 7.0296764 0.55529219
-7.0088167 6.9918995 -0.55297667
-6.6536055 6.6375456 0
-7.0400033 7.0230107 0.55543721
-7.0117326 6.9779248 -0.55254108
-6.541718 6.5101767 0
-15.387796 15.313602 1.2125947
-7.0220013 6.9712763 -0.5526861
-6.532959 6.4857669 0
-7.0587969 7.0078063 0.55558223
-7.0285749 6.9609599 -0.55254108
-6.5038157 6.4412489 0
-7.0506449 6.9828176 0.55427611
-7.0258937 6.9415083 -0.55167055
-6.4542012 6.3766818 0
-7.0516834 6.9669881 0.5536955
-7.0287223 6.9275398 -0.55123496
-6.4711671 6.3780112 0
-16.736666 16.495731 1.3125906
-7.0259671 6.9081078 -0.55036384
-6.3359857 6.229701 0
-16.736202 16.455456 1.310994
-7.026896 6.8923421 -0.54978389
-6.2469025 6.127284 0
-16.733812 16.413385 1.3092523
-7.0203609 6.8693085 -0.54862273
-6.2022171 6.068768 0
-7.0648494 6.9128394 0.55209941
-7.0249333 6.8571868 -0.54833221
-6.1834764 6.0358229 0
-7.0750546 6.9061112 0.55224442
-7.0294943 6.8450713 -0.54804218
-6.1795812 6.0174565 0
-7.0740876 6.888495 0.55151886
-7.0284424 6.8275218 -0.54731661
-6.1644468 5.988225 0
-7.0879922 6.8853688 0.55195385
-7.0236235 6.8063645 -0.54630053
-6.1642022 5.9735274 0
-7.0757856 6.8569136 0.55035776
-7.0299759 6.7960687 -0.54615551
-6.1639314 5.9588394 0
-16.70479 16.148973 1.2977873
-7.0437884 6.7929754 -0.54659051
-6.1711268 5.9513874 0
-16.713064 16.117952 1.2969161
-6.2636895 6.0260634 -0.48549029
-6.1876888 5.9529462 0
-7.0593948 6.7915826 0.54716438
-6.2972088 6.0436769 -0.48752195
-6.2155333 5.9652896 0
-7.0601044 6.7758574 0.54658437
-6.3045068 6.0360632 -0.48752195
-6.2076979 5.9433765 0
-7.0570216 6.7565365 0.54571325
-6.2780089 6.0034285 -0.96820277
-6.3156643 6.0394368 -0.48810253
-6.1981196 5.9270329 0
-16.694695 15.964521 1.29024
-6.2946143 6.0047631 -0.96964401
-6.3192005 6.0282173 -0.48781252
-6.2128091 5.9267249 0
-16.674498 15.90668 1.2871928
-6.2962499 5.9918089 -0.96877992
-6.3245921 6.0187812 -0.48766696
-6.2199655 5.9192138 0
-7.0359917 6.6957827 0.54252046
-6.2978559 5.9788527 -0.96791476
-6.3375154 6.0165033 -0.48810253
-6.2478766 5.9314055 0
-7.0252357 6.6693892 0.54106939
-6.2975636 5.9641247 -0.96676159
-6.3391185 6.0034795 -0.48766696
-6.2021308 5.8737445 0
-7.0144191 6.6430244 0.53961772
-6.297245 5.9494057 -0.96560842
-6.3539233 6.0029531 -0.48824751
-6.1676087 5.82693 0
-7.0111117 6.6238408 0.53874713
-6.2987804 5.9364691 -0.96474332
-6.3536081 5.9881425 -0.48766696
-6.1519179 5.7980537 0
-7.0077605 6.6046677 0.53787601
-6.2927637 5.9164567 -0.96272606
-6.3703027 5.9893589 -0.48839253
-6.1551232 5.7870474 0
-7.0176349 6.5979805 0.53802156
-6.2999082 5.9088488 -0.96272606
-6.4059658 6.0083232 -0.49056974
-6.1583185 5.7760487 0
-7.0350766 6.5983825 0.53874713
-6.3032622 5.8976946 -0.9621489
-6.4284 6.014781 -0.49173087
-6.1899962 5.7917166 0
-7.0430441 6.5898776 0.53874713
-6.2914791 5.8724289 -0.95926654
-6.4413638 6.0123301 -0.49216643
-6.2483525 5.8321743 0
-7.0471988 6.5778131 0.53845656
-6.2947807 5.8612943 -0.95868945
-6.4600301 6.0151634 -0.49303699
-6.3106279 5.87605 0
-7.039928 6.5551271 0.53729546
-6.2923851 5.8448839 -0.95724821
-6.4730072 6.0126605 -0.49347255
-6.2891269 5.8418579 0
-10.369861 9.6323776 0.79055089
-6.2880635 5.8267322 -0.95551902
-6.4745479 5.9995346 -0.49303699
-6.1969166 5.7422724 0
-7.0157251 6.501008 0.5342477
-6.2875018 5.8121071 -0.95436585
-6.4684339 5.9793587 -0.49202088
-6.1847434 5.7171178 0
-7.0369339 6.5048747 0.53526378
-6.2869143 5.797492 -0.95321268
-6.4661045 5.9627323 -0.49129531
-6.1897354 5.7078781 0
-6.9760275 6.4329591 0.53003931
-6.2882023 5.784636 -0.95234752
-6.4446249 5.9285321 -0.48911864
-6.2023754 5.7056823 0
-6.5248518 6.0023346 0.49520752
-6.2875648 5.7700386 -0.95119435
-6.4173193 5.8891129 -0.48650584
-6.2073421 5.6964192 0
-6.5129514 5.9768734 0.49375585
-6.2849951 5.7537065 -0.94975317
-6.3995161 5.8585467 -0.48461917
-6.2410989 5.7135205 0
-6.5086727 5.9584756 0.49288529
-6.2862115 5.7408738 -0.94888806
-6.3835731 5.8297892 -0.48287806
-6.2652912 5.7217684 0
-6.4909258 5.9278288 0.49099863
-6.2816753 5.722826 -0.94715881
-6.3886862 5.8203168 -0.4827325
-6.2760444 5.7176957 0
-6.4884815 5.9112334 0.49027306
-6.275568 5.7103276 -0.94571763
-6.3979692 5.8217039 -0.48316807
-6.2929735 5.7261653 0
-6.484364 5.9003172 0.48969251
-6.2843766 5.7044773 -0.94600564
-6.4011545 5.8104796 -0.48287806
-6.3287873 5.7447901 0
-6.4914885 5.892478 0.48969251
-6.2855115 5.6916699 -0.94514054
-6.3946862 5.7905302 -0.48186195
-6.3608012 5.7598462 0
-10.654941 9.6482849 0.80288702
-6.3039036 5.6944771 -0.9468708
-6.3920388 5.7740917 -0.48113638
-6.3870721 5.7696052 0
-10.64924 9.619729 0.80158091
-6.3030939 5.6799297 -0.94571763
-6.3970752 5.7646194 -0.48099083
-6.3959703 5.7636237 0
-10.647341 9.594677 0.80056483
-6.3214898 5.6826811 -0.94744682
-6.404036 5.7568855 -0.48099083
-6.3816381 5.7367511 0
-7.0300226 6.3196144 0.52800709
-6.3341303 5.6802211 -0.94831198
-6.4032493 5.7422042 -0.48041028
-6.3924441 5.7325144 0
-7.0376534 6.3111153 0.52800709
-6.3409891 5.6725631 -0.94831198
-6.4256759 5.7483225 -0.48157138
-6.3857865 5.7126384 0
-7.035593 6.2939463 0.52728152
-6.3536301 5.6700654 -0.94917715
-6.4636364 5.7682362 -0.4838936
-6.3868651 5.6997247 0
-10.672269 9.5240774 0.79896867
-6.3681965 5.6692567 -0.95032924
-6.4706011 5.7604222 -0.4838936
-6.385972 5.6850815 0
-10.689593 9.5163603 0.79940426
-6.395432 5.6658587 -0.95234752
-6.4961767 5.7551103 -0.48476472
-0 0 0
-7.0173082 6.2167926 0.52365321
-6.4080896 5.6632667 -0.95321268
-6.5264831 5.767899 -0.48650584
-6.3870335 5.6446581 0
-7.0384459 6.220356 0.52466929
-6.4226885 5.6623616 -0.95436585
-6.558784 5.7823462 -0.48839253
-6.3977575 5.6403818 0
-7.0401077 6.2066898 0.52423376
-6.4411755 5.6648426 -0.95609504
-6.5891805 5.7950091 -0.49013418
-6.4006557 5.6292067 0
-12.200459 10.72998 0.90752745
-6.4480157 5.6570554 -0.95609504
-6.6371946 5.8230286 -0.49318197
-6.4094148 5.6231899 0
-12.189976 10.694666 0.90578574
-6.470417 5.6628876 -0.95840138
-6.7361217 5.8954315 -0.5000031
-6.4181609 5.6171536 0
-12.171604 10.652548 0.90346354
-6.4733615 5.6516662 -0.95782536
-6.8430624 5.9744391 -0.5074048
-6.4288607 5.6128144 0
-12.166852 10.622455 0.90215743
-6.4957819 5.6574235 -0.96013063
-6.9266973 6.0327244 -0.5130654
-6.5043283 5.6648669 0
-7.0226116 6.1162596 0.52016985
-6.5065217 5.6529665 -0.96070772
-6.95752 6.0448008 -0.51480705
-6.9079895 6.0017676 0
-7.0339236 6.1111817 0.52046037
-6.5172529 5.6484852 -0.9612838
-6.986413 6.0551047 -0.5164032
-6.8778758 5.9610362 0
-0 0 0
-6.5358167 5.6507597 -0.96301407
-6.9838977 6.0381632 -0.51567763
-6.7059264 5.7978334 0
-0 0 0
-6.5504742 5.6496153 -0.96416724
-6.9715157 6.0127525 -0.5142265
-6.6735196 5.7557383 0
-7.0245471 6.0584908 0.51813817
-6.5670972 5.6501288 -0.96560842
-6.9472599 5.9772091 -0.5119043
-6.660737 5.7306938 0
-7.0161042 6.0364408 0.51697707
-6.5665903 5.6427922 -0.9650324
-6.9291892 5.9543805 -0.51030761
-6.652359 5.716495 0
-7.0158124 6.0288172 0.51668704
-6.5851822 5.6449504 -0.96676159
-6.9462409 5.9544573 -0.51103318
-6.6394987 5.6915116 0
-7.0270333 6.0237145 0.51697707
-6.6037889 5.6470723 -0.96849084
-0 0 -0
-6.6404428 5.6784158 0
-7.034307 6.0152192 0.51697707
-6.6224179 5.6491632 -0.9702211
-6.9368954 5.9174237 -0.50929207
-6.6433353 5.667007 0
-7.0138974 5.9831095 0.51494539
-6.6548448 5.6629467 -0.97396863
-6.9084158 5.8787231 -0.50667924
-6.6442304 5.653914 0
-6.9815431 5.9409509 0.51204258
-6.7070293 5.6933947 -0.98059857
-6.8382621 5.8047943 -0.50101924
-6.6510568 5.6458817 0
-6.9094853 5.8652539 0.50623757
-6.7316666 5.7003279 -0.98319292
-6.7857847 5.7461548 -0.49666533
-6.66781 5.646255 0
-6.8253531 5.7796612 0.49956143
-6.740531 5.6938639 -0.983482
-6.7748594 5.7228618 -0.49535921
-6.6964912 5.6566625 0
-6.7846913 5.7311668 0.49607807
-6.7434464 5.6823783 -0.98290485
-6.7758064 5.7096472 -0.49492365
-6.7411361 5.6804318 0
-6.7757149 5.7095699 0.49491698
-6.7404099 5.6659064 -0.98146367
-6.7747445 5.6947675 -0.4943431
-6.759944 5.6823268 0
-6.7686911 5.6896791 0.4939014
-6.7452712 5.6560974 -0.98117566
-6.771667 5.6782312 -0.49361753
-6.7668052 5.6741543 0
-6.7735643 5.679822 0.49375585
-6.7421827 5.639647 -0.97973448
-6.7745404 5.6667137 -0.49332753
-6.7676659 5.6609631 0
-6.7764397 5.6683025 0.49346584
-6.7410483 5.6248679 -0.97858131
-6.767415 5.6468687 -0.49231142
-6.7685118 5.6477842 0
-6.781291 5.6584473 0.49332085
-6.7339225 5.605134 -0.97656298
-6.7702351 5.6353598 -0.49202088
-6.775331 5.6396017 0
-6.7721457 5.63695 0.49215972
-6.7327309 5.5903845 -0.97540981
-6.7710476 5.6222 -0.49158588
-6.7721314 5.6230998 0
-6.77495 5.6254401 0.49186918
-6.7275329 5.5723491 -0.97368062
-6.7518234 5.5924683 -0.48969918
-6.7709036 5.6082726 0
-6.7717385 5.608964 0.49114361
-6.7302694 5.5609179 -0.97310346
-6.7405419 5.5694051 -0.48839253
-6.7656341 5.5901375 0
-6.7704983 5.5941572 0.49056306
-6.7309942 5.5478449 -0.97223836
-6.7432599 5.5579543 -0.48810253
-6.7583313 5.5703769 0
-6.7712431 5.5810189 0.49012807
-6.7317047 5.5347843 -0.97137427
-6.7459602 5.546505 -0.48781252
-6.7469592 5.5473261 0
-6.7659354 5.5629282 0.48925695
-6.7323861 5.5217237 -0.97050911
-6.7506423 5.5366974 -0.48766696
-6.7596955 5.5441227 0
-6.7666225 5.5498037 0.48882139
-6.7330456 5.5086703 -0.96964401
-6.7452645 5.5186672 -0.48679641
-6.7623653 5.5326581 0
-6.7632699 5.5333982 0.48809582
-6.7276778 5.4907212 -0.96791476
-6.7438755 5.5039406 -0.48621583
-6.7690454 5.5244827 0
-6.7618985 5.5186501 0.48751527
-6.7323036 5.4809566 -0.96762675
-6.7384343 5.4859481 -0.48534527
-6.7656188 5.5080795 0
-6.7746091 5.515399 0.48795083
-6.7235689 5.4670944 -0.96589649
-6.7336831 5.4753189 -0.48476472
-6.7709703 5.5056376 0
-6.7698755 5.5047479 0.48737028
-6.7241497 5.454083 -0.9650324
-6.7322221 5.4606309 -0.48418418
-6.7675138 5.4892569 0
-6.762394 5.4851041 0.48635414
-6.7267094 5.4426975 -0.96445525
-6.7347713 5.4492202 -0.4838936
-6.76402 5.4728861 0
-6.7649803 5.4736633 0.48606417
-6.7252302 5.4280677 -0.96330208
-6.7393303 5.4394484 -0.48374861
-6.7645583 5.4598098 0
-6.7635012 5.4589572 0.48548359
-6.725738 5.4150696 -0.96243697
-6.733758 5.4215269 -0.48287806
-6.7549334 5.4385757 0
-6.7579527 5.4410062 0.48461303
-6.7262321 5.4020848 -0.96157289
-6.7342243 5.4085035 -0.4824425
-6.7554107 5.425519 0
-6.7503386 5.4214454 0.48359692
-6.7307305 5.3923316 -0.9612838
-6.7387285 5.3987393 -0.48229751
-6.7538371 5.4108438 0
-6.7609363 5.4165311 0.48388693
-6.723103 5.3728967 -0.95926654
-6.7452469 5.3905931 -0.48229751
-6.7563076 5.3994327 0
-6.7613921 5.4034963 0.48345193
-6.71948 5.356709 -0.95782536
-6.7375307 5.371099 -0.48128137
-6.752646 5.3831491 0
-6.7618189 5.3904614 0.48301637
-6.7239175 5.3469715 -0.95753628
-6.7358804 5.3564849 -0.48070082
-6.7571106 5.3733678 0
-6.7561283 5.3725863 0.48214582
-6.7121377 5.324378 -0.95494193
-6.7382727 5.3451095 -0.48041028
-6.753406 5.3571138 0
-6.7646489 5.3660326 0.4822908
-6.7145138 5.3130569 -0.95436585
-6.7386189 5.3321309 -0.47997525
-6.7578349 5.3473363 0
-6.7609415 5.3497944 0.48156524
-6.7189002 5.303339 -0.95407784
-6.7409735 5.3207617 -0.47968471
-6.7561202 5.3327174 0
-6.7571964 5.3335671 0.48083913
-6.7131066 5.2856131 -0.95234752
-6.7371917 5.3045769 -0.47895914
-6.752337 5.3165016 0
-6.749351 5.3141508 0.47982356
-6.7154241 5.2743058 -0.9517715
-6.7354226 5.2900128 -0.47837859
-6.7505689 5.301909 0
-6.7537179 5.3043818 0.479678
-6.7177162 5.2629943 -0.95119435
-6.7336278 5.2754602 -0.47779804
-6.748776 5.2873282 0
-6.7478533 5.2866054 0.47880745
-6.7220345 5.2532825 -0.95090634
-6.7399969 5.2673202 -0.47779804
-6.7531109 5.2775688 0
-6.7562819 5.2800469 0.47895247
-6.7283769 5.2451563 -0.95090634
-6.748404 5.2607684 -0.47794303
-6.755374 5.266202 0
-6.7544594 5.2654891 0.47837189
-6.7306223 5.2338438 -0.95032924
-6.7465587 5.2462363 -0.47736302
-6.7617321 5.2580357 0
-6.7628741 5.2589235 0.47851744
-6.7471662 5.2336383 -0.9517715
-6.7549438 5.2396717 -0.47750804
-6.7639718 5.2466745 0
-6.7651134 5.2475595 0.4782269
-6.7596159 5.230226 -0.95263559
-6.77565 5.2426319 -0.47852358
-6.7805963 5.246459 0
-6.7755632 5.2425647 0.47851744
-6.7761745 5.2299604 -0.95407784
-6.7984357 5.2471423 -0.47968471
-6.8013463 5.2493887 0
-6.7962861 5.2454829 0.47953302
-6.7968292 5.2328095 -0.95609504
-6.815064 5.2468481 -0.48041028
-6.809752 5.2427588 0
-6.8067408 5.2404404 0.47982356
-6.8216071 5.23877 -0.95868945
-6.8317089 5.2465277 -0.48113638
-6.8284621 5.2440343 0
-6.825429 5.2417049 0.48069414
-6.8288794 5.2377992 -0.95926654
-6.834877 5.2423992 -0.48113638
-6.8357635 5.2430787 0
-6.8368421 5.243906 0.48127469
-6.8536892 5.2436872 -0.9618609
-6.8597779 5.2483454 -0.4824425
-6.8544912 5.2443008 0
-6.851428 5.2419572 0.48185524
-6.8661904 5.2401109 -0.96272606
-6.880568 5.2510834 -0.48345804
-6.8711653 5.2439075 0
-6.8701468 5.2431302 0.4827258
-6.8932471 5.234448 -0.96474332
-6.8994479 5.2391562 -0.4838936
-6.9024692 5.2414508 0
-6.9055629 5.2437997 0.48432249
-6.9057541 5.2308016 -0.96560842
-6.9161282 5.2386589 -0.48461917
-6.9170957 5.2393923 0
-6.9181099 5.2401605 0.48475805
-6.9223862 5.230248 -0.9670496
-6.9307461 5.2365642 -0.48519972
-6.9421077 5.2451487 0
-6.9327292 5.2380629 0.4853386
-6.9431615 5.2327781 -0.96906793
-6.9515958 5.2391348 -0.48621583
-6.9546771 5.2414575 0
-6.961874 5.246881 0.48693472
-6.9598145 5.2321548 -0.97050911
-6.9807701 5.2479086 -0.48781252
-6.9714046 5.2408676 0
-6.9702916 5.2400308 0.48708028
-6.9764762 5.2314982 -0.97195029
-6.9850216 5.2379065 -0.48766696
-6.9798121 5.2340002 0
-6.9849257 5.2378345 0.48766026
-6.9993615 5.2354589 -0.97425663
-7.0100703 5.2434688 -0.48897308
-6.9986396 5.2349186 0
-7.0016594 5.2371774 0.48838639
-7.0139747 5.2331843 -0.97540981
-7.0309811 5.245873 -0.48998919
-7.0070438 5.228013 0
-7.020474 5.2380338 0.48925695
-7.0223656 5.2262483 -0.97569788
-7.0310593 5.232718 -0.48955363
-7.0070901 5.21488 0
-7.0330534 5.2342024 0.48969251
-7.0266008 5.2162189 -0.97540981
-7.0165167 5.2087331 -0.48810253
-7.0175695 5.2095146 0
-7.0498028 5.2334433 0.49041805
-7.0308218 5.2061872 -0.9751218
-7.0624843 5.2296329 -0.49086031
-6.9924846 5.1777992 0
-7.0707412 5.2357469 0.49143419
-7.0807958 5.2299571 -0.98117566
-7.1085048 5.250423 -0.49361753
-7.0280471 5.1909962 0
-7.0833268 5.2318263 0.49186918
-7.0954394 5.2275343 -0.98232883
-7.1483154 5.2664905 -0.49593976
-7.1097355 5.2380667 0
-7.108469 5.2371335 0.4931753
-7.1350904 5.2434573 -0.98694044
-7.1588573 5.2609234 -0.49622977
-7.1559067 5.2587552 0
-7.1252675 5.236239 0.4939014
-7.1435127 5.2363658 -0.98722953
-7.1798811 5.2630248 -0.49724588
-0 0 0
-7.1315889 5.2276254 0.4939014
-7.1665378 5.239943 -0.98953587
-7.1715503 5.243608 -0.49622977
-7.1685939 5.2414465 0
-7.1504817 5.2282038 0.49477196
-7.1770396 5.2343254 -0.99011189
-7.1925788 5.2456584 -0.49724588
-7.1833329 5.238915 0
-7.1609969 5.2226253 0.49506253
-7.1833591 5.2256494 -0.99011189
-7.2157221 5.2491922 -0.49840701
-7.202281 5.2394147 0
-7.1883106 5.2292514 0.49651363
-7.2471957 5.2653956 -0.99847209
-7.2567272 5.2723212 -0.50101924
-7.2201853 5.2457719 0
-7.1977773 5.2294912 0.4969492
-7.3388381 5.3184414 -0.50624424
-7.2475877 5.2523127 0
-7.2146091 5.2284126 0.49767476
-7.3936877 5.3445773 -0.50958204
-7.3425093 5.3075824 0
-7.2251291 5.222733 0.49796474
-7.4233274 5.3523574 -0.51117873
-7.4249129 5.3535008 0
-11.653193 8.4021692 0.80245203
-7.4740877 5.3752427 -0.5142265
-7.4313765 5.3445253 0
-11.644344 8.374424 0.80114537
-7.9028287 5.6691108 -0.54325271
-7.4526253 5.3461566 0
-11.620681 8.3361206 0.79882371
-7.962501 5.6973577 -0.54688108
-7.5035243 5.3689489 0
-11.61172 8.3084602 0.797517
-7.9884124 5.7013164 -0.5481872
-7.6095614 5.4309311 0
-11.609064 8.2853689 0.79664648
-0 0 -0
-7.9362473 5.6496243 0
-11.60637 8.2622976 0.79577589
-0 0 -0
-8.0085249 5.6865091 -0.54862273
-7.9876275 5.6716709 0
-11.612103 8.2452555 0.79548532
-8.0259905 5.6843362 -0.54934829
-8.0029697 5.6680317 0
-11.607221 8.2207098 0.79446977
-8.0370941 5.6776295 -0.54963833
-8.022562 5.6673641 0
-11.598039 8.193181 0.79316312
-8.0588188 5.6783924 -0.55065441
-8.0421734 5.6666636 0
-11.605808 8.1776667 0.7930181
-8.0805578 5.679111 -0.55167055
-8.0681753 5.6704087 0
-11.600797 8.1531763 0.79200196
-8.0980511 5.6767998 -0.55239612
-8.0792789 5.6636405 0
-8.1575289 5.7184944 0.55645329
-8.1176767 5.6759415 -0.55326664
-8.098918 5.6628246 0
-8.1644325 5.7086334 0.55645329
-8.1287966 5.6691046 -0.55355722
-8.1036215 5.6515474 0
-8.1691866 5.6972733 0.55630773
-8.1463041 5.6666961 -0.55428278
-8.1147127 5.644721 0
-8.1611395 5.6770158 0.55529219
-8.1787634 5.6746235 -0.55602443
-8.14505 5.6512322 0
-11.551649 8.0148125 0.78532642
-8.2027082 5.6765666 -0.55718559
-8.1732693 5.6561937 0
-11.559182 7.9993663 0.78518087
-8.2074165 5.6651707 -0.55703998
-8.1800976 5.6463137 0
-11.547459 7.9706349 0.78372973
-8.2215405 5.6675892 -0.55776614
-8.187789 5.6443219 0
-11.52018 7.941534 0.78155249
-8.2390862 5.6650105 -0.55849171
-8.2053308 5.6418014 0
-11.50622 7.9114184 0.7799564
-8.2630692 5.6668081 -0.55965281
-8.2378893 5.6495399 0
-11.515771 7.8975096 0.7799564
-8.2763386 5.6612167 -0.5600878
-8.2490101 5.6425233 0
-11.525306 7.8835893 0.7799564
-8.2981997 5.6614647 -0.56110388
-8.2601175 5.6354823 0
-11.504776 7.8491578 0.77792472
-8.3222208 5.6631284 -0.56226504
-8.2819834 5.6357479 0
-11.497066 7.8235559 0.77676362
-8.337657 5.6589055 -0.56284559
-8.2974005 5.6315827 0
-11.49791 7.8038216 0.77618307
-8.353096 5.6546535 -0.56342614
-8.3192873 5.6317668 0
-11.494417 7.7811804 0.77531195
-8.3663769 5.6489143 -0.56386113
-8.332551 5.6260753 0
-11.486583 7.7556534 0.77415079
-8.390439 5.6504126 -0.56502223
-6.8909731 4.6406202 0
-11.467929 7.7229009 0.77226412
-8.4102068 5.6489658 -0.56589335
-6.8900924 4.6279359 0
-11.466469 7.7017961 0.77153856
-8.4407663 5.6547041 -0.5674895
-6.8935189 4.6181602 0
-11.471453 7.6850457 0.77124858
-8.4562349 5.6502757 -0.56807005
-8.4353838 5.6363435 0
-11.465605 7.6610723 0.77023244
-8.484683 5.6544666 -0.56952173
-8.435689 5.6218157 0
-11.464044 7.6400089 0.76950693
-8.500165 5.6499639 -0.57010227
-8.4511452 5.6173811 0
-11.462449 7.6189609 0.76878136
-8.5134764 5.6439924 -0.57053727
-8.4752798 5.6186695 0
-11.449986 7.5907445 0.76732969
-8.5419693 5.6480355 -0.57198894
-8.4907465 5.6141663 0
-11.443982 7.5668759 0.76631409
-8.5639658 5.6477199 -0.57300448
-8.5062141 5.6096339 0
-11.407566 7.5230026 0.76326632
-8.5751295 5.6402264 -0.57329506
-8.5325527 5.6122217 0
-11.416648 7.5092134 0.76326632
-8.5928001 5.6369863 -0.57402062
-8.554554 5.611896 0
-11.408331 7.4840107 0.76210523
-8.6027269 5.6360669 -0.57445616
-8.564476 5.6110067 0
-8.6656561 5.6772957 0.5786584
-8.6204042 5.6327734 -0.57518172
-8.5865021 5.6106205 0
-8.6725101 5.6668205 0.5786584
-8.6337376 5.6266108 -0.57561731
-8.5954533 5.6016612 0
-8.6815262 5.6577549 0.57880342
-8.6732035 5.6374121 -0.57779396
-8.6349487 5.6125469 0
-10.805917 7.023634 0.7198717
-8.7260752 5.6418281 -0.58040619
-8.681263 5.6128545 0
-10.785766 6.9735174 0.71740448
-8.739439 5.6355062 -0.58084178
-8.6836681 5.5995426 0
-10.781085 6.952033 0.7165339
-8.7593594 5.633378 -0.5817129
-8.7013702 5.5960836 0
-10.791661 6.9404054 0.71667892
-8.7705297 5.6255932 -0.58200288
-8.7278385 5.5982099 0
-10.802224 6.9287624 0.71682394
-8.7926455 5.6247945 -0.58301902
-8.7521353 5.5988798 0
-10.801833 6.9101038 0.71624339
-8.8060007 5.6183553 -0.58345401
-8.7720537 5.5966964 0
-10.816749 6.9012413 0.71667892
-8.8281307 5.6174769 -0.58447009
-8.7897863 5.5930772 0
-10.81631 6.8825865 0.71609837
-8.8502712 5.6165533 -0.58548623
-8.8119211 5.5922151 0
-10.826811 6.870903 0.71624339
-8.8658342 5.611414 -0.58606678
-8.8362646 5.5926986 0
-10.828516 6.8536453 0.7158078
-8.885788 5.6090164 -0.58693737
-8.8474131 5.5847931 0
-10.836789 6.8405561 0.7158078
-8.9101505 5.6093507 -0.58809847
-8.8497543 5.5713282 0
-10.858245 6.8357658 0.71667892
-8.9411306 5.6137805 -0.58969516
-8.8741121 5.571702 0
-10.870893 6.8254018 0.71696895
-8.9765358 5.6208987 -0.59158182
