# .PCD v0.7 - Point Cloud Data file format
VERSION 0.7
FIELDS x y z
SIZE 4 4 4
TYPE F F F
COUNT 1 1 1
WIDTH 1809
HEIGHT 1
VIEWPOINT 0 0 0 1 0 0 0
POINTS 1809
DATA ascii
0 0 -0
0 0 -0
0 0 0
14.770074 12.895236 1.0951831
0 0 -0
0 0 -0
13.070464 11.439227 0
14.760342 12.918202 1.0956181
0 0 -0
6.7231388 5.8984303 -0.4995681
13.068374 11.465313 0
12.799367 11.229304 0.95106703
12.461991 10.959991 -0.92698145
13.062327 11.487969 0
12.793594 11.251626 0.95164758
12.458483 10.98363 -0.92770696
13.046479 11.502019 0
12.795583 11.280824 0.95280874
12.427681 10.983191 -0.92640084
13.030623 11.516052 0
12.770257 11.285949 0.95193762
0 0 -0
6.7003813 5.9360199 -0.5000031
13.028391 11.542148 0
12.760504 11.30482 0.95222819
6.6793003 5.9245501 -0.49869701
13.042827 11.569008 0
12.769216 11.326315 0.95338875
6.6837916 5.9429793 -0.4995681
13.036617 11.591676 0
12.749701 11.336561 0.9529537
4.2938724 3.8272524 -0.95893615
6.6707845 5.9458628 -0.49913257
13.032313 11.616076 0
12.726296 11.343315 0.95222819
4.2720184 3.8170459 -0.95508486
6.6945982 5.9816194 -0.50145477
13.022154 11.635286 0
12.718389 11.363873 0.95266318
4.2406359 3.7982304 -0.94909412
6.6641388 5.9689007 -0.49971312
13.035221 11.675318 0
12.702715 11.377501 0.95251817
4.2188544 3.7879181 -0.94524282
6.6549897 5.975214 -0.4995681
13.023039 11.692797 0
12.692828 11.396316 0.95280874
4.2047286 3.7844214 -0.94310176
6.6496949 5.9849877 -0.49971312
12.999231 11.699821 0
12.686768 11.418591 0.95338875
4.2001524 3.7894993 -0.94310176
12.784944 11.534946 -0.96181321
13.012133 11.739923 0
12.699974 11.458284 0.95542097
4.1860528 3.7859635 -0.94096231
12.740162 11.522498 -0.95949101
13.009522 11.766114 0
12.736222 11.518935 0.9591943
4.1757755 3.7858512 -0.93967968
12.724307 11.53614 -0.959346
13.0165 11.801049 0
12.77812 11.584929 0.96340322
4.1711979 3.790894 -0.93967968
6.6899095 6.0799651 -0.50493759
13.025342 11.837772 0
12.792951 11.62657 0.96557987
4.1704059 3.7993855 -0.94053477
6.6422224 6.0512967 -0.50188977
13.016802 11.858762 0
12.826912 11.685765 0.96920824
4.1733942 3.8113465 -0.94224662
12.592232 11.499838 -0.95252484
13.010151 11.881501 0
12.83005 11.717025 0.97051436
4.1706777 3.8181181 -0.94267422
6.6333308 6.0725961 -0.50232536
13.005381 11.905998 0
12.825471 11.741297 0.97124046
4.1603923 3.8179526 -0.94139153
6.6585326 6.1104722 -0.50479257
13.102195 12.02376 0
12.820846 11.765568 0.97196603
4.155776 3.8229771 -0.94139153
6.6052556 6.0762992 -0.50130981
13.18916 12.132957 0
12.814269 11.788088 0.97254658
4.1473761 3.8245118 -0.94053477
6.6322889 6.1159797 -0.50392205
13.172579 12.147122 0
17.882872 16.49073 1.3587425
4.1408687 3.8277795 -0.94010723
6.6077232 6.1081166 -0.50261593
13.089101 12.09944 0
17.838129 16.489397 1.3568559
4.1305895 3.827544 -0.93882293
12.418955 11.507823 -0.94570374
13.021021 12.065718 0
17.804848 16.498575 1.3558397
4.1259618 3.8325322 -0.93882293
12.384096 11.503366 -0.94410706
12.972114 12.049564 0
17.769676 16.505936 1.3546791
4.1213279 3.8375149 -0.93882293
0 0 -0
12.932786 12.042176 0
13.284769 12.369921 1.013909
4.1166878 3.8424919 -0.93882293
0 0 -0
12.899197 12.040032 0
13.286907 12.401919 1.015215
4.112042 3.8474631 -0.93882293
6.6769481 6.2473369 -0.51074314
12.878943 12.050281 0
13.256733 12.403762 1.0140539
4.1115885 3.8517001 -0.93925047
12.346719 11.566298 -0.94497818
12.867859 12.054498 0
17.595413 16.483229 1.3466964
4.1069317 3.8566654 -0.93925047
0 0 -0
12.853284 12.070037 0
17.596321 16.524046 1.3482931
4.08358 3.844033 -0.93497163
0 0 -0
12.842484 12.08913 0
14.030849 13.207785 1.0763159
4.0751948 3.8454373 -0.93411487
0 0 -0
12.825969 12.102848 0
14.011097 13.221159 1.0760252
4.0556331 3.8362529 -0.93069273
0 0 -0
12.834023 12.139797 0
13.99134 13.23451 1.0757353
4.0509949 3.8411508 -0.93069273
0 0 -0
12.874111 12.207224 0
13.982881 13.258558 1.0763159
4.0444846 3.844269 -0.93026358
0 0 -0
12.955549 12.314207 0
13.946131 13.255751 1.0747192
4.0324025 3.8420701 -0.92855167
0 0 -0
12.959498 12.347801 0
13.920699 13.263632 1.0739937
4.0259023 3.8451681 -0.92812413
0 0 -0
12.94457 12.363451 0
13.90654 13.282235 1.0741386
4.0101314 3.8393817 -0.92555714
0 0 -0
12.884513 12.335895 0
13.897988 13.306217 1.0747192
3.9999313 3.8388901 -0.92427284
0 0 -0
12.824533 12.308205 0
13.895024 13.335597 1.0757353
3.9897382 3.8383794 -0.92298853
0 0 -0
12.755265 12.271368 0
12.2742 11.808553 0.95135707
3.9832513 3.8414171 -0.92256099
0 0 -0
12.671119 12.21993 0
13.844057 13.351103 1.0742842
3.9878333 3.8551466 -0.92470038
0 0 -0
12.60396 12.18459 0
13.826041 13.36601 1.0741386
3.9850209 3.8617539 -0.92512959
0 0 -0
12.529423 12.141855 0
13.780025 13.353773 1.0718164
3.9711399 3.8576176 -0.92298853
0 0 -0
12.496078 12.138855 0
12.097706 11.751871 0.9420687
3.9738326 3.8695769 -0.92470038
0 0 -0
12.431065 12.104929 0
12.170989 11.851676 0.94888979
3.9654834 3.8707929 -0.92384529
0 0 -0
12.386632 12.090855 0
12.305408 12.011571 0.96050042
3.9644697 3.8791687 -0.92470038
0 0 -0
12.377588 12.111268 0
12.350318 12.084584 0.96514487
3.9616175 3.8857589 -0.92512959
0 0 -0
9.8102636 9.6224136 0
9.8240852 9.6359701 0.76863581
3.945416 3.8839233 -0.92298853
0 0 -0
0 0 0
9.7232847 9.5717382 0.76210523
3.9388947 3.8868864 -0.92256099
0 0 -0
9.6718636 9.5441589 0
9.4583321 9.3334465 0.74222177
3.9360185 3.8934464 -0.92298853
0 0 -0
9.4050045 9.3032799 0
9.369463 9.2681217 0.73612624
3.9313111 3.8981996 -0.92298853
0 0 -0
9.3327742 9.2541676 0
9.3305855 9.2519979 0.73394954
3.9338808 3.9101856 -0.92470038
0 0 -0
9.3105135 9.2544336 0
9.3028145 9.2467804 0.73264343
3.9218793 3.9076886 -0.92298853
0 0 -0
9.2919502 9.2583294 0
9.2861109 9.252511 0.73220789
3.9171548 3.9124246 -0.92298853
0 0 -0
9.2733917 9.2621927 0
9.2620535 9.2508688 0.73119175
3.9124246 3.9171548 -0.92298853
0 0 -0
9.2346048 9.2457695 0
9.2490339 9.2602167 0.73104674
3.9040682 3.9182458 -0.92213339
0 0 -0
6.5784211 6.6023107 0
9.2305021 9.2640228 0.73046619
3.8939002 3.9174964 -0.92084908
6.6073442 6.6473837 -0.52351487
6.5649328 6.6047153 0
9.2064838 9.2622738 0.72945064
3.8837395 3.9167285 -0.91956478
0 0 -0
6.5202985 6.5756826 0
9.182477 9.2604742 0.7284345
3.875397 3.9177716 -0.9187097
0 0 -0
0 0 0
9.1639709 9.2641726 0.72785395
3.8724616 3.9242771 -0.91913724
0 0 -0
0 0 -0
0 0 0
9.1472931 9.2696886 0.72741842
3.8749206 3.9362707 -0.92084908
0 0 -0
6.5897222 6.6940546 -0.52467597
6.5201526 6.6233835 0
9.1415567 9.2862911 0.72785395
3.8719585 3.9427798 -0.92127663
0 0 -0
6.5652375 6.6853213 -0.52336931
6.5467925 6.6665387 0
9.139431 9.3065987 0.72857952
3.8707879 3.9511263 -0.92213339
0 0 -0
6.5553384 6.6913948 -0.52322429
6.5569415 6.6930313 0
9.1409092 9.3306303 0.72959566
3.8480721 3.9374452 -0.91785455
0 0 -0
6.5418048 6.6937408 -0.5227893
6.5215697 6.6730361 0
9.140522 9.3528147 0.73046619
3.832556 3.9310598 -0.91528594
6.5083137 6.6755896 -0.52075708
0 0 0
9.1455383 9.3805952 0.7317723
3.815273 3.9228044 -0.91228974
0 0 -0
0 0 -0
9.1526384 9.4106007 0
9.1486902 9.4065409 0.7329334
3.8051727 3.9218898 -0.91100711
0 0 -0
9.1539421 9.4347229 0
9.1536007 9.434371 0.73423952
3.7968569 3.922792 -0.91015035
0 0 -0
9.1533985 9.4569998 0
9.1494226 9.4528933 0.73482013
3.7974653 3.9329188 -0.91143465
0 0 -0
0 0 0
9.1524334 9.4788952 0.73598123
3.7944896 3.9393516 -0.91186219
0 0 -0
0 0 0
9.1517925 9.5011797 0.73685235
3.8027909 3.9527464 -0.9144308
0 0 -0
9.1482439 9.5089865 0
9.1604633 9.5216875 0.73801345
3.798012 3.9573386 -0.9144308
0 0 -0
9.1403484 9.5237856 0
9.165143 9.5496206 0.73931956
3.7950013 3.9637773 -0.9148584
0 0 -0
9.139636 9.5461054 0
9.1661711 9.5738201 0.74033511
3.7902088 3.9683599 -0.9148584
0 0 -0
9.1496649 9.5797262 0
9.167161 9.5980444 0.74135125
3.7924943 3.9803708 -0.91657025
0 0 -0
9.1452637 9.5983114 0
9.1698961 9.6241636 0.74251235
3.7859154 3.9830916 -0.9161427
0 0 -0
9.1497946 9.6263294 0
9.1761589 9.654068 0.74396348
3.768734 3.9746218 -0.9131465
0 0 -0
9.1506863 9.6505928 0
9.1752186 9.676465 0.7448346
3.7621663 3.9773095 -0.91271895
0 0 -0
9.1551123 9.6786566 0
9.1760139 9.7007532 0.74585015
3.7467835 3.9706464 -0.91015035
0 0 -0
9.1559153 9.7029629 0
9.1785517 9.7269526 0.74701124
3.7349448 3.967694 -0.90843844
0 0 -0
9.1531019 9.7234926 0
9.1721373 9.7437143 0.74744684
3.7213633 3.9628494 -0.90629905
0 0 -0
9.1573782 9.7516174 0
9.1817026 9.7775202 0.74918848
3.721839 3.972965 -0.90758336
0 0 -0
9.1598225 9.7778692 0
9.1823111 9.8018761 0.75020403
3.7152846 3.9755855 -0.90715581
0 0 -0
9.1533337 9.7946367 0
9.1846542 9.8281517 0.75136518
3.7157245 3.9856994 -0.90843844
0 0 -0
9.1539164 9.8190165 0
9.1816301 9.8487434 0.75209075
3.7161522 3.9958274 -0.90972275
0 0 -0
9.1526756 9.8415003 0
9.1821117 9.8731518 0.75310683
3.7148099 4.0040751 -0.91057789
0 0 -0
9.1549377 9.867815 0
9.1807823 9.8956728 0.75397795
3.7117176 4.0104499 -0.91100711
0 0 -0
9.1465406 9.8826866 0
9.1635227 9.9010353 0.75354242
3.7103486 4.0187006 -0.91186219
4.1608624 4.5066552 -0.68367344
0 0 -0
11.429528 12.37939 0
11.449961 12.40152 0.94279426
3.7089717 4.0269608 -0.91271895
0 0 -0
0 0 -0
11.377538 12.352993 0
11.420884 12.400056 0.94163311
3.7093086 4.0371051 -0.91400164
0 0 -0
0 0 -0
11.346758 12.349486 0
11.44281 12.454026 0.94468093
3.7113659 4.0491538 -0.91571349
0 0 -0
0 0 -0
11.31424 12.343998 0
11.573476 12.626828 0.95672709
3.7116692 4.0593204 -0.91699779
0 0 -0
0 0 -0
11.287028 12.344221 0
9.9802055 10.914995 0.82610822
3.7022915 4.0539799 -0.91528594
0 0 -0
0 0 -0
11.256755 12.326057 0
9.970108 10.91719 0.82581824
3.6835599 4.0432696 -0.91186219
0 0 -0
0 0 -0
11.189276 12.28194 0
9.9499092 10.921545 0.82523769
3.6786716 4.0477176 -0.91186219
0 0 -0
0 0 -0
11.142918 12.260779 0
9.9227247 10.918176 0.82407653
3.6703329 4.0483594 -0.91100711
0 0 -0
0 0 -0
11.107125 12.251105 0
9.885087 10.903203 0.82204431
3.6688793 4.0565953 -0.91186219
0 0 -0
0 0 -0
8.9783859 9.9271955 0
9.8283396 10.866969 0.81841654
3.6691353 4.0667453 -0.9131465
4.0638132 4.5041928 -0.6761784
0 0 -0
8.9646435 9.9361067 0
11.331225 12.559147 0.94482648
3.6762419 4.0845342 -0.9161427
4.0514464 4.50141 -0.67502522
0 0 -0
8.9491453 9.943059 0
11.303872 12.559307 0.94381034
3.6798773 4.0985217 -0.91828209
4.0563693 4.5178456 -0.67675442
0 0 -0
8.9301701 9.9461193 0
11.273067 12.555557 0.94250423
3.6817729 4.1106143 -0.919994
0 0 -0
0 0 -0
8.9164104 9.9549656 0
11.249221 12.559494 0.94177866
3.6768036 4.1150599 -0.919994
0 0 -0
0 0 -0
8.8905039 9.9502068 0
11.232301 12.571134 0.94163311
3.6735351 4.1214142 -0.92042154
0 0 -0
0 0 -0
8.8854008 9.9687128 0
11.210187 12.576938 0.94105256
3.6787837 4.1373563 -0.92298853
0 0 -0
0 0 -0
8.8595142 9.9638824 0
11.189807 12.584654 0.94061756
3.6874094 4.1571622 -0.92641228
0 0 -0
0 0 -0
8.8371105 9.9629021 0
11.165966 12.58844 0.93989146
3.689188 4.1693044 -0.92812413
0 0 -0
0 0 -0
8.8233423 9.9716263 0
11.147307 12.598035 0.93960142
3.6858447 4.1756821 -0.92855167
0 0 -0
0 0 -0
8.8112879 9.9822798 0
11.128641 12.607602 0.93931144
3.6791017 4.1782079 -0.92812413
0 0 -0
0 0 -0
6.6357141 7.535913 0
11.109962 12.617136 0.93902087
3.6774421 4.186511 -0.92898089
0 0 -0
0 0 -0
6.5905371 7.5028667 0
11.098141 12.634459 0.93931144
3.6723807 4.1909513 -0.92898089
0 0 -0
4.4559484 5.085165 -0.37765709
6.5746059 7.502995 0
11.069166 12.632225 0.93815035
3.6656132 4.20368 -0.92983598
0 0 -0
4.4556022 5.1096296 -0.3786732
6.638555 7.6130133 0
11.018114 12.635437 0.93640864
3.6706431 4.2197309 -0.93240464
3.9764194 4.5712476 -0.67531323
0 0 -0
6.6242256 7.6151361 0
11.091513 12.750679 0.94395536
3.6756334 4.2357922 -0.93497163
0 0 -0
0 0 -0
6.6013741 7.60741 0
11.144218 12.842574 0.94976091
3.6713939 4.236074 -0.93454403
0 0 -0
0 0 -0
6.5916615 7.605495 0
11.177295 12.896423 0.95324373
3.6595571 4.2327394 -0.93283218
3.9625926 4.5832386 -0.67531323
0 0 -0
8.6793661 10.038783 0
11.146411 12.892231 0.95193762
3.6527648 4.2352161 -0.93240464
3.9435377 4.5723543 -0.67300689
0 0 -0
8.726716 10.118234 0
10.514812 12.191451 0.89925462
3.6375961 4.2279472 -0.92983598
3.9430723 4.5829997 -0.67387205
4.4045968 5.1194258 -0.37722152
0 0 0
10.517024 12.223849 0.90070629
3.6358318 4.2362394 -0.93069273
3.9408975 4.5916824 -0.67444807
4.388257 5.1129174 -0.37635097
0 0 0
11.052219 12.87734 0.94787371
3.6323783 4.2425776 -0.93112034
3.9302983 4.5905447 -0.67358291
4.3702445 5.1043973 -0.37533486
0 0 0
10.561805 12.33607 0.90709186
3.6422524 4.2645297 -0.93497163
3.9247489 4.5952907 -0.67358291
4.3556376 5.0997963 -0.37460929
0 0 0
10.580643 12.38834 0.90999466
3.6520786 4.2865119 -0.93882293
3.9208755 4.6020041 -0.67387205
4.3359909 5.0892324 -0.37344819
8.6738644 10.180675 0
10.548811 12.381333 0.90854299
3.6585355 4.304616 -0.94181907
3.9102855 4.6008239 -0.67300689
4.3231072 5.0865479 -0.37286764
8.6666145 10.197099 0
10.523749 12.382195 0.90767246
3.6483495 4.3031573 -0.94053477
3.9047234 4.605545 -0.67300689
4.308558 5.0818601 -0.37214208
8.65765 10.21153 0
10.478537 12.359229 0.90506023
3.6332042 4.2958059 -0.93796778
3.884125 4.5924878 -0.67041254
4.2923493 5.0751619 -0.37127152
8.6385832 10.214035 0
5.4164634 6.404285 0.46850297
3.6197295 4.2903767 -0.93582672
3.8502207 4.5635724 -0.66551185
4.2811856 5.0743847 -0.37083596
8.6245584 10.222478 0
0 0 0
3.6145427 4.2947474 -0.93582672
3.8047321 4.5207276 -0.65859282
4.2666869 5.0696158 -0.37011039
8.6105261 10.230903 0
0 0 0
3.6044037 4.2932191 -0.93454403
3.7576914 4.475801 -0.65138578
4.242178 5.0528746 -0.36851373
8.5998297 10.243291 0
0 0 0
3.6058064 4.3054438 -0.93625593
3.7340176 4.4585314 -0.64821541
4.2210555 5.0400701 -0.36720762
8.5841074 10.249687 0
5.3904533 6.436367 0.46893853
3.6121178 4.3235817 -0.93925047
3.7219944 4.4551005 -0.64706224
4.1983061 5.025229 -0.36575648
10.043313 12.021504 0
5.3776731 6.4368916 0.46850297
3.6167548 4.3397789 -0.94181907
3.7066698 4.447669 -0.64533192
4.1822462 5.0183177 -0.36488539
10.025452 12.029636 0
5.3632369 6.4354 0.46792242
3.6180727 4.3520422 -0.94353098
3.6930273 4.4422021 -0.64389074
4.1795049 5.0273676 -0.36517593
10.007578 12.037735 0
5.3454938 6.4298906 0.46705186
3.6226406 4.3682628 -0.94609791
3.6711493 4.4267554 -0.64100838
4.1701069 5.02841 -0.36488539
9.9797344 12.033792 0
10.255605 12.366443 0.89736795
3.6173599 4.3726368 -0.94609791
3.6575494 4.4212179 -0.63956606
4.1640277 5.0334449 -0.36488539
9.9535799 12.031811 0
10.189314 12.316765 0.89286906
3.6071703 4.3710628 -0.94481361
3.6439748 4.4156613 -0.63812488
4.159595 5.0404749 -0.36503038
9.9357185 12.03981 0
10.121499 12.264935 0.8882246
3.6002562 4.3734384 -0.94438607
3.6320612 4.4120736 -0.63697171
4.155158 5.0475092 -0.36517593
9.9162054 12.045785 0
10.055481 12.214972 0.8837257
3.5976133 4.3756123 -0.94438607
3.6228244 4.4062757 -0.63581854
4.158709 5.0580473 -0.36575648
9.8940458 12.033676 0
9.9655905 12.120691 0.87646896
3.6004617 4.3898787 -0.94652551
3.6174977 4.4106498 -0.63581854
4.1591854 5.071105 -0.36633706
9.8712482 12.035563 0
9.8702011 12.034286 0.86935782
3.5967851 4.3962183 -0.94695467
3.6105292 4.4130177 -0.63553053
4.1514049 5.07411 -0.36619151
9.8501062 12.039424 0
9.8161631 11.997937 0.86587447
3.5898426 4.3985667 -0.94652551
3.6035604 4.4153752 -0.63524252
4.1436296 5.0771112 -0.36604649
9.8306198 12.045275 0
10.268238 12.581479 0.90709186
3.5877697 4.4068866 -0.94738227
3.5949538 4.4157109 -0.63466537
4.1309295 5.0740542 -0.36546594
9.8045549 12.043015 0
10.279277 12.626119 0.90941411
3.5792024 4.4072289 -0.94652551
3.5879865 4.4180455 -0.63437736
4.1231589 5.0770268 -0.36532095
9.7850733 12.04879 0
10.280391 12.658697 0.91086525
3.5754952 4.4135513 -0.94695467
3.5793924 4.4183621 -0.63380134
4.1104789 5.0739288 -0.36474037
9.752492 12.038366 0
9.1103687 11.245737 0.80840206
3.5733836 4.4218574 -0.94780982
3.5772994 4.4267035 -0.63437736
4.0978117 5.0708079 -0.36415982
9.734664 12.046089 0
9.101675 11.262802 0.80883759
3.5696476 4.4281688 -0.94823736
3.5719481 4.4310226 -0.63437736
4.091682 5.0757556 -0.36415982
9.7168379 12.053795 0
9.0864305 11.27177 0.80869263
3.5675147 4.4364834 -0.94909412
3.5698361 4.4393706 -0.63495451
4.0871725 5.0827188 -0.36430481
9.6990013 12.061466 0
9.0711708 11.28071 0.80854708
3.5669656 4.4467926 -0.95037681
3.5709431 4.4517508 -0.63610768
4.0745244 5.079546 -0.36372426
5.2309194 6.5211768 0
9.0575342 11.291663 0.80854708
3.5744207 4.4671345 -0.9538005
3.5671756 4.4580803 -0.63639569
4.0765057 5.0946159 -0.36445037
5.2214117 6.5254622 0
5.1851768 6.4801784 0.46356851
3.5706263 4.4734621 -0.95422971
3.5650103 4.4664264 -0.63697171
4.0719662 5.1015663 -0.36459538
5.2037849 6.5195665 0
5.1708593 6.4783154 0.46298796
3.5700109 4.4837923 -0.9555124
3.5580015 4.468709 -0.6366837
4.0641823 5.1044521 -0.36445037
5.1683474 6.49124 0
5.1436052 6.460165 0.46124628
3.5582042 4.480062 -0.9538005
3.5590339 4.4811068 -0.63783687
4.0466976 5.0951138 -0.36343426
5.1362195 6.4669089 0
5.0970163 6.4175487 0.45776349
3.5511956 4.482348 -0.95337296
3.5536165 4.4854035 -0.63783687
4.0389261 5.0979652 -0.36328927
5.1041646 6.4425182 0
0 0 0
3.5473673 4.4886479 -0.9538005
3.5465922 4.4876671 -0.63754886
4.0230932 5.0906057 -0.36241814
5.0866914 6.4364257 0
5.0557141 6.3972292 0.45544127
3.5482981 4.5009947 -0.9555124
3.5443666 4.4960074 -0.63812488
4.0072904 5.0832233 -0.36154759
5.0547471 6.4119163 0
5.0415459 6.3951707 0.45486069
3.5412714 4.503263 -0.95508486
3.5373342 4.4982557 -0.63783687
3.9947202 5.0798917 -0.36096704
5.0325193 6.3996096 0
5.02739 6.3930874 0.45428014
3.5389996 4.5115819 -0.95594162
3.5414715 4.5147333 -0.63956606
3.9725387 5.0642657 -0.35951537
5.0135374 6.3913503 0
5.0116444 6.388937 0.45355457
3.5303786 4.5118074 -0.95508486
3.5376122 4.5210519 -0.63985521
3.9712222 5.0752034 -0.35995093
5.0009985 6.3912525 0
4.9911108 6.3786168 0.45239347
3.5233464 4.5140481 -0.95465726
3.5385125 4.5334787 -0.64100838
3.9506991 5.0615649 -0.35864481
4.986867 6.3890843 0
4.9754076 6.374403 0.4516679
3.5178895 4.5183024 -0.95465726
3.5330322 4.5377512 -0.64100838
3.9318097 5.0499325 -0.35748369
4.9727478 6.3868914 0
4.970891 6.3845067 0.45195791
3.5092752 4.5184908 -0.9538005
3.5259554 4.539968 -0.64071923
3.9209218 5.048521 -0.35704812
4.9634323 6.390842 0
4.958396 6.3843575 0.45152292
3.5049729 4.5185838 -0.95337296
3.5279694 4.5482306 -0.6415844
3.8939865 5.0200973 -0.35487145
4.961164 6.3958941 0
4.9545383 6.387352 0.45152292
3.5010798 4.5248437 -0.9538005
3.5193086 4.5484028 -0.64100838
3.8815575 5.0165782 -0.3542909
4.9486589 6.3957148 0
4.9420447 6.387167 0.45108736
3.489336 4.5209422 -0.95208865
3.5138102 4.5526519 -0.64100838
3.8659701 5.0089264 -0.35342035
4.9409275 6.4016895 0
4.9343233 6.3931336 0.45108736
3.4776068 4.5170188 -0.95037681
3.5146179 4.5650921 -0.64216155
3.859915 5.0135942 -0.35342035
4.9363608 6.4117756 0
4.9250116 6.3970342 0.45094234
3.4674602 4.5151157 -0.94909412
3.5106733 4.5713849 -0.64244956
3.852267 5.0161877 -0.35327479
4.9301934 6.4197974 0
4.9125285 6.3967957 0.45050681
3.4635615 4.521338 -0.94952166
3.5082898 4.5797262 -0.64302558
3.8462033 5.0208387 -0.35327479
4.9145207 6.415422 0
4.900054 6.3965368 0.45007125
3.4549816 4.5214438 -0.94866657
3.5074663 4.5901294 -0.64389074
3.8290944 5.0110359 -0.35225922
4.9020238 6.4151502 0
4.8970556 6.408649 0.45050681
3.4464006 4.5215282 -0.94780982
3.503484 4.5964193 -0.64417875
3.8183098 5.0094571 -0.35182366
4.8958507 6.4231443 0
4.883008 6.4062948 0.44992623
3.4409347 4.5256891 -0.94780982
3.5041893 4.6088848 -0.64533192
3.8106828 5.0120006 -0.35167867
4.8865066 6.4269776 0
4.878406 6.4163232 0.45021623
3.4323642 4.5257568 -0.94695467
3.4970562 4.6110568 -0.64504391
3.8077614 5.0207381 -0.35196868
4.8818855 6.4370284 0
4.8659434 6.416008 0.44978124
3.4237928 4.5258026 -0.94609791
3.4992831 4.6255908 -0.64648509
3.8063965 5.0315542 -0.35240421
4.8788157 6.449151 0
4.8644581 6.430172 0.45036179
3.4245069 4.5381327 -0.94780982
3.4890158 4.6236196 -0.64561993
3.7940536 5.027853 -0.35182366
4.8710198 6.4550414 0
4.8457274 6.421524 0.44934568
3.4035859 4.5217614 -0.94353098
3.4849865 4.6299043 -0.64590907
3.7895367 5.0345078 -0.35196868
4.8726044 6.4733939 0
4.8504658 6.4439831 0.45050681
3.3950341 4.5217609 -0.94267422
3.4840441 4.6403112 -0.6467731
3.7709694 5.0224595 -0.35080755
4.8600893 6.4730315 0
4.8426762 6.4498391 0.45050681
3.3794923 4.5237885 -0.94139153
3.4774656 4.6549354 -0.64763826
3.7432728 5.010745 -0.34935644
4.8553371 6.4993544 0
4.828629 6.4636025 0.45065179
3.3724854 4.525804 -0.94096231
3.4795644 4.6695018 -0.64907944
3.7356644 5.0131826 -0.34921142
4.8459268 6.5031314 0
4.8146048 6.4610982 0.45007125
3.3670144 4.5298758 -0.94096231
3.4739196 4.6737027 -0.64907944
3.7420049 5.0343766 -0.35037255
4.8365083 6.506887 0
4.8160982 6.4794278 0.45094234
3.3615384 4.5339408 -0.94096231
3.4728928 4.6841321 -0.6499446
3.7467477 5.0534997 -0.3513881
4.8332939 6.5190001 0
4.8113575 6.4894128 0.45123234
3.3484271 4.5276814 -0.93882293
3.4641573 4.6841698 -0.64936858
3.746819 5.06638 -0.35196868
4.8300576 6.5311151 0
4.8035131 6.4952216 0.45123234
3.3399088 4.5275965 -0.93796778
3.4646306 4.6966701 -0.65052062
3.7484057 5.081357 -0.35269421
4.8267984 6.5432315 0
4.8018312 6.5093856 0.45181292
3.3420413 4.541965 -0.94010723
3.4589531 4.7008529 -0.65052062
3.7453463 5.0900722 -0.35298479
4.8250585 6.5574436 0
4.8001223 6.5235543 0.45239347
3.3271353 4.5274348 -0.93668348
3.4637752 4.7133689 -0.65196294
3.7561176 5.1111765 -0.3542909
4.8257151 6.5666428 0
4.7961802 6.526453 0.45239347
3.3201463 4.5293832 -0.93625593
3.4550164 4.7133746 -0.65138578
3.9265924 5.3567042 -0.37098095
4.8162398 6.5703716 0
4.7975054 6.5448141 0.45326403
3.314671 4.5333915 -0.93625593
3.4493186 4.717546 -0.65138578
4.0888124 5.592165 -0.38694546
4.8175106 6.5887876 0
4.7895937 6.5506058 0.45326403
3.3031402 4.5290971 -0.93454403
3.4527633 4.7342525 -0.65311611
4.0606194 5.5677137 -0.3849138
4.8126159 6.5988131 0
4.7877994 6.564786 0.45384458
3.2901161 4.5227075 -0.93240464
3.4683392 4.7676992 -0.65715164
4.027904 5.5368967 -0.38244656
4.8046389 6.6046233 0
4.784451 6.5768723 0.45428014
3.295198 4.5412178 -0.93539917
3.5127025 4.8409677 -0.66666502
4.0273151 5.5501719 -0.38302711
4.8058228 6.6230583 0
4.7902336 6.6015744 0.45558625
3.2882047 4.5431185 -0.93497163
3.5644746 4.9248247 -0.67761958
4.8234544 6.6642828 -0.45951131
4.7993469 6.6309748 0
4.7913976 6.6199918 0.45645738
3.2721932 4.532517 -0.93197542
3.6130185 5.0046153 -0.68799698
4.8184433 6.6743236 -0.45980185
4.8004684 6.6494255 0
4.7940373 6.6405177 0.45747292
3.2682185 4.5385566 -0.93240464
3.6371973 5.0509558 -0.69376284
4.811892 6.6822476 -0.45994684
4.8000326 6.6657786 0
4.7875328 6.6484203 0.45761847
3.2597342 4.5383282 -0.93154788
3.6552339 5.0889587 -0.69837552
4.806849 6.6922817 -0.46023741
4.7904582 6.6694617 0
4.8098078 6.6964016 0.46052071
3.2497613 4.5360017 -0.93026358
3.6626379 5.1122928 -0.70096987
4.8169131 6.7234244 -0.46197852
4.8051267 6.7069731 0
8.7755013 12.248803 0.84163719
3.2427871 4.5378385 -0.92983598
3.6624734 5.1251321 -0.70212305
4.8118105 6.7334723 -0.4622691
4.7970195 6.7127743 0
8.6655207 12.126214 0.83249384
3.2343245 4.5375767 -0.92898089
3.6577778 5.1316581 -0.70241106
0 0 -0
0 0 0
8.6041117 12.071088 0.82799488
3.2273476 4.5393829 -0.92855167
3.6605639 5.1487179 -0.70414025
0 0 -0
0 0 0
8.5865116 12.077244 0.82770491
3.2203767 4.5411873 -0.92812413
3.6543403 5.1531372 -0.70414025
0 0 -0
0 0 0
8.562891 12.074888 0.82683378
3.217855 4.5492706 -0.92898089
3.6615579 5.1765594 -0.70673573
0 0 -0
0 0 0
7.5820003 10.719119 0.73336899
3.2167912 4.559442 -0.93026358
3.6687186 5.1999989 -0.70933008
0 0 -0
0 0 0
6.7017608 9.4989977 0.64933753
3.2127612 4.5654311 -0.93069273
3.6788023 5.2276897 -0.71250045
0 0 -0
0 0 0
6.6902785 9.5070887 0.64933753
3.2116625 4.5756073 -0.93197542
3.6858552 5.2511821 -0.7150948
0 0 -0
0 0 0
6.6772947 9.5130405 0.64919257
3.2061315 4.5794845 -0.93197542
3.7032418 5.2895331 -0.71970749
0 0 -0
0 0 0
6.6553617 9.5061998 0.64817643
3.2064745 4.591774 -0.93368727
3.7175825 5.3236966 -0.72374409
6.7049332 9.6016779 -0.65413374
0 0 0
6.6527996 9.5270214 0.64904755
3.205327 4.6019664 -0.93497163
3.7259269 5.3494043 -0.72662652
6.6725321 9.5799179 -0.65210146
6.6089697 9.4886599 0
6.63831 9.5307846 0.64875698
3.2098744 4.6144371 -0.93711102
3.72417 5.353776 -0.72691453
6.689002 9.6159458 -0.6542787
6.6686206 9.5866461 0
6.6384864 9.5433254 0.64933753
3.2145412 4.6330781 -0.94010723
3.725069 5.3688951 -0.72835571
6.6892281 9.6411009 -0.65543985
6.6377473 9.5669022 0
6.6358347 9.5641451 0.65020812
3.2162435 4.647511 -0.94224662
3.7185791 5.3733921 -0.72835571
6.6760964 9.6470413 -0.65529484
6.6350656 9.5877514 0
6.6346254 9.5871153 0.65122426
3.2193723 4.6640658 -0.94481361
3.70768 5.3715019 -0.72749162
6.6732888 9.6679277 -0.65616536
6.6500897 9.6343184 0
6.6422243 9.6229229 0.65311092
3.2181027 4.6742978 -0.94609791
3.6967852 5.3695846 -0.72662652
6.6704402 9.6888218 -0.65703595
6.6428666 9.6487713 0
6.6364861 9.6395035 0.65369147
3.234251 4.7099276 -0.95251787
3.6785815 5.3569903 -0.72432017
6.6616731 9.7011623 -0.65732652
6.6459384 9.6782484 0
6.6395402 9.668931 0.65514261
3.2343602 4.7223039 -0.95422971
3.6618736 5.3464913 -0.72230184
6.6660938 9.7327805 -0.65892261
6.6445293 9.7012959 0
6.6440053 9.700531 0.65673923
3.2431293 4.7474012 -0.95850855
3.6452019 5.3359685 -0.72028464
6.6587272 9.7472668 -0.6593582
6.640141 9.7200603 0
6.6425409 9.7235727 0.65775537
3.2431726 4.7598019 -0.96022046
3.6387517 5.3403687 -0.72028464
6.6615787 9.7767839 -0.66080987
6.6606336 9.7753963 0
6.6381011 9.7423267 0.65848094
3.2475207 4.7785816 -0.9632166
3.6366537 5.3511734 -0.72114867
6.6643634 9.8063126 -0.66226095
6.6649036 9.8071079 0
6.6423864 9.7739744 0.66007704
3.2388608 4.7782483 -0.96235985
0 0 -0
6.6583414 9.8229618 -0.6628415
6.641367 9.7979202 0
6.6407785 9.7970524 0.66109318
3.2373996 4.7885404 -0.96364421
3.6454425 5.3920894 -0.72547334
6.6610179 9.8525219 -0.66429263
6.6528454 9.8404341 0
6.6391249 9.8201399 0.66210926
3.2301774 4.7903218 -0.9632166
0 0 -0
6.6665411 9.8864164 -0.66603434
6.6656837 9.8851452 0
6.6359677 9.8410769 0.66297984
3.2215188 4.789957 -0.96235985
0 0 -0
6.6690893 9.9160223 -0.66748542
6.6595445 9.9018307 0
6.6400251 9.8728075 0.66457653
3.2143002 4.7917166 -0.9619323
0 0 -0
6.6672368 9.9391804 -0.66850156
6.6504774 9.914196 0
6.6396708 9.8980865 0.66573763
3.2113602 4.79986 -0.96278745
0 0 -0
6.665338 9.9623489 -0.66951764
6.6529622 9.9438515 0
6.6421528 9.9276953 0.66718876
3.2055581 4.8037367 -0.96278745
0 0 -0
6.667716 9.9920053 -0.67096877
6.6611633 9.9821854 0
6.6431317 9.955164 0.66849488
3.2011778 4.8097496 -0.9632166
3.6105559 5.4248376 -0.72633851
6.6628351 10.010868 -0.67169434
6.6692867 10.020562 0
6.6469359 9.9869804 0.67009151
3.2067163 4.8307161 -0.96663874
3.6025636 5.4270353 -0.72604936
6.6651077 10.040565 -0.67314601
6.6614881 10.035112 0
7.883626 11.876185 0.79621089
3.2107983 4.8495722 -0.96963489
0 0 -0
6.6630077 10.063771 -0.67416155
6.6479225 10.040986 0
7.8864837 11.911702 0.79795259
3.2091813 4.8598771 -0.97091919
0 0 -0
6.6436853 10.060975 -0.67343599
6.6300488 10.040324 0
7.9050193 11.971097 0.80129093
3.2118976 4.8703871 -0.9726311
0 0 -0
6.6218681 10.041123 -0.67183936
6.6153874 10.031297 0
7.9378352 12.0366 0.80535424
3.211653 4.882843 -0.97434294
0 0 -0
7.9404864 12.072334 -0.80710262
6.6490211 10.108852 0
7.9190059 12.039677 0.80491924
3.2156034 4.9017391 -0.97733748
3.5701671 5.4422221 -0.72547334
7.9258933 12.08192 -0.80710262
8.2027102 12.503889 0
7.8958979 12.036196 0.80404812
3.220922 4.9228058 -0.98076123
3.5621738 5.4443698 -0.72518533
7.8970652 12.069749 -0.80565149
8.0223141 12.261177 0
7.8955727 12.067468 0.80549926
3.220583 4.9352937 -0.98247308
3.5485265 5.4378419 -0.72374409
7.8696909 12.05969 -0.80434483
7.9164743 12.131383 0
7.9037066 12.111816 0.80782151
3.2258196 4.9563937 -0.98589683
0 0 -0
7.8366885 12.040881 -0.80245817
7.881938 12.110407 0
7.897573 12.134429 0.80869263
3.2477822 5.0033517 -0.99445617
3.5438221 5.459414 -0.72547334
7.8150611 12.039446 -0.8017326
0 0 0
7.8687549 12.122164 0.80724096
3.5498722 5.4832306 -0.7280677
7.790627 12.033618 -0.80071706
0 0 0
7.8357453 12.103309 0.80535424
3.5544684 5.504899 -0.73037404
7.7676215 12.029921 -0.79984593
7.8041062 12.086426 0
7.8084307 12.093123 0.80404812
3.5576181 5.5244141 -0.73239231
7.7516742 12.037115 -0.79970092
7.7824526 12.084908 0
7.7910018 12.098185 0.80375814
3.5537333 5.5330572 -0.73296839
7.734313 12.042095 -0.7994104
7.7664394 12.092115 0
7.7721639 12.101028 0.80332261
3.547045 5.5373468 -0.73296839
7.7085443 12.033928 -0.79824924
7.7279601 12.064239 0
7.7351112 12.075402 0.80100036
3.5403516 5.5416288 -0.73296839
7.6870046 12.032287 -0.79752368
7.6671419 12.001196 0
7.6827474 12.025623 0.79708201
3.5227864 5.5436172 -0.73210323
7.643971 12.028901 -0.7960726
7.5990343 11.958187 0
7.618824 11.989328 0.79345369
7.6196928 12.022763 -0.79505646
7.5831876 11.965164 0
7.5820756 11.963409 0.79113144
7.6051598 12.031961 -0.79505646
7.5548224 11.952324 0
8.1201448 12.846708 0.84889388
7.5878472 12.03675 -0.79476649
7.5292721 11.94383 0
8.0741339 12.808155 0.8457011
7.5760612 12.050305 -0.79505646
7.5203753 11.961733 0
7.7751479 12.366968 0.81594932
7.5642586 12.063858 -0.79534703
7.4962378 11.955375 0
7.7436352 12.349936 0.81420761
7.5510526 12.07519 -0.79549205
7.4666066 11.940149 0
7.7287068 12.359283 0.81420761
7.5423808 12.077548 -0.79534703
7.4070158 11.860788 0
7.7060971 12.339705 0.81261098
7.5291543 12.088856 -0.79549205
7.3692856 11.83217 0
7.6060138 12.212261 0.80361259
7.5049434 12.082491 -0.79447591
7.3508677 11.834439 0
7.5240774 12.113296 0.79650146
7.4848652 12.082715 -0.79389536
7.3434138 11.854372 0
7.4793334 12.073786 0.79330868
7.452507 12.063014 -0.7920087
7.3345561 11.872093 0
7.4374251 12.038602 0.79040587
7.4420161 12.07865 -0.79244423
7.3215694 11.883161 0
7.4242353 12.04979 0.79055089
6.7499895 10.985166 -0.72016841
0 0 0
7.4083109 12.05654 0.79040587
6.7367115 10.993314 -0.72016841
6.7067862 10.944481 0
7.3883066 12.056621 0.78982532
6.7220693 10.99923 -0.72002339
6.7342682 11.019192 0
7.3574734 12.038933 0.78808367
6.7182417 11.022879 -0.72103953
6.7493906 11.073986 0
7.3294005 12.025631 0.78663254
6.7076144 11.035425 -0.72132951
6.6684198 10.970942 0
7.3202629 12.04336 0.78721309
6.6969719 11.04797 -0.72162008
6.6848407 11.027958 0
7.3501492 12.125514 0.79200196
6.6809268 11.051602 -0.72132951
6.6701608 11.033793 0
7.3502808 12.158849 0.79359865
6.6246424 10.988465 -0.71668559
0 0 0
7.3100972 12.125447 0.79084146
6.6662483 11.087756 -0.72263563
6.6635928 11.083339 0
7.2673254 12.087507 0.78779364
6.6755605 11.133686 -0.72510284
6.6675925 11.120397 0
7.240685 12.076216 0.78648698
6.6767726 11.166278 -0.72669953
6.6648355 11.146315 0
7.2300897 12.091649 0.78692251
6.6699281 11.185494 -0.7274251
6.6553626 11.161067 0
7.2154737 12.100376 0.78692251
0 0 -0
6.6485214 11.180283 0
7.2154584 12.133656 0.7885192
6.6693864 11.24628 -0.7303279
6.6549158 11.221879 0
7.2286243 12.189298 0.79156697
6.6676955 11.274458 -0.73163402
0 0 0
7.2456307 12.251693 0.79504979
6.6725454 11.313836 -0.7336657
6.6634746 11.298456 0
7.2466621 12.287297 0.79679143
6.654922 11.315178 -0.73323071
6.6656499 11.333419 0
7.2581563 12.34084 0.79969424
6.6665053 11.35056 -0.73526233
6.6601186 11.339685 0
7.2309585 12.311612 0.797517
6.6646037 11.378784 -0.73656845
6.6595621 11.370177 0
7.1714292 12.244111 0.79258257
6.665267 11.411512 -0.73816514
6.6615696 11.405183 0
7.1225576 12.194434 0.78880918
6.6671624 11.446493 -0.73990625
6.6661196 11.444703 0
7.0908175 12.173843 0.78692251
6.6650763 11.47477 -0.74121296
6.661437 11.468504 0
7.0669703 12.166681 0.78590697
6.6707387 11.516536 -0.74338961
6.6697488 11.514827 0
7.0444474 12.161716 0.78503585
6.664619 11.538092 -0.74426073
6.6714511 11.54992 0
7.0323491 12.174724 0.78532642
6.6649351 11.570898 -0.74585682
6.6652818 11.571499 0
7.0344925 12.212481 0.78721309
6.6509495 11.578942 -0.74585682
6.6681452 11.608879 0
7.0339637 12.24575 0.78880918
6.6563277 11.620794 -0.74803406
6.670928 11.646283 0
7.0269136 12.267774 0.7896803
6.6525917 11.646879 -0.74919516
6.6800876 11.695017 0
7.0146604 12.280764 0.78997034
6.651372 11.677484 -0.75064629
6.6698117 11.709858 0
6.9985313 12.286974 0.78982532
6.6577902 11.721663 -0.75296855
6.6723661 11.747324 0
6.9875312 12.302202 0.79026085
6.6679497 11.772651 -0.75572574
0 0 0
6.9713769 12.308369 0.7901153
6.6677775 11.805589 -0.75732243
0 0 0
6.9718342 12.343934 0.791857
6.6637092 11.831749 -0.75848353
6.6552815 11.816786 0
6.97859 12.390836 0.79432422
6.6646767 11.86698 -0.76022524
6.6499205 11.840705 0
6.9890609 12.444571 0.79722703
6.6579485 11.888622 -0.76109576
6.6432357 11.862351 0
6.9689403 12.443938 0.79664648
6.6562452 11.919341 -0.7625469
6.6415892 11.893096 0
6.9500971 12.445541 0.79621089
6.6544824 11.950081 -0.76399857
6.6386075 11.921574 0
6.9350538 12.45393 0.79621089
6.6526499 11.980826 -0.7654497
6.6444125 11.965991 0
6.9187407 12.460032 0.79606587
6.6570501 12.022957 -0.76762694
6.6463361 12.003607 0
6.8936105 12.450196 0.79490477
6.6636119 12.051984 -0.76922303
6.6529312 12.032666 0
6.882319 12.447543 0.79446977
6.6628461 12.08506 -0.77081972
6.6471839 12.056652 0
6.8609972 12.444466 0.79374367
6.6620054 12.118142 -0.77241582
6.6526713 12.101164 0
6.8384471 12.439089 0.79287308
6.6623468 12.153526 -0.77415752
6.6543064 12.138859 0
6.8196635 12.440505 0.79243755
6.6700878 12.202604 -0.77676976
6.6471214 12.160588 0
6.8046265 12.448736 0.79243755
6.6640444 12.226627 -0.77778584
6.6473684 12.196033 0
6.7821207 12.443264 0.79156697
6.6554689 12.246084 -0.7785114
6.6475401 12.231495 0
6.7621174 12.442318 0.79098642
6.6555233 12.281531 -0.78025311
6.6488743 12.269261 0
6.7445998 12.445906 0.79069585
6.6604433 12.326141 -0.78257531
6.6525989 12.311625 0
6.7233815 12.442618 0.78997034
6.6591034 12.359345 -0.784172
6.6537685 12.349444 0
6.7034121 12.441583 0.78938979
6.658917 12.394842 -0.78591311
6.6499257 12.378106 0
6.6822262 12.438231 0.78866422
6.649754 12.44986 -0.78838032
6.6469655 12.444638 0
6.6582685 12.4658 0.78938979
6.6554694 12.496873 -0.79084754
6.6417103 12.471038 0
6.662744 12.510532 0.79171199
6.6574283 12.537039 -0.79287982
6.6534867 12.529617 0
6.6622467 12.546113 0.79345369
6.6592951 12.577219 -0.79491144
6.6505179 12.560643 0
6.6689658 12.595485 0.79606587
6.662291 12.619727 -0.79708868
6.6559901 12.607792 0
6.6658707 12.626509 0.797517
6.6603479 12.653054 -0.79868484
6.6540866 12.64116 0
6.6736069 12.678244 0.80027479
6.6667881 12.702503 -0.80129707
6.6557374 12.681448 0
6.6679435 12.704704 0.80143589
6.6610727 12.728968 -0.80245817
6.656095 12.719455 0
6.6610217 12.72887 0.80245203
6.6637187 12.771564 -0.80463541
6.6491494 12.743642 0
6.6648641 12.77376 0.80477369
6.6662664 12.814178 -0.80681205
6.6493592 12.781678 0
6.6626172 12.807163 0.80637038
6.6687255 12.856826 -0.80898929
6.6518855 12.824359 0
6.6650801 12.849797 0.80854708
6.6710916 12.899497 -0.81116652
6.6495318 12.857809 0
6.6650696 12.887853 0.81043428
6.6775994 12.931222 -0.81290764
6.6620612 12.901132 0
6.6703935 12.917267 0.81203038
6.6893282 12.992418 -0.81624597
6.6965008 13.006349 0
6.6595383 12.934558 0.81261098
6.7246475 13.099886 -0.82248658
6.760407 13.169547 0
6.6462803 12.947224 0.8129015
6.758534 13.205148 -0.82858217
0 0 0
6.6247082 12.943672 0.81217539
0 0 -0
0 0 0
6.6090636 12.951668 0.81217539
0 0 -0
6.7421255 13.251953 0
6.5910549 12.955016 0.81188542
3.7973239 7.4861798 -0.93562716
6.7259021 13.259684 -0.83046883
6.7213988 13.250806 0
6.5742221 12.960656 0.8117404
3.7836065 7.4815302 -0.93447399
6.7098756 13.2678 -0.83046883
6.6983385 13.244987 0
6.5597286 12.970907 0.81188542
3.7640846 7.465313 -0.93187964
6.6950078 13.278216 -0.83061385
6.6799836 13.24842 0
6.5405402 12.971861 0.81144983
3.7492542 7.4583035 -0.9304384
6.6812954 13.290944 -0.83090436
6.6721539 13.27276 0
8.2601986 16.43182 1.0272613
3.7379239 7.4582081 -0.92986238
6.6733775 13.315262 -0.83191997
6.6701045 13.308732 0
8.2415018 16.444111 1.0274062
3.7242849 7.453464 -0.92870921
6.6712208 13.351209 -0.83366162
6.6691399 13.347044 0
8.2274323 16.465675 1.0281318
3.707202 7.441751 -0.92669088
6.6724644 13.39415 -0.83583885
6.6738939 13.397018 0
8.1982613 16.456999 1.0269706
3.7051082 7.4601192 -0.92842013
6.6747689 13.439438 -0.83816111
6.6715927 13.433043 0
8.1760607 16.462242 1.0266807
3.7018332 7.4761872 -0.92986238
6.675817 13.482416 -0.84033775
6.6703682 13.471412 0
8.1469393 16.453482 1.0255196
3.6916487 7.4783287 -0.9295733
6.6675735 13.506785 -0.84135389
6.6725178 13.5168 0
8.1167021 16.442345 1.0242134
3.691747 7.501349 -0.93187964
6.6684561 13.549796 -0.84353054
6.6676698 13.548199 0
8.0922394 16.442814 1.0236329
3.68838 7.5174212 -0.93332189
6.6635265 13.581176 -0.84498221
6.6696362 13.593628 0
8.0471869 16.401264 1.0204401
3.6815648 7.526515 -0.93389791
3.7894599 7.7470937 -0.48171693
6.6726451 13.641418 0
8.0079546 16.371296 1.0179728
3.6736004 7.5332804 -0.93418598
3.778954 7.7493243 -0.48157138
6.6744084 13.686897 0
7.9688067 16.341259 1.0155057
0 0 -0
3.760499 7.7351894 -0.48041028
6.6749306 13.730054 0
7.9399667 16.33218 1.0143445
3.6429791 7.5165401 -0.93101555
3.739819 7.7163491 -0.47895914
6.6708221 13.763873 0
7.9077597 16.316038 1.0127479
3.6248922 7.502305 -0.92870921
3.7191904 7.6974702 -0.47750804
6.6711664 13.807066 0
7.8812585 16.311548 1.0118773
3.599005 7.4602299 -0.92323142
3.7100229 7.6903543 -0.47692749
6.6662173 13.818128 0
7.8725305 16.318645 1.0120223
3.5675676 7.4179549 -0.91746557
3.6928434 7.6784377 -0.47591135
7.7232852 16.058834 0
7.8359122 16.293018 1.009845
3.5597234 7.4245992 -0.91775465
3.6903052 7.6969571 -0.47678247
7.7207537 16.103357 0
7.796001 16.260303 1.0072328
3.544055 7.4148884 -0.91602439
3.6776397 7.6943746 -0.47634691
7.7125111 16.13615 0
7.7741089 16.265026 1.0069429
0 0 -0
3.6582813 7.6777034 -0.47504079
7.7265897 16.215937 0
7.7600374 16.286135 1.0076684
0 0 -0
3.6523433 7.6891527 -0.47547579
7.7594681 16.335741 0
7.7370076 16.288456 1.0072328
0 0 -0
3.6363795 7.6794739 -0.47460523
7.7497468 16.366272 0
7.7128725 16.288399 1.0066522
0 0 -0
3.6215527 7.6721153 -0.47387969
7.738853 16.394451 0
7.6898608 16.290665 1.0062172
0 0 -0
3.6111746 7.6741366 -0.47373468
7.7234702 16.41321 0
7.6657457 16.290539 1.0056367
0 0 -0
3.6063135 7.6879044 -0.47431526
7.7091575 16.434309 0
7.6394329 16.285671 1.0047656
0 0 -0
3.6058226 7.7110777 -0.47547579
7.6804795 16.424761 0
7.6120477 16.278419 1.0037501
0 0 -0
3.6030917 7.7295647 -0.47634691
7.6606278 16.434029 0
7.5901752 16.28289 1.0034595
0 0 -0
3.6112692 7.771616 -0.47866914
7.6276045 16.414951 0
7.5617352 16.273197 1.0022984
0 0 -0
3.5942302 7.7594671 -0.47765303
7.5924487 16.391092 0
7.5322385 16.261105 1.0009922
0 0 -0
3.5870283 7.768518 -0.47794303
7.4711809 16.180527 0
7.5376391 16.324455 1.0043306
3.4523954 7.5007405 -0.920349
3.579814 7.7775717 -0.47823361
7.3830752 16.040609 0
7.6287193 16.574301 1.0191339
3.4584281 7.5378141 -0.92438459
3.5779996 7.7984262 -0.47924972
7.3495803 16.01877 0
7.6476922 16.66852 1.0243584
3.569654 7.8051043 -0.4793947
7.3248081 16.015808 0
7.6394348 16.703745 1.0259551
3.5591435 7.8070498 -0.47924972
7.3043723 16.022282 0
7.6235576 16.72242 1.0265356
3.5540078 7.8208075 -0.47983027
7.2796249 16.019251 0
6.6670532 14.67125 0.90012574
3.5488398 7.8345547 -0.48041028
7.257041 16.020922 0
6.6536093 14.688764 0.90070629
3.5623114 7.8769531 -0.48287806
7.2441425 16.018187 0
6.6725707 14.754333 0.90447962
7.1577258 15.878176 -0.97284329
7.2162261 16.007948 0
6.7465687 14.966095 0.91696078
7.1427951 15.896294 -0.97342384
7.1936812 16.009541 0
6.7795963 15.087995 0.92392695
3.6410017 8.1293106 -0.49753588
7.1711392 16.011093 0
6.7602997 15.093806 0.92378193
3.6385922 8.1503153 -0.49855199
7.1496677 16.014999 0
6.7124009 15.035537 0.91971862
3.6224051 8.1404667 -0.49768144
7.1271367 16.016491 0
6.6604238 14.967668 0.91507411
3.6115098 8.1424561 -0.49753588
7.1056662 16.020329 0
6.6391716 14.968576 0.91463858
3.6117313 8.1963406 -0.50029367
7.0616841 16.025547 0
6.6585112 15.1106 0.9223308
3.6028688 8.2030754 -0.50043869
7.0339432 16.015005 0
6.6653261 15.175733 0.92581415
7.0002666 15.990782 -0.97502053
7.0135441 16.021112 0
6.6542759 15.200431 0.92682976
6.9788594 15.99446 -0.97472996
6.9889779 16.017651 0
6.6369424 15.210839 0.92697471
0 0 -0
6.9623523 16.009375 0
6.6320329 15.249832 0.92886198
0 0 -0
6.9409347 16.013004 0
6.6363344 15.31028 0.93205476
0 0 -0
6.9195151 16.016598 0
6.6415296 15.373144 0.93539256
0 0 -0
6.900157 16.024946 0
6.6393914 15.419344 0.93771476
0 0 -0
6.875658 16.021317 0
6.6463733 15.487048 0.94134313
6.8494368 16.013578 -0.97284329
6.8542495 16.024832 0
6.6491137 15.545237 0.94439089
6.8280463 16.017067 -0.97255325
6.8318191 16.025917 0
6.6323614 15.558036 0.94468093
6.8046236 16.015739 -0.9719727
6.805325 16.017391 0
6.6105127 15.55887 0.94424593
0 0 -0
6.7822261 16.016769 -0.97153717
6.7839384 16.020815 0
7.1519794 16.889973 1.0245035
6.7608452 16.020161 -0.9712466
6.761539 16.021805 0
7.1325793 16.901003 1.024649
6.7471299 16.014664 -0.97066605
6.7478161 16.016293 0
7.1142964 16.886152 1.0234879
6.7287831 16.025208 -0.97081161
6.7294655 16.026833 0
7.0818157 16.865986 1.0217462
6.7144294 16.045309 -0.97153717
6.716125 16.04936 0
7.0584211 16.867338 1.0213107
6.7170391 16.106167 -0.97472996
6.7167625 16.105503 0
6.9910293 16.763144 1.0144895
3.2604046 7.8444905 -0.9468708
6.7205114 16.169462 -0.97806829
6.7192698 16.166473 0
6.7653384 16.277315 0.9845922
3.2350869 7.8101907 -0.94225812
6.7168751 16.215971 -0.98038995
6.7057042 16.189003 0
6.7496433 16.29508 0.98517275
3.2226858 7.8069191 -0.94139296
6.7151251 16.267313 -0.98300272
6.7189074 16.276476 0
6.7408562 16.329647 0.98676938
3.2152202 7.8155961 -0.94197011
6.7201738 16.33548 -0.98663056
6.7150774 16.323092 0
6.7280407 16.354603 0.98778552
3.1930203 7.7883663 -0.93822259
6.7270451 16.408504 -0.99054945
6.7220011 16.396202 0
6.7161565 16.381945 0.98894608
3.1875167 7.8017874 -0.93937469
6.7258835 16.462318 -0.9933067
6.7238374 16.45731 0
6.7042193 16.409292 0.99010718
3.1771128 7.8032398 -0.93908668
6.7226439 16.511343 -0.99577391
6.7196488 16.503988 0
6.710844 16.482363 0.99402612
3.1696286 7.8118711 -0.93966377
6.7251592 16.574835 -0.99911225
6.722208 16.567564 0
6.7319536 16.591581 1.0001217
3.1572776 7.8084993 -0.93879861
6.7490077 16.691475 0
6.7596245 16.717731 1.0072328
3.143008 7.8003154 -0.93735743
6.7716274 16.80582 0
5.3624272 13.30847 0.80143589
3.1335804 7.8041077 -0.93735743
6.7658625 16.85022 0
5.3453755 13.312531 0.80129093
3.1231885 7.8054891 -0.93706942
6.7445316 16.855968 0
5.3418341 13.350339 0.8031776
3.1175866 7.8188672 -0.93822259
6.7231927 16.861681 0
5.3382092 13.38816 0.80506426
3.1024046 7.8082018 -0.93649226
6.7018538 16.867376 0
5.3364172 13.430815 0.80724096
3.0948739 7.8167591 -0.93706942
6.5809016 16.62146 -0.9985317
6.6948786 16.909334 0
5.3402715 13.487987 0.81028873
3.0844746 7.8180799 -0.93678033
6.4921551 16.455376 -0.98808223
6.6887698 16.953726 0
6.6914086 16.960415 1.0184078
3.0750258 7.8218012 -0.93678033
6.4427981 16.388248 -0.98358333
6.6863723 17.007818 0
6.6756668 16.980585 1.0191339
3.0636873 7.8206992 -0.93620425
6.4078269 16.357311 -0.98126107
6.6620197 17.006191 0
6.6835761 17.061218 1.0234879
3.0561144 7.8292093 -0.93678033
6.3748274 16.331148 -0.97922885
6.6367321 17.0021 0
6.6742945 17.098328 1.0252296
3.0448132 7.8141913 -0.93476307
6.3649597 16.334997 -0.97922885
6.5338669 16.768478 0
6.6479263 17.061201 1.0227623
3.0344303 7.8154469 -0.93447399
6.3461609 16.345106 -0.97937441
6.7782745 17.458054 0
6.5896873 16.97233 1.0169567
3.0212553 7.8094678 -0.93332189
6.3282795 16.357603 -0.97966439
6.7825255 17.531757 0
6.5494871 16.92939 1.013909
3.0043743 7.7938056 -0.93101555
6.2944932 16.328876 -0.97748774
6.7604017 17.537514 0
6.5224833 16.920317 1.0128928
0 0 -0
6.2756891 16.338894 -0.9776327
6.7298727 17.52137 0
6.5197363 16.974276 1.0156506
0 0 -0
6.2531552 16.339182 -0.97719717
6.6956758 17.495466 0
6.5633016 17.149578 1.0256646
0 0 -0
6.2352614 16.351587 -0.97748774
6.6782403 17.513271 0
6.5851607 17.269176 1.0323406
2.9657488 7.8058105 -0.93072647
6.2191906 16.368824 -0.97806829
6.7190013 17.684319 0
6.5569067 17.257689 1.0311795
2.9535704 7.8021383 -0.92986238
6.1948051 16.36417 -0.97734219
6.7317185 17.782478 0
6.5185728 17.219433 1.0284224
2.9505279 7.8226352 -0.93187964
6.1750278 16.371643 -0.97734219
6.0792847 16.117804 0
6.4849215 17.193254 1.0263901
2.9419861 7.8286223 -0.93216872
6.1634669 16.400982 -0.9786483
6.0561433 16.115393 0
6.4641423 17.201078 1.0263901
2.9343367 7.8370113 -0.93274474
6.1609578 16.454655 -0.98140609
6.0403166 16.132446 0
6.4469981 17.218609 1.0269706
2.9203458 7.8284369 -0.93130356
6.1619568 16.518076 -0.98474389
6.0308261 16.166559 0
6.4352717 17.250738 1.0284224
2.9135888 7.8392358 -0.93216872
6.1519523 16.552303 -0.98634052
6.7338624 18.117977 0
6.414423 17.258501 1.0284224
2.9041142 7.8427505 -0.93216872
6.1337504 16.564594 -0.98663056
6.1480756 16.603279 0
6.3827367 17.236998 1.0266807
2.8964245 7.8511024 -0.93274474
6.1092348 16.559807 -0.98590499
6.1451216 16.65708 0
6.3349252 17.171566 1.0223267
2.8869359 7.8545961 -0.93274474
6.1321726 16.684036 0
6.298934 17.137749 1.0198596
2.8783317 7.8605051 -0.93303281
6.1155882 16.701208 0
6.2871547 17.169743 1.0213107
2.8723772 7.8736968 -0.93418598
6.0936217 16.703701 0
6.2664037 17.177328 1.0213107
2.8699293 7.8966093 -0.93649226
6.0734339 16.71105 0
6.2420936 17.175117 1.0207301
2.8691895 7.924386 -0.93937469
6.0585518 16.733055 0
6.2142591 17.163101 1.0195689
2.8692667 7.9546132 -0.94254613
6.0321465 16.723225 0
6.1882281 17.155937 1.0186985
2.8705943 7.9733825 -0.94456446
6.0290947 16.746454 0
6.1769829 17.15723 1.0185534
2.8592098 7.971971 -0.94398737
6.0088553 16.753727 0
6.1571236 17.167124 1.0186985
2.8539257 7.9875965 -0.94542855
5.9798527 16.736473 0
6.1293817 17.154976 1.0175374
2.8442721 7.9910388 -0.94542855
5.9509006 16.719172 0
6.1077781 17.159924 1.0173923
2.8283982 8.0076447 -0.94658172
5.7726707 16.343348 0
6.073215 17.194235 1.0185534
2.817863 8.0086184 -0.94629365
5.7641473 16.382223 0
6.0593343 17.22117 1.0197145
2.8056166 8.0046921 -0.94542855
5.8002977 16.548805 0
6.0342216 17.216211 1.0189884
2.7925322 7.9983091 -0.94427538
5.8377714 16.720417 0
6.0262632 17.26029 1.0211656
2.7871163 8.0138988 -0.94571763
5.8406467 16.793829 0
6.0275941 17.331366 1.0249389
2.7799685 8.0245857 -0.94658172
5.8424983 16.864805 0
6.0168552 17.368099 1.0266807
2.7728024 8.0352764 -0.94744682
5.8492794 16.950567 0
5.9933209 17.367985 1.0262451
2.7689774 8.0557451 -0.94946516
5.8668613 17.068373 0
5.9571285 17.330988 1.0236329
2.7600787 8.0615301 -0.94975317
5.8470755 17.077909 0
5.9193497 17.289005 1.0207301
2.7653615 8.1089191 -0.95494193
5.6147637 16.464273 0
5.8992929 17.298601 1.0208751
2.7638819 8.1367502 -0.95782536
5.580637 16.429155 0
5.8792248 17.308186 1.0210207
2.7656517 8.1743793 -0.9618609
5.5516062 16.408768 0
5.8608027 17.322653 1.0214556
5.8085127 17.236679 0
5.8481669 17.354351 1.0229074
5.8017583 17.285625 0
5.8453817 17.415594 1.0261002
5.6711459 16.964405 -0.99911225
5.7866416 17.309893 0
5.8441062 17.481791 1.0295835
2.7947426 8.3937807 -0.98607635
5.6342263 16.921938 -0.99620944
5.7870989 17.381077 0
5.8311853 17.513489 1.0310346
2.7937481 8.4077377 -0.98751754
5.4655862 16.448589 0
5.8238811 17.526871 1.0316151
2.7819602 8.4061918 -0.98694044
5.4816813 16.563883 0
5.7994337 17.524029 1.0310346
2.7758515 8.4218359 -0.9883827
5.4991369 16.684189 0
5.3683186 16.287291 0.95788819
2.7640584 8.4202642 -0.98780555
5.6826987 17.311438 0
5.3494444 16.296232 0.9580332
2.7554913 8.4285202 -0.9883827
5.499342 16.821434 -0.98851776
5.6690545 17.340553 0
5.3240967 16.285393 0.95701706
2.7412989 8.4195395 -0.98694044
5.4645309 16.783588 -0.98590499
5.6585712 17.379559 0
5.305222 16.294292 0.95716262
2.7279356 8.4130135 -0.98578835
5.4338288 16.758049 -0.98401833
5.6552258 17.440842 0
5.2815199 16.288324 0.95643651
2.7153828 8.4089165 -0.98492318
5.398407 16.717627 -0.98126107
5.6885262 17.61606 0
5.2674251 16.312006 0.95745265
2.6973004 8.3875637 -0.98203975
5.3678627 16.691982 -0.97937441
