# .PCD v0.7 - Point Cloud Data file format
VERSION 0.7
FIELDS x y z
SIZE 4 4 4
TYPE F F F
COUNT 1 1 1
WIDTH 1577
HEIGHT 1
VIEWPOINT 0 0 0 1 0 0 0
POINTS 1577
DATA ascii
-0.77506346 1.8937819 -0.34113884
-0.76504248 1.8692968 -0.22512841
-0.77210677 1.8865576 -0.11385962
-5.2516365 12.831794 0
-5.2628379 12.859162 0.77609044
-0.81834751 1.9926698 -0.47721165
-0.77637684 1.8904716 -0.3407113
-0.76926386 1.8731515 -0.22570443
-0.78524506 1.9120656 -0.11545629
-5.2621951 12.813404 0
-5.2793579 12.855195 0.77623546
-0.8236599 1.9987296 -0.47890085
-0.78159195 1.8966457 -0.34199396
-0.76660025 1.8602661 -0.22426325
-0.77765644 1.8870956 -0.11400518
-5.2846122 12.823873 0
-4.8870173 11.859052 0.71644133
-0.84063572 2.0329473 -0.48734251
-0.78879064 1.907568 -0.34413502
-0.76786005 1.8569505 -0.22397524
-0.78688377 1.9029564 -0.11502073
-5.2981162 12.812673 0
-4.9063067 11.865142 0.7171669
-0.83140993 2.0037763 -0.48059005
-0.77830642 1.8757918 -0.33857188
-0.77307415 1.8631815 -0.22483929
-0.7842043 1.8900062 -0.11429518
-5.3106008 12.799048 0
-4.8927565 11.792004 0.713103
-0.84066397 2.0191834 -0.48452863
-0.78649056 1.8890648 -0.34113884
-0.7733385 1.8574749 -0.22426325
-0.78848684 1.8938596 -0.11458573
-5.3220611 12.783011 0
-4.8650565 11.685336 0.70700741
-0.8352676 1.9994099 -0.48002556
-0.78679156 1.8833711 -0.34028208
-0.77358639 1.8517615 -0.22368611
-0.78376222 1.8761197 -0.11356962
-5.3324881 12.764567 0
-4.8240852 11.547585 0.69902515
-0.84455979 2.0148048 -0.48396629
-0.79601443 1.8989937 -0.34327826
-0.77782506 1.8556007 -0.22426325
-0.79306126 1.8919486 -0.11458573
-5.3529367 12.770113 0
-4.7998648 11.450688 0.69351017
-0.84305322 2.0044143 -0.48171476
-0.79233879 1.8838373 -0.3407113
-0.7840777 1.8641962 -0.22541642
-0.79131705 1.8814081 -0.11400518
-5.3602915 12.744444 0
-4.7643385 11.327527 0.68639898
-0.85535204 2.0267994 -0.48734251
-0.79660875 1.8876042 -0.34156641
-0.79236174 1.8775407 -0.22714563
-0.78550726 1.8612987 -0.11284406
-5.3807487 12.749953 0
-4.7487235 11.252338 0.68219012
-0.84591502 1.997696 -0.48059005
-0.79888898 1.8866403 -0.34156641
-0.78151971 1.8456215 -0.2233981
-0.79484522 1.8770907 -0.11385962
-5.3961506 12.743443 0
-4.7288818 11.167633 0.67740065
-0.85031348 2.0013452 -0.48171476
-0.8031776 1.8904035 -0.34242317
-0.78880537 1.8565761 -0.22483929
-0.78796881 1.8546072 -0.1125535
-5.4217196 12.760861 0
-4.7281485 11.128434 0.67536896
-0.85372657 2.0026515 -0.4822771
-0.79941916 1.8752584 -0.33985454
-0.78699088 1.8461044 -0.22368611
-0.79224908 1.858439 -0.11284406
-5.4350915 12.749508 0
-4.726306 11.086856 0.67319173
-0.86114097 2.0132968 -0.48509097
-0.80875218 1.890815 -0.34285071
-0.79024106 1.847537 -0.22397524
-0.795515 1.8598672 -0.11298906
-5.4607296 12.766864 0
-4.7305031 11.059637 0.67188561
-0.85355431 1.9889098 -0.47946319
-0.80900955 1.8851138 -0.34199396
-0.7924729 1.8465809 -0.22397524
-0.79058737 1.8421874 -0.11197294
-5.4720464 12.75069 0
-4.73874 11.041976 0.67116004
-0.86198431 2.0018749 -0.48283944
-0.80722582 1.8747038 -0.34028208
-0.80186099 1.8622445 -0.22599246
-0.79589665 1.8483928 -0.1124085
-5.4864211 12.741681 0
-4.7469416 11.024312 0.67043453
-0.86641985 2.0055015 -0.48396629
-0.81661803 1.8902252 -0.34327826
-0.79898262 1.8494046 -0.22455126
-0.79709995 1.8450468 -0.1122635
-5.5069723 12.746985 0
-4.7581959 11.013793 0.67014396
-0.87591714 2.0207746 -0.48790702
-0.81686145 1.884531 -0.34242317
-0.79607445 1.8365744 -0.22311008
-0.7951951 1.8345459 -0.11168294
-5.5254765 12.747488 0
-4.7663341 10.996117 0.66941839
-0.87734193 2.0173779 -0.48734251
-0.82220632 1.8905981 -0.34370583
-0.80551457 1.8522167 -0.22512841
-0.79326606 1.8240522 -0.11110239
-5.5336089 12.724093 0
-4.7682171 10.964136 0.66782171
-0.89400697 2.0489249 -0.49522397
-0.82449019 1.8896033 -0.34370583
-0.79326868 1.8180485 -0.22109176
-0.79650766 1.8254716 -0.11124738
-5.5541825 12.729322 0
-4.778347 10.951228 0.66738671
-0.88017863 2.010601 -0.48621783
-0.81853712 1.8697927 -0.34028208
-0.79754138 1.8218319 -0.2216689
-0.80183995 1.8316512 -0.11168294
-5.5685167 12.720221 0
-4.7801127 10.919261 0.66579002
-0.89384794 2.0351288 -0.49241009
-0.83008945 1.8899623 -0.34413502
-0.81118029 1.8469096 -0.22483929
-0.80196071 1.8259183 -0.11139239
-5.5838828 12.713483 0
-4.7943468 10.915854 0.66593504
-0.89527875 2.0317154 -0.49184558
-0.82615966 1.8748587 -0.34156641
-0.80507159 1.8270023 -0.22253405
-0.79997522 1.8154366 -0.11081183
-5.6034379 12.716252 0
-4.8043928 10.902926 0.66550004
-0.90368903 2.0474482 -0.49578631
-0.8355847 1.8931472 -0.34499013
-0.80512786 1.8241425 -0.22224493
-0.80422056 1.8220868 -0.11124738
-5.6132193 12.717622 0
-4.7994361 10.87387 0.66390336
-1.5604435 3.5238953 -0.85376155
-0.83475238 1.8850923 -0.34370583
-0.80523884 1.8184428 -0.2216689
-0.80642158 1.8211138 -0.11124738
-5.6264763 12.706076 0
-4.8083634 10.85856 0.66332281
-1.5564475 3.5034306 -0.84925848
-0.84953636 1.9122339 -0.34884143
-0.80848461 1.8198299 -0.22195691
-0.80756754 1.8177657 -0.11110239
-5.6471071 12.711158 0
-4.8119864 10.831371 0.66201669
-0 0 -0
-0.85184628 1.911206 -0.34884143
-0.81699872 1.8330219 -0.22368611
-0.80341429 1.8025438 -0.11023127
-5.6656418 12.711458 0
-4.8123765 10.797069 0.66027504
-0 0 -0
-0 0 -0
-0.8426311 1.8844042 -0.34413502
-0.81182528 1.8155119 -0.2216689
-0.80877483 1.8086902 -0.11066683
-5.6820579 12.706977 0
-4.8042049 10.743804 0.65737224
-0 0 -0
-0.85331327 1.9021221 -0.34755877
-0.83413011 1.8593609 -0.22714563
-0.81308889 1.8124578 -0.11095738
-5.6803641 12.662109 0
-5.277689 11.764505 0.72021472
-0 0 -0
-0.85561097 1.9010897 -0.34755877
-0.81939584 1.8206229 -0.22253405
-0.81101257 1.801996 -0.11037683
-0.84033251 1.8671423 0
-5.2791028 11.729686 0.71847302
-0 0 -0
-0.856848 1.8977081 -0.34712955
-0.81946433 1.8149123 -0.22195691
-0.81104869 1.7962737 -0.11008627
-0.82223862 1.8210566 0
-5.2975492 11.732771 0.71905357
-0 0 -0
-0.86655593 1.9130421 -0.35012573
-0.8269918 1.8256987 -0.2233981
-0.81107628 1.790563 -0.10979627
-0.85450566 1.8864394 0
-5.3085046 11.719258 0.71861804
-1.5828733 3.4832077 -0.84757149
-0.873115 1.9213419 -0.35183761
-0.83240843 1.8317647 -0.22426325
-0.81753927 1.7990443 -0.11037683
-0.82771677 1.8214405 0
-5.3269615 11.722299 0.71919858
-1.587081 3.4812927 -0.84757149
-0.87543589 1.9202855 -0.35183761
-0.82818574 1.8166413 -0.22253405
-0.82186615 1.8027793 -0.11066683
-0.82343763 1.8062263 0
-5.3378868 11.708757 0.71876299
-1.5902305 3.4770639 -0.84700912
-0.8766889 1.9168941 -0.35141006
-0.83360434 1.8226891 -0.2233981
-0.81756157 1.7876112 -0.10979627
-0.83103055 1.8170613 0
-5.3595967 11.718843 0.71977913
-1.5976063 3.4820616 -0.84869617
-0.88114339 1.9204953 -0.35226518
-0.83904296 1.8287352 -0.22426325
-0.80780041 1.7606407 -0.1081996
-0.82020634 1.78768 0
-5.3770046 11.719446 0.72021472
-1.6018126 3.4801285 -0.84869617
-0.88775659 1.9287568 -0.35397702
-0.83368087 1.811271 -0.22224493
-0.82078958 1.7832631 -0.10965071
-0.82780546 1.7985059 0
-5.3911614 11.71294 0.72021472
-1.6017559 3.4689631 -0.84644461
-0.88685703 1.9206887 -0.35269272
-0.84237659 1.8243563 -0.22397524
-0.81205285 1.7586834 -0.1081996
-0.83543187 1.8093159 0
-5.3998652 11.694624 0.71948916
-1.6059462 3.4670253 -0.84644461
-0.88917714 1.9196157 -0.35269272
-0.85218698 1.8397589 -0.22599246
-0.83165157 1.7954255 -0.11052183
-0.8496508 1.8342836 0
-5.4194512 11.699878 0.72021472
-1.6122777 3.4696951 -0.84757149
-0.89690793 1.9301866 -0.35483378
-0.84678286 1.8223153 -0.22397524
-0.83382034 1.7944194 -0.11052183
-0.83431941 1.7954934 0
-5.4324861 11.690958 0.72006911
-1.6143199 3.4631341 -0.84644461
-0.89815181 1.9267681 -0.3544046
-0.8500759 1.8236328 -0.22426325
-0.83598799 1.7934105 -0.11052183
-0.82659346 1.7732569 0
-5.4466085 11.684385 0.72006911
-1.6152775 3.4542825 -0.84475756
-0.90265614 1.9303367 -0.35526136
-0.84132475 1.7991791 -0.22138087
-0.82604581 1.7665049 -0.10892516
-0.84306556 1.8029019 0
-5.467329 11.691923 0.72094023
-1.6248446 3.4638281 -0.84757149
-0.90498793 1.9292446 -0.35526136
-0.83910435 1.7887946 -0.22022772
-0.83038884 1.7702149 -0.10921571
-0.85408539 1.820731 0
-5.4847641 11.692368 0.72137582
-1.6290287 3.4618621 -0.84757149
-0.90294635 1.9188586 -0.35354948
-0.85117555 1.80884 -0.22282207
-0.83252716 1.7692103 -0.10921571
-0.8618241 1.8314695 0
-5.4955678 11.678677 0.72094023
-1.6256169 3.4438047 -0.84363073
-0.90635902 1.9200854 -0.35397702
-0.8423174 1.7844158 -0.21993859
-0.83466434 1.768203 -0.10921571
-0.8473714 1.7951225 0
-5.5118914 11.676723 0.72123027
-1.6373899 3.4579153 -0.84757149
-0.90867841 1.9189889 -0.35397702
-0.85001075 1.7950917 -0.22138087
-0.83902222 1.7718856 -0.10950571
-0.82726425 1.7470547 0
-5.5282226 11.674755 0.72152084
-1.636117 3.4444609 -0.84475756
-0.90769118 1.910931 -0.35269272
-0.85439652 1.7987316 -0.22195691
-0.83893496 1.7661809 -0.10921571
-0.83830756 1.7648602 0
-5.5423255 11.668067 0.72152084
-1.6468334 3.4562399 -0.8481338
-0.91441637 1.9191025 -0.3544046
-0.85656929 1.7976979 -0.22195691
-0.84106839 1.7651659 -0.10921571
-0.83708429 1.7568043 0
-5.5620074 11.673088 0.72224635
-1.6467346 3.4506624 -0.84700912
-0.91557562 1.9185498 -0.3544046
-0.85765523 1.7971801 -0.22195691
-0.84884733 1.7787235 -0.11008627
-0.84150493 1.7633379 0
-5.5668225 11.66504 0.72195637
-1.6443181 3.4349148 -0.84363073
-0.92786783 1.9382788 -0.35825589
-0.86652476 1.8101356 -0.22368611
-0.84762895 1.770663 -0.10965071
-0.84251231 1.7599746 0
-5.5842762 11.66533 0.72239137
-1.659464 3.455826 -0.84925848
-0.92354405 1.9232761 -0.3556889
-0.89110368 1.8557192 -0.22945195
-0.84752041 1.7649573 -0.10936071
-0.85026997 1.7706832 0
-5.5983672 11.658574 0.72239137
-1.6515125 3.4286442 -0.84306836
-0.92809314 1.9267799 -0.35654402
-0.87202233 1.8103733 -0.22397524
-0.84965241 1.763932 -0.10936071
-0.84224552 1.7485547 0
-5.6124506 11.651801 0.72239137
-1.6622846 3.4403687 -0.84644461
-0.9371236 1.9395299 -0.35911265
-0.87645751 1.8139715 -0.22455126
-0.84500259 1.7488706 -0.10849015
-0.83756655 1.7334805 0
-5.6287885 11.649694 0.72268194
-1.6664404 3.4383576 -0.84644461
-0.93386954 1.9268481 -0.35697323
-0.880907 1.8175707 -0.22512841
-0.85164827 1.7572014 -0.10907071
-0.85100877 1.755882 0
-5.6473937 11.652238 0.72326249
-1.6683739 3.4317756 -0.84531993
-0.92946059 1.9118617 -0.3544046
-0.87857902 1.8072003 -0.22397524
-0.85717595 1.7631751 -0.10950571
-0.8531298 1.7548524 0
-5.6603298 11.643062 0.72311693
-1.6725193 3.4297571 -0.84531993
-0.94302392 1.933815 -0.35868508
-0.88642937 1.8177592 -0.22541642
-0.84563863 1.7341115 -0.10776404
-0.85411 1.7514833 0
-5.6732559 11.633881 0.72297192
-1.6733119 3.4208841 -0.84363073
-0.94874054 1.9395854 -0.35996777
-0.87953317 1.7980994 -0.22311008
-0.86372 1.7657714 -0.10979627
-0.84707743 1.7317476 0
-5.6861687 11.624685 0.72282696
-1.68382 3.4213943 -0.84475756
-0.88501692 1.7982872 -0.2233981
-0.86339515 1.7543533 -0.10921571
-0.86274946 1.7530414 0
-5.7176876 11.617907 0.72326249
-1.683454 3.4102437 -0.84250605
-0.90665144 1.836642 -0.2282988
-0.86551428 1.7533088 -0.10921571
-0.84413332 1.7099965 0
-5.7294188 11.606325 0.72297192
-1.6853162 3.4036486 -0.84137917
-0 0 -0
-0.86532396 1.7476 -0.10892516
-0.85313004 1.7229732 0
-5.7503586 11.61337 0.72384304
-1.6984695 3.4198153 -0.8458823
-0.91568929 1.8437117 -0.22945195
-0.86974883 1.751212 -0.10921571
-0.85173726 1.7149464 0
-5.7528267 11.583137 0.72239137
-1.7014686 3.4154882 -0.84531993
-0.91791636 1.8426039 -0.22945195
-0.86954468 1.7455037 -0.10892516
-0.85496813 1.7162431 0
-0.86601865 1.7384257 0.10848346
-1.7090025 3.4202509 -0.84700912
-0.91783214 1.8368704 -0.22887594
-0.87281793 1.7467829 -0.10907071
-0.86634737 1.7338333 0
-0.86927891 1.7397002 0.10862846
-1.7188252 3.4295392 -0.849823
-0.92352432 1.8426905 -0.22973998
-0.87609106 1.7480478 -0.10921571
-0.86144751 1.7188298 0
-0.86556017 1.7270356 0.10790291
-1.7275329 3.4365406 -0.85207456
-0.91413552 1.8184683 -0.2268576
-0.87353438 1.7377014 -0.10863516
-0.87053484 1.7317345 0
-0.8629781 1.7167021 0.10732234
-1.7419785 3.4548678 -0.85713995
-0.93146926 1.847384 -0.23060513
-0.87212265 1.7296818 -0.1081996
-0.85153842 1.6888571 0
-0.87324196 1.7319018 0.10833846
-1.7404194 3.4414256 -0.85432607
-0.9337008 1.8462572 -0.23060513
-0.88711256 1.7541357 -0.10979627
-0.86884582 1.718016 0
-0.86243349 1.7053365 0.10674179
-1.7434236 3.4370475 -0.85376155
-0.92774391 1.8289874 -0.22858791
-0.88100195 1.7368387 -0.10878015
-0.86503571 1.7053622 0
-0.86802095 1.7112474 0.10717735
-1.7556417 3.450793 -0.85770231
-0.93464005 1.8370774 -0.22973998
-0.88192284 1.7334592 -0.10863516
-0.86473316 1.6996722 0
-0.86537492 1.7009336 0.10659679
-1.7540365 3.437355 -0.85488844
-0.9486177 1.8589897 -0.23262346
-0.88637662 1.7370169 -0.10892516
-0.86915439 1.7032667 0
-0.87569362 1.7160817 0.10761235
-1.7616627 3.4420209 -0.85657763
-0.9437905 1.8440231 -0.23089315
-0.89321023 1.7451969 -0.10950571
-0.86765355 1.695263 0
-0.87303108 1.70577 0.10703178
-1.7634975 3.4353645 -0.85545075
-0.94011313 1.8313785 -0.22945195
-0.89531833 1.7441164 -0.10950571
-0.86256796 1.6803174 0
-0.8691594 1.6931578 0.10630623
-1.759765 3.4230018 -0.85263687
-0.94240081 1.8331083 -0.22973998
-0.89281112 1.736649 -0.10907071
-0.85763454 1.6682254 0
-0.87493438 1.7018762 0.10688679
-1.7580785 3.4095833 -0.849823
-0.94343084 1.8296715 -0.22945195
-0.8925249 1.7309456 -0.10878015
-0.8739621 1.6949452 0
-0.87103701 1.6892724 0.10616123
-1.7551916 3.3939106 -0.84644461
-0.95514607 1.8469098 -0.2317583
-0.89939028 1.7390981 -0.10936071
-0.87600946 1.6938879 0
-0.87307757 1.6882186 0.10616123
-1.7511051 3.3760052 -0.84250605
-0.95023382 1.8319827 -0.23002911
-0.89551002 1.7264792 -0.10863516
-0.87685841 1.6905203 0
-0.87631208 1.6894668 0.10630623
-1.7598736 3.3829033 -0.84475756
-0.94647944 1.8193626 -0.22858791
-0.89879358 1.7276988 -0.10878015
-0.88010037 1.691766 0
-0.87595671 1.6838008 0.10601623
-1.7557312 3.3650033 -0.84081686
-0.96302998 1.8457263 -0.23204632
-0.90688932 1.7381279 -0.10950571
-0.88455397 1.6953205 0
-0.88520026 1.6965592 0.10688679
-1.7633313 3.3696353 -0.84250605
-0.95087332 1.81707 -0.22858791
-0.91260433 1.74394 -0.10994127
-0.89021826 1.7011613 0
-0.878815 1.6793702 0.10587067
-1.761494 3.3562465 -0.83968997
-0.96869302 1.8456904 -0.23233543
-0.90625679 1.7267281 -0.10892516
-0.88501883 1.6862625 0
-0.86997664 1.657602 0.10456455
-1.7620009 3.3473768 -0.83800298
-0.97092247 1.8445185 -0.23233543
-0.91802526 1.7440265 -0.11008627
-0.86038905 1.6345317 0
-0.87561107 1.6634499 0.10500012
-1.7624844 3.3385022 -0.83631378
-0 0 -0
-0.9719395 1.8410501 -0.23204632
-0.90679109 1.7176459 -0.10849015
-0.8903051 1.6864181 0
-0.87640846 1.660095 0.10485511
-1.7641414 3.3318834 -0.8351891
-0.98021829 1.8513103 -0.2334886
-0.91494417 1.7280289 -0.10921571
-0.89112556 1.6830432 0
-0.87233543 1.6475549 0.10412955
-1.6845602 3.1723056 -0.99097621
-1.7693566 3.3319912 -0.83575141
-0.9776023 1.840987 -0.23233543
-0.92068398 1.7338003 -0.10965071
-0.883394 1.6635771 0
-0.87797803 1.6533779 0.10456455
-1.6860312 3.1658349 -0.98959053
-1.7793522 3.3410621 -0.83856529
-0.98104072 1.8420851 -0.23262346
-0.92033774 1.728104 -0.10936071
-0.88662565 1.6648033 0
-0.88486087 1.6614897 0.10514511
-1.6733102 3.1328192 -0.97990161
-1.7821919 3.3366706 -0.83800298
-0.98448318 1.8431776 -0.23291147
-0.9199791 1.7224112 -0.10907071
-0.8776027 1.6430728 0
-0.88074797 1.6489615 0.10441956
-1.6830164 3.1418502 -0.98336172
-1.7814231 3.3255556 -0.83575141
-0 0 -0
-0.99037474 1.8488288 -0.23377663
-0.92451119 1.7258749 -0.10936071
-0.8918739 1.6649476 0
-0.88028818 1.6433195 0.10412955
-1.6891884 3.1442385 -0.98474741
-1.7890441 3.3301091 -0.83743846
-0.92659593 1.7247566 -0.10936071
-0.88649744 1.6501176 0
-0.88719213 1.6514107 0.10471012
-1.695364 3.1466081 -0.98613042
-1.7906585 3.3234756 -0.83631378
-0 0 -0
-0.93114191 1.7282064 -0.10965071
-0.89095712 1.6536231 0
-0.88302082 1.6388932 0.103984
-0 0 -0
-1.6943942 3.1357288 -0.98336172
-1.794673 3.3213096 -0.83631378
-0.92952716 1.7202284 -0.10921571
-0.88429773 1.6365246 0
-0.88376635 1.6355412 0.103839
-1.6981819 3.1336792 -0.98336172
-1.8035272 3.3280745 -0.83856529
-0.93407875 1.7236688 -0.10950571
-0.89743298 1.6560458 0
-0.88945723 1.641328 0.10427456
-1.7019671 3.1316249 -0.98336172
-1.8099716 3.3303535 -0.83968997
-0 0 -0
-0.9361608 1.7225388 -0.10950571
-0.90440422 1.6641067 0
-0.88771623 1.6334007 0.103839
-1.7021468 3.1229556 -0.98128462
-1.8127795 3.3259351 -0.83912766
-0 0 -0
-0.93824148 1.7214065 -0.10950571
-0.90765864 1.6652956 0
-0.88968927 1.6323268 0.103839
-1.7035147 3.116498 -0.97990161
-1.8155794 3.3215148 -0.83856529
-0.94156587 1.7225493 -0.10965071
-0.91091722 1.6664791 0
-0.89166093 1.6312507 0.103839
-1.7145126 3.1276326 -0.98405325
-1.8183713 3.3170929 -0.83800298
-0.9448992 1.7236955 -0.10979627
-0.91793418 1.6745056 0
-0.89862758 1.6392863 0.10441956
-1.7151957 3.1243992 -0.98336172
-1.8264875 3.3271282 -0.84081686
-0.94718963 1.7254 -0.10994127
-0.91519213 1.6671133 0
-0.88586658 1.613694 0.10282344
-1.7153387 3.1157291 -0.98128462
-1.8317306 3.3271425 -0.84137917
-0.95804727 1.7401904 -0.11095738
-0.89335692 1.6226872 0
-0.88906777 1.6148964 0.10296844
-1.7263801 3.1268361 -0.98543888
-1.8345225 3.3227046 -0.84081686
-0.96391344 1.7458493 -0.11139239
-0.90789354 1.6443853 0
-0.89729691 1.6251926 0.103694
-1.7289429 3.122555 -0.98474741
-1.8360721 3.3160355 -0.83968997
-0.96979952 1.7515051 -0.11182794
-0.91996497 1.6615015 0
-0.89548266 1.6172854 0.10325844
-1.725405 3.1072996 -0.98059309
-1.8400775 3.3138144 -0.83968997
-0.97948134 1.7639581 -0.1126985
-0.88281018 1.589862 0
-0.90374213 1.6275586 0.103984
-1.7377032 3.1205575 -0.98543888
-1.84532 3.3138151 -0.84025449
-0.98034906 1.7605052 -0.1125535
-0.92524725 1.6615537 0
-0.89306873 1.6037678 0.10253289
-0 0 -0
-1.7378018 3.1118822 -0.98336172
-1.8493227 3.3115828 -0.84025449
-0.97867358 1.7525111 -0.11211795
-0.93486518 1.6740634 0
-0.906407 1.6231034 0.103839
-1.7354326 3.0988379 -0.97990161
-1.8508373 3.3049078 -0.83912766
-0.98967928 1.7671995 -0.11313406
-0.90509754 1.616168 0
-0.89821029 1.6038698 0.10267788
-1.7490035 3.114238 -0.98543888
-1.8560723 3.3048823 -0.83968997
-0.98927152 1.7614756 -0.11284406
-0.92871296 1.6536462 0
-0.90650833 1.6141092 0.10340344
-1.7453761 3.0990026 -0.98128462
-1.8563272 3.2960019 -0.83800298
-0.99649972 1.7693352 -0.11342461
-0.92943448 1.6502575 0
-0.90973681 1.6152833 0.103549
-1.7503567 3.0990822 -0.98197877
-1.8615568 3.2959666 -0.83856529
-0.99735534 1.7658608 -0.11327906
-0.91734815 1.6242045 0
-0.91935265 1.6277536 0.10441956
-1.7516248 3.0925949 -0.98059309
-1.8642869 3.2915063 -0.83800298
-0.98924351 1.7465665 -0.11211795
-0.93598253 1.6525311 0
-0.90467221 1.5972511 0.10253289
-1.7603165 3.0992019 -0.98336172
-1.8720238 3.2958729 -0.83968997
-1.0016198 1.7634454 -0.11327906
-0.9187023 1.6174613 0
-0.90788364 1.5984141 0.10267788
-1.76406 3.0970726 -0.98336172
-1.8697182 3.2825713 -0.83687609
-0.99603599 1.748691 -0.1124085
-0.92966878 1.6321733 0
-0.91624343 1.6086031 0.10340344
-1.7653147 3.0905862 -0.98197877
-1.881247 3.2935522 -0.84025449
-1.0033034 1.7565114 -0.11298906
-0.93422437 1.6355728 0
-0.91303623 1.5984782 0.10282344
-1.7752813 3.0993335 -0.98543888
-1.8814354 3.2846601 -0.83856529
-2.9729323 5.1902246 -0.99717939
-1.0080056 1.7598031 -0.11327906
-0.9361999 1.6344428 0
-0.90980095 1.5883547 0.10224288
-1.7802733 3.0993595 -0.98613042
-1.8879316 3.2867866 -0.83968997
-2.9676905 5.1665883 -0.99332643
-1.0088382 1.7563328 -0.11313406
-0.9485442 1.6513641 0
-0.91689646 1.5962671 0.10282344
-1.7739995 3.0798147 -0.98059309
-1.8919016 3.284503 -0.83968997
-2.9688058 5.1541009 -0.99161458
-1.0096639 1.752863 -0.11298906
-0.93884927 1.6299226 0
-0.91882455 1.595158 0.10282344
-1.7789731 3.0798392 -0.98128462
-1.8971435 3.2844212 -0.84025449
-2.96733 5.137177 -0.98904759
-1.0091794 1.7471373 -0.1126985
-0.94732529 1.6400527 0
-0.92204976 1.5962945 0.10296844
-1.7877229 3.0863709 -0.98405325
-1.9011106 3.2821264 -0.84025449
-2.9761109 5.1380348 -0.98990434
-1.0151981 1.7526642 -0.11313406
-0.96234804 1.6614225 0
-0.92527902 1.5974256 0.10311344
-1.7864107 3.0755312 -0.98128462
-1.9076251 3.2842171 -0.84137917
-2.9707093 5.1144505 -0.98605138
-1.0238395 1.7626687 -0.11385962
-0.9434405 1.6242518 0
-0.91938037 1.5828292 0.10224288
-1.7964426 3.0842159 -0.98474741
-1.9128696 3.2841032 -0.84194154
-2.9781826 5.1130819 -0.98648059
-1.0194306 1.7502058 -0.11313406
-0.93492854 1.6051286 0
-0.9278301 1.5929416 0.10296844
-1.797635 3.0777061 -0.98336172
-1.9155561 3.2795975 -0.84137917
-2.9804733 5.1028275 -0.98519629
-1.0241683 1.7534646 -0.11342461
-0.96705288 1.655678 0
-0.92713058 1.5873276 0.10267788
-1.8026191 3.0776944 -0.98405325
-1.9156637 3.2707009 -0.83968997
-2.9788549 5.0859361 -0.9826293
-1.0236572 1.7477372 -0.11313406
-0.97036678 1.6567519 0
-0.92511195 1.5794861 0.10224288
-1.8057511 3.0787752 -0.98474741
-1.9176394 3.2695429 -0.83968997
-2.9832246 5.0863476 -0.98305684
-7.3016171 12.449135 -0.80613947
-0.94767034 1.615762 0
-0.92737937 1.5811661 0.10238788
-1.8106346 3.0700762 -0.98336172
-1.9345717 3.2802217 -0.84363073
-3.0007238 5.0879683 -0.98476875
-7.3356371 12.438161 -0.80657452
-0.9647904 1.6358796 0
-0.92855513 1.5744398 0.10209733
-1.8168995 3.0722094 -0.98474741
-1.9437075 3.2866299 -0.8458823
-3.0107861 5.090961 -0.98605138
-7.3466964 12.422585 -0.80613947
-0.95352113 1.6123161 0
-0.93178338 1.5755597 0.10224288
-1.8206103 3.0700116 -0.98474741
-1.9450877 3.279912 -0.84475756
-3.0195565 5.0917397 -0.98690814
-7.3630252 12.415932 -0.80628449
-0.95945233 1.6178805 0
-0.93368649 1.5744326 0.10224288
-1.8281616 3.0742722 -0.98682189
-1.9529418 3.2841048 -0.84644461
-3.0283284 5.0924959 -0.98776329
-7.3780222 12.407026 -0.80628449
-0.97736877 1.6435624 0
-0.9329294 1.5688323 0.10195232
-1.831875 3.0720611 -0.98682189
-1.9517032 3.2730134 -0.8441931
-3.0331659 5.0866303 -0.98733574
-7.3996611 12.409259 -0.80701005
-0.97535402 1.6356723 0
-0.93615389 1.5699335 0.10209733
-1.838163 3.0741558 -0.98820752
-1.9543538 3.2684741 -0.84363073
-3.0445795 5.0917745 -0.98904759
-7.4133177 12.398081 -0.80686504
-0.98801446 1.6523618 0
-0.93805015 1.5688012 0.10209733
-1.8341333 3.0590186 -0.98405325
-1.9596071 3.2682874 -0.8441931
-3.0586476 5.1012979 -0.99161458
-7.4336376 12.398028 -0.80744559
-0.99001026 1.6511668 0
-0.93727523 1.5632137 0.10180733
-1.8442953 3.0675569 -0.98751605
-1.9674838 3.2724521 -0.8458823
-3.0595236 5.0888066 -0.98990434
-7.4566436 12.402394 -0.80831617
-0.98261648 1.6343542 0
-0.94318134 1.568763 0.10224288
-1.8428193 3.0567319 -0.98474741
-1.972747 3.2722464 -0.84644461
-3.06567 5.0851059 -0.98990434
-7.4716239 12.393375 -0.80831617
-1.0087742 1.6732798 0
-0.93836439 1.5564892 0.10151677
-1.8517029 3.0630908 -0.98751605
-1.9727597 3.2633431 -0.84475756
-3.0784512 5.09238 -0.99204379
-7.4892845 12.38879 -0.80860674
-0.98521811 1.6297499 0
-0.94562155 1.564249 0.10209733
-1.8488966 3.0501182 -0.98405325
-1.9793332 3.2652986 -0.8458823
-3.0885904 5.0952363 -0.99332643
-7.5069399 12.384171 -0.80889672
-1.0141679 1.6730691 0
-0.94751096 1.5631053 0.10209733
-1.8617035 3.0628905 -0.98889905
-1.9819586 3.2607355 -0.84531993
-3.0947447 5.0915003 -0.99332643
-7.5218983 12.375092 -0.80889672
-1.0067252 1.6562729 0
-0.95479751 1.5708411 0.10267788
-1.8562622 3.0456412 -0.98405325
-1.9885393 3.2626734 -0.84644461
-3.1075783 5.0987239 -0.99546748
-7.5381966 12.368211 -0.80904174
-1.0344561 1.6972721 0
-0.95534384 1.5674696 0.10253289
-1.8651738 3.0519586 -0.98682189
-1.9938091 3.2624426 -0.84700912
-3.1137369 5.094965 -0.99546748
-7.5572023 12.365747 -0.80947727
-1.0039405 1.6427342 0
-0.9545297 1.561884 0.10224288
-1.8701748 3.0518479 -0.98751605
-1.9924392 3.2513652 -0.84475756
-3.1172056 5.0868173 -0.99461073
-7.5721383 12.356606 -0.80947727
-1.0249593 1.6725816 0
-0.96455979 1.5740185 0.10311344
-1.873861 3.0495861 -0.98751605
-2.0030162 3.2597775 -0.84757149
-3.1287255 5.0917959 -0.99632263
-7.5911455 12.354092 -0.80991286
-1.0283407 1.6735572 0
-0.9651019 1.5706401 0.10296844
-1.8762246 3.0451775 -0.98682189
-2.0029538 3.2508631 -0.8458823
-3.1416073 5.098937 -0.99846202
-7.6074295 12.34712 -0.81005782
-1.018077 1.6523741 0
-0.9588182 1.556195 0.10209733
-1.8785855 3.040776 -0.98613042
-2.0068803 3.2484405 -0.8458823
-3.1464181 5.0929556 -0.99803448
-7.6168799 12.329077 -0.80947727
-1.0282825 1.6644313 0
-0.95933342 1.5528269 0.10195232
-1.8796185 3.0342424 -0.98474741
-2.017493 3.2568114 -0.84869617
-3.1566267 5.0956988 -0.99931878
-7.6399794 12.333114 -0.81034786
-1.0165851 1.6410594 0
-0.96531546 1.5582955 0.10238788
-1.8938682 3.0490098 -0.99028206
-2.0200875 3.2522149 -0.8481338
-3.1641347 5.0940599 -0.99974638
-7.6480222 12.31284 -0.80962229
-1.0281808 1.6553072 0
-0.96034378 1.5460936 0.10166232
-1.8909208 3.0360737 -0.98682189
-2.0226736 3.247617 -0.84757149
-5.3716626 8.624774 -0.56754249
-1.020548 1.638598 0
-0.96632838 1.5515426 0.10209733
-1.8999033 3.0422983 -0.98959053
-2.0252516 3.2430174 -0.84700912
-5.371069 8.6006451 -0.56638134
-1.026664 1.643988 0
-0.96820241 1.5503739 0.10209733
-1.9070617 3.0496585 -0.99235916
-2.0258594 3.2396328 -0.84644461
-5.3624845 8.5753632 -0.56492966
-1.0400745 1.6632246 0
-0.97603142 1.5608108 0.10282344
-1.896089 3.0239775 -0.98474741
-2.03652 3.2479441 -0.84925848
-5.3604202 8.5490665 -0.56362355
-1.0489947 1.672989 0
-0.97377419 1.5530237 0.10238788
-1.9090847 3.0365453 -0.98959053
-2.0390921 3.2433319 -0.84869617
-5.3472362 8.505188 -0.56115633
-1.0468638 1.6651169 0
-0.97011793 1.5430467 0.10180733
-1.9060644 3.023627 -0.98613042
-2.0389483 3.2344236 -0.84700912
-5.3408809 8.4723434 -0.55941468
-1.048875 1.6638508 0
-0.97475034 1.5462655 0.10209733
-1.9097165 3.0213218 -0.98613042
-2.0442114 3.2341032 -0.84757149
-5.3330669 8.4373322 -0.55752796
-1.0481009 1.6581782 0
-0.97384399 1.5406978 0.10180733
-1.9200794 3.0296052 -0.98959053
-2.0508354 3.235919 -0.84869617
-0 0 -0
-0 0 -0
-1.0375667 1.6371288 0
-0.98126888 1.5482992 0.10238788
-1.9223944 3.0251675 -0.98889905
-2.057472 3.2377319 -0.849823
-5.3213916 8.3739843 -0.55419022
-1.0409385 1.6380684 0
-0.9789567 1.5405309 0.10195232
-1.920656 3.0143793 -0.98613042
-2.065475 3.2416658 -0.85151005
-5.3287106 8.3631611 -0.55389965
-1.0610958 1.6653402 0
-0.97802752 1.5349684 0.10166232
-1.9256462 3.0141685 -0.98682189
-2.0652905 3.2327504 -0.849823
-5.3416123 8.3611002 -0.55419022
-1.0603077 1.6596748 0
-0.98687488 1.544732 0.10238788
-1.9333477 3.0181792 -0.98889905
-2.0664513 3.2259693 -0.84869617
-5.3517113 8.35464 -0.55419022
-1.0580997 1.6518159 0
-0.98593479 1.5391581 0.10209733
-1.9342842 3.0116231 -0.98751605
-0 0 -0
-0 0 -0
-1.0643154 1.6571075 0
-0.97937119 1.5248519 0.10122677
-1.9419929 3.0156054 -0.98959053
-5.3817348 8.3569765 -0.5552063
-1.0719532 1.6645725 0
-0.9896515 1.5367711 0.10209733
-1.9401917 3.0048263 -0.98682189
-5.3904152 8.348279 -0.55506074
-1.0810208 1.6742057 0
-0.99292123 1.5377634 0.10224288
-1.9465505 3.0066957 -0.98820752
-5.406147 8.3504839 -0.55564129
-1.0703154 1.6532385 0
-0.99336237 1.534375 0.10209733
-1.954276 3.0106483 -0.99028206
-5.4162331 8.3439455 -0.55564129
-1.0737277 1.654125 0
-0.99521565 1.5331736 0.10209733
-1.9469696 2.9914715 -0.98474741
-5.4305649 8.3439312 -0.55607688
-5.4436717 8.364069 0
-1.0055746 1.545041 0.10296844
-1.9601761 3.0038178 -0.98959053
-5.4420614 8.3395367 -0.55622184
-5.4495058 8.3509455 0
-1.0060221 1.5416508 0.10282344
-1.9651765 3.0035446 -0.99028206
-5.4507132 8.3307829 -0.55607688
-5.4624448 8.3487139 0
-1.0050361 1.5360812 0.10253289
-1.96468 2.9948807 -0.98820752
-0 0 -0
-5.4668188 8.3334036 0
-1.0040436 1.5305245 0.10224288
-1.9710518 2.9966927 -0.98959053
-5.4808259 8.3327856 -0.55709296
-0 0 0
-1.0201687 1.5510154 0.103694
-1.9705318 2.9880319 -0.98751605
-5.4908905 8.3261566 -0.55709296
-0 0 0
-1.0134615 1.5367705 0.10282344
-1.9782879 2.9919207 -0.98959053
-2.173265 3.2867997 -0.87289858
-5.5023789 8.321681 -0.55723798
-0 0 0
-1.0181812 1.5398756 0.10311344
-1.9787115 2.9886351 -0.98889905
-2.1780584 3.2897274 -0.8740254
-3.1153576 4.7054191 -0.62900478
-5.5102715 8.3226843 -0.55752796
-0 0 0
-1.023416 1.5457621 0.103549
-1.9781574 2.9799695 -0.98682189
-2.1862488 3.2934463 -0.8757146
-3.115319 4.6930318 -0.62785161
-5.5246367 8.3225174 -0.55796355
-0 0 0
-1.0180991 1.533702 0.10282344
-1.9845394 2.9817581 -0.98820752
-2.1916332 3.2929153 -0.87627697
-3.125288 4.6957254 -0.62871677
-5.5303683 8.3093443 -0.55752796
-0 0 0
-1.0228281 1.5367929 0.10311344
-1.9881408 2.979358 -0.98820752
-2.18856 3.2796991 -0.87346309
-3.1137314 4.6661286 -0.62525725
-5.5461736 8.3113012 -0.55810857
-5.5580993 8.3291721 0
-1.0318944 1.5463609 0.103839
-1.9931331 2.9790366 -0.98889905
-2.1925213 3.2770524 -0.87346309
-3.1193674 4.6623626 -0.62525725
-5.5605483 8.3110743 -0.5585441
-5.5681596 8.3224506 0
-1.0323187 1.5429553 0.103694
-1.9995236 2.9807889 -0.99028206
-2.1978934 3.2765088 -0.8740254
-3.1177955 4.6478524 -0.62381607
-5.5647964 8.2957182 -0.55796355
-5.5854588 8.3265209 0
-1.0385263 1.5481826 0.10412955
-1.9975289 2.9700518 -0.98751605
-2.1961787 3.2654171 -0.8717739
-3.1219673 4.6419377 -0.623528
-5.5791678 8.2954588 -0.55839908
-5.6027765 8.3305607 0
-1.0374931 1.5426102 0.103839
-2.0067213 2.9759483 -0.99028206
-2.197279 3.2585435 -0.87064701
-3.1261237 4.6360111 -0.62323892
-5.5906386 8.290864 -0.5585441
-5.6084771 8.317318 0
-1.0451673 1.549973 0.10441956
-2.0103157 2.9735215 -0.99028206
-2.1941004 3.2453635 -0.86783314
-3.1317229 4.6322308 -0.62323892
-5.6021066 8.286253 -0.55868912
-5.6228919 8.3169975 0
-1.0528607 1.5573196 0.10500012
-2.0096881 2.9648662 -0.98820752
-2.2008743 3.2469203 -0.86896002
-3.1344182 4.6241655 -0.6226629
-5.6121149 8.2794781 -0.55868912
-5.632937 8.3101969 0
-1.0547417 1.5560464 0.10500012
-2.0217273 2.9748814 -0.99235916
-2.2019367 3.2400515 -0.86783314
-3.1341879 4.6118178 -0.62150973
-4.0141401 5.9066277 -0.39889905
-5.6415129 8.3012342 0
-1.0639224 1.5655143 0.10572567
-2.0239091 2.970365 -0.99166769
-2.2015622 3.2310953 -0.86614615
-3.1368427 4.6037483 -0.62093258
-4.0212741 5.901773 -0.39889905
-5.658865 8.3051624 0
-1.0614281 1.5577917 0.10529067
-2.0175893 2.9534147 -0.98682189
-2.2054646 3.2284327 -0.86614615
-3.139488 4.5956874 -0.62035656
-4.0210748 5.8861837 -0.39817348
-5.6703625 8.3004656 0
-1.0633096 1.5565081 0.10529067
-2.0282433 2.9613218 -0.99028206
-2.2036207 3.2173803 -0.86389458
-3.1435785 4.5897584 -0.62006849
-4.0208383 5.8705955 -0.39744738
-5.6818628 8.2957621 0
-1.063717 1.5530721 0.10514511
-2.0275638 2.9526706 -0.98820752
-2.2075067 3.2147152 -0.86389458
-3.1461909 4.5816884 -0.6194914
-4.0294042 5.8678808 -0.39759293
-5.6962976 8.2953205 0
-1.072946 1.5624938 0.10587067
-2.0339725 2.9543474 -0.98959053
-2.2099445 3.2099466 -0.86333007
-3.1546609 4.5821486 -0.62006849
-4.0335417 5.8587232 -0.39730236
-5.7048426 8.2862902 0
-1.077783 1.5654809 0.10616123
-2.0375409 2.9518874 -0.98959053
-2.2123795 3.2051849 -0.86276776
-3.1587217 4.5761986 -0.61977941
-4.0288091 5.8367376 -0.39614126
-5.7252007 8.294385 0
-1.0870528 1.5748678 0.10688679
-2.0453904 2.9556141 -0.99166769
-2.2176952 3.2045968 -0.86333007
-3.1510036 4.5532389 -0.61718506
-4.0432563 5.842555 -0.39686736
-5.7352185 8.2874613 0
-1.0874777 1.5714185 0.10674179
-2.046097 2.9490142 -0.99028206
-2.2215657 3.2019148 -0.86333007
-3.1579816 4.5515594 -0.61747414
-4.0458679 5.8312583 -0.3964318
-5.7467103 8.2826614 0
-1.0938208 1.5765102 0.10717735
-2.0489166 2.9378936 -0.98820752
-2.2263927 3.1923726 -0.86220539
-3.1645317 4.5375476 -0.61660904
-4.0584626 5.8193345 -0.39628682
-5.7696843 8.273015 0
-1.0872211 1.5589409 0.10616123
-2.0593064 2.9489925 -0.99235916
-2.2181363 3.1764421 -0.85826468
-3.1643078 4.5313897 -0.61603189
-4.0619779 5.8168817 -0.39628682
-5.7717042 8.2652645 0
-1.0955998 1.5689338 0.10688679
-2.0556755 2.9362283 -0.98889905
-2.226346 3.180006 -0.85995388
-3.1653349 4.5212126 -0.6151678
-4.0779419 5.8247371 -0.39715737
-5.7921367 8.2732105 0
-1.0900449 1.5569679 0.10616123
-2.0621016 2.9378452 -0.99028206
-2.2301869 3.1773136 -0.85995388
-3.1737647 4.5216146 -0.61574388
-4.0834856 5.8176808 -0.39701238
-5.7916613 8.2512922 0
-1.0949081 1.5598991 0.10645123
-2.06565 2.9353514 -0.99028206
-2.2296362 3.1683807 -0.85826468
-3.1717846 4.5072026 -0.61430269
-4.0860248 5.806365 -0.39657682
-5.8046198 8.2485409 0
-1.1042736 1.5692062 0.10717735
-2.0663056 2.9287574 -0.98889905
-2.2378588 3.1719148 -0.85995388
-3.1727538 4.4970245 -0.61343753
-4.0990295 5.8099165 -0.39715737
-8.4714909 12.007392 0
-1.1001769 1.5593779 0.10659679
-2.0698428 2.9262586 -0.98889905
-2.2446215 3.1733534 -0.86107856
-3.1826675 4.4995241 -0.61430269
-4.1030483 5.8007207 -0.39686736
-8.4814882 11.990779 0
-1.1050586 1.5622861 0.10688679
-2.074827 2.9257998 -0.98959053
-2.2381699 3.1561363 -0.85713995
-3.1821172 4.487236 -0.61314952
-4.1190701 5.8084722 -0.39773792
-8.4974747 11.982643 0
-1.1099545 1.5651931 0.10717735
-2.0783608 2.9232907 -0.98959053
-2.2419817 3.1534297 -0.85713995
-3.1815422 4.4749556 -0.61199635
-4.1426492 5.8267884 -0.39933461
-8.5149603 11.976604 0
-1.1103349 1.5617268 0.10703178
-2.0877161 2.9289489 -0.99235916
-2.2398911 3.142442 -0.85488844
-3.1899524 4.4753246 -0.61257344
-4.1466675 5.8175426 -0.39904404
-8.5324497 11.97055 0
-1.1122211 1.5603842 0.10703178
-2.0883391 2.9223459 -0.99097621
-2.2436864 3.1397333 -0.85488844
-3.1893423 4.4630494 -0.61142027
-8.6193066 12.061543 -0.82805401
-8.5499306 11.964462 0
-1.1035347 1.5442463 0.10601623
-2.0947881 2.9238951 -0.99235916
-2.2533979 3.145282 -0.85713995
-3.193222 4.4570837 -0.61113119
-8.6490107 12.072247 -0.82950568
-8.5749922 11.968933 0
-1.1175064 1.5598102 0.10717735
-2.089541 2.9091401 -0.98820752
-2.2468193 3.128109 -0.85319924
-3.191062 4.4427204 -0.60969001
-8.6635904 12.061788 -0.82950568
-8.5864086 11.954332 0
-1.1102922 1.5457919 0.10630623
-2.0989187 2.9147565 -0.99097621
-2.2609923 3.1398273 -0.85713995
-3.1994536 4.4430633 -0.6102671
-8.6842327 12.059745 -0.83008623
-8.6054115 11.950286 0
-1.1106422 1.5423425 0.10616123
-2.1053731 2.9162827 -0.99235916
-2.2573495 3.1267943 -0.85432607
-3.2033017 4.4370909 -0.60997802
-8.7033567 12.055557 -0.83052123
-8.6183224 11.937772 0
-1.1231532 1.5557491 0.10717735
-2.1059563 2.9096758 -0.99097621
-2.2626143 3.1261208 -0.85488844
-3.2010796 4.4227428 -0.60853684
-8.7209673 12.049246 -0.8308118
-8.632741 11.927349 0
-6.0960088 8.4224958 0.58074248
-2.1109426 2.9091578 -0.99166769
-2.2678807 3.1254392 -0.85545075
-3.200345 4.4104981 -0.60738367
-8.7400932 12.045003 -0.83124679
-8.6501999 11.921118 0
-6.1016073 8.4088211 0.58030748
-2.118885 2.912693 -0.99374485
-2.2701623 3.1206439 -0.85488844
-3.205672 4.4066281 -0.60738367
-8.7531137 12.032334 -0.83110183
-8.6814404 11.933809 0
-6.1194048 8.4119463 0.58103305
-2.1238799 2.9121556 -0.99443632
-2.2739313 3.1178985 -0.85488844
-3.2048979 4.3943925 -0.6062305
-8.7737713 12.030147 -0.83168238
-8.6958542 11.923311 0
-6.1464028 8.4276333 0.58262914
-2.2806935 3.119247 -0.85601312
-3.2163117 4.3988681 -0.60738367
-8.7959671 12.030023 -0.83240795
-8.7133293 11.917001 0
-6.1841908 8.4579611 0.58524197
-2.2889688 3.1226387 -0.85770231
-3.2170415 4.3887267 -0.60651958
-8.8104973 12.019385 -0.83240795
-8.7292595 11.908561 0
-6.2066956 8.467248 0.58640307
-2.2972558 3.1260149 -0.85939151
-3.219276 4.3806639 -0.60594249
-8.8280945 12.012922 -0.83269846
-8.7575111 11.916876 0
-6.2092237 8.4492674 0.58567697
-2.2980142 3.1191418 -0.85826468
-3.2245667 4.3767705 -0.60594249
-8.8518476 12.014794 -0.83356905
-8.767272 11.899998 0
-6.1993937 8.4145641 0.5837903
-2.2983911 3.11571 -0.85770231
-3.2256763 4.3727422 -0.60565448
-8.8591051 12.009444 -0.83356905
-8.7837324 11.907269 0
-6.2060232 8.4129143 0.58393586
-2.3066881 3.1190612 -0.85939151
-3.2324941 4.3709192 -0.60594249
-8.8813334 12.009175 -0.83429462
-8.7965612 11.894548 0
-6.2208147 8.4116716 0.58437085
-2.3119671 3.1183109 -0.85995388
-3.2393122 4.3690858 -0.6062305
-8.8958378 11.998435 -0.83429462
-8.8093786 11.881823 0
-6.2263355 8.397893 0.58393586
-2.314219 3.1134779 -0.85939151
-3.2384171 4.3568654 -0.60507733
-8.9165287 11.996019 -0.83487517
-8.8299389 11.879524 0
-6.2380271 8.3924465 0.58408082
-2.3179793 3.1106794 -0.85939151
-3.245229 4.3550291 -0.60536641
-8.9403362 11.997743 -0.83574629
-8.8520603 11.879278 0
-6.2574759 8.3974009 0.5849514
-2.3262939 3.1139772 -0.86107856
-3.2427447 4.3407378 -0.60392416
-8.9548264 11.986931 -0.83574629
-8.8726377 11.876913 0
-6.2738385 8.39816 0.58553195
-2.3315825 3.1132035 -0.86164308
-3.2464383 4.3347483 -0.60363615
-8.9708595 11.97818 -0.83589125
-8.8901052 11.870354 0
-6.2730823 8.3760204 0.58451641
-2.3399148 3.1164739 -0.86333007
-3.2547824 4.3349633 -0.6042133
-8.9962492 11.981879 -0.83690739
-8.9153757 11.874166 0
-6.2816339 8.3663511 0.58437085
-2.3390989 3.1075599 -0.86164308
-3.2631259 4.3351564 -0.60478932
-9.006031 11.96477 -0.83647186
-8.9344139 11.869624 0
-6.2854877 8.3504505 0.5837903
-2.3474393 3.1108103 -0.86333007
-3.2605734 4.320889 -0.60334814
-9.028306 11.964248 -0.83719736
-8.9518871 11.862979 0
-6.2877483 8.3324804 0.58306473
-2.3588657 3.1181092 -0.86614615
-3.2673509 4.3190069 -0.60363615
-9.0505924 11.96369 -0.83792293
-8.9677839 11.854227 0
-6.2962461 8.3228064 0.58291972
-2.35495 3.1051283 -0.86333007
-3.2678828 4.3088794 -0.60277206
-9.0681849 11.95689 -0.8382135
-8.9852428 11.847526 0
-6.3078666 8.3172617 0.58306473
-2.3694668 3.116441 -0.86727083
-3.2746508 4.3069844 -0.60306013
-9.0873461 11.952131 -0.83864909
-9.0042791 11.842877 0
-6.3210602 8.3137741 0.58335531
-2.3639917 3.101455 -0.86389458
-3.2751474 4.2968516 -0.60219496
-9.1080761 11.949401 -0.83922905
-9.0185823 11.831989 0
-6.3311009 8.3061304 0.58335531
-2.3739085 3.106672 -0.86614615
-3.2803369 4.292891 -0.60219496
-9.1240902 11.940457 -0.8393746
-9.0328722 11.821083 0
-6.3363981 8.2922783 0.58291972
-2.3730235 3.097748 -0.86445695
-3.2823789 4.2848215 -0.60161889
-9.140089 11.931485 -0.83951962
-9.0566416 11.822552 0
-0 0 0
-2.3752189 3.0928652 -0.86389458
-3.2875538 4.2808523 -0.60161889
-9.1592493 11.926617 -0.83995521
-9.0788507 11.821926 0
-0 0 0
-2.3867028 3.1000578 -0.86670846
-3.2864125 4.2686791 -0.60046571
-9.1815777 11.925834 -0.84068072
-9.0963001 11.815068 0
-6.3616586 8.2630768 0.58248419
-2.3904469 3.0971715 -0.86670846
-3.2931468 4.2667503 -0.60075378
-9.1896305 11.906503 -0.84010017
-9.1153421 11.810251 0
-6.3700519 8.2533283 0.58233917
-2.3910747 3.0902579 -0.86558163
-3.2951312 4.2586732 -0.60017663
-9.1912899 11.878949 -0.83893907
-9.1359758 11.807462 0
-6.370482 8.2332993 0.58146858
-2.3916953 3.0833549 -0.86445695
-3.298691 4.2526469 -0.59988862
-9.2072268 11.869885 -0.83908409
-9.1582108 11.806694 0
-6.3804259 8.2255955 0.58146858
-2.3920007 3.0799046 -0.86389458
-3.2996745 4.2486124 -0.59960061
-9.2239628 11.876638 -0.83995521
-9.1653414 11.801159 0
-6.3822036 8.2176304 0.58117807
-2.3941548 3.0750015 -0.86333007
-3.3000374 4.2384977 -0.59873545
-9.2335167 11.859331 -0.83951962
-9.1827888 11.794179 0
-6.3777628 8.1914625 0.57987195
-2.4025602 3.0781174 -0.86501926
-3.3051562 4.2345071 -0.59873545
-9.2750177 11.882986 -0.84198684
-9.1938334 11.778975 0
-6.3796635 8.1735106 0.57914639
-2.3921871 3.057204 -0.85995388
-3.3118629 4.2325454 -0.59902346
-9.2989731 11.884045 -0.84285742
-9.217679 11.780151 0
-6.3911347 8.16784 0.5792914
-2.4068584 3.0683076 -0.86389458
-3.3137851 4.2244744 -0.59844744
-9.3213491 11.883029 -0.84358352
-9.2303019 11.766959 0
-6.3913798 8.1478491 0.57842082
-0 0 -0
-0 0 -0
-2.408989 3.0633941 -0.86333007
-3.3236849 4.2265687 -0.5993126
-9.3485441 11.888089 -0.84474409
-9.2573833 11.772163 0
-6.3996091 8.138072 0.57827526
-0 0 -0
-0 0 -0
-1.454748 1.8453392 -0.52055109
-3.3287895 4.2225494 -0.5993126
-9.3709507 11.886993 -0.84547019
-9.2860994 11.779362 0
-6.4078307 8.1282949 0.57813025
-0 0 -0
-0 0 -0
-1.4743084 1.8655105 -0.52674335
-3.3306787 4.2144618 -0.59873545
-9.3949699 11.88789 -0.84634078
-9.2954836 11.762005 0
-6.4079838 8.1083183 0.57725972
-0 0 -0
-0 0 -0
-1.4844493 1.8736838 -0.52955723
-3.3341639 4.2084088 -0.59844744
-9.4109402 11.878564 -0.84648573
-9.308074 11.748727 0
-6.4161582 8.098527 0.57711416
-0 0 -0
-1.42414 1.7931055 -0.63176221
-1.4914545 1.8778598 -0.53124642
-3.3392465 4.2043772 -0.59844744
-9.4301357 11.87329 -0.84692132
-9.3303547 11.747659 0
-6.4275594 8.0928087 0.57725972
-0 0 -0
-1.4513083 1.8227857 -0.64283675
-1.4873917 1.8681052 -0.52899492
-3.3459339 4.2023606 -0.59873545
-9.4412413 11.857825 -0.84663129
-9.3526468 11.746554 0
-6.4357104 8.0829973 0.57711416
-0 0 -0
-1.4644604 1.8347504 -0.64767992
-1.4753836 1.8484356 -0.52392948
-3.3671474 4.2185335 -0.60161889
-9.4652853 11.85859 -0.84750187
-9.3700829 11.739317 0
-6.4519563 8.0833387 0.57769471
-0 0 -0
-1.454137 1.8173087 -0.64214259
-1.4887239 1.8605336 -0.52786803
-3.3835492 4.2285929 -0.60363615
-9.4812288 11.849172 -0.84764689
-9.3858852 11.730016 0
-6.463347 8.0775719 0.57784027
-0 0 -0
-1.4657534 1.8272959 -0.64629692
-1.4798462 1.8448648 -0.52392948
-3.3999867 4.2386265 -0.60565448
-9.5069218 11.851897 -0.84866297
-9.4033117 11.722731 0
-6.4584708 8.0515156 0.57653415
-0 0 -0
-1.4679604 1.8255235 -0.64629692
-1.4709269 1.8292127 -0.51998872
-3.4132082 4.2445917 -0.60709566
-9.5179758 11.836348 -0.84837246
-9.4207287 11.715412 0
-6.476335 8.0538292 0.57725972
-0 0 -0
-1.478036 1.8335123 -0.64975703
-1.4874865 1.8452358 -0.52505416
-3.4264493 4.2505307 -0.60853684
-9.5387945 11.832931 -0.84895301
-9.4365091 11.706045 0
-6.4893203 8.0500393 0.5775497
-1.3954555 1.7267963 -0.7320565
-1.4723676 1.8219706 -0.64629692
-1.4785403 1.829609 -0.5211156
-3.4462125 4.2644906 -0.61113119
-9.5481901 11.815338 -0.84851801
-9.4620981 11.708805 0
-6.5039434 8.0482578 0.57798529
-1.4193195 1.751992 -0.74346447
-1.4729903 1.8182428 -0.64560539
-1.4903435 1.8396633 -0.52449185
-3.4611347 4.2723861 -0.61286151
-9.5526428 11.791675 -0.84764689
-9.4909821 11.715562 0
-6.5169315 8.0444279 0.57827526
-1.3902726 1.7119037 -0.72716516
-1.4672738 1.8067187 -0.64214259
-1.4829575 1.8260306 -0.5211156
-3.480968 4.2862687 -0.61545587
-9.5750723 11.790207 -0.84837246
-9.5002069 11.698023 0
-6.5184579 8.0264635 0.5775497
-1.4402184 1.7668507 -0.75161254
-1.4911568 1.8293415 -0.65114272
-1.4734215 1.8075839 -0.51661253
-0 0 -0
-3.514878 4.3120298 -0.62006849
-9.596426 11.772833 -0.84837246
-9.5329056 11.694907 0
-6.5477691 8.0327606 0.57885581
-1.375108 1.6828175 -0.71657139
-1.5013018 1.8372499 -0.65460283
-1.4997164 1.8353097 -0.52505416
-0 0 -0
-3.5380838 4.3298049 -0.62323892
-9.6172209 11.769278 -0.84895301
-9.5404425 11.675319 0
-6.5574703 8.0248432 0.57885581
-1.408465 1.7193947 -0.7328707
-1.4923906 1.8218474 -0.64975703
-1.4745619 1.8000829 -0.51548564
-0 0 -0
-3.5465941 4.3295326 -0.62381607
-9.6232033 11.7476 -0.84822744
-9.5710382 11.683919 0
-6.5753937 8.0269632 0.57958138
-1.4199499 1.7291485 -0.73775893
-1.5121058 1.8413718 -0.65737152
-1.4928643 1.8179402 -0.5211156
-0 0 -0
-3.5748003 4.3532243 -0.62785161
-9.6472883 11.748016 -0.84909856
-9.6016617 11.692454 0
-6.5867414 8.0210257 0.57972693
-1.403194 1.7045404 -0.72798246
-1.5031668 1.8259832 -0.65252572
-1.5047461 1.8279016 -0.52449185
-0 0 -0
-3.5932086 4.3648767 -0.63015795
-9.6746817 11.752392 -0.85025913
-9.6025505 11.66477 0
-6.6013784 8.0190735 0.58016193
-1.4272738 1.7295283 -0.73939043
-1.510164 1.8299724 -0.65460283
-1.510185 1.8299978 -0.52561653
-0 0 -0
-3.6050651 4.3685117 -0.63131112
-9.6921864 11.744705 -0.85054964
-9.6216087 11.659183 0
-6.6176786 8.0191078 0.58074248
-0 0 -0
-1.494782 1.806881 -0.64698839
-1.5204979 1.8379663 -0.52843255
-1.5203085 1.8377373 -0.39762723
-3.6317723 4.3900585 -0.63505864
-9.7163048 11.744995 -0.85142022
-9.6340265 11.645537 0
-6.6273632 8.0111055 0.58074248
-1.4630044 1.764124 -0.75568974
-1.5161819 1.8282468 -0.65529436
-1.5113622 1.822435 -0.52449185
-1.5159732 1.8279951 -0.39591536
-3.6436787 4.393631 -0.63621181
-9.7321529 11.735252 -0.85156578
-9.6480904 11.633888 0
-6.6403589 8.0070963 0.58103305
-1.4761908 1.7756537 -0.76139212
-1.5280098 1.8379848 -0.659446
-1.5103176 1.8167034 -0.52336711
-1.4952087 1.7985297 -0.38992465
-3.6605608 4.4031491 -0.63823009
-9.7546291 11.733473 -0.85229135
-9.6854362 11.650243 0
-6.6483693 7.9970708 0.58088803
-1.40555 1.686533 -0.72390527
-1.5238049 1.8284281 -0.65667737
-1.4767207 1.7719314 -0.51098257
-1.4973809 1.7967218 -0.38992465
-3.6807799 4.4166036 -0.64082444
-9.770462 11.723672 -0.85243636
-9.6928415 11.630534 0
-6.6563592 7.98703 0.58074248
-1.4883993 1.7815632 -0.76546615
-1.5067176 1.8034896 -0.64837408
-1.5261022 1.8266923 -0.52730572
-1.4880282 1.7811191 -0.38692847
-3.7060134 4.4359717 -0.64428395
-9.7879496 11.715842 -0.85272634
-9.715229 11.628798 0
-6.667676 7.9809809 0.58088803
-1.400103 1.6717659 -0.71901709
-1.5201665 1.8151256 -0.6532172
-1.5087311 1.8014712 -0.52055109
-1.4901793 1.7793198 -0.38692847
-3.7163482 4.4374337 -0.64514804
-9.8087721 11.711975 -0.85330689
-2.5928864 3.0959861 0
-6.6739745 7.9689307 0.58059752
-1.3957651 1.6625012 -0.71575719
-1.5223587 1.8132874 -0.6532172
-1.5109067 1.799647 -0.52055109
-1.4972816 1.7834179 -0.38821277
-3.7499781 4.4666138 -0.65004873
-9.8295994 11.708075 -0.85388744
-2.5982974 3.094842 0
-6.6719012 7.946928 0.57958138
-1.4662033 1.7421216 -0.75079834
-1.5164729 1.8018513 -0.64975703
-1.5212655 1.8075458 -0.52336711
-1.5275345 1.8149945 -0.39548782
-3.7670324 4.4759336 -0.65206707
-9.8487606 11.702155 -0.85432303
-2.5886285 3.0757711 0
-2.5907652 3.07831 0.2247339
-1.4619321 1.7327924 -0.74753851
-1.5364459 1.8211118 -0.65737152
-1.5431039 1.8290035 -0.5301196
-1.4850366 1.7601776 -0.38393393
-3.7824419 4.4832358 -0.65379626
-9.8595457 11.686278 -0.85403299
-2.5772409 3.0547407 0
-2.6062138 3.0890815 0.22575003
-1.4688145 1.7366879 -0.7499842
-1.5580862 1.8422403 -0.66567743
-1.5174204 1.7941582 -0.52055109
-1.5004178 1.7740548 -0.38735601
-3.7995498 4.4924884 -0.65581459
-9.8786879 11.680303 -0.85446799
-2.5842881 3.0555947 0
-2.6049087 3.0799761 0.22531447
-1.4629216 1.7254875 -0.74591011
-1.5538214 1.832702 -0.66290879
-1.5491673 1.8272127 -0.53068411
-1.5208229 1.7937809 -0.39206406
-3.825047 4.5115685 -0.6592741
-9.9028797 11.680253 -0.85533911
-2.5963981 3.0624011 0
-2.601907 3.0688984 0.2247339
-1.4489961 1.704882 -0.73775893
-1.5332859 1.804057 -0.6532172
-1.5349158 1.8059747 -0.52505416
-1.5030397 1.7684696 -0.38692847
-3.8422225 4.520741 -0.66129237
-9.9203482 11.672235 -0.85562915
-2.5899808 3.0473595 0
-0 0 0
-1.5231843 1.7877895 -0.77443159
-1.5484806 1.8174802 -0.65875447
-1.5420419 1.8099229 -0.52674335
-1.5018491 1.7627479 -0.38607335
-3.8661287 4.5377464 -0.6644628
-9.9327602 11.658264 -0.85548413
-2.5886025 3.0382905 0
-2.5907836 3.0408504 0.2231378
-1.4852154 1.7389638 -0.75405824
-1.5294961 1.7908098 -0.64975703
-1.5392756 1.8022602 -0.52505416
-1.5039779 1.7609318 -0.38607335
-3.8917663 4.556673 -0.66792232
-9.9637127 11.666008 -0.85693526
-2.5855112 3.0272446 0
-0 0 0
-1.440701 1.6827228 -0.730425
-1.5496081 1.8099251 -0.65737152
-1.5596315 1.8216321 -0.53124642
-1.5294749 1.7864095 -0.39206406
-3.9006302 4.5558929 -0.66849834
-9.9778013 11.653961 -0.85693526
-0 0 0
-2.6065726 3.0444479 0.22386335
-1.5060607 1.7569126 -0.76302361
-1.5392704 1.7956536 -0.65252572
-1.5557691 1.8149004 -0.52955723
-1.5255401 1.7796364 -0.39077976
-3.9185371 4.5712147 -0.67109376
-2.7488425 3.2066939 -0.23591565
-2.5672777 2.9948874 0
-2.6033366 3.0369523 0.22342779
-1.4743563 1.7157273 -0.74591011
-1.538172 1.7899905 -0.65114272
-1.5546521 1.8091686 -0.52843255
-1.5494375 1.8031005 -0.39634293
-3.9324846 4.576283 -0.67253494
-2.7510233 3.2014012 -0.23577064
-2.5641098 2.9838877 0
-2.6053123 3.0318356 0.22328278
-1.5119137 1.7551386 -0.76383781
-1.5616179 1.8128389 -0.66014016
-1.5435703 1.7918879 -0.52392948
-1.536538 1.7837243 -0.39249164
-3.94645 4.5813246 -0.67397618
-2.7464116 3.1882331 -0.23504509
-2.5626225 2.9748776 0
-2.5971007 3.0149024 0.22226667
