# .PCD v0.7 - Point Cloud Data file format
VERSION 0.7
FIELDS x y z
SIZE 4 4 4
TYPE F F F
COUNT 1 1 1
WIDTH 1707
HEIGHT 1
VIEWPOINT 0 0 0 1 0 0 0
POINTS 1707
DATA ascii
7.6977043 3.9515111 0.48330635
4.3151817 2.2217317 -0.80915499
4.2760472 2.2015827 -0.53607547
0 0 -0
6.6459694 3.4217703 0
7.6836829 3.9560516 0.4827258
4.2965341 2.2187026 -0.80616045
4.2779756 2.2091191 -0.53665149
0 0 -0
6.6395197 3.4286051 0
8.3137808 4.2931824 0.52263707
4.3005695 2.2273724 -0.539823
0 0 -0
6.628437 3.4330335 0
8.3270454 4.3127851 0.52379817
0 0 -0
4.3047543 2.2361407 -0.54068702
0 0 -0
6.6219769 3.4398415 0
8.1973228 4.2581682 0.51596147
0 0 -0
4.3089328 2.2449269 -0.54155219
4.7357802 2.4673116 -0.29827014
6.6178155 3.4478405 0
7.8303843 4.0795813 0.4931753
4.3291364 2.2621078 -0.54443455
6.4668622 3.3791356 -0.40755442
6.6251755 3.4618592 0
7.7886105 4.0697899 0.49085361
0 0 -0
4.3401499 2.274543 -0.54616487
6.4696722 3.3905623 -0.40798944
7.351676 3.8527939 0
7.7399554 4.0562797 0.48809582
0 0 -0
4.351131 2.2870038 -0.54789406
6.4724731 3.4020052 -0.408425
7.3700476 3.8737803 0
7.7350488 4.065629 0.48809582
4.3620973 2.2994988 -0.54962438
6.4913483 3.4219429 -0.40987667
7.3745704 3.8875372 0
7.7002506 4.0592208 0.48620915
4.3615999 2.3059754 -0.54991239
0 0 -0
7.4112854 3.9183426 0
0 0 0
4.3624897 2.3098192 -0.5502004
6.5425353 3.4640942 -0.41350445
7.4158101 3.9264693 0
0 0 0
4.3916721 2.3320692 -0.55423594
6.5429392 3.4744365 -0.41379502
7.4225507 3.9415286 0
0 0 0
4.4002724 2.3434565 -0.55567825
6.5318532 3.4786744 -0.41335946
7.4361591 3.9602811 0
7.6348543 4.0661006 0.48316136
4.4567509 2.3804522 -0.56317329
6.5276456 3.4865644 -0.41335946
7.4267817 3.9668136 0
7.6115994 4.0655289 0.48200026
6.1500802 3.2944555 -0.77765179
6.523428 3.4944491 -0.41335946
7.4288673 3.9794724 0
7.5975199 4.0698152 0.48141968
6.1620378 3.3104494 -0.77966899
6.5169139 3.5011003 -0.41321445
7.3965425 3.9736657 0
6.7937703 3.6498368 0.43076894
0 0 -0
6.5149641 3.5102036 -0.41335946
7.3207092 3.9443316 0
6.8145118 3.671597 0.43236506
0 0 -0
6.5198622 3.5230141 -0.41394001
7.1739945 3.8764753 0
6.7894979 3.6687121 0.43105894
0 0 -0
6.5133181 3.5296526 -0.41379502
7.0640564 3.828105 0
6.7576451 3.6620569 0.42931727
0 0 -0
6.5067677 3.5362806 -0.41365001
6.9839692 3.795629 0
6.7760506 3.6826298 0.43076894
6.1442027 3.3488581 -0.77995807
6.5138955 3.5503566 -0.41437557
6.9428163 3.784137 0
6.8081007 3.7107115 0.43309116
6.1469541 3.3599977 -0.78082216
6.4959164 3.5507448 -0.41350445
6.8925662 3.7675583 0
6.8150101 3.7251654 0.43381673
6.1519618 3.372396 -0.78197533
6.4984589 3.5623395 -0.41394001
6.8286786 3.7433603 0
6.8059425 3.7308967 0.43352616
6.1501555 3.3810766 -0.78226441
6.4804916 3.5626805 -0.41306946
6.8081932 3.7428358 0
6.7946053 3.7353659 0.43309116
6.1528544 3.3922482 -0.7831285
6.4511495 3.5567069 -0.41147277
6.8127818 3.7560856 0
6.7878046 3.7423148 0.43294561
6.157805 3.4046862 -0.78428167
6.4218397 3.5506725 -0.40987667
6.8082385 3.7643147 0
7.2335095 3.9994495 0.46168184
6.1559467 3.4133773 -0.78456968
6.4016352 3.5496078 -0.40886053
6.8309884 3.7876778 0
7.2377615 4.013227 0.46226239
6.156343 3.4233296 -0.78514683
6.376905 3.5459764 -0.40755442
6.8991909 3.8364017 0
7.2510748 4.0320721 0.46342352
6.1612382 3.4358046 -0.7863
6.3726153 3.553679 -0.40755442
7.046833 3.9296553 0
7.2598095 4.0484214 0.46429408
6.1864266 3.4596574 -0.79004753
6.3637767 3.5588374 -0.40726388
7.1034021 3.9724607 0
7.2526469 4.0559235 0.46414906
6.2183371 3.4873726 -0.79466015
6.3549438 3.5639846 -0.40697387
0 0 0
7.22961 4.0545158 0.46298796
6.2772331 3.5303802 -0.80273128
6.3506327 3.5716608 -0.40697387
7.1073956 3.9972723 0
7.2065868 4.0530581 0.46182683
6.3246832 3.562098 -0.80907422
6.332623 3.5665696 -0.40595776
7.1117759 4.005393 0
7.174706 4.0408359 0.45994017
6.3451414 3.5837257 -0.81224465
6.3305693 3.5754955 -0.40610275
7.1114674 4.0165453 0
7.1652975 4.0469489 0.45965016
6.3385582 3.5901165 -0.81195664
6.3172002 3.5780196 -0.4055222
7.1156669 4.0302658 0
7.1468325 4.0479178 0.45877904
6.3319688 3.5964966 -0.81166857
6.3038435 3.5805218 -0.40494221
7.108531 4.0375767 0
7.1328983 4.0514169 0.45819849
6.3231192 3.6015823 -0.81109148
6.3017683 3.589421 -0.4050872
7.1081657 4.0487366 0
7.0738177 4.0291719 0.4547157
6.3052912 3.6015251 -0.80936223
6.2906551 3.5931652 -0.40465164
7.1032686 4.0573225 0
6.531971 3.7310023 0.42017445
0 0 -0
6.2840567 3.5994732 -0.40450665
7.082551 4.0568466 0
0 0 0
6.2629251 3.5974267 -0.80503762
6.2819538 3.6083567 -0.40465164
7.0528264 4.0511465 0
6.5229354 3.7467766 0.42017445
6.2563348 3.6037018 -0.80474961
6.2843461 3.6198368 -0.4050872
6.9193854 3.9856248 0
6.5093966 3.7494678 0.4195939
6.2497382 3.6099663 -0.80446154
6.2867112 3.6313229 -0.4055222
6.7117562 3.8768368 0
6.5048614 3.7573304 0.4195939
6.2431355 3.61622 -0.80417353
6.2890668 3.6428249 -0.40595776
6.644011 3.8484199 0
6.5048094 3.7677898 0.41988391
6.2365184 3.6224582 -0.80388445
6.316113 3.6686904 -0.40798944
6.641613 3.8577559 0
7.1248641 4.1384501 0.46023071
6.2276711 3.6273901 -0.80330843
6.3431144 3.6946316 -0.41002166
6.697659 3.9011407 0
7.1176152 4.1457496 0.46008572
6.2232838 3.6349125 -0.80330843
6.3722954 3.7219474 -0.41219833
7.0569735 4.1218562 0
7.1126008 4.1543469 0.46008572
6.221117 3.6437352 -0.80359644
6.3610735 3.7257085 -0.41176334
7.0811796 4.1474776 0
7.0963583 4.1563683 0.45935962
6.2077885 3.6460102 -0.80244327
6.334157 3.7202299 -0.41031167
7.0312901 4.1296759 0
6.4057522 3.7622797 0.41494945
6.205605 3.6548197 -0.80273128
6.3005524 3.7107394 -0.408425
6.6518159 3.9176178 0
6.4056754 3.7726519 0.41523942
6.2011843 3.6623151 -0.80273128
6.2781649 3.7077787 -0.40726388
6.662766 3.9349174 0
6.4145408 3.7883198 0.41611055
6.1989865 3.6711273 -0.80302036
6.255794 3.7047694 -0.40610275
6.9759626 4.1312633 0
6.4144258 3.7987134 0.41640055
6.1923161 3.6772904 -0.80273128
6.2535534 3.7136562 -0.40624833
6.7315493 3.9975128 0
6.4143038 3.8091173 0.41669109
6.192317 3.6874192 -0.80330843
6.2646832 3.7305121 -0.40726388
6.5992694 3.9297521 0
6.4208574 3.8235111 0.41741666
6.1856384 3.693574 -0.80302036
6.3427153 3.7873678 -0.4126339
6.560997 3.9177084 0
6.4095378 3.8272688 0.4169811
6.1856046 3.7037001 -0.80359644
6.5231657 3.9058187 -0.42468005
6.5517969 3.922962 0
6.4115987 3.8390167 0.41741666
6.1855645 3.7138369 -0.80417353
6.5674481 3.9431212 -0.42787284
6.5470519 3.9308755 0
6.4069552 3.846761 0.41741666
6.1854997 3.7239738 -0.80474961
6.5693593 3.955076 -0.4283084
6.5690446 3.9548864 0
6.3644605 3.8317168 0.41494945
6.181036 3.7263761 -0.80446154
6.5647368 3.9576986 -0.42816284
6.9923387 4.215488 0
7.1075883 4.2849689 0.46356851
6.17874 3.7351787 -0.80474961
6.5577283 3.9642849 -0.42801785
7.0963607 4.2898998 0
7.0868459 4.2841477 0.46255296
6.1741118 3.7527835 -0.80532563
6.5459108 3.9787724 -0.42787284
6.412169 3.8974807 0
6.5058446 3.9544191 0.42525393
6.1828289 3.7683203 -0.80705595
6.5455317 3.9893811 -0.42816284
6.4230042 3.9147029 0
6.4633441 3.9392891 0.42278668
6.187099 3.7811832 -0.80820912
6.5429301 3.998646 -0.4283084
6.4249334 3.9265337 0
6.4208894 3.924062 0.42031947
6.1869321 3.7913568 -0.80878514
6.5380936 4.0065489 -0.4283084
6.4268436 3.9383748 0
6.4094944 3.9277432 0.41988391
6.1889596 3.8028932 -0.8096503
6.506681 3.9981217 -0.42656672
6.43538 3.9543097 0
6.4113874 3.9395673 0.42031947
6.1953683 3.8171511 -0.81109148
6.4996352 4.0046191 -0.42642173
6.4438872 3.9702711 0
6.422102 3.9568486 0.42133501
6.2083549 3.8355095 -0.81339782
6.4970002 4.013834 -0.42656672
6.4435177 3.9807928 0
6.4438438 3.9809942 0.42307669
6.2256994 3.8566265 -0.81628019
6.4899387 4.0203147 -0.42642173
6.4387026 3.9885755 0
6.4699583 4.0079374 0.42510891
6.286953 3.9050908 -0.82492948
6.4828625 4.0267782 -0.42627618
6.4360871 3.9977243 0
6.4805555 4.0253453 0.42612448
6.3480902 3.9537034 -0.83357769
6.4735851 4.0318642 -0.42598617
6.4334588 4.0068727 0
6.4845095 4.0386677 0.42670503
6.4288611 4.0147986 -0.84482026
6.4709105 4.0410581 -0.42613116
6.433032 4.0174031 0
6.470809 4.0409946 0.42612448
6.472229 4.0527601 -0.8511622
6.4682231 4.050252 -0.42627618
6.4127307 4.0155034 0
7.0979543 4.4445748 0.4677774
6.4760895 4.0660791 -0.85231537
6.4567289 4.0539231 -0.42584118
7.1021266 4.4591427 0
7.1057868 4.461441 0.46864852
6.4602294 4.0670123 -0.85087413
6.4562197 4.0644879 -0.42613116
7.1077433 4.4746523 0
7.1047845 4.4727898 0.46893853
6.4421835 4.0665293 -0.84914386
6.4491086 4.0709004 -0.42598617
7.095727 4.4790683 0
7.1081638 4.4869189 0.46951908
6.3979301 4.0494142 -0.84395516
6.4485722 4.0814667 -0.42627618
7.1013031 4.494597 0
7.1137133 4.5024519 0.47024465
6.3428106 4.02527 -0.83732522
6.4348598 4.0836864 -0.4256956
7.1024613 4.507359 0
7.1060758 4.5096531 0.47009966
6.3183045 4.0204353 -0.83473086
6.4299207 4.0914583 -0.4256956
7.0992031 4.5173335 0
7.113771 4.5266032 0.47097021
6.3134422 4.0280671 -0.83473086
6.4403086 4.1090097 -0.42671174
7.0849638 4.520309 0
7.1082964 4.5351954 0.47097021
6.3001027 4.0249138 -0.83328861
6.453155 4.1226935 -0.42772785
7.0866222 4.5273933 0
7.1055551 4.5394893 0.47097021
6.2887073 4.0283422 -0.83242452
6.4525409 4.1332884 -0.42801785
7.085525 4.5387578 0
7.0760026 4.5326581 0.46937409
6.2947145 4.0429254 -0.8338657
6.4584713 4.1481018 -0.42874339
7.077848 4.5459108 0
7.0770736 4.5454135 0.46980909
6.2854714 4.0477247 -0.83328861
6.4753051 4.1699739 -0.43019506
7.0789165 4.5586882 0
7.0781322 4.5581832 0.47024465
6.2718844 4.0497046 -0.83213544
6.5553904 4.2327619 -0.43585509
7.0777712 4.5700593 0
7.0791702 4.5709624 0.47068021
6.2669868 4.0572801 -0.83213544
6.6375122 4.2971601 -0.44166011
7.0744352 4.5800261 0
7.0780001 4.5823345 0.47097021
6.2512345 4.0578094 -0.83069426
6.7216735 4.3631816 -0.44761071
7.062345 4.5843186 0
7.078999 4.595129 0.47140577
6.2506666 4.0681844 -0.83127135
6.7577772 4.3982325 -0.45036849
7.052434 4.5900068 0
7.0821528 4.6093488 0.47198632
6.2327456 4.0672503 -0.82954109
6.7589798 4.4106507 -0.45080349
7.0577865 4.6056404 0
7.0765781 4.6179028 0.47198632
6.2299972 4.0761986 -0.82983017
6.7645154 4.4259262 -0.45152906
7.0565677 4.617012 0
7.077518 4.6307197 0.47242188
6.2293887 4.0865583 -0.83040625
6.7635121 4.4369497 -0.4518196
7.0640359 4.6340976 0
7.0740881 4.6406918 0.47256687
6.2244463 4.0940824 -0.83040625
6.7646608 4.4494042 -0.45225516
7.0714817 4.6512132 0
7.0706444 4.6506629 0.47271189
6.2130151 4.0973268 -0.82954109
6.7484274 4.450418 -0.45152906
7.0723763 4.6640539 0
7.0758638 4.6663542 0.47343743
6.2015934 4.1005554 -0.828677
6.721374 4.4442401 -0.45007792
7.0537062 4.663981 0
7.0745597 4.6777697 0.473728
6.1944723 4.1066127 -0.82838792
6.6726842 4.4236426 -0.44717515
7.0415559 4.6681852 0
7.0797291 4.6934919 0.47445354
6.1981215 4.1198215 -0.82954109
6.628386 4.4058137 -0.44456291
7.0359101 4.6766901 0
7.0718908 4.7006059 0.47430855
6.190989 4.125875 -0.82925308
6.5992708 4.3979669 -0.44296622
7.0584054 4.7039495 0
7.0748549 4.7149115 0.4748891
6.1709428 4.1232924 -0.82723475
6.5788345 4.3958364 -0.44195068
7.0678658 4.7225971 0
7.0756278 4.7277837 0.47532412
6.170258 4.1336274 -0.8278119
6.5605612 4.3951025 -0.44107956
7.0837798 4.7456212 0
7.0871806 4.7478995 0.47648522
6.1674042 4.1425209 -0.82809991
6.5552459 4.4030266 -0.44107956
7.1233988 4.7846432 0
7.1375175 4.7941265 0.48025858
6.1645374 4.1514134 -0.82838792
6.536993 4.4022379 -0.440209
7.1780543 4.833951 0
7.2524152 4.884028 0.48838639
6.1595168 4.1588588 -0.82838792
6.5359721 4.4130387 -0.44049901
7.2110281 4.8688312 0
7.2745023 4.9116888 0.49027306
6.1630545 4.1720982 -0.82954109
6.5241861 4.4165673 -0.44006401
7.1965194 4.8717051 0
7.2664127 4.9190197 0.49012807
6.1601548 4.1809988 -0.82983017
6.5166965 4.4229894 -0.43991899
7.173409 4.8687105 0
7.2518635 4.9219594 0.48954749
6.1554828 4.1832619 -0.82954109
6.5161705 4.4283848 -0.44006401
7.1596975 4.8657255 0
7.2338428 4.9161143 0.48853138
6.1675234 4.2023473 -0.83184743
6.5108147 4.436255 -0.44006401
7.147367 4.8699808 0
7.2107182 4.9131465 0.48737028
6.177393 4.2200108 -0.8338657
6.5011544 4.4411845 -0.43977344
7.1264329 4.8683357 0
7.1983376 4.9174571 0.48693472
6.1701574 4.2260118 -0.83357769
6.4979334 4.4505091 -0.43991899
7.1184001 4.875474 0
7.1730981 4.9129376 0.4856286
6.1927629 4.2524967 -0.83732522
6.4925508 4.4583573 -0.43991899
7.0674529 4.8531356 0
7.1371722 4.9010115 0.48359692
6.1790986 4.2541094 -0.83617204
6.4871593 4.4661994 -0.43991899
7.0058541 4.8233037 0
7.0841632 4.8772173 0.48040414
6.2016239 4.2806721 -0.83991957
6.4881673 4.4784584 -0.44035399
6.9486175 4.7962842 0
6.9713449 4.8119721 0.47314742
6.1879396 4.2822747 -0.83876646
6.4934325 4.4936867 -0.44107956
6.947093 4.8076358 0
6.8629642 4.7494159 0.46618074
6.1997614 4.3015442 -0.84107274
6.490139 4.503015 -0.44122511
6.9712181 4.8367991 0
6.8273358 4.7369704 0.46414906
6.2072949 4.3178911 -0.84280199
6.4889555 4.5138187 -0.44151512
6.8799109 4.7857733 0
6.8365412 4.7556047 0.4651652
6.2084398 4.3298287 -0.84366715
6.489893 4.5261168 -0.44195068
6.6798849 4.6586194 0
6.8862 4.8025055 0.46893853
6.2180433 4.3477035 -0.84568542
6.4844189 4.5339551 -0.44195068
6.616662 4.6264205 0
6.9506645 4.8599572 0.473728
6.2043138 4.3492746 -0.84453225
6.4768105 4.540297 -0.44180566
6.5897608 4.6194763 0
7.0511694 4.9429274 0.48098469
6.1884675 4.3493276 -0.84309
6.4713197 4.5481195 -0.44180566
6.599081 4.6379118 0
7.0451913 4.9514437 0.48098469
6.2149243 4.3791504 -0.84741467
6.4700632 4.5589261 -0.44209567
6.5892134 4.6428814 0
7.0689368 4.9809036 0.48301637
6.2138495 4.3896384 -0.84799069
6.46243 4.5652428 -0.44195068
6.5814748 4.6493397 0
7.0480552 4.9789448 0.48200026
6.2423129 4.421062 -0.85260338
6.4738727 4.5850625 -0.44311178
6.5758524 4.6572886 0
6.4864941 4.5940013 0.44397566
6.3192158 4.4870033 -0.86384702
6.4789195 4.6004019 -0.44383734
6.5426364 4.6456447 0
6.4682302 4.5928121 0.4431051
6.402276 4.5576272 -0.87595367
6.4775853 4.611238 -0.44412735
6.5200572 4.6414728 0
6.4584384 4.5976076 0.44281453
6.424139 4.584897 -0.87970227
6.4825902 4.6266136 -0.44485345
6.5144439 4.6493473 0
6.444418 4.59937 0.44223398
6.5650868 4.703474 -0.90016913
6.5058722 4.6610508 -0.44703013
6.5440831 4.6884265 0
6.391715 4.5792642 0.43918619
6.605619 4.7446022 -0.90651208
6.5487785 4.7037749 -0.45036849
6.5320778 4.6917796 0
6.3207593 4.5399961 0.43468729
6.6292624 4.7737374 -0.91054761
6.6295338 4.7739329 -0.4563185
6.4693804 4.6586061 0
6.342679 4.5673685 0.43657395
6.6360679 4.7908249 -0.91227686
6.7438459 4.8686337 -0.46459132
6.4278774 4.6405244 0
6.364542 4.5948 0.43846065
6.6218929 4.7927737 -0.91112369
6.7463779 4.8828731 -0.46517187
6.4201593 4.6467633 0
6.3695083 4.6101031 0.43918619
6.6098228 4.7962189 -0.9102596
6.7762237 4.9169626 -0.46763912
6.4271741 4.6636853 0
6.3828669 4.6315351 0.44049287
6.6102915 4.8087626 -0.91112369
6.8059974 4.9511313 -0.47010633
6.4110136 4.6637945 0
6.4003739 4.6560545 0.44208899
6.6065722 4.8182745 -0.91141278
6.8692884 5.0098777 -0.47489581
6.4095831 4.6746073 0
6.403141 4.669909 0.44266954
6.6070032 4.8308291 -0.91227686
6.7583556 4.9414935 -0.46763912
6.3997245 4.6792736 0
6.4037886 4.6822453 0.4431051
6.6053371 4.8418703 -0.91285396
6.7335205 4.9358315 -0.466333
6.4234471 4.7085404 0
6.3771729 4.6746206 0.441654
6.6078186 4.8559747 -0.91400713
6.6961417 4.9208817 -0.46415576
6.4492121 4.7394171 0
6.3254514 4.6484675 0.43846065
6.6019464 4.863955 -0.91400713
6.6734552 4.9166389 -0.46299464
6.5210032 4.8043208 0
7.0645475 5.2047744 0.49012807
6.5981431 4.8734641 -0.91429514
6.6633334 4.9216142 -0.46270466
6.5424051 4.8322954 0
7.0645175 5.2179337 0.49056306
6.606802 4.8922091 -0.91631347
6.646934 4.921926 -0.46197852
6.5177398 4.8262601 0
7.0561213 5.2249212 0.49041805
6.6071105 4.904809 -0.91717756
6.6514201 4.9377027 -0.46270466
6.5035453 4.8279271 0
7.0539718 5.2365379 0.49070805
6.6115518 4.9205084 -0.91861874
6.6558695 4.9534912 -0.4634302
6.4267268 4.7829561 0
7.039309 5.2388582 0.49012807
6.6138935 4.9346805 -0.91977191
6.6686211 4.9755135 -0.46473631
6.391736 4.7689271 0
7.0246434 5.2411442 0.48954749
6.610003 4.944222 -0.92006099
6.648037 4.972671 -0.4637202
6.4047313 4.7906804 0
6.3878636 4.7780638 0.44557232
6.616436 4.961513 -0.92179018
6.6378698 4.9775858 -0.4634302
6.4572296 4.8421273 0
6.9495864 5.2113347 0.48519304
6.6228371 4.978826 -0.92351943
6.6214676 4.977797 -0.46270466
6.4700942 4.8639994 0
6.9017525 5.1885056 0.4822908
6.6147528 4.98527 -0.92323142
6.6050668 4.9779701 -0.46197852
6.553575 4.9391627 0
6.739851 5.0795512 0.47140577
6.6169786 4.9994955 -0.92438459
6.6052685 4.9906478 -0.46241409
7.1019921 5.3659506 0
6.6549301 5.0281701 0.46589074
6.6191802 5.0137343 -0.92553771
6.6116652 5.0080423 -0.46328521
7.0892777 5.369812 0
6.6198554 5.0142455 0.46385908
6.626452 5.0255456 -0.92697895
6.6396885 5.035584 -0.46546188
7.0632205 5.3567939 0
6.6002617 5.0056825 0.46269795
6.6265535 5.0382466 -0.92784405
6.6480803 5.0546136 -0.46647799
6.9842391 5.3101993 0
6.5880013 5.0089345 0.46226239
6.6307445 5.0540876 -0.92928529
6.6750331 5.0878458 -0.46880022
6.861917 5.2302923 0
6.5736775 5.0105906 0.46168184
6.6266861 5.0636649 -0.9295733
6.6564884 5.0864382 -0.4679291
6.8700619 5.2496362 0
6.5449133 5.0011797 0.46008572
6.6328859 5.0811086 -0.93130356
6.6854029 5.1213388 -0.47039634
6.9856 5.3513045 0
6.5099826 4.986959 0.4580535
6.6328979 5.0938473 -0.93216872
7.0480881 5.4126997 -0.49637532
7.0616918 5.4231467 0
6.489532 4.983747 0.45703793
6.6718221 5.1365681 -0.9385106
7.0765429 5.4481583 -0.49884257
7.071631 5.4443765 0
6.4629121 4.9757304 0.45558625
6.7884555 5.2394395 -0.95580703
7.0637817 5.4519405 -0.49840701
7.0897698 5.4719987 0
6.4383841 4.9692488 0.45428014
6.8496242 5.2998691 -0.96532041
7.057189 5.4604716 -0.49840701
6.4018841 4.9534321 0
6.411828 4.9611263 0.45282903
6.8534317 5.3160667 -0.96676159
7.0382628 5.4594364 -0.49753588
6.3958941 4.961164 0
6.3627138 4.9354267 0.44978124
6.8674173 5.3402181 -0.96964401
7.0255132 5.4631557 -0.49710089
6.449472 5.0152164 0
6.381361 4.9622526 0.45152292
6.854846 5.3437462 -0.96877992
7.0107098 5.4652505 -0.49652034
6.4803486 5.0518036 0
6.3999443 4.9891238 0.45326403
6.8626442 5.3631692 -0.97079718
6.9815774 5.4561157 -0.49492365
6.4762959 5.0612373 0
6.4000554 5.0016551 0.45369959
6.8622689 5.3762441 -0.97166228
6.9545293 5.4485254 -0.49347255
6.4619813 5.0626392 0
6.3940072 5.0093846 0.45369959
6.8557677 5.384532 -0.97166228
6.9336338 5.4456882 -0.49245644
6.4456201 5.0624013 0
6.3716016 5.0042672 0.45253846
6.8472261 5.3912134 -0.97137427
6.8903046 5.4251313 -0.4898442
6.4292765 5.0621376 0
6.3124728 4.9701715 0.44876513
6.8589773 5.4139042 -0.97396863
6.8245969 5.3867669 -0.48563528
6.4129429 5.061842 0
6.2534366 4.9359407 0.44499177
6.8301172 5.404532 -0.97079718
8.6641302 6.8557482 -0.61712468
6.4006977 5.0647407 0
6.1557736 4.8709373 0.43846065
6.8316875 5.4192104 -0.97195029
8.6273432 6.8436074 -0.61509299
6.3864174 5.0660014 0
6.0643864 4.8105516 0.43236506
6.8332319 5.4339004 -0.97310346
8.6312666 6.8637276 -0.61596358
6.3925171 5.083437 0
6.0219655 4.7887678 0.42975283
6.8347511 5.4486022 -0.97425663
8.6168776 6.8692975 -0.61552858
6.4067163 5.1073771 0
6.0182047 4.7976589 0.42989781
6.8281627 5.4568567 -0.97425663
8.6105986 6.8813248 -0.61567354
6.4046102 5.1183667 0
6.0245862 4.8146634 0.43076894
6.8228469 5.4593668 -0.97396863
8.5658617 6.8540568 -0.6127708
6.4319921 5.1466203 0
6.0318189 4.8264179 0.4314945
6.8243155 5.4740806 -0.9751218
8.5373087 6.8481464 -0.61131966
6.4460731 5.1706758 0
6.0604386 4.861341 0.43396172
6.8217239 5.4855609 -0.97569788
8.5249739 6.855197 -0.61102909
6.4317083 5.171937 0
6.1254277 4.9256473 0.4390412
6.8090553 5.4889345 -0.97483379
8.5106211 6.8606052 -0.61059409
6.4254541 5.1797047 0
6.0830617 4.9036942 0.43642896
6.8064375 5.5004058 -0.97540981
8.4861574 6.8578181 -0.609433
6.3888264 5.1629267 0
6.0306544 4.8734818 0.43309116
6.7977786 5.5069995 -0.9751218
8.4536362 6.8484387 -0.60769129
6.3421397 5.1378784 0
6.016685 4.8742223 0.43251061
6.7931256 5.5168386 -0.97540981
8.4312334 6.8471799 -0.60667521
6.3621879 5.1668649 0
5.9946547 4.8683839 0.43134949
6.7884583 5.5266738 -0.97569788
8.4189272 6.8540845 -0.60638517
6.4063935 5.2156243 0
5.9988413 4.8838248 0.43207505
6.7857871 5.5381465 -0.97627497
8.3965464 6.8527498 -0.60536909
6.428318 5.2464023 0
5.9506626 4.8565688 0.42902726
6.7870979 5.5528932 -0.97742814
8.3842411 6.8596029 -0.60507905
6.4562144 5.2821794 0
5.940764 4.8604612 0.42873672
6.7803831 5.56109 -0.97742814
8.3699169 6.8647833 -0.60464352
6.4437885 5.2850237 0
5.9168067 4.852807 0.4274306
6.7796469 5.5742016 -0.97829223
8.3455591 6.8616896 -0.60348243
6.4172993 5.2762809 0
5.904923 4.8550072 0.42699561
6.7828918 5.5906196 -0.97973448
8.3332558 6.8684664 -0.60319239
6.4129257 5.2856851 0
5.9050617 4.8670917 0.4274306
6.77214 5.5955133 -0.97915733
8.3089256 6.8652897 -0.60203129
6.410543 5.296742 0
5.9132004 4.8858104 0.42844671
6.7653737 5.6036921 -0.97915733
8.2766104 6.8554344 -0.60028964
6.3861017 5.2895446 0
5.9012876 4.8879776 0.42801115
6.7625818 5.6151705 -0.97973448
8.2603245 6.8587899 -0.59970903
6.3877144 5.3039074 0
5.8833861 4.8851485 0.42714059
6.7557917 5.6233373 -0.97973448
8.2400522 6.8587952 -0.59883851
6.3913007 5.3199449 0
5.8794742 4.8939142 0.42728558
6.7410483 5.6248679 -0.97858131
8.2337513 6.87041 -0.59898353
6.3848677 5.3276634 0
5.8715634 4.8993521 0.42714059
6.7373433 5.6494498 -0.98002249
8.1872559 6.865242 -0.59680629
6.3460517 5.321341 0
5.8497529 4.9051805 0.42641503
6.7285342 5.6559238 -0.97973448
8.172986 6.8701124 -0.5963707
6.3216896 5.3139353 0
5.8438215 4.9122453 0.42641503
6.7315826 5.6723819 -0.98117566
8.1527605 6.8699398 -0.59550017
6.3033271 5.311511 0
5.8239708 4.9075804 0.42539892
6.7365756 5.6905227 -0.98290485
8.1345301 6.8714032 -0.5947746
6.2889519 5.3124061 0
5.8120794 4.9095821 0.42496336
6.7296944 5.698658 -0.98290485
8.1143198 6.8711491 -0.59390348
6.2745843 5.3132739 0
5.823988 4.9317122 0.42626947
6.7400622 5.7144332 -0.98492318
8.1002588 6.8676496 -0.59317791
6.2832794 5.3271585 0
5.8229952 4.9369149 0.42641503
6.7351217 5.7242465 -0.98521119
8.082057 6.86902 -0.59245235
6.274857 5.3330626 0
8.3373699 7.0860128 0.61116797
6.7459173 5.7474751 -0.98780555
8.0579281 6.8652992 -0.59129125
6.2604842 5.33389 0
8.3030901 7.0741758 0.6092813
6.7311006 5.7489033 -0.98665237
8.0278978 6.8564725 -0.58969516
6.2579966 5.3448339 0
8.2945366 7.0842032 0.6092813
6.7320085 5.7637606 -0.98780555
8.00776 6.8560247 -0.58882403
6.2436261 5.3456216 0
8.2741241 7.0840778 0.60841018
6.7348509 5.7803121 -0.98924679
7.9797559 6.8487754 -0.5873729
6.2371626 5.3531618 0
8.2517614 7.0822287 0.60739464
6.7317867 5.7918224 -0.98982388
7.9557171 6.8448544 -0.5862118
6.2267404 5.357296 0
8.2156172 7.0684652 0.60536242
6.7306609 5.8050218 -0.99068904
7.9769502 6.8799138 -0.58838844
6.2222314 5.3665142 0
8.2090435 7.0800886 0.60550797
6.7236419 5.8131504 -0.99068904
7.9823928 6.9014454 -0.58940458
7.9185905 6.8462834 0
8.16117 7.0560136 0.60260516
6.714653 5.8195715 -0.99039996
7.997611 6.9315076 -0.59114623
7.9024458 6.8490286 0
8.1408529 7.055655 0.60173404
6.7076163 5.8276806 -0.99039996
8.0029621 6.9530973 -0.59216237
7.8922019 6.8568668 0
8.1244755 7.0586696 0.60115349
6.7142248 5.8476734 -0.99241823
7.9788795 6.9491096 -0.59100127
7.8603606 6.8458872 0
8.115941 7.0684814 0.60115349
6.7110472 5.8591809 -0.99299431
7.9195881 6.9143162 -0.58722788
7.8677664 6.8690724 0
8.0878239 7.0611968 0.59970236
6.707859 5.8706961 -0.9935714
7.8427887 6.8639827 -0.5821479
7.8202929 6.8442945 0
8.0597363 7.0538545 0.59825122
6.7085376 5.8856201 -0.99472457
7.8188629 6.859745 -0.58098674
7.7944126 6.8382936 0
8.0355806 7.0498786 0.59709013
6.7014208 5.8937216 -0.99472457
7.8164239 6.8743372 -0.58142233
7.7724624 6.8356743 0
8.0270567 7.0595827 0.59709013
6.7117543 5.9172072 -0.99731892
7.7944665 6.8717465 -0.58040619
7.7876229 6.8657131 0
7.9717412 7.0280352 0.59360677
6.6987834 5.9201727 -0.99645382
7.7822671 6.8777213 -0.58011621
7.7734694 6.869946 0
7.9749293 7.0479903 0.59447789
6.699369 5.935123 -0.99760693
7.7622852 6.8767843 -0.57924563
7.7398405 6.8569007 0
7.9605708 7.0524502 0.59404236
6.6999283 5.9500837 -0.9987601
7.7461987 6.8792567 -0.57866508
7.7393336 6.8731599 0
7.9131856 7.027555 0.59113955
6.6888742 5.9547386 -0.99818408
7.7165298 6.8696041 -0.57706839
7.7038131 6.858283 0
7.9299173 7.0595713 0.59302622
7.6927142 6.8650823 -0.57590729
7.6896935 6.8623867 0
7.9271994 7.0743399 0.59346181
7.6689205 6.8605127 -0.57474619
7.6717 6.862999 0
7.907022 7.0735149 0.59259069
7.6548271 6.8645744 -0.5743112
7.6730876 6.8809495 0
7.853981 7.0431681 0.58925289
7.6310678 6.8599215 -0.57315004
7.6202579 6.8502045 0
7.8705845 7.0752344 0.59113955
7.6172595 6.855834 -0.57242393
7.6083808 6.8478427 0
7.8412027 7.0573916 0.58925289
7.5973983 6.8545928 -0.57155341
7.6020312 6.8587728 0
7.8210974 7.0564208 0.5883823
7.5833268 6.8585372 -0.57111782
7.5937381 6.8679533 0
7.8164163 7.0693483 0.58867234
7.5731111 6.8659515 -0.57097286
7.5815816 6.873631 0
7.7943912 7.0665689 0.5876562
7.5417337 6.8541255 -0.56923115
7.5636353 6.8740301 0
7.7954674 7.0847249 0.5883823
7.5276895 6.8579884 -0.56879616
7.5322452 6.8621387 0
7.7465653 7.0573916 0.58533454
7.5021234 6.8513036 -0.5674895
7.5316353 6.8782549 0
7.7648907 7.0912752 0.58736622
7.4804287 6.8480864 -0.5664739
7.5079618 6.873292 0
7.7333174 7.0795975 0.58562452
7.4759741 6.8606305 -0.56676394
7.488143 6.8717976 0
7.7151866 7.0801535 0.58489895
7.4581189 6.8608642 -0.56603837
7.4798341 6.8808408 0
7.7047157 7.0877132 0.58475399
7.4498234 6.8698711 -0.56603837
7.4485559 6.8687024 0
7.7018709 7.1022973 0.58518898
7.4300723 6.868288 -0.56516784
7.4345236 6.8724027 0
7.6837449 7.1027808 0.58446342
7.4084239 6.8648963 -0.5641517
7.4300284 6.8849154 0
7.6656289 7.103231 0.58373785
7.3906064 6.8650022 -0.56342614
7.4274259 6.8992033 0
7.6589427 7.114255 0.58388287
7.370892 6.8632994 -0.56255502
7.4228897 6.9117165 0
7.6408343 7.1146522 0.5831573
7.3569007 6.8668871 -0.56212002
7.3764901 6.8851714 0
7.6531286 7.1433845 0.58475399
7.3410087 6.86867 -0.56153947
7.3966651 6.9207458 0
7.6217227 7.1313224 0.58301228
7.3289094 6.8739762 -0.5612489
7.3807049 6.9225564 0
7.6074128 7.1351924 0.58257675
7.3281708 6.8899465 -0.56182945
7.3533778 6.9136462 0
7.6044669 7.1497207 0.58301228
7.3141656 6.8934479 -0.56139392
7.3374429 6.9153862 0
7.5769167 7.1410851 0.58156121
7.2907276 6.8880119 -0.56023335
7.3215146 6.917098 0
7.5871668 7.1680765 0.58301228
7.2767377 6.8914542 -0.55979782
7.3225975 6.934886 0
7.5709534 7.1700921 0.58243173
7.2593722 6.8833323 -0.55878168
7.3240738 6.9446821 0
7.5571942 7.1657267 0.58170617
7.2453976 6.8867264 -0.55834609
7.3062472 6.9445639 0
7.5485301 7.1748528 0.58170617
7.2239079 6.8829341 -0.55733055
7.3016152 6.956974 0
7.5605435 7.2036805 0.58330232
7.2400122 6.9149876 -0.55921721
0 0 0
7.5368013 7.1984529 0.58214116
7.2185111 6.91115 -0.55820113
0 0 0
7.5449953 7.2237325 0.58344787
7.2176542 6.9270639 -0.55878168
0 0 0
7.5418801 7.2382364 0.58388287
7.207408 6.93398 -0.55863667
0 0 0
7.5218968 7.2365384 0.58301228
7.2065058 6.9498992 -0.55921721
0 0 0
7.5131474 7.2456217 0.58301228
7.2130485 6.9730501 -0.56037837
0 0 0
7.5211992 7.2709475 0.5843184
7.2064819 6.9835668 -0.56052333
0 0 0
7.5124083 7.2800298 0.5843184
7.2129493 7.0067539 -0.56168449
0 0 0
7.5091996 7.2945352 0.58475399
7.1848426 7.0132775 -0.5608139
7.3045478 7.1301246 0
7.5082827 7.3289943 0.58606011
7.2097898 7.0546618 -0.56342614
7.2940688 7.1371269 0
7.5347042 7.3725848 0.5888173
7.2346478 7.0961161 -0.56603837
7.278008 7.1386461 0
7.4998231 7.3562136 0.58678567
7.2853599 7.1631494 -0.57068282
7.250823 7.1291919 0
7.4909291 7.3652701 0.58678567
7.3118563 7.2065983 -0.57344007
7.2477589 7.1434236 0
7.4986782 7.3907304 0.58809179
7.3179307 7.2300377 -0.57460117
7.2409787 7.1540103 0
7.510077 7.4198761 0.58968842
7.3073449 7.2370481 -0.57445616
7.2249327 7.1554289 0
7.5121799 7.4399128 0.59055901
7.2949033 7.2422075 -0.57416564
7.2310567 7.178822 0
7.5087185 7.4544783 0.59099454
7.2750998 7.2400227 -0.57329506
7.2131486 7.17837 0
7.5181208 7.4818716 0.59244567
7.2663465 7.2488079 -0.57329506
7.2026291 7.1852441 0
7.5127573 7.4946241 0.59273624
7.2539039 7.2539039 -0.57300448
7.2141862 7.2141862 0
7.5165524 7.5165524 0.59375179
7.2789006 7.2877011 -0.57532674
7.2374082 7.2461586 0
7.5193553 7.5284462 0.59433234
7.290266 7.3167405 -0.57692343
7.2304893 7.2567472 0
7.5230932 7.5504131 0.59534848
7.3088918 7.3531823 -0.57910007
7.2162099 7.2599392 0
7.5139642 7.5594978 0.59534848
7.3256192 7.3878441 -0.58113229
7.2220922 7.2834373 0
7.5157986 7.579639 0.596219
7.789948 7.8751259 -0.61872137
7.2187786 7.2977109 0
7.5157766 7.5979567 0.59694511
7.7950277 7.8993292 -0.61988246
7.1989841 7.29531 0
7.5138912 7.6144309 0.59752572
7.7909479 7.914299 -0.62031806
7.2138968 7.3281116 0
7.5174403 7.6364613 0.59854126
7.7886548 7.9311161 -0.62089801
7.2013936 7.3331127 0
7.5136714 7.6511025 0.59897679
7.7899799 7.9516616 -0.62176913
7.1961665 7.3455234 0
7.5171514 7.6731706 0.59999293
7.7985244 7.9796486 -0.62322026
7.2018375 7.3691034 0
7.5205827 7.695251 0.60100847
7.7943206 7.9946489 -0.6236558
7.1965652 7.3815303 0
7.5185347 7.7117748 0.60158902
7.7900915 8.0096512 -0.62409139
7.1985245 7.4014111 0
7.5182676 7.730166 0.60231459
7.7912607 8.0302439 -0.62496191
7.1895761 7.4101033 0
7.5143514 7.7448411 0.60275018
7.7905865 8.0489864 -0.62568748
7.1806169 7.4187851 0
7.4977593 7.7464466 0.60216957
7.7952943 8.073348 -0.62684858
7.1969523 7.4536633 0
7.4992266 7.7667198 0.6030407
7.7891421 8.0865078 -0.62713915
7.1825294 7.4567366 0
7.484427 7.7701592 0.60260516
7.7793655 8.0959139 -0.62713915
7.1807203 7.4729085 0
7.4750328 7.7791972 0.60260516
7.7695775 8.1053076 -0.62713915
7.1662879 7.4759488 0
7.4979906 7.8219848 0.6052174
7.7633667 8.1184416 -0.62742919
7.1734357 7.5015292 0
7.4939227 7.8366747 0.60565293
7.7625175 8.1372156 -0.6281547
7.1787372 7.5252562 0
7.5023808 7.864522 0.60710406
7.7544761 8.1484766 -0.62830031
7.1983447 7.5640888 0
7.5233231 7.9055791 0.60957128
7.7410431 8.154068 -0.62800974
7.1641107 7.5463533 0
8.6962605 9.1602507 0.70550388
7.7204676 8.1520996 -0.62713915
7.1818323 7.5833502 0
8.6708918 9.1556587 0.70434278
7.6838431 8.1330881 -0.62496191
7.1887474 7.609046 0
8.6473293 9.1529055 0.70332664
7.4185786 7.861824 -0.60377294
7.1770048 7.6058164 0
8.641798 9.1581287 0.70332664
7.3253627 7.7818546 -0.59695125
7.1874332 7.6353297 0
8.6253805 9.1628857 0.70289111
7.5596361 8.0501947 -0.6168347
7.1621633 7.6269288 0
8.6000729 9.1581478 0.70172995
7.6547103 8.1712017 -0.6253975
7.1582818 7.6412773 0
8.5836763 9.1628485 0.70129496
7.6607971 8.1975298 -0.62670362
7.1668162 7.6689391 0
8.5637226 9.1637163 0.70056885
7.6597443 8.2162809 -0.62742919
7.1859322 7.7080431 0
8.542016 9.1626568 0.69969833
7.6551213 8.2312403 -0.62786472
7.1801615 7.7205358 0
8.5185499 9.1596498 0.69868219
7.643404 8.2385817 -0.6277197
7.1973729 7.7578182 0
8.5004072 9.1623173 0.69810164
7.6228504 8.2363653 -0.62684858
7.1862278 7.7646012 0
8.4716835 9.1535149 0.69665051
7.5882192 8.2188454 -0.62481695
7.1715426 7.7675405 0
8.4500437 9.1522932 0.69577998
7.5818 8.2318268 -0.62510693
7.1692042 7.7838573 0
8.4389791 9.1624966 0.69577998
7.5648155 8.2333279 -0.62452638
7.1897254 7.8250909 0
8.4173498 9.1612024 0.69490886
7.5653996 8.2539597 -0.6253975
7.1855421 7.83953 0
8.3939896 9.1579638 0.69389325
7.5641861 8.2726812 -0.62612307
7.2146969 7.8904572 0
8.9194365 9.7548704 0.73830348
7.5594397 8.2875767 -0.6265586
7.1928854 7.8857155 0
8.9146481 9.7733202 0.73888403
7.5564156 8.3043919 -0.62713915
7.20437 7.9174995 0
8.9150753 9.7975397 0.73990011
7.5620923 8.3308306 -0.62844527
7.2157817 7.9493155 0
8.9346628 9.8429327 0.74251235
7.5415525 8.3284016 -0.62757415
7.1712408 7.9194536 0
8.9402018 9.8729792 0.74396348
7.5471582 8.3548603 -0.62888026
7.2244625 7.9976296 0
8.9404602 9.897274 0.74497956
7.5074878 8.3311596 -0.62641305
7.239181 8.0334158 0
8.2205648 9.1224699 0.68591106
7.4748349 8.3151054 -0.62452638
7.1981549 8.0073233 0
8.2199554 9.1439877 0.68678159
7.4509034 8.3086548 -0.62336528
7.2475467 8.0818872 0
8.2036943 9.1481075 0.68634605
7.4044852 8.2769918 -0.62031806
7.2516575 8.1061554 0
8.1839743 9.1483316 0.68562049
7.387558 8.2781782 -0.61973745
7.2574511 8.1323862 0
8.1694574 9.1543407 0.68533045
7.3619952 8.2696257 -0.61843079
7.2856865 8.1839094 0
8.1497459 9.1544952 0.68460435
7.3604541 8.2779598 -0.61872137
7.3101373 8.2213707 0
8.1338577 9.1477699 0.68373382
7.3383751 8.2732372 -0.61770523
7.3295546 8.2632933 0
8.109004 9.1420403 0.68257266
7.3387079 8.2937784 -0.61857635
7.3368139 8.2916384 0
8.0824566 9.1343193 0.68126655
7.3255124 8.3192892 -0.6191569
0 0 0
8.048337 9.140172 0.68025047
7.3274541 8.341795 -0.62017244
0 0 0
8.030427 9.1420813 0.67966992
7.3053865 8.3369684 -0.6191569
0 0 0
8.0108137 9.1420078 0.67894435
7.2816267 8.3301382 -0.6179958
0 0 0
7.9912128 9.141901 0.67821878
7.9870706 9.1594744 -0.67880601
0 0 0
7.97333 9.1437159 0.67763823
7.9691758 9.1612759 -0.67822546
0 0 0
7.9520464 9.1415844 0.67676765
7.9444761 9.1551981 -0.67706436
7.9641409 9.1778603 0
7.9307733 9.1394072 0.67589653
7.9300098 9.1608648 -0.67677438
7.9172778 9.1461573 0
7.909524 9.1371994 0.675026
7.910439 9.1606016 -0.67604822
7.897718 9.1458702 0
7.8916845 9.1388826 0.67444545
7.8925805 9.1622782 -0.67546767
7.8798666 9.1475191 0
7.8738527 9.1405373 0.6738649
7.8713465 9.1599874 -0.67459714
7.8688083 9.157033 0
7.8526444 9.1382236 0.67299432
7.853508 9.1616001 -0.67401654
7.8391047 9.1447983 0
7.8314466 9.1358643 0.67212319
7.8289223 9.1552839 -0.67285544
7.8297458 9.1562471 0
7.8204021 9.1453209 0.67212319
7.8060479 9.150897 -0.67183936
7.8051643 9.1498613 0
7.7924857 9.1349983 0.67067206
7.7882557 9.1524143 -0.67125934
7.7924113 9.1572981 0
7.7831244 9.1463842 0.67081708
7.7687783 9.1519079 -0.67053324
7.764502 9.1468697 0
7.7502084 9.1300316 0.66893041
7.7526817 9.155345 -0.67009825
7.746717 9.1483011 0
7.7324538 9.1314573 0.66834986
7.7349067 9.1567659 -0.66951764
7.72894 9.1497021 0
7.7130322 9.1308708 0.66762429
7.7154665 9.1561718 -0.66879213
7.7027874 9.1411247 0
7.696969 9.1342201 0.66718876
7.7027206 9.1634932 -0.66864651
7.6850381 9.142457 0
7.674221 9.1295891 0.66617262
7.685492 9.1542196 -0.66763097
7.6677976 9.1331444 0
7.668704 9.1342239 0.66617262
7.6594052 9.145565 -0.66632432
7.655087 9.1404095 0
7.6476545 9.1315346 0.66530204
7.6433558 9.1488371 -0.66588932
7.6457043 9.1516476 0
7.6299515 9.1327915 0.66472149
7.6223111 9.1460848 -0.6650182
7.6196465 9.1428881 0
7.607264 9.1280298 0.66370541
7.6112542 9.1552887 -0.6650182
7.6002769 9.1420841 0
7.5929098 9.1332226 0.66341537
7.5819449 9.1424828 -0.66342211
7.5792599 9.139245 0
7.5702558 9.1283875 0.66239929
7.5675769 9.1476288 -0.66313154
7.5565977 9.1343575 0
7.54597 9.1215105 0.66123813
7.5482502 9.1467476 -0.66240597
7.5455551 9.1434813 0
7.5283275 9.1226053 0.66065758
7.5322371 9.1498413 -0.66197038
7.5130005 9.1264734 0
7.5106931 9.1236706 0.66007704
7.5129318 9.1488972 -0.66124487
7.5003176 9.1335354 0
7.4914198 9.1227007 0.65935147
7.4952855 9.1499281 -0.66066432
7.4826789 9.1345387 0
7.4771013 9.1277294 0.65906149
7.4694276 9.140871 -0.6593582
7.4617524 9.1314783 0
7.4561987 9.1246805 0.65819037
7.4518104 9.1418333 -0.65877759
7.4457855 9.1344414 0
7.4386005 9.1256275 0.65760982
7.4407587 9.1508303 -0.65877759
7.4232478 9.1292953 0
7.4226556 9.1285658 0.65717483
7.419878 9.1477098 -0.65790707
7.4154873 9.1422968 0
7.4067078 9.1314726 0.65673923
7.4120855 9.1607046 -0.65819705
7.3946166 9.1391144 0
7.3842258 9.1262732 0.65572315
7.4042783 9.1737022 -0.65848762
7.3721247 9.1338654 0
7.3650351 9.1250811 0.65499759
7.4062247 9.1988335 -0.65964872
7.3643503 9.1468239 0
7.3572659 9.1380253 0.65528816
7.3983555 9.2118244 -0.65993875
7.3761048 9.1841192 0
7.3510957 9.1529799 0.65572315
7.387219 9.2207565 -0.65993875
7.3731365 9.2031784 0
7.3530278 9.1780796 0.65688425
7.3760724 9.2296762 -0.65993875
7.3636403 9.2141199 0
7.3532896 9.2011681 0.65790039
7.3535748 9.2243567 -0.65892261
7.3492537 9.2189369 0
7.3356876 9.2019196 0.65731978
7.3343387 9.2230692 -0.65819705
7.3283935 9.2155924 0
7.3245635 9.2107763 0.65731978
7.3199625 9.2278566 -0.65790707
7.3204842 9.2285147 0
7.3037429 9.2074089 0.65644926
7.2991295 9.2244644 -0.65703595
7.3012552 9.2271509 0
7.2909951 9.2141838 0.6563037
7.2903361 9.2247992 -0.65674597
7.2843823 9.2172651 0
7.2709279 9.2002411 0.65499759
7.2695293 9.2213535 -0.65587485
7.2651854 9.2158432 0
7.2549849 9.2029037 0.65456259
7.2535677 9.2240095 -0.65543985
7.2427878 9.2103014 0
7.2358236 9.2014446 0.65383649
7.2295871 9.2164106 -0.6542787
7.2284384 9.2149467 0
7.2150807 9.1979179 0.6529659
7.2184453 9.2251396 -0.6542787
7.2124853 9.2175226 0
7.2007561 9.2025328 0.65267533
7.1993008 9.2236156 -0.65355313
7.1965432 9.2200823 0
7.1832361 9.2030334 0.65209478
7.1785698 9.2200022 -0.65268207
7.1694064 9.2082329 0
7.1625361 9.1994085 0.65122426
7.1546731 9.2122517 -0.65152091
7.1502948 9.2066135 0
7.1514149 9.2080564 0.65122426
7.140357 9.2167854 -0.65123093
7.1391649 9.2152462 0
7.1307387 9.2043695 0.65035367
7.1228595 9.2171822 -0.65065038
7.1184797 9.2115145 0
7.1069007 9.1965303 0.64919257
7.1069565 9.2196064 -0.65021479
7.0993953 9.2097969 0
7.0941982 9.2030554 0.64904755
7.0894756 9.2199469 -0.64963424
7.0787468 9.2059937 0
7.0767374 9.2033806 0.648467
7.0735903 9.2223272 -0.64919925
7.0644531 9.2104149 0
7.0561204 9.1995506 0.64759588
7.0529652 9.2184811 -0.64832813
7.0485735 9.2127409 0
7.0402608 9.2018766 0.64716035
7.043396 9.2290602 -0.64847314
7.0311208 9.2129755 0
7.0259871 9.2062492 0.64687032
7.0385351 9.2458344 -0.64905369
7.026289 9.2297478 0
7.0148582 9.2147322 0.64687032
7.032074 9.2605429 -0.64948922
7.0261502 9.2527418 0
7.0115743 9.2335463 0.64759588
7.0318637 9.283534 -0.65050536
7.0243902 9.2736673 0
7.0113964 9.2565126 0.64861202
7.0313001 9.3295479 -0.65253705
7.0238853 9.3197088 0
7.0108986 9.3024778 0.65064365
7.0293875 9.3504944 -0.65340757
7.0220051 9.3406744 0
7.0074587 9.3213253 0.65136921
7.0399122 9.3880901 -0.65543985
7.0169592 9.357481 0
7.003984 9.3401775 0.65209478
7.0410142 9.4132357 -0.65660095
7.0243468 9.3909531 0
7.0067048 9.3673668 0.65340143
7.0358505 9.4300671 -0.6571815
7.0207806 9.4098692 0
7.003149 9.3862371 0.654127
7.0322065 9.4489822 -0.65790707
7.0202775 9.4329538 0
7.0026574 9.4092779 0.65514261
7.0300741 9.4699869 -0.65877759
7.0181851 9.4539709 0
6.999032 9.4281702 0.65586871
7.0351858 9.4888449 -0.65979373
7.0202208 9.4686604 0
7.0088072 9.4532661 0.65731978
7.0407066 9.5203142 -0.66138983
7.030436 9.5064268 0
7.0081968 9.4763546 0.65833592
7.0322862 9.5330009 -0.6616804
7.0189443 9.5149145 0
7.0075345 9.4994469 0.65935147
7.0392423 9.5666056 -0.66342211
7.0228691 9.5443544 0
7.0006728 9.5141888 0.65978706
7.0322857 9.5813828 -0.6638571
7.0251889 9.5717134 0
7.0060854 9.5456848 0.66138369
7.0375891 9.6129379 -0.66545373
7.0228391 9.5927906 0
6.9991465 9.5604277 0.66181874
7.0351601 9.6340218 -0.66632432
7.0173821 9.6096764 0
7.0044475 9.5919628 0.66341537
7.034225 9.6572199 -0.66734046
7.0088334 9.6223593 0
7.0050912 9.6172218 0.66457653
7.0179672 9.6594028 -0.66690487
7.0201426 9.6623974 0
7.0087357 9.646697 0.66602761
7.0017209 9.6615705 -0.66646987
7.0206795 9.6877317 0
7.0031738 9.6635752 0.66660815
6.9352407 9.5942116 -0.66124487
7.0257411 9.7194099 0
7.0067177 9.6930923 0.66805983
6.887176 9.5520077 -0.65776205
7.0231214 9.7405539 0
7.0010729 9.7099743 0.66863984
6.8498392 9.5244617 -0.65529484
7.0235028 9.7659359 0
7.0029941 9.7374191 0.66994655
6.812573 9.4968328 -0.65282702
7.0132132 9.7765274 0
7.000308 9.7585382 0.67081708
6.7678308 9.4585705 -0.64963424
7.0150232 9.8040409 0
6.9915328 9.7712116 0.67110705
6.5254574 9.1431599 -0.62742919
7.0122457 9.8252249 0
7.0008569 9.809267 0.67313933
0 0 -0
7.1271429 10.011775 0
6.9995432 9.832531 0.67415488
0 0 -0
7.2883039 10.264393 0
7.0042071 9.8642883 0.67575157
0 0 -0
7.3450847 10.370882 0
7.0118051 9.9003086 0.67763823
0 0 -0
7.3911057 10.462643 0
7.5950117 10.751287 0.73525566
0 0 -0
7.4429121 10.563039 0
7.571537 10.745584 0.73423952
6.418663 9.1328335 -0.62351084
7.4451046 10.593312 0
7.555562 10.750478 0.73394954
6.4046369 9.136323 -0.62322026
7.3815103 10.529849 0
7.5410767 10.757474 0.73380452
6.3921056 9.1419277 -0.62307525
7.1406255 10.212454 0
7.5131803 10.745278 0.73235285
6.3806305 9.1372662 -0.6224947
7.0584679 10.107951 0
7.5037146 10.745559 0.73206288
6.369585 9.144969 -0.6224947
7.0001431 10.050277 0
7.4862685 10.748219 0.73162735
6.3600116 9.1547909 -0.62263972
6.304997 9.0756006 0
7.4762435 10.761529 0.73191786
6.3548651 9.1710119 -0.62322026
6.3044033 9.0981884 0
7.4543524 10.757735 0.73104674
6.3482127 9.1850986 -0.6236558
0 0 0
7.4369149 10.76032 0.73061121
6.3474345 9.2077408 -0.62467194
6.2735329 9.1005373 0
7.3973641 10.730794 0.72799897
6.3466053 9.2303858 -0.62568748
6.2581072 9.101675 0
7.2121568 10.489227 0.71101892
6.3545513 9.2659035 -0.62757415
6.239747 9.0985012 0
7.076035 10.317936 0.69882774
6.374157 9.3186111 -0.63062197
6.2214031 9.0952959 0
7.0386243 10.290021 0.69636053
6.3804655 9.3520641 -0.63236362
6.2016115 9.0899115 0
7.005681 10.268463 0.69432831
6.3808556 9.3769531 -0.63352472
6.1730542 9.071579 0
0 0 0
6.3695207 9.384656 -0.63352472
3.9640725 5.8405428 0
6.953124 10.244519 0.69157106
6.3494396 9.3794394 -0.63265419
3.9526343 5.838861 0
6.9203501 10.222793 0.68953937
6.3017521 9.3332682 -0.62902582
3.9339314 5.8263855 0
6.9050822 10.226836 0.6892488
6.2411237 9.2676001 -0.62409139
3.9312456 5.8376045 0
6.9057817 10.254567 0.69055492
6.2067394 9.2406225 -0.62176913
3.9183846 5.8337088 0
6.9093246 10.286633 0.69215161
6.1854444 9.2330017 -0.62075305
3.892504 5.8103333 0
6.8968902 10.294975 0.69215161
6.1742835 9.240469 -0.62075305
3.8652411 5.7847419 0
6.8772287 10.2925 0.69142604
6.1602345 9.2436018 -0.62046301
3.8351564 5.7547579 0
6.8330822 10.253228 0.68823272
6.1519351 9.2553625 -0.62075305
3.8022714 5.7203789 0
6.8106236 10.246335 0.68721718
6.1393127 9.2606258 -0.62060803
3.769475 5.6859288 0
6.7996726 10.256721 0.68736213
6.1238179 9.2615318 -0.62017244
3.7740796 5.7078381 0
6.791575 10.271434 0.68779773
6.102613 9.253747 -0.6191569
3.7499924 5.6863313 0
6.7805882 10.2818 0.68794268
6.0770092 9.227047 -0.61712468
3.7436905 5.6842446 0
6.7758031 10.288063 0.6880877
6.0572987 9.2213564 -0.61625415
3.7168186 5.6583157 0
6.7391162 10.259324 0.68562049
6.0376058 9.2156229 -0.61538303
3.7185333 5.6758599 0
6.698235 10.223989 0.68271768
6.0278912 9.2250929 -0.61552858
6.0220094 9.2160921 0
6.658875 10.190751 0.67996043
6.0153174 9.2301865 -0.61538303
6.0023465 9.2102833 0
6.6579065 10.216206 0.68112159
6.0098243 9.2461634 -0.61596358
5.9912133 9.2175293 0
6.6908669 10.293952 0.68576545
6.0043015 9.2621393 -0.61654413
5.9758229 9.2182083 0
6.7335501 10.387066 0.69142604
5.9931059 9.2693882 -0.61654413
5.9731555 9.2385311 0
6.7463865 10.434468 0.69403827
3.6993489 5.7368822 -0.38128543
5.9563522 9.2370014 0
6.7154684 10.414225 0.69215161
3.6658363 5.715189 -0.37925377
6.7629714 10.54375 0
6.6622238 10.38668 0.6892488
3.6022365 5.6309943 -0.74507612
3.646327 5.6999164 -0.37794766
3.6243391 5.665545 0
6.6622696 10.41442 0.69055492
3.5843005 5.6178989 -0.74276978
3.6296525 5.688982 -0.37693155
3.6230898 5.6786962 0
6.6482844 10.420274 0.69040996
3.5733428 5.6156774 -0.74190462
3.6171958 5.6845946 -0.37635097
0 0 0
6.634295 10.426109 0.69026494
0 0 -0
3.6131065 5.6933451 -0.37664098
0 0 0
6.6147323 10.42315 0.68953937
3.5390165 5.5915198 -0.73758107
3.6034479 5.6933193 -0.37635097
3.6163969 5.7137785 0
6.5882335 10.409175 0.6880877
3.5281143 5.5892286 -0.73671591
3.5951803 5.6954741 -0.37620598
3.6081026 5.7159452 0
3.5770864 5.66681 0.37431261
3.5199816 5.5913005 -0.7364279
3.5882959 5.6998138 -0.37620598
3.5901012 5.7026815 0
3.5702367 5.6711283 0.37431261
3.5118492 5.5933614 -0.73613989
3.57864 5.6997399 -0.37591541
3.5776725 5.6981993 0
3.5647621 5.6776361 0.37445763
0 0 -0
3.5703728 5.70186 -0.37577042
3.5625002 5.6892877 0
3.5551436 5.6775393 0.37416762
3.4873614 5.584281 -0.73383355
3.5579751 5.6973538 -0.37518987
3.5542407 5.6913743 0
3.5524061 5.6884365 0.37460262
3.4806116 5.588491 -0.73383355
3.549716 5.6994452 -0.37504485
3.5514901 5.7022939 0
3.5455301 5.6927247 0.37460262
3.4765832 5.5970826 -0.73440957
3.540082 5.6993113 -0.37475431
3.5432255 5.7043724 0
3.5413938 5.7014232 0.37489316
3.4657354 5.5946889 -0.73354548
3.5277193 5.6947489 -0.37417376
3.5404432 5.7152891 0
3.5317626 5.7012763 0.37460262
3.4644103 5.6076746 -0.73469865
3.5208356 5.6990075 -0.37417376
3.5294299 5.7129183 0
3.5207779 5.6989141 0.37416762
3.4650922 5.616364 -0.73556274
3.5201235 5.7055607 -0.3744643
3.5259778 5.7150497 0
3.5105085 5.6899762 0.37344149
3.4623711 5.6271572 -0.7364279
3.5132267 5.7098098 -0.3744643
3.5136144 5.7104402 0
3.5022705 5.6920033 0.3732965
3.4582722 5.6357417 -0.73700392
3.5090404 5.7184758 -0.37475431
3.5026274 5.7080245 0
3.496748 5.6984434 0.37344149
3.4541626 5.6443329 -0.73758107
3.5007732 5.7204976 -0.37460929
3.4957278 5.7122526 0
3.4912202 5.7048869 0.37358704
3.4500325 5.6529136 -0.73815709
3.4884439 5.7158513 -0.37402874
3.4888229 5.7164726 0
3.4816144 5.7046609 0.3732965
3.4485786 5.665916 -0.73931026
3.4815347 5.7200623 -0.37402874
3.4819131 5.7206841 0
3.4841771 5.7244034 0.37431261
3.4403889 5.6678696 -0.73902225
3.4719267 5.7198267 -0.37373874
3.4723001 5.7204418 0
3.482651 5.737494 0.37489316
3.433538 5.6720228 -0.73902225
3.4636633 5.7217879 -0.37359318
3.4613411 5.7179518 0
3.4703333 5.7328067 0.37431261
3.432029 5.6850243 -0.74017543
3.4567471 5.7259693 -0.37359318
3.4477057 5.7109923 0
3.4674287 5.7436628 0.3747476
3.4331591 5.7024584 -0.74190462
3.4538479 5.7368221 -0.37402874
3.4381154 5.7106905 0
3.4591472 5.7456241 0.37460262
3.4422429 5.7332125 -0.74536413
3.4469135 5.7409916 -0.37402874
3.425854 5.7059159 0
3.446852 5.7408886 0.37402207
3.4539175 5.7684388 -0.74940073
3.4346347 5.7362347 -0.37344819
3.4216335 5.7145209 0
0 0 0
3.4548986 5.7859282 -0.75112998
3.4277012 5.7403808 -0.37344819
3.417392 5.7231159 0
3.438297 5.7581253 0.37460262
3.4531982 5.7989879 -0.75228316
3.4207625 5.7445183 -0.37344819
3.4078138 5.7227731 0
3.4326651 5.7645063 0.3747476
3.4501522 5.8098297 -0.75314826
3.4178004 5.755352 -0.37388375
3.4075394 5.7380729 0
3.4256973 5.7686496 0.3747476
3.4418077 5.8117628 -0.75285918
3.4028969 5.7460585 -0.37301263
3.4059081 5.751143 0
3.416079 5.7683177 0.37445763
3.4400439 5.8248253 -0.75401235
3.3985965 5.7546449 -0.37330317
3.4042501 5.7642179 0
3.4130719 5.7791553 0.37489316
3.4290693 5.822298 -0.75314826
3.3916407 5.7587476 -0.37330317
3.3959632 5.7660866 0
3.4060864 5.7832751 0.37489316
3.4311972 5.8420429 -0.75516552
3.3912585 5.7740421 -0.37402874
3.3876767 5.7679439 0
3.3964617 5.7829013 0.37460262
3.4280586 5.8528819 -0.75603068
3.3829672 5.7758956 -0.37388375
3.3714967 5.7563109 0
3.3868477 5.7825208 0.37431261
3.4275053 5.868185 -0.75747186
3.3799186 5.7867122 -0.37431931
3.354038 5.7424026 0
3.3811674 5.7888503 0.37445763
3.4243188 5.8790293 -0.75833702
3.3768437 5.7975216 -0.37475431
3.351028 5.7532001 0
3.3728638 5.7906885 0.37431261
3.423707 5.8943434 -0.7597782
3.3750565 5.8105855 -0.37533486
3.3414571 5.7527394 0
3.3645604 5.7925148 0.37416762
3.421768 5.9074283 -0.76093137
3.3693342 5.8169055 -0.37547988
3.3345037 5.756773 0
3.3653708 5.8100629 0.37503818
3.4185097 5.9182796 -0.76179653
3.3636067 5.8232288 -0.37562543
3.3262448 5.7585464 0
3.3583479 5.8141251 0.37503818
3.3691723 5.8410096 -0.37664098
3.3227651 5.7605548 0
3.3561318 5.8184013 0.37518317
3.3660002 5.8518357 -0.37707654
3.3183949 5.769073 0
3.3465102 5.8179522 0.37489316
3.3640985 5.8649144 -0.37765709
3.3204873 5.7888832 0
3.3407695 5.8242431 0.37503818
3.3647478 5.882504 -0.37852764
3.2889426 5.7499757 0
3.3221195 5.8079782 0.37373206
3.3666508 5.9023671 -0.37954378
3.2858572 5.7607207 0
6.1498618 10.781856 0.6933127
3.3646553 5.9154654 -0.38012433
3.2866166 5.778264 0
6.1368299 10.789279 0.6933127
3.3664801 5.9353499 -0.38114044
