# .PCD v0.7 - Point Cloud Data file format
VERSION 0.7
FIELDS x y z
SIZE 4 4 4
TYPE F F F
COUNT 1 1 1
WIDTH 1630
HEIGHT 1
VIEWPOINT 0 0 0 1 0 0 0
POINTS 1630
DATA ascii
-7.6444197 16.296301 1.0054214
-6.9129748 14.690819 -0.90688384
-7.6498103 16.256676 0
-7.6397672 16.235331 1.0022286
-6.7694268 14.295987 -0.88351768
-7.6935291 16.247549 0
-7.675642 16.209774 1.001793
-6.7621665 14.236156 -0.8803243
-7.7131557 16.238241 0
-7.6985683 16.207531 1.0022286
-6.7551398 14.199223 -0.87829262
-6.782742 14.257241 0
-7.7005477 16.186459 1.0012131
-6.7566261 14.158223 -0.87626094
-6.7820301 14.211455 0
-7.6932411 16.120859 0.99772972
-6.7535315 14.107857 -0.87364817
-6.7845898 14.172736 0
-7.673449 16.029528 0.99265027
-6.7469578 14.050508 -0.87060094
-6.7701659 14.098839 0
-7.6759386 15.985106 0.99047303
-6.7458878 14.004889 -0.86827868
-6.7804227 14.076585 0
-7.6726956 15.929 0.98757023
-6.7469764 13.963967 -0.86624646
-6.7849712 14.042603 0
-7.6659398 15.865911 0.98423249
-6.7445798 13.916056 -0.86377925
-6.7837729 13.996923 0
-7.6669726 15.819224 0.98191023
-6.7386718 13.861167 -0.86087704
-6.7767863 13.939567 0
-7.6713133 15.779571 0.98002356
-6.7428861 13.827321 -0.85928035
-6.777657 13.898624 0
-7.6732888 15.735255 0.97784632
-6.7264791 13.751474 -0.85507143
-6.7612848 13.82263 0
-7.6706066 15.681629 0.97508907
-6.73279 13.722344 -0.85376531
-6.7584949 13.774734 0
-7.6746707 15.642025 0.97320241
-6.7252722 13.665242 -0.85071754
-6.7716851 13.75955 0
-7.6648817 15.574457 0.96957409
-6.7291255 13.631474 -0.84912086
-6.7641196 13.702362 0
-7.6572437 15.511601 0.96623629
-6.7236876 13.579095 -0.8463636
-6.7598825 13.652194 0
-7.6598363 15.469732 0.96420407
-6.7215972 13.533726 -0.84404141
-6.7509079 13.592742 0
-7.6600294 15.42323 0.96188182
-6.7147722 13.479077 -0.8411386
-6.7487597 13.547303 0
-7.6624413 15.381406 0.95985013
-6.7171211 13.443069 -0.83939749
-6.7534938 13.515862 0
-7.6531463 15.31635 0.95636678
-6.7170577 13.402417 -0.83736527
-6.7441688 13.456511 0
-7.6495299 15.26296 0.95360959
-6.7099104 13.347867 -0.834463
-6.7510724 13.42975 0
-7.6492934 15.21656 0.95128733
-6.7084846 13.304945 -0.83228582
-6.7403445 13.368133 0
-7.6536355 15.179464 0.94954568
-6.6987596 13.24582 -0.82909298
-6.7377048 13.322829 0
-7.6473465 15.121513 0.94649786
-6.7088833 13.226131 -0.82836747
-6.7314281 13.270577 0
-7.6503325 15.082138 0.94461119
-6.6921597 13.173429 -0.82531965
-6.7241225 13.236347 0
-7.6288466 15.017284 0.94083786
-6.6962733 13.142176 -0.82386798
-6.7212067 13.191111 0
-7.6340132 14.982594 0.93924171
-6.6861358 13.083176 -0.82067519
-6.7264829 13.162126 0
-7.6438327 14.957161 0.93822563
-6.6912732 13.054278 -0.81936908
-6.7138915 13.098405 0
-7.6583433 14.940974 0.93779004
-6.6844721 13.002282 -0.81661183
-6.7082973 13.048625 0
-7.679956 14.938645 0.93822563
-6.6870775 12.968789 -0.8150152
-6.7097468 13.012753 0
-7.7003803 14.933969 0.9385156
-6.6776776 12.912232 -0.81196737
-6.7087302 12.972277 0
-7.724391 14.9362 0.93924171
-6.6729369 12.864944 -0.80950016
-6.716011 12.947988 0
-7.7412333 14.924543 0.93909615
-6.67169 12.824604 -0.80746847
-6.707634 12.893697 0
-7.7676563 14.931316 0.94011229
-6.6787663 12.800405 -0.80645233
-6.7063522 12.853275 0
-7.7917013 14.933436 0.94083786
-6.6954317 12.794625 -0.80659735
-0 0 0
-7.814559 14.93322 0.94141841
-6.6951895 12.756618 -0.80471069
-6.6926503 12.75178 0
-7.8217301 14.903062 0.94011229
-0 0 -0
-6.7104754 12.748285 0
-6.744432 12.812794 0.80876791
-6.7150807 12.719722 -0.80340457
-6.7161546 12.721756 0
-6.7477798 12.781661 0.80731678
-6.7450356 12.739156 -0.80514622
-6.7303047 12.711333 0
-6.7680826 12.782684 0.80789733
-6.7531095 12.717222 -0.80427516
-6.7554235 12.721581 0
-6.788393 12.783668 0.80847734
-6.7623644 12.697588 -0.80354959
-6.769568 12.711114 0
-6.8062801 12.780047 0.80876791
-0 0 -0
-6.7740331 12.682538 -0.80311459
-6.7763381 12.686853 0
-7.9736352 14.928468 0.94533676
-6.7819881 12.660597 -0.80224347
-6.7855191 12.667188 0
-7.9904418 14.916533 0.94519174
-6.7874432 12.63408 -0.80108231
-6.7823439 12.624589 0
-8.0219879 14.93205 0.94678843
-6.7879143 12.598419 -0.79934067
-6.7914224 12.604931 0
-8.041256 14.924631 0.94693345
-6.7833724 12.55364 -0.797019
-6.7843809 12.555507 0
-8.0629902 14.921764 0.94736898
-6.7699332 12.510692 -0.79455179
-6.7746224 12.519357 0
-8.0744753 14.921456 0.94765902
-0 0 -0
-6.7726488 12.47966 -0.79310006
-6.7661629 12.467709 0
-8.103652 14.932241 0.94896513
-6.7666073 12.43267 -0.79063284
-6.7538548 12.40924 0
-8.124176 14.927008 0.94925565
-6.7517514 12.369754 -0.78715008
-6.7376733 12.343963 0
-8.153409 14.937705 0.95056176
-6.7492228 12.329673 -0.78511786
-6.7375884 12.308418 0
-8.1689596 14.923288 0.95027179
-6.7353592 12.269126 -0.78178006
-6.7336688 12.266046 0
-8.195735 14.929345 0.95128733
-6.7313805 12.226831 -0.77960283
-6.7359357 12.235106 0
-8.2162771 14.923987 0.9515779
-6.738616 12.205045 -0.77873224
-6.7343631 12.197343 0
-8.2443514 14.932247 0.952739
-6.7181153 12.133243 -0.77466834
-6.7301855 12.155043 0
-8.2623882 14.922275 0.952739
-6.727725 12.11603 -0.77408779
-6.7259202 12.11278 0
-8.284193 14.919089 0.953174
-6.72719 12.080649 -0.77234614
-6.720293 12.068264 0
-8.3098011 14.922694 0.95404512
-6.7227821 12.038488 -0.77016944
-6.7171082 12.028328 0
-8.3341599 14.923984 0.95477068
-6.7284346 12.014484 -0.76915336
-6.717648 11.995223 0
-8.3534546 14.916167 0.9549157
-6.7174988 11.961034 -0.76625055
-6.7155709 11.957602 0
-8.3714724 14.906063 0.9549157
-6.7191978 11.930272 -0.76479942
-6.7146893 11.922267 0
-8.4009523 14.916311 0.95622182
-6.7131624 11.885944 -0.76247722
-6.7162938 11.891489 0
-8.4279156 14.921988 0.9572379
-6.7108727 11.848433 -0.76059049
-6.716548 11.858453 0
-8.4446602 14.909535 0.95709294
-6.690618 11.746387 -0.75507551
-6.720716 11.799227 0
-8.4858103 14.898116 0.95767349
-6.675168 11.686404 -0.75173771
-6.720768 11.766237 0
-8.5192661 14.914919 0.9594146
-6.6311674 11.576868 -0.74520659
-6.7091146 11.712952 0
-8.5385771 14.906876 0.95956016
-6.6019645 11.509757 -0.74114323
-6.6553288 11.602792 0
-8.5501652 14.906218 0.95985013
-6.5860672 11.449965 -0.73780489
-6.6122537 11.49549 0
-8.5785351 14.913896 0.96101129
-0 0 -0
-6.5988326 11.440152 0
-8.6017418 14.912522 0.96159184
-6.587697 11.38903 -0.73490208
-6.5957127 11.402886 0
-8.6236591 14.908868 0.96202737
-6.5766864 11.338361 -0.73214483
-6.5964308 11.372401 0
-8.6455746 14.905173 0.96246237
-6.5773196 11.307949 -0.73069376
-6.5918455 11.332923 0
-8.6714201 14.908197 0.96333349
-6.5765758 11.275302 -0.72909707
-6.5897994 11.297974 0
-8.6894274 14.897709 0.96333349
-6.5731416 11.238191 -0.7272104
-6.5889969 11.265298 0
-8.7152901 14.900652 0.96420407
-6.5827708 11.223514 -0.72677481
-6.5854888 11.228148 0
-8.7359209 14.894597 0.96449459
-6.5936956 11.211076 -0.72648484
-0 0 0
-8.7618122 14.897465 0.96536517
-6.6085558 11.205337 -0.72662985
-0 0 0
-8.7798071 14.886868 0.96536517
-6.6234121 11.199578 -0.72677481
-6.6168714 11.188519 0
-8.8070488 14.891906 0.96638131
-6.6395931 11.196041 -0.72706538
-6.6383533 11.193951 0
-8.8197346 14.872313 0.9658007
-4.3810244 7.3672161 -0.95538056
-6.6517844 11.18577 -0.72691983
-6.658524 11.197104 0
-8.0541458 13.544009 0.88017261
-4.3859477 7.3552504 -0.9545154
-6.6666298 11.179963 -0.72706538
-6.6720486 11.18905 0
-8.0665169 13.527578 0.87973762
-0 0 -0
-6.6787968 11.169662 -0.72691983
-6.6788869 11.169813 0
-8.0641842 13.486595 0.8777054
-0 0 -0
-4.414175 7.3620839 -0.47946998
-6.6883621 11.155037 0
-8.0724602 13.463474 0.87683481
-4.3939252 7.3082743 -0.95047987
-4.4070005 7.3300219 -0.47772834
-6.6870837 11.122411 0
-8.0659618 13.415854 0.87436759
-4.3974113 7.2940993 -0.94932669
-4.4104881 7.3157902 -0.47714776
-4.4298158 7.3478498 0
-8.0700932 13.386072 0.87306148
-4.3955169 7.2710729 -0.94702035
-4.4152956 7.3037906 -0.47671276
-4.4225397 7.3157744 0
-4.4206104 7.312583 0.47728664
-4.3962522 7.252481 -0.94529003
-4.4146876 7.2828937 -0.47569665
-4.4300232 7.3081937 0
-4.4280925 7.3050079 0.47714108
-4.4009857 7.2405396 -0.944426
-4.4153891 7.2642355 -0.4748261
-4.4361496 7.2983918 0
-4.4315224 7.2907786 0.47656107
-4.3878784 7.2091589 -0.94067848
-4.4116683 7.2482448 -0.47395498
-4.4189091 7.2601409 0
-4.4291673 7.2769957 0.47583497
-4.3925428 7.1972265 -0.93981332
-4.4055314 7.2185087 -0.47235832
-4.4263234 7.2525768 0
-4.4284854 7.2561188 0.47481939
-4.3971844 7.1852932 -0.93894815
-4.4074697 7.2021008 -0.47163275
-4.4255733 7.2316823 0
-4.4399595 7.2551908 0.4751094
-4.4045115 7.177772 -0.93866014
-4.417532 7.1989908 -0.4717783
-4.4315882 7.2218976 0
-4.4296994 7.2188191 0.47307771
-4.4240246 7.1900682 -0.94096649
-4.4221411 7.1870065 -0.47134274
-4.4266706 7.1943679 0
-4.4288855 7.1979675 0.4720616
-4.4381418 7.1935225 -0.94211966
-4.434916 7.1882944 -0.4717783
-4.4244337 7.1713033 0
-0 0 0
-4.4522734 7.1969528 -0.94327283
-4.4476957 7.1895533 -0.4722133
-4.43994 7.1770163 0
-0 0 0
-4.4691439 7.2047515 -0.94500202
-4.4591217 7.1885943 -0.47250387
-4.4499793 7.1738558 0
-4.433033 7.1465359 0.46973938
-4.4805813 7.203743 -0.94557917
-4.4691758 7.1854057 -0.47264886
-4.4668889 7.1817288 0
-4.4416647 7.1411743 0.46973938
-4.4865422 7.1939301 -0.94500202
-4.4806018 7.1844058 -0.47293887
-4.475563 7.1763263 0
-4.4516692 7.1380134 0.46988493
-4.4924912 7.1841221 -0.944426
-4.4906611 7.1811957 -0.47308442
-4.4676781 7.1444426 0
-4.4602909 7.1326294 0.46988493
-4.5107827 7.1940217 -0.9464432
-4.497951 7.1735568 -0.47293887
-4.4763074 7.139039 0
-4.4744277 7.1360407 0.47046548
-4.5222278 7.1929493 -0.94702035
-4.5080023 7.1703229 -0.47308442
-4.4890819 7.1402283 0
-4.4830465 7.1306291 0.47046548
-4.5281544 7.1830997 -0.9464432
-4.5249743 7.1780553 -0.47395498
-4.4990926 7.1369982 0
-4.4902697 7.1230025 0.47031993
-4.5437446 7.188561 -0.94788551
-4.5364237 7.1769795 -0.47424552
-4.5077133 7.131557 0
-4.5016527 7.1219687 0.4706105
-4.5468888 7.1743269 -0.94673234
-4.5492616 7.178071 -0.47468054
-4.5191159 7.1305056 0
-4.5172086 7.1274958 0.47133604
-6.6106663 10.402845 -0.68846023
-4.5193563 7.111865 0
-4.5272098 7.1242237 0.47148106
-6.6148505 10.381698 -0.68758911
-4.5195527 7.093226 0
-4.5358148 7.1187482 0.47148106
-6.60641 10.340858 -0.68541247
-6.6338983 10.383884 0
-4.5402203 7.1066995 0.47104606
-6.6104879 10.319736 -0.68454134
-6.6450324 10.373663 0
-7.3574343 11.485806 0.76189047
-6.598485 10.287309 -0.68265468
-6.6316299 10.338983 0
-7.3755903 11.498847 0.76305103
-6.5954533 10.255294 -0.68105853
-6.615963 10.287184 0
-7.3866706 11.485559 0.76276106
-6.6022072 10.238582 -0.68047798
-6.6185193 10.263878 0
-7.3878708 11.456974 0.76145494
-6.6032872 10.21314 -0.67931688
-6.6238527 10.244948 0
-7.3861885 11.424034 0.75985825
-6.6014857 10.183346 -0.67786521
-6.6192389 10.210732 0
-7.3830252 11.388936 0.7581166
-6.5882983 10.13615 -0.67525297
-6.6173859 10.180902 0
-7.3840375 11.360401 0.75681049
-6.5622396 10.06941 -0.67133462
-6.6140566 10.14892 0
-7.3821573 11.32753 0.75521433
-6.5346041 10.000566 -0.66727072
-6.6006875 10.101702 0
-7.3830481 11.299026 0.75390828
-6.5039663 9.9274626 -0.66291684
-6.5772405 10.039307 0
-7.3796077 11.264015 0.75216657
-6.4902806 9.8805075 -0.66030461
-6.5522141 9.9747925 0
-7.383225 11.239885 0.75115043
-6.4922085 9.8574657 -0.65928847
-6.5270467 9.9103622 0
-7.3767943 11.20058 0.7491188
-0 0 -0
-6.513206 9.8633814 0
-7.3774371 11.172145 0.74781269
-6.4959311 9.8114195 -0.65725678
-6.5136251 9.8381443 0
-7.3780169 11.143717 0.74650598
-6.4977207 9.7884073 -0.6562407
-6.5154314 9.8150873 0
-7.3771081 11.113149 0.7450549
-6.493711 9.7567606 -0.65464455
-6.5128694 9.7855463 0
-7.3718162 11.076108 0.74316818
-6.4982796 9.7380934 -0.65391845
-6.5073538 9.7516918 0
-7.3722148 11.047742 0.74186212
-6.4941511 9.7064848 -0.65232235
-6.5104518 9.7308483 0
-7.3754425 11.023706 0.74084598
-6.4913969 9.6770468 -0.65087068
-6.5106068 9.7056847 0
-7.387311 11.01263 0.74070096
-6.4929767 9.6290216 -0.64869398
-6.5107622 9.6553984 0
-7.4109998 10.990441 0.74041098
-6.4827967 9.6014061 -0.64709729
-6.5020342 9.6298981 0
-7.4176383 10.985962 0.74041098
-6.4798298 9.572053 -0.64564621
-6.5019941 9.6047935 0
-7.4309072 10.976992 0.74041098
-6.4811749 9.5491638 -0.64463007
-6.5019026 9.5797033 0
-6.6284847 9.7662058 0.65928179
-6.4780927 9.5198469 -0.64317894
-6.4944406 9.5438719 0
-6.6373591 9.7538967 0.65899175
-6.4749494 9.4905519 -0.64172786
-6.4971647 9.5231142 0
-6.6388879 9.7308426 0.65797567
-6.4761415 9.4677067 -0.64071172
-6.4895673 9.4873343 0
-7.5102782 10.979548 0.74302322
-6.478756 9.4470129 -0.6398406
-6.4921975 9.4666119 0
-7.5161929 10.959754 0.74229765
-6.478394 9.4220562 -0.63868004
-6.4903622 9.4394627 0
-7.530901 10.952803 0.74244267
-6.4750233 9.3928242 -0.63722837
-6.4914222 9.4166126 0
-7.5470762 10.947969 0.74273264
-0 0 -0
-6.4715972 9.3636217 -0.63577724
-6.4939203 9.3959208 0
-7.5824614 10.970908 0.74490988
-6.4695883 9.3365746 -0.63447112
-6.4904432 9.3666716 0
-7.6105089 10.983092 0.74636102
-6.4645557 9.305275 -0.63287449
-6.4913664 9.3438673 0
-7.6104331 10.954684 0.7450549
-6.4683704 9.2867975 -0.63214892
-6.4907522 9.3189325 0
-7.6013913 10.913504 0.7428782
-0 0 -0
-6.4661989 9.2598038 -0.6308428
-6.4751906 9.2726793 0
-7.6086221 10.895789 0.74229765
-6.4684386 9.2392073 -0.62997168
-6.4789228 9.2541828 0
-7.6277428 10.895103 0.7428782
-6.4661636 9.2122459 -0.62866557
-6.476645 9.2271786 0
-7.6379132 10.88162 0.74258763
-6.4653268 9.1874256 -0.62750447
-6.4728146 9.1980667 0
-7.6555438 10.87876 0.74302322
-6.4629431 9.1605005 -0.62619835
-6.4734206 9.1753511 0
-7.674675 10.877995 0.74360377
-6.4590044 9.1314745 -0.62474722
-6.4739866 9.1526556 0
-7.7013168 10.887804 0.74490988
-6.4580083 9.1067066 -0.62358612
-6.4729977 9.1278429 0
-7.7084546 10.870012 0.74432933
-6.4584665 9.0840702 -0.62256998
-6.4749713 9.1072845 0
-7.7230873 10.862806 0.74447429
-6.4549146 9.0674696 -0.62169945
-6.4699116 9.0885363 0
-7.7281432 10.856023 0.74432933
-6.4568062 9.0469694 -0.62082833
-6.4597197 9.0510511 0
-7.7352171 10.838218 0.74374878
-6.4495945 9.0138102 -0.61908722
-6.4570231 9.0241928 0
-7.7558661 10.839427 0.74447429
-6.4513903 8.9933386 -0.6182161
-6.4603391 9.0058126 0
-7.7689576 10.830048 0.74447429
-6.4440465 8.9602222 -0.61647439
-6.4590602 8.9810972 0
-7.7850752 10.824876 0.74476486
-6.4396744 8.9313564 -0.61502331
-6.4607778 8.9606247 0
-7.8011856 10.819673 0.7450549
-6.4413309 8.9109373 -0.61415273
-6.459403 8.9359379 0
-7.8157744 10.812342 0.74519986
-6.4429417 8.8905191 -0.61328161
-6.4533954 8.9049444 0
-7.8395081 10.81762 0.746216
-6.4368834 8.8596096 -0.61168551
-6.4565034 8.8866148 0
-7.8540993 10.81024 0.74636102
-6.4368734 8.837121 -0.61066937
-6.4519172 8.8577747 0
-7.8702183 10.804947 0.74665153
-6.4368181 8.8146458 -0.60965329
-6.45187 8.8352585 0
-7.8863301 10.799623 0.74694157
-6.4305844 8.7838049 -0.60805714
-6.4517784 8.8127546 0
-7.9024463 10.794283 0.74723214
-6.4381151 8.7718344 -0.60776663
-6.4501033 8.788168 0
-7.9247055 10.797291 0.74810266
-6.4363894 8.7473059 -0.60660547
-6.4422145 8.7552214 0
-7.2878971 9.9045382 0.68685687
-6.433073 8.7207041 -0.60529935
-6.4450593 8.7369537 0
-7.3168287 9.9187279 0.68845356
-6.4312449 8.6962118 -0.60413826
-6.4463301 8.716609 0
-7.3149042 9.8910789 0.68714744
-6.4293675 8.6717358 -0.60297716
-6.4413605 8.687911 0
-7.3191142 9.8717985 0.68642187
-6.4227943 8.6410265 -0.601381
-6.4425354 8.6675854 0
-7.3186359 9.8462639 0.68526077
-6.4270201 8.6249256 -0.60080045
-6.4405632 8.6430998 0
-7.3181071 9.8207455 0.68409967
-6.4296627 8.6067467 -0.60007489
-6.4447718 8.6269722 0
-7.3159733 9.7931623 0.68279356
-6.420855 8.584136 -0.59876877
-6.4343977 8.6022406 0
-7.3094378 9.7720947 0.6816324
-6.4156308 8.5555782 -0.5973171
-6.4385419 8.5861311 0
-7.3040905 9.7403851 0.68003571
-6.4197183 8.5395117 -0.59673655
-6.4317141 8.5554686 0
-7.3033633 9.7149372 0.67887461
-6.4143953 8.5110016 -0.59528542
-6.4342103 8.5372934 0
-7.2978978 9.6832848 0.67727852
-6.4199739 8.4970236 -0.59484988
-6.4288359 8.5087519 0
-7.3001909 9.6620169 0.6764074
-6.4176846 8.4726896 -0.59368879
-6.4265409 8.4843817 0
-7.3008823 9.6386948 0.67539185
-6.4153461 8.4483728 -0.59252763
-6.4289203 8.4662485 0
-7.3015218 9.6153784 0.67437571
-6.4082408 8.4178782 -0.59093153
-6.4281092 8.4439774 0
-7.3021159 9.5920744 0.67335963
-6.408946 8.3977318 -0.59006041
-6.4288368 8.4237947 0
-7.3026705 9.5687904 0.67234403
-6.4096179 8.3776026 -0.58918989
-6.4263597 8.3994856 0
-7.2968574 9.5372572 0.6707474
-6.4055047 8.3512974 -0.58788377
-6.4238329 8.3751936 0
-7.2941446 9.5098791 0.66944128
-6.4045019 8.3291311 -0.58686763
-6.4260178 8.3571119 0
-7.2945414 9.4866371 0.66842514
-6.4098005 8.3152103 -0.5864321
-6.4202194 8.3287258 0
-7.2933073 9.4613523 0.66726404
-6.4087257 8.2930727 -0.5854165
-6.4239187 8.3127327 0
-7.2920232 9.4360847 0.66610289
-6.4091902 8.272994 -0.58454537
-6.4180169 8.2843876 0
-7.295464 9.4169979 0.66537738
-6.4032464 8.2447252 -0.5830943
-6.4168463 8.2622366 0
-7.3052449 9.406126 0.66523236
-6.4068184 8.2287817 -0.58251375
-6.4172354 8.2421598 0
-7.3166051 9.3972921 0.66523236
-6.4055638 8.2066936 -0.58149761
-6.4191847 8.224144 0
-7.3327527 9.3945913 0.66566789
-6.3993249 8.1884956 -0.58048207
-6.4177418 8.2120619 0
-7.3464255 9.4003944 0.66639346
-6.3963943 8.1643944 -0.57932091
-6.4180331 8.1920137 0
-7.357779 9.391511 0.66639346
-6.3950181 8.1423531 -0.57830483
-6.4134545 8.1658268 0
-7.3803577 9.3969202 0.6674096
-6.3921409 8.0983238 -0.57627314
-6.4057598 8.1155777 0
-0 0 0
-6.3938608 8.0804081 -0.57554758
-6.4123344 8.103754 0
-7.4369426 9.3986292 0.66944128
-6.3907013 8.0563898 -0.57438648
-6.4027133 8.0715332 0
-7.4482937 9.389636 0.66944128
-5.5490303 6.9780102 -0.99372095
-6.3874927 8.0323925 -0.57322538
-6.4076004 8.0576782 0
-7.4547801 9.374526 0.66900569
-5.5171518 6.9207401 -0.98651391
-6.3907146 8.0165405 -0.57264477
-6.4076014 8.0377235 0
-7.4596229 9.3573847 0.66842514
-5.5287428 6.9181137 -0.98709106
-6.3874187 7.9925742 -0.57148367
-6.4091868 8.0198126 0
-7.4628148 9.3382168 0.66769958
-5.5306292 6.9033537 -0.98593789
-6.3856974 7.9706531 -0.57046759
-6.4025974 7.9917479 0
-7.4643478 9.317029 0.66682905
-5.5324883 6.8885999 -0.98478472
-6.3888149 7.9548278 -0.56988698
-6.4057307 7.9758892 0
-7.4674597 9.2978678 0.66610289
-5.5408077 6.8819098 -0.98478472
-6.3853922 7.9309182 -0.56872648
-6.4055738 7.9559846 0
-7.4770608 9.2868156 0.66595793
-5.5507421 6.8772206 -0.98507273
-6.3868055 7.9130812 -0.56800032
-6.4021058 7.9320374 0
-7.4997025 9.2919302 0.66697401
-5.5590477 6.8705087 -0.98507273
-6.3849258 7.8912234 -0.56698477
-6.3969541 7.9060893 0
-7.5158296 9.2889233 0.6674096
-5.5657177 6.8617797 -0.98478472
-6.3879089 7.8754306 -0.56640422
-6.3950248 7.8842039 0
-7.504128 9.2515783 0.66537738
-5.575635 6.8570542 -0.98507273
-6.382668 7.8495636 -0.56509811
-6.3914118 7.8603172 0
-7.5087442 9.2344408 0.66479677
-5.5822835 6.8483095 -0.98478472
-6.3822942 7.8297572 -0.56422698
-6.3943276 7.8445196 0
-7.5116897 9.215292 0.66407126
-5.5921893 6.8435602 -0.98507273
-6.3802457 7.807961 -0.56321144
-6.3955693 7.8267136 0
-7.516242 9.1981602 0.66349065
-5.5946865 6.8381805 -0.98478472
-6.3750858 7.7920341 -0.56234032
-6.3920584 7.8127789 0
-7.4938273 9.1594305 0.66102344
-5.5996614 6.8274121 -0.98420757
-6.3746128 7.7722745 -0.56146973
-6.3899393 7.7909617 0
-7.4752316 9.1142092 0.6584112
-5.6095543 6.8226442 -0.98449671
-6.3740945 7.7525196 -0.56059861
-6.3894348 7.7711773 0
-7.4796381 9.0971413 0.65783066
-5.6194377 6.8178554 -0.98478472
-6.3768468 7.7367916 -0.56001806
-6.3839245 7.745379 0
-7.4162555 8.9978676 0.65129954
-5.6293173 6.8130527 -0.98507273
-6.3729496 7.7130556 -0.55885696
-6.3849916 7.7276301 0
-7.4105744 8.968873 0.6498484
-5.6358972 6.8042555 -0.98478472
-6.3739786 7.6953459 -0.5581314
-6.3893423 7.7138948 0
-7.4214063 8.9599123 0.6498484
-5.644115 6.7974405 -0.98478472
-6.3716574 7.6736503 -0.55711585
-6.3836975 7.6881504 0
-0 0 0
-5.6523242 6.790616 -0.98478472
-6.3742757 7.6579576 -0.5565353
-6.3813262 7.6664276 0
-0 0 0
-5.6538968 6.7758374 -0.98363155
-6.3668733 7.6302948 -0.55508363
-6.3822498 7.6487222 0
-0 0 0
-5.6570997 6.7630472 -0.98276639
-6.3694196 7.6146235 -0.55450308
-6.3814716 7.6290317 0
-7.4379497 8.8920488 0.64752614
-5.6602802 6.7502589 -0.98190123
-6.3669333 7.5929899 -0.55348748
-6.3856668 7.6153307 0
-7.4403419 8.8731012 0.64680064
-5.6634445 6.7374806 -0.9810372
-6.3660684 7.5733528 -0.55261636
-6.3848195 7.5956602 0
-7.4426999 8.8541613 0.64607507
-5.6665797 6.7246971 -0.98017204
-6.3634987 7.5517516 -0.55160081
-6.3839273 7.5759954 0
-7.4450226 8.835228 0.6453495
-5.669692 6.711916 -0.97930688
-6.3659115 7.5361171 -0.55102026
-6.3796415 7.552371 0
-7.4489856 8.8182859 0.64476895
-5.6727886 6.6991444 -0.97844285
-6.3682961 7.5204878 -0.55043972
-6.3702674 7.5228157 0
-7.4562736 8.8053083 0.64447838
-5.6792002 6.6903076 -0.97815371
-6.3656058 7.4989185 -0.54942358
-6.3810353 7.5170951 0
-7.4753141 8.8061962 0.64520395
-5.6822562 6.6775365 -0.97728968
-6.3611903 7.47539 -0.54826248
-6.3783059 7.4955034 0
-7.5061569 8.8209038 0.6469456
-5.6936746 6.6745977 -0.9778657
-6.3601031 7.4558406 -0.54739195
-6.3738461 7.471951 0
-7.4813976 8.7703152 0.64389783
-5.6882873 6.6519871 -0.97555935
-6.3589721 7.4362974 -0.54652083
-6.3761044 7.4563327 0
-7.4700375 8.7355976 0.64201117
-5.6973534 6.6544452 -0.97642452
-6.3499436 7.4166636 -0.54535967
-6.3670673 7.4366636 0
-7.4364495 8.6856909 0.63867337
-5.7037067 6.6455956 -0.97613651
-6.3555193 7.4050455 -0.54506969
-6.3726616 7.4250188 0
-7.4249406 8.6510668 0.6367867
-5.7117324 6.6386986 -0.97613651
-6.3542972 7.3855462 -0.54419911
-6.3697457 7.403502 0
-7.4269099 8.6322346 0.6360606
-5.7146807 6.6259146 -0.97527134
-6.3547263 7.3680186 -0.54347301
-6.3616924 7.3760958 0
-7.4339437 8.6193228 0.63577056
-5.7209926 6.6170502 -0.97498333
-6.3551288 7.3505087 -0.54274744
-6.3654928 7.3624959 0
-7.427362 8.590682 0.63431948
-5.7272916 6.6081796 -0.97469532
-6.3571982 7.33497 -0.54216689
-6.3624578 7.3410378 0
-7.4036999 8.542429 0.63141668
-5.7352719 6.6012545 -0.97469532
-6.3490176 7.3076715 -0.54071581
-6.3662009 7.3274493 0
-7.4020853 8.5197439 0.63040054
-5.7449412 6.5962687 -0.97498333
-6.351017 7.2921567 -0.5401352
-6.3613763 7.3040514 0
-7.3884854 8.4833651 0.62836885
-5.7341938 6.5678878 -0.97181183
-6.3461518 7.2688184 -0.53897411
-6.3599305 7.2846003 0
-0 0 0
-5.7455359 6.5648508 -0.97238898
-6.3446655 7.2494164 -0.53810358
-6.3618722 7.2690768 0
-0 0 0
-5.7483449 6.5520687 -0.97152382
-6.3431349 7.2300215 -0.53723246
-6.3534842 7.2418175 0
-0 0 0
-5.7528381 6.5412302 -0.97094667
-6.3450022 7.2145472 -0.53665191
-6.3536377 7.2243662 0
-0 0 0
-5.7641621 6.5381584 -0.97152382
-6.3434081 7.1951842 -0.53578132
-6.3485937 7.2010665 0
-0 0 0
-5.7634954 6.5215001 -0.97008264
-6.3400507 7.173883 -0.53476518
-6.3383379 7.1719446 0
-7.4067769 8.3809032 0.62474054
-5.7713709 6.5145311 -0.97008264
-6.3418217 7.1584373 -0.53418463
-6.3487229 7.1662269 0
-7.4065628 8.360281 0.62386996
-5.7809544 6.5094852 -0.97037065
-6.3452954 7.1449461 -0.53374964
-6.3400927 7.1390877 0
-7.4132051 8.347436 0.62357938
-5.7905335 6.504425 -0.97065866
-6.343554 7.1256251 -0.53287852
-6.338335 7.1197624 0
-7.4146485 8.3287706 0.62285388
-5.7915001 6.4897046 -0.96950549
-6.3417821 7.1063266 -0.53200799
-6.3400016 7.1043315 0
-7.4229784 8.3178682 0.62270886
-5.8010669 6.4846354 -0.96979463
-6.3347731 7.0812306 -0.53070188
-6.3364334 7.0830865 0
-7.4295554 8.3050165 0.62241828
-5.7963505 6.4714904 -0.96835232
-6.3303771 7.067719 -0.52997577
-6.3372421 7.0753837 0
-7.4675121 8.3373041 0.62517607
-5.8058987 6.4664121 -0.96864146
-6.3319683 7.052331 -0.52939516
-6.3492608 7.0715904 0
-7.4897275 8.3418036 0.62619162
-5.8137078 6.4593921 -0.96864146
-6.3317952 7.0350199 -0.52866966
-6.3351693 7.0387683 0
-7.4789486 8.3095789 0.6244505
-5.8180399 6.4485183 -0.96806431
-6.3368134 7.023509 -0.52837962
-6.331471 7.0175881 0
-7.4176188 8.2214375 0.61849993
-5.8240938 6.4395671 -0.9677763
-6.3313513 7.0004296 -0.52721852
-6.332963 7.0022116 0
-7.4345193 8.2201777 0.61908048
-5.8301353 6.4306107 -0.96748829
-6.3345675 6.9869976 -0.52678293
-6.3309278 6.9829826 0
-7.4235029 8.1880875 0.61733884
-5.8379011 6.4235616 -0.96748829
-6.334269 6.9697251 -0.52605742
-6.3306108 6.9656997 0
-7.3390226 8.0752754 0.6095016
-5.8404312 6.4107647 -0.96662313
-6.3321896 6.9505453 -0.52518684
-6.3355207 6.9542012 0
-7.2472806 7.9549975 0.60108376
-5.8481731 6.4037032 -0.96662313
-6.3283157 6.9294558 -0.5241707
-6.3333855 6.9350071 0
-7.2341099 7.9212933 0.59919709
-5.8471756 6.387095 -0.96518195
-6.3296657 6.9141378 -0.52359015
-6.3329754 6.9177532 0
-0 0 0
-5.8415799 6.3501034 -0.96172243
-6.3252454 6.8758731 -0.5218485
-6.3338184 6.8851924 0
-7.2117672 7.8395691 0.59498876
-5.8264561 6.3183236 -0.95797491
-6.3229833 6.8567677 -0.52097791
-6.3280191 6.8622289 0
-7.2177081 7.8270249 0.59469819
-5.8077488 6.2827873 -0.95365024
-6.3224463 6.8395839 -0.52025235
-6.3257103 6.8431149 0
-7.2112875 7.801127 0.59339207
-5.7995157 6.2586923 -0.95105588
-6.3254061 6.8262196 -0.51981682
-6.3215904 6.8221021 0
-7.2101083 7.7809687 0.59252095
-5.8035569 6.2478938 -0.95047987
-6.3283424 6.8128586 -0.51938128
-6.3227439 6.8068314 0
-7.2106643 7.7627335 0.59179538
-5.8058128 6.2351961 -0.9496147
-6.3277178 6.7957001 -0.51865572
-6.3274207 6.7953811 0
-7.2111869 7.7445083 0.59106982
-5.8115792 6.2262874 -0.94932669
-6.3252897 6.7766557 -0.51778513
-6.3178654 6.7687016 0
-7.2099047 7.7243958 0.59019929
-5.822629 6.2230344 -0.94990271
-6.3174901 6.7519259 -0.51647848
-6.3242631 6.7591643 0
-7.2139049 7.7099843 0.5897637
-5.8228545 6.215744 -0.94932669
-6.3162441 6.7424245 -0.51604348
-6.3230062 6.7496424 0
-7.2079062 7.6942501 0.58889318
-5.8338985 6.212471 -0.94990271
-6.3101563 6.7196341 -0.51488233
-6.315125 6.724925 0
-7.2136369 7.6817431 0.5886026
-5.8431721 6.2072988 -0.95019072
-6.3022432 6.6949778 -0.51357621
-6.3214641 6.7153964 0
-7.2175689 7.6673436 0.58816707
-5.8524485 6.2021203 -0.95047987
-6.281795 6.6571198 -0.51125401
-6.3099246 6.6869302 0
-6.1604528 6.5285277 0.50137842
-5.8634896 6.1987991 -0.95105588
-6.2630482 6.6212068 -0.50907677
-6.2929659 6.6528354 0
-6.1611943 6.5135283 0.50079781
-5.8780937 6.1992168 -0.95220906
-6.2424445 6.5834727 -0.50675511
-6.2813005 6.6244512 0
-6.1636949 6.5004206 0.50036228
-5.8855801 6.1921101 -0.95220906
-6.2414389 6.5665026 -0.50602901
-6.2462764 6.5715919 0
-6.1643839 6.4854345 0.49978173
-5.8948402 6.1868649 -0.95249707
-6.2368269 6.5457931 -0.50501341
-6.2416439 6.5508485 0
-6.1614647 6.4666977 0.49891114
-5.9076724 6.1853504 -0.95336223
-6.2303739 6.5232196 -0.50385231
-6.2351747 6.5282459 0
-6.1764526 6.466764 0.49949172
-5.9115682 6.1744747 -0.95278621
-6.2256703 6.5025463 -0.50283617
-6.25386 6.5319896 0
-6.1770744 6.4517889 0.49891114
-5.9190245 6.1673274 -0.95278621
-6.2209268 6.481894 -0.50182009
-6.2437243 6.5056481 0
-6.1794658 6.4386945 0.49847561
-5.9300551 6.1638951 -0.95336223
-6.2269545 6.4725018 -0.50167507
-6.2335405 6.4793482 0
-6.1836419 6.4274817 0.4981856
-5.9392924 6.1585851 -0.95365024
-6.2329683 6.4631047 -0.50153005
-6.2305222 6.460568 0
-6.1859903 6.414392 0.49775004
-5.9449334 6.1495466 -0.95336223
-6.2389688 6.453702 -0.50138509
-6.2473736 6.4623957 0
-6.1955409 6.4087791 0.49789503
-5.9505615 6.1405029 -0.95307422
-6.2341027 6.433095 -0.50036895
-6.2316346 6.4305482 0
-6.2050934 6.4031596 0.49804059
-5.9525685 6.1277409 -0.95220906
-6.2255783 6.4087849 -0.49906284
-6.2248931 6.4080796 0
-6.2146349 6.3975196 0.4981856
-5.9545531 6.1149831 -0.95134389
-6.2423797 6.4105644 -0.4997884
-6.2344456 6.4024162 0
-6.2314229 6.399312 0.49891114
-5.9601326 6.1059346 -0.95105588
-6.2301607 6.3825684 -0.49819228
-6.2330894 6.3855686 0
-6.2391505 6.391778 0.49891114
-5.9565892 6.0949335 -0.94990271
-6.2267509 6.3713698 -0.49761173
-6.2369461 6.3818016 0
-6.25209 6.3972974 0.49963671
-5.9603329 6.0840397 -0.94932669
-6.2235308 6.3527007 -0.49674061
-6.2300825 6.3593884 0
-6.2507253 6.3804593 0.49891114
-5.9604306 6.0694518 -0.94817352
-6.2239199 6.3377604 -0.49616006
-6.237762 6.3518562 0
-6.2638936 6.3784657 0.4993467
-5.9713855 6.0659285 -0.94874954
-6.2206392 6.3191285 -0.4952895
-6.2216997 6.3202057 0
-6.2643046 6.3634853 0.49876615
-5.9787107 6.0587087 -0.94874954
-6.2246165 6.3079047 -0.49499893
-6.2274985 6.3108258 0
-6.2628651 6.3466654 0.49804059
-5.9823928 6.0478058 -0.94817352
-6.2322335 6.3003788 -0.49499893
-6.2259703 6.2940469 0
-6.2559104 6.3243146 0.49687949
-5.989696 6.0405731 -0.94817352
-6.2343583 6.2873139 -0.49456394
-6.2244105 6.2772813 0
-6.2598848 6.3130569 0.49658892
-5.989697 6.0259933 -0.94702035
-6.2511082 6.2889891 -0.4952895
-6.2430024 6.2808342 0
-6.2583508 6.2962756 0.49586338
-6.0024524 6.02425 -0.94788551
-6.2568703 6.279592 -0.49514452
-6.248745 6.2714372 0
-6.2732906 6.296072 0.49644393
-5.9969306 6.0041809 -0.94586718
-6.2773023 6.2848916 -0.49616006
-6.2673564 6.2749338 0
-6.2790589 6.2866507 0.49629894
-6.0023527 5.9951043 -0.94557917
-6.2959261 6.2883234 -0.49703118
-6.2841387 6.2765503 0
-6.2995148 6.2919078 0.49731448
-6.0040941 5.9823689 -0.94471401
-6.2961569 6.273375 -0.4964506
-6.2898765 6.2671175 0
-6.3071127 6.2842913 0.49731448
-6.0058131 5.9696379 -0.94384885
-6.3147864 6.2767501 -0.49732119
-6.3048277 6.2668514 0
-6.3239212 6.28583 0.49804059
-6.0020056 5.9514532 -0.94211966
-6.3242092 6.2709432 -0.49746618
-6.3142414 6.2610593 0
-6.3407359 6.2873306 0.49876615
-6.009192 5.9441967 -0.94211966
-6.3410239 6.2724395 -0.49819228
-6.3292031 6.260746 0
-6.357563 6.2887993 0.49949172
-6.0126848 5.9332943 -0.94154251
-6.3578444 6.2738967 -0.49891785
-6.338614 6.25492 0
-6.357759 6.2738128 0.49891114
-6.0143251 5.9205866 -0.94067848
-6.3635707 6.2643886 -0.49877286
-6.3480201 6.2490807 0
-6.3727422 6.2734175 0.49949172
-6.0122423 5.9042487 -0.93923622
-6.3822556 6.2676153 -0.49964342
-6.3667107 6.2523503 0
-6.3895855 6.2748141 0.50021726
-6.019372 5.8969798 -0.93923622
-6.3991027 6.2689896 -0.50036895
-6.3835545 6.253757 0
-6.3971629 6.2670889 0.50021726
-6.0153975 5.8788586 -0.93750697
-6.4141064 6.2685175 -0.5009495
-6.3911061 6.2460394 0
-6.4177413 6.2720695 0.5012334
-6.0170994 5.8734183 -0.93721896
-6.4067392 6.2537546 -0.50007898
-6.4060493 6.2530808 0
-6.428967 6.2754512 0.50181395
-6.0241919 5.8661437 -0.93721896
-6.4031177 6.2351284 -0.49920785
-6.4154701 6.2471566 0
-6.4421244 6.2731118 0.50224894
-6.0349822 5.8624611 -0.93779498
-6.4050608 6.2219605 -0.49877286
-6.4323454 6.2484651 0
-6.4534307 6.2689476 0.50253952
-6.0439243 5.8569703 -0.93808413
-6.3342052 6.1382718 -0.49267727
-6.3987784 6.2008476 0
-6.4628654 6.2629519 0.50268453
-6.0472741 5.8460641 -0.93750697
-6.3472166 6.1360264 -0.49311227
-6.4118738 6.1985326 0
-6.4760342 6.2605581 0.50312006
-6.0580606 5.8423471 -0.93808413
-6.3508892 6.1247487 -0.49282226
-6.3762784 6.1492343 0
-6.4854631 6.2545309 0.50326508
-6.0632463 5.8332248 -0.93779498
-6.3489242 6.1080647 -0.49209672
-6.3611984 6.1198735 0
-6.4930158 6.2466898 0.50326508
-6.0702901 5.8258939 -0.93779498
-6.3600454 6.1039839 -0.4923867
-6.3629537 6.1067748 0
-6.5230556 6.2604308 0.50500673
-6.0810652 5.8221359 -0.93837214
-6.3486509 6.0783281 -0.49093559
-6.3534112 6.0828853 0
-6.5306153 6.2525444 0.50500673
-6.0862269 5.8129992 -0.93808413
-6.3541136 6.0688596 -0.49079061
-6.3720522 6.0859928 0
-6.5438046 6.2500348 0.50544232
-6.0801368 5.7931499 -0.93606579
-6.3463922 6.0468378 -0.48962948
-6.3643279 6.0639272 0
-6.5776854 6.2672138 0.50747395
-6.089005 5.7875791 -0.9363538
-6.3461599 6.0320044 -0.48904893
-6.3678741 6.0526433 0
-6.6248031 6.2968535 0.51052177
-6.0922437 5.7766619 -0.93577778
-6.3572116 6.027904 -0.48933893
-6.3732963 6.0431552 0
-6.6776605 6.3317537 0.51400512
-6.0954576 5.765738 -0.93520063
-6.3531675 6.0095081 -0.48846838
-6.3635793 6.0193563 0
-6.6947432 6.3326068 0.51473069
-6.1042991 5.7601418 -0.93548864
-6.354753 5.9964752 -0.48803282
-6.3708477 6.0116625 0
-6.6929421 6.3155975 0.51400512
-6.1131434 5.75454 -0.93577778
-6.3525352 5.9798889 -0.48730725
-6.3705273 5.9968252 0
-6.6967807 6.3039403 0.51371455
-6.1238594 5.7506866 -0.9363538
-6.3446031 5.9579787 -0.48614612
-6.3625913 5.9748707 0
-6.7119699 6.302959 0.5142951
-6.1434097 5.7411709 -0.93721896
-6.3494916 5.9337597 -0.48542058
-6.3618002 5.945262 0
-6.7689447 6.3257489 0.51748788
-6.1465549 5.7302127 -0.93664181
-6.3490543 5.9189959 -0.48484001
-6.3613648 5.9304719 0
-6.7860847 6.3264232 0.51821345
-6.1481247 5.7247372 -0.9363538
-6.3393154 5.9027619 -0.4838239
-6.3687596 5.9301782 0
-6.8013196 6.3329501 0.51908457
-6.1626177 5.7243457 -0.93750697
-6.336926 5.8862572 -0.48309836
-6.3740082 5.920702 0
-6.8108687 6.3264942 0.51922959
-6.1638365 5.7116194 -0.93664181
-6.3440337 5.8785963 -0.48309836
-6.3620715 5.8953104 0
-6.8318515 6.3306246 0.52024567
-6.1745358 5.7076821 -0.93721896
-6.3415937 5.8621087 -0.48237279
-6.367281 5.8858542 0
-6.829957 6.3135476 0.5195201
-6.181428 5.7002172 -0.93721896
-6.3372073 5.8438692 -0.48150167
-6.3667355 5.871099 0
-6.8585877 6.3246617 0.52111626
-6.1902127 5.6944933 -0.93750697
-6.3423533 5.8344502 -0.48135668
-6.3565888 5.8475461 0
-6.8681355 6.3181276 0.52126122
-6.1989927 5.6887569 -0.93779498
-6.3398275 5.8179998 -0.48063111
-6.3559799 5.8328223 0
-6.8987384 6.3309069 0.52300292
-6.209681 5.6847587 -0.93837214
-6.3391867 5.8033166 -0.48005056
-6.3572626 5.8198647 0
-6.8987169 6.3155484 0.52242237
-6.2165456 5.6772513 -0.93837214
-6.3308444 5.7816348 -0.47888944
-6.3566031 5.8051586 0
-6.9236097 6.3229766 0.52372849
-6.2157526 5.6627684 -0.93721896
-6.3282232 5.765233 -0.47816387
-6.3501444 5.7852035 0
-6.9293256 6.3128581 0.52358347
-6.2283349 5.6604738 -0.93808413
-6.325572 5.7488456 -0.47743833
-6.3475018 5.7687764 0
-6.952332 6.3184614 0.52474457
-6.2294192 5.6477308 -0.93721896
-6.3305907 5.7394547 -0.47729331
-6.3563938 5.7628489 0
-6.971508 6.3205247 0.52561516
-6.2400718 5.6436663 -0.93779498
-6.3278794 5.7230811 -0.47656721
-6.3421264 5.7359662 0
-6.9733644 6.3068728 0.52518016
-6.2488127 5.6378598 -0.93808413
-6.3251457 5.7067294 -0.47584164
-6.3509827 5.7300406 0
-6.3057675 5.6892462 0.47438383
-6.2575407 5.6320338 -0.93837214
-6.3320365 5.6990829 -0.47584164
-6.3385615 5.7049556 0
-6.3029823 5.6729326 0.47365829
-6.2624187 5.6227422 -0.93808413
-6.3311844 5.6844835 -0.47526109
-6.3357697 5.688601 0
-6.3175664 5.6722569 0.47423884
-6.2711329 5.6168952 -0.93837214
-6.3303061 5.6698947 -0.47468054
-6.338758 5.677465 0
-6.3011885 5.6438155 0.47249717
-6.2875571 5.6179285 -0.93981332
-6.327466 5.6535869 -0.47395498
-6.3378506 5.6628656 0
-6.3060679 5.6344676 0.47235218
-6.2943406 5.6103272 -0.93981332
-6.3323545 5.6442099 -0.47380999
-6.3388581 5.6500072 0
-6.3089881 5.623383 0.4720616
-6.2933836 5.5958428 -0.93866014
-6.3255749 5.6244664 -0.47279385
-6.3301291 5.6285157 0
-6.3080111 5.608849 0.47148106
-6.2982073 5.5865202 -0.93837214
-6.3187647 5.6047544 -0.4717783
-6.3427606 5.626039 0
-6.324501 5.6098428 0.47220662
-6.3015814 5.5827141 -0.93837214
-6.320199 5.5992079 -0.47163275
-6.3325281 5.6101303 0
-6.3123369 5.5922427 0.47104606
-6.3083224 5.5750957 -0.93837214
-6.3230696 5.5881286 -0.47134274
-6.3256497 5.5904093 0
-6.3190894 5.5846114 0.47104606
-6.3131161 5.5657601 -0.93808413
-6.3142242 5.5667377 -0.47018161
-6.3304501 5.5810423 0
-6.3238783 5.5752482 0.47090051
-6.3198361 5.5581279 -0.93808413
-6.3189964 5.5573893 -0.47003663
-6.3254595 5.5630736 0
-6.3071957 5.5470109 0.46915883
-6.3343172 5.5573044 -0.93923622
-6.3120322 5.5377526 -0.46902052
-6.3223972 5.5468464 0
-6.3178039 5.5428166 0.46944937
-6.3410277 5.5496464 -0.93923622
-6.3245869 5.5352573 -0.46945608
-6.3193049 5.5306349 0
-6.3166752 5.5283332 0.46886882
-6.3418889 5.5368824 -0.93837214
-6.3136559 5.5122328 -0.46814996
-6.3220582 5.5195684 0
-6.3116097 5.5104465 0.46799827
-6.3544202 5.5343065 -0.93923622
-6.2987552 5.4858255 -0.46655327
-6.318912 5.5033808 0
-6.2967076 5.4840422 0.46640158
-6.363061 5.5283256 -0.93952531
-6.3014603 5.4748058 -0.46626329
-6.3353782 5.5042744 0
-6.3229408 5.4934688 0.46785271
-6.3697362 5.5206332 -0.93952531
-6.3041396 5.4637809 -0.46597272
-6.3282638 5.4846888 0
-6.3060107 5.4654026 0.46611103
-6.3744402 5.5112357 -0.93923622
-6.3048382 5.4510593 -0.46553716
-6.3112617 5.4566131 0
-6.3145814 5.4594831 0.46625659
-6.3850155 5.5069113 -0.93981332
-6.3035493 5.4366488 -0.46495661
-6.3257332 5.4557819 0
-6.3172345 5.448452 0.46596602
-6.4014664 5.5076251 -0.9412545
-6.292388 5.4137774 -0.46365049
-6.3204803 5.4379473 0
-6.3159342 5.4340358 0.46538547
-6.4081168 5.4998865 -0.9412545
-6.3186469 5.4230971 -0.46510217
-6.311255 5.4167528 0
-6.3027816 5.4094806 0.46393436
-6.4186907 5.4955068 -0.94183165
-6.3054528 5.3985553 -0.46365049
-6.313838 5.4057345 0
-6.3132572 5.4052372 0.46422437
-6.4213891 5.4843845 -0.9412545
-6.3020935 5.3824964 -0.46292493
-6.318388 5.3964133 0
-6.3118801 5.3908548 0.46364379
-6.4339194 5.4816551 -0.94211966
-6.3145285 5.3799348 -0.46336049
-6.3169799 5.3820233 0
-6.3124614 5.3781734 0.46320879
-6.4425073 5.4755507 -0.94240767
-6.2952871 5.3504267 -0.46147382
-6.3095951 5.3625875 0
-6.3031154 5.35708 0.4620477
-6.4491186 5.467762 -0.94240767
-6.2957993 5.3377733 -0.46103826
-6.3121042 5.3515968 0
-6.3135438 5.3528175 0.46233767
-6.4596744 5.4633093 -0.94298482
-6.3022447 5.330162 -0.46103826
-6.3165808 5.3422871 0
-6.3061247 5.3334441 0.46132213
-6.4662709 5.4555001 -0.94298482
-6.2888236 5.3057904 -0.45958716
-6.3130798 5.3262548 0
-6.3244772 5.3358707 0.46219268
-6.4768119 5.4510107 -0.94356084
-6.3051686 5.3065519 -0.46031269
-6.3055782 5.3068972 0
-6.2931523 5.2964392 0.45943546
-6.4761481 5.4437714 -0.94298482
-6.2924609 5.2893658 -0.4591516
-6.3047953 5.2997341 0
-6.296351 5.2926359 0.45943546
-6.4926286 5.4442501 -0.944426
-6.2908831 5.2750807 -0.45857102
-6.2912564 5.2753935 0
-6.300745 5.28335 0.45928988
-6.4952307 5.4330788 -0.94384885
-6.3052249 5.2741442 -0.4591516
-6.3056107 5.274467 0
-6.3011508 5.2707362 0.45885488
-6.5117183 5.4335103 -0.94529003
-6.2876515 5.2465444 -0.45740992
-6.2999864 5.2568369 0
-6.3015275 5.2581224 0.45841932
-6.516293 5.423985 -0.94500202
-6.2859979 5.2322936 -0.45682934
-6.2923374 5.2375708 0
-6.295897 5.2405338 0.45754877
-6.5168705 5.411149 -0.94413692
-6.2903185 5.2230363 -0.45668435
-6.3046627 5.2349467 0
-6.2942281 5.2262826 0.45696822
-6.5254016 5.4049253 -0.944426
-6.2706118 5.1938858 -0.45479769
-6.2989616 5.2173676 0
-6.2905273 5.210381 0.45624211
-6.5259442 5.3920927 -0.94356084
-6.2728729 5.1829915 -0.45450711
-6.303257 5.2080965 0
-6.2828021 5.1911955 0.45522654
-6.538444 5.3891401 -0.944426
-6.2791309 5.1754084 -0.45450711
-6.3035183 5.195509 0
-6.2870669 5.1819491 0.45508155
-6.5409517 5.3779473 -0.94384885
-6.2833748 5.1661687 -0.45436212
-6.2977338 5.1779747 0
-6.2772665 5.1611466 0.45392042
-6.5454469 5.3684015 -0.94356084
-6.2815757 5.1519814 -0.45378157
-6.2898984 5.1588073 0
-6.2794762 5.150259 0.45362988
-6.5499291 5.3588524 -0.94327283
-6.2857871 5.1427436 -0.45363656
-6.2840452 5.1413188 0
-6.2836852 5.1410241 0.45348486
-6.5543976 5.3493004 -0.94298482
-6.2859554 5.1302142 -0.453201
-6.2821879 5.1271396 0
-6.2858624 5.1301384 0.45319432
-6.5508213 5.3332071 -0.94154251
-6.2881236 5.1193376 -0.45291102
-6.2903948 5.1211867 0
-6.2739229 5.1077762 0.4518882
-6.5191188 5.294312 -0.93606579
-6.2821984 5.1019039 -0.4520399
-6.2925339 5.1102977 0
-6.2780752 5.0985551 0.45174319
-6.5094333 5.273406 -0.93375945
-6.2823071 5.089407 -0.4516049
-6.2865748 5.0928645 0
-6.276155 5.0844231 0.45116264
-6.4876399 5.2427797 -0.92972392
-6.2783413 5.0736418 -0.45087877
-6.2947464 5.0868988 0
-6.2984619 5.0899014 0.45232376
-6.4838963 5.2268162 -0.92828166
-6.2824459 5.0644226 -0.45073378
-6.2927837 5.0727558 0
-6.2783108 5.061089 0.45043707
-6.4440546 5.1690564 -0.92078656
-6.2723761 5.0313454 -0.44913766
-6.2867551 5.0428796 0
-6.2864652 5.0426469 0.45014653
-6.3836603 5.1079473 -0.91127431
-6.2703352 5.0172691 -0.44855711
-6.2786255 5.0239029 0
-6.2702417 5.0171943 0.4485504
-6.3413119 5.0615058 -0.90435529
-6.2743564 5.0080633 -0.44841155
-6.2745156 5.0081902 0
-6.2681761 5.0031304 0.44796985
-6.2998781 5.0222063 -0.89801341
-6.2692614 4.9977989 -0.44783154
-6.2694001 4.9979095 0
-6.2833848 5.009058 0.44884041
-6.2897468 5.0017118 -0.89570707
-6.2752957 4.9902201 -0.44783154
-6.2693295 4.9854755 0
-6.2812972 4.9949927 0.44825986
-6.2694449 4.9732137 -0.89195955
-6.2629933 4.9680958 -0.44652486
-6.2773857 4.9795127 0
-6.258832 4.9647946 0.44622818
-6.2429967 4.9399552 -0.88734686
-6.2567697 4.9508533 -0.4456543
-6.2711568 4.9622378 0
-6.2689056 4.9604564 0.44651875
-6.230691 4.9179873 -0.88475251
-6.2505131 4.9336333 -0.44478375
-6.2750993 4.9530396 0
-6.266736 4.9464383 0.44593817
-6.2305303 4.9056535 -0.88388735
-6.2564697 4.9260769 -0.44478375
-6.2769938 4.9422369 0
-6.2747478 4.9404683 0.44608319
-6.2222123 4.8869367 -0.88186908
-6.2665005 4.9217205 -0.44507375
-6.2727294 4.9266129 0
-6.2684479 4.9232502 0.44521207
-6.2301545 4.8810143 -0.88215816
-6.2519922 4.8981233 -0.44362265
-6.2663817 4.9093966 0
-6.2600799 4.9044595 0.44419649
-6.2177081 4.8591504 -0.87956381
-6.2579064 4.8905654 -0.44362265
-6.2620587 4.8938103 0
-6.2557664 4.8888931 0.44347095
-6.2296886 4.8564 -0.88042784
-6.2556138 4.8766098 -0.44304207
-6.272068 4.8894372 0
-6.2657638 4.8845224 0.44376093
-6.2212653 4.8377595 -0.87841064
-6.243042 4.8546934 -0.44173595
-6.2553787 4.8642864 0
-6.253202 4.8625937 0.44245481
-6.2189317 4.8238978 -0.87725747
-6.2201552 4.8248467 -0.43970373
-6.2550802 4.8519378 0
-6.2570214 4.8534436 0.44230983
-6.2227039 4.8147926 -0.87696838
-6.2259803 4.8173275 -0.43970373
-6.2485924 4.8348236 0
-6.2628813 4.8458796 0.44230983
-6.2162361 4.797791 -0.87523913
-6.240025 4.8161516 -0.44028428
-6.2564883 4.8288584 0
-6.2625594 4.8335443 0.44187427
-6.2158785 4.7855415 -0.87437397
-6.23349 4.7991004 -0.43941373
-6.2499495 4.8117723 0
-6.2581024 4.8180494 0.44114873
-6.2216563 4.7780271 -0.87437397
-6.239284 4.7915649 -0.43941373
-6.2413087 4.7931194 0
-6.2865829 4.827889 0.44274482
-6.2192121 4.7642145 -0.87322086
-6.2409396 4.780859 -0.43912318
-6.2470956 4.7855749 0
-6.2676668 4.801333 0.44100371
-6.2311316 4.7614093 -0.87408596
-6.2549706 4.7796254 -0.43970373
-6.2383962 4.7669601 0
-6.2156529 4.7495813 0.43693981
-6.2307072 4.7491713 -0.87322086
-6.2421441 4.7578888 -0.43839762
-6.2379484 4.7546906 0
-6.2275887 4.7467947 0.43737537
-6.2261481 4.7338133 -0.87177962
-6.2437558 4.7472005 -0.43810761
-6.2395415 4.7439966 0
-6.2353864 4.7408376 0.43752035
-6.2290068 4.730051 -0.87177962
-6.2466226 4.7434278 -0.43810761
-6.2278957 4.7292075 0
-6.2444596 4.741785 0.43795592
-6.2223511 4.7131538 -0.87005043
-6.2419868 4.7280273 -0.43738151
-6.2481294 4.7326798 0
-6.2377529 4.7248201 0.43708479
-6.2239099 4.7025104 -0.86947328
-6.2497745 4.7220526 -0.43752706
-6.2289262 4.7063003 0
-6.2434573 4.7172794 0.43708479
-6.2192616 4.6872044 -0.8680321
-6.2513213 4.7113667 -0.43723649
-6.257472 4.716002 0
-6.2533069 4.712863 0.43737537
-6.2228556 4.6781335 -0.86774409
-6.2632427 4.7084951 -0.43767205
-6.2486019 4.6974893 0
-6.2527637 4.7006178 0.43693981
-6.2264361 4.6690607 -0.86745608
-6.2585349 4.693131 -0.43694651
-6.2584414 4.6930609 0
-6.2397308 4.6790304 0.43563369
-6.2175732 4.6506877 -0.86543775
-6.2475548 4.6731143 -0.43578538
-6.2495179 4.6745825 0
-6.2495375 4.6745973 0.4359237
-6.2128243 4.6354399 -0.86399657
-6.2469468 4.6608987 -0.43534982
-6.2572455 4.6685824 0
-6.2406092 4.6561699 0.43490812
-6.218421 4.6279292 -0.86399657
-6.2609124 4.6595526 -0.43593037
-6.2545309 4.6548033 0
-6.2545686 4.6548314 0.4354887
-6.2177763 4.6157856 -0.8631314
-6.2602768 4.647336 -0.43549484
-6.2622461 4.648798 0
-6.2497506 4.6395216 0.43476257
-6.22751 4.6113505 -0.86370856
-6.2596288 4.6351337 -0.43505982
-6.2615824 4.6365805 0
-6.2490931 4.6273322 0.43432757
-6.2185121 4.5930643 -0.86169022
-6.2631288 4.6260185 -0.43491426
-6.2588067 4.6228261 0
-6.2504954 4.6166878 0.43403703
-6.2178082 4.5809431 -0.86082506
-6.2666235 4.6169076 -0.43476927
-6.2706757 4.6198931 0
-6.2497993 4.6045122 0.43360201
-6.2150021 4.5672998 -0.85967189
-6.2596388 4.6001029 -0.43389872
-6.2615714 4.6015229 0
-6.2386074 4.5846477 0.43244091
-6.208004 4.5506153 -0.8579427
-6.2316608 4.5679564 -0.43157649
-6.2566342 4.5862622 0
-6.2546191 4.5847855 0.43316647
-6.2155838 4.5446358 -0.85823071
-6.2518611 4.5711608 -0.4325926
-6.2516689 4.5710201 0
-6.2475653 4.5680199 0.43229535
-6.2231584 4.5386448 -0.85851872
-6.2573795 4.5636034 -0.4325926
-6.2508774 4.5588608 0
-6.2425852 4.5528131 0.43156978
-6.2202716 4.5250359 -0.85736561
-6.2649884 4.5575662 -0.43273759
-6.2542787 4.5497751 0
-6.2375774 4.5376253 0.43084422
-6.21946 4.5129638 -0.85650152
-6.2599773 4.5423641 -0.43201205
-6.2492337 4.5345683 0
-6.2493668 4.5346646 0.43127978
-6.2207141 4.5024095 -0.85592437
-6.2654614 4.5347967 -0.43201205
-6.2568226 4.5285439 0
-6.2464218 4.5210161 0.43069923
-6.2177615 4.4888339 -0.8547712
-6.2540817 4.5150552 -0.43085092
-6.2496252 4.511838 0
-6.2497754 4.5119457 0.43055424
-6.2099843 4.4775147 -0.85333002
-6.2525892 4.5082335 -0.43056035
-6.241797 4.5004525 0
-6.2482805 4.505127 0.43026367
-6.2069907 4.4639673 -0.85217685
-6.2495937 4.4946065 -0.4299798
-6.2514601 4.4959488 0
-6.2431736 4.4899898 0.4295381
-6.2039733 4.4504333 -0.85102367
-6.2381372 4.4749408 -0.42881924
-6.2547674 4.4868708 0
-6.2507038 4.4839559 0.42968312
-6.2093463 4.442934 -0.85102367
-6.2498732 4.4719319 -0.42925423
-6.2559552 4.476284 0
-6.2434421 4.4673305 0.42881256
-6.2147102 4.4354281 -0.85102367
-6.2573848 4.4658847 -0.42939925
-6.2444129 4.4566269 0
-6.2403755 4.4537449 0.42823198
-6.2074265 4.4189181 -0.84929448
-6.2500796 4.4492822 -0.4285287
-6.2434306 4.4445491 0
-6.233047 4.4371572 0.42736089
-6.2190819 4.4159026 -0.85015857
-6.2681589 4.4507504 -0.42939925
-6.2339487 4.4264588 0
-6.2405286 4.4311309 0.42750645
-6.2117529 4.3994184 -0.84842932
-6.2502131 4.4266572 -0.42780313
-6.2414145 4.4204259 0
-6.2395148 4.4190807 0.42707089
-6.2107244 4.3874311 -0.84756422
-6.2661667 4.4265966 -0.4285287
-6.242496 4.4098754 0
-6.2342405 4.4040432 0.42634532
-6.2054515 4.3724756 -0.84612298
-6.2523956 4.4055533 -0.42722258
-6.2393103 4.3963332 0
-6.231061 4.3905206 0.42576477
-6.20438 4.3605113 -0.84525788
-6.2492108 4.3920188 -0.42664203
-6.2510076 4.3932815 0
-6.2384853 4.384481 0.42590976
-6.2075286 4.3515282 -0.84496981
-6.2523875 4.3829746 -0.42649701
-6.2456584 4.3782573 0
-6.2310162 4.3679934 0.4250392
-6.1958241 4.3321671 -0.84266353
-6.2470331 4.3679733 -0.42577145
-6.2466741 4.367722 0
-6.2341537 4.3589678 0.42489365
-6.2031736 4.3261557 -0.84295154
-6.2437811 4.354476 -0.4251909
-6.2370105 4.3497543 0
-6.2415538 4.3529224 0.4250392
-6.204154 4.3157063 -0.84237546
-6.2447677 4.3439579 -0.42490035
-6.2401276 4.3407302 0
-6.2446694 4.3438897 0.42489365
-6.2178645 4.3141041 -0.84352863
-6.2414727 4.3304844 -0.42431977
-6.236815 4.3272529 0
-6.2349753 4.3259764 0.4238781
-6.2188148 4.3036413 -0.84295154
-6.2488351 4.3244166 -0.42446479
-6.2377548 4.3167486 0
-6.2359204 4.3154793 0.42358753
-6.2261453 4.2975979 -0.84324062
-6.26261 4.3227673 -0.42504534
-6.2365389 4.3047719 0
-6.2432671 4.3094158 0.42373255
-6.2249403 4.2856698 -0.84237546
-6.2507062 4.3034091 -0.42388421
-6.2374525 4.2942843 0
-6.2313557 4.2900867 0.42257199
-6.2241654 4.2685289 -0.84122229
-6.2499323 4.2862 -0.42330423
-6.2430816 4.2815018 0
-6.239121 4.2787857 0.42257199
-6.2207789 4.2551641 -0.84006912
-6.2357984 4.2654376 -0.42199755
-6.22892 4.2607327 0
-6.2314138 4.2624388 0.42170087
-6.2216468 4.2447319 -0.8394931
-6.2452445 4.2608314 -0.42228812
-6.2448106 4.2605352 0
-6.2387042 4.2563691 0.42184585
-6.224627 4.2357516 -0.83920401
-6.2439418 4.2488952 -0.42185256
-6.2499542 4.2529864 0
-6.2288113 4.2385993 0.42083031
-6.2297406 4.2282276 -0.83920401
-6.2318711 4.2296734 -0.42069143
-6.2357101 4.2322793 0
-6.2231803 4.2237749 0.42010474
-6.2327051 4.2192483 -0.83891594
-6.2369771 4.2221403 -0.42069143
-6.2257314 4.2145276 0
-6.2325788 4.2191629 0.42039475
-6.2270827 4.2044787 -0.83747476
