# .PCD v0.7 - Point Cloud Data file format
VERSION 0.7
FIELDS x y z
SIZE 4 4 4
TYPE F F F
COUNT 1 1 1
WIDTH 1638
HEIGHT 1
VIEWPOINT 0 0 0 1 0 0 0
POINTS 1638
DATA ascii
-6.4104834 4.4649816 0.43635926
-5.6141429 3.9002545 -0.76194602
-5.6242919 3.9073052 -0.38252184
-6.383801 4.4349508 0
-6.4052057 4.449821 0.43563369
-5.6124716 3.8890471 -0.76108092
-5.6204658 3.8945868 -0.38194129
-6.3934374 4.4302015 0
-6.4127116 4.4435573 0.43577868
-5.6107898 3.8778553 -0.76021683
-5.6251678 3.8877926 -0.38194129
-6.3837972 4.4121137 0
-6.418076 4.4358053 0.43577868
-5.6109967 3.8729913 -0.75992775
-5.6232424 3.8814442 -0.38165128
-6.3993087 4.4171238 0
-6.4100642 4.4245481 0.43505314
-5.6114154 3.8632782 -0.75935167
-5.6279283 3.8746467 -0.38165128
-6.3789263 4.3916845 0
-6.4111214 4.4138494 0.43476257
-5.6160793 3.8564949 -0.75935167
-5.6304579 3.8663685 -0.38150573
-6.3885145 4.3869171 0
-6.4078817 4.4002161 0.43418202
-5.6079273 3.840934 -0.75762141
-5.6244087 3.8522222 -0.38078016
-6.3916655 4.3777251 0
-6.4089103 4.3895364 0.43389201
-5.6104307 3.8326976 -0.7573334
-5.6312027 3.8468876 -0.38092518
-6.3905015 4.3655934 0
-6.4056273 4.3759265 0.43331146
-5.6086512 3.8215506 -0.75646931
-5.631556 3.8371572 -0.38063517
-6.3850207 4.350543 0
-6.4130554 4.3696451 0.43345645
-5.6111193 3.8133128 -0.75618023
-5.6275921 3.8245075 -0.38005462
-6.3945737 4.3457475 0
-6.4054399 4.3531322 0.4325859
-5.613584 3.8050804 -0.75589222
-5.6257544 3.8133297 -0.37961906
-6.3912029 4.3321772 0
-6.408546 4.3439331 0.43244091
-5.6096067 3.7925 -0.75473905
-5.6303577 3.8065293 -0.37961906
-6.4007487 4.3273692 0
-6.409481 4.3332729 0.43215033
-5.6163278 3.7871637 -0.75502706
-5.6263356 3.7939122 -0.37903851
-6.3930221 4.3108993 0
-6.408247 4.3211656 0.43171477
-5.6101704 3.7731588 -0.75358588
-5.6330781 3.7885654 -0.37918407
-6.396069 4.3017206 0
-6.4113092 4.3119702 0.43156978
-5.6147256 3.7663774 -0.75358588
-5.6333318 3.7788584 -0.37889349
-6.3947845 4.2896438 0
-6.4122033 4.3013282 0.43127978
-5.6149769 3.7567165 -0.7530098
-5.6335783 3.7691617 -0.37860349
-6.3869805 4.2732277 0
-6.421711 4.296464 0.43156978
-5.6109066 3.7441864 -0.75185663
-5.6359611 3.7609055 -0.37845793
-6.3943024 4.2669506 0
-6.4074469 4.275722 0.43026367
-5.6111159 3.7345352 -0.75127953
-5.640501 3.7540927 -0.37845793
-6.3886228 4.2520127 0
-6.4082866 4.2651005 0.42997366
-5.6113186 3.7248943 -0.75070345
-5.6363821 3.7415318 -0.37787795
-6.3894234 4.2414145 0
-6.4155984 4.2587895 0.43011868
-5.6136608 3.7166848 -0.75041544
-5.6322322 3.7289808 -0.37729737
-6.3945436 4.2336907 0
-6.4164023 4.2481627 0.42982811
-5.6073494 3.7027688 -0.74897319
-5.6280603 3.7164452 -0.37671682
-6.3909678 4.2202249 0
-5.6864996 3.7550349 0.38062847
-5.6075034 3.6931481 -0.74839711
-5.6303706 3.7082086 -0.37657127
-6.4025764 4.2167897 0
-5.7366023 3.7781737 0.38367626
-5.6054077 3.6869142 -0.74782002
-5.6261034 3.7005267 -0.37613627
-5.6941581 3.7452893 0
-5.6802745 3.7361574 0.37975791
-5.6120272 3.6815612 -0.7481091
-5.6283917 3.6922965 -0.37599072
-5.7030358 3.7412641 0
-6.3908653 4.1924891 0.42692587
-5.6078143 3.6691132 -0.74695593
-5.6328487 3.685493 -0.37599072
-5.6923056 3.7243948 0
-6.4024434 4.1890278 0.42736089
-5.6165714 3.6651587 -0.74753201
-5.6329498 3.6758468 -0.37570071
-6.4116426 4.1839919 0
-6.4096828 4.182713 0.42750645
-0 0 -0
-5.6123247 3.6527262 -0.74637884
-5.6286764 3.6633682 -0.37512016
-6.401423 4.1663027 0
-6.3994856 4.1650419 0.42649034
-5.6145668 3.6445351 -0.74609083
-5.6330986 3.6565642 -0.37512016
-6.3977208 4.1528969 0
-6.4001503 4.1544738 0.42619976
-5.6124511 3.6335301 -0.74522567
-5.6331544 3.6469336 -0.37483016
-6.4005513 4.1437507 0
-6.3986278 4.1425052 0.42576477
-5.6081457 3.6211338 -0.7440725
-5.624455 3.6316645 -0.37395903
-0 0 0
-6.4036288 4.1347704 0.42576477
-5.6059995 3.6101577 -0.74320841
-5.6201005 3.6192384 -0.37337849
-6.3952284 4.1184058 0
-6.4064374 4.1256247 0.42561975
-5.6081753 3.6019795 -0.74291933
-5.6244698 3.6124451 -0.37337849
-6.4023876 4.1120806 0
-6.4048567 4.1136665 0.42518422
-0 0 -0
-5.6190591 3.5993872 -0.74378449
-5.6222644 3.6014402 -0.37294292
-6.4007835 4.1001344 0
-0 0 0
-5.6190491 3.5898128 -0.74320841
-5.6309953 3.5974448 -0.37323347
-6.4057331 4.0923972 0
-6.4301009 4.107965 0.42619976
-5.6211948 3.5816267 -0.74291933
-5.6397166 3.5934281 -0.37352347
-6.3975 4.0762606 0
-6.4219155 4.0918174 0.42532921
-5.6146059 3.5678971 -0.74147815
-5.6309004 3.5782518 -0.37265292
-6.3936343 4.0629444 0
-6.4268551 4.0840549 0.42532921
-5.6167302 3.5597272 -0.74119014
-5.639605 3.5742247 -0.37294292
-6.3985391 4.0552158 0
-6.4273996 4.0735068 0.4250392
-5.6188431 3.5515573 -0.74090207
-5.6329393 3.5604672 -0.37221736
-6.3990388 4.044703 0
-6.4345117 4.0671248 0.42518422
-5.6099982 3.5364869 -0.7391718
-5.6328454 3.5508897 -0.37192735
-6.3885083 4.0272522 0
-6.4306288 4.0538044 0.42460364
-5.6142669 3.5297058 -0.7391718
-5.6261349 3.5371671 -0.37120181
-6.4021826 4.0250707 0
-6.4355221 4.046031 0.42460364
-5.6053839 3.514678 -0.73744255
-5.6326041 3.5317454 -0.3713468
-6.4092445 4.018713 0
-6.4382067 4.0368729 0.42445865
-5.6162081 3.5120177 -0.73830771
-5.6346664 3.5235605 -0.37120181
-6.4052691 4.0054464 0
-6.4386692 4.0263329 0.42416808
-5.609468 3.4983816 -0.73686546
-5.6323032 3.5126231 -0.37076625
-6.4101043 3.997704 0
-6.432508 4.0116758 0.42344254
-5.6114092 3.4854822 -0.73628938
-5.6320367 3.4982946 -0.37033069
-6.4018707 3.9764709 0
-6.4331441 3.9958963 0.42300698
-5.6244116 3.4841475 -0.73744255
-5.6318455 3.4887526 -0.37004068
-6.4000316 3.9646199 0
-6.429132 3.9826467 0.42242643
-5.6198158 3.4719114 -0.73628938
-5.6360569 3.4819453 -0.37004068
-6.3981729 3.9527788 0
-6.4295225 3.9721465 0.42213643
-5.6129985 3.4583359 -0.7348482
-5.6336212 3.4710422 -0.36960512
-6.405158 3.946409 0
-6.4343176 3.964375 0.42213643
-5.6083584 3.4461348 -0.73369503
-5.6355996 3.4628735 -0.36946014
-6.4099216 3.9386666 0
-6.4457469 3.9606798 0.42257199
-5.6125183 3.4393556 -0.73369503
-5.6309175 3.4506307 -0.36887959
-6.4035835 3.9241209 0
-6.4372301 3.9447398 0.42170087
-5.6100469 3.428524 -0.73282993
-5.6306443 3.4411116 -0.36858901
-6.4061017 3.9150248 0
-6.4331231 3.9315386 0.42112032
-5.6141858 3.4217427 -0.73282993
-5.637023 3.4356618 -0.36873457
-6.4041586 3.9032168 0
-6.4356523 3.9224117 0.4209753
-5.6205239 3.4162989 -0.73311794
-5.6300616 3.422096 -0.36800846
-6.4088702 3.8954759 0
-6.4359422 3.9119306 0.42068475
-5.6135907 3.4028025 -0.73167676
-5.6319728 3.413945 -0.36786345
-6.4024467 3.880985 0
-6.436224 3.9014599 0.42039475
-5.6154871 3.3946803 -0.73138869
-5.6360936 3.4071374 -0.36786345
-6.4026818 3.8705559 0
-6.4298172 3.88696 0.41966918
-5.6173716 3.3865585 -0.73110068
-5.6357598 3.397644 -0.36757347
-6.4006653 3.8587844 0
-6.4367323 3.8805282 0.4198142
-5.6214595 3.3797684 -0.73110068
-5.6398611 3.3908319 -0.36757347
-6.4030948 3.8497081 0
-6.4503245 3.8781035 0.42039475
-5.6166663 3.3676534 -0.72994751
-5.6328135 3.3773351 -0.3668479
-6.4032736 3.8392892 0
-6.4683728 3.8783214 0.4212653
-5.6118517 3.3555548 -0.72879434
-5.6368904 3.3705263 -0.3668479
-6.4034448 3.8288805 0
-6.4953599 3.8838406 0.42271698
-5.6092353 3.3447962 -0.72792923
-5.6320314 3.3583896 -0.36626735
-6.4058332 3.819809 0
-6.5089755 3.8813126 0.42329752
-5.6088309 3.3353746 -0.72735316
-5.6293831 3.3475964 -0.36583179
-6.4104443 3.8120658 0
-6.5136604 3.873445 0.42329752
-5.6173019 3.3312311 -0.72792923
-5.6311913 3.3394678 -0.36568677
-6.4060917 3.7990074 0
-6.5228019 3.8682199 0.42358753
-5.6101937 3.3178594 -0.72648799
-5.6262755 3.3273702 -0.36510623
-6.4017172 3.785965 0
-6.5297055 3.8616569 0.42373255
-5.61865 3.3137035 -0.72706407
-5.6325283 3.3218882 -0.36525121
-6.4107661 3.7808685 0
-6.5187058 3.844528 0.42271698
-5.6184244 3.3089969 -0.72677606
-5.6367707 3.319802 -0.36539623
-6.4063196 3.7730315 0
-6.5232639 3.8419063 0.42286196
-5.6134977 3.2969663 -0.72562289
-5.6340542 3.3090396 -0.36496067
-6.4018974 3.7600157 0
-6.5323782 3.8366508 0.42315197
-5.6152477 3.2888751 -0.72533488
-5.6313286 3.2982936 -0.36452568
-6.3952103 3.7457025 0
-6.5145922 3.815625 0.42170087
-5.6147552 3.2794812 -0.7247588
-5.6353097 3.2914867 -0.36452568
-6.4109654 3.744534 0
-6.528173 3.8129928 0.42228141
-5.6164722 3.271389 -0.72446972
-5.6258063 3.2768259 -0.36365455
-6.4064984 3.7315505 0
-5.6661229 3.3003089 0.36626065
-5.615952 3.2620044 -0.72389364
-5.6342597 3.2726386 -0.3639451
-6.4087458 3.7224958 0
-5.6723514 3.294764 0.36640564
-5.6131725 3.2513258 -0.72302854
-5.6337085 3.2632208 -0.36365455
-6.4042311 3.7095315 0
-5.6471004 3.2709777 0.36451897
-5.6170974 3.2445409 -0.72302854
-5.6263995 3.2499142 -0.36292899
-6.4154716 3.7056971 0
-6.553278 3.7852967 0.42271698
-5.6165352 3.235172 -0.72245246
-5.6370792 3.2470055 -0.36336455
-6.4041562 3.6888485 0
-6.5510898 3.7734833 0.42228141
-5.6159506 3.2258041 -0.72187537
-5.6387472 3.2388988 -0.36321956
-6.4018455 3.6772225 0
-6.548883 3.7616808 0.42184585
-5.622086 3.2203004 -0.72216338
-5.6381431 3.2294977 -0.36292899
-6.4040189 3.6681871 0
-6.5511708 3.7524748 0.42170087
-5.6169896 3.2083733 -0.72101021
-5.6352701 3.2188151 -0.36249343
-6.4107132 3.661741 0
-6.5579543 3.7458439 0.42184585
-5.6163716 3.1990261 -0.72043419
-5.6368995 3.2107186 -0.36234844
-6.4083467 3.6501269 0
-6.5421567 3.7263439 0.42053974
-5.6157303 3.1896803 -0.71985704
-5.6294799 3.19749 -0.36162287
-6.405961 3.6385236 0
-6.551178 3.7210052 0.42083031
-5.6128354 3.1790719 -0.71899295
-5.6333394 3.1906855 -0.36162287
-6.4035659 3.6269367 0
-6.5330548 3.7002783 0.41937864
-5.6189222 3.1735585 -0.71928102
-5.6371908 3.1838763 -0.36162287
-6.4192719 3.6255946 0
-6.5578818 3.7038813 0.42068475
-5.6137385 3.1616898 -0.71812785
-5.6319776 3.171962 -0.36104232
-6.4145775 3.6127269 0
-6.566885 3.6985073 0.4209753
-5.6130486 3.1523736 -0.71755177
-5.631279 3.1626122 -0.36075231
-6.4075947 3.598603 0
-6.5350995 3.6702116 0.41865307
-5.6191082 3.1468518 -0.71783978
-5.6350965 3.1558056 -0.36075231
-6.4073925 3.5883121 0
-6.5349994 3.6597755 0.41836306
-5.6161294 3.1362753 -0.71697468
-5.6411719 3.15026 -0.36089733
-6.4071836 3.5780323 0
-6.5371418 3.6506062 0.41821751
-5.6266961 3.1332633 -0.71783978
-5.6358933 3.1383848 -0.36031675
-6.4046788 3.566488 0
-6.5551734 3.6502919 0.41908863
-5.6150208 3.122319 -0.71610951
-5.6309733 3.1311896 -0.35988119
-6.4091048 3.5638816 0
-6.5210423 3.6261261 0.41676641
-5.6187897 3.1155322 -0.71610951
-5.6438427 3.1294236 -0.36046177
-6.3997545 3.5485651 0
-6.5504184 3.6321061 0.41836306
-5.608973 3.101234 -0.71438032
-5.6316996 3.1137996 -0.35944563
-6.4108639 3.5446038 0
-6.5275145 3.6091006 0.41662139
-5.6104531 3.0932066 -0.71409225
-5.6309114 3.1044858 -0.35915565
-6.4083114 3.5330892 0
-6.5591764 3.6162655 0.41836306
-5.6096492 3.0839307 -0.71351516
-5.6369333 3.0989304 -0.35930064
-6.4034534 3.5203283 0
-6.5475998 3.5995736 0.41734695
-5.6133714 3.0771503 -0.71351516
-5.6338444 3.0883732 -0.35886565
-6.4077024 3.5125883 0
-6.5473919 3.5891638 0.41705695
-5.6102834 3.0666473 -0.71265107
-5.6352854 3.0803137 -0.35872009
-6.4096603 3.5035963 0
-6.5426035 3.5762646 0.4164764
-5.6117072 3.0586247 -0.71236199
-5.6298771 3.0685282 -0.35813954
-6.4001741 3.4883735 0
-6.544632 3.5671093 0.41633084
-5.6199484 3.0543144 -0.71293908
-5.6381512 3.0642073 -0.35843009
-6.3952379 3.4756668 0
-6.5557885 3.5629225 0.41676641
-5.6259065 3.0487528 -0.71322715
-5.6327114 3.0524402 -0.35784954
-6.4062996 3.471658 0
-6.5418124 3.5450943 0.41560528
-5.6227574 3.0382628 -0.71236199
-5.6386795 3.0468662 -0.35799453
-6.4150643 3.4663866 0
-6.5506678 3.53966 0.41589585
-5.6196003 3.0277896 -0.7114979
-5.6309214 3.0338893 -0.35726896
-6.407795 3.4524617 0
-6.5572252 3.5329735 0.41604084
-5.6164169 3.0173237 -0.7106328
-5.634583 3.0270832 -0.35726896
-6.411962 3.4447167 0
-6.5363078 3.5115194 0.41444418
-5.6132164 3.00687 -0.70976764
-5.6290746 3.0153649 -0.35668841
-6.4092436 3.4332836 0
-6.5542936 3.5109832 0.41531527
-5.612287 2.9976506 -0.70919156
-5.630424 3.0073378 -0.35654342
-6.4179745 3.4279866 0
-6.5470734 3.4969413 0.41458973
-5.6136155 2.9896479 -0.70890248
-5.627171 2.9968669 -0.35610786
-6.4083338 3.4128914 0
-6.5467029 3.4865828 0.41429916
-5.6172237 2.9828627 -0.70890248
-5.633081 2.9912829 -0.35625285
-6.4124527 3.4051456 0
-6.5577979 3.482327 0.41473472
-5.6162567 2.9736547 -0.70832646
-5.6389942 2.9856937 -0.3563984
-6.4165626 3.3973951 0
-6.5367379 3.4610245 0.41313806
-5.6198459 2.9668665 -0.70832646
-5.6379972 2.9764493 -0.35610786
-6.4114571 3.3847795 0
-6.5317235 3.4482713 0.41255748
-5.6193514 2.9622657 -0.70803839
-5.6374984 2.971832 -0.35596284
-6.4088922 3.3784757 0
-6.5476017 3.451597 0.4134286
-5.6229267 2.9554737 -0.70803839
-5.6249824 2.9565542 -0.35494673
-6.4152713 3.3719389 0
-6.5448651 3.4400551 0.41299304
-5.6196184 2.9450743 -0.70717329
-5.6285505 2.9497554 -0.35494673
-6.4124322 3.3605642 0
-6.5628219 3.439379 0.4138636
-5.6060767 2.9207308 -0.70457894
-5.6333604 2.9349453 -0.35480174
-6.4089875 3.3390422 0
-5.6263385 2.9312871 0.35435948
-5.6118951 2.9151459 -0.70486695
-5.6276789 2.9233451 -0.35422119
-6.4060955 3.3277001 0
-5.6460195 2.9328723 0.35537562
-5.6200109 2.9107444 -0.70544404
-5.628902 2.915349 -0.35407618
-6.4193559 3.3247449 0
-6.5539942 3.3944776 0.41226751
-5.6166272 2.9003901 -0.70457894
-5.6324205 2.9085455 -0.35407618
-6.4210491 3.3157883 0
-6.5511622 3.382978 0.41183195
-5.6155243 2.8912311 -0.70400178
-5.6289978 2.8981683 -0.35364062
-6.4134841 3.302072 0
-6.5367637 3.3655441 0.41067082
-5.6190138 2.8844438 -0.70400178
-5.6371145 2.8937356 -0.35393062
-6.4058952 3.2883787 0
-6.5246415 3.3493354 0.40965471
-5.6224947 2.8776522 -0.70400178
-5.6382961 2.8857393 -0.35378563
-6.4121785 3.2818205 0
-6.535625 3.3450019 0.41009027
-5.6236663 2.8696818 -0.70371377
-5.6371541 2.8765647 -0.35349563
-6.4207797 3.2764385 0
-6.5280919 3.3311982 0.4093647
-5.6202202 2.8593695 -0.70284969
-5.6290483 2.8638608 -0.35277006
-6.4108124 3.261595 0
-6.5344257 3.3244851 0.40950969
-5.6144443 2.8478963 -0.70169652
-5.6325045 2.8570573 -0.35277006
-6.4170761 3.2550271 0
-6.5291686 3.3118851 0.40892914
-5.6155667 2.8399396 -0.70140743
-5.6382689 2.8514209 -0.35291508
-6.4186754 3.246093 0
-6.5378075 3.3063412 0.40921971
-5.6166868 2.8319888 -0.70111942
-5.6301117 2.8387578 -0.35218951
-6.4179502 3.2359936 0
-6.5301991 3.2925909 0.40849414
-5.6154871 2.8228791 -0.70054334
-5.6358571 2.8331189 -0.3523345
-6.4172006 3.2258966 0
-6.5272059 3.2811956 0.40805858
-5.6188941 2.8160918 -0.70054334
-5.6369553 2.8251438 -0.35218951
-6.4117961 3.2134805 0
-6.5311656 3.2733064 0.40805858
-5.6269155 2.8116102 -0.70111942
-5.6403646 2.8183305 -0.35218951
-6.4063621 3.2010777 0
-5.6449022 2.8205976 0.35247281
-5.6256828 2.8025048 -0.70054334
-5.6437659 2.8115132 -0.35218951
-6.4032345 3.189852 0
-5.6715689 2.8253636 0.35392448
-5.6181116 2.794498 -0.69939017
-5.6454639 2.8081031 -0.35218951
-6.4121532 3.189461 0
-5.6942115 2.8323505 0.3552306
-5.6214843 2.7877076 -0.69939017
-5.632555 2.7931974 -0.3511734
-6.411335 3.1793964 0
-5.6627083 2.8081505 0.35305336
-5.6202068 2.7786181 -0.69881308
-5.6359258 2.7863896 -0.3511734
-6.4105105 3.1693425 0
-6.5465403 3.2365954 0.4079136
-5.6119628 2.7661088 -0.6973719
-5.6346316 2.7772822 -0.35088339
-6.411994 3.1604404 0
-6.5387859 3.2229354 0.40718746
-5.6153007 2.7593257 -0.6973719
-5.6333146 2.7681777 -0.35059282
-6.4134746 3.1515439 0
-6.5216889 3.2047195 0.40588135
-5.6163101 2.7514019 -0.69708383
-5.6366553 2.761369 -0.35059282
-6.4196129 3.1449358 0
-6.5278964 3.1979835 0.4060269
-5.6149778 2.7423415 -0.69650674
-5.6329808 2.7511339 -0.35015729
-6.4070454 3.1291852 0
-6.5317559 3.1900935 0.4060269
-5.6159644 2.7344236 -0.69621873
-5.643312 2.7477393 -0.35059282
-6.4131594 3.1225796 0
-6.5356059 3.1821988 0.4060269
-5.6192641 2.7276359 -0.69621873
-5.6419573 2.7386513 -0.35030285
-6.4145889 3.1136928 0
-6.5371017 3.1731615 0.40588135
-5.6155691 2.717463 -0.69535357
-5.6452622 2.731832 -0.35030285
-6.4066358 3.1002727 0
-6.5339208 3.1618681 0.40544635
-5.6235123 2.7129257 -0.69593066
-5.6415358 2.7216206 -0.34986728
-6.4080262 3.0913951 0
-6.5470982 3.1584868 0.4060269
-5.6174622 2.7016447 -0.69477755
-5.6401324 2.7125473 -0.34957671
-6.4164524 3.0859082 0
-6.5438824 3.1471939 0.40559137
-5.6113935 2.6903822 -0.69362438
-5.6340337 2.701237 -0.34899616
-6.4178319 3.077029 0
-6.5476804 3.1392846 0.40559137
-5.6146402 2.6835999 -0.69362438
-5.6419864 2.6966705 -0.34928671
-6.4191904 3.0681465 0
-6.5561528 3.1336098 0.40588135
-5.6202116 2.6779253 -0.69391239
-5.6335144 2.6842637 -0.34856117
-6.4158511 3.0570326 0
-6.5599346 3.1256857 0.40588135
-5.6140981 2.6666934 -0.69275922
-5.6367536 2.6774549 -0.34856117
-6.4101372 3.0448117 0
-6.5637064 3.1177571 0.40588135
-2.717243 1.2866672 -0.99132979
-5.6149807 2.658802 -0.69247121
-5.6376386 2.6695309 -0.34841615
-6.4138117 3.0370641 0
-6.5533829 3.1031537 0.40501079
-2.7366765 1.2918235 -0.99784952
-5.6228628 2.6542215 -0.69304723
-5.6385036 2.6616046 -0.3482706
-6.412765 3.0270879 0
-6.5524235 3.0930123 0.40472025
-2.7248127 1.2821996 -0.99295813
-5.6284127 2.64853 -0.69333631
-5.6464219 2.6570046 -0.34856117
-6.4117131 3.0171232 0
-6.5702672 3.091733 0.40559137
-2.7174096 1.2747077 -0.98969829
-5.6245813 2.6384308 -0.69247121
-5.6472783 2.6490774 -0.34841615
-6.4106374 3.0071611 0
-6.5669384 3.0804803 0.40515581
-2.7114708 1.2699238 -0.98725575
-5.6191454 2.6317401 -0.69160604
-5.6347542 2.6390505 -0.34754506
-6.4100981 3.0021846 0
-6.5546842 3.0699017 0.40428525
-2.695087 1.2582818 -0.98073602
-5.6152968 2.6216691 -0.69074196
-5.6308732 2.6289413 -0.3471095
-6.411365 2.9933372 0
-6.5607409 3.0630777 0.40443024
-2.6831563 1.248765 -0.97584468
-5.6231461 2.6170628 -0.69131804
-5.6340456 2.6221354 -0.3471095
-6.4126201 2.9844911 0
-6.5479441 3.0474722 0.40341413
-2.6779435 1.2424045 -0.97340208
-5.6145749 2.6048248 -0.68987685
-5.6301451 2.6120484 -0.3466745
-6.4114957 2.9745479 0
-6.5704789 3.0483065 0.40457523
-2.6906571 1.2443542 -0.97747618
-5.6177187 2.5980389 -0.68987685
-5.6380095 2.6074228 -0.34696448
-6.4174447 2.96789 0
-6.5576549 3.0327332 0.40355968
-2.6988945 1.2442074 -0.97992182
-5.6185069 2.5901673 -0.68958879
-5.6387987 2.5995216 -0.34681949
-6.4163041 2.9579566 0
-6.5660295 3.0269811 0.40384969
-2.6869168 1.2347511 -0.97503048
-5.6169276 2.5812144 -0.68901169
-5.63485 2.5894504 -0.34638393
-6.4127769 2.9469404 0
-6.5649648 3.0168772 0.40355968
-2.6884067 1.2315036 -0.97503048
-5.6176929 2.5733492 -0.68872368
-5.642704 2.5848062 -0.3466745
-6.413969 2.938107 0
-6.5615158 3.0056949 0.40312412
-2.6269488 1.199513 -0.9522146
-5.6231489 2.5676329 -0.68901169
-5.6387296 2.5747473 -0.34623894
-6.4080453 2.9260309 0
-6.560411 2.9956038 0.40283355
-2.6373944 1.2004335 -0.95547444
-5.6285992 2.5619071 -0.6892997
-5.6371021 2.5657773 -0.34594837
-6.4092097 2.9172087 0
-6.5498405 2.9812181 0.401963
-2.6681011 1.2105203 -0.96606821
-5.619916 2.5497618 -0.68785852
-5.6378345 2.5578914 -0.34580338
-6.4174652 2.9116108 0
-6.5581656 2.9754467 0.402253
-2.6267712 1.1879437 -0.9505831
-2.6513433 1.1990563 -0.80282521
-5.6182837 2.5408399 -0.68728244
-5.6361904 2.548938 -0.34551337
-6.4138627 2.9006362 0
-6.547555 2.961098 0.40138245
-2.6327157 1.1868024 -0.9522146
-2.6573689 1.1979158 -0.80421084
-5.6189942 2.5329876 -0.68699443
-5.6321573 2.5389211 -0.34507781
-6.4078813 2.8886101 0
-6.5558615 2.955318 0.40167245
-2.627382 1.1805804 -0.9497689
-2.6588144 1.1947041 -0.80421084
-5.6244078 2.5272553 -0.68728244
-5.6399655 2.534246 -0.34536839
-6.423234 2.8861976 0
-6.5712852 2.9527225 0.40239856
-2.6130147 1.1703318 -0.94406337
-2.6648307 1.1935395 -0.80559385
-5.6250992 2.5194011 -0.68699443
-5.6382761 2.5253031 -0.34507781
-6.4219618 2.8763046 0
-6.562984 2.9394665 0.40167245
-2.6866481 1.1994157 -0.97014225
-2.6639824 1.189297 -0.80490237
-5.6210513 2.5094383 -0.68612927
-5.6436939 2.5195467 -0.3452228
-6.4135528 2.8632393 0
-6.5902629 2.9421291 0.40312412
-2.6497095 1.1790873 -0.95628864
-2.6722958 1.1891381 -0.80697948
-5.6264405 2.503695 -0.68641734
-5.6419907 2.5106149 -0.34493282
-6.4074969 2.8512554 0
-5.6300135 2.505285 0.34420055
-2.6805015 1.1889112 -0.96688241
-2.6576755 1.178787 -0.80213374
-5.6270995 2.495847 -0.68612927
-5.640265 2.5016866 -0.34464225
-6.3942823 2.8361239 0
-6.5569763 2.9082851 0.40065688
-2.6299412 1.1626848 -0.9481374
-2.6361568 1.1654327 -0.7952134
-5.6277475 2.4880011 -0.68584126
-5.6432838 2.4948697 -0.34464225
-6.4191337 2.8378694 0
-5.6241708 2.4864199 0.34347501
-2.6215985 1.1571037 -0.94487756
-2.6506269 1.169916 -0.79936504
-5.6221485 2.4814665 -0.68497616
-5.6400404 2.4893634 -0.34435225
-6.4184594 2.8329368 0
-5.6470642 2.4924636 0.34478113
-2.688601 1.1827973 -0.96851075
-2.642853 1.1626714 -0.79659641
-5.6275082 2.4757121 -0.68526417
-5.6359062 2.4794066 -0.34391668
-6.4147382 2.8220384 0
-5.6191545 2.4720368 0.34289443
-2.7375607 1.2003903 -0.98562425
-2.6465514 1.1604837 -0.79728794
-5.6186538 2.4637182 -0.68382299
-5.6341434 2.47051 -0.34362671
-6.4181433 2.8142853 0
-6.5715942 2.881572 0.4008019
-2.6869264 1.1743188 -0.96688241
-2.6364598 1.1522626 -0.79382777
-5.6216269 2.4569273 -0.68382299
-5.6418815 2.4657795 -0.34391668
-6.4120002 2.8023593 0
-5.6465383 2.4678147 0.34420055
-2.7109983 1.1809402 -0.97503048
-2.6447525 1.1520828 -0.79590493
-5.6222224 2.4491007 -0.68353492
-5.6377077 2.4558465 -0.34348115
-6.427309 2.7998054 0
-5.678103 2.473443 0.34594223
-2.7169619 1.1796342 -0.97666198
-2.6576467 1.153881 -0.79936504
-5.6204281 2.4402435 -0.68295783
-5.6335278 2.445931 -0.34304613
-6.4187536 2.7868557 0
-5.7025366 2.475893 0.34724835
-2.7183855 1.1763504 -0.97666198
-2.6337187 1.1397119 -0.79175329
-5.6281247 2.4355071 -0.68353492
-5.6412439 2.4411843 -0.34333614
-6.4030089 2.7708294 0
-5.6745248 2.4555862 0.34536168
-2.7220721 1.1740428 -0.97747618
-2.6512127 1.1434808 -0.79659641
-5.6286817 2.4276774 -0.68324584
-5.6465731 2.435394 -0.34348115
-6.4015679 2.7610271 0
-5.6321516 2.4291742 0.34260389
-2.6999085 1.1567533 -0.96851075
-2.6447442 1.1331185 -0.79382777
-5.6297812 2.4120328 -0.68266982
-5.6452837 2.4186745 -0.34304613
-6.4225793 2.7517004 0
-6.5527439 2.8074684 0.39818966
-2.6944916 1.150581 -0.96606821
-2.6299675 1.1230284 -0.78898466
-5.6208005 2.4001508 -0.68122858
-5.6482019 2.4118514 -0.34304613
-6.416326 2.73985 0
-6.5561314 2.7995486 0.39818966
-2.6981521 1.1482913 -0.96688241
-2.6313226 1.1198498 -0.78898466
-5.6213188 2.3923454 -0.68094057
-5.6367617 2.3989177 -0.34217504
-6.4124455 2.7290368 0
-6.5595093 2.7916248 0.39818966
-2.7131855 1.1508192 -0.97177064
-2.6419122 1.1205881 -0.79175329
-5.6218176 2.3845387 -0.68065149
-5.6396561 2.3921051 -0.34217504
-6.4181318 2.7223017 0
-6.5461302 2.7765932 0.39717355
-2.691813 1.1379181 -0.96362251
-2.6363297 1.1144636 -0.78967613
-5.6270838 2.3787541 -0.68094057
-5.6353693 2.3822565 -0.34174001
-6.4190221 2.7135324 0
-6.5542717 2.7707069 0.3974641
-2.7136831 1.1433004 -0.97095644
-2.6307364 1.1083542 -0.78759897
-5.6228008 2.3689394 -0.68007547
-5.6382437 2.3754456 -0.34174001
-6.4150987 2.7027419 0
-6.5432425 2.7567303 0.39659297
-2.7173393 1.1409767 -0.97177064
-2.6390152 1.1080893 -0.78967613
-5.6161203 2.3581383 -0.6789223
-5.6411099 2.3686311 -0.34174001
-6.4135652 2.6929755 0
-6.5417819 2.7468119 0.396303
-2.67768 1.1205202 -0.95710278
-2.6334071 1.1019934 -0.78759897
-5.6261258 2.354347 -0.6797874
-5.6511521 2.3648195 -0.34217504
-6.4168143 2.6852241 0
-6.5235252 2.7298787 0.39499688
-2.7520294 1.1477274 -0.98318172
-2.6370499 1.0997754 -0.7882905
-5.6241875 2.3455541 -0.67921031
-5.6372247 2.3509912 -0.34115946
-6.4248538 2.6794701 0
-6.5292149 2.7229936 0.39514187
-2.7031987 1.1235301 -0.96525091
-2.6430147 1.0985159 -0.78967613
-5.6246314 2.337765 -0.6789223
-5.6448555 2.3461707 -0.34144947
-6.413672 2.6657138 0
-6.5180988 2.7091167 0.39427075
-2.7022731 1.1193181 -0.96443671
-2.623482 1.0866818 -0.78344733
-5.6250644 2.329978 -0.67863423
-5.6428895 2.3373613 -0.34115946
-6.4168882 2.6579623 0
-6.492569 2.6893101 0.39252964
-2.7150445 1.1207666 -0.96851075
-2.6155174 1.079682 -0.78067869
-5.6254783 2.3221898 -0.67834514
-5.6385016 2.3275659 -0.3407239
-6.4152794 2.6482189 0
-0 0 0
-2.683733 1.1059442 -0.95710278
-2.6300819 1.083835 -0.78483033
-5.6125364 2.3128798 -0.67661595
-5.6375065 2.3231699 -0.34057891
-6.4192915 2.6453369 0
-0 0 0
-2.6987808 1.1083324 -0.96199101
-2.6546009 1.0901887 -0.79175329
-5.6177173 2.3070781 -0.67690396
-5.6427112 2.3173425 -0.3407239
-6.4248881 2.6385663 0
-0 0 0
-2.6932623 1.1022649 -0.95954847
-2.6373415 1.0793782 -0.78621596
-5.6061425 2.2944121 -0.67517471
-5.6310825 2.3046193 -0.33985335
-6.4160309 2.6258733 0
-0 0 0
-2.7151873 1.1074096 -0.96688241
-2.6548982 1.0828202 -0.79105914
-5.6232762 2.2934954 -0.67690396
-5.6434779 2.3017349 -0.34043336
-6.4119678 2.6151693 0
-0 0 0
-2.7188108 1.1050577 -0.96769655
-2.6329677 1.0701669 -0.78413886
-5.6188617 2.2837803 -0.67603987
-5.6438503 2.2939367 -0.34028834
-6.415123 2.6074197 0
-0 0 0
-2.7155669 1.0999178 -0.96606821
-2.6319358 1.0660437 -0.78344733
-5.6216173 2.2769895 -0.67603987
-5.6418056 2.2851665 -0.33999836
-6.4134493 2.5977144 0
-6.4460554 2.6109211 0.38846573
-2.723763 1.0994084 -0.96851075
-2.6332221 1.0628628 -0.78344733
-5.6147704 2.2663226 -0.6748867
-5.6373315 2.2754292 -0.3395628
-6.40693 2.5860667 0
-6.4467983 2.6021588 0.38832074
-2.7044542 1.0878164 -0.96117687
-2.6345043 1.0596803 -0.78344733
-5.6199021 2.2605009 -0.67517471
-5.6473117 2.2715259 -0.33999836
-6.4076285 2.5773492 0
-6.4499378 2.5943673 0.38832074
-2.7057667 1.0845478 -0.96117687
-2.6194799 1.0499616 -0.77860153
-5.6154246 2.2508209 -0.67430961
-5.6404042 2.2608335 -0.33941779
-6.4131608 2.570576 0
-6.4506488 2.5856023 0.38817519
-2.6795318 1.070276 -0.95139724
-2.6370575 1.0533106 -0.78344733
-5.6325564 2.2497923 -0.67603987
-5.6431322 2.2540164 -0.33941779
-6.4138384 2.561857 0
-6.4513574 2.5768433 0.38803017
-2.662452 1.0597253 -0.94487756
-2.6453142 1.0529041 -0.78552181
-5.6232486 2.2381997 -0.67459762
-5.6313615 2.2414289 -0.33854666
-6.419354 2.5550704 0
-6.4568782 2.5700061 0.38817519
-2.7050896 1.0729117 -0.95954847
-2.6442549 1.0487829 -0.78483033
-5.6211448 2.2294979 -0.6740216
-5.641314 2.2374978 -0.33898222
-6.4200106 2.5463498 0
-6.4624014 2.563163 0.38832074
-2.6673102 1.0541992 -0.94569486
-2.6291947 1.0391349 -0.77998722
-2.6291091 1.039101 -0.47130173
-5.6093974 2.2169983 -0.67229128
-5.6440139 2.2306798 -0.33898222
-6.4158287 2.5357237 0
-6.4582419 2.5524864 0.38788518
-2.640986 1.0401073 -0.93591529
-2.6327806 1.0368757 -0.78067869
-2.5921466 1.0208727 -0.46445426
-5.6241121 2.2149606 -0.67373353
-5.6322031 2.218147 -0.33811167
-6.4285736 2.5317841 0
-6.4589057 2.5437298 0.38774016
-2.7135582 1.064903 -0.96117687
-2.6316984 1.0327781 -0.77998722
-0 0 -0
-5.6436315 2.2147746 -0.67575079
-5.6348796 2.2113402 -0.33811167
-6.4146676 2.5173585 0
-6.4571323 2.5340233 0.38744962
-2.6572986 1.039121 -0.94080347
-2.6329443 1.0295974 -0.77998722
-2.558742 1.0005811 -0.45803434
-2.4980927 0.97686446 -0.29897225
-5.6399651 2.2054753 -0.33825669
-6.4225473 2.5114996 0
-6.4505095 2.522434 0.38686907
-2.6493404 1.03232 -0.93754363
-2.6295068 1.0245919 -0.77860153
-2.5145099 0.97978312 -0.4499042
-2.5812063 1.0057715 -0.30877364
-5.6426258 2.1986589 -0.33825669
-6.413455 2.4990139 0
-6.4535527 2.5146379 0.38686907
-2.645982 1.0273306 -0.93591529
-2.62607 1.0195996 -0.77721852
-2.470222 0.95908999 -0.4417724
-2.6330509 1.02231 -0.3148275
-5.6476979 2.1927788 -0.33840168
-6.4140463 2.4903216 0
-6.4638557 2.5096607 0.3873046
-2.6426067 1.0223475 -0.93428379
-2.6319752 1.0182344 -0.77860153
-2.5192621 0.97462904 -0.45033175
-2.5691605 0.9939332 -0.30704445
-5.6382289 2.1812663 -0.33767611
-6.4267597 2.4863257 0
-6.4571896 2.4980984 0.38672405
-2.6207826 1.0102654 -0.92613566
-2.6542692 1.0231738 -0.78483033
-2.4413965 0.94111514 -0.43620923
-2.4955423 0.96198744 -0.29810709
-5.6335845 2.1716471 -0.33724055
-6.4200459 2.4748142 0
-6.4626255 2.4912279 0.38686907
-2.6721361 1.0282074 -0.94406337
-2.6197724 1.0080584 -0.77444988
-2.5042605 0.96361083 -0.44733721
-2.4623325 0.94747734 -0.29407156
-5.6373277 2.1691792 -0.33738613
-6.4166865 2.4690676 0
-6.4592838 2.4854586 0.38657907
-2.6826079 1.0285171 -0.9473232
-2.6467493 1.014769 -0.7820617
-2.5006247 0.95874447 -0.44648045
-2.4514027 0.93987262 -0.29263037
-5.6326632 2.1595743 -0.33695057
-6.4220929 2.4622433 0
-6.4647064 2.4785812 0.38672405
-2.6584578 1.0155753 -0.93836093
-2.6362579 1.0070945 -0.77860153
-2.5017812 0.95572227 -0.44648045
-2.4501226 0.93598777 -0.29234236
-5.6328435 2.1518404 -0.33680555
-6.4226346 2.4535537 0
-6.4676967 2.4707682 0.38672405
-2.6365793 1.0035683 -0.93020976
-2.6726449 1.0172961 -0.78898466
-2.4741445 0.94174027 -0.44134486
-2.4536667 0.93394578 -0.29263037
-5.6281519 2.1422586 -0.33636999
-6.4304547 2.4476414 0
-6.4633894 2.4601774 0.38628849
-2.6747658 1.0144049 -0.94324917
-2.6574497 1.0078378 -0.78413886
-2.4584856 0.93238062 -0.43835032
-2.4402876 0.92547899 -0.29090118
-5.6404548 2.1391423 -0.33695057
-6.428545 2.4380257 0
-6.4517846 2.4468391 0.38541794
-2.7037342 1.0216559 -0.95302874
-2.6586657 1.004626 -0.78413886
-2.4812202 0.93757504 -0.44220161
-2.4825335 0.93807119 -0.29580188
-5.6308842 2.1277337 -0.336225
-6.4120107 2.4228969 0
-6.4498796 2.4372065 0.38512793
-2.6934032 1.0140349 -0.9489547
-2.6598775 1.0014127 -0.78413886
-2.4703414 0.93005472 -0.4400622
-2.4521902 0.92322093 -0.29205322
-5.6456075 2.1255052 -0.33695057
-6.4246759 2.4188154 0
-6.4479513 2.4275784 0.38483739
-2.6599121 0.99775791 -0.93672943
-2.6563833 0.99643421 -0.78275317
-2.4618495 0.92346275 -0.43835032
-2.4315109 0.91208249 -0.28945887
-5.6579032 2.1223326 -0.33753112
-6.4227157 2.4092207 0
-6.4508801 2.4197855 0.38483739
-2.6495419 0.99021769 -0.93265539
-2.6481943 0.98971403 -0.77998722
-2.4653656 0.92138523 -0.43877786
-2.42292 0.90552187 -0.2883057
-5.633687 2.1054873 -0.33593446
-6.4158707 2.397814 0
-6.4611034 2.4147189 0.38527295
-2.6808455 0.99822676 -0.94324917
-2.6564345 0.98913729 -0.7820617
-2.4688807 0.91930056 -0.43920544
-2.3997779 0.89356983 -0.28542334
-5.63866 2.0995843 -0.33607945
-6.4260826 2.3927853 0
-6.4591417 2.4050951 0.38498238
-2.5685048 0.95286393 -0.90331668
-2.6576278 0.98592675 -0.7820617
-2.5798433 0.95707023 -0.60957229
-2.489244 0.92345971 -0.44262916
-2.3960106 0.88887197 -0.28484732
-2.5400603 0.94231153 -0.15132652
-6.4045734 2.3759687 0
-6.459609 2.3963857 0.38483739
-2.5997903 0.9608981 -0.91391045
-2.6541154 0.980977 -0.78067869
-2.4975793 0.92312038 -0.58987081
-2.4157209 0.892865 -0.4293634
-2.3995066 0.88687205 -0.28513533
-2.5192635 0.93113494 -0.15002041
-6.4196429 2.3727386 0
-6.4600649 2.3876789 0.3846924
-2.6032755 0.95861262 -0.91472775
-2.6647158 0.98123693 -0.78344733
-2.5034664 0.92185956 -0.59099764
-2.4192047 0.89083159 -0.42979097
-2.4297023 0.89469719 -0.28859484
-2.5106332 0.92449868 -0.14943984
-6.4176164 2.3631797 0
-6.4629455 2.3798714 0.3846924
-2.6438763 0.96993697 -0.92858136
-2.6706054 0.97974288 -0.78483033
-2.4807193 0.91008097 -0.58536774
-2.4034069 0.88171798 -0.4267948
-2.4234946 0.88908738 -0.28772968
-2.4995537 0.91699052 -0.14871429
-6.4253583 2.357218 0
-6.4511747 2.366689 0.38382128
-2.640399 0.96504313 -0.92694986
-2.6623621 0.97307038 -0.7820617
-2.4746647 0.90446866 -0.58368069
-2.3755376 0.86823857 -0.42165917
-2.4075596 0.8799423 -0.28571135
-2.4982216 0.91307849 -0.14856929
-6.4208665 2.3467715 0
-6.4589157 2.360678 0.38411182
-2.7205215 0.99060249 -0.95465714
-2.6611807 0.96899521 -0.78137016
-2.4900763 0.90669233 -0.58705693
-2.4079406 0.8767848 -0.42722234
-2.406193 0.87614852 -0.28542334
-2.4968836 0.90917099 -0.14842428
-6.4212542 2.3381217 0
-6.4519968 2.3493159 0.38353127
-2.6868713 0.97467434 -0.94243497
-2.6576374 0.9640696 -0.77998722
-2.4649024 0.89415419 -0.58086681
-2.3872817 0.8659969 -0.42337105
-2.4023917 0.87147808 -0.28484732
-2.5126319 0.91146821 -0.14929484
-6.4191771 2.3285844 0
-6.4621611 2.3441772 0.38396683
-2.7089651 0.97898656 -0.9497689
-2.6611574 0.9617095 -0.78067869
-2.465981 0.89117515 -0.58086681
-2.3883264 0.86311167 -0.42337105
-2.3961432 0.86593658 -0.28398216
-2.4990735 0.90313435 -0.14842428
-6.4219861 2.3208265 0
-6.455214 2.3328347 0.38338628
-2.6961887 0.97068763 -0.94487756
-2.6481504 0.9533928 -0.77652436
-2.4550958 0.8838889 -0.57805079
-2.3917899 0.86109734 -0.42380026
-2.40205 0.86479127 -0.28455818
-2.4830468 0.89395183 -0.14740817
-6.4272413 2.3139491 0
-6.4531336 2.323271 0.38309571
-2.7270193 0.97992665 -0.95547444
-2.6652548 0.95773226 -0.78137016
-2.4580274 0.88326722 -0.57861525
-2.3874733 0.85791427 -0.4229435
-2.3782358 0.85459489 -0.28167582
-2.4811435 0.89157367 -0.14726317
-6.421288 2.3074245 0
-6.469213 2.324646 0.38396683
-2.7142348 0.97163123 -0.9505831
-2.649874 0.94859159 -0.77652436
-2.4519138 0.87772661 -0.57692605
-2.3643441 0.84637868 -0.41866463
-2.3914402 0.85607845 -0.283117
-2.487107 0.89032489 -0.14755316
-6.4093652 2.2943997 0
-6.4377623 2.3045652 0.38193458
-2.7503293 0.98080462 -0.96280837
-2.6652007 0.95044672 -0.78067869
-2.4457905 0.87220204 -0.57523692
-2.365365 0.84352118 -0.41866463
-2.3997838 0.85579538 -0.28398216
-2.4881811 0.88731909 -0.14755316
-6.4121332 2.2866535 0
-6.438097 2.2959127 0.38178959
-2.7189016 0.96589571 -0.95139724
-2.6592529 0.94470537 -0.77860153
-2.4468427 0.86924613 -0.57523692
-2.3470309 0.83378774 -0.41524091
-2.3837528 0.84683341 -0.28196383
-2.4819033 0.88170153 -0.14711761
-6.3977318 2.2728081 0
-6.4335189 2.2855215 0.38135403
-2.689779 0.95189112 -0.94080347
-2.6698527 0.94483936 -0.78137016
-2.4359169 0.86205137 -0.57242298
-2.3770766 0.84122825 -0.42037651
-2.3994088 0.84913152 -0.28369415
-2.4829669 0.87870204 -0.14711761
-6.4004736 2.2650762 0
-6.4362755 2.2777462 0.38135403
-2.7258945 0.96096748 -0.95302874
-2.6733561 0.94244599 -0.7820617
-2.4249773 0.85488427 -0.56960911
-2.3708258 0.83579409 -0.41909221
-2.3882294 0.84192944 -0.28225183
-2.4766819 0.8731119 -0.14668261
-6.3958402 2.2547441 0
-6.4488254 2.2734232 0.38193458
-2.7270536 0.95767307 -0.95302874
-2.6555564 0.93256509 -0.77652436
-2.4260085 0.85195351 -0.56960911
-2.3694143 0.83207905 -0.41866463
-2.401454 0.84333056 -0.28369415
-2.4875419 0.87356251 -0.14726317
-6.4034758 2.2487404 0
-6.4589252 2.268213 0.38237014
-2.7562046 0.96417063 -0.96280837
-2.6353712 0.92190099 -0.77029562
-2.4246399 0.84818333 -0.5690468
-2.3728387 0.83006233 -0.41909221
-2.3853788 0.83444911 -0.28167582
-2.476325 0.86626369 -0.14653705
-6.4258308 2.2478731 0
-6.4592109 2.2595499 0.38222516
-2.7130198 0.94538617 -0.9473232
-2.6056876 0.90798491 -0.76129818
-2.4280603 0.84608835 -0.56960911
-2.3689871 0.82550353 -0.41823545
-2.3937151 0.83412033 -0.28254098
-2.4675643 0.85985404 -0.14595705
-6.4285421 2.2401071 0
-6.4570241 2.2500319 0.38193458
-2.746845 0.95345247 -0.95873117
-2.5309503 0.87851369 -0.73915166
-2.4242754 0.84148586 -0.56848228
-2.3893838 0.82937473 -0.42165917
-2.3824968 0.82698423 -0.28109866
-2.4759588 0.8594256 -0.14639205
-6.4238758 2.22978 0
-6.4646525 2.2439339 0.38222516
-2.7316504 0.94448149 -0.95302874
-2.4940734 0.86233807 -0.72807705
-2.4228911 0.83772647 -0.56791991
-2.3903842 0.826487 -0.42165917
-2.3883882 0.82579684 -0.28167582
-2.469635 0.85388839 -0.14595705
-6.4191837 2.2194643 0
-6.4599891 2.233573 0.38178959
-2.7187638 0.93634957 -0.9481374
-2.4974833 0.86013997 -0.72876853
-2.4191015 0.83314508 -0.56679523
-2.4010897 0.82694179 -0.42337105
-2.3747158 0.81785852 -0.27994663
-2.4583738 0.84667063 -0.14523093
-6.4218612 2.2117062 0
-6.4626832 2.2257657 0.38178959
-2.746748 0.93856841 -0.95710278
-2.4354634 0.83220202 -0.71008217
-2.4090788 0.82318634 -0.56397921
-2.3958006 0.81864911 -0.42208838
-2.3717854 0.8104431 -0.27936947
-2.4530432 0.83820903 -0.14479594
-6.4321079 2.1978621 0
-6.4582081 2.2067807 0.38120905
-2.7408583 0.932859 -0.95465714
-2.3960948 0.81551778 -0.6983161
-2.4076686 0.81945693 -0.56341684
-2.3870673 0.81244522 -0.42037651
-2.380111 0.81007761 -0.28023463
-2.4491298 0.83356833 -0.14450538
-6.41752 2.1842213 0
-6.4559546 2.1973026 0.38091904
-2.7513466 0.93272066 -0.95791698
-2.4327109 0.82470155 -0.70869654
-2.4038489 0.81491715 -0.56229216
-2.4050584 0.81532717 -0.42337105
-2.3835354 0.80803072 -0.28052264
-2.4624372 0.8347789 -0.14523093
-6.4201546 2.1764653 0
-6.463522 2.1911671 0.38120905
-2.7384257 0.92465281 -0.95302874
-2.3980587 0.80972499 -0.6983161
-2.4000125 0.81038469 -0.56116533
-2.4133408 0.81488508 -0.42465535
-2.3698113 0.80018699 -0.27879345
-2.4412894 0.82432222 -0.14392482
-6.4326425 2.1720366 0
-6.458777 2.180861 0.38077348
-2.7582824 0.92764628 -0.95954847
-2.3966506 0.80602479 -0.69762194
-2.4058113 0.80910558 -0.56229216
-0 0 -0
-2.3732257 0.79814667 -0.27908146
-2.4422836 0.82137179 -0.14392482
-6.4278598 2.1617727 0
-6.4589467 2.1722279 0.38062847
-2.7406523 0.91803241 -0.95302874
-2.3857307 0.79914486 -0.69416177
-2.4140081 0.80861688 -0.56397921
-0 0 -0
-2.3741882 0.79527849 -0.27908146
-2.4432745 0.81842017 -0.14392482
-6.4378724 2.1564851 0
-6.4566436 2.1627727 0.38033849
-2.7652009 0.92254078 -0.96117687
-2.4081106 0.80340654 -0.70039058
-2.4005263 0.80087614 -0.56060296
-0 0 -0
-2.3775988 0.79322696 -0.27936947
-2.4491961 0.81711364 -0.14421538
-6.4231901 2.1429384 0
-6.4592524 2.1549695 0.38033849
-2.7563775 0.91774684 -0.95791698
-2.3871753 0.79481947 -0.69416177
-2.4082444 0.80183452 -0.56229216
-0 0 -0
-2.363358 0.78688943 -0.27764028
-2.4472167 0.81481057 -0.14406982
-0 0 0
-6.4605532 2.1510668 0.38033849
-2.7527969 0.91286123 -0.95628864
-2.4286129 0.80535781 -0.70592785
-2.4068019 0.79812509 -0.56172979
-0 0 -0
-2.3593924 0.78240341 -0.27706313
-2.4334059 0.80694729 -0.14319927
-0 0 0
-6.4532819 2.1399875 0.37975791
-2.775018 0.91650969 -0.96362251
-2.3962381 0.79140937 -0.69623893
-2.395694 0.79122978 -0.55891377
-0 0 -0
-2.3554287 0.77793127 -0.27648711
-2.4319143 0.80319226 -0.14305426
-0 0 0
-6.460793 2.1338165 0.38004792
-2.7549949 0.90620613 -0.95628864
-2.3781273 0.78224224 -0.69070166
-2.3797596 0.78277922 -0.55497521
-0 0 -0
-2.3686495 0.77912474 -0.27792829
-2.432883 0.80025315 -0.14305426
-0 0 0
-6.446095 2.1203272 0.37903237
-2.7419906 0.89825845 -0.95139724
-2.388607 0.78249228 -0.6934703
-2.3758698 0.7783196 -0.55384833
-0 0 -0
-2.3597574 0.77304125 -0.27677512
-2.4437253 0.80054867 -0.14363483
-0 0 0
-6.4609966 2.1165807 0.37975791
-2.7830169 0.90797621 -0.96525091
-2.3943164 0.7811603 -0.69485331
-2.3743954 0.77466094 -0.55328602
-0 0 -0
-2.3656027 0.77179235 -0.27735114
-2.4446909 0.79759532 -0.14363483
-0 0 0
-6.4512005 2.1047435 0.37903237
-2.7700126 0.90003169 -0.96036267
-2.3833308 0.77439111 -0.69139314
-2.3825815 0.77414769 -0.55497521
-0 0 -0
-2.3886797 0.77612913 -0.27994663
-2.4481218 0.795443 -0.14377981
-0 0 0
-6.4487915 2.0953393 0.3787418
-2.7922599 0.90353161 -0.96769655
-2.3723326 0.76764971 -0.68793303
-2.4004307 0.7767418 -0.55891377
-0 0 -0
-2.3428571 0.75811195 -0.27446878
-2.4342525 0.78768599 -0.14290926
-0 0 0
-6.4340105 2.0819452 0.37772569
-0 0 -0
-2.3708727 0.76401389 -0.68724149
-2.3965352 0.77228361 -0.55778909
-0 0 -0
-2.363466 0.76162708 -0.27677512
-2.4327221 0.78394485 -0.1427637
-0 0 0
-6.3895378 2.0590289 0.37496847
-0 0 -0
-2.3980639 0.76957893 -0.69485331
-2.3950496 0.76861161 -0.55722672
-0 0 -0
-2.3914776 0.76746529 -0.27994663
-2.4262521 0.77862507 -0.14232871
-6.5390496 2.0984907 0
-6.3672843 2.0433683 0.37351733
-2.5318532 0.80914116 -0.8764267
-2.3703249 0.75751919 -0.68655002
-2.3983946 0.76648986 -0.55778909
-0 0 -0
-2.3455899 0.7496143 -0.27446878
-2.4172907 0.77252883 -0.14174815
-6.5019164 2.0779121 0
-6.3647933 2.0340898 0.37322679
-2.4032993 0.76485807 -0.83160597
-2.3999166 0.76378155 -0.69485331
-2.3944719 0.76204866 -0.5566622
-0 0 -0
-2.3292389 0.74128807 -0.27245045
-2.4231699 0.77118194 -0.14203815
-6.4870605 2.0645287 0
-0 0 0
-2.3924344 0.75821793 -0.82752877
-2.4080148 0.7631557 -0.69693047
-2.4026597 0.76145852 -0.5583514
-0 0 -0
-2.376982 0.75332069 -0.27792829
-2.4240999 0.76825345 -0.14203815
-6.4746699 2.0519729 0
-6.3573079 2.0147781 0.37250122
-2.381566 0.75160795 -0.82345474
-2.3802257 0.751185 -0.6886245
-2.4156911 0.76237768 -0.56116533
-0 0 -0
-2.4025514 0.75823087 -0.28081065
-2.4275022 0.76610512 -0.14218314
-0 0 0
-6.3597374 2.0070951 0.37250122
-2.3801167 0.74798948 -0.8226406
-2.4002786 0.75432563 -0.69416177
-2.4505515 0.77012467 -0.5690468
-0 0 -0
-2.3664606 0.74369776 -0.27648711
-2.4457808 0.76862544 -0.14319927
-6.3902297 2.0082312 0
-6.369597 2.0017471 0.37293679
-2.3597918 0.73847026 -0.81530666
-2.3844352 0.74618214 -0.68931866
-2.4320807 0.76109225 -0.56454372
-0 0 -0
-2.3821633 0.74547118 -0.2782163
-2.4243913 0.75868595 -0.14189315
-0 0 0
-6.3794436 1.9963751 0.37337178
-2.3819175 0.74223548 -0.8226406
-2.387728 0.74404609 -0.69001013
-2.4257185 0.75588453 -0.56285453
-0 0 -0
-2.4003501 0.74797934 -0.28023463
-2.4327512 0.75807589 -0.14232871
-2.5042901 0.78036839 0
-6.3892961 1.9909852 0.37380734
-2.3804543 0.73862511 -0.8218264
-2.3622661 0.73298156 -0.6823957
-2.4339128 0.75521266 -0.56454372
-0 0 -0
-2.3419652 0.72668242 -0.27331561
-2.4311764 0.7543636 -0.14218314
-2.4803801 0.76963085 0
-6.4140301 1.9901932 0.37511346
-2.3600941 0.72918248 -0.81449246
-2.3799312 0.73531145 -0.68724149
-2.4518104 0.75751942 -0.56848228
-0 0 -0
-2.3675489 0.73148578 -0.27619797
-2.4097447 0.74452269 -0.14087702
-2.4788146 0.76586276 0
-6.4685636 1.998549 0.37816125
-2.374701 0.73212421 -0.8193807
-2.3851652 0.73535031 -0.6886245
-2.4571283 0.75753665 -0.56960911
-0 0 -0
-2.3655212 0.729294 -0.27590996
-2.4052324 0.74153709 -0.14058703
-2.4096506 0.74289918 0
-6.467289 1.9938757 0.37801626
-2.3944862 0.73505688 -0.82590044
-2.3932493 0.73467714 -0.69070166
-2.4653313 0.75680488 -0.5712983
-0 0 -0
-2.3194282 0.71201569 -0.27043325
-2.4259992 0.74473071 -0.14174815
-2.4130321 0.74075007 0
-6.4721751 1.9868217 0.37816125
-2.3646474 0.7227717 -0.81530666
-2.3629479 0.72225225 -0.68170422
-2.4540873 0.75010967 -0.56848228
-0 0 -0
-2.3920164 0.73113728 -0.27879345
-2.4070175 0.73572242 -0.14058703
-2.4462779 0.74772263 0
-6.467114 1.9767205 0.37772569
-2.3560607 0.71703547 -0.81204683
-2.3830194 0.72523999 -0.68724149
-2.4647152 0.750103 -0.57073379
-0 0 -0
-2.31867 0.70565611 -0.27014524
-2.4054213 0.73205769 -0.14044203
-2.4297583 0.73946434 0
-6.4620471 1.9666374 0.3772907
-2.3592887 0.71490419 -0.81286097
-2.4055004 0.72890717 -0.6934703
-2.455893 0.74417692 -0.56848228
-0 0 -0
-2.3566439 0.7141028 -0.27446878
-2.4237044 0.73442328 -0.14145759
-2.4605286 0.74558157 0
-6.4644189 1.9588277 0.3772907
-2.3554227 0.71062648 -0.81123263
-2.3847651 0.71947908 -0.68724149
-2.4616601 0.74267817 -0.56960911
-0 0 -0
-2.389694 0.72096604 -0.2782163
-2.4270754 0.73224396 -0.14160259
-2.3592849 0.71179175 0
-6.45683 1.9480132 0.37671015
-2.3562796 0.70777994 -0.81123263
-2.3688116 0.71154422 -0.6823957
-2.4917576 0.74847484 -0.57636374
-0 0 -0
-2.3583629 0.70840567 -0.27446878
-2.4628036 0.73977757 -0.14363483
-2.4050033 0.72241551 0
-6.4392705 1.9342297 0.37554902
-2.340555 0.69997436 -0.80552709
-2.3961112 0.71658921 -0.69001013
-2.4853547 0.74327868 -0.57467455
-0 0 -0
-2.3641779 0.70703912 -0.27504593
-2.4885859 0.74424499 -0.14508593
-2.3659801 0.70757812 0
-6.4117289 1.9175135 0.37380734
-2.3437657 0.69785041 -0.80634129
-2.3897598 0.71154499 -0.68793303
-0 0 -0
-0 0 -0
-2.3699837 0.70565671 -0.27562195
-2.5044305 0.74568796 -0.14595705
-2.4566276 0.73145479 0
-0 0 0
-2.3517184 0.69712597 -0.80878693
-2.405045 0.71293366 -0.69208467
-0 0 -0
-0 0 -0
-2.3534734 0.69764614 -0.27360362
-2.5127964 0.74487472 -0.14639205
-2.4200795 0.71739042 0
-0 0 0
-2.3407087 0.6907866 -0.80471289
-2.4035008 0.70931768 -0.69139314
-2.4904673 0.73498315 -0.57523692
-0 0 -0
-2.3171113 0.68382245 -0.26928008
-2.4862878 0.73374963 -0.14479594
-2.4583881 0.72551596 0
-0 0 0
-2.3035998 0.6768102 -0.79167348
-2.3971419 0.70429343 -0.68931866
-0 0 -0
-0 0 -0
-2.3601203 0.6934163 -0.27418077
-2.504617 0.73587018 -0.1458115
-2.464252 0.72401077 0
-0 0 0
-2.3542302 0.68859661 -0.80878693
-2.3811338 0.69646573 -0.68447286
-0 0 -0
-0 0 -0
-2.3237171 0.67967176 -0.2698561
-2.4955285 0.72992539 -0.14523093
-2.4326556 0.71153551 0
-0 0 0
-2.3408267 0.68160689 -0.80389869
-2.3964212 0.69779503 -0.6886245
-0 0 -0
-0 0 -0
-2.3617892 0.68771076 -0.27418077
-2.5213616 0.73417544 -0.14668261
-2.4410121 0.71077907 0
-0 0 0
-2.3202767 0.67258286 -0.79656166
-2.3876245 0.69210505 -0.68585587
-0 0 -0
-0 0 -0
-2.3179073 0.67189604 -0.26899207
-2.5097709 0.72751182 -0.14595705
-2.414371 0.69985819 0
-0 0 0
-2.3234692 0.67046601 -0.79737902
-2.4125679 0.69617647 -0.69277883
-2.4875455 0.71781224 -0.57354987
-0 0 -0
-2.3385887 0.67482883 -0.27129728
-2.5081441 0.72375625 -0.1458115
-2.4677227 0.7120921 0
-0 0 0
-2.3242776 0.66765803 -0.79737902
-2.3675909 0.68009996 -0.67962706
-0 0 -0
-0 0 -0
-2.3518393 0.6755752 -0.27273959
-2.5190067 0.72359473 -0.14639205
-2.3985436 0.68899119 0
-0 0 0
-2.3155773 0.66213107 -0.79411912
-2.3708208 0.67792773 -0.68031853
-2.4501851 0.70062166 -0.56454372
-0 0 -0
-0 0 -0
-2.5173833 0.71983677 -0.14624704
-2.3993742 0.6860925 0
-2.4972816 0.71408874 0.14507924
-2.3139915 0.65865409 -0.79330182
-2.3909416 0.68055707 -0.68585587
-2.3997118 0.68305343 -0.55272365
-0 0 -0
-0 0 -0
-2.4982579 0.71110356 -0.14508593
-2.4077132 0.68533093 0
-2.4881458 0.70822531 0.14449869
-2.3238995 0.65995675 -0.79656166
-2.3455057 0.66609269 -0.67270678
-2.3830121 0.67674392 -0.54878294
-0 0 -0
-0 0 -0
-2.4786901 0.70391524 -0.14392482
-2.4231527 0.68814331 0
-2.5035758 0.71098244 0.1453698
-2.3032918 0.65109795 -0.78922778
-2.3607893 0.66735142 -0.67685843
-2.4033887 0.67939347 -0.55328602
-0 0 -0
-0 0 -0
-2.4770408 0.70021355 -0.14377981
-2.4490211 0.69229293 0
-2.4769254 0.70018101 0.14377312
-2.2993231 0.64697677 -0.78759938
-2.3398614 0.65838337 -0.67062962
-2.4213316 0.6813072 -0.55722672
-0 0 -0
-2.2758043 0.64035916 -0.26351422
-2.4803839 0.69792318 -0.14392482
-2.4548614 0.69074172 0
-2.4652655 0.6936692 0.14304757
-2.3048587 0.64552993 -0.78922778
-2.3672314 0.66299891 -0.67824405
-2.4123662 0.67563993 -0.55497521
-0 0 -0
-0 0 -0
-2.5087516 0.70263499 -0.14552149
-2.4105899 0.67514247 0
-2.4585929 0.68858683 0.14261201
-2.293735 0.63942659 -0.78515375
-2.3680308 0.66013807 -0.67824405
-2.386255 0.66521847 -0.54878294
-0 0 -0
-0 0 -0
-2.5396349 0.70797634 -0.14726317
-2.4389825 0.67991734 0
-2.4343979 0.67863929 0.14116089
-2.325465 0.64524472 -0.79574752
-2.3567419 0.65392309 -0.67478395
-0 0 -0
-0 0 -0
-0 0 -0
-0 0 -0
-2.4247508 0.67279351 0
-2.4277022 0.67361242 0.14072534
-2.2905133 0.63256705 -0.78352535
-2.3478572 0.64840358 -0.67201525
-2.7111332 0.74872887 -0.62307942
-0 0 -0
-0 0 -0
-0 0 -0
-2.4155276 0.66709203 0
-2.426012 0.66998744 0.14058034
-2.2626774 0.62193811 -0.77374578
-2.3534725 0.64689475 -0.67339826
-2.8051324 0.77104169 -0.64446795
-0 0 -0
-0 0 -0
-0 0 -0
-2.4113178 0.66279465 0
-2.4268198 0.66705561 0.14058034
-2.2824993 0.62442112 -0.78026551
-2.3276317 0.63676798 -0.66578382
-2.8011651 0.76631206 -0.64334327
-0 0 -0
-0 0 -0
-0 0 -0
-2.4522812 0.67086822 0
-2.427624 0.66412282 0.14058034
-2.2784779 0.62036288 -0.77863401
-2.3695481 0.64515865 -0.6775499
-2.8437645 0.77427387 -0.65291172
-0 0 -0
-0 0 -0
-0 0 -0
-2.410404 0.65628242 0
-2.4359486 0.66323757 0.1410159
-2.2577579 0.61179209 -0.77130008
-0 0 -0
-2.8569582 0.77415931 -0.6557256
-0 0 -0
-0 0 -0
-0 0 -0
-2.411195 0.65336943 0
-2.4542971 0.66504896 0.14203146
-2.2537274 0.60777771 -0.76967174
-0 0 -0
-2.8946927 0.78063112 -0.66416943
-0 0 -0
-0 0 -0
-0 0 -0
-2.3969016 0.64638847 0
-0 0 0
-2.2496812 0.60377157 -0.76804024
-0 0 -0
-2.8318236 0.76000744 -0.64953333
-0 0 -0
-2.780467 0.74622434 -0.32088137
-0 0 -0
-2.4203005 0.64956248 0
-0 0 0
-2.2695124 0.60615504 -0.77455997
-0 0 -0
-2.8523786 0.76183045 -0.6540364
-0 0 -0
-0 0 -0
-3.4860392 0.93107229 -0.20154226
-2.4185715 0.64596659 0
-0 0 0
-2.2630749 0.60150701 -0.77211428
-0 0 -0
