# .PCD v0.7 - Point Cloud Data file format
VERSION 0.7
FIELDS x y z
SIZE 4 4 4
TYPE F F F
COUNT 1 1 1
WIDTH 1589
HEIGHT 1
VIEWPOINT 0 0 0 1 0 0 0
POINTS 1589
DATA ascii
7.073761 -3.5613015 -0.88273418
7.0683908 -3.558598 -0.44202596
7.5193496 -3.7856343 0
7.2864361 -3.6683733 0.45566154
7.0689759 -3.5535409 -0.88186908
7.0705395 -3.554327 -0.44202596
7.5146575 -3.7775831 0
7.2700872 -3.6546385 0.45450097
7.0709543 -3.5438392 -0.88158101
7.065537 -3.5411241 -0.44144541
7.4796658 -3.7486782 0
7.2744975 -3.6458514 0.45450097
7.0729198 -3.5341377 -0.881293
7.0698109 -3.5325842 -0.44144541
7.4516015 -3.7233543 0
7.3160796 -3.6556377 0.45682266
7.0771852 -3.525589 -0.881293
7.0717502 -3.5228815 -0.44130039
7.4537678 -3.7131884 0
7.3646846 -3.6688104 0.45958045
7.0744882 -3.5135822 -0.88042784
7.0736771 -3.5131795 -0.4411554
7.5235043 -3.7365885 0
7.3947048 -3.6726198 0.46117657
7.0764127 -3.503885 -0.88013983
7.0732551 -3.5023215 -0.44086486
7.5560007 -3.7413528 0
7.4620123 -3.6948147 0.46509546
7.0713644 -3.4907525 -0.87898666
7.0681615 -3.4891715 -0.44028428
7.5651784 -3.7345221 0
7.5270472 -3.7156985 0.46886882
7.0662942 -3.4776371 -0.87783349
7.0700436 -3.4794822 -0.44013929
7.5720272 -3.7265308 0
7.5595083 -3.7203696 0.4706105
7.0681715 -3.467958 -0.87754548
7.0695815 -3.4686499 -0.43984929
7.5648446 -3.711648 0
7.5756598 -3.7169545 0.47133604
7.0723567 -3.459415 -0.87754548
7.0760994 -3.4612458 -0.43999428
7.5599728 -3.6979306 0
7.5521355 -3.694097 0.46959439
7.0765314 -3.4508669 -0.87754548
7.0732675 -3.4492753 -0.43955874
7.573792 -3.693356 0
7.4515052 -3.6337228 0.46306381
7.0760393 -3.4400499 -0.87696838
7.0774302 -3.440726 -0.43955874
7.5969648 -3.6933005 0
7.4395294 -3.6167624 0.4620477
7.0848503 -3.4337556 -0.87754548
7.0769105 -3.4299076 -0.43926874
7.6084499 -3.6875246 0
7.4696088 -3.6202335 0.46364379
7.082005 -3.4218156 -0.87668031
7.0740285 -3.4179616 -0.43883318
7.6363287 -3.6896484 0
7.4576068 -3.6032953 0.46262825
7.0861344 -3.4132559 -0.87668031
7.080492 -3.410538 -0.43897817
7.6431327 -3.6815515 0
7.4385405 -3.5830033 0.46117657
7.0879245 -3.4035728 -0.8763923
7.0775781 -3.3986046 -0.4385426
7.6593037 -3.6779451 0
7.4592633 -3.5818872 0.46219268
7.0756989 -3.3871872 -0.87437397
7.0723047 -3.3855624 -0.43796206
7.6566978 -3.6653154 0
7.4846773 -3.5829682 0.4634988
7.0844593 -3.3808653 -0.87495112
7.0763903 -3.3770144 -0.43796206
10.195292 -4.8654251 0
7.4819727 -3.5705676 0.46306381
7.0791969 -3.3678579 -0.87379795
7.0757771 -3.3662312 -0.43767205
10.177667 -4.8419242 0
7.4909701 -3.563755 0.46335381
7.0812302 -3.3635805 -0.87379795
7.070766 -3.3586099 -0.43723649
10.154729 -4.8234906 0
7.5001655 -3.5625744 0.46378934
7.0876245 -3.3561275 -0.87408596
7.0748191 -3.3500638 -0.43723649
10.162909 -4.8123341 0
7.3917379 -3.5001311 0.45682266
7.0940113 -3.348664 -0.87437397
7.0788617 -3.3415129 -0.43723649
10.147537 -4.7900534 0
7.3536696 -3.4712336 0.45421043
7.0886912 -3.3356848 -0.87322086
7.0781965 -3.3307464 -0.43694651
7.9540362 -3.7428854 0
7.3884215 -3.4767272 0.4560971
7.0927167 -3.3271172 -0.87322086
7.0798655 -3.3210888 -0.43680149
7.9703312 -3.7387967 0
7.4420166 -3.4909701 0.45914489
7.0920501 -3.3163555 -0.87264478
7.0815125 -3.3114281 -0.43665594
8.0031328 -3.7423923 0
7.4744754 -3.4951835 0.46088657
7.0937099 -3.3066919 -0.87235677
7.0784502 -3.2995787 -0.43622094
8.0194407 -3.7382159 0
7.5187283 -3.5048118 0.46335381
7.090661 -3.2948472 -0.87149161
7.0800686 -3.2899251 -0.43607539
8.0451908 -3.7383926 0
7.5347376 -3.5011981 0.46407935
7.0829048 -3.2808428 -0.87005043
7.0816832 -3.2802768 -0.43593037
8.0449743 -3.7264791 0
7.5531139 -3.4986463 0.46495047
7.08921 -3.2733653 -0.87033844
7.0856414 -3.2717175 -0.43593037
8.0447502 -3.7145755 0
7.5054312 -3.4655507 0.46175712
7.0955071 -3.2658772 -0.87062645
7.0872316 -3.262068 -0.43578538
7.6662712 -3.5285852 0
7.4458885 -3.4271486 0.45783877
7.0994482 -3.2573013 -0.87062645
7.0840802 -3.2502503 -0.43534982
7.53334 -3.4563754 0
7.4122362 -3.4008119 0.45551655
7.0939703 -3.2444177 -0.86947328
7.0856419 -3.2406087 -0.43520483
7.5446134 -3.4505186 0
7.4470572 -3.4059017 0.45740321
7.0955343 -3.2347717 -0.86918527
7.0848188 -3.2298868 -0.43491426
7.5890312 -3.4597514 0
7.515007 -3.4260044 0.46132213
7.0994377 -3.2261958 -0.86918527
7.0934525 -3.2234759 -0.43520483
7.6429596 -3.4731884 0
7.5404296 -3.4265957 0.46262825
7.0986233 -3.2154827 -0.86860925
7.097342 -3.2149026 -0.43520483
7.647151 -3.4639509 0
7.5611262 -3.4249842 0.46364379
7.1048584 -3.2079666 -0.86889726
7.0917487 -3.2020471 -0.43462425
7.5659413 -3.4161534 0
7.565259 -3.4158454 0.46364379
7.0902867 -3.1962318 -0.86687893
7.0889487 -3.1956284 -0.43433428
13.603521 -6.1323338 0
7.5910149 -3.4219551 0.46509546
7.0941439 -3.1876624 -0.86687893
7.0880599 -3.1849284 -0.43404371
13.603797 -6.1126914 0
7.7017903 -3.4607003 0.47162604
7.0956321 -3.1780319 -0.86659092
7.0847864 -3.1731741 -0.43360814
7.7733569 -3.481575 0
7.7913384 -3.4896288 0.47685108
7.0994668 -3.1694558 -0.86659092
7.0933652 -3.1667318 -0.43389872
7.8013177 -3.4827871 0
7.8263927 -3.4939816 0.47873774
7.0938392 -3.1566689 -0.86543775
7.0995584 -3.159214 -0.43404371
7.8554502 -3.4955764 0
7.7665172 -3.4560022 0.47481939
7.0952859 -3.1470475 -0.86514974
7.1009974 -3.1495807 -0.43389872
7.92628 -3.5156271 0
7.7065525 -3.418169 0.47090051
7.0990834 -3.1384718 -0.86514974
7.0952916 -3.1367955 -0.43331814
10.017902 -4.4288683 0
7.6797838 -3.3951969 0.46901381
7.1004968 -3.1288459 -0.86486065
7.0990767 -3.1282201 -0.43331814
10.018488 -4.4146638 0
7.6957674 -3.3911529 0.46973938
7.0995402 -3.1181858 -0.86428457
7.0980883 -3.117548 -0.4330276
0 -0 0
7.7046223 -3.3839436 0.47002992
7.0985689 -3.1075325 -0.86370856
7.0899506 -3.10376 -0.43230203
0 -0 0
7.6872845 -3.3652542 0.46872383
7.0857215 -3.0917113 -0.86169022
7.0889373 -3.0931144 -0.43201205
0 -0 0
7.7223039 -3.3694713 0.4706105
7.09657 -3.0862429 -0.86255538
7.0926695 -3.0845466 -0.43201205
7.1640291 -3.1155803 0
7.7787881 -3.3829343 0.47380328
7.0979142 -3.0766344 -0.8622663
7.0916185 -3.0739055 -0.43172148
7.1677885 -3.1069219 0
7.8114796 -3.3859336 0.47554496
7.0921288 -3.0639524 -0.86111313
7.0953279 -3.0653343 -0.43172148
7.1595945 -3.0930989 0
7.8823462 -3.4053433 0.4796083
7.1029549 -3.0584505 -0.86197823
7.0942578 -3.0547056 -0.43143147
7.1489801 -3.0782683 0
7.9866877 -3.4389756 0.48570389
7.1018963 -3.0478277 -0.86140221
7.1003289 -3.0471551 -0.43157649
7.135951 -3.0624425 0
7.8953323 -3.3883362 0.47989887
7.1055737 -3.0392442 -0.86140221
7.0992322 -3.0365317 -0.43128648
7.1324744 -3.0507503 0
7.8396964 -3.3532479 0.47627053
7.1044779 -3.0286257 -0.86082506
7.1028962 -3.0279515 -0.43128648
7.1098189 -3.0309026 0
7.8078852 -3.3284869 0.47409329
7.1039286 -3.0233212 -0.86053705
7.1071129 -3.0246761 -0.43143147
7.0877066 -3.0164173 0
7.8098946 -3.3237691 0.47409329
7.1028094 -3.0127132 -0.85995996
7.098804 -3.0110142 -0.43070593
7.0913463 -3.0078509 0
7.8139052 -3.3143301 0.47409329
7.1053071 -2.9935331 -0.85938388
7.0964813 -2.9898148 -0.43012536
7.1057825 -2.9937336 0
9.9026985 -4.172101 0.60021323
7.0969973 -2.9799399 -0.8579427
7.1048756 -2.983248 -0.43041536
7.1022029 -2.9821258 0
7.9336777 -3.3312514 0.48062441
7.1005926 -2.9713624 -0.8579427
7.1060805 -2.9736588 -0.43027037
7.1081996 -2.9745457 0
7.849009 -3.2845497 0.47525439
7.1065626 -2.9637752 -0.85823071
7.1072721 -2.964071 -0.43012536
7.099781 -2.9609468 0
7.805016 -3.2550635 0.47235218
7.1101384 -2.9551861 -0.85823071
7.1084423 -2.9544811 -0.4299798
7.0985422 -2.9503665 0
7.7873511 -3.2366557 0.47104606
7.1065331 -2.9436224 -0.85736561
7.1072102 -2.943903 -0.42968979
7.1021023 -2.941787 0
7.8056555 -3.2332084 0.47191662
7.1053076 -2.9330614 -0.85678953
7.1083627 -2.9343226 -0.42954481
7.1104674 -2.9351914 0
7.8431778 -3.2376533 0.47394827
7.1112361 -2.925457 -0.85707754
7.1022906 -2.921777 -0.42896426
7.1067863 -2.9236262 0
7.9528184 -3.2716713 0.48033443
7.1099839 -2.914902 -0.85650152
7.1010027 -2.9112198 -0.42867368
7.1079078 -2.9140508 0
7.9856167 -3.2738876 0.48207608
7.1087079 -2.9043505 -0.85592437
7.099709 -2.9006739 -0.42838368
7.111424 -2.9054601 0
7.8813243 -3.2200127 0.47554496
7.1098185 -2.8947845 -0.85563636
7.1008043 -2.8911142 -0.42823869
7.1125212 -2.8958848 0
7.8322687 -3.1889322 0.47235218
7.1109166 -2.8852201 -0.85534835
7.1091037 -2.8844843 -0.4285287
7.1184244 -2.8882661 0
7.845747 -3.1833737 0.47293273
7.1095977 -2.8746848 -0.8547712
7.110177 -2.8749192 -0.42838368
7.1098475 -2.8747859 0
9.2852659 -3.7543912 0.55943137
7.1154628 -2.8670578 -0.85505927
7.1136456 -2.8663259 -0.42838368
7.1084838 -2.8642457 0
9.2873783 -3.7421951 0.55928582
7.1189218 -2.858458 -0.85505927
7.1074586 -2.8538554 -0.42780313
7.1119394 -2.8556545 0
8.0163689 -3.2188096 0.4825111
7.1182489 -2.8531952 -0.8547712
7.1019435 -2.8466597 -0.42736757
7.1064234 -2.8484552 0
7.9821401 -3.1994674 0.48033443
7.1192913 -2.8436337 -0.85448319
7.1126194 -2.8409686 -0.42780313
7.1098599 -2.8398664 0
7.650599 -3.0558519 0.460161
7.1131096 -2.8312032 -0.85333002
7.10639 -2.8285286 -0.42722258
7.1108613 -2.8303082 0
7.458744 -2.9687746 0.44840541
7.1117215 -2.8207011 -0.852754
7.1122155 -2.8208971 -0.42736757
7.1142759 -2.8217142 0
7.4357538 -2.9492209 0.44680873
5.574975 -2.2033935 -0.99938625
7.1151247 -2.8121059 -0.852754
7.108367 -2.8094351 -0.42693201
7.115262 -2.8121603 0
9.299962 -3.6756175 0.55856025
5.5800195 -2.1975954 -0.9998138
7.1185174 -2.8035066 -0.852754
7.1117563 -2.800844 -0.42693201
7.1162357 -2.802608 0
9.3116512 -3.6672351 0.55899584
5.5826707 -2.1908514 -0.9998138
7.1194849 -2.7939556 -0.85246491
7.1078858 -2.7894037 -0.42649701
7.119617 -2.7940073 0
9.2918825 -3.6464868 0.55754417
5.5757508 -2.1803646 -0.99810189
7.1180425 -2.783469 -0.85188884
7.1136689 -2.7817585 -0.42664203
7.1181355 -2.7835052 0
7.394268 -2.8914852 0.44347095
5.580771 -2.174557 -0.99852949
7.1238084 -2.7758043 -0.85217685
7.1170249 -2.7731612 -0.42664203
7.1093712 -2.7701788 0
7.4195447 -2.8910384 0.44477707
5.5833945 -2.1678121 -0.99852949
7.1175127 -2.7634499 -0.85102367
7.1179504 -2.7636199 -0.42649701
7.1127133 -2.7615867 0
7.5950074 -2.9488423 0.45508155
5.5860095 -2.1610641 -0.99852949
7.1208467 -2.7548478 -0.85102367
7.1212845 -2.7550173 -0.42649701
7.116045 -2.7529902 0
7.4870925 -2.8965375 0.44840541
5.5862236 -2.1533904 -0.99810189
7.1121054 -2.741591 -0.84958249
7.1246085 -2.7464106 -0.42649701
7.1072268 -2.7397103 0
7.4445181 -2.86973 0.44564763
5.5840244 -2.1447964 -0.99724513
7.125071 -2.7367051 -0.85073566
7.1182189 -2.7340732 -0.42591646
7.1202502 -2.7348533 0
7.435854 -2.8560753 0.44492206
5.5818214 -2.1362143 -0.99639004
7.1235366 -2.726243 -0.85015857
7.1215172 -2.7254701 -0.42591646
7.1186833 -2.7243855 0
7.4295926 -2.8433733 0.44434151
5.5796061 -2.1276407 -0.99553496
7.1171589 -2.7139473 -0.8490054
7.1223798 -2.7159383 -0.42577145
7.1195407 -2.7148557 0
7.4184599 -2.828841 0.44347095
5.5821729 -2.1208973 -0.99553496
7.1252732 -2.7071848 -0.84958249
7.1232204 -2.7064047 -0.42562589
7.1228161 -2.7062511 0
7.4170098 -2.8180275 0.44318038
5.5775266 -2.1114235 -0.9942506
7.1261225 -2.6976583 -0.84929448
7.1240573 -2.6968765 -0.4254809
7.1187859 -2.6948812 0
7.4009681 -2.8017037 0.44201928
5.5848732 -2.1064925 -0.99510574
7.1245322 -2.6872184 -0.84871733
7.1248817 -2.6873505 -0.42533591
7.1171622 -2.6844389 0
7.3848982 -2.785423 0.44085816
5.5837445 -2.1022146 -0.9946782
7.1261544 -2.6829138 -0.84871733
7.1216359 -2.6812127 -0.42504534
7.1139164 -2.6783063 0
7.38415 -2.7800462 0.44071317
5.5814781 -2.0936646 -0.99382305
7.1269712 -2.6733937 -0.84842932
7.1248703 -2.6726055 -0.42504534
7.1171474 -2.6697085 0
7.3875041 -2.771122 0.44071317
5.5864062 -2.0878167 -0.9942506
7.1253462 -2.6629674 -0.84785223
7.1305356 -2.664907 -0.4251909
7.1228032 -2.6620171 0
7.3932786 -2.7631023 0.44085816
5.5817051 -2.078377 -0.99296629
7.1237154 -2.6525526 -0.84727615
7.1288753 -2.654474 -0.42490035
7.1211324 -2.6515906 0
7.4087944 -2.7587032 0.44158426
5.586617 -2.0725231 -0.99339384
7.1317606 -2.6457405 -0.84785223
7.122333 -2.6422429 -0.42431977
7.124331 -2.6429842 0
7.4364796 -2.7587852 0.44303539
5.5891171 -2.0657713 -0.99339384
7.1204004 -2.631743 -0.84612298
7.1279554 -2.6345351 -0.42446479
7.1226416 -2.6325712 0
7.4324937 -2.7470942 0.44259983
5.5843892 -2.0563579 -0.99211121
7.1162915 -2.6204553 -0.84525788
7.1238251 -2.6232293 -0.4240298
7.1306973 -2.6257598 0
7.4748216 -2.7524779 0.44492206
5.5868697 -2.0496087 -0.99211121
7.1267395 -2.6145279 -0.84612298
7.1245432 -2.6137221 -0.42388421
7.128983 -2.615351 0
7.5000949 -2.7514977 0.44622818
5.5869246 -2.0419729 -0.99168199
7.1298938 -2.6059148 -0.84612298
7.1325817 -2.6068974 -0.42417479
7.1223602 -2.6031613 0
7.4814515 -2.7344062 0.44492206
5.586978 -2.034343 -0.99125445
7.128181 -2.5955296 -0.84554696
7.1332874 -2.597389 -0.4240298
7.1230574 -2.5936639 0
7.4896283 -2.7271407 0.44521207
5.58461 -2.0258417 -0.9903993
7.1288738 -2.58603 -0.84525788
7.1315303 -2.5869939 -0.42373922
7.1237326 -2.5841653 0
7.4636154 -2.7074592 0.44347095
5.6111917 -2.0278156 -0.9946782
7.1247025 -2.5747797 -0.84439379
7.1297684 -2.5766103 -0.42344922
7.1219597 -2.5737884 0
7.4693227 -2.699321 0.44361594
5.6015635 -2.0166869 -0.99253875
7.1351023 -2.568795 -0.84525788
7.130434 -2.5671141 -0.42330423
7.1299567 -2.5669425 0
7.4896855 -2.6964529 0.44463152
5.6064105 -2.010783 -0.99296629
7.1309042 -2.5575545 -0.84439379
7.121294 -2.5541079 -0.4225781
7.1281586 -2.5565698 0
7.4904947 -2.6865246 0.4444865
5.606421 -2.0031443 -0.99253875
7.1315465 -2.5480635 -0.84410471
7.1243749 -2.5455012 -0.4225781
7.1361394 -2.5497046 0
7.476614 -2.6713543 0.44347095
5.5967474 -1.9920654 -0.9903993
7.1297512 -2.5377116 -0.84352863
7.1396928 -2.5412502 -0.42330423
7.134316 -2.5393364 0
7.5018659 -2.6701593 0.44477707
5.5943065 -1.9835839 -0.98954254
7.1376834 -2.530822 -0.84410471
7.1305056 -2.5282772 -0.4225781
7.1349287 -2.5298452 0
9.9417686 -3.5250721 0.58918315
5.5918627 -1.9751146 -0.98868746
7.1334267 -2.519614 -0.84324062
7.1311078 -2.5187948 -0.42243311
7.135519 -2.5203531 0
9.9460211 -3.5130568 0.58918315
5.591826 -1.9675053 -0.98825991
7.1340189 -2.5101318 -0.84295154
7.1365948 -2.5110381 -0.4225781
7.1312013 -2.5091405 0
9.9355564 -3.4958634 0.58831263
5.612381 -1.970928 -0.99168199
7.1355343 -2.5058212 -0.84295154
7.1332121 -2.5050056 -0.42228812
7.1327162 -2.5048316 0
9.9352083 -3.4889967 0.58816707
5.5953827 -1.9573672 -0.98825991
7.141005 -2.498054 -0.84324062
7.1386838 -2.497242 -0.42243311
7.1308198 -2.4944909 0
9.9271555 -3.4727001 0.5874415
5.6122837 -1.9556714 -0.9908269
7.1293592 -2.4843154 -0.84151036
7.1367931 -2.4869061 -0.4221431
7.1338286 -2.485873 0
7.499815 -2.6134055 0.44361594
5.6073651 -1.9463625 -0.98954254
7.1396885 -2.4782445 -0.84237546
7.1397929 -2.4782808 -0.4221431
7.1319146 -2.4755461 0
7.5348773 -2.6154177 0.44550261
5.6072888 -1.9387476 -0.989115
7.1353416 -2.4670794 -0.84151036
7.1354127 -2.4671037 -0.42170754
7.1324434 -2.4660771 0
7.5724082 -2.6181972 0.44753429
5.6047778 -1.9303007 -0.98825991
7.1285357 -2.4550869 -0.84035718
7.128561 -2.4550958 -0.42112699
7.1427927 -2.4599972 0
7.5706577 -2.6073549 0.44724429
5.611958 -1.9251913 -0.989115
7.1363945 -2.4481518 -0.84093428
7.1388984 -2.4490108 -0.42156255
7.138382 -2.4488337 0
7.5443082 -2.5880873 0.44550261
5.5972733 -1.9125978 -0.98611885
7.1344476 -2.4378529 -0.84035718
7.1418524 -2.440383 -0.42156255
7.143796 -2.4410472 0
7.5056319 -2.564687 0.44303539
5.5995803 -1.9058332 -0.98611885
7.1349421 -2.4283979 -0.84006912
7.147253 -2.4325881 -0.42170754
7.1368856 -2.4290595 0
7.4865885 -2.5480819 0.44172928
5.6043172 -1.8998923 -0.98654801
7.1427751 -2.4214375 -0.84064627
7.1403437 -2.4206133 -0.42112699
7.1373529 -2.4195993 0
7.4748921 -2.5340269 0.44085816
5.6017399 -1.8914752 -0.98569125
7.1456957 -2.4128051 -0.84064627
7.1432633 -2.4119837 -0.42112699
7.1402717 -2.4109735 0
7.4779482 -2.5249929 0.44085816
5.6257677 -1.8844553 -0.989115
7.1490459 -2.3947058 -0.84035718
7.1392159 -2.391413 -0.42054644
7.1411366 -2.3920565 0
7.476644 -2.5044408 0.44042316
5.6061268 -1.8703454 -0.98526371
7.1421199 -2.3827915 -0.83920401
7.1396375 -2.3819633 -0.42040142
7.1390891 -2.3817804 0
7.4969115 -2.501159 0.4414387
5.6229944 -1.8684254 -0.9878307
7.1425419 -2.3733451 -0.83891594
7.1351104 -2.3708758 -0.41996589
7.1419621 -2.3731525 0
7.5270553 -2.5011125 0.44303539
5.6008821 -1.8535659 -0.98355186
7.1454043 -2.364713 -0.83891594
7.1429086 -2.3638871 -0.42025644
7.1374097 -2.3620672 0
7.4930668 -2.479769 0.44085816
5.6250577 -1.8540286 -0.98740315
7.145802 -2.3552685 -0.83862793
7.1408191 -2.353626 -0.41996589
7.1427279 -2.3542552 0
7.4541063 -2.4568861 0.43839091
5.6091046 -1.8450142 -0.98440695
7.1447692 -2.3501437 -0.83833992
7.1447058 -2.3501227 -0.42011088
7.1466188 -2.3507519 0
7.4210372 -2.4410169 0.43635926
5.6162133 -1.8398353 -0.98526371
7.1476035 -2.3415089 -0.83833992
7.1450734 -2.3406799 -0.41996589
7.1420417 -2.3396866 0
7.4116368 -2.4280045 0.43563369
5.6086707 -1.829863 -0.98355186
7.1479616 -2.3320661 -0.83805084
7.1454282 -2.3312395 -0.41982087
7.1399102 -2.3294392 0
7.4269147 -2.4230762 0.43635926
5.6255217 -1.8278427 -0.98611885
7.1458592 -2.3218305 -0.83747476
7.145771 -2.3218017 -0.41967589
7.1402469 -2.3200068 0
7.4323058 -2.4149024 0.43650424
5.6252861 -1.8202544 -0.98569125
7.1535764 -2.3147855 -0.83805084
7.1485715 -2.3131659 -0.41967589
7.1405711 -2.3105772 0
7.4179196 -2.4003227 0.4354887
5.6152668 -1.80952 -0.98355186
7.1489902 -2.3037624 -0.83718675
7.148881 -2.3037271 -0.41953033
7.1458325 -2.3027449 0
7.3985486 -2.3841827 0.43418202
5.6150074 -1.8019501 -0.98312432
7.1468382 -2.2935402 -0.83660966
7.1467156 -2.2935009 -0.41924033
7.1436586 -2.29252 0
7.3841119 -2.3696854 0.43316647
5.6049566 -1.7912576 -0.98098487
7.1520748 -2.2856927 -0.83689874
7.1445265 -2.2832804 -0.41894975
7.1489 -2.284678 0
7.3770695 -2.3575976 0.4325859
5.6071172 -1.7844838 -0.98098487
7.1449728 -2.2739117 -0.83574557
7.1547108 -2.2770107 -0.41938531
7.1516552 -2.2760384 0
7.3898172 -2.3518341 0.43316647
5.6043701 -1.7761548 -0.98012811
7.1477151 -2.2652767 -0.83574557
7.1425996 -2.2636554 -0.41851476
7.1494336 -2.2658212 0
7.3976026 -2.3444717 0.43345645
5.6163044 -1.772472 -0.98183995
7.1479735 -2.2558577 -0.83545649
7.1453295 -2.2550232 -0.41851476
7.1472073 -2.2556159 0
7.4202538 -2.3417878 0.43461758
5.6282377 -1.7687631 -0.98355186
7.1506939 -2.2472191 -0.83545649
7.1430864 -2.2448282 -0.41822422
7.1474471 -2.2461989 0
7.4305172 -2.3351581 0.43505314
5.6083241 -1.7550619 -0.97970057
7.1534042 -2.2385774 -0.83545649
7.1482806 -2.236974 -0.41836977
7.1476655 -2.2367814 0
7.443253 -2.329282 0.43563369
5.620244 -1.7513388 -0.98141241
7.1511698 -2.2283947 -0.83488041
7.1435337 -2.2260151 -0.41793421
7.1429162 -2.2258227 0
7.4460621 -2.3202868 0.43563369
5.6248055 -1.7453066 -0.98183995
7.1612706 -2.2220526 -0.83574557
7.1536655 -2.2196927 -0.41836977
7.1505666 -2.2187312 0
7.4513392 -2.3120573 0.43577868
5.6293607 -1.7392659 -0.98226756
7.1590028 -2.2118692 -0.83516842
7.1513724 -2.2095118 -0.4180792
7.1432962 -2.2070165 0
7.4590979 -2.3045876 0.43606925
5.6265554 -1.7309545 -0.98141241
7.149312 -2.1994154 -0.83372724
7.1490746 -2.1993425 -0.41778919
7.1409879 -2.1968546 0
7.4643583 -2.2963364 0.43621424
5.618825 -1.7211472 -0.97970057
7.1519642 -2.1907754 -0.83372724
7.1492352 -2.1899395 -0.41764364
7.1535902 -2.1912735 0
7.4696093 -2.2880759 0.43635926
5.6075916 -1.7140012 -0.97756112
7.1631808 -2.1894784 -0.83488041
7.1455917 -2.1841023 -0.41735366
7.1474442 -2.1846683 0
7.4858956 -2.2881184 0.43722981
5.6170187 -1.7094643 -0.97884381
7.1583953 -2.1785614 -0.83401525
7.1531925 -2.1769781 -0.41764364
7.1550531 -2.1775444 0
7.5060582 -2.284368 0.43824592
5.6239986 -1.7041663 -0.97970057
7.153594 -2.1676595 -0.83315015
7.1508493 -2.1668277 -0.41735366
7.1527028 -2.1673894 0
7.5684958 -2.2933817 0.44172928
5.6260533 -1.6973696 -0.97970057
7.1661129 -2.1620026 -0.83430332
7.1559472 -2.1589355 -0.41749865
7.1478391 -2.1564894 0
7.576232 -2.2857347 0.44201928
5.6256442 -1.6898324 -0.97927302
7.1637707 -2.1518552 -0.83372724
7.161037 -2.1510341 -0.41764364
7.1504397 -2.147851 0
7.6113377 -2.2862957 0.44390595
5.6227584 -1.6815614 -0.97841626
7.1614046 -2.1417141 -0.83315015
7.1586566 -2.1408923 -0.41735366
7.1530299 -2.1392095 0
7.6140947 -2.2770972 0.44390595
5.6247859 -1.6747661 -0.97841626
7.1639872 -2.1330595 -0.83315015
7.1612382 -2.132241 -0.41735366
7.1506257 -2.129081 0
7.5969176 -2.2619634 0.44274482
5.6194196 -1.665779 -0.9771319
7.1665592 -2.1244016 -0.83315015
7.156333 -2.1213701 -0.4169181
7.1481977 -2.1189585 0
7.5822134 -2.2476149 0.44172928
5.6238976 -1.6597165 -0.97756112
7.1616859 -2.1135464 -0.83228606
7.1539116 -2.1112521 -0.41662809
7.1532559 -2.1110587 0
7.5899029 -2.2399211 0.44201928
5.6406717 -1.6572603 -0.98012811
7.1642346 -2.1048913 -0.83228606
7.1589479 -2.1033382 -0.41677308
7.1532974 -2.1016779 0
7.6125488 -2.2366085 0.44318038
5.625421 -1.6453981 -0.9771319
7.1642833 -2.095505 -0.83199698
7.1564918 -2.0932262 -0.41648254
7.1633277 -2.0952256 0
7.6850762 -2.2478335 0.44724429
5.6298766 -1.6393194 -0.97756112
7.1593671 -2.0846796 -0.83113289
7.1615176 -2.0853059 -0.41662809
7.1633577 -2.0858417 0
7.7601347 -2.2596126 0.45145321
5.6466422 -1.6368024 -0.98012811
7.1643624 -2.0767469 -0.8314209
7.164032 -2.0766511 -0.41662809
7.1583719 -2.0750103 0
7.8002877 -2.2610836 0.45362988
5.6436877 -1.6285564 -0.97927302
7.1643839 -2.0673723 -0.83113289
7.1665363 -2.0679932 -0.41662809
7.1558776 -2.0649176 0
7.8379617 -2.2617414 0.45566154
5.6234388 -1.6153551 -0.97542006
7.1668768 -2.0587139 -0.83113289
7.1665249 -2.0586128 -0.41648254
7.1483622 -2.0533955 0
7.8856478 -2.2651837 0.45827433
5.6377344 -1.61209 -0.97756112
7.1594119 -2.0472083 -0.82997972
7.1690073 -2.049952 -0.41648254
7.1558375 -2.0461862 0
7.948329 -2.2727964 0.46175712
5.6372018 -1.6045719 -0.9771319
7.1593952 -2.0378487 -0.82969171
7.1714792 -2.0412881 -0.41648254
7.1558042 -2.0368266 0
8.0210466 -2.2831089 0.46582103
5.6539602 -1.6019593 -0.97970057
7.1618524 -2.0291965 -0.82969171
7.1614423 -2.0290804 -0.41575697
7.1632633 -2.0295961 0
8.0437994 -2.2790821 0.46698216
5.6450462 -1.59575 -0.97798866
7.1630769 -2.0248692 -0.82969171
7.1626673 -2.0247533 -0.41575697
7.1644878 -2.0252681 0
10.015436 -2.8311782 0.58134592
5.6296701 -1.5840601 -0.97499251
7.1605339 -2.0148101 -0.82911456
7.1626096 -2.015394 -0.41561198
7.1694422 -2.0173166 0
7.4201226 -2.0878525 0.43055424
5.6365285 -1.5786425 -0.97584927
7.1729255 -2.0089467 -0.83026773
7.1700392 -2.0081382 -0.41590196
7.1668577 -2.0072472 0
7.4351482 -2.0823884 0.43127978
5.638432 -1.5718307 -0.97584927
7.1628928 -1.996806 -0.82882655
7.167459 -1.9980789 -0.41561198
7.1692777 -1.9985861 0
7.5002317 -2.0908463 0.43490812
5.640327 -1.5650166 -0.97584927
7.1752696 -1.9909158 -0.82997972
7.169868 -1.9894171 -0.41561198
7.166677 -1.9885316 0
7.6104112 -2.1116543 0.44114873
0 -0 -0
7.170188 -1.9801782 -0.82911456
7.1747689 -1.9814433 -0.41575697
7.1640525 -1.9784837 0
7.5728822 -2.0913894 0.43882647
5.6391373 -1.5500196 -0.97499251
7.1725755 -1.971513 -0.82911456
7.1696486 -1.9707084 -0.41532198
7.1614237 -1.9684477 0
7.5553594 -2.0767281 0.43766537
5.6311016 -1.5404952 -0.97328061
7.1674657 -1.9607967 -0.82824945
7.1770325 -1.9634138 -0.41561198
7.1637969 -1.9597931 0
7.5578632 -2.0675974 0.43766537
5.6379175 -1.53504 -0.97413737
7.1798124 -1.9548528 -0.82940263
7.1668658 -1.9513279 -0.41488642
7.1711769 -1.9525017 0
7.5879374 -2.0659733 0.43926203
5.6397681 -1.5282265 -0.97413737
7.1696892 -1.9427942 -0.82796139
7.1717243 -1.9433457 -0.4150314
7.1685119 -1.9424752 0
7.6330619 -2.0683558 0.44172928
5.6416106 -1.5214108 -0.97413737
7.1720314 -1.9341296 -0.82796139
7.169054 -1.9333267 -0.41474143
7.168334 -1.9331325 0
7.6832161 -2.0719843 0.4444865
5.6384816 -1.5132608 -0.97328061
7.1668668 -1.9234502 -0.82709628
7.1688681 -1.9239875 -0.41459587
7.1656423 -1.9231217 0
7.688221 -2.0633719 0.44463152
5.6378284 -1.505785 -0.97285306
7.1691856 -1.9147891 -0.82709628
7.1711879 -1.9153239 -0.41459587
7.1755061 -1.9164773 0
7.6631012 -2.0467072 0.44303539
5.6396437 -1.4989717 -0.97285306
7.158998 -1.9028038 -0.8256551
7.1659703 -1.904657 -0.41416085
7.1752944 -1.9071352 0
7.6178522 -2.0247636 0.44027761
5.646409 -1.4934678 -0.97370821
7.1712937 -1.8967977 -0.82680827
7.173286 -1.8973246 -0.41445085
7.1700525 -1.8964695 0
7.5826192 -2.0055928 0.43810093
5.6482096 -1.486644 -0.97370821
7.1760793 -1.8887889 -0.82709628
7.1705523 -1.8873341 -0.41416085
7.1698246 -1.8871427 0
7.5774961 -1.9944444 0.43766537
5.650002 -1.4798182 -0.97370821
7.1758566 -1.879462 -0.82680827
7.1778498 -1.879984 -0.41445085
7.1645446 -1.8764992 0
7.5824118 -1.9859447 0.43781036
5.6468225 -1.4716966 -0.97285306
7.1856332 -1.8727475 -0.82767338
7.1826282 -1.8719643 -0.41459587
7.1768804 -1.8704662 0
7.6200132 -1.9859573 0.43984261
5.6436315 -1.4635849 -0.97199798
7.1778765 -1.8614665 -0.8265202
7.1748238 -1.860675 -0.41401529
7.1715751 -1.8598324 0
7.6676769 -1.9884884 0.44245481
5.6469975 -1.4608173 -0.97242552
7.166482 -1.8538915 -0.82507902
7.1709204 -1.8550397 -0.41372529
7.1726975 -1.8554994 0
7.7141533 -1.9955682 0.44506705
5.6512423 -1.4546323 -0.97285306
7.1687164 -1.8452308 -0.82507902
7.1756706 -1.8470207 -0.4138703
7.1774521 -1.8474793 0
7.7039795 -1.9830077 0.44434151
5.6430488 -1.4452552 -0.97114122
7.1734443 -1.8372086 -0.82536703
7.1829362 -1.8396397 -0.41416085
7.1822076 -1.839453 0
7.678678 -1.9666053 0.44274482
5.6490107 -1.4322442 -0.97156876
7.1828823 -1.8211404 -0.82594419
7.1798024 -1.8203595 -0.41372529
7.1765409 -1.8195326 0
7.680892 -1.9474052 0.44259983
5.6507373 -1.4254174 -0.97156876
7.1775513 -1.8105614 -0.82507902
7.1870308 -1.8129526 -0.41401529
7.1711617 -1.8089496 0
7.7033954 -1.9432074 0.44376093
5.6449928 -1.4167157 -0.97028607
7.1872621 -1.8037769 -0.82594419
7.1892161 -1.8042673 -0.41401529
7.1783857 -1.8015491 0
7.7284179 -1.93959 0.44506705
5.6516771 -1.4111364 -0.97114122
7.184413 -1.7938368 -0.82536703
7.1787882 -1.7924324 -0.41328976
7.1729898 -1.7909846 0
7.8063827 -1.949133 0.44942096
5.6583657 -1.4055454 -0.97199798
7.1790419 -1.7832834 -0.82450193
7.1859975 -1.7850111 -0.4135803
7.1801953 -1.7835697 0
7.8516006 -1.9503478 0.4518882
5.6575603 -1.3980896 -0.97156876
7.1761746 -1.7733678 -0.82392585
7.1780586 -1.7738333 -0.41299975
7.179821 -1.7742689 0
7.8741322 -1.9458462 0.4530493
5.6542649 -1.3900281 -0.97071368
7.1833305 -1.7659292 -0.82450193
7.1751451 -1.7639169 -0.41270918
7.1819596 -1.7655921 0
7.8588214 -1.9319899 0.45203376
5.6434746 -1.3801465 -0.96857423
7.1779289 -1.7554067 -0.82363784
7.1823244 -1.7564816 -0.41299975
7.1891389 -1.7581481 0
7.8081474 -1.9095304 0.44898596
5.6501222 -1.3745389 -0.96942931
7.1825557 -1.7473431 -0.82392585
7.1844416 -1.7478019 -0.41299975
7.1811428 -1.7469994 0
7.7599525 -1.8878099 0.44608319
5.6517787 -1.3677108 -0.96942931
7.1821504 -1.7380553 -0.82363784
7.1814919 -1.7378961 -0.41270918
7.1883125 -1.7395465 0
7.8480921 -1.8992109 0.45101765
5.6459374 -1.3590778 -0.96814501
7.1817231 -1.7287688 -0.82334876
7.1886439 -1.7304348 -0.41299975
7.1878815 -1.7302512 0
7.888268 -1.8988467 0.45319432
5.6525736 -1.3534515 -0.96900177
7.1888423 -1.7212955 -0.82392585
7.1932545 -1.7223519 -0.41314474
7.1823716 -1.7197461 0
7.9031992 -1.892341 0.45392042
5.6566997 -1.3472146 -0.96942931
7.190917 -1.712608 -0.82392585
7.1902795 -1.7124562 -0.41285473
7.184444 -1.7110664 0
10.041309 -2.3914649 0.57655644
5.6583233 -1.3403786 -0.96942931
7.1929812 -1.7039179 -0.82392585
7.1847558 -1.7019694 -0.41241917
7.1915665 -1.7035828 0
10.056841 -2.3823268 0.57728255
5.6649408 -1.3347192 -0.97028607
7.1925197 -1.6946328 -0.82363784
7.1918607 -1.6944774 -0.41270918
7.1834869 -1.6925045 0
10.057176 -2.3695757 0.57713699
5.6582465 -1.3295343 -0.96900177
7.1885014 -1.6891026 -0.82306069
7.1878285 -1.6889446 -0.41241917
7.18958 -1.6893561 0
10.048488 -2.3611217 0.57655644
5.6523476 -1.3209434 -0.96771747
7.1804624 -1.6780611 -0.82190758
7.1873364 -1.6796675 -0.41227418
7.1890841 -1.680076 0
10.05387 -2.3495715 0.576702
5.6589451 -1.3152761 -0.96857423
7.1824851 -1.6693838 -0.82190758
7.1817651 -1.6692164 -0.41183862
7.1911092 -1.6713881 0
8.2446041 -1.9162459 0.47278717
5.6480174 -1.3055451 -0.96643317
7.1794615 -1.6595399 -0.8213315
7.1888356 -1.6617067 -0.41212863
7.1880474 -1.6615245 0
8.1760359 -1.8898991 0.46872383
5.6545992 -1.2998708 -0.96728992
7.1864982 -1.6520216 -0.82190758
7.1857781 -1.6518561 -0.41183862
7.1925836 -1.6534204 0
8.1301956 -1.8689573 0.46596602
5.6511559 -1.2918922 -0.96643317
7.180932 -1.6416093 -0.82104349
7.1877689 -1.6431723 -0.41183862
7.1818933 -1.641829 0
8.140049 -1.86087 0.46640158
5.6552234 -1.2856337 -0.96686238
7.1955185 -1.6357976 -0.82248467
7.1872177 -1.6339105 -0.41169363
7.1889524 -1.6343049 0
8.1448231 -1.8516084 0.4665466
5.6567726 -1.2787994 -0.96686238
7.1974897 -1.6271021 -0.82248467
7.1993246 -1.6275169 -0.41227418
7.2163014 -1.6313547 0
7.280302 -1.645823 0.41691139
5.6583138 -1.2719635 -0.96686238
7.1994505 -1.6184042 -0.82248467
7.2012858 -1.6188167 -0.41227418
7.2944365 -1.6397564 0
7.3304563 -1.6478536 0.41966918
5.6598463 -1.2651255 -0.96686238
7.2014008 -1.6097038 -0.82248467
7.2438006 -1.6191813 -0.41459587
7.3395867 -1.6405921 0
7.3197651 -1.6361613 0.41894361
5.666378 -1.2593987 -0.96771747
7.1957636 -1.5993171 -0.82161951
7.2863369 -1.6194477 -0.4169181
7.4025359 -1.6452739 0
7.3014441 -1.6228055 0.41778252
5.6653914 -1.2519976 -0.96728992
7.1951675 -1.5900637 -0.8213315
7.3364983 -1.6212964 -0.41967589
7.541738 -1.6666524 0
7.2856364 -1.6100564 0.41676641
5.6593757 -1.243498 -0.96600562
7.2046552 -1.5830321 -0.82219559
7.3790488 -1.6213505 -0.42199755
8.1461363 -1.7898978 0
7.2469702 -1.5923297 0.41444418
5.6558633 -1.2355641 -0.96515048
7.259625 -1.5859175 -0.82824945
7.4089293 -1.618534 -0.42359424
8.1559134 -1.7817181 0
7.2082815 -1.5747011 0.41212249
5.657352 -1.2287291 -0.96515048
7.304502 -1.5864763 -0.83315015
10.168363 -2.2084827 -0.58120763
7.3035917 -1.5862787 0
7.1898646 -1.561578 0.41096139
5.6613393 -1.2224338 -0.96557802
7.3519263 -1.5874765 -0.83833992
10.181183 -2.1983883 -0.58178818
7.2953277 -1.5752554 0
7.1815867 -1.5506957 0.41038081
5.6628122 -1.2155923 -0.96557802
7.3867121 -1.5856485 -0.84208745
10.191456 -2.1877213 -0.58222371
7.2539711 -1.5571541 0
7.2113943 -1.5480144 0.41197693
5.6642771 -1.2087489 -0.96557802
7.4139128 -1.582119 -0.84496981
7.3328071 -1.5648111 -0.41880476
7.1285925 -1.5212319 0
7.2030945 -1.5371306 0.41139638
5.6624975 -1.204793 -0.96515048
7.2905474 -1.5511882 -0.41633752
0 -0 0
7.1760721 -1.5268317 0.40980026
5.6639495 -1.19795 -0.96515048
7.3484521 -1.5542297 -0.83718675
7.1729398 -1.5171081 -0.40951639
0 -0 0
7.1956997 -1.521922 0.41081581
5.6628828 -1.1905777 -0.96472293
7.3072977 -1.5363033 -0.83228606
7.136632 -1.5004222 -0.40733972
7.0898619 -1.4905891 0
7.2026243 -1.5142965 0.41110638
5.6668277 -1.1842591 -0.96515048
7.3091488 -1.5274727 -0.83228606
0 -0 -0
7.0942025 -1.4825531 0
7.1942744 -1.5034662 0.41052583
5.6632228 -1.1763657 -0.96429372
7.2451506 -1.5049641 -0.82479101
0 -0 -0
7.0908976 -1.4729226 0
7.2011695 -1.4958283 0.41081581
5.6571054 -1.1679662 -0.96301109
7.1431108 -1.4747671 -0.81297129
7.1063924 -1.4671862 -0.4053075
7.0952187 -1.4648793 0
7.1953444 -1.4855512 0.41038081
5.6610246 -1.1616454 -0.96343863
0 -0 -0
7.105617 -1.4580766 -0.40516248
7.0944362 -1.4557823 0
7.2022204 -1.4778997 0.41067082
5.6624241 -1.1548043 -0.96343863
0 -0 -0
7.1022863 -1.4484522 -0.40487248
7.0910854 -1.4461679 0
7.201457 -1.4686774 0.41052583
5.6738791 -1.1500013 -0.96515048
7.0875711 -1.4365333 -0.80605233
7.1040311 -1.4398695 -0.40487248
7.0902796 -1.4370822 0
7.2032266 -1.4599748 0.41052583
5.6702266 -1.1421299 -0.96429372
7.096911 -1.4295011 -0.80691743
7.1006665 -1.4302574 -0.40458193
7.0920105 -1.428514 0
7.1998858 -1.4502428 0.41023526
5.6716022 -1.1352777 -0.96429372
7.091022 -1.4194013 -0.80605233
7.0947433 -1.4201461 -0.40414637
7.0911822 -1.4194332 0
7.1914411 -1.439502 0.40965471
5.6754951 -1.1289262 -0.96472293
7.0952663 -1.4113362 -0.80634034
7.09901 -1.4120809 -0.40429193
7.0979919 -1.4118785 0
7.1906295 -1.4303051 0.40950969
5.6718135 -1.1210711 -0.96386617
7.0842819 -1.4002547 -0.80489916
7.1007109 -1.4035021 -0.40429193
7.1022534 -1.4038069 0
7.1948991 -1.4221189 0.40965471
5.6656046 -1.1127324 -0.96258187
7.0885043 -1.3921918 -0.80518717
7.0947499 -1.3934184 -0.40385637
7.0937295 -1.393218 0
7.2042637 -1.4149271 0.41009027
5.661911 -1.1049033 -0.96172673
7.0851092 -1.3826358 -0.80461109
7.0913229 -1.3838484 -0.40356582
7.0979595 -1.3851436 0
7.1983147 -1.4047276 0.40965471
5.6632419 -1.0980612 -0.96172673
7.0893111 -1.3745657 -0.80489916
7.1006451 -1.3767632 -0.40400138
7.099628 -1.3765661 0
7.200007 -1.3960288 0.40965471
5.6645646 -1.0912175 -0.96172673
7.0935044 -1.3664875 -0.80518717
7.1074114 -1.3691665 -0.40429193
7.0987334 -1.3674947 0
7.1914921 -1.3853637 0.40907469
5.6709166 -1.0853363 -0.96258187
7.0951505 -1.3579154 -0.80518717
7.1065011 -1.3600878 -0.40414637
7.0927095 -1.3574482 0
7.1931605 -1.3766732 0.40907469
5.6772723 -1.0794433 -0.96343863
7.0993342 -1.3498257 -0.80547625
7.1106992 -1.3519866 -0.40429193
7.096899 -1.3493627 0
7.1922588 -1.3674939 0.40892914
5.6728745 -1.0750563 -0.96258187
7.0976 -1.3450534 -0.80518717
7.1064038 -1.3467219 -0.40400138
7.1028318 -1.346045 0
7.1956439 -1.3636336 0.40907469
5.6766992 -1.0686773 -0.96301109
7.0992198 -1.3364764 -0.80518717
7.1003628 -1.3366916 -0.40356582
7.1018882 -1.3369787 0
7.1921744 -1.3539758 0.40878415
5.6653624 -1.0594566 -0.96086997
7.0957494 -1.3269475 -0.80461109
7.1019726 -1.3281112 -0.40356582
7.1086197 -1.3293542 0
7.1989183 -1.3462406 0.40907469
5.6716909 -1.0535488 -0.96172673
7.0948071 -1.3179008 -0.80432308
7.0984678 -1.3185807 -0.40327582
7.0999856 -1.3188627 0
7.2005396 -1.3375412 0.40907469
5.6552863 -1.043434 -0.95873058
7.0913024 -1.3083876 -0.80374599
7.1000557 -1.3100026 -0.40327582
7.1041307 -1.3107545 0
7.2123623 -1.3307238 0.40965471
5.6514978 -1.0356754 -0.95787543
7.0979714 -1.3007516 -0.80432308
7.1067405 -1.3023585 -0.40356582
7.1082668 -1.3026383 0
7.208858 -1.3210722 0.4093647
5.6577916 -1.0297644 -0.95873058
7.1020803 -1.2926368 -0.80461109
7.1083088 -1.2937704 -0.40356582
7.1047196 -1.2931172 0
7.1951151 -1.30957 0.40849414
5.6590314 -1.0229273 -0.95873058
7.1087222 -1.2849736 -0.80518717
7.1073122 -1.2847188 -0.40342081
7.0960331 -1.2826799 0
7.1992469 -1.3013369 0.40863913
5.6728945 -1.0183562 -0.96086997
7.1026397 -1.2750134 -0.80432308
7.1011844 -1.2747523 -0.40298524
7.0924597 -1.273186 0
7.2110443 -1.2944734 0.40921971
5.6791801 -1.0124028 -0.96172673
7.106719 -1.2668839 -0.80461109
7.1103964 -1.2675394 -0.40342081
7.1016717 -1.2659842 0
7.2253914 -1.2880391 0.40994525
5.6728134 -1.004197 -0.96044242
7.1082449 -1.2582959 -0.80461109
7.1093664 -1.2584945 -0.40327582
7.0980759 -1.2564958 0
7.2294984 -1.2797601 0.41009027
5.6777501 -0.99092603 -0.96086997
7.106174 -1.2402259 -0.80403507
7.1072626 -1.2404159 -0.40298524
7.1241627 -1.2433654 0
7.2376947 -1.2631799 0.41038081
5.6890607 -0.98581803 -0.96258187
7.1025653 -1.2307545 -0.80345792
7.1087561 -1.2318273 -0.40298524
7.2179646 -1.2507511 0
7.2366481 -1.2539887 0.41023526
5.6700087 -0.97546124 -0.95915812
7.0963974 -1.2208555 -0.80259281
7.1256094 -1.225881 -0.40385637
7.3015447 -1.2561487 0
7.2048693 -1.2395169 0.40834859
5.6610613 -0.96688074 -0.95744628
7.1080661 -1.2140218 -0.80374599
7.1783123 -1.2260195 -0.40675917
7.380013 -1.260469 0
7.1986852 -1.2294991 0.4079136
5.6925969 -0.96518922 -0.96258187
7.1146326 -1.2062978 -0.80432308
7.2873831 -1.2355878 -0.41285473
7.4123211 -1.2567713 0
7.1950369 -1.2199304 0.40762302
5.6709781 -0.95447594 -0.95873058
7.1313839 -1.2002752 -0.80605233
7.3503585 -1.2371305 -0.41633752
7.3958669 -1.2447901 0
7.1990657 -1.2116666 0.40776804
5.6847849 -0.94973761 -0.96086997
7.1838512 -1.2001816 -0.81181812
7.3851638 -1.2338141 -0.41822422
7.3717012 -1.231565 0
7.203095 -1.2033964 0.4079136
5.6828279 -0.9458819 -0.96044242
7.2789741 -1.2115535 -0.82248467
8.4008808 -1.3982899 -0.47569665
7.3596106 -1.2249751 0
7.2063813 -1.1994708 0.40805858
5.6890368 -0.93985224 -0.96129918
7.3416681 -1.2128737 -0.82940263
8.3717995 -1.3830557 -0.47395498
7.345674 -1.2135355 0
7.2078252 -1.1907623 0.40805858
5.6901684 -0.9329775 -0.96129918
7.3992858 -1.2132096 -0.83574557
8.3734646 -1.372939 -0.47395498
7.3445697 -1.2042382 0
7.2118206 -1.1824722 0.40820357
5.6811566 -0.92445219 -0.95958734
7.2518258 -1.1800354 -0.41038695
7.3460193 -1.1953628 0
7.2081194 -1.1729234 0.4079136
5.6746645 -0.91635883 -0.95830303
7.3763766 -1.1911556 -0.41735366
7.3911324 -1.1935383 0
7.2095318 -1.1642129 0.4079136
5.6706929 -0.90868831 -0.95744628
7.4368148 -1.1916968 -0.42069143
7.3771558 -1.1821369 0
7.2134962 -1.1559116 0.40805858
5.6717868 -0.90183568 -0.95744628
7.3590794 -1.1701217 -0.8305558
7.9591632 -1.2655373 -0.4501532
7.340023 -1.1670916 0
7.2097502 -1.1463778 0.40776804
5.6728725 -0.8949818 -0.95744628
7.3809266 -1.1644534 -0.83286208
7.9760919 -1.2583497 -0.45102432
7.2951603 -1.1509223 0
7.2085662 -1.1372608 0.40762302
5.6967826 -0.89170057 -0.96129918
7.3823285 -1.155534 -0.83286208
7.9647727 -1.2467024 -0.45029879
7.2425532 -1.1336554 0
7.1971016 -1.126541 0.40689749
5.6800971 -0.88205868 -0.95830303
7.3913894 -1.1478043 -0.83372724
7.273036 -1.1294252 -0.41111305
7.2182059 -1.1209106 0
7.2061629 -1.1190405 0.40733302
5.6887722 -0.87636769 -0.95958734
7.40555 -1.140841 -0.83516842
0 -0 -0
7.2195549 -1.112188 0
7.2023687 -1.1095405 0.40704247
5.6847472 -0.86871696 -0.95873058
7.3839145 -1.1283759 -0.83257407
0 -0 -0
7.2208934 -1.1034638 0
7.2062702 -1.1012291 0.40718746
5.6984806 -0.86377066 -0.96086997
7.2778721 -1.1031734 -0.82046634
7.2334099 -1.0964339 -0.40864584
7.2273626 -1.0955173 0
7.2075953 -1.092521 0.40718746
5.7096744 -0.85841113 -0.96258187
0 -0 -0
0 -0 -0
7.22611 -1.0863971 0
7.2191887 -1.0853565 0.40776804
5.6929417 -0.84886247 -0.95958734
7.2216854 -1.0768102 -0.81383646
7.2257581 -1.0774175 -0.40806529
7.2274175 -1.077665 0
7.2127919 -1.0754842 0.40733302
5.6812587 -0.84010434 -0.95744628
7.2306499 -1.0692174 -0.81470054
7.2244768 -1.0683047 -0.40791973
7.2261424 -1.0685508 0
7.2115083 -1.0663869 0.40718746
5.6873541 -0.83398467 -0.95830303
7.2345028 -1.0608561 -0.81498963
7.2283406 -1.0599525 -0.40806529
7.2248459 -1.05944 0
7.2076545 -1.0569191 0.40689749
5.6934338 -0.82785004 -0.95915812
7.2357793 -1.0521139 -0.81498963
7.2296162 -1.0512177 -0.40806529
7.2184019 -1.0495871 0
7.2063575 -1.0478358 0.40675247
5.6791897 -0.81877291 -0.95659113
7.234478 -1.043 -0.81470054
7.228302 -1.0421095 -0.40791973
7.2248116 -1.0416063 0
7.2127571 -1.0398685 0.40704247
5.6873088 -0.81643635 -0.95787543
7.2376747 -1.0389977 -0.81498963
7.2315097 -1.0381126 -0.40806529
7.2228661 -1.0368718 0
7.2159538 -1.0358795 0.40718746
5.6781254 -0.80811691 -0.95616359
7.2389245 -1.0302515 -0.81498963
7.232759 -1.029374 -0.40806529
7.2318454 -1.0292441 0
7.21206 -1.0264281 0.40689749
5.6816373 -0.80161369 -0.95659113
7.2324786 -1.0204196 -0.81412446
7.2339973 -1.0206339 -0.40806529
7.2253504 -1.0194139 0
7.2184358 -1.0184383 0.40718746
5.6876812 -0.79545844 -0.95744628
7.233706 -1.0116798 -0.81412446
7.2326446 -1.0115314 -0.40791973
7.2291522 -1.0110428 0
7.2145195 -1.0089964 0.40689749
5.6911883 -0.78893888 -0.95787543
7.2400422 -1.0036482 -0.81470054
7.2235761 -1.0013655 -0.40733972
7.2329435 -1.0026641 0
7.2157335 -1.0002784 0.40689749
5.6921377 -0.78206164 -0.95787543
7.2438197 -0.99525231 -0.81498963
7.2299242 -0.99334323 -0.40762973
7.2289982 -0.99321604 0
7.2195086 -0.99191219 0.40704247
5.6981606 -0.77587521 -0.95873058
7.2321954 -0.98475307 -0.81354737
7.2336912 -0.9849568 -0.40777472
7.2456603 -0.98658651 0
7.2232738 -0.98353833 0.40718746
5.6914597 -0.76795942 -0.95744628
7.2333798 -0.97601366 -0.81354737
7.2297311 -0.97552127 -0.40748471
7.2236376 -0.97469908 0
7.2141666 -0.97342116 0.40660748
0 -0 -0
5.6898413 -0.76074195 -0.95701867
7.239686 -0.96795899 -0.81412446
7.2334776 -0.96712887 -0.40762973
7.2299743 -0.9666605 0
7.2101812 -0.96401417 0.40631691
5.6958508 -0.75454122 -0.95787543
7.243412 -0.9595499 -0.81441247
7.2346406 -0.95838791 -0.40762973
7.2285495 -0.95758098 0
7.2164979 -0.95598447 0.40660748
5.6967587 -0.74765837 -0.95787543
7.2368703 -0.9497869 -0.81354737
7.2409415 -0.9503212 -0.40791973
7.2348671 -0.94952399 0
7.215064 -0.94692498 0.40646192
5.6874752 -0.73945051 -0.95616359
7.2457099 -0.94204259 -0.81441247
7.2446685 -0.94190723 -0.40806529
7.2282643 -0.93977445 0
7.2213612 -0.93887699 0.40675247
5.6959953 -0.7335605 -0.95744628
7.2417169 -0.93262678 -0.81383646
7.2303333 -0.93116075 -0.40719417
7.2371407 -0.93203735 0
7.2224903 -0.93015069 0.40675247
5.6994314 -0.72700322 -0.95787543
7.2377024 -0.92322069 -0.8132593
7.2314534 -0.9224236 -0.40719417
7.2382612 -0.92329204 0
7.223609 -0.92142302 0.40675247
5.6926627 -0.71915054 -0.95659113
7.2336855 -0.913827 -0.81268328
7.2377234 -0.9143371 -0.40748471
7.2342029 -0.91389233 0
7.2247171 -0.91269404 0.40675247
5.698617 -0.71290827 -0.95744628
7.2373481 -0.90540659 -0.81297129
7.2310853 -0.90462309 -0.40704915
7.2378917 -0.90547454 0
7.2283907 -0.90428597 0.40689749
5.6816483 -0.70381391 -0.95445174
7.243566 -0.89729631 -0.81354737
7.2476406 -0.8978011 -0.40791973
7.2363901 -0.89640743 0
7.2217393 -0.89459258 0.40646192
5.7003231 -0.69913483 -0.95744628
7.2523489 -0.88948816 -0.81441247
7.235827 -0.88746178 -0.40719417
7.2271357 -0.88639575 0
7.2279782 -0.88649911 0.40675247
5.69098 -0.69101012 -0.95573604
7.2431479 -0.87947738 -0.8132593
7.2420578 -0.87934506 -0.40748471
7.2230392 -0.87703574 0
7.221303 -0.87682492 0.40631691
5.6837487 -0.68664777 -0.95445174
7.2385473 -0.87448144 -0.81268328
7.2451653 -0.87528092 -0.40762973
7.2261491 -0.87298357 0
7.2244086 -0.87277335 0.40646192
5.6973162 -0.68130332 -0.95659113
7.2524371 -0.86726969 -0.81412446
7.2513728 -0.86714238 -0.40791973
7.2401166 -0.86579633 0
7.2254581 -0.86404341 0.40646192
5.690485 -0.67351329 -0.95530683
7.2432055 -0.85728985 -0.81297129
7.2421031 -0.85715944 -0.40733972
7.2359934 -0.85643625 0
7.2290845 -0.85561854 0.40660748
5.6963987 -0.66723484 -0.95616359
7.2416697 -0.84823662 -0.81268328
7.2328105 -0.8471989 -0.40675917
7.2370229 -0.84769231 0
7.2223682 -0.84597582 0.40617192
5.7048435 -0.66123718 -0.95744628
7.2375455 -0.83888966 -0.81210619
7.2415648 -0.83935553 -0.40719417
7.2328663 -0.83834732 0
7.2337098 -0.83844507 0.40675247
5.6954465 -0.6531747 -0.95573604
7.2359867 -0.82984948 -0.81181812
7.2374158 -0.83001339 -0.40690416
7.2493925 -0.83138692 0
7.2269707 -0.82881546 0.40631691
5.6911254 -0.64571303 -0.95487928
7.239552 -0.82139695 -0.81210619
7.2461615 -0.82214683 -0.40733972
7.2374649 -0.82116014 0
7.230546 -0.82037514 0.40646192
5.6868043 -0.63826388 -0.95402414
7.2405391 -0.81264877 -0.81210619
7.2471495 -0.81339067 -0.40733972
7.2462029 -0.81328446 0
7.223793 -0.8107692 0.4060269
5.700326 -0.63280791 -0.95616359
7.2466621 -0.80447066 -0.81268328
7.2455373 -0.80434579 -0.40719417
7.2342496 -0.80309278 0
7.2170172 -0.80117971 0.40559137
5.685771 -0.62423825 -0.95359498
7.239913 -0.79486686 -0.81181812
7.2516747 -0.79615813 -0.40748471
7.2377992 -0.79463476 0
7.2231407 -0.79302537 0.40588135
5.7018385 -0.61903059 -0.95616359
7.2434373 -0.7863971 -0.81210619
7.2526312 -0.7873953 -0.40748471
7.2413492 -0.78617042 0
7.2318459 -0.78513873 0.40631691
5.6974726 -0.61159211 -0.95530683
7.2418132 -0.77736849 -0.81181812
7.2535772 -0.77863133 -0.40748471
7.2422938 -0.7774201 0
7.2327895 -0.77639985 0.40631691
5.6982074 -0.60470736 -0.95530683
7.2478862 -0.76916295 -0.8123942
7.2493401 -0.76931727 -0.40719417
7.2406321 -0.76839316 0
7.2259679 -0.766837 0.40588135
5.6963835 -0.59755421 -0.95487928
7.25139 -0.76067537 -0.81268328
7.245101 -0.76001567 -0.40690416
7.246737 -0.76018727 0
7.2372265 -0.75918961 0.40646192
5.6894388 -0.58987635 -0.95359498
7.2394328 -0.75057852 -0.81124103
7.2485962 -0.7515285 -0.40704915
7.2372956 -0.75035691 0
7.230392 -0.74964112 0.4060269
5.6875958 -0.58273995 -0.95316738
7.2403345 -0.74183053 -0.81124103
7.2520814 -0.74303406 -0.40719417
7.253726 -0.74320257 0
7.2312927 -0.74090409 0.4060269
5.6959605 -0.57664311 -0.95445174
7.2412257 -0.73308146 -0.81124103
7.2529736 -0.73427075 -0.40719417
7.2442617 -0.73338878 0
7.2295899 -0.73190343 0.40588135
5.6864357 -0.56873834 -0.95273983
7.2446871 -0.72458947 -0.81153011
7.2512727 -0.7252481 -0.40704915
7.237381 -0.72385871 0
7.2304688 -0.72316736 0.40588135
0 -0 -0
5.7027812 -0.55993557 -0.95530683
7.2485604 -0.7117101 -0.81181812
7.2525749 -0.71210426 -0.40704915
7.2386813 -0.71074009 0
7.2240171 -0.70930028 0.40544635
5.7136736 -0.55403548 -0.95701867
7.2545586 -0.70344985 -0.8123942
7.2534304 -0.70334047 -0.40704915
7.2395349 -0.70199305 0
7.2326202 -0.70132262 0.40588135
0 -0 -0
5.7092333 -0.54664236 -0.95616359
7.2476869 -0.69394481 -0.81153011
7.2542748 -0.69457561 -0.40704915
7.2429657 -0.69349277 0
7.2360568 -0.69283122 0.4060269
0 -0 -0
5.7073364 -0.53950214 -0.95573604
7.2510924 -0.68543005 -0.81181812
7.2499399 -0.68532109 -0.40675917
7.2489753 -0.6852299 0
7.2368884 -0.6840874 0.4060269
5.738646 -0.53546655 -0.96086997
7.2390413 -0.67546678 -0.81037694
7.2455835 -0.67607719 -0.4064686
7.2523966 -0.67671293 0
7.2351151 -0.67510039 0.40588135
5.7111773 -0.52594334 -0.95616359
7.2501545 -0.66766804 -0.81153011
7.251575 -0.66779882 -0.40675917
7.2557983 -0.66818774 0
7.2385206 -0.66659665 0.4060269
0 -0 -0
0 -0 -0
7.2457995 -0.65843856 -0.81095302
7.2523766 -0.65903622 -0.40675917
7.2591896 -0.65965533 0
7.2393208 -0.65784985 0.4060269
0 -0 -0
5.691977 -0.5103063 -0.95273983
7.2491632 -0.64991367 -0.81124103
7.2583389 -0.65073627 -0.40704915
7.2522025 -0.65018618 0
7.2323437 -0.64840573 0.40559137
0 -0 -0
5.6976986 -0.50388014 -0.95359498
7.2602491 -0.64206541 -0.8123942
7.2591195 -0.64196551 -0.40704915
7.245213 -0.64073569 0
7.2382936 -0.64012378 0.40588135
0 -0 -0
5.703423 -0.49744174 -0.95445174
7.2532969 -0.63261878 -0.81153011
7.2573037 -0.63296831 -0.40690416
7.2459822 -0.63198084 0
7.2364755 -0.63115168 0.40573636
0 -0 -0
5.7014647 -0.49033016 -0.95402414
7.2566304 -0.62407553 -0.81181812
7.255477 -0.62397635 -0.40675917
7.2467403 -0.62322497 0
7.23206 -0.62196249 0.40544635
0 -0 -0
5.7020531 -0.4834407 -0.95402414
7.259954 -0.61552519 -0.81210619
7.2639856 -0.61586702 -0.40719417
7.2578611 -0.61534774 0
7.2328062 -0.61322349 0.40544635
0 -0 -0
5.7051888 -0.47676408 -0.95445174
7.2684274 -0.60739887 -0.81297129
7.25178 -0.6060077 -0.4064686
7.2534075 -0.60614371 0
7.2387161 -0.60491598 0.40573636
0 -0 -0
5.7083168 -0.47008061 -0.95487928
7.2588449 -0.59776682 -0.81181812
7.2576914 -0.59767181 -0.40675917
7.2567258 -0.59759229 0
7.2420287 -0.59638202 0.40588135
0 -0 -0
5.7114367 -0.46339029 -0.95530683
7.2492499 -0.58815885 -0.81066495
7.2609954 -0.5891118 -0.40690416
7.2548509 -0.58861327 0
7.2453413 -0.58784175 0.4060269
0 -0 -0
5.7043228 -0.45587587 -0.95402414
7.2602682 -0.58022332 -0.81181812
7.2591143 -0.58013111 -0.40675917
7.2555571 -0.5798468 0
7.2382736 -0.57846552 0.40559137
0 -0 -0
5.7023034 -0.44878098 -0.95359498
7.2635403 -0.57165301 -0.81210619
7.25981 -0.57135946 -0.40675917
7.2510681 -0.57067144 0
7.2467408 -0.57033086 0.4060269
0 -0 -0
5.6926036 -0.44109729 -0.95188308
7.2616496 -0.56267643 -0.81181812
7.2604952 -0.56258696 -0.40675917
7.2595291 -0.5625121 0
7.2396502 -0.5609718 0.40559137
0 -0 -0
5.6982565 -0.43460938 -0.95273983
7.2597475 -0.55370522 -0.81153011
7.2637582 -0.55401111 -0.40690416
7.2498336 -0.55294907 0
7.2454996 -0.5526185 0.40588135
0 -0 -0
5.701335 -0.42791578 -0.95316738
7.2681413 -0.54551297 -0.8123942
7.2592349 -0.54484451 -0.40661362
7.2504964 -0.54418868 0
7.2409849 -0.54347473 0.40559137
0 -0 -0
5.7015924 -0.42447123 -0.95316738
7.2633162 -0.54073817 -0.81181812
7.2621613 -0.54065222 -0.40675917
7.2586026 -0.54038721 0
7.2413116 -0.53909999 0.40559137
