# .PCD v0.7 - Point Cloud Data file format
VERSION 0.7
FIELDS x y z
SIZE 4 4 4
TYPE F F F
COUNT 1 1 1
WIDTH 1602
HEIGHT 1
VIEWPOINT 0 0 0 1 0 0 0
POINTS 1602
DATA ascii
-25.48967 28.982878 2.1558826
-3.4940798 3.9632556 -0.88084465
-5.1997356 5.8979425 -0.8763923
-5.4945683 6.2323647 -0.46408606
-6.4398088 7.3045292 0
-25.402672 28.813675 2.1455779
-3.4886696 3.9474933 -0.87827766
-5.2068586 5.8916554 -0.8763923
-5.5020952 6.2257209 -0.46408606
-6.4934359 7.3474407 0
-25.406498 28.747917 2.1429658
-3.4917364 3.9413555 -0.87785012
-5.2174006 5.8892279 -0.87696838
-5.5044427 6.2132316 -0.46365049
-6.4988542 7.3356895 0
-25.430882 28.70553 2.1420953
-3.5009241 3.9469197 -0.87956035
-5.2209578 5.8860745 -0.87696838
-5.5323386 6.2371235 -0.46568272
-6.5309162 7.3629136 0
-25.449942 28.692104 2.1422403
-3.4971635 3.9330964 -0.8774209
-5.2263489 5.877831 -0.87668031
-5.5226011 6.2110119 -0.46423104
-6.5017667 7.3122334 0
-25.50013 28.678806 2.1435463
-3.496794 3.9231246 -0.87613821
-5.2300086 5.8676534 -0.8761043
-5.5508494 6.2276115 -0.46597272
-6.5140572 7.3082538 0
-25.584902 28.704224 2.1477551
-3.5032403 3.9208088 -0.87656581
-5.2319231 5.8555417 -0.87523913
-5.5652957 6.2286506 -0.46655327
-6.531558 7.3100863 0
-26.040255 29.144121 2.1830225
-3.4942739 3.9012754 -0.87314206
-5.2424426 5.8530655 -0.87581521
-5.5762815 6.2257891 -0.46684328
-6.5334406 7.2944345 0
-26.169058 29.217144 2.1908593
-3.5024118 3.900867 -0.87399715
-5.2356939 5.8313375 -0.87350994
-5.5976882 6.2345142 -0.46800441
-6.5387692 7.2826581 0
-26.261627 29.249306 2.1956487
-3.5036914 3.8928199 -0.87314206
-5.2479219 5.8307686 -0.87437397
-5.5895739 6.2103653 -0.46669829
-6.5545282 7.2824898 0
-26.323027 29.246525 2.1978259
-3.5135531 3.8943033 -0.87442636
-5.2515016 5.8205862 -0.87379795
-6.4882379 7.1913428 -0.54100579
-6.5685544 7.2803631 0
-26.37401 29.232059 2.1991322
-3.5113683 3.8824394 -0.87271452
-5.2654705 5.8219099 -0.87495112
-6.5248098 7.2143326 -0.54332805
-6.6314578 7.3322506 0
-31.062813 34.345436 2.5866342
-3.522954 3.8858008 -0.87442636
-5.2620745 5.8040423 -0.87322086
-6.5579534 7.2333903 -0.54535967
-6.6455584 7.3300185 0
-31.137451 34.344456 2.5893919
-3.5155592 3.8682413 -0.87143016
-5.276042 5.8053365 -0.87437397
-6.5597048 7.2177768 -0.54477972
-6.6316576 7.296948 0
-31.210381 34.341419 2.5920043
-3.5202308 3.8639908 -0.87143016
-5.2830529 5.7989573 -0.87437397
-6.5876656 7.230969 -0.54637581
-6.6404696 7.2889295 0
-31.288601 34.344017 2.595052
-3.519702 3.8540459 -0.87014586
-5.29529 5.7983007 -0.87523913
-6.5928969 7.2191701 -0.54608583
-0 0 0
-31.366873 34.346478 2.5980997
-3.526088 3.8516819 -0.8705734
-5.2918167 5.7804551 -0.87350994
-5.7138381 6.2414455 -0.47264886
-5.7179432 6.2459297 0
-31.455719 34.360294 2.6020181
-3.5307395 3.8474185 -0.8705734
-5.2987971 5.7740569 -0.87350994
-5.7248859 6.2383618 -0.47293887
-5.6903 6.2006745 0
-31.548162 34.377781 2.6062269
-3.5284405 3.8355997 -0.86886322
-5.3057704 5.7676501 -0.87350994
-5.7376986 6.2371788 -0.47337443
-5.7277398 6.2263532 0
-31.623104 34.375973 2.6089847
-3.5243661 3.8218923 -0.86672211
-5.3092251 5.7574286 -0.87293279
-5.7399445 6.2245092 -0.47293887
-5.7264323 6.209856 0
-31.712173 34.389305 2.6129031
-3.5255001 3.8138645 -0.86586702
-5.3179321 5.7529068 -0.87322086
-5.7527547 6.2232952 -0.47337443
-5.7039018 6.1704459 0
-31.811909 34.413929 2.6176927
-3.533592 3.813364 -0.86672211
-5.3213668 5.7426858 -0.87264478
-5.7302475 6.1839399 -0.47090718
-5.695435 6.1463709 0
-31.878191 34.402145 2.6197243
-3.5347064 3.8053334 -0.86586702
-5.3335843 5.7419391 -0.87350994
-6.7332921 7.2488122 -0.55261636
-0 0 0
-26.236279 28.245003 2.1532702
-3.5439975 3.8107164 -0.86757886
-5.3405719 5.7424998 -0.87408596
-6.7341347 7.240941 -0.55232638
-0 0 0
-26.262184 28.238659 2.1539958
-3.5433462 3.8007965 -0.86629456
-5.3422141 5.7303653 -0.87322086
-6.7535067 7.2441988 -0.55319697
-0 0 0
-26.314009 28.225916 2.1554475
-3.5479362 3.7965124 -0.86629456
-5.3456054 5.7201304 -0.87264478
-6.7746758 7.2493243 -0.55421305
-0 0 0
-26.333902 28.178913 2.1542864
-3.5349741 3.7734919 -0.86201572
-5.3454399 5.7061167 -0.87149161
-6.7958674 7.2544098 -0.55522919
-0 0 0
-33.413052 35.667553 2.7298796
-3.5535893 3.7841883 -0.86543947
-5.3470173 5.6939955 -0.87062645
-6.7921748 7.2329316 -0.55421305
-0 0 0
-33.441895 35.612 2.7287185
-3.5475986 3.7686729 -0.86287081
-5.3521223 5.6856489 -0.87033844
-6.8472133 7.2739086 -0.55798644
-0 0 0
-26.117079 27.744608 2.1283073
-3.5486295 3.760653 -0.86201572
-5.3660889 5.6867023 -0.87149161
-6.8524342 7.2618537 -0.5576964
-7.5065622 7.9550648 0
-26.120268 27.680902 2.1258402
-3.5514085 3.7544994 -0.86158818
-5.3765078 5.683969 -0.87206769
-6.8629875 7.2554545 -0.55784142
-7.5072289 7.9365373 0
-26.171556 27.668203 2.1272919
-3.5559425 3.7502055 -0.86158818
-5.3798161 5.673718 -0.87149161
-6.8914113 7.2678924 -0.55943751
-7.5132279 7.9236798 0
-26.188879 27.619591 2.1259856
-3.5569308 3.7421813 -0.86073142
-5.3848872 5.6653404 -0.8712036
-6.9037719 7.2633305 -0.55972809
-7.5120425 7.9032812 0
-26.215073 27.580393 2.1254051
-3.56145 3.7378807 -0.86073142
-5.3970761 5.6644421 -0.87206769
-6.9340525 7.2775583 -0.56146973
-7.5215864 7.8941984 0
-26.253752 27.554335 2.1258402
-3.5641925 3.73172 -0.86030388
-5.402132 5.6560478 -0.87177962
-6.944634 7.2710519 -0.56161475
-7.5257254 7.8794565 0
-19.483604 20.399391 1.5756453
-3.5704725 3.7292631 -0.86073142
-5.4035945 5.6439099 -0.87091452
-6.9641929 7.2739134 -0.56248534
-7.5334425 7.8684793 0
-19.486675 20.353312 1.5739036
-3.5767517 3.7267964 -0.86115897
-5.4068317 5.6336479 -0.87033844
-6.9837761 7.2767448 -0.56335646
-7.5321288 7.8481016 0
-19.504057 20.32225 1.573323
-3.5812523 3.722472 -0.86115897
-5.4082532 5.6215172 -0.86947328
-6.9997692 7.2757916 -0.56393701
-7.5452185 7.8427491 0
-19.50878 20.278069 1.5717264
-3.5857475 3.718142 -0.86115897
-5.422224 5.6224256 -0.87062645
-7.0229859 7.2822914 -0.56509811
-7.5492678 7.8280048 0
-19.526052 20.247 1.5711458
-3.5777531 3.7008924 -0.85816443
-5.4344082 5.6214499 -0.87149161
-7.0317798 7.2737999 -0.56509811
-7.5569139 7.817008 0
-19.552313 20.225266 1.5712913
-3.5911529 3.7057824 -0.86030388
-5.4303937 5.6037316 -0.86976135
-7.0604496 7.2858191 -0.5666942
-0 0 0
-19.573118 20.197891 1.5710008
-3.5884733 3.6940751 -0.85859197
-5.4425688 5.6027331 -0.87062645
-7.0927835 7.3015103 -0.56858087
-0 0 0
-19.611992 20.189137 1.5721619
-3.5907044 3.6919065 -0.85859197
-5.4423499 5.5957394 -0.87005043
-7.1026301 7.302814 -0.56901646
-0 0 0
-19.627813 20.181013 1.5724525
-3.5879946 3.6802127 -0.85688013
-5.450911 5.5910096 -0.87033844
-7.1078248 7.2905092 -0.56872648
-0 0 0
-19.673944 20.179602 1.5741936
-3.5978234 3.6813843 -0.85816443
-5.4558563 5.582571 -0.87005043
-7.1456804 7.3116417 -0.57104814
-0 0 0
-19.720106 20.178114 1.5759352
-3.6004672 3.6751952 -0.85773522
-5.4571662 5.5704303 -0.86918527
-7.1526933 7.3011479 -0.57090312
-0 0 0
-19.744474 20.154272 1.5759352
-3.6031084 3.6690123 -0.85730767
-5.4657035 5.5656757 -0.86947328
-7.1815391 7.3128953 -0.57249981
-0 0 0
-26.455734 26.939631 2.1090052
-3.6003356 3.6573384 -0.85559583
-5.4687991 5.5553846 -0.86889726
-7.1903701 7.3042126 -0.57249981
-0 0 0
-26.497379 26.916903 2.1097307
-3.6101632 3.6584687 -0.85688013
-5.4755077 5.5487723 -0.86889726
-7.2137914 7.3103156 -0.57366091
-0 0 0
-26.549961 26.905212 2.1113274
-3.6037457 3.6431503 -0.85431147
-5.4767494 5.536634 -0.8680321
-7.2408895 7.3200636 -0.57511204
-7.3881006 7.4688845 0
-0 0 0
-3.6226053 3.6533761 -0.85773522
-5.4889007 5.5355239 -0.86889726
-7.2570472 7.3186893 -0.57569259
-7.3787918 7.4414682 0
-0 0 0
-3.6143544 3.6362567 -0.85474068
-5.4919353 5.5252156 -0.86832011
-7.2860298 7.3301821 -0.57728869
-7.3804393 7.4251637 0
-29.391241 29.569349 2.3287349
-3.6223657 3.6355202 -0.85559583
-5.5077333 5.5277348 -0.86976135
-7.3003855 7.3268971 -0.57772428
-7.3857355 7.4125566 0
-29.403109 29.509886 2.3268483
-3.6303875 3.6347768 -0.85645258
-5.5107565 5.5174193 -0.86918527
-7.3239236 7.3327785 -0.57888538
-7.3762918 7.38521 0
-29.411198 29.446756 2.324671
-3.6293261 3.6249435 -0.85516822
-5.5100989 5.5034451 -0.8680321
-7.341969 7.3331032 -0.57961094
-7.38521 7.3762918 0
-29.443085 29.40753 2.3243809
-3.6337035 3.6205554 -0.85516822
-5.5185757 5.4986072 -0.86832011
-7.3581872 7.331563 -0.58019149
-7.3922758 7.3655276 0
-29.434418 29.327913 2.3208976
-3.6417134 3.6197782 -0.85602337
-5.5215502 5.4882917 -0.86774409
-7.3873148 7.3428183 -0.58178818
-7.3790207 7.3345742 0
-29.473524 29.295994 2.3211882
-3.6369722 3.6063395 -0.85388392
-5.5245008 5.4779701 -0.867167
-7.3998685 7.3375425 -0.58207816
-7.3897309 7.3274903 0
-29.484915 29.236576 2.3193014
-3.6431503 3.6037457 -0.85431147
-5.5256047 5.4658394 -0.86630291
-7.4327426 7.3523498 -0.58396482
-7.402276 7.3222127 0
-29.547926 29.228334 2.3214781
-3.6420257 3.5939372 -0.85302883
-5.5432477 5.4700556 -0.8680321
-7.4601202 7.361618 -0.5854165
-7.4000072 7.302299 0
-29.590618 29.199911 2.3220587
-3.6500208 3.593132 -0.85388392
-5.5461702 5.4597282 -0.86745608
-7.4486389 7.3325453 -0.58381987
-7.3494768 7.2349286 0
-29.642544 29.180538 2.3233647
-3.6675267 3.5972996 -0.85645258
-5.5542045 5.4478507 -0.867167
-7.4934506 7.3499632 -0.58628708
-7.327282 7.1869764 0
-21.474201 21.063005 1.6801401
-3.6773698 3.5982463 -0.85773522
-5.5663314 5.4465642 -0.8680321
-7.5078998 7.3463569 -0.58672261
-7.3173556 7.1599126 0
-21.507067 21.044312 1.6807207
-3.6688612 3.5812535 -0.85474068
-5.5692101 5.4362245 -0.86745608
-7.5465221 7.3663206 -0.58904487
-7.3334508 7.1583376 0
-21.545496 21.031017 1.6817368
-3.6676667 3.5714433 -0.85345638
-5.5683622 5.4222732 -0.86630291
-7.5665836 7.3680701 -0.58991539
-7.3924322 7.1984878 0
-21.544827 20.979586 1.6797045
-3.6793447 3.5741639 -0.85516822
-5.5804706 5.4209423 -0.867167
-7.5959849 7.3788395 -0.59151208
-7.488863 7.2747803 0
-21.545931 20.930002 1.6778179
-3.6781282 3.5643544 -0.85388392
-5.5814495 5.4088011 -0.86630291
-7.6067591 7.3714623 -0.5916571
-7.6938686 7.4558773 0
-21.563742 20.896719 1.6772374
-3.6787448 3.5563424 -0.85302883
-5.5842581 5.3984542 -0.86572576
-7.6268663 7.3730989 -0.59252763
-7.7253256 7.4682817 0
-21.557219 20.839949 1.6747701
-3.6867313 3.5554554 -0.85388392
-5.5889173 5.3899088 -0.86543775
-7.6469955 7.3747039 -0.59339875
-7.7231073 7.4481058 0
-21.565552 20.797653 1.6734639
-3.6891766 3.5492201 -0.85345638
-5.5972877 5.384943 -0.86572576
-7.655901 7.3654585 -0.59339875
-7.7696109 7.4748549 0
-32.576397 31.340542 2.5249534
-3.686054 3.5376496 -0.85174453
-5.6056547 5.3799653 -0.86601382
-7.670414 7.3615952 -0.59383374
-7.7880239 7.4744701 0
-32.662979 31.347935 2.5287268
-3.686621 3.5296459 -0.85088938
-5.6084185 5.3696141 -0.86543775
-7.7130914 7.3846707 -0.59644657
-20.733381 19.850561 0
-32.757137 31.36235 2.5330806
-3.6964469 3.530503 -0.85217208
-5.6149025 5.3628335 -0.86543775
-7.7314019 7.3843174 -0.59717214
-20.759232 19.827291 0
-32.817558 31.344284 2.5348222
-3.6969967 3.5224957 -0.85131693
-5.6213779 5.3560452 -0.86543775
-7.7779436 7.4108191 -0.60007489
-20.768101 19.78783 0
-32.925011 31.370926 2.5401924
-3.6993914 3.5162592 -0.85088938
-5.620347 5.3421211 -0.86428457
-7.8094864 7.4228907 -0.601816
-20.79011 19.760931 0
-32.983604 31.350807 2.5417883
-3.6980472 3.5064859 -0.84960508
-5.634305 5.3424449 -0.86543775
-7.8203406 7.4152422 -0.60196155
-20.804525 19.726837 0
-33.091225 31.377081 2.5471585
-3.7004182 3.5002527 -0.84917754
-5.6369948 5.3320746 -0.86486065
-7.8274016 7.4039965 -0.601816
-20.828346 19.701685 0
-33.159321 31.365643 2.5494807
-3.7009072 3.4922519 -0.84832078
-5.6453199 5.3270397 -0.86514974
-7.8401256 7.3981032 -0.60210657
-20.842674 19.667574 0
-33.251999 31.377268 2.5536895
-3.7107334 3.493058 -0.84960508
-5.646101 5.3148942 -0.86428457
-7.8471689 7.3868456 -0.60196155
-20.847477 19.62454 0
-33.342857 31.38693 2.5577528
-3.7186906 3.4920828 -0.85046017
-5.6638279 5.3186884 -0.86601382
-7.8598733 7.3809123 -0.60225159
-20.884455 19.611809 0
-33.43758 31.399979 2.5621068
-3.7079198 3.4735467 -0.84703648
-5.6664786 5.3083076 -0.86543775
-7.8725824 7.3749661 -0.60254216
-20.940424 19.616806 0
-33.528595 31.409294 2.5661707
-3.7193956 3.4800806 -0.84917754
-5.6659036 5.3013453 -0.86486065
-7.8732381 7.3666544 -0.60225159
-21.083387 19.72683 0
-33.606377 31.444061 2.5706697
-3.7292223 3.4808335 -0.85046017
-5.6666384 5.289206 -0.86399657
-7.8878341 7.3624568 -0.60268712
-21.12813 19.720869 0
-33.682339 31.438892 2.5735724
-3.7259107 3.4693277 -0.84874833
-5.6749163 5.2841163 -0.86428457
-7.9062309 7.3617725 -0.60341269
-21.091002 19.63858 0
-33.802071 31.474308 2.579813
-3.7206974 3.4560895 -0.84660888
-5.6812968 5.2772551 -0.86428457
-7.934155 7.369895 -0.60486382
-21.105183 19.604227 0
-33.872437 31.463503 2.5822802
-3.7248707 3.451591 -0.84660888
-5.6819758 5.265111 -0.86341941
-6.5003123 6.0234089 -0.49499893
-21.117399 19.568096 0
-33.973328 31.480833 2.5870697
-3.7328124 3.4505763 -0.84746563
-5.6902385 5.2600021 -0.86370856
-6.4904146 5.9996772 -0.49369282
-6.5430927 6.0483727 0
-34.045681 31.471504 2.5896819
-3.7482984 3.4565015 -0.85003263
-5.6832781 5.2408471 -0.86169022
-0 0 -0
-6.5408244 6.0316358 0
-6.4956627 5.9899893 0.49354112
-3.7486973 3.4484973 -0.84917754
-5.6953192 5.2392316 -0.86255538
-0 0 -0
-0 0 0
-6.5009851 5.9803791 0.49339613
-3.7509644 3.4422245 -0.84874833
-5.7035494 5.2340932 -0.86284339
-0 0 -0
-0 0 0
-6.504374 5.9690022 0.49310559
-3.7437639 3.4272926 -0.84618133
-5.7079635 5.2254529 -0.86255538
-6.4925075 5.9436769 -0.49166116
-0 0 0
-0 0 0
-3.7535908 3.4279616 -0.84746563
-5.712358 5.2168026 -0.8622663
-6.4920096 5.9288187 -0.49108058
-6.4872723 5.9244924 0
-6.5072708 5.9427562 0.49223503
-3.7596259 3.4251506 -0.84789324
-5.7052789 5.1977086 -0.86024904
-6.4914851 5.91397 -0.49050003
-6.490582 5.9131474 0
-6.5106087 5.9313922 0.49194503
-3.7789595 3.4344175 -0.85131693
-5.7192116 5.1977692 -0.86140221
-6.492856 5.9008775 -0.49006447
-6.4900184 5.8982987 0
-6.5139213 5.9200225 0.49165446
-3.7697921 3.4177778 -0.84832078
-5.7235661 5.1891127 -0.86111313
-6.4980578 5.8912845 -0.48991948
-0 0 0
-0 0 0
-3.7624993 3.4028919 -0.84575379
-5.7240825 5.1769934 -0.86024904
-6.5051718 5.8834286 -0.48991948
-6.4965324 5.8756151 0
-6.5012321 5.8798652 0.4896228
-3.7761364 3.4069397 -0.84789324
-5.7188077 5.1596737 -0.85851872
-6.5064859 5.8703403 -0.48948392
-6.497829 5.8625293 0
-6.5064044 5.8702664 0.48947778
-3.7745242 3.3972208 -0.84660888
-5.732728 5.1596813 -0.85967189
-6.5077858 5.857264 -0.48904893
-6.502975 5.8529344 0
-6.5134931 5.8624005 0.48947778
-3.7824504 3.396091 -0.84746563
-5.7466564 5.1596627 -0.86082506
-6.5148587 5.8493967 -0.48904893
-6.5081081 5.8433356 0
-6.5108986 5.8458414 0.48875168
-3.7884614 3.3932292 -0.84789324
-5.7432551 5.1440883 -0.85938388
-6.5161133 5.8363175 -0.48861337
-6.5248547 5.8441472 0
-6.5198989 5.8397083 0.48889723
-3.7925587 3.388649 -0.84789324
-5.7571816 5.1440382 -0.86053705
-6.5212245 5.8267102 -0.48846838
-6.5319114 5.8362594 0
-6.5347009 5.8387513 0.48947778
-3.7985649 3.3857703 -0.84832078
-5.7614641 5.1353588 -0.86024904
-6.5282602 5.8188267 -0.48846838
-6.5486708 5.837019 0
-6.5359297 5.8256626 0.48904222
-3.7986944 3.3817697 -0.84789324
-5.7606983 5.1284342 -0.85967189
-6.5259504 5.8096962 -0.48803282
-6.5405369 5.8226819 0
-6.5394483 5.821713 0.48904222
-3.808538 3.3822925 -0.84917754
-5.7610869 5.1163158 -0.85880679
-6.5349064 5.8035307 -0.48817781
-6.5475678 5.8147745 0
-6.548419 5.8155308 0.48918724
-3.8068557 3.3725798 -0.84789324
-5.7692065 5.1110706 -0.85909587
-6.5438571 5.7973518 -0.48832279
-6.5565348 5.8085833 0
-6.5554409 5.8076138 0.48918724
-3.8051555 3.3628759 -0.84660888
-5.7734342 5.1023784 -0.85880679
-6.5605984 5.798049 -0.48904893
-6.5557485 5.7937627 0
-6.5663514 5.8031335 0.48947778
-3.809216 3.3582757 -0.84660888
-5.7795954 5.0953984 -0.85880679
-6.5675993 5.7901177 -0.48904893
-6.5705528 5.7927217 0
-6.5753059 5.7969122 0.4896228
-3.813271 3.3536706 -0.84660888
-5.7799268 5.083292 -0.8579427
-6.5784893 5.7856064 -0.48933893
-6.5755949 5.783061 0
-6.5823054 5.7889628 0.4896228
-3.8231115 3.354141 -0.84789324
-5.7899494 5.0797124 -0.85851872
-6.5874267 5.7793655 -0.48948392
-6.5845323 5.7768264 0
-6.5951571 5.7861476 0.49005833
-3.8290915 3.3512082 -0.84832078
-5.7902498 5.0676074 -0.85765469
-6.6002731 5.7765374 -0.48991948
-6.5954208 5.7722907 0
-6.6099577 5.7850132 0.49063835
-3.833138 3.3465791 -0.84832078
-5.8022084 5.0657058 -0.85851872
-6.6150775 5.7753935 -0.49050003
-6.6141572 5.77459 0
-6.6267357 5.7855721 0.49136445
-3.8333108 3.3385763 -0.84746563
-5.8063765 5.056994 -0.85823071
-6.629889 5.7742229 -0.49108058
-6.6289802 5.7734308 0
-6.6454744 5.7877965 0.49223503
-3.8353987 3.3322535 -0.84703648
-5.8085814 5.0465851 -0.85765469
-6.6388211 5.76791 -0.4912256
-6.6379137 5.7671218 0
-6.6505036 5.77806 0.49209002
-3.8471818 3.334342 -0.84874833
-5.8127146 5.0378642 -0.85736561
-6.6516781 5.7649913 -0.49166116
-6.6527443 5.7659154 0
-6.6614037 5.7734203 0.49238002
-3.8473277 3.3263364 -0.84789324
-5.8187976 5.0308366 -0.85736561
-6.6625667 5.7603455 -0.49195117
-6.6715145 5.7680817 0
-6.6664114 5.7636695 0.49223503
-3.8377347 3.3099473 -0.84489703
-5.8248725 5.0238023 -0.85736561
-6.6793661 5.7607813 -0.49267727
-6.6843934 5.7651172 0
-6.6871462 5.7674913 0.49325114
-3.8514593 3.3136773 -0.84703648
-5.8309383 5.0167603 -0.85736561
-6.6882901 5.7543993 -0.49282226
-6.6992459 5.7638254 0
-6.7019892 5.7661858 0.49383169
-3.8535144 3.3073509 -0.84660888
-5.838964 5.0114007 -0.85765469
-6.7129827 5.7615433 -0.49412838
-6.7141051 5.7625065 0
-6.7227488 5.7699251 0.49484724
-3.8536115 3.2993565 -0.84575379
-5.8469782 5.006022 -0.8579427
-6.733758 5.7652588 -0.49514452
-6.7348957 5.766233 0
-6.7356391 5.7668691 0.4952828
-3.8575954 3.2946978 -0.84575379
-5.8490853 4.9955907 -0.85736561
-6.7387376 5.7554259 -0.49499893
-6.7240496 5.7428808 0
-6.744576 5.7604122 0.49542782
-3.8576617 3.2867014 -0.84489703
-5.8570919 4.990202 -0.85765469
-6.7535987 5.7540197 -0.49557951
-23.146658 19.720793 0
-6.7416439 5.7438345 0.49470225
-3.8733702 3.2920156 -0.84746563
-5.8611407 4.981441 -0.85736561
-12.66841 10.767007 -0.92865336
-23.186335 19.706295 0
-34.371399 29.212591 2.5195835
-3.8675568 3.2790341 -0.84532624
-5.8513727 4.9609742 -0.85505927
-12.669522 10.741612 -0.92778283
-23.263727 19.723707 0
-7.2133212 6.1156769 0.52822793
-3.8734744 3.2760148 -0.84575379
-5.8751421 4.9689379 -0.85765469
-12.672574 10.717908 -0.92705727
-23.329269 19.730873 0
-7.2266521 6.1119857 0.52866292
-3.8754756 3.2656772 -0.84489703
-5.8702912 4.9466128 -0.85563636
-12.693964 10.696594 -0.92720228
-7.2317171 6.093821 0
-0 0 0
-3.8754923 3.2576919 -0.84404194
-5.8841839 4.9461732 -0.85678953
-7.251143 6.0952225 -0.52910519
-7.2211475 6.0700088 0
-7.2331514 6.0800991 0.52779239
-3.8774607 3.2513587 -0.84361434
-5.8782606 4.9290853 -0.85505927
-7.2704449 6.0964704 -0.52997577
-7.2065387 6.0428834 0
-0 0 0
-3.8872881 3.2516077 -0.84489703
-5.8941374 4.9302812 -0.85650152
-0 0 -0
-7.1938767 6.0174766 0
-7.2458324 6.060936 0.52764738
-3.9050131 3.2584224 -0.84789324
-5.8901553 4.9148655 -0.85505927
-7.259222 6.0572424 -0.52808905
-7.1991463 6.0071139 0
-7.2471633 6.0471802 0.52721184
-3.9089475 3.2537017 -0.84789324
-5.9060349 4.9160228 -0.85650152
-0 0 -0
-7.2063994 5.9984112 0
-7.2584629 6.0417471 0.52750236
-3.9069493 3.2440548 -0.84660888
-5.9079871 4.9055753 -0.85592437
-7.2458549 6.0164461 -0.52605742
-7.2036328 5.9813881 0
-7.2597585 6.0279908 0.52706683
-3.9049408 3.2344239 -0.84532624
-5.9079323 4.8934817 -0.85505927
-7.2351108 5.9927707 -0.52475131
-7.2068424 5.9693561 0
-34.969364 28.964779 2.5362735
-3.9108233 3.2313366 -0.84575379
-5.9138408 4.8863397 -0.85505927
-7.2263217 5.9707832 -0.52359015
-7.2040205 5.9523568 0
-34.98431 28.905956 2.5348222
-3.9147248 3.2266088 -0.84575379
-5.9197407 4.8791904 -0.85505927
-7.2315273 5.9603958 -0.52344519
-7.2172341 5.9486151 0
-35.027233 28.870274 2.5354028
-3.9206018 3.223505 -0.84618133
-5.9176402 4.8654633 -0.8539061
-7.2066102 5.9252496 -0.52112293
-7.2143674 5.9316278 0
-35.092194 28.852678 2.5375795
-3.9284596 3.2220182 -0.84703648
-5.9255204 4.8599544 -0.85419518
-7.2057281 5.9099464 -0.52054238
-7.2175012 5.9196024 0
-35.074795 28.767414 2.5338061
-3.9343426 3.2188993 -0.84746563
-5.9413958 4.8609786 -0.85563636
-7.2450414 5.9275618 -0.52286458
-7.2165914 5.904285 0
-35.998402 29.452246 2.5979548
-3.9382291 3.214143 -0.84746563
-5.9412518 4.8488884 -0.8547712
-7.2703147 5.9335885 -0.5241707
-7.2358217 5.9054375 0
-36.114479 29.47444 2.6037598
-3.9281728 3.1980355 -0.84446949
-5.9410872 4.8368053 -0.8539061
-8.1318293 6.6203499 -0.58570653
-7.2671628 5.9164009 0
-36.234695 29.499681 2.6098554
-3.9400051 3.19976 -0.84618133
-5.9429154 4.826365 -0.85333002
-8.1297388 6.6023302 -0.58498096
-7.2823873 5.9141779 0
-36.32074 29.496828 2.6134837
-3.9398828 3.1917682 -0.84532624
-5.9487429 4.819181 -0.85333002
-8.1498213 6.602313 -0.58585149
-7.3117743 5.9233966 0
-36.418938 29.50362 2.6179826
-3.9437366 3.1870053 -0.84532624
-5.9465146 4.8054867 -0.85217685
-8.1638575 6.597362 -0.58628708
-7.3310671 5.9243689 0
-36.51115 29.505323 2.6220465
-3.9535744 3.1870663 -0.84660888
-5.9583597 4.8031693 -0.85304201
-8.1960993 6.6070619 -0.58802873
-7.3463249 5.9220395 0
-36.637806 29.534569 2.6285777
-3.9494205 3.1758523 -0.84489703
-5.960124 4.7927213 -0.85246491
-8.2101536 6.6020403 -0.58846432
-7.3697 5.9262056 0
-36.693714 29.506557 2.6300287
-3.9532552 3.1710777 -0.84489703
-5.9759965 4.7936068 -0.8539061
-8.2160921 6.5904846 -0.58831877
-7.3870039 5.925437 0
-36.818516 29.533731 2.6364143
-3.495831 2.8006887 -0.99231237
-3.9631839 3.1751089 -0.84660888
-5.9849491 4.7948484 -0.8547712
-8.2383289 6.6001463 -0.58962542
-7.3885531 5.9193473 0
-36.939777 29.594343 2.6438167
-3.4853239 2.7853634 -0.98837376
-3.9630105 3.1671157 -0.84575379
-5.9968019 4.792459 -0.85563636
-8.2909517 6.6258726 -0.5928182
-7.3997703 5.9136682 0
-37.034367 29.596722 2.648025
-3.488687 2.7811501 -0.98837376
-3.9688399 3.1639235 -0.84618133
-6.0126987 4.7932696 -0.85707754
-8.2887945 6.6077523 -0.59209263
-13.676404 10.902707 0
-37.1595 29.62322 2.6544111
-3.4781218 2.7658608 -0.98443305
-3.9726601 3.1591258 -0.84618133
-6.0205088 4.7876091 -0.85736561
-12.939664 10.289837 -0.92342889
-13.685498 10.882937 0
-37.203403 29.584768 2.6549916
-3.4655361 2.7490234 -0.97992998
-3.9825096 3.1591108 -0.84746563
-6.0323701 4.7851548 -0.85823071
-12.925625 10.253203 -0.92154223
-13.690482 10.859923 0
-37.369404 29.643137 2.6642799
-3.4927659 2.7637541 -0.98668456
-3.9883351 3.1558878 -0.84789324
-6.0340948 4.7746558 -0.85765469
-12.970599 10.26337 -0.92386395
-13.687267 10.830454 0
-37.474472 29.652781 2.6692145
-3.4901175 2.7548075 -0.98499537
-3.9840853 3.1447043 -0.84618133
-6.0500093 4.775372 -0.85909587
-13.003391 10.263792 -0.92531562
-13.698303 10.812297 0
-37.526588 29.620358 2.6703756
-3.4794748 2.7395899 -0.98105681
-3.9919124 3.1430612 -0.84703648
-6.0578051 4.7696567 -0.85938388
-13.019863 10.251284 -0.9256056
-13.695 10.782858 0
-37.672596 29.661791 2.6782129
-3.4787822 2.7322416 -0.97992998
-3.9896564 3.1334832 -0.84575379
-6.0676279 4.7655258 -0.85995996
-13.048589 10.248384 -0.92676669
-13.708018 10.766302 0
-37.769711 29.664396 2.6825666
-3.4940858 2.7374413 -0.98330837
-3.9974773 3.1318235 -0.84660888
-6.0815258 4.7645712 -0.86111313
-13.091646 10.256649 -0.92894393
-13.706675 10.738494 0
-37.879154 29.676422 2.6877911
-3.4833746 2.7222638 -0.97936761
-4.0032792 3.1285703 -0.84703648
-6.1015463 4.7683697 -0.8631314
-13.10403 10.240824 -0.92894393
-13.711438 10.715514 0
-38.009159 29.704229 2.6944673
-3.4926753 2.7227409 -0.98105681
-4.0111098 3.1268904 -0.84789324
-6.1154628 4.7673545 -0.86428457
-13.126638 10.232968 -0.9296695
-13.720275 10.695742 0
-38.096256 29.698219 2.6980958
-0 0 -0
-3.4999704 2.7216351 -0.98218149
-4.0128603 3.1204672 -0.84746563
-6.1273465 4.7647266 -0.86514974
-13.122583 10.204339 -0.9285084
-13.727023 10.674361 0
-38.175186 29.685661 2.7011435
-3.5072756 2.7205219 -0.98330837
-4.0166283 3.1156161 -0.84746563
-6.141274 4.7636604 -0.86630291
-13.130794 10.185287 -0.92821783
-13.72963 10.649794 0
-38.321896 29.72551 2.7089808
-3.5145755 2.7193887 -0.98443305
-4.0264745 3.1154687 -0.84874833
-6.1490693 4.7578177 -0.86659092
-13.149258 10.174186 -0.92865336
-13.738368 10.630008 0
-38.431763 29.736422 2.7142053
-3.5158494 2.7135892 -0.98387069
-4.0282059 3.1090343 -0.84832078
-6.1609583 4.755127 -0.86745608
-13.155369 10.153525 -0.92821783
-13.745028 10.608634 0
-38.541718 29.747118 2.7194302
-0 0 -0
-3.5090609 2.7015903 -0.98105681
-4.0319595 3.1041646 -0.84832078
-6.1646438 4.7460966 -0.867167
-13.186164 10.151894 -0.92952448
-8.6089191 6.6279187 0
-38.676453 29.776608 2.7263963
-2.0786796 1.5963575 -0.86420143
-3.5103095 2.6958022 -0.98049444
-4.0418172 3.1039827 -0.84960508
-6.1765304 4.743372 -0.8680321
-13.190178 10.129622 -0.92894393
-0 0 0
-38.774227 29.777328 2.7307503
-2.117888 1.6224037 -0.87968659
-3.5155792 2.6931024 -0.98105681
-4.0394497 3.0944121 -0.84832078
-6.1863675 4.7390542 -0.86860925
-8.6975651 6.6627517 -0.61197549
-0 0 0
-38.892689 29.793663 2.7365558
-2.123771 1.622842 -0.88131493
-3.5369995 2.7027357 -0.98612225
-4.0411477 3.0879717 -0.84789324
-6.1982489 4.7362823 -0.86947328
-8.6952877 6.6443505 -0.61124992
-0 0 0
-39.002979 29.803438 2.7417803
-2.1355567 1.6277647 -0.88538897
-3.5281339 2.6892152 -0.98274386
-4.0550823 3.0908659 -0.85003263
-6.2101402 4.7334948 -0.87033844
-0 0 -0
-8.667758 6.6067405 0
-39.107159 29.808268 2.7465699
-2.1247439 1.6174945 -0.88050073
-3.5418921 2.6963205 -0.98612225
-4.0426488 3.0775294 -0.84703648
-6.208879 4.7266059 -0.86976135
-0 0 -0
-13.753107 10.469767 0
-39.197517 29.83972 2.7516491
-2.0932357 1.589517 -0.86664712
-3.5512202 2.6966503 -0.98781145
-4.0688553 3.089721 -0.85174453
-6.2207675 4.7237945 -0.87062645
-8.7111759 6.6149082 -0.61095941
-13.761599 10.44999 0
-39.341152 29.87405 2.7591965
-2.0813615 1.5765387 -0.86094159
-3.5504212 2.689286 -0.98668456
-4.0562153 3.0724025 -0.84832078
-6.2264705 4.7162743 -0.87062645
-8.6735973 6.5698638 -0.60776663
-13.767989 10.428638 0
-39.45385 29.884535 2.7645659
-2.0852351 1.5755111 -0.86175579
-3.553668 2.684994 -0.98668456
-4.0578785 3.065953 -0.84789324
-6.2280412 4.7056317 -0.87005043
-13.279693 10.033546 -0.9296695
-13.782662 10.413568 0
-39.599812 29.919861 2.7722583
-2.1167464 1.5953056 -0.87398106
-2.0433366 1.5399797 -0.70592785
-3.5589371 2.6822259 -0.98724693
-4.0656762 3.0641346 -0.84874833
-6.235786 4.6996584 -0.87033844
-13.283505 10.011237 -0.92908895
-13.788999 10.392207 0
-39.631779 29.868858 2.7719676
-2.0238507 1.521463 -0.83486581
-2.0632417 1.5510758 -0.71215665
-3.5702994 2.684031 -0.98949844
-4.0673256 3.0576787 -0.84832078
-6.2476645 4.6967845 -0.8712036
-13.30805 10.004545 -0.92995948
-13.784904 10.363028 0
-39.771687 29.899017 2.7792244
-2.0474334 1.5353231 -0.84382808
-2.0510702 1.5380503 -0.70731354
-3.57354 2.6797152 -0.98949844
-4.0648541 3.0481403 -0.84703648
-6.253335 4.6892319 -0.8712036
-13.320129 9.9884577 -0.92995948
-13.797415 10.346363 0
-39.865993 29.894588 2.7832882
-2.0492871 1.532848 -0.84382808
-2.0790417 1.5551043 -0.71631098
-3.5767751 2.6753953 -0.98949844
-4.0603194 3.037082 -0.84532624
-6.263135 4.6847677 -0.87177962
-13.332189 9.9723558 -0.92995948
-13.793235 10.317214 0
-41.587414 31.107006 2.9008448
-2.0828333 1.5540192 -0.85686755
-2.0970054 1.564593 -0.72184825
-3.5901859 2.6786673 -0.99231237
-4.061923 3.0306342 -0.84489703
-6.2625699 4.672555 -0.87091452
-13.337987 9.951582 -0.92952448
-13.803607 10.298985 0
-41.716606 31.125105 2.9072309
-2.0628972 1.5352679 -0.84790212
-2.0988944 1.562058 -0.72184825
-3.6076903 2.6849477 -0.99625307
-4.0635242 3.0241928 -0.84446949
-6.2702923 4.666533 -0.8712036
-13.36667 9.9478636 -0.93068504
-13.797253 10.268316 0
-41.754185 31.074675 2.9072309
-2.0389535 1.5136236 -0.83730841
-2.0866776 1.5490516 -0.71700245
-3.6109319 2.6805866 -0.99625307
-4.0754204 3.0254011 -0.84618133
-6.2759261 4.6589532 -0.8712036
-13.376595 9.9301577 -0.93054008
-13.799204 10.243882 0
-41.887672 31.095444 2.9139071
-1.9732499 1.4611533 -0.80960113
-2.0441954 1.5136871 -0.70177627
-3.6162083 2.6777322 -0.99681544
-4.0728817 3.0158901 -0.84489703
-6.2857041 4.6544423 -0.87177962
-13.392765 9.9170828 -0.9308306
-13.815751 10.230296 0
-42.023357 31.117481 2.9207282
-2.0306807 1.4998841 -0.83242017
-2.100503 1.5514555 -0.72046262
-3.6276166 2.6793993 -0.99906695
-4.0600038 2.9987655 -0.84147328
-6.2871666 4.6437736 -0.8712036
-13.402642 9.8993454 -0.93068504
-13.813446 10.202769 0
-42.146618 31.129976 2.9266789
-2.0225441 1.4901005 -0.82834613
-2.0862176 1.5370117 -0.71492529
-4.0636244 2.9938576 -0.84147328
-6.2969337 4.6392384 -0.87177962
-13.433428 9.8970194 -0.93199176
-13.825765 10.186071 0
-42.259506 31.134506 2.9319034
-2.0581992 1.5125358 -0.84219974
-2.0577555 1.5122097 -0.7045449
-3.6320355 2.6691215 -0.99850464
-4.061039 2.9843891 -0.84019065
-6.3004527 4.6300964 -0.87149161
-13.434901 9.8730822 -0.93126559
-13.827579 10.161654 0
-42.3955 31.155737 2.9387245
-0 0 -0
-2.0838616 1.5275204 -0.71285081
-3.6229661 2.6557207 -0.99512839
-4.048079 2.9673388 -0.8367669
-6.3248153 4.636241 -0.87408596
-13.438438 9.8506966 -0.93068504
-13.844049 10.148019 0
-42.519035 31.167471 2.944675
-2.1017442 1.5367281 -0.85849589
-2.0573494 1.5042682 -0.70315921
-3.6384752 2.6603365 -0.99850464
-4.0433726 2.9563847 -0.83505499
-6.3324986 4.6301203 -0.87437397
-13.456626 9.8390541 -0.93112063
-13.828992 10.111317 0
-42.57135 31.12681 2.9456911
-2.1095922 1.538558 -0.86094159
-2.0429499 1.4899548 -0.69762194
-3.6416869 2.6559381 -0.99850464
-4.0469418 2.9514968 -0.83505499
-6.3380885 4.6224651 -0.87437397
-13.470602 9.824317 -0.93126559
-13.845401 10.097663 0
-31.98852 23.32972 2.2114682
-2.0754771 1.5098389 -0.84627378
-2.0690937 1.5051954 -0.70592785
-3.6387272 2.6470504 -0.99681544
-4.0380459 2.937541 -0.83248639
-6.3436689 4.6148038 -0.87437397
-13.488769 9.8126202 -0.93170118
-13.844968 10.071744 0
-32.033497 23.30328 2.2126293
-2.0772998 1.5073301 -0.84627378
-2.0343654 1.4761759 -0.6934703
-3.637814 2.6396701 -0.9956907
-4.0415921 2.9326596 -0.83248639
-6.3492408 4.6071353 -0.87437397
-13.51323 9.8054686 -0.93257171
-13.867658 10.062648 0
-32.036392 23.246243 2.2108877
-2.1442521 1.5539352 -0.87316686
-2.0819736 1.5088022 -0.70938802
-3.6332338 2.6329973 -0.99400151
-4.0371337 2.9257026 -0.8312037
-6.3520226 4.6032982 -0.87437397
-13.510743 9.7912092 -0.93199176
-13.861094 10.045108 0
-32.044117 23.222309 2.2104521
-2.0998852 1.5140564 -0.85360771
-2.0367823 1.4685581 -0.69277883
-3.6210389 2.6108365 -0.98893613
-4.0316944 2.9069269 -0.8286351
-6.3673286 4.5909629 -0.87495112
-13.547008 9.7676458 -0.93286228
-13.878994 10.007014 0
-43.394794 31.288456 2.9882145
-2.0997086 1.5100763 -0.85279351
-2.0548491 1.4778142 -0.6983161
-3.6283205 2.6094294 -0.99006295
-4.0331221 2.9005558 -0.82820755
-6.3686676 4.5802426 -0.87437397
-13.546147 9.7421694 -0.93199176
-13.880513 9.9826403 0
-43.436783 31.239031 2.9885046
-2.1256313 1.5248262 -0.86257309
-2.0586698 1.4767913 -0.69900757
-3.6417918 2.6124473 -0.99287683
-4.0136771 2.8792198 -0.8234995
-6.3615913 4.5635014 -0.87264478
-13.576909 9.7394247 -0.93329787
-13.884107 9.959794 0
-32.117981 23.039902 2.20784
-2.1576171 1.5438261 -0.8747952
-2.0318928 1.4538673 -0.68931866
-3.6222134 2.5917792 -0.98668456
-4.0108957 2.8698907 -0.82221681
-6.3713036 4.5588183 -0.87322086
-13.588667 9.723012 -0.93329787
-13.879199 9.9308949 0
-32.124668 22.985958 2.2063887
-2.1172354 1.5110673 -0.85768175
-2.0806091 1.4849271 -0.70523638
-3.6336153 2.5933049 -0.98893613
-4.00809 2.8605671 -0.82093251
-6.3789191 4.5526233 -0.87350994
-13.598285 9.7050724 -0.93315232
-13.908135 9.9262123 0
-32.116467 22.921465 2.2039216
-2.1351678 1.5199749 -0.86420143
-2.0517428 1.4605867 -0.69485331
-3.6491618 2.5977511 -0.99231237
-4.0052681 2.8512545 -0.81964821
-6.3780918 4.540411 -0.87264478
-13.614239 9.6916513 -0.93344283
-13.917993 9.9078856 0
-32.082752 22.838942 2.1997128
-2.1370029 1.5173938 -0.86420143
-2.0371497 1.4464923 -0.68931866
-3.6232977 2.5727479 -0.98443305
-4.0003376 2.8404679 -0.8179363
-6.3856802 4.5341969 -0.87293279
-13.628057 9.6766968 -0.93358785
-13.923594 9.8865461 0
-31.97897 22.706892 2.1907144
-2.1106009 1.4948143 -0.85279351
-2.0491304 1.4512783 -0.69277883
-3.6181095 2.5624936 -0.98218149
-4.0016742 2.8341498 -0.81750876
-6.3763771 4.5160122 -0.87091452
-13.658821 9.6737375 -0.93489397
-13.941895 9.8742228 0
-31.940655 22.621683 2.1862154
-2.0942392 1.4794296 -0.84545958
-2.0406394 1.4415652 -0.68931866
-3.6253576 2.5610549 -0.98330837
-4.0030012 2.8278329 -0.81708121
-6.3818293 4.5083041 -0.87091452
-13.630182 9.6287451 -0.93213671
-13.962318 9.8633757 0
-31.940376 22.563583 2.1843288
-2.1121888 1.4882871 -0.85197932
-2.0526316 1.4463222 -0.69277883
-3.6367579 2.5625267 -0.98555988
-3.9875309 2.8096879 -0.81322992
-6.3767023 4.4931421 -0.86947328
-13.680037 9.6392059 -0.93474895
-13.99763 9.8629885 0
-31.986732 22.538443 2.1856349
-2.1079171 1.4814689 -0.84953362
-2.0707982 1.4553814 -0.6983161
-3.6211441 2.5449827 -0.98049444
-3.9888246 2.8033929 -0.81280237
-6.3715482 4.4779992 -0.8680321
-13.68317 9.6166935 -0.9341684
-14.020182 9.853549 0
-32.033073 22.513222 2.1869409
-2.1420875 1.5016208 -0.86257309
-2.0396867 1.429837 -0.68724149
-3.6346176 2.5478966 -0.98330837
-3.9859011 2.7941492 -0.81151807
-6.3769546 4.4702969 -0.8680321
-13.65861 9.5747976 -0.93170118
-14.07257 9.8649864 0
-46.802494 32.808929 3.1925604
-2.0993338 1.4678701 -0.84464228
-2.0845873 1.4575593 -0.70177627
-3.6314445 2.5391335 -0.98161918
-3.980859 2.783447 -0.80980617
-6.4056702 4.4788933 -0.8712036
-13.680816 9.5657301 -0.93242675
-14.097272 9.8569202 0
-46.857006 32.762775 3.1935759
-2.1071897 1.4695753 -0.84708798
-2.0534229 1.4320778 -0.69070166
-3.6136727 2.5202117 -0.97599137
-3.9673748 2.7668872 -0.80638242
-1.9752314 1.3775463 -0.26841491
-13.69663 9.5521688 -0.93271726
-14.149733 9.868166 0
-46.875248 32.691273 3.1921248
-2.0744729 1.4430357 -0.83323431
-2.0675046 1.4381886 -0.69485331
-3.618799 2.517293 -0.97655374
-3.970715 2.7620914 -0.80638242
-1.9110786 1.329376 -0.25947869
-13.706023 9.5341234 -0.93257171
-14.185141 9.8674049 0
-32.169239 22.377424 2.1888278
-2.1249516 1.4743427 -0.85279351
-2.0877979 1.4485646 -0.70108473
-3.6260092 2.5158126 -0.97767842
-3.9466331 2.7382691 -0.80081928
-1.9063061 1.3226411 -0.25861353
-13.700462 9.5057116 -0.93141115
-14.241954 9.8814106 0
-32.228279 22.360758 2.1910048
-2.1267316 1.4717741 -0.85279351
-2.0833559 1.4417566 -0.69900757
-3.6227844 2.5070961 -0.97599137
-3.9161644 2.7101254 -0.79397178
-1.9291674 1.3350526 -0.26149589
-13.716208 9.4921045 -0.93170118
-14.281701 9.8834467 0
-32.253132 22.320316 2.1908593
-2.1122355 1.457971 -0.84627378
-2.0582576 1.4207127 -0.69001013
-3.6174467 2.4969432 -0.97373986
-0 0 -0
-1.8945944 1.3077441 -0.25659519
-13.716976 9.4681454 -0.93097562
-14.330042 9.8913136 0
-32.277943 22.279854 2.1907144
-2.1029434 1.449682 -0.84219974
-2.0508535 1.4137733 -0.68724149
-3.6231344 2.4976387 -0.97486454
-1.9598123 1.3510133 -0.39683956
-1.9039022 1.3124713 -0.25774837
-13.726969 9.4628029 -0.93126559
-14.368158 9.9048119 0
-32.306374 22.270674 2.1917305
-2.090435 1.4373361 -0.83649421
-2.0608292 1.4169799 -0.69001013
-3.6366165 2.5004556 -0.97767842
-1.8979884 1.3050141 -0.38400134
-1.9054867 1.3101698 -0.25774837
-1.9348216 1.3303398 -0.13115311
-14.405849 9.905138 0
-47.643856 32.758842 3.229569
-2.0473311 1.4040585 -0.8185665
-2.050122 1.4059726 -0.68585587
-3.6186843 2.4816916 -0.97205067
-1.9143771 1.3128787 -0.38699588
-1.8558831 1.2727636 -0.25083047
-1.9085716 1.3088974 -0.12926643
-14.47575 9.9274616 0
-47.79483 32.777668 3.2371156
-2.1245046 1.4532127 -0.84871948
-2.0828817 1.4247417 -0.69623893
-3.6237755 2.4787505 -0.97261298
-1.8990116 1.2989701 -0.38357216
-1.8510131 1.266138 -0.24996531
-1.931603 1.3212634 -0.1307181
-14.507066 9.9231853 0
-47.954502 32.802044 3.2452433
-2.1140049 1.4422843 -0.84382808
-2.0493729 1.3981891 -0.68447286
-3.624671 2.4729395 -0.97205067
-1.8878605 1.2879969 -0.38100517
-1.8418607 1.2566134 -0.24852413
-1.933198 1.3189285 -0.1307181
-14.527644 9.9115162 0
-48.064926 32.792397 3.2500322
-2.1259611 1.4466799 -0.84790212
-2.0572853 1.3999473 -0.68655002
-3.6255579 2.4671299 -0.9714883
-1.893656 1.2886004 -0.38186029
-1.85834 1.2645684 -0.25054133
-1.9261973 1.3107442 -0.13013755
-14.700974 10.00376 0
-48.192589 32.794231 3.2559829
-2.1481619 1.4579929 -0.85605335
-2.0693524 1.4045036 -0.69001013
-3.622227 2.4584651 -0.9697991
-1.8739753 1.2718979 -0.37758142
-1.8341936 1.2448974 -0.24708293
-1.9342235 1.3127893 -0.13057254
-15.010193 10.187666 0
-48.341824 32.810394 3.2633846
-2.1048901 1.4249116 -0.83812255
-2.0897434 1.4146581 -0.69623893
-3.6188805 2.4498122 -0.96810991
-1.8861376 1.2768265 -0.37972087
-1.8356965 1.2426802 -0.24708293
-1.9358083 1.3104513 -0.13057254
-16.033194 10.853719 0
-48.510532 32.839352 3.2720923
-2.1209509 1.43205 -0.84382808
-2.0623465 1.3924806 -0.68655002
-3.6134148 2.4397502 -0.9658584
-1.8578978 1.2544385 -0.37373012
-1.8200477 1.2288824 -0.24477661
-1.93955 1.3095695 -0.1307181
-16.031204 10.824148 0
-48.610474 32.821423 3.2761562
-2.0919347 1.4087813 -0.83160597
-2.0785878 1.3997931 -0.69139314
-3.6226847 2.4396417 -0.9675476
-1.8977348 1.2780004 -0.38143271
-1.8322561 1.2339048 -0.24621779
-1.9281952 1.2985135 -0.12984699
-16.044271 10.80477 0
-48.710445 32.803303 3.2802203
-2.1120989 1.4186543 -0.83893991
-2.0448756 1.3735017 -0.67962706
-3.6340671 2.4409294 -0.9697991
-1.8673189 1.2542404 -0.37501445
-1.8595109 1.2489959 -0.2496773
-1.9232979 1.2918404 -0.129412
-16.061632 10.788275 0
-48.795341 32.774849 3.283268
-2.0871193 1.3982193 -0.82834613
-2.0611255 1.3808054 -0.68447286
-3.6285698 2.4308798 -0.9675476
-1.8475018 1.2376928 -0.37073395
-1.8180418 1.2179568 -0.24391145
-1.9119005 1.2808354 -0.12854087
-16.061687 10.760171 0
-45.737206 30.640627 3.0750031
-2.0867462 1.3943193 -0.82752877
-2.0669606 1.3810989 -0.68585587
-3.6315045 2.4264936 -0.9675476
-1.8959495 1.2668329 -0.38014841
-1.8496162 1.2358739 -0.24794699
-1.9091299 1.2756398 -0.12825087
-16.076839 10.742201 0
-45.746113 30.566574 3.0731165
-2.0637567 1.3753542 -0.81775236
-2.0707214 1.3799956 -0.68655002
-3.6365461 2.4235117 -0.96810991
-0 0 -0
-1.8209798 1.2135597 -0.24391145
-1.91283 1.2747717 -0.12839587
-16.065983 10.70689 0
-45.748417 30.48822 3.0707943
-2.0880535 1.3879055 -0.82671463
-2.0661173 1.373325 -0.68447286
-3.6225431 2.4078636 -0.96360683
-0 0 -0
-1.8439811 1.2256736 -0.24679382
-1.9165308 1.2738965 -0.12854087
-16.074577 10.68459 0
-45.778736 30.42861 3.0703595
-2.0691326 1.3717272 -0.8185665
-2.0656862 1.3694426 -0.68378139
-3.6106315 2.3936608 -0.95966828
-0 0 -0
-1.8174378 1.2048668 -0.2430463
-1.9050784 1.2629679 -0.12767032
-16.067957 10.652219 0
-45.795979 30.360352 3.0690532
-2.060482 1.3624114 -0.81449246
-2.0819821 1.3766274 -0.6886245
-3.6241164 2.3963022 -0.96248215
-0 0 -0
-1.8253669 1.2069509 -0.24391145
-1.9130993 1.2649604 -0.12810531
-16.059103 10.61844 0
-45.80228 30.284927 3.0670209
-2.1137078 1.3939371 -0.83486581
-2.0857444 1.3754959 -0.68931866
-1.8707701 1.2337258 -0.49643734
-0 0 -0
-1.8160299 1.197626 -0.24247026
-1.9124593 1.2612187 -0.12796031
-5.0139914 3.306601 0
-45.869213 30.249592 3.0690532
-2.1195166 1.3940959 -0.83649421
-0 0 -0
-1.8765093 1.2342597 -0.4975642
-1.8514761 1.2177943 -0.36945128
-1.7829006 1.1726893 -0.23785758
-1.9074752 1.2546273 -0.12752531
-0 0 0
-48.8624 32.13887 3.2667229
-2.0212085 1.327686 -0.79737902
-2.0840364 1.368956 -0.68793303
-1.8857495 1.2387059 -0.49981573
-1.8779502 1.2335827 -0.37458524
-1.8376516 1.2071115 -0.24506462
-1.9060547 1.252044 -0.12737976
-0 0 0
-48.831852 32.07653 3.2633846
-2.0827646 1.364521 -0.8210122
-2.0731018 1.3581904 -0.68378139
-1.8999931 1.2447784 -0.50319195
-1.7377315 1.1384728 -0.34634188
-1.8218007 1.1935508 -0.24275827
-1.8988721 1.2440441 -0.1267992
-0 0 0
-48.874928 32.020355 3.2636752
-2.0099258 1.3133324 -0.79167348
-2.1041398 1.374894 -0.6934703
-1.8972374 1.2396992 -0.50206512
-1.7455465 1.1405809 -0.34762454
-1.779937 1.1630524 -0.23699243
-1.8894998 1.2346432 -0.12607364
-0 0 0
-46.975536 30.694914 3.1343625
-1.9700974 1.2839135 -0.77537417
-2.0763781 1.3531766 -0.68378139
-1.8966073 1.23602 -0.50150275
-1.8178935 1.1847221 -0.36174706
-1.8008415 1.1736093 -0.23958679
-1.8888154 1.2309419 -0.12592864
-4.938139 3.2181876 0
-47.021301 30.643805 3.134943
-1.9840852 1.2896165 -0.78026551
-2.0864255 1.3561356 -0.68655002
-1.9002278 1.2351108 -0.50206512
-1.8085639 1.175531 -0.35960764
-1.8087661 1.1756625 -0.24045193
-1.8881247 1.227244 -0.12578364
-4.9354839 3.2079678 0
-47.047401 30.579887 3.1342173
-1.9877139 1.2885613 -0.78107971
-2.0670073 1.3399642 -0.67962706
-1.8889303 1.2245235 -0.49868888
-1.7022846 1.1035279 -0.33821008
-1.7841413 1.1565927 -0.23699243
-1.8917845 1.2263738 -0.12592864
-4.9284396 3.1949248 0
-4.9331608 3.1979852 0.32838106
-2.0370016 1.3170197 -0.79982156
-2.0770519 1.3429141 -0.6823957
-1.8904085 1.2222402 -0.49868888
-0 0 -0
-1.7833676 1.1530331 -0.23670441
-1.897625 1.2269059 -0.12621865
-4.9213629 3.1818981 0
-4.9086561 3.1736827 0.3264944
-2.0552089 1.325273 -0.80634129
-0 0 -0
-1.8726673 1.2075635 -0.49362347
-1.7739838 1.1439288 -0.35190505
-1.765198 1.1382635 -0.23411006
-1.8969244 1.2232053 -0.12607364
-4.9230189 3.1745403 0
-0 0 0
-2.0609705 1.3254652 -0.80797279
-0 0 -0
-1.8890866 1.2149221 -0.4975642
-1.7732077 1.1403972 -0.35147747
-1.7991972 1.1571118 -0.23843361
-1.8918424 1.2166944 -0.12563808
-4.924664 3.1671832 0
-0 0 0
-2.0584056 1.3203025 -0.80634129
-0 0 -0
-1.87558 1.2030345 -0.49362347
-1.7832274 1.1437976 -0.35318935
-1.776652 1.1395801 -0.23526323
-1.8933111 1.2144076 -0.12563808
-0 0 0
-0 0 0
-2.0704076 1.3244727 -0.81041533
-0 0 -0
-1.870609 1.1966583 -0.49193427
-1.74568 1.1167392 -0.34548512
-1.8172419 1.1625185 -0.24045193
-1.8991592 1.2149222 -0.12592864
-0 0 0
-0 0 0
-2.1011815 1.340584 -0.8218264
-0 0 -0
-1.8806218 1.1998638 -0.49418581
-1.801129 1.1491462 -0.35618389
-1.7968446 1.1464127 -0.23756957
-1.8721504 1.194459 -0.12404197
-0 0 0
-0 0 0
-2.1194818 1.3486592 -0.82834613
-0 0 -0
-1.8713537 1.1907715 -0.49137193
-1.8241781 1.1607529 -0.36046439
-1.7807713 1.1331325 -0.23526323
-1.8626331 1.1852224 -0.12331641
-0 0 0
-0 0 0
-2.1044149 1.3355024 -0.8218264
-2.088336 1.3252983 -0.6823957
-1.8727912 1.1885095 -0.49137193
-1.7735606 1.1255357 -0.35019317
-1.7865026 1.133749 -0.23583926
-1.8552881 1.1774017 -0.12273585
-0 0 0
-4.9419074 3.13623 0.32692996
-2.1143811 1.338246 -0.82508624
-2.0687416 1.3093596 -0.67547542
-1.8677828 1.1821676 -0.48968273
-1.8551743 1.1741874 -0.36602753
-1.7791291 1.1260564 -0.23468609
-1.86329 1.179324 -0.12317085
-0 0 0
-4.9522738 3.1344213 0.32736495
-2.1243565 1.3409674 -0.82834613
-2.0957797 1.3229287 -0.68378139
-1.8670633 1.178555 -0.48912039
-1.7741067 1.1198776 -0.3497656
-1.7783034 1.1225266 -0.23439807
-1.8537291 1.170138 -0.12244529
-0 0 0
-4.949472 3.1242781 0.32692996
-2.1134214 1.3304963 -0.82345474
-2.0931263 1.3177196 -0.6823957
-1.8577367 1.169531 -0.48630649
-1.7189715 1.0821718 -0.33863765
-1.7862271 1.1245123 -0.23526323
-1.8683398 1.1762061 -0.12331641
-1.9070829 1.2005967 0
-4.9466448 3.114141 0.3264944
-2.1485193 1.3489697 -0.83649421
-2.0139828 1.2644997 -0.65609491
-1.8548405 1.1645806 -0.48517963
-1.7376703 1.0910141 -0.34206137
-1.7853961 1.1209792 -0.2349752
-1.860957 1.1684209 -0.12273585
-0 0 0
-4.9394026 3.1012545 0.32576883
-2.1304896 1.3358558 -0.82916027
-1.9361048 1.213973 -0.63048559
-1.8663137 1.1702126 -0.48799568
-1.7492099 1.0967865 -0.34420246
-1.7948384 1.1253964 -0.23612837
-1.8682607 1.1714336 -0.12317085
-1.8607434 1.16672 0
-4.9434748 3.0996487 0.32591382
-2.1509607 1.3450735 -0.83649421
-1.9077948 1.1930131 -0.62079662
-1.8741831 1.1719944 -0.48968273
-1.7810013 1.1137245 -0.35019317
-1.7874249 1.1177413 -0.2349752
-1.8608623 1.1636643 -0.1225903
-1.8687737 1.1686118 0
-4.9472165 3.0936732 0.32591382
-2.1295133 1.3280851 -0.82752877
-1.8709221 1.1668129 -0.60833907
-1.8691361 1.1656991 -0.48799568
-1.8019474 1.1237963 -0.35404447
-1.7887741 1.1155808 -0.2349752
-1.8600643 1.1600413 -0.12244529
-1.8790174 1.1718616 0
-4.9421315 3.0821931 0.32533327
-2.1374147 1.3294283 -0.82997447
-1.8382455 1.1433512 -0.59726447
-1.8511187 1.151358 -0.4829281
-1.7858653 1.1107718 -0.35062072
-1.7879182 1.1120486 -0.23468609
-1.8548515 1.1536797 -0.12201029
-1.8870639 1.1737152 0
-4.9436479 3.0748482 0.32518828
-2.1516256 1.3346643 -0.83486581
-1.8588109 1.1530299 -0.60349327
-1.8589883 1.1531399 -0.48461729
-1.7893854 1.109965 -0.35104829
-1.7694811 1.0976181 -0.23209174
-1.8496176 1.1473273 -0.12157474
-1.8530955 1.1494846 0
-4.9451537 3.0675042 0.32504326
-2.1301136 1.3177589 -0.82590044
-1.8367403 1.1362684 -0.59588146
-1.8538957 1.1468812 -0.4829281
-1.7492528 1.0821458 -0.34291813
-1.7818019 1.1022817 -0.23353292
-1.8510026 1.1450915 -0.12157474
-1.8677583 1.1554571 0
-4.9488568 3.0615265 0.32504326
-2.125392 1.3112895 -0.82345474
-1.842378 1.1366802 -0.59726447
-1.868259 1.1526479 -0.48630649
-1.7876973 1.1029443 -0.35019317
-1.7677301 1.0906253 -0.23151571
-1.8523848 1.1428541 -0.12157474
-1.873587 1.155935 0
-4.9481254 3.0528133 0.32475272
-2.1059284 1.2957706 -0.81530666
-1.8330687 1.1278811 -0.5938043
-1.8523378 1.1397372 -0.48180342
-1.8043354 1.1102015 -0.35318935
-1.7712474 1.0898426 -0.23180372
-1.8648276 1.1474222 -0.12230029
-1.8860629 1.1604881 0
-4.9473882 3.0441115 0.32446271
-2.1343517 1.3061594 -0.82508624
-1.8293673 1.119518 -0.5917272
-1.8464175 1.1299523 -0.47955188
-1.7916837 1.0964568 -0.35019317
-1.8091744 1.1071606 -0.2364164
-1.8498642 1.1320615 -0.12113918
-1.9044026 1.1654375 0
-4.9458647 3.0267212 0.32388216
-2.1211581 1.2945651 -0.8193807
-1.8307188 1.1173068 -0.5917272
-1.8499484 1.1290429 -0.48011422
-1.7864314 1.0902778 -0.34890884
-1.79726 1.0968866 -0.23468609
-1.8490149 1.1284732 -0.12099418
-1.8302842 1.1170416 0
-4.9384308 3.0139759 0.3231566
-2.0783861 1.2650166 -0.80226719
-1.8213544 1.1085733 -0.58826703
-1.8296107 1.1135986 -0.47448647
-1.7724041 1.0787796 -0.3459143
-1.7941694 1.0920272 -0.23411006
-1.8525946 1.1275878 -0.12113918
-1.8849783 1.1472983 0
-4.9487214 3.0120556 0.32359159
-2.0418861 1.239422 -0.78759938
-1.8162566 1.1024653 -0.58618987
-1.8396432 1.1166608 -0.47673801
-1.7868687 1.0846268 -0.3484813
-1.8131759 1.1005952 -0.2364164
-1.8517365 1.1240015 -0.12099418
-1.8529987 1.1247677 0
-4.9501381 3.0047269 0.3234466
-1.9503493 1.1806368 -0.75174093
-1.8132992 1.097674 -0.58480686
-1.8366396 1.1118031 -0.47561115
-1.7815877 1.0784775 -0.347197
-1.7945927 1.0863501 -0.23382205
-1.8442018 1.1163807 -0.12041362
-1.8320886 1.1090481 0
-4.9604359 3.0027816 0.32388216
-1.8671455 1.1271892 -0.71914548
-1.8038876 1.0890005 -0.58134675
-1.8401632 1.1108999 -0.47617567
-1.7850851 1.0776495 -0.34762454
-1.8091854 1.0921987 -0.23555124
-1.8499941 1.1168349 -0.12070362
-1.8401134 1.1108699 0
-4.9173479 2.9685853 0.32083437
-1.8600364 1.119833 -0.71588558
-1.8052021 1.08682 -0.58134675
-1.8480284 1.1126035 -0.47786269
-1.7973886 1.0821159 -0.3497656
-1.7949904 1.0806721 -0.23353292
-1.8424376 1.1092377 -0.12012306
-0 0 0
-0 0 0
-1.833843 1.1010464 -0.70529181
-1.8129604 1.0885085 -0.58342123
-1.8384814 1.1038314 -0.47504881
-1.8030922 1.0825835 -0.35062072
-1.8051649 1.0838281 -0.23468609
-1.8526876 1.1123608 -0.12070362
-1.8405635 1.1050814 0
-0 0 0
-1.8330536 1.0975614 -0.70447767
-1.8013639 1.0785868 -0.57926959
-1.8310939 1.096388 -0.47279727
-1.7999983 1.0777692 -0.3497656
-1.7865034 1.0696889 -0.23209174
-1.8451129 1.104782 -0.12012306
-1.8374275 1.1001803 0
-0 0 0
-1.8195219 1.0864745 -0.69877207
-1.8069696 1.0789794 -0.58065259
-1.8280584 1.0915718 -0.47167256
-1.8035012 1.0769082 -0.35019317
-1.8144431 1.0834419 -0.23555124
