# .PCD v0.7 - Point Cloud Data file format
VERSION 0.7
FIELDS x y z
SIZE 4 4 4
TYPE F F F
COUNT 1 1 1
WIDTH 1653
HEIGHT 1
VIEWPOINT 0 0 0 1 0 0 0
POINTS 1653
DATA ascii
-6.8680959 15.637402 0
-7.6867023 17.501219 1.0676833
-0 0 -0
-6.8974776 15.652903 0
-7.754993 17.598919 1.0742145
-0 0 -0
-6.9321718 15.680263 0
-7.8792114 17.822424 1.0884373
-6.946331 15.661093 -0.95695406
-6.9574423 15.686145 0
-7.8817749 17.770132 1.0858245
-6.985322 15.697797 -0.95971185
-6.9816799 15.689612 0
-7.2271771 16.241308 0.99294025
-6.9873362 15.651381 -0.95738959
-7.0154877 15.71444 0
-7.2139621 16.159016 0.98844135
-6.9903097 15.607353 -0.95521235
-7.0387259 15.715452 0
-7.2239232 16.128946 0.98713523
-7.0598407 15.711679 0
-7.249795 16.134422 0.98800582
-0 0 -0
-7.0852394 15.717378 0
-7.2586083 16.101965 0.98655468
-0 0 -0
-7.1339521 15.723905 0
-7.8181601 17.231964 1.0569433
-0 0 -0
-7.1477571 15.729069 0
-7.8221216 17.213049 1.0560727
-0 0 -0
-7.1829476 15.755935 0
-7.8353682 17.187031 1.0550566
-7.2019806 15.747244 0
-7.8636961 17.194096 1.0560727
-7.2210026 15.73853 0
-7.8909655 17.198746 1.0569433
-7.2541633 15.760533 0
-7.9128304 17.191566 1.0570889
-7.2764711 15.758838 0
-7.9477572 17.212658 1.0589756
-7.3042583 15.768927 0
-7.4640031 16.113794 0.99192417
-7.3101463 15.731768 0
-7.4867539 16.111835 0.9923597
-7.3368473 15.739437 0
-7.5062165 16.102777 0.9923597
-7.3635778 15.747065 0
-7.5223651 16.086632 0.99192417
-7.3859124 15.745217 0
-7.5417972 16.077532 0.99192417
-7.4093642 15.745701 0
-7.5612183 16.068407 0.99192417
-7.4428258 15.767329 0
-7.5850649 16.068657 0.99250472
-7.4752374 15.786551 0
-7.6055903 16.061836 0.99265027
-7.4987731 15.786909 0
-9.1322308 19.225771 1.1888683
-7.5223212 15.787235 0
-9.1386919 19.179543 1.1866915
-7.5447593 15.785181 0
-9.1506529 19.145039 1.1852399
-7.5705757 15.790129 0
-9.1681633 19.122255 1.1845143
-7.5930343 15.788008 0
-9.1957674 19.120529 1.185095
-7.6381106 15.832726 0
-8.8259792 18.29501 1.1345892
-7.6980467 15.907821 0
-8.8378925 18.263283 1.133283
-7.7604461 15.98747 0
-8.8554153 18.24324 1.1327025
-7.8276272 16.076395 -0.998752
-7.8230491 16.066992 0
-8.8808661 18.239538 1.1331381
-7.8059988 15.98288 -0.99352753
-7.8538761 16.080908 0
-8.8949146 18.212448 1.1321219
-7.808157 15.938432 -0.99135029
-7.9419932 16.211624 0
-8.916914 18.201687 1.1321219
-7.8239751 15.921995 -0.9909153
-7.961576 16.202017 0
-8.925149 18.162914 1.1303803
-7.8523941 15.931167 -0.99207586
-8.044426 16.320766 0
-9.3996906 19.070368 1.1875621
-7.856668 15.891388 -0.99018919
-8.0814428 16.346031 0
-9.4227266 19.058996 1.1875621
-7.867424 15.888974 -0.99033475
-8.0843897 16.327156 0
-9.4388514 19.062614 1.1881427
-7.9051056 15.916683 -0.99265641
-8.1087379 16.326691 0
-9.4491673 19.025602 1.1865466
-7.9139056 15.886189 -0.99135029
-8.1389074 16.337852 0
-9.4987946 19.067657 1.1898843
-7.9389009 15.888235 -0.99207586
-8.1667824 16.344297 0
-9.5357637 19.084061 1.1916261
-7.9476161 15.857726 -0.99076974
-8.1935234 16.348381 0
-9.5541592 19.063232 1.1910455
-7.9854441 15.885257 -0.99309194
-9.6065102 19.110006 0
-9.5970259 19.091139 1.1935127
-7.9765558 15.819912 -0.98960865
-9.6483364 19.135555 0
-9.6200867 19.079529 1.1935127
-8.0238094 15.865913 -0.99309194
-9.6679306 19.116924 0
-9.6560345 19.093399 1.1951094
-8.0394468 15.849252 -0.99265641
-9.7145643 19.151638 0
-9.6732168 19.070126 1.1943833
-8.0397434 15.80248 -0.99033475
-9.7483225 19.160769 0
-8.6806335 17.062178 1.0692794
-8.0493832 15.774238 -0.98917359
-9.7785625 19.16288 0
-8.7177811 17.084084 1.0713117
-8.0601492 15.748306 -0.98815751
-9.8289785 19.204329 0
-8.7301292 17.057344 1.0702956
-8.0874805 15.75474 -0.98917359
-9.845047 19.178551 0
-8.742425 17.0306 1.0692794
-8.0922375 15.717234 -0.98743194
-9.8836994 19.196718 0
-8.7558622 17.006166 1.0684088
-8.1088362 15.702822 -0.98714137
-9.911664 19.194012 0
-8.7871342 17.016352 1.069715
-8.1337824 15.704556 -0.98786747
-9.9360447 19.18433 0
-8.8064947 17.003416 1.0695701
-8.1311893 15.653206 -0.9852547
-9.9820127 19.216192 0
-13.815689 26.596334 1.6740446
-8.1561041 15.654899 -0.98598081
-12.483397 23.960741 0
-13.828607 26.542749 1.6717223
-8.1665888 15.628908 -0.98496473
-12.509931 23.941032 0
-13.852247 26.509907 1.6707067
-8.1806421 15.609823 -0.98438418
-12.558178 23.96278 0
-13.88306 26.490843 1.6705612
-8.1910343 15.583824 -0.98336804
-12.606492 23.98444 0
-13.911435 26.467154 1.6701262
-8.2038012 15.562425 -0.98264247
-12.656094 24.008324 0
-13.944616 26.452621 1.6702712
-8.2104559 15.529533 -0.98119134
-12.705771 24.032125 0
-13.974137 26.431154 1.6699806
-8.2523394 15.563213 -0.98394859
-12.762842 24.069639 0
-13.328078 25.135626 1.5891426
-8.2308779 15.477524 -0.97915912
-12.795584 24.061096 0
-13.353559 25.110327 1.588562
-8.2512236 15.493196 -0.98046583
-12.827243 24.085516 0
-14.591325 27.397907 1.7338393
-8.2601442 15.464878 -0.97930467
-12.86982 24.095243 0
-14.628089 27.387125 1.7342743
-8.2849588 15.466337 -0.98003024
-12.897696 24.077383 0
-14.666078 27.378592 1.7348548
-8.2901125 15.431133 -0.97843355
-12.913236 24.03657 0
-14.718824 27.397476 1.737177
-8.3099833 15.42339 -0.97857857
-12.927457 23.993456 0
-13.943436 25.87912 1.6419705
-8.3076143 15.374477 -0.97611135
-12.945305 23.957214 0
-13.977163 25.866821 1.6422606
-8.3088551 15.332449 -0.97407967
-12.961841 23.918669 0
-14.014597 25.861334 1.6429861
-8.306283 15.283587 -0.97161245
-12.980791 23.884697 0
-14.038393 25.830687 1.6421156
-8.3620491 15.341983 -0.97596633
-13.013379 23.875851 0
-15.035784 27.58639 1.7548832
-8.3841114 15.294388 -0.97422469
-13.079798 23.860312 0
-15.083668 27.515793 1.7527059
-8.4088478 15.295637 -0.97495079
-13.112376 23.851324 0
-15.133177 27.527147 1.7545927
-8.3984671 15.233127 -0.97161245
-13.156264 23.862812 0
-15.173957 27.522499 1.7554637
-8.4105825 15.211599 -0.97088689
-13.198942 23.871952 0
-15.212231 27.513239 1.7560443
-8.4402952 15.221876 -0.972193
-13.254278 23.903782 0
-15.250504 27.503929 1.7566248
-8.4447899 15.186684 -0.97059631
-13.289474 23.899118 0
-15.291301 27.499102 1.7574954
-8.4568071 15.165124 -0.96987075
-13.332286 23.908049 0
-15.305537 27.446571 1.7553188
-8.4573717 15.123148 -0.96783906
-13.368783 23.905546 0
-15.36659 27.477947 1.7585115
-8.4934311 15.144643 -0.96987075
-13.407843 23.907534 0
-15.403589 27.466152 1.7589465
-8.4938936 15.102666 -0.96783906
-13.434167 23.886774 0
-15.455873 27.481493 1.7611238
-8.4993734 15.069763 -0.96638799
-13.465579 23.875063 0
-15.494174 27.471851 1.7617043
-8.5265274 15.075308 -0.96740353
-13.502102 23.872362 0
-15.545264 27.48477 1.763736
-8.5229445 15.026573 -0.96493632
-11.571709 20.401768 0
-15.584871 27.477264 1.7644615
-8.5449505 15.023042 -0.96537185
-11.601499 20.396818 0
-15.639899 27.496809 1.7669288
-8.548933 14.987876 -0.96377516
-11.613244 20.360184 0
-15.673112 27.477892 1.7669288
-8.5657482 14.975282 -0.9636302
-11.641714 20.352917 0
-11.643832 20.356619 1.3099087
-8.5631714 14.949814 -0.96232408
-11.637194 20.316525 0
-11.661295 20.358599 1.3104893
-8.5876989 14.95072 -0.96304965
-13.839327 24.093517 0
-15.939819 27.750362 1.7875378
-8.6096506 14.947089 -0.96348518
-13.864531 24.070011 0
-15.997982 27.773865 1.7902956
-8.6134071 14.911922 -0.96188849
-13.911831 24.084795 0
-16.065319 27.813011 1.7940689
-8.6249075 14.890264 -0.96116298
-13.957878 24.09724 0
-16.108027 27.809313 1.7950845
-8.6272326 14.852868 -0.95942128
-13.99352 24.091608 0
-16.158583 27.819036 1.7969711
-8.64256 14.837947 -0.9591313
-14.027859 24.083677 0
-16.207878 27.826435 1.7987128
-8.6657238 14.836468 -0.95971185
-14.076633 24.100412 0
-16.255905 27.831514 1.8003095
-8.6757631 14.812529 -0.95884073
-14.120214 24.108089 0
-16.315788 27.856695 1.8032123
-8.6870756 14.790834 -0.95811516
-14.158561 24.106722 0
-16.359959 27.854877 1.8043728
-8.697032 14.766897 -0.95724463
-14.202203 24.114258 0
-16.423933 27.886587 1.8077111
-8.7003326 14.731765 -0.95564795
-14.247211 24.12397 0
-16.469509 27.886856 1.8090173
-8.7221003 14.72795 -0.95608348
-14.292263 24.133608 0
-16.517757 27.891531 1.810614
-8.7186613 14.681654 -0.95376128
-14.34533 24.156595 0
-16.554098 27.876017 1.8109039
-8.743041 14.682269 -0.95448685
-14.381165 24.150423 0
-16.587769 27.855993 1.8109039
-8.7487869 14.651617 -0.95318073
-14.427679 24.162073 0
-16.620085 27.833702 1.8107589
-8.7784967 14.661098 -0.95448685
-14.47959 24.182579 0
-16.64436 27.797991 1.8097428
-8.7480583 14.57029 -0.94926238
-14.527557 24.196308 0
-16.675262 27.773409 1.8094529
-8.772357 14.570837 -0.94998789
-14.575573 24.209946 0
-16.718187 27.768816 1.8104684
-8.7698116 14.526856 -0.94781071
-14.62768 24.23019 0
-16.766502 27.773067 1.8120651
-8.7927408 14.525141 -0.94839126
-14.665035 24.225861 0
-16.820232 27.786133 1.8142424
-8.7994986 14.496736 -0.9472301
-14.709147 24.232588 0
-16.867275 27.787998 1.8156934
-8.838624 14.521607 -0.94955236
-14.758715 24.248146 0
-16.921101 27.800884 1.8178701
-8.8114948 14.437725 -0.94476289
-14.808335 24.263611 0
-16.980402 27.822563 1.8206279
-8.833004 14.433719 -0.94519848
-14.848511 24.263458 0
-17.028929 27.826406 1.8222246
-8.8172865 14.388504 -0.94258624
-14.872686 24.27002 0
-17.062023 27.842691 1.8239657
-8.838748 14.384483 -0.94302177
-14.933334 24.303022 0
-17.1147 27.853054 1.8259979
-8.8574839 14.376003 -0.94316679
-14.976343 24.307123 0
-17.163334 27.856682 1.827594
-8.892601 14.394026 -0.94505346
-15.02485 24.320002 0
-17.218832 27.871294 1.8299162
-8.8963003 14.361176 -0.94360179
-15.058337 24.308468 0
-17.293545 27.916731 1.8342701
-8.8903408 14.312895 -0.94113457
-15.083578 24.283621 0
-17.369768 27.964243 1.8387697
-8.9158735 14.31538 -0.94200563
-15.119786 24.276421 0
-17.418652 27.967491 1.8403658
-8.9262838 14.293578 -0.94128013
-15.168406 24.289034 0
-17.462067 27.961853 1.8413819
-8.9338932 14.267365 -0.94026399
-10.731211 17.137667 0
-17.509628 27.962753 1.8428329
-8.9566526 14.265362 -0.94084454
-10.724238 17.080614 0
-17.564131 27.974586 1.8450102
-8.9558878 14.225945 -0.93895787
-10.712978 17.016987 0
-17.613144 27.977526 1.8466064
-8.9841671 14.232691 -0.94011897
-10.726587 16.993029 0
-17.667742 27.989185 1.8487836
-8.970788 14.173525 -0.93692619
-10.731801 16.955864 0
-17.725172 28.00514 1.8512508
-8.9990406 14.180219 -0.93808675
-10.749495 16.938494 0
-17.782665 28.020998 1.853718
-9.0217476 14.178103 -0.9386673
-10.760172 16.91012 0
-17.838831 28.034567 1.8560402
-9.0318861 14.156241 -0.93794173
-10.761003 16.866394 0
-17.895048 28.048033 1.858362
-9.0545855 14.154074 -0.93852234
-10.775764 16.84461 0
-17.952728 28.063597 1.8608291
-9.0660696 14.134374 -0.93794173
-10.783465 16.811865 0
-18.004868 28.070324 1.8627164
-9.0873594 14.129968 -0.93837732
-10.786879 16.772556 0
-18.057041 28.076958 1.864603
-9.0833015 14.086218 -0.93620008
-10.798677 16.746391 0
-18.116299 28.094423 1.8672153
-9.1130171 14.094877 -0.93750674
-10.814664 16.726772 0
-18.168571 28.100878 1.869102
-4.2340617 6.5313959 -0.43476927
-10.823542 16.696222 0
-18.222298 28.109425 1.8711337
-4.2370663 6.501554 -0.43346316
-10.842548 16.637318 0
-18.344084 28.148027 1.8766487
-4.2896218 6.5648427 -0.87408596
-4.2292824 6.4724998 -0.43186647
-10.861216 16.622021 0
-18.403664 28.164991 1.8792609
-4.2932973 6.5531621 -0.87322086
-4.2314095 6.4586992 -0.43128648
-10.874163 16.598001 0
-18.457621 28.173168 1.8812932
-4.3029304 6.5592179 -0.87437397
-4.2196312 6.43224 -0.42968979
-10.871343 16.571846 0
-18.498867 28.198944 1.8837603
-4.309433 6.5518551 -0.87408596
-4.2059803 6.3945708 -0.42751259
-10.88278 16.545656 0
-18.551487 28.204792 1.8856471
-4.3173466 6.5466433 -0.87408596
-4.2337341 6.419857 -0.42954481
-10.895597 16.521626 0
-18.609871 28.219231 1.8881142
-4.3052845 6.5112209 -0.87005043
-4.2328863 6.4017277 -0.42867368
-10.912683 16.50411 0
-18.652552 28.209723 1.8889848
-4.3202934 6.5167909 -0.87149161
-4.2320065 6.3836179 -0.42780313
-10.935491 16.495247 0
-18.705288 28.215317 1.8908715
-4.3281646 6.5115657 -0.87149161
-4.222456 6.3525314 -0.42606145
-10.951097 16.475525 0
-18.750874 28.210007 1.8920326
-4.3259873 6.4912629 -0.86947328
-4.2258043 6.3409362 -0.42562589
-10.969548 16.46011 0
-22.231665 33.359226 2.2391884
-4.3266439 6.4752803 -0.8680321
-4.2248044 6.3228664 -0.42475533
-10.980757 16.433865 0
-22.269072 33.328022 2.2388983
-4.334465 6.4700475 -0.8680321
-4.2425661 6.3328705 -0.42577145
-11.000606 16.420584 0
-22.316555 33.311882 2.239624
-4.3480482 6.4733939 -0.86918527
-4.241519 6.3147931 -0.42490035
-11.016085 16.400797 0
-21.249933 31.636999 2.1287429
-4.3587537 6.4724221 -0.86976135
-4.2375345 6.2924213 -0.42373922
-4.3288431 6.4280071 0
-25.15604 37.354832 2.5155194
-4.3723607 6.4757252 -0.87091452
-4.2480459 6.2916074 -0.4240298
-4.336607 6.4227719 0
-25.190983 37.309341 2.514504
-4.3830848 6.4747252 -0.87149161
-4.2396202 6.2627983 -0.42243311
-4.3385286 6.4089069 0
-25.227304 37.265961 2.5136328
-4.3938069 6.4737005 -0.87206769
-4.2355103 6.2404709 -0.42127201
-4.3389635 6.3928952 0
-24.550024 36.171253 2.4417925
-4.408906 6.4790845 -0.87350994
-4.2298927 6.2160168 -0.41996589
-4.356935 6.4027109 0
-24.636105 36.203857 2.4460013
-4.4283872 6.4908371 -0.87581521
-4.2271481 6.1958737 -0.41894975
-0 0 0
-24.70912 36.216995 2.4489043
-4.440609 6.491888 -0.87668031
-4.2272978 6.1800399 -0.41822422
-0 0 0
-24.782204 36.230007 2.451807
-4.4806299 6.5334411 -0.88302225
-4.2303572 6.1685052 -0.41778919
-4.3506775 6.3439498 0
-24.877396 36.275032 2.4568865
-4.5251555 6.5813026 -0.89022923
-4.2230825 6.1419735 -0.41633752
-4.3465438 6.3215322 0
-24.940346 36.272778 2.4587731
-4.5565925 6.6099024 -0.89484191
-4.2083831 6.1047816 -0.41416085
-4.3231611 6.2712812 0
-25.019552 36.293961 2.4622564
-4.5866361 6.6363096 -0.89916658
-4.2290516 6.1189284 -0.41546696
-4.3203764 6.2510643 0
-25.109182 36.329964 2.4667554
-0 0 -0
-4.2112842 6.0775075 -0.41299975
-4.3294129 6.2479849 0
-25.173779 36.329494 2.468787
-0 0 -0
-4.2393775 6.1022863 -0.4150314
-0 0 0
-25.238415 36.32893 2.4708192
-4.5431495 6.5311208 -0.88676977
-4.2208099 6.0677333 -0.41285473
-0 0 0
-25.295965 36.364861 2.4743021
-4.5303268 6.4959292 -0.88273418
-4.2340784 6.071146 -0.41343474
-0 0 0
-25.375561 36.385422 2.4777853
-4.5070496 6.4459386 -0.87668031
-4.2175932 6.0319614 -0.41111305
-4.3274612 6.1890936 0
-25.45673 36.40797 2.4814138
-4.4673305 6.3727226 -0.86745608
-4.2368112 6.0438828 -0.41227418
-4.3259759 6.1710777 0
-25.537991 36.430374 2.4850421
-4.414052 6.2805605 -0.85563636
-4.2306595 6.0196195 -0.4109675
-4.3154721 6.1402955 0
-25.592445 36.414364 2.4860578
-0 0 -0
-4.40376 6.2498507 -0.85217685
-4.2334442 6.0081367 -0.4105325
-4.3048997 6.1095476 0
-25.675343 36.438648 2.4898317
-0 0 -0
-4.4232473 6.261425 -0.85448319
-4.2302046 5.9881592 -0.40951639
-4.327292 6.1255932 0
-25.747835 36.447914 2.4925888
-0 0 -0
-4.4906001 6.340497 -0.86601382
-4.2224216 5.9618425 -0.40806529
-4.3166404 6.0948749 0
-25.836908 36.480389 2.4969428
-4.5356932 6.3877873 -0.87322086
-4.2461662 5.9800353 -0.40966138
-0 0 0
-25.897518 36.47245 2.4985394
-4.5809064 6.4349775 -0.88042784
-4.2368169 5.9516211 -0.40806529
-4.328341 6.0801892 0
-25.971708 36.483467 2.5014422
-4.6097174 6.4589162 -0.8844645
-4.2349453 5.9338031 -0.40719417
-4.3356848 6.0749545 0
-26.050486 36.500698 2.5047801
-4.6355734 6.4785748 -0.88792294
-4.2421117 5.9286819 -0.40719417
-4.3218231 6.0400844 0
-26.141439 36.534698 2.5092788
-4.6554589 6.4897823 -0.89022923
-4.2310972 5.8982153 -0.40545249
-4.3275967 6.0327373 0
-26.202229 36.526314 2.5108755
-4.6617885 6.4820547 -0.88994122
-4.242774 5.8994288 -0.40588805
-4.3303289 6.0211711 0
-4.4657149 6.2094212 0.42721587
-4.6620555 6.465929 -0.88850003
-4.2423019 5.8837619 -0.40516248
-4.3345542 6.0117083 0
-4.4549785 6.1787281 0.4254742
-4.657743 6.4435215 -0.88619369
-4.2387509 5.8638883 -0.40414637
-4.3326702 5.9938159 0
-4.4563518 6.164917 0.42489365
-4.662487 6.4336963 -0.8856166
-4.2549849 5.8713903 -0.4050175
-4.3292179 5.9738231 0
-4.4439769 6.1321774 0.42300698
-4.6626573 6.4175973 -0.88417536
-4.2467999 5.8452191 -0.40356582
-4.3333764 5.9643807 0
-4.4406962 6.1120939 0.42199141
-4.6384306 6.3680568 -0.87812155
-4.2492747 5.8337884 -0.40313083
-4.3221927 5.933897 0
-4.4404244 6.0962162 0.4212653
-4.2403994 5.8068471 -0.80143964
-4.2609134 5.834939 -0.40356582
-0 0 0
-4.4385958 6.0782595 0.42039475
-2.383373 3.2555492 -0.89381343
-4.2413011 5.7933712 -0.80028647
-4.2679605 5.8297863 -0.40356582
-0 0 0
-4.4397974 6.0645051 0.4198142
-2.4038441 3.2752011 -0.9000057
-4.2498331 5.7903333 -0.80057555
-4.2565579 5.7994957 -0.40182471
-0 0 0
-4.4425077 6.0528498 0.41937864
-2.4303839 3.3029869 -0.90844738
-4.2445631 5.7685275 -0.79826921
-4.268178 5.800621 -0.40225971
-0 0 0
-4.4405813 6.034924 0.41850808
-2.4328661 3.2980049 -0.90788502
-4.2469225 5.7571483 -0.79740405
-4.2566733 5.7703667 -0.40051803
-0 0 0
-4.4463291 6.0274649 0.41836306
-2.4393885 3.3026681 -0.90957421
-4.2473297 5.7504244 -0.79682803
-4.2694244 5.7803388 -0.40138915
-0 0 0
-4.4499698 6.0247774 0.41836306
-2.4403503 3.2956302 -0.90844738
-4.2542748 5.7452884 -0.79682803
-4.2624903 5.7563834 -0.40008304
-0 0 0
-4.4386907 5.9943371 0.41662139
-2.4428174 3.2906408 -0.90788502
-4.2581272 5.7359862 -0.79625094
-4.2709899 5.7533131 -0.40022802
-0 0 0
-4.44593 5.9889693 0.41662139
-2.4467919 3.2876868 -0.90788502
-4.2588782 5.722537 -0.79509777
-4.2779388 5.7481484 -0.40022802
-0 0 0
-4.4376469 5.9627438 0.41516972
-2.4522805 3.2867625 -0.90844738
-4.2611537 5.7111735 -0.79423368
-4.2786655 5.7346444 -0.39964747
-0 0 0
-4.4370804 5.9469662 0.41444418
-2.4562502 3.283797 -0.90844738
-4.2603011 5.6956592 -0.79279143
-4.2824817 5.7253127 -0.39935747
-0 0 0
-4.4380374 5.9332776 0.4138636
-2.4632678 3.2848961 -0.90957421
-4.2640796 5.6863723 -0.79221535
-4.2909541 5.7222109 -0.39950246
-0 0 0
-4.4483242 5.9320722 0.41415417
-2.4641786 3.2778516 -0.90844738
-4.2709475 5.6812158 -0.79221535
-4.2900596 5.7066393 -0.39877692
-4.4003725 5.8533773 0
-4.4461174 5.914227 0.41328305
-2.4757824 3.2850156 -0.91126126
-4.2746925 5.671916 -0.79163826
-4.2969518 5.7014513 -0.39877692
-0 0 0
-4.4470043 5.9005499 0.4127025
-2.4782197 3.2799962 -0.91069889
-4.2768693 5.6605616 -0.79077417
-4.2866054 5.6734476 -0.39718023
-0 0 0
-4.4494362 5.8889589 0.41226751
-2.4821811 3.2769995 -0.91069889
-4.2727728 5.6409554 -0.78875583
-4.2950249 5.6703334 -0.39732525
-0 0 0
-4.4581161 5.8856478 0.41241249
-2.4815276 3.267925 -0.9090097
-4.2686343 5.6213675 -0.78673756
-4.2971578 5.6589293 -0.39688969
-0 0 0
-4.4557986 5.8678441 0.41154194
-2.4885554 3.2689717 -0.91013658
-4.2754235 5.6162052 -0.78673756
-4.3039923 5.6537328 -0.39688969
-0 0 0
-4.450294 5.8459153 0.41038081
-2.4887297 3.2528601 -0.9073227
-4.2999864 5.6202383 -0.78875583
-4.3176422 5.6433153 -0.39688969
-0 0 0
-4.451777 5.818634 0.40921971
-2.5003889 3.2599294 -0.91013658
-4.316216 5.6273484 -0.79048508
-4.3212981 5.6339746 -0.39659968
-0 0 0
-4.4556384 5.809123 0.40892914
-2.5058734 3.258918 -0.91069889
-4.3151312 5.6118789 -0.7890439
-4.3170137 5.6143279 -0.39558357
-0 0 0
-4.4579072 5.7975612 0.40849414
-2.5082595 3.2538774 -0.91013658
-4.3108597 5.5923271 -0.78702664
-4.3269701 5.6132274 -0.39587411
-4.3849802 5.6884813 0
-4.4649091 5.7921705 0.40849414
-2.5106373 3.2488356 -0.90957421
-4.306541 5.5727863 -0.78500831
-4.3242135 5.5956545 -0.39500299
-0 0 0
-4.4607811 5.772377 0.40747803
-2.5176702 3.2498131 -0.91069889
-4.3164368 5.5716639 -0.78558439
-4.3293815 5.5883732 -0.394858
-0 0 0
-4.4677525 5.766983 0.40747803
-2.5200381 3.2447639 -0.91013658
-4.3168197 5.5582733 -0.78443122
-4.3345385 5.5810876 -0.39471301
-0 0 0
-4.4715266 5.757472 0.40718746
-2.5208321 3.2377028 -0.9090097
-4.3155894 5.542851 -0.78299004
-4.3317041 5.5635486 -0.39384246
-0 0 0
-4.4736958 5.7459197 0.40675247
-2.5290363 3.244195 -0.91126126
-4.3205323 5.5422883 -0.78327912
-4.3398528 5.5670724 -0.39427745
-0 0 0
-4.4691801 5.7329712 0.4060269
-2.5251329 3.2311285 -0.90844738
-4.3160753 5.5227962 -0.78126079
-4.3401761 5.5536351 -0.39369687
-0 0 0
-4.4761043 5.7275667 0.4060269
-2.5306008 3.2300732 -0.9090097
-4.325933 5.5216451 -0.78183687
-4.3468833 5.5483866 -0.39369687
-0 0 0
-4.4814143 5.7201028 0.40588135
-2.5376437 3.2310135 -0.91013658
-4.3278131 5.5103178 -0.78097278
-4.3535843 5.5431304 -0.39369687
-0 0 0
-4.4899325 5.716733 0.4060269
-2.5431163 3.2299392 -0.91069889
-4.3232665 5.4908571 -0.77895445
-4.3554611 5.5317469 -0.39326188
-0 0 0
-4.4952245 5.7092562 0.40588135
-2.5438716 3.2228789 -0.90957421
-4.3330998 5.489686 -0.77953053
-4.3557024 5.5183215 -0.39268133
-0 0 0
-4.4924636 5.6915865 0.40501079
-2.5524895 3.2257748 -0.91126126
-4.3284998 5.4702539 -0.77751327
-4.3623672 5.5130544 -0.39268133
-0 0 0
-4.4961095 5.682075 0.40472025
-2.5548077 3.2206995 -0.91069889
-4.3399239 5.4710932 -0.77837735
-4.3641791 5.5016704 -0.39224577
-0 0 0
-4.5045915 5.6786799 0.4048658
-0 0 -0
-2.5571175 3.2156234 -0.91013658
-4.348146 5.4678755 -0.77866644
-4.3692079 5.4943614 -0.39210078
-0 0 0
-4.5114498 5.6732326 0.4048658
-2.5562479 3.206569 -0.90844738
-4.3386235 5.442389 -0.775783
-4.3823228 5.4972053 -0.39268133
-0 0 0
-4.5150585 5.6637096 0.40457523
-2.5648808 3.2094345 -0.91013658
-4.3516555 5.4452248 -0.77693617
-4.380846 5.481751 -0.39195523
-0 0 0
-4.5235195 5.6602778 0.40472025
-2.5671699 3.2043519 -0.90957421
-4.356616 5.4379458 -0.77664816
-4.3874664 5.4764533 -0.39195523
-0 0 0
-4.5319848 5.6568418 0.4048658
-2.574219 3.2052059 -0.91069889
-4.3486085 5.4145303 -0.77405375
-4.3908296 5.4671001 -0.39166522
-0 0 0
-4.5274253 5.6371779 0.40384969
-2.5717161 3.1941764 -0.90844738
-4.3600154 5.4153175 -0.77491891
-4.3990602 5.4638124 -0.39181021
-0 0 0
-4.5407519 5.6397996 0.40443024
-2.5819571 3.1989758 -0.91069889
-4.3568058 5.3979654 -0.77318865
-4.4056587 5.4584932 -0.39181021
-4.4636383 5.5303283 0
-4.5410352 5.6262207 0.40384969
-2.5858207 3.1958535 -0.91069889
-4.3730898 5.4047656 -0.77491891
-4.400815 5.4390316 -0.39079466
-0 0 0
-4.5478301 5.6207294 0.40384969
-2.5928845 3.1966772 -0.91182578
-4.3682098 5.3854141 -0.77290058
-4.4057422 5.4316859 -0.39064911
-0 0 0
-4.5611658 5.6233025 0.40443024
-2.5871241 3.1817095 -0.90844738
-4.3714538 5.3761225 -0.77232456
-4.4139462 5.4283805 -0.39079466
-0 0 0
-4.5613999 5.6097231 0.40384969
-2.587759 3.1746461 -0.9073227
-4.3714094 5.3628173 -0.77117139
-4.422142 5.4250555 -0.39093965
-0 0 0
-4.5616078 5.5961509 0.40326911
-2.5948055 3.1754482 -0.90844738
-4.3680634 5.3455105 -0.76944113
-4.4237599 5.4136696 -0.39050409
-0 0 0
-4.5667233 5.588625 0.40312412
-2.6002491 3.1742744 -0.9090097
-4.390913 5.3602409 -0.77232456
-4.4335942 5.4123445 -0.39079466
-0 0 0
-4.5701766 5.5790787 0.40283355
-2.6008608 3.1672065 -0.90788502
-4.3891745 5.3449311 -0.77088231
-4.4417782 5.4089899 -0.39093965
-0 0 0
-4.5802159 5.5775723 0.40312412
-2.6076164 3.1715245 -0.90957421
-4.3825502 5.3302951 -0.76915306
-0 0 -0
-4.5565424 5.541914 0
-4.5901856 5.5828328 0.40370467
-2.6195257 3.1781733 -0.91238809
-4.3972111 5.3349733 -0.7705943
-0 0 -0
-0 0 0
-4.587009 5.5652475 0.40283355
-2.6168902 3.1671708 -0.91013658
-4.3954186 5.3196888 -0.76915306
-4.4580975 5.3955474 -0.39093965
-0 0 0
-4.5920763 5.5577002 0.40268856
-2.6271982 3.1718335 -0.91238809
-4.3935952 5.3044162 -0.76771188
-0 0 -0
-0 0 0
-4.6004443 5.5541463 0.40283355
-2.6261578 3.1627903 -0.91069889
-4.3950429 5.2931318 -0.76684672
-4.4478807 5.3567667 -0.38890743
-4.5383844 5.4657636 0
-4.6038356 5.544589 0.40254357
-2.6250994 3.1537542 -0.9090097
-4.4113603 5.2997408 -0.76857597
-4.4593387 5.3573818 -0.38934299
-0 0 0
-4.607204 5.5350242 0.402253
-2.6321671 3.1544857 -0.91013658
-4.411139 5.2864709 -0.76742387
-4.460813 5.3460021 -0.38890743
-0 0 0
-4.6155581 5.5314541 0.40239856
-2.6343482 3.1493559 -0.90957421
-4.4092212 5.2712116 -0.76598161
-4.4639382 5.3366261 -0.38861743
-0 0 0
-4.6072354 5.507937 0.40109244
-2.6381514 3.1461704 -0.90957421
-4.4155869 5.2658801 -0.76598161
-4.4703832 5.3312283 -0.38861743
-0 0 0
-4.6122127 5.5003695 0.40094689
-2.6419511 3.1429806 -0.90957421
-4.4219465 5.260541 -0.76598161
-4.4801626 5.3297973 -0.38890743
-0 0 0
-4.6222029 5.4987745 0.40123746
-2.6457469 3.139786 -0.90957421
-4.4316363 5.2591534 -0.76655871
-4.4916239 5.3303428 -0.38934299
-0 0 0
-4.6221461 5.4852371 0.40065688
-2.6560974 3.144351 -0.91182578
-4.4346461 5.2498393 -0.76598161
-4.4980612 5.3249116 -0.38934299
-4.4937735 5.3198357 0
-4.6237383 5.473691 0.40022135
-2.6598947 3.1411393 -0.91182578
-4.4409866 5.2444773 -0.76598161
-4.5028148 5.3174915 -0.38919798
-0 0 0
-4.6202769 5.4562063 0.39935076
-2.339314 2.7557983 -0.99731404
-2.6636882 3.137923 -0.91182578
-4.4389524 5.22925 -0.76454043
-0 0 -0
-4.5184007 5.3228431 0
-4.6487255 5.4763703 0.40123746
-2.3475151 2.7586961 -0.99938852
-2.6592398 3.1250212 -0.9090097
-4.4469423 5.2258506 -0.76482844
-4.5004978 5.2887859 -0.38789186
-0 0 0
-4.653657 5.4687719 0.40109244
-2.34922 2.7539508 -0.99869704
-2.6663151 3.1256757 -0.91013658
-4.4465394 5.2126021 -0.76367527
-4.5085697 5.2853193 -0.38803688
-4.5211201 5.3000321 0
-4.6653156 5.46907 0.40152743
-2.352546 2.7511101 -0.99869704
-2.6717396 3.1243808 -0.91069889
-4.4528346 5.2072258 -0.76367527
-4.5217075 5.2877669 -0.38861743
-4.6087008 5.3894987 0
-4.6668591 5.45751 0.40109244
-2.6688981 3.1134338 -0.90844738
-4.4574413 5.1998796 -0.76338726
-0 0 -0
-4.545773 5.3029242 0
-4.6700644 5.4479175 0.4008019
-2.3559206 2.7416151 -0.99731404
-2.6759734 3.1140647 -0.90957421
-4.4654055 5.1964498 -0.76367527
-4.5310888 5.2728868 -0.38832742
-4.5725245 5.321106 0
-4.6901922 5.4580369 0.401963
-2.3526821 2.7311633 -0.9945454
-2.6847043 3.1165988 -0.91126126
-4.4716806 5.1910505 -0.76367527
-4.5408454 5.2713418 -0.38861743
-4.5585752 5.291923 0
-4.7001719 5.4562993 0.402253
-2.3592565 2.7321124 -0.99592835
-2.6884682 3.1133525 -0.91126126
-4.4745722 5.1817317 -0.76309919
-4.5472116 5.265851 -0.38861743
-4.5360451 5.2529202 0
-4.7084646 5.4525886 0.40239856
-2.3576283 2.7268946 -0.9945454
-2.6903486 3.1117277 -0.91126126
-4.4709353 5.1712012 -0.76194602
-4.5469966 5.2591753 -0.38832742
-4.627728 5.3525515 0
-4.7168517 5.4556341 0.40283355
-2.3494182 2.7107713 -0.9896996
-2.6941066 3.1084747 -0.91126126
-4.4704046 5.1579771 -0.76079291
-0 0 -0
-4.6171436 5.3272853 0
-4.7285471 5.4558234 0.40326911
-2.3592734 2.7155058 -0.99246824
-2.6961958 3.103301 -0.91069889
-4.4817243 5.1584311 -0.76165801
-0 0 -0
-4.5638418 5.2529478 0
-4.7368388 5.4520655 0.40341413
-2.3658514 2.7164407 -0.99385387
-2.7016108 3.1019552 -0.91126126
-4.4794621 5.1432614 -0.76021683
-4.562614 5.2387357 -0.38803688
-4.6231675 5.3082619 0
-4.7417183 5.4443803 0.40326911
-2.3608775 2.7041252 -0.99039108
-2.6986725 3.0910323 -0.9090097
-4.4839678 5.1358914 -0.75992775
-4.5672336 5.2312632 -0.38789186
-4.6124654 5.283071 0
-4.7431645 5.4327731 0.40283355
-2.3608418 2.6974986 -0.98900807
-2.7040837 3.0896866 -0.90957421
-4.49017 5.1304693 -0.75992775
-4.5735512 5.2257409 -0.38789186
-4.6411252 5.3029513 0
-4.751442 5.4289989 0.40297914
-2.3690646 2.7003033 -0.99108523
-2.7044604 3.0825934 -0.90844738
-4.4929576 5.1211553 -0.75935167
-4.5764313 5.2163005 -0.38760132
-4.6046228 5.2484336 0
-4.7682772 5.4349694 0.40384969
-2.3706641 2.6955495 -0.99039108
-2.7081831 3.0793233 -0.90844738
-4.4940162 5.1098943 -0.75848657
-4.5878806 5.2166224 -0.38803688
-4.617836 5.2506828 0
-4.7714119 5.4253054 0.40355968
-2.3656256 2.6832755 -0.98693091
-2.7169445 3.0817685 -0.91013658
-4.4967694 5.100584 -0.75791049
-4.5958972 5.2130222 -0.38818187
-4.6345067 5.2568159 0
-4.7848306 5.4273252 0.40413967
-2.3672063 2.6785371 -0.98623943
-2.7206662 3.0784833 -0.91013658
-4.4995003 5.0912666 -0.7573334
-4.5953102 5.199677 -0.38760132
-4.6408548 5.2512121 0
-4.7879467 5.4176493 0.40384969
-2.3654487 2.6700397 -0.98416227
-2.7210107 3.0713863 -0.9090097
-4.5090828 5.0897021 -0.75791049
-4.5981464 5.1902347 -0.38731131
-4.6558242 5.2553387 0
-4.8099957 5.4293628 0.40515581
-2.3703439 2.6690607 -0.98485643
-2.7280977 3.0718997 -0.91013658
-4.5066433 5.0745821 -0.75646931
-4.6044145 5.1846747 -0.38731131
-4.6604443 5.2477655 0
-4.8165526 5.4235468 0.40515581
-2.3734429 2.6595776 -0.9834708
-2.7321265 3.0615027 -0.9090097
-4.529223 5.0752516 -0.7581985
-4.615202 5.1715956 -0.38716632
-0 0 0
-4.8296452 5.4118915 0.40515581
-2.3649445 2.6436174 -0.978625
-2.7358236 3.0581992 -0.9090097
-4.5284543 5.0620646 -0.75704533
-4.61971 5.1640735 -0.38702077
-4.6638145 5.2133751 0
-4.8292508 5.3983054 0.40457523
-2.3698168 2.6426311 -0.97931916
-2.739517 3.0548913 -0.9090097
-4.5466571 5.0700703 -0.75906366
-4.6276865 5.1604276 -0.38716632
-0 0 0
-4.8461823 5.4040771 0.40544635
-2.3746836 2.6416297 -0.98001063
-2.7500007 3.0591373 -0.91126126
-0 0 -0
-4.6373892 5.1586933 -0.3874563
-4.6833591 5.2098308 0
-4.8596573 5.4059472 0.4060269
-2.3661163 2.6257107 -0.97516483
-2.7519958 3.0539265 -0.91069889
-4.5571594 5.0571408 -0.75877458
-4.6436191 5.1530862 -0.3874563
-4.6983666 5.2138405 0
-4.8644409 5.3981352 0.40588135
-2.3726537 2.6265767 -0.97655052
-2.7454677 3.0392895 -0.9073227
-4.5632668 5.0516305 -0.75877458
-4.6498423 5.1474714 -0.3874563
-4.7011709 5.2042933 0
-4.8814144 5.4038267 0.40675247
-2.3674011 2.6144044 -0.97308767
-2.7525458 3.0397332 -0.90844738
-0 0 -0
-4.6525736 5.138001 -0.38716632
-4.7109528 5.2024708 0
-4.8844485 5.3940687 0.40646192
-2.362129 2.6022556 -0.96962756
-2.7664669 3.0476971 -0.91182578
-0 0 -0
-4.655282 5.1285233 -0.38687575
-4.7172356 5.196775 0
-4.8909626 5.3881626 0.40646192
-2.3534575 2.586416 -0.96478438
-2.7598836 3.0330725 -0.90844738
-0 0 -0
-4.6562276 5.1171274 -0.38644019
-4.7305174 5.198771 0
-4.8922286 5.3764887 0.4060269
-2.3600833 2.5905521 -0.96685892
-2.7668509 3.0370414 -0.91013658
-4.5741415 5.0208192 -0.75704533
-4.6523252 5.1066375 -0.3858602
-0 0 0
-4.9007206 5.3792892 0.40646192
-2.3581414 2.5821462 -0.96478438
-2.7653766 3.0280654 -0.90844738
-4.5854392 5.0210199 -0.75791049
-4.6514831 5.0933371 -0.38527963
-0 0 0
-4.9212351 5.3887134 0.40762302
-2.3646445 2.5829923 -0.96616739
-2.7690332 3.0247219 -0.90844738
-4.5949926 5.0192876 -0.75848657
-4.6734238 5.1049609 -0.38658574
-0 0 0
-4.9242368 5.3789334 0.40733302
-2.3592842 2.570893 -0.96270728
-2.7744024 3.0232441 -0.9090097
-4.5958056 5.0080128 -0.75762141
-4.6989093 5.1203637 -0.38818187
-4.7471805 5.1729646 0
-4.9307327 5.3729796 0.40733302
-2.3776736 2.5846558 -0.96893603
-2.7694538 3.0105412 -0.90619582
-4.6071086 5.0081687 -0.75848657
-4.7050929 5.1146822 -0.38818187
-4.7534275 5.1672249 0
-4.9213901 5.3498087 0.4060269
-2.3705938 2.5707188 -0.96478438
-2.7817004 3.0165305 -0.9090097
-4.6166668 5.0064044 -0.75906366
-4.6989441 5.0956273 -0.38716632
-4.7649622 5.1672187 0
-4.941936 5.3591328 0.40718746
-2.3753996 2.5696929 -0.96547592
-2.7853432 3.0131671 -0.9090097
-4.6314898 5.0103173 -0.76050484
-4.6980424 5.0823135 -0.38658574
-4.7729669 5.1633668 0
-4.9748669 5.3817806 0.4093647
-2.363158 2.550261 -0.95924711
-2.7993474 3.0209856 -0.91238809
-4.6498413 5.0179925 -0.7625221
-4.7094731 5.0823455 -0.38702077
-4.7951207 5.1747742 0
-4.9495792 5.3414621 0.40675247
-2.3679435 2.5492401 -0.95993859
-2.7926166 3.0064273 -0.9090097
-4.6699834 5.0275307 -0.76482844
-4.7156105 5.0766516 -0.38702077
-4.7942853 5.1613493 0
-4.9825511 5.3640294 0.40892914
-2.369314 2.5445426 -0.95924711
-2.8014436 3.0086312 -0.91069889
-4.6866336 5.0332456 -0.76655871
-4.7376833 5.0880704 -0.38832742
-4.8164778 5.1726928 0
-5.0102777 5.3808255 0.41067082
-2.3792343 2.5490139 -0.96201575
-2.8033447 3.0033884 -0.91013658
-4.7015347 5.0370312 -0.76799989
-4.7509131 5.0899329 -0.38890743
-4.8156214 5.1592593 0
-5.0256391 5.3842635 0.41139638
-2.3891687 2.5534649 -0.96478438
-2.8052373 2.9981453 -0.90957421
-4.705852 5.02946 -0.76771188
-4.7464113 5.0728083 -0.38803688
-4.8200755 5.1515379 0
-5.0498981 5.3971648 0.41284806
-2.3871019 2.545085 -0.96270728
-2.8036416 2.989192 -0.90788502
-4.7296166 5.0426316 -0.7705943
-4.7631993 5.0784373 -0.38890743
-4.8245177 5.1438136 0
-5.0350842 5.3683157 0.41110638
-2.3867352 2.5385396 -0.96132159
-2.8089902 2.9876516 -0.90844738
-4.7339363 5.0350308 -0.77030623
-4.7444172 5.0461779 -0.38687575
-4.8325105 5.1398749 0
-5.0682607 5.3906193 0.41328305
-2.3898008 2.5356538 -0.96132159
-2.8195689 2.9916515 -0.91069889
-4.7435613 5.0330677 -0.77088231
-4.7629881 5.0536804 -0.38789186
-3.6125038 3.8329804 0
-5.0587325 5.3674746 0.41197693
-2.3842499 2.523648 -0.95786148
-2.8196952 2.9845521 -0.90957421
-4.7478647 5.025454 -0.7705943
-3.6467125 3.8599219 -0.29660374
-3.6314306 3.8437464 0
-5.0634313 5.3594708 0.41183195
-2.3907511 2.5244119 -0.95924711
-2.8320336 2.9903653 -0.91238809
-3.6383979 3.8418114 -0.88212895
-3.6370797 3.8404195 -0.58955657
-3.6424417 3.8460815 -0.29587817
-3.6324966 3.8355803 0
-5.0841975 5.3684421 0.41299304
-2.3920741 2.5197036 -0.95855564
-2.8321426 2.9832523 -0.91126126
-3.6501071 3.8448594 -0.8838408
-3.6274712 3.8210156 -0.58725029
-0 0 -0
-0 0 0
-5.1264615 5.3999848 0.41589585
-2.3847365 2.5059037 -0.95440131
-2.837502 2.981674 -0.91182578
-3.6565182 3.842304 -0.8842684
-3.628516 3.8128788 -0.58667314
-0 0 -0
-0 0 0
-5.0917807 5.350491 0.41255748
-2.4033463 2.519356 -0.96063012
-2.8446069 2.9819167 -0.91295046
-0 0 -0
-0 0 -0
-0 0 -0
-0 0 0
-5.1269393 5.3744173 0.41487971
-2.3925176 2.5019448 -0.95509279
-2.8359137 2.9656208 -0.9090097
-3.6445029 3.8111925 -0.87913275
-0 0 -0
-0 0 -0
-3.6509924 3.8179789 0
-5.1316352 5.3663425 0.41473472
-2.3903358 2.4936242 -0.95301831
-2.8465283 2.9695292 -0.91126126
-3.6473305 3.8049347 -0.8787052
-3.6494727 3.8071694 -0.58782631
-3.6548193 3.812747 -0.29500708
-3.6519976 3.8098035 0
-5.1578898 5.3807664 0.41633084
-2.386394 2.4834981 -0.95024967
-2.8377957 2.9532676 -0.9073227
-3.6537025 3.8023741 -0.87913275
-3.6540704 3.802757 -0.58782631
-3.6504233 3.7989616 -0.29428151
-4.9692607 5.1714635 0
-5.178791 5.3895197 0.41749194
-2.4052842 2.5001318 -0.95716995
-2.8378196 2.9497232 -0.90676033
-3.6577771 3.8020141 -0.87956035
-3.6653314 3.8098664 -0.58926749
-4.8776879 5.0700302 -0.39297134
-4.9795942 5.1759548 0
-5.2000647 5.4051189 0.41894361
-2.3908913 2.4791689 -0.95024967
-2.8537233 2.9590895 -0.91069889
-3.667716 3.8031368 -0.88084465
-3.6878905 3.8240561 -0.59215099
-4.8964386 5.0772271 -0.39398745
-4.9840403 5.1680627 0
-5.1993766 5.3913503 0.41836306
-2.3886526 2.4708652 -0.94817251
-2.8519969 2.9501572 -0.9090097
-3.7026389 3.8300765 -0.8881197
-3.7212651 3.8493435 -0.59676254
-4.9242425 5.0937252 -0.39572912
-4.9812384 5.1526828 0
-5.2239442 5.4037423 0.4198142
-2.4056034 2.4823902 -0.95370984
-2.8555596 2.9467089 -0.9090097
-3.7429931 3.8624694 -0.89667904
-3.772716 3.893141 -0.60425866
-4.9322004 5.0896358 -0.39587411
-4.9910865 5.1504016 0
-5.2395096 5.4067545 0.42053974
-2.3981094 2.4686811 -0.94955552
-2.8644309 2.9487257 -0.91069889
-3.7673347 3.8782001 -0.9013871
-3.7738094 3.8848655 -0.60368156
-4.9111867 5.0557132 -0.39369687
-5.011806 5.1592941 0
-5.2460389 5.4004197 0.42053974
-2.3835917 2.4478111 -0.94263524
-2.86445 2.9416251 -0.90957421
-3.7755964 3.8773201 -0.90224218
-4.9567494 5.0902963 -0.79192734
-4.9426746 5.0758419 -0.39572912
-5.0725088 5.2091742 0
-5.2688737 5.4108295 0.42184585
-2.3988161 2.4574981 -0.94748104
-2.8662224 2.9363384 -0.9090097
-3.7946236 3.8874509 -0.90566593
-4.9683113 5.0898504 -0.79279143
-4.9488039 5.0698662 -0.39572912
-5.060617 5.1844144 0
-5.269968 5.3988862 0.42141086
-2.3930125 2.4456336 -0.94402087
-2.8697681 2.932873 -0.9090097
-3.7957239 3.87919 -0.90480918
-4.9853148 5.0949392 -0.79452169
-4.9694576 5.0787334 -0.39688969
-0 0 0
-5.2928414 5.4092283 0.42271698
-2.4029927 2.4499044 -0.94678956
-2.8715324 2.9275911 -0.90844738
-3.8022113 3.8764386 -0.90523839
-5.0041404 5.1018319 -0.79653895
-4.9774156 5.0745854 -0.39703524
-5.0968199 5.196321 0
-5.31393 5.4176693 0.4238781
-2.4006729 2.4416306 -0.9447124
-2.878634 2.9277463 -0.90957421
-3.8032894 3.8681772 -0.90438163
-5.0193734 5.1050086 -0.7979812
-5.0108647 5.096355 -0.39921191
-5.0702553 5.1567588 0
-5.3241124 5.4149466 0.42416808
-2.3965771 2.431581 -0.94194376
-2.8857334 2.9278817 -0.91069889
-3.811568 3.867239 -0.90523839
-0 0 -0
-5.0097232 5.0828943 -0.39863136
-5.1111879 5.1858406 0
-5.3452435 5.423315 0.42532921
-2.394222 2.4233279 -0.9398666
-2.8857007 2.9207811 -0.90957421
-3.8180404 3.864455 -0.90566593
-5.0535026 5.1149364 -0.80143964
-5.015861 5.0768371 -0.39863136
-5.0936737 5.1555958 0
-5.368227 5.4334865 0.42663532
-2.4006827 2.4240015 -0.94125223
-2.8928003 2.9208996 -0.91069889
-3.8190908 3.8561873 -0.90480918
-5.0669594 5.1161771 -0.80259281
-5.0457602 5.0947723 -0.40051803
-5.1548357 5.2049069 0
-5.382102 5.434381 0.42721587
-2.4053757 2.4228778 -0.94194376
-2.8981161 2.9192035 -0.91126126
-3.8128994 3.8406429 -0.90224218
-5.0877161 5.1247354 -0.80489916
-5.0574064 5.0942054 -0.40095359
-5.1262889 5.163589 0
-5.4014812 5.440784 0.42823198
-2.4029908 2.414633 -0.9398666
-2.8998506 2.9139001 -0.91069889
-3.8157282 3.8342152 -0.90181464
-5.0975571 5.1222544 -0.80547625
-5.0782218 5.1028252 -0.40211469
-5.1673989 5.1924348 0
-5.4098825 5.4360933 0.428377
-2.4023664 2.408179 -0.9384836
-2.8961914 2.9031987 -0.90844738
-3.8203583 3.8296018 -0.90181464
-5.1183562 5.1307402 -0.80778259
-5.089891 5.1022062 -0.40255025
-5.2067571 5.2193551 0
-5.4219546 5.4350729 0.42881256
-2.4123702 2.4123702 -0.94125223
-2.9086788 2.9086788 -0.91126126
-3.8177221 3.8177221 -0.90010273
-5.1373491 5.1373491 -0.80979985
-5.0740037 5.0740037 -0.40080857
-5.2369814 5.2369814 0
-5.4505663 5.4505663 0.43055424
-2.4046233 2.3988192 -0.93709797
-2.908597 2.9015765 -0.91013658
-3.8223321 3.8131063 -0.90010273
-5.1527066 5.1402698 -0.81124103
-5.1132402 5.1008983 -0.40342081
-5.2285657 5.2159452 0
-5.4644995 5.4513102 0.43113422
-2.4075201 2.3959119 -0.93709797
-2.912101 2.8980601 -0.91013658
-3.8232942 3.8048599 -0.89924598
-5.1754193 5.1504655 -0.81383646
-5.1341343 5.1093798 -0.40458193
-5.2293286 5.2041149 0
-5.4821367 5.4557042 0.43200535
-2.4193134 2.4018371 -0.94055808
-2.9192035 2.8981161 -0.91126126
-3.8224287 3.7948167 -0.89796335
-5.18714 5.1496696 -0.81470054
-5.1642752 5.1269698 -0.4064686
-5.2743959 5.2362952 0
-5.4721308 5.4326015 0.43069923
-2.420433 2.3971486 -0.9398666
-2.9172924 2.8892279 -0.90957421
-3.825182 3.7883837 -0.89753413
-5.2135754 5.1634207 -0.81787199
-5.1704664 5.1207261 -0.4064686
-5.2992139 5.2482352 0
-5.5063791 5.4534078 0.4328759
-2.4197619 2.3906991 -0.9384836
-2.9243927 2.8892689 -0.91069889
-3.8297567 3.7837589 -0.89753413
-5.2308469 5.1680212 -0.81960124
-5.1840434 5.1217799 -0.40704915
-5.3018451 5.2381668 0
-5.5148182 5.4485817 0.43302146
-2.4047775 2.3701596 -0.93156064
-2.9260738 2.8839514 -0.91013658
-3.8306727 3.7755282 -0.89667904
-5.2684021 5.1925607 -0.82450193
-5.1939335 5.119164 -0.40733972
-5.3026085 5.2262745 0
-5.5417495 5.4619732 0.43461758
-2.4151466 2.3775043 -0.9350208
-2.9296246 2.8839638 -0.91069889
-3.8329532 3.7732131 -0.89667904
-5.3010297 5.2184086 -0.82911456
-5.2266459 5.1451845 -0.40966138
-5.3224549 5.2394996 0
-5.5635695 5.4768567 0.43606925
-2.4216011 2.3781035 -0.93640643
-2.9385476 2.8857646 -0.91238809
-3.8375094 3.768579 -0.89667904
-5.320251 5.2246871 -0.83113289
-5.2495432 5.1552491 -0.4109675
-5.3417816 5.245831 0
-5.5794511 5.4792314 0.43679482
-2.404758 2.3558619 -0.928792
-2.9420323 2.8822119 -0.91238809
-3.8402283 3.7621448 -0.89625144
-5.3228612 5.2146311 -0.8305558
-5.2669091 5.1598163 -0.41183862
-5.3053637 5.1974893 0
-5.5934925 5.4797597 0.43737537
-2.4201641 2.3652306 -0.9336378
-2.9346061 2.8679957 -0.9090097
-3.8392618 3.7521174 -0.89496714
-5.3421087 5.2208524 -0.83257407
-5.2749963 5.1552629 -0.41198364
-5.3004684 5.1801572 0
-5.6186895 5.4911551 0.43882647
-2.4212255 2.3605549 -0.93294632
-2.9362519 2.8626757 -0.90844738
-3.8474653 3.7510562 -0.89582229
-5.3465629 5.2125897 -0.83228606
-5.2942472 5.1615849 -0.41299975
-0 0 0
-5.6290379 5.4879861 0.43911648
-2.4150856 2.3488836 -0.92948616
-2.9488144 2.8679819 -0.91126126
-3.8501565 3.7446165 -0.89539468
-5.3973498 5.2493987 -0.83920401
-5.3060627 5.1606135 -0.41343474
-5.4771404 5.327002 0
-5.6449838 5.4902444 0.43984261
-2.4359241 2.36343 -0.93640643
-2.944983 2.8573394 -0.9090097
-3.8602073 3.745326 -0.89667904
-5.4166851 5.2554827 -0.84122229
-5.3272138 5.168674 -0.41459587
-5.42381 5.2623954 0
-5.666533 5.4978948 0.44100371
-2.4351692 2.356992 -0.9350208
-2.9539125 2.859082 -0.91069889
-3.8647299 3.740659 -0.89667904
-5.4546242 5.2795124 -0.84612298
-5.3689322 5.1965714 -0.41735366
-5.4806495 5.3047023 0
-5.6675692 5.4856205 0.44056815
-2.4191825 2.3302219 -0.92671752
-2.9717968 2.8625147 -0.91407728
-3.8793068 3.7366529 -0.89796335
-5.5027628 5.3004093 -0.85160083
-5.3534007 5.1565399 -0.41517642
-0 0 0
-5.720108 5.5097623 0.44361594
-2.4183748 2.3238173 -0.92533183
-2.9697552 2.8536386 -0.91238809
-3.8801134 3.7284021 -0.89710659
-5.5128899 5.2973375 -0.85217685
-5.3952284 5.1842766 -0.41793421
-0 0 0
-5.7492452 5.5244513 0.44535762
-2.4284253 2.3278375 -0.92810053
-2.9621921 2.8394949 -0.9090097
-3.877203 3.7166054 -0.89539468
-5.5286207 5.2996197 -0.85361803
-5.4127402 5.188539 -0.41880476
-0 0 0
-5.761538 5.5228896 0.44579262
-2.4239836 2.317966 -0.92533183
-2.9729664 2.8429379 -0.91126126
-3.8835444 3.7136903 -0.89582229
-5.5481071 5.3054504 -0.85563636
-5.3927174 5.1568565 -0.41677308
-0 0 0
-5.7945027 5.541069 0.44782484
-2.4449389 2.3323555 -0.93225479
-2.9763994 2.8393438 -0.91126126
-3.8787434 3.7001371 -0.89368284
-5.5619998 5.3058839 -0.85678953
-5.4346619 5.1844096 -0.41953033
-0 0 0
-5.8143497 5.5466137 0.44884041
-2.4386632 2.3207474 -0.928792
-2.9687877 2.8252387 -0.90788502
-3.8943725 3.7060692 -0.89625144
-5.5946345 5.3241191 -0.86082506
-5.4729199 5.2082896 -0.42199755
-0 0 0
-5.8248158 5.54317 0.44913095
-2.4378302 2.3143477 -0.92740899
-2.9906232 2.8391402 -0.91351283
-3.8951206 3.6978226 -0.89539468
-5.6066928 5.3226991 -0.86169022
-5.4792094 5.201673 -0.42199755
-5.8053308 5.5112753 0
-5.8503504 5.5540147 0.45058209
-2.4369783 2.3079469 -0.92602336
-2.9792926 2.8215473 -0.9090097
-3.8977239 3.69135 -0.89496714
-5.6337724 5.3354793 -0.86486065
-5.479836 5.1896935 -0.42156255
-5.8044276 5.4970989 0
-5.8910131 5.5791001 0.45319432
-2.4324708 2.2981091 -0.92325473
-2.9826999 2.8179452 -0.9090097
-3.9040456 3.6883988 -0.89539468
-5.6477356 5.335773 -0.86601382
-5.5276527 5.2223234 -0.42475533
-5.8129625 5.4918737 0
-5.888308 5.5630569 0.45246875
-2.4462035 2.3054955 -0.92740899
-3.0008953 2.8282809 -0.91351283
-3.915972 3.6907215 -0.89710659
-5.6767654 5.3502331 -0.86947328
-5.545301 5.2263303 -0.42562589
-5.8101192 5.4759159 0
-5.9271698 5.5862336 0.454936
-2.4325392 2.2870736 -0.92118019
-2.9950562 2.8159521 -0.91069889
-3.9166915 3.6824737 -0.89625144
-5.6700411 5.3309727 -0.86745608
-5.5648656 5.2320871 -0.42664203
-5.8072529 5.4599795 0
-5.9244518 5.5701699 0.45421043
-2.4316378 2.2806966 -0.91979456
-2.9910436 2.8053782 -0.90844738
-3.9211383 3.6777384 -0.89625144
-5.6896787 5.3364987 -0.86947328
-5.5636024 5.2182488 -0.42606145
-5.7607031 5.4031148 0
-5.9539208 5.5843387 0.45595211
-2.4435496 2.2863255 -0.92325473
-2.9981453 2.8052373 -0.90957421
-3.9255793 3.672998 -0.89625144
-4.3136878 4.0361347 -0.65845436
-5.5869784 5.2274985 -0.42736757
-5.837532 5.4619312 0
-31.91588 29.862333 2.4413576
-2.4394367 2.2797151 -0.92118019
-2.9998395 2.8034256 -0.90957421
-3.9240429 3.6671166 -0.89539468
-4.3255725 4.042356 -0.65989554
-5.6053238 5.2383156 -0.4285287
-5.7628808 5.3855572 0
-6.0076923 5.6143394 0.45928988
-2.4421895 2.2767656 -0.92118019
-2.9939339 2.7911372 -0.90676033
-3.9265952 3.6606238 -0.89496714
-4.3361311 4.0424194 -0.6607607
-5.6325579 5.2510314 -0.43012536
-5.790318 5.3981056 0
-31.981352 29.815065 2.4422281
-2.4467742 2.2755201 -0.92187172
-3.0028808 2.7927039 -0.90844738
-3.9310155 3.6558766 -0.89496714
-4.3599486 4.0547881 -0.66364306
-5.616065 5.2229867 -0.42838368
-5.8044596 5.3981948 0
-32.915413 30.611605 2.5107305
-2.4550412 2.2776823 -0.92394888
-3.011843 2.7942593 -0.91013658
-3.93731 3.6528683 -0.89539468
-4.3781199 4.0618329 -0.66566139
-5.6585598 5.2497702 -0.43114093
-5.7976208 5.3787851 0
-32.973328 30.591246 2.5123267
-2.4449012 2.2627842 -0.91910309
-3.0189431 2.7940667 -0.91126126
-3.9454927 3.6515989 -0.89625144
-4.3925138 4.0653224 -0.66710258
-5.7030396 5.2782288 -0.43404371
-5.8060312 5.373549 0
-33.061756 30.599037 2.5162456
-2.4586897 2.2700362 -0.92325473
-3.0316567 2.7990398 -0.91407728
-3.9536705 3.6503084 -0.89710659
-4.4107275 4.0722952 -0.66912091
-5.6865029 5.2501817 -0.43230203
-5.7819257 5.3382826 0
-33.180794 30.634857 2.5224862
-2.4522059 2.2585671 -0.91979456
-3.0312951 2.7919285 -0.91295046
-3.9543056 3.6420536 -0.89625144
-4.419446 4.0704641 -0.66969693
-5.6966691 5.2468309 -0.4325926
-5.8534536 5.3912349 0
-33.242634 30.617624 2.5243728
-2.4438524 2.2454214 -0.91564292
-3.0290515 2.7831049 -0.91126126
-3.9662647 3.6442201 -0.89796335
-4.4415007 4.0808692 -0.67229128
-5.7144814 5.2504888 -0.43346316
-5.8829603 5.4052877 0
-33.35231 30.644238 2.5298879
-2.4576569 2.2526345 -0.91979456
-3.0342906 2.7811646 -0.91182578
-3.9630954 3.6324868 -0.89625144
-5.7131596 5.2365575 -0.43288261
-5.8971615 5.4052095 0
-33.473591 30.681162 2.5362735
-2.4659331 2.2547438 -0.92187172
-3.033895 2.7740638 -0.91069889
-3.9693744 3.6294262 -0.89667904
-5.7827635 5.2875118 -0.43767205
-5.9094443 5.4033432 0
-33.548992 30.675762 2.5391762
-2.4630933 2.2466888 -0.91979456
-3.0503871 2.7823839 -0.91463965
-3.9680653 3.6194358 -0.89539468
-5.7641931 5.2577577 -0.43578538
-5.9159689 5.3961987 0
-33.687778 30.72801 2.5468686
-2.4880729 2.2639723 -0.92810053
-3.0424674 2.7684324 -0.91126126
-3.9800305 3.6215491 -0.89710659
-5.81282 5.289259 -0.43897817
-0 0 0
-33.820965 30.774712 2.5541246
-2.4610851 2.2339852 -0.91702592
-3.0420511 2.7613418 -0.91013658
-3.9844036 3.6167374 -0.89710659
-5.8057365 5.2700047 -0.43796206
-6.7113156 6.09202 0
-33.904301 30.775738 2.5576079
-2.4972596 2.2613239 -0.92948616
-3.03597 2.7491381 -0.9073227
-3.9944811 3.6170914 -0.89839089
-5.8429179 5.2908916 -0.44028428
-6.7109628 6.0769253 0
-33.985767 30.774866 2.5609462
-2.48137 2.2414846 -0.9225632
-3.0713415 2.7744212 -0.91689122
-3.9950354 3.6088173 -0.89753413
-5.8281021 5.2646732 -0.43868819
-6.7202301 6.0705552 0
-34.067272 30.773834 2.5642841
-2.4915314 2.2452025 -0.92533183
-3.0558124 2.7536952 -0.91126126
-4.005116 3.6091444 -0.89881843
-5.9213142 5.3358955 -0.44521874
-6.7217584 6.0572023 0
-34.212521 30.830053 2.5724113
-2.4961064 2.243866 -0.92602336
-3.0629203 2.7534015 -0.91238809
-4.0075665 3.6025879 -0.89839089
-5.9258265 5.3270011 -0.44507375
-6.7329469 6.0525589 0
-34.354095 30.882494 2.5802486
-2.500689 2.2425282 -0.92671752
-3.0605681 2.7446077 -0.91069889
-4.0119166 3.597743 -0.89839089
-5.9419298 5.3285093 -0.44579932
-6.7441268 6.0478907 0
-34.443611 30.887796 2.584167
-2.5183549 2.2528863 -0.93225479
-3.0657742 2.7426 -0.91126126
-4.0086079 3.5860465 -0.89667904
-5.9522409 5.3247943 -0.44608986
-6.7456088 6.0345302 0
-34.540947 30.899862 2.5886664
-2.5117109 2.2414849 -0.928792
-3.0785701 2.7473576 -0.91407728
-4.0225129 3.5897448 -0.89881843
-5.9567261 5.3158631 -0.44594431
-6.7393088 6.0142503 0
-34.690693 30.958443 2.5970836
-2.5106735 2.2351151 -0.92740899
-3.0742962 2.7368777 -0.91182578
-4.0172625 3.5763488 -0.89667904
-5.9689693 5.3138466 -0.44637987
-6.736846 5.9974456 0
-34.747486 30.933784 2.5985353
-2.5583923 2.2720611 -0.94402087
-3.077601 2.733161 -0.91182578
-4.0254159 3.574898 -0.89753413
-5.9928699 5.3221579 -0.44768599
-0 0 0
-34.889748 30.984945 2.6063726
-2.5329664 2.2440124 -0.9336378
-3.0713863 2.7210107 -0.9090097
-4.0201268 3.5615218 -0.89539468
-5.9740133 5.2925143 -0.44579932
-0 0 0
-34.983559 30.992727 2.6105809
-2.537554 2.2426097 -0.93432927
-3.0803854 2.722347 -0.91069889
-4.0340433 3.5651598 -0.89753413
-6.0154471 5.3162618 -0.44841155
-0 0 0
-35.110542 31.029585 2.6172571
-2.5477893 2.2461784 -0.93709797
-3.0817685 2.7169445 -0.91013658
-4.0402794 3.5619853 -0.89796335
-6.0394144 5.32446 -0.44971821
-0 0 0
