# .PCD v0.7 - Point Cloud Data file format
VERSION 0.7
FIELDS x y z
SIZE 4 4 4
TYPE F F F
COUNT 1 1 1
WIDTH 1754
HEIGHT 1
VIEWPOINT 0 0 0 1 0 0 0
POINTS 1754
DATA ascii
3.6854231 -2.7497246 -0.76658356
3.3625269 -2.5088091 -0.46761528
0 -0 -0
3.2266095 -2.4073999 0
3.8102899 -2.8428886 0.26553914
0 -0 -0
0 -0 -0
0 -0 -0
3.6825631 -2.7406702 -0.7652992
3.3634748 -2.5031955 -0.46732616
3.3052194 -2.4598401 -0.23013349
3.2503896 -2.4190342 0
3.8199697 -2.8429322 0.26597416
0 -0 -0
0 -0 -0
0 -0 -0
3.6941166 -2.7423391 -0.76701111
3.3581901 -2.4929628 -0.46617299
3.3207035 -2.4651346 -0.23100404
3.2094297 -2.3825302 0
3.1495352 -2.3380673 0.21909675
0 -0 -0
0 -0 -0
0 -0 -0
3.6891754 -2.7317629 -0.7652992
3.359123 -2.4873655 -0.46588498
3.3215935 -2.4595757 -0.23085904
3.2290382 -2.3910403 0
3.1795034 -2.3543606 0.22098343
0 -0 -0
0 -0 -0
0 -0 -0
3.6904106 -2.7257795 -0.76487166
3.3558826 -2.4786935 -0.46501982
3.3203788 -2.4524698 -0.23056848
3.2214601 -2.3794074 0
3.1823459 -2.350517 0.22098343
0 -0 -0
0 -0 -0
0 -0 -0
3.7019684 -2.7274091 -0.76658356
3.3609636 -2.4761753 -0.46530893
3.3087018 -2.4376714 -0.22955292
0 -0 0
3.1810036 -2.3435905 0.22069342
0 -0 -0
0 -0 -0
0 -0 -0
3.6949203 -2.7153347 -0.76444411
3.3556163 -2.4659858 -0.46415576
3.305361 -2.429054 -0.22911736
3.2334862 -2.3762343 0
3.1691742 -2.3289726 0.21967731
0 -0 -0
0 -0 -0
0 -0 -0
3.6961303 -2.7093518 -0.76401657
3.3606775 -2.4634571 -0.4644438
3.2810516 -2.4050891 -0.2272307
3.2426538 -2.3769429 0
3.1782751 -2.3297517 0.22011286
0 -0 -0
0 -0 -0
0 -0 -0
3.7014716 -2.7063975 -0.76444411
3.3678234 -2.4624448 -0.46501982
3.2839551 -2.401123 -0.2272307
3.253927 -2.3791673 0
3.170594 -2.3182368 0.21938676
0 -0 -0
0 -0 -0
0 -0 -0
3.702667 -2.7004118 -0.76401657
3.3645332 -2.4538057 -0.46415576
3.2742617 -2.3879693 -0.22636014
3.2504892 -2.3706317 0
3.1733928 -2.314404 0.21938676
0 -0 -0
0 -0 -0
0 -0 -0
3.7174928 -2.6974866 -0.76572841
3.3599882 -2.4380741 -0.46271458
3.2800229 -2.3800497 -0.22636014
3.2435744 -2.3536019 0
3.1747744 -2.3036792 0.21909675
0 -0 -0
0 -0 -0
0 -0 -0
3.7108073 -2.6892147 -0.76401657
3.3656452 -2.4390764 -0.46329063
3.2730441 -2.3719685 -0.22577958
3.2513196 -2.3562248 0
3.1782675 -2.3032842 0.21924175
0 -0 -0
0 -0 -0
0 -0 -0
3.7161324 -2.6862314 -0.76444411
3.3706839 -2.4365215 -0.46357864
3.2674842 -2.361923 -0.22519903
3.2436125 -2.3446672 0
3.1747286 -2.294874 0.21880619
0 -0 -0
0 -0 -0
0 -0 -0
3.7193754 -2.6817391 -0.76444411
3.3736255 -2.432447 -0.46357864
3.2724414 -2.3594913 -0.22534402
3.2548871 -2.3468344 0
3.1732879 -2.2879999 0.21851619
0 -0 -0
0 -0 -0
0 -0 -0
3.7309494 -2.6832385 -0.76615596
3.3744645 -2.4268601 -0.46329063
3.2816207 -2.3600886 -0.22577958
3.2598393 -2.3444238 0
3.1739426 -2.2826481 0.2183712
0 -0 -0
0 -0 -0
0 -0 -0
3.7300131 -2.6757329 -0.7652992
3.379494 -2.4242873 -0.46357864
3.2886887 -2.3591478 -0.22606958
3.2584364 -2.3374462 0
3.1745892 -2.2772982 0.21822619
0 -0 -0
0 -0 -0
0 -0 -0
3.7186356 -2.6607716 -0.76230466
3.3824208 -2.420202 -0.46357864
3.2851951 -2.3506348 -0.22563402
3.2570293 -2.3304815 0
3.183672 -2.2779925 0.21866119
0 -0 -0
0 -0 -0
0 -0 -0
3.726023 -2.6592562 -0.76315981
3.3853426 -2.4161131 -0.46357864
3.3091874 -2.3617613 -0.22708569
3.2704325 -2.3341022 0
3.1885352 -2.2756519 0.21880619
0 -0 -0
0 -0 -0
0 -0 -0
3.7313228 -2.6562393 -0.76358736
3.3819444 -2.4075253 -0.46271458
3.3056862 -2.3532388 -0.22665013
3.2647698 -2.3241115 0
3.1807003 -2.2642643 0.21808064
0 -0 -0
0 -0 -0
0 -0 -0
3.7282562 -2.6472745 -0.76230466
0 -0 -0
3.3106439 -2.3507459 -0.22679514
3.2760637 -2.3261919 0
3.1940253 -2.26794 0.21880619
0 -0 -0
0 -0 -0
0 -0 -0
3.7419248 -2.6501846 -0.76444411
0 -0 -0
3.3049998 -2.3407366 -0.22621457
3.2576299 -2.3071873 0
3.1967633 -2.2640789 0.21880619
0 -0 -0
0 -0 -0
3.0712829 -2.1696408 -0.83302623
3.7304454 -2.6352918 -0.76144791
0 -0 -0
3.322684 -2.3472376 -0.2272307
3.2774203 -2.3152621 0
3.1994965 -2.2602146 0.21880619
0 -0 -0
0 -0 -0
3.0552025 -2.1527522 -0.82795864
3.737828 -2.6337426 -0.76230466
0 -0 -0
3.3361363 -2.3507032 -0.22795625
3.2844744 -2.3143013 0
3.1979811 -2.2533565 0.21851619
0 -0 -0
0 -0 -0
3.0328634 -2.1315322 -0.82120621
3.7431059 -2.6306989 -0.76273227
0 -0 -0
3.3496017 -2.3541396 -0.22868182
3.2702343 -2.2983592 0
3.2092052 -2.2554672 0.21909675
0 -0 -0
0 -0 -0
3.0562389 -2.1424484 -0.82683396
3.7504818 -2.6291182 -0.76358736
0 -0 -0
3.3567033 -2.3530765 -0.22897238
3.266614 -2.289923 0
3.2012916 -2.2441316 0.2183712
0 -0 -0
0 -0 -0
3.0858941 -2.1576805 -0.83415091
3.7536557 -2.6245847 -0.76358736
0 -0 -0
3.3680623 -2.3549747 -0.22955292
3.2949727 -2.30387 0
3.2082558 -2.2432368 0.21866119
0 -0 -0
0 -0 -0
3.0780802 -2.1466842 -0.83133703
3.7484021 -2.6141734 -0.76187551
0 -0 -0
3.3517253 -2.337527 -0.22824681
3.2828095 -2.2894645 0
3.2067053 -2.2363887 0.2183712
0 -0 -0
0 -0 -0
3.0647798 -2.1346571 -0.82739627
3.7541976 -2.6148455 -0.76273227
3.3980026 -2.3667512 -0.46156141
3.3552673 -2.3369853 -0.22839181
3.2713828 -2.278559 0
3.208056 -2.2344511 0.2183712
0 -0 -0
0 -0 -0
3.0736191 -2.135303 -0.82908547
3.7678936 -2.6176291 -0.76487166
3.402982 -2.3641179 -0.46184942
3.3730288 -2.3433087 -0.22940792
3.2976465 -2.2909393 0
3.2107534 -2.2305729 0.2183712
0 -0 -0
0 -0 -0
3.0594888 -2.1200101 -0.8245824
3.7605057 -2.6057653 -0.76273227
3.4015801 -2.3570552 -0.4612723
3.4377856 -2.3821433 -0.23361628
3.3004122 -2.286953 0
3.2241232 -2.2340901 0.21909675
0 -0 -0
0 -0 -0
3.068321 -2.1206472 -0.82627159
3.7615418 -2.5997615 -0.76230466
3.4065595 -2.3544183 -0.46156141
3.5069289 -2.4237878 -0.23811574
3.2946095 -2.2770448 0
3.2161345 -2.2228074 0.2183712
0 -0 -0
0 -0 -0
3.0666931 -2.1140511 -0.82514477
3.7710149 -2.5995812 -0.76358736
3.4115293 -2.3517668 -0.46184942
3.5569172 -2.4519911 -0.24130853
3.3016398 -2.2760136 0
3.2188179 -2.2189198 0.2183712
0 -0 -0
0 -0 -0
3.0441206 -2.0930688 -0.81839013
3.7635789 -2.5877521 -0.76144791
3.4164979 -2.349107 -0.46213746
3.5641556 -2.450633 -0.24159853
3.3065298 -2.2734957 0
3.2172103 -2.2120814 0.21808064
0 -0 -0
0 -0 -0
3.0529358 -2.0937016 -0.82007933
3.7772861 -2.5904608 -0.76358736
3.423604 -2.3479056 -0.46271458
3.5628324 -2.4433885 -0.24130853
3.2899601 -2.2562528 0
3.2177401 -2.2067244 0.21793564
0 -0 -0
0 -0 -0
3.0659475 -2.0971825 -0.8228932
3.763463 -2.5743001 -0.76016361
3.4285712 -2.345226 -0.46300259
3.5421882 -2.4229429 -0.23971185
3.3055763 -2.2610946 0
3.2311256 -2.2101684 0.21866119
0 -0 -0
0 -0 -0
3.0537927 -2.0834565 -0.81895465
3.775053 -2.5755379 -0.76187551
3.4185789 -2.3323326 -0.4612723
3.4721372 -2.3688729 -0.23477739
3.3147492 -2.2614949 0
3.2316494 -2.2047997 0.21851619
0 -0 -0
0 -0 -0
3.0605052 -2.0826213 -0.82007933
3.776042 -2.5695317 -0.76144791
3.4235389 -2.3296595 -0.46156141
3.4170005 -2.3252103 -0.23085904
3.3002667 -2.245775 0
3.2300186 -2.1979723 0.21822619
0 -0 -0
0 -0 -0
3.0735295 -2.086055 -0.8228932
3.7855182 -2.5692935 -0.76273227
3.4177911 -2.3197112 -0.46040824
3.4714079 -2.3561018 -0.2343424
3.3115914 -2.2476315 0
3.2434201 -2.2013626 0.21895175
0 -0 -0
0 -0 -0
3.0781579 -2.0837681 -0.82345772
3.7949994 -2.5690362 -0.76401657
3.379894 -2.2880294 -0.45493042
3.4957657 -2.3664691 -0.2357935
3.3056843 -2.237793 0
3.2439196 -2.1959813 0.21880619
0 -0 -0
0 -0 -0
3.0806735 -2.0800474 -0.82345772
3.7959671 -2.5630081 -0.76358736
3.3762233 -2.2796004 -0.45406526
3.4878571 -2.3549747 -0.23506795
3.3213313 -2.2425377 0
3.2422678 -2.1891546 0.21851619
0 -0 -0
0 -0 -0
3.0621049 -2.0621278 -0.81782782
3.7948067 -2.5555546 -0.76273227
3.3854134 -2.2798548 -0.45493042
0 -0 -0
3.321882 -2.2370706 0
3.2449107 -2.1852355 0.21851619
0 -0 -0
0 -0 -0
3.0667017 -2.0598416 -0.81839013
3.804287 -2.5552628 -0.76401657
3.3774323 -2.2685533 -0.45348924
3.4849098 -2.3407435 -0.23448738
3.3288991 -2.2359545 0
3.2453938 -2.1798656 0.2183712
0 -0 -0
0 -0 -0
3.0691884 -2.0561347 -0.81839013
3.7967019 -2.5435162 -0.76187551
3.4123974 -2.2860599 -0.45781279
3.4834139 -2.3336358 -0.23419683
3.3380871 -2.2362773 0
3.2437036 -2.1730473 0.21808064
0 -0 -0
0 -0 -0
3.0611093 -2.0453677 -0.81557626
3.8125832 -2.5474865 -0.76444411
3.4280648 -2.2905598 -0.45954311
3.4797556 -2.3250985 -0.23376183
3.3429484 -2.2336867 0
3.2463269 -2.1691263 0.21808064
0 -0 -0
0 -0 -0
3.0898182 -2.0618515 -0.8228932
3.8098469 -2.5423303 -0.76358736
3.4574149 -2.3071506 -0.46329063
3.483319 -2.3244367 -0.23390684
3.3226538 -2.2172239 0
3.2476368 -2.1671646 0.21808064
0 -0 -0
0 -0 -0
3.0944288 -2.0595284 -0.82345772
3.808646 -2.534883 -0.76273227
3.4860382 -2.320168 -0.46675012
3.4839642 -2.3187876 -0.23376183
3.3339965 -2.2189753 0
3.2459309 -2.1603622 0.21779063
0 -0 -0
0 -0 -0
3.1138422 -2.0670245 -0.82795864
3.8181245 -2.5345397 -0.76401657
3.512537 -2.3316853 -0.46992052
3.4824295 -2.3116994 -0.23347127
3.3323345 -2.2120638 0
3.2571983 -2.1621869 0.2183712
0 -0 -0
0 -0 -0
3.1099877 -2.0590565 -0.82627159
3.8233225 -2.5313404 -0.76444411
3.5347676 -2.3402944 -0.47251597
3.4722245 -2.2988858 -0.23260072
3.337173 -2.209471 0
3.2533066 -2.153945 0.21793564
0 -0 -0
0 -0 -0
3.1167102 -2.0580947 -0.82739627
3.8306587 -2.5295451 -0.7652992
3.5548515 -2.3474181 -0.47482121
3.4836731 -2.300416 -0.23318127
3.3528748 -2.2140443 0
3.2645802 -2.1557398 0.21851619
0 -0 -0
0 -0 -0
3.1064665 -2.0459447 -0.82402009
0 -0 -0
3.5641677 -2.3473904 -0.47568637
3.4842739 -2.2947717 -0.23303571
3.3555477 -2.2099915 0
3.2671828 -2.1517935 0.21851619
0 -0 -0
0 -0 -0
3.1153014 -2.0463705 -0.82570708
3.838912 -2.5216939 -0.76572841
3.5583541 -2.3374019 -0.4745332
3.4892223 -2.2919905 -0.23318127
3.3603885 -2.2073627 0
3.263263 -2.143563 0.21808064
0 -0 -0
0 -0 -0
3.1177719 -2.0426049 -0.82570708
3.8376577 -2.5142372 -0.76487166
3.5806456 -2.345856 -0.47712755
3.4941607 -2.2891955 -0.23332627
3.3587036 -2.2004511 0
3.2767162 -2.1467371 0.21880619
0 -0 -0
0 -0 -0
3.1159875 -2.0360591 -0.8245824
3.8428397 -2.5110011 -0.7652992
3.5748165 -2.3358686 -0.47597438
3.505625 -2.2906573 -0.23390684
3.343931 -2.1850026 0
3.2684336 -2.1356707 0.21808064
0 -0 -0
0 -0 -0
3.1163187 -2.0309064 -0.82402009
3.8415737 -2.5035555 -0.76444411
3.6101425 -2.3527317 -0.48029903
3.5127399 -2.2892544 -0.23419683
3.3552899 -2.1866443 0
3.2753696 -2.1345601 0.2183712
0 -0 -0
0 -0 -0
3.1230273 -2.0299063 -0.82514477
3.8510551 -2.5031102 -0.76572841
3.6303318 -2.3596444 -0.48260537
3.5176885 -2.2864285 -0.2343424
3.3492014 -2.1769152 0
3.2779465 -2.1306009 0.2183712
0 -0 -0
0 -0 -0
3.134006 -2.0316601 -0.82739627
3.8368444 -2.4872839 -0.76230466
3.665729 -2.3763564 -0.48692894
3.5313485 -2.2892423 -0.23506795
3.3692997 -2.1841922 0
3.2848752 -2.1294627 0.21866119
0 -0 -0
0 -0 -0
3.1321952 -2.0251153 -0.82627159
3.8376851 -2.4812484 -0.76187551
3.607789 -2.3326094 -0.47885785
3.5275636 -2.2807398 -0.23463239
3.3610027 -2.1730502 0
3.2918141 -2.1283164 0.21895175
0 -0 -0
0 -0 -0
3.1410401 -2.025456 -0.82795864
3.8298953 -2.4696548 -0.75973606
3.5236554 -2.2721803 -0.46732616
3.5434155 -2.2849224 -0.23550294
3.3811233 -2.1802704 0
3.2943835 -2.1243374 0.21895175
0 -0 -0
0 -0 -0
3.1456282 -2.0230377 -0.82852316
3.8501494 -2.4761341 -0.76315981
3.4720149 -2.2329454 -0.46011913
3.5636578 -2.2918835 -0.23666407
3.3837554 -2.1761835 0
3.296948 -2.1203554 0.21895175
0 -0 -0
0 -0 -0
3.1437888 -2.016489 -0.82739627
3.838011 -2.461777 -0.76016361
3.4507685 -2.2133918 -0.45694873
3.5773666 -2.2945943 -0.23739018
3.37762 -2.1664729 0
3.3038776 -2.119173 0.21924175
0 -0 -0
0 -0 -0
3.1547847 -2.0181658 -0.82964784
3.8388224 -2.4557557 -0.75973606
3.4403634 -2.200855 -0.45521843
3.5735679 -2.286068 -0.23695463
3.3780451 -2.160989 0
3.3064358 -2.1151795 0.21924175
0 -0 -0
0 -0 -0
3.16029 -2.0189979 -0.83077466
3.8424666 -2.4548166 -0.76016361
3.4395149 -2.1973848 -0.45493042
3.5749483 -2.2839086 -0.23695463
3.3793499 -2.1589477 0
3.3033378 -2.1103864 0.21895175
0 -0 -0
0 -0 -0
3.1627274 -2.015178 -0.83077466
3.8432672 -2.4487939 -0.75973606
3.437809 -2.1904502 -0.45435438
3.5777054 -2.2795873 -0.23695463
3.3775709 -2.1520686 0
3.3058856 -2.1063933 0.21895175
0 -0 -0
0 -0 -0
0 -0 -0
3.8440588 -2.4427729 -0.75930852
3.4426341 -2.1876807 -0.45464239
3.5738757 -2.2710805 -0.23651907
3.3757715 -2.1451917 0
3.3172007 -2.1079719 0.21953231
0 -0 -0
0 -0 -0
3.1439779 -1.9925656 -0.8245824
3.8556805 -2.4436231 -0.76102036
3.44964 -2.1862857 -0.45521843
3.572232 -2.2639811 -0.23622906
3.4113362 -2.16201 0
3.3175442 -2.1025672 0.21938676
0 -0 -0
0 -0 -0
3.1549745 -1.9941957 -0.82683396
3.8521185 -2.4348464 -0.75973606
3.4522793 -2.182116 -0.45521843
3.581548 -2.2638242 -0.23666407
3.391943 -2.1439786 0
3.3200822 -2.098557 0.21938676
0 -0 -0
0 -0 -0
3.1595292 -1.9917357 -0.82739627
3.8528881 -2.4288223 -0.75930852
3.4505415 -2.1751871 -0.45464239
3.5842807 -2.2594948 -0.23666407
3.4055452 -2.1468217 0
3.3358088 -2.1028605 0.22025786
0 -0 -0
0 -0 -0
3.1619334 -1.9879166 -0.82739627
3.8514779 -2.4214351 -0.75845337
3.4531674 -2.1710162 -0.45464239
3.4814258 -2.1887822 -0.22969793
3.4169497 -2.148246 0
3.3361495 -2.0974467 0.22011286
0 -0 -0
0 -0 -0
3.1664839 -1.9854431 -0.82795864
3.8478742 -2.4126871 -0.75716907
3.4667428 -2.1737108 -0.4560836
3.3629928 -2.1086578 -0.22171567
3.4129262 -2.139967 0
3.351886 -2.1016936 0.22098343
0 -0 -0
0 -0 -0
3.1538062 -1.9721891 -0.82402009
3.8551354 -2.4107556 -0.75802422
3.4540136 -2.1599195 -0.45406526
3.3501141 -2.0949473 -0.22069956
3.4177139 -2.1372199 0
3.358825 -2.1003947 0.22127342
0 -0 -0
0 -0 -0
3.151871 -1.9656851 -0.8228932
3.8580456 -2.4060955 -0.75802422
3.4653995 -2.1612194 -0.45521843
3.3394184 -2.0826504 -0.21982901
3.4180877 -2.1317129 0
3.3812101 -2.1087141 0.22258011
0 -0 -0
0 -0 -0
3.1499326 -1.9591938 -0.82176852
3.8587723 -2.4000776 -0.75759661
3.4745994 -2.16113 -0.4560836
3.3441367 -2.0799849 -0.219974
3.4162369 -2.1248295 0
3.3815429 -2.1032507 0.22243454
0 -0 -0
0 -0 -0
3.1436608 -1.9500289 -0.81951702
3.8594902 -2.3940613 -0.75716907
3.4772081 -2.15693 -0.4560836
3.337815 -2.0704637 -0.21939345
3.4099555 -2.1152129 0
3.3951287 -2.1060157 0.22316065
0 -0 -0
0 -0 -0
3.167824 -1.9544322 -0.8245824
3.8630817 -2.3833809 -0.75674152
3.4846096 -2.1498773 -0.45637161
3.3494451 -2.0664859 -0.21982901
3.4239168 -2.112432 0
3.4178913 -2.1087146 0.22432122
0 -0 -0
0 -0 -0
3.1766777 -1.954599 -0.82627159
3.8659587 -2.3787115 -0.75674152
3.489414 -2.1470246 -0.45666072
3.3386655 -2.0542696 -0.21895844
0 -0 0
3.4337194 -2.112756 0.22519232
0 -0 -0
2.7122114 -1.6665565 -0.87826753
3.1778579 -1.9526795 -0.82627159
3.8630166 -2.3736849 -0.75588477
3.4840972 -2.1408527 -0.45579556
3.3332622 -2.0481699 -0.21852289
3.4476938 -2.118484 0
3.4305632 -2.1079578 0.22490177
0 -0 -0
0 -0 -0
3.1802151 -1.9488382 -0.82627159
3.8702638 -2.3717008 -0.75674152
3.4888847 -2.1379914 -0.4560836
3.3534589 -2.0550022 -0.219684
0 -0 0
3.4286809 -2.1010983 0.22461177
0 -0 -0
2.7140923 -1.6586902 -0.87757599
3.1934059 -1.9516178 -0.82908547
3.8556035 -2.3563132 -0.75331777
3.4980886 -2.1378217 -0.45694873
3.3515007 -2.0482361 -0.21939345
3.4505849 -2.1087902 0
3.4223485 -2.0915339 0.22403121
0 -0 -0
2.7182348 -1.656714 -0.87826753
3.1849153 -1.9411472 -0.82627159
3.884752 -2.3676848 -0.75845337
3.5028756 -2.1349382 -0.45723677
3.3584151 -2.0468922 -0.219684
3.4509101 -2.1032662 0
3.4270899 -2.0887482 0.22417621
0 -0 -0
2.7223763 -1.6547302 -0.878959
3.1807425 -1.933337 -0.8245824
3.1374247 -1.9070073 -0.61209601
3.5142937 -2.1360779 -0.45838994
3.3631043 -2.0441811 -0.21982901
3.4512272 -2.0977445 0
3.4162927 -2.0765104 0.22330566
0 -0 -0
2.7286687 -1.654043 -0.88034469
3.1852472 -1.9308081 -0.82514477
3.1880178 -1.9324877 -0.62151045
3.5190818 -2.1331694 -0.45867795
3.3633518 -2.0387702 -0.219684
3.4537594 -2.0935729 0
3.4165792 -2.0710354 0.22316065
0 -0 -0
2.7693064 -1.674104 -0.89280224
3.1941032 -1.9309027 -0.82683396
3.1661832 -1.9140245 -0.61680239
3.5305107 -2.134268 -0.45983112
3.3724775 -2.0387337 -0.220119
3.4496031 -2.0853577 0
3.4213009 -2.0682485 0.22330566
0 -0 -0
2.7068756 -1.6319005 -0.87203872
3.2029643 -1.9309788 -0.82852316
3.1926787 -1.9247779 -0.62151045
3.5419471 -2.1353421 -0.46098429
3.3882949 -2.0427094 -0.22099012
3.4677238 -2.090595 0
3.4326987 -2.0694795 0.22388621
0 -0 -0
2.7002451 -1.6234579 -0.86927009
3.2074707 -1.9284152 -0.82908547
3.1883998 -1.9169493 -0.62022614
3.5578291 -2.1390598 -0.46271458
3.3796279 -2.0319207 -0.22026455
3.4680107 -2.0850587 0
3.4351969 -2.06533 0.22388621
0 -0 -0
2.7000551 -1.6189052 -0.86857855
3.2054358 -1.9219224 -0.82795864
3.1951213 -1.915738 -0.6210829
3.5470972 -2.1267765 -0.46098429
3.3753929 -2.0238256 -0.21982901
3.4727659 -2.0822089 0
3.4332285 -2.0585029 0.22359565
0 -0 -0
2.7235372 -1.6285139 -0.87549889
3.2186658 -1.9245715 -0.83077466
3.1974337 -1.911876 -0.6210829
3.551882 -2.1238151 -0.4612723
3.3599944 -2.0090775 -0.21866788
3.4529386 -2.0646527 0
3.4290292 -2.0503561 0.22316065
0 -0 -0
2.7513599 -1.6406405 -0.8838048
3.2100711 -1.9141705 -0.82795864
3.1953275 -1.9053791 -0.62022614
3.5566738 -2.1208503 -0.46156141
3.3601899 -2.0036867 -0.21852289
3.4509645 -2.0578158 0
3.4248066 -2.0422177 0.22272509
0 -0 -0
2.7404068 -1.6296235 -0.87965316
3.2189355 -1.9141878 -0.82964784
3.1932189 -1.898895 -0.619371
3.5570042 -2.1152253 -0.4612723
3.3693109 -2.0036106 -0.21895844
3.4512138 -2.0523155 0
3.4362054 -2.0433905 0.22330566
0 -0 -0
2.7315784 -1.619909 -0.87619036
3.2125039 -1.9051126 -0.82739627
3.1999228 -1.8976517 -0.62022614
3.3882661 -2.0093448 -0.43907517
3.3985407 -2.0154381 -0.22069956
3.4581637 -2.0507963 0
3.4319646 -2.0352595 0.2228701
0 -0 -0
2.7205813 -1.6089474 -0.87203872
3.2148037 -1.9012295 -0.82739627
3.1955826 -1.8898623 -0.61894184
3.1235533 -1.8472643 -0.40448228
3.4949062 -2.0668817 -0.22679514
3.4584012 -2.0452929 0
3.4321868 -2.0297897 0.22272509
0 -0 -0
2.7592576 -1.6273234 -0.8838048
3.2170985 -1.8973438 -0.82739627
3.2111349 -1.8938266 -0.62151045
3.1302345 -1.846114 -0.40505832
3.6316838 -2.1418531 -0.23550294
3.4541428 -2.0371449 0
3.4279203 -2.0216799 0.22228955
0 -0 -0
2.7374325 -1.6099967 -0.87619036
3.2237732 -1.8960339 -0.82852316
3.2045701 -1.8847395 -0.6197986
3.1369262 -1.8449554 -0.40563545
3.6454747 -2.1440537 -0.23622906
3.4476287 -2.0276923 0
3.4303606 -2.0175364 0.22228955
0 -0 -0
2.7523639 -1.6143057 -0.88034469
3.2238638 -1.8908479 -0.82795864
3.2090571 -1.8821636 -0.62022614
3.1503062 -1.8477052 -0.40707666
3.5359981 -2.0739198 -0.22897238
3.4545703 -2.026161 0
3.432796 -2.0133898 0.22228955
0 -0 -0
2.7446797 -1.6075709 -0.87757599
3.2250056 -1.8888999 -0.82795864
3.2146282 -1.8828218 -0.6210829
3.1469541 -1.8431847 -0.40649951
3.4206665 -2.0034993 -0.22142567
3.4445591 -2.0174932 0
3.4385004 -2.0139446 0.22258011
0 -0 -0
2.7292895 -1.5941309 -0.87203872
3.229486 -1.886287 -0.82852316
3.2191153 -1.8802296 -0.62151045
3.1380138 -1.8328596 -0.40505832
3.3916678 -1.9810145 -0.21939345
3.4380138 -2.0080843 0
3.4364395 -2.0071647 0.22228955
0 -0 -0
2.729048 -1.5895704 -0.87134725
3.2383435 -1.8862163 -0.83021015
3.2280416 -1.8802159 -0.62279475
3.1245878 -1.8199577 -0.40304109
3.3895726 -1.9743017 -0.21910344
3.4561732 -2.0130939 0
3.4456003 -2.0069358 0.22272509
0 -0 -0
2.733134 -1.5875305 -0.87203872
3.238425 -1.881027 -0.82964784
3.2303112 -1.876314 -0.62279475
3.1357222 -1.8213724 -0.40419316
3.3897109 -1.9689008 -0.21895844
3.4608512 -2.0102224 0
3.4435246 -2.0001583 0.22243454
0 -0 -0
2.7654386 -1.6018287 -0.88172764
3.2384989 -1.8758403 -0.82908547
3.2259099 -1.8685483 -0.62151045
3.1401651 -1.8188822 -0.40448228
3.4033279 -1.9713143 -0.219684
3.4565282 -2.0021296 0
3.4526865 -1.9999045 0.2228701
0 -0 -0
2.7586823 -1.5934668 -0.878959
3.2451594 -1.8744652 -0.83021015
3.2259445 -1.8633662 -0.6210829
3.137877 -1.8124968 -0.40390515
3.3989549 -1.9633003 -0.21924844
3.4589448 -1.9979516 0
3.461853 -1.9996314 0.22330566
0 -0 -0
2.7540903 -1.5863793 -0.87688452
3.247422 -1.8705426 -0.83021015
3.2304161 -1.860747 -0.62151045
3.1378255 -1.8074142 -0.40361714
3.4058237 -1.9617833 -0.21953845
3.4613564 -1.9937707 0
3.4507525 -1.9876627 0.22243454
0 -0 -0
2.7842836 -1.5992936 -0.88588196
3.2584929 -1.8716797 -0.83246171
3.2304382 -1.855565 -0.6210829
3.1489785 -1.8087745 -0.40477031
3.4081917 -1.9576666 -0.21953845
3.463763 -1.9895868 0
3.4463985 -1.9796127 0.22199954
0 -0 -0
2.7687984 -1.5859526 -0.88034469
3.2497301 -1.8614278 -0.82964784
3.2349033 -1.852935 -0.62151045
3.1466687 -1.8023946 -0.40419316
3.4128158 -1.9548423 -0.219684
3.4684205 -1.9866924 0
3.4510405 -1.9767373 0.22214454
0 -0 -0
2.7881403 -1.5925604 -0.88588196
3.2608025 -1.8625407 -0.83189934
3.2371397 -1.8490249 -0.62151045
3.1510966 -1.7998778 -0.40448228
3.4219379 -1.9545798 -0.220119
3.4708185 -1.9825001 0
3.4579349 -1.975141 0.22243454
0 -0 -0
2.7682588 -1.5767711 -0.878959
3.2807136 -1.86866 -0.83640248
3.2460656 -1.8489249 -0.62279475
3.1577597 -1.7986268 -0.40505832
3.4197857 -1.947874 -0.21982901
3.4754708 -1.9795916 0
3.4670947 -1.9748207 0.2228701
0 -0 -0
2.7679827 -1.5721873 -0.87826753
3.269717 -1.8571674 -0.83302623
3.2482972 -1.8450012 -0.62279475
3.155437 -1.7922575 -0.40448228
3.4424694 -1.9552891 -0.22113511
3.4846511 -1.979248 0
3.4740016 -1.9731991 0.22316065
0 -0 -0
2.780793 -1.5750223 -0.88172764
3.2807937 -1.8582194 -0.83527559
3.2505243 -1.8410749 -0.62279475
3.1463497 -1.7820712 -0.40304109
3.4403119 -1.9485694 -0.22084512
3.4938359 -1.9788851 0
3.4718571 -1.9664364 0.2228701
0 -0 -0
2.7761471 -1.5679635 -0.87965316
3.2852554 -1.855507 -0.83584011
3.2460387 -1.8333575 -0.62151045
3.1462421 -1.7769926 -0.40275198
3.449445 -1.948241 -0.22128011
3.503016 -1.9784979 0
3.4810202 -1.9660747 0.22330566
0 -0 -0
2.7955186 -1.5744522 -0.8851878
3.2897067 -1.8527818 -0.83640248
3.2549639 -1.8332144 -0.62279475
3.1528986 -1.7757306 -0.40332913
3.4653852 -1.9517249 -0.22215123
3.5008733 -1.971712 0
3.4788609 -1.9593145 0.2230151
0 -0 -0
2.7667994 -1.5538768 -0.87549889
3.2985914 -1.8525393 -0.83809167
3.2594128 -1.8305359 -0.62322229
3.1595478 -1.7744503 -0.40390515
3.4632053 -1.944989 -0.22186068
3.5100627 -1.9713048 0
3.4766989 -1.9525671 0.22272509
0 -0 -0
2.7993152 -1.5676919 -0.8851878
3.3008275 -1.8485522 -0.83809167
3.2571383 -1.8240851 -0.62236553
3.1662073 -1.7731613 -0.40448228
3.4542196 -1.9344559 -0.22113511
3.5124421 -1.9670621 0
3.4790556 -1.9483647 0.22272509
0 -0 -0
2.7958868 -1.5635537 -0.8838048
3.2997196 -1.8453139 -0.83752716
3.2694402 -1.8283806 -0.62450498
3.1582482 -1.7661983 -0.40332913
3.4599278 -1.9349077 -0.22142567
3.4977276 -1.9560466 0
3.4824979 -1.9475296 0.2228701
0 -0 -0
2.799963 -1.5613949 -0.88449633
3.3019469 -1.8413255 -0.83752716
3.2649274 -1.8206816 -0.62322229
3.1671505 -1.7661564 -0.40419316
3.4667976 -1.9332542 -0.22171567
3.5182724 -1.961959 0
3.4871159 -1.9445846 0.2230151
0 -0 -0
2.7952762 -1.5543565 -0.88242179
3.3063965 -1.8385727 -0.83809167
3.2693663 -1.8179816 -0.6236499
3.1647656 -1.7598166 -0.40361714
3.4600472 -1.9240127 -0.22113511
3.5160871 -1.9551744 0
3.4940093 -1.9428977 0.22330566
0 -0 -0
2.7927599 -1.5485423 -0.88103616
3.3130558 -1.8370383 -0.83921635
3.2738035 -1.8152735 -0.62407744
3.1668897 -1.7559915 -0.40361714
3.44646 -1.9110088 -0.220119
3.5252771 -1.9547118 0
3.5077145 -1.9449736 0.22403121
0 -0 -0
2.8385396 -1.569445 -0.8948794
3.3174944 -1.834262 -0.83977866
3.2849808 -1.816285 -0.62578928
3.1576936 -1.7459072 -0.40217596
3.3714547 -1.8640969 -0.21518454
3.5299118 -1.9517088 0
3.5259821 -1.9495361 0.22504734
0 -0 -0
2.8074768 -1.5478439 -0.88449633
3.3197083 -1.8302522 -0.83977866
3.2759349 -1.8061185 -0.6236499
3.1620636 -1.743338 -0.40246397
3.1985002 -1.7634264 -0.20400949
3.5231512 -1.9424161 0
3.5283353 -1.9452742 0.22504734
0 -0 -0
2.8115413 -1.545658 -0.8851878
3.3174684 -1.8237938 -0.83865398
3.2736201 -1.7996879 -0.62279475
3.1709697 -1.7432554 -0.40332913
3.1869707 -1.7520519 -0.20313893
3.5414619 -1.9469352 0
3.5306833 -1.9410095 0.22504734
0 -0 -0
2.8112092 -1.5410548 -0.88449633
3.3218956 -1.8210042 -0.83921635
3.2757924 -1.7957311 -0.62279475
3.1662674 -1.7356914 -0.40246397
3.1845238 -1.7456993 -0.20284837
3.5460918 -1.9439044 0
3.5444164 -1.942986 0.22577289
0 -0 -0
2.8196754 -1.541268 -0.88657343
3.328557 -1.8194287 -0.84034318
3.2644403 -1.7843816 -0.62022614
3.1729059 -1.7343479 -0.40304109
3.182075 -1.73936 -0.20255838
3.5370221 -1.9333782 0
3.5581598 -1.9449322 0.22649844
0 -0 -0
2.8347483 -1.5450613 -0.89072508
0 -0 -0
3.2418063 -1.7669256 -0.6155197
3.1840746 -1.7354593 -0.40419316
3.1796069 -1.7330242 -0.20226783
3.5142171 -1.9154015 0
3.5559485 -1.9381468 0.22620845
0 -0 -0
2.8300068 -1.5380445 -0.8886506
3.3508041 -1.821086 -0.84484625
3.2010825 -1.7397157 -0.60738796
3.1702681 -1.7229687 -0.40217596
3.18855 -1.7329047 -0.20270339
3.2970309 -1.7918615 0
3.5537171 -1.9313648 0.22591789
0 -0 -0
2.8318632 -1.5346239 -0.8886506
3.3552339 -1.8182454 -0.84540862
3.9975927 -2.166348 -0.75802422
3.1791718 -1.7228351 -0.40304109
3.1974976 -1.7327659 -0.20313893
3.2099636 -1.7395215 0
3.48066 -1.8862154 0.22112842
0 -0 -0
2.849159 -1.539546 -0.89349377
3.3641284 -1.8178102 -0.84709561
4.0002074 -2.1615162 -0.75802422
3.2153776 -1.7374326 -0.40736467
3.2270215 -1.7437243 -0.20488061
3.2074795 -1.7331648 0
3.2337677 -1.7473696 0.20530891
0 -0 -0
2.83777 -1.5289646 -0.88934213
3.3663223 -1.8137439 -0.84709561
4.0028162 -2.1566811 -0.75802422
3.222033 -1.7360022 -0.40794179
3.2748682 -1.7644693 -0.20778285
3.2095714 -1.729288 0
3.215291 -1.7323697 0.2040028
0 -0 -0
2.8617113 -1.5374054 -0.89626241
3.3662753 -1.8084737 -0.8465333
4.0054193 -2.1518428 -0.75802422
0 -0 -0
3.3365083 -1.7924819 -0.2115562
3.209368 -1.7241781 0
3.2105215 -1.7247976 0.2035678
0 -0 -0
2.8370292 -1.5197309 -0.88795644
3.3751795 -1.8080055 -0.84822249
4.0193286 -2.1530612 -0.76016361
3.242172 -1.7367564 -0.40995902
3.350131 -1.7945875 -0.2122823
4.1106873 -2.2019999 0
3.2171798 -1.7233686 0.20385781
0 -0 -0
2.8556445 -1.527483 -0.89349377
3.3650708 -1.7999749 -0.84540862
4.0093126 -2.1445796 -0.75802422
3.2318194 -1.7286988 -0.40851784
3.3282976 -1.7803049 -0.21083063
4.0385823 -2.1602359 0
3.2021792 -1.7128444 0.20284168
0 -0 -0
2.846422 -1.5181295 -0.8900336
3.369483 -1.7971022 -0.84597093
4.0209613 -2.1445658 -0.75973606
3.227057 -1.7211398 -0.40765268
3.2547882 -1.7359301 -0.20604117
4.0871158 -2.1798491 0
3.3372209 -1.7798953 0.2112595
0 -0 -0
2.8460414 -1.5135121 -0.88934213
3.3783844 -1.7966098 -0.84766012
4.0326157 -2.1445272 -0.76144791
3.2131555 -1.7087417 -0.40563545
3.1995389 -1.7015005 -0.20241338
4.124207 -2.1932349 0
3.3921382 -1.803924 0.21459785
0 -0 -0
2.8522968 -1.5124204 -0.89072508
3.3850381 -1.7949047 -0.8487848
4.0397444 -2.1420603 -0.76230466
3.228924 -1.7121257 -0.40736467
3.208473 -1.7012817 -0.20284837
4.1452479 -2.1980033 0
3.4471097 -1.8278179 0.21793564
0 -0 -0
2.8585622 -1.5113204 -0.89211076
3.3894486 -1.7919997 -0.84934717
4.0582089 -2.1455729 -0.7652992
3.2995832 -1.744488 -0.41601288
3.2472808 -1.7168356 -0.20517062
3.4738231 -1.8366084 0
3.4125612 -1.8042194 0.21561341
0 -0 -0
2.8182178 -1.4856359 -0.878959
3.3871202 -1.7855353 -0.84822249
4.0698819 -2.1454563 -0.76701111
3.3588874 -1.7706523 -0.42321992
3.3435941 -1.7625904 -0.21112119
3.5059662 -1.8481855 0
3.4676092 -1.8279655 0.21895175
0 -0 -0
2.8266749 -1.4857323 -0.88103616
3.3937693 -1.7838035 -0.84934717
4.056572 -2.13218 -0.76401657
3.4159722 -1.7954736 -0.43013892
3.4147196 -1.7948152 -0.2154751
3.5496583 -1.8657405 0
3.4997144 -1.8394895 0.22083843
0 -0 -0
2.8640218 -1.5009483 -0.89211076
3.3891768 -1.7761664 -0.84766012
4.0636883 -2.1296577 -0.76487166
3.4754107 -1.821359 -0.43734595
4.1487365 -2.1742289 -0.26162693
3.6141508 -1.8940686 0
3.5088325 -1.8388743 0.22127342
0 -0 -0
2.8747275 -1.5021341 -0.8948794
3.3958201 -1.7744212 -0.8487848
4.0685315 -2.1259336 -0.7652992
3.5165772 -1.8375205 -0.44224665
4.174386 -2.181246 -0.26307806
3.6441071 -1.9041588 0
3.5294757 -1.8442603 0.22243454
0 -0 -0
2.8453872 -1.4824289 -0.8851878
3.3934593 -1.767971 -0.84766012
4.0688229 -2.1198313 -0.76487166
3.5623713 -1.8559731 -0.44772339
7.8823886 -4.1066747 -0.4964506
3.6994925 -1.9274123 0
3.5478349 -1.8483998 0.22345066
0 -0 -0
2.8623319 -1.4824733 -0.88934213
3.3977218 -1.7597651 -0.84766012
4.0739341 -2.1099923 -0.76487166
3.6288598 -1.8794771 -0.45550755
7.9084344 -4.0959759 -0.49746618
3.8358519 -1.9866837 0
9.1196289 -4.7232838 0.57365423
0 -0 -0
2.9020138 -1.4985812 -0.90110821
3.3998458 -1.7556584 -0.84766012
4.0764804 -2.1050682 -0.76487166
3.6564012 -1.8881419 -0.45867795
7.9433899 -4.1019154 -0.49935284
9.0870943 -4.6925173 0
9.1530342 -4.7265682 0.57539588
0 -0 -0
2.8748281 -1.4801455 -0.89211076
3.399699 -1.7503827 -0.84709561
4.08359 -2.1024935 -0.76572841
3.6885722 -1.8991131 -0.46242547
7.9737549 -4.1053991 -0.5009495
9.1436577 -4.7077403 0
0 -0 0
0 -0 -0
2.8476021 -1.4617777 -0.88311332
3.4176369 -1.7543972 -0.85103637
4.0975442 -2.1034181 -0.76786786
3.7092724 -1.9041042 -0.46473181
7.9648442 -4.088644 -0.50007898
0 -0 0
0 -0 0
0 -0 -0
2.8761654 -1.4720519 -0.89141923
3.4084473 -1.7444793 -0.84822249
4.1000829 -2.0984657 -0.76786786
3.7276897 -1.907871 -0.46675012
8.8764582 -4.5430651 -0.5569703
0 -0 0
9.216361 -4.717031 0.57829815
0 -0 -0
2.875701 -1.4674319 -0.89072508
3.4105525 -1.7403595 -0.84822249
4.1003222 -2.0923398 -0.76743865
3.7369061 -1.9068934 -0.46761528
0 -0 -0
0 -0 0
9.2613983 -4.7259684 0.58076537
0 -0 -0
2.8788288 -1.4668366 -0.89141923
3.4048092 -1.7348371 -0.8465333
4.1038795 -2.0910308 -0.76786786
3.7587965 -1.9152024 -0.47020963
8.893939 -4.5316882 -0.55755085
9.2330465 -4.7044721 0
9.2897215 -4.7333498 0.58236206
0 -0 -0
2.9096742 -1.4781272 -0.90041667
3.411438 -1.7330256 -0.84766012
4.1086893 -2.0872321 -0.76829541
3.7657154 -1.9129999 -0.47078568
8.9272079 -4.5350609 -0.5592925
9.27353 -4.7109938 0
9.32092 -4.7350683 0.58395869
0 -0 -0
2.8913174 -1.4644095 -0.89418793
3.4089918 -1.7266039 -0.8465333
4.1089206 -2.0811074 -0.76786786
3.7703292 -1.9096159 -0.47107369
8.983674 -4.5500979 -0.56248534
9.3256493 -4.7233033 0
9.3544426 -4.7378864 0.5856998
0 -0 -0
2.8774066 -1.4529978 -0.88934213
3.4133415 -1.7236277 -0.84709561
4.1183 -2.0796092 -0.7691505
3.7911046 -1.9143858 -0.47338003
9.0146828 -4.552125 -0.56408197
9.3592272 -4.726109 0
9.3926382 -4.74298 0.58773208
0 -0 -0
2.8813987 -1.450647 -0.8900336
3.4267757 -1.7252183 -0.84991169
4.1162286 -2.072325 -0.76829541
3.8072805 -1.9167844 -0.47511032
9.048027 -4.5552506 -0.56582367
9.38585 -4.725328 0
9.4192476 -4.7421427 0.58903819
0 -0 -0
2.8943582 -1.4527904 -0.89349377
3.4220431 -1.7176559 -0.84822249
4.1256146 -2.0708055 -0.76957971
3.8165221 -1.9156601 -0.47597438
9.0744228 -4.5548043 -0.56712979
9.4194641 -4.7279935 0
9.45051 -4.7435765 0.59063429
0 -0 -0
2.8983614 -1.450418 -0.89418793
3.4309349 -1.7169322 -0.84991169
4.134994 -2.0692623 -0.7708624
3.8327167 -1.9179945 -0.47770467
9.1124477 -4.5601139 -0.56916147
9.4554234 -4.7317481 0
9.4910927 -4.749598 0.59281152
0 -0 -0
2.8911324 -1.4424348 -0.89141923
3.4398212 -1.7161851 -0.85159874
4.1374912 -2.0642643 -0.7708624
3.8350313 -1.913362 -0.47770467
9.1481762 -4.5641794 -0.57104814
9.484417 -4.731936 0
9.5224037 -4.7508879 0.59440821
0 -0 -0
2.8883765 -1.4367037 -0.8900336
3.4305196 -1.7063705 -0.8487848
4.1537776 -2.0661252 -0.773431
3.8303907 -1.9052699 -0.47683954
9.1816025 -4.5670094 -0.57278979
9.5250816 -4.7378588 0
9.5583792 -4.7544217 0.59629488
0 -0 -0
2.9125817 -1.4443562 -0.89695388
3.432579 -1.7022241 -0.8487848
4.1516671 -2.0588217 -0.77257425
3.8280602 -1.8983442 -0.47626349
9.2103977 -4.5674582 -0.57424146
9.5634365 -4.7425313 0
9.5990295 -4.7601819 0.59847152
0 -0 -0
2.9053378 -1.4363928 -0.89418793
3.4391932 -1.7003297 -0.84991169
4.1656551 -2.0594909 -0.7747137
3.8257096 -1.8914225 -0.47568637
9.2322083 -4.564384 -0.575257
9.6018171 -4.7471175 0
9.6373892 -4.7647047 0.60050374
0 -0 -0
2.9340658 -1.4461867 -0.90249121
3.4480758 -1.6995397 -0.85159874
4.1704502 -2.0555944 -0.77514291
3.8210299 -1.8833669 -0.47482121
9.2750082 -4.5716062 -0.57757926
9.6332264 -4.7481699 0
9.6710987 -4.7668371 0.60224491
0 -0 -0
2.9065423 -1.4282578 -0.89349377
3.4410052 -1.6908897 -0.84934717
4.1637149 -2.046025 -0.773431
3.8325882 -1.8833114 -0.47597438
9.3155088 -4.5775867 -0.5797565
9.6646423 -4.7491488 0
9.7048368 -4.7688999 0.60398656
0 -0 -0
2.9037645 -1.4225396 -0.89211076
3.452173 -1.691202 -0.85159874
4.1730933 -2.0443773 -0.7747137
3.8278997 -1.8752687 -0.47511032
9.351366 -4.5811872 -0.58164316
9.7054329 -4.7546425 0
9.7385941 -4.7708879 0.60572821
0 -0 -0
2.9167504 -1.4245337 -0.89557087
3.4519329 -1.6859156 -0.85103637
4.1801782 -2.0415888 -0.77557045
3.8348064 -1.87291 -0.47568637
9.3895788 -4.5858469 -0.58367485
9.7322149 -4.75319 0
9.7770348 -4.7750797 0.60775989
0 -0 -0
2.9229765 -1.4232028 -0.89695388
3.4516852 -1.6806321 -0.850474
4.1895685 -2.0399089 -0.77685475
3.8440454 -1.871673 -0.4765515
9.420805 -4.5870075 -0.58527094
9.7707052 -4.7573748 0
9.8084984 -4.7757764 0.60935658
0 -0 -0
2.9337218 -1.424052 -0.89972252
3.4537134 -1.6764601 -0.850474
4.1943374 -2.035965 -0.7772823
3.8463042 -1.8670268 -0.4765515
9.4567356 -4.5903754 -0.5871582
9.8115673 -4.7626133 0
9.8469839 -4.7798047 0.61138827
0 -0 -0
2.9399612 -1.4226938 -0.90110821
3.4763188 -1.682246 -0.85553944
4.1967945 -2.0308955 -0.7772823
3.8578701 -1.8668846 -0.47770467
9.4926796 -4.5936584 -0.58904487
9.8477669 -4.7654905 0
9.8855028 -4.7837515 0.61342049
0 -0 -0
2.9453335 -1.4230982 -0.90249121
3.4727633 -1.6779367 -0.85441476
4.204957 -2.0317111 -0.7785666
3.8543351 -1.8623009 -0.47712755
9.5258665 -4.6026177 -0.59093153
9.8764229 -4.771996 0
9.9164572 -4.7913394 0.6151616
0 -0 -0
2.9425349 -1.4173629 -0.90110821
3.4770753 -1.6748409 -0.85497713
4.2097197 -2.0277417 -0.7789942
3.8589194 -1.858768 -0.47741666
9.5641909 -4.6068888 -0.59296322
9.9243813 -4.7803855 0
9.9596958 -4.7973957 0.61748385
0 -0 -0
2.9578102 -1.4203203 -0.90525985
3.4882584 -1.6750379 -0.85722864
4.2144785 -2.0237637 -0.77942175
3.8634918 -1.8552223 -0.47770467
9.5838003 -4.6020756 -0.59383374
9.9559498 -4.7807789 0
10.000624 -4.8022313 0.61966109
0 -0 -0
2.9369001 -1.4059149 -0.89833957
3.4811125 -1.6664332 -0.85497713
4.2146072 -2.0175624 -0.7789942
3.8703921 -1.8527842 -0.47828072
9.6104546 -4.6005931 -0.59514046
9.9898882 -4.7822304 0
10.029852 -4.8013611 0.62111217
0 -0 -0
2.9431207 -1.4045241 -0.89972252
3.4922962 -1.6666032 -0.85722864
4.2216711 -2.0146775 -0.77984929
3.870296 -1.8469933 -0.47799271
9.6300726 -4.5956898 -0.59601098
10.030892 -4.7869701 0
10.068473 -4.8049045 0.62314385
0 -0 -0
2.9742644 -1.414977 -0.90871996
3.4874218 -1.6591065 -0.85553944
4.2241025 -2.0095751 -0.77984929
3.8748584 -1.8434255 -0.47828072
9.6379623 -4.5851655 -0.596156
10.069567 -4.7904968 0
10.107126 -4.8083653 0.62517607
2.5467515 -1.2078203 -0.92939556
2.9510441 -1.3995599 -0.90110821
3.4917176 -1.6559792 -0.85610181
4.2311711 -2.0066717 -0.78070605
3.8911092 -1.8453944 -0.48001102
9.6552324 -4.579083 -0.59688157
10.11297 -4.7961693 0
10.141102 -4.8095112 0.62691778
2.610774 -1.2343217 -0.9522146
2.952733 -1.395993 -0.90110821
3.4960108 -1.6528438 -0.85666412
4.2405572 -2.0048504 -0.78199035
3.8863189 -1.8373737 -0.47914588
9.6654615 -4.5696363 -0.59717214
10.146992 -4.7972946 0
10.17979 -4.8128004 0.62894946
2.6413262 -1.2448634 -0.96280837
2.9453402 -1.388146 -0.89833957
3.5003104 -1.6497048 -0.85722864
4.2476163 -2.0019119 -0.7828455
3.8838615 -1.8304733 -0.47856984
9.6827259 -4.5634923 -0.59789765
10.181031 -4.7983446 0
10.220848 -4.8171105 0.63112611
2.6450632 -1.242721 -0.96362251
2.9719946 -1.396322 -0.905954
3.5045986 -1.6465535 -0.85779101
4.2523532 -1.9978684 -0.78327304
3.897773 -1.8312774 -0.48001102
9.6976404 -4.5562091 -0.59847826
10.215078 -4.799315 0
10.26194 -4.821332 0.63330334
2.6129866 -1.2237984 -0.95139724
2.9555042 -1.3842174 -0.90041667
3.5203874 -1.6487818 -0.86116719
4.2547641 -1.9927288 -0.78327304
3.9046631 -1.8287582 -0.48058707
9.7031384 -4.544488 -0.59847826
10.258578 -4.8046298 0
10.305409 -4.8265629 0.63562554
2.6189468 -1.2227335 -0.95302874
2.9571745 -1.3806453 -0.90041667
3.5154767 -1.6413053 -0.8594802
4.2687969 -1.9930153 -0.78541243
3.8974955 -1.8196621 -0.47943389
9.7039185 -4.5305638 -0.59818822
10.285598 -4.8021383 0
10.34184 -4.8283963 0.63751227
0 -0 -0
2.9770367 -1.3855397 -0.905954
3.5174575 -1.6370564 -0.8594802
4.2735357 -1.988942 -0.78584164
3.8996913 -1.8149514 -0.47943389
9.7188082 -4.523221 -0.59876877
10.322063 -4.8039813 0
10.387712 -4.8345346 0.63997948
0 -0 -0
2.9650497 -1.3756045 -0.90179968
3.5217357 -1.6338732 -0.86004251
4.2759361 -1.9837769 -0.78584164
3.8971934 -1.8080631 -0.47885785
9.7171936 -4.5081925 -0.59833324
10.344389 -4.7991734 0
10.433616 -4.8405695 0.6424467
2.544852 -1.1769234 -0.92450732
2.998584 -1.3867618 -0.91148859
3.5144823 -1.6253505 -0.85779101
4.2853131 -1.9818383 -0.78712434
3.8993752 -1.8033528 -0.47885785
9.7344236 -4.5019007 -0.59905881
10.35018 -4.7866707 0
10.470114 -4.8421373 0.64433336
2.5507572 -1.1759151 -0.92613566
3.0025423 -1.3841909 -0.91218275
3.5141385 -1.6200401 -0.85722864
4.2877045 -1.9766589 -0.78712434
3.9015515 -1.7986398 -0.47885785
9.7374983 -4.4890485 -0.59891379
10.372502 -4.7817893 0
10.506632 -4.8436236 0.64622003
2.6442525 -1.2151452 -0.95954847
2.9882534 -1.373228 -0.90733695
3.5114713 -1.6136687 -0.85610181
4.2900901 -1.9714767 -0.78712434
3.9037218 -1.7939242 -0.47885785
9.7499924 -4.4805312 -0.59934878
10.366451 -4.7638202 0
10.543169 -4.8450289 0.64810675
2.6000574 -1.1929336 -0.94324917
2.9845264 -1.369332 -0.905954
3.5239906 -1.6168438 -0.85891569
4.3029532 -1.9742399 -0.78926539
3.9048049 -1.7915655 -0.47885785
9.7621441 -4.4789739 -0.59992933
10.388242 -4.7662344 0
10.583881 -4.8559961 0.65042895
2.662178 -1.2175435 -0.96525091
2.9770529 -1.361551 -0.90318537
3.5190163 -1.6094172 -0.85722864
4.2983298 -1.9658352 -0.78798109
3.9046171 -1.7857713 -0.47856984
9.7746401 -4.4704185 -0.60036492
10.382162 -4.7482677 0
10.62991 -4.8615751 0.65289617
2.6569068 -1.211253 -0.96280837
2.996949 -1.3662742 -0.90871996
3.523268 -1.606217 -0.85779101
4.3030353 -1.9617039 -0.78840864
3.8973579 -1.7767603 -0.47741666
9.7823963 -4.459681 -0.60050988
10.394998 -4.7389588 0
10.675969 -4.8670502 0.65536344
2.656112 -1.2070163 -0.96199101
3.0214419 -1.3730332 -0.91564292
3.5252063 -1.6019586 -0.85779101
4.3030677 -1.9554421 -0.78798109
3.894788 -1.7699076 -0.47683954
9.7735891 -4.4414101 -0.59963936
10.41256 -4.7317777 0
10.717319 -4.8702693 0.65754008
2.666574 -1.2078854 -0.96525091
3.0070999 -1.3621343 -0.91079712
3.5271394 -1.597698 -0.85779101
4.3124447 -1.9534199 -0.78926539
3.8945701 -1.764134 -0.4765515
9.7813129 -4.4306684 -0.59978437
10.427753 -4.7234879 0
10.761067 -4.8744702 0.65986234
2.6364989 -1.1904249 -0.95384294
3.0064592 -1.3574684 -0.91010565
3.5360169 -1.5965728 -0.8594802
4.3148017 -1.9482077 -0.78926539
3.8943436 -1.7583636 -0.47626349
9.7819281 -4.4167099 -0.59949434
10.435822 -4.7119546 0
10.814315 -4.8828502 0.66276515
2.6266685 -1.1821675 -0.9497689
3.0309703 -1.3641291 -0.91702592
3.5402582 -1.5933409 -0.86004251
4.3101277 -1.939831 -0.78798109
3.8893874 -1.7504711 -0.47539833
9.8038368 -4.4123487 -0.60050988
10.458123 -4.7068191 0
10.865221 -4.890039 0.66552234
2.6506414 -1.1891074 -0.95791698
2.9960015 -1.3440398 -0.905954
3.5375397 -1.58698 -0.85891569
4.3124685 -1.9346217 -0.78798109
3.8820601 -1.7415357 -0.47424519
9.7996778 -4.3962455 -0.59992933
10.499423 -4.7101588 0
10.951734 -4.9130702 0.67045736
2.6272633 -1.1748084 -0.9489547
3.0434191 -1.3608968 -0.91979456
3.5464156 -1.585817 -0.86060488
4.3194852 -1.9315033 -0.78883618
3.8699992 -1.7305107 -0.47251597
9.8049831 -4.3844013 -0.59992933
10.524104 -4.7059636 0
0 -0 0
2.6918828 -1.1998029 -0.97177064
3.0244403 -1.3480275 -0.91356575
3.5576124 -1.5856683 -0.86285639
4.3335376 -1.9315069 -0.79097563
3.8838971 -1.7310972 -0.47395715
9.8079023 -4.3714938 -0.59978437
10.567816 -4.7101955 0
11.018155 -4.9109173 0.67379516
2.6436429 -1.1744748 -0.95384294
3.0398273 -1.3504853 -0.91772008
3.5548861 -1.5793073 -0.86173171
4.3288369 -1.9231455 -0.78969294
3.8670764 -1.7180021 -0.47165081
9.8155499 -4.3606935 -0.59992933
10.611553 -4.7143288 0
11.014583 -4.8933806 0.67321461
2.6699216 -1.1822888 -0.96280837
3.0024624 -1.3295438 -0.905954
3.561434 -1.5770664 -0.86285639
4.3428912 -1.9231097 -0.79183239
3.8762467 -1.716471 -0.47251597
9.8113079 -4.3446217 -0.59934878
10.657693 -4.7194161 0
11.022861 -4.8811193 0.67335963
2.6577771 -1.1730719 -0.95791698
3.0270138 -1.3360432 -0.91287428
3.5610147 -1.5717369 -0.86229408
4.3405104 -1.9157856 -0.79097563
3.8759446 -1.7107387 -0.47222686
9.8165503 -4.3327637 -0.59934878
10.687192 -4.7170415 0
11.026376 -4.8667483 0.67321461
2.6410935 -1.1618974 -0.95139724
3.0217347 -1.329353 -0.91079712
3.5605876 -1.5664108 -0.86173171
4.3475261 -1.912609 -0.79183239
3.8709133 -1.7029325 -0.4713628
9.812274 -4.3167176 -0.59876877
10.742908 -4.7261314 0
11.034624 -4.8544669 0.67335963
2.6787126 -1.1745861 -0.96443671
3.0279384 -1.3277177 -0.91218275
3.5880682 -1.5733285 -0.86792183
4.3545313 -1.9094142 -0.79268748
3.8563845 -1.6909822 -0.4693445
9.7984447 -4.2965102 -0.59760767
10.789125 -4.7309132 0
11.028585 -4.8359137 0.67263407
2.6620119 -1.16343 -0.95791698
3.0295403 -1.3240581 -0.91218275
3.5876408 -1.5679753 -0.86735952
4.3497853 -1.90107 -0.79140484
3.8679049 -1.6904646 -0.47049764
9.8202887 -4.2919488 -0.59862322
10.835372 -4.73559 0
11.036799 -4.8236241 0.67277902
2.6158328 -1.139485 -0.94080347
3.0357337 -1.3223984 -0.91356575
3.5732241 -1.556535 -0.86341876
4.3426657 -1.891712 -0.78969294
3.8391206 -1.6723623 -0.46675012
9.8302374 -4.2821574 -0.59891379
10.881645 -4.7401619 0
11.030711 -4.8050971 0.67205352
2.6414549 -1.1487482 -0.9497689
3.0503402 -1.3265692 -0.91772008
3.5741639 -1.554376 -0.86341876
4.350863 -1.8921564 -0.79097563
3.8306427 -1.6659166 -0.46559694
9.8447342 -4.2813983 -0.59963936
10.932239 -4.7543449 0
11.040763 -4.8015418 0.67248905
2.6451066 -1.1465377 -0.9505831
3.0312178 -1.3138999 -0.91148859
3.5690522 -1.5470275 -0.86173171
4.3649297 -1.8920054 -0.79311669
3.8041751 -1.6489429 -0.46213746
9.8689728 -4.2777667 -0.60080045
10.964244 -4.7525182 0
11.072775 -4.799562 0.67408514
2.673717 -1.1551034 -0.96036267
3.0397146 -1.3132222 -0.91356575
3.5685797 -1.5417032 -0.86116719
4.3672123 -1.8867298 -0.79311669
3.7776723 -1.6320359 -0.45867795
9.888442 -4.2720203 -0.60167104
11.012977 -4.757843 0
11.116733 -4.8026676 0.6764074
2.6319768 -1.1332989 -0.94487756
3.034384 -1.3065708 -0.91148859
3.5821152 -1.5424175 -0.86398327
4.3694892 -1.8814516 -0.79311669
3.7392583 -1.6100816 -0.45377725
4.380827 -1.8863335 -0.2664164
11.061739 -4.7630572 0
11.167875 -4.8087583 0.67916518
2.6401603 -1.1330429 -0.9473232
3.0682411 -1.3167567 -0.92118019
3.5769691 -1.5350809 -0.86229408
4.3741159 -1.877182 -0.79354423
3.7079298 -1.5912836 -0.44974169
3.3444428 -1.4352906 -0.20328394
11.108141 -4.7671347 0
11.214269 -4.8126802 0.6816324
2.6633511 -1.1353817 -0.95465714
3.0737197 -1.3103211 -0.92187172
3.5783334 -1.5254369 -0.86173171
4.3857265 -1.869627 -0.79482853
3.6308725 -1.5478343 -0.4399403
3.4100451 -1.4536959 -0.20705728
11.196238 -4.7729354 0
11.319081 -4.8253036 0.68729246
2.6738203 -1.1360286 -0.95791698
3.0498996 -1.2958139 -0.91425729
3.5825102 -1.5221047 -0.86229408
4.3927031 -1.8663321 -0.79568368
3.5875077 -1.524228 -0.43446249
3.3974545 -1.4434799 -0.20618673
11.271458 -4.7889152 0
11.35838 -4.8258462 0.68932408
2.6615396 -1.1270164 -0.95302874
3.0537801 -1.2931088 -0.91495144
3.5890219 -1.5197544 -0.86341876
4.3902316 -1.859023 -0.79482853
3.5393324 -1.4987137 -0.42840862
3.3920157 -1.4363331 -0.20575117
11.317974 -4.7925429 0
11.41684 -4.8344069 0.69251692
2.6606245 -1.1228396 -0.9522146
3.0830677 -1.3011196 -0.92325473
3.5768142 -1.509491 -0.86004251
4.3948374 -1.854714 -0.79525614
3.505403 -1.4793539 -0.42408505
3.3937485 -1.4322335 -0.20575117
11.383698 -4.8041601 0
11.463368 -4.8377829 0.69498414
2.696147 -1.1339948 -0.96443671
3.0753963 -1.2935064 -0.92048872
3.5903442 -1.5100926 -0.86285639
4.3994393 -1.8503966 -0.79568368
3.4547408 -1.453058 -0.41774318
3.3619483 -1.4140297 -0.2037195
11.451861 -4.8166332 0
11.531486 -4.8501229 0.69875801
2.6656075 -1.1173612 -0.95302874
3.0792685 -1.2907584 -0.92118019
3.6062307 -1.5116488 -0.86623478
4.4064116 -1.8470662 -0.79654044
3.3873198 -1.4198864 -0.40938297
3.3756344 -1.414988 -0.20444505
11.496076 -4.8188901 0
11.753002 -4.9265876 0.71181977
2.6737995 -1.1169987 -0.95547444
3.0808258 -1.2870368 -0.92118019
3.6080546 -1.5072902 -0.86623478
4.4110065 -1.8427291 -0.79696798
3.3532317 -1.4008362 -0.40505832
3.3845367 -1.4139141 -0.20488061
11.535504 -4.8190384 0
11.948353 -4.991509 0.72328538
2.7048078 -1.1261159 -0.96606821
3.128691 -1.3025948 -0.9350208
3.6098733 -1.5029296 -0.86623478
4.4227095 -1.8413446 -0.79867983
3.3405998 -1.3908205 -0.40332913
3.383837 -1.4088219 -0.20473506
11.574951 -4.8190985 0
12.011939 -5.0010338 0.72676814
2.6901841 -1.1162153 -0.96036267
3.0931962 -1.2834337 -0.92394888
3.6187205 -1.5014851 -0.86792183
4.4296684 -1.837965 -0.79953498
3.3207791 -1.3778628 -0.40073475
3.3903415 -1.4067258 -0.20502561
11.628841 -4.825057 0
12.058771 -5.0034442 0.72923535
2.6938126 -1.1139076 -0.96117687
3.0808299 -1.2739414 -0.91979456
3.6205323 -1.4971116 -0.86792183
4.4342561 -1.8335912 -0.79996252
3.3415632 -1.3817562 -0.40304109
3.3704298 -1.3936927 -0.2037195
4.4248538 -1.8297033 0
12.108035 -5.0067444 0.73184818
2.6997313 -1.112537 -0.96280837
3.1032405 -1.2788198 -0.92602336
3.6411326 -1.5004805 -0.8724249
4.4364686 -1.8282319 -0.79996252
3.3384428 -1.3757447 -0.40246397
3.3697021 -1.3886263 -0.20357394
4.4439073 -1.8312974 0
12.186146 -5.0218096 0.73620206
2.6804991 -1.1008245 -0.95547444
3.0978281 -1.2722127 -0.92394888
3.6429429 -1.4960799 -0.8724249
0 -0 -0
3.3329227 -1.3687612 -0.40159881
3.3882053 -1.3914645 -0.20459005
4.4388924 -1.8229595 0
12.237866 -5.0258341 0.73895931
2.6468582 -1.0851406 -0.94324917
3.0939491 -1.2684358 -0.9225632
3.6391487 -1.4919529 -0.87130022
4.4374018 -1.8192152 -0.79953498
3.3313582 -1.3657671 -0.4013108
3.3890452 -1.3894173 -0.20459005
4.4544363 -1.8261988 0
12.276967 -5.0332255 0.74113655
2.6710432 -1.0912877 -0.95139724
3.0792294 -1.2580572 -0.91772008
3.6385896 -1.4865909 -0.8707357
4.4395967 -1.8138522 -0.79953498
3.3306139 -1.3607635 -0.40102279
3.3810999 -1.3813902 -0.20400949
0 -0 0
12.328735 -5.0370574 0.74389374
2.69296 -1.0964469 -0.95873117
3.0830686 -1.2552807 -0.91841155
3.6521566 -1.4869868 -0.87355179
4.4322748 -1.8046143 -0.79782307
3.3370423 -1.3586869 -0.40159881
3.3899889 -1.3802443 -0.20444505
4.4491949 -1.8115033 0
12.382945 -5.0417542 0.74679655
2.7080288 -1.0987695 -0.96362251
3.0706303 -1.2458934 -0.91425729
3.6445329 -1.4787515 -0.87130022
4.4558587 -1.807943 -0.80167437
3.350672 -1.3595189 -0.40304109
3.3772027 -1.3702836 -0.20357394
4.4465618 -1.804171 0
12.43477 -5.0453472 0.7495538
2.7139328 -1.0973479 -0.96525091
3.0837693 -1.246887 -0.91772008
3.646317 -1.4743468 -0.87130022
4.4604268 -1.8035227 -0.80210358
3.3355248 -1.3486814 -0.40102279
3.3933144 -1.372048 -0.20444505
4.4535594 -1.8007461 0
12.489037 -5.0497994 0.75245655
2.6900458 -1.0839094 -0.95628864
3.092248 -1.2459701 -0.91979456
3.6693046 -1.4784855 -0.87636566
4.4626026 -1.7981318 -0.80210358
3.3515415 -1.3504483 -0.40275198
3.3756886 -1.3601778 -0.20328394
4.4533205 -1.7943918 0
12.565022 -5.0628672 0.75666547
2.6959364 -1.0824984 -0.95791698
3.1170368 -1.2515826 -0.92671752
3.6757996 -1.4759425 -0.87749034
4.469532 -1.7946495 -0.80295873
3.360374 -1.3492898 -0.40361714
3.3773296 -1.3560979 -0.20328394
4.4265046 -1.7773727 0
12.607302 -5.0622053 0.75884271
2.7270718 -1.0911756 -0.96851075
3.0952499 -1.2384937 -0.91979456
3.6893733 -1.4762187 -0.88030422
4.4764686 -1.7911568 -0.80381548
3.3475981 -1.3394651 -0.40188792
3.3693156 -1.3481549 -0.20270339
4.433486 -1.7739583 0
12.66889 -5.0691676 0.76218051
2.7054343 -1.0787274 -0.96036267
3.1060658 -1.2384695 -0.9225632
3.6887965 -1.4708195 -0.87974185
4.4762378 -1.784793 -0.80338627
3.3396039 -1.3315873 -0.40073475
