# .PCD v0.7 - Point Cloud Data file format
VERSION 0.7
FIELDS x y z
SIZE 4 4 4
TYPE F F F
COUNT 1 1 1
WIDTH 1572
HEIGHT 1
VIEWPOINT 0 0 0 1 0 0 0
POINTS 1572
DATA ascii
5.8005686 -3.1117415 -0.73369503
9.8356428 -5.2763762 -0.6234411
10.340045 -5.5469646 0
10.350708 -5.5526853 0.65608901
0 -0 -0
3.0525177 -1.6327904 -0.95509279
3.6876872 -1.9725423 -0.92645967
4.5253849 -2.4206264 -0.85559583
5.8066025 -3.1059492 -0.7339831
9.8397141 -5.2632585 -0.62329555
10.365099 -5.5442867 0
10.378029 -5.5512037 0.65739512
0 -0 -0
3.0756369 -1.6427678 -0.96201575
3.6911173 -1.9715099 -0.92702204
4.5268464 -2.417892 -0.85559583
5.8198829 -3.1085324 -0.73542428
9.8543577 -5.2634377 -0.62402165
10.389104 -5.5490575 0
10.413473 -5.5620737 0.65942734
0 -0 -0
3.0864768 -1.6437674 -0.96478438
3.6957371 -1.9682417 -0.92758435
4.5410914 -2.4184527 -0.85773522
5.8122225 -3.0954199 -0.7339831
9.8721762 -5.2576327 -0.62474722
10.418777 -5.5487361 0
10.443117 -5.5616994 0.66087842
0 -0 -0
3.0640855 -1.627093 -0.95716995
3.7048473 -1.9673508 -0.92927355
4.5576181 -2.4201899 -0.86030388
5.8250961 -3.0932469 -0.73513627
9.8785219 -5.2457004 -0.62474722
10.453047 -5.5507851 0
10.481955 -5.5661354 0.6629101
0 -0 -0
3.061619 -1.6210439 -0.955787
3.7027349 -1.9604973 -0.92814887
4.5673475 -2.4182858 -0.86158818
5.8425398 -3.0934656 -0.73686546
9.8963327 -5.2398386 -0.62547278
10.503448 -5.5612898 0
10.51623 -5.5680571 0.66465181
0 -0 -0
3.1012893 -1.6372534 -0.96755308
3.7230685 -1.9655071 -0.93264979
4.5702662 -2.4127655 -0.86158818
5.8691511 -3.0984814 -0.7397489
9.8980656 -5.2254529 -0.62518281
10.528572 -5.5583143 0
10.55282 -5.5711155 0.66653848
0 -0 -0
3.1010389 -1.6323329 -0.96685892
3.7231944 -1.9598248 -0.93208748
4.5754476 -2.4084361 -0.86201572
5.9072156 -3.1094556 -0.7440725
9.9112635 -5.2171168 -0.6256178
10.569818 -5.5637684 0
10.580235 -5.569252 0.66784459
0 -0 -0
3.0919042 -1.6227565 -0.96339875
3.7210643 -1.9529653 -0.93096274
4.5828958 -2.4052894 -0.86287081
5.9292898 -3.1119316 -0.74637884
9.9106646 -5.2015181 -0.62518281
10.611101 -5.5691357 0
10.626069 -5.5769911 0.67031181
0 -0 -0
3.0983126 -1.621348 -0.96478438
3.7234213 -1.9484676 -0.93096274
4.5835266 -2.398561 -0.86244327
5.9399233 -3.1083636 -0.74724394
9.9353514 -5.1991725 -0.62634331
10.638574 -5.5671687 0
10.653519 -5.5749898 0.67161793
0 -0 -0
3.0869198 -1.6106378 -0.96063012
3.7212632 -1.9416142 -0.92983592
4.5932512 -2.3965845 -0.86372757
5.9551382 -3.1071653 -0.74868518
9.9485397 -5.1907711 -0.6267789
10.682209 -5.5735722 0
10.701718 -5.5837512 0.67423069
0 -0 -0
3.115571 -1.6208005 -0.96893603
3.7326231 -1.9418069 -0.93208748
4.5893097 -2.3874774 -0.86244327
5.9726596 -3.107132 -0.75041544
9.9525013 -5.1775484 -0.62663388
10.716641 -5.5750737 0
10.736119 -5.5852065 0.6759724
0 -0 -0
3.1153023 -1.6158807 -0.96824455
3.7259445 -1.9326156 -0.92983592
4.5967441 -2.3842921 -0.86329842
5.9878874 -3.1058662 -0.75185663
9.9587507 -5.1655188 -0.62663388
10.755709 -5.5788941 0
10.756696 -5.5794063 0.67684293
0 -0 -0
3.1127915 -1.6098082 -0.96685892
3.7260222 -1.926946 -0.92927355
4.6019087 -2.3799186 -0.86372757
6.0031209 -3.1045682 -0.75329781
9.9672909 -5.1546745 -0.6267789
10.771688 -5.5706758 0
10.798043 -5.5843058 0.67901963
0 -0 -0
3.1058152 -1.6014469 -0.96409023
3.7418935 -1.9294271 -0.93264979
4.6093397 -2.3767071 -0.86458272
6.0137668 -3.1008697 -0.75416297
9.9758186 -5.1438169 -0.62692392
10.792286 -5.5648103 0
10.834813 -5.5867391 0.68090683
0 -0 -0
3.0876694 -1.5873706 -0.95786148
3.7442222 -1.9249043 -0.93264979
4.6259108 -2.3781803 -0.86715132
6.0198073 -3.0947824 -0.75445098
9.991271 -5.1365113 -0.62750447
10.84298 -5.5743756 0
10.873905 -5.5902739 0.68293852
0 -0 -0
3.0895851 -1.5836385 -0.95786148
3.7397685 -1.916905 -0.93096274
4.6150699 -2.3655612 -0.86458272
6.0304499 -3.091047 -0.75531614
9.9905396 -5.120883 -0.62706947
10.8775 -5.5755153 0
10.91302 -5.5937219 0.6849702
0 -0 -0
3.0982003 -1.5833304 -0.95993859
3.7375524 -1.9100702 -0.92983592
4.6293521 -2.3658228 -0.86672211
6.0549064 -3.0943501 -0.75791049
9.9920874 -5.1064405 -0.6267789
10.884229 -5.5623674 0
10.947537 -5.5947213 0.68671185
0 -0 -0
3.0911701 -1.5750297 -0.95716995
3.7398577 -1.9055526 -0.92983592
4.6322074 -2.3602273 -0.86672211
6.0563297 -3.0858541 -0.75762141
10.023721 -5.1073408 -0.62837559
10.939635 -5.5740228 0
10.98902 -5.5991855 0.68888909
0 -0 -0
3.1064868 -1.5781089 -0.96132159
3.7512188 -1.9056356 -0.93208748
4.6327691 -2.353467 -0.86629456
6.0692778 -3.0832198 -0.75877458
10.02757 -5.0940495 -0.62823057
10.9394 -5.5572629 0
11.058321 -5.6176753 0.69280744
0 -0 -0
3.1275826 -1.5864493 -0.96755308
3.7569058 -1.90567 -0.93321431
4.6341901 -2.3506677 -0.86629456
0 -0 -0
10.049175 -5.0973897 -0.62939113
10.961323 -5.5600715 0
11.119645 -5.6403794 0.69643581
0 -0 -0
3.1157243 -1.5709789 -0.96270728
3.752425 -1.8920096 -0.93096274
4.6444459 -2.3417757 -0.86715132
6.0878019 -3.0695298 -0.75992775
10.093952 -5.0894704 -0.63142335
11.004935 -5.5487967 0
11.186601 -5.6403947 0.69977361
0 -0 -0
3.1220989 -1.5694644 -0.96409023
3.7501636 -1.8851895 -0.92983592
4.6564465 -2.3407738 -0.86886322
6.0938239 -3.0633366 -0.76021683
10.116339 -5.0854359 -0.6324389
11.011631 -5.5354953 0
11.184121 -5.6222053 0.69919306
0 -0 -0
3.1464257 -1.5769337 -0.97101319
3.7660725 -1.8874899 -0.93321431
4.6592717 -2.3351457 -0.86886322
6.1044512 -3.0594447 -0.76108092
10.134098 -5.0790334 -0.633165
11.032268 -5.52918 0
11.186265 -5.6063609 0.69890302
0 -0 -0
3.1438363 -1.5708859 -0.96962756
3.7592585 -1.8783951 -0.93096274
4.6643839 -2.3306606 -0.86929077
6.1081433 -3.0520663 -0.76108092
10.156492 -5.0749116 -0.63418061
11.048252 -5.5204988 0
11.190709 -5.5916805 0.69875801
0 -0 -0
3.1098118 -1.5491918 -0.95855564
3.7706227 -1.8783833 -0.93321431
4.6694922 -2.3261664 -0.86971831
6.1095138 -3.0435314 -0.76079291
10.174244 -5.0684276 -0.63490617
11.054914 -5.5071449 0
11.188154 -5.5735197 0.69817746
0 -0 -0
3.1251585 -1.5521266 -0.96270728
3.7728896 -1.8738258 -0.93321431
4.6745963 -2.3216634 -0.87014586
6.1155014 -3.0372965 -0.76108092
10.18967 -5.0607538 -0.63548672
11.084874 -5.505362 0
11.197206 -5.561152 0.69832247
0 -0 -0
3.1517646 -1.5605959 -0.97032171
3.7865341 -1.874902 -0.93602818
4.6843019 -2.3194315 -0.87143016
6.1098952 -3.0253141 -0.75992775
10.19345 -5.047286 -0.6353417
11.119496 -5.5058174 0
11.194602 -5.5430059 0.69774193
0 -0 -0
3.1558955 -1.5578959 -0.97101319
3.7796831 -1.8658264 -0.93377668
4.6871014 -2.3137698 -0.87143016
6.1251493 -3.0236571 -0.76137
10.190222 -5.0303645 -0.63476115
11.140147 -5.4992919 0
11.196636 -5.5271773 0.69745189
0 -0 -0
3.1577754 -1.5540814 -0.97101319
3.78649 -1.8634999 -0.93490136
4.6921945 -2.3092372 -0.87185776
6.138072 -3.0208178 -0.7625221
10.207947 -5.0237837 -0.63548672
11.17947 -5.5019135 0
11.212623 -5.5182295 0.6980319
0 -0 -0
3.1281147 -1.5347917 -0.96132159
3.7819021 -1.8555688 -0.93321431
4.6926789 -2.3024361 -0.87143016
6.1486859 -3.0168178 -0.76338726
10.204679 -5.0068674 -0.63490617
11.214147 -5.5021572 0
11.240284 -5.5149817 0.69933861
0 -0 -0
3.1344786 -1.5332177 -0.96270728
3.7704422 -1.8442968 -0.92983592
4.7092891 -2.30353 -0.87399715
6.1639419 -3.0150676 -0.76482844
10.215394 -4.996819 -0.63519669
11.24884 -5.5023255 0
11.277282 -5.5162377 0.70122528
0 -0 -0
3.1498542 -1.5360248 -0.96685892
3.7863753 -1.846424 -0.93321431
4.7005343 -2.2922132 -0.87185776
6.1885104 -3.0178239 -0.76742387
10.21909 -4.9833345 -0.63505173
11.283551 -5.502418 0
11.321299 -5.5208254 0.70354694
0 -0 -0
3.1223786 -1.5179591 -0.95786148
3.7863119 -1.8407334 -0.93264979
4.7194638 -2.2943897 -0.87485391
6.2061048 -3.017127 -0.76915306
10.225104 -4.970983 -0.63505173
11.327632 -5.5069818 0
11.346657 -5.5162311 0.70470804
0 -0 -0
3.1332407 -1.5185618 -0.96063012
3.7999723 -1.8417011 -0.93546587
4.7337809 -2.2942824 -0.87699336
6.2283659 -3.0186505 -0.7714594
10.228759 -4.9574881 -0.63490617
11.360041 -5.5057769 0
11.402415 -5.5263143 0.70775586
0 -0 -0
3.1215243 -1.5082283 -0.95647848
3.8021948 -1.8371083 -0.93546587
4.7619772 -2.3008468 -0.88170141
6.2389975 -3.0144994 -0.77232456
10.237088 -4.9462585 -0.63505173
11.406519 -5.5112934 0
11.453541 -5.5340123 0.71051365
0 -0 -0
3.175323 -1.5294926 -0.97239619
3.8066988 -1.8336143 -0.93602818
4.7462516 -2.2861791 -0.87827766
6.2379708 -3.0047116 -0.77174741
10.23837 -4.9316278 -0.63476115
11.453028 -5.516705 0
11.485964 -5.5325699 0.71210974
0 -0 -0
3.1672029 -1.5232246 -0.96962756
3.8169653 -1.8357192 -0.93827975
4.7638192 -2.2910962 -0.8812722
6.244451 -3.0031865 -0.77232456
10.236669 -4.9231911 -0.63447112
11.505609 -5.5334711 0
11.519744 -5.5402694 0.71399641
0 -0 -0
3.1713099 -1.5204843 -0.97032171
3.8054292 -1.8245127 -0.93490136
4.7689056 -2.2864513 -0.88170141
6.2597346 -3.001229 -0.77376574
10.244951 -4.9119411 -0.63461614
11.566263 -5.545444 0
11.566269 -5.5454464 0.71646422
0 -0 -0
3.1663523 -1.5134046 -0.96824455
3.8099301 -1.8210121 -0.93546587
4.7624006 -2.2762594 -0.8799895
6.2656875 -2.9947777 -0.77405375
10.26494 -4.9062796 -0.63548672
11.61287 -5.5505424 0
11.603436 -5.5460329 0.71835089
0 -0 -0
3.1523228 -1.5020226 -0.96339875
3.8258862 -1.822963 -0.93884206
4.7674627 -2.2716064 -0.88041711
6.2716346 -2.9883161 -0.77434182
10.268518 -4.892756 -0.6353417
11.65715 -5.5544133 0
11.642965 -5.5476542 0.72038257
0 -0 -0
3.1881292 -1.5143596 -0.97378182
3.809725 -1.8096173 -0.93433899
4.779479 -2.2702498 -0.88212895
6.2752404 -2.9807358 -0.77434182
10.2932 -4.8892641 -0.6365028
11.699118 -5.5570741 0
11.691903 -5.5536475 0.7229948
0 -0 -0
3.1559432 -1.4944003 -0.96339875
3.8165061 -1.8071896 -0.93546587
4.7914991 -2.2688677 -0.8838408
6.2835174 -2.9753673 -0.77491891
10.303792 -4.879045 -0.63679284
11.762275 -5.569665 0
11.820717 -5.5973382 0.73054147
0 -0 -0
3.1441388 -1.4841623 -0.95924711
3.8071916 -1.7971504 -0.93264979
4.7942371 -2.2630765 -0.8838408
6.2824254 -2.9655623 -0.77434182
10.302637 -4.8632669 -0.63635784
11.919609 -5.626544 0
12.053044 -5.6895308 0.74447429
0 -0 -0
3.1640897 -1.4889076 -0.96478438
3.8208623 -1.7979614 -0.93546587
4.8039389 -2.2605619 -0.88512516
6.2930274 -2.9612739 -0.77520692
10.306157 -4.8497095 -0.63621283
12.088869 -5.68859 0
12.125742 -5.7059412 0.7485382
0 -0 -0
3.1817789 -1.4925383 -0.96962756
3.8299265 -1.7965773 -0.93715286
4.8066669 -2.2547557 -0.88512516
6.2895737 -2.9503715 -0.77434182
10.31201 -4.8372531 -0.63621283
12.159344 -5.7038174 0
12.163208 -5.7056303 0.75042492
0 -0 -0
3.1631291 -1.4791296 -0.96339875
3.8367023 -1.794103 -0.93827975
4.8210125 -2.2543821 -0.88726455
6.2861028 -2.9394817 -0.77347666
10.310783 -4.821486 -0.63577724
12.199236 -5.7045569 0
12.212457 -5.7107391 0.75303715
0 -0 -0
3.1944721 -1.4890847 -0.97239619
3.8296554 -1.7851717 -0.93602818
4.8260574 -2.2496386 -0.88769209
6.2943435 -2.9340718 -0.77405375
10.307181 -4.8046327 -0.63519669
12.250931 -5.7107005 0
12.271157 -5.720129 0.75622994
0 -0 -0
3.1553209 -1.4661962 -0.95993859
3.8341117 -1.7816128 -0.93659055
4.8241115 -2.2416401 -0.88683534
6.3002272 -2.9275529 -0.77434182
10.298836 -4.785603 -0.63432556
12.297942 -5.7145362 0
12.318117 -5.7239113 0.75869715
0 -0 -0
3.1980612 -1.4813606 -0.97239619
3.8385649 -1.7780455 -0.93715286
4.8291526 -2.2368915 -0.88726455
6.3014154 -2.9188521 -0.77405375
10.314042 -4.777524 -0.63490617
12.342621 -5.7171736 0
12.350963 -5.7210379 0.76029384
0 -0 -0
3.1702411 -1.4638242 -0.96339875
3.8499379 -1.7776668 -0.93940443
4.8365088 -2.2332051 -0.8881197
6.3072839 -2.9123192 -0.77434182
10.31037 -4.7607007 -0.63432556
12.387324 -5.7197118 0
12.393247 -5.722446 0.76247048
0 -0 -0
3.1651685 -1.4568447 -0.96132159
3.8451653 -1.7698295 -0.93771738
4.8485312 -2.2316527 -0.88983154
6.3201962 -2.9090219 -0.77549499
10.325557 -4.7525849 -0.63490617
12.432053 -5.7221503 0
12.426119 -5.719419 0.76406717
0 -0 -0
3.2034099 -1.4697582 -0.97239619
3.844985 -1.7641195 -0.93715286
4.8535552 -2.226862 -0.89025909
6.3331099 -2.9056973 -0.77664816
10.328933 -4.7390227 -0.63476115
12.469706 -5.7212319 0
12.484974 -5.7282372 0.76725996
3.1732471 -1.4512804 -0.96270728
3.854048 -1.7626437 -0.93884206
4.8515778 -2.2188625 -0.889404
6.3366165 -2.8980429 -0.77664816
10.358286 -4.7373481 -0.63621283
12.516842 -5.7245603 0
12.513151 -5.7228727 0.76856607
0 -0 -0
3.2115223 -1.4640958 -0.97378182
3.8353696 -1.7485005 -0.93377668
4.8542552 -2.2129986 -0.889404
6.3401136 -2.8903842 -0.77664816
10.371089 -4.7280593 -0.63664782
12.566369 -5.7288623 0
12.557887 -5.7249951 0.77088833
3.1895683 -1.4517603 -0.96685892
3.8595469 -1.7567071 -0.93940443
4.8626027 -2.2132568 -0.8906883
6.3489232 -2.8897688 -0.77751327
10.369218 -4.7196417 -0.63635784
12.619568 -5.7439089 0
12.60628 -5.7378607 0.77364612
2.7356203 -1.2411538 -0.99051559
3.1913199 -1.4479053 -0.96685892
3.8547318 -1.7488959 -0.93771738
4.8652735 -2.2073798 -0.8906883
6.3429885 -2.8778207 -0.77636009
10.379642 -4.7092543 -0.63664782
12.666787 -5.7469344 0
12.658157 -5.7430191 0.77640331
2.6785698 -1.2113694 -0.96932805
3.1999271 -1.4471505 -0.96893603
3.856842 -1.7442369 -0.93771738
4.8679371 -2.2014995 -0.8906883
6.3464613 -2.8701544 -0.77636009
10.380593 -4.6945696 -0.63635784
12.711662 -5.7487836 0
12.705334 -5.7459216 0.77887058
3.1993885 -1.4422529 -0.96824455
3.8612611 -1.7406186 -0.93827975
4.8635707 -2.19245 -0.889404
6.3593564 -2.8667355 -0.77751327
10.390991 -4.6841569 -0.63664782
12.763671 -5.7537379 0
12.757278 -5.7508559 0.78162837
0 -0 -0
3.1851079 -1.4311873 -0.96339875
3.8564062 -1.7328265 -0.93659055
4.8685555 -2.1876228 -0.88983154
6.3698869 -2.8622267 -0.77837735
10.391908 -4.6694703 -0.63635784
12.813339 -5.7575092 0
12.802132 -5.7524729 0.78395003
2.7303107 -1.222867 -0.98644155
3.2074392 -1.436566 -0.96962756
3.8654561 -1.7312824 -0.93827975
4.8829074 -2.1869841 -0.89197099
6.3662658 -2.8513591 -0.77751327
10.414136 -4.6643419 -0.63737339
12.858289 -5.7590432 0
12.849385 -5.7550554 0.78641725
2.7272682 -1.21755 -0.98481005
3.2320855 -1.4429185 -0.97655052
3.8698633 -1.7276453 -0.93884206
4.8832045 -2.180037 -0.89154339
6.3767848 -2.8468249 -0.77837735
10.417394 -4.6506968 -0.63722837
12.900887 -5.7594171 0
12.896673 -5.7575359 0.78888506
0 -0 -0
3.231528 -1.4379892 -0.97585636
3.860343 -1.717804 -0.93602818
4.9045978 -2.1824841 -0.89496714
6.3873119 -2.8422732 -0.77924252
10.425377 -4.6391616 -0.63737339
12.94588 -5.7607536 0
12.951092 -5.7630725 0.79178727
2.7189081 -1.2059461 -0.98073602
3.2057524 -1.4218813 -0.96755308
3.8809972 -1.7213799 -0.94053125
4.9025335 -2.1744728 -0.89411038
6.3954744 -2.8366528 -0.77981961
10.423856 -4.6234035 -0.63693839
13.000402 -5.7662063 0
12.993677 -5.7632236 0.79396451
2.7361891 -1.2096566 -0.98644155
3.2304089 -1.4281489 -0.97447336
3.8714569 -1.7115532 -0.93771738
4.900466 -2.1664734 -0.89325529
6.4036241 -2.8310127 -0.78039569
10.417555 -4.6055527 -0.63621283
13.054965 -5.7715397 0
13.043406 -5.7664289 0.79657674
2.7286017 -1.2023629 -0.98318172
3.1931064 -1.4070477 -0.96270728
3.8688674 -1.7048229 -0.93659055
4.905427 -2.1615849 -0.89368284
6.4046755 -2.8222311 -0.78010762
10.427863 -4.5950551 -0.6365028
13.111939 -5.7777982 0
13.086033 -5.7663822 0.79875398
2.7232616 -1.1960824 -0.98073602
3.2200732 -1.4142869 -0.97032171
3.8848784 -1.7062756 -0.93996674
4.9056873 -2.1546247 -0.89325529
6.405715 -2.8134511 -0.77981961
10.428654 -4.5803642 -0.63621283
13.161798 -5.7807865 0
13.140564 -5.7714605 0.80165619
2.6635704 -1.1660283 -0.95873117
3.2217798 -1.410395 -0.97032171
3.9009075 -1.707696 -0.94334513
4.9176936 -2.1528132 -0.89496714
6.4114771 -2.8067453 -0.78010762
10.448459 -4.5740099 -0.63708335
13.218836 -5.7867951 0
13.202278 -5.7795467 0.80499458
2.7102845 -1.1825778 -0.97503048
3.253372 -1.419543 -0.97931916
3.8866639 -1.6958672 -0.93940443
4.9132304 -2.1437888 -0.89368284
6.417232 -2.8000295 -0.78039569
10.451598 -4.5603437 -0.63693839
13.259217 -5.7853913 0
13.254496 -5.7833314 0.80775177
2.7457118 -1.1940886 -0.98725575
3.2044666 -1.3935975 -0.96409023
3.8817265 -1.6881326 -0.93771738
4.9299464 -2.1439953 -0.89625144
6.4324679 -2.79743 -0.78183687
10.461862 -4.5497823 -0.63722837
13.313921 -5.7901201 0
13.2996 -5.7838922 0.81007403
2.7108688 -1.1750426 -0.97421628
3.2406778 -1.4046916 -0.97447336
3.8954179 -1.6884927 -0.94053125
4.9183969 -2.1319091 -0.89368284
6.4358435 -2.7896557 -0.78183687
10.460197 -4.5340366 -0.63679284
13.368664 -5.7947292 0
13.356643 -5.7895188 0.8131218
2.7758164 -1.1992124 -0.99703532
3.2216477 -1.3918211 -0.96824455
3.8904555 -1.6807605 -0.93884206
4.935113 -2.1320751 -0.89625144
6.4415908 -2.7829061 -0.78212595
10.470444 -4.5234571 -0.63708335
13.416267 -5.7961168 0
13.404178 -5.7908936 0.81558901
2.7114325 -1.1675116 -0.97340208
3.2233269 -1.3879274 -0.96824455
3.8924835 -1.6760584 -0.93884206
4.937686 -2.1261106 -0.89625144
6.4425664 -2.7740946 -0.78183687
10.46874 -4.5077186 -0.63664782
13.468671 -5.7994542 0
13.473212 -5.8014097 0.8193624
2.7348399 -1.1756325 -0.98155022
3.2218623 -1.38499 -0.96755308
3.8981595 -1.6757115 -0.93996674
4.9389691 -2.123127 -0.89625144
6.4466243 -2.7712264 -0.78212595
10.483395 -4.5065227 -0.63737339
13.524777 -5.8139296 0
13.517295 -5.8107133 0.82182962
2.7294407 -1.1694061 -0.97910452
3.2119966 -1.3761531 -0.96409023
3.9025238 -1.6720036 -0.94053125
4.9297261 -2.1120999 -0.89411038
6.4499679 -2.7634349 -0.78212595
10.48406 -4.4918079 -0.63708335
13.574847 -5.81603 0
13.56969 -5.8138199 0.8245874
2.7490361 -1.1738721 -0.98562425
3.206742 -1.3693182 -0.96201575
3.9021976 -1.6662863 -0.93996674
4.9511614 -2.1142068 -0.89753413
6.4509168 -2.7546206 -0.78183687
10.503813 -4.4852571 -0.63795394
13.632125 -5.8210845 0
13.619715 -5.8157854 0.82719964
2.7641022 -1.1763587 -0.99051559
3.215313 -1.368387 -0.96409023
3.9042082 -1.6615701 -0.93996674
4.9419045 -2.1031973 -0.89539468
6.4494853 -2.7448001 -0.78126079
10.521187 -4.4776525 -0.63868004
13.691826 -5.8270273 0
13.676939 -5.8206916 0.8302474
2.7313886 -1.1585402 -0.97829032
3.2400644 -1.374299 -0.97101319
3.9085591 -1.6578465 -0.94053125
4.949173 -2.0992312 -0.89625144
6.44803 -2.7349832 -0.7806837
10.533759 -4.4679775 -0.63911504
13.756358 -5.8348689 0
13.734196 -5.8254681 0.83329523
2.7646537 -1.1687104 -0.98969829
3.2486482 -1.3733108 -0.97308767
3.8941743 -1.646196 -0.93659055
4.9517059 -2.0932496 -0.89625144
6.4584794 -2.7302125 -0.78154886
10.543941 -4.4572721 -0.63940561
13.787365 -5.8283744 0
13.777118 -5.8240423 0.83547187
2.7933965 -1.1768844 -0.99947786
3.2248805 -1.3586727 -0.96547592
3.9102056 -1.6474067 -0.93996674
4.940033 -2.0812829 -0.89368284
6.4546208 -2.719393 -0.7806837
10.563683 -4.4505796 -0.64027619
13.849562 -5.8349519 0
13.83443 -5.8285766 0.83851969
2.6968317 -1.1323657 -0.96443671
3.2450249 -1.3625451 -0.97101319
3.9098527 -1.6416981 -0.93940443
4.9662175 -2.0852525 -0.89796335
6.457902 -2.7115917 -0.7806837
10.576242 -4.4408312 -0.64071172
13.902186 -5.8373532 0
13.896568 -5.8349943 0.84185803
2.7301137 -1.142462 -0.97584468
3.2212093 -1.3479692 -0.96339875
3.909492 -1.6359926 -0.93884206
4.9592614 -2.0752864 -0.89625144
6.4587898 -2.7027893 -0.78039569
10.58639 -4.4300528 -0.6410017
13.96445 -5.8436589 0
13.95155 -5.8382607 0.84476084
2.7451837 -1.1448724 -0.98073602
3.2598832 -1.3595266 -0.97447336
3.9278841 -1.6381148 -0.94278282
4.9688663 -2.0722539 -0.89753413
6.4620509 -2.694983 -0.78039569
10.59414 -4.4182611 -0.64114726
14.01953 -5.8468122 0
14.001758 -5.8393998 0.84737307
2.7602546 -1.1472443 -0.98562425
3.2453048 -1.3488457 -0.96962756
3.9228194 -1.630441 -0.94109362
4.9689984 -2.0652642 -0.89710659
6.4700837 -2.6891603 -0.78097278
10.609069 -4.4094462 -0.64172786
14.086662 -5.8548379 0
14.071184 -5.8484049 0.8511464
2.7538805 -1.1367981 -0.98236436
3.2369626 -1.3362137 -0.96616739
3.9337962 -1.6238658 -0.94278282
4.9834661 -2.0571682 -0.89881843
6.4765635 -2.6735168 -0.78097278
10.612486 -4.3808198 -0.64129227
14.216239 -5.8684444 0
14.236587 -5.8768435 0.86028975
2.7781141 -1.1428748 -0.99051559
3.2362568 -1.3313479 -0.96547592
3.9357555 -1.6191114 -0.94278282
4.981205 -2.0491936 -0.89796335
6.4821792 -2.6666722 -0.78126079
10.620173 -4.3689809 -0.64143729
14.288296 -5.8779931 0
14.294139 -5.8803964 0.86333758
2.7177451 -1.1142023 -0.96851075
3.247148 -1.3312433 -0.96824455
3.9283049 -1.6104993 -0.94053125
4.9812951 -2.0421968 -0.89753413
6.492578 -2.6617823 -0.78212595
10.630257 -4.3581185 -0.64172786
14.372435 -5.8923111 0
14.370955 -5.8917041 0.86754644
2.760278 -1.1277456 -0.98318172
3.2278547 -1.3187799 -0.96201575
3.9372978 -1.6086317 -0.9422183
4.9885163 -2.03812 -0.89839089
6.5029659 -2.656867 -0.78299004
10.652346 -4.3521476 -0.64274341
14.439771 -5.8995471 0
14.39249 -5.8802299 0.86841702
2.7570558 -1.1225437 -0.98155022
3.2387402 -1.318663 -0.96478438
3.9227722 -1.5971687 -0.93827975
5.002861 -2.0369301 -0.90053034
6.498992 -2.6460843 -0.78212595
10.674445 -4.3461332 -0.64375949
14.456531 -5.8860207 0
14.387554 -5.8579369 0.86769146
2.7469611 -1.1145661 -0.97747618
3.2472985 -1.3175756 -0.96685892
3.9458873 -1.6010245 -0.94334513
4.9958038 -2.0270231 -0.89881843
6.5141654 -2.643091 -0.78356713
10.686914 -4.3361635 -0.64419508
14.453986 -5.8646345 0
14.392217 -5.839572 0.86754644
2.7865758 -1.1286794 -0.99132979
3.2666962 -1.3231481 -0.97239619
3.9492066 -1.5995933 -0.9439075
4.9970274 -2.0240045 -0.89881843
6.5253506 -2.643039 -0.7847203
10.687118 -4.3287282 -0.64404953
14.464765 -5.8588328 0
14.386108 -5.8269739 0.86696589
2.7810595 -1.1225353 -0.98888409
3.2380514 -1.3069937 -0.96339875
3.9370039 -1.5891159 -0.94053125
5.0066128 -2.0208485 -0.90010273
6.535728 -2.6380541 -0.78558439
10.694757 -4.3167872 -0.64419508
14.464591 -5.8384275 0
14.397953 -5.8115301 0.86725593
2.7640693 -1.1117954 -0.98236436
3.2419536 -1.3040155 -0.96409023
3.9412761 -1.5853049 -0.94109362
5.0138097 -2.0167117 -0.90095788
6.5509157 -2.6349838 -0.78702664
10.699965 -4.3038611 -0.64419508
14.461977 -5.8170609 0
14.400147 -5.792191 0.86696589
2.7768881 -1.1130552 -0.98644155
3.2761328 -1.3131666 -0.97378182
3.9526227 -1.5843229 -0.94334513
5.016243 -2.0106518 -0.90095788
6.5684948 -2.6328382 -0.78875583
10.702738 -4.2899599 -0.64404953
14.468996 -5.7995825 0
14.409546 -5.775753 0.86711091
2.7782311 -1.1096991 -0.98644155
3.2660704 -1.3045551 -0.97032171
3.9521768 -1.5786041 -0.94278282
5.0091329 -2.0007806 -0.89924598
6.5764709 -2.6268167 -0.78933191
10.712745 -4.278954 -0.6443401
14.475993 -5.782095 0
14.414104 -5.7573748 0.86696589
2.8048236 -1.116393 -0.99540383
3.2559829 -1.2959661 -0.96685892
3.9493554 -1.5719465 -0.94165593
5.0187044 -1.9975754 -0.90053034
6.5796399 -2.6188684 -0.78933191
10.727564 -4.2698503 -0.64492065
14.495066 -5.7694144 0
14.46209 -5.756289 0.8694331
2.7763052 -1.1011578 -0.98481005
3.2762029 -1.2994306 -0.97239619
3.9606993 -1.5709205 -0.9439075
5.0234985 -1.9924552 -0.90095788
6.5948277 -2.6156869 -0.79077417
10.742377 -4.2607174 -0.6455012
14.550401 -5.7710819 0
14.526995 -5.7617989 0.87291592
2.7776339 -1.0978023 -0.98481005
3.2544434 -1.2862514 -0.96547592
3.9720469 -1.5698694 -0.94615901
5.021132 -1.9844986 -0.90010273
6.6076055 -2.6115193 -0.79192734
10.752346 -4.2496424 -0.64579117
14.605769 -5.7726283 0
14.618527 -5.7776704 0.87799597
2.7743633 -1.0926356 -0.98318172
3.2583272 -1.2832366 -0.96616739
3.9692171 -1.5632083 -0.94503433
5.0211401 -1.9774903 -0.89967519
6.6251907 -2.6092184 -0.79365653
10.771984 -4.242362 -0.64666229
14.687793 -5.7845364 0
14.797148 -5.8276043 0.88830042
2.7549679 -1.0811538 -0.97584468
3.2668839 -1.2820489 -0.96824455
3.966368 -1.556553 -0.9439075
5.0306878 -1.9742324 -0.90095788
6.6331587 -2.6031027 -0.79423368
10.786777 -4.23314 -0.64724284
14.932184 -5.8599548 0
15.133124 -5.9388113 0.90803826
2.811517 -1.0994273 -0.99540383
3.2567503 -1.2735332 -0.96478438
3.9729831 -1.5536118 -0.94503433
5.0450215 -1.972826 -0.90309727
6.6579766 -2.6035628 -0.79682803
10.813663 -4.2286196 -0.64854896
15.169496 -5.9319425 0
15.193525 -5.941339 0.9112311
2.7759962 -1.0816717 -0.98236436
3.2536073 -1.2677736 -0.96339875
3.9772227 -1.5497317 -0.94559669
5.0354443 -1.9620695 -0.90095788
6.6587005 -2.5945742 -0.79653895
10.818764 -4.2155499 -0.64854896
15.266372 -5.9485683 0
15.266057 -5.9484453 0.91514939
2.756567 -1.0702665 -0.97503048
3.2738461 -1.2711055 -0.96893603
3.9862006 -1.5476847 -0.94728589
5.0426021 -1.9578438 -0.90181464
6.6642489 -2.5874655 -0.79682803
10.82869 -4.2043538 -0.648839
15.319636 -5.9480119 0
15.316839 -5.9469252 0.91776222
2.7878225 -1.0785272 -0.98562425
3.2870762 -1.2716739 -0.97239619
3.976212 -1.5382805 -0.94446987
5.0545406 -1.9554542 -0.90352648
6.6866684 -2.5868769 -0.79913437
10.833762 -4.1912665 -0.648839
15.38264 -5.9510946 0
15.403975 -5.9593482 0.9225511
2.7476165 -1.0591576 -0.97095644
3.2652063 -1.2586793 -0.96547592
3.9733307 -1.5316488 -0.94334513
5.0425234 -1.9438037 -0.90095788
6.6897893 -2.5787954 -0.79913437
10.833974 -4.1763053 -0.64854896
15.457804 -5.9587102 0
15.464508 -5.9612947 0.92574447
2.7581234 -1.0593817 -0.97421628
3.264385 -1.2538344 -0.96478438
3.9917846 -1.5332249 -0.94728589
5.0376863 -1.9349506 -0.89967519
6.6953125 -2.5716369 -0.79942238
10.841435 -4.1641421 -0.64869398
15.535444 -5.9670882 0
15.529907 -5.9649615 0.92922723
2.775562 -1.0622331 -0.97992182
3.2986958 -1.2624412 -0.97447336
3.9746499 -1.521135 -0.94278282
5.0544009 -1.9343656 -0.90224218
6.7153177 -2.5700138 -0.80143964
10.865873 -4.1584697 -0.64985508
15.596111 -5.9687748 0
15.597771 -5.9694104 0.93285561
2.7738879 -1.0596715 -0.97910452
3.2994578 -1.260448 -0.97447336
3.9945569 -1.5259875 -0.94728589
5.050777 -1.9294813 -0.9013871
6.7217059 -2.5678041 -0.80201674
10.853815 -4.1463385 -0.64898396
15.670215 -5.9862838 0
15.664481 -5.9840937 0.93662894
2.7751663 -1.056319 -0.97910452
3.2939422 -1.2537822 -0.97239619
3.9845176 -1.5166377 -0.94446987
5.0578985 -1.9252017 -0.90224218
6.7393026 -2.5651991 -0.80374599
10.861253 -4.1341481 -0.64912951
15.716353 -5.9821582 0
15.73241 -5.9882698 0.94025731
2.8018637 -1.0626067 -0.98806989
3.3001506 -1.251582 -0.97378182
3.9958503 -1.5154262 -0.94672137
5.0506201 -1.9154475 -0.90053034
6.7472391 -2.5588901 -0.80432308
10.871095 -4.1228623 -0.64941955
15.796566 -5.9908476 0
15.805236 -5.9941354 0.9441762
2.7938974 -1.0557258 -0.98481005
3.282886 -1.2404993 -0.96824455
3.9905548 -1.507905 -0.94503433
5.0649352 -1.9138795 -0.90266973
6.7575774 -2.5534759 -0.80518717
10.876068 -4.1097236 -0.64941955
15.857347 -5.9919925 0
15.870794 -5.9970732 0.94765902
2.7766662 -1.0453824 -0.97829032
3.3078568 -1.2453694 -0.97516483
3.9923737 -1.503082 -0.94503433
5.0624437 -1.9059509 -0.90181464
6.7703404 -2.548954 -0.80634034
10.883455 -4.0974936 -0.64956456
15.947382 -6.004003 0
15.946119 -6.0035276 0.95172292
2.7941284 -1.0481038 -0.98399585
3.2999635 -1.2378472 -0.97239619
4.0013175 -1.5009316 -0.94672137
5.0623417 -1.8989319 -0.9013871
6.7758441 -2.5416825 -0.80662942
10.915163 -4.0943799 -0.65116119
15.996047 -6.000267 0
16.033646 -6.0143709 0.95651233
2.7861321 -1.0412658 -0.98073602
3.280309 -1.2259554 -0.96616739
4.0007501 -1.495207 -0.94615901
5.0598187 -1.8910145 -0.90053034
6.8079839 -2.5443592 -0.81008893
10.898198 -4.0730019 -0.64985508
16.069109 -6.0055346 0
16.087141 -6.0122738 0.95926958
2.7989671 -1.04221 -0.98481005
3.2770903 -1.2202417 -0.96478438
4.0073209 -1.4921467 -0.94728589
5.0765295 -1.8902723 -0.90309727
6.8231707 -2.540643 -0.81153011
10.912852 -4.0634575 -0.65043563
16.151953 -6.0142636 0
16.169884 -6.0209408 0.96376908
2.7770562 -1.0302323 -0.97666198
3.283262 -1.2180245 -0.96616739
4.006732 -1.4864173 -0.94672137
5.0667782 -1.8796734 -0.90095788
6.8189583 -2.5296969 -0.81066495
10.915311 -4.0493622 -0.65029007
16.21533 -6.015563 0
16.240484 -6.0248947 0.96754241
2.7991617 -1.0345869 -0.98399585
3.2894423 -1.2157977 -0.96755308
3.9894583 -1.4745277 -0.9422183
5.0714607 -1.8744423 -0.9013871
6.8414183 -2.5286293 -0.81297129
10.925076 -4.0379734 -0.65058064
16.310457 -6.0284429 0
16.323301 -6.0331907 0.97204131
2.7980926 -1.0303507 -0.98318172
3.281492 -1.2083545 -0.96478438
4.0031657 -1.4740988 -0.94503433
5.0713058 -1.8674235 -0.90095788
6.8517523 -2.5230432 -0.81383646
10.937264 -4.0274644 -0.65101624
16.381222 -6.0321107 0
16.374466 -6.029623 0.97465354
2.773809 -1.0176044 -0.97421628
3.3017919 -1.211301 -0.97032171
4.0144858 -1.4727612 -0.94728589
5.080791 -1.8639477 -0.90224218
6.8717866 -2.5209954 -0.81585371
10.949433 -4.0169282 -0.65145123
16.449577 -6.0347204 0
16.474436 -6.0438395 0.98016858
2.7889605 -1.0193411 -0.97910452
3.30089 -1.2064469 -0.96962756
4.004323 -1.4635457 -0.94446987
5.0806308 -1.8569268 -0.90181464
6.8821182 -2.5153549 -0.81671882
10.966489 -4.0081573 -0.65217733
16.544855 -6.0470018 0
16.550062 -6.0489049 0.98423249
2.8018091 -1.0202011 -0.98318172
3.2764211 -1.193018 -0.96201575
4.0108681 -1.4604465 -0.94559669
5.0901003 -1.8534189 -0.90309727
6.892446 -2.5096931 -0.81758398
10.966436 -3.9931238 -0.65188676
16.627951 -6.0546074 0
16.618397 -6.0511284 0.9878608
2.8169761 -1.0218704 -0.98806989
3.3132293 -1.2018884 -0.97239619
4.0102439 -1.4547335 -0.94503433
5.0826926 -1.843769 -0.9013871
6.9076281 -2.5057724 -0.81902516
10.981024 -3.9834146 -0.65246731
16.69397 -6.0558109 0
16.689201 -6.054081 0.99163413
2.7856705 -1.006707 -0.97666198
3.3123221 -1.1970323 -0.97170472
4.0143857 -1.4507495 -0.94559669
5.0969858 -1.8419877 -0.90352648
6.9252415 -2.5026968 -0.82075441
10.980947 -3.9683785 -0.65217733
16.774698 -6.0621691 0
16.76248 -6.0577531 0.99555248
2.8031566 -1.0091984 -0.98236436
3.3184824 -1.1947272 -0.97308767
4.0161362 -1.4458979 -0.94559669
5.0847111 -1.8306086 -0.90095788
6.9331322 -2.4960811 -0.8213315
10.995503 -3.9586248 -0.65275735
16.855465 -6.0683408 0
16.872465 -6.074461 1.0016481
2.8276434 -1.0141565 -0.99051559
3.3175642 -1.1898704 -0.97239619
4.0226588 -1.4427581 -0.94672137
5.0965848 -1.82793 -0.90266973
6.9337106 -2.4868295 -0.82104349
11.014958 -3.9506011 -0.65362847
16.933825 -6.0734487 0
16.93605 -6.0742469 1.0049864
2.8079214 -1.0032554 -0.98318172
3.3166394 -1.1850176 -0.97170472
4.0172281 -1.4353342 -0.94503433
5.0915446 -1.8191818 -0.9013871
6.9488869 -2.4828002 -0.82248467
11.014826 -3.9355385 -0.6533379
17.022024 -6.0818782 0
17.019226 -6.0808787 1.0094854
2.8038666 -0.99989682 -0.98155022
3.3079028 -1.1796429 -0.96893603
4.0204854 -1.4337596 -0.94559669
5.0902176 -1.8152406 -0.90095788
6.9406404 -2.4751265 -0.8213315
11.014756 -3.9280112 -0.65319288
17.113932 -6.1030598 0
17.130575 -6.1089954 1.0158709
2.8073995 -0.99733472 -0.98236436
3.3140583 -1.1773263 -0.97032171
4.026999 -1.4306 -0.94672137
5.0948334 -1.8099506 -0.9013871
6.9484959 -2.4684682 -0.82190758
11.017048 -3.91383 -0.65304786
17.185049 -6.1050262 0
17.235886 -6.123086 1.0216765
2.8179226 -0.99724013 -0.98562425
3.3107438 -1.1716455 -0.96893603
4.0167503 -1.4214956 -0.9439075
5.0994344 -1.8046488 -0.90181464
6.9417205 -2.456619 -0.82075441
11.00462 -3.8944464 -0.65203178
17.270924 -6.1120405 0
17.32165 -6.1299925 1.0263205
2.8121393 -0.99137157 -0.98318172
3.3145208 -1.1684777 -0.96962756
4.0208588 -1.417485 -0.94446987
5.1040297 -1.7993385 -0.90224218
6.9446836 -2.4482296 -0.82075441
11.028922 -3.8880579 -0.65319288
17.356829 -6.1188531 0
17.358452 -6.1194253 1.0280621
2.8133349 -0.98797292 -0.98318172
3.3040974 -1.1603163 -0.96616739
4.0321579 -1.4159931 -0.94672137
5.0965118 -1.7897676 -0.90053034
6.9451985 -2.4389801 -0.82046634
11.018907 -3.8695648 -0.65232235
17.403498 -6.1116734 0
17.353577 -6.0941424 1.0273365
2.7981937 -0.97885925 -0.97747618
3.3078628 -1.1571507 -0.96685892
4.0410638 -1.4136379 -0.94841057
5.1083632 -1.7869987 -0.90224218
6.9457016 -2.4297333 -0.82017833
11.035835 -3.8605368 -0.65304786
17.41087 -6.0906401 0
17.348667 -6.0688801 1.026611
2.8203778 -0.98279637 -0.98481005
3.3282108 -1.1597573 -0.97239619
4.0355682 -1.4062449 -0.94672137
5.1056752 -1.7791371 -0.9013871
6.9486322 -2.421339 -0.82017833
11.057671 -3.8531854 -0.654064
17.423136 -6.0713124 0
17.358438 -6.0487676 1.0267559
2.8309031 -0.98262966 -0.98806989
3.3082817 -1.1483318 -0.96616739
4.0348663 -1.4005352 -0.94615901
5.1150894 -1.7754896 -0.90266973
6.9466615 -2.4112432 -0.81960124
11.054952 -3.8372645 -0.65362847
17.432915 -6.0511079 0
17.365734 -6.0277891 1.0267559
2.8157346 -0.97355402 -0.98236436
3.3238976 -1.1492538 -0.97032171
4.0413632 -1.3973211 -0.94728589
5.1099596 -1.7667936 -0.9013871
6.9569058 -2.4053841 -0.82046634
11.062034 -3.8247523 -0.65377343
17.425451 -6.0249352 0
17.370552 -6.0059533 1.026611
2.8472862 -0.98061305 -0.99295813
3.3110471 -1.1403335 -0.96616739
4.0358391 -1.3899539 -0.94559669
5.1023822 -1.7572742 -0.89967519
6.9549208 -2.3952935 -0.81989032
11.078929 -3.815613 -0.65449899
17.445028 -6.0081153 0
17.407278 -5.9951134 1.0283526
2.8040564 -0.96193612 -0.97747618
3.3432693 -1.146914 -0.97516483
4.0279021 -1.3817784 -0.94334513
5.1214919 -1.7569362 -0.90266973
6.9724846 -2.3919222 -0.82161951
11.103194 -3.808969 -0.65566009
17.506428 -6.005609 0
17.502981 -6.0044265 1.0335771
2.8286004 -0.96653754 -0.98562425
3.3375285 -1.1404392 -0.97308767
4.0415883 -1.3810176 -0.94615901
5.1211843 -1.7499173 -0.90224218
6.9802599 -2.3851666 -0.82219559
11.112711 -3.7972322 -0.65595067
17.592468 -6.0113764 0
17.569237 -6.003438 1.0370605
2.8133943 -0.95754683 -0.97992182
3.3317859 -1.1339829 -0.97101319
4.0480695 -1.3777721 -0.94728589
5.1160021 -1.741246 -0.90095788
6.9978328 -2.3817325 -0.82392585
11.129588 -3.7879872 -0.65667623
17.688414 -6.0203018 0
17.633049 -6.0014586 1.0403982
2.8332753 -0.96049494 -0.98644155
3.3212762 -1.1259297 -0.96755308
4.0545392 -1.3745097 -0.94841057
5.1205406 -1.7358896 -0.9013871
6.9958019 -2.3716128 -0.82334876
11.116928 -3.7686958 -0.65566009
17.749893 -6.0173054 0
18.026634 -6.1111217 1.0631844
2.8157003 -0.95074517 -0.97992182
3.3226345 -1.1219158 -0.96755308
4.0513873 -1.3679854 -0.94728589
5.1177654 -1.728057 -0.90053034
7.0011196 -2.3639877 -0.82363784
11.116555 -3.7535994 -0.65537012
17.838518 -6.0233278 0
18.314638 -6.1840935 1.079729
2.8262177 -0.95049375 -0.98318172
3.3287387 -1.1194981 -0.96893603
4.0554433 -1.3638983 -0.9478482
5.1344438 -1.7267802 -0.90309727
7.0211248 -2.3612957 -0.8256551
11.138315 -3.7459602 -0.65638566
18.089973 -6.0838933 0
18.400909 -6.1884651 1.0843734
2.8320467 -0.94864666 -0.98481005
3.325336 -1.113883 -0.96755308
4.0522652 -1.3573815 -0.94672137
5.1389675 -1.7213926 -0.90352648
7.033783 -2.3560963 -0.82680827
11.150228 -3.7349758 -0.65682125
18.472387 -6.1876698 0
18.487217 -6.192637 1.0890179
3.3195376 -1.1074815 -0.96547592
4.0587273 -1.3540939 -0.9478482
5.1288705 -1.7111207 -0.9013871
7.0636163 -2.3566008 -0.82997972
11.15227 -3.7206788 -0.65667623
18.571192 -6.1958184 0
18.585876 -6.2007174 1.0943873
2.8507519 -0.94725633 -0.99051559
3.3446765 -1.1113791 -0.97239619
4.0700054 -1.3523936 -0.95009977
5.1431127 -1.7089688 -0.90352648
7.093451 -2.3570333 -0.83315015
11.149358 -3.7047417 -0.6562407
18.67251 -6.2045574 0
18.679663 -6.206934 1.0994674
2.8560112 -0.9470883 -0.99214399
3.3548725 -1.1125168 -0.97516483
4.0563469 -1.3451344 -0.94672137
5.1417003 -1.7050509 -0.90309727
7.0948739 -2.3527472 -0.83315015
11.16886 -3.7037311 -0.65725678
18.755302 -6.2194881 0
18.754932 -6.2193656 1.1036762
2.8641963 -0.94596279 -0.99458963
3.3538344 -1.1076763 -0.97447336
4.0676203 -1.3434194 -0.94897294
5.1486368 -1.7004486 -0.90395403
7.0928044 -2.3425519 -0.83257407
11.212806 -3.7032714 -0.65957904
18.871527 -6.2327299 0
18.846319 -6.2244043 1.1086107
2.8288934 -0.92672724 -0.98155022
3.3565013 -1.0995681 -0.97447336
4.0684423 -1.3327954 -0.94841057
5.1527309 -1.6880014 -0.90395403
7.1254845 -2.3342626 -0.83574557
11.263699 -3.6899147 -0.66204625
19.05965 -6.2438188 0
19.053898 -6.2419343 1.1199307
2.8206122 -0.92024195 -0.97829032
3.3292069 -1.086174 -0.96616739
4.0676365 -1.3270912 -0.9478482
5.1620908 -1.6841636 -0.90523839
7.1553407 -2.3344736 -0.83891594
11.290379 -3.6835549 -0.66335237
19.136448 -6.2433829 0
19.13553 -6.2430835 1.1242846
2.8311248 -0.9198882 -0.98155022
3.3352935 -1.0837026 -0.96755308
4.0716515 -1.3229597 -0.94841057
5.1641221 -1.6779249 -0.90523839
7.1753778 -2.3314216 -0.84093428
11.289874 -3.6683025 -0.6630618
19.238028 -6.2508144 0
19.256735 -6.2568922 1.1309608
2.8345835 -0.91722685 -0.98236436
3.3676281 -1.0897118 -0.97655052
4.073247 -1.3180389 -0.94841057
5.1661453 -1.6716839 -0.90523839
7.1880331 -2.3259351 -0.84208745
11.286889 -3.6522605 -0.6626268
19.379271 -6.2708292 0
19.350801 -6.2616167 1.1360402
2.8333395 -0.9130438 -0.98155022
3.3498397 -1.079486 -0.97101319
4.0700045 -1.3115591 -0.94728589
5.1632705 -1.6638641 -0.90438163
7.1932979 -2.3180406 -0.84237546
11.296235 -3.6402123 -0.66291684
19.473524 -6.2753444 0
19.452332 -6.2685146 1.1415553
2.8367918 -0.9103741 -0.98236436
3.3392 -1.0716053 -0.96755308
4.0764203 -1.3081917 -0.94841057
5.1677189 -1.6584078 -0.90480918
7.198554 -2.3101368 -0.84266353
11.2932 -3.6241777 -0.66248125
19.585165 -6.2852082 0
19.581123 -6.2839112 1.148667
2.8661413 -0.9159745 -0.99214399
3.3476546 -1.0698587 -0.96962756
4.0804157 -1.3040379 -0.94897294
5.1648331 -1.6506009 -0.90395403
7.2038012 -2.3022237 -0.84295154
11.292626 -3.6089489 -0.66219127
19.691904 -6.2932286 0
19.675323 -6.2879295 1.1537465
2.8554721 -0.90876359 -0.98806989
3.3704581 -1.0726596 -0.97585636
4.0723038 -1.2960243 -0.94672137
5.1717114 -1.6459146 -0.90480918
7.2115121 -2.2950878 -0.84352863
11.289548 -3.5929365 -0.66175568
19.838362 -6.3136249 0
19.80175 -6.3019733 1.1607126
2.8730633 -0.91054034 -0.99377549
3.347841 -1.0610083 -0.96893603
4.0811353 -1.2934065 -0.94841057
5.1736965 -1.6396644 -0.90480918
7.2068806 -2.2840276 -0.84266353
11.286448 -3.576937 -0.66132015
19.940245 -6.3195257 0
19.891088 -6.303947 1.1655021
2.8388038 -0.89590955 -0.98155022
3.3706503 -1.0637571 -0.97516483
4.0875463 -1.2900051 -0.9495374
5.175674 -1.6334118 -0.90480918
7.2047067 -2.2737625 -0.84208745
11.303159 -3.5672092 -0.66204625
19.987576 -6.3079591 0
19.913565 -6.2846017 1.1663731
2.8493159 -0.89544278 -0.98481005
3.345613 -1.051412 -0.96755308
4.0818276 -1.2827791 -0.9478482
5.1751971 -1.6263878 -0.90438163
7.217319 -2.268157 -0.84324062
11.307461 -3.5535491 -0.66204625
19.995182 -6.2838035 0
19.92362 -6.2613139 1.1665182
2.8692663 -0.89790457 -0.99132979
3.3564582 -1.0503658 -0.97032171
4.0906515 -1.2801234 -0.9495374
5.1894059 -1.6239661 -0.90652102
7.2077146 -2.255573 -0.84179944
11.316701 -3.541434 -0.66233623
20.005241 -6.2604151 0
19.926207 -6.235682 1.1662276
2.8255126 -0.88046539 -0.97584468
3.3625107 -1.0478007 -0.97170472
4.0897627 -1.2744216 -0.94897294
5.1889157 -1.6169316 -0.90609348
7.2054911 -2.2453218 -0.84122229
11.320971 -3.5277574 -0.66233623
20.017757 -6.2377853 0
19.936214 -6.2123756 1.1663731
2.8596272 -0.88730645 -0.98725575
3.366168 -1.0444797 -0.97239619
4.0937333 -1.2702341 -0.9495374
5.1982236 -1.6129435 -0.90737778
7.2007856 -2.2343135 -0.84035718
11.337632 -3.5179253 -0.6630618
20.030254 -6.215137 0
19.953634 -6.1913624 1.1669537
2.8300004 -0.87436634 -0.97666198
3.3698223 -1.0411515 -0.97308767
4.1001158 -1.2667854 -0.95066214
5.2001686 -1.6066613 -0.90737778
7.2034802 -2.2256112 -0.84035718
11.334434 -3.5019245 -0.6626268
20.057642 -6.1970758 0
19.995852 -6.1779852 1.1689854
2.8446951 -0.87702411 -0.98155022
3.3800404 -1.0420719 -0.97585636
4.0984545 -1.2635602 -0.95009977
5.1864147 -1.5989801 -0.90480918
7.2171888 -2.2250712 -0.84179944
11.366336 -3.5042596 -0.66436791
20.111113 -6.2002888 0
20.069109 -6.1873388 1.1730493
2.864655 -0.87938881 -0.98806989
3.3645158 -1.0328355 -0.97101319
4.1072583 -1.260842 -0.95178682
5.188343 -1.5927122 -0.90480918
7.2223425 -2.2171073 -0.84208745
11.373053 -3.4912879 -0.66451347
20.193232 -6.1988974 0
21.740788 -6.673964 1.2702874
2.863354 -0.87520504 -0.98725575
3.3681581 -1.029502 -0.97170472
4.0990686 -1.2529101 -0.9495374
5.204998 -1.5909456 -0.90737778
7.2274876 -2.2091341 -0.84237546
11.369805 -3.4752638 -0.66407794
20.245502 -6.1881852 0
21.731438 -6.6423721 1.2692714
2.8644094 -0.87174457 -0.98725575
3.3933959 -1.0327345 -0.978625
4.1102934 -1.2509127 -0.95178682
5.204463 -1.5839086 -0.90695024
7.2252073 -2.1988947 -0.84179944
11.40631 -3.4713576 -0.6659646
0 -0 0
21.729506 -6.6130829 1.2686908
3.3826387 -1.0249965 -0.97516483
4.1020842 -1.2430006 -0.9495374
5.2063732 -1.5776187 -0.90695024
7.2427063 -2.1946619 -0.84352863
11.425412 -3.4620924 -0.66683513
0 -0 0
21.730026 -6.5845637 1.2682558
2.8665078 -0.86481988 -0.98725575
3.376667 -1.0187339 -0.97308767
4.0987134 -1.2365739 -0.94841057
5.210731 -1.5720675 -0.90737778
7.2527838 -2.1881509 -0.84439379
11.429587 -3.4482846 -0.66683513
0 -0 0
21.730501 -6.5560503 1.2678202
2.8699155 -0.86206597 -0.98806989
3.3634837 -1.0103241 -0.96893603
4.1196723 -1.2374684 -0.95291364
5.2273731 -1.5701997 -0.90994477
7.2554226 -2.1793857 -0.84439379
11.431259 -3.4337249 -0.66669017
21.22476 -6.3754988 0
21.738407 -6.5297885 1.2678202
2.8851583 -0.8628453 -0.99295813
3.3719151 -1.0084164 -0.97101319
4.1187325 -1.2317623 -0.95235133
5.2218957 -1.5616779 -0.90866208
7.2580504 -2.1706173 -0.84439379
11.4354 -3.4199097 -0.66669017
21.374559 -6.3923483 0
21.736322 -6.5005388 1.2672397
2.8435645 -0.84666425 -0.97829032
3.3923666 -1.0100688 -0.97655052
4.1250839 -1.2282335 -0.95347601
5.2336106 -1.5582945 -0.91037232
7.2532287 -2.1596308 -0.84352863
11.451974 -3.4097967 -0.66741574
21.614223 -6.4355812 0
21.741674 -6.4735293 1.2670946
2.854064 -0.84603751 -0.98155022
3.3815513 -1.0024019 -0.97308767
4.126565 -1.2232482 -0.95347601
5.223186 -1.5483224 -0.90823293
7.26823 -2.1545401 -0.84496981
11.448619 -3.3937433 -0.66698074
21.764206 -6.4516196 0
21.734528 -6.4428215 1.2662235
2.8479705 -0.84048891 -0.97910452
3.3899808 -1.0004462 -0.97516483
4.1085439 -1.2125076 -0.94897294
5.2250528 -1.5420101 -0.90823293
7.2708278 -2.1457562 -0.84496981
11.46268 -3.3828495 -0.66756129
21.804432 -6.4348927 0
21.747286 -6.4180274 1.2665141
2.8774405 -0.84540772 -0.98888409
3.3935919 -0.99705589 -0.97585636
4.1148863 -1.2089761 -0.95009977
5.2293825 -1.5364212 -0.90866208
7.2907887 -2.1420736 -0.84698814
11.466759 -3.3689966 -0.66756129
21.837156 -6.4158764 0
21.742561 -6.3880835 1.2657886
2.87135 -0.83985072 -0.98644155
3.3947942 -0.99295467 -0.97585636
4.1163445 -1.2040032 -0.95009977
5.2386193 -1.5322613 -0.90994477
7.2908916 -2.1325371 -0.84670013
11.485781 -3.3595142 -0.66843182
0 -0 0
21.735296 -6.357429 1.2649174
2.8794751 -0.83845162 -0.98888409
3.3911786 -0.9874506 -0.97447336
4.1251078 -1.2011577 -0.95178682
5.2232213 -1.5209086 -0.90695024
7.3158107 -2.1302333 -0.84929448
11.484846 -3.3441818 -0.66814184
21.855104 -6.3638153 0
21.757936 -6.3355217 1.2657886
2.8781145 -0.83428431 -0.98806989
3.4092386 -0.98824221 -0.97931916
4.1265564 -1.1961724 -0.95178682
5.2349176 -1.5174551 -0.90866208
7.3109245 -2.119231 -0.84842932
11.503848 -3.3346415 -0.66901237
21.892763 -6.3460951 0
21.803003 -6.3200765 1.2679652
2.8577502 -0.82463938 -0.98073602
3.4104302 -0.9841221 -0.97931916
4.1377635 -1.1940032 -0.95403832
5.2466035 -1.5139728 -0.91037232
7.338326 -2.1175652 -0.85131174
11.515361 -3.3229008 -0.66944796
21.990433 -6.345613 0
21.94294 -6.3319087 1.2756574
2.8468692 -0.81777453 -0.97666198
3.4140258 -0.98069251 -0.98001063
4.1440926 -1.190407 -0.95516521
5.2509031 -1.508343 -0.91080153
7.3483396 -2.1108398 -0.85217685
11.541842 -3.3154404 -0.67075408
22.088121 -6.3449011 0
22.060453 -6.3369532 1.2820431
2.8858678 -0.8252036 -0.98969829
3.3935018 -0.97035974 -0.97378182
4.1333151 -1.1819067 -0.95235133
5.2601194 -1.5041124 -0.91208422
7.3508844 -2.1019592 -0.85217685
11.535847 -3.2986343 -0.67017353
22.123299 -6.3260784 0
22.225481 -6.3552971 1.2911865
2.8702295 -0.81698149 -0.98399585
3.3970823 -0.96694481 -0.97447336
4.1371818 -1.1776065 -0.95291364
5.2594662 -1.4970534 -0.91165662
7.3559041 -2.0937829 -0.85246491
11.539824 -3.284693 -0.67017353
22.14094 -6.3021922 0
22.378092 -6.3696952 1.2996042
2.8778574 -0.81727356 -0.98644155
3.3856015 -0.96146613 -0.97101319
4.1403341 -1.1758002 -0.95347601
5.2504921 -1.4910704 -0.90994477
7.354682 -2.0886326 -0.85217685
11.579293 -3.2883663 -0.67235017
22.147243 -6.2895246 0
22.514404 -6.3937931 1.3072959
2.8907328 -0.81715661 -0.99051559
3.381928 -0.95600843 -0.96962756
4.1344142 -1.1687224 -0.95178682
5.2621713 -1.4875183 -0.91165662
7.3621831 -2.0811529 -0.852754
11.58076 -3.2736666 -0.67220515
22.137304 -6.2578058 0
22.639637 -6.399806 1.3141177
2.886955 -0.81232291 -0.98888409
3.3999879 -0.95667863 -0.97447336
4.1333799 -1.1630384 -0.95122445
5.2614961 -1.4804643 -0.91122907
7.3721547 -2.0743554 -0.85361803
11.597212 -3.2631896 -0.67293072
22.147352 -6.2317572 0
22.78241 -6.4104481 1.3219544
2.892699 -0.81016845 -0.99051559
3.4059682 -0.95392162 -0.97585636
4.1298933 -1.1566739 -0.95009977
5.2632809 -1.4741057 -0.91122907
7.3871064 -2.068933 -0.85505927
11.608655 -3.2512772 -0.67336631
22.109762 -6.1923594 0
22.967785 -6.4326692 1.3322588
2.8960543 -0.80733567 -0.99132979
3.4264514 -0.95519495 -0.98139364
4.1435237 -1.1550938 -0.95291364
5.2724791 -1.4698137 -0.91251338
7.382134 -2.057924 -0.85419518
11.607574 -3.2358539 -0.67307627
22.109705 -6.1635423 0
23.16576 -6.4579401 1.3432889
2.9041748 -0.80581892 -0.99377549
3.3913486 -0.9409945 -0.97101319
4.1498084 -1.1514437 -0.95403832
5.2791934 -1.4648132 -0.91336852
7.3970742 -2.0524597 -0.85563636
11.631506 -3.2273839 -0.67423743
22.11964 -6.1375175 0
23.223623 -6.4438386 1.3461916
2.9170563 -0.80559832 -0.99784952
3.4094038 -0.94156903 -0.97585636
4.1463027 -1.1450771 -0.95291364
5.2760153 -1.4570678 -0.91251338
7.4145031 -2.0476501 -0.85736561
11.647919 -3.216785 -0.674963
22.119513 -6.108707 0
23.346603 -6.4475904 1.3528677
2.8512976 -0.78373104 -0.97503048
3.4177985 -0.93944412 -0.97793347
4.1574836 -1.14276 -0.95516521
5.2851911 -1.4527309 -0.91379607
7.4194727 -2.0393772 -0.85765469
11.649284 -3.2020178 -0.67481738
22.121864 -6.0805969 0
23.549795 -6.4730897 1.3641878
2.8832321 -0.78876311 -0.98562425
3.4092517 -0.93266571 -0.97516483
4.1637583 -1.1390754 -0.95628989
5.2819948 -1.4449903 -0.91294092
7.4393883 -2.0351863 -0.85967189
11.65064 -3.1872547 -0.67467242
22.131702 -6.0545487 0
24.154078 -6.6078076 1.3987291
2.9008789 -0.78982449 -0.99132979
3.4249046 -0.93250132 -0.97931916
4.1553249 -1.1313734 -0.95403832
5.2936449 -1.4413046 -0.91465282
7.4518242 -2.0289137 -0.86082506
11.687074 -3.1820483 -0.67655909
22.133986 -6.0264363 0
24.259827 -6.6052408 1.4043896
2.8899057 -0.78308725 -0.98725575
3.4114957 -0.92442417 -0.97516483
4.1640487 -1.128346 -0.95572752
5.2879467 -1.4328923 -0.91336852
7.4542704 -2.0199082 -0.86082506
11.69091 -3.1679244 -0.67655909
22.131203 -5.9969645 0
24.30039 -6.5847569 1.4062763
2.9075475 -0.78409773 -0.99295813
3.3932323 -0.9150756 -0.96962756
4.1580472 -1.1213284 -0.95403832
5.2847219 -1.4251664 -0.91251338
7.471694 -2.0149417 -0.86255538
11.702259 -3.1558263 -0.67699462
22.133402 -5.9688625 0
24.310837 -6.5560656 1.4064213
2.8774621 -0.77225596 -0.98236436
3.4282625 -0.92008024 -0.97931916
4.147131 -1.1130109 -0.95122445
5.2789998 -1.4167829 -0.91122907
7.4866114 -2.0092638 -0.86399657
11.718609 -3.1450512 -0.67772019
22.153164 -5.9454865 0
24.356377 -6.536787 1.4085979
2.8927252 -0.77260643 -0.98725575
3.4124026 -0.91140503 -0.97447336
4.1484728 -1.107999 -0.95122445
5.2980714 -1.4150407 -0.91422528
7.4815345 -1.9982132 -0.8631314
11.734951 -3.1342411 -0.67844576
22.190504 -5.9267731 0
24.391876 -6.5147285 1.4101946
2.9127662 -0.77418971 -0.99377549
3.4038031 -0.90470338 -0.97170472
4.1571779 -1.1049443 -0.95291364
5.2848868 -1.4046803 -0.91165662
7.5039411 -1.9944869 -0.86543775
11.743756 -3.1213956 -0.67873633
22.330952 -5.9353862 0
27.23982 -7.2401247 1.5743392
2.8874133 -0.763717 -0.98481005
3.4145951 -0.90315592 -0.97447336
4.1585097 -1.0999204 -0.95291364
5.3014755 -1.4022332 -0.91422528
7.5063457 -1.9854184 -0.86543775
9.4390469 -2.4966152 -0.54535967
22.50667 -5.9529843 0
27.258598 -7.2098627 1.5749197
2.8978949 -0.76274401 -0.98806989
3.393851 -0.89328283 -0.96824455
4.1622906 -1.0955409 -0.95347601
5.3006763 -1.395171 -0.91379607
7.5212431 -1.9796382 -0.86687893
