# .PCD v0.7 - Point Cloud Data file format
VERSION 0.7
FIELDS x y z
SIZE 4 4 4
TYPE F F F
COUNT 1 1 1
WIDTH 1700
HEIGHT 1
VIEWPOINT 0 0 0 1 0 0 0
POINTS 1700
DATA ascii
6.5614977 -3.8430977 -0.84756422
10.727509 -6.2831488 -0.69441026
10.964905 -6.4221926 0
10.960582 -6.419661 0.70949751
5.1031766 -2.9806771 -0.98526371
6.5773015 -3.8416879 -0.8490054
10.757535 -6.2832899 -0.69586194
10.988381 -6.4181232 0
10.99974 -6.4247575 0.7115292
5.1094069 -2.9801779 -0.98611885
6.5907984 -3.844233 -0.85044765
10.786013 -6.2911868 -0.69745803
11.021479 -6.4285278 0
11.023827 -6.4298973 0.71283585
5.1130042 -2.9740019 -0.98611885
6.5887294 -3.8323638 -0.84958249
10.816072 -6.2912164 -0.6989097
11.049483 -6.4269814 0
11.058533 -6.4322448 0.71457696
5.1143756 -2.9665349 -0.98569125
6.6023045 -3.829591 -0.85073566
10.850637 -6.293788 -0.70065141
11.079757 -6.4266858 0
11.093268 -6.4345231 0.71631867
5.1112881 -2.9564958 -0.98440695
6.6069269 -3.8216105 -0.85073566
10.887473 -6.2975845 -0.70253807
11.123559 -6.4341426 0
11.143774 -6.4458356 0.71907645
5.1304245 -2.9592974 -0.98740315
6.6137781 -3.8149157 -0.85102367
10.913081 -6.2948112 -0.70369917
11.165134 -6.4401984 0
11.219075 -6.4713125 0.72343034
5.12955 -2.9505386 -0.98654801
6.6206226 -3.8082099 -0.85131174
10.954459 -6.3010507 -0.70587587
11.238327 -6.4643326 0
11.262925 -6.4784813 0.72575259
5.1308784 -2.9430575 -0.98611885
6.6386852 -3.8079312 -0.85304201
10.9846 -6.300736 -0.70732701
11.30031 -6.4818258 0
11.282013 -6.4713306 0.72647816
5.1366653 -2.938134 -0.98654801
6.6455245 -3.8011899 -0.85333002
11.028294 -6.3081012 -0.70964921
11.328463 -6.4797955 0
11.28757 -6.4564052 0.72633314
5.1312923 -2.9268377 -0.98483616
6.6546021 -3.795718 -0.8539061
11.058483 -6.3076477 -0.71110088
11.334025 -6.4648142 0
11.284072 -6.4363208 0.72560704
5.1415129 -2.9244392 -0.98611885
6.661438 -3.7889569 -0.85419518
11.093192 -6.3096924 -0.71284199
11.339561 -6.4498239 0
11.291841 -6.4226813 0.72560704
5.1517439 -2.9220252 -0.98740315
6.6750107 -3.7860093 -0.85534835
11.127931 -6.3116674 -0.71458369
11.333767 -6.4284163 0
11.290552 -6.4039049 0.72502649
5.1552706 -2.9157982 -0.98740315
6.6818295 -3.7792132 -0.85563636
11.169477 -6.3174067 -0.71676093
11.339263 -6.4134369 0
11.286975 -6.383863 0.72430092
5.1722016 -2.9171309 -0.98997015
6.6908927 -3.7736754 -0.85621244
11.201992 -6.3179436 -0.71835703
11.347005 -6.3997312 0
11.287897 -6.366394 0.72386593
5.1792359 -2.9046233 -0.98997015
6.7067623 -3.761292 -0.85707754
11.273884 -6.322629 -0.7219854
11.346545 -6.363379 0
11.312314 -6.3441815 0.72444648
5.1872272 -2.9008715 -0.9908269
6.7022724 -3.7481356 -0.85592437
11.30873 -6.3242216 -0.72372705
11.354226 -6.3496642 0
11.349452 -6.3469944 0.72633314
5.1844921 -2.8952315 -0.98997015
6.7113128 -3.7478702 -0.85678953
11.330699 -6.3275232 -0.72488815
11.371689 -6.3504143 0
11.382775 -6.3566051 0.72821981
5.1879864 -2.8889649 -0.98997015
6.7203512 -3.7422724 -0.85736561
11.367846 -6.3302608 -0.72677481
11.402096 -6.3493328 0
11.417682 -6.3580122 0.72996092
5.1959662 -2.8851888 -0.9908269
6.7361722 -3.7404263 -0.85880679
11.409565 -6.335443 -0.72895205
11.427961 -6.3456583 0
11.443529 -6.3543029 0.73112202
5.2039361 -2.881393 -0.99168199
6.736166 -3.7297809 -0.85823071
11.44449 -6.3367567 -0.73069376
11.467491 -6.3494916 0
11.483028 -6.3580947 0.7331543
5.2029238 -2.8726239 -0.9908269
6.7497249 -3.7266395 -0.85938388
11.479427 -6.3379898 -0.73243487
11.504771 -6.3519826 0
11.524817 -6.3630509 0.73533094
5.2086372 -2.8675718 -0.99125445
6.7564864 -3.7197273 -0.85967189
11.523498 -6.3441658 -0.73475707
11.544351 -6.3556461 0
11.600782 -6.386714 0.73968488
5.2166033 -2.8637493 -0.99211121
6.7609758 -3.7115607 -0.85967189
11.551653 -6.3414898 -0.73606318
11.590802 -6.3629818 0
11.74971 -6.4502168 0.74868321
5.2155519 -2.8549762 -0.99125445
6.7677226 -3.7046294 -0.85995996
11.591222 -6.3449974 -0.73809546
11.619035 -6.3602219 0
11.837264 -6.4796801 0.75376266
5.218998 -2.8486722 -0.99125445
6.779007 -3.7001679 -0.86082506
11.628529 -6.3471699 -0.73998213
11.654115 -6.361136 0
11.89298 -6.4915147 0.75681049
5.2179308 -2.8399119 -0.9903993
6.7857428 -3.6932094 -0.86111313
11.665857 -6.3492613 -0.74186879
11.696083 -6.3657122 0
11.946461 -6.5019827 0.75971329
5.2145877 -2.8299305 -0.989115
6.7856579 -3.6825423 -0.86053705
11.703208 -6.3512721 -0.74375546
11.735785 -6.3689518 0
11.97486 -6.4986968 0.76101941
5.2247787 -2.8272941 -0.9903993
6.8151274 -3.6878824 -0.86370856
11.733722 -6.3494906 -0.74520659
11.768652 -6.368392 0
12.000987 -6.4941158 0.76218051
5.2304482 -2.8221967 -0.9908269
6.8195786 -3.6796448 -0.86370856
11.773396 -6.3525801 -0.74723822
11.810687 -6.3727012 0
12.052267 -6.5030508 0.76493776
5.2361131 -2.8170898 -0.99125445
6.8308463 -3.6750748 -0.86457258
11.817677 -6.3580475 -0.74956048
11.907763 -6.4065151 0
12.087576 -6.5032568 0.76667941
5.2395129 -2.810761 -0.99125445
6.8398447 -3.6692662 -0.86514974
11.855115 -6.3597312 -0.75144714
12.03474 -6.4560919 0
12.134349 -6.5095272 0.76914662
5.2451668 -2.8056376 -0.99168199
6.8488302 -3.6634364 -0.86572576
11.897161 -6.3637867 -0.75362438
12.136619 -6.4918723 0
12.165122 -6.5071187 0.77059829
5.2553501 -2.802923 -0.99296629
6.8578205 -3.6575952 -0.86630291
11.920894 -6.3579679 -0.75464052
12.192675 -6.5029206 0
12.214241 -6.5144234 0.77321053
5.2525158 -2.7973363 -0.99211121
6.8600292 -3.6534512 -0.86630291
11.966011 -6.3727484 -0.75725275
12.242533 -6.5200157 0
12.245696 -6.5217004 0.77495223
5.2558918 -2.7909877 -0.99211121
6.8667207 -3.6463714 -0.86659092
11.996648 -6.3704691 -0.75870383
12.271087 -6.516202 0
12.2834 -6.5227404 0.7768389
5.2547188 -2.7822304 -0.99125445
6.8825488 -3.6441219 -0.8680321
12.038785 -6.3742085 -0.76088107
12.308858 -6.5172048 0
12.309644 -6.5176206 0.778
5.2580767 -2.7758789 -0.99125445
6.9029603 -3.6442571 -0.87005043
12.083236 -6.3790627 -0.76320273
12.355846 -6.5229812 0
12.391033 -6.5415573 0.78264391
5.2727823 -2.775501 -0.99339384
6.9004903 -3.632298 -0.86918527
12.130031 -6.3850369 -0.76567054
12.391346 -6.5225887 0
12.403532 -6.5290031 0.78293449
5.2715907 -2.7667441 -0.99253875
6.9163227 -3.6299663 -0.87062645
12.158442 -6.3812423 -0.76697665
12.431484 -6.5245461 0
12.448225 -6.5333323 0.78525668
5.2794743 -2.7627506 -0.99339384
6.9344583 -3.6288042 -0.87235677
12.202971 -6.3858185 -0.76929832
12.467029 -6.5240002 0
12.495246 -6.5387664 0.78772396
5.2850914 -2.7575603 -0.99382305
6.9434199 -3.6228132 -0.87293279
12.242934 -6.3878989 -0.77133054
12.504895 -6.5245805 0
12.528472 -6.5368819 0.78932005
5.2906947 -2.7523558 -0.9942506
6.9500847 -3.6156135 -0.87322086
12.282912 -6.3898878 -0.77336222
12.558936 -6.533483 0
12.575547 -6.5421243 0.79178727
5.2940164 -2.7459612 -0.9942506
6.9636321 -3.6119766 -0.87437397
12.320608 -6.390594 -0.77524889
12.606093 -6.5386729 0
12.627271 -6.5496578 0.79454505
5.2950525 -2.7383842 -0.99382305
6.9679914 -3.6035597 -0.87437397
12.356017 -6.3900261 -0.77699059
12.641725 -6.5377822 0
12.660558 -6.5475221 0.79614121
5.2960691 -2.7308044 -0.99339384
6.9792395 -3.598695 -0.87523913
12.398365 -6.392951 -0.77916723
12.679684 -6.5380063 0
12.70772 -6.5524626 0.79860842
5.3062162 -2.7279253 -0.9946782
6.9858809 -3.5914407 -0.87552714
12.440747 -6.3957872 -0.78134447
12.717661 -6.5381484 0
12.743359 -6.5513597 0.80035007
5.3117909 -2.7226818 -0.99510574
6.9879155 -3.5818183 -0.87523913
12.492404 -6.4032717 -0.78410226
12.769558 -6.5453329 0
12.783644 -6.5525532 0.80238235
5.3127933 -2.7150943 -0.9946782
6.9922385 -3.5733724 -0.87523913
12.527888 -6.4023571 -0.78584337
12.795997 -6.5393734 0
12.82394 -6.5536542 0.80441397
5.3252192 -2.7133346 -0.99639004
6.9711986 -3.5520031 -0.87206769
12.561085 -6.4001927 -0.78744006
12.847939 -6.5463524 0
12.868894 -6.5570288 0.80673623
5.3262072 -2.7057366 -0.9959625
7.7571831 -3.9406829 -0.96979463
12.610505 -6.4061918 -0.79005229
12.886002 -6.5461454 0
12.916188 -6.56148 0.80920345
5.3271847 -2.6981401 -0.99553496
7.7665491 -3.9336421 -0.97037065
12.646053 -6.4050384 -0.79179394
12.924082 -6.545856 0
12.963512 -6.5658269 0.81167066
5.3448429 -2.7030275 -0.99852949
7.7573862 -3.9231141 -0.96892947
12.696297 -6.4208508 -0.79469675
12.976803 -6.5627103 0
12.986027 -6.5673752 0.81283182
5.3549838 -2.7000356 -0.9998138
7.7482591 -3.9067488 -0.96719915
12.727242 -6.4172015 -0.79614788
13.024225 -6.5669432 0
13.047311 -6.5785828 0.81616962
5.3490682 -2.6889513 -0.99810189
7.7668438 -3.904356 -0.96892947
12.772134 -6.4204917 -0.79847008
13.062377 -6.5663953 0
13.08311 -6.5768175 0.81791127
7.7692456 -3.8938107 -0.96864146
12.824013 -6.4271717 -0.80122733
13.102879 -6.5669346 0
13.135178 -6.5831223 0.82066852
7.7739449 -3.8844202 -0.96864146
12.859662 -6.4256091 -0.80296904
13.143393 -6.5673809 0
13.175669 -6.5835085 0.82270074
7.7878933 -3.8796372 -0.96979463
12.909286 -6.4309239 -0.80558181
13.19558 -6.5735445 0
13.211515 -6.5814829 0.82444185
7.7879381 -3.8679211 -0.96921748
12.949624 -6.4315004 -0.80761349
13.219823 -6.5656953 0
13.259019 -6.5851626 0.82690907
7.8088336 -3.8665431 -0.97123581
12.994644 -6.4342966 -0.80993569
13.28139 -6.5762792 0
13.306559 -6.5887413 0.82937688
7.808857 -3.8548129 -0.97065866
13.046673 -6.4404411 -0.81269294
13.324325 -6.5775027 0
13.365767 -6.5979605 0.83256966
7.813509 -3.8453746 -0.97065866
13.084751 -6.4395871 -0.81457961
13.371956 -6.5809331 0
13.399367 -6.5944238 0.83416575
7.8251181 -3.8393495 -0.97152382
13.120516 -6.4375067 -0.81632131
13.414947 -6.5819674 0
13.43765 -6.5931067 0.83605248
7.8181362 -3.8242104 -0.97008264
13.1773 -6.4456239 -0.81936908
13.46263 -6.5851922 0
13.499295 -6.6031265 0.83939081
7.8366957 -3.8215609 -0.97181183
13.220115 -6.4467821 -0.82154632
13.505658 -6.5860276 0
13.544632 -6.6050329 0.84171301
7.8343272 -3.8086951 -0.97094667
13.258272 -6.4455719 -0.82343298
13.565104 -6.5947394 0
13.596998 -6.6102448 0.84447026
7.8459082 -3.8026114 -0.97181183
13.294102 -6.4431419 -0.82517409
13.598817 -6.590826 0
13.64706 -6.6142077 0.8470825
7.8621392 -3.7987535 -0.97325301
13.332299 -6.4417734 -0.82706136
13.66301 -6.601563 0
13.678443 -6.6090198 0.84853417
7.8690605 -3.7903767 -0.97354215
13.377521 -6.443697 -0.82938302
13.692077 -6.5952125 0
13.730892 -6.6139088 0.85129142
7.8690114 -3.7844975 -0.97325301
13.411851 -6.4502535 -0.83126968
13.747652 -6.611752 0
13.758307 -6.6168766 0.85274309
7.8805776 -3.7783422 -0.97411817
13.424326 -6.4362917 -0.83156025
13.786136 -6.6097617 0
13.813144 -6.6227107 0.8556453
7.8781343 -3.76547 -0.97325301
13.488359 -6.4469595 -0.83504361
13.831681 -6.6110559 0
13.872718 -6.6306696 0.85883868
7.8873525 -3.7581754 -0.97383016
13.52428 -6.4440651 -0.83678472
13.886648 -6.6167274 0
13.939353 -6.64184 0.86246645
7.889554 -3.7475338 -0.97354215
13.546144 -6.4344106 -0.83765584
13.934594 -6.6189246 0
13.984921 -6.6428304 0.86478865
7.9127774 -3.7468534 -0.9758485
13.582089 -6.4313827 -0.83939749
13.980216 -6.6199031 0
14.039907 -6.6481681 0.86769146
0 -0 -0
7.8962412 -3.7273495 -0.97325301
13.613344 -6.4260564 -0.84084862
14.037625 -6.6263342 0
14.078476 -6.6456175 0.86957812
7.9147859 -3.7244155 -0.97498333
13.625797 -6.4118133 -0.8411386
14.083289 -6.6270928 0
14.126463 -6.6474085 0.87204534
7.9216199 -3.7159467 -0.97527134
13.647654 -6.4019675 -0.84200972
14.128984 -6.6277552 0
14.183885 -6.6535077 0.87509316
7.9493308 -3.7055347 -0.97757769
13.677211 -6.3755531 -0.84288025
14.227512 -6.6320724 0
14.284707 -6.6587334 0.88031816
7.9326944 -3.6861184 -0.97498333
13.699048 -6.3655939 -0.84375137
14.275636 -6.6335192 0
14.339863 -6.6633639 0.88322043
7.948875 -3.6819649 -0.97642452
13.730303 -6.3599563 -0.84520251
14.32851 -6.6370492 0
14.383272 -6.6624155 0.88539761
7.9462709 -3.6691039 -0.97555935
13.728541 -6.339004 -0.84462196
14.414489 -6.6557326 0
14.440851 -6.6679053 0.88844544
7.9460039 -3.6573389 -0.97498333
13.717307 -6.3137197 -0.84346086
14.483983 -6.6666002 0
14.491381 -6.6700053 0.89105767
7.9551144 -3.6498899 -0.97555935
13.755627 -6.3112259 -0.84534752
14.541698 -6.6718841 0
14.508876 -6.6568246 0.89163822
7.9548192 -3.6381257 -0.97498333
13.758521 -6.2924409 -0.84505749
14.554479 -6.6564713 0
14.542905 -6.6511779 0.89323491
7.9570155 -3.6333191 -0.97498333
13.776498 -6.2906013 -0.84592807
14.563237 -6.6498408 0
14.554005 -6.6456251 0.8936699
7.9566875 -3.621557 -0.97440618
13.788823 -6.2761054 -0.84621865
14.549946 -6.6225371 0
14.602227 -6.6463332 0.89613712
7.9610572 -3.6119401 -0.97440618
13.827156 -6.2733955 -0.84810531
14.546081 -6.5995722 0
14.671766 -6.6565957 0.89991045
7.9748425 -3.6065814 -0.97555935
13.856032 -6.2663188 -0.84941143
14.546937 -6.5787768 0
14.729515 -6.6613474 0.90295827
7.9768391 -3.5958807 -0.97527134
13.863594 -6.2495718 -0.84941143
14.552496 -6.5601225 0
14.829943 -6.6851926 0.90861887
7.9764643 -3.5841215 -0.97469532
13.897209 -6.2445321 -0.85100812
14.574659 -6.5489359 0
14.890148 -6.6906967 0.91181165
7.9807892 -3.574481 -0.97469532
13.888142 -6.2202992 -0.84999198
14.606309 -6.5419564 0
14.933787 -6.6886292 0.91398829
7.9851022 -3.5648351 -0.97469532
13.912259 -6.2109299 -0.85100812
14.659358 -6.5444613 0
14.979822 -6.6875281 0.91631055
7.984673 -3.5530789 -0.97411817
13.943489 -6.2046771 -0.85245919
14.71956 -6.5500188 0
15.06386 -6.703228 0.920955
7.9771409 -3.5381861 -0.97267699
13.953349 -6.1888771 -0.85260421
14.77742 -6.5543861 0
15.133701 -6.7124114 0.92472833
7.9932361 -3.5337727 -0.97411817
13.965574 -6.1741161 -0.85289478
14.944799 -6.6070271 0
15.184574 -6.7130303 0.92734057
7.9927711 -3.522028 -0.97354215
13.9754 -6.1582837 -0.85303974
15.15995 -6.6802573 0
15.254494 -6.7219181 0.9311139
8.0017529 -3.514446 -0.97411817
13.985208 -6.1424365 -0.85318476
15.237109 -6.6922836 0
15.312564 -6.7254238 0.93416172
7.9941487 -3.4995894 -0.97267699
14.016418 -6.135952 -0.85463589
15.309557 -6.7020478 0
15.368286 -6.7277575 0.93706453
8.0078535 -3.494065 -0.97383016
14.011917 -6.1138167 -0.85391033
15.358191 -6.7012367 0
15.400215 -6.7195725 0.9385156
7.9930949 -3.4761345 -0.97152382
14.016913 -6.0958462 -0.85376531
15.402069 -6.6982398 0
15.422625 -6.7071791 0.93938673
7.99966 -3.4675016 -0.97181183
14.019505 -6.0768404 -0.85347533
15.486563 -6.7127452 0
15.435482 -6.6906042 0.93967676
7.9990997 -3.4557834 -0.97123581
14.043529 -6.0671067 -0.85449088
15.532887 -6.7105422 0
15.484103 -6.6894665 0.94214398
7.9988041 -3.4499228 -0.97094667
14.028103 -6.0503883 -0.85332978
15.575165 -6.7176437 0
15.583582 -6.7212739 0.94794953
8.0077238 -3.4423003 -0.97152382
14.052116 -6.0406184 -0.85434586
15.645431 -6.7255402 0
15.687171 -6.7434835 0.95375454
8.002368 -3.4285476 -0.97037065
14.057019 -6.0226121 -0.8542009
15.706179 -6.7291808 0
15.776511 -6.7593145 0.95868903
8.006505 -3.4188757 -0.97037065
14.040384 -5.9954162 -0.85274923
15.77173 -6.7347226 0
15.818128 -6.7545347 0.96072125
8.0153847 -3.4112227 -0.97094667
14.057182 -5.9825172 -0.85332978
15.830142 -6.7370615 0
15.888437 -6.7618709 0.96449459
8.0075979 -3.3964863 -0.96950549
14.071579 -5.9685721 -0.85376531
15.888582 -6.7392688 0
15.951609 -6.7660017 0.96783239
8.0164652 -3.3888242 -0.97008264
14.078781 -5.9515653 -0.85376531
15.935068 -6.736279 0
16.012423 -6.7689791 0.97102517
8.0157824 -3.377125 -0.96950549
14.076384 -5.9305139 -0.85318476
16.022339 -6.7503633 0
16.070873 -6.7708116 0.97407299
8.0103178 -3.3634317 -0.96835232
14.088335 -5.9155149 -0.85347533
16.080872 -6.7521558 0
16.138937 -6.7765365 0.97770131
8.0119925 -3.3527529 -0.96806431
14.081086 -5.892467 -0.85260421
16.125023 -6.747787 0
16.207037 -6.7821069 0.98132968
8.0112677 -3.3410804 -0.96748829
14.095392 -5.8784504 -0.85303974
16.207628 -6.7593532 0
16.267977 -6.7845211 0.98452246
8.020071 -3.3333812 -0.96806431
14.124078 -5.870389 -0.85434586
16.26865 -6.7617369 0
16.348141 -6.794776 0.98887634
8.0240927 -3.3236883 -0.96806431
14.133559 -5.8543119 -0.85449088
16.339317 -6.7679667 0
16.409159 -6.796896 0.99206972
8.0424528 -3.3199136 -0.96979463
14.119008 -5.8283076 -0.85318476
16.38357 -6.7631154 0
16.453381 -6.7919331 0.99424636
8.0440598 -3.3092065 -0.96950549
14.12364 -5.8102555 -0.85303974
16.449484 -6.7670732 0
16.536072 -6.8026943 0.99874586
8.045661 -3.2985044 -0.96921748
14.137865 -5.7961435 -0.85347533
16.549147 -6.7847047 0
16.587551 -6.8004489 1.001358
8.0568266 -3.2917159 -0.97008264
14.164092 -5.7869148 -0.85463589
16.600702 -6.7824225 0
16.675133 -6.8128319 1.0061475
8.0703802 -3.2858799 -0.97123581
14.159043 -5.7648978 -0.85391033
16.652267 -6.7800221 0
16.721849 -6.808352 1.0084692
8.1178827 -3.2995048 -0.97671252
14.160119 -5.7553654 -0.85376531
16.711807 -6.7924957 0
16.793362 -6.8256435 1.0125331
8.1458416 -3.2994056 -0.97959602
14.169469 -5.7392259 -0.85391033
16.780304 -6.7967224 0
16.861803 -6.8297338 1.0161614
8.1642084 -3.2953672 -0.98132521
14.176394 -5.7221007 -0.85391033
16.872963 -6.8105326 0
16.918236 -6.8288064 1.0190643
8.1465902 -3.276814 -0.97873086
14.188123 -5.7069082 -0.8542009
16.934303 -6.8115082 0
16.991558 -6.8345375 1.0229826
8.1217337 -3.2554202 -0.97527134
14.226361 -5.7023273 -0.85608757
16.973923 -6.803628 0
17.064919 -6.8401012 1.026901
8.075222 -3.2254577 -0.96921748
14.221178 -5.680315 -0.855362
17.066713 -6.8168974 0
17.109369 -6.8339353 1.0290782
8.0502758 -3.2042201 -0.96575797
14.230443 -5.6640878 -0.85550702
17.166817 -6.8328414 0
17.204517 -6.8478465 1.0343027
8.0349083 -3.1868618 -0.96345162
14.242103 -5.6488028 -0.85579699
17.218601 -6.8293629 0
17.273161 -6.8510027 1.037931
8.0243244 -3.1714485 -0.96172243
14.241674 -5.6287274 -0.855362
17.299446 -6.8372478 0
17.358757 -6.8606896 1.0425755
8.0233335 -3.1598527 -0.96114528
14.24121 -5.6086578 -0.85492641
17.41424 -6.8583012 0
17.425058 -6.8625622 1.0460588
8.0199289 -3.1473241 -0.96028125
14.240718 -5.5885973 -0.85449088
17.483076 -6.8610215 0
17.455105 -6.8500447 1.047365
8.0357685 -3.1423402 -0.96172243
14.271665 -5.5808511 -0.85594255
17.496197 -6.8417854 0
17.468204 -6.8308392 1.047655
8.0371513 -3.13169 -0.96143442
14.288082 -5.5673761 -0.8565231
17.506874 -6.8215837 0
17.495815 -6.8172746 1.0488161
8.0457478 -3.123847 -0.96201044
14.294799 -5.5501075 -0.8565231
17.5054 -6.7966576 0
17.542797 -6.8111773 1.0511383
8.0422773 -3.1113224 -0.96114528
14.325725 -5.5422049 -0.85797423
17.501465 -6.7708063 0
17.555855 -6.7918482 1.0514283
8.0436192 -3.1006732 -0.96085727
14.332411 -5.5248909 -0.85797423
17.51206 -6.7505894 0
18.79081 -7.243525 1.1248652
8.0406685 -3.0939569 -0.96028125
14.343023 -5.5190315 -0.85840976
17.53314 -6.7465515 0
18.778204 -7.2256379 1.1238492
8.046813 -3.0851643 -0.96056926
14.339976 -5.4979758 -0.85782921
17.585014 -6.7421293 0
18.791779 -7.2048054 1.1241397
8.0408707 -3.0717468 -0.95941609
14.358744 -5.48528 -0.85855478
17.653925 -6.7440939 0
18.80047 -7.1820936 1.1241397
8.0324926 -3.0574293 -0.95797491
14.358073 -5.4651523 -0.85811925
17.732594 -6.7496052 0
18.818848 -7.1630692 1.1247202
8.0471182 -3.0407526 -0.95884007
14.339642 -5.418499 -0.85623252
17.873005 -6.7536459 0
18.88228 -7.1350193 1.1274774
8.0556231 -3.0328479 -0.95941609
14.314568 -5.3892674 -0.85434586
17.959091 -6.7613883 0
18.924938 -7.1250176 1.1295097
8.0641203 -3.0249271 -0.95999211
14.296744 -5.3628426 -0.85289478
18.16461 -6.8137155 0
18.994354 -7.1249599 1.1331381
8.0653496 -3.0142763 -0.9597041
14.29591 -5.342834 -0.85245919
18.501919 -6.914753 0
19.063787 -7.1247411 1.1367658
8.0835333 -3.0099459 -0.96143442
14.29748 -5.323741 -0.85216862
18.578541 -6.9178162 0
19.123518 -7.1207414 1.1398137
8.0871649 -3.0001762 -0.96143442
14.279545 -5.2974253 -0.85071754
18.655205 -6.9207082 0
19.132109 -7.0976291 1.1398137
8.0956316 -2.9921939 -0.96201044
14.29812 -5.2846708 -0.85144311
18.736782 -6.9252276 0
27.278393 -10.082258 1.6244093
8.0895319 -2.9788349 -0.96085727
14.280115 -5.2584133 -0.84999198
18.811077 -6.9268646 0
27.297873 -10.051985 1.6248449
8.0785608 -2.9637148 -0.95912808
14.284021 -5.2402606 -0.84984696
18.890278 -6.9301195 0
27.288046 -10.01094 1.6235389
8.0554113 -2.9441836 -0.95595658
14.287895 -5.2221026 -0.8497014
18.99641 -6.9430246 0
20.037424 -7.3235064 1.1916261
8.0565348 -2.9335639 -0.95566857
14.27711 -5.1986141 -0.84868586
19.078144 -6.9467778 0
20.031605 -7.2939534 1.1907549
8.0479183 -2.9194179 -0.95422739
14.310245 -5.1911039 -0.85028195
19.174599 -6.9556699 0
20.028193 -7.2653146 1.1900294
8.0611706 -2.9132075 -0.95538056
14.299407 -5.1676292 -0.84926641
19.244167 -6.9546046 0
20.032074 -7.2393441 1.1897393
8.0799532 -2.9144776 -0.95739776
14.314746 -5.1633968 -0.84999198
19.334051 -6.9738846 0
20.024225 -7.2228332 1.1890138
8.0859098 -2.9055896 -0.9576869
14.340537 -5.1531262 -0.85115308
19.418381 -6.977798 0
20.032938 -7.1986322 1.1890138
8.0894146 -2.8958173 -0.9576869
14.334523 -5.1314168 -0.85042751
19.507654 -6.983274 0
20.026937 -7.1691651 1.1881427
8.0977755 -2.8877766 -0.95826292
14.348048 -5.1167083 -0.8508625
19.59206 -6.986794 0
20.03314 -7.1440892 1.1879977
8.0939455 -2.8753915 -0.95739776
14.361568 -5.1019783 -0.85129809
19.696123 -6.9970903 0
20.039312 -7.119009 1.1878527
8.1169205 -2.8725126 -0.9597041
14.384872 -5.0906906 -0.85231423
19.805151 -7.008883 0
20.042995 -7.0930548 1.1875621
8.125268 -2.8644245 -0.96028125
14.417963 -5.0828061 -0.85391033
19.919138 -7.0221519 0
20.044207 -7.0662422 1.1871271
8.1457987 -2.8606009 -0.96229845
14.397132 -5.055913 -0.85231423
20.047926 -7.0403304 0
20.030657 -7.0342665 1.1858205
8.1565762 -2.8533194 -0.96316361
9.4833498 -3.3174489 -0.56117922
20.080978 -7.024693 0
20.017071 -7.002337 1.1845143
8.1673479 -2.8460157 -0.96402878
9.4922638 -3.3076994 -0.56146973
20.089453 -7.0004239 0
9.4651566 -3.2982538 0.55986637
8.178113 -2.8386903 -0.96489394
9.4741621 -3.2885597 -0.56016362
20.09544 -6.9752922 0
9.4593163 -3.2834063 0.55928582
8.1961994 -2.8338761 -0.96662313
9.4732132 -3.2754097 -0.5598731
20.111235 -6.9535575 0
9.4436302 -3.2651813 0.55812472
8.2118425 -2.828181 -0.96806431
9.4648819 -3.2597308 -0.55914754
9.4999819 -3.2718196 0
9.4377413 -3.2503836 0.55754417
8.2348261 -2.8249707 -0.97037065
9.4516068 -3.242389 -0.5581314
9.496541 -3.2578042 0
9.426919 -3.2339201 0.55667359
8.2676048 -2.8250544 -0.97383016
9.4481478 -3.2284482 -0.5576964
9.4832392 -3.2404389 0
9.4308205 -3.2225273 0.55667359
8.2881536 -2.8208969 -0.9758485
9.4422026 -3.2136805 -0.55711585
9.474822 -3.2247827 0
9.4297924 -3.2094567 0.55638361
8.2890997 -2.8100474 -0.97555935
9.438694 -3.1997657 -0.55668032
9.468853 -3.2099898 0
9.4262781 -3.1955566 0.55594802
8.2924891 -2.8000298 -0.97555935
9.4425526 -3.1883585 -0.55668032
9.4529982 -3.1918855 0
9.4178257 -3.1800089 0.55522251
8.3105803 -2.7949562 -0.97728968
9.4488592 -3.1777742 -0.55682528
9.4445171 -3.1763139 0
9.411809 -3.1653137 0.5546419
8.3318844 -2.796519 -0.97959602
9.4409237 -3.1687579 -0.55624473
9.4390402 -3.1681254 0
9.4112587 -3.1588011 0.55449694
8.3426094 -2.7889073 -0.98046005
9.4422836 -3.1565249 -0.55609971
9.4453268 -3.1575422 0
9.4150686 -3.1474271 0.55449694
8.3557892 -2.782093 -0.98161322
9.448554 -3.1459336 -0.55624473
9.4466686 -3.1453059 0
9.4213276 -3.1368687 0.5546419
8.3665123 -2.7744379 -0.98247838
9.4375544 -3.1296089 -0.55537421
9.4430485 -3.1314309 0
9.4251118 -3.1254826 0.5546419
8.3895063 -2.7708158 -0.98478472
9.4289951 -3.1141293 -0.55464864
9.4542418 -3.1224678 0
9.4288807 -3.1140919 0.5546419
8.4174128 -2.7687569 -0.98766708
9.4426241 -3.1059816 -0.55522919
9.4530582 -3.1094139 0
9.4449759 -3.1067553 0.55536747
8.4355049 -2.7634168 -0.98939741
9.4513044 -3.0961862 -0.55551916
9.4691725 -3.1020396 0
9.45119 -3.0961487 0.55551249
8.4585094 -2.7596402 -0.99170375
9.45257 -3.0839586 -0.55537421
9.4753952 -3.0914052 0
9.4499884 -3.0831163 0.55522251
8.4642954 -2.7502162 -0.99199176
9.4636965 -3.0749414 -0.5558092
9.481596 -3.0807574 0
9.4561758 -3.0724978 0.55536747
8.4700699 -2.7407823 -0.99227977
9.4698849 -3.0643065 -0.55595475
9.4803543 -3.0676944 0
9.4598818 -3.0610697 0.55536747
8.4782944 -2.732131 -0.99285579
9.4834728 -3.0560496 -0.5565353
9.4691963 -3.0514491 0
9.456151 -3.0472453 0.55493194
8.4889803 -2.7242563 -0.99372095
9.4871588 -3.0445886 -0.5565353
9.4852648 -3.0439806 0
9.4721947 -3.0397863 0.55565751
8.5070534 -2.7187228 -0.99545127
9.4933033 -3.0339131 -0.55668032
9.483983 -3.0309343 0
7.8621655 -2.5126266 0.46103156
8.5201902 -2.7115793 -0.99660444
9.4944887 -3.0216529 -0.5565353
9.5000353 -3.0234182 0
7.8676691 -2.5039122 0.46117657
9.5030823 -3.0117469 -0.55682528
9.5036812 -3.0119369 0
7.8583064 -2.4904795 0.46045101
9.5091896 -3.0010433 -0.5569703
9.519721 -3.0043669 0
7.8563585 -2.4794197 0.460161
9.5227251 -2.9926674 -0.55755085
9.5332756 -2.9959831 0
7.8370409 -2.4629145 0.45885488
9.5319719 -2.9892471 -0.55798644
9.5524683 -2.9956751 0
7.8533988 -2.4628429 0.45972544
9.5529413 -2.98315 -0.55900252
7.8172321 -2.4411304 0
7.8390045 -2.4479294 0.45870933
9.5763884 -2.9777772 -0.56016362
7.7953296 -2.4239571 0
7.824595 -2.4330571 0.45769379
14.797274 -4.5816097 -0.86523092
7.7684202 -2.4052992 0
7.8622751 -2.4343591 0.45972544
14.780454 -4.5568376 -0.8639248
7.6867681 -2.369843 0
7.8999696 -2.4355733 0.46175712
7.8632765 -2.4138606 -0.45944157
7.6299157 -2.3422236 0
7.900425 -2.4252644 0.46161214
7.8686795 -2.4051192 -0.45958716
7.6103435 -2.3261569 0
7.9058323 -2.4164753 0.46175712
7.8715801 -2.3956096 -0.45958716
7.5982146 -2.3124146 0
7.893836 -2.4023831 0.46088657
7.8595433 -2.3815739 -0.45871603
7.5860543 -2.2987022 0
0 -0 0
7.85993 -2.3713257 -0.45857102
7.5788603 -2.2865276 0
7.8697662 -2.3742933 0.45914489
7.8403945 -2.3550997 -0.4572649
7.5691576 -2.2736256 0
7.8577023 -2.3602986 0.45827433
0 -0 -0
7.5619259 -2.2614954 0
7.8655229 -2.3522902 0.45856434
7.6144676 -2.2671888 -0.44376764
0 -0 0
7.9430666 -2.3650284 0.46291825
0 -0 -0
7.5274458 -2.23138 0
8.1501999 -2.4159846 0.47481939
7.647562 -2.2468956 -0.44521874
7.5428042 -2.2161171 0
8.2657003 -2.428508 0.48120499
7.585433 -2.2186887 -0.44144541
7.5254936 -2.2011566 0
8.3609028 -2.4455082 0.48657501
7.5432062 -2.1964467 -0.43883318
7.5306535 -2.1927917 0
8.4212255 -2.4521103 0.48991278
0 -0 -0
7.519474 -2.1846092 0
8.4751043 -2.4622452 0.49296057
0 -0 -0
7.5246153 -2.1762469 0
8.5055332 -2.459945 0.49455726
0 -0 -0
7.5097308 -2.1621125 0
8.5484514 -2.4611685 0.49687949
0 -0 -0
7.5173364 -2.1544695 0
8.5614109 -2.453701 0.49746004
7.6324916 -2.1774964 -0.44333208
7.5099239 -2.1425285 0
8.5818529 -2.4483426 0.49847561
0 -0 -0
7.510006 -2.1327424 0
7.712492 -2.1902459 0.44782484
0 -0 -0
7.5025601 -2.1208348 0
7.7801404 -2.1993015 0.4515982
0 -0 -0
7.5076299 -2.1124749 0
7.7827921 -2.1898992 0.4515982
0 -0 -0
7.5076632 -2.1026978 0
7.7879319 -2.1811938 0.45174319
0 -0 -0
7.5026851 -2.0915303 0
7.7880611 -2.1710849 0.4515982
0 -0 -0
7.5026917 -2.0817654 0
0 -0 0
0 -0 -0
7.5052018 -2.0726984 0
0 -0 0
0 -0 -0
7.5051937 -2.0629392 0
0 -0 0
0 -0 -0
7.5001478 -2.0518081 0
0 -0 0
0 -0 -0
7.5001125 -2.0420613 0
0 -0 0
0 -0 -0
7.5025749 -2.0329974 0
0 -0 0
0 -0 -0
7.5075359 -2.0246074 0
0 -0 0
0 -0 -0
7.5124979 -2.016211 0
0 -0 0
0 -0 -0
7.5061703 -2.0096521 0
0 -0 0
0 -0 -0
7.5111051 -2.0012503 0
0 -0 0
0 -0 -0
7.5160313 -1.9928396 0
0 -0 0
7.6015253 -2.0056803 -0.43912318
7.508368 -1.9811006 0
0 -0 0
7.488338 -1.9661406 -0.43244705
7.503212 -1.9700459 0
0 -0 0
7.4957414 -1.958406 -0.43273759
7.500546 -1.9596614 0
0 -0 0
7.4427805 -1.9349649 -0.42954481
7.5079508 -1.9519079 0
0 -0 0
7.2415986 -1.8733233 -0.83372724
7.500452 -1.940286 -0.43273759
7.510304 -1.9428345 0
0 -0 0
7.2188134 -1.8581257 -0.83084488
7.4650421 -1.9215052 -0.43056035
7.5076003 -1.9324597 0
0 -0 0
7.2210531 -1.8494018 -0.83084488
7.4598141 -1.9105515 -0.43012536
7.5074115 -1.9227418 0
0 -0 0
7.2132568 -1.8381205 -0.82969171
7.4218297 -1.89127 -0.42780313
7.5172973 -1.9155977 0
0 -0 0
7.1979203 -1.8249531 -0.82767338
7.4215932 -1.8816628 -0.42765814
7.517086 -1.905874 0
0 -0 0
7.2101517 -1.8187851 -0.82882655
7.386066 -1.86316 -0.4254809
7.5168529 -1.8961513 0
0 -0 0
7.2223787 -1.81259 -0.82997972
7.383276 -1.8529702 -0.4251909
7.5090413 -1.8845333 0
0 -0 0
7.2195401 -1.8026075 -0.82940263
7.3754253 -1.8415297 -0.42461035
7.5138454 -1.876091 0
0 -0 0
7.2192054 -1.7932599 -0.82911456
7.3625097 -1.8288568 -0.42373922
7.5161066 -1.8670106 0
0 -0 0
7.2263932 -1.7857778 -0.82969171
7.3924646 -1.8268172 -0.42533591
7.5132995 -1.8566777 0
0 -0 0
7.2335644 -1.7782786 -0.83026773
7.3896151 -1.8166416 -0.42504534
7.5104876 -1.8463565 0
0 -0 0
7.2658572 -1.7769101 -0.83372724
7.4119973 -1.8126496 -0.42620647
7.5177641 -1.8385155 0
0 -0 0
7.324717 -1.7866154 -0.84035718
7.4383402 -1.81433 -0.42765814
7.5138216 -1.832741 0
0 -0 0
7.3771415 -1.7899611 -0.84612298
0 -0 -0
7.5185575 -1.8242738 0
0 -0 0
0 -0 -0
0 -0 -0
7.5207562 -1.8151878 0
0 -0 0
7.3965306 -1.7757499 -0.84785223
0 -0 -0
7.5102935 -1.803062 0
0 -0 0
7.3760319 -1.7614051 -0.84525788
0 -0 -0
7.5099282 -1.7933797 0
0 -0 0
7.3529949 -1.7465152 -0.84237546
0 -0 -0
7.5095601 -1.7837032 0
0 -0 0
7.3601294 -1.7388175 -0.84295154
7.5549684 -1.784848 -0.43360814
7.5142403 -1.7752259 0
0 -0 0
7.3722963 -1.7322896 -0.84410471
7.5293016 -1.7691815 -0.43201205
7.5113173 -1.7649556 0
0 -0 0
7.3743844 -1.7233802 -0.84410471
0 -0 -0
7.5134444 -1.7558784 0
0 -0 0
7.366384 -1.7121263 -0.84295154
0 -0 -0
7.5155606 -1.7467986 0
0 -0 0
7.3785276 -1.7055542 -0.84410471
0 -0 -0
7.5151329 -1.7371306 0
0 -0 0
7.3629451 -1.692583 -0.84208745
0 -0 -0
7.5146828 -1.7274641 0
0 -0 0
7.3952422 -1.6906019 -0.84554696
0 -0 -0
7.5167642 -1.7183828 0
7.7930365 -1.7815405 0.44651875
0 -0 -0
7.5239158 -1.710454 0
7.7926421 -1.7715452 0.44637316
0 -0 -0
7.5183592 -1.6996394 0
7.7871809 -1.7604108 0.44593817
0 -0 -0
7.5178704 -1.6899835 0
7.7766194 -1.748149 0.44521207
0 -0 -0
7.519907 -1.6808984 0
7.7863359 -1.7404523 0.44564763
0 -0 -0
7.523459 -1.6769205 0
7.7899199 -1.7363126 0.44579262
0 -0 -0
7.528018 -1.6683912 0
0 -0 0
0 -0 -0
7.5274897 -1.6587344 0
0 -0 0
0 -0 -0
7.5294881 -1.6496377 0
0 -0 0
0 -0 -0
7.5340166 -1.6410919 0
0 -0 0
0 -0 -0
7.533453 -1.6314371 0
7.7850347 -1.6859194 0.44492206
7.5224209 -1.6100266 -0.42968979
7.5322886 -1.6121386 0
9.6260643 -2.0602703 0.54985249
0 -0 -0
7.5444131 -1.6052026 0
0 -0 0
0 -0 -0
7.5514345 -1.5971614 0
7.7676749 -1.6428972 0.44347095
0 -0 -0
7.5508146 -1.5875009 0
7.7620234 -1.631906 0.44303539
0 -0 -0
7.5476274 -1.5773103 0
7.8250337 -1.635283 0.44651875
0 -0 -0
7.5546288 -1.5692489 0
8.396863 -1.7441978 0.47902831
0 -0 -0
7.5590658 -1.5606452 0
8.3786058 -1.7298474 0.47786719
0 -0 -0
7.5660496 -1.5525577 0
8.3679552 -1.7171092 0.47714108
0 -0 -0
7.5628152 -1.5423733 0
8.3725777 -1.7075176 0.47728664
0 -0 -0
7.559577 -1.5322011 0
8.3313437 -1.6886255 0.47481939
0 -0 -0
7.5614228 -1.5230657 0
8.3613911 -1.6841999 0.47641551
0 -0 -0
7.5760145 -1.5164816 0
8.3761568 -1.6766452 0.47714108
0 -0 -0
3.1031744 -0.61920899 0
8.3797235 -1.6720942 0.47728664
0 -0 -0
3.0860581 -0.61191714 0
2.7338312 -0.54207605 0.15567428
0 -0 -0
3.0714698 -0.60516822 0
2.7574267 -0.5432927 0.1569804
0 -0 -0
3.0824149 -0.60345656 0
2.7555237 -0.53945982 0.15683484
0 -0 -0
3.0627048 -0.59575623 0
2.748529 -0.53464288 0.15639985
0 -0 -0
3.0378752 -0.58711773 0
2.7568192 -0.53279918 0.15683484
0 -0 -0
3.0334659 -0.58246416 0
2.7472637 -0.52750969 0.15625484
0 -0 -0
3.0035005 -0.57294834 0
2.7402391 -0.52272862 0.15581928
0 -0 -0
3.0092995 -0.57028699 0
2.74597 -0.52038389 0.15610929
0 -0 -0
2.9792955 -0.56087267 0
2.7542601 -0.5185082 0.15654485
0 -0 -0
2.987648 -0.55870801 0
2.7574363 -0.51565701 0.15668984
7.8469672 -1.4576187 -0.44579932
2.9857647 -0.55462277 0
2.7606096 -0.51279891 0.15683484
7.8640594 -1.4509659 -0.44667041
2.971072 -0.54818046 0
2.7561214 -0.50852084 0.15654485
7.8913608 -1.4461455 -0.44812155
2.9768567 -0.54552925 0
2.7592874 -0.50565815 0.15668984
7.8879943 -1.4356796 -0.44783154
2.96983 -0.54053342 0
0 -0 0
0 -0 -0
2.9576786 -0.53463036 0
2.7553921 -0.49806505 0.15639985
0 -0 -0
2.8840396 -0.51772153 0
2.7611022 -0.49565268 0.15668984
0 -0 -0
2.8513582 -0.50829923 0
2.7565877 -0.49140489 0.15639985
0 -0 -0
2.7722383 -0.49246696 0
2.761996 -0.49064749 0.15668984
0 -0 -0
2.7369454 -0.48278674 0
2.7625868 -0.48730981 0.15668984
0 -0 -0
2.7426586 -0.48037818 0
2.7682974 -0.48486885 0.1569804
8.024456 -1.3954966 -0.45494267
2.7509217 -0.47840026 0
2.7688813 -0.48152354 0.1569804
8.3743534 -1.445923 -0.47468054
2.7412493 -0.47330648 0
2.7745774 -0.47906092 0.1572704
8.3888969 -1.4379978 -0.47540608
2.7289865 -0.46779409 0
2.78284 -0.47702551 0.15770596
8.3727045 -1.4248103 -0.47439054
2.7244234 -0.46362394 0
2.7808552 -0.47322714 0.15756096
8.3744202 -1.4146924 -0.47439054
2.7403734 -0.46293184 0
2.7839847 -0.47029907 0.15770596
8.3966246 -1.4080104 -0.47555164
2.7383666 -0.45919031 0
2.7845509 -0.46693483 0.15770596
8.3752537 -1.3940244 -0.47424552
2.7260861 -0.45374513 0
2.7902343 -0.46442235 0.15799595
0 -0 -0
8.3666773 -1.3822094 -0.47366497
2.7163615 -0.44875407 0
2.7907937 -0.46105057 0.15799595
8.3939781 -1.3763025 -0.4751161
2.7169018 -0.44547155 0
2.7913487 -0.45767808 0.15799595
0 -0 -0
8.3981972 -1.3665758 -0.47526109
2.7251468 -0.44344276 0
2.7816408 -0.45263562 0.1574154
8.3459749 -1.3477287 -0.4722133
2.7256806 -0.44014964 0
2.769362 -0.44720343 0.15668984
0 -0 -0
2.9290881 -0.4693656 -0.16569491
2.7133543 -0.43479577 0
2.7724636 -0.4442676 0.15683484
0 -0 -0
2.9657471 -0.4715651 -0.33471829
2.9809675 -0.4739852 -0.16859713
2.7087421 -0.43070033 0
2.7832632 -0.44254944 0.1574154
2.9893162 -0.47161004 -0.33731377
2.9712811 -0.46876475 -0.16801713
2.7169752 -0.42864412 0
2.7735291 -0.43756634 0.15683484
0 -0 -0
0 -0 -0
2.9461687 -0.46115506 -0.16656546
2.7072065 -0.42375103 0
2.7766304 -0.43461776 0.1569804
0 -0 -0
2.9492888 -0.45799321 -0.16671047
2.7128549 -0.42127752 0
2.7643175 -0.42926913 0.15625484
0 -0 -0
0 -0 -0
2.9392934 -0.45462257 -0.1661299
2.7439718 -0.42441207 0
2.7645764 -0.42759898 0.15625484
0 -0 -0
0 -0 -0
2.9295669 -0.44949436 -0.16554935
2.7316232 -0.41912314 0
2.7599494 -0.42346931 0.15596429
2.9841628 -0.45418122 -0.33644861
0 -0 -0
2.7295573 -0.41543099 0
2.7553263 -0.41935295 0.15567428
0 -0 -0
3.0948365 -0.46720004 -0.52179939
2.9795895 -0.44980222 -0.33587146
2.9049561 -0.43853548 -0.16409823
2.7094705 -0.40902475 0
2.7583978 -0.41641086 0.15581928
0 -0 -0
3.0852437 -0.46193972 -0.52008754
2.9698989 -0.44466966 -0.33471829
2.9131958 -0.43617976 -0.16453379
2.7176769 -0.40690556 0
2.7563317 -0.41269317 0.15567428
3.0680225 -0.45557174 -0.51709133
2.9678781 -0.44070125 -0.33443028
2.9265697 -0.43456736 -0.16525935
2.7413423 -0.40706289 0
2.7542505 -0.40897962 0.15552872
0 -0 -0
3.0660336 -0.4514907 -0.51666379
2.9556162 -0.43523115 -0.3329891
2.9193778 -0.42989483 -0.16482379
2.7315333 -0.40223363 0
2.7393234 -0.40338078 0.15465817
3.058954 -0.44667256 -0.51537949
2.9586971 -0.43203288 -0.33327711
2.9173265 -0.42599192 -0.16467878
2.7397354 -0.40005985 0
2.7475247 -0.40119722 0.15509373
0 -0 -0
3.0426004 -0.44053045 -0.68105489
3.0594914 -0.44297609 -0.51537949
2.9643414 -0.42919955 -0.33385426
2.9127009 -0.42172262 -0.16438879
2.6964333 -0.3904098 0
2.7222862 -0.39415297 0.15364206
0 -0 -0
3.0456431 -0.43721443 -0.68161726
3.0574858 -0.43891454 -0.51495194
2.9597323 -0.42488164 -0.33327711
2.8926315 -0.41524902 -0.16322768
2.7149382 -0.38974044 0
2.7279096 -0.39160252 0.15393262
3.0335939 -0.43174434 -0.67880338
3.0503871 -0.43413439 -0.51366764
2.9576855 -0.42094097 -0.3329891
2.8982713 -0.41248509 -0.16351767
2.7231393 -0.3875601 0
2.7155206 -0.3864758 0.15320705
0 -0 -0
0 -0 -0
0 -0 -0
2.9581919 -0.41736686 -0.3329891
2.8807642 -0.40644273 -0.16250211
2.7004151 -0.38099757 0
2.7108347 -0.38246763 0.15291649
3.0069454 -0.42054042 -0.67261112
3.0463476 -0.42605111 -0.5128125
2.9458888 -0.41200128 -0.33154792
2.891537 -0.40439984 -0.16308211
2.7085984 -0.37881473 0
2.7241595 -0.38099101 0.15364206
2.9873166 -0.41411567 -0.66810799
3.0392296 -0.42131206 -0.51152819
2.9335768 -0.40666601 -0.33010674
2.8714428 -0.39805266 -0.16192156
2.7193656 -0.37697104 0
2.711751 -0.3759155 0.15291649
2.935467 -0.39970022 -0.81735992
2.9681673 -0.40415278 -0.66360492
3.0326056 -0.41292685 -0.51024389
2.9268601 -0.39852831 -0.32924157
2.8698142 -0.39076078 -0.16177601
2.7125301 -0.36934459 0
2.7100794 -0.3690109 0.1527715
2.896168 -0.39078543 -0.80628532
2.9711788 -0.4009068 -0.66416943
3.0407369 -0.41029239 -0.51152819
2.9247787 -0.39464593 -0.32895356
2.8677115 -0.38694575 -0.161631
2.7078211 -0.36537144 0
2.718251 -0.36677876 0.15320705
2.8941538 -0.38695356 -0.80559385
2.9641032 -0.39630592 -0.66248024
3.0412304 -0.40661794 -0.51152819
2.9252534 -0.39111161 -0.32895356
2.8553019 -0.38175896 -0.16090544
2.7031064 -0.36141017 0
2.7058072 -0.36177126 0.15248094
0 -0 -0
2.9565558 -0.39347881 -0.82289726
2.9542673 -0.39317426 -0.66022873
3.0440176 -0.40511882 -0.51195574
2.9203565 -0.38866118 -0.32837641
2.8529587 -0.37969139 -0.16076045
2.7368586 -0.36423999 0
2.7086084 -0.36048028 0.1526265
2.8998296 -0.38236395 -0.80697948
2.9824526 -0.39325839 -0.666421
3.0419624 -0.40110517 -0.51152819
2.9208241 -0.38513219 -0.32837641
2.8534155 -0.37624386 -0.16076045
2.7218108 -0.35889083 0
2.716763 -0.35822526 0.15306149
2.8604875 -0.3736605 -0.79590493
2.9728477 -0.38833794 -0.66416943
3.0526266 -0.39875931 -0.51324004
2.9161627 -0.38093328 -0.32780039
2.8590162 -0.37346831 -0.16105044
2.71192 -0.35425341 0
2.7068877 -0.35359603 0.15248094
0 -0 -0
2.9156687 -0.37728614 -0.81113112
2.9783497 -0.38539705 -0.66529411
3.0454662 -0.39408189 -0.51195574
2.9140582 -0.37707779 -0.32751235
2.8543162 -0.36934718 -0.16076045
2.7252486 -0.3526459 0
2.7073131 -0.35032502 0.15248094
2.8889308 -0.3702777 -0.96036267
2.891243 -0.37057406 -0.80421084
2.9737775 -0.3811526 -0.66416943
3.0612226 -0.39236051 -0.5145244
2.9093759 -0.37289816 -0.32693523
2.8496008 -0.3652367 -0.16046989
2.7256727 -0.34935269 0
2.7025845 -0.34639347 0.15219094
2.8967342 -0.36772078 -0.96280837
2.8493814 -0.36170965 -0.79244477
2.9817908 -0.3785181 -0.66585648
3.0616944 -0.38866132 -0.5145244
2.9046974 -0.36873165 -0.32635921
2.85004 -0.36179325 -0.16046989
2.6951215 -0.34212738 0
2.6952653 -0.34214565 0.15175538
2.8996265 -0.36452836 -0.96362251
2.8747034 -0.36139515 -0.79936504
2.9797273 -0.37459829 -0.66529411
3.0494289 -0.38336089 -0.51238495
2.9128323 -0.36618856 -0.32722324
2.8530507 -0.3586731 -0.16061488
2.7110209 -0.34081772 0
2.6931012 -0.3385649 0.15161037
2.9098754 -0.3622458 -0.96688241
2.9174581 -0.36318973 -0.81113112
2.9751396 -0.37037042 -0.66416943
3.0524349 -0.37999278 -0.5128125
2.8876109 -0.35947412 -0.32434088
2.8354397 -0.35297939 -0.15959932
2.7269211 -0.33947009 0
2.690932 -0.33498988 0.15146539
0 -0 -0
2.855649 -0.35199177 -0.79382777
2.9730558 -0.36646354 -0.66360492
3.0579827 -0.37693173 -0.51366764
2.9034405 -0.35788265 -0.32607007
2.8358641 -0.34955308 -0.15959932
2.7299197 -0.33649421 0
2.6964879 -0.33237332 0.15175538
2.8960173 -0.35341573 -0.96199101
2.8784826 -0.35127586 -0.80005658
2.9709768 -0.3625634 -0.6630426
3.0507987 -0.37230447 -0.51238495
2.8884711 -0.35249484 -0.32434088
2.831121 -0.34549609 -0.15930876
2.7406578 -0.33445641 0
2.6839933 -0.32754138 0.15102983
2.7933981 -0.33746755 -0.92776716
2.8540032 -0.34478918 -0.7931363
2.9840231 -0.36049676 -0.66585648
3.0614307 -0.36984828 -0.51409519
2.8837643 -0.34838459 -0.32376483
2.8341234 -0.34238753 -0.15945433
2.7255526 -0.3292712 0
2.6998603 -0.32616735 0.15190038
2.8649616 -0.3426013 -0.95139724
2.836978 -0.33925495 -0.7882905
2.9718442 -0.35538268 -0.6630426
3.0542359 -0.36523533 -0.5128125
2.902153 -0.34704876 -0.32578206
2.8396902 -0.33957925 -0.15974432
2.7337031 -0.32690498 0
2.7002525 -0.32290486 0.15190038
2.8310156 -0.33507279 -0.93998933
2.8473513 -0.33700624 -0.79105914
2.9798439 -0.35268775 -0.6647318
3.0470247 -0.36063913 -0.51152819
2.9051363 -0.34384555 -0.32607007
2.8426764 -0.33645293 -0.15988933
2.741852 -0.32451957 0
2.6954849 -0.31903166 0.15161037
2.7970555 -0.32762679 -0.92858136
2.8103878 -0.32918844 -0.78067869
2.9853103 -0.34967756 -0.66585648
3.0576568 -0.35815173 -0.51324004
2.9055498 -0.34033501 -0.32607007
2.853404 -0.33422706 -0.16046989
2.7448246 -0.32150882 0
2.69329 -0.31547245 0.15146539
2.7999022 -0.32453117 -0.92939556
2.8381891 -0.32896891 -0.7882905
2.9680698 -0.34402314 -0.66191792
3.0555398 -0.35416159 -0.5128125
2.8931148 -0.33533525 -0.32462889
2.8279991 -0.32778782 -0.15901877
2.7426283 -0.31789264 0
2.703994 -0.3134146 0.15204594
2.8223896 -0.32368198 -0.93672943
2.8236349 -0.32382479 -0.78413886
2.9785807 -0.34159455 -0.66416943
3.0508599 -0.34988379 -0.51195574
2.8858166 -0.33095601 -0.32376483
2.8180671 -0.32318625 -0.15843821
2.7740271 -0.31813559 0
2.7017817 -0.30985022 0.15190038
2.8596187 -0.3244513 -0.9489547
2.8339951 -0.32154405 -0.78690749
3.0143323 -0.34200504 -0.67204875
3.0436356 -0.34532979 -0.51067311
2.8887818 -0.32776013 -0.32405287
2.8262036 -0.32066002 -0.15887377
2.7770028 -0.31507775 0
2.7047434 -0.30687922 0.15204594
2.7936893 -0.31355235 -0.92694986
2.859308 -0.32091713 -0.79382777
2.9920204 -0.33581224 -0.66698331
3.0440507 -0.34165192 -0.51067311
2.8866079 -0.32398117 -0.32376483
2.8239994 -0.31695423 -0.15872821
2.7566915 -0.30939987 0
2.7128515 -0.30447945 0.15248094
2.8677568 -0.31835711 -0.95139724
2.8846328 -0.32023054 -0.80075073
2.992424 -0.33219671 -0.66698331
3.0419025 -0.33768946 -0.51024389
2.8844192 -0.32020682 -0.32347572
2.8218002 -0.31325534 -0.15858321
2.7674098 -0.3072173 0
2.7054772 -0.30034202 0.15204594
2.7967167 -0.3087604 -0.92776716
2.8997829 -0.32013899 -0.80490237
3.0001934 -0.33122444 -0.66867036
3.0599694 -0.33782378 -0.51324004
2.8871903 -0.31874877 -0.32376483
2.8245692 -0.31183535 -0.15872821
2.7727635 -0.30611593 0
2.7159891 -0.29984799 0.1526265
2.8511372 -0.31128192 -0.94569486
2.9450538 -0.32153556 -0.81735992
2.9879644 -0.32622045 -0.66585648
3.0323019 -0.33106115 -0.50853199
2.8952794 -0.31610128 -0.32462889
2.8301151 -0.30898675 -0.15901877
2.7472651 -0.29994133 0
2.7111783 -0.29600146 0.15233594
2.8195684 -0.30438823 -0.93510109
2.9529254 -0.31878486 -0.81943709
2.9883566 -0.32260984 -0.66585648
3.0454683 -0.32877541 -0.51067311
2.8828042 -0.31121489 -0.32318771
2.8253145 -0.30500856 -0.15872821
2.7527955 -0.2971797 0
2.7141149 -0.29300395 0.15248094
2.8273001 -0.30176729 -0.93754363
2.9283671 -0.31255454 -0.81251681
2.9988503 -0.32007745 -0.66810799
3.0509636 -0.32563967 -0.51152819
2.8986044 -0.30937785 -0.3249169
2.8334348 -0.30242208 -0.15916377
2.7686841 -0.29551104 0
2.7170582 -0.29000083 0.1526265
2.8473263 -0.30042559 -0.94406337
2.9461999 -0.31085789 -0.81735992
2.9941859 -0.31592095 -0.66698331
3.0411432 -0.3208755 -0.50981635
2.8886971 -0.30479068 -0.32376483
2.8312166 -0.29872581 -0.15901877
2.7483342 -0.28998077 0
2.7148151 -0.28644413 0.15248094
2.7714877 -0.28903809 -0.91880178
2.9365926 -0.30625683 -0.81459129
3.0021398 -0.31309277 -0.66867036
3.0542924 -0.31853175 -0.51195574
2.8890634 -0.30130002 -0.32376483
2.8444951 -0.29665202 -0.15974432
2.7460966 -0.28639007 0
2.717751 -0.28343391 0.1526265
0 -0 -0
2.9269781 -0.30167946 -0.81182265
3.0227361 -0.3115491 -0.67317343
3.0546751 -0.314841 -0.51195574
2.8868451 -0.29754299 -0.32347572
2.8396869 -0.29268247 -0.15945433
2.7697372 -0.28547287 0
2.7258384 -0.28094828 0.15306149
2.8680677 -0.29210576 -0.9505831
2.937324 -0.29915935 -0.81459129
3.0371835 -0.30932981 -0.5089612
2.8872025 -0.2940546 -0.32347572
2.8322806 -0.28846097 -0.15901877
2.7674935 -0.28186253 0
2.7365162 -0.27870756 0.15364206
0 -0 -0
2.9326959 -0.29510808 -0.81320828
3.0605402 -0.30797267 -0.5128125
2.8927076 -0.29108417 -0.32405287
2.8352101 -0.28529841 -0.15916377
2.7859507 -0.28034157 0
2.736851 -0.27540082 0.15364206
0 -0 -0
2.953022 -0.2935496 -0.81874561
2.9007711 -0.28835553 -0.3249169
2.8407292 -0.28238696 -0.15945433
2.7888746 -0.27723226 0
2.7371817 -0.27209365 0.15364206
0 -0 -0
2.9259076 -0.28728437 -0.81113112
2.9036989 -0.28510377 -0.32520604
2.8410683 -0.2789543 -0.15945433
2.8177004 -0.27665988 0
2.7452691 -0.26954809 0.15407762
0 -0 -0
2.9387355 -0.2849592 -0.81459129
2.9117572 -0.28234318 -0.32607007
2.8414032 -0.27552122 -0.15945433
2.7947221 -0.27099469 0
2.7455926 -0.26623079 0.15407762
0 -0 -0
2.9290884 -0.28045163 -0.81182265
2.9249771 -0.280058 -0.32751235
2.836556 -0.27159193 -0.15916377
2.7872729 -0.26687324 0
2.756259 -0.26390371 0.15465817
0 -0 -0
2.9044535 -0.27455169 -0.80490237
2.9304585 -0.27700987 -0.3280884
2.8446453 -0.26889816 -0.15959932
2.8290486 -0.26742384 0
2.7669234 -0.26155126 0.15523873
0 -0 -0
2.8723125 -0.26801226 -0.79590493
2.943665 -0.27467006 -0.32952958
2.8475528 -0.26570192 -0.15974432
2.8086398 -0.26207098 0
2.7827556 -0.25965577 0.15610929
0 -0 -0
2.8876188 -0.26592132 -0.80005658
2.9311192 -0.26992729 -0.3280884
2.8530419 -0.26273713 -0.16003433
2.7985883 -0.2577225 0
2.7985973 -0.25772333 0.1569804
0 -0 -0
2.877944 -0.26152384 -0.79728794
2.915993 -0.26498142 -0.32635921
2.824899 -0.25670356 -0.15843821
2.801487 -0.25457606 0
2.8066628 -0.2550464 0.1574154
0 -0 -0
2.8632703 -0.25670254 -0.7931363
2.9137275 -0.26122621 -0.32607007
2.8329737 -0.25398633 -0.15887377
2.8017924 -0.25119081 0
2.8095644 -0.25188759 0.15756096
0 -0 -0
2.7736139 -0.24528655 -0.76821846
2.9243467 -0.25861675 -0.32722324
2.8384504 -0.25102043 -0.15916377
2.7865446 -0.2464301 0
2.8279777 -0.25009426 0.15857652
0 -0 -0
2.9193542 -0.25639778 -0.32664722
2.8308334 -0.24862328 -0.15872821
2.7841029 -0.24451908 0
2.8333101 -0.24884079 0.15886708
0 -0 -0
2.9222362 -0.25309309 -0.32693523
2.8440831 -0.2463243 -0.15945433
2.7973578 -0.24227744 0
2.8232536 -0.24452028 0.15828651
0 -0 -0
2.9199653 -0.2493421 -0.32664722
2.8288395 -0.24156068 -0.15858321
2.7898669 -0.23823272 0
2.8390763 -0.24243481 0.15915708
0 -0 -0
2.9807441 -0.25090459 -0.49869001
2.927999 -0.24646477 -0.32751235
2.8265426 -0.23792465 -0.15843821
2.7927434 -0.23507962 0
2.8238363 -0.23769686 0.15828651
0 -0 -0
2.9631348 -0.24581695 -0.49569383
2.9205594 -0.24228497 -0.32664722
2.8242409 -0.23429453 -0.1582932
2.8060009 -0.23278138 0
2.8292956 -0.23471387 0.15857652
2.9817102 -0.24373069 -0.98644155
2.930171 -0.23951779 -0.49013066
2.9182746 -0.23854534 -0.32635921
2.8193374 -0.23045802 -0.15800264
2.7959049 -0.2285426 0
2.8425238 -0.23235333 0.15930207
2.9820025 -0.2401277 -0.98644155
2.9253457 -0.23556538 -0.48927554
2.89536 -0.23315075 -0.32376483
2.8351591 -0.22830305 -0.15887377
2.7935774 -0.22495463 0
2.8428025 -0.22891852 0.15930207
0 -0 -0
2.9358644 -0.23284231 -0.49098742
2.9059432 -0.23046929 -0.3249169
2.8276596 -0.22426063 -0.15843821
2.8353567 -0.2248711 0
2.8456748 -0.22568941 0.15944764
2.8987899 -0.22637764 -0.95873117
2.9335768 -0.22909428 -0.49055821
2.895915 -0.22615312 -0.32376483
2.8357027 -0.22145091 -0.15887377
2.8174717 -0.22002718 0
2.8381712 -0.22164369 0.15901208
2.8152785 -0.21643378 -0.9310239
2.9313278 -0.22535545 -0.81113112
2.9563518 -0.22727923 -0.65685248
2.9415326 -0.22613996 -0.49184254
2.9013388 -0.22304994 -0.32434088
2.835968 -0.21802436 -0.15887377
2.8125408 -0.2162233 0
2.8410254 -0.21841314 0.15915708
2.8574333 -0.21620181 -0.94487756
2.8990793 -0.2193529 -0.80213374
2.96929 -0.22466522 -0.65966636
0 -0 -0
2.8938665 -0.21895847 -0.32347572
2.8362296 -0.21459748 -0.15887377
2.8491261 -0.21557328 0
2.8464742 -0.21537262 0.15944764
2.9242439 -0.21770363 -0.96688241
2.9043508 -0.21622263 -0.80351937
2.9594238 -0.22032268 -0.65741479
2.944628 -0.21922117 -0.49227008
2.8941288 -0.21546163 -0.32347572
0 -0 -0
2.8312249 -0.21077856 0
2.8622751 -0.21309018 0.1603182
2.9269674 -0.21435045 -0.96769655
2.9346251 -0.21491124 -0.81182265
2.9520829 -0.21618973 -0.6557256
2.950016 -0.21603836 -0.49312684
2.8943872 -0.21196449 -0.32347572
2.8471057 -0.20850194 -0.15945433
2.8652172 -0.20982827 0
2.8392093 -0.20792365 0.15901208
2.8532724 -0.20548773 -0.94324917
2.9173739 -0.21010421 -0.80697948
2.9472783 -0.21225786 -0.65460092
2.947717 -0.21228947 -0.4926993
2.8946412 -0.20846704 -0.32347572
2.8421671 -0.20468795 -0.15916377
2.8343191 -0.20412275 0
2.8368692 -0.20430639 0.15886708
0 -0 -0
2.9076157 -0.20587023 -0.80421084
2.9475327 -0.2086965 -0.65460092
