# .PCD v0.7 - Point Cloud Data file format
VERSION 0.7
FIELDS x y z
SIZE 4 4 4
TYPE F F F
COUNT 1 1 1
WIDTH 1593
HEIGHT 1
VIEWPOINT 0 0 0 1 0 0 0
POINTS 1593
DATA ascii
-6.1935539 10.162004 0.66472709
-2.0116553 3.2916443 -0.64313
-1.9942123 3.2631023 -0.42625293
-2.0773928 3.3992097 -0.22251652
-2.163779 3.5405622 0
-6.200408 10.145643 0.66414654
-2.0142913 3.2870245 -0.6427024
-2.0049095 3.2717149 -0.42769411
-2.085573 3.4033458 -0.22295208
-2.1639748 3.531286 0
-6.2085934 10.131504 0.66371155
-2.0142283 3.2780247 -0.6414181
-2.0020921 3.2582736 -0.42625293
-2.0828834 3.389756 -0.22222652
-2.1518903 3.5020604 0
-10.790049 17.560097 1.1512095
-2.0222287 3.2821472 -0.6427024
-2.0006006 3.2470438 -0.42509976
-2.0856159 3.3850267 -0.22208153
-2.1752353 3.5304818 0
-10.81671 17.555895 1.15179
-2.0234921 3.2753294 -0.64184564
-2.0045226 3.2446241 -0.42509976
-2.0815077 3.3692362 -0.22121041
-2.1658185 3.5057061 0
-10.84065 17.547237 1.1520807
-2.0260975 3.2707016 -0.6414181
-2.0057149 3.237798 -0.42452264
-2.07463 3.3490469 -0.22004929
-2.1673145 3.498666 0
-10.875525 17.556211 1.1535318
-2.0286949 3.2660725 -0.64099056
-2.0055354 3.2287869 -0.42365858
-2.0704517 3.3332982 -0.21917874
-2.178405 3.5070963 0
-10.906329 17.558512 1.1545478
-2.0339956 3.2657959 -0.6414181
-2.0094352 3.2263613 -0.42365858
-2.0607433 3.3087418 -0.21772762
-2.1675053 3.4801595 0
-10.933027 17.554134 1.1551279
-2.0270622 3.2459168 -0.63799435
-2.0078521 3.2151556 -0.42250541
-2.0647397 3.3062494 -0.21772762
-2.1744685 3.4819572 0
-7.4350209 11.905633 0.78402585
-2.0323439 3.2456388 -0.63842195
-2.0185976 3.223686 -0.42394659
-2.0659726 3.2993433 -0.21743706
-2.175909 3.4749115 0
-7.4231982 11.854795 0.78126806
-2.0308042 3.2344844 -0.63671005
-2.0128627 3.2059088 -0.42192829
-2.0768647 3.3078456 -0.21816261
-2.1801064 3.4722798 0
-7.4002151 11.786406 0.77734971
-0 0 -0
-2.0153582 3.2012875 -0.42164025
-2.0836315 3.309736 -0.21845317
-2.18153 3.4652424 0
-7.3923016 11.742271 0.77502751
-2.0345078 3.2230613 -0.63542742
-2.0150816 3.1922865 -0.42077512
-2.0820811 3.2984266 -0.21787262
-2.1898842 3.4692082 0
-7.4120321 11.74212 0.77560806
-2.0378249 3.2239995 -0.63585496
-2.01701 3.1910684 -0.42077512
-2.0743537 3.2817907 -0.21685649
-2.1919799 3.4678845 0
-7.4246783 11.746426 0.77618861
-2.0389681 3.2171941 -0.6349982
-2.0236361 3.1930025 -0.42135224
-2.0769279 3.2770894 -0.21671151
-2.1975603 3.4674296 0
-2.922545 4.6113496 0.30494514
-2.0469856 3.22123 -0.6362825
-2.0219438 3.181823 -0.42019907
-2.069737 3.2570326 -0.21555038
-2.1849985 3.4384134 0
-2.9030318 4.5683432 0.30233291
-2.04812 3.2144284 -0.63542742
-2.021616 3.1728315 -0.4193339
-2.0722761 3.2523401 -0.21540539
-2.1947455 3.44455 0
-2.9225099 4.5867419 0.30378404
-2.0478551 3.2054594 -0.63414305
-2.0240571 3.1682088 -0.4190459
-2.0776019 3.2520213 -0.21555038
-2.1989059 3.4418957 0
-2.92805 4.5832076 0.30378404
-2.042033 3.1878493 -0.63114691
-2.0278838 3.165761 -0.4190459
-2.0773237 3.2429423 -0.21511483
-2.2030632 3.4392362 0
-7.5683856 11.815125 0.78373533
-2.0431113 3.1810639 -0.63029176
-2.0331039 3.1654825 -0.4193339
-2.0812407 3.2404299 -0.21511483
-2.2029967 3.4300003 0
-7.6065269 11.843137 0.78620255
-2.0511193 3.1850615 -0.63157445
-2.0327249 3.1564977 -0.41846877
-2.0921929 3.2488422 -0.21584094
-2.2029164 3.420778 0
-2.9207289 4.5354266 0.3013168
-2.0549662 3.1825807 -0.63157445
-2.0351357 3.1518683 -0.41818073
-2.0947034 3.2441227 -0.21569538
-2.204222 3.4137371 0
-2.9121146 4.5100689 0.29986569
-2.0546291 3.1736369 -0.63029176
-2.0445652 3.1580918 -0.4193339
-2.1042705 3.2503142 -0.21627595
-2.2097583 3.4132535 0
-2.9048541 4.486918 0.29855958
-2.0556643 3.1668413 -0.62943506
-2.0399327 3.1426063 -0.41760471
-2.1209278 3.2673829 -0.21758206
-2.2082129 3.4018493 0
-2.9314911 4.5160913 0.30073625
-2.0566914 3.1600564 -0.62857991
-2.0479569 3.1466362 -0.41846877
-2.1192048 3.2561066 -0.2170015
-2.2080669 3.3926413 0
-2.9383619 4.5147219 0.30088124
-2.0605083 3.1575689 -0.62857991
-2.0461037 3.1354952 -0.4173156
-2.1259804 3.2579 -0.21729206
-2.2121649 3.3899708 0
-2.9707971 4.552516 0.30363902
-2.0615082 3.1507764 -0.62772316
-2.0498908 3.1330204 -0.4173156
-2.1313367 3.2575009 -0.21743706
-2.2191062 3.3916469 0
-3.0033224 4.59023 0.30639628
-2.0625005 3.1439946 -0.62686807
-2.0451653 3.1175694 -0.41558638
-2.1181676 3.2288513 -0.21569538
-2.2217767 3.3867891 0
-3.0273941 4.6148405 0.30828294
-2.0592458 3.1307786 -0.62472862
-2.0446653 3.1086111 -0.41472125
-2.1292057 3.2371421 -0.21642095
-2.2215755 3.3775768 0
-3.0401115 4.6220398 0.30900905
-2.0630271 3.128288 -0.62472862
-2.0512707 3.110461 -0.41529837
-2.1374085 3.2410767 -0.21685649
-2.2184925 3.3640292 0
-3.0285277 4.5923328 0.30726737
-2.0653856 3.1236455 -0.62429941
-2.0550275 3.10798 -0.41529837
-2.1470559 3.2471619 -0.21743706
-2.2182481 3.3548315 0
-3.0111439 4.5539904 0.30494514
-2.0691586 3.1211476 -0.62429941
-2.0587814 3.1054947 -0.41529837
-2.1452348 3.2359021 -0.21685649
-2.2208636 3.3499815 0
-2.9979806 4.5221958 0.30305848
-2.0743535 3.1207893 -0.62472862
-2.0610964 3.1008446 -0.41500926
-2.1491432 3.2333076 -0.21685649
-2.2349956 3.3624694 0
-2.9962521 4.5077519 0.30233291
-2.0781229 3.1182804 -0.62472862
-2.0605426 3.0919011 -0.4141452
-2.1530483 3.2307084 -0.21685649
-2.2376149 3.3576028 0
-3.0031362 4.5062885 0.30247793
-2.0828533 3.1212909 -0.62558377
-2.0624104 3.0906556 -0.4141452
-2.153559 3.2272477 -0.21671151
-2.2251947 3.3345985 0
-3.0231659 4.5304103 0.30421957
-2.0780611 3.1059744 -0.62301677
-2.0618269 3.0817101 -0.41328004
-2.1574569 3.2246432 -0.21671151
-2.2422454 3.3513725 0
-3.0445278 4.5505042 0.3058157
-2.0832412 3.1055911 -0.62344432
-2.0626702 3.0749247 -0.41270402
-2.1584537 3.2177141 -0.21642095
-2.2375972 3.3356974 0
-3.055814 4.5554538 0.30639628
-2.0783992 3.0902951 -0.62087733
-2.0634944 3.0681336 -0.4121269
-0 0 -0
-2.2517943 3.34811 0
-3.0627706 4.5539203 0.30654183
-2.0778248 3.0813942 -0.61959302
-2.0700951 3.069931 -0.41270402
-0 0 -0
-2.245652 3.3302801 0
-3.0769846 4.5631385 0.30741239
-2.082983 3.0810058 -0.62002057
-2.0709028 3.063138 -0.4121269
-2.1671956 3.2055676 -0.21613094
-2.2584171 3.3404963 0
-3.0854039 4.5637183 0.30770239
-2.0852652 3.0763638 -0.61959302
-2.0775077 3.0649195 -0.41270402
-2.1535718 3.1771359 -0.21438926
-2.2434704 3.3097618 0
-3.0807145 4.5449371 0.30668682
-2.0889809 3.073842 -0.61959302
-2.0797517 3.0602617 -0.41241491
-2.1734767 3.1981738 -0.21598594
-2.2460065 3.3048983 0
-3.092046 4.5498075 0.30726737
-2.0912495 3.0691962 -0.61916548
-2.079083 3.0513401 -0.41155085
-2.1700251 3.1848106 -0.21526039
-2.2499981 3.302182 0
-3.103394 4.5546575 0.30784795
-2.0935042 3.0645413 -0.61873627
-2.0827682 3.0488257 -0.41155085
-2.1987879 3.2186592 -0.21772762
-2.2495811 3.2930119 0
-3.1118238 4.5551915 0.30813792
-2.0972056 3.0620096 -0.61873627
-2.0835247 3.0420349 -0.41097373
-2.2026753 3.2160001 -0.21772762
-2.2506201 3.2860012 0
-3.1129191 4.5449948 0.30770239
-2.099452 3.0573592 -0.61830872
-2.0784168 3.0267262 -0.40924451
-2.2197967 3.2326126 -0.21903373
-2.2693181 3.304729 0
-3.1287065 4.5562263 0.3087185
-2.1031449 3.0548201 -0.61830872
-2.0850031 3.0284693 -0.40982056
-2.2148571 3.2170823 -0.21816261
-2.2556 3.2762613 0
-3.1312654 4.5481663 0.3084285
-2.1010015 3.0438261 -0.61659682
-2.087193 3.0238214 -0.40953252
-2.2290766 3.2293751 -0.21917874
-2.2699072 3.2885282 0
-3.132329 4.537962 0.30799294
-2.105427 3.0345256 -0.61574173
-2.0915484 3.0145226 -0.4089565
-2.2398341 3.2282445 -0.21946873
-2.264497 3.2637911 0
-3.1210661 4.4983535 0.3058157
-2.1105566 3.0340848 -0.61616927
-0 0 -0
-2.2570918 3.24474 -0.22077541
-2.2832975 3.282413 0
-3.1250167 4.4924479 0.30567071
-2.1156883 3.0336359 -0.61659682
-2.1003053 3.0115786 -0.40924451
-2.2654657 3.2483983 -0.22121041
-2.2649355 3.247638 0
-3.1349034 4.4950647 0.30610627
-2.1164131 3.0268736 -0.61574173
-2.1039426 3.0090387 -0.40924451
-2.2515213 3.2201042 -0.21946873
-2.2778029 3.2576919 0
-3.1671312 4.5296006 0.3087185
-2.1185968 3.0222142 -0.61531419
-0 0 -0
-2.2494502 3.2088785 -0.21888873
-2.295181 3.2741146 0
-3.1740923 4.5278964 0.30886349
-2.1189432 3.0188265 -0.61488497
-0 0 -0
-2.2394457 3.1905046 -0.21772762
-2.2971587 3.2727273 0
-3.1693645 4.5153456 0.30813792
-2.1225893 3.016264 -0.61488497
-2.1070685 2.9942086 -0.40809134
-2.243299 3.1877961 -0.21772762
-2.2846408 3.2465439 0
-3.1807997 4.5200129 0.3087185
-0 0 -0
-2.1151597 2.9980028 -0.4089565
-2.2351656 3.1680975 -0.2165665
-2.2990596 3.2586603 0
-3.1907542 4.5225377 0.30915406
-2.1180129 2.9943595 -0.61146122
-2.1113081 2.9848804 -0.40751421
-2.2449942 3.1738801 -0.21714705
-2.3195286 3.2792537 0
-3.1797092 4.4953418 0.30755737
-2.1260858 2.9980822 -0.61274552
-2.1134186 2.9802194 -0.4072262
-2.2533324 3.1775179 -0.21758206
-2.3084319 3.2552159 0
-3.1761229 4.4787831 0.30668682
-2.1237569 2.9871421 -0.61103368
-2.1155207 2.9755576 -0.40693817
-2.2737339 3.1980903 -0.21917874
-2.3123634 3.2524242 0
-3.1709912 4.4601154 0.30567071
-2.1258762 2.9824855 -0.61060613
-2.1206143 2.9751034 -0.4072262
-2.2730703 3.1889906 -0.21874318
-2.3178065 3.2517531 0
-3.107003 4.3589516 0.29899457
-2.1294785 2.9799144 -0.61060613
-2.12571 2.9746413 -0.40751421
-2.2754126 3.1841297 -0.21859817
-2.3398914 3.274359 0
-3.0170934 4.2220106 0.28985119
-2.1330774 2.9773393 -0.61060613
-2.124788 2.9657691 -0.40665016
-2.292877 3.2003865 -0.21990429
-2.3302007 3.2524829 0
-2.9889023 4.1718955 0.28665841
-2.1366735 2.9747598 -0.61060613
-0 0 -0
-2.3058405 3.2102807 -0.22077541
-2.3310955 3.2454417 0
-2.9833283 4.1535058 0.2856423
-2.1372633 2.9680054 -0.60974938
-2.1289232 2.9564235 -0.40607303
-2.3021212 3.1969428 -0.22004929
-2.3456624 3.2574079 0
-2.9746807 4.1309223 0.28433618
-2.1408479 2.9654207 -0.60974938
-0 0 -0
-2.3044629 3.192054 -0.21990429
-2.3480687 3.2524552 0
-2.9796698 4.1273251 0.28433618
-2.1384091 2.9545138 -0.60803747
-0 0 -0
-2.2885139 3.1619048 -0.21801762
-2.3535273 3.25173 0
-2.9861827 4.1258326 0.28448173
-2.1404712 2.949852 -0.60760993
-0 0 -0
-2.2694464 3.1275966 -0.21584094
-2.3589816 3.2509882 0
-2.9743776 4.0990853 0.28288507
-2.1425252 2.9451897 -0.60718238
-2.135581 2.9356437 -0.40463182
-2.2457061 3.0870254 -0.21322815
-2.3613787 3.246033 0
-2.9778013 4.093389 0.28274006
-2.14306 2.9384544 -0.6063273
-0 0 -0
-2.2448454 3.0780175 -0.21279316
-2.3698952 3.2494793 0
-2.9842749 4.0918851 0.28288507
-2.1496365 2.9400034 -0.60718238
-2.1457193 2.9346461 -0.40520787
-2.2592943 3.0899796 -0.21380872
-2.3646064 3.2340124 0
-2.9784796 4.0735912 0.28186893
-2.1531873 2.9374039 -0.60718238
-0 0 -0
-2.2799261 3.1103024 -0.21540539
-2.3731296 3.2374518 0
-2.9818649 4.0678959 0.28172395
-2.152173 2.9285922 -0.60589808
-0 0 -0
-2.2883003 3.1138289 -0.21584094
-2.3724148 3.2282887 0
-2.9898584 4.0684814 0.28201449
-2.1526678 2.9218602 -0.60504293
-0 0 -0
-2.2828104 3.0985055 -0.21496983
-2.3855729 3.237987 0
-2.9947722 4.0648661 0.28201449
-2.1561966 2.9192569 -0.60504293
-0 0 -0
-2.3019876 3.1166422 -0.21642095
-2.3740246 3.2141724 0
-2.9919581 4.0507874 0.28128839
-2.1579599 2.9179537 -0.60504293
-0 0 -0
-2.3007832 3.1110766 -0.21613094
-2.3852477 3.2252882 0
-2.9990416 4.0552487 0.28172395
-2.1538413 2.9050355 -0.60290354
-0 0 -0
-2.3076327 3.1124649 -0.21642095
-2.3782978 3.2077758 0
-3.0070374 4.0558009 0.28201449
-2.1650052 2.9127302 -0.60504293
-0 0 -0
-2.3082945 3.1055074 -0.21613094
-2.3852739 3.2090731 0
-3.0072842 4.0459061 0.28157896
-2.1562521 2.8936448 -0.60161924
-0 0 -0
-2.2934139 3.077713 -0.21438926
-2.3907034 3.2082734 0
-2.9997497 4.0256009 0.28041783
-2.1628168 2.8951464 -0.60247433
-0 0 -0
-2.2722487 3.0416324 -0.21206704
-2.3883479 3.1970427 0
-2.9937241 4.0073991 0.27940172
-2.1663134 2.8925309 -0.60247433
-0 0 -0
-2.2541182 3.0097711 -0.21003537
-2.3797345 3.1774979 0
-2.9954519 3.9996233 0.27911171
-2.168267 2.8878605 -0.60204679
-0 0 -0
-2.254636 3.0028932 -0.20974536
-2.3788829 3.1683745 0
-3.0002825 3.996001 0.27911171
-2.1717548 2.8852384 -0.60204679
-2.1707375 2.8838868 -0.40232551
-2.2551346 2.9960108 -0.2094548
-2.3874063 3.1717377 0
-2.9910462 3.9736905 0.2778056
-2.1752396 2.8826122 -0.60204679
-2.1711075 2.8771365 -0.40174946
-2.2509286 2.9829147 -0.20872925
-2.3802621 3.1543069 0
-3.0099304 3.9887388 0.27911171
-2.1802683 2.8820269 -0.60247433
-2.1730175 2.8724425 -0.40146035
-2.235719 2.9553256 -0.20698757
-2.3856404 3.153502 0
-3.0053387 3.9726615 0.27824059
-2.1806495 2.8753037 -0.60161924
-2.1718023 2.8636382 -0.40059629
-2.245569 2.9609034 -0.20756812
-2.4020302 3.167206 0
-3.0164175 3.9773088 0.27882117
-2.1810117 2.8685758 -0.60076249
-2.172127 2.85689 -0.40001917
-2.2522933 2.9623289 -0.20785868
-2.3932543 3.1477277 0
-3.0165076 3.9674616 0.27838615
-2.1798122 2.8598194 -0.59947979
-2.181849 2.8624916 -0.40117234
-2.2621658 2.9678636 -0.20843869
-2.4081011 3.1593242 0
-3.0118451 3.9514103 0.27751505
-2.1817091 2.8551457 -0.59905225
-2.1805935 2.8536856 -0.40030718
-2.262598 2.9610028 -0.20814869
-2.3961122 3.1357293 0
-3.0024197 3.9291883 0.27620894
-2.1882765 2.8565791 -0.59990734
-2.1856174 2.8531079 -0.40059629
-2.2645955 2.9562058 -0.20800368
-2.4046488 3.1390316 0
-3.008744 3.9276183 0.27635393
-2.1886024 2.849865 -0.59905225
-2.1874833 2.8484077 -0.40030718
-2.2681658 2.9534674 -0.20800368
-2.3973486 3.1216815 0
-3.008744 3.9178033 0.27591893
-2.1904738 2.8451784 -0.59862304
-2.1909235 2.8457625 -0.40030718
-2.2780735 2.9589603 -0.20858425
-2.3947682 3.1105337 0
-3.0118861 3.9121001 0.27577338
-2.1954832 2.8445675 -0.59905225
-2.1912029 2.8390219 -0.39973113
-2.2800548 2.9541426 -0.20843869
-2.398525 3.1076379 0
-2.9991515 3.8858366 0.27417725
-2.1957738 2.8378482 -0.59819549
-2.1930504 2.8343284 -0.39944312
-2.2899833 2.9596059 -0.20901924
-2.4102397 3.115027 0
-3.0070217 3.8863163 0.27446726
-2.1990585 2.8385487 -0.59862304
-2.1915913 2.8289096 -0.398866
-2.2806358 2.9438488 -0.20800368
-2.4009628 3.0991669 0
-3.0045996 3.8783424 0.27403226
-2.1946151 2.8257542 -0.59648359
-0 0 -0
-2.2921591 2.95135 -0.20872925
-2.4094963 3.1024318 0
-3.0140605 3.8808599 0.27446726
-2.1932952 2.8170218 -0.59519929
-0 0 -0
-2.2925277 2.9444737 -0.20843869
-2.4132433 3.0995181 0
-3.0251329 3.8854163 0.27504781
-2.2045996 2.8244934 -0.59734035
-2.1986516 2.8168728 -0.39828995
-2.3056798 2.9539957 -0.2093098
-2.420186 3.1006992 0
-3.0250337 3.8756189 0.27461281
-2.2000966 2.8117132 -0.59519929
-2.2004611 2.8121791 -0.39800194
-2.310847 2.9532518 -0.2094548
-2.4191241 3.0916295 0
-3.0329139 3.8760498 0.27490282
-2.1987438 2.8029993 -0.59391665
-2.2022567 2.8074775 -0.39771283
-2.3272438 2.9668136 -0.21061592
-2.4196424 3.084605 0
-3.0343907 3.8682973 0.27461281
-2.2100616 2.8104279 -0.59605604
-2.2072506 2.8068533 -0.39800194
-2.3292222 2.9619586 -0.21047091
-2.4217608 3.0796354 0
-3.0519061 3.8809605 0.27577338
-2.2134559 2.8077555 -0.59605604
-2.2106407 2.8041842 -0.39800194
-2.3327997 2.9591422 -0.21047091
-2.4190354 3.0685318 0
-3.0630279 3.8854325 0.27635393
-2.218437 2.807091 -0.59648359
-2.2220445 2.8116555 -0.39944312
-2.3363733 2.9563212 -0.21047091
-2.4356506 3.0819411 0
-3.0580568 3.8695004 0.27548337
-2.2218273 2.8044083 -0.59648359
-2.2222247 2.8049099 -0.398866
-2.327035 2.9372025 -0.2093098
-2.4312937 3.0687985 0
-3.0594997 3.8617253 0.2751928
-2.2284105 2.8057458 -0.59734035
-2.2240052 2.8001993 -0.39857796
-2.3354321 2.9404948 -0.20974536
-2.4252853 3.053627 0
-3.0657845 3.8600662 0.27533835
-2.2333963 2.8050575 -0.59776795
-2.2306061 2.801553 -0.39915401
-2.3422172 2.9417324 -0.21003537
-2.4403222 3.0649481 0
-3.0866284 3.8766832 0.27678949
-2.2431898 2.8103821 -0.59947979
-2.2404437 2.8069417 -0.40030718
-2.3392861 2.9307766 -0.2094548
-2.4375296 3.0538611 0
-3.0653746 3.8404572 0.27446726
-2.241771 2.8016546 -0.59819549
-2.2454543 2.806258 -0.40059629
-2.3363321 2.9198325 -0.20887424
-2.4460974 3.0570116 0
-3.0667691 3.8326967 0.27417725
-2.2515795 2.8069537 -0.59990734
-2.255317 2.8116131 -0.40174946
-2.3414826 2.9190323 -0.20901924
-2.4465294 3.0499897 0
-3.071398 3.8289883 0.27417725
-2.2662318 2.8182364 -0.60290354
-2.2603319 2.8108995 -0.40203747
-2.3531544 2.9263315 -0.20974536
-2.4404309 3.0348666 0
-3.069509 3.8171744 0.2735967
-2.2728546 2.8194895 -0.60375863
-2.2702198 2.816221 -0.40319064
-2.3534238 2.9194362 -0.2094548
-2.4408262 3.0278594 0
-3.0757482 3.8154838 0.27374169
-2.2698057 2.8087544 -0.60204679
-2.2768693 2.8174953 -0.40376669
-2.361851 2.9226553 -0.20989037
-2.4395804 3.0188413 0
-3.0950537 3.8299518 0.27504781
-2.2942979 2.8285604 -0.60718238
-2.2770889 2.8073435 -0.40290263
-2.370415 2.9224021 -0.21018036
-2.4499617 3.0204725 0
-3.1036255 3.8263519 0.2751928
-2.289618 2.8158293 -0.60504293
-2.2902668 2.816627 -0.40463182
-2.3723066 2.9175217 -0.21003537
-2.4519691 3.0154927 0
-3.1016955 3.8145425 0.27461281
-2.2962594 2.8170364 -0.60589808
-2.2920358 2.8118548 -0.40434381
-2.3774703 2.9166651 -0.21018036
-2.4621882 3.0205967 0
-3.0931685 3.7946792 0.27345169
-2.306159 2.822211 -0.60760993
-2.3003368 2.8150859 -0.40520787
-2.3892183 2.9238567 -0.21090648
-2.4658363 3.0176194 0
-3.1026793 3.7969694 0.27388668
-2.3079422 2.8174384 -0.60718238
-2.3053803 2.814311 -0.40549698
-0 0 -0
-2.4628839 3.0065846 0
-3.0957432 3.7791526 0.27287114
-2.3178613 2.8225832 -0.60889423
-2.3136988 2.8175142 -0.40636104
-0 0 -0
-2.4599085 2.9955616 0
-3.0739226 3.7432792 0.27054891
-2.3310564 2.8316681 -0.61146122
-2.3154593 2.8127215 -0.40607303
-0 0 -0
-2.4767587 3.008661 0
-3.0767934 3.7375579 0.27040389
-2.3295791 2.8229153 -0.61017859
-2.3221519 2.8139155 -0.40665016
-2.4066267 2.9162793 -0.21119648
-2.4754212 2.9996426 0
-3.0829597 3.7358398 0.27054891
-2.3460789 2.835922 -0.61360228
-2.3304915 2.8170805 -0.40751421
-2.4151192 2.9193778 -0.21163204
-2.4972932 3.0187092 0
-3.0874715 3.7321119 0.27054891
-2.3429489 2.8251812 -0.61189044
-2.3289454 2.8082955 -0.40665016
-2.4186449 2.9164574 -0.21163204
-2.4876485 2.9996634 0
-3.0836866 3.7183797 0.26982334
-2.3578439 2.8361607 -0.61488497
-2.3389509 2.8134351 -0.40780333
-2.4238267 2.915529 -0.21177703
-2.502919 3.0106659 0
-3.0898368 3.7166471 0.26996833
-2.3546951 2.8254213 -0.61317313
-2.3423486 2.8106067 -0.40780333
-2.4306717 2.9165866 -0.21206704
-2.4932256 2.9916456 0
-3.0993178 3.7189014 0.27040389
-2.3581073 2.8225741 -0.61317313
-2.3507133 2.8137236 -0.40866739
-2.4358649 2.9156473 -0.21221259
-2.5001726 2.9926214 0
-3.1138017 3.7271144 0.27127445
-2.3714087 2.8315349 -0.61574173
-2.360754 2.8188128 -0.40982056
-2.4477265 2.9226604 -0.21293814
-2.4987786 2.9836185 0
-3.093282 3.6934736 0.26909778
-2.8777833 3.4277391 -0.99147964
-2.3764775 2.8306315 -0.61616927
-2.3658197 2.8179371 -0.41010857
-0 0 -0
-2.5040538 2.9825883 0
-3.0943978 3.6857493 0.26880723
-2.5563502 3.0374184 -0.87947154
-2.3782444 2.8257959 -0.61574173
-2.3725572 2.8190382 -0.41068569
-2.4598033 2.9227028 -0.21337371
-2.5126784 2.9855282 0
-3.1172557 3.7038782 0.27040389
-2.5485539 3.0207386 -0.87553293
-2.3899324 2.8327284 -0.61788118
-2.3742955 2.8141944 -0.41039768
-2.4650071 2.9217126 -0.21351871
-2.516284 2.9824898 0
-3.1284313 3.7080531 0.27098447
-2.5538414 3.0195951 -0.87609529
-2.3966658 2.833755 -0.61873627
-2.3793628 2.8132963 -0.41068569
-2.4685357 2.9187319 -0.21351871
-2.5182068 2.9774621 0
-3.1178026 3.6864085 0.26967779
-2.5476258 3.0048749 -0.8727169
-2.4017529 2.8328207 -0.61916548
-2.3827603 2.8104193 -0.41068569
-2.4787819 2.9236751 -0.21409927
-2.5218027 2.9744172 0
-3.1172185 3.6766984 0.26924279
-2.5428634 2.9955869 -0.87046534
-2.4117687 2.8411524 -0.62130487
-2.3928254 2.8188367 -0.4121269
-2.4822278 2.924156 -0.21424426
-2.5235991 2.972893 0
-3.1278455 3.6847174 0.26996833
-2.5530679 3.0002525 -0.8727169
-2.4135377 2.8362832 -0.62087733
-2.3995852 2.8198867 -0.41270402
-2.4924953 2.9290702 -0.21482483
-2.5271895 2.9698415 0
-3.120506 3.6670809 0.26895222
-2.5468004 2.9855707 -0.86934066
-2.4219563 2.8392181 -0.62216002
-2.4029908 2.8169851 -0.41270402
-2.5010934 2.9319892 -0.21526039
-2.5358448 2.9727275 0
-3.0878379 3.6198196 0.26575944
-2.5405009 2.9709082 -0.86596447
-2.4220517 2.8323913 -0.62130487
-2.4114308 2.8199713 -0.41356808
-2.5012536 2.9250114 -0.21496983
-2.5394349 2.9696615 0
-3.0837674 3.6062136 0.26503387
-2.5407784 2.9639742 -0.86483759
-2.438838 2.8450546 -0.62472862
-2.4198883 2.8229485 -0.41443321
-2.5166256 2.9357986 -0.21598594
-2.5447135 2.9685647 0
-3.8474021 4.4882312 0.33019802
-2.541049 2.9570515 -0.86371291
-2.4606729 2.8635168 -0.62943506
-2.4232974 2.8200226 -0.41443321
-2.5269451 2.9406385 -0.2165665
-2.5466039 2.963516 0
-3.8629868 4.4954076 0.33106914
-2.5545671 2.9655261 -0.86708915
-2.4859099 2.885824 -0.6349982
-2.4300761 2.821008 -0.41500926
-2.533885 2.9415169 -0.21685649
-2.556977 2.9683239 0
-3.8565428 4.4769535 0.33005303
-2.553165 2.956666 -0.86539996
-2.4961061 2.8905897 -0.63671005
-2.436867 2.8219886 -0.41558638
-2.5442305 2.9463196 -0.21743706
-2.5673656 2.9731109 0
-3.0451193 3.5263689 0.26024443
-2.5450995 2.9401367 -0.86146134
-2.4911981 2.8778689 -0.63457066
-2.4436574 2.8229494 -0.41616243
-2.5494878 2.9452059 -0.21758206
-2.5760677 2.9759116 0
-3.0629833 3.5384037 0.26140553
-2.5519776 2.9408937 -0.86258608
-2.5064523 2.8884306 -0.6375668
-2.4487667 2.8219538 -0.41645154
-2.5445311 2.9323125 -0.21685649
-2.5830698 2.9767241 0
-3.9085081 4.5041566 0.3331008
-2.5555291 2.937808 -0.86258608
-2.5099406 2.8854001 -0.6375668
-2.4504724 2.8170359 -0.41616243
-2.5497761 2.9311943 -0.2170015
-2.5900774 2.9775243 0
-3.9037118 4.4876637 0.3322297
-2.5473859 2.9213107 -0.85864532
-2.5269225 2.8978434 -0.64099056
-2.4589758 2.8199229 -0.41702759
-2.5499039 2.9241982 -0.21671151
-2.5988061 2.980279 0
-3.9142563 4.488821 0.33266526
-2.5559323 2.9239714 -0.86033452
-2.5219762 2.8851261 -0.63885111
-2.4657891 2.8208482 -0.41760471
-2.5500116 2.9171984 -0.21642095
-2.593843 2.9673412 0
-3.921386 4.4860425 0.33281025
-2.5510921 2.9113278 -0.85752064
-2.5237639 2.8801405 -0.63842195
-2.4743044 2.8236971 -0.41846877
-2.556963 2.9180274 -0.21671151
-2.5974267 2.964205 0
-3.9250927 4.4793487 0.33266526
-2.5596404 2.9139719 -0.85920984
-2.5306337 2.88095 -0.63927871
-2.489665 2.8343098 -0.42048708
-2.5553408 2.9090772 -0.21627595
-2.6027222 2.9630177 0
-3.9407947 4.48632 0.33353636
-2.5614755 2.9089646 -0.85864532
-2.5391974 2.8836644 -0.64056134
-2.4999251 2.8390641 -0.42164025
-2.5588539 2.9059875 -0.21627595
-2.6097436 2.9637809 0
-3.0704796 3.48702 0.25951886
-2.5616288 2.9020612 -0.85752064
-2.5443835 2.8825243 -0.64099056
-2.5392966 2.876761 -0.42769411
-2.5537672 2.8931549 -0.21555038
-2.6184847 2.9664731 0
-3.0884473 3.4988921 0.26067999
-2.5651336 2.8989639 -0.85752064
-2.5512636 2.8832891 -0.64184564
-2.5650508 2.8988705 -0.43144163
-2.5624287 2.8959069 -0.21598594
-2.6203442 2.9613597 0
-3.0978401 3.5009978 0.26111552
-2.5669501 2.8939631 -0.85695827
-2.5598576 2.8859675 -0.64313
-2.571981 2.8996351 -0.43201768
-2.5607514 2.886975 -0.21555038
-2.6325536 2.9679244 0
-3.0934417 3.4875267 0.26038942
-2.5771325 2.9019094 -0.85977215
-2.5616007 2.8844204 -0.64313
-2.575455 2.9000204 -0.4323068
-2.5486915 2.8698843 -0.21438926
-2.6378059 2.9702289 0
-3.1041803 3.4953773 0.26111552
-2.5840127 2.9025853 -0.86089689
-2.561667 2.8774846 -0.64227325
-2.5789571 2.8969061 -0.4323068
-2.5590687 2.8745658 -0.21496983
-2.6448505 2.9709234 0
-3.1084015 3.4916239 0.26111552
-2.5824475 2.893779 -0.85920984
-2.5736933 2.8839693 -0.64441431
-2.5945058 2.9072909 -0.43432403
-2.5625401 2.8714716 -0.21496983
-2.6467071 2.9657855 0
-3.1074262 3.4820476 0.26067999
-2.5893271 2.8944402 -0.86033452
-2.5754595 2.8789387 -0.64398509
-2.5876729 2.8925912 -0.43259481
-2.5729377 2.8761196 -0.21555038
-2.6606965 2.9742196 0
-3.1168303 3.484102 0.26111552
-2.5945172 2.8931992 -0.86089689
-2.5720809 2.8681798 -0.64227325
-2.5980735 2.8971651 -0.43374798
-2.5729446 2.8691432 -0.21526039
-2.6608167 2.9671311 0
-3.1262374 3.4861312 0.26155055
-2.5980113 2.8900623 -0.86089689
-2.5909951 2.8822572 -0.64612615
-2.6102164 2.9036393 -0.43518916
-2.5816162 2.871824 -0.21569538
-2.6678762 2.9677808 0
-3.1130793 3.4630308 0.26009941
-2.6049066 2.8906996 -0.86202371
-2.608217 2.8943732 -0.64954823
-2.6119931 2.8985636 -0.43490115
-2.5903044 2.8744953 -0.21613094
-2.6784291 2.9722886 0
-3.1033456 3.4438241 0.25893831
-2.6169121 2.8969758 -0.86483759
-2.6185954 2.8988392 -0.65126014
-2.6276252 2.9088354 -0.43691838
-2.5990028 2.8771498 -0.2165665
-2.6785328 2.9651911 0
-3.1231792 3.4574239 0.26024443
-2.617003 2.8900483 -0.86371291
-2.6186533 2.891871 -0.65040499
-2.6346135 2.9094965 -0.4374955
-2.6024773 2.8740075 -0.2165665
-2.6925914 2.9735236 0
-3.120378 3.4459431 0.25966385
-2.6221993 2.8887637 -0.86427528
-2.6324947 2.9001057 -0.65297198
-2.6207464 2.8871632 -0.43461314
-2.6111825 2.8766272 -0.2170015
-2.6979368 2.9722004 0
-3.114064 3.43063 0.25879329
-2.6359448 2.8968656 -0.86765146
-2.6653657 2.9291987 -0.66024703
-2.6311958 2.8916466 -0.43576631
-2.6181574 2.8773174 -0.21729206
-2.7085321 2.9766378 0
-3.1217012 3.4307048 0.2590833
-2.6325939 2.8861694 -0.86539996
-2.7000458 2.9601183 -0.66795129
-2.6364293 2.8903742 -0.43605432
-2.6198828 2.8722339 -0.21714705
-2.7191422 2.9810541 0
-3.1135914 3.4134974 0.25806776
-2.6395118 2.8867402 -0.86652678
-2.7157414 2.9701097 -0.67094582
-2.6521323 2.9005427 -0.43807155
-2.6286066 2.8748136 -0.21758206
-2.7244966 2.9796853 0
-3.1212173 3.4135644 0.25835773
-2.6412828 2.8816776 -0.86596447
-2.7193282 2.9668262 -0.67094582
-2.6591337 2.9011533 -0.43864867
-2.6373472 2.8773839 -0.21801762
-2.7333655 2.982141 0
-3.1218314 3.4059632 0.25806776
-2.6516325 2.8859608 -0.86821383
-2.7298584 2.9710994 -0.67265767
-2.6678889 2.9036536 -0.43951383
-2.6531303 2.8875909 -0.21903373
-2.7404919 2.9826727 0
-4.6360369 5.0457296 0.382736
-2.6516783 2.8790205 -0.86708915
-0 0 -0
-2.6784046 2.9080379 -0.440667
-2.6548586 2.8824735 -0.21888873
-2.7440937 2.9793591 0
-4.6562133 5.0554142 0.38389713
-2.6654937 2.887012 -0.87046534
-2.7335508 2.9607253 -0.67180258
-2.6678798 2.8895965 -0.43836066
-2.6618617 2.8830781 -0.21917874
-2.7512193 2.9798617 0
-4.6499777 5.0364184 0.38288099
-2.6620765 2.8763301 -0.86821383
-2.7353776 2.9555306 -0.67137337
-2.7012343 2.9186392 -0.44326136
-2.6724033 2.8874879 -0.21975929
-2.7601225 2.9822671 0
-4.6542969 5.0288911 0.382736
-2.6793752 2.8880131 -0.8727169
-2.7406979 2.9541106 -0.67180258
-2.7012372 2.9115772 -0.44268423
-2.6811938 2.8899732 -0.22019485
-2.7708042 2.9865615 0
-4.6639009 5.0270696 0.383026
-2.6845982 2.8866394 -0.87328142
-2.7495048 2.9564309 -0.67308521
-2.7153254 2.9196789 -0.44441453
-2.682909 2.8848231 -0.22004929
-2.774411 2.9832113 0
-4.6735144 5.0252399 0.38331655
-2.6898015 2.8887324 -0.8744061
-2.7477951 2.9510152 -0.67223012
-2.7153211 2.9161396 -0.44412541
-2.6811135 2.8794019 -0.21975929
-2.7850785 2.991056 0
-4.6783185 5.0243154 0.38346156
-2.7019572 2.8947659 -0.87721997
-2.7426023 2.9383118 -0.67009068
-2.7259021 2.9204197 -0.44527858
-2.6899114 2.8818607 -0.22019485
-2.7922456 2.9914973 0
-3.1330638 3.3566358 0.25647107
-2.7037187 2.8896453 -0.87665761
-2.7514074 2.9406137 -0.67137337
-2.743566 2.9322331 -0.44758493
-2.7004929 2.886198 -0.22077541
-2.8029706 2.9957228 0
-3.1424448 3.3585417 0.25690663
-2.7019918 2.8808148 -0.87496841
-2.7672534 2.9503956 -0.67436951
-2.747107 2.928916 -0.44758493
-2.7075303 2.8867197 -0.2210654
-2.8065882 2.9923337 0
-3.1216106 3.3282049 0.25487441
-2.7141714 2.886802 -0.87778234
-2.7778499 2.9545307 -0.67608142
-2.7630477 2.938787 -0.44960323
-2.7216923 2.8948011 -0.22193596
-2.8137639 2.9927287 0
-3.1327496 3.3320031 0.25545496
-2.7403359 2.900553 -0.88397461
-2.8202403 2.9851289 -0.68464077
-2.7843516 2.9471421 -0.45190957
-2.7679417 2.9297729 -0.22512931
-2.8227735 2.9878101 0
-3.1283064 3.3112066 0.25443938
-2.7438388 2.8972397 -0.88397461
-2.8203113 2.9779878 -0.68378401
-2.7985785 2.9550397 -0.45363876
-2.9090514 3.0716891 -0.23630436
-2.8353343 2.9938507 0
-3.1340899 3.309309 0.2545844
-2.7560828 2.9031341 -0.88678849
-2.827446 2.9783049 -0.68464077
-2.8092701 2.9591594 -0.45479193
-3.0344083 3.1963098 -0.24617328
-2.84074 2.9923081 0
-3.1452425 3.3130577 0.25516495
-2.7630954 2.9034867 -0.88791531
-2.8292747 2.9730284 -0.68421322
-2.832459 2.9763749 -0.45796344
-3.072298 3.2283998 -0.24893051
-2.8533223 2.9982979 0
-3.1492434 3.3092549 0.25516495
-2.7666016 2.9001458 -0.88791531
-2.8275473 2.9640336 -0.68292886
-2.8467619 2.9841754 -0.45969263
-3.070821 3.2190502 -0.2484955
-2.8605323 2.9986107 0
-3.1442735 3.2960482 0.25443938
-2.7771282 2.9041464 -0.89016688
-2.8399959 2.9698896 -0.68506831
-2.8593018 2.9900784 -0.46113384
-3.103442 3.2453852 -0.25081775
-2.8659573 2.9970384 0
-3.1518421 3.2959988 0.25472939
-2.7806351 2.9007888 -0.89016688
-2.8471386 2.9701657 -0.68592507
-2.8718669 2.9959626 -0.46257612
-3.1037614 3.2378776 -0.25052717
-2.8767803 3.0010881 0
-3.1594222 3.2959433 0.25501996
-2.7876558 2.9010875 -0.89129156
-2.8525023 2.9685726 -0.68635261
-2.8718972 2.9887569 -0.46199897
-3.1004701 3.2266304 -0.24994662
-2.8894186 3.0069911 0
-3.1579995 3.2865007 0.2545844
-2.7964489 2.903209 -0.89298075
-2.8525219 2.9614224 -0.68549585
-2.8880687 2.9983263 -0.4640173
-3.113378 3.2322373 -0.25067219
-2.8912461 3.0016251 0
-3.1619682 3.2826824 0.2545844
-2.8017182 2.901654 -0.89354312
-2.8596678 2.9616706 -0.68635261
-2.8952792 2.9985521 -0.46459332
-3.1082585 3.2191284 -0.24994662
-2.9039078 3.0074885 0
-3.1695387 3.2825944 0.25487441
-2.8175941 2.9110484 -0.89748383
-2.8668115 2.9618986 -0.68720776
-2.9006975 2.9969084 -0.46488136
-3.1229923 3.2265766 -0.25081775
-2.9057314 3.0021093 0
-3.1626632 3.2675631 0.25400385
-2.8211093 2.9076419 -0.89748383
-2.8829031 2.9713311 -0.69020391
-2.9025171 2.9915466 -0.46459332
-3.1178365 3.2134707 -0.25009161
-2.9129777 3.0023282 0
-4.8402386 4.9887047 0.38825104
-2.8193212 2.9022884 -0.896357
-2.9061618 2.9916847 -0.6953395
-2.9259503 3.0120554 -0.46805283
-3.1252108 3.2171795 -0.25052717
-2.9256678 3.0117645 0
-4.8577361 5.00069 0.38941213
-2.8316875 2.90798 -0.89917088
-2.9223058 3.0010397 -0.69833404
-2.9241726 3.0029569 -0.4671877
-3.1236556 3.2078145 -0.25009161
-2.9347534 3.0138226 0
-4.8655863 4.9966764 0.38955712
-2.8511779 2.9209259 -0.90423846
-2.9241385 2.9956713 -0.69790649
-2.9350257 3.006825 -0.46834087
-3.1184559 3.1947422 -0.24936607
-2.9456644 3.0177238 0
-4.8752465 4.9945092 0.38984713
-2.8511477 2.9138429 -0.90311158
-2.9313502 2.9958091 -0.69876325
-2.9386568 3.0032763 -0.46834087
-3.1223137 3.1909719 -0.24936607
-2.9511268 3.0160205 0
-4.881278 4.9886146 0.38984713
-2.8564439 2.9122081 -0.90367395
-2.9457498 3.0032573 -0.70133024
-2.9531538 3.0108061 -0.47007117
-3.1225317 3.1834903 -0.24907607
-2.9638791 3.0217404 0
-4.9000406 4.9957004 0.39086324
-2.8635271 2.9123814 -0.90480077
-2.9475784 2.9978671 -0.7009027
-2.9495361 2.9998581 -0.468918
-3.1227288 3.1760058 -0.24878551
-2.969358 3.0200181 0
-4.9060736 4.9897757 0.39086324
-2.879524 2.9215817 -0.90873939
-2.9547992 2.9979563 -0.70175779
-2.9694974 3.0128694 -0.47151235
-3.1083276 3.1537273 -0.24733439
-2.9766552 3.0201316 0
-4.9011583 4.972744 0.38999268
-2.8830521 2.9181004 -0.90873939
-2.9548144 2.9907351 -0.7009027
-2.9640484 3.0000813 -0.47007117
-3.1103115 3.1481225 -0.24718939
-2.9784749 3.014683 0
-3.1887507 3.2275152 0.25342327
-2.8883691 2.9164252 -0.90930384
-2.9620354 2.9908071 -0.70175779
-2.9658461 2.9946547 -0.46978205
-3.1104527 3.140666 -0.24689883
-2.9930999 3.0221732 0
-3.1908214 3.2218153 0.25327829
-2.891891 2.9129331 -0.90930384
-2.965647 2.9872258 -0.70175779
-2.9749308 2.996577 -0.47064719
-3.1197391 3.1424391 -0.24733439
-3.0004201 3.0222518 0
-3.2075217 3.2308605 0.25429383
-2.9025779 2.9166408 -0.91155541
-2.9710703 2.985465 -0.702187
-2.9767268 2.9911487 -0.47035918
-3.1088705 3.1239326 -0.24617328
-3.0059037 3.020467 0
-3.218755 3.2343497 0.25487441
-2.9132781 2.9203267 -0.91380697
-2.9692347 2.976419 -0.7009027
-2.9712069 2.9783959 -0.468918
-3.1218169 3.1293702 -0.24689883
-3.009551 3.0168328 0
-3.2318418 3.2396615 0.25560051
-2.9275813 2.9275813 -0.91718316
-2.9764559 2.9764559 -0.70175779
-2.9766307 2.9766307 -0.46920601
-3.1200819 3.1200819 -0.24646328
-3.0242391 3.0242391 0
-3.2265618 3.2265618 0.25487441
-2.9293194 2.9222488 -0.91662085
-2.9873197 2.9801092 -0.70346969
-2.9875498 2.9803388 -0.47035918
-3.1275322 3.1199834 -0.24675384
-3.035254 3.0279276 0
-3.2396615 3.2318418 0.25560051
-2.9292426 2.9151192 -0.91549397
-3.0127535 2.9982271 -0.70860529
-2.9966505 2.9822018 -0.47122434
-3.1239326 3.1088705 -0.24617328
-3.0426033 3.0279331 0
-3.2140949 3.1985979 0.25327829
-2.9435854 2.922322 -0.91887236
-3.040055 3.0180948 -0.71416843
-3.0002518 2.9785788 -0.47122434
-3.1258447 3.1032646 -0.24602827
-3.0518022 3.029757 0
-3.2456126 3.2221675 0.25545496
-2.9489181 2.9205494 -0.91943473
-3.0418775 3.0126145 -0.71374089
-3.0056846 2.9767699 -0.47151235
-3.136977 3.1067991 -0.24660884
-3.061003 3.0315559 0
-3.2365854 3.2054493 0.25443938
-2.9560564 2.9205523 -0.92055941
-3.0418596 3.0053251 -0.71288413
-3.0129554 2.976768 -0.4720884
-3.1222405 3.0847406 -0.24515717
-3.0646636 3.0278552 0
-3.2201214 3.1814456 0.25284272
-2.9686365 2.9259014 -0.92337543
-3.0528021 3.0088553 -0.71459597
-3.0202379 2.9767599 -0.47266552
-3.1167142 3.0718474 -0.2444316
-3.0720305 3.027807 0
-3.2239633 3.1775525 0.25284272
-2.9794171 2.9294381 -0.92562699
-3.0472846 2.9961672 -0.71245658
-3.0238326 2.9731085 -0.47266552
-3.111161 3.0589721 -0.24370605
-3.0775409 3.0259159 0
-3.22224 3.1681876 0.25240716
-2.9992785 2.9418473 -0.93069243
-3.0600643 3.0014691 -0.71459597
-3.025578 2.9676433 -0.47237751
-3.1130018 3.0533929 -0.24356104
-3.0997708 3.0404153 0
-3.2130857 3.1515603 0.25139162
-3.0028687 2.9418111 -0.93125474
-3.050878 2.9888444 -0.71202904
-3.0458429 2.9839115 -0.47525987
-3.114846 3.0515115 -0.24356104
-3.1053288 3.0421879 0
-3.2224138 3.1568921 0.25197217
-3.010052 2.9417291 -0.93237942
-3.050812 2.981564 -0.71117228
-3.0346479 2.9657667 -0.47295353
-3.1203873 3.0495601 -0.24370605
-3.1108618 3.0402508 0
-3.2317955 3.1584394 0.25240716
-3.0227063 2.9469638 -0.93519551
-3.0580921 2.981463 -0.71202904
-3.0474873 2.9711239 -0.47439471
-3.122211 3.0439754 -0.24356104
-3.1201253 3.0419416 0
-3.2132831 3.1327651 0.25066549
-3.031724 2.9486187 -0.9368825
-3.0690534 2.9849248 -0.71374089
-3.0640559 2.9800644 -0.47641304
-3.1277478 3.0420103 -0.24370605
-3.1293972 3.0436146 0
-3.217066 3.1288803 0.25066549
-3.0444009 2.9537983 -0.93969643
-3.0726578 2.9812143 -0.71374089
-3.0676546 2.9763601 -0.47641304
-3.1295581 3.0364213 -0.24356104
-3.1330726 3.0398312 0
-3.2376339 3.1412807 0.25197217
-3.071708 2.9730957 -0.94701552
-3.0725651 2.9739254 -0.71288413
-3.0786827 2.9798465 -0.47756621
-3.1406932 3.0398662 -0.24414161
-3.1460917 3.0450914 0
-3.2787621 3.1735027 0.25487441
-3.0844357 2.9782047 -0.9498294
-3.0780084 2.9719987 -0.71331334
-3.0915825 2.9851055 -0.47900739
-3.1499665 3.0414786 -0.2445766
-3.159128 3.0503247 0
-3.3143704 3.2002203 0.25734162
-3.1337807 3.0185421 -0.96390098
-3.0871384 2.9736149 -0.71459597
-3.0933263 2.9795752 -0.47871938
-3.1461532 3.0304596 -0.24399605
-3.1703088 3.0537269 0
-3.2957845 3.1745884 0.25560051
-3.1960475 3.0710831 -0.98191112
-3.0925856 2.9716663 -0.71502519
-3.1081107 2.9865844 -0.48044857
-3.1610582 3.0374618 -0.24486716
-3.1758711 3.0516956 0
-3.3146 3.1849999 0.25676107
-3.2547808 3.1199644 -0.99879658
-3.0850515 2.9572656 -0.71245658
-3.1005177 2.9720912 -0.47871938
-3.162852 3.0318437 -0.24472216
-3.1833174 3.0514612 0
-3.314698 3.1773999 0.25647107
-3.1071792 2.9712808 -0.71673709
-3.1003642 2.9647641 -0.47814226
-3.1496058 3.0118518 -0.24341549
-3.1926394 3.0530033 0
-0 0 0
-3.1070485 2.9639769 -0.71588033
-3.1133001 2.9699407 -0.47958344
-3.1288025 2.9847291 -0.24152881
-3.2038584 3.056329 0
-0 0 0
-3.1162083 2.9655313 -0.71716464
-3.1318758 2.9804411 -0.48188978
-3.1173551 2.9666228 -0.24036826
-3.2132068 3.0578396 0
-0 0 0
-3.1216493 2.9635296 -0.71759218
-3.146733 2.9873428 -0.48362008
-3.1265855 2.9682157 -0.24080326
-3.2168992 3.0539548 0
-0 0 0
-3.1345453 2.9685795 -0.71973163
-3.1484642 2.9817617 -0.48333207
-3.1301699 2.9644358 -0.24080326
-3.2205868 3.0500655 0
-0 0 0
-3.1474581 2.973603 -0.72187102
-3.174619 2.9992635 -0.48679048
-3.1337495 2.9606514 -0.24080326
-3.2356169 3.0568919 0
-3.3546436 3.1693442 0.25777718
-3.1659939 2.9838829 -0.72529477
-3.1857696 3.0025213 -0.48794365
-3.1467776 2.9657719 -0.24152881
-3.237416 3.0511968 0
-3.3603599 3.167069 0.25792217
-3.1752095 2.9853323 -0.72657907
-3.2082429 3.0163901 -0.49082711
-3.161721 2.9726503 -0.24239993
-3.2486846 3.0544136 0
-3.3604016 3.1594498 0.2576322
-3.1769438 2.979739 -0.72615153
-3.2533853 3.0514355 -0.49716899
-3.1653106 2.968828 -0.24239993
-3.2618623 3.0593863 0
-3.3717978 3.1624975 0.25821275
-3.1992834 2.9934337 -0.73043036
-3.304285 3.0916791 -0.50437605
-3.1707911 2.9667747 -0.24254493
-3.2712595 3.0607786 0
-3.3756166 3.158421 0.25821275
-3.2085934 2.9985113 -0.73214227
-3.3212702 3.1038103 -0.50668234
-3.180177 2.9719553 -0.24312548
-3.2902191 3.0747924 0
-3.3813174 3.1599262 0.25850275
-3.2065794 2.9893789 -0.73085791
-3.3363657 3.110374 -0.50841159
-3.2141757 2.9964607 -0.24544773
-3.293932 3.0708146 0
-3.3927357 3.1629257 0.2590833
-4.2628183 3.9644558 -0.9705081
-3.3533814 3.1186721 -0.51042992
-3.2539408 3.0261917 -0.24820495
-3.3166938 3.0845523 0
-3.3984559 3.1605918 0.25922829
-4.2807732 3.9715188 -0.97350264
-3.3495626 3.1075814 -0.50927675
-3.282357 3.0452309 -0.25009161
-3.3185124 3.0787742 0
-3.4060857 3.1600211 0.25951886
-4.2818046 3.9628594 -0.97264755
-3.3552115 3.1052868 -0.50956476
-3.3279924 3.0800955 -0.25328496
-3.3203218 3.0729961 0
-3.4060838 3.1523697 0.25922829
-4.2790456 3.9507172 -0.97093564
-3.330461 3.0749173 -0.50524116
-3.3355265 3.0795939 -0.25357497
-3.3316813 3.0760436 0
-3.4232564 3.1605923 0.26024443
-4.2970352 3.9577196 -0.97393185
-3.3018262 3.0410974 -0.50033939
-3.3507092 3.0861201 -0.25444552
-3.3507097 3.0861206 0
-3.4328086 3.1617365 0.26067999
-4.2980299 3.9490476 -0.97307509
-3.2902689 3.0231125 -0.49803415
-3.3773968 3.1031659 -0.2561872
-3.3601873 3.0873537 0
-3.4385381 3.1593428 0.26082498
-4.3065867 3.9473236 -0.97393185
-3.2881973 3.01389 -0.49716899
-3.3619921 3.0815287 -0.2547361
-3.3696654 3.0885618 0
-3.4346907 3.1481626 0.26024443
-4.3056679 3.9369187 -0.97264755
-3.2994721 3.016896 -0.49832216
-3.3772154 3.0879812 -0.25560665
-3.3829963 3.093267 0
-4.04636 3.6998184 0.30625126
-4.3075747 3.9195914 -0.97093564
-3.3411841 3.0402436 -0.50351089
-3.4000432 3.0938013 -0.25676775
-3.4020145 3.0955951 0
-4.066824 3.7005253 0.30712238
-4.316113 3.9178379 -0.9717924
-3.3850715 3.0727093 -0.50956476
-3.4133971 3.0984213 -0.25749332
-3.4076777 3.0932298 0
-4.0405083 3.667665 0.30480015
-4.3189354 3.9108918 -0.97136319
-3.4482107 3.1224313 -0.51850098
-3.4248428 3.1012712 -0.25807387
-3.4268458 3.1030848 0
-0 0 0
-4.3217545 3.9039512 -0.97093564
-3.4846079 3.1477354 -0.52340168
-3.4343741 3.1023579 -0.25850943
-3.4267266 3.0954494 0
-3.499841 3.1614957 0.26343721
-4.330286 3.9021666 -0.9717924
-3.5037804 3.1573744 -0.52570802
-3.4477701 3.1069014 -0.25923499
-3.4285328 3.0895662 0
-3.4689164 3.1259573 0.26082498
-4.3235397 3.886631 -0.9692238
-3.5152869 3.1600549 -0.52686119
-3.4573207 3.1079464 -0.25967056
-3.4438798 3.0958636 0
-3.4920115 3.1391315 0.26227608
-4.3320589 3.884835 -0.97008055
-3.5248814 3.1609871 -0.52772635
-3.4630063 3.1054997 -0.25981554
-3.4669895 3.109072 0
-3.4764605 3.1175652 0.26082498
-4.3386612 3.8813076 -0.9705081
-3.5460458 3.1722445 -0.5303207
-3.4686909 3.1030438 -0.25996056
-3.468806 3.103147 0
-3.5131457 3.1428125 0.26329222
-4.343348 3.8760624 -0.9705081
-3.5460203 3.1645164 -0.52974463
-3.4840736 3.1092346 -0.26083168
-3.4841998 3.1093469 0
-3.5111225 3.1333733 0.26285666
-4.3441896 3.8673944 -0.96965134
-3.5672264 3.1757064 -0.53233898
-3.4917059 3.1084747 -0.26112166
-3.5035048 3.1189785 0
-3.5013261 3.117039 0.26184109
-4.356123 3.8733029 -0.9717924
-3.5788069 3.1821423 -0.53378022
-3.4994106 3.111546 -0.26155722
-3.511225 3.1220508 0
-3.501261 3.1131914 0.26169553
-4.3492737 3.8578126 -0.9692238
-3.5884562 3.1829662 -0.53464532
-3.5226033 3.1245549 -0.26300836
-3.5169399 3.1195312 0
-3.4914184 3.0968935 0.26067999
-4.346242 3.8457501 -0.96751189
-3.6058531 3.1906209 -0.53666258
-3.5400002 3.1323512 -0.26402447
-3.5343518 3.1273532 0
-3.4951577 3.0926726 0.26067999
-4.3547382 3.8438964 -0.96836865
-3.6232815 3.1982448 -0.53868091
-3.5398898 3.1246357 -0.26373446
-3.5498309 3.1334107 0
-3.5066845 3.0953255 0.26126054
-4.349741 3.8301446 -0.96622759
-3.6387866 3.2041171 -0.5404101
-3.5553601 3.130656 -0.26460502
-3.5555658 3.1308372 0
-3.5084736 3.0893705 0.26111552
-4.3736563 3.8418307 -0.9705081
-3.6523774 3.2082574 -0.54185236
-3.5610907 3.1280711 -0.26475
-3.5613072 3.1282613 0
-3.5141544 3.0868421 0.26126054
-4.3744302 3.8331563 -0.96965134
-3.6679194 3.2140663 -0.5435816
-3.5785496 3.1357551 -0.26576614
-3.570951 3.1290963 0
-3.5178816 3.0825937 0.26126054
-4.3693967 3.819422 -0.96751189
-3.6756914 3.2130332 -0.54415762
-3.5940707 3.1416862 -0.2666367
-3.582567 3.1316304 0
-3.5157328 3.0732088 0.26082498
-4.3836803 3.8225739 -0.96965134
-3.6912711 3.2187922 -0.54588795
-3.6037412 3.1424661 -0.26707226
-3.6039999 3.1426916 0
-3.517487 3.0672524 0.26067999
-4.3747439 3.8054855 -0.9666568
-3.7127192 3.2296059 -0.5484823
-3.6094942 3.1398132 -0.26721725
-3.6156487 3.1451666 0
-3.5388334 3.0783467 0.26198611
-4.38515 3.8052392 -0.9679395
-3.740061 3.2454596 -0.55194181
-3.6191752 3.1405602 -0.26765281
-3.6292801 3.1493289 0
-3.5229285 3.0570416 0.26053497
-4.3781028 3.7898602 -0.9653725
-3.7576632 3.2527831 -0.55395901
-3.6347511 3.1463854 -0.26852337
-3.6350486 3.1466429 0
-3.5266197 3.0527825 0.26053497
-3.4143486 2.9483867 -0.9993611
-4.3923917 3.7929547 -0.96751189
-3.7890012 3.27191 -0.55799562
-3.6464169 3.1487844 -0.26910391
-3.6447515 3.1473463 0
-3.5362003 3.0536091 0.26096997
-4.3833628 3.7759216 -0.96451735
-3.8164678 3.2875862 -0.56145513
-3.6640019 3.156249 -0.27012002
-3.6524992 3.1463404 0
-3.5418618 3.0510349 0.26111552
-4.3859692 3.7689445 -0.9640882
-3.8341634 3.2947676 -0.56347239
-3.6796339 3.1619773 -0.27099061
-3.6720891 3.155494 0
-3.5396316 3.0416708 0.26067999
-4.3983159 3.7703249 -0.96580005
-3.8577828 3.3069692 -0.56635582
-3.6834517 3.1575289 -0.27099061
-3.6818287 3.1561377 0
-3.5511954 3.0441561 0.26126054
-4.4048176 3.7666745 -0.96622759
-3.8794658 3.3174324 -0.56895018
-3.6991172 3.1632116 -0.2718617
-3.7014556 3.1652112 0
-0 0 0
-4.4054632 3.7580206 -0.9653725
-3.9090509 3.3345625 -0.5726977
-3.7009616 3.1570549 -0.27171671
-3.7112193 3.1658051 0
-0 0 0
-4.4197745 3.7610111 -0.96751189
-3.9564095 3.3667104 -0.57903963
-3.7146664 3.1609991 -0.27244228
-3.7229698 3.1680648 0
-0 0 0
-3.4372213 2.9177535 -0.99879658
-4.3969207 3.7324133 -0.96152121
-4.0137086 3.4071162 -0.58682269
-3.7382891 3.1733208 -0.27389339
-3.7267952 3.163564 0
-3.5599222 3.0219107 0.26082498
-4.4073062 3.7320762 -0.96280551
-4.080986 3.4557505 -0.59604806
-3.7441018 3.1704791 -0.27403837
-3.7484877 3.1741931 0
-3.563571 3.017607 0.26082498
-4.407887 3.7234318 -0.96194875
-4.1029396 3.4658368 -0.59864241
-3.761827 3.1776919 -0.27505451
-3.7523205 3.1696615 0
-3.5731716 3.0183308 0.26126054
-3.4477754 2.9052746 -0.99879658
-4.4143438 3.7197556 -0.9623763
-4.0557032 3.4175463 -0.59114736
-3.7716269 3.178169 -0.27549005
-3.76212 3.1701579 0
-3.570853 3.0089865 0.26082498
-3.4534216 2.9064665 -0.99992347
-4.4224844 3.7220485 -0.9636606
-4.030066 3.3917818 -0.58711177
-3.7834847 3.1842539 -0.27621561
-3.7799637 3.1812909 0
-3.5945408 3.0252352 0.26242164
-3.4510911 2.8973887 -0.99823427
-4.4210787 3.7117486 -0.9623763
-4.0301957 3.3835804 -0.58653468
-3.8012619 3.1913772 -0.27723172
-3.7877877 3.1800647 0
-3.5902333 3.0142064 0.26184109
-3.4565356 2.8948464 -0.99879658
-4.4373722 3.7162964 -0.96494496
-4.0323005 3.3770492 -0.58624667
-3.8031175 3.1851087 -0.27708617
-3.8075888 3.1888535 0
-3.5958629 3.011533 0.26198611
-3.4619865 2.8923016 -0.9993611
-4.4300356 3.7010539 -0.9623763
-4.0482836 3.3821211 -0.58797586
-3.8249083 3.195503 -0.27839229
-3.8074486 3.1809165 0
-3.6014912 3.0088503 0.26213109
-4.4404221 3.7006304 -0.9636606
-4.0781956 3.3987522 -0.59172338
-3.8327627 3.1942093 -0.27868286
-3.8332751 3.1946366 0
-4.3376651 3.6149929 0.31539464
-4.4389663 3.6903374 -0.9623763
-4.1678252 3.4649239 -0.60412019
-3.8406119 3.1928952 -0.27897283
-3.8491437 3.1999879 0
-4.3420296 3.6097491 0.31539464
-3.4724481 2.8797333 -0.9993611
-4.4375 3.6800597 -0.96109366
-4.3053875 3.5704975 -0.62343389
-3.85847 3.1998649 -0.27998897
-3.8670247 3.2069592 0
-4.3283887 3.5895729 0.31408852
-3.4641747 2.8658144 -0.99598271
-4.4439197 3.6763299 -0.96152121
-4.3615184 3.6081617 -0.63093001
-3.8683419 3.2001708 -0.28042454
-3.8628757 3.1956487 0
-4.9953947 4.1325498 0.36212704
-3.473516 2.8664799 -0.9976719
-4.4443946 3.6676867 -0.96066445
-4.3738546 3.6094742 -0.63208318
-3.8942456 3.2136824 -0.28202063
-3.8767762 3.199266 0
-5.0144153 4.1380897 0.36314315
-4.4567509 3.6688399 -0.9623763
-4.3822026 3.6074712 -0.63265926
-3.9041462 3.2139306 -0.28245619
-3.8906834 3.202848 0
-5.0073714 4.1221161 0.36227202
-4.4433274 3.6487916 -0.958525
-4.3985476 3.6120191 -0.63438845
-3.9140532 3.2141595 -0.28289175
-3.9106407 3.2113574 0
-5.0163684 4.1193638 0.3625626
-3.4858477 2.8554785 -0.99823427
-4.4477329 3.64342 -0.958525
-4.4109125 3.6132576 -0.63554162
-3.9259746 3.2160144 -0.2834723
-3.9145181 3.2066298 0
-5.0253587 4.1165895 0.3628526
-3.485364 2.848052 -0.99710959
-4.4660487 3.649415 -0.96152121
-4.4312978 3.6210184 -0.63784796
-3.9358881 3.2161961 -0.28390732
-3.9425728 3.2216585 0
-5.0142322 4.0973606 0.36169147
-4.4684672 3.6423955 -0.96109366
-4.4416862 3.6205654 -0.63871306
-3.953872 3.2229319 -0.28492343
-3.9464629 3.2168922 0
-5.037312 4.1060796 0.36299816
-4.466888 3.6321335 -0.9598093
-4.45609 3.6233532 -0.6401543
-3.9698637 3.2279911 -0.28579456
-3.9523642 3.2137618 0
-5.0604124 4.1147423 0.36430427
-3.499608 2.8385975 -0.99823427
-4.4672823 3.6234961 -0.95895255
-4.4765348 3.631001 -0.64246064
-3.9818256 3.2297332 -0.28637454
-3.980499 3.228657 0
-4.1351051 3.3540609 0.29739845
-3.5030353 2.8343668 -0.99823427
-4.4716573 3.6180956 -0.95895255
-4.4909706 3.6337223 -0.64390182
-3.9978495 3.2347293 -0.28724566
-4.0005827 3.2369409 0
-4.1856098 3.3866494 0.30073625
-3.5104158 2.8333268 -0.9993611
-4.4780293 3.6143069 -0.95938176
-4.5054197 3.6364141 -0.64534301
-4.005795 3.2331572 -0.28753567
-4.00246 3.2304654 0
-4.2159829 3.4028039 0.30262291
-3.5098746 2.8258929 -0.99823427
-4.4763927 3.6040621 -0.95809746
-4.517869 3.6374557 -0.64649618
-4.0198245 3.2364671 -0.28826177
-4.018527 3.2354226 0
-4.2281871 3.4042253 0.30320346
-4.48875 3.6050806 -0.9598093
-4.5363789 3.643333 -0.64851451
-4.0460119 3.2495012 -0.28985789
-4.0406938 3.2452297 0
-4.2444572 3.4088798 0.30407459
-3.5226445 2.8221703 -0.99992347
-4.4971056 3.6028612 -0.96066445
-4.5528855 3.6475489 -0.6502437
-4.0560207 3.2494855 -0.29029346
-4.0324216 3.2305789 0
-4.2364016 3.3939977 0.30320346
-3.5161293 2.8099821 -0.99710959
-4.4994526 3.5958235 -0.96023691
-6.3756666 5.0952358 -0.90969354
-4.0782113 3.2591805 -0.29159957
-4.0566564 3.2419546 0
-4.2384715 3.3872557 0.30305848
-4.4956031 3.5882988 -0.95895255
-6.3706574 5.084929 -0.90854037
-4.0740848 3.2518516 -0.29116401
-4.0647106 3.244369 0
-4.2628508 3.4025204 0.3046546
-3.5152512 2.7988551 -0.9954204
-4.4919024 3.5764682 -0.9572407
-6.3666816 5.0691738 -0.90709919
-4.0922427 3.2582576 -0.29218012
-4.0889912 3.2556689 0
-4.2608662 3.3925164 0.30421957
-3.5186305 2.7946055 -0.9954204
-4.5022531 3.5758293 -0.958525
-6.3788805 5.0663047 -0.90796435
-4.0941439 3.2516961 -0.29203513
-4.1010737 3.2572 0
-4.2751341 3.3954442 0.30494514
-3.5120485 2.782464 -0.99260652
-4.5005322 3.5656025 -0.9572407
-6.3768878 5.0521684 -0.90681118
-4.1225104 3.2661102 -0.29377681
-4.1111202 3.257086 0
