# .PCD v0.7 - Point Cloud Data file format
VERSION 0.7
FIELDS x y z
SIZE 4 4 4
TYPE F F F
COUNT 1 1 1
WIDTH 1561
HEIGHT 1
VIEWPOINT 0 0 0 1 0 0 0
POINTS 1561
DATA ascii
0.67826903 2.2383873 0.1306417
0.69811743 2.3139606 -0.66683704
0.68948686 2.2853539 -0.52881324
0.68792462 2.2801759 -0.39706156
0.68325478 2.2646973 -0.26366377
0.69586074 2.3064806 -0.13456674
0.68737614 2.2783577 0
0.69582611 2.306366 0.13456005
0.69026816 2.297981 -0.66199124
0.68745524 2.2886167 -0.52937555
0.68516898 2.2810054 -0.39706156
0.68498379 2.2803888 -0.26539406
0.69382012 2.3098059 -0.13471174
0.69585383 2.3165762 0
0 0 0
0.68461573 2.2891991 -0.6592226
0.68541676 2.2918775 -0.52993792
0.683882 2.2867458 -0.39791664
0.67852312 2.268827 -0.26395288
0.69326293 2.3181136 -0.1351473
0.68857867 2.3024504 0
0 0 0
0.68543082 2.3020539 -0.66268539
0.68337411 2.2951462 -0.53050244
0.68111843 2.2875705 -0.39791664
0.67578119 2.2696452 -0.26395288
0.68749541 2.3089879 -0.13456674
0.68282545 2.2933035 0
0 0 0
0.68264872 2.3028803 -0.66268539
0.68204331 2.300838 -0.53162712
0.67616719 2.2810152 -0.39663398
0.67083228 2.2630181 -0.26308775
0.68175089 2.2998517 -0.13398618
0.68005395 2.294127 0
0.66473347 2.2424443 0.1306417
0.68341553 2.3157322 -0.6661455
0.67854416 2.2992258 -0.53106475
0.67413646 2.2842903 -0.39706156
0.66590035 2.2563827 -0.26222259
0.67970628 2.3031635 -0.13413118
0.67138833 2.2749784 0
0.65393233 2.2158294 0.12904502
0.67920113 2.3117375 -0.66475987
0.67504996 2.2976084 -0.53050244
0.67209876 2.2875638 -0.3974891
0.66536152 2.2646327 -0.26308775
0.67765749 2.3064835 -0.13427673
0.66057128 2.2483287 0
0.66077596 2.2490253 0.13093171
0.67500013 2.3077455 -0.66337687
0.66727936 2.2813489 -0.52656168
0.66933423 2.2883742 -0.3974891
0.66189921 2.262955 -0.26279971
0.67487001 2.3073006 -0.13427673
0.6563915 2.2441247 0
0.66243619 2.2647908 0.13180281
0.67151558 2.3113718 -0.6640684
0.66668719 2.2947524 -0.52937555
0.66303629 2.2821858 -0.3962048
0.65707296 2.2616599 -0.2625106
0.6750353 2.3234868 -0.1351473
0.68354213 2.3527675 0
0.67500186 2.3233716 0.13514061
0.66872227 2.3121815 -0.6640684
0.66320872 2.2931178 -0.52881324
0.66099346 2.2854583 -0.39663398
0.65577829 2.2674263 -0.26308775
0.67367256 2.3292978 -0.13543786
0.66407067 2.296098 0
0.67869073 2.3466487 0.13644671
0.663845 2.305753 -0.66199124
0.66043741 2.2939174 -0.52881324
0.65823144 2.2862554 -0.39663398
0.65303808 2.2682171 -0.26308775
0.66366708 2.3051353 -0.13398618
0.6605764 2.2944002 0
0.68088782 2.3649485 0.13746284
0.65967739 2.3017347 -0.66060823
0.65696585 2.2922735 -0.52825087
0.65405262 2.282109 -0.39577723
0.65029693 2.2690046 -0.26308775
0.66374487 2.315927 -0.13456674
0.66927576 2.3352253 0
0.68160856 2.3782566 0.13818839
0.65551788 2.2977006 -0.6592226
0.65628481 2.3003888 -0.52993792
0.65270454 2.2878394 -0.39663398
0.64613426 2.2648094 -0.2625106
0.65809453 2.3067322 -0.13398618
0.71571529 2.5087028 0
0.68372518 2.3965721 0.13920452
0.65685451 2.3129756 -0.66337687
0.65142441 2.2938545 -0.52825087
0.65274483 2.2985041 -0.39834586
0.63986492 2.2531502 -0.26106942
0.65530682 2.3075256 -0.13398618
0.72690272 2.5596356 0
0 0 0
0.66088235 2.3379047 -0.67029715
0.65072376 2.3019681 -0.52993792
0.64856911 2.2943459 -0.3974891
0.6399563 2.2638776 -0.26222259
0.65110582 2.3033197 -0.13369618
0.73867542 2.6131015 0
0 0 0
0.6519419 2.3169689 -0.6640684
0.64656669 2.2978656 -0.52881324
0.64092851 2.2778277 -0.39449292
0.63722038 2.2646492 -0.26222259
0.64902538 2.3066037 -0.13384119
0.72564733 2.5789142 0
0 0 0
0.65117228 2.3250046 -0.6661455
0.64378971 2.2986453 -0.52881324
0.63956171 2.2835491 -0.39534968
0.63099635 2.2529666 -0.26078141
0.64693797 2.309886 -0.13398618
0.71200448 2.5422053 0
0.6721341 2.3998487 0.13920452
0.64566779 2.3161232 -0.66337687
0.63964581 2.2945216 -0.52768636
0.64093673 2.2991521 -0.39791664
0.63105184 2.2636933 -0.26193458
0.64484352 2.3131666 -0.13413118
0.70963037 2.5455682 0
0.66853678 2.3981583 0.13905951
0.64219862 2.3144867 -0.66268539
0.63755423 2.2977483 -0.52825087
0.63335568 2.2826169 -0.39492211
0.63453937 2.2868826 -0.26452893
0.64135396 2.3114426 -0.13398618
0.68846393 2.4812272 0
0.66494185 2.3964534 0.13891396
0.64073592 2.3200927 -0.6640684
0.6354531 2.3009639 -0.52881324
0.63333058 2.2932782 -0.39663398
0.62833369 2.2751844 -0.26308775
0.63925165 2.3147182 -0.13413118
0.64320558 2.3290353 0
0.65927881 2.3872364 0.1383334
0.63859636 2.323282 -0.66475987
0.63199961 2.2992823 -0.52825087
0.63055915 2.2940419 -0.39663398
0.62558407 2.2759421 -0.26308775
0.63920903 2.325511 -0.13471174
0.6410827 2.3323276 0
0.65639383 2.3880312 0.1383334
0.62983131 2.3022757 -0.65853107
0.6292209 2.3000443 -0.52825087
0.62914026 2.2997494 -0.3974891
0.62078542 2.2692094 -0.26222259
0.63091338 2.3062308 -0.13355063
0.63345629 2.3155262 0
0.65350789 2.3888226 0.1383334
0.63298005 2.3248184 -0.66475987
0.62911135 2.3106093 -0.53050244
0.62366343 2.2906003 -0.39577723
0.61668539 2.2649713 -0.26164654
0.62744427 2.3044868 -0.13340563
0.62313664 2.2886655 0
0.64857507 2.3820961 0.1378984
0.62754589 2.3158958 -0.66199124
0.62366074 2.301558 -0.52825087
0.62089527 2.2913523 -0.39577723
0.61462402 2.268209 -0.26193458
0.62601984 2.3102641 -0.13369618
0.61901075 2.2843978 0
0.64433581 2.3778572 0.13760784
0.62278938 2.3093927 -0.65991676
0.61756945 2.2900367 -0.52543485
0.6174584 2.2896247 -0.39534968
0.61121005 2.2664549 -0.26164654
0.62390381 2.3135252 -0.13384119
0.61353958 2.2750931 0
0.6428166 2.3836565 0.1378984
0.6225996 2.3198357 -0.66268539
0.61809695 2.3030584 -0.52825087
0.61668819 2.2978094 -0.39663398
0.61316216 2.2846713 -0.26366377
0.620435 2.3117702 -0.13369618
0.62225747 2.3185608 0
0.63319921 2.3593302 0.13644671
0.62367904 2.3351243 -0.66683704
0.61400115 2.2988892 -0.52712405
0.61059737 2.286145 -0.39449292
0.61040115 2.2854104 -0.26366377
0.61831111 2.315026 -0.13384119
0.6577307 2.4626176 0
0.62766594 2.3500519 0.13586617
0.62150085 2.3382986 -0.66752851
0.61057091 2.2971761 -0.52656168
0.60783458 2.2868812 -0.39449292
0.60763925 2.2861464 -0.26366377
0.61484653 2.3132627 -0.13369618
0.76572388 2.8809149 0
0.63150191 2.375926 0.13731784
0.61033607 2.3075204 -0.65853107
0.60844386 2.3003664 -0.52712405
0.60572916 2.290103 -0.39492211
0.60024869 2.2693827 -0.26164654
0.61205095 2.3140039 -0.13369618
0.76423681 2.8893785 0
0.62863064 2.3766873 0.13731784
0.61265606 2.3276653 -0.6640684
0.61019176 2.3183026 -0.53106475
0.60426718 2.2957933 -0.39577723
0.59947932 2.2776029 -0.2625106
0.60991526 2.3172522 -0.13384119
0.77200574 2.9330828 0
0.99215585 3.7694998 0.21772093
0.60666549 2.3162715 -0.66060823
0.60352618 2.3042855 -0.52768636
0.60214251 2.2990026 -0.3962048
0.59672683 2.2783256 -0.2625106
0.60645711 2.3154762 -0.13369618
0.76318848 2.9138825 0
0.99352509 3.7933164 0.21902704
0.60780269 2.3263469 -0.66337687
0.60085052 2.2997377 -0.52656168
0.60010517 2.2968848 -0.39577723
0.59862125 2.2912054 -0.26395288
0.6037432 2.3108094 -0.13340563
0.75682223 2.8967149 0
0.9925456 3.7989392 0.21931703
0.60309696 2.319793 -0.66129971
0.59743261 2.2980053 -0.52599937
0.5966841 2.2951262 -0.39534968
0.59064597 2.2719009 -0.26164654
0.59898853 2.3039901 -0.13297006
0.75986856 2.9228101 0
0.98599505 3.7925985 0.21888204
0.60092121 2.3229465 -0.66199124
0.59720087 2.3085651 -0.52825087
0.5945527 2.2983284 -0.39577723
0.59113866 2.2851307 -0.26308775
0.59555399 2.3021989 -0.13282506
0.75438291 2.9161747 0
0 0 0
0.5968644 2.3188164 -0.66060823
0.58997673 2.292058 -0.52431017
0.5898549 2.2915845 -0.39449292
0.59095609 2.2958627 -0.26424092
0.59536272 2.3129826 -0.13340563
0.74566883 2.8969212 0
0 0 0
0.59966344 2.3414066 -0.66683704
0.5903582 2.305074 -0.52712405
0.58581293 2.2873268 -0.39363781
0.58304781 2.2765303 -0.26193458
0.59063286 2.3061464 -0.13297006
0.71505004 2.7919376 0
0 0 0
0.59075564 2.3182769 -0.78883636
0.59311807 2.3275478 -0.66268539
0.58757257 2.3057857 -0.52712405
0.58114642 2.2805679 -0.3923535
0.58476806 2.29478 -0.26395288
0.59105593 2.3194554 -0.13369618
0.97643119 3.8317668 0
0 0 0
0.60374606 2.3812754 -0.81002384
0.58968693 2.3258238 -0.66199124
0.58540988 2.3089545 -0.52768636
0.5809139 2.2912216 -0.39406535
0.58326495 2.3004944 -0.26452893
0.5869745 2.3151255 -0.13340563
0.96988118 3.8253734 0
0.95731735 3.7758198 0.21757592
0.60389268 2.3939927 -0.81410104
0.59301358 2.3508651 -0.6689142
0.58199865 2.3071988 -0.52712405
0.57940197 2.296905 -0.39492211
0.57162917 2.2660916 -0.26049337
0.58354175 2.3133161 -0.13326062
0.96525824 3.8265426 0
0.94830477 3.7593346 0.21655981
0.59558314 2.3731384 -0.80676401
0.58711743 2.3394063 -0.66545135
0.58230239 2.3202205 -0.52993792
0.57662618 2.2976034 -0.39492211
0.57140905 2.2768152 -0.26164654
0.58327615 2.3241005 -0.13384119
0.96760303 3.8554749 0
0.94629169 3.7705588 0.21714036
0.59870374 2.3978407 -0.81491524
0.58003783 2.3230827 -0.66060823
0.57703632 2.3110614 -0.52768636
0.57384956 2.2982984 -0.39492211
0.56802917 2.2749875 -0.26135743
0.57794964 2.3147194 -0.13326062
0.95916224 3.8414962 0
0.94236392 3.7742181 0.21728536
0.59997749 2.4153557 -0.82062078
0.57299626 2.3067362 -0.65576243
0.57485771 2.31423 -0.52825087
0.57169038 2.3014791 -0.39534968
0.56964523 2.2932458 -0.26337576
0.57327247 2.3078482 -0.13282506
0.95138103 3.8300164 0
0.93655115 3.7703152 0.21699536
0.5887562 2.3824823 -0.8092097
0.5756247 2.329344 -0.66199124
0.57023174 2.3075206 -0.52656168
0.56706095 2.2946894 -0.39406535
0.56067002 2.2688279 -0.26049337
0.5723542 2.3161094 -0.13326062
0.94550502 3.8261151 0
0.9313696 3.7689142 0.2168498
0.59118682 2.4047909 -0.81654358
0.56981575 2.3178589 -0.65853107
0.57472217 2.337817 -0.53331631
0.5649001 2.2978635 -0.39449292
0.55854505 2.2720129 -0.26078141
0.56769365 2.3092268 -0.13282506
0.93901676 3.8196704 0
0.92681497 3.7700369 0.2168498
0.59180468 2.4199133 -0.82143497
0.56701463 2.3185458 -0.65853107
0.56465369 2.3088918 -0.52656168
0.56212318 2.2985444 -0.39449292
0.55764329 2.280226 -0.26164654
0.56737208 2.3200073 -0.13340563
0.93254781 3.8132257 0
0.92349464 3.776207 0.21714036
0.57777911 2.3749945 -0.80594981
0.56658483 2.32898 -0.66129971
0.56006098 2.3021634 -0.52487248
0.55752671 2.2917461 -0.39321026
0.5542745 2.2783775 -0.26135743
0.56272513 2.3131144 -0.13297006
0.9310149 3.8269911 0
0.91094685 3.7444999 0.2152537
0.58479118 2.4165273 -0.81980348
0.5619995 2.3223453 -0.6592226
0.55907238 2.3102496 -0.52656168
0.55717236 2.3023982 -0.39492211
0.55395454 2.2891014 -0.2625106
0.56176388 2.3213718 -0.13340563
0.92639005 3.8281131 0
0.90153229 3.7253935 0.21409258
0.57840133 2.4028189 -0.81491524
0.5615415 2.3327792 -0.66199124
0.55509001 2.3059781 -0.52543485
0.55378747 2.3005669 -0.39449292
0.54695272 2.2721736 -0.26049337
0.55956608 2.3245726 -0.13355063
0.92846185 3.8570549 0
0.89399016 3.7138512 0.21336702
0.58010185 2.4227452 -0.82143497
0.55697155 2.3261435 -0.65991676
0.55466998 2.3165312 -0.52768636
0.54742181 2.2862601 -0.39192593
0.55022854 2.297982 -0.26337576
0.55736369 2.3277814 -0.13369618
0.92743796 3.8733644 0
0.88587046 3.6997616 0.21249591
0.57831818 2.4282486 -0.82306331
0.55474108 2.329253 -0.66060823
0.54951578 2.3073127 -0.52543485
0.5476321 2.2994037 -0.39406535
0.54445583 2.286067 -0.26193458
0.55394685 2.3259182 -0.13355063
0.93119723 3.9099212 0
0.88139939 3.7008293 0.21249591
0.57709336 2.4361629 -0.82550901
0.55539489 2.3445642 -0.66475987
0.544972 2.3005648 -0.5237478
0.54367101 2.2950726 -0.39321026
0.53871268 2.2741413 -0.26049337
0.5493409 2.3190076 -0.13311562
0.92767316 3.9161131 0
0.87692702 3.7018917 0.21249591
0.56848228 2.4128058 -0.81736094
0.54680926 2.3208191 -0.6578396
0.5451048 2.313585 -0.52656168
0.54266191 2.3032165 -0.39449292
0.54189491 2.2999613 -0.26337576
0.54415482 2.3095529 -0.13253507
1.6134404 6.8479152 0
0.8706674 3.6953683 0.2120609
0.56645745 2.4107358 -0.81654358
0.54712915 2.3284781 -0.65991676
0.54545116 2.321337 -0.52825087
0.53951037 2.2960541 -0.39321026
0.5339967 2.272589 -0.26020426
0.54394698 2.3149354 -0.13282506
1.6128759 6.8640947 0
0 0 0
0.56185842 2.4042053 -0.81410104
0.54260194 2.3218064 -0.6578396
0.54033297 2.3120973 -0.52599937
0.53907239 2.3067033 -0.39492211
0.53301668 2.2807908 -0.26106942
0.54174018 2.3181188 -0.13297006
1.5992512 6.8432331 0
0 0 0
0.54093093 2.327343 -0.6592226
0.53696197 2.3102665 -0.52543485
0.53686541 2.3098509 -0.39534968
0.53143263 2.2864766 -0.26164654
0.53835112 2.3162432 -0.13282506
1.5886246 6.8350205 0
0.86067599 3.7030387 0.2123509
0.54207402 2.3451073 -0.6640684
0.53760463 2.325772 -0.52881324
0.53233904 2.3029921 -0.39406535
0.52692139 2.2795546 -0.26078141
0.53613663 2.3194213 -0.13297006
1.5721579 6.8014317 0
0.85503167 3.6990173 0.2120609
0.5364303 2.3335381 -0.66060823
0.5330857 2.3189888 -0.52712405
0.52668089 2.291127 -0.39192593
0.52416664 2.2801895 -0.26078141
0.53508067 2.327667 -0.13340563
1.5627736 6.7982583 0
0.8476491 3.6873784 0.21133478
0.5308153 2.3219585 -0.65714812
0.52915186 2.314682 -0.52599937
0.52848887 2.3117819 -0.39534968
0.52717412 2.3060308 -0.26366377
0.53168923 2.3257813 -0.13326062
1.5557169 6.8052111 0
0.8443523 3.693471 0.21162534
0.53078949 2.3348277 -0.66060823
0.52635461 2.3153195 -0.52599937
0.52398741 2.3049068 -0.39406535
0.52496237 2.3091955 -0.26395288
0.5277254 2.3213496 -0.13297006
1.5434562 6.7893286 0
0.83931339 3.6919572 0.21148035
0.52575517 2.3256791 -0.6578396
0.52411634 2.3184299 -0.52656168
0.5217675 2.3080397 -0.39449292
0.52274156 2.3123486 -0.26424092
0.52606714 2.3270593 -0.13326062
1.5323806 6.7784891 0
0.83771598 3.7056386 0.2122059
0.52679676 2.3434489 -0.66268539
0.52298695 2.3265009 -0.52825087
0.52235746 2.3237007 -0.39706156
0.51484227 2.2902694 -0.26164654
0.52268565 2.3251605 -0.13311562
0.5270775 2.3446977 0
0.83095825 3.6965075 0.21162534
0.51903778 2.3220415 -0.65645391
0.51851207 2.3196898 -0.52656168
0.51338893 2.2967701 -0.3923535
0.50981766 2.280793 -0.26049337
0.5170421 2.3131135 -0.13239007
0.87904966 3.932642 0
0.82479012 3.6898987 0.21118979
0.52439684 2.3594043 -0.66683704
0.5157088 2.3203146 -0.52656168
0.51228476 2.3049088 -0.39363781
0.50649858 2.2788751 -0.26020426
0.51537323 2.3188047 -0.13268007
0.51237535 2.3053164 0
0.82427788 3.7086511 0.2122059
0 0 -0
0.51290476 2.320936 -0.52656168
0.51060617 2.3105345 -0.39449292
0.50486195 2.2845414 -0.26078141
0.51593423 2.3346443 -0.13355063
0.50734317 2.2957692 0
0.81811345 3.7020302 0.21177034
0.51653999 2.3508635 -0.6640684
0.51064479 2.3240333 -0.52712405
0.50505996 2.2986159 -0.3923535
0.50210118 2.2851498 -0.26078141
0.51144159 2.3276596 -0.13311562
0.51797301 2.3573854 0
0.81252551 3.6979451 0.21148035
0.5104875 2.3367848 -0.65991676
0.50946367 2.332098 -0.52881324
0.50392634 2.3067508 -0.39363781
0.49989113 2.2882793 -0.26106942
0.50530016 2.3130395 -0.13224451
0.51012582 2.335129 0
0.80583835 3.6887698 0.21089979
0.50606567 2.3300428 -0.6578396
0.50233108 2.3128479 -0.52431017
0.50005007 2.3023455 -0.39278269
0.49987012 2.301517 -0.2625106
0.50415999 2.3212686 -0.13268007
0.49515295 2.279798 0
0.80523956 3.7075083 0.21191534
0.50377887 2.3331025 -0.65853107
0.50436217 2.3358037 -0.52937555
0.49997631 2.3154919 -0.39492211
0.49981993 2.3147676 -0.26395288
0.50300068 2.3294983 -0.13311562
0.49020073 2.2702193 0
0.80514663 3.7287977 0.21307646
0.49885327 2.3238978 -0.65576243
0.50207222 2.3388934 -0.52993792
0.49663779 2.3135772 -0.39449292
0.49593586 2.3103073 -0.26337576
0.49854892 2.3224802 -0.13268007
0.4967424 2.3140645 0
0.81154788 3.7805793 0.21597925
0.4944737 2.317136 -0.65368527
0.49977759 2.3419905 -0.53050244
0.49598491 2.3242178 -0.3962048
0.48882556 2.2906687 -0.26106942
0.49791148 2.3332458 -0.13326062
0.49123076 2.3019395 0
0.80535173 3.773931 0.21554369
0.49583843 2.3373652 -0.6592226
0.49272913 2.3227079 -0.52599937
0.49051312 2.3122618 -0.39406535
0.4865936 2.2937853 -0.26135743
0.49077806 2.3135107 -0.13209951
0.50195009 2.3661752 0
0.79593861 3.752027 0.21423757
0.48761556 2.3262818 -0.65576243
0.48815614 2.3288608 -0.52712405
0.48545 2.3159504 -0.39449292
0.47998878 2.2898965 -0.26078141
0.48891783 2.3324947 -0.13311562
0.49142578 2.3444593 0
0.80019557 3.8175166 0.21786593
0.48787564 2.3416102 -0.65991676
0.48534182 2.3294489 -0.52712405
0.47951064 2.3014617 -0.39192593
0.47616538 2.2854056 -0.26020426
0.48238856 2.3152745 -0.13209951
0.48965326 2.3501422 0
0.81042248 3.8897076 0.22192983
0.48646083 2.3419046 -0.65991676
0.48186734 2.3197906 -0.52487248
0.48125166 2.3168266 -0.39449292
0.47741628 2.2983625 -0.26164654
0.48363152 2.3282838 -0.13282506
0.49617323 2.3886616 0
0.81177014 3.9079983 0.22294539
0.48515108 2.3498545 -0.66199124
0.48060572 2.3278387 -0.52656168
0.4768962 2.3098714 -0.39321026
0.47725317 2.3116004 -0.26308775
0.48029301 2.3263242 -0.13268007
0.48749778 2.3612208 0
0.81282735 3.9369712 0.22454207
0 0 -0
0.47728238 2.3259311 -0.52599937
0.4735893 2.3079338 -0.39278269
0.47186065 2.2995095 -0.26164654
0.47957104 2.3370843 -0.13326062
0.49092194 2.3924005 0
0.79971254 3.8972239 0.22221982
0.479471 2.3510199 -0.66199124
0.4754861 2.3314807 -0.52712405
0.4728502 2.3185558 -0.39449292
0.47063085 2.3076735 -0.2625106
0.47622803 2.3351185 -0.13311562
0.47970998 2.3521919 0
0 0 0
0.47762755 2.3565199 -0.66337687
0.47519183 2.3445024 -0.52993792
0.47004834 2.3191254 -0.39449292
0.4698973 2.3183804 -0.26366377
0.47392184 2.3382366 -0.13326062
0.46549511 2.2966607 0
0 0 0
0.46982506 2.3324969 -0.65645391
0.47135612 2.3400979 -0.52881324
0.46927336 2.3297579 -0.3962048
0.46147913 2.2910626 -0.26049337
0.46801862 2.3235285 -0.13239007
0.46169093 2.292114 0
0.77891058 3.8669848 0.22033316
0.46700633 2.3330629 -0.65645391
0.46802998 2.3381767 -0.52825087
0.46242908 2.3101957 -0.39278269
0.45566353 2.2763965 -0.25876307
0.46368024 2.3164463 -0.13195451
0.47118038 2.3539155 0
0 0 0
0.47152898 2.3705361 -0.66683704
0.46768245 2.3511984 -0.53106475
0.46314156 2.3283699 -0.39577723
0.45493102 2.2870927 -0.25991625
0.46290866 2.327199 -0.13253507
0.46579766 2.341723 0
0 0 0
0.4642866 2.3489561 -0.66060823
0.46089959 2.3318205 -0.52656168
0.4568449 2.3113065 -0.39278269
0.45567837 2.3054049 -0.26193458
0.46009633 2.3277566 -0.13253507
0.46044511 2.3295209 0
7.5055823 37.972847 2.1620533
0.46289894 2.3569031 -0.66268539
0.45955124 2.3398578 -0.52825087
0.45553455 2.3194065 -0.39406535
0.44940269 2.2881854 -0.25991625
0.45778367 2.330858 -0.13268007
0.44709787 2.2764502 0
0 0 0
0.45908877 2.3525312 -0.66129971
0.45574936 2.3354189 -0.52712405
0.45125803 2.3124037 -0.39278269
0.44614261 2.2861905 -0.25962824
0.45646048 2.3390629 -0.13311562
0.45032656 2.3076308 0
7.4073253 37.957722 2.1601667
0.45481279 2.3456931 -0.6592226
0.45292714 2.335968 -0.52712405
0.4499281 2.3205006 -0.39406535
0.44977969 2.3197351 -0.26337576
0.454128 2.3421614 -0.13326062
0.44407168 2.2902961 0
7.3629398 37.9743 2.1606023
0.45102996 2.3413188 -0.6578396
0.45202681 2.3464935 -0.52937555
0.44760904 2.3235607 -0.39449292
0.44306231 2.2999585 -0.26106942
0.45080656 2.3401592 -0.13311562
0.45065615 2.3393784 0
7.3067284 37.929588 2.1575544
0.45008692 2.3517184 -0.66060823
0.44441587 2.3220868 -0.5237478
0.44480115 2.3241 -0.39449292
0.44611725 2.3309767 -0.26452893
0.44797862 2.3407023 -0.13311562
0.45027655 2.3527091 0
7.2716374 37.994534 2.1607473
0.44958758 2.3645811 -0.6640684
0.44445649 2.3375945 -0.52712405
0.44151357 2.3221161 -0.39406535
0.4404026 2.3162732 -0.26279971
0.44320858 2.3310308 -0.13253507
0.44451579 2.3379064 0
7.2169876 37.957348 2.1581349
0.449523 2.379909 -0.66822004
0.44210279 2.3406241 -0.52768636
0.43918341 2.3251681 -0.39449292
0.43952373 2.3269699 -0.26395288
0.44039163 2.3315649 -0.13253507
0.44024104 2.3307674 0
0 0 0
0.43832022 2.3360717 -0.65576243
0 0 -0
0.43637356 2.3256969 -0.39449292
0.43098792 2.2969937 -0.26049337
0.4380528 2.3346467 -0.13268007
0.44078445 2.3492053 0
0.72073811 3.8412464 0.21830148
0.44193172 2.3711231 -0.66545135
0.43458289 2.3316941 -0.52543485
0.4326233 2.3211801 -0.39363781
0.43342379 2.3254752 -0.26366377
0.43618283 2.3402781 -0.13297006
0.42840868 2.2985673 0
0.72942519 3.9136295 0.22236483
0 0 -0
0.43315324 2.3397152 -0.52712405
0.42935145 2.3191795 -0.39321026
0.42496356 2.2954779 -0.26020426
0.43193704 2.3331459 -0.13253507
0.42657942 2.3042061 0
0.72564274 3.9196229 0.22265539
0.43438727 2.362324 -0.66268539
0.42986676 2.3377404 -0.52656168
0.42933348 2.3348403 -0.39577723
0.42218959 2.2959898 -0.26020426
0.42958707 2.3362193 -0.13268007
0.42379493 2.3047199 0
0.7129178 3.8770542 0.22018816
0.4292776 2.3505003 -0.6592226
0.4274978 2.3407552 -0.52712405
0.42466715 2.3252561 -0.39406535
0.42545733 2.3295827 -0.26395288
0.42769665 2.3418441 -0.13297006
0.42568457 2.330827 0
0.41787374 2.2880588 0.12991615
0.42643717 2.3510175 -0.6592226
0.42285523 2.3312695 -0.52487248
0.42323211 2.3333476 -0.39534968
0.41802517 2.3046405 -0.26106942
0.42579508 2.3474774 -0.13326062
0.42658371 2.3518252 0
0.44756863 2.4675186 0.14007507
0.4263559 2.3586833 -0.66129971
0.42189825 2.3340225 -0.52543485
0.42045203 2.3260219 -0.39406535
0.41571346 2.2998071 -0.26049337
0.42576382 2.3554077 -0.13369618
0.42701447 2.3623266 0
0.43082544 2.3834095 0.1352856
0.42394844 2.3616636 -0.66199124
0.41997647 2.3395374 -0.52656168
0.41764119 2.3265283 -0.39406535
0.4165903 2.3206742 -0.26279971
0.41924453 2.3354599 -0.13253507
0.41358495 2.3039324 0
0.42519143 2.368588 0.13441505
0.41977492 2.3547719 -0.65991676
0.41937849 2.3525479 -0.52937555
0.41618171 2.3346152 -0.39534968
0.4124237 2.3135343 -0.26193458
0.41870198 2.348753 -0.13326062
0.42404395 2.3787193 0
0.41959387 2.3537562 0.13354449
0.41605389 2.3503318 -0.65853107
0.41565064 2.3480539 -0.52825087
0.41470331 2.3427022 -0.39663398
0.40647158 2.2962003 -0.25991625
0.41586366 2.3492572 -0.13326062
0.41391292 2.3382373 0
0.41629526 2.3516953 0.13339894
0 0 -0
0.41061252 2.3360345 -0.52543485
0.41009468 2.3330884 -0.39492211
0.40369678 2.2966897 -0.25991625
0.40807605 2.321604 -0.13166395
0.41739407 2.3746157 0
0.42289966 2.4059377 0.13644671
0.41382349 2.3711016 -0.6640684
0.40910056 2.3440404 -0.52712405
0.40595081 2.3259933 -0.39363781
0.40225586 2.3048222 -0.26078141
0.40884453 2.3425736 -0.13282506
0.4145245 2.3751183 0
0.41373861 2.3706152 0.13441505
0.41095817 2.3715999 -0.6640684
0.40583453 2.342032 -0.52656168
0.40576893 2.3416533 -0.3962048
0.39682183 2.2900205 -0.25905219
0.40512723 2.3379502 -0.13253507
0.41209826 2.3781793 0
0.40998742 2.3659978 0.13412505
0.40639082 2.362205 -0.66129971
0.40171152 2.3350058 -0.52487248
0.39945894 2.3219125 -0.39278269
0.39800087 2.3134372 -0.26164654
0.40142003 2.3333113 -0.13224451
0.41054857 2.3863723 0
0.4084487 2.3741667 0.13456005
0.40353626 2.3626943 -0.66129971
0.39888984 2.3354895 -0.52487248
0.39794838 2.3299775 -0.39406535
0.39389846 2.3062651 -0.26078141
0.40210012 2.3542857 -0.13340563
0.40591219 2.3766053 0
0.40514264 2.3720994 0.13441505
0.40026215 2.3607092 -0.66060823
0.39819092 2.3484931 -0.52768636
0.39642057 2.3380518 -0.39534968
0.39111149 2.3067396 -0.26078141
0.39578015 2.3342748 -0.13224451
0.40434581 2.3847942 0
0.40835649 2.4084487 0.13644671
0.40115651 2.3834543 -0.66683704
0.39619717 2.3539886 -0.52881324
0.39402086 2.3410583 -0.39577723
0.38918173 2.3123066 -0.26135743
0.39684042 2.3578105 -0.13355063
0.40059921 2.3801432 0
6.2368622 37.056053 2.0989215
0.39207485 2.346818 -0.65645391
0.39042127 2.33692 -0.52487248
0.38992244 2.3339343 -0.39449292
0.38553587 2.307678 -0.26078141
0.39313564 2.3531673 -0.13326062
0.39772299 2.3806255 0
0.65429157 3.9163518 0.22178426
0.39293379 2.3695717 -0.66268539
0.39009207 2.3524349 -0.52825087
0.3875232 2.3369434 -0.39492211
0.38316995 2.3106914 -0.26106942
0.39029199 2.3536406 -0.13326062
0.39569849 2.3862441 0
0.64615989 3.8966417 0.22062372
0.38884768 2.3626161 -0.66060823
0.38683552 2.3503902 -0.52768636
0.38636672 2.347542 -0.39663398
0.379958 2.3086028 -0.26078141
0.38533828 2.3412931 -0.13253507
0.38351592 2.3302207 0
0.64567012 3.9230545 0.22207482
0.38761038 2.372988 -0.66337687
0.38276759 2.3433402 -0.52599937
0.3835299 2.3480072 -0.39663398
0.37550041 2.2988496 -0.25962824
0.38292748 2.3443191 -0.13268007
0.38153994 2.3358243 0
0.63548428 3.890496 0.22018816
0.3823334 2.3585913 -0.6592226
0.38196835 2.3563392 -0.52881324
0.37863749 2.3357916 -0.39449292
0.37479138 2.3120651 -0.26106942
0.38050994 2.3473425 -0.13282506
0.37913328 2.33885 0
0.63286144 3.9040835 0.22091371
0.38187465 2.3739178 -0.66337687
0.37831303 2.3517771 -0.52768636
0.37377676 2.3235774 -0.3923535
0.3691231 2.2946479 -0.25905219
0.37726107 2.3452375 -0.13268007
0.38333321 2.3829849 0
0.63144517 3.925369 0.22207482
0.38335478 2.4016218 -0.67098868
0.37587276 2.3547487 -0.52825087
0.37258744 2.3341672 -0.39406535
0.36838832 2.3078606 -0.26049337
0 0 -0
0 0 0
0.62342495 3.9056015 0.22091371
0.38202244 2.4119947 -0.67375731
0.37064156 2.3401387 -0.52487248
0.37057072 2.3396914 -0.39492211
0.36762214 2.3210747 -0.26193458
0.36549476 2.3076432 -0.13050283
0.37431639 2.3633406 0
0.61667329 3.893522 0.22018816
0.373656 2.3777623 -0.6640684
0.3693915 2.3506253 -0.52712405
0.3677434 2.3401375 -0.39492211
0.36281005 2.3087442 -0.26049337
0.36230317 2.3055186 -0.13035783
0 0 0
0.61358184 3.9045322 0.22076872
0.37001047 2.3732593 -0.66268539
0.36772558 2.358604 -0.52881324
0.36333373 2.3304346 -0.39321026
0.36201194 2.3219564 -0.26193458
0.35951713 2.3059547 -0.13035783
0.37261388 2.3899577 0
0.60806221 3.900131 0.22047816
0.36665064 2.3610799 -0.6592226
0.36591104 2.3563173 -0.52825087
0.36389494 2.3433344 -0.39534968
0.35822693 2.3068347 -0.26020426
0.35852227 2.3087366 -0.13050283
0.37356526 2.4056075 0
0.60371256 3.8876617 0.21975259
0.36570844 2.3739259 -0.66268539
0.36306363 2.3567576 -0.52825087
0.36223614 2.3513863 -0.39663398
0.35622767 2.3123834 -0.26078141
0.35494184 2.3040369 -0.13021283
0.36946917 2.3983381 0
0.60099238 3.9012265 0.22047816
0.36283973 2.3743663 -0.66268539
0.35944727 2.3521664 -0.52712405
0.35823095 2.344207 -0.39534968
0.35304299 2.3102579 -0.26049337
0.3529419 2.3095963 -0.13050283
0.36185482 2.3679211 0
0.59745604 3.9096582 0.22091371
0.3584666 2.364881 -0.65991676
0.35622445 2.3500893 -0.52656168
0.35578254 2.3471737 -0.39577723
0.35025126 2.3106828 -0.26049337
0.3497619 2.3074543 -0.13035783
0.35587317 2.3477716 0
0.59273154 3.9103773 0.22091371
0.35523477 2.3628244 -0.6592226
0.35300717 2.3480077 -0.52599937
0.35103828 2.3349116 -0.39363781
0.34976548 2.3264458 -0.26222259
0.34620166 2.3027411 -0.13006784
0 0 0
0.58955145 3.9213691 0.22149427
0.35570902 2.3855817 -0.66545135
0.34941962 2.3434014 -0.52487248
0.34935284 2.3429537 -0.39492211
0.34466621 2.3115225 -0.26049337
0.34418467 2.3082929 -0.13035783
0 0 0
0.58596283 3.929791 0.22192983
0.35282627 2.3860097 -0.66545135
0.34807459 2.3538761 -0.52712405
0.34764707 2.3509851 -0.3962048
0.34225091 2.3144934 -0.26078141
0.34139529 2.3087072 -0.13035783
0.35192731 2.3799305 0
0.57741219 3.9047863 0.22047816
0.34812337 2.3740256 -0.66199124
0.34449354 2.3492718 -0.52599937
0.34443399 2.348866 -0.39577723
0.34020388 2.3200185 -0.26135743
0.33860543 2.309118 -0.13035783
0.34414306 2.3468819 0
0.57570964 3.9260488 0.22163928
0.34525457 2.3744445 -0.66199124
0.34348238 2.3622563 -0.52881324
0.34196463 2.3518183 -0.3962048
0.33591163 2.3101897 -0.26020426
0.33618858 2.3120944 -0.13050283
0.34954628 2.4039602 0
0.57021827 3.9216037 0.22134927
0.34238526 2.3748598 -0.66199124
0.34099001 2.3651822 -0.52937555
0.33875671 2.3496914 -0.39577723
0.33533517 2.325959 -0.26193458
0.33339465 2.3124988 -0.13050283
0.34218493 2.3734703 0
0.56696248 3.9325771 0.22192983
0.33880618 2.3703096 -0.66060823
0.3381319 2.3655925 -0.52937555
0.33519155 2.3450215 -0.39492211
0.33142614 2.3186786 -0.26106942
0.33096892 2.3154798 -0.13064839
0.3385796 2.3687246 0
0.56221032 3.9332595 0.22192983
0.33910942 2.3930705 -0.66683704
0.3327775 2.3483865 -0.52543485
0.33343726 2.3530424 -0.3962048
0.32608503 2.3011584 -0.25905219
0.32744104 2.3107276 -0.13035783
0.34338477 2.4232414 0
0.55927986 3.9467971 0.22265539
0.33412436 2.378577 -0.66268539
0.33135349 2.3588517 -0.52768636
0.32952356 2.3458247 -0.39492211
0.32474211 2.3117862 -0.26020426
0.32392651 2.30598 -0.13006784
0.33937147 2.4159303 0
3.169188 22.560934 1.27254
0.33055744 2.3740046 -0.66129971
0.32815295 2.3567359 -0.52712405
0.32668886 2.346221 -0.39492211
0.32301897 2.3198647 -0.26106942
0.32185596 2.311512 -0.13035783
0.32891527 2.3622108 0
3.1462255 22.595631 1.2742816
0.32768869 2.3744023 -0.66129971
0.32461098 2.3521016 -0.52599937
0.32455489 2.3516951 -0.39577723
0.32021564 2.3202534 -0.26106942
0.31941763 2.3144708 -0.13050283
0.32997349 2.3909578 0
3.1114612 22.545362 1.2712338
0.32447979 2.3723133 -0.66060823
0.32107937 2.3474524 -0.52487248
0.31997404 2.3393712 -0.39363781
0.31776202 2.3231986 -0.26135743
0.31521362 2.3045671 -0.12992284
0 0 0
3.0803432 22.520784 1.2696372
0.32161307 2.3727036 -0.66060823
0.31994882 2.3604255 -0.52768636
0.31990558 2.3601065 -0.39706156
0.31426048 2.3184597 -0.26078141
0.31312615 2.3100913 -0.13021283
0.32594201 2.4046402 0
0.32602349 2.4052413 0.13557616
0.32074907 2.3880043 -0.66475987
0.31811154 2.3683677 -0.52937555
0.3156867 2.3503144 -0.39534968
0.31180283 2.3213987 -0.26106942
0.31033462 2.3104677 -0.13021283
0.31957242 2.3792439 0
0.32034969 2.385031 0.13441505
0.31301013 2.3738539 -0.66060823
0.31271905 2.3716462 -0.52993792
0.31034124 2.3536131 -0.39577723
0.30686891 2.3272791 -0.26164654
0.30576959 2.3189421 -0.13064839
0.30871823 2.3413043 0
0.3135657 2.3780673 0.13397948
0.30949104 2.3692503 -0.6592226
0.30886674 2.3644712 -0.52825087
0.30749714 2.3539863 -0.39577723
0.30372062 2.3250761 -0.26135743
0.30195737 2.3115776 -0.13021283
0.31600255 2.4190979 0
0.31742349 2.4299755 0.13688228
0.30727255 2.3746033 -0.66060823
0.3073138 2.374922 -0.53050244
0.30366397 2.3467162 -0.39449292
0.29991621 2.3177533 -0.26049337
0.2988309 2.3093662 -0.13006784
0.31441393 2.4297919 0
0.30948618 2.3917103 0.1347056
0.30344594 2.3675053 -0.65853107
0.29992095 2.340003 -0.52262098
0.30115548 2.3496349 -0.39492211
0.29777244 2.3232403 -0.26106942
0.2963703 2.3123004 -0.13021283
0.30651584 2.3914568 0
0.3019706 2.3559945 0.13267337
0.30216444 2.3803117 -0.66199124
0.29677361 2.3378453 -0.52205861
0.29896215 2.3550854 -0.39577723
0.29463965 2.3210349 -0.26078141
0.29357612 2.3126569 -0.13021283
0.30723146 2.4202275 0
2.7286768 21.495255 1.210278
0.30009806 2.3755207 -0.66060823
0.29472485 2.3329873 -0.52093393
0.29625228 2.3450785 -0.39406535
0.29258835 2.3160753 -0.26020426
0.29250422 2.3154094 -0.13035783
0.3025068 2.394588 0
2.7101538 21.453075 1.2078109
0.29816204 2.383352 -0.66268539
0.2925359 2.3383794 -0.52205861
0.29533109 2.3607228 -0.39663398
0.29043236 2.3215652 -0.26078141
0.29099652 2.3260746 -0.1309384
0.30284441 2.4207804 0
2.6868105 21.476961 1.208972
0.29528201 2.3837106 -0.66268539
0.28908607 2.3336928 -0.52093393
0.29089957 2.3483326 -0.39449292
0.28826234 2.3270431 -0.26135743
0.28754744 2.3212719 -0.13064839
0.30023879 2.4237247 0
2.6583021 21.459562 1.2078109
0.29209527 2.3815684 -0.66199124
0.28873941 2.3542068 -0.52543485
0.28868747 2.3537831 -0.39534968
0.28513578 2.3248248 -0.26106942
0.2844252 2.319031 -0.13050283
0.29287389 2.3879168 0
2.6307893 21.449865 1.2070853
0.2880078 2.3719575 -0.6592226
0.28405756 2.3394244 -0.52205861
0.28584316 2.3541303 -0.39534968
0.28263795 2.3277328 -0.26135743
0.2822499 2.324537 -0.13079339
0.29124314 2.398603 0
0.28818673 2.3734312 0.13354449
0.28514153 2.372304 -0.6592226
0.28183648 2.3448067 -0.52318329
0.28299844 2.3544741 -0.39534968
0.28044304 2.3332136 -0.26193458
0.27882016 2.3197117 -0.13050283
0.28741387 2.3912089 0
0.29338047 2.4408495 0.13731784
0.28464589 2.3925762 -0.66475987
0.27930409 2.3476758 -0.5237478
0.28106341 2.362464 -0.39663398
0.2770119 2.3284092 -0.26135743
0.27571037 2.3174691 -0.13035783
0.28698397 2.4122286 0
0.28889638 2.4283035 0.13659228
0.27882162 2.3680077 -0.6578396
0.27706084 2.3530538 -0.52487248
0.27730778 2.3551509 -0.39534968
0.27450159 2.3313184 -0.26164654
0.27351826 2.3229668 -0.13064839
0.28285173 2.402235 0
0.46856984 3.9795232 0.2238165
0.2779929 2.3857887 -0.66268539
0.27304113 2.3432915 -0.52262098
0.27446184 2.3554842 -0.39534968
0.27078611 2.3239386 -0.26078141
0.26980871 2.3155501 -0.13021283
0.28055072 2.4077401 0
0.4586488 3.9362121 0.22134927
0.27568409 2.3911026 -0.6640684
0.27020952 2.3436196 -0.52262098
0.27102688 2.350709 -0.39449292
0.26886693 2.3319747 -0.26164654
0.26820108 2.3261998 -0.13079339
0.27823797 2.4132531 0
0.46282029 4.0141988 0.22570318
0.27165738 2.3814635 -0.66129971
0.26737753 2.3439445 -0.52262098
0.2684781 2.3535926 -0.39492211
0.266049 2.332298 -0.26164654
0.26391792 2.3136163 -0.13006784
0.274142 2.4032447 0
0.45178539 3.960542 0.22265539
0.26962388 2.3892713 -0.66337687
0.26426047 2.3417435 -0.52205861
0.2667855 2.3641188 -0.39663398
0.26293978 2.3300402 -0.26135743
0.26228771 2.3242617 -0.13064839
0.27065369 2.398397 0
0.44292074 3.9249411 0.22062372
0.26562348 2.3796222 -0.66060823
0.26283985 2.3546846 -0.52487248
0.26335862 2.3593321 -0.39577723
0.26098529 2.3380702 -0.26222259
0.25976706 2.3271568 -0.13079339
0 0 0
0.26753706 2.3967652 0.1347056
0.26302299 2.3824325 -0.66129971
0.25860062 2.342375 -0.52205861
0.25966227 2.3519914 -0.39449292
0.25787643 2.3358154 -0.26193458
0.25552955 2.3145576 -0.13006784
0.26542863 2.4042225 0
0.26663598 2.4151587 0.13572116
0.25960007 2.3777654 -0.65991676
0.25632113 2.3477328 -0.52318329
0.25709957 2.3548627 -0.39492211
0.25533432 2.3386941 -0.26222259
0.25470597 2.3329389 -0.1310834
0.26280561 2.4071262 0
0.26202598 2.3999853 0.13485061
0.25645676 2.375576 -0.6592226
0.25484857 2.3606791 -0.52599937
0.25480452 2.3602712 -0.39577723
0.25250828 2.3390009 -0.26222259
0.25132963 2.328083 -0.13079339
0.26045498 2.412612 0
0.2605201 2.4132149 0.13557616
0.25438517 2.3833704 -0.66129971
0.25172552 2.3584516 -0.52543485
0.25277001 2.3682377 -0.39706156
0.24803536 2.323878 -0.26049337
0.24796434 2.3232126 -0.13050283
0.25753963 2.4129248 0
0.4208543 3.943043 0.22149427
0.25150517 2.3836761 -0.66129971
0.24834289 2.3537052 -0.52431017
0.24883084 2.3583298 -0.39534968
0.24522723 2.3241761 -0.26049337
0.24543045 2.326102 -0.13064839
0.25353158 2.4028819 0
0.41936144 3.9745579 0.22323595
0.24966568 2.393959 -0.6640684
0.24497108 2.3489442 -0.52318329
0.24651311 2.3637302 -0.3962048
0.24268676 2.3270407 -0.26078141
0.24315818 2.3315609 -0.1309384
0.25035831 2.4006004 0
0.41240242 3.9543862 0.22207482
0.24600098 2.38677 -0.66199124
0.2413519 2.3416634 -0.52149624
0.24313095 2.3589242 -0.39534968
0.24067061 2.3350532 -0.26164654
0.23900898 2.3189316 -0.13021283
0.24825819 2.4086699 0
0.40629223 3.9419603 0.22134927
0.24362573 2.3920619 -0.66337687
0.2400665 2.3571153 -0.52487248
0.24054033 2.3617675 -0.39577723
0.23837262 2.3404837 -0.26222259
0.23725997 2.3295591 -0.13079339
0.24613893 2.416738 0
0.40258199 3.9527886 0.22192983
0.23922765 2.3773727 -0.6592226
0.23620062 2.3472912 -0.52262098
0.23742965 2.3595049 -0.39534968
0.23554443 2.34077 -0.26222259
0.23444498 2.329844 -0.13079339
0.24269697 2.4118497 0
0.39754459 3.9506793 0.22178426
0.24003813 2.3999813 -0.66545135
0.23579393 2.3575466 -0.52487248
0.23702601 2.3698652 -0.39706156
0.23361589 2.3357697 -0.26164654
0.23329569 2.3325684 -0.1309384
0.24072228 2.4068217 0
0.23871408 2.3867431 0.13397948
0.23590499 2.387789 -0.66199124
0.23294513 2.3578298 -0.52487248
0.23391017 2.3675976 -0.39663398
0.2313015 2.3411932 -0.26222259
0.23073231 2.3354318 -0.1310834
0.23781393 2.4071109 0
0.23761857 2.4051332 0.13499561
0.23253284 2.3830833 -0.66060823
0.22984946 2.355583 -0.52431017
0.23055014 2.3627636 -0.39577723
0.22797057 2.3363273 -0.26164654
0.22791022 2.3357089 -0.1310834
0.23490524 2.4073966 0
0.23319864 2.3899066 0.13412505
0.23085606 2.3958461 -0.6640684
0.22724651 2.3583858 -0.52487248
0.22818793 2.368156 -0.39663398
0.22514741 2.336601 -0.26164654
0.22483882 2.3333986 -0.1309384
0.23224558 2.4102666 0
0.36189336 3.7557635 0.21075423
0.22748622 2.3911331 -0.66268539
0.22463711 2.3611858 -0.52543485
0.22435381 2.3582079 -0.39492211
0.22232391 2.3368714 -0.26164654
0.22177334 2.3310843 -0.13079339
0.22982556 2.4157221 0
0.35144955 3.6941254 0.20727144
0.22412722 2.3864059 -0.66129971
0.22107182 2.3538735 -0.5237478
0.22222362 2.3661373 -0.3962048
0.21998334 2.3422837 -0.26222259
0.219442 2.3365197 -0.1310834
0.22642024 2.4108207 0
0.34285536 3.6505699 0.20480421
0.2214749 2.3891706 -0.66199124
0.21869609 2.359194 -0.52487248
0.21936445 2.3664041 -0.3962048
0.2159595 2.3296731 -0.26078141
0.21661861 2.3367832 -0.1310834
0.22326706 2.4085038 0
0 0 0
0.21858789 2.3894365 -0.66199124
0.21515064 2.3518631 -0.52318329
0.21627133 2.3641136 -0.39577723
0.21361521 2.335079 -0.26135743
0.21355842 2.3344581 -0.1309384
0.22106728 2.4165394 0
0 0 0
0.21615206 2.3947008 -0.66337687
0.21230872 2.3521214 -0.52318329
0.21318404 2.3618188 -0.39534968
0.21079355 2.3353353 -0.26135743
0.21120515 2.3398952 -0.13122895
0.2181472 2.4168048 0
0 0 0
0.21370296 2.3999534 -0.66475987
0.21036793 2.3624997 -0.52543485
0.20919189 2.3492925 -0.39321026
0.20820168 2.338172 -0.26164654
0.20883818 2.3453202 -0.13151895
0.2138423 2.4015181 0
0.32128972 3.6081872 0.20233698
0.20926712 2.3827229 -0.65991676
0.20684689 2.355166 -0.5237478
0.20567909 2.3418694 -0.39192593
0.20582844 2.34357 -0.26222259
0.20577705 2.3429849 -0.13137396
0.21344523 2.430295 0
0.31670171 3.6059768 0.20219141
0.20768633 2.3979657 -0.6640684
0.2037811 2.3528755 -0.52318329
0.20351397 2.349791 -0.39321026
0.20255062 2.3386683 -0.26164654
0.20294586 2.3432317 -0.13137396
0.21005899 2.4253604 0
0.31346604 3.6193082 0.20291753
0.20393491 2.3882163 -0.66129971
0.20093797 2.3531201 -0.52318329
0.20089276 2.3525906 -0.39363781
0.20038421 2.3466351 -0.2625106
0.20011438 2.3434753 -0.13137396
0.20557804 2.4074585 0
0.30776569 3.6041451 0.20204642
0.20189078 2.3984606 -0.6640684
0.19830827 2.3559003 -0.5237478
0.19804996 2.3528316 -0.39363781
0.19689839 2.3391509 -0.26164654
0.19684628 2.3385317 -0.1310834
0.20310596 2.4128969 0
0.30275732 3.5967538 0.20161141
0.1977485 2.3837066 -0.65991676
0.19525081 2.3535988 -0.52318329
0.19541891 2.3556252 -0.39406535
0.19385739 2.336802 -0.26135743
0.19316117 2.3284097 -0.13050283
0.19975957 2.4079483 0
0.29926959 3.6074655 0.20219141
0.19588986 2.3964434 -0.66337687
0.19282122 2.3589027 -0.52431017
0.19299114 2.3609815 -0.39492211
0.19082315 2.3344593 -0.26106942
0.19119439 2.3390007 -0.1310834
0.19642624 2.4030051 0
0.29491046 3.6078243 0.20219141
0.19299409 2.3966784 -0.66337687
0.18997081 2.359134 -0.52431017
0.18972571 2.3560903 -0.39406535
0.1888327 2.3450007 -0.26222259
0.18732539 2.326282 -0.13035783
0.19477549 2.4188004 0
0.28888315 3.5874674 0.20103087
0.19049434 2.4019067 -0.66475987
0.18712011 2.3593619 -0.52431017
0.18667595 2.3537614 -0.39363781
0.1857948 2.3426511 -0.26193458
0.18513089 2.3342803 -0.13079339
0.19144158 2.4138503 0
0.28352043 3.5748549 0.20030475
0.18798299 2.4071424 -0.6661455
0.18446678 2.3621171 -0.52487248
0.18363208 2.3514283 -0.39321026
0.18276285 2.3402977 -0.26164654
0.18311948 2.3448644 -0.13137396
0.18771428 2.4037015 0
0.27879646 3.5700188 0.20001474
0.18411297 2.3948631 -0.66268539
0.18122333 2.3572762 -0.5237478
0.18098728 2.3542056 -0.39363781
0.18033105 2.3456697 -0.26222259
0.18028603 2.345084 -0.13137396
0.1854084 2.4117136 0
0.27348691 3.5574014 0.19928919
0.18121912 2.3950839 -0.66268539
0.17818265 2.3549523 -0.52318329
0.17717434 2.3416262 -0.39149839
0.17769159 2.3484626 -0.2625106
0.17784403 2.3504772 -0.13166395
0.18190493 2.4041481 0
0.27016833 3.570682 0.20001474
0.17958377 2.392684 -0.66199124
0.17733055 2.3626635 -0.52487248
0.17652814 2.3519723 -0.39321026
0.17588595 2.343416 -0.26193458
0.17603537 2.345407 -0.13137396
0.18123156 2.4146383 0
0.26781675 3.5682559 0.19986974
0.17669255 2.3928993 -0.66199124
0.17466255 2.3654075 -0.52543485
0.17425269 2.3598568 -0.39449292
0.17324454 2.3462038 -0.26222259
0.17377551 2.3533945 -0.1318095
0.17773868 2.4070668 0
0.26350501 3.5685771 0.19986974
0.17398332 2.3956203 -0.66268539
0.17106809 2.35548 -0.52318329
0.17047158 2.3472664 -0.3923535
0.17040949 2.3464115 -0.26222259
0.17017889 2.3432364 -0.13122895
0.17520747 2.4124761 0
0.25900415 3.5662937 0.19972418
0.17108855 2.395829 -0.66268539
0.16876496 2.3632908 -0.52487248
0.16891538 2.3653972 -0.39534968
0.16683725 2.3362958 -0.26106942
0.16753232 2.3460295 -0.13137396
0.17284793 2.4204662 0
0.25562075 3.5795708 0.2004503
0.16854455 2.4010344 -0.6640684
0.16537532 2.3558865 -0.52318329
0.16515853 2.352798 -0.39321026
0.16401416 2.3364959 -0.26106942
0.16487928 2.34882 -0.13151895
0.16937695 2.4128923 0
0.25074929 3.5720983 0.20001474
0.16889206 2.4483323 -0.8092097
0.16564324 2.4012363 -0.6640684
0.16270393 2.3586268 -0.5237478
0.16284499 2.3606715 -0.39449292
0.16225918 2.3521793 -0.26279971
0.16150442 2.341238 -0.1310834
0.16664025 2.4156892 0
0.24643293 3.5723987 0.20001474
0.16610055 2.4509983 -0.81002384
0.16291116 2.4039352 -0.66475987
0.16036879 2.3664196 -0.52543485
0.15912478 2.348063 -0.3923535
0.15924153 2.3497858 -0.2625106
0.15885156 2.3440316 -0.13122895
0.16389704 2.4184828 0
0.24158898 3.5649137 0.19957918
0.16576502 2.4906554 -0.82306331
0.15983991 2.4016294 -0.6640684
0.15717216 2.3615458 -0.52431017
0.15696938 2.3584993 -0.39406535
0.15623055 2.347398 -0.26222259
0.15636393 2.3494022 -0.13151895
0.16062933 2.4134905 0
0.23659107 3.5548322 0.19899863
0.16162781 2.4735968 -0.81736094
0.1569379 2.4018209 -0.6640684
0.15531228 2.3769422 -0.52768636
0.15378505 2.3535688 -0.39321026
0.1530571 2.3424282 -0.26164654
0.15437199 2.3625515 -0.13224451
0.15737328 2.408484 0
0.23229557 3.5551155 0.19899863
0.15879686 2.4762545 -0.81817508
0.15339345 2.3919942 -0.66129971
0.15162723 2.3644521 -0.52487248
0.15110524 2.3563123 -0.39363781
0.150392 2.34519 -0.26193458
0.15051976 2.3471825 -0.13137396
0.15429659 2.4060776 0
0.22833264 3.5605848 0.19928919
0.15580468 2.4764445 -0.81817508
0.15097581 2.3996916 -0.66337687
0.14877014 2.3646336 -0.52487248
0.14809695 2.3539336 -0.39321026
0.14772043 2.347949 -0.26222259
0.14833617 2.3577359 -0.13195451
0.1513892 2.4062624 0
0.22484584 3.5738223 0.20001474
0.15326905 2.4840341 -0.82062078
0.14823049 2.402374 -0.6640684
0.14653875 2.3749559 -0.52712405
0.1457264 2.3617899 -0.39449292
0.14472415 2.3455467 -0.26193458
0.14532733 2.3553224 -0.1318095
0.14896257 2.4142387 0
0.22036754 3.5715003 0.19986974
0.14996871 2.4792783 -0.81898928
0.14563024 2.4075549 -0.66545135
0.14351571 2.3725975 -0.52656168
0.14256284 2.3568447 -0.39363781
0.14188991 2.3457198 -0.26193458
0.14185372 2.3451216 -0.13122895
0.14604533 2.414417 0
0.21667948 3.5821388 0.2004503
0.14741178 2.4868619 -0.82143497
0.14183067 2.3927076 -0.66129971
0.14049858 2.370235 -0.52599937
0.14017078 2.3647053 -0.39492211
0.13905546 2.3458896 -0.26193458
0.13963501 2.3556669 -0.1318095
0.14281957 2.4093909 0
0.21250461 3.5849893 0.2005953
0.14397684 2.4796336 -0.81898928
0.13952114 2.4028955 -0.6640684
0.1371925 2.3627908 -0.52431017
0.13612297 2.3443708 -0.39149839
0.13607103 2.3434763 -0.26164654
0.13678855 2.3558338 -0.1318095
0.1402102 2.414763 0
0.20802222 3.5826519 0.2004503
0.13812129 2.4824398 -0.81980348
0.13357463 2.4007232 -0.66337687
0.13134114 2.3605809 -0.5237478
0.13031468 2.3421323 -0.39107081
0.13040736 2.3437982 -0.26164654
0.13138346 2.3613415 -0.13209951
0.13480757 2.4228826 0
0.19893056 3.5753584 0.20001474
0.13512164 2.4826047 -0.81980348
0.13080995 2.4033854 -0.6640684
0.1286267 2.3632727 -0.52431017
0.12776333 2.3474097 -0.39192593
0.12757525 2.3439541 -0.26164654
0.12881285 2.3666925 -0.13239007
0.13145599 2.4152553 0
0.14744599 2.7090414 0.15154067
0.13264717 2.4926388 -0.82306331
0.12790583 2.4035418 -0.6640684
0.12590595 2.3659611 -0.52487248
0.12533623 2.3552551 -0.39321026
0.12501757 2.3492672 -0.26222259
0.12567663 2.3616519 -0.13209951
0.12812249 2.4076133 0
0.14431049 2.7118099 0.15168567
0.12899353 2.4804583 -0.81898928
0.1247412 2.3986886 -0.66268539
0.12357489 2.3762615 -0.52712405
0.12262347 2.3579659 -0.39363781
0.12244777 2.3545876 -0.26279971
0.12268814 2.3592095 -0.13195451
0.12548333 2.4129593 0
0.14076406 2.7067974 0.15139566
0.12574577 2.4756801 -0.81736094
0.12146085 2.3913186 -0.66060823
0.12044602 2.3713386 -0.52599937
0.11951404 2.3529899 -0.39278269
0.11973369 2.3573143 -0.26308775
0.1198374 2.3593562 -0.13195451
0.12270005 2.4157159 0
0.13881119 2.7329116 0.15284678
0.12425006 2.4757557 -0.81736094
0.1205191 2.4014139 -0.66337687
0.11939505 2.3790169 -0.52768636
0.11809245 2.3530617 -0.39278269
0.11804996 2.3522148 -0.2625106
0.11828185 2.3568354 -0.1318095
0.12124056 2.4157896 0
0.13807189 2.7511637 0.15386289
0.12089568 2.4684956 -0.81491524
0.11749477 2.3990545 -0.66268539
0.11639622 2.3766239 -0.52712405
0.11512322 2.3506312 -0.3923535
0.11495488 2.347194 -0.26193458
0.11568796 2.3621624 -0.13209951
0.11819379 2.4133275 0
0 0 0
0.1179129 2.4686399 -0.81491524
0.11519425 2.4117219 -0.6661455
0.11328223 2.3716917 -0.52599937
0.1121605 2.348207 -0.39192593
0.11211867 2.3473313 -0.26193458
0.11233778 2.3519185 -0.13151895
0.11515363 2.4108715 0
0.13067894 2.7359114 0.15299179
0.11366553 2.4416199 -0.80594981
0.11216307 2.4093461 -0.66545135
0.11029792 2.3692813 -0.52543485
0.10932307 2.3483407 -0.39192593
0.10928229 2.347465 -0.26193458
0.10925442 2.3468661 -0.13122895
0.11296685 2.4266119 0
0.12749422 2.7386703 0.15313734
0.10657348 2.3504119 -0.77580005
0.10936572 2.4119933 -0.6661455
0.10755045 2.3719585 -0.52599937
0.10671826 2.353605 -0.39278269
0.10656281 2.3501766 -0.26222259
0.10736021 2.3677628 -0.13239007
0.10968092 2.4189446 0
0.12324338 2.7180562 0.15197623
0.10578736 2.3970809 -0.66199124
0.10479625 2.3746226 -0.52656168
0.1037608 2.3511603 -0.3923535
0.10349515 2.3451407 -0.26164654
0.103926 2.3549037 -0.13166395
0.10629906 2.4086757 0
0.1188132 2.692239 0.15052456
0.10321372 2.4047287 -0.6640684
0.10181805 2.3722115 -0.52599937
0.10103021 2.3538561 -0.39278269
0.10110508 2.3556004 -0.26279971
0.10174926 2.3706088 -0.13253507
0.10350005 2.4113998 0
0.11455735 2.6690185 0.14921844
0.10020355 2.4023473 -0.66337687
0.099057406 2.3748691 -0.52656168
0.098613471 2.3642259 -0.39449292
0.098042935 2.3505476 -0.26222259
0.098667979 2.3655326 -0.13224451
0.10026079 2.4037199 0
0.11133227 2.6691549 0.14921844
0.097503558 2.4074755 -0.66475987
0.095879197 2.367368 -0.52487248
0.095237382 2.351521 -0.3923535
0.095202692 2.3506641 -0.26222259
0.095809624 2.3656502 -0.13224451
0.097988397 2.4194465 0
0.10674017 2.6355379 0.14733176
0.094299324 2.4000781 -0.66268539
0.093417652 2.3776379 -0.52712405
0.092395961 2.3516343 -0.3923535
0.0923623 2.3507776 -0.26222259
0.093053438 2.3683681 -0.13239007
0.09496282 2.4169652 0
0.10437167 2.6564364 0.14849287
0.091494605 2.4026949 -0.66337687
0.090157919 2.3675928 -0.52487248
0.08984755 2.3594422 -0.39363781
0.089620106 2.3534696 -0.2625106
0.090191662 2.3684788 -0.13239007
0.091745131 2.4092739 0
0.10145854 2.6643529 0.14892843
0.089053437 2.4153366 -0.66683704
0.087578028 2.37532 -0.52656168
0.086902067 2.3569863 -0.39321026
0.086585917 2.3484116 -0.26193458
0.087233737 2.3659818 -0.13224451
0.089121684 2.4171877 0
0.09804745 2.6592751 0.14863788
0.085508987 2.3978899 -0.66199124
0.084979594 2.3830445 -0.52825087
0.083870903 2.3519537 -0.3923535
0.08393243 2.3536792 -0.2625106
0.084560223 2.3712842 -0.13253507
0.08610791 2.4146852 0
0.094741657 2.6567974 0.14849287
0.083043344 2.4105253 -0.66545135
0.082012355 2.3805985 -0.52768636
0.080940664 2.3494902 -0.39192593
0.080732197 2.3434391 -0.26135743
0.081426449 2.3635914 -0.13209951
0.083280034 2.4173958 0
0.091352612 2.651721 0.14820288
0.08046402 2.4206536 -0.66822004
0.078882806 2.3730848 -0.52599937
0.078442842 2.359849 -0.39363781
0.078158423 2.3512926 -0.26222259
0.078829519 2.3714817 -0.13253507
0.080359019 2.4174948 0
0.088061877 2.649225 0.14805733
0.077539071 2.4207489 -0.66822004
0.076015338 2.3731785 -0.52599937
0.075509265 2.3573787 -0.39321026
