# .PCD v0.7 - Point Cloud Data file format
VERSION 0.7
FIELDS x y z
SIZE 4 4 4
TYPE F F F
COUNT 1 1 1
WIDTH 1954
HEIGHT 1
VIEWPOINT 0 0 0 1 0 0 0
POINTS 1954
DATA ascii
2.0233901 14.793263 0
2.6250606 19.192152 1.0819814
1.9607676 14.465582 -0.81538099
1.9964259 14.728651 0
2.602916 19.203037 1.082417
1.9443241 14.475659 -0.81581604
0 0 0
2.5786729 19.198441 1.0819814
1.9264892 14.475425 -0.81567103
0 0 0
2.5530748 19.183519 1.0809659
0 0 -0
0 0 0
2.5309117 19.194311 1.0814009
1.8904922 14.472306 -0.81523544
0 0 0
2.5104098 19.217968 1.082562
0 0 -0
1.9120815 14.776572 0
2.4878542 19.226147 1.0828526
0 0 -0
0 0 0
2.4682543 19.257483 1.0844487
1.8344204 14.450716 -0.81363934
0 0 0
2.4462924 19.270761 1.0850292
1.8182547 14.463235 -0.81421989
1.8640234 14.827301 0
2.4246261 19.286591 1.0857548
1.799814 14.457683 -0.81378436
1.835497 14.74432 0
2.4013202 19.289507 1.0857548
1.7813895 14.452107 -0.81334877
1.8224561 14.785274 0
2.3780107 19.292395 1.0857548
1.7645558 14.459414 -0.81363934
1.8030137 14.774551 0
2.3550136 19.29784 1.0859003
1.7555069 14.4579 -0.81349432
1.7965956 14.796296 0
2.3449202 19.312155 1.0866259
1.738036 14.460011 -0.81349432
1.7706416 14.731279 0
2.3175526 19.281439 1.0847392
1.7190269 14.449191 -0.81276822
1.7608335 14.800594 0
3.2286334 27.138109 1.526521
1.7018714 14.453846 -0.81291378
1.7447752 14.818224 0
3.1888509 27.082634 1.5231826
1.681698 14.432655 -0.81160712
1.7280738 14.830662 0
3.1543207 27.070986 1.522312
1.6678292 14.465653 -0.81334877
1.7137296 14.863763 0
3.1204178 27.064453 1.5217315
1.6509385 14.472826 -0.81363934
1.6951779 14.860646 0
3.0877135 27.068203 1.5217315
1.6325754 14.467062 -0.81320381
1.6813067 14.898894 0
3.0555868 27.077074 1.5220215
1.6254709 14.561991 -0.81842881
1.6644568 14.911251 0
3.0191202 27.047176 1.5201348
1.611581 14.597517 -0.82031548
1.6518646 14.962402 0
2.9847264 27.035313 1.5192642
1.6026832 14.679523 -0.82481438
1.6374559 14.998017 0
2.9529037 27.046652 1.5196998
1.6050242 14.867446 -0.83526385
1.6279911 15.080189 0
2.9207783 27.055363 1.5199898
1.6000193 14.990805 -0.842085
1.6139117 15.120965 0
2.8872573 27.051117 1.5195543
1.5982628 15.147763 -0.85079283
1.5994624 15.159133 0
2.8553874 27.062342 1.5199898
1.5821147 15.170359 -0.85195392
1.5916717 15.261997 0
2.8221474 27.060608 1.5196998
1.5643165 15.177434 -0.8522445
1.5769653 15.300157 0
2.8810866 27.953106 1.569625
1.5472926 15.192236 -0.85297006
0 0 0
2.8491521 27.974665 1.5706412
1.5294544 15.199261 -0.85326004
0 0 0
2.8153479 27.978086 1.5706412
1.5087749 15.177829 -0.85195392
0 0 0
2.7846243 28.012495 1.5723828
1.4911963 15.187401 -0.85238951
1.5391074 15.675362 0
2.7517893 28.026175 1.5729628
1.4763547 15.225395 -0.85442114
1.5344826 15.824858 0
2.7224379 28.076038 1.5755756
1.4751312 15.309052 -0.85906565
1.5184321 15.758433 0
2.7092128 28.116467 1.5777522
1.4721357 15.473782 -0.868209
1.5075228 15.84574 0
2.6813898 28.184387 1.5813806
1.4536803 15.478134 -0.86835402
1.492512 15.891597 0
2.6570513 28.291088 1.5871862
1.4479282 15.619591 -0.87619126
1.4694664 15.851936 0
2.6281414 28.351194 1.590379
1.4323674 15.657552 -0.87822294
1.4659579 16.024736 0
2.5979066 28.398338 1.5928462
1.4239588 15.775725 -0.88475406
1.457824 16.150909 0
2.5656929 28.424746 1.5941523
1.4108876 15.844723 -0.88852739
1.4491558 16.274488 0
2.5301931 28.414886 1.5934267
1.398561 15.924066 -0.89288133
1.428352 16.263268 0
2.4938116 28.394629 1.5921206
1.3862687 16.005987 -0.89738023
0 0 0
2.4586036 28.387266 1.5915401
1.3656015 15.992122 -0.89650965
0 0 0
2.4243014 28.390215 1.5915401
1.3528154 16.071434 -0.90086359
0 0 0
2.3906488 28.400885 1.5919751
1.3409135 16.163683 -0.90594304
1.8127323 21.851099 0
2.3554709 28.393394 1.5913945
1.3321778 16.297365 -0.91334474
1.7852676 21.840296 0
2.3207383 28.391045 1.5911045
1.3124846 16.298964 -0.91334474
1.753237 21.772404 0
2.2872658 28.404188 1.5916851
1.3032663 16.432636 -0.92074645
1.7310432 21.826393 0
2.252532 28.401747 1.5913945
1.2912998 16.535233 -0.92640698
1.7040609 21.820683 0
2.2182124 28.404448 1.5913945
1.2729119 16.557497 -0.92756754
1.6751006 21.788996 0
2.1878731 28.458923 1.5942973
1.263099 16.693758 -0.9351148
1.6501462 21.809172 0
2.1944563 29.003052 1.6246302
1.2483277 16.767818 -0.93917817
1.6222471 21.790386 0
2.1700201 29.148195 1.6326125
1.2324314 16.82892 -0.94251651
1.5953461 21.784542 0
2.1473231 29.321819 1.6421908
1.219002 16.926289 -0.94788653
1.5712659 21.817604 0
2.120291 29.441019 1.6487219
1.2024027 16.98218 -0.95093429
1.541778 21.775356 0
2.0931575 29.562784 1.6553981
1.186572 17.05101 -0.95470768
1.5142007 21.759027 0
2.0722258 29.777836 1.6672987
1.186641 17.202063 -0.96312493
1.4928163 21.640512 0
2.0637126 29.916471 1.674991
1.1772746 17.371994 -0.97255886
1.4703619 21.696825 0
2.0370491 30.058924 1.6828277
1.1643927 17.495255 -0.97937995
1.449329 21.776484 0
2.0109076 30.214325 1.6913905
1.1429131 17.491457 -0.97908944
1.4226762 21.773029 0
1.9821913 30.336002 1.6980666
1.1231076 17.513571 -0.98025054
1.3940353 21.738379 0
1.9576739 30.527672 1.7086617
1.1025977 17.525288 -0.98083109
1.3676039 21.737442 0
1.9317162 30.703749 1.718385
1.3130264 21.706915 0
1.8739843 30.980656 1.733624
1.2883371 21.73447 0
1.8468502 31.156681 1.7433479
1.2617724 21.730808 0
1.8188413 31.3249 1.7526362
1.2352189 21.727127 0
1.7899866 31.485323 1.7614896
0.67484367 12.128896 -0.67852163
1.2089649 21.728603 0
1.7607462 31.64571 1.7703425
0.66159964 12.155643 -0.67997271
1.1828506 21.732645 0
1.7304149 31.793104 1.7784697
0.64635915 12.146054 -0.67939216
1.1546541 21.69768 0
1.6948975 31.849659 1.7815175
0.63127756 12.139039 -0.67895663
1.1277598 21.686056 0
1.9617822 37.723743 2.1099515
0 0 -0
1.0981234 21.619829 0
1.9135629 37.674183 2.1070487
0 0 -0
1.0449369 21.075321 0
1.871771 37.751728 2.1112576
0 0 -0
1.0178363 21.042778 0
1.8280368 37.792885 2.1134343
0 0 -0
0.99204159 21.036192 0
1.789959 37.95599 2.1224327
0.55482745 12.075149 -0.67518324
0.96733922 21.052969 0
1.7494621 38.074928 2.1289637
0.53965604 12.062833 -0.67445773
0.94213301 21.059326 0
1.7032223 38.071815 2.1286733
0.52508008 12.063477 -0.67445773
0.91713887 21.07085 0
1.6567668 38.063461 2.1280928
0.51756918 12.058604 -0.67416769
0.90987659 21.198793 0
1.6327676 38.041096 2.1267865
0.50256515 12.048836 -0.67358714
0.886105 21.244078 0
1.5868012 38.043041 2.1267865
0.48821625 12.054622 -0.67387712
0.86443681 21.343943 0
1.5407274 38.042336 2.1266415
0.47324216 12.044818 -0.67329657
0.84211993 21.433382 0
1.4954733 38.062336 2.1276572
0.45858923 12.042787 -0.67315161
0.81651843 21.442188 0
1.4525466 38.144611 2.1321566
0.44403756 12.043332 -0.67315161
0.79415691 21.539385 0
1.4101888 38.247604 2.1378167
0.42892942 12.028274 -0.67228049
0.76859385 21.553329 0
1.3662879 38.314198 2.1414449
0.41412714 12.021 -0.6718455
0.74407351 21.598457 0
1.3205284 38.331398 2.1423156
0.39942899 12.016293 -0.67155492
0.71797544 21.59934 0
1.2742114 38.332962 2.1423156
0.38466004 12.008983 -0.67111993
0.69229287 21.613195 0
1.2267281 38.298122 2.1402838
0.36974877 11.996445 -0.67039376
0.66657782 21.62702 0
1.1807716 38.309963 2.1408644
0.3557916 12.015067 -0.6714099
0.64036834 21.62521 0
1.1342499 38.30357 2.1404288
0.34097838 12.005098 -0.67082936
0.61475533 21.644182 0
1.0893685 38.354263 2.1431866
0.32654288 12.008097 -0.67097437
0.58874345 21.650106 0
1.4072698 51.750114 2.8916323
0.31169578 11.995497 -0.67024881
0.56292105 21.663807 0
1.3446712 51.749172 2.8914866
0.29707277 11.990674 -0.66995877
0.53919345 21.763332 0
1.2820772 51.748165 2.8913417
0.28227788 11.978028 -0.66923267
0.5144906 21.831619 0
1.2197936 51.760067 2.8919222
0.26774654 11.975765 -0.66908771
0.48909983 21.876453 0
1.1564378 51.72514 2.8898907
0.2531113 11.968294 -0.66865265
0.46294114 21.890036 0
1.094816 51.768055 2.8922124
0.23870154 11.971187 -0.66879767
0.43778798 21.955626 0
1.0320567 51.758957 2.8916323
0.22418791 11.968871 -0.66865265
0.41198951 21.995161 0
0.96980721 51.775749 2.8925028
0.20972571 11.969133 -0.66865265
0.3869625 22.08411 0
0.90870237 51.86002 2.8971474
0.2024065 11.964056 -0.66836214
0.37428063 22.123375 0
0 0 0
0 0 -0
0.3485705 22.188862 0
0 0 0
0 0 -0
0.3273814 22.576977 0
0 0 0
0 0 -0
0.30110437 22.652819 0
0 0 0
0 0 -0
0.27404702 22.679184 0
0 0 0
0 0 -0
0.14269938 13.121574 0
0 0 0
0 0 -0
0.12624076 13.05929 0
0.33728755 34.891552 1.9489998
0 0 -0
0.11160561 13.194748 0
0.29541337 34.925709 1.9508865
0 0 -0
0.096379183 13.29376 0
0.25281668 34.871475 1.9478387
0 0 -0
0 0 0
0.21053986 34.848373 1.9465326
0 0 -0
0.064466923 13.338194 0
0.16838202 34.838207 1.9459519
0 0 -0
0.048642695 13.418932 0
0.12623024 34.8228 1.9450815
0 0 -0
0.032503974 13.450211 0
0.084153593 34.822929 1.9450815
0 0 -0
0 0 0
0.042042285 34.794418 1.9434848
-0 0 -0
-0 0 0
-0 34.789253 1.9431947
-0 0 -0
-0 0 0
-0.041998338 34.758045 1.9414531
-0 0 -0
-0 0 0
-0 0 0
-0.043148734 11.903327 -0.66487879
-0.17299287 47.723087 0
-0 0 0
-0.057468764 11.890277 -0.66415322
-0.23098378 47.790501 0
-0.17005229 35.183784 1.9652549
-0 0 -0
-0.28839892 47.735538 0
-0.2123294 35.144577 1.9630777
-0 0 -0
-0.38733897 53.426388 0
-0.2547946 35.144295 1.9630777
-0 0 -0
-0 0 0
-0.29561114 34.949093 1.9521925
-0 0 -0
-0 0 0
-0.33505222 34.660313 1.9360831
-0 0 -0
-0 0 0
-0.37625414 34.597534 1.9326003
-0 0 -0
-0 0 0
-0.41786978 34.581459 1.9317292
-0 0 -0
-0.95412457 71.781128 0
-0.45951626 34.570534 1.9311486
-0 0 -0
-1.0849308 71.826126 0
-0.52311498 34.632 1.9346319
-0 0 -0
-1.1703594 71.741493 0
-0.5655539 34.667713 1.9366636
-0 0 -0
-1.2567706 71.724419 0
-0.60798889 34.698181 1.9384053
-0 0 -0
-1.3445555 71.782692 0
-0.65079027 34.744179 1.9410175
-0 0 -0
-1.1781673 59.086594 0
-0.69287509 34.748569 1.9413081
-0 0 -0
-1.2497262 59.092937 0
-0.7347514 34.742504 1.9410175
-0 0 -0
-0 0 0
-0.77609169 34.713024 1.9394214
-0 0 -0
-0.85176301 36.143253 0
-0.84882653 36.01865 2.0124228
-0.29359758 11.850407 -0.66212153
-0.89730364 36.217648 0
-0.89196116 36.002007 2.0115516
-0.30778113 11.844843 -0.66183096
-0.93998331 36.174911 0
-0.93471962 35.972336 2.0099556
-0.32173997 11.831477 -0.66110545
-0.98333931 36.160744 0
-0.97761941 35.950401 2.0087945
-0.33596206 11.828485 -0.66096044
-1.0264406 36.138718 0
-1.0188446 35.871277 2.0044405
-0.35017741 11.825476 -0.66081542
-1.0699522 36.13224 0
-1.0626487 35.885597 2.005311
-0.36446592 11.825044 -0.66081542
-1.1136904 36.133522 0
-1.1058487 35.879101 2.0050211
-0.37867081 11.822001 -0.6606704
-1.1573498 36.132149 0
-1.1491174 35.875134 2.0048757
-0.39252323 11.808541 -0.6599443
-1.2018723 36.156738 0
-1.2056718 36.271038 2.0270805
-0.40679124 11.808059 -0.6599443
-1.2454704 36.152664 0
-1.2477084 36.217628 2.0241785
-0.42096618 11.804964 -0.65979934
-1.2898945 36.171928 0
-1.2923952 36.242058 2.0256295
-0.4353255 11.807041 -0.6599443
-0 0 0
-1.3361858 36.240467 2.0256295
-0.4495917 11.806506 -0.6599443
-1.6059561 42.173225 0
-1.3789858 36.212868 2.0241785
-0.4638572 11.805954 -0.6599443
-1.6568105 42.168644 0
-1.6571583 42.177494 2.3576913
-0.47833258 11.810583 -0.66023487
-1.7079728 42.171818 0
-1.7025477 42.037868 2.3499997
-0.48525423 11.805095 -0.6599443
-1.7312061 42.116173 0
-1.7219683 41.891441 2.3418717
-0.49951801 11.8045 -0.6599443
-1.7847347 42.176456 0
-1.7715961 41.865967 2.3405657
-0.51400727 11.809084 -0.66023487
-1.8339977 42.135265 0
-1.8225207 41.871586 2.3410013
-0.5279274 11.800664 -0.65979934
-3.1999795 71.528557 0
-1.6007999 35.782391 2.0006666
-0.54218578 11.800018 -0.65979934
-3.2842555 71.477844 0
-1.6439157 35.777836 2.0005217
-0.55668843 11.80455 -0.66008985
-0 0 0
-1.6862885 35.75766 1.9995061
-0 0 -0
-2.2399228 46.308228 0
-1.7294934 35.755596 1.9995061
-0 0 -0
-2.2960043 46.308086 0
-1.7770705 35.841717 2.0044405
-0 0 -0
-2.3501089 46.268894 0
-1.8290758 36.010803 2.014019
-0 0 -0
-2.4062841 46.271214 0
-1.8775793 36.10458 2.0193889
-0 0 -0
-2.4612238 46.25008 0
-1.9238265 36.151577 2.0221462
-0 0 -0
-2.5179553 46.262669 0
-1.967931 36.157013 2.0225818
-0 0 -0
-2.5716839 46.220612 0
-2.0110409 36.14423 2.0220013
-0 0 -0
-2.6232469 46.142124 0
-2.0595796 36.227383 2.0267906
-0 0 -0
-2.6684396 45.957066 0
-2.1019962 36.201523 2.0254846
-0 0 -0
-2.706567 45.660252 0
-2.1454294 36.193764 2.0251939
-0 0 -0
-2.7579653 45.594604 0
-2.1893182 36.193745 2.0253396
-0 0 -0
-2.8114531 45.565266 0
-2.2336898 36.201447 2.0259202
-0 0 -0
-2.8681417 45.587807 0
-2.276778 36.188351 2.0253396
-0 0 -0
-2.919893 45.532372 0
-2.3542583 36.711948 2.0548012
-0 0 -0
-3.4752936 53.186852 0
-2.3945496 36.646847 2.0513179
-0.78858209 11.848618 -0.66328263
-3.5411122 53.205982 0
-3.1566303 47.429058 2.655067
-0.8032493 11.852836 -0.66357267
-3.6110294 53.284752 0
-3.2134097 47.417431 2.6546314
-0.81165099 11.870498 -0.66458875
-3.6480138 53.352657 0
-3.0135846 44.074051 2.4675562
-0.8283385 11.903204 -0.66647547
-3.7155485 53.392345 0
-3.0682805 44.091118 2.4687173
-0.84455544 11.928109 -0.66792655
-3.7820821 53.416374 0
-3.126509 44.15736 2.4726362
-0.86363375 11.991871 -0.67155492
-3.8419492 53.346874 0
-3.1787419 44.137997 2.471765
-0.88021076 12.019328 -0.67315161
-3.8976624 53.222801 0
-0 0 0
-0.89724082 12.051939 -0.67503828
-3.9515357 53.077911 0
-3.3673818 45.231426 2.5334466
-0.91552687 12.100069 -0.67779547
-4.0170417 53.091267 0
-3.4220326 45.227325 2.5334466
-0.93174016 12.11968 -0.67895663
-4.0821862 53.099346 0
-3.4722972 45.166164 2.5302536
-0.95184624 12.188494 -0.68287551
-4.1483693 53.120316 0
-4.7843437 61.264034 3.4323938
-0.96759999 12.200283 -0.68360108
-4.2351847 53.400639 0
-4.8604198 61.284107 3.4338448
-0.98901427 12.281978 -0.688245
-0 0 0
-0 0 0
-1.0087231 12.340342 -0.69158334
-0 0 0
-0 0 0
-1.0285736 12.398666 -0.69492114
-4.3613868 52.573174 0
-3.0067883 36.244526 2.031435
-1.0494392 12.467327 -0.69884002
-4.424036 52.557503 0
-3.0516701 36.253811 2.0321608
-1.0702505 12.53336 -0.70261335
-4.483995 52.510628 0
-0 0 0
-1.0918957 12.607129 -0.70682228
-4.5483389 52.515545 0
-0 0 0
-1.1157666 12.704158 -0.71233732
-4.6083746 52.471119 0
-0 0 0
-1.137108 12.770089 -0.71611065
-3.7074342 41.635681 0
-5.3053226 59.580482 3.3411057
-1.189032 12.997592 -0.72902733
-3.8082774 41.629192 0
-4.0567374 44.345169 2.4872947
-1.2128904 13.084111 -0.73396182
-3.8592963 41.632336 0
-4.107439 44.309185 2.485553
-1.2415755 13.219738 -0.7416535
-5.4883804 58.437805 0
-4.1590309 44.283493 2.4843919
-1.267392 13.321699 -0.74745911
-5.5565224 58.405228 0
-4.4231849 46.492592 2.6086245
-1.2981913 13.472752 -0.75602192
-5.1705718 53.660686 0
-4.4758706 46.451008 2.6065929
-1.3148569 13.559896 -0.76095635
-5.2060041 53.688637 0
-4.5029297 46.43795 2.6060123
-1.3396193 13.643632 -0.76574582
-5.718431 58.240559 0
-0 0 0
-1.3787221 13.869535 -0.77851754
-8.5594454 86.105484 0
-0 0 0
-1.4090071 14.002291 -0.78606427
-8.6595726 86.056244 0
-0 0 0
-1.4422481 14.160848 -0.7950626
-8.7606478 86.017235 0
-0 0 0
-1.4705453 14.267639 -0.80115765
-0 0 0
-4.5532384 44.176788 2.4806185
-1.4972177 14.35631 -0.80623764
-0 0 0
-4.6125431 44.228107 2.4838114
-1.5273772 14.475936 -0.81305879
-0 0 0
-4.6700702 44.261253 2.4859879
-1.5616884 14.631678 -0.82191157
-7.4581032 69.876015 0
-4.7276845 44.294338 2.4881651
-0 0 -0
-7.5469975 69.90834 0
-4.7973776 44.438427 2.496583
-0 0 -0
-7.6196008 69.790527 0
-0 0 0
-0 0 -0
-7.7079215 69.817474 0
-5.1519566 46.66584 2.6224124
-0 0 -0
-0 0 0
-5.1945028 46.535625 2.6154456
-0 0 -0
-7.5206008 66.643784 0
-5.2737465 46.733288 2.6269112
-0 0 -0
-7.5854897 66.497612 0
-5.3358064 46.775936 2.629669
-0 0 -0
-7.6667271 66.496147 0
-0 0 0
-0 0 -0
-7.7461662 66.479088 0
-5.3396678 45.826054 2.5769861
-0 0 -0
-7.815836 66.379211 0
-5.3965545 45.83247 2.5777116
-0 0 -0
-7.8988042 66.39299 0
-5.3131852 44.659702 2.5121119
-0 0 -0
-7.9752946 66.352386 0
-5.3814073 44.771919 2.5187881
-0 0 -0
-8.0557766 66.345284 0
-5.4483428 44.87114 2.5247386
-0 0 -0
-8.1378355 66.350998 0
-5.5035048 44.872253 2.5251737
-0 0 -0
-0 0 0
-5.5427074 44.744377 2.5183525
-0 0 -0
-0 0 0
-4.2495179 33.96843 1.9121363
-0 0 -0
-8.5814991 67.929558 0
-4.2895813 33.955532 1.9117007
-0 0 -0
-8.6104107 67.828835 0
-4.3133678 33.978718 1.9131525
-0 0 -0
-8.6969938 67.854515 0
-4.3570642 33.994102 1.9143136
-0 0 -0
-0 0 0
-4.4014702 34.014576 1.9157647
-0 0 -0
-8.8558912 67.794601 0
-4.4449234 34.027271 1.9167808
-0 0 -0
-8.943924 67.830292 0
-4.4571638 33.802914 1.9044446
-0 0 -0
-9.0251913 67.814278 0
-4.4736671 33.614635 1.8941401
-0 0 -0
-9.1033134 67.774948 0
-4.5080547 33.562855 1.8915279
-0 0 -0
-9.1865978 67.774216 0
-4.5472097 33.547081 1.8909473
-0 0 -0
-9.2702465 67.775955 0
-4.592319 33.575031 1.8928341
-0 0 -0
-0 0 0
-4.6328845 33.569458 1.8928341
-0 0 -0
-0 0 0
-4.6695008 33.535522 1.8912374
-0 0 -0
-0 0 0
-6.4521732 45.931969 2.5907733
-0 0 -0
-0 0 0
-6.5040231 45.898415 2.5893223
-0 0 -0
-0 0 0
-0 0 0
-0 0 -0
-0 0 0
-6.6775823 46.317188 2.6138496
-0 0 -0
-0 0 0
-6.7548528 46.455643 2.6221218
-0 0 -0
-0 0 0
-0 0 0
-0 0 -0
-0 0 0
-6.74509 45.614094 2.5755343
-0 0 -0
-0 0 0
-6.7860236 45.510834 2.5701649
-0 0 -0
-0 0 0
-8.4259892 56.045002 3.1656411
-0 0 -0
-8.6630688 57.15213 0
-6.9216857 45.663845 2.5797434
-0 0 -0
-8.7368364 57.172482 0
-7.0212097 45.945694 2.5961435
-0 0 -0
-8.8059111 57.16188 0
-2.8939438 18.78548 1.061663
-0 0 -0
-8.818965 57.017685 0
-2.8953636 18.719534 1.0580347
-0 0 -0
-0 0 0
-2.9211826 18.736561 1.0591958
-0 0 -0
-8.826642 56.168392 0
-2.9426093 18.725315 1.0587603
-0 0 -0
-8.8619375 55.952072 0
-2.9636071 18.711479 1.0581797
-0 0 -0
-8.9045143 55.784557 0
-2.986625 18.710459 1.0583253
-0 0 -0
-8.9735661 55.784035 0
-3.0125322 18.72736 1.0594864
-0 0 -0
-9.0476265 55.814255 0
-3.0368214 18.733965 1.0600669
-0 0 -0
-9.113802 55.795574 0
-3.0594556 18.730282 1.0600669
-0 0 -0
-9.1837502 55.799934 0
-3.0825069 18.729134 1.0602119
-0 0 -0
-9.2247705 55.62962 0
-3.1047103 18.722834 1.0600669
-0 0 -0
-0 0 0
-3.1495147 18.712708 1.0599214
-0 0 -0
-0 0 0
-3.175164 18.726824 1.0609375
-0 0 -0
-0 0 0
-3.203913 18.758827 1.0629692
-0 0 -0
-0 0 0
-3.0168815 17.536057 0.99388665
-0 0 -0
-0 0 0
-3.0425038 17.557997 0.99533778
-0 0 -0
-9.6882458 55.511147 0
-3.0668447 17.572227 0.99635392
-0 0 -0
-9.7562151 55.504532 0
-3.0921233 17.591539 0.99766004
-0 0 -0
-9.8259954 55.508072 0
-3.1165478 17.605703 0.99867612
-0 0 -0
-9.9063044 55.570457 0
-3.1359944 17.591692 0.99809557
-0 0 -0
-9.9918356 55.660912 0
-3.1567879 17.585325 0.99795002
-0 0 -0
-10.075285 55.738422 0
-3.1738746 17.558489 0.9966439
-0 0 -0
-10.145887 55.744125 0
-3.1992755 17.577646 0.99795002
-0 0 -0
-10.152915 55.592068 0
-3.2103627 17.578274 0.99809557
-0 0 -0
-10.199842 55.469707 0
-3.2278409 17.553936 0.99693447
-0 0 -0
-10.269701 55.472691 0
-10.237962 55.301247 3.1414044
-0 0 -0
-10.357702 55.572811 0
-10.312868 55.33226 3.1438715
-0 0 -0
-10.435881 55.61908 0
-3.4490943 18.382298 1.0446824
-0 0 -0
-10.508874 55.637115 0
-3.2832267 17.382381 0.9880811
-0 0 -0
-10.57269 55.60648 0
-3.3153911 17.437117 0.99141943
-0 0 -0
-11.317386 59.133694 0
-3.3403656 17.453516 0.99258053
-0 0 -0
-11.392767 59.140419 0
-3.3673487 17.480074 0.9943217
-0 0 -0
-0 0 0
-3.394403 17.506605 0.99606335
-11.475341 58.803654 0
-5.3091698 27.206039 1.5482905
-11.545382 58.784641 0
-5.3355293 27.16646 1.5464038
-11.608834 58.732349 0
-5.3618011 27.126858 1.5445172
-11.687916 58.759121 0
-5.3844361 27.069389 1.5416143
-11.769632 58.798542 0
-3.4807274 17.388962 0.99054831
-11.821144 58.687336 0
-3.4899364 17.326164 0.98721051
-12.31956 60.782269 0
-3.5062242 17.299017 0.9859044
-12.410155 60.851486 0
-5.5037827 26.98704 1.5384215
-12.477396 60.805855 0
-5.5389981 26.993095 1.5391471
-0 0 0
-5.5663571 26.960939 1.537696
-0 0 -0
-0 0 0
-5.6063275 26.989807 1.5397277
-0 0 -0
-12.3549 59.119747 0
-5.6405306 26.990646 1.5401632
-0 0 0
-5.6726055 26.98127 1.5400182
-12.296648 58.312973 0
-3.7727938 17.891285 1.0213162
-12.347119 58.203888 0
-3.7900975 17.866388 1.0201557
-12.388109 58.051491 0
-3.8138497 17.87195 1.0207356
-12.434211 57.924522 0
-3.8332624 17.857176 1.0201557
-12.50639 57.919632 0
-3.8482554 17.822052 1.018414
-12.562004 57.83836 0
-3.8427639 17.692968 1.0113024
-12.626328 57.797718 0
-3.844177 17.596933 1.0060779
-12.692804 57.767162 0
-3.8671081 17.599882 1.0065129
-12.776634 57.815311 0
-3.890614 17.605345 1.0070934
-12.835193 57.749031 0
-3.9214673 17.643751 1.0095606
-13.535094 60.552532 0
-3.9643221 17.735357 1.0150757
-0 0 -0
-13.174475 58.606487 0
-3.9885979 17.743229 1.0158012
-0 0 -0
-13.238394 58.560066 0
-4.0071697 17.725725 1.0150757
-13.286068 58.442524 0
-4.0297384 17.725943 1.0153662
-13.361314 58.446724 0
-4.0482588 17.708399 1.0146407
-13.45991 58.552273 0
-4.0702348 17.706024 1.0147856
-6.5779152 28.457216 0
-5.8412943 25.270466 1.4487301
-6.615243 28.461929 0
-5.8588839 25.207712 1.4455373
-9.6094999 41.119274 0
-5.8863821 25.187965 1.4448117
-9.6526289 41.079762 0
-5.9275103 25.226362 1.4474239
-9.71243 41.111126 0
-5.9669466 25.257107 1.4496007
-9.7681131 41.124683 0
-6.0016646 25.267576 1.4506167
-0 0 -0
-9.8214235 41.128033 0
-6.0189142 25.20471 1.4474239
-0 0 -0
-9.8644276 41.088299 0
-6.0542178 25.217632 1.448585
-0 0 -0
-9.9012461 41.023224 0
-6.0767589 25.177464 1.4466984
-2.1094506 8.7168627 -0.99963635
-0 0 -0
-9.9199076 40.991943 0
-6.0870795 25.153584 1.4455373
-2.1071429 8.6615334 -0.99358249
-6.7608018 27.79067 0
-6.5320477 26.850363 1.543501
-2.111464 8.6338615 -0.99070013
-6.9495478 28.416983 0
-6.562017 26.832354 1.5429205
-2.1050203 8.5182514 -0.97801524
-7.0394268 28.486 0
-6.6255956 26.811377 1.5426304
-2.103466 8.4680157 -0.97253853
-7.0738416 28.477474 0
-6.6680098 26.8437 1.5449526
-2.100539 8.4127722 -0.96648467
-10.201069 40.855827 0
-6.6922579 26.802853 1.543066
-2.1006291 8.3700886 -0.96187198
-10.249795 40.84095 0
-6.7088265 26.731743 1.5394377
-2.0942941 8.3023434 -0.95437694
-10.292771 40.803307 0
-6.3032446 24.987753 1.4394417
-2.0966964 8.269721 -0.95091742
-10.331191 40.747948 0
-6.3347087 24.985151 1.4397317
-2.0888062 8.1970119 -0.94284636
-10.694658 41.968586 0
-6.3591199 24.954819 1.4384257
-2.0954988 8.1819468 -0.94140404
-6.3871646 24.938904 0
-6.3899121 24.949633 1.4385706
-2.0924911 8.1293221 -0.93563932
-6.4069138 24.890842 0
-6.4252362 24.962025 1.4397317
-2.0945389 8.0967388 -0.93217981
-2.3219552 8.9758492 -0.51786041
-10.574943 40.878948 0
-6.4469337 24.921541 1.437845
-2.0913048 8.044137 -0.92641395
-2.3269155 8.9504061 -0.5165543
-10.643315 40.939171 0
-6.4652743 24.868471 1.4352328
-2.0905619 8.001564 -0.92180127
-2.3337862 8.932498 -0.51568317
-10.696723 40.941395 0
-6.4880924 24.832983 1.4336362
-2.0877507 7.9515076 -0.91632456
-2.3425975 8.9221296 -0.51524764
-10.762047 40.98885 0
-6.5213952 24.8377 1.4343623
-2.0854805 7.9039679 -0.91113585
-2.3513896 8.9117622 -0.51481265
-8.2488375 31.263081 0
-6.5606813 24.864971 1.436394
-2.0850854 7.8639383 -0.90681118
-2.3601575 8.9013777 -0.51437706
-8.2719345 31.197752 0
-6.5933847 24.867073 1.4369745
-2.0892587 7.8414187 -0.90450484
-2.3796074 8.9311581 -0.51626378
-8.3096247 31.187735 0
-6.636807 24.909306 1.4398773
-2.0873609 7.7964168 -0.89960414
-2.387038 8.9157286 -0.51553822
-8.3452854 31.170137 0
-6.6648831 24.893734 1.4394417
-2.0840147 7.7464404 -0.89412743
-2.4092844 8.955492 -0.51800543
-8.3883486 31.180126 0
-6.7138567 24.955912 1.443505
-2.0758982 7.6977296 -0.88864958
-2.4187524 8.9690828 -0.51887602
-8.4085417 31.180082 0
-6.7336693 24.969416 1.4445212
-2.0770802 7.6652579 -0.88519007
-2.4146383 8.9109821 -0.51568317
-8.4441671 31.162361 0
-6.7509246 24.913616 1.441764
-2.0781868 7.6327949 -0.88173056
-0 0 -0
-11.323109 41.587681 0
-6.7741952 24.880363 1.4403123
-0 0 -0
-2.0723941 7.5753975 -0.87538868
-0 0 -0
-11.376098 41.584007 0
-6.7980828 24.849606 1.4390062
-0 0 -0
-2.078804 7.562912 -0.87423551
-0 0 -0
-11.435993 41.60537 0
-6.8198395 24.811308 1.4372644
-2.0721066 7.5030589 -0.86760563
-2.2501745 8.1478395 -0.47214359
-11.491796 41.61158 0
-6.8518901 24.810566 1.4377
-2.0694156 7.4581828 -0.86270493
-2.248208 8.1025515 -0.46967635
-11.540677 41.592655 0
-6.8839488 24.809782 1.4381356
-2.0756476 7.4457111 -0.86155176
-2.2733462 8.154891 -0.47286916
-11.590925 41.578678 0
-6.9027572 24.761398 1.4358134
-2.0706913 7.3933845 -0.85578591
-2.2754915 8.1246214 -0.47127303
-11.63905 41.557121 0
-6.9228616 24.718014 1.4337817
-2.0775211 7.3834052 -0.85492074
-2.276861 8.0918503 -0.46953136
-11.714632 41.633217 0
-6.9421659 24.672108 1.4316045
-2.0667434 7.3112087 -0.84684968
-2.2802761 8.0665913 -0.46822524
-11.777671 41.664104 0
-6.9712658 24.661203 1.4314594
-2.0720437 7.296268 -0.8454085
-2.2871819 8.0538311 -0.46764469
-8.1546526 28.714903 0
-7.0067377 24.67276 1.4326205
-2.073761 7.2688818 -0.84252501
-2.29406 8.0410671 -0.46706411
-8.1800623 28.672497 0
-7.0458117 24.696756 1.4345073
-2.0761299 7.2439957 -0.83993065
-0 0 -0
-8.1881723 28.570028 0
-7.0785112 24.698217 1.4350878
-2.0741494 7.2042065 -0.83560711
-2.3386455 8.1228886 -0.47214359
-8.1787691 28.40757 0
-7.1126614 24.704622 1.4359584
-2.3491797 8.12255 -0.47228858
-8.1899509 28.317665 0
-7.1417856 24.693518 1.4358134
-0 0 -0
-2.3270979 8.009923 -0.46590301
-8.2132692 28.270258 0
-7.1665421 24.6674 1.4347973
-0 0 -0
-2.3535182 8.0644789 -0.46924135
-8.2445087 28.25033 0
-7.1912489 24.64127 1.4337817
-0 0 -0
-0 0 -0
-8.2757092 28.230358 0
-7.2122464 24.60264 1.43204
-0 0 -0
-0 0 -0
-20.660072 70.162125 0
-7.2228866 24.529104 1.4282666
-0 0 -0
-20.733765 70.099678 0
-7.2466235 24.500423 1.4271055
-2.0711241 6.9868307 -0.81225568
-0 0 -0
-8.304738 28.015606 0
-7.2643785 24.506006 1.4276861
-2.0766125 6.9744072 -0.81110257
-2.2438478 7.5360761 -0.43919903
-8.3341255 27.990582 0
-7.2354064 24.300476 1.4162205
-2.0776286 6.9471173 -0.80822015
-2.2626302 7.5657206 -0.4410857
-11.485469 38.404793 0
-7.2275391 24.167246 1.4089638
-2.080812 6.9272594 -0.80620182
-2.262053 7.5306315 -0.43919903
-11.526623 38.373436 0
-7.2402911 24.10375 1.405771
-2.0832071 6.9049397 -0.80389661
-2.2809069 7.5602307 -0.4410857
-11.572982 38.359482 0
-7.2761645 24.117373 1.4070772
-2.0862975 6.885088 -0.80187827
-0 0 -0
-11.604986 38.298153 0
-7.3037949 24.103594 1.4067872
-2.0923555 6.8751364 -0.80101311
-0 0 -0
-8.1977329 26.936405 0
-7.3329139 24.094751 1.4067872
-2.0961263 6.8577666 -0.79928392
-0 0 -0
-8.1838703 26.774664 0
-7.362781 24.088356 1.4069321
-0 0 -0
-2.0975804 6.8329778 -0.79668957
-2.239645 7.2957602 -0.42628232
-8.1879625 26.672714 0
-7.4002676 24.106758 1.4085282
-0 0 -0
-2.1088834 6.8403249 -0.79784274
-2.2369747 7.2557998 -0.42410508
-8.2071514 26.620525 0
-7.4447017 24.147461 1.4114311
-2.1148512 6.8303571 -0.79697758
-2.2319081 7.2084169 -0.42149284
-8.2277641 26.573296 0
-7.5046158 24.237736 1.4172367
-0 0 -0
-2.1231029 6.8277969 -0.79697758
-2.245244 7.2205973 -0.4223634
-8.2513685 26.536005 0
-7.5439262 24.260904 1.4191233
-2.1321216 6.827693 -0.79726559
-2.2454493 7.1906028 -0.42076728
-8.3082466 26.605499 0
-7.5716844 24.246805 1.4188328
-2.1395967 6.8226461 -0.79697758
-2.2448056 7.1581316 -0.4190256
-8.3473969 26.617788 0
-7.5885358 24.197969 1.4165105
-2.1478391 6.820056 -0.79697758
-2.2472091 7.1355863 -0.4178645
-8.3865881 26.630022 0
-7.606843 24.154089 1.4144789
-2.1568573 6.8199196 -0.79726559
-2.2464268 7.1031361 -0.41612282
-4.1616974 13.159164 0
-7.6328888 24.13497 1.4138982
-2.1690102 6.8296318 -0.79870677
-2.2526476 7.0929842 -0.41568726
-4.1846833 13.176448 0
-7.6565423 24.1084 1.4128827
-2.1772606 6.8270059 -0.79870677
-2.2501647 7.0556035 -0.41365558
-4.2085104 13.196181 0
-7.6840863 24.094175 1.4125922
-2.1839321 6.8194485 -0.79813075
-2.257102 7.0479255 -0.41336504
-4.2252455 13.193563 0
-7.6973438 24.035379 1.4096894
-2.1913793 6.8143449 -0.79784274
-2.2648215 7.0427217 -0.41322002
-4.2403884 13.185972 0
-7.7025166 23.951857 1.4053354
-2.2004056 6.8141508 -0.79813075
-2.2717342 7.0350394 -0.41293004
-4.2571168 13.183313 0
-7.7051029 23.860933 1.400546
-0 0 -0
-2.2794323 7.02982 -0.41278502
-4.2569885 13.128648 0
-7.6201272 23.500641 1.3799376
-0 0 -0
-2.2822928 7.0097628 -0.41176891
-4.255125 13.069057 0
-7.612318 23.380234 1.3734064
-2.2338152 6.8468156 -0.80274343
-2.2913616 7.0231996 -0.41263947
-4.2468758 13.017 0
-7.6385317 23.412687 1.3755836
-2.2430789 6.8192773 -0.80014801
-2.3156338 7.0398545 -0.41394559
-4.2612443 12.954786 0
-7.7032061 23.418839 1.3770348
-0 0 -0
-2.3257697 7.0419908 -0.41423616
-4.2671003 12.919973 0
-7.7021646 23.320698 1.3718103
-0 0 -0
-2.335094 7.0416393 -0.41438115
-4.2786136 12.902459 0
-7.689445 23.188059 1.3645537
-0 0 -0
-2.3444207 7.041276 -0.41452613
-4.2991347 12.9121 0
-7.6961169 23.114656 1.3607804
-0 0 -0
-2.3471625 7.021194 -0.41351059
-4.324635 12.936515 0
-7.7199192 23.093012 1.3600541
-0 0 -0
-2.3539894 7.0134215 -0.41322002
-4.3551674 12.975685 0
-7.7494721 23.088598 1.3603448
-0 0 -0
-2.3583138 6.9982624 -0.41249448
-4.3758278 12.985206 0
-7.7732162 23.066908 1.3596191
-0 0 -0
-0 0 -0
-4.3906813 12.977447 0
-7.8135715 23.094412 1.3617959
-0 0 -0
-0 0 -0
-4.3896179 12.922847 0
-8.174078 24.064135 1.4195583
-0 0 -0
-0 0 -0
-4.3791914 12.841182 0
-8.1503153 23.899317 1.4104155
-0 0 -0
-0 0 -0
-4.3879604 12.816183 0
-8.1345787 23.759159 1.4027232
-0 0 -0
-0 0 -0
-4.4009042 12.803486 0
-8.1100702 23.594509 1.3935798
-0 0 -0
-0 0 -0
-4.4155235 12.795701 0
-8.1436615 23.599434 1.394451
-0 0 -0
-0 0 -0
-4.4360909 12.805106 0
-8.1730204 23.59203 1.394596
-0 0 -0
-0 0 -0
-4.4626765 12.831699 0
-8.1656733 23.479063 1.3885005
-0 0 -0
-0 0 -0
-4.4721718 12.809095 0
-8.1357965 23.30237 1.3786315
-0 0 -0
-0 0 -0
-4.4876456 12.803682 0
-8.1433201 23.233669 1.3751482
-0 0 -0
-0 0 -0
-4.5065684 12.808071 0
-8.1601763 23.19195 1.3732615
-0 0 -0
-0 0 -0
-4.533308 12.834515 0
-8.1795406 23.157578 1.3718103
-0 0 -0
-0 0 -0
-4.5627284 12.868274 0
-8.201437 23.130531 1.3707942
-0 0 -0
-0 0 -0
-4.5904899 12.897072 0
-8.2154379 23.081436 1.368472
-0 0 -0
-0 0 -0
-4.6174526 12.923373 0
-8.2398243 23.061705 1.3678914
-0 0 -0
-0 0 -0
-4.628768 12.930383 0
-8.2695208 23.100763 1.3705043
-0 0 -0
-0 0 -0
-4.6285486 12.8807 0
-8.3141212 23.137209 1.3732615
-0 0 -0
-0 0 -0
-4.620266 12.808996 0
-8.344718 23.134481 1.373697
-0 0 -0
-0 0 -0
-4.6171346 12.752019 0
-8.3664713 23.107277 1.3726809
-0 0 -0
-0 0 -0
-4.6236515 12.721975 0
-8.3784113 23.053196 1.3700687
-0 0 -0
-0 0 -0
-4.6345615 12.704157 0
-8.3937922 23.008875 1.3680364
-0 0 -0
-0 0 -0
-9.4067717 25.68918 0
-8.4233761 23.003601 1.368327
-0 0 -0
-0 0 -0
-9.4387016 25.680235 0
-8.4466839 22.981215 1.3676014
-0 0 -0
-0 0 -0
-4.6625671 12.638441 0
-8.461853 22.936857 1.3655692
-0 0 -0
-0 0 -0
-4.6796441 12.637684 0
-9.2213001 24.902723 1.4832714
-0 0 -0
-0 0 -0
-4.6994433 12.644216 0
-9.2278481 24.828239 1.479498
-0 0 -0
-0 0 -0
-4.711988 12.63121 0
-9.2351379 24.75621 1.4758697
-0 0 -0
-0 0 -0
-4.7190347 12.603575 0
-9.2759781 24.774235 1.4776113
-0 0 -0
-0 0 -0
-4.7406697 12.614919 0
-9.6806593 25.760227 1.5371155
-0 0 -0
-0 0 -0
-4.7568264 12.611614 0
-9.7016897 25.721764 1.5355188
-0 0 -0
-0 0 -0
-4.7720618 12.605857 0
-9.7079268 25.644417 1.5316004
-0 0 -0
-0 0 -0
-4.7863665 12.597651 0
-9.6927633 25.511219 1.5243437
-2.5632999 6.7220955 -0.80187827
-0 0 -0
-4.808073 12.608873 0
-9.7032146 25.446079 1.5211509
-2.5723441 6.7214065 -0.80216628
-0 0 -0
-4.8353968 12.63465 0
-9.7218819 25.40279 1.5192642
-2.5767541 6.7086353 -0.80101311
-0 0 -0
-4.8861175 12.721113 0
-9.7609529 25.412853 1.5205704
-2.5848582 6.7055168 -0.80101311
-0 0 -0
-4.9548402 12.853612 0
-9.7916527 25.401041 1.5205704
-2.5976238 6.7144475 -0.80245429
-0 0 -0
-4.9891477 12.896159 0
-9.8495255 25.459469 1.5247793
-2.6029294 6.7040777 -0.80159026
-0 0 -0
-5.0273294 12.948338 0
-9.4269953 24.280069 1.4548256
-2.6157224 6.7129755 -0.80303144
-0 0 -0
-5.0703721 13.012574 0
-9.4723625 24.309818 1.4572929
-2.6197777 6.7113938 -0.80303144
-0 0 -0
-5.0848579 13.026481 0
-9.5125561 24.36944 1.4612112
-2.6259964 6.703402 -0.80245429
-0 0 -0
-10.472214 26.732502 0
-9.9409952 25.376459 1.522312
-2.6378796 6.7098527 -0.80360746
-0 0 -0
-10.505458 26.72225 0
-9.9592924 25.332993 1.5204253
-2.6469371 6.7090735 -0.80389661
-0 0 -0
-11.803209 29.917067 0
-9.9708223 25.272598 1.5175226
-2.6521845 6.6986537 -0.80303144
-0 0 -0
-11.819231 29.851971 0
-9.6952696 24.487455 1.4710802
-2.6593225 6.6930428 -0.80274343
-0 0 -0
-11.871629 29.878782 0
-9.7296515 24.487804 1.4718063
-2.6702788 6.6970253 -0.80360746
-0 0 -0
-11.911578 29.874084 0
-4.4018908 11.039885 0.66385651
-2.6802926 6.6986012 -0.80418462
-0 0 -0
-11.996005 29.980478 0
-4.4132943 11.029729 0.66356599
-2.6854923 6.6881547 -0.80331945
-0 0 -0
-12.062281 30.040823 0
-4.407258 10.976171 0.66066372
-2.6993699 6.6992946 -0.8050487
-0 0 -0
-12.088845 30.00209 0
-4.4040089 10.929867 0.65819651
-2.7094035 6.7008286 -0.8056258
-0 0 -0
-4.1707702 10.315043 0
-4.403574 10.890807 0.65616429
-2.7194412 6.7023387 -0.80620182
-0 0 -0
-4.2008414 10.353399 0
-4.389379 10.818069 0.65210092
-2.7246146 6.6918678 -0.80533779
-0 0 -0
-4.2025561 10.321809 0
-4.3799095 10.757403 0.64876258
-2.7336757 6.6909628 -0.8056258
-0 0 -0
-4.2160082 10.31913 0
-4.3594923 10.670323 0.64382809
-2.7427385 6.6900458 -0.80591381
-0 0 -0
-4.2324228 10.323661 0
-4.3536572 10.619374 0.6410709
-2.7518032 6.6891165 -0.80620182
-0 0 -0
-4.2448936 10.318539 0
-4.3427596 10.556433 0.63758755
-2.7588978 6.6833982 -0.80591381
-0 0 -0
-12.498069 30.276428 0
-4.3059397 10.431089 0.63033086
-2.7809989 6.6910467 -0.80764413
-0 0 -0
-12.572196 30.248537 0
-4.2952366 10.334282 0.62510639
-2.7900763 6.6900663 -0.80793214
-0 0 -0
-12.637786 30.30298 0
-4.2947187 10.29791 0.62321973
-2.8011544 6.6938505 -0.8087973
-0 0 -0
-12.734667 30.431725 0
-4.3141775 10.309485 0.62423527
-2.8112411 6.6952257 -0.80937332
-0 0 -0
-12.879229 30.673052 0
-4.3266311 10.304265 0.62423527
-2.8233459 6.7013583 -0.81052649
-0 0 -0
-12.941542 30.717422 0
-10.440405 24.780844 1.5019937
-2.8253846 6.69489 -0.80995047
-0 0 -0
-12.97224 30.738371 0
-10.466485 24.800859 1.5035897
-2.8324606 6.6890826 -0.80966133
-0 0 -0
-13.013431 30.73226 0
-10.485302 24.761881 1.5019937
-2.8415554 6.6880426 -0.80995047
-0 0 -0
-13.048522 30.711727 0
-10.553823 24.840067 1.5075086
-2.8496344 6.6846042 -0.80995047
-0 0 -0
-14.275548 33.48724 0
-10.591982 24.846418 1.5086697
-2.8597417 6.6859078 -0.81052649
-0 0 -0
-14.316 33.469967 0
-10.616884 24.82165 1.5079436
-2.8749595 6.6990876 -0.81254482
-0 0 -0
-14.351301 33.440685 0
-10.634576 24.780159 1.5062026
-2.884074 6.6979823 -0.81283283
-0 0 -0
-14.410221 33.466343 0
-10.680948 24.805468 1.5085242
-2.8931899 6.6968646 -0.81312084
-0 0 -0
-14.453746 33.456078 0
-10.69958 24.766312 1.5069281
-2.8992243 6.6886225 -0.81254482
-0 0 -0
-14.494161 33.438587 0
-10.720198 24.731911 1.505622
-2.9083345 6.6874838 -0.81283283
-0 0 -0
-14.538705 33.430595 0
-10.745929 24.709408 1.5050414
-2.9153795 6.6815963 -0.81254482
-0 0 -0
-14.586375 33.429703 0
-10.76954 24.68211 1.5041703
-2.9296722 6.6922808 -0.81427401
-3.5513167 8.1123095 -0.49463922
-12.56353 28.699001 0
-10.817069 24.709543 1.5066376
-2.9408779 6.6958427 -0.81513917
-3.5391738 8.058054 -0.49159145
-12.612847 28.717154 0
-10.869908 24.7488 1.5098308
-2.9468784 6.6875458 -0.81456202
-3.5436699 8.0418844 -0.49086589
-12.647537 28.701893 0
-14.729292 33.426155 2.040288
-2.9570506 6.6887159 -0.81513917
-0 0 -0
-12.670636 28.660414 0
-14.772823 33.415466 2.0407236
-2.9682734 6.6922245 -0.81600326
-0 0 -0
-12.678879 28.585609 0
-14.818455 33.409466 2.0414491
-2.975307 6.6862721 -0.81571519
-0 0 -0
-12.701771 28.544111 0
-12.920407 29.035444 1.7751319
-2.9833837 6.682672 -0.81571519
-0 0 -0
-12.743678 28.545382 0
-12.957598 29.024553 1.7754219
-2.9946291 6.6861463 -0.81658036
-0 0 -0
-12.776035 28.525217 0
-12.983101 28.987534 1.7741158
-3.0016468 6.6801662 -0.81629235
-0 0 -0
-12.810493 28.509758 0
-13.015989 28.967091 1.7738258
-3.0150299 6.6883221 -0.81773353
-0 0 -0
-12.832098 28.465788 0
-13.043505 28.934757 1.7728096
-3.0199108 6.6776018 -0.81686836
-0 0 -0
-12.876134 28.471601 0
-13.094519 28.954491 1.7749869
-3.0301166 6.6786633 -0.81744552
-0 0 -0
-12.855692 28.335159 0
-13.117684 28.912617 1.7733902
-3.0384312 6.6862502 -0.81859869
-0 0 -0
-12.825434 28.223137 0
-11.262564 24.783947 1.5205704
-3.0443602 6.6778626 -0.81802154
-0 0 -0
-12.85089 28.188675 0
-11.292501 24.770321 1.5205704
-3.059958 6.6906466 -0.82003987
-0 0 -0
-12.864378 28.128166 0
-11.329989 24.773201 1.5215865
-3.0637257 6.6775408 -0.8188867
-0 0 -0
-12.903782 28.124426 0
-0 0 0
-3.0717921 6.6738338 -0.8188867
-0 0 -0
-12.919258 28.068626 0
-11.737464 25.501038 1.5680283
-3.0852742 6.6818566 -0.82032788
-0 0 -0
-12.952074 28.050634 0
-11.708361 25.357092 1.5600461
-3.0976942 6.6875114 -0.82148105
-0 0 -0
-13.004553 28.075108 0
-11.760834 25.390083 1.5629488
-3.1068614 6.6861067 -0.82176906
-0 0 -0
-13.076847 28.141972 0
-11.822164 25.441835 1.5670128
-3.1116626 6.6753221 -0.82090503
-0 0 -0
-13.047071 27.989344 0
-11.532346 24.739866 1.5246342
-3.1230099 6.6785793 -0.82176906
-0 0 -0
-13.034586 27.874557 0
-11.540216 24.678837 1.5217315
-3.1277852 6.6677828 -0.82090503
-0 0 -0
-13.037311 27.792814 0
-11.566716 24.657816 1.5212959
-3.141345 6.6756978 -0.82234621
-0 0 -0
-13.049829 27.732298 0
-11.616419 24.686146 1.5239087
-3.1549284 6.6835899 -0.82378739
-0 0 -0
-13.071111 27.690628 0
-11.637364 24.653294 1.5227476
-3.1674297 6.6891236 -0.82494056
-0 0 -0
-13.105673 27.677164 0
-11.662697 24.62982 1.5221671
-3.1799488 6.6946368 -0.82609373
-0 0 -0
-13.140222 27.663656 0
-11.682416 24.594587 1.5208609
-3.1835854 6.6814494 -0.82494056
-0 0 -0
-13.176997 27.65481 0
-12.133482 25.464764 1.5755756
-3.1938848 6.6822605 -0.82551658
-0 0 -0
-13.210403 27.638866 0
-12.149676 25.419609 1.5736889
-3.1997225 6.6737366 -0.82494056
-0 0 -0
-13.238165 27.611153 0
-12.179255 25.402559 1.5735433
-3.2111483 6.6768603 -0.82580572
-0 0 -0
-15.990908 33.249496 0
-12.220079 25.408907 1.57485
-3.2315726 6.6985941 -0.82897609
-0 0 -0
-16.0469 33.262962 0
-12.233835 25.359016 1.5726728
-3.2362831 6.6876974 -0.82811093
-0 0 -0
-16.098419 33.266979 0
-12.256544 25.327839 1.5716567
-3.2522688 6.7000723 -0.83012927
-3.4438486 7.0947504 -0.44050515
-16.115875 33.200676 0
-12.286005 25.310677 1.5715116
-3.2614934 6.6984611 -0.83041728
-3.4433186 7.0718942 -0.43934402
-16.169651 33.209259 0
-12.302929 25.267778 1.56977
-3.2707231 6.696846 -0.83070642
-3.4301934 7.0233636 -0.43658623
-16.209766 33.189697 0
-12.318627 25.222542 1.5678834
-3.2781746 6.7018323 -0.83157045
-3.4538448 7.0609689 -0.43905348
-16.235531 33.191582 0
-12.33843 25.224432 1.5684639
-3.2919655 6.7094746 -0.83301163
-3.4486392 7.0287967 -0.4373118
-13.659781 27.840494 0
-16.27626 33.173237 2.0639446
-3.2966471 6.6985364 -0.8321476
-3.4548371 7.0199661 -0.43702179
-13.641703 27.718904 0
-16.341572 33.204834 2.0671375
-3.3024466 6.6899052 -0.83157045
-3.465615 7.0204425 -0.4373118
-13.669422 27.690725 0
-16.37248 33.166424 2.0659764
-3.3162651 6.6974974 -0.83301163
-6.841887 13.817809 -0.86124229
-13.697099 27.662529 0
-16.419458 33.160583 2.0668468
-3.3324099 6.7097034 -0.83502996
-6.8470221 13.786264 -0.85979116
-13.72357 27.631977 0
-16.469917 33.161663 2.0681529
-3.3462803 6.7172451 -0.83647114
-6.8717866 13.794264 -0.8608073
-13.743022 27.587421 0
-16.49839 33.118484 2.0667019
-3.3509295 6.7062626 -0.83560711
-6.8687057 13.746438 -0.85834008
-13.789143 27.596407 0
-16.555819 33.133392 2.0688791
-3.3810458 6.7461362 -0.84108382
-6.8725023 13.712573 -0.8567434
-13.80615 27.547148 0
-16.612139 33.145882 2.0709107
-3.3833873 6.7304935 -0.83964264
-6.865725 13.657826 -0.85384059
-13.842934 27.537424 0
-16.646343 33.114178 2.0701852
-3.3915174 6.7264004 -0.83964264
-6.8611674 13.607761 -0.85122836
-13.886741 27.54159 0
-16.691021 33.103321 2.0707657
-3.4042513 6.7112622 -0.83877748
-6.8293843 13.463693 -0.8432461
-13.950906 27.503313 0
-16.786251 33.093014 2.0726526
-3.4252605 6.7325044 -0.84194899
-6.8279724 13.420689 -0.84106886
-13.982944 27.48411 0
-16.85568 33.130604 2.0762808
-3.4404445 6.7421794 -0.84367818
-6.8146629 13.354577 -0.83744109
-14.033888 27.501968 0
-16.886251 33.091694 2.0751197
-3.4556613 6.7518368 -0.8454085
-6.8047471 13.295441 -0.83424777
-16.956535 33.130489 0
-16.936878 33.092083 2.0764258
-3.4685419 6.7568603 -0.84656167
-6.8065715 13.259478 -0.83250666
-16.984671 33.08683 0
-16.988714 33.094707 2.077877
-3.4755163 6.7503581 -0.84627253
-0 0 -0
-17.038933 33.094048 0
-17.022745 33.062607 2.0771513
-3.4860461 6.7507544 -0.84684968
-6.790905 13.150639 -0.82670105
-17.071743 33.059559 0
-12.801828 24.790838 1.55845
-3.5025237 6.7626076 -0.84886688
-6.7912555 13.112431 -0.82481438
-17.122452 33.059711 0
-12.80668 24.7269 1.5554022
-3.5130794 6.7629657 -0.84944403
-6.7951188 13.081161 -0.82336324
-17.144388 33.004353 0
-12.806603 24.653761 1.5517738
-3.518357 6.7631345 -0.84973204
-6.7778382 13.028646 -0.82031548
-11.329777 21.778574 0
-12.815501 24.634497 1.5510483
-3.530117 6.7657595 -0.8505972
-6.7755446 12.985888 -0.81813824
-11.336822 21.727951 0
-12.818816 24.568316 1.5478555
-3.5406857 6.766068 -0.85117322
-6.7562933 12.910929 -0.81392932
-11.324458 21.640457 0
-12.835239 24.527481 1.5462588
-3.53564 6.736599 -0.84800285
-6.7537785 12.86825 -0.81175268
-11.307058 21.5438 0
-12.833472 24.452139 1.5424855
-3.5546191 6.7529187 -0.8505972
-6.7547984 12.832488 -0.81001097
-11.28096 21.431103 0
-12.858167 24.427416 1.5419049
-6.7472486 12.780655 -0.80725318
-11.281333 21.369127 0
-11.584854 21.944057 1.3860332
-6.7408028 12.731161 -0.80464095
-11.266959 21.279583 0
-11.612576 21.932339 1.3861781
-6.7391219 12.690882 -0.80260932
-11.23652 21.160225 0
-11.624444 21.890751 1.3844365
-0 0 -0
-6.7336884 12.643744 -0.80014205
-11.233946 21.093807 0
-11.627682 21.83312 1.3816793
-0 0 -0
-6.7232537 12.587468 -0.79709429
-11.218965 21.004467 0
-11.574482 21.670076 1.3722453
-0 0 -0
-6.7286425 12.56101 -0.79593319
-11.202557 20.912901 0
-11.598207 21.651499 1.3719554
-6.711844 12.493361 -0.7921598
-11.221661 20.887888 0
-11.548118 21.495552 1.362957
-6.7121449 12.457791 -0.79041815
-11.183939 20.757473 0
-11.537109 21.412962 1.3586031
-6.7061944 12.410811 -0.78795093
-11.179319 20.688993 0
-11.51851 21.316717 1.3533787
-6.6976619 12.35929 -0.78519315
-11.154716 20.583956 0
-11.503405 21.227394 1.3485892
-6.6877794 12.305535 -0.78229088
-11.128629 20.476713 0
-11.49058 21.142702 1.3440896
-6.6889634 12.272346 -0.78069425
-11.138417 20.435829 0
-11.497468 21.094585 1.341913
-6.6801109 12.220941 -0.777937
-11.116918 20.337864 0
-11.448174 20.943884 1.3332052
-6.6761355 12.178679 -0.77575976
-11.115213 20.276495 0
-11.46098 20.907246 1.3317535
-6.6633086 12.120514 -0.77256697
-11.09959 20.190079 0
-11.441174 20.811417 1.326529
-6.6603875 12.080601 -0.77053529
-11.095077 20.124233 0
-11.431184 20.733864 1.3224652
-6.6510897 12.029336 -0.7677775
-11.066498 20.015158 0
-11.414739 20.644995 1.3176757
-0 0 -0
-6.6407371 11.993494 -0.76574582
-11.055899 19.967491 0
-11.405812 20.599453 1.3152084
-6.636301 11.951384 -0.76356858
-11.042118 19.885864 0
-11.385288 20.503883 1.309984
-6.6330414 11.911577 -0.7615369
-11.012962 19.777016 0
-11.360755 20.401579 1.304324
-6.6296949 11.871797 -0.75950527
-11.006403 19.709169 0
-11.353726 20.331123 1.3006957
-6.6249886 11.829768 -0.75732803
-11.013674 19.66633 0
-11.318614 20.21084 1.2938745
-6.6201906 11.787768 -0.75515079
-11.022141 19.625788 0
-11.35193 20.213001 1.29489
-6.6140318 11.743545 -0.75282913
-11.020305 19.567102 0
-11.325345 20.108717 1.289085
-6.6090474 11.701604 -0.7506519
-11.023462 19.517517 0
-11.317689 20.038456 1.2854567
-6.6026921 11.657434 -0.74832964
-11.018823 19.454369 0
-11.315001 19.977289 1.282409
-6.5962448 11.613305 -0.74600798
-11.007621 19.379946 0
-11.309619 19.911642 1.2790711
-6.5935545 11.575976 -0.74412131
-10.997538 19.307831 0
-11.278368 19.800871 1.27283
-6.5920715 11.540925 -0.74237961
-10.982138 19.226738 0
-11.270067 19.730824 1.2692016
-6.5814719 11.490109 -0.73962182
-10.967851 19.147966 0
-11.243534 19.629261 1.2635416
-6.5824108 11.45962 -0.73817074
-10.959874 19.080547 0
-11.225834 19.543568 1.2588977
-6.5677218 11.402127 -0.73497796
-10.945252 19.001894 0
-11.23128 19.498463 1.2568655
-6.5646 11.364934 -0.73309124
-10.94217 18.943583 0
-11.149564 19.302633 1.2451099
-6.5509782 11.309778 -0.73004347
-10.925921 18.862793 0
-11.572697 19.979401 1.2896656
-6.5541983 11.283878 -0.72888237
-10.922563 18.804569 0
-11.658166 20.071001 1.2964867
-6.5403647 11.228801 -0.72583455
-10.908606 18.728399 0
-11.682409 20.0569 1.2964867
-6.546062 11.207423 -0.72496343
-10.898414 18.659025 0
-11.700084 20.031553 1.2957612
-6.5346513 11.156911 -0.72220623
-10.88807 18.589703 0
-11.715085 20.001703 1.2947451
-6.5415492 11.137806 -0.72148067
-10.884164 18.531652 0
-11.711612 19.940485 1.2916973
-6.5324693 11.106975 -0.71973896
-10.85578 18.457779 0
-11.672285 19.84606 1.2860372
-6.5300446 11.072215 -0.71799731
-10.842382 18.384129 0
-11.672499 19.791658 1.283425
-6.5354848 11.050901 -0.71712673
-10.830146 18.312777 0
-11.701695 19.786486 1.2840055
-6.5342522 11.01841 -0.7155301
-10.831026 18.263863 0
-11.733545 19.785738 1.2848761
-6.522325 10.968069 -0.71277231
-10.821162 18.197077 0
-11.756117 19.769316 1.2847311
-6.5235972 10.940097 -0.71146619
-10.80582 18.121401 0
-11.787978 19.768482 1.2856017
-6.5168123 10.89876 -0.70928949
-10.803671 18.068129 0
-11.058463 18.494246 1.2036024
-6.5152774 10.866361 -0.7076928
-10.790702 17.997034 0
-11.036708 18.40733 1.198813
-6.5083227 10.825083 -0.70551616
-10.782941 17.934917 0
-11.034839 18.353891 1.1962003
-6.5093198 10.797176 -0.70420951
-10.776387 17.875072 0
-11.052987 18.333876 1.1957653
-6.4990292 10.721425 -0.70029116
-10.754798 17.742151 0
-12.634066 20.842373 1.3613609
-6.4957833 10.686919 -0.69854945
-10.745142 17.677999 0
-12.636297 20.789345 1.3588936
-6.4924641 10.652436 -0.6968078
-10.738052 17.618338 0
-12.628952 20.72081 1.3554103
-6.4890757 10.617986 -0.69506669
-10.728124 17.554281 0
-12.61604 20.643454 1.3513464
-6.4883213 10.587978 -0.69361502
-10.711252 17.479174 0
-12.626043 20.60383 1.3497503
-6.4861498 10.555784 -0.69201887
-10.687404 17.393049 0
-12.588356 20.486725 1.3430741
-6.4770913 10.512543 -0.68969667
-10.666096 17.311441 0
-12.594021 20.440531 1.3410424
-6.4774985 10.484816 -0.68839055
-10.645973 17.232124 0
-12.618711 20.425299 1.3410424
-6.477849 10.457103 -0.68708444
-10.639377 17.174999 0
-10.905627 17.604805 1.1567246
-6.4781361 10.429396 -0.68577772
-10.621673 17.100231 0
-10.898101 17.545263 1.1536767
-6.4715037 10.390686 -0.68374604
-10.617564 17.047625 0
-10.891818 17.48797 1.150774
-6.4654059 10.366933 -0.68243992
-10.600318 16.997044 0
-10.87076 17.430681 1.1474361
-6.4503736 10.31505 -0.67953718
-10.583595 16.92465 0
-10.853237 17.355846 1.1433723
-6.4476528 10.283039 -0.67794102
-10.587448 16.885391 0
-10.845215 17.29649 1.1403245
-6.4448586 10.25104 -0.67634439
-10.571831 16.815306 0
-10.828768 17.223984 1.1364061
-6.4406118 10.216867 -0.67460269
-10.571322 16.769493 0
-10.820474 17.164728 1.1333584
-6.4390717 10.187118 -0.67315161
-10.56655 16.717115 0
-10.824546 17.125284 1.1316166
-6.4291201 10.144214 -0.67082936
-10.551914 16.649382 0
-10.817411 17.068296 1.1287138
-6.4330134 10.123283 -0.66995877
-10.539925 16.586105 0
-10.807369 17.006969 1.1255211
-6.4270902 10.087016 -0.6680721
-10.537582 16.53824 0
-10.786025 16.92816 1.1211672
-6.428082 10.061726 -0.66691101
-10.519732 16.466288 0
-10.7743 16.864758 1.1178293
-6.41921 10.021129 -0.66473377
-10.52558 16.431646 0
-10.752625 16.786089 1.1134754
-6.4158716 9.9893217 -0.66313767
-10.511678 16.366371 0
-10.757452 16.749033 1.1118788
-6.4082379 9.9509726 -0.66110545
-10.500443 16.305515 0
-10.752361 16.696703 1.1092665
-6.4061646 9.9213972 -0.65965432
-10.49332 16.251282 0
-10.749976 16.648771 1.1069443
-6.4026132 9.8896532 -0.65805763
-10.491733 16.20582 0
-10.753139 16.609596 1.1052027
-6.4018269 9.8622961 -0.65675151
-10.481551 16.147291 0
-10.747737 16.557364 1.1025904
-6.4038153 9.8393068 -0.65573543
-10.474086 16.093178 0
-10.75498 16.524767 1.1012843
-6.3972406 9.8032742 -0.65384871
-10.460815 16.030388 0
-10.746539 16.468237 1.0983815
