# .PCD v0.7 - Point Cloud Data file format
VERSION 0.7
FIELDS x y z
SIZE 4 4 4
TYPE F F F
COUNT 1 1 1
WIDTH 1875
HEIGHT 1
VIEWPOINT 0 0 0 1 0 0 0
POINTS 1875
DATA ascii
7.5331993 20.80587 1.2359664
4.17908 11.585875 -0.68795496
4.1337347 11.460161 0
7.5062923 20.810072 1.2356765
4.1852856 11.647152 -0.69129276
4.1075649 11.430863 0
7.474112 20.799564 1.2345154
4.1607037 11.622853 -0.68955165
4.0955024 11.440714 0
7.4463463 20.801239 1.2340798
4.1335635 11.591157 -0.68737441
4.1017823 11.502037 0
7.4159713 20.79554 1.2332093
0 0 -0
4.0983357 11.536412 0
7.3890972 20.799583 1.2329187
4.0934057 11.566823 -0.68534273
4.0878625 11.551161 0
7.3613615 20.801155 1.2324837
4.0785599 11.569304 -0.68519717
4.0678482 11.538918 0
7.3336296 20.802681 1.2320482
4.0585537 11.557068 -0.68418163
4.060801 11.563468 0
7.3033209 20.796812 1.231177
4.054882 11.591396 -0.68592328
4.05198 11.5831 0
7.2816186 20.815434 1.2317576
4.0502763 11.623271 -0.68751943
4.0439768 11.605194 0
7.2581735 20.829128 1.2320482
4.0430455 11.647795 -0.68868053
4.0290985 11.607615 0
7.2432251 20.86734 1.2337898
4.0620809 11.748441 -0.69434053
4.0082664 11.592798 0
7.2315912 20.915369 1.236112
4.0859575 11.863895 -0.70087171
3.9908662 11.58779 0
7.2291574 20.990419 1.2400304
4.0914598 11.903224 -0.70304894
3.9923229 11.614806 0
7.2181621 20.999693 1.2403204
4.0728636 11.895861 -0.70232278
3.9884017 11.649168 0
7.9982343 23.360929 1.379212
4.049263 11.873727 -0.70072669
3.9802039 11.671224 0
7.9901271 23.429592 1.3826948
4.023211 11.844161 -0.69869447
3.9694469 11.685881 0
7.9735131 23.47368 1.3847271
4.0014029 11.826863 -0.69738835
3.9494846 11.673409 0
7.9692931 23.554676 1.3889359
3.9813032 11.81446 -0.69637281
6.2007976 18.400778 0
7.9532709 23.601217 1.3911127
3.9579291 11.792162 -0.69477612
6.1942911 18.455128 0
7.9288807 23.623123 1.3918382
3.9354408 11.772297 -0.69332498
6.1901383 18.516895 0
7.8953896 23.617905 1.3909676
3.9203904 11.774571 -0.69317943
6.1800928 18.561401 0
7.8619194 23.612631 1.3900965
3.904526 11.774371 -0.69288945
6.1642137 18.588617 0
7.8292937 23.609783 1.3893709
3.8886678 11.774151 -0.69259942
6.1450129 18.605938 0
7.8015776 23.621702 1.3895165
3.8752494 11.781307 -0.69274443
6.1282167 18.630648 0
7.7722154 23.628635 1.3893709
3.8545396 11.766226 -0.69158334
4.1524205 12.675527 0
7.743659 23.63801 1.3893709
3.8362906 11.758526 -0.69085777
0 0 0
7.7134814 23.642412 1.389081
3.8212748 11.760674 -0.69071221
0 0 0
7.7419167 23.827169 1.3993855
3.8030624 11.752924 -0.68998665
4.1513114 12.829147 0
7.7643161 23.99472 1.4086739
3.7880623 11.75504 -0.68984163
0 0 0
7.713798 23.937305 1.4047549
3.7714729 11.752184 -0.6894061
4.1242747 12.85154 0
7.6912208 23.966402 1.405916
3.7556896 11.751786 -0.68911606
4.1174555 12.883775 0
7.6583023 23.963305 1.4051905
3.7399094 11.751359 -0.68882555
4.1587081 13.067286 0
7.6183109 23.93788 1.4031588
3.7257075 11.75587 -0.68882555
4.1169701 12.990436 0
7.5901651 23.949543 1.4033039
3.7154703 11.748208 -0.688245
4.1318784 13.064878 0
7.5819631 23.973944 1.404465
3.7004924 11.750213 -0.68809998
4.1207809 13.084759 0
7.5490875 23.970697 1.4037393
3.6816282 11.739804 -0.68722939
0 0 0
7.5107875 23.950048 1.4019977
3.6666665 11.741766 -0.68708444
0 0 0
7.4795189 23.951664 1.4015621
3.6501608 11.738742 -0.68664885
0 0 0
7.4413137 23.930908 1.3998204
3.6359742 11.743144 -0.68664885
0 0 0
7.4139314 23.944851 1.400111
3.6187201 11.737597 -0.6860683
0 0 0
7.3826957 23.946341 1.3996755
3.6045349 11.741961 -0.6860683
0 0 0
7.3507056 23.945309 1.3990949
3.5865471 11.733885 -0.68534273
0 0 0
7.3149319 23.93181 1.3977888
3.5700963 11.73075 -0.6849072
0 0 0
7.2807131 23.923227 1.3967726
3.5551665 11.732571 -0.68476218
0 0 0
7.2525568 23.934502 1.3969182
3.5409873 11.736857 -0.68476218
0 0 0
7.2221289 23.938267 1.3966277
3.5253065 11.736146 -0.68447161
0 0 0
7.1917052 23.942003 1.3963376
3.5081451 11.730438 -0.68389106
0 0 0
7.1575584 23.933247 1.3953216
3.4783113 11.733905 -0.68360108
0 0 0
7.0908384 23.920578 1.3935798
3.4633958 11.735609 -0.68345606
4.1252999 13.978451 0
7.0604601 23.924149 1.3932899
3.4455488 11.727313 -0.68272996
4.1010718 13.95846 0
7.0322795 23.935154 1.3934349
3.431376 11.731467 -0.68272996
0 0 0
6.9945998 23.913706 1.3916932
3.4157467 11.73062 -0.68243992
4.0585971 13.938345 0
6.9693308 23.934612 1.3924187
3.3986764 11.724756 -0.68185937
4.0598655 14.005727 0
6.9331727 23.918064 1.3909676
3.3816252 11.718867 -0.68127882
4.0436602 14.01312 0
6.9049869 23.928917 1.3911127
3.3716688 11.71092 -0.68069828
4.0467138 14.055575 0
6.8840594 23.910614 1.3898065
3.3575161 11.714986 -0.68069828
4.0225587 14.035441 0
6.858027 23.928905 1.3903871
3.3426461 11.716537 -0.68055326
4.0084529 14.050303 0
6.8255448 23.924685 1.3896616
3.3263564 11.713067 -0.68011773
3.9623241 13.952495 0
6.7895312 23.907913 1.3882098
3.3107886 11.712082 -0.67982775
0 0 0
6.7578111 23.906097 1.3876293
3.2952254 11.711066 -0.67953718
0 0 0
6.7268109 23.906748 1.3871943
3.2824755 11.720048 -0.67982775
0 0 0
6.6972165 23.91235 1.3870487
3.2648234 11.711493 -0.67910218
0 0 0
6.6655297 23.910421 1.3864688
3.2492793 11.710417 -0.67881161
0 0 0
6.6352429 23.913446 1.3861781
3.234436 11.711832 -0.67866659
0 0 0
6.6035767 23.911427 1.3855976
3.2182155 11.708213 -0.67823106
0 0 0
6.5664153 23.889322 1.3838559
3.2088664 11.72964 -0.67924714
0 0 0
6.5375447 23.89724 1.3838559
3.1960549 11.738519 -0.67953718
0 0 0
6.5073013 23.900112 1.3835659
3.1845875 11.752403 -0.68011773
3.4755991 12.826353 0
6.474339 23.892904 1.3826948
3.1697087 11.753736 -0.67997271
0 0 0
6.4474945 23.908239 1.3831304
3.154156 11.752534 -0.67968214
0 0 0
6.4152346 23.903465 1.3824048
3.1426349 11.766378 -0.68026274
0 0 0
6.3769612 23.876059 1.3803731
3.1270816 11.765149 -0.67997271
0 0 0
6.3294177 23.813431 1.3763093
3.1155212 11.778967 -0.68055326
3.6968269 13.976731 0
6.2753921 23.725609 1.3707942
3.1019471 11.785233 -0.68069828
0 0 0
6.2235723 23.645231 1.3657148
3.0916562 11.80406 -0.6815694
3.6669948 14.000725 0
6.1857791 23.617537 1.3636825
3.0780458 11.810299 -0.68171442
0 0 0
6.1526518 23.607401 1.362667
3.0644248 11.816523 -0.68185937
3.629884 13.996952 0
6.1221647 23.607269 1.3622314
3.0631413 11.84101 -0.68316549
3.6162128 13.978987 0
6.1020451 23.588326 1.3609253
3.041059 11.814506 -0.68142384
0 0 0
6.0722423 23.590643 1.3606348
3.0306506 11.83328 -0.68229496
0 0 0
6.0424447 23.592934 1.3603448
3.0195577 11.849521 -0.68302053
0 0 0
6.0107255 23.587629 1.3596191
2.998853 11.827977 -0.6815694
3.7852476 14.929649 0
5.9822197 23.594875 1.3596191
2.9921832 11.861817 -0.68331051
3.7608385 14.908973 0
5.9562478 23.612165 1.3601997
2.9803784 11.875505 -0.68389106
3.751056 14.946319 0
5.9346685 23.64706 1.3617959
2.967916 11.886663 -0.68432665
3.7159734 14.882673 0
5.9249744 23.729841 1.3661498
2.9604423 11.917983 -0.68592328
3.6898322 14.85432 0
5.9107056 23.794987 1.3694881
2.9485331 11.931642 -0.68650389
0 0 0
6.0477586 24.47308 1.4080932
2.9248085 11.897344 -0.68432665
0 0 0
6.0336909 24.543451 1.4117216
2.9067283 11.885729 -0.68345606
0 0 0
6.0225477 24.62644 1.4160755
2.8917484 11.886701 -0.68331051
0 0 0
0 0 0
2.871273 11.864936 -0.68185937
0 0 0
6.0442986 24.976799 1.4353778
2.861192 11.886083 -0.68287551
0 0 0
6.0299244 25.049763 1.4391512
2.8401716 11.861732 -0.68127882
0 0 0
6.0123582 25.110096 1.442199
2.8312545 11.887902 -0.68258494
0 0 0
5.991044 25.15526 1.4443762
2.820483 11.90649 -0.68345606
0 0 0
0 0 0
2.8096685 11.925059 -0.68432665
0 0 0
6.0160418 25.53385 1.4652752
2.7922938 11.915799 -0.68360108
0 0 0
0 0 0
2.7796638 11.926758 -0.68403661
0 0 0
5.9814482 25.664719 1.4719512
2.7675974 11.940233 -0.68461716
0 0 0
5.9821157 25.808615 1.4797885
2.7656496 11.964686 -0.68592328
0 0 0
5.9694476 25.824881 1.480514
2.7535191 11.978148 -0.68650389
0 0 0
5.9865532 26.042246 1.4925597
2.739044 11.981467 -0.68650389
0 0 0
6.0031438 26.259701 1.5046059
2.7262909 11.992362 -0.68693888
0 0 0
5.9881139 26.340412 1.5088148
2.7181017 12.023529 -0.68853551
2.8361106 12.545542 0
5.966022 26.390713 1.511282
2.711549 12.062293 -0.6905672
2.8386424 12.627665 0
5.9358401 26.40551 1.5117176
2.7094414 12.121345 -0.69375998
2.820544 12.618389 0
5.9005275 26.397444 1.5108465
2.7483497 12.365575 -0.70754784
2.8036008 12.614164 0
5.8686271 26.404554 1.5108465
2.7384522 12.391719 -0.70885396
2.7900422 12.625169 0
5.8367181 26.411625 1.5108465
2.7195733 12.377252 -0.70783782
2.780369 12.653944 0
5.8059168 26.42374 1.511137
2.7073901 12.393229 -0.70856392
2.7639675 12.652214 0
5.7839661 26.476425 1.5137492
2.682368 12.422592 -0.70987004
0 0 0
7.7057447 35.686871 2.0392718
2.6733532 12.453763 -0.71146619
0 0 0
7.6997013 35.868904 2.0491407
2.6669803 12.497643 -0.71378839
2.7717597 12.988647 0
7.6769614 35.974743 2.0546558
2.6513386 12.498318 -0.71364343
0 0 0
7.6728501 36.169548 2.0652509
2.6442757 12.539643 -0.71582007
0 0 0
7.6505847 36.280487 2.0710559
2.632854 12.560634 -0.71683621
2.920059 13.930811 0
7.6440558 36.46772 2.0812154
2.6346352 12.645208 -0.72148067
2.8936701 13.888474 0
7.646625 36.700779 2.093987
2.6346326 12.722159 -0.72568899
2.6879618 12.979676 0
7.6207147 36.799038 2.0990665
2.6459756 12.855136 -0.73309124
2.6686032 12.965069 0
7.6055789 36.950737 2.1071937
2.6496987 12.912726 -0.73628408
2.6654775 12.989621 0
7.6109357 37.090229 2.114886
2.6449978 12.969383 -0.73933184
2.648741 12.987737 0
7.6154389 37.341255 2.1286733
2.6411953 13.031136 -0.74266964
2.6325276 12.98837 0
7.6384435 37.686569 2.1478305
2.6357098 13.085263 -0.74557239
2.617347 12.994101 0
7.6103454 37.782375 2.152765
2.6311159 13.144487 -0.74876523
2.6011322 12.994694 0
7.5861068 37.898548 2.1588607
2.627398 13.208821 -0.75224853
2.5833979 12.987617 0
7.5839033 38.126858 2.1713424
2.6194973 13.252772 -0.75457078
2.5702276 13.003503 0
7.568058 38.288929 2.1800501
2.6205075 13.342614 -0.75950527
2.5540104 13.004038 0
7.5573411 38.479073 2.1903546
2.610853 13.378922 -0.76139194
2.5382957 13.007114 0
7.517808 38.523876 2.1923864
2.6090286 13.456042 -0.7656008
2.5225773 13.010172 0
7.4781775 38.568638 2.194418
2.6021051 13.507657 -0.76835805
2.5088243 13.023432 0
7.4305873 38.572548 2.194128
2.6028759 13.600109 -0.7734375
2.4901521 13.011123 0
7.3815327 38.568741 2.1934023
2.5980897 13.664509 -0.77692086
0 0 0
7.332983 38.567421 2.1928217
2.5960441 13.744232 -0.7812748
0 0 0
7.2854114 38.57114 2.1925313
2.5890188 13.798437 -0.78417754
0 0 0
7.2349668 38.559486 2.1913702
2.5842464 13.865415 -0.78780591
0 0 0
3.6525428 19.597212 1.1134754
2.5788412 13.929837 -0.79128867
2.6597338 14.366785 0
3.6293333 19.604162 1.1136205
2.5761049 14.009606 -0.79564261
2.6277814 14.290639 0
3.6061125 19.611086 1.1137655
2.5717802 14.081728 -0.7995615
2.6240709 14.368045 0
3.5758786 19.579649 1.1117338
2.5626466 14.128287 -0.80202872
2.6169257 14.427536 0
3.552218 19.583954 1.1117338
2.5557072 14.187629 -0.80522156
2.6101031 14.489599 0
3.525327 19.57033 1.1107177
2.5536616 14.275113 -0.81001097
2.6063409 14.569592 0
3.5012202 19.57202 1.1105727
2.5600853 14.361069 -0.81480044
2.6021047 14.596781 0
3.4866581 19.558777 1.1097015
2.5572231 14.446019 -0.81944436
2.5989819 14.681919 0
3.4630227 19.562975 1.1097015
2.5532603 14.52587 -0.8237983
2.5934031 14.754249 0
3.4393821 19.567146 1.1097015
2.5526824 14.62621 -0.82931328
2.5934713 14.859921 0
3.4148438 19.566174 1.1094116
2.5531971 14.734254 -0.83526385
2.5866225 14.927149 0
3.3943055 19.588209 1.1104277
2.5393565 14.760373 -0.83656996
2.573879 14.96104 0
3.3693123 19.584612 1.1099921
2.5359554 14.847953 -0.84135944
2.565438 15.020573 0
3.3513324 19.621964 1.1118788
2.5258307 14.897116 -0.84397167
5.6198788 33.145527 0
3.3293581 19.636246 1.1124593
2.5199044 14.971904 -0.84803557
5.5785303 33.1446 0
3.3064909 19.645374 1.1127493
2.5133715 15.044129 -0.85195392
5.5376191 33.146179 0
6.4335632 38.508976 2.1807756
2.506243 15.1138 -0.85572726
5.5001197 33.168255 0
6.389153 38.529533 2.1815012
2.4846032 15.096306 -0.85456616
5.4608827 33.180008 0
6.3396382 38.519276 2.180485
5.4220462 33.19429 0
6.289741 38.506401 2.1793246
5.6388607 34.785786 0
4.8133888 29.693501 1.6802155
5.5935183 34.772018 0
4.7820463 29.727516 1.681812
5.5523186 34.783886 0
6.1415167 38.475067 2.1762767
5.5094719 34.785435 0
6.1003065 38.51582 2.1781635
5.4646077 34.774067 0
6.0509396 38.505192 2.1771474
5.422586 34.780643 0
6.0008068 38.489372 2.1758411
5.3801589 34.784603 0
5.9574728 38.517139 2.1770024
5.3586473 34.924831 0
5.907382 38.501194 2.1756961
0 0 0
5.8821578 38.491917 2.1749706
3.8039443 25.095438 0
5.8317485 38.473301 2.1735189
3.7693622 25.071705 0
5.7848711 38.477749 2.1733739
3.7317739 25.027342 0
5.7422051 38.510406 2.1748252
0 0 0
5.6971893 38.527599 2.1754057
0 0 0
5.6577954 38.583305 2.1781635
0 0 0
5.6466885 38.834381 2.1919508
0 0 0
3.6929035 25.614796 1.4455373
0 0 0
3.6634212 25.629528 1.4461179
0 0 0
3.6280754 25.603064 1.4443762
0 0 0
3.5993044 25.622862 1.4452467
0 0 0
3.5348878 25.613474 1.4442312
3.4781225 25.428997 0
3.5056968 25.630596 1.4449568
3.4480922 25.438334 0
3.4722812 25.616787 1.4439406
3.4111171 25.396059 0
3.4451311 25.649296 1.4455373
3.3759656 25.366627 0
3.9341328 29.560635 1.6657026
3.3405488 25.33456 0
3.8895793 29.498383 1.6619287
0 0 0
3.8586462 29.539137 1.6639609
0 0 0
3.8232841 29.546352 1.6641059
0 0 0
3.7875803 29.550951 1.6641059
0 0 0
3.7495801 29.537458 1.6630898
0 0 0
3.7219896 29.606419 1.6667181
0 0 0
5.6141858 44.876873 2.5261898
0 0 0
5.5637898 44.91457 2.5279315
0 0 0
5.5104647 44.929001 2.528367
0 0 0
0 0 0
2.9914482 24.888075 0
0 0 0
0 0 0
3.5088861 29.493759 1.6590265
0 0 0
0 0 0
0 0 0
0 0 0
0 0 0
0 0 0
2.889698 25.332317 0
0 0 0
2.8657992 25.395271 0
0 0 0
2.8336675 25.385777 0
0 0 0
2.7975664 25.34004 0
0 0 0
2.7612967 25.29166 0
3.2267284 29.554707 1.6606226
0 0 0
3.192409 29.571497 1.6613481
0 0 0
3.1530907 29.541746 1.6594615
0 0 0
3.1138487 29.511944 1.6575748
2.6120319 25.045883 0
3.0636339 29.376141 1.6497381
0 0 0
3.0148165 29.250587 1.6424814
2.5520251 25.057297 0
2.9652538 29.11462 1.6346442
2.5191412 25.034473 0
2.9274712 29.092333 1.633193
2.4922366 25.071163 0
2.8915453 29.088089 1.6327574
2.4819503 25.121864 0
2.8742263 29.092415 1.6329025
2.4518461 25.127432 0
2.8441188 29.147591 1.6358052
2.4294703 25.213272 0
2.8111403 29.17428 1.6371114
2.4086154 25.317223 0
2.7766254 29.185419 1.6375469
2.3877566 25.423759 0
4.2537856 45.292393 2.5409932
2.3688049 25.553591 0
4.1909008 45.209538 2.5360587
0 0 0
4.141242 45.268906 2.5391066
0 0 0
4.0811682 45.214359 2.5357687
0 0 0
4.0258408 45.211491 2.5353332
0 0 0
0 0 0
0 0 0
0 0 0
0 0 0
0 0 0
0 0 0
0 0 0
0 0 0
4.0527177 48.852406 2.7380822
0 0 0
0 0 0
0 0 0
0 0 0
0 0 0
2.0411487 25.736454 1.4420539
0 0 0
2.014298 25.793301 1.4451017
3.2326152 42.048485 0
1.9845246 25.813852 1.4461179
3.1804309 42.034191 0
1.9460787 25.720366 1.4407479
3.1542561 42.025723 0
0 0 0
3.103091 42.024319 0
0 0 0
3.0489168 41.981312 0
0 0 0
3.0024524 42.044674 0
0 0 0
0 0 0
0 0 0
0 0 0
0 0 0
0 0 0
2.904211 42.854862 2.3991992
4.3854985 65.893074 0
0 0 0
0 0 0
1.6558968 25.342302 1.4185427
4.3280053 67.490257 0
1.6254406 25.346874 1.4186877
0 0 0
1.5653027 25.368887 1.4197038
0 0 0
1.5344908 25.368158 1.4195583
0 0 0
1.5026078 25.349253 1.4183978
0 0 0
1.4718261 25.348448 1.4182522
2.851754 50.161491 0
2.6691141 46.94891 2.6266212
2.7899849 50.144112 0
2.6119504 46.944317 2.6261857
2.7279794 50.121468 0
0 0 0
2.6682451 50.140316 0
0 0 0
0 0 0
0 0 0
0 0 0
0 0 0
0 0 0
2.0924385 42.202366 2.3601587
2.3836148 48.669586 0
2.069865 42.263317 2.363497
2.3212047 48.597046 0
2.0187964 42.265789 2.363497
2.2621198 48.592014 0
1.9690539 42.296741 2.365093
2.2028148 48.581715 0
0 0 0
2.1384895 48.456944 0
0 0 0
0 0 0
1.8069173 42.09853 2.3536279
0 0 0
1.7458692 41.856644 2.3399851
0 0 0
1.6986572 41.941807 2.3446295
0 0 0
1.6502216 42.000946 2.3478224
1.8391629 48.297356 0
1.5993717 42.000313 2.3476775
1.7779273 48.221523 0
1.5490999 42.015198 2.348403
0 0 0
1.4937946 41.889809 2.3412919
1.6612997 48.223072 0
1.4353054 41.663063 2.3285201
1.6078721 48.370705 0
1.380819 41.540112 2.3215535
1.5465918 48.284176 0
1.3313738 41.565132 2.32286
1.4875268 48.262592 0
1.2817895 41.587475 2.3240206
0.49922481 16.858801 -0.94208097
1.4318287 48.352795 0
1.2316923 41.594196 2.3243113
0.4779686 16.828222 -0.94033927
1.371408 48.28426 0
1.181728 41.606041 2.3248918
0.45509204 16.735289 -0.9351148
1.3146212 48.343109 0
1.1303242 41.56588 2.3225696
0.43439785 16.71764 -0.93409872
1.2552607 48.308243 0
1.0794244 41.541245 2.3211184
0.42482519 16.73868 -0.93525982
1.2250844 48.269966 0
1.0535358 41.510719 2.3193767
0.4039717 16.713209 -0.93380868
1.1716009 48.471745 0
1.2000829 49.650105 2.7740753
0.38341874 16.698093 -0.93293756
0 0 0
1.2383868 53.932415 3.0132527
0.36346811 16.708937 -0.93351811
0 0 0
1.1024716 50.681553 2.8315475
0.34311819 16.701567 -0.93308258
0 0 0
1.0398978 50.617901 2.8279192
0.32424352 16.769522 -0.93685651
0.32430971 16.772945 0
0.97873527 50.619122 2.8279192
0.30647629 16.907583 -0.94454819
0.30380666 16.760307 0
0.91700608 50.589092 2.8261776
0.28890336 17.076805 -0.95398152
0.28333482 16.747654 0
0.57049996 33.721714 1.8838357
0.26867738 17.103127 -0.95543325
0.26277134 16.727165 0
0.53073299 33.784733 1.887319
0.24774764 17.085249 -0.95441711
0.24248423 16.722273 0
0.49028704 33.811325 1.8887701
0.22710328 17.085537 -0.95441711
0.22196718 16.699135 0
0.45095187 33.926216 1.8951563
0.20639585 17.080606 -0.95412713
0.20147486 16.673363 0
0.60727465 50.255951 2.8073103
0.1854745 17.054855 -0.95267546
0.18104525 16.647575 0
0.54573029 50.181297 2.8031013
0.16514322 17.083652 -0.95427209
0.16092978 16.647781 0
0.51237166 53.003559 2.9607148
0.14447889 17.081244 -0.95412713
0.14077 16.642756 0
0.4476895 52.928791 2.9565058
0.12383944 17.081406 -0.95412713
0.12081133 16.663733 0
0.38347137 52.892921 2.9544742
0.10321549 17.084139 -0.95427209
0.10058207 16.648256 0
0.31918356 52.830986 2.9509909
0.082597665 17.089441 -0.95456213
0.080541275 16.663975 0
0.25498322 52.755981 2.9467819
0.06199548 17.10253 -0.95528823
0.060349476 16.648451 0
0.19075739 52.623737 2.9393802
0.04138688 17.125975 -0.95659435
0.040258192 16.658922 0
0.12701477 52.558971 2.9357519
0.020727983 17.154589 -0.95819044
0.020097669 16.632938 0
0 0 0
-0 17.18059 -0.95964211
-0 16.627741 0
-0 51.823799 2.8946795
-0.010411086 17.232546 -0.96254438
-0.010034681 16.609516 0
-0.031304769 51.816002 2.8942444
-0.031237965 17.235126 -0.96268994
-0.03010403 16.609493 0
-0.075510174 41.66172 2.3270686
-0.052071065 17.237673 -0.96283489
-0.050181217 16.612055 0
-0.12588157 41.671993 2.3276491
-0.072910368 17.240192 -0.96297991
-0.070198536 16.598961 0
-0.17623393 41.67181 2.3276491
-0.093713485 17.2349 -0.96268994
-0.090240955 16.596264 0
-0.22652952 41.661175 2.3270686
-0.11453842 17.234774 -0.96268994
-0.11041531 16.614363 0
-0.34858045 52.451443 2.9298019
-0.13528156 17.22423 -0.96210939
-0.13047002 16.611618 0
-0.33047268 42.076225 2.3502896
-0.15616415 17.231842 -0.96254438
-0.15040027 16.595829 0
-0.38230228 42.184921 2.3563852
-0.17703879 17.236841 -0.96283489
-0.1706935 16.619053 0
-0.4335945 42.215607 2.3581269
-0.1979256 17.241806 -0.96312493
-0.19077426 16.618835 0
-0 0 0
-0.23955563 17.238682 -0.96297991
-0.23075414 16.605316 0
-0 0 0
-0.26022807 17.227987 -0.96239936
-0.25105417 16.620644 0
-0 0 0
-0.28100216 17.225065 -0.96225435
-0.2707122 16.594301 0
-0 0 0
-0.30181509 17.224712 -0.96225435
-0.29071742 16.591364 0
-0 0 0
-0.32248154 17.216539 -0.96181881
-0.31178808 16.645639 0
-0 0 0
-0.34333608 17.218742 -0.96196437
-0.32930681 16.515158 0
-0 0 0
-0.36392155 17.207924 -0.96138382
-0.34964716 16.532963 0
-0 0 0
-0.38482976 17.212662 -0.9616738
-0.37072882 16.581957 0
-0 0 0
-0.40587249 17.222576 -0.96225435
-0.3921749 16.64134 0
-1.0316777 43.777657 2.4459317
-0.42681089 17.227262 -0.96254438
-0 0 0
-1.0848954 43.789364 2.4466572
-0.44742405 17.218948 -0.96210939
-0.43232155 16.637733 0
-1.1360507 43.72049 2.442884
-0.45775786 17.21608 -0.96196437
-0 0 0
-1.1632931 43.750965 2.4446256
-0.47855979 17.215515 -0.96196437
-0.46464565 16.714973 0
-1.2150016 43.70797 2.4423034
-0.49943629 17.21752 -0.96210939
-0.48461562 16.706593 0
-1.2676626 43.701279 2.4420133
-0.52023995 17.216904 -0.96210939
-0.50456607 16.698189 0
-1.319446 43.665955 2.4401267
-0.54112434 17.218857 -0.96225435
-0.52196294 16.609131 0
-1.3713089 43.635757 2.43853
-0.56159055 17.207802 -0.9616738
-0.54423845 16.676111 0
-1.3529255 41.455246 2.3167646
-0.58229458 17.204515 -0.96152878
-0.56429988 16.672844 0
-1.4027514 41.445789 2.316329
-0.60326439 17.208988 -0.96181881
-0 0 0
-1.4494613 41.34798 2.3109589
-0.62330425 17.187473 -0.96065766
-0.60053456 16.559605 0
-0 0 0
-0.64426631 17.191906 -0.96094823
-0.62249237 16.61088 0
-1.5058842 40.183723 2.2460849
-0.66503888 17.191114 -0.96094823
-0.64115429 16.573704 0
-1.554538 40.184479 2.2462304
-0.68529272 17.177319 -0.96022266
-0.66698962 16.71854 0
-1.6021594 40.159195 2.2449236
-0.70668775 17.192051 -0.96109325
-0 0 0
-1.6511097 40.167614 2.2455041
-0.72713077 17.183393 -0.96065766
-0.7088201 16.750679 0
-1.6992037 40.155209 2.2449236
-0.74778014 17.179909 -0.9605127
-0.72838026 16.734205 0
-1.7470444 40.137554 2.2440531
-0.76853818 17.178993 -0.9605127
-0.74894881 16.741116 0
-1.794148 40.104263 2.2423115
-0.7885797 17.162483 -0.95964211
-0.76690686 16.6908 0
-1.8398621 40.042374 2.2389736
-0.80784774 17.130371 -0.95790046
-0.78780967 16.705463 0
-1.8872648 40.019356 2.2378125
-0.82716483 17.10083 -0.95630378
-0.80837172 16.712301 0
-1.9358699 40.022232 2.2381027
-0.84589744 17.060896 -0.95412713
-0.82869345 16.713909 0
-1.9834558 40.004295 2.237232
-0.86624771 17.054667 -0.95383656
-0.84941638 16.723291 0
-2.3072636 45.425354 2.5405576
-0.87721795 17.067112 -0.95456213
-0.85951966 16.722776 0
-2.33284 45.387627 2.5385258
-0.89592862 17.029716 -0.95253044
-0.88054538 16.737314 0
-2.0929596 39.782757 2.2251859
-0.91580695 17.015652 -0.95180488
-0.89964956 16.715446 0
-2.1422844 39.803547 2.2264919
-0.93422449 16.975613 -0.94962764
-0.92227721 16.758522 0
-2.1882365 39.76202 2.2243152
-0.95094186 16.907022 -0.94585431
-0.94427973 16.788576 0
-2.2410946 39.844959 2.2291048
-0.96525943 16.799513 -0.93990427
-0 0 0
-2.2913244 39.878536 2.2311363
-0.97733974 16.658264 -0.93206704
-0 0 0
-2.3448343 39.966518 2.2362158
-0.99544823 16.623354 -0.93018037
-1.003886 16.764259 0
-2.3948328 39.992191 2.2378125
-1.0141076 16.598799 -0.92887425
-1.0273157 16.814987 0
-2.4488578 40.082626 2.243037
-1.0333549 16.584587 -0.92814809
-1.0477942 16.816328 0
-2.4943798 40.032963 2.2404249
-1.0525699 16.570362 -0.92742258
-1.0676177 16.807257 0
-2.5361617 39.926201 2.2346199
-1.0715843 16.553526 -0.926552
-1.0882617 16.811153 0
-2.5812132 39.873837 2.2318621
-1.0917561 16.55481 -0.92669702
-1.1090878 16.817619 0
-2.6273391 39.839577 2.2301204
-1.1115845 16.550888 -0.926552
-1.1320232 16.855209 0
-2.6759982 39.844151 2.2305558
-1.1312274 16.544342 -0.92626143
-1.1584244 16.942102 0
-2.7246721 39.848671 2.2309914
-1.1535621 16.57666 -0.92814809
-1.1844958 17.021175 0
-2.7793126 39.938656 2.2362158
-1.1739583 16.580442 -0.92843866
-0 0 0
-3.4023259 48.052872 2.6907692
-1.1924984 16.558277 -0.92727757
-0 0 0
-2.8875792 40.095097 2.2453592
-0 0 0
-2.9371631 40.107132 2.2462304
-0 0 0
-2.9798357 40.025818 2.2418764
-0 0 0
-3.0225117 39.947052 2.2376676
-0 0 0
-3.0403216 39.862309 2.2330232
-0 0 0
-3.0886858 39.861195 2.2331681
-0 0 0
-3.1429639 39.935143 2.2375219
-0 0 0
-3.1965978 39.998665 2.2412958
-0 0 0
-3.2497585 40.054333 2.2446337
-0 0 0
-3.2960217 40.024487 2.2431827
-0 0 0
-3.3443811 40.020473 2.2431827
-0 0 0
-3.705533 43.705765 2.4499955
-0 0 0
-3.7501025 43.605473 2.4446256
-0 0 0
-3.799176 43.55949 2.4423034
-0 0 0
-3.8884223 43.371616 2.4322894
-0 0 0
-3.9382386 43.338417 2.4306927
-0 0 0
-3.9894104 43.320694 2.4299672
-0 0 0
-4.0453734 43.354652 2.4321444
-0 0 0
-4.0965338 43.3368 2.4314189
-0 0 0
-4.1404748 43.243877 2.4264843
-0 0 0
-4.1944785 43.256943 2.4275
-0 0 0
-4.2467427 43.251842 2.4275
-0 0 0
-4.5249243 45.519398 2.5550711
-0 0 0
-4.5788813 45.503555 2.5544903
-0 0 0
-4.6317539 45.477306 2.5533292
-0 0 0
-4.6584349 45.466755 2.5528944
-0 0 0
-4.5472364 43.858723 2.4629123
-0 0 0
-4.5939927 43.793755 2.459574
-0 0 0
-4.6430669 43.752003 2.4575422
-0 0 0
-4.6942658 43.730862 2.4566717
-0 0 0
-4.7263494 43.534 2.4459317
-0 0 0
-4.7128778 42.926468 2.4121161
-0 0 0
-4.7667499 42.938824 2.4131322
-0 0 0
-4.8186297 42.933033 2.4131322
-3.1152587 27.456978 0
-4.8573203 42.810997 2.406601
-3.1505086 27.471294 0
-4.9013486 42.73798 2.4028277
-3.1839995 27.470051 0
-4.9529853 42.732029 2.4028277
-3.2120426 27.422243 0
-5.0046148 42.726013 2.4028277
-3.2439511 27.408005 0
-5.0495191 42.66317 2.3996348
-3.2761397 27.39632 0
-5.085639 42.528038 2.3923781
-3.3014374 27.327751 0
-5.1357756 42.511543 2.3917975
-0 0 0
-5.1874533 42.507885 2.3919425
-3.503727 28.425137 0
-5.2451696 42.553162 2.3948455
-3.5422497 28.454453 0
-5.3007555 42.580315 2.3967321
-3.5675395 28.377851 0
-5.3616009 42.64864 2.4009409
-3.5903561 28.283165 0
-5.4193459 42.691101 2.4036982
-3.6245282 28.278807 0
-5.4692745 42.671638 2.4029727
-3.6566916 28.258924 0
-5.6195292 43.427742 2.4459317
-3.6761115 28.274769 0
-0 0 0
-3.7143371 28.301271 0
-5.4760928 41.724911 2.3505802
-3.7444298 28.265802 0
-3.5757322 26.992346 1.5208609
-3.7834098 28.297377 0
-3.5983589 26.913319 1.516652
-3.8203816 28.313408 0
-3.614893 26.790501 1.5099759
-3.8535378 28.301041 0
-3.6493642 26.801556 1.5108465
-3.8824172 28.257689 0
-3.6870515 26.835743 1.5130236
-3.9340682 28.379288 0
-3.7283943 26.895613 1.516652
-3.974844 28.420902 0
-3.7623291 26.901381 1.5172325
-4.0099101 28.421238 0
-3.8010025 26.940554 1.5196998
-4.0398483 28.385454 0
-5.8222375 40.909176 2.3080561
-4.0819092 28.434647 0
-5.8687105 40.881531 2.306895
-4.1162639 28.429693 0
-5.9214554 40.897564 2.3082018
-3.4064825 23.328663 0
-5.9723697 40.900665 2.3087823
-3.4293594 23.288479 0
-3.9288685 26.680601 1.5063475
-3.4330337 23.119574 0
-3.9595773 26.665552 1.505767
-3.4436271 22.999599 0
-3.9910243 26.655605 1.5054765
-3.4442225 22.815292 0
-4.0228419 26.648195 1.5053314
-3.446728 22.64646 0
-6.5372066 42.952213 2.4267745
-3.4539611 22.511095 0
-6.5871315 42.931442 2.4260488
-3.4684293 22.424603 0
-6.6378088 42.915745 2.4256132
-3.4731915 22.365932 0
-4.2511296 27.375536 1.5474199
-3.4986041 22.351435 0
-4.2854104 27.378084 1.5478555
-3.5219591 22.324057 0
-4.3330646 27.465277 1.55308
-3.5481126 22.314638 0
-4.3699198 27.483114 1.554386
-3.5758972 22.315479 0
-4.4043584 27.485514 1.5548216
-3.6036875 22.316277 0
-9.000989 55.739727 3.1537404
-3.6306498 22.311905 0
-9.0704193 55.741631 3.1544662
-3.6601341 22.322916 0
-9.1402874 55.74601 3.1553366
-3.7170589 22.331968 0
-4.4551468 26.766376 1.5156358
-3.7461932 22.340302 0
-4.4904938 26.778915 1.516652
-3.7757845 22.351151 0
-4.5267429 26.796528 1.5179582
-3.8045352 22.356834 0
-4.557374 26.780792 1.5173776
-3.8297875 22.341961 0
-4.5976315 26.82136 1.5199898
-3.8620942 22.368092 0
-4.6260581 26.792742 1.5186837
-3.8891187 22.363409 0
-4.6526413 26.753855 1.5167971
-3.9206269 22.384323 0
-4.6818261 26.730295 1.5157809
-3.9512877 22.400074 0
-4.7150245 26.729742 1.5160714
-3.9833584 22.423471 0
-7.7989902 43.90276 2.4906325
-4.0131989 22.434008 0
-7.8602676 43.939342 2.4932446
-4.0253716 22.423893 0
-7.9005852 44.011307 2.4975986
-7.8399305 43.372013 0
-7.9606919 44.040085 2.4997759
-7.8611097 43.190964 0
-5.0547771 27.772251 1.5767367
-7.8996878 43.107201 0
-5.092546 27.789124 1.5780429
-7.9324088 42.992695 0
-5.1261201 27.782949 1.5780429
-0 0 0
-5.1615849 27.786955 1.5786234
-8.0300636 42.940147 0
-5.1937227 27.773033 1.5781878
-8.0256128 42.631199 0
-4.9292383 26.183588 1.4882058
-4.9779654 26.267807 0
-4.9666786 26.208248 1.4899474
-5.011652 26.271999 0
-5.0002899 26.212439 1.490528
-5.04143 26.255701 0
-5.0358787 26.226791 1.4916891
-5.0731511 26.24959 0
-5.0729895 26.248755 1.4932858
-5.092442 26.179579 0
-5.1076779 26.257904 1.4941564
-6.3275318 32.320602 0
-5.1528797 26.320557 1.4980748
-6.3675876 32.318043 0
-5.1902051 26.342358 1.4996713
-6.4916654 32.739166 0
-5.2154613 26.302935 1.4977847
-6.29035 31.524176 0
-5.2330022 26.225264 1.4937208
-6.3294616 31.52166 0
-5.2411561 26.101736 1.4870447
-6.3696065 31.524193 0
-5.2624006 26.044455 1.4841424
-6.4320612 31.636332 0
-5.303184 26.083908 1.4867547
-6.6575255 32.543831 0
-5.3544865 26.174213 1.4922698
-0 0 -0
-6.7215018 32.65556 0
-5.4018235 26.244072 1.4966236
-6.295022 30.490265 0
-5.4245076 26.273884 1.4985102
-6.2879314 30.271162 0
-11.578783 55.742214 3.1800089
-6.3053379 30.171833 0
-11.648254 55.738358 3.1805894
-6.3396482 30.154005 0
-11.714526 55.719162 3.1802995
-6.3717709 30.125954 0
-11.783457 55.712593 3.1807351
-6.4032936 30.095325 0
-5.7361693 26.959856 1.5395826
-6.4352956 30.067207 0
-5.7720027 26.968145 1.5404532
-6.4705272 30.054325 0
-5.8056788 26.966238 1.5407438
-6.5398846 30.199087 0
-5.8388076 26.96174 1.5408888
-6.5885544 30.247103 0
-5.8647451 26.924198 1.5391471
-6.6217566 30.223871 0
-12.205957 55.711998 3.1856694
-4.5055776 20.446726 0
-5.9297929 26.909946 1.5391471
-6.3045588 28.447063 0
-5.9623041 26.902761 1.5391471
-6.3360963 28.426725 0
-5.9948063 26.895538 1.5391471
-4.5790949 20.427713 0
-6.0284381 26.893351 1.5394377
-4.598052 20.396782 0
-6.0592141 26.878441 1.5390021
-4.6152148 20.358219 0
-6.089963 26.863495 1.5385666
-4.6317134 20.317108 0
-6.121264 26.851053 1.5382766
-4.653933 20.30135 0
-6.1490588 26.823376 1.5371155
-4.680212 20.303312 0
-10.189347 44.202595 2.5337365
-4.7018032 20.284969 0
-10.24275 44.19025 2.5337365
-4.7257204 20.276741 0
-10.295548 44.175316 2.5335915
-6.4180727 27.463083 0
-13.032706 55.767254 3.1988761
-4.7713933 20.306147 0
-13.094732 55.728703 3.1975701
-6.6717 28.240211 0
-13.15967 55.702724 3.1969895
-6.7052169 28.229599 0
-13.23237 55.709534 3.1982956
-6.7308602 28.186043 0
-13.306314 55.721306 3.1998923
-6.7636967 28.172823 0
-13.373632 55.705189 3.1998923
-6.3117223 26.150972 0
-13.446418 55.71172 3.2011986
-6.3347259 26.107924 0
-13.516175 55.705532 3.2017791
-6.3104162 25.736155 0
-13.660035 55.710556 3.2039557
-6.3147292 25.619864 0
-13.730452 55.706631 3.2046819
-6.253057 25.238367 0
-13.799001 55.695038 3.2049718
-6.2514749 25.102007 0
-13.872567 55.703545 3.2064235
-6.2691612 25.043943 0
-13.939232 55.684212 3.2062778
-6.2867169 24.985874 0
-14.005872 55.66481 3.2061329
-6.3041439 24.927807 0
-5.7621961 22.78484 1.3127413
-6.2823319 24.715878 0
-5.7910042 22.782902 1.3130318
-6.2864251 24.607409 0
-5.8108106 22.745676 1.3112901
-6.2889719 24.493929 0
-5.8331203 22.718504 1.310129
-6.284308 24.414518 0
-14.340718 55.71365 3.2133896
-6.3033748 24.366594 0
-14.41128 55.708858 3.2141151
-6.3236461 24.323702 0
-14.481198 55.701462 3.2146957
-6.3629007 24.353815 0
-14.54652 55.67638 3.2142601
-6.395627 24.358694 0
-14.621702 55.688923 3.2160017
-6.4230623 24.343395 0
-4.1212616 15.619575 0.90230799
-4.1255126 15.559447 -0.89912188
-4.1261206 15.56174 0
-4.1354718 15.59701 0.90129244
-4.1402979 15.539392 -0.89825135
-4.1375499 15.529078 0
-4.1502995 15.576931 0.90042132
-4.156383 15.524337 -0.89767081
-4.152946 15.511499 0
-4.1644163 15.554341 0.89940578
-4.175138 15.519303 -0.89767081
-4.1764188 15.524065 0
-4.1818562 15.544275 0.8991152
-0 0 -0
-4.1911745 15.504213 -0.8970902
-4.1951737 15.519007 0
-4.2047052 15.554266 0.89998633
-4.2037759 15.476572 -0.89578408
-4.216651 15.523973 0
-4.2221327 15.544154 0.89969575
-4.212894 15.436381 -0.89375186
-4.2354054 15.518867 0
-4.2470684 15.5616 0.90100187
-4.2267346 15.413746 -0.89273632
-4.2534666 15.51123 0
-4.2686172 15.566481 0.90158242
-2.831893 10.278428 -0.59550571
-4.2639103 15.475971 0
-4.290184 15.571332 0.90216297
-0 0 -0
-0 0 0
-4.3124614 15.578655 0.90288854
-0 0 -0
-0 0 0
-4.3278012 15.560919 0.90216297
-0 0 -0
-4.3066735 15.412787 0
-4.3396091 15.530657 0.90071189
-0 0 -0
-2.8387005 10.112026 -0.58665293
-4.3245912 15.405069 0
-4.3464332 15.482875 0.89824462
-0 0 -0
-4.3488531 15.41987 0
-4.367959 15.487616 0.89882523
-0 0 -0
-4.3758664 15.479847 0
-6.630589 23.456043 1.3615059
-0 0 -0
-2.8529062 10.045912 -0.5833146
-4.4023857 15.50208 0
-6.6539564 23.430513 1.3604897
-0 0 -0
-2.8607669 10.02747 -0.58244401
-4.4182606 15.486748 0
-6.6886778 23.444942 1.3617959
-2.8671539 10.004023 -0.58128291
-6.7126412 23.421629 0
-6.7055502 23.396887 1.3594742
-0 0 -0
-2.8821154 10.010539 -0.58186346
-6.7315769 23.380991 0
-6.6863689 23.22397 1.3498952
-0 0 -0
-2.8898787 9.9920769 -0.58099288
-6.7540393 23.35284 0
-6.6877151 23.123518 1.3445252
-0 0 -0
-2.8961506 9.9686155 -0.57983178
-6.7778964 23.329672 0
-6.7279739 23.157839 1.3469925
-0 0 -0
-2.9001853 9.9376678 -0.57823509
-6.8206625 23.371431 0
-6.7646861 23.179625 1.3487341
-2.9048827 9.9092264 -0.57678401
-6.6526999 22.693897 0
-6.77807 23.121563 1.3458314
-2.9153845 9.9007187 -0.57649344
-6.673501 22.663376 0
-6.7949953 23.075974 1.3436546
-2.9273455 9.8971891 -0.57649344
-6.6514268 22.488096 0
-6.8243456 23.072725 1.3439447
-2.9422622 9.9036083 -0.57707399
-2.9922578 10.071893 0
-6.8544402 23.071938 1.3443803
-2.9527421 9.895071 -0.57678401
-2.9887986 10.015902 0
-6.6831965 22.39637 1.3054851
-2.9639509 9.8890095 -0.576639
-3.0016451 10.014773 0
-6.7095051 22.385782 1.3053396
-2.9781425 9.8928776 -0.57707399
-0 0 0
-6.7238159 22.335361 1.3028723
-0 0 -0
-2.9878399 9.8818178 -0.576639
-0 0 0
-6.7395205 22.289919 1.3006957
-0 0 -0
-3.0005324 9.8806839 -0.57678401
-3.0288534 9.9739447 0
-6.7536139 22.239494 1.2982284
-3.0124691 9.8770514 -0.57678401
-0 0 0
-6.7804809 22.231318 1.2982284
-3.0251617 9.875886 -0.57692897
-0 0 0
-6.8042941 22.213171 1.2976478
-3.0386193 9.8771858 -0.57721901
-3.0481544 9.9081802 0
-6.8303661 22.202452 1.2975029
-0 0 -0
-3.0536199 9.8834381 -0.57779956
-3.0593567 9.9020061 0
-6.8686919 22.231415 1.2996795
-0 0 -0
-3.0634353 9.8940096 -0.57852566
-3.0668764 9.9051237 0
-6.8744378 22.202444 1.2982284
-3.0769296 9.8952579 -0.57881564
-3.0772986 9.8964453 0
-6.905117 22.206526 1.298954
-3.0912082 9.8989763 -0.57925123
-3.0923574 9.9026556 0
-6.924974 22.175846 1.2976478
-3.1078308 9.9101057 -0.58012176
-3.1027615 9.8939409 0
-8.8613081 28.256527 1.654092
-0 0 -0
-3.1205828 9.9088192 -0.58026677
-6.5589423 20.826679 0
-8.886858 28.218533 1.6524953
-0 0 -0
-3.1364732 9.9174366 -0.58099288
-6.9992146 22.131311 0
-8.9107628 28.17557 1.6506087
-3.1563179 9.9384003 -0.58244401
-7.0338302 22.147646 0
-8.9274988 28.110302 1.6474159
-0 0 -0
-3.1730599 9.9494276 -0.5833146
-7.0550499 22.121773 0
-8.9346161 28.015329 1.6424814
-0 0 -0
-3.1882496 9.9554853 -0.58389515
-8.9334793 27.895283 0
-8.9541941 27.959965 1.6398686
-3.2026637 9.9590492 -0.58433068
-8.9608049 27.864649 0
-8.8074055 27.387634 1.6069241
-8.9944677 27.8538 0
-8.7973747 27.24345 1.5990868
-9.0249062 27.83301 0
-8.8158617 27.188313 1.5964745
-6.5545683 20.049168 0
-7.3716974 22.548611 1.3250774
-6.5382061 19.917604 0
-7.3973184 22.534754 1.3247874
-8.82125 26.763365 0
-7.4180346 22.506056 1.3236263
-6.5601578 19.822693 0
-7.4419575 22.487209 1.3230457
-3.326638 10.011461 -0.58926517
-6.557024 19.733253 0
-7.4683051 22.475737 1.3229008
-3.3370895 10.002509 -0.58897513
-6.5685081 19.688282 0
-7.4740777 22.402615 1.3191273
-0 0 -0
-3.3450441 9.9861431 -0.58824903
-6.5931182 19.682796 0
-7.4805088 22.331972 1.3154991
-3.3562803 9.9796333 -0.58810401
-6.6243653 19.697023 0
-7.4934068 22.28105 1.3130318
-3.3633504 9.960804 -0.58723348
-6.6506557 19.696396 0
-7.5061927 22.230129 1.3105645
-3.3618734 9.9366198 -0.58592737
-6.6884108 19.768797 0
-7.9709573 23.559593 1.389226
-6.713129 19.763163 0
-7.9843769 23.505663 1.3866137
-6.7512836 19.796909 0
-7.9758697 23.387785 1.3802276
-0 0 -0
-6.7844696 19.815815 0
-7.9721413 23.284719 1.3747126
-6.8007956 19.785454 0
-7.9673314 23.179239 1.3690525
-6.8246975 19.777222 0
-7.9529538 23.046785 1.3617959
-6.8426285 19.751755 0
-7.9578319 22.970873 1.3578775
-6.8160539 19.598454 0
-7.9616823 22.892521 1.3538136
-6.8165665 19.523859 0
-7.955936 22.787216 1.3481536
-6.8504825 19.545082 0
-7.9593983 22.708925 1.3440896
-6.4810915 18.419842 0
-7.9557872 22.611059 1.3388653
-6.5033436 18.411997 0
-7.954545 22.520578 1.3340758
-6.5107985 18.362421 0
-7.9478869 22.415443 1.3284158
-6.5303655 18.347191 0
-7.949698 22.334835 1.3242068
-7.0008368 19.594013 0
-7.9469557 22.242022 1.3192724
-6.9955139 19.504702 0
-7.9483862 22.161474 1.3150635
-6.9917507 19.420334 0
-7.9540334 22.093178 1.3115801
-7.0426288 19.48774 0
-7.9559979 22.015135 1.3075168
-7.0865836 19.535488 0
-7.9515824 21.920017 1.3024373
-7.1199756 19.553802 0
-7.9585018 21.856674 1.2992439
-8.7185621 23.854357 0
-7.9750962 21.820202 1.2976478
-8.741025 23.871077 0
-7.9873848 21.812943 1.2975029
-8.7546005 23.818974 0
-8.0137358 21.803276 1.2975029
-7.1683784 19.43074 0
-8.0409737 21.796011 1.2976478
-7.2008867 19.446465 0
-8.0727158 21.800896 1.2985184
-7.2225676 19.432877 0
-8.1017685 21.798435 1.298954
-8.6995316 23.320435 0
-8.1290092 21.791061 1.299099
-8.7003288 23.236794 0
-8.1626225 21.800692 1.3002601
-8.7137508 23.187284 0
-8.1917019 21.798111 1.3006957
-8.6985979 23.0623 0
-8.2198668 21.793056 1.3009856
-8.6914463 22.959288 0
-8.2507925 21.795256 1.3017112
-8.6979256 22.89282 0
-8.2789688 21.790134 1.3020017
-8.6884899 22.785027 0
-8.3052921 21.780113 1.3020017
-8.694622 22.718615 0
-8.340889 21.794327 1.3034528
-8.6894064 22.623058 0
-8.3672171 21.784231 1.3034528
-8.6998882 22.568838 0
-8.4010096 21.793503 1.3046139
-8.7187014 22.536467 0
-8.4254637 21.778494 1.304324
-8.7449846 22.523491 0
-8.4564743 21.780405 1.3050495
-8.7646351 22.493509 0
-8.4884434 21.784695 1.3059201
-8.7434721 22.359297 0
-8.5176001 21.781685 1.3063556
-8.6801662 22.118574 0
-8.5467615 21.778635 1.3067912
-8.678278 22.035429 0
-8.5740213 21.770708 1.3069363
-8.6762009 21.952322 0
-8.5993671 21.757917 1.3067912
-8.6549759 21.859976 0
-8.6211185 21.77446 1.3080974
-8.6515923 21.774523 0
-8.6483812 21.766439 1.3082423
-6.2082453 15.5702 -0.9362759
-8.6509113 21.696375 0
-8.6756363 21.758385 1.3083873
-6.2087126 15.516847 -0.93351811
-8.6529512 21.625502 0
-8.6922693 21.723766 1.3069363
-6.2139039 15.47558 -0.93148649
-8.6490126 21.540161 0
-8.6981802 21.662611 1.3038884
-6.2160902 15.42709 -0.92901921
-8.6478033 21.462114 0
-8.6991014 21.589426 1.3001151
-6.2142725 15.368981 -0.92597145
-8.6473885 21.386503 0
-8.6940126 21.501812 1.2954706
-6.2259989 15.344604 -0.92495531
-8.649744 21.318171 0
-8.6887283 21.414251 1.2908267
-6.244535 15.33707 -0.92495531
-8.6352606 21.208881 0
-8.6842203 21.329128 1.2863272
-6.2610989 15.324708 -0.92466533
-8.6402121 21.14784 0
-8.6854172 21.258488 1.2826989
-6.2835541 15.326748 -0.92524588
-8.6509533 21.101273 0
-8.6775866 21.166237 1.2777644
-6.3205743 15.311519 -0.92524588
-8.6999331 21.075489 0
-8.7078915 21.094769 1.2747166
-6.3470259 15.323075 -0.92640698
-6.3721232 15.383666 0
-8.7353649 21.089037 1.2750072
-5.9217649 14.247687 -0.86182284
-6.3937039 15.383167 0
-8.7608404 21.078466 1.2750072
-5.9389763 14.240522 -0.86182284
-8.7812805 21.055822 0
-8.7903042 21.077459 1.2755878
-5.9451475 14.206975 -0.86022675
-8.7866268 20.99719 0
-8.8217821 21.0812 1.2764583
-5.9522481 14.175818 -0.85877508
-8.7837801 20.919371 0
-8.8462439 21.06813 1.2763133
-5.9491987 14.120733 -0.85587287
-8.7817717 20.843992 0
-8.8757296 21.067005 1.2768939
-5.9510794 14.077631 -0.85369563
-8.7846565 20.780626 0
-8.3518219 19.756729 1.1980875
-5.9457645 14.017807 -0.85050285
-8.8056946 20.760412 0
-8.360467 19.710739 1.1959102
-5.9240332 13.919762 -0.84498781
-8.8083534 20.697079 0
-8.3679972 19.662369 1.193588
-5.8988161 13.837302 -0.84019834
-6.3399663 14.872142 0
-8.355422 19.599951 1.1901052
-5.8807898 13.74894 -0.83526385
-9.0269966 21.104588 0
-8.3463993 19.51339 1.1854607
-5.8625588 13.660643 -0.83032942
-9.0432549 21.072142 0
-8.3505001 19.457918 1.1827029
-5.8163791 13.507977 -0.82147658
-9.0707664 21.065975 0
-8.3565359 19.407246 1.1802357
-5.8048716 13.436532 -0.81755769
-9.090023 21.04067 0
-8.3552504 19.339893 1.1767529
-5.8138719 13.412827 -0.81654215
-9.1123333 21.022505 0
-8.3517466 19.267801 1.1729796
-5.821784 13.386729 -0.81538099
-6.3376074 14.572824 0
-8.3605118 19.224331 1.1709473
-5.8275614 13.355865 -0.81392932
-6.3552113 14.565155 0
-8.3504848 19.138014 1.1663034
-5.8457813 13.353579 -0.81421989
-6.3550644 14.516939 0
-6.9617038 15.902692 0.96964937
-5.8556404 13.332226 -0.81334877
-6.375741 14.5164 0
-6.9631515 15.853827 0.96718216
-5.8654609 13.310878 -0.81247824
-6.381732 14.482487 0
-8.3255043 18.893618 1.1532412
-5.8836393 13.30853 -0.81276822
-6.4013333 14.47953 0
-8.3241653 18.82889 1.1499034
-5.9039302 13.310912 -0.81334877
-6.4103827 14.452753 0
-8.3247871 18.76894 1.1468556
-5.9221244 13.308521 -0.81363934
-6.4119697 14.409328 0
-8.3168249 18.690023 1.1426467
-5.9382005 13.301355 -0.81363934
-6.413465 14.365931 0
-8.3182163 18.632505 1.1397439
-5.9574518 13.301278 -0.81407434
-6.407413 14.305913 0
-8.8452177 19.748829 1.2086819
-5.9681954 13.282222 -0.81334877
-6.4012299 14.24594 0
-8.8861132 19.776049 1.2110041
-5.9810395 13.2679 -0.81291378
-6.387423 14.169393 0
-8.9067974 19.758188 1.2105687
-5.9756522 13.213312 -0.81001097
-6.1675525 13.637641 0
-8.9338789 19.754519 1.2110041
-5.9347143 13.080671 -0.80231875
-6.1130652 13.473774 0
-8.9588137 19.746073 1.2111492
-5.9028454 12.989566 -0.79694927
-6.1072044 13.43927 0
-8.962142 19.721731 1.2099881
-5.9077559 12.958776 -0.7954976
-6.1050873 13.391626 0
-8.9881191 19.715612 1.210278
-5.9223299 12.949267 -0.79535258
-6.0985341 13.334541 0
-9.0086956 19.697655 1.209843
-5.9347205 12.935015 -0.79491705
-6.1005344 13.296414 0
-9.0259867 19.672581 1.208972
-5.9557767 12.939633 -0.79564261
-6.1144218 13.284309 0
-9.0280256 19.61446 1.2060697
-5.9616046 12.911199 -0.7943365
-6.0955572 13.201303 0
-9.0321102 19.561069 1.2034569
-5.9793873 12.908706 -0.79462707
-6.0961924 13.160872 0
-9.0295315 19.493563 1.1999742
-5.9697948 12.84727 -0.79128867
-6.1011252 13.129899 0
-9.0246077 19.421366 1.1962003
-5.9117661 12.682269 -0.78156531
-6.1246796 13.139023 0
-9.0250187 19.361 1.193153
-5.8412352 12.491523 -0.77024472
-6.1218114 13.091537 0
-5.9512482 12.726787 0.78475142
-5.8166018 12.399776 -0.76502025
-6.1608343 13.133608 0
-5.9368296 12.656076 0.78083307
-5.8094525 12.345716 -0.76211751
-6.1678348 13.107316 0
-5.9543281 12.653592 0.7811231
-5.8099475 12.308142 -0.76023078
-6.1892257 13.111628 0
-5.9718294 12.651083 0.78141308
-5.7936778 12.235355 -0.75616688
-6.2061768 13.106489 0
-5.9837785 12.636819 0.78097808
-5.7493744 12.10396 -0.74847519
-6.2164268 13.087229 0
-5.9812055 12.592026 0.77865583
-5.7170534 11.998486 -0.74237961
-6.2423096 13.100851 0
-6.0031199 12.59886 0.77952641
-5.709136 11.944681 -0.73947686
-6.2626238 13.102691 0
-6.0250645 12.605668 0.78039753
-5.6977258 11.883881 -0.73613846
-6.2874527 13.113888 0
-6.0548944 12.628837 0.7822842
-5.7042007 11.860602 -0.73512292
-6.2874999 13.073442 0
-6.0701494 12.621511 0.7822842
-5.7094955 11.834979 -0.73396182
-6.3100791 13.079904 0
-6.0978117 12.639904 0.78388029
-5.7158675 11.811696 -0.73294568
-6.3168097 13.053529 0
-6.1210046 12.648902 0.78489643
-5.7312732 11.807125 -0.73309124
-6.306438 12.992035 0
-6.1238055 12.615789 0.78330034
-5.7372661 11.801317 -0.73294568
-6.3211155 13.002271 0
-6.118928 12.586379 0.78170365
-5.7526636 11.796719 -0.73309124
-6.3105841 12.94082 0
-6.1352692 12.58131 0.78184867
-5.7634873 11.782754 -0.7326557
-6.3193574 12.919163 0
-6.1630273 12.599566 0.7834453
-5.7845855 11.789774 -0.73352623
-6.3189158 12.878813 0
-6.1896906 12.615433 0.78489643
-5.8080058 11.801427 -0.73468739
-6.3149381 12.831474 0
-6.2095189 12.61727 0.78547698
-5.814209 11.778088 -0.73367125
-6.3327398 12.828498 0
-6.2282114 12.616751 0.78591257
-5.8318963 11.778042 -0.73410684
-6.3436165 12.811507 0
-6.2492156 12.620856 0.78663808
-5.8519015 11.78262 -0.73483235
-6.3579354 12.801504 0
-6.2771764 12.638898 0.78823477
-5.8638191 11.770894 -0.73454237
-6.3675981 12.782167 0
-6.2924433 12.631304 0.78823477
-5.885004 11.777742 -0.73541296
-6.3783851 12.765152 0
-6.3065362 12.621361 0.78808922
-5.9027247 11.777595 -0.73584849
-6.3961344 12.762084 0
-6.3206191 12.61141 0.7879442
-5.9381866 11.777212 -0.73671907
-6.417583 12.728 0
-6.354588 12.603062 0.78837979
-5.9535885 11.772354 -0.73686463
-6.4470515 12.748105 0
-6.3733311 12.602333 0.78881532
-5.9654555 11.760512 -0.73657405
-9.4809084 18.691 0
-6.4026551 12.622422 0.79055643
-5.9820204 11.757932 -0.73686463
-9.4905033 18.654013 0
-6.4579611 12.693415 0.79549092
-6.0068517 11.771523 -0.73817074
-9.5248632 18.665709 0
-6.4780183 12.69486 0.79607147
-6.017518 11.757316 -0.73773515
-9.539113 18.637976 0
-6.5194001 12.737916 0.79926485
-6.0388427 11.76391 -0.73860627
-9.5699425 18.642637 0
-6.5513973 12.762388 0.80129647
-6.0601869 11.770462 -0.73947686
-9.5996122 18.644947 0
-8.2046061 15.935482 1.0011433
-6.0708704 11.773729 -0.73991239
-9.6275702 18.671524 0
-8.2082739 15.918968 1.0004172
-6.0874772 11.770997 -0.74020237
-9.6525173 18.664505 0
-8.2263107 15.906733 1.0002723
-6.0993052 11.759024 -0.73991239
-9.6774569 18.657444 0
-8.2431345 15.892172 0.99998224
-6.124301 11.772389 -0.74121851
-9.7096024 18.664207 0
-8.2647266 15.886806 1.0002723
-6.140923 11.769585 -0.74150848
-9.7345524 18.657072 0
-9.3175831 17.857914 1.1250861
-6.1563435 11.764456 -0.7416535
-9.7643318 18.659136 0
-9.3403578 17.848942 1.125231
-6.182632 11.780021 -0.74310517
-9.7832403 18.640408 0
-9.3594999 17.833038 1.1249405
-6.1908107 11.761047 -0.74237961
-9.8203039 18.656208 0
-9.3822546 17.82402 1.1250861
-6.208653 11.760446 -0.7428146
-9.8379784 18.635122 0
-9.4074211 17.819559 1.1255211
-6.2240782 11.755238 -0.74296021
-9.859272 18.620924 0
-8.3334837 15.739212 0.99475724
-6.2370553 11.745407 -0.7428146
-6.6327853 12.490632 0
-8.3427458 15.710772 0.99359614
-6.2414713 11.719514 -0.7416535
-6.6576595 12.500985 0
-8.3653889 15.707561 0.99403167
-6.2421646 11.686759 -0.74005741
-6.6568217 12.463092 0
-8.3782425 15.685985 0.9933061
-6.2047505 11.583011 -0.73396182
-6.664505 12.441278 0
-8.4020977 15.685012 0.99388665
-6.1646376 11.474796 -0.72757626
-6.679533 12.433217 0
-8.4173536 15.667979 0.99345112
-6.1242681 11.366687 -0.72119009
-6.6871424 12.411386 0
-8.44244 15.669232 0.99417669
-6.114531 11.31585 -0.71843284
-6.7046108 12.407881 0
-8.4564266 15.649876 0.99359614
-6.1108651 11.276465 -0.71640062
-6.7071962 12.376884 0
-9.6699686 17.84413 1.1336483
-6.1046381 11.232553 -0.71407896
-6.7097216 12.345909 0
-9.6989698 17.846136 1.1345195
-6.0995512 11.190944 -0.71190172
-6.7208967 12.330935 0
-9.723011 17.838963 1.1348095
-6.095623 11.151649 -0.70987004
-6.1666188 11.281531 0
-9.7507944 17.838608 1.1355356
-6.0886335 11.12289 -0.70827341
-6.1809335 11.291505 0
-9.7590723 17.82815 1.135245
-6.0895672 11.092751 -0.70682228
-6.1883116 11.272624 0
-9.7868576 17.827732 1.1359706
-6.0891795 11.060344 -0.70522559
-6.1830997 11.230939 0
-8.4713106 15.38723 0.98111498
-6.0749111 11.002937 -0.7020328
-6.1727691 11.180178 0
-8.0428076 14.567209 0.92944807
-0 0 -0
-6.0642858 10.952394 -0.69927502
-6.1749244 11.152214 0
-8.0817995 14.596124 0.93191534
-6.0611176 10.915529 -0.69738835
-6.1782928 11.126551 0
-8.081768 14.55454 0.92988312
-6.0616632 10.8855 -0.69593722
-6.1778035 11.094065 0
-8.0980854 14.542496 0.9297381
-6.0608745 10.85321 -0.69434053
-6.1785178 11.063874 0
-8.1156511 14.5327 0.9297381
-6.0524011 10.80734 -0.69187331
-6.1753469 11.026875 0
-8.1509781 14.554619 0.93176979
-6.0514627 10.775104 -0.69027722
-6.1733785 10.992185 0
-8.1889172 14.581009 0.93409199
-6.0453496 10.733821 -0.68809998
-6.1777148 10.968842 0
-8.2639093 14.672984 0.94062316
-6.0480919 10.708408 -0.68693888
-6.1909637 10.96137 0
-8.3519115 14.78742 0.94860542
-6.0443797 10.671701 -0.68505216
-6.2029228 10.951618 0
-8.3928213 14.818011 0.95121765
-6.0431571 10.639544 -0.68345606
-0 0 0
-8.4081554 14.803345 0.95092762
-6.0302873 10.587076 -0.68055326
-6.2486877 10.97051 0
-8.4080296 14.761559 0.94889539
-6.0353403 10.566239 -0.67968214
-6.2593598 10.958437 0
-8.3975086 14.701755 0.94570261
