# .PCD v0.7 - Point Cloud Data file format
VERSION 0.7
FIELDS x y z
SIZE 4 4 4
TYPE F F F
COUNT 1 1 1
WIDTH 1533
HEIGHT 1
VIEWPOINT 0 0 0 1 0 0 0
POINTS 1533
DATA ascii
-2.30425 1.582301 -0.9216702
-2.3067832 1.5840406 -0.77204031
-2.3092117 1.5857083 -0.62055749
-2.3442426 1.6097635 -0.47409073
-2.5619318 1.7592481 -0.34639955
-5.6294289 3.8656619 -0.38143602
-2.5324328 1.7389915 0
-5.8092537 3.9891453 0.39362049
-2.2816901 1.5627558 -0.91189063
-2.302484 1.5769979 -0.76996315
-2.3132286 1.5843569 -0.621122
-2.3419542 1.6040313 -0.47323561
-2.6024625 1.7824566 -0.35158825
-5.6362457 3.8603296 -0.38158157
-2.5710318 1.7609292 0
-6.0005755 4.1098633 0.4062472
-2.3019426 1.5725441 -0.91922456
-2.2961018 1.568554 -0.76719451
-2.310941 1.5786914 -0.61999518
-2.3502517 1.6055459 -0.47451991
-2.5426891 1.7370073 -0.34322914
-5.6323237 3.8476536 -0.38100103
-2.5710108 1.7563548 0
-6.0227017 4.1143355 0.40740833
-2.2977114 1.565585 -0.91677886
-2.3228743 1.5827302 -0.77550042
-2.3191483 1.5801914 -0.62168437
-2.3543093 1.604149 -0.47494748
-2.5533361 1.7397592 -0.34438232
-5.6519942 3.851083 -0.38201657
-2.5623796 1.7459213 0
-5.9568081 4.058773 0.40261886
-2.3159552 1.5739214 -0.9232986
-2.3206391 1.5771048 -0.77411747
-2.31265 1.5716753 -0.61943281
-2.3519955 1.5984145 -0.47409073
-2.572542 1.7482977 -0.34668756
-5.6630926 3.8486338 -0.38245213
-2.5472677 1.7311213 0
-5.8263192 3.9595623 0.39347547
-2.2994442 1.5586423 -0.91596466
-2.3183858 1.5714816 -0.77273178
-2.3313732 1.580285 -0.62393588
-2.3518023 1.5941324 -0.47366315
-2.5982053 1.761153 -0.34985906
-5.7043018 3.8665721 -0.38491938
-2.5407405 1.7222012 0
-5.762279 3.9058707 0.38883159
-2.3279421 1.5738573 -0.92655843
-2.3078167 1.5602511 -0.76858014
-2.3164413 1.5660819 -0.61943281
-2.3452201 1.5855385 -0.47195131
-2.5510547 1.7246976 -0.34322914
-5.7046685 3.8567688 -0.38462937
-2.5535975 1.7264167 0
-5.7519236 3.8887165 0.38781548
-2.2929599 1.5461731 -0.91189063
-2.3138564 1.560264 -0.76996315
-2.3162272 1.5618626 -0.61887044
-2.3556478 1.5884444 -0.47366315
-2.5231099 1.7013663 -0.33919251
-5.7265601 3.861495 -0.3857905
-2.5535259 1.7218763 0
-5.7350783 3.867239 0.38636434
-2.2927775 1.5420233 -0.91107643
-2.3053334 1.5504678 -0.76650298
-2.3181126 1.5590627 -0.61887044
-2.3511813 1.5813031 -0.47238049
-2.5573595 1.7199697 -0.34351715
-5.7269053 3.8516695 -0.38549992
-2.5771956 1.7333108 0
-5.7268057 3.8516028 0.38549322
-2.2987401 1.5420029 -0.91270483
-2.3072052 1.5476812 -0.76650298
-2.3136625 1.5520128 -0.61718124
-2.35309 1.5784611 -0.47238049
-2.5272141 1.695264 -0.33919251
-5.7552938 3.8606713 -0.38709658
-2.5511937 1.7113496 0
-5.7724581 3.8721848 0.38825104
-2.294445 1.535105 -0.91026229
-2.3194971 1.5518662 -0.76996315
-2.3176458 1.5506276 -0.61774361
-2.3336558 1.5613391 -0.46810001
-2.4260826 1.6231776 -0.32535559
-5.7556314 3.8508217 -0.38680604
-2.5662336 1.716946 0
-5.8030481 3.8825462 0.38999268
-2.300406 1.5350727 -0.91189063
-2.3172009 1.54628 -0.76858014
-2.3131752 1.5435936 -0.61605442
-2.3504899 1.5684938 -0.47109619
-3.2907302 2.1959209 -0.44095501
-5.749475 3.8366542 -0.38608047
-2.5271819 1.6864015 0
-5.8142133 3.8798542 0.39042771
-2.3104894 1.5377697 -0.91515046
-2.3148866 1.5406963 -0.76719451
-2.3319604 1.55206 -0.62055749
-2.3630664 1.5727628 -0.47323561
-3.3127577 2.2048395 -0.44354936
-5.7605982 3.8340247 -0.38651603
-2.5400484 1.690555 0
-5.8102446 3.8670673 0.38984713
-2.3205826 1.5404445 -0.91841036
-2.310482 1.5337396 -0.76512003
-2.310554 1.5337874 -0.61436737
-2.3478551 1.5585486 -0.46981186
-3.3369644 2.215137 -0.44643176
-5.7868714 3.8414295 -0.38796717
-2.5442553 1.6889225 0
-5.7997651 3.8499885 0.38883159
-2.3100731 1.5294501 -0.91351897
-2.308146 1.5281742 -0.76373434
-2.3102889 1.529593 -0.61380506
-2.3540215 1.5585475 -0.47066861
-3.3396385 2.2111034 -0.44643176
-5.8131709 3.8487763 -0.38941827
-2.5484705 1.6872879 0
-5.8217459 3.8544536 0.38999268
-2.2789273 1.5048716 -0.90048265
-2.2869601 1.5101759 -0.75611991
-2.3184905 1.5309968 -0.61549205
-2.3644717 1.5613602 -0.47238049
-3.3358388 2.2027948 -0.4455677
-5.8438373 3.8589315 -0.39115995
-2.5439901 1.6799037 0
-5.8307314 3.8502772 0.39028269
-2.3158326 1.5252265 -0.91433632
-2.3306868 1.5350096 -0.76996315
-2.3139787 1.5240055 -0.61380506
-2.3513474 1.5486169 -0.46938431
-3.3384981 2.1987624 -0.4455677
-5.8289671 3.8390059 -0.38985384
-2.5590546 1.6854146 0
-5.7659369 3.7974937 0.38563824
-2.2816513 1.5007387 -0.90048265
-2.2938895 1.5087883 -0.75750554
-2.3170197 1.5240022 -0.61436737
-2.3544254 1.5486053 -0.46981186
-3.3527873 2.2052703 -0.44729689
-5.8291163 3.8340571 -0.38970882
-2.5492029 1.6767188 0
-5.4230733 3.5669854 0.3625626
-2.3103268 1.5156038 -0.91107643
-2.3271701 1.5266532 -0.76788598
-2.3167372 1.519809 -0.61380506
-2.352006 1.5429459 -0.46895677
-3.3489594 2.19696 -0.44643176
-5.8924007 3.86549 -0.39362717
-2.5316446 1.6607912 0
-5.3795848 3.5290763 0.35936981
-2.2935443 1.5006334 -0.90374255
-2.3143237 1.5142291 -0.76304287
-2.3036861 1.5072691 -0.60986429
-2.3388298 1.5302631 -0.46596056
-3.371089 2.2056556 -0.44902611
-5.8905501 3.8541033 -0.39319217
-2.5663183 1.6791055 0
-5.3773198 3.5183041 0.35893425
-2.2850003 1.4911035 -0.89966536
-2.3245556 1.5169157 -0.7658115
-2.3161433 1.5114261 -0.61267817
-2.3492763 1.5330476 -0.46767244
-3.3954165 2.2157183 -0.45190957
-5.9126034 3.8583379 -0.39435273
-2.5509093 1.6646254 0
-5.3728628 3.506124 0.35835367
-2.2764449 1.4816016 -0.89559132
-2.313767 1.5058923 -0.76165718
-2.3094494 1.5030823 -0.61042666
-2.3575838 1.53441 -0.46895677
-2.3576033 1.5344228 -0.31353587
-5.9216208 3.8540282 -0.39464331
-2.5485523 1.6587 0
-5.3770952 3.4996293 0.35835367
-2.2989688 1.4923097 -0.90374255
-2.302963 1.4949024 -0.75750554
-2.3240554 1.508594 -0.61380506
-2.3508232 1.5259694 -0.46724489
-2.4310467 1.5780442 -0.32304925
-5.9502501 3.8624344 -0.39623997
-2.5440037 1.6513671 0
-5.390038 3.4987886 0.35893425
-2.3069885 1.4935565 -0.90618509
-2.3405669 1.5152951 -0.76927167
-2.3280075 1.5071642 -0.61436737
-2.3612847 1.5287081 -0.46895677
-2.4351208 1.57651 -0.32333726
-5.9832668 3.8735983 -0.39812663
-2.5459971 1.6482918 0
-5.4138908 3.5049813 0.36024037
-2.2901061 1.4787028 -0.89885116
-2.31078 1.4920517 -0.75888854
-2.3255537 1.501591 -0.61324054
-2.3437147 1.5133175 -0.46510383
-2.7173159 1.7545487 -0.36052558
-6.0163193 3.8846881 -0.40001333
-2.5392499 1.639573 0
-5.4508681 3.5195811 0.36241758
-2.2856631 1.4719238 -0.89640862
-2.3231335 1.4960541 -0.76235133
-2.3252323 1.4974055 -0.61267817
-2.3390732 1.5063188 -0.46382114
-2.8085814 1.8086733 -0.3723442
-6.042851 3.8914816 -0.40146443
-2.5609195 1.6491838 0
-5.4725943 3.5242472 0.36357871
-2.3144729 1.4865235 -0.90700239
-2.3354919 1.5000234 -0.7658115
-2.3206241 1.4904741 -0.61098897
-2.353847 1.5118123 -0.46638814
-2.867352 1.8416228 -0.37984034
-6.0103827 3.8603067 -0.39899719
-2.5541513 1.6404625 0
-5.5008922 3.5330744 0.36517483
-2.2954512 1.4703916 -0.89885116
-2.3056128 1.4769008 -0.75542843
-2.3224232 1.4876691 -0.61098897
-2.3556719 1.5089672 -0.46638814
-2.8652151 1.8353639 -0.37926322
-6.0106711 3.8502409 -0.39870721
-2.558321 1.6387775 0
-5.4964046 3.5208187 0.36459425
-2.2722323 1.4516492 -0.88907158
-2.3116281 1.4768177 -0.75681406
-2.3220799 1.4834951 -0.61042666
-2.3618243 1.5088863 -0.46724489
-2.8499935 1.8207605 -0.37695688
-6.0437832 3.8611603 -0.40059388
-2.5493357 1.6286808 0
-5.4174495 3.4610178 0.35907924
-2.2823224 1.454215 -0.89233148
-2.3155246 1.4753704 -0.75750554
-2.3110175 1.4724987 -0.60705042
-2.350652 1.4977522 -0.46467626
-2.8238363 1.7992487 -0.37320936
-6.0068054 3.8273239 -0.39783609
-2.5644665 1.6339874 0
-5.3734207 3.4237537 0.35588646
-2.3174546 1.4726661 -0.90537089
-2.3427145 1.4887179 -0.7658115
-2.3127952 1.4697052 -0.60705042
-2.3502953 1.4935354 -0.46424872
-2.6753917 1.7001233 -0.35331854
-5.9456367 3.7782564 -0.39348218
-2.5554585 1.6239098 0
-0 0 0
-2.279573 1.4447299 -0.88988888
-2.3063731 1.461715 -0.75335395
-2.3210015 1.4709862 -0.60873747
-2.3586051 1.4948183 -0.46553302
-2.4524369 1.5542862 -0.32362637
-5.899724 3.7390807 -0.39014438
-2.5508223 1.6166401 0
-5.3794861 3.4093685 0.35574144
-2.3001182 1.4538583 -0.89722282
-2.3250947 1.4696454 -0.75888854
-2.31634 1.4641118 -0.60705042
-2.3452179 1.482365 -0.46253684
-2.377789 1.5029523 -0.31353587
-5.8734827 3.7125099 -0.38811216
-2.55498 1.6149513 0
-5.3923879 3.4084194 0.35632202
-2.303962 1.4523947 -0.89803702
-2.3098986 1.4561372 -0.75335395
-2.3288527 1.4680855 -0.60986429
-2.3448379 1.4781625 -0.46210927
-2.3730454 1.4959443 -0.31267181
-5.9021459 3.720654 -0.38970882
-2.5459151 1.6049197 0
-5.4008942 3.40467 0.356612
-2.276053 1.4271266 -0.88581175
-2.3176577 1.4532137 -0.7547369
-2.3216321 1.4557056 -0.60705042
-2.3549299 1.4765841 -0.4633936
-3.4897971 2.1881664 -0.45911661
-5.8935084 3.6953371 -0.38854772
-2.5519974 1.6001489 0
-5.4223194 3.399893 0.35748312
-2.2852941 1.4309982 -0.88907158
-2.3206596 1.4531434 -0.75542843
-2.3246627 1.45565 -0.60761279
-2.3579953 1.4765221 -0.46382114
-3.4823496 2.1805668 -0.45796344
-5.8869305 3.6862597 -0.38796717
-2.5573711 1.6013666 0
-5.4419823 3.4076436 0.35864368
-2.2828326 1.42562 -0.88744324
-2.3266737 1.4529985 -0.75681406
-2.3307259 1.4555292 -0.60873747
-2.3532436 1.4695913 -0.46253684
-3.4827819 2.1749835 -0.45767432
-5.9134159 3.6929049 -0.38941827
-2.5637231 1.601035 0
-5.4747539 3.4189622 0.36053091
-2.2866495 1.424166 -0.88825738
-2.3390732 1.4568163 -0.76027423
-2.3173916 1.4433128 -0.60479885
-2.3375854 1.4558898 -0.45911309
-3.4788272 2.1666753 -0.45681027
-5.911263 3.6816399 -0.38898328
-2.5546041 1.5910529 0
-5.5229855 3.4398136 0.36343315
-2.2967668 1.4266185 -0.89151728
-2.3110001 1.4354594 -0.75058526
-2.319134 1.4405116 -0.60479885
-2.3567882 1.4639001 -0.46253684
-3.4990196 2.1733882 -0.45911661
-5.9201179 3.6772339 -0.38927329
-2.5498989 1.5838494 0
-5.5227275 3.4303982 0.36314315
-2.3047943 1.4277482 -0.89396298
-2.3319254 1.444555 -0.75681406
-2.3208728 1.4377084 -0.60479885
-2.356375 1.4597008 -0.46210927
-2.3957131 1.4840696 -0.31411299
-5.9355993 3.6769185 -0.38999882
-2.5429611 1.5752851 0
-5.456182 3.3799343 0.35849869
-2.3149285 1.4301584 -0.89722282
-2.3123219 1.428548 -0.7498911
-2.3182809 1.4322295 -0.60367203
-2.3494015 1.4514556 -0.46039742
-2.3689013 1.4635025 -0.31036547
-5.8980427 3.6437993 -0.3872416
-2.5758553 1.5913584 0
-5.4315262 3.3555863 0.356612
-2.3166549 1.4273603 -0.89722282
-2.3161883 1.4270728 -0.75058526
-2.3243403 1.4320955 -0.60479885
-2.3380361 1.4405338 -0.45782879
-2.3882842 1.4714932 -0.31267181
-3.0200236 1.8607266 -0.19813477
-2.557837 1.5759597 0
-5.4178786 3.3381166 0.3554509
-2.2657342 1.3922123 -0.87684947
-2.313632 1.4216437 -0.74919963
-2.3195724 1.4252939 -0.60310966
-2.3485236 1.4430834 -0.45954067
-2.3768342 1.4604791 -0.31094152
-3.0355489 1.8652357 -0.19900532
-2.5641699 1.5755903 0
-5.3997736 3.3179667 0.35399979
-2.3095627 1.4153018 -0.89314878
-2.3174851 1.4201567 -0.7498911
-2.3234575 1.4238166 -0.60367203
-2.348079 1.4389045 -0.45911309
-2.4094677 1.4765236 -0.31497705
-3.0577383 1.8737844 -0.20031144
-2.5571957 1.5670515 0
-5.363903 3.287004 0.35138756
-2.2775278 1.3918884 -0.88010931
-2.3149221 1.4147414 -0.74850816
-2.3316824 1.4249843 -0.60536122
-2.3476274 1.434729 -0.45868555
-2.422291 1.480359 -0.31641933
-3.0511312 1.8646683 -0.19973087
-2.5590873 1.5639606 0
-5.3279572 3.2561276 0.34877476
-2.2939756 1.3981359 -0.88581175
-2.3144896 1.4106388 -0.74781662
-2.3225563 1.4155552 -0.60254735
-2.3559375 1.4359006 -0.45996985
-2.3953683 1.4599329 -0.31267181
-0 0 -0
-2.5632038 1.5622256 0
-5.285295 3.2212899 0.34572697
-2.2914431 1.3927979 -0.88418335
-2.331193 1.4169589 -0.7526598
-2.3199182 1.4101058 -0.60142052
-2.3423133 1.4237181 -0.45697367
-2.4037549 1.461064 -0.31353587
-0 0 -0
-2.5717549 1.5631787 0
-5.2780833 3.2081544 0.3450014
-2.2973475 1.3925881 -0.88581175
-2.2942905 1.390735 -0.74020219
-2.3172789 1.4046699 -0.60029578
-2.3352509 1.4155641 -0.4552618
-2.392252 1.4501165 -0.31180665
-0 0 -0
-2.5669718 1.5560268 0
-5.2752957 3.1977375 0.3445664
-2.2673073 1.370635 -0.87358958
-2.3045571 1.3931534 -0.74297082
-2.316802 1.4005556 -0.59973347
-2.345747 1.4180535 -0.45697367
-3.5781393 2.1630607 -0.46603453
-0 0 -0
-2.571075 1.5542691 0
-5.2791557 3.191361 0.3445664
-2.3070583 1.3908617 -0.88825738
-2.3255734 1.402024 -0.74919963
-2.3250146 1.401687 -0.60142052
-2.3452623 1.4138939 -0.45654613
-3.6051185 2.1734264 -0.46920601
-3.062341 1.8462009 -0.19973087
-2.5796397 1.5551935 0
-5.2718749 3.178268 0.3438403
-2.296032 1.3804344 -0.88336921
-2.3014648 1.3837008 -0.74089366
-2.3158205 1.3923317 -0.59860659
-2.3601651 1.418993 -0.45911309
-3.6077421 2.1690688 -0.46920601
-3.0712526 1.8465173 -0.20016643
-2.5770519 1.5493909 0
-5.2823944 3.1759136 0.34427586
-2.2764964 1.3649468 -0.87521797
-2.2966864 1.3770523 -0.73881918
-2.3283951 1.3960643 -0.60142052
-2.3662856 1.4187828 -0.45996985
-3.6103601 2.1647079 -0.46920601
-3.0645671 1.8374602 -0.19958588
-2.5543675 1.5315535 0
-5.2795405 3.1655188 0.3438403
-2.2908759 1.3698081 -0.88010931
-2.2961891 1.372985 -0.73812503
-2.3300803 1.3932499 -0.60142052
-2.3459616 1.402746 -0.45568937
-3.6129732 2.1603439 -0.46920601
-3.077934 1.8404222 -0.20031144
-2.5606878 1.5311396 0
-5.2922821 3.1644711 0.34442085
-2.269176 1.3531134 -0.87114394
-2.3193982 1.3830609 -0.74504799
-2.3099427 1.3774226 -0.59579271
-2.360888 1.4078013 -0.458258
-3.6178002 2.1573002 -0.46949401
-3.0734665 1.8327131 -0.19987644
-2.5535951 1.5227128 0
-5.3184242 3.1713848 0.34587252
-2.2878044 1.3604769 -0.87766367
-2.3189051 1.3789713 -0.74435383
-2.3225229 1.3811227 -0.59860659
-2.3493445 1.3970726 -0.45568937
-3.6115119 2.1476393 -0.46834087
-3.0712078 1.8263392 -0.19958588
-2.5643806 1.5249469 0
-5.3535151 3.1835473 0.34790421
-2.3000739 1.3640139 -0.88173771
-2.318414 1.37489 -0.74366236
-2.3220065 1.3770205 -0.59804428
-2.3709009 1.4060163 -0.45954067
-3.6052055 2.1379967 -0.4671877
-3.066705 1.8186494 -0.19915032
-2.5729389 1.5258311 0
-5.3841782 3.1929815 0.34964588
-2.2881417 1.3550699 -0.87684947
-2.325722 1.3773254 -0.74573946
-2.3119087 1.3691449 -0.5952304
-2.3651297 1.4006633 -0.458258
-3.5953712 2.1292295 -0.46574649
-3.0655696 1.8154736 -0.19900532
-2.5805717 1.5282509 0
-5.3972831 3.196347 0.35037142
-2.2982903 1.3573315 -0.88010931
-2.3209019 1.3706857 -0.74366236
-2.3201187 1.370223 -0.59691739
-2.3491375 1.3873612 -0.45483425
-3.6068497 2.1301448 -0.46689966
-3.0498619 1.8011972 -0.19784421
-2.5689754 1.5171937 0
-5.4123259 3.1964288 0.35109699
-2.295665 1.3520426 -0.87847781
-2.3398502 1.3780656 -0.74919963
-2.3086405 1.3596843 -0.5935412
-2.3596599 1.3897326 -0.45654613
-3.6183355 2.1310353 -0.46805283
-6.04317 3.5591526 -0.3917405
-2.6044459 1.5339005 0
-5.4184213 3.1912041 0.35124198
-2.3058219 1.3542745 -0.88173771
-2.3155546 1.3599908 -0.74089366
-2.3234231 1.3646122 -0.59691739
-2.3502719 1.3803813 -0.45440671
-3.632057 2.1332099 -0.46949401
-6.1124406 3.5900097 -0.39594942
-2.5658998 1.5070257 0
-5.4065957 3.1754467 0.35022643
-2.2733331 1.3315011 -0.86869824
-2.3258553 1.3622637 -0.74366236
-2.3272691 1.3630917 -0.59748191
-2.3519382 1.3775405 -0.45440671
-3.6212451 2.1209791 -0.46776482
-6.1279826 3.5891862 -0.39667496
-2.5699625 1.5052383 0
-5.4036999 3.1649706 0.34979087
-2.2749403 1.3287532 -0.86869824
-2.3166702 1.353127 -0.74020219
-2.3069696 1.3474611 -0.59185201
-2.3668966 1.3824633 -0.45697367
-3.6372015 2.1244266 -0.46949401
-6.1188569 3.5739183 -0.39580441
-2.562799 1.4968866 0
-5.4007869 3.154506 0.34935531
-2.2914963 1.3347126 -0.87440377
-2.3313065 1.3579005 -0.74435383
-2.3195806 1.3510705 -0.59466803
-2.3596926 1.3744344 -0.4552618
-3.6442401 2.1226363 -0.47007117
-6.1254139 3.5678289 -0.39594942
-2.5780945 1.5016456 0
-5.3911266 3.1401336 0.34848475
-2.2973859 1.334428 -0.87603527
-2.3155987 1.3450068 -0.73881918
-2.3343899 1.3559216 -0.59804428
-2.3591337 1.370294 -0.45483425
-2.4257014 1.4089595 -0.31267181
-6.1319652 3.561729 -0.39609441
-2.5776589 1.4972234 0
-5.394917 3.1336172 0.34848475
-2.2861602 1.3242158 -0.87114394
-2.3063617 1.335917 -0.73535639
-2.3294284 1.3492781 -0.59635508
-2.3541217 1.3635812 -0.45354995
-2.3938279 1.3865802 -0.30834717
-6.0733156 3.5178549 -0.39203107
-2.590724 1.5006286 0
-5.4009457 3.1283972 0.34862974
-2.2834823 1.3189824 -0.86951554
-2.3275237 1.3444215 -0.7415852
-2.3266609 1.3439231 -0.5952304
-2.3691092 1.3684421 -0.45611855
-2.4201405 1.3979187 -0.31151864
-5.985311 3.4572284 -0.38608047
-2.599298 1.5014035 0
-5.3889694 3.1127701 0.34761363
-2.2700803 1.3075855 -0.86381
-2.3139353 1.3328464 -0.73674202
-2.3216755 1.3373048 -0.5935412
-2.3551877 1.3566082 -0.45312238
-2.41958 1.3936987 -0.31122953
-5.9737206 3.4409139 -0.38506436
-2.5988488 1.496959 0
-5.3657155 3.0906978 0.34587252
-2.2716587 1.3048416 -0.86381
-2.3133707 1.328801 -0.73605055
-2.3299017 1.3382965 -0.5952304
-2.3434651 1.3460872 -0.45055375
-2.412291 1.385621 -0.31007636
-5.9485846 3.4168694 -0.3831777
-2.5848651 1.4847475 0
-5.3626842 3.080328 0.34543696
-2.3075485 1.3217512 -0.87684947
-2.3236823 1.3309926 -0.73881918
-2.3204951 1.329167 -0.59241652
-2.3473237 1.3445343 -0.45098296
-2.4162145 1.3839945 -0.31036547
-5.9391847 3.4019327 -0.38230714
-2.5776243 1.4764491 0
-5.3664026 3.0738461 0.34543696
-2.2833898 1.3042516 -0.8670699
-2.3209279 1.3256929 -0.73743355
-2.3154783 1.3225802 -0.59072733
-2.3467112 1.3404201 -0.45055375
-2.3954213 1.3682429 -0.307482
-5.9071898 3.3741331 -0.37998492
-2.5997427 1.4849494 0
-5.3610873 3.0622044 0.34485641
-2.2957003 1.3076068 -0.87114394
-2.3138082 1.3179209 -0.73466492
-2.3281119 1.3260682 -0.5935412
-2.3572514 1.3426657 -0.45226562
-2.3746023 1.3525486 -0.30459964
-5.9044867 3.3631337 -0.37954935
-2.56988 1.4637766 0
-5.3534966 3.0492952 0.34413084
-2.2800856 1.2950665 -0.8646242
-2.3023145 1.3076923 -0.73051327
-2.3230822 1.3194882 -0.59185201
-2.3566422 1.3385499 -0.45183808
-2.4054701 1.3662835 -0.30834717
-5.8769183 3.3380325 -0.37751767
-2.5829592 1.4670957 0
-5.3345785 3.0299885 0.34267917
-2.2708979 1.2862213 -0.86055017
-2.3038929 1.3049095 -0.73051327
-2.3180487 1.3129271 -0.59016496
-2.3604894 1.3369652 -0.45226562
-2.4206183 1.3710219 -0.31007636
-5.9012942 3.3424532 -0.37882379
-2.5869925 1.465255 0
-5.3111124 3.0081782 0.34093806
-2.2832086 1.2895526 -0.8646242
-2.2989125 1.2984222 -0.72843611
-2.3196332 1.3101252 -0.59016496
-2.3464632 1.3252786 -0.44927108
-2.392998 1.3515614 -0.30632883
-5.9053288 3.3353202 -0.37882379
-2.6091533 1.4736456 0
-5.2921138 2.9889777 0.33948639
-2.2804623 1.2843695 -0.86299586
-2.3288946 1.3116468 -0.73743355
-2.3234265 1.3085672 -0.59072733
-2.368191 1.3337789 -0.45312238
-2.3946292 1.3486689 -0.30632883
-5.9229431 3.3358355 -0.37969491
-2.5837209 1.4551665 0
-5.2821417 2.9749327 0.33861583
-2.2841654 1.2828221 -0.86381
-2.3107934 1.2977767 -0.73120475
-2.3183575 1.302025 -0.58903813
-2.3518951 1.3208601 -0.44969866
-2.4030249 1.3495754 -0.30719399
-5.9224339 3.3261292 -0.37940434
-2.5945537 1.4571409 0
-5.2925315 2.9723663 0.3390514
-2.2749336 1.274024 -0.85973597
-2.3036041 1.2900803 -0.72843611
-2.3132763 1.2954969 -0.58734894
-2.3512516 1.3167642 -0.44927108
-2.379828 1.3327677 -0.30402249
-5.8879094 3.2973876 -0.37693712
-2.594044 1.4527345 0
-5.2983842 2.9672377 0.33919638
-2.2800131 1.2750598 -0.86136436
-2.3219001 1.2984844 -0.73397338
-2.3184981 1.2965819 -0.58847576
-2.3498085 1.3140917 -0.44884354
-5.6424942 3.155472 -0.72058368
-5.8672256 3.2811494 -0.37548599
-2.6267171 1.4689482 0
-5.3001757 2.964036 0.33919638
-2.2901866 1.2771189 -0.8646242
-2.314703 1.2907904 -0.73120475
-2.3111863 1.2888294 -0.5862242
-2.3558743 1.3137496 -0.44969866
-5.6598611 3.1562126 -0.722314
-5.8734531 3.275322 -0.375631
-2.6125858 1.4569043 0
-5.301486 2.9563653 0.3390514
-2.2809296 1.2683462 -0.86055017
-2.3074906 1.2831157 -0.72843611
-2.3282888 1.2946808 -0.59016496
-2.3529773 1.3084093 -0.44884354
-5.6749711 3.1556551 -0.72375518
-2.4461641 1.3602273 -0.15633683
-2.6188889 1.4562736 0
-5.300508 2.9474294 0.33876082
-2.299753 1.2751776 -0.8670699
-2.3221996 1.2876238 -0.73258775
-2.3187342 1.2857023 -0.58734894
-2.3500621 1.3030732 -0.44798678
-5.6538954 3.1349978 -0.72058368
-3.6498878 2.0238066 -0.23311156
-2.6456852 1.4669915 0
-5.3108854 2.944804 0.33919638
-2.2991312 1.271203 -0.8662557
-2.3435197 1.2957457 -0.73881918
-2.3136215 1.2792149 -0.58566189
-2.3583767 1.3039602 -0.44927108
-5.6712646 3.1356754 -0.722314
-3.5977545 1.9892193 -0.22962822
-2.6747863 1.478905 0
-5.3144398 2.9383845 0.33919638
-2.3028278 1.2696162 -0.8670699
-2.3231094 1.2807981 -0.73189622
-2.3196115 1.2788695 -0.58678657
-2.3419662 1.2911943 -0.44584736
-5.6659894 3.1238253 -0.72116083
-3.6229062 1.997414 -0.23107933
-2.7175903 1.4982868 0
-5.3088841 2.9269428 0.33861583
-2.3086879 1.2692119 -0.86869824
-2.3510368 1.2924935 -0.74020219
-2.3167062 1.27362 -0.58566189
-2.368263 1.3019637 -0.45055375
-2.4038255 1.3215144 -0.30575281
-3.6207674 1.9905337 -0.23078933
-2.9269168 1.6090862 0
-5.3146915 2.9217765 0.33876082
-2.2777162 1.2486035 -0.85647613
-2.3064008 1.2643279 -0.72566748
-2.3271556 1.2757053 -0.58791339
-2.3608391 1.2941699 -0.44884354
-2.4008801 1.3161198 -0.30517566
-3.6003888 1.9736691 -0.22933821
-2.9448359 1.6143067 0
-5.3204947 2.9166005 0.33890584
-2.2618732 1.2363666 -0.84995639
-2.3035283 1.2591358 -0.72428447
-2.3331504 1.2753276 -0.58903813
-2.3511319 1.2851566 -0.44670245
-2.3911231 1.3070161 -0.30373448
-3.6004844 1.9680673 -0.22919266
-3.0609605 1.6731572 0
-5.319459 2.9076793 0.33861583
-2.2633655 1.2336327 -0.84995639
-2.3292727 1.2695551 -0.73189622
-2.3257654 1.2676435 -0.58678657
-2.3166275 1.2626629 -0.43985662
-2.3881629 1.3016528 -0.30315843
-3.6074271 1.9662049 -0.22948322
-3.0858269 1.6819099 0
-5.3320947 2.9062238 0.33919638
-2.245312 1.2202761 -0.84262246
-2.3087666 1.2547623 -0.72497594
-2.3072052 1.2539136 -0.58172113
-2.3519776 1.2782464 -0.44627491
-0 0 -0
-3.6075194 1.960605 -0.22933821
-3.0970032 1.683151 0
-5.3538671 2.9097054 0.34035751
-2.2989378 1.2458246 -0.86218166
-2.319104 1.2567528 -0.72774458
-2.3087184 1.251125 -0.58172113
-2.3151538 1.2546123 -0.43899986
-0 0 -0
-3.6053123 1.9537661 -0.22904766
-3.0990348 1.6794077 0
-5.3847938 2.9180906 0.34209919
-2.2830458 1.233646 -0.85566193
-2.3228257 1.2551413 -0.72843611
-2.3147037 1.2507526 -0.58284801
-2.3437696 1.2664583 -0.44413549
-0 0 -0
-3.6008101 1.9457014 -0.2286121
-3.0873284 1.668241 0
-5.4523163 2.9461648 0.34616253
-2.2758312 1.2261972 -0.85240209
-2.3221343 1.2511449 -0.72774458
-2.3139701 1.2467461 -0.5822835
-2.3181791 1.2490139 -0.43899986
-0 0 -0
-3.6031585 1.9413491 -0.2286121
-3.1259997 1.6842602 0
-5.5061941 2.9666874 0.34935531
-2.2664268 1.2175989 -0.84832805
-2.308172 1.2400259 -0.72289878
-2.322192 1.2475579 -0.58397269
-2.3061225 1.2389249 -0.4364329
-0 0 -0
-3.5963454 1.932075 -0.22803155
-3.1303229 1.6817124 0
-5.5372429 2.9747889 0.35109699
-2.2831409 1.2230257 -0.85403043
-2.325151 1.2455295 -0.72774458
-2.3304191 1.2483516 -0.58566189
-2.3234513 1.2446191 -0.43942744
-2.4271741 1.300181 -0.30690596
-3.605551 1.9314102 -0.22846711
-3.1346445 1.6791564 0
-5.5637431 2.9803681 0.35254866
-2.29988 1.2284184 -0.85973597
-2.3178027 1.2379913 -0.72497594
-2.3229609 1.2407464 -0.58341032
-2.3453302 1.2526944 -0.44327873
-2.4150505 1.2899336 -0.30517566
-3.5987141 1.9221554 -0.22788654
-3.1504402 1.682722 0
-5.5581722 2.9687464 0.35196811
-2.2926366 1.2209913 -0.85647613
-2.3082273 1.2292945 -0.72151583
-2.3154876 1.2331611 -0.58115882
-2.3219252 1.2365896 -0.43857232
-2.398344 1.277288 -0.30286932
-3.6010342 1.9178057 -0.22788654
-3.1570697 1.6813631 0
-5.5663376 2.964469 0.35225812
-2.265007 1.2045206 -0.84588236
-2.3244684 1.2361419 -0.72635895
-2.3139911 1.2305701 -0.58059645
-2.3317378 1.2400078 -0.44028419
-2.403687 1.27827 -0.30344647
-3.5953074 1.9119684 -0.22745098
-3.1511893 1.6757884 0
-5.5658355 2.9598866 0.3521131
-2.3166778 1.2284104 -0.8646242
-2.3082287 1.2239302 -0.72082168
-2.3109822 1.2253903 -0.57946962
-2.3309686 1.235988 -0.43985662
-2.3960893 1.2705179 -0.3022933
-3.6045041 1.9112757 -0.22788654
-3.1578147 1.6744202 0
-5.5717015 2.9543753 0.35225812
-2.2934027 1.2089773 -0.85484463
-2.3089626 1.2171798 -0.72013015
-2.3139367 1.219802 -0.57946962
-2.3430235 1.2351351 -0.44156685
-2.3991525 1.2647238 -0.3022933
-3.6022143 1.8989232 -0.22745098
-3.1526432 1.6619297 0
-5.5949173 2.9493854 0.35327423
-2.3036129 1.2108051 -0.85810447
-2.3304157 1.2248929 -0.72635895
-2.3154089 1.2170051 -0.57946962
-2.3536034 1.2370806 -0.44327873
-2.4006789 1.261824 -0.3022933
-2.436126 1.2804554 -0.15372403
-3.1339183 1.6472229 0
-5.6030726 2.9450383 0.35356423
-2.2656732 1.1873716 -0.84343666
-2.3096774 1.210433 -0.71943867
-2.312381 1.2118499 -0.57834494
-2.3482819 1.2306644 -0.44199607
-2.3999131 1.2577229 -0.30200526
-2.4814029 1.3004292 -0.15648182
-3.163559 1.6579268 0
-5.6020284 2.9358561 0.35327423
-2.2758684 1.1892117 -0.84669656
-2.3044655 1.2041546 -0.71736151
-2.3160934 1.2102306 -0.57890725
-2.3520401 1.2290138 -0.44242361
-2.4037213 1.2560189 -0.3022933
-2.4921844 1.3022435 -0.15706238
-3.1609511 1.6516949 0
-5.6147838 2.9338984 0.35385478
-2.2707257 1.1830338 -0.84425086
-2.3214955 1.2094846 -0.72220731
-2.3107917 1.203908 -0.57721806
-2.3353105 1.2166821 -0.43899986
-2.4098206 1.2555014 -0.30286932
-2.4822359 1.2932293 -0.15633683
-3.1375539 1.6346459 0
-5.609107 2.9223096 0.35327423
-2.2787356 1.1837084 -0.84669656
-2.2962394 1.1928009 -0.71390134
-2.3235166 1.2069702 -0.58003193
-2.3390546 1.2150416 -0.43942744
-2.4044566 1.2490151 -0.30200526
-2.488404 1.2926224 -0.15662682
-3.1418428 1.6320567 0
-5.619545 2.9191198 0.35370922
-2.282357 1.1820897 -0.8475107
-2.326637 1.2050235 -0.72289878
-2.3227193 1.2029945 -0.57946962
-2.3314033 1.207492 -0.43771556
-2.4082584 1.2472973 -0.3022933
-2.4853539 1.287227 -0.15633683
-3.1230075 1.6174837 0
-5.6253819 2.9135261 0.35385478
-2.2947702 1.1850046 -0.85158789
-2.3102586 1.1930026 -0.71736151
-2.3264267 1.2013518 -0.58003193
-2.341984 1.2093855 -0.43942744
-2.4051719 1.2420152 -0.30171725
-2.4892142 1.2854141 -0.15648182
-3.1804569 1.6423675 0
-5.6612172 2.9234159 0.35588646
-2.3071856 1.1878867 -0.85566193
-2.318392 1.1936566 -0.71943867
-2.3188403 1.1938874 -0.57778043
-2.3388834 1.2042068 -0.43857232
-2.4066708 1.2391082 -0.30171725
-2.4884574 1.2812171 -0.15633683
-3.1569936 1.6254224 0
-5.6809192 2.9249005 0.35690257
-2.2624462 1.1613958 -0.83854842
-2.3131349 1.1874162 -0.71736151
-2.3248065 1.1934077 -0.57890725
-2.3357649 1.199033 -0.43771556
-2.4012611 1.2326546 -0.30085212
-2.480757 1.2734628 -0.15575626
-3.1427462 1.6132858 0
-5.5966105 2.8729434 0.35138756
-2.2990508 1.1766784 -0.85158789
-2.3167992 1.1857622 -0.71805298
-2.3126712 1.1836495 -0.57552886
-2.3395038 1.1973827 -0.43814477
-2.4050491 1.2309295 -0.30114013
-2.4822941 1.2704643 -0.15575626
-3.1585891 1.6165992 0
-5.4959908 2.812906 0.34485641
-2.285058 1.1660347 -0.84588236
-2.3182302 1.1829619 -0.71805298
-2.3118386 1.1797005 -0.57496655
-2.3363714 1.1922191 -0.43728802
-2.41575 1.232725 -0.3022933
-2.4745691 1.2627397 -0.15517572
-3.181401 1.6234266 0
-5.4484706 2.780282 0.34166363
-2.2952769 1.1677557 -0.84914219
-2.297302 1.168786 -0.71113271
-2.3155248 1.1780573 -0.57552886
-2.3332386 1.1870694 -0.4364329
-2.4149346 1.2286335 -0.30200526
-2.4691432 1.2562128 -0.15474015
-3.2042429 1.6302058 0
-5.4471893 2.7713377 0.34137306
-2.27685 1.1549197 -0.84180832
-2.3054268 1.1694152 -0.71320987
-2.3169467 1.1752586 -0.57552886
-2.3392456 1.1865696 -0.43728802
-2.4117997 1.2233722 -0.30142814
-2.4799287 1.2579303 -0.1553207
-3.2340534 1.640456 0
-5.4482188 2.7635794 0.34122807
-2.3002956 1.1633199 -0.84995639
-2.3090749 1.1677598 -0.71390134
-2.3365045 1.1816318 -0.58003193
-2.3475523 1.1872189 -0.43857232
-2.4063585 1.2169588 -0.30056408
-2.4860799 1.2572759 -0.15561071
-3.2244234 1.6306757 0
-5.4469213 2.7546513 0.34093806
-2.2641835 1.1416237 -0.83610278
-2.3373656 1.1785228 -0.72220731
-2.3220553 1.1708033 -0.57609338
-2.3398163 1.1797584 -0.43686044
-2.4078271 1.2140502 -0.30056408
-2.49456 1.2577819 -0.15604627
-3.2473035 1.6373225 0
-5.4479189 2.7468944 0.34079251
-2.3075209 1.1599799 -0.85158789
-2.3029242 1.1576691 -0.71113271
-2.3143876 1.1634318 -0.57384187
-2.3366485 1.1746222 -0.43600368
-2.3977311 1.2053281 -0.2991218
-2.4821529 1.2477666 -0.15517572
-3.2725363 1.6450887 0
-5.4535623 2.7414801 0.34093806
-2.3082213 1.1585857 -0.85158789
-2.3193204 1.1641567 -0.7159785
-2.3037379 1.1563352 -0.57102793
-2.3327737 1.1709094 -0.43514857
-2.4030864 1.2062021 -0.29969895
-2.4782572 1.2439332 -0.15488516
-3.2432947 1.6279352 0
-5.5016551 2.7614937 0.3438403
-2.2632055 1.132569 -0.83447438
-2.3207254 1.1613533 -0.7159785
-2.3096735 1.1558228 -0.57215267
-2.3341868 1.1680899 -0.43514857
-2.4114835 1.2067713 -0.30056408
-2.4820797 1.2420995 -0.15503015
-3.2755127 1.6391547 0
-5.6606708 2.832752 0.35356423
-2.2667818 1.1309358 -0.83528858
-2.3131473 1.1540684 -0.71320987
-2.3224344 1.1587018 -0.57496655
-2.3424897 1.1687077 -0.4364329
-2.4036822 1.1992377 -0.29941091
-2.4882336 1.2414218 -0.1553207
-3.2611873 1.6270615 0
-5.8407903 2.9140692 0.36459425
-2.2703576 1.1292957 -0.83610278
-2.3167844 1.1523888 -0.71390134
-2.3079143 1.1479768 -0.57102793
-2.3370028 1.1624455 -0.43514857
-2.4097567 1.198634 -0.29998696
-2.4827499 1.2349416 -0.15488516
-2.5385058 1.2626749 0
-5.9210806 2.9451971 0.36938372
-2.2672961 1.1243576 -0.83447438
-2.3046939 1.1429032 -0.7097497
-2.3206794 1.1508305 -0.57384187
-2.3476048 1.1641829 -0.43686044
-2.4158421 1.1980219 -0.30056408
-2.4865661 1.2330941 -0.15503015
-2.5027335 1.2411115 0
-5.980505 2.9657469 0.37286708
-2.2863693 1.1303761 -0.84099096
-2.3038177 1.1390026 -0.70905554
-2.3197927 1.1469005 -0.5732795
-2.3490098 1.1613454 -0.43686044
-2.4056883 1.1893671 -0.2991218
-2.4927173 1.2323941 -0.1553207
-2.5252256 1.2484661 0
-5.9887385 2.9608195 0.37315708
-2.283304 1.1254293 -0.83936262
-2.3029442 1.1351099 -0.70836407
-2.3211768 1.1440966 -0.5732795
-2.3389008 1.1528327 -0.43472102
-2.4071236 1.1864594 -0.2991218
-2.4942045 1.2293812 -0.1553207
-2.5664139 1.2649728 0
-5.9853172 2.9501336 0.37272152
-2.2846622 1.1226696 -0.83936262
-2.2998152 1.1301156 -0.70698106
-2.3202705 1.1401674 -0.57271498
-2.340292 1.1500057 -0.43472102
-2.417841 1.1881129 -0.30027497
-2.4910195 1.2240723 -0.15503015
-0 0 0
-5.9259176 2.9119611 0.36880317
-2.270478 1.1122956 -0.83365709
-2.3034298 1.1284386 -0.7076726
-2.3148077 1.1340126 -0.57102793
-2.3324587 1.1426597 -0.43300915
-2.3914108 1.1715401 -0.29681656
-2.4761691 1.2130628 -0.15401459
-2.5390832 1.243884 0
-5.7964349 2.8396442 0.36053091
-2.2429509 1.0954517 -0.82306331
-2.3115566 1.1289586 -0.7097497
-2.3138864 1.1300964 -0.57046348
-2.3292198 1.1375853 -0.43215239
-2.4207051 1.1822664 -0.30027497
-2.4822984 1.2123483 -0.15430459
-2.5452569 1.2430972 0
-5.5547128 2.712908 0.34529197
-2.315383 1.1273644 -0.84914219
-2.3196793 1.1294563 -0.71182424
-2.3175414 1.1284152 -0.57102793
-2.3444452 1.1415149 -0.43472102
-2.4198086 1.1782094 -0.29998696
-2.4837613 1.2093481 -0.15430459
-2.5701602 1.2514158 0
-5.4762163 2.6663799 0.34021196
-2.3033984 1.118088 -0.84425086
-2.3165329 1.1244636 -0.71044123
-2.3189032 1.1256142 -0.57102793
-2.3411996 1.1364371 -0.43386427
-5.6577005 2.7462933 -0.7009809
-2.4922359 1.2097512 -0.15474015
-0 0 0
-5.4396968 2.6404724 0.33774471
-2.2647054 1.0959269 -0.82958305
-2.3156338 1.120572 -0.7097497
-2.3202615 1.1228114 -0.57102793
-2.3425713 1.1336074 -0.43386427
-5.6656756 2.7417104 -0.70155805
-2.4890225 1.2044774 -0.15445015
-2.5848877 1.2508682 0
-5.431191 2.6282394 0.33701915
-2.2415473 1.0813795 -0.82062078
-2.2989094 1.1090525 -0.70421243
-2.3239028 1.12111 -0.5715903
-2.3370097 1.1274331 -0.4325816
-5.65733 2.7292402 -0.7001158
-2.4928141 1.202597 -0.15459515
-2.5746796 1.2420911 0
-5.4320245 2.6205471 0.33687416
-2.294076 1.1033057 -0.83936262
-2.3092914 1.1106234 -0.70698106
-2.3206718 1.1160965 -0.57046348
-2.3499351 1.1301703 -0.43472102
-5.662961 2.7235267 -0.70040488
-2.4989443 1.2018343 -0.15488516
-2.5574157 1.2299554 0
-5.4281597 2.6106019 0.3364386
-2.2798045 1.093052 -0.83365709
-2.3151517 1.1099993 -0.70836407
-2.3243165 1.1143934 -0.57102793
-2.351299 1.1273301 -0.43472102
-5.656919 2.7122092 -0.69925171
-2.5050852 1.2010629 -0.15517572
-2.5894051 1.24149 0
-5.4242873 2.6006742 0.3360036
-2.2632837 1.0817698 -0.82713735
-2.3210227 1.1093669 -0.7097497
-2.3187816 1.1082958 -0.56933874
-2.3503366 1.1233779 -0.43429181
-5.6625233 2.7064862 -0.69953972
-2.4971569 1.193553 -0.15459515
-2.5462875 1.2170357 0
-5.44383 2.6019588 0.33701915
-2.2958312 1.0939205 -0.83854842
-2.3178275 1.1044012 -0.70836407
-2.3270028 1.1087731 -0.57102793
-2.3470619 1.118331 -0.43343672
-5.6447768 2.6896303 -0.69694537
-2.4985974 1.1905347 -0.15459515
-2.5782967 1.2285099 0
-5.4915419 2.6166167 0.33977693
-2.2792909 1.082662 -0.83202875
-2.3032954 1.094064 -0.70351827
-2.3283408 1.1059605 -0.57102793
-2.3368199 1.1099881 -0.43129727
-5.6690474 2.6927943 -0.69953972
-2.4859469 1.1808233 -0.15372403
-2.5680275 1.2198117 0
-5.9359317 2.8195641 0.3670615
-2.2933395 1.0876373 -0.83691692
-2.3107584 1.0958984 -0.70559543
-2.3404851 1.1099967 -0.57384187
-2.3351727 1.1074772 -0.43086973
-2.5182478 1.1943022 -0.31065351
-2.4843142 1.1782088 -0.15357904
-2.5734715 1.2204925 0
-5.8836412 2.7903709 0.3637237
-2.3192332 1.096487 -0.84588236
-2.3188872 1.0963234 -0.7076726
-2.3165543 1.0952204 -0.56764954
-2.3341818 1.1035544 -0.43044052
-2.5220251 1.1923629 -0.31094152
-2.4927857 1.1785392 -0.15401459
-2.5702341 1.2151552 0
-5.7836466 2.7343922 0.35733756
-2.2825511 1.0757718 -0.83202875
-2.3497095 1.1074238 -0.71667004
-2.3178759 1.0924206 -0.56764954
-2.340162 1.1029241 -0.43129727
-2.5445187 1.1992378 -0.31353587
-2.4730558 1.1655573 -0.15270847
-2.5811172 1.2164868 0
-5.7258387 2.6986015 0.35356423
-2.2927973 1.077217 -0.83528858
-2.3124471 1.0864491 -0.70490396
-2.3145993 1.0874602 -0.56652486
-2.3414931 1.1000956 -0.43129727
-2.5248992 1.1862648 -0.31094152
-2.4979761 1.1736155 -0.15415959
-2.561388 1.2034081 0
-5.7173381 2.6861572 0.35283867
-2.3008056 1.0775877 -0.83773112
-2.3114884 1.0825912 -0.70421243
-2.3182104 1.0857393 -0.56708723
-2.3404982 1.0961778 -0.43086973
-2.5427291 1.1908932 -0.31295982
-5.7089248 2.6737885 -0.3521198
-2.5699129 1.2036248 0
-5.734694 2.6858575 0.35370922
-2.2931564 1.0706285 -0.83447438
-2.319608 1.0829782 -0.70628691
-2.3264298 1.0861632 -0.56877643
-2.3534489 1.0987779 -0.43300915
-2.5535407 1.1921967 -0.31411299
-5.7192078 2.6701829 -0.3525548
-2.5737214 1.2016187 0
-5.7779589 2.6976128 0.35617647
-2.2653115 1.0542963 -0.82387751
-2.3027277 1.0717101 -0.70075232
-2.3208275 1.0801339 -0.56708723
-2.3338308 1.0861859 -0.42915785
-2.5455997 1.184745 -0.31295982
-5.6870999 2.6468275 -0.35037813
-2.5680907 1.1952125 0
-5.8047771 2.7015955 0.35762814
-2.3002167 1.067162 -0.83610278
-2.308568 1.0710366 -0.70213526
-2.3244336 1.0783972 -0.56764954
-2.3374681 1.0844444 -0.42958543
-2.5423322 1.1794891 -0.3123827
-5.6690822 2.6301126 -0.34907201
-2.5718915 1.1932029 0
-5.7986088 2.6902053 0.35704756
-2.288049 1.0581591 -0.83121455
-2.3440185 1.0840435 -0.71251839
-2.318814 1.0723871 -0.56596035
-2.3504243 1.087006 -0.43172485
-2.5390649 1.174247 -0.31180665
-2.5238883 1.1672283 -0.1553207
-2.561523 1.1846333 0
-5.7546859 2.6613824 0.35414478
-2.3095248 1.0647055 -0.83854842
-2.2997601 1.060204 -0.69867516
-2.3178029 1.0685217 -0.56539804
-2.349407 1.0830915 -0.43129727
-2.5451753 1.1733419 -0.3123827
-2.5701256 1.1848441 -0.15807794
-2.5582302 1.1793603 0
-5.5054188 2.5380328 0.33861583
-2.2793639 1.0474635 -0.82713735
-2.3055944 1.0595175 -0.70005816
-2.3237143 1.0678444 -0.56652486
-2.3273838 1.0695307 -0.42701679
-2.5442431 1.1691867 -0.31209469
-2.576282 1.1839099 -0.1583685
-2.5501943 1.1719215 0
-5.4305682 2.4955742 0.33382636
-2.2738931 1.0416235 -0.82469481
-2.3479326 1.0755395 -0.71251839
-2.3342431 1.0692686 -0.56877643
-2.3333466 1.0688579 -0.42787355
-2.5456541 1.1661116 -0.31209469
-2.60133 1.1916157 -0.15981962
-2.5918295 1.1872636 0
-5.4194098 2.4825199 0.33295581
-2.2931366 1.0470881 -0.83121455
-2.3286848 1.0633202 -0.70628691
-2.3285971 1.0632801 -0.56708723
-2.343977 1.0703028 -0.42958543
-2.5517714 1.1651856 -0.31267181
-2.5838585 1.1798371 -0.1586585
-2.569593 1.1733232 0
-5.4129505 2.4716525 0.33237526
-2.2944 1.0443165 -0.83121455
-2.3094199 1.0511529 -0.70005816
-2.3368201 1.0636245 -0.56877643
-2.3429344 1.0664074 -0.42915785
-2.5272799 1.150314 -0.30950034
-2.5971141 1.1820996 -0.15938461
-2.5686333 1.1691363 0
-5.4182959 2.4661856 0.33252025
-2.2866571 1.0374588 -0.82795465
-2.3084059 1.0473262 -0.69936663
-2.3288481 1.0566009 -0.56652486
-2.3442214 1.0635756 -0.42915785
-2.5522175 1.1579437 -0.3123827
-2.5890753 1.1746662 -0.15880406
-2.5676763 1.1649575 0
-5.430737 2.4639311 0.3331008
-2.2631347 1.0234909 -0.81898928
-2.3142459 1.0466057 -0.70075232
-2.3324361 1.0548322 -0.56708723
-2.3361487 1.0565112 -0.42744598
-2.544188 1.1505959 -0.31122953
-2.607059 1.179029 -0.15981962
-2.5785673 1.1661437 0
-5.4266052 2.4541543 0.33266526
-2.2981706 1.0359927 -0.83121455
-2.3086452 1.0407146 -0.69867516
-2.3244433 1.0478362 -0.56483567
-2.3467846 1.0579075 -0.42915785
-2.5267127 1.1390173 -0.30892318
-2.601382 1.1726775 -0.15938461
-2.591835 1.1683738 0
-5.4366755 2.4507999 0.3331008
-2.2588358 1.0149789 -0.81654358
-2.3007476 1.0338113 -0.69590652
-2.3326631 1.0481521 -0.56652486
-2.3410344 1.0519136 -0.42787355
-2.5257301 1.1349044 -0.30863518
-2.6051648 1.1705973 -0.15952961
-2.5885017 1.1631099 0
-5.4348879 2.4420969 0.33281025
-2.2713456 1.0173031 -0.82062078
-2.3111534 1.0351325 -0.69867516
-2.3269687 1.0422159 -0.56483567
-2.3516748 1.0532814 -0.42958543
-2.5388999 1.1371369 -0.31007636
-2.6113157 1.1695709 -0.15981962
-2.5352745 1.1355131 0
-5.4354658 2.4344671 0.33266526
-2.2832391 1.0209744 -0.82469481
-2.3094904 1.0327129 -0.69798362
-2.320637 1.0376972 -0.56314647
-2.342937 1.0476689 -0.42787355
-2.5466723 1.1387713 -0.31094152
-2.609652 1.1669333 -0.15967461
-2.5383427 1.1350466 0
-5.4393053 2.4322424 0.33281025
-2.2957566 1.0232449 -0.82876885
-2.2992725 1.024812 -0.69452083
-2.3218892 1.0348924 -0.56314647
-2.3301284 1.0385648 -0.42530492
-2.5433261 1.1335894 -0.31036547
-2.6086891 1.1627225 -0.15952961
-3.4952464 1.5578711 0
-5.4446206 2.4267292 0.33295581
-2.2947347 1.0194676 -0.82795465
-2.3142698 1.0281463 -0.69867516
-2.3161786 1.0289943 -0.56145948
-2.3384218 1.0388762 -0.42658922
-2.5399621 1.1284132 -0.30978835
-2.6148369 1.1616774 -0.15981962
-3.4780993 1.5451937 0
-5.4451671 2.4190907 0.33281025
-2.2575479 0.99968243 -0.81410104
-2.3315613 1.0324569 -0.70351827
-2.3243833 1.0292783 -0.56314647
-2.3420203 1.0370883 -0.42701679
-2.5318637 1.1211543 -0.30863518
-2.606735 1.1543087 -0.15923905
-3.4633043 1.5336127 0
-5.4433389 2.4104073 0.33252025
-2.2745757 1.0039371 -0.81980348
-2.3144548 1.0215386 -0.69798362
-2.3256254 1.026469 -0.56314647
-2.3432717 1.0342577 -0.42701679
-2.5213876 1.1128732 -0.30719399
-2.6223955 1.1574554 -0.16011018
-3.4842019 1.5378338 0
-5.4391136 2.4006796 0.33208469
-2.2599571 0.99422389 -0.81410104
-2.3317554 1.0258101 -0.7028268
-2.326864 1.0236582 -0.56314647
-2.3374772 1.0283273 -0.42573413
-2.5416703 1.1181581 -0.30950034
-2.6166544 1.1511458 -0.15967461
-3.4717691 1.5273368 0
-5.4443865 2.3951511 0.3322297
-2.270211 0.9954626 -0.81736094
-2.3215075 1.0179555 -0.69936663
-2.3257744 1.0198265 -0.56258416
-2.3434155 1.027562 -0.42658922
-2.5193365 1.1047014 -0.30661795
-2.6204209 1.1490258 -0.15981962
-3.4664595 1.5200044 0
-5.4544182 2.3917024 0.33266526
-2.2827339 0.9976669 -0.82143497
-2.3020487 1.0061084 -0.69313782
-2.3339918 1.0200691 -0.56427336
-2.3540645 1.0288419 -0.4283011
-2.5538452 1.1161559 -0.31065351
-2.6146712 1.1427399 -0.15938461
-3.4635196 1.5137283 0
-5.4596825 2.3861496 0.33281025
-2.3010015 0.999035 -0.82713735
-2.327481 1.0105317 -0.70005816
-2.3341126 1.013411 -0.56370884
-2.3565438 1.02315 -0.4283011
-2.5043442 1.0873212 -0.3043116
-2.6102724 1.1333123 -0.15894906
-3.4862652 1.5136456 0
-5.4630518 2.3719149 0.33266526
-2.3271608 1.0070524 -0.83610278
-2.3010712 0.99576247 -0.6917522
-2.340004 1.0126101 -0.56483567
-2.3342235 1.0101087 -0.42402226
-2.5198944 1.0904557 -0.30604082
-2.6211789 1.1342854 -0.15952961
-3.4785378 1.5052978 0
-5.484992 2.3735678 0.33382636
-2.2807183 0.98368484 -0.81898928
-2.327615 1.0039115 -0.69936663
-2.3178988 0.99972093 -0.55920792
-2.3354423 1.0072875 -0.42402226
-2.6019554 1.1222359 -0.31584221
-2.627315 1.1331736 -0.15981962
-3.489913 1.5052162 0
-5.4926233 2.368995 0.33411637
-2.3159678 0.9955709 -0.83121455
-2.319607 0.99713522 -0.69659799
-2.3191051 0.99691945 -0.55920792
-2.3484476 1.0095329 -0.42616168
-2.6698439 1.1476924 -0.32391438
-2.6119785 1.1228178 -0.15880406
-3.4845631 1.4979179 0
-5.4978757 2.3633854 0.33426192
-2.2785494 0.9762255 -0.81736094
-2.3138897 0.99136674 -0.69452083
-2.3179657 0.99311298 -0.5586434
-2.3307886 0.99860686 -0.42273793
-2.694999 1.1546497 -0.32679677
-2.6133332 1.1196609 -0.15880406
-3.4672332 1.485507 0
-5.4648981 2.3413899 0.33208469
-2.3047245 0.98414558 -0.82632315
-2.3427727 1.0003927 -0.7028268
-2.3355236 0.99729723 -0.56258416
-2.3603237 1.0078871 -0.42787355
-2.7296891 1.1656108 -0.3308323
-2.6290178 1.122623 -0.15967461
-3.4833815 1.4874467 0
-5.4294882 2.3184581 0.32976246
-2.2467866 0.95619726 -0.80513567
-2.3209 0.98773885 -0.69590652
-2.3273749 0.99049449 -0.5603326
-2.3497317 1.0000091 -0.42573413
-2.7310956 1.1623117 -0.3308323
-2.6040699 1.1082515 -0.15807794
-3.4803915 1.4812002 0
-5.4131675 2.3037596 0.3286019
-2.3025496 0.97664475 -0.82469481
-2.3243992 0.98591244 -0.69659799
-2.3285701 0.98768157 -0.5603326
-2.3556602 0.99917209 -0.42658922
-2.7039335 1.1468949 -0.32737389
-2.6149757 1.1091628 -0.1586585
-3.4797759 1.4759747 0
-5.413548 2.2961996 0.32845634
-2.2923474 0.96905088 -0.82062078
-2.3071027 0.97528839 -0.69106072
-2.3227384 0.98189819 -0.5586434
-2.3497701 0.99332541 -0.42530492
-2.7243671 1.1516799 -0.32967913
-2.6426437 1.1171327 -0.16025518
-3.4863555 1.4737976 0
-5.4163184 2.2896566 0.32845634
-2.2866814 0.96340054 -0.81817508
-2.3152175 0.9754231 -0.69313782
-2.3496828 0.98994362 -0.56483567
-2.3486052 0.98948967 -0.42487738
-2.6947725 1.1353332 -0.32593161
-2.6368053 1.1109111 -0.15981962
-3.49053 1.4705933 0
-5.4166889 2.2821023 0.32831135
-2.3015125 0.96637619 -0.82306331
-2.30252 0.9667992 -0.68898618
-2.3297946 0.97825146 -0.55977029
-2.3474345 0.98565829 -0.4244498
-2.7080731 1.1370859 -0.32737389
-2.6597059 1.1167771 -0.16112573
-3.4875097 1.4643615 0
-5.4314194 2.2805846 0.32903689
-2.2861464 0.95829988 -0.81736094
-2.3077266 0.96734583 -0.69036919
-2.3280442 0.97586244 -0.55920792
-2.3503947 0.98523134 -0.42487738
-2.732609 1.1454467 -0.33025628
-2.6100574 1.0940759 -0.15807794
-3.4691925 1.4542055 0
-5.4615531 2.2893572 0.33077857
-2.2987034 0.96029961 -0.82143497
-2.3135192 0.96648896 -0.6917522
-2.3339062 0.97500575 -0.5603326
-2.3492172 0.98140204 -0.4244498
-2.6934211 1.1251956 -0.32535559
-2.6209681 1.0949279 -0.1586585
-3.4877498 1.4570321 0
-5.4763012 2.2877634 0.33150414
-2.308989 0.96132129 -0.82469481
-2.3007934 0.95790905 -0.68760055
-2.3256996 0.96827847 -0.55808109
-2.3409216 0.97461605 -0.42273793
-2.682842 1.1169707 -0.32391438
-2.6390834 1.0987523 -0.15967461
-3.4895079 1.4528167 0
-5.4694662 2.2771499 0.33092359
-2.2827542 0.94716394 -0.81491524
-2.320487 0.96282005 -0.69313782
-2.3292127 0.9664405 -0.5586434
-2.3468444 0.97375631 -0.42359468
-2.6961324 1.1186835 -0.32535559
-2.6476116 1.098551 -0.16011018
-3.4744411 1.4416205 0
-5.4698157 2.2695446 0.33077857
-2.2838972 0.94440496 -0.81491524
-2.291512 0.94755375 -0.68414038
-2.3186405 0.95877159 -0.55582952
-2.3622482 0.97680366 -0.42616168
-2.7213795 1.1253066 -0.32823795
-2.6105168 1.0794642 -0.15778793
-3.4833887 1.4404018 0
-5.4725542 2.2629337 0.33077857
-2.2736127 0.93693703 -0.8108412
-2.3552759 0.97058976 -0.7028268
-2.3268473 0.95887452 -0.55751872
-2.3539331 0.97003633 -0.4244498
-2.7323029 1.1259594 -0.32939112
-2.6238294 1.0812583 -0.1585135
-3.4971645 1.4411525 0
-5.477685 2.2573085 0.33092359
-2.2998862 0.94451481 -0.81980348
-2.3494916 0.96488672 -0.70075232
-2.3256559 0.95509791 -0.55695635
-2.3503587 0.9652428 -0.42359468
-2.7432315 1.1265874 -0.33054429
-2.6443629 1.0859842 -0.15967461
-3.4796441 1.4290165 0
-5.4900227 2.2546368 0.33150414
-2.2690058 0.92863047 -0.8083955
-2.3204651 0.94969106 -0.6917522
-2.3291578 0.95324862 -0.55751872
-2.3491406 0.96142703 -0.4231655
-2.7350159 1.1193532 -0.32939112
-2.6456733 1.0827882 -0.15967461
-3.4982214 1.4317085 0
-5.4831238 2.2440646 0.33092359
-2.2701263 0.92588812 -0.8083955
-2.3425245 0.95541632 -0.69798362
-2.3303077 0.95043361 -0.55751872
-2.3479259 0.95761931 -0.42273793
-2.7243938 1.1111646 -0.32794994
-2.6205111 1.0687952 -0.15807794
-3.5047729 1.429448 0
-5.4882441 2.2384217 0.33106914
-2.2620845 0.91942185 -0.80513567
-2.3204315 0.94313693 -0.69106072
-2.3314545 0.94761717 -0.55751872
-2.3395689 0.95091522 -0.42102608
-2.6993749 1.0971581 -0.32477844
-2.6651349 1.0832412 -0.16069072
-3.4751573 1.412474 0
-5.4981594 2.2347212 0.33150414
-2.2838092 0.92503792 -0.81246954
-2.2959981 0.92997503 -0.68344891
-2.3443708 0.94956797 -0.5603326
-2.3430932 0.94905043 -0.42145362
-2.719877 1.1016636 -0.32708478
-2.6279078 1.0644122 -0.1583685
-3.4937396 1.4151102 0
-5.4936376 2.2251523 0.33106914
-2.2642999 0.91395259 -0.80513567
-2.3273613 0.93940645 -0.69244635
-2.3172421 0.93532199 -0.55357796
-2.3466256 0.94718218 -0.42188284
-2.7547894 1.1119318 -0.33112141
-2.6532829 1.0709602 -0.15981962
-3.4833827 1.4060181 0
-5.4939055 2.2175374 0.33092359
-2.2699842 0.91305888 -0.80676401
-2.3191845 0.93284875 -0.68967772
-2.3301551 0.93726146 -0.55639189
-2.3525269 0.94626015 -0.42273793
-2.720134 1.0941232 -0.32679677
-2.6377068 1.0609684 -0.15880406
-3.4705966 1.3959829 0
-5.4917645 2.2089598 0.33063358
-2.3055007 0.92410982 -0.81898928
-2.3133218 0.92724472 -0.68760055
-2.3289297 0.93350077 -0.55582952
-2.3608191 0.94628304 -0.42402226
-2.7046461 1.0840986 -0.32477844
-2.6920443 1.0790474 -0.16199684
-3.4891837 1.3985634 0
-5.4847817 2.1984556 0.33005303
-2.2997274 0.91857213 -0.81654358
-2.3097854 0.92258948 -0.68621755
-2.3324132 0.93162763 -0.55639189
-2.3452711 0.93676341 -0.42102608
-2.7395861 1.0942633 -0.32881507
-2.6402631 1.0545911 -0.15880406
-3.4715455 1.3866273 0
-5.4850235 2.1908636 0.32990801
-2.2732792 0.90482438 -0.80676401
-2.3085608 0.91886741 -0.68552339
-2.3453479 0.93350965 -0.55920792
-2.351176 0.9358294 -0.42188284
-2.728893 1.0861707 -0.32737389
-2.6415355 1.0514001 -0.15880406
-3.4756341 1.383393 0
-5.4852452 2.1832709 0.32976246
-2.2697802 0.90025616 -0.80513567
-2.3399835 0.92810076 -0.69452083
-2.332298 0.92505252 -0.55582952
-2.3379831 0.92730731 -0.41931421
-2.7157733 1.0771492 -0.3256436
-2.5872474 1.0261723 -0.15546571
-3.4869797 1.3830304 0
-5.4878793 2.1766415 0.32976246
-2.2731626 0.89842051 -0.80594981
-2.3224471 0.91789913 -0.68898618
-2.3263228 0.91943097 -0.55414033
-2.3605859 0.93297273 -0.4231655
-5.6491323 2.2327025 -0.67705351
-2.6464827 1.0459676 -0.15894906
-3.4765491 1.3740342 0
-5.4808393 2.1661885 0.32918191
-2.2742467 0.89567322 -0.80594981
-2.3072124 0.90865624 -0.68414038
-2.3203464 0.91382885 -0.55245328
-2.3521574 0.92635709 -0.42145362
-5.6614518 2.2296662 -0.67820668
-5.6890578 2.2405384 -0.34152475
-3.4782069 1.3698324 0
-5.4810371 2.158613 0.32903689
-2.2983394 0.90195543 -0.81410104
-2.3083086 0.90586776 -0.68414038
-2.326175 0.91287917 -0.55357796
-2.3556716 0.92445475 -0.42188284
-5.6641421 2.2228239 -0.67820668
-5.7062788 2.2393599 -0.34239587
-3.4992311 1.3732308 0
-5.4860582 2.1529369 0.32918191
-2.2873707 0.89605653 -0.81002384
-2.3088555 0.90447301 -0.68414038
-2.3314621 0.91332901 -0.55470484
-2.3514447 0.92115694 -0.42102608
-5.6582661 2.216574 -0.67734259
