# .PCD v0.7 - Point Cloud Data file format
VERSION 0.7
FIELDS x y z
SIZE 4 4 4
TYPE F F F
COUNT 1 1 1
WIDTH 1595
HEIGHT 1
VIEWPOINT 0 0 0 1 0 0 0
POINTS 1595
DATA ascii
-3.7995832 4.7721262 0.3407228
-3.7252476 4.6671796 -0.99555141
-3.7546895 4.7040658 -0.67086226
-3.7713821 4.7249794 -0.33768171
-3.7841916 4.7410274 0
-3.8004882 4.761445 0.3402878
-3.7244689 4.6546574 -0.9938395
-3.7571356 4.6954827 -0.67028511
-3.773845 4.7163649 -0.3373917
-3.7785404 4.7222333 0
-3.8029888 4.7527876 0.33999723
-3.7220607 4.6401434 -0.99170011
-3.7530992 4.6788378 -0.66855592
-3.7714131 4.7016692 -0.33666614
-3.7826104 4.7156281 0
-0 0 0
-3.7228372 4.6296391 -0.99041575
-3.7506411 4.6642156 -0.66711366
-3.7673182 4.6849546 -0.33579502
-3.7817819 4.7029419 0
-3.8030696 4.7294145 0.33898169
-3.7252033 4.6211367 -0.98955899
-3.7514091 4.653645 -0.66624957
-3.7697179 4.6763573 -0.33550501
-3.7760332 4.6841917 0
-3.7957351 4.708632 0.33782056
-3.7211063 4.6046562 -0.98699206
-3.7521505 4.6430717 -0.66538441
-3.7704644 4.6657338 -0.33506948
-3.7767816 4.6735511 0
-3.7965207 4.6979771 0.337385
-3.7202039 4.5921779 -0.98528016
-3.749619 4.6284876 -0.66394323
-3.7679226 4.6510816 -0.33434391
-3.7873421 4.6750526 0
-3.7956519 4.6853099 0.33680445
-3.7225163 4.5836978 -0.98442507
-3.7519445 4.6199341 -0.66336608
-3.7669873 4.6384568 -0.33376336
-3.781502 4.6563296 0
-3.7914848 4.668622 0.33593389
-3.7183247 4.5672483 -0.98185641
-3.7477293 4.6033664 -0.66163689
-3.7709503 4.6318889 -0.33361834
-3.7838426 4.6477242 0
-3.793839 4.6600032 0.33564332
-3.7189758 4.5567913 -0.98057377
-3.750015 4.5948229 -0.6610598
-3.7716138 4.6212878 -0.33318278
-3.7812233 4.6330619 0
-3.7961841 4.6513934 0.33535334
-3.7228489 4.550302 -0.98014456
-3.7490191 4.5822887 -0.6599077
-3.7656755 4.6026473 -0.33216667
-3.7752876 4.6143956 0
-3.7869883 4.6286969 0.33404666
-3.7202063 4.5358777 -0.97800511
-3.7463472 4.5677505 -0.65846539
-3.769588 4.5960865 -0.33202168
-3.7808604 4.6098309 0
-3.7909322 4.6221108 0.33390164
-3.7207916 4.5254288 -0.97672081
-3.7452931 4.5552287 -0.65731227
-3.7701862 4.585505 -0.33158612
-3.773205 4.5891767 0
-3.7833123 4.6014695 0.33274055
-3.7186351 4.51724 -0.97543818
-3.7431176 4.5469804 -0.65644819
-3.7630503 4.5711937 -0.33071557
-3.7660496 4.5748367 0
-3.7844417 4.5971789 0.33259553
-3.7191873 4.5068016 -0.97415382
-3.7453134 4.5384603 -0.65587103
-3.7685709 4.5666432 -0.33071557
-3.7765455 4.5763068 0
-3.7817259 4.5825839 0.33186999
-3.7164502 4.4924164 -0.97201443
-3.7441998 4.52596 -0.65471786
-3.7674608 4.5540776 -0.33013499
-3.7804151 4.569737 0
-3.7839444 4.5740032 0.33157942
-3.7235129 4.4898968 -0.97244197
-3.7430613 4.5134687 -0.65356469
-3.761348 4.5355191 -0.32911888
-3.7776289 4.5551515 0
-3.7828398 4.5614347 0.33099943
-0 0 -0
-3.7158065 4.4696021 -0.96901822
-3.7435565 4.5029817 -0.65270066
-3.761847 4.5249825 -0.32868388
-3.7714825 4.5365729 0
-3.7933273 4.562849 0.33143443
-3.7216578 4.4546976 -0.96773392
-3.7428179 4.4800253 -0.65068233
-3.7661071 4.5079021 -0.32810333
-3.7774272 4.521452 0
-3.7910151 4.5377159 0.3302733
-3.7286906 4.4521713 -0.96816313
-3.7465692 4.4735188 -0.65039432
-3.7682114 4.4993601 -0.32781276
-3.7795491 4.5128975 0
-3.7914948 4.5271616 0.32983831
-3.7324123 4.4456906 -0.96773392
-3.7419901 4.457099 -0.648664
-3.7753143 4.4967918 -0.32795778
-3.7900209 4.5143089 0
-3.8003008 4.5265532 0.33012831
-3.7377813 4.4411778 -0.96773392
-3.7507071 4.4565358 -0.64924115
-3.780745 4.4922266 -0.32795778
-3.7954729 4.509726 0
-3.8124602 4.5299101 0.33070886
-3.7547338 4.4503942 -0.97073013
-3.7644269 4.4618835 -0.65068233
-3.7911987 4.4936152 -0.32839334
-3.8025959 4.5071239 0
-3.8212852 4.5292759 0.33099943
-3.7601085 4.4458542 -0.97073013
-3.768147 4.4553585 -0.65039432
-3.7999849 4.4930029 -0.32868388
-3.8080389 4.5025258 0
-3.8317845 4.530602 0.33143443
-3.7704597 4.4471836 -0.97201443
-3.7802181 4.4586935 -0.65154749
-3.8104472 4.494348 -0.32911888
-3.8185272 4.5038786 0
-3.8338983 4.5220084 0.33114442
-3.7774913 4.4445786 -0.97244197
-3.7872763 4.4560919 -0.6518355
-3.8192439 4.4937043 -0.32940945
-3.8239665 4.4992614 0
-3.844403 4.5233068 0.33157942
-3.7845223 4.4419632 -0.97286952
-3.790982 4.4495454 -0.65154749
-3.8263543 4.4910626 -0.32955444
-3.8361514 4.5025616 0
-3.854923 4.5245938 0.33201498
-3.7982209 4.4471455 -0.97500896
-3.8030748 4.4528284 -0.65270066
-3.8402143 4.4963131 -0.33028001
-3.8415892 4.4979229 0
-3.8688233 4.52981 0.33274055
-3.8035917 4.4425526 -0.97500896
-3.8118136 4.4521556 -0.65327668
-3.8490276 4.4956212 -0.33057055
-3.8571734 4.5051355 0
-3.8726056 4.52316 0.33259553
-3.8062749 4.4402537 -0.97500896
-3.8195543 4.4557452 -0.65414184
-3.851743 4.4932952 -0.33057055
-3.8598945 4.5028043 0
-3.8736482 4.5188489 0.33245054
-3.8183296 4.4434395 -0.97672081
-3.8232512 4.4491668 -0.65385383
-3.8622451 4.4945445 -0.33100557
-3.8619368 4.4941859 0
-3.8858795 4.522048 0.33303109
-3.825376 4.440773 -0.97715002
-3.8319974 4.4484596 -0.65442985
-3.871068 4.4938154 -0.33129612
-3.8656673 4.487546 0
-3.8930349 4.5193162 0.33317611
-3.8307393 4.4361477 -0.97715002
-3.8424428 4.4497008 -0.65529501
-3.8815916 4.4950366 -0.33173168
-3.8727863 4.4848399 0
-3.9086792 4.5264053 0.33404666
-3.8444955 4.4412184 -0.97928947
-3.85797 4.4567842 -0.6570242
-3.8904181 4.4942689 -0.33202168
-3.8782024 4.4801569 0
-3.9158511 4.5236492 0.33419222
-3.8414483 4.426877 -0.97715002
-3.8599653 4.448216 -0.65644819
-3.8975472 4.4915252 -0.33216667
-3.8750863 4.4656415 0
-3.9196062 4.5169463 0.33404666
-3.855217 4.4319148 -0.97928947
-3.8687291 4.4474483 -0.6570242
-3.9012678 4.4848542 -0.33202168
-3.8821924 4.462925 0
-3.9250612 4.512207 0.33404666
-3.8470721 4.4117746 -0.97586572
-3.8673005 4.4349728 -0.65587103
-3.8981466 4.4703465 -0.33129612
-3.8875821 4.458231 0
-3.9202673 4.4957142 0.33317611
-3.8507123 4.4051924 -0.97543818
-3.8692553 4.4264054 -0.65529501
-3.8932815 4.4538913 -0.33042499
-3.8980994 4.459403 0
-3.9256966 4.4909739 0.33317611
-3.8627994 4.4082589 -0.97715002
-3.8660796 4.4120021 -0.65385383
-3.8986602 4.4491835 -0.33042499
-3.9120591 4.4644747 0
-3.9276984 4.4823222 0.3328861
-3.8732007 4.409369 -0.97843271
-3.8731132 4.4092689 -0.65414184
-3.9074664 4.4483776 -0.33071557
-3.9191732 4.4617052 0
-3.936538 4.4814739 0.33317611
-3.8768311 4.402761 -0.97800511
-3.8835676 4.4104114 -0.655007
-3.9111228 4.4417048 -0.33057055
-3.9228365 4.4550076 0
-3.9453878 4.480618 0.33346665
-3.882148 4.3980732 -0.97800511
-3.892314 4.4095902 -0.65558302
-3.9319613 4.4545069 -0.33187667
-3.9316645 4.4541702 0
-3.9576705 4.4836326 0.33404666
-3.8908648 4.3972278 -0.97886187
-3.904495 4.412632 -0.6567362
-3.9528365 4.4672647 -0.33318278
-3.9542863 4.4689031 0
-3.9734201 4.4905272 0.33491778
-3.9029889 4.4002051 -0.98057377
-3.9184041 4.4175839 -0.65817738
-3.966851 4.4722028 -0.33390835
-3.9734988 4.4796977 0
-3.9840176 4.4915562 0.33535334
-3.910007 4.3974023 -0.98100132
-3.9357712 4.4263783 -0.66019571
-3.9739769 4.4693465 -0.33405334
-3.985826 4.4826727 0
-3.9911668 4.4886789 0.33549833
-3.9358146 4.4156709 -0.98613691
-5.9562988 6.6824932 -0.9977687
-3.9828355 4.4684248 -0.33434391
-3.9947062 4.4817424 0
-3.9931264 4.47997 0.33520776
-3.9291728 4.3975101 -0.98314077
-5.9540257 6.6637149 -0.99603838
-3.9934275 4.4694238 -0.33477947
-4.0018511 4.4788513 0
-3.9933476 4.4693346 0.33477277
-3.9413342 4.4004083 -0.98485261
-5.9689755 6.6642227 -0.99719155
-6.1033549 6.8142543 -0.51096958
-6.0629835 6.7691798 0
-7.495317 8.3683472 0.62750387
-3.9371367 4.3903813 -0.98314077
-5.9833651 6.6721725 -0.99892187
-6.107471 6.8105655 -0.51096958
-6.7325015 7.5075498 0
-7.5038376 8.3676825 0.62779391
-3.9475889 4.3913503 -0.98442507
-5.9896884 6.6630087 -0.99863273
-6.1486964 6.8398914 -0.51372683
-6.7363534 7.493609 0
-7.5156784 8.3605404 0.62793887
-3.9563258 4.3903875 -0.98528016
-4.0140309 4.4544239 -0.33492446
-3.9772034 4.4135556 0
-7.5344777 8.3611107 0.62866503
-3.9667916 4.3913202 -0.98656446
-4.024631 4.4553494 -0.33535945
-3.9929972 4.4203305 0
-7.5463147 8.3539267 0.62880999
-3.98243 4.3979378 -0.98913145
-4.0335031 4.454339 -0.33565003
-4.0105648 4.429008 0
-7.568614 8.3582869 0.62982613
-3.9860175 4.3912234 -0.98870391
-4.040627 4.4513845 -0.33579502
-0 0 0
-7.571722 8.3414392 0.62924558
-3.9913204 4.386404 -0.98870391
-4.0390077 4.4388113 -0.33521447
-4.0195065 4.4173803 0
-7.58529 8.3361244 0.62953556
-4.0018091 4.3872695 -0.98998821
-6.4940448 7.1195612 -0.53825414
-4.0213304 4.4086709 0
-7.5988626 8.3307962 0.62982613
-4.0140367 4.3900089 -0.99170011
-6.5043945 7.113625 -0.53839916
-4.0178752 4.3942075 0
-7.0197978 7.6773033 0.58106148
-4.0175986 4.3832579 -0.9912709
-6.5059624 7.0980983 -0.53781855
-4.0231819 4.3893495 0
-7.0290694 7.6688161 0.58106148
-4.0350513 4.391634 -0.99426705
-6.5039892 7.0787554 -0.53694803
-4.0901055 4.4515533 0
-7.0436063 7.666059 0.58149707
-4.0299234 4.3754296 -0.99170011
-6.4861302 7.0422201 -0.53477079
-4.060226 4.40833 0
-7.0581403 7.663271 0.58193207
-4.0404267 4.3762097 -0.99298275
-6.4294243 6.9637475 -0.5294013
-4.0726109 4.4110694 0
-7.0603509 7.6471076 0.58135206
-4.0457115 4.3713245 -0.99298275
-6.3919477 6.9063945 -0.52562797
-4.0779381 4.4061451 0
-7.0660524 7.6347532 0.58106148
-4.0614691 4.377728 -0.99555141
-6.4214888 6.9215178 -0.52736908
-4.0867958 4.4050264 0
-7.0805759 7.6319265 0.58149707
-4.0702491 4.3765731 -0.9964065
-6.4245439 6.9080505 -0.52693409
-4.0921154 4.4000854 0
-7.0880241 7.6214643 0.58135206
-4.0737853 4.3697762 -0.99597895
-6.4169407 6.8831792 -0.52562797
-4.1027546 4.4008503 0
-7.0936809 7.6090894 0.58106148
-4.0860734 4.3723526 -0.9976908
-6.3968663 6.8450446 -0.52330571
-4.1205025 4.409194 0
-7.0957732 7.5929189 0.58048093
-4.1001272 4.3767776 -0.99983025
-6.376709 6.8069692 -0.52098352
-4.1258273 4.404212 0
-7.097837 7.5767541 0.57990038
-4.1027708 4.3743 -0.99983025
-6.3612647 6.7822657 -0.51938683
-4.1302729 4.4036222 0
-7.8614159 8.3816996 0.64187175
-6.358779 6.7632194 -0.5185163
-4.137372 4.4005227 0
-7.8608618 8.3608398 0.64100116
-4.1298685 4.3819203 -0.67115027
-6.3669467 6.7555308 -0.5185163
-4.1551824 4.4087796 0
-7.8762999 8.3570023 0.64143616
-4.1404839 4.3825622 -0.67201436
-6.3697495 6.7421646 -0.51808071
-4.1551433 4.3980784 0
-7.8863921 8.3474798 0.64143616
-4.1404457 4.3719273 -0.67115027
-6.3850384 6.7420096 -0.51866126
-4.1658244 4.398725 0
-7.8964725 8.337944 0.64143616
-4.1439462 4.3650475 -0.67086226
-6.3913927 6.7324071 -0.5185163
-4.178297 4.4012308 0
-7.9083357 8.330287 0.64158171
-6.3780274 6.7020912 -0.51677459
-4.1836119 4.3961792 0
-4.2266932 4.4414492 0.34246448
-6.3950868 6.7037787 -0.51750016
-4.1925168 4.3948903 0
-4.2302647 4.4344606 0.34231946
-6.4085717 6.7016826 -0.51793569
-4.1978245 4.3898215 0
-4.2463918 4.4406099 0.34319001
-6.4184613 6.6958079 -0.51808071
-4.2085299 4.3903842 0
-0 0 0
-4.2247901 4.3966994 -0.34058449
-4.2192364 4.3909197 0
-4.2625132 4.4359579 0.34362558
-4.2517314 4.4140491 -0.34232616
-4.2209311 4.3820734 0
-4.2714791 4.4345508 0.34391615
-4.2534485 4.4051666 -0.34203559
-4.231648 4.3825884 0
-4.276834 4.4293866 0.34391615
-4.2569628 4.3981586 -0.3418906
-4.2441802 4.3849521 0
-4.2821832 4.4242153 0.34391615
-6.5320559 6.7161584 -0.52330571
-4.2638354 4.3840094 0
-4.301919 4.4231663 0.34464169
-4.2340927 4.3429165 -0.67605096
-6.5456028 6.7138371 -0.52374077
-4.2691293 4.3788543 0
-4.3145161 4.4254069 0.34522226
-4.2519865 4.3507404 -0.67806816
-6.5537105 6.7059231 -0.52374077
-4.2707758 4.3699665 0
-4.3234887 4.4239035 0.34551227
-4.2554321 4.3437538 -0.67778015
-6.5709057 6.7072854 -0.52446687
-4.2815185 4.3703818 0
-4.3306479 4.4205308 0.34565726
-4.2580557 4.3411822 -0.67778015
-6.5858703 6.7144408 -0.5253374
-4.298737 4.382658 0
-4.3351426 4.4197741 0.34580281
-6.5994458 6.7120385 -0.52577299
-4.3003769 4.3737454 0
-4.3477669 4.4219441 0.34638336
-6.6166692 6.7133112 -0.52649856
-4.3001833 4.3629909 0
-4.356751 4.4203849 0.34667337
-6.6266007 6.7071581 -0.52664351
-4.3091063 4.3614907 0
-4.3675694 4.4206648 0.34710893
-6.642014 6.706531 -0.52722406
-4.319869 4.3618298 0
-4.3710814 4.4135394 0.34696394
-6.6556067 6.7040343 -0.52765965
-4.3398046 4.3713822 0
-4.3855629 4.4174733 0.34768948
-6.6765275 6.7088752 -0.5286752
-4.3359065 4.3569136 0
-4.3945594 4.4158511 0.34797949
-6.688303 6.7044854 -0.52896577
-4.3540287 4.3645635 0
-4.4035659 4.4142203 0.34827006
-4.3400526 4.3400526 -0.68412203
-6.7000704 6.7000704 -0.52925575
-4.3629832 4.3629832 0
-4.4125676 4.4125676 0.34856004
-4.3434639 4.3329802 -0.68383402
-6.7192025 6.7029843 -0.53012687
-4.3700924 4.3595443 0
-4.419734 4.4090662 0.34870505
-4.3541985 4.3332043 -0.68469918
-6.7328238 6.7003613 -0.53056246
-4.3790426 4.3579288 0
-4.4269052 4.4055605 0.34885061
-4.3557563 4.3242917 -0.68412203
-6.748291 6.699544 -0.53114301
-4.3880029 4.3563051 0
-4.4377522 4.4056954 0.3492856
-6.7619147 6.6968651 -0.531578
-4.3914161 4.3491702 0
-4.4430723 4.4003301 0.3492856
-6.7829428 6.7014751 -0.53259408
-4.4022164 4.3493428 0
-4.4576335 4.4040947 0.35001171
-6.789186 6.691452 -0.53244913
-4.4093275 4.3458529 0
-4.4592471 4.3950539 0.34972116
-6.8102312 6.695991 -0.53346467
-4.4182835 4.3441677 0
-4.4701147 4.3951292 0.35015672
-6.8108969 6.680479 -0.53288412
-4.419817 4.3351846 0
-4.4791284 4.3933606 0.35044673
-6.818964 6.6722445 -0.53288412
-4.4362092 4.3407578 0
-4.4862895 4.3897605 0.35059172
-4.4656472 4.3590131 -0.34856674
-4.4433112 4.3372107 0
-4.4953127 4.3879704 0.35088229
-4.4336548 4.322557 -0.69017589
-4.4701385 4.3581266 -0.34871173
-4.4477925 4.3363404 0
-4.4998217 4.3870659 0.35102728
-4.4351697 4.3135934 -0.68959987
-4.4772625 4.3545322 -0.34885675
-4.4660902 4.3436661 0
-4.5051193 4.3816257 0.35102728
-4.4459491 4.3136363 -0.69046503
-6.8974748 6.6922035 -0.53680301
-4.4862781 4.3527646 0
-4.5160069 4.3816085 0.35146284
-4.4492946 4.306457 -0.69017589
-6.9111519 6.6892805 -0.537238
-4.4971461 4.3527722 0
-4.5269008 4.3815722 0.3518984
-6.9285817 6.6899548 -0.53796411
-4.5080132 4.3527532 0
-4.5359268 4.3797054 0.35218841
-6.9422688 6.6869807 -0.53839916
-4.5188947 4.3527212 0
-4.5430851 4.3760223 0.3523334
-6.9615893 6.689393 -0.53927022
-4.520401 4.3436546 0
-4.5502486 4.372335 0.35247895
-6.9771705 6.688169 -0.53985083
-4.5312772 4.3435874 0
-4.5630245 4.3740196 0.35305896
-6.9927583 6.6869168 -0.54043138
-4.5384088 4.3399129 0
-4.5664301 4.3667088 0.35291395
-4.5140886 4.3062267 -0.69536573
-7.0064683 6.6838384 -0.54086637
-4.549293 4.3398099 0
-4.5811019 4.3701539 0.35363951
-4.5117941 4.2936368 -0.69421256
-7.0145392 6.6753674 -0.54086637
-4.5620747 4.341486 0
-4.5826182 4.3610363 0.35334951
-4.5282302 4.2988634 -0.69594175
-7.016952 6.6615248 -0.54043138
-4.5654316 4.3341804 0
-4.6010776 4.368021 0.35436562
-4.5315452 4.2916121 -0.69565374
-7.0249958 6.6530414 -0.54043138
-4.5725527 4.3304486 0
-4.5988054 4.3553109 0.35378507
-4.5273285 4.2772536 -0.69421256
-7.0235806 6.6356206 -0.53970528
-4.5853491 4.3320694 0
-4.617281 4.3622375 0.35480061
-4.5475516 4.2859721 -0.6965189
-7.0278149 6.6235685 -0.53941524
-4.5943718 4.3300991 0
-4.624445 4.3584423 0.3549462
-7.0168853 6.5972762 -0.53796411
-4.6033888 4.3281064 0
-4.6315989 4.3546295 0.35509118
-7.0248518 6.5887928 -0.53796411
-4.6124153 4.3261051 0
-4.6425447 4.3543649 0.35552675
-7.0403976 6.5874009 -0.53854471
-4.6176391 4.320529 0
-4.6515942 4.3522992 0.35581675
-0 0 -0
-7.0521474 6.5824323 -0.53883469
-4.6323671 4.3238235 0
-4.6568499 4.3466754 0.35581675
-4.6187854 4.300715 -0.70343679
-7.061996 6.575675 -0.53897971
-4.6394911 4.3199949 0
-4.6697049 4.3481283 0.3563973
-4.6157064 4.2926445 -0.70257276
-7.0773873 6.5820284 -0.53985083
-4.6440039 4.3189616 0
-4.674232 4.347074 0.35654229
-4.6265726 4.2923365 -0.70343679
-7.0872383 6.5752373 -0.53999579
-4.6530385 4.3168907 0
-4.6890039 4.3502579 0.35726786
-4.6298594 4.2849879 -0.70314878
-7.0970836 6.5684323 -0.54014081
-4.6677995 4.3201022 0
-4.6961694 4.3463588 0.35741341
-4.6369319 4.2811437 -0.70343679
-7.1031075 6.5580912 -0.53999579
-4.6768365 4.3179865 0
-4.6975961 4.3371525 0.35712287
-4.6306901 4.2650275 -0.7017076
-4.7105665 4.3385959 -0.35771009
-4.6839705 4.3141003 0
-4.7143044 4.3420391 0.35799396
-4.7062402 4.3241124 -0.35698456
-4.69876 4.3172398 0
-4.7291126 4.3451281 0.35871953
-4.7114615 4.3184228 -0.35698456
-4.7078066 4.3150725 0
-4.7381868 4.3429189 0.35900953
-4.7128367 4.3092165 -0.35669398
-4.713017 4.309381 0
-4.7434311 4.3371906 0.35900953
-7.1061211 6.4817853 -0.537238
-4.7259116 4.3106985 0
-4.7544293 4.3367109 0.3594451
-7.1062603 6.4661989 -0.53665745
-4.7330475 4.3067417 0
-4.759666 4.3309627 0.3594451
-7.1121459 6.455863 -0.53651243
-4.7401729 4.3027673 0
-4.7706695 4.3304496 0.35988066
-4.7298656 4.2829981 -0.71122098
-7.1218657 6.449007 -0.53665745
-4.7530851 4.3040237 0
-4.777823 4.3264246 0.36002564
-4.731195 4.273809 -0.71064383
-7.1142344 6.4264693 -0.53549689
-4.7563453 4.2965279 0
-4.7888336 4.3258753 0.36046121
-4.7325163 4.2646294 -0.71006781
-7.10848 6.4056907 -0.53448081
-4.777 4.3047152 0
-4.8017707 4.3270373 0.36104122
-4.7395873 4.2606354 -0.71035582
-7.106555 6.3884125 -0.53375524
-4.7783308 4.2954636 0
-4.8089337 4.3229742 0.36118677
-4.7408772 4.2514486 -0.70977867
-7.104598 6.3711486 -0.53302968
-4.7893319 4.2949009 0
-4.8180189 4.3206267 0.36147675
-4.7537217 4.252615 -0.71093184
-7.1064792 6.3573604 -0.53259408
-4.8003311 4.2943115 0
-4.8290477 4.3200006 0.36191231
-7.106401 6.3418484 -0.53201354
-4.8035769 4.286777 0
-4.8400822 4.319355 0.36234787
-7.1043568 6.3246198 -0.53128797
-4.8126445 4.2844338 0
-4.8472366 4.3152294 0.36249289
-7.0965214 6.3099637 -0.53041691
-4.8249545 4.2901702 0
-4.8479028 4.3105755 0.36234787
-7.1000772 6.2824674 -0.52954632
-4.8469987 4.2888422 0
-4.8621941 4.3022876 0.36263788
-7.0979247 6.2652874 -0.52882075
-4.8541265 4.2847028 0
-4.8771276 4.3050056 0.36336344
-7.1035342 6.2549844 -0.5286752
-4.8553972 4.2753983 0
-4.8803773 4.2973938 0.36321843
-7.0974269 6.2343974 -0.52765965
-4.8722878 4.27983 0
-4.8914251 4.2966399 0.36365399
-7.1069069 6.2275281 -0.52780467
-4.8833294 4.2790866 0
-4.8985653 4.2924376 0.36379901
-7.1007299 6.2069635 -0.52678853
-4.8904538 4.2748942 0
-4.9096193 4.2916474 0.36423454
-7.096478 6.1881361 -0.52591795
-4.9015021 4.2741151 0
-4.934382 4.3027864 0.36568567
-4.916142 4.2764349 -0.3639507
-4.9105864 4.2716022 0
-4.9336944 4.2917032 0.36525011
-4.9291558 4.2773037 -0.36453125
-4.9236064 4.2724881 0
-4.9467263 4.2925506 0.36583066
-4.9343204 4.2713447 -0.36453125
-4.9327044 4.2699456 0
-4.9558425 4.2899747 0.36612123
-4.9434075 4.2687726 -0.36482126
-4.9477072 4.2724853 0
-4.9590578 4.2822871 0.36597621
-4.9406948 4.2560191 -0.36424124
-4.9528661 4.2665038 0
-4.972096 4.2830687 0.36655623
-7.0918865 6.0941892 -0.52228963
-4.9580178 4.2605162 0
-4.9851503 4.2838321 0.36713678
-4.946651 4.2403688 -0.72621107
-7.0992451 6.0856156 -0.52228963
-4.9750137 4.2646818 0
-4.9903231 4.2778053 0.36713678
-4.9517708 4.2343884 -0.72621107
-7.1065931 6.077033 -0.52228963
-4.9821467 4.2603636 0
-4.9994416 4.2751532 0.36742735
-4.9588499 4.2300792 -0.72649908
-7.0981154 6.0549507 -0.52112854
-4.9872909 4.2543406 0
-5.008554 4.2724786 0.36771736
-4.9639573 4.2240844 -0.72649908
-7.0994883 6.041316 -0.52069294
-4.9983683 4.253366 0
-5.0176744 4.2697949 0.3680079
-4.9493432 4.2013478 -0.72361672
-5.042727 4.2806191 -0.36946571
-5.0094581 4.2523775 0
-5.0307536 4.2704554 0.36858845
-4.9682274 4.2070599 -0.72563392
-5.0360017 4.2644506 -0.36859515
-5.0245209 4.2547293 0
-5.0378914 4.2660508 0.36873347
-4.983192 4.209404 -0.72707623
-5.0371766 4.2550058 -0.36830458
-5.0296583 4.2486548 0
-5.0509825 4.2666678 0.36931401
-4.9902506 4.2050447 -0.72736424
-5.0403295 4.2472434 -0.36815959
-5.0308118 4.2392235 0
-7.12852 6.0068617 0.52068681
-4.9868517 4.197031 -0.72649908
-5.0468664 4.247541 -0.3684496
-5.0433259 4.2445607 0
-7.1182294 5.99084 0.51967072
-4.9919195 4.1910024 -0.72649908
-5.0519953 4.2414393 -0.3684496
-5.0544324 4.2434855 0
-7.1234751 5.9805655 0.51952571
-5.0029306 4.1899514 -0.72736424
-5.0591145 4.2370052 -0.36859515
-5.0675368 4.2440591 0
-7.1227274 5.9652801 0.51894516
-5.0119557 4.1872168 -0.72794026
-5.0662227 4.2325535 -0.36874014
-5.0646725 4.2312584 0
-7.1159697 5.9450059 0.51792902
-5.0170112 4.1811576 -0.72794026
-7.0773349 5.8982229 -0.51459795
-7.1028929 5.9195232 0
-7.1211534 5.9347415 0.517784
-5.018086 4.1717887 -0.72736424
-7.0964413 5.8996305 -0.51546848
-7.1220517 5.9209218 0
-7.120327 5.919488 0.51720345
-7.0875635 5.8777819 -0.51430738
-7.1171775 5.9023409 0
-7.0754743 5.8677564 0.51343012
-7.0906601 5.8659043 -0.5140174
-7.1202974 5.8904223 0
-6.9804559 5.7747355 0.50602841
-7.0897264 5.8507166 -0.51343679
-7.1193805 5.8751888 0
-6.9313126 5.7199874 0.50196451
-7.0747209 5.8239779 -0.51184016
-7.1023631 5.8467336 0
-6.9261861 5.7017026 0.50109398
-7.0616755 5.7989383 -0.51038903
-7.0691977 5.8051152 0
-6.9230318 5.6850858 0.50036842
-7.0184264 5.7492375 -0.50676066
-7.031919 5.7602901 0
-6.9278798 5.675065 0.50022286
-7.003233 5.7226653 -0.50516403
-7.0207386 5.7369699 0
-6.9246736 5.6584706 0.49949729
-6.9506264 5.6656857 -0.99949789
-6.9940295 5.7010651 -0.50400287
-7.0296807 5.7301254 0
-6.9254613 5.6451726 0.49906173
-6.9394083 5.6425986 -0.99690354
-6.9928489 5.6860523 -0.50342232
-0 0 0
-6.9282494 5.6335249 0.49877173
-6.9381862 5.6276922 -0.99575037
-6.9714651 5.6546855 -0.50139064
-6.9990454 5.6770563 0
-6.924963 5.6169667 0.49804619
-6.9429722 5.6176791 -0.99546236
-6.9782929 5.6462579 -0.50139064
-7.0038786 5.6669598 0
-6.927701 5.6053228 0.49775562
-6.937675 5.5995359 -0.99373204
-6.9750018 5.6296635 -0.50066513
-6.9945197 5.6454163 0
-6.9263806 5.5904202 0.49717507
-6.9424229 5.5895286 -0.99344403
-6.9757252 5.6163411 -0.50022954
-6.9952526 5.6320629 0
-6.9311085 5.5804191 0.49703005
-6.9471569 5.5795178 -0.99315602
-6.9723787 5.5997744 -0.49950397
-6.9979982 5.6203504 0
-6.9277186 5.5639057 0.49630451
-6.9397616 5.5597978 -0.99113768
-6.9791398 5.5913453 -0.49950397
-6.9986892 5.6070075 0
-6.9283504 5.5506554 0.49586895
-6.9370666 5.5507607 -0.99027365
-6.9703474 5.5773907 -0.49863341
-6.993947 5.5962744 0
-6.9175062 5.5351095 0.49485338
-6.9356828 5.5359206 -0.98912048
-6.9669213 5.5608544 -0.49790731
-6.9946003 5.5829473 0
-6.9160662 5.5202627 0.49427283
-6.9383159 5.5243106 -0.98854333
-6.9716043 5.5508151 -0.49776232
-7.0033827 5.576117 0
-6.9227314 5.5119023 0.49427283
-6.9409389 5.5127091 -0.98796731
-6.9681344 5.5343084 -0.49703676
-6.9938116 5.5547023 0
-6.9354844 5.5083771 0.49470782
-6.9334016 5.4930735 -0.98594898
-6.9707394 5.5226545 -0.49674618
-6.9923587 5.539783 0
-6.9502821 5.5064473 0.49528837
-6.9420614 5.4862938 -0.98623699
-6.9651794 5.5045638 -0.49587563
-6.9929199 5.5264874 0
-6.9793577 5.5157695 0.49688506
-6.9385314 5.4698968 -0.98479581
-6.9677482 5.4929295 -0.49558565
-6.9995928 5.518034 0
-6.9962187 5.5153742 0.49761063
-6.9370027 5.4551139 -0.98364264
-6.9662099 5.4780817 -0.49500507
-6.9898891 5.4967027 0
-7.0110478 5.5133414 0.49819118
-6.9395232 5.4435382 -0.98306662
-6.9625955 5.461637 -0.49427897
-6.9883351 5.4818277 0
-7.02384 5.5096784 0.49862674
-6.9399824 5.430366 -0.98220146
-6.9610043 5.446815 -0.49369842
-6.9970012 5.4749818 0
-7.0263953 5.497982 0.49833617
-6.9404202 5.4172006 -0.9813363
-6.9614415 5.4336081 -0.49326339
-6.9913063 5.4569187 0
-7.0289407 5.4862933 0.49804619
-6.9347196 5.3992796 -0.97960711
-6.9618487 5.4204021 -0.49282783
-6.9917321 5.4436688 0
-7.0232592 5.4682155 0.49717507
-6.9351082 5.3861356 -0.97874194
-6.9704437 5.4135785 -0.49297285
-6.98803 5.4272366 0
-7.0257607 5.4565406 0.49688506
-6.9354753 5.3729982 -0.97787678
-6.9626064 5.3940172 -0.49195728
-6.9863529 5.4124136 0
-7.0261846 5.4432716 0.4964495
-6.9358287 5.3598738 -0.97701275
-6.9629493 5.3808322 -0.49152175
-6.9784708 5.392827 0
-7.018362 5.4236541 0.49543339
-6.9361525 5.3467507 -0.97614759
-6.9591579 5.3644843 -0.49079618
-6.984982 5.3843908 0
-7.0454941 5.4310369 0.49688506
-6.9303093 5.3289089 -0.9744184
-6.9615107 5.3529005 -0.49050561
-6.9997354 5.3822927 0
-7.0293903 5.4050951 0.49528837
-6.9367433 5.3205314 -0.9744184
-6.9638538 5.3413253 -0.49021563
-7.0000443 5.3690839 0
-7.0421038 5.4013433 0.49572393
-6.9349504 5.3058591 -0.97326523
-6.9620481 5.3265915 -0.48963505
-7.0189247 5.3701067 0
-7.0630732 5.4038844 0.49674007
-6.9351859 5.2927666 -0.97240007
-6.9602165 5.3118691 -0.4890545
-7.0254083 5.3616219 0
-7.0840507 5.4063768 0.49775562
-6.932209 5.2838702 -0.97153491
-6.96136 5.3060899 -0.48890951
-7.0638309 5.3841949 0
-7.0831866 5.3989487 0.49746561
-6.9284711 5.2545986 -0.96922857
-6.9575992 5.27669 -0.48774838
-7.0809727 5.3702569 0
-7.1065631 5.3896646 0.49819118
-6.9286332 5.2415466 -0.96836454
-6.9577513 5.2635746 -0.48731282
-7.0853748 5.3601227 0
-7.11307 5.381074 0.49819118
-6.926703 5.2269387 -0.96721137
-6.9599619 5.2520361 -0.48702282
-7.0980806 5.3562617 0
-7.1112704 5.3662148 0.49761063
-6.9288764 5.2154512 -0.96663421
-6.9538426 5.2342439 -0.4861517
-7.0983076 5.3429842 0
-7.1239791 5.3623075 0.49804619
-6.9310408 5.2039723 -0.96605819
-6.9476986 5.2164793 -0.48528114
-7.0922751 5.3250308 0
-7.1179819 5.3443317 0.49717507
-6.9290423 5.1893921 -0.96490502
-6.9539962 5.2080808 -0.48528114
-7.0966234 5.314899 0
-7.1161146 5.3294969 0.49659449
-6.9270196 5.1748238 -0.96375185
-6.9540372 5.1950073 -0.48484561
-7.1009493 5.3047581 0
-7.1163101 5.3162332 0.49615949
-6.927043 5.1618123 -0.96288669
-6.9498935 5.1788397 -0.48412004
-7.0990143 5.2899599 0
-7.0873098 5.2812376 0.49369228
-6.9312015 5.151897 -0.96259868
-6.9561458 5.1704383 -0.48412004
-7.0719819 5.2565379 0
-7.0582352 5.2463202 0.49122503
-6.9311862 5.1388955 -0.96173352
-6.9477749 5.1511946 -0.48310393
-7.0344281 5.2154408 0
-7.045785 5.2238612 0.48991892
-6.9290719 5.1243649 -0.96058035
-6.9519067 5.1412525 -0.48295891
-7.0386343 5.2053909 0
-7.0541792 5.2168875 0.49006394
-6.9331794 5.1144547 -0.96029234
-6.951839 5.1282196 -0.48252335
-7.0511956 5.2015128 0
-7.07302 5.2176123 0.49093449
-6.9289398 5.0984106 -0.95885116
-6.9517574 5.1152 -0.48208836
-7.0511932 5.1883664 0
-7.0855999 5.2136836 0.49137005
-6.9288378 5.0854421 -0.957986
-6.9600258 5.1083326 -0.48223338
-7.0679455 5.1875405 0
-7.0960803 5.20819 0.49166003
-6.9287143 5.0724812 -0.95712084
-6.9515147 5.0891728 -0.48121724
-7.0574088 5.1666975 0
-7.1065655 5.2026849 0.4919506
-6.9243965 5.0564799 -0.95567966
-6.9555626 5.0792389 -0.48107225
-0 0 0
-7.0855684 5.1741743 0.49006394
-6.9263239 5.0450668 -0.95510364
-6.94699 5.0601201 -0.48005614
-7.0257001 5.1174517 0
-7.0624061 5.1441879 0.48803169
-6.9240446 5.0306129 -0.95395046
-6.9530993 5.0517225 -0.48005614
-7.0129313 5.0951929 0
-7.0560079 5.1264896 0.48716113
-6.9187088 5.0203528 -0.95279729
-6.9477377 5.0414166 -0.47947559
-7.0117917 5.0878954 0
-7.0633059 5.1252751 0.48745114
-6.9142957 5.0044079 -0.95135611
-6.9454041 5.0269237 -0.47889501
-7.024261 5.0839982 0
-7.0694933 5.1167364 0.48745114
-6.9203377 4.9960499 -0.95135611
-6.9472637 5.0154886 -0.478605
-7.059936 5.0968313 0
-7.1241293 5.1431746 0.49078947
-6.9221673 4.9846587 -0.95077896
-6.9490976 5.0040512 -0.47831446
-7.0745368 5.0943799 0
-7.1113629 5.1208982 0.48948336
-6.9197822 4.9702554 -0.94962579
-6.9466972 4.9895873 -0.47773391
-7.0637774 5.0736823 0
-7.1027699 5.1016893 0.48846725
-6.9173727 4.9558649 -0.94847262
-6.9421616 4.9736247 -0.47700834
-7.0677891 5.0636292 0
-7.1152682 5.0976448 0.48890281
-6.9254661 4.9490113 -0.94876176
-6.9439421 4.962214 -0.47671834
-7.0654325 5.0490327 0
-7.1066217 5.0784669 0.4878867
-6.9187999 4.9316292 -0.94703144
-6.9414687 4.9477873 -0.47613779
-7.0609341 5.0329404 0
-7.0767837 5.0442376 0.48541945
-6.9184275 4.9187679 -0.94616628
-6.938971 4.9333735 -0.47555724
-7.0776138 5.0319438 0
-7.0553446 5.0161109 0.48353279
-6.9201503 4.9074149 -0.94559026
-6.9385662 4.920475 -0.47512168
-7.0476017 4.997797 0
-7.0614004 5.0075827 0.48353279
-6.9134011 4.8900852 -0.94385993
-6.9423876 4.9105883 -0.47497666
-7.0238934 4.9682403 0
-7.0695653 5.0005455 0.48367777
-6.915082 4.8787489 -0.94328392
-6.9419441 4.8977008 -0.4745411
-7.02351 4.9552474 0
-7.0395098 4.9665356 0.48121056
-6.9188585 4.8689027 -0.94299591
-6.9393568 4.8833275 -0.47396055
-7.0018258 4.9272881 0
-7.0200057 4.9400811 0.47946888
-6.9141536 4.8531108 -0.94155473
-6.9473853 4.8764362 -0.4741061
-6.982213 4.9008822 0
-7.0089631 4.9196582 0.47830832
-6.9178877 4.8432651 -0.94126558
-6.9426231 4.8605828 -0.47338
-6.9796019 4.8864717 0
-0 0 0
-6.9173789 4.8304644 -0.94040155
-6.9421062 4.8477316 -0.472945
-6.970571 4.8676085 0
-0 0 0
-6.9168415 4.8176665 -0.93953639
-6.9458203 4.8378506 -0.47279945
-0 0 0
-0 0 0
-6.9141607 4.8034024 -0.93838322
-6.9388609 4.8205619 -0.47192886
-0 0 0
-0 0 0
-6.9093318 4.7876801 -0.93694204
-6.940413 4.809217 -0.47163889
-0 0 0
-6.9851642 4.8402267 0.47467998
-6.9087267 4.7749147 -0.93607688
-6.9398041 4.7963939 -0.47120333
-6.9726024 4.8190622 0
-6.978178 4.8229156 0.47380885
-6.9030957 4.764863 -0.93492371
-6.9384193 4.7892451 -0.47091275
-6.9690933 4.8104177 0
-6.9896445 4.8246031 0.4743894
-6.9067197 4.755053 -0.9346357
-6.9377866 4.7764416 -0.47047776
-6.9749007 4.8019934 0
-6.9804931 4.8058438 0.47337386
-6.9081917 4.743773 -0.93405855
-6.9306965 4.7592268 -0.46960664
-6.972116 4.7876692 0
-6.9841466 4.7959304 0.47322831
-6.9053912 4.7295818 -0.93290651
-6.930017 4.746448 -0.46917164
-6.9735975 4.7762971 0
-6.9813614 4.7816148 0.47264776
-6.9025578 4.7153988 -0.93175334
-6.9400339 4.7409997 -0.46946165
-6.9772167 4.7664008 0
-6.9807034 4.7687826 0.47221273
-6.9039717 4.7041392 -0.93117619
-6.9350228 4.7252965 -0.46873608
-6.9722195 4.7506413 0
-6.9735723 4.7515626 0.47134164
-6.9075131 4.6943412 -0.93088818
-6.9321308 4.711071 -0.46815553
-6.9736457 4.7392845 0
-6.9814553 4.7445922 0.47148663
-6.9088945 4.6830859 -0.93031102
-6.9292145 4.6968598 -0.46757498
-6.9772148 4.7293963 0
-6.9764309 4.7288647 0.47076106
-6.9059768 4.6689401 -0.92915785
-6.932734 4.6870298 -0.46742997
-6.9721465 4.7136755 0
-6.9778385 4.7175236 0.47047108
-6.9051862 4.6562581 -0.92829382
-6.9319272 4.6742902 -0.4669944
-6.9692059 4.6994276 0
-6.9813814 4.7076373 0.47032607
-6.9108071 4.6479111 -0.92829382
-6.9310994 4.6615586 -0.46655884
-6.9727216 4.6895523 0
-6.9741235 4.690495 0.46945494
-6.9056807 4.6323543 -0.92685264
-6.9302597 4.6488423 -0.46612385
-6.9718971 4.6767726 0
-6.9776301 4.6806183 0.46930996
-6.9048214 4.6196909 -0.92598748
-6.9293904 4.6361289 -0.46568829
-6.9732127 4.6654482 0
-6.981123 4.6707401 0.46916497
-6.9082489 4.60991 -0.92569947
-6.9241824 4.6205425 -0.46496275
-6.9701939 4.6512461 0
-6.978116 4.6565323 0.46858439
-6.8987398 4.5915265 -0.92368114
-6.9275908 4.6107287 -0.4648172
-6.9671431 4.637053 0
-6.9750848 4.6423383 0.46800384
-6.8999691 4.5803237 -0.92310399
-6.9244976 4.5966063 -0.46423662
-6.9770732 4.6315069 0
-6.980689 4.6339068 0.46800384
-6.9011893 4.5691299 -0.92252797
-6.9300466 4.5882359 -0.46423662
-6.9674726 4.6130147 0
-6.9841185 4.6240358 0.46785885
-6.9045486 4.5593638 -0.92223996
-6.9269204 4.5741372 -0.46365663
-6.9752192 4.6060309 0
-6.9918671 4.6170239 0.46800384
-6.8921852 4.5452228 -0.92022163
-6.9361839 4.5742388 -0.46409163
-6.9736514 4.5989475 0
-7.0076661 4.6213794 0.46887439
-6.9019985 4.5397372 -0.92079878
-6.952559 4.5729928 -0.4648172
-6.9965978 4.6019592 0
-7.0262747 4.621479 0.46974552
-6.8966594 4.5242963 -0.91935647
-6.9580793 4.5645885 -0.4648172
-7.0043273 4.5949278 0
-7.0383654 4.6172576 0.47018051
-6.9021211 4.5159597 -0.91935647
-6.9788122 4.5661378 -0.46583331
-7.0272965 4.5978603 0
-7.0504646 4.613019 0.47061607
-6.9184093 4.514688 -0.92079878
-6.9908547 4.5619636 -0.46626887
-7.0437422 4.5964756 0
-7.0669122 4.6115952 0.47134164
-6.9325304 4.5119686 -0.92195195
-7.0072489 4.5605989 -0.4669944
-7.0580158 4.5936399 0
-7.0855503 4.6115603 0.47221273
-6.9466467 4.5092163 -0.92310399
-7.0258274 4.5606146 -0.46786496
-7.0701122 4.5893607 0
-7.0998354 4.6086545 0.47279331
-6.9814272 4.5078506 -0.92627549
-7.0564809 4.5563121 -0.46917164
-7.0986729 4.5835552 0
-7.1415086 4.6112137 0.47482497
-6.9955673 4.505013 -0.92742866
-7.0750852 4.556221 -0.4700422
-7.1260824 4.5890622 0
-7.1558137 4.6082087 0.47540554
-7.0097108 4.5021482 -0.92858183
-7.0958915 4.5574994 -0.47105831
-7.1360059 4.5832639 0
-7.1701221 4.605176 0.47598609
-7.0282092 4.5020432 -0.93031102
-7.1057649 4.551723 -0.47134832
-7.152494 4.5816555 0
-7.1975574 4.6105223 0.4774372
-7.053267 4.506084 -0.93290651
-7.1156435 4.5459342 -0.47163889
-7.1799517 4.5870185 0
-7.2075067 4.6046224 0.47772777
-7.0674233 4.5031123 -0.93405855
-7.116744 4.5345378 -0.47134832
-7.2008548 4.58813 0
-7.2283988 4.60568 0.47874331
-7.0815916 4.5001183 -0.93521172
-7.1287994 4.5301175 -0.47178388
-7.2085881 4.5808206 0
-7.2471213 4.6053071 0.47961444
-7.0935798 4.4957132 -0.93607688
-7.1452398 4.5284538 -0.47250944
-7.2317033 4.5832524 0
-7.2680383 4.6062803 0.48063001
-7.1099367 4.4940472 -0.93751806
-7.1682782 4.5309238 -0.47367054
-7.2460356 4.5800729 0
-7.28019 4.6016612 0.48106554
-7.1306796 4.4951096 -0.93953639
-7.1847363 4.5291862 -0.47439611
-7.2647696 4.5796385 0
-7.2989378 4.6011777 0.48193666
-7.1399627 4.494936 -0.94040155
-7.1962671 4.5303822 -0.47497666
-7.2785535 4.5821853 0
-7.3083072 4.6009164 0.48237166
-7.1629128 4.4973083 -0.9427079
-7.2171426 4.5313568 -0.47599277
-7.2973051 4.5816875 0
-7.3314662 4.6031361 0.48353279
-7.183681 4.4982548 -0.9447251
-7.2292132 4.5267658 -0.47642779
-7.3072515 4.5756316 0
-7.3480325 4.6011677 0.48425835
-7.2022781 4.4977942 -0.94645542
-7.2501073 4.5276637 -0.4774439
-7.3282204 4.5764446 0
-7.3646045 4.5991664 0.48498389
-7.2142878 4.4931865 -0.94731945
-7.2710147 4.5285172 -0.47846001
-7.3536243 4.579968 0
-7.3833942 4.5985093 0.48585501
-7.2328987 4.4926572 -0.94904977
-7.2897205 4.5279517 -0.47933057
-7.3679962 4.5765719 0
-7.3933558 4.5923238 0.48614502
-7.2537069 4.4934449 -0.95106697
-7.3084359 4.527348 -0.48020113
-7.3867993 4.5758915 0
-7.4276133 4.6011748 0.48803169
-7.2679329 4.4901147 -0.95222014
-7.3205352 4.5226126 -0.48063669
-7.4033909 4.5738006 0
-7.437593 4.5949306 0.48832226
-7.2843695 4.4881172 -0.95366246
-7.3282046 4.5151253 -0.48078167
-7.4155612 4.5689487 0
-7.4541988 4.5927544 0.4890478
-7.2985935 4.4847236 -0.95481449
-7.349154 4.5157914 -0.48179781
-7.4432459 4.5736074 0
-7.4730306 4.5919089 0.48991892
-7.3194466 4.4853625 -0.95683283
-7.3479567 4.5028334 -0.48136225
-7.4509835 4.5659685 0
-7.4896493 4.589663 0.49064448
-7.3381071 4.4846106 -0.95856315
-7.386652 4.5142779 -0.48353949
-7.4764791 4.5691752 0
-7.5084882 4.588737 0.49151504
-7.3523464 4.4811196 -0.95971519
-2.5775194 1.5709506 -0.16860327
-7.4997725 4.5709734 0
-7.5251193 4.5864215 0.49224061
-7.359972 4.4735799 -0.96000433
-2.5638704 1.5583863 -0.16758716
-7.5097423 4.5646143 0
-7.5417557 4.5840726 0.49296615
-7.3631539 4.4633389 -0.95971519
-2.5657516 1.5552872 -0.16758716
-7.5308247 4.5649762 0
-7.5672941 4.5870829 0.49427283
-7.3818269 4.4624701 -0.96144551
-2.5676291 1.5521859 -0.16758716
-7.5452437 4.5612588 0
-7.5683794 4.5752449 0.49398229
-7.41822 4.4722404 -0.96548104
-2.5784039 1.5544486 -0.16816771
-7.5574384 4.5561709 0
-7.5872588 4.5741487 0.49485338
-2.5604503 1.5394096 -0.33300018
-2.56024 1.5392832 -0.16686159
-7.5740876 4.5537395 0
-7.5838723 4.5596223 0.49427283
-2.5578761 1.5336572 -0.33242413
-2.5687859 1.5401984 -0.16729715
-7.5974407 4.5552907 0
-7.5960555 4.55446 0.49470782
-2.5797045 1.5425104 -0.33501849
-2.5728731 1.5384256 -0.16744216
-7.5806074 4.5327539 0
-2.5705421 1.5370319 0.16729046
-2.5947957 1.5494068 -0.50384206
-2.571753 1.5356475 -0.33386531
-2.5715733 1.5355401 -0.16729715
-7.5967469 4.5361762 0
-2.5603175 1.5288191 0.16656491
-2.5635796 1.5265678 -0.49742213
-2.5802758 1.5365102 -0.33473048
-2.5823569 1.5377495 -0.16787772
-7.620111 4.5376463 0
-2.5688543 1.5297089 0.16699991
-2.572046 1.5274026 -0.49870646
-2.5576653 1.5188628 -0.33155897
-2.5752764 1.5293211 -0.16729715
-2.5373745 1.5068132 0
-2.5640047 1.5226274 0.16656491
-2.5562193 1.5138291 -0.49528271
-2.5750794 1.5249983 -0.33357731
-2.590533 1.5341501 -0.16816771
-2.570539 1.5223094 0
-2.5591331 1.5155547 0.16612935
-2.5794144 1.5233587 -0.6636287
-2.5514219 1.5068269 -0.49400005
-2.5769203 1.5218858 -0.33357731
-2.5879142 1.5283786 -0.16787772
-2.5634129 1.5139086 0
-2.569912 1.5177468 0.1667099
-2.5768702 1.5176595 -0.66250187
-2.5576603 1.5063457 -0.49485517
-2.5742955 1.5161432 -0.33300018
-2.574084 1.5160186 -0.16686159
-2.5405796 1.496286 0
-2.571744 1.5146405 0.1667099
-2.578702 1.5145448 -0.66250187
-2.5639098 1.5058569 -0.49571192
-2.5649765 1.5064833 -0.33155897
-2.5781524 1.5142219 -0.1670066
-2.5558457 1.5011207 0
-2.5735722 1.5115318 0.1667099
-2.5629902 1.5011545 -0.6579988
-2.5612931 1.5001606 -0.49485517
-2.5779519 1.5099177 -0.33300018
-2.5620427 1.5005996 -0.16584548
-2.5554142 1.4967173 0
-2.5709081 1.5057921 0.16641934
-2.5604129 1.4954928 -0.81808066
-2.5713863 1.5019023 -0.659688
-2.569756 1.50095 -0.49613947
-2.5708408 1.5015837 -0.33184701
-2.5638542 1.4975028 -0.16584548
-2.5662098 1.4988788 0
-2.5704842 1.5013753 0.16627435
-2.5470409 1.4835579 -0.81323487
-2.5753927 1.5000719 -0.66025031
-2.5516059 1.4862168 -0.49228817
-2.5637133 1.493269 -0.33069384
-2.5589235 1.4904791 -0.16540992
-2.5612705 1.4918461 0
-2.5722964 1.4982682 0.16627435
-2.5726967 1.4943413 -0.82084936
-2.5750084 1.4956839 -0.659688
-2.5511737 1.4818395 -0.49185896
-2.5498662 1.4810802 -0.32867661
-2.5562332 1.4847783 -0.16511993
-2.5630713 1.4887502 0
-2.5718601 1.4938552 0.16612935
-2.561471 1.4836844 -0.81669503
-2.5768137 1.4925715 -0.659688
-2.5463047 1.4748995 -0.4905763
-2.5404656 1.4715173 -0.32723543
-2.5490313 1.4764789 -0.16453937
-2.5468521 1.4752167 0
-2.5759096 1.4920477 0.16627435
-2.5242813 1.4580723 -0.96120816
-2.563262 1.4805883 -0.81669503
-2.5654182 1.4818338 -0.65631175
-2.5525265 1.4743873 -0.49143142
-2.5512004 1.4736214 -0.3283886
-2.5508134 1.4733979 -0.16453937
-2.5689216 1.4838574 0
-2.5709581 1.4850338 0.16583879
-2.5688756 1.4796941 -0.97750747
-2.5628772 1.4762391 -0.81600356
-2.5561917 1.4723881 -0.65349573
-2.5565283 1.4725821 -0.49185896
-2.5596964 1.474407 -0.32925266
-2.545835 1.4664226 -0.16410381
-2.5707126 1.4807522 0
-2.5795078 1.4858184 0.16627435
-2.5749521 1.4790535 -0.97913897
-2.5581307 1.4693913 -0.8139264
-2.5579689 1.4692984 -0.65349573
-2.5583057 1.469492 -0.49185896
-2.5435336 1.4610068 -0.32694632
-2.5521157 1.4659363 -0.16439436
-2.5679822 1.47505 0
-2.5790501 1.4814074 0.16612935
-2.5681586 1.4710273 -0.97587913
-2.5511966 1.4613115 -0.81115776
-2.5465178 1.4586315 -0.65011948
-2.5600796 1.4663997 -0.49185896
-2.5520325 1.4617902 -0.32781145
-2.5651567 1.4693078 -0.16511993
-2.5765395 1.4758278 0
-2.5785856 1.4769998 0.16598435
-2.5570531 1.4605654 -0.97098774
-2.5486076 1.4557415 -0.80977476
-2.5504825 1.4568125 -0.65068185
-2.5573957 1.4607612 -0.49100387
-2.5560405 1.4599872 -0.32809949
-2.5669303 1.4662073 -0.16511993
-2.5805786 1.4740031 0
-2.5781057 1.4725904 0.16583879
-2.5566704 1.4562526 -0.97017354
-2.5416451 1.4476943 -0.80700612
-2.5654924 1.4612776 -0.65406024
-2.5502365 1.4525878 -0.489292
-2.5510669 1.4530609 -0.32723543
-2.5709558 1.4643893 -0.16526492
-2.5733123 1.4657316 0
-2.5731161 1.4656198 0.16540378
-2.5382161 1.443711 -0.96283966
-2.535975 1.4424362 -0.80492896
-2.5509124 1.4509324 -0.65011948
-2.5511136 1.4510469 -0.489292
-2.5429513 1.4464043 -0.32608226
-2.5808744 1.4679747 -0.16584548
-2.585506 1.4706089 0
-2.5672228 1.4602097 0.16496824
-2.5507061 1.4467387 -0.9669137
-2.5355361 1.4381344 -0.80423748
-2.5504556 1.4465967 -0.64955717
-2.5550957 1.4492285 -0.48971954
-2.5334418 1.4369466 -0.32463998
-2.553266 1.4481907 -0.1639588
-2.5669096 1.4559293 0
-2.5667274 1.4558259 0.16482323
-2.5352416 1.4339213 -0.96039397
-2.5329087 1.4326019 -0.80285448
-2.5477741 1.4410098 -0.64843029
-2.5434427 1.4385599 -0.48715258
-2.5306778 1.4313401 -0.32406393
-2.5753675 1.4566164 -0.16526492
-2.5799911 1.4592315 0
-2.5752633 1.4565574 0.16525823
-2.5219088 1.4223611 -0.95469159
-2.5390041 1.4320028 -0.80423748
-2.5495133 1.4379302 -0.64843029
-2.5496466 1.4380053 -0.48800766
-2.5324054 1.4282813 -0.32406393
-2.5793867 1.4547788 -0.16540992
-2.5930843 1.4625043 0
-2.5747602 1.4521694 0.16511323
-2.5171609 1.415677 -0.95224589
-2.5319858 1.4240147 -0.80146879
-2.5556827 1.437342 -0.64955717
-2.5558617 1.4374428 -0.48886442
-2.5386338 1.4277537 -0.32463998
-2.5766175 1.449116 -0.16511993
-2.5767114 1.4491689 0
-2.5765131 1.4490572 0.16511323
-2.5253389 1.4162625 -0.95469159
-2.5293324 1.4185023 -0.80008584
-2.5485528 1.4292815 -0.64730561
-2.5531144 1.4318397 -0.48800766
-2.5426197 1.425954 -0.32492909
-2.5624998 1.4371032 -0.16410381
-2.5603013 1.4358703 0
-2.5714607 1.4421287 0.16467768
-2.5076272 1.4023492 -0.94735456
-2.5266612 1.4129937 -0.79870015
-2.5347521 1.4175184 -0.64336485
-2.5481274 1.4249984 -0.486725
-2.5330555 1.4165697 -0.32348791
-2.5687745 1.4365449 -0.16439436
-2.5370464 1.4188015 0
-2.5664041 1.4352193 0.16424267
-2.5352237 1.4137635 -0.95713413
-2.5371311 1.4148271 -0.80146879
-2.536463 1.4144546 -0.64336485
-2.5453591 1.4194155 -0.48586825
-2.5370224 1.4147664 -0.32377592
-2.5636978 1.4296421 -0.1639588
-2.5501215 1.4220713 0
-2.5681365 1.4321172 0.16424267
-2.5153332 1.3986899 -0.94898605
-2.5300684 1.4068836 -0.79870015
-2.5292876 1.4064494 -0.64111334
-2.544831 1.4150925 -0.4854407
-2.5206459 1.401644 -0.32146958
-2.5745072 1.4315945 -0.16453937
-2.5768597 1.4329027 0
-2.5653188 1.4264851 0.16395211
-2.5321543 1.4040406 -0.95469159
-2.5317664 1.4038255 -0.79870015
-2.5487626 1.4132495 -0.64561641
-2.5510247 1.4145038 -0.48629582
-2.5381739 1.4073783 -0.32348791
-2.5739648 1.4272238 -0.16439436
-2.5672114 1.4234791 0
-2.5806799 1.4309472 0.16482323
-2.5078931 1.3866286 -0.94491202
-2.529074 1.3983397 -0.79731715
-2.5549197 1.4126301 -0.64674324
-2.5302708 1.3990015 -0.48201695
-2.5308185 1.3993043 -0.32233474
-2.5597672 1.4153103 -0.16337825
-2.5666454 1.4191132 0
-2.5642149 1.4177693 0.16366212
-2.5247116 1.3919472 -0.95061439
-2.5329568 1.396493 -0.79800868
-2.5432699 1.4021789 -0.64336485
-2.5342054 1.3971814 -0.48244452
-2.5347703 1.3974929 -0.32262275
-2.5592022 1.4109629 -0.16323325
-2.5751977 1.4197816 0
-2.5773015 1.4209416 0.16438767
-2.5069008 1.3781804 -0.94328052
-2.5324459 1.392224 -0.79731715
-2.5538685 1.4040011 -0.64561641
-2.5426426 1.3978295 -0.48372883
-2.513787 1.3819662 -0.31973928
-2.5563469 1.4053636 -0.16294269
-2.5541098 1.4041337 0
-2.5767417 1.4165758 0.16424267
-2.5150683 1.3787156 -0.94572616
-2.5341263 1.3891629 -0.79731715
-2.5555632 1.4009143 -0.64561641
-2.5443296 1.3947562 -0.48372883
-2.5335996 1.3888742 -0.32204562
-2.5785565 1.4135188 -0.16424936
-2.5831897 1.4160587 0
-2.5693374 1.408465 0.16366212
-2.5254073 1.3804175 -0.94898605
-2.5335953 1.3848932 -0.79662299
-2.5438809 1.3905154 -0.64224017
-2.537003 1.3867558 -0.48201695
-2.5375521 1.387056 -0.32233474
-2.5756981 1.4079071 -0.1639588
-2.5871804 1.4141834 0
-2.5687594 1.4041144 0.16351712
-2.5048461 1.3613269 -0.94002062
-2.5281177 1.3739746 -0.79385436
-2.5405343 1.3807228 -0.64055097
-2.5223029 1.3708144 -0.47859323
-2.5363472 1.3784472 -0.32175758
-2.5653989 1.3942362 -0.16308825
-2.5722973 1.3979852 0
-2.5835583 1.4041053 0.16424267
-2.5086684 1.3594804 -0.94083792
-2.5231652 1.3673364 -0.79177988
-2.5444326 1.3788614 -0.64111334
-2.5397584 1.3763285 -0.48158941
-2.5380108 1.3753815 -0.32175758
-2.5785024 1.3973243 -0.16381381
-2.5602603 1.3874387 0
-2.5875354 1.4022194 0.16438767
-2.5103092 1.3564482 -0.94083792
-2.5358491 1.3702487 -0.79524004
-2.5438635 1.3745793 -0.64055097
-2.5414195 1.3732586 -0.48158941
-2.5282955 1.3661671 -0.3203164
-2.5687609 1.3880326 -0.16308825
-2.5733807 1.3905289 0
-2.5892277 1.3990918 0.16438767
-2.522002 1.3607985 -0.94491202
-2.5366764 1.3687164 -0.79524004
-2.5446935 1.3730421 -0.64055097
-2.5512855 1.376599 -0.48330128
-2.5404994 1.3707792 -0.32175758
-2.5741682 1.3889458 -0.16337825
-2.5902462 1.397621 0
-2.596935 1.4012302 0.16482323
-2.5018744 1.3460376 -0.93676078
-2.5405357 1.3668377 -0.79593152
-2.5463507 1.3699664 -0.64055097
-2.5461628 1.3698653 -0.48201695
-2.5398784 1.3664842 -0.32146958
-2.5827117 1.389529 -0.16381381
-0 0 0
-2.6192188 1.4091702 0.16612935
-2.5056832 1.3441854 -0.93757808
-2.5333424 1.3590232 -0.79316288
-2.5323286 1.3584794 -0.63661027
-2.5342479 1.3595089 -0.47944999
-2.5438046 1.3646357 -0.32175758
-0 0 -0
-2.5775695 1.382749 0
-2.6186321 1.4047772 0.16598435
-2.5094829 1.3423214 -0.93839228
-2.5327725 1.354779 -0.79247135
-2.5451686 1.3614097 -0.63942415
-2.531357 1.3540218 -0.47859323
-2.536329 1.3566812 -0.32060441
-0 0 -0
-0 0 0
-2.6157405 1.3991585 0.16569379
-2.498014 1.3323071 -0.93350089
-2.5366192 1.352897 -0.79316288
-2.5356042 1.3523557 -0.63661027
-2.5307283 1.3497553 -0.47816566
-2.5516639 1.3609211 -0.32233474
-2.5785606 1.3752664 -0.16323325
-2.594677 1.383862 0
-2.6266003 1.4008882 0.16627435
-2.4908931 1.3246459 -0.93024105
-2.5316133 1.3463007 -0.7910884
-2.5529423 1.3576434 -0.64055097
-2.534622 1.3479006 -0.47859323
-0 0 -0
-2.5825124 1.3733686 -0.16337825
-2.6078339 1.3868344 0
-2.6237071 1.3952757 0.16598435
-2.5208852 1.3366905 -0.94083792
-2.5310154 1.3420621 -0.79039425
-2.5388649 1.3462242 -0.63661027
-2.5407889 1.3472445 -0.47944999
-0 0 -0
-2.6002421 1.3787693 -0.16439436
-2.6187048 1.3885591 0
-2.609319 1.3835822 0.16496824
-2.5028269 1.3232433 -0.93350089
-2.5437224 1.3448647 -0.79385436
-2.5404897 1.3431555 -0.63661027
-2.5514839 1.3489681 -0.48116019
-0 0 -0
-2.6042011 1.3768398 -0.16453937
-2.6065807 1.3780978 0
-2.5765293 1.3622097 0.162791
-2.508801 1.3225255 -0.93513238
-2.5275998 1.3324354 -0.78831971
-2.5443563 1.3412687 -0.63717258
-2.5553894 1.3470848 -0.48158941
-2.5673637 1.3533971 -0.32348791
-2.6219554 1.3821753 -0.16555548
-2.6289616 1.3858687 0
-2.6034603 1.3724257 0.16438767
-2.5103972 1.3194932 -0.93513238
-2.5225437 1.3258774 -0.7862426
-2.5504777 1.3405598 -0.63829947
-2.5638256 1.3475757 -0.48287207
-2.5758591 1.3539007 -0.32435197
-2.6144233 1.3741704 -0.16497493
-2.6076019 1.3705851 0
-2.5936186 1.3632352 0.16366212
-2.5119898 1.3164589 -0.93513238
-2.5285838 1.3251554 -0.78762555
-2.5520957 1.3374772 -0.63829947
-2.570004 1.3468623 -0.48372883
-2.5797818 1.3519866 -0.32463998
-2.6160817 1.3710104 -0.16497493
-2.609256 1.3674333 0
-2.5906565 1.3576857 0.16337156
-2.4872918 1.2996869 -0.92535281
-2.5301831 1.3220991 -0.78762555
-2.5537097 1.3343924 -0.63829947
-2.5898309 1.3532668 -0.48715258
-2.5951724 1.3560579 -0.32637027
-2.6269484 1.3726619 -0.16555548
-2.594758 1.3558415 0
-2.6084182 1.3629793 0.16438767
-2.5217419 1.3138117 -0.93757808
-2.5317788 1.3190409 -0.78762555
-2.5598228 1.3336517 -0.63942415
-2.5937386 1.3513216 -0.48758012
-2.5945172 1.3517272 -0.32608226
-2.6262939 1.3682827 -0.16540992
-2.6033208 1.3563138 0
-2.6077609 1.3586271 0.16424267
-2.5321007 1.3153211 -0.94083792
-2.5311465 1.3148254 -0.78693408
-2.5681992 1.3340726 -0.64111334
-2.602206 1.3517377 -0.48886442
-2.6030281 1.3521647 -0.32694632
-2.6187305 1.3603216 -0.16482992
-2.5934126 1.34717 0
-2.6070971 1.3542784 0.16409767
-2.5051506 1.2974802 -0.93024105
-2.5394187 1.3152285 -0.78901124
-2.5810883 1.3368101 -0.64392722
-2.6061146 1.349772 -0.489292
-2.6023655 1.3478302 -0.32665828
-2.6157532 1.3547641 -0.16453937
-2.5973473 1.3452311 0
-2.6018074 1.3475411 0.16366212
-2.5220914 1.3023916 -0.93594658
-2.5432332 1.3133091 -0.78970271
-2.580446 1.3325257 -0.64336485
-2.6145885 1.3501567 -0.4905763
-2.6131847 1.3494318 -0.32781145
-2.6196949 1.3527936 -0.16468437
-2.6082203 1.3468682 0
-2.5988116 1.3420095 0.16337156
-2.5060835 1.2902921 -0.92942685
-2.5403614 1.3079406 -0.78831971
-2.595613 1.3363876 -0.64674324
-2.6162181 1.3469964 -0.4905763
-2.6217144 1.3498262 -0.32867661
-2.6167116 1.3472506 -0.16439436
-2.5959585 1.3365655 0
-2.5958152 1.3364918 0.16308156
-2.5508254 1.3113791 -0.94572616
-2.5567629 1.3144317 -0.79316288
-2.600935 1.3371406 -0.64786798
-2.621593 1.3477608 -0.49143142
