# .PCD v0.7 - Point Cloud Data file format
VERSION 0.7
FIELDS x y z
SIZE 4 4 4
TYPE F F F
COUNT 1 1 1
WIDTH 1623
HEIGHT 1
VIEWPOINT 0 0 0 1 0 0 0
POINTS 1623
DATA ascii
-4.3194518 4.1656466 0.3351849
-4.2605586 4.0989256 -0.98564029
-4.27561 4.1134062 -0.66130346
-4.2964854 4.1334896 -0.33301494
-4.3055611 4.1422205 0
-4.3263602 4.162231 0.33533046
-4.2618079 4.0902228 -0.9847852
-4.2768416 4.1046515 -0.66072631
-4.2995968 4.1264906 -0.33286938
-4.3068109 4.1334143 0
-4.3238873 4.1498032 0.33474991
-4.2593298 4.0779691 -0.98307329
-4.2761984 4.0941195 -0.65986228
-4.2895718 4.1069236 -0.33170882
-4.3005199 4.1174054 0
-4.3270159 4.1427736 0.33460435
-4.2623997 4.0710483 -0.98264575
-4.2755294 4.0835886 -0.65899712
-4.2926464 4.0999374 -0.33156326
-4.3036113 4.1104102 0
-4.3282642 4.133956 0.33431435
-4.2635951 4.0623503 -0.98178899
-4.2673507 4.0659285 -0.65697879
-4.2900724 4.0875778 -0.33098269
-4.3029208 4.0998197 0
-4.3238516 4.1197629 0.33358878
-4.2610579 4.0501213 -0.98007715
-4.2741332 4.0625496 -0.65726686
-4.2931266 4.0806026 -0.3308377
-4.3022103 4.0892367 0
-4.3250561 4.1109514 0.33329824
-4.2603655 4.0396757 -0.97879446
-4.2734137 4.0520482 -0.65640277
-4.2942867 4.0718398 -0.33054769
-4.2996016 4.0768795 0
-4.3224778 4.0985708 0.33271769
-4.2596469 4.0292311 -0.97751015
-4.2707906 4.039772 -0.6552496
-4.2897668 4.0577216 -0.32982212
-4.2988505 4.0663147 0
-4.3198762 4.0862026 0.33213711
-4.2589092 4.0187941 -0.97622585
-4.2737894 4.0328355 -0.65496159
-4.287107 4.0454021 -0.32924157
-4.2999716 4.0575414 0
-4.3191462 4.075635 0.33170211
-4.2544179 4.0048494 -0.9740864
-4.2767706 4.0258904 -0.65467244
-4.2919922 4.0402193 -0.32924157
-4.302978 4.050561 0
-4.3183894 4.0650682 0.33126655
-4.2611237 4.001461 -0.97451395
-4.2778645 4.0171819 -0.65409642
-4.2911863 4.0296922 -0.32880601
-4.302176 4.0400124 0
-4.3214059 4.0580702 0.33112156
-4.2622123 3.9928029 -0.97365886
-4.2789364 4.0084701 -0.65351927
-4.2865725 4.0156236 -0.32808048
-4.3032594 4.0312557 0
-4.3263063 4.052846 0.33112156
-4.263279 3.9841411 -0.9728021
-4.2743301 3.9944687 -0.65207809
-4.2838273 4.0033445 -0.3274999
-4.3005214 4.0189457 0
-4.3217096 4.0387459 0.330396
-4.264338 3.9754891 -0.97194701
-4.2772632 3.9875391 -0.65179008
-4.2905602 3.9999354 -0.32764491
-4.2958584 4.0048747 0
-4.3227816 4.029974 0.33010545
-4.2653751 3.9668338 -0.97109026
-4.2688184 3.9700363 -0.64977175
-4.2839775 3.9841342 -0.32677436
-4.2987905 3.9979105 0
-4.325747 4.0229797 0.32996044
-4.2626376 3.9546933 -0.96937835
-4.271718 3.9631178 -0.64948374
-4.2868781 3.9771824 -0.32662877
-4.3055243 3.9944816 0
-4.3248882 4.0124469 0.32952487
-4.2598772 3.9425652 -0.96766651
-4.2727108 3.954443 -0.64890772
-4.2840524 3.9649398 -0.32604823
-4.2969756 3.9769003 0
-4.3202 3.9983947 0.32879934
-4.260869 3.9339356 -0.96681136
-4.2679787 3.9404995 -0.64746547
-4.2907548 3.9615283 -0.32619378
-4.3075161 3.9770036 0
-4.3250279 3.9931717 0.32879934
-4.2637329 3.927047 -0.96638381
-4.2727365 3.9353397 -0.64746547
-4.2859764 3.9475338 -0.32546768
-4.3027487 3.9629819 0
-4.3222046 3.9809015 0.32821876
-4.2604351 3.9192548 -0.96509951
-4.2713099 3.9292586 -0.64688939
-4.282629 3.9396713 -0.32503268
-4.2974811 3.9533339 0
-4.3188701 3.9730101 0.3277832
-4.255713 3.9054272 -0.96296006
-4.2703357 3.9188466 -0.64602423
-4.2854662 3.9327316 -0.32488713
-4.2849994 3.9323032 0
-4.3140969 3.9590058 0.32705766
-4.2566381 3.896812 -0.96210331
-4.2693501 3.9084494 -0.6451602
-4.2844706 3.922292 -0.3244521
-4.2916656 3.9288783 0
-4.3112111 3.9467719 0.32647711
-4.2613435 3.8916659 -0.96210331
-4.2740693 3.9032879 -0.6451602
-4.2930408 3.9206133 -0.32474211
-4.2906423 3.9184232 0
-4.3159766 3.9415598 0.32647711
-4.2584519 3.8795989 -0.96039146
-4.2711349 3.8911531 -0.64400703
-4.2900915 3.9084232 -0.32416156
-4.2876787 3.9062252 0
-4.3149791 3.931097 0.32604209
-4.257443 3.8692758 -0.95910877
-4.2624331 3.8738108 -0.64198869
-4.2909684 3.8997447 -0.32387155
-4.2943196 3.9027903 0
-4.3235683 3.9293723 0.32633209
-4.2583079 3.860677 -0.95825201
-4.278604 3.8790779 -0.64371789
-4.2918239 3.8910632 -0.32358101
-4.2971058 3.8958521 0
-4.3167663 3.9136767 0.32546154
-4.2580972 3.8417785 -0.95611262
-4.303329 3.8825879 -0.64602423
-4.3127937 3.8911273 -0.3244521
-4.3142371 3.8924298 0
-4.3146324 3.892786 0.32459041
-4.25701 3.8314772 -0.95482832
-4.3022552 3.8721993 -0.6451602
-4.3232808 3.8911233 -0.32488713
-4.3305473 3.8976636 0
-4.3212624 3.8893065 0.32473543
-4.2616367 3.8263304 -0.95482832
-4.3184743 3.8773627 -0.64688939
-4.3260479 3.8841624 -0.32474211
-4.3352537 3.8924282 0
-4.3182244 3.8771384 0.32415485
-4.2547874 3.8109055 -0.95226133
-4.328938 3.8773205 -0.64775455
-4.3404136 3.8875988 -0.32546768
-4.3496451 3.8958669 0
-4.3229065 3.8719177 0.32415485
-4.2536445 3.8006287 -0.95097703
-4.3374739 3.8755302 -0.64833057
-4.3586736 3.8944721 -0.32648379
-4.3524027 3.8888695 0
-4.321774 3.8615026 0.32371986
-4.2544045 3.7920735 -0.95012188
-4.3498769 3.8771703 -0.64948374
-4.3633761 3.8892028 -0.32648379
-4.3648696 3.8905342 0
-4.3128567 3.8441734 0.32270375
-4.2570667 3.7852259 -0.94969434
-4.3603587 3.8770692 -0.6503489
-4.3758397 3.8908341 -0.32706434
-4.3637385 3.8800743 0
-4.3174987 3.8389595 0.32270375
-4.2597117 3.7783709 -0.94926512
-4.3727803 3.8786631 -0.65150207
-4.3824797 3.8872666 -0.32720935
-4.3762116 3.8817065 0
-4.3163004 3.8285654 0.32226819
-4.2565837 3.7664165 -0.94755328
-4.3793988 3.8750889 -0.65179008
-4.3988533 3.8923032 -0.32808048
-4.3906417 3.8850372 0
-4.322875 3.825074 0.32241374
-4.2707601 3.7697694 -0.94969434
-4.3860154 3.8715045 -0.65207809
-4.4015994 3.8852606 -0.32793489
-4.4245944 3.9055579 0
-4.3313861 3.8232837 0.32270375
-4.2714548 3.7612102 -0.94883758
-4.400394 3.8747468 -0.65351927
-4.4140916 3.8868082 -0.32851547
-4.4175944 3.8898928 0
-4.3399067 3.821485 0.32299429
-4.2759967 3.7560463 -0.94883758
-4.4070215 3.8711388 -0.65380841
-4.4187846 3.8814716 -0.32851547
-4.4242449 3.8862681 0
-4.3503718 3.8213778 0.32342932
-4.2863259 3.7559538 -0.95012188
-4.4155827 3.8692169 -0.65438443
-4.439106 3.8898296 -0.32967657
-4.4465518 3.8963542 0
-4.356946 3.8178358 0.32357487
-4.2889304 3.749084 -0.94969434
-4.4260988 3.8689871 -0.6552496
-4.4438028 3.8844628 -0.32967657
-4.4512568 3.8909786 0
-4.3615561 3.8125687 0.32357487
-4.2953901 3.7455845 -0.95012188
-4.4307704 3.8636363 -0.6552496
-4.448493 3.8790905 -0.32967657
-4.4539952 3.8838885 0
-4.3641958 3.805583 0.32342932
-4.3095951 3.7488141 -0.95226133
-4.44909 3.8701577 -0.65726686
-4.47082 3.8890595 -0.33098269
-4.4685006 3.8870425 0
-4.3746743 3.8054249 0.32386488
-4.3257508 3.7536955 -0.95482832
-4.4537635 3.864779 -0.65726686
-4.4814053 3.8887653 -0.33141825
-4.4731941 3.8816402 0
-4.3910408 3.8103509 0.32473543
-4.324142 3.7477221 -0.95397317
-4.4639158 3.8688636 -0.65841997
-4.4798303 3.8826568 -0.33112824
-4.4794755 3.8823493 0
-4.3992348 3.8128045 0.32517099
-4.3364348 3.7492101 -0.95568508
-4.4783759 3.8719299 -0.65986228
-4.5002437 3.8908367 -0.33228937
-4.4920382 3.8837423 0
-4.4117007 3.8142841 0.32575154
-4.3526216 3.754024 -0.95825201
-4.4869642 3.8698912 -0.6604383
-4.5088735 3.888787 -0.33257937
-4.504611 3.8851109 0
-4.4182725 3.8106461 0.32589653
-4.3707781 3.7604833 -0.96124822
-4.4935961 3.866152 -0.66072631
-4.5096331 3.87995 -0.33228937
-4.5112729 3.8813608 0
-4.4287848 3.8103905 0.32633209
-4.371419 3.7518525 -0.96039146
-4.4963036 3.8590367 -0.6604383
-4.5162878 3.8761888 -0.33243436
-4.523859 3.8826866 0
-4.4294457 3.8016548 0.32604209
-4.3876529 3.756588 -0.96296006
-4.5107846 3.86201 -0.66187948
-4.5328074 3.8808653 -0.33330491
-4.5285468 3.8772178 0
-4.436008 3.7979884 0.3261871
-4.3999968 3.7579525 -0.96467197
-4.5272522 3.8666389 -0.6636098
-4.5434232 3.8804498 -0.33374047
-4.5411444 3.8785038 0
-4.4386201 3.7909396 0.32604209
-4.4025822 3.7509699 -0.96424443
-4.5319214 3.8611658 -0.6636098
-4.5520606 3.8783243 -0.33403048
-4.5537515 3.879765 0
-4.4333019 3.7771428 0.32531598
-4.4247141 3.760608 -0.96809572
-4.5385523 3.8573604 -0.66389781
-4.562685 3.877871 -0.33446604
-4.5643797 3.8793113 0
-4.4398484 3.7734709 0.32546154
-4.4272909 3.7535939 -0.96766651
-4.5589929 3.8652549 -0.66620415
-4.5733151 3.877398 -0.3349016
-4.5650973 3.8704305 0
-4.4444046 3.7681036 0.32546154
-4.437705 3.7532165 -0.96895081
-4.5636597 3.8597434 -0.66620415
-4.5779972 3.8718691 -0.3349016
-4.5896378 3.8817143 0
-4.4608545 3.7727952 0.32633209
-4.4441972 3.7495055 -0.96937835
-4.5782027 3.8625638 -0.66764534
-4.5926003 3.874711 -0.33562717
-4.6022811 3.8828788 0
-4.4793143 3.7791331 0.3273482
-4.4526563 3.747442 -0.97023511
-4.5868206 3.860357 -0.66822141
-4.6072173 3.8775232 -0.33635271
-4.6089664 3.8789954 0
-4.5077338 3.7937963 0.32908988
-4.4670095 3.7503104 -0.97237456
-4.5974264 3.8598027 -0.66908652
-4.6238432 3.8819814 -0.33722383
-4.6236143 3.881789 0
-4.5401721 3.8117347 0.33112156
-4.4735041 3.746557 -0.9728021
-4.6060562 3.8575695 -0.66966367
-4.6245427 3.8730516 -0.33693328
-4.6302943 3.8778689 0
-4.5467649 3.8079128 0.33126655
-4.4878759 3.7493765 -0.97494155
-4.6126971 3.853658 -0.66995168
-4.6491561 3.8841174 -0.33838439
-4.6389675 3.8756051 0
-4.5553546 3.8057513 0.33155712
-4.5042391 3.7538149 -0.97751015
-4.6272831 3.8563595 -0.67139286
-4.6937685 3.9117682 -0.34128717
-4.6556458 3.879997 0
-4.5719228 3.8102224 0.33242768
-4.5265355 3.7631381 -0.98136145
-4.6418819 3.8590314 -0.67283404
-4.7704244 3.9658952 -0.3465122
-4.674334 3.8860102 0
-4.5805159 3.8080144 0.33271769
-4.5429311 3.7674949 -0.98392844
-4.6584907 3.8633294 -0.67456436
-4.817214 3.9949601 -0.34955999
-4.7771835 3.9617624 0
-4.5991163 3.8140898 0.3337338
-4.5474801 3.7620029 -0.98392844
-4.840055 4.0040417 -0.35086611
-4.8240757 3.9908223 0
-4.5997214 3.8052204 0.33344379
-4.5599422 3.763041 -0.98564029
-4.8488941 4.0014949 -0.35115612
-4.8389287 3.9932714 0
-4.606318 3.801312 0.33358878
-4.5724134 3.7640545 -0.98735219
-4.865766 4.0055451 -0.35202721
-4.8558097 3.9973488 0
-4.6229405 3.805649 0.33445933
-4.5848937 3.7650435 -0.98906404
-4.8726087 4.0013103 -0.35217223
-4.868681 3.9980853 0
-4.6315556 3.8033617 0.33474991
-4.6010637 3.77367 -0.99206024
-4.8810544 4.0033112 -0.35260779
-4.8751163 3.9984405 0
-4.63586 3.8022089 0.3348949
-4.607605 3.7697318 -0.99248779
-4.8899064 4.0006981 -0.35289779
-4.8900132 4.0007854 0
-4.6565399 3.809768 0.33605602
-4.618125 3.7690325 -0.99377209
-4.898767 3.9980755 -0.35318834
-4.9029088 4.0014558 0
-4.6611395 3.8041387 0.33605602
-4.6306386 3.7699325 -0.99548393
-4.9056077 3.9937925 -0.35333332
-4.9178295 4.0037427 0
-4.6737933 3.8050659 0.33663657
-4.6371813 3.7659514 -0.99591154
-4.9124446 3.9894986 -0.35347834
-4.9246898 3.9994428 0
-4.6602359 3.7846744 0.33533046
-4.6437211 3.7619598 -0.99633908
-4.9293723 3.9933708 -0.3543489
-4.9335589 3.9967628 0
-4.6748986 3.7872174 0.33605602
-4.6502657 3.7579641 -0.9967683
-5.3045754 4.2867236 -0.7601825
-4.9523888 4.0021152 -0.35565558
-4.9505339 4.0006166 0
-4.7016969 3.7995267 0.33765215
-4.957221 3.9961286 -0.35565558
-4.9513078 3.9913619 0
-4.7164049 3.8020015 0.33837825
-4.9681149 3.9950161 -0.35609058
-4.9622135 3.9902704 0
-4.7311187 3.8044398 0.33910382
-4.9810462 3.9955137 -0.35667112
-4.9771795 3.9924123 0
-4.7417946 3.8035996 0.33953938
-4.987905 3.9911203 -0.35681668
-4.9982567 3.999403 0
-4.7443523 3.7962394 0.33939382
-5.0028763 3.9931939 -0.35754225
-5.0091896 3.9982328 0
-4.7590885 3.7986073 0.34011936
-5.0056591 3.9855227 -0.35739669
-5.0119748 3.9905517 0
-4.7738447 3.8009512 0.3408455
-5.0226836 3.989171 -0.35826781
-5.0249448 3.990967 0
-4.7824993 3.7984095 0.34113547
-5.0356469 3.9895535 -0.35884836
-5.042007 3.9945924 0
-8.978426 7.1132689 0.63981718
-5.0465817 3.988301 -0.35928392
-5.0488696 3.9901092 0
-8.982933 7.0991898 0.63952661
-5.0595517 3.9886289 -0.35986391
-5.0577707 3.9872251 0
-8.9874268 7.0851164 0.63923663
-5.4363055 4.2749968 -0.77084905
-5.0725374 3.9889374 -0.36044449
-5.0625849 3.9811108 0
-9.0041513 7.0806766 0.63981718
-5.0875821 3.9908285 -0.36117059
-5.0858188 3.9894454 0
-9.0290565 7.0826216 0.64097828
-5.0924006 3.9846783 -0.36117059
-5.0947385 3.9865079 0
-10.085322 7.8915172 0.71528584
-5.1074514 3.9865148 -0.36189616
-5.103651 3.9835486 0
-10.086657 7.87293 0.71470523
-5.1204658 3.9867258 -0.36247671
-5.1248884 3.9901695 0
-10.114613 7.875102 0.71601135
-5.1273293 3.9821281 -0.36262169
-5.1255994 3.9807844 0
-10.13233 7.8692498 0.71659195
-5.1407056 3.9776003 -0.36305726
-5.1575055 3.9905992 0
-10.179458 7.8763146 0.71891415
-5.1640191 3.9856732 -0.36436337
-5.1684985 3.9891303 0
-10.203361 7.8751178 0.7199297
-5.4327855 4.1826463 -0.76421803
-5.1729455 3.9825978 -0.36465338
-5.179503 3.9876466 0
-10.219048 7.8675404 0.72036529
-5.4645014 4.196557 -0.76796556
-5.1901226 3.9858434 -0.3655245
-5.1801934 3.9782181 0
-10.249159 7.8710165 0.72181696
-5.4716272 4.1915288 -0.7682547
-5.2011175 3.9843054 -0.3659595
-5.1973882 3.9814487 0
-10.271034 7.8681049 0.72268748
-5.4622998 4.1739197 -0.76623636
-5.2121239 3.9827526 -0.36639506
-5.2145987 3.9846437 0
-10.290855 7.8635755 0.72341305
-5.4652839 4.16575 -0.76594836
-5.2210693 3.9796052 -0.3666856
-5.2256212 3.9830744 0
-10.31068 7.8590097 0.72413862
-5.4661918 4.1560097 -0.7653712
-5.234148 3.9795842 -0.36726618
-5.2345772 3.9799106 0
-10.338783 7.8606982 0.72544473
-5.4856372 4.1603441 -0.76738954
-5.2472267 3.9795318 -0.36784616
-5.2435255 3.9767249 0
-10.362768 7.8591928 0.72646087
-5.4927211 4.1552715 -0.76767755
-5.2582498 3.9778931 -0.36828172
-5.2628574 3.9813786 0
-10.392976 7.8623395 0.72791195
-5.4956751 4.1470752 -0.76738954
-5.2630525 3.9715366 -0.36828172
-5.2718153 3.9781489 0
-10.402469 7.8497758 0.72791195
-4.7815742 3.5991504 -0.66706824
-5.2512393 3.952673 -0.36712062
-5.268301 3.9655156 0
-10.411945 7.8372006 0.72791195
-4.8314276 3.6275387 -0.67341119
-4.9671917 3.7294729 -0.34694719
-5.2169027 3.9169614 0
-4.8819103 3.665442 0.34099048
-0 0 -0
-4.8531542 3.6346898 -0.33867493
-4.911273 3.6782169 0
-4.8655415 3.6439669 0.33953938
-4.8588271 3.6297827 -0.67600554
-4.8388095 3.6148283 -0.33736882
-4.865675 3.6348984 0
-4.8741002 3.6411924 0.33982936
-4.8652816 3.625453 -0.67629355
-4.8473368 3.6120813 -0.33765882
-4.8450217 3.6103561 0
-4.8722439 3.630641 0.33939382
-4.8634291 3.6149414 -0.67542839
-4.8496141 3.6046729 -0.33751383
-4.8827996 3.6293395 0
-4.8808022 3.6278543 0.33968437
-4.8677936 3.6090622 -0.67542839
-4.8539662 3.5988104 -0.33751383
-0 0 0
-4.8851819 3.6219542 0.33968437
-4.8763137 3.6062565 -0.67600554
-4.8603983 3.5944862 -0.33765882
-4.8559866 3.5912237 0
-4.8770156 3.6067755 0.33881325
-4.8723421 3.5942202 -0.67485237
-4.8605599 3.5855289 -0.33736882
-4.8686996 3.5915332 0
-4.8876452 3.605509 0.33924881
-4.8808441 3.591393 -0.67542839
-4.8983755 3.6042931 -0.33969107
-4.866745 3.5810192 0
-4.8961883 3.6026835 0.33953938
-4.8810134 3.5824351 -0.67485237
-5.0535436 3.709064 -0.35014054
-4.881557 3.5828338 0
-4.900538 3.596765 0.33953938
-4.8477159 3.5534918 -0.66995168
-5.4308939 3.9809749 -0.37611899
-4.9005122 3.5921926 0
-4.9152799 3.6030178 0.34040993
-5.6641598 4.1414523 -0.78209162
-5.4419947 3.9790125 -0.37655455
-5.4405403 3.9779489 0
-10.771539 7.8758044 0.74532813
-5.6628885 4.1300316 -0.78122646
-0 0 -0
-5.4621563 3.9836345 0
-10.770553 7.8551292 0.74460256
-5.6699643 4.1247063 -0.78151447
-5.4515944 3.9658496 -0.37655455
-5.4648633 3.9755023 0
-10.788441 7.8482237 0.74518317
-5.6770434 4.1193757 -0.78180361
-5.4605846 3.9623086 -0.37684453
-5.4780884 3.9750099 0
-10.800017 7.8367071 0.74532813
-5.6778221 4.109477 -0.78122646
-5.4822078 3.967896 -0.37800565
-5.4913206 3.9744914 0
-10.822104 7.8327899 0.74619871
-5.6953702 4.1117001 -0.78295678
-5.4869986 3.9612689 -0.37800565
-5.4961185 3.9678531 0
-10.848414 7.8318753 0.74735981
-5.7129235 4.1138811 -0.78468597
-5.5044284 3.9637437 -0.37887621
-5.5135846 3.9703369 0
-10.868411 7.8263521 0.74808538
-5.7157917 4.1054678 -0.78439796
-5.5155473 3.9616387 -0.37931177
-5.5226016 3.9667056 0
-9.9851809 7.1720314 0.68669456
-5.7165389 4.0955429 -0.78382081
-5.5287795 3.9610248 -0.37989232
-5.5316176 3.9630582 0
-10.025526 7.1826625 0.6888718
-5.7235937 4.0901403 -0.78410995
-5.539906 3.9588752 -0.38032788
-5.5575805 3.9715056 0
-10.032085 7.169034 0.68872684
-5.7348442 4.0877213 -0.78497398
-5.5531492 3.9582112 -0.38090843
-5.5666094 3.9678056 0
-10.032276 7.1508741 0.68814623
-5.7355676 4.0777941 -0.78439796
-5.5621591 3.9545069 -0.38119844
-5.5841303 3.9701276 0
-10.030314 7.1312141 0.68742013
-5.7468138 4.075345 -0.78526199
-5.5732942 3.9522939 -0.381634
-5.5931649 3.9663854 0
-10.030454 7.1130824 0.68684012
-5.7559614 4.0713882 -0.78583914
-5.5865512 3.9515591 -0.38221455
-5.6000762 3.9611256 0
-10.034795 7.0979538 0.6865496
-5.7608767 4.0644307 -0.78583914
-5.6083078 3.9567897 -0.38337567
-5.6197457 3.9648597 0
-10.028499 7.075336 0.68553346
-5.772131 4.0619335 -0.7867043
-5.6194615 3.9544978 -0.38381124
-5.6394329 3.9685521 0
-10.028541 7.0572319 0.68495291
-5.7812648 4.0579252 -0.78728032
-5.6348677 3.9551678 -0.3845368
-5.6463523 3.9632287 0
-10.037061 7.0451093 0.68495291
-5.7755718 4.0435209 -0.78583914
-5.6502838 3.955806 -0.38526234
-5.6575346 3.9608824 0
-10.060469 7.0434093 0.68596905
-5.7868171 4.0409837 -0.7867043
-5.6635814 3.9549267 -0.38584292
-5.6729832 3.9614923 0
-10.081758 7.0401773 0.68684012
-5.7938161 4.0354652 -0.78699231
-5.6640873 3.9451075 -0.38555235
-5.6820326 3.9576066 0
-10.117974 7.0472956 0.68872684
-5.7986879 4.0284615 -0.78699231
-5.6859221 3.9501209 -0.38671347
-5.6953597 3.9566774 0
-10.137151 7.0424762 0.68945235
-5.8032436 4.0264306 -0.78728032
-5.7011213 3.9555755 -0.38758457
-5.7105827 3.9621401 0
-10.154209 7.0452352 0.69032294
-5.8144875 4.0238323 -0.78814548
-5.7144432 3.9545984 -0.38816515
-5.7217803 3.9596758 0
-10.162714 7.0329604 0.69032294
-5.8214717 4.0182719 -0.78843349
-5.7277713 3.9535952 -0.3887457
-5.7308483 3.9557188 0
-11.357999 7.8398604 0.77087104
-0 0 -0
-5.8263226 4.0112348 -0.78843349
-5.7432437 3.9540374 -0.38947126
-5.7463398 3.9561689 0
-11.348203 7.8128705 0.76956493
-4.6917295 3.2217548 -0.94883758
-5.8269048 4.0012665 -0.78785747
-5.7587252 3.9544482 -0.3901968
-5.7532592 3.9506946 0
-11.366203 7.8050365 0.77014548
-4.6786757 3.2044787 -0.94541383
-5.838131 3.9986031 -0.7887215
-5.7677827 3.9504209 -0.39048681
-5.7687702 3.9510972 0
-11.394917 7.8045106 0.77145159
-4.6443939 3.1727612 -0.93771124
-5.8643198 4.0061388 -0.791605
-5.7768474 3.946383 -0.39077738
-5.7885766 3.9543958 0
-11.419361 7.8009977 0.77246767
-4.6609488 3.1758173 -0.94027823
-4.7128434 3.2111766 -0.63564682
-5.7944913 3.9481759 -0.39164793
-5.7976561 3.9503322 0
-11.454547 7.8047519 0.77420938
-4.6329412 3.1485436 -0.93385994
-4.7145748 3.2040217 -0.63535774
-5.8035603 3.9440954 -0.39193848
-5.8174863 3.9535596 0
-11.479015 7.8011308 0.77522546
-4.6452417 3.1487045 -0.93557185
-4.7270064 3.2041276 -0.63651091
-5.8233719 3.9472816 -0.39295405
-5.8287239 3.9509094 0
-11.503483 7.7974563 0.77624106
-4.6766877 3.1617792 -0.94113499
-4.6923094 3.1723409 -0.63132215
-5.8432074 3.9504311 -0.39397016
-5.8356476 3.9453199 0
-11.536577 7.799561 0.77783769
-4.6485767 3.1345966 -0.93471509
-4.6596851 3.1420872 -0.62642145
-5.8522897 3.9462762 -0.3942607
-5.8555169 3.9484522 0
-11.556764 7.7928782 0.77856326
-4.6438403 3.1232469 -0.93300319
-4.6527491 3.1292386 -0.62498027
-5.8635159 3.9435482 -0.39469573
-5.8775597 3.9529934 0
-11.592045 7.7963099 0.78030497
-4.6390834 3.1119132 -0.93129134
-4.6930404 3.1481078 -0.62988096
-5.88554 3.9480407 -0.39585683
-5.8866501 3.9487853 0
-11.610088 7.7880878 0.78088552
-4.64498 3.1077371 -0.93172055
-4.6409526 3.1050425 -0.62238592
-5.9075832 3.9524856 -0.39701796
-5.8957477 3.9445667 0
-11.641083 7.7884998 0.78233659
-4.6337824 3.0921466 -0.92872435
-4.6317883 3.0908158 -0.62065566
-5.9253192 3.9539957 -0.39788851
-5.9069972 3.9417696 0
-11.682908 7.7960644 0.78451383
-4.620419 3.0751667 -0.9253006
-4.631217 3.0823536 -0.62007958
-5.9409142 3.954036 -0.39861462
-5.9160933 3.937516 0
-10.584847 7.0448527 0.71020633
-4.6134396 3.0624843 -0.92316121
-4.6220126 3.0681753 -0.61835039
-5.9521761 3.9511616 -0.39904961
-5.9360266 3.9404414 0
-10.610671 7.0435548 0.71136749
-4.6256986 3.0625763 -0.92487305
-4.627871 3.0640147 -0.6186384
-5.9677854 3.9511433 -0.39977574
-5.9472871 3.9375718 0
-10.643001 7.0465035 0.71296358
-4.5859251 3.020328 -0.91545862
-4.6007009 3.0300596 -0.61402571
-5.9838204 3.9409935 -0.40021074
-5.9785242 3.9375055 0
-10.683871 7.0364861 0.71456027
-4.587749 3.0175569 -0.91545862
-4.6025305 3.0272796 -0.61402571
-5.9992299 3.9459479 -0.40108186
-5.9982963 3.945334 0
-10.714172 7.0471654 0.71630192
-4.5634904 2.9937077 -0.90989542
-4.5996952 3.0174587 -0.61316055
-6.019196 3.9486692 -0.4020974
-6.0095811 3.9423618 0
-10.740052 7.0456109 0.71746248
-4.5563574 2.9811599 -0.90775436
-4.5881934 3.0019898 -0.61114335
-6.0348325 3.9485052 -0.40282297
-6.0252271 3.9422204 0
-10.776831 7.0511274 0.71934974
-4.5578084 2.9742508 -0.90732682
-4.5939813 2.9978559 -0.61143136
-6.0483036 3.9468906 -0.40340352
-6.0278087 3.9335165 0
-10.789691 7.0409379 0.71963972
-4.5657063 2.9715445 -0.90818357
-4.5824237 2.9824252 -0.60941303
-6.0617795 3.9452491 -0.4039841
-6.0434613 3.933327 0
-10.817789 7.0406508 0.72094584
-4.5606804 2.9604349 -0.90647167
-4.5947022 2.9825191 -0.6105662
-6.0839782 3.94924 -0.4051452
-6.0678535 3.9387732 0
-10.835007 7.0332336 0.72152638
-4.5620933 2.9535229 -0.90604252
-4.5917869 2.9727468 -0.6097011
-6.0931125 3.9447129 -0.40543577
-6.0791645 3.9356828 0
-10.871851 7.0384932 0.72341305
-4.5527234 2.939656 -0.90347552
-4.5888629 2.9629915 -0.60883701
-6.1109676 3.945802 -0.40630633
-6.0992222 3.9382179 0
-10.89345 7.0338111 0.72428417
-4.5454826 2.9272048 -0.90133607
-4.5793881 2.9490395 -0.60710675
-6.1201043 3.9412315 -0.40659687
-6.1105423 3.9350736 0
-10.923782 7.0347095 0.72573531
-4.5403767 2.9161613 -0.89962423
-4.589479 2.9476986 -0.60797185
-6.1357918 3.9408536 -0.40732244
-6.1328025 3.9389334 0
-10.956326 7.036953 0.727332
-4.5417371 2.9092896 -0.89919668
-4.588686 2.9393635 -0.60739583
-6.1471152 3.9376428 -0.407758
-6.1441336 3.9357328 0
-10.973565 7.0293102 0.72791195
-4.551733 2.9079418 -0.90047932
-4.5726109 2.9212801 -0.6048004
-6.1628151 3.9372058 -0.40848354
-6.1554661 3.9325106 0
-11.00614 7.031435 0.72950864
-4.5574145 2.9038234 -0.90090853
-4.5739584 2.9143643 -0.60451233
-6.1741362 3.9339411 -0.40891856
-6.1711855 3.9320612 0
-11.025582 7.0251117 0.73023421
-4.5565825 2.8955581 -0.90005177
-4.5818467 2.9116127 -0.60508949
-6.1810842 3.9278758 -0.40906411
-6.1891069 3.9329739 0
-11.06038 7.0285077 0.73197585
-4.5600777 2.8900504 -0.90005177
-4.5744314 2.8991475 -0.60364723
-6.1924038 3.9245732 -0.40949911
-6.2026477 3.9310653 0
-11.077644 7.0207024 0.7325564
-4.5744143 2.8913949 -0.90219122
-4.5691943 2.8880954 -0.60249513
-6.203733 3.9212544 -0.40993467
-6.2205963 3.9319134 0
-11.10808 7.0211926 0.73400754
-4.5887604 2.8927088 -0.90433061
-4.572681 2.8825724 -0.60249513
-6.2040744 3.9109869 -0.40964466
-6.2363486 3.9313321 0
-11.136345 7.0202408 0.73531425
-4.598774 2.8912625 -0.90561491
-4.5652056 2.870158 -0.60105288
-6.2219901 3.911783 -0.41051522
-6.2499075 3.9293346 0
-11.164616 7.0192256 0.73662037
-4.5848651 2.874794 -0.90219122
-4.5664811 2.8632669 -0.60076481
-0 0 -0
-6.2612672 3.9259288 0
-11.181894 7.0112514 0.73720092
-4.5883355 2.869252 -0.90219122
-4.5743279 2.8604925 -0.60134196
-0 0 -0
-6.2682109 3.919739 0
-11.214586 7.012886 0.73879701
-4.5966024 2.8705599 -0.90347552
-4.5650797 2.8508742 -0.59989971
-5.0657325 3.1635301 -0.33359548
-6.2904425 3.9283566 0
-11.227637 7.0116153 0.73937756
-4.6044211 2.8677154 -0.90433061
-4.5641341 2.8426239 -0.59932363
-4.992352 3.1093254 -0.32851547
-6.3106503 3.9303854 0
-11.262568 7.0145283 0.74111927
-4.6144271 2.8662145 -0.90561491
-4.5719557 2.839834 -0.59989971
-4.9696259 3.0868437 -0.32677436
-6.3198123 3.9255009 0
-11.293105 7.0146222 0.74257034
-4.617887 2.8606369 -0.90561491
-4.5643921 2.8274984 -0.59845847
-5.0418234 3.1232524 -0.33127326
-6.3334002 3.9233439 0
-11.321451 7.0132856 0.74387646
-0 0 -0
-4.5590034 2.8165436 -0.59730536
-4.9947476 3.0857453 -0.32793489
-6.3514247 3.923898 0
-11.349819 7.0118961 0.74518317
-4.6335287 2.8548551 -0.90732682
-4.5646033 2.8123882 -0.59759337
-4.9785643 3.0674419 -0.32662877
-6.367238 3.9230452 0
-11.375981 7.0090814 0.74634427
-4.6260409 2.842536 -0.90518737
-4.5591917 2.8014596 -0.59644127
-4.9977665 3.0709479 -0.32764491
-6.3874884 3.9248822 0
-11.402144 7.0062079 0.74750483
-4.6185303 2.8302391 -0.90304798
-4.5625734 2.7959487 -0.59644127
-5.0036869 3.0662632 -0.3277899
-6.3944516 3.918525 0
-11.428327 7.0032873 0.74866593
-4.6109967 2.8179646 -0.90090853
-4.5659485 2.7904336 -0.59644127
-4.9630446 3.0331149 -0.32488713
-6.4102826 3.9175799 0
-11.456733 7.001667 0.74997205
-4.6165886 2.8137257 -0.90133607
-4.567102 2.7835646 -0.59615219
-4.971148 3.0298231 -0.32517767
-6.4327898 3.9206672 0
-11.48516 6.9999938 0.7512787
-4.6199851 2.8081453 -0.90133607
-4.5616212 2.7726703 -0.59499902
-4.9703598 3.0211122 -0.32488713
-6.4464183 3.9182985 0
-11.51581 6.9996047 0.75272983
-4.6277609 2.8052199 -0.90219122
-4.5627584 2.7658169 -0.59471095
-4.9495702 3.0002916 -0.323291
-6.4622736 3.9172504 0
-11.539816 6.9951153 0.75374597
-4.6135721 2.7890017 -0.89876747
-4.5594544 2.7562861 -0.59384584
-4.9732032 3.0064061 -0.32459712
-6.4848194 3.9202101 0
-11.577166 6.9986405 0.75563264
-4.6059489 2.7767994 -0.89662802
-4.5539212 2.7454333 -0.59269267
-4.9723859 2.9977143 -0.32430711
-6.498467 3.9177463 0
-11.610085 6.9994006 0.75722873
-4.5851064 2.7566857 -0.89192164
-4.5528059 2.7372661 -0.59211659
-4.9470477 2.9742942 -0.32241988
-6.5121174 3.9152553 0
-11.631901 6.993403 0.75809985
-4.5752196 2.7432206 -0.88935298
-4.5605426 2.7344203 -0.59269267
-5.0063496 3.0017185 -0.32604823
-6.5280018 3.9140739 0
-11.660398 6.9913673 0.75940597
-4.5675168 2.7311046 -0.88721359
-4.5594077 2.7262557 -0.59211659
-4.9430723 2.9556642 -0.32169431
-6.5416608 3.9115257 0
-11.684442 6.9866037 0.76042151
-4.5575891 2.7176976 -0.88464659
-4.5560317 2.7167692 -0.59125149
-4.9845781 2.972312 -0.32416156
-6.5575566 3.9102817 0
-11.7085 6.9817972 0.76143765
-4.5630736 2.7134995 -0.88507414
-4.5704246 2.717871 -0.59269267
-4.9591341 2.9490225 -0.32227489
-6.5734587 3.9090049 0
-11.743728 6.983582 0.7631793
-4.5619287 2.7053626 -0.88421738
-4.5581388 2.703115 -0.59067541
-4.9671679 2.9456818 -0.32256544
-6.587131 3.9063692 0
-11.78121 6.9866161 0.76506603
-4.5541487 2.693316 -0.88207799
-4.5569448 2.6949697 -0.59009832
-4.9371724 2.9198356 -0.3203882
-6.6052828 3.9063532 0
-11.816483 6.9882483 0.76680768
-4.5513582 2.6879559 -0.88122284
-4.5608058 2.6935351 -0.5903874
-4.9456501 2.9208176 -0.32082376
-6.6210909 3.910305 0
-11.825173 6.9837484 0.76709765
-4.5634508 2.6876652 -0.88293475
-4.5595951 2.6853945 -0.58981025
-4.9379826 2.9082477 -0.32009822
-6.6437511 3.9128678 0
-11.862708 6.9865961 0.76898438
-4.5600524 2.6782479 -0.88165039
-4.5539155 2.6746438 -0.58865708
-4.92133 2.8904366 -0.3187921
-6.6664267 3.9153812 0
-11.889066 6.9827852 0.77014548
-4.5699325 2.6766293 -0.88293475
-4.5504465 2.6652164 -0.58779198
-4.9382677 2.892365 -0.31966266
-6.6846223 3.9152124 0
-11.928889 6.9868021 0.7721777
-4.5842443 2.677578 -0.88507414
-4.5559034 2.6610243 -0.58808106
-4.9484925 2.8903289 -0.32009822
-6.6915932 3.9084439 0
-11.948539 6.9789348 0.77290326
-4.5808196 2.6681595 -0.88378984
-4.5546412 2.6529114 -0.58750391
-4.9542246 2.885654 -0.32024321
-6.7098083 3.9082172 0
-11.979412 6.9775681 0.7743544
-4.5840402 2.6626225 -0.88378984
-4.5578432 2.6474061 -0.58750391
-4.9397321 2.8692248 -0.31908208
-6.728024 3.9079473 0
-12.003565 6.9722252 0.77537048
-4.5828156 2.6545107 -0.88293475
-4.5565667 2.6393065 -0.58692789
-4.9454417 2.8645551 -0.3192271
-6.743999 3.9063358 0
-12.032215 6.9694366 0.7766766
-4.579349 2.6451182 -0.88165039
-4.5530314 2.6299167 -0.58606273
-4.9331555 2.8494835 -0.31821153
-6.755477 3.9020905 0
-12.03838 6.9535942 0.77653158
-4.6003375 2.6498334 -0.88507414
-4.54948 2.6205389 -0.58519763
-4.8938117 2.8188772 -0.31545374
-6.7782278 3.9043169 0
-7.0956945 4.0871801 0.45738649
-4.5990796 2.6417131 -0.88421738
-4.5481615 2.6124659 -0.58462155
-4.9084783 2.8194318 -0.31617931
-6.7942219 3.9026039 0
-7.0826025 4.0682497 0.45622537
-4.6067276 2.6387084 -0.88507414
-4.5535569 2.6082528 -0.58490956
-4.9231529 2.8199551 -0.31690487
-6.8102217 3.9008579 0
-7.0942707 4.0635595 0.45666036
-4.6166019 2.636961 -0.88635844
-4.5544615 2.6014671 -0.58462155
-4.9243026 2.812717 -0.31675985
-6.8262272 3.8990791 0
-7.0924129 4.0511217 0.45622537
-4.6264701 2.6351888 -0.88764113
-4.5531025 2.5933993 -0.58404446
-4.9322176 2.8093393 -0.31705043
-6.8399792 3.8959801 0
-7.1085901 4.0489783 0.45695093
-0 0 -0
-4.5517387 2.5853434 -0.58346838
-4.9423804 2.807224 -0.31748542
-6.8650546 3.8992844 0
-7.1225147 4.0455194 0.45753148
-4.6171956 2.6151485 -0.88464659
-4.5593562 2.5823886 -0.58404446
-4.9141192 2.783324 -0.31545374
-6.878819 3.8961167 0
-7.1093102 4.0266652 0.45637038
-4.6203523 2.6095676 -0.88464659
-4.548965 2.5692482 -0.58231521
-4.8971186 2.7658846 -0.31414762
-6.906178 3.9005983 0
-7.0938101 4.0065727 0.45506427
-0 0 -0
-4.5453029 2.5599408 -0.5814501
-4.9321494 2.7778149 -0.31617931
-6.9108858 3.8922508 0
-7.0850573 3.990345 0.45419315
-4.6244001 2.5971336 -0.88421738
-4.5483928 2.5544469 -0.5814501
-4.9083152 2.7565846 -0.31443763
-6.9155841 3.8838975 0
-7.0830832 3.9779675 0.45375815
-4.620822 2.5877848 -0.88293475
-4.5492215 2.5476866 -0.58116204
-4.9275146 2.7595406 -0.31545374
-6.9202719 3.8755383 0
-7.0833459 3.9668643 0.45346758
-4.6127329 2.5759377 -0.88079363
-4.5568089 2.5447075 -0.58173811
-4.9489946 2.76372 -0.31661487
-6.8931432 3.8494117 0
-7.1085501 3.9697037 0.45477369
-4.6016955 2.5588439 -0.87779909
-4.5546384 2.5326769 -0.58087403
-4.9063077 2.7282281 -0.31356707
-6.8864574 3.8293209 0
-7.1997566 4.0035357 0.46014372
-4.6092701 2.5557692 -0.87865424
-4.5554357 2.5259187 -0.58058602
-4.911871 2.7235565 -0.31371206
-6.8910794 3.8209972 0
-7.2227688 4.0049138 0.46130484
-4.6168523 2.5526845 -0.879511
-4.5584846 2.5204124 -0.58058602
-4.9424462 2.7327073 -0.31545374
-6.8888564 3.8088889 0
-7.213963 3.9886422 0.46043429
-4.6244249 2.5495806 -0.88036609
-4.566052 2.5173979 -0.58116204
-4.9070625 2.7054069 -0.31298652
-6.8888998 3.7980516 0
-7.1596093 3.9473014 0.45666036
-4.6252551 2.5427554 -0.87993854
-4.5486937 2.5006657 -0.57856768
-4.9126029 2.7007263 -0.31313151
-6.8957624 3.7909775 0
-7.091517 3.8985944 0.45201647
-4.6260753 2.5359321 -0.879511
-4.553978 2.4964097 -0.57885569
-4.9113102 2.6922927 -0.3128415
-6.8912096 3.7776384 0
-7.0620422 3.8712857 0.44983923
-4.6268854 2.5291104 -0.87908345
-4.55018 2.4871824 -0.57799059
-4.8985968 2.6776311 -0.31182539
-6.8912063 3.7668149 0
-7.0598807 3.8590145 0.44940424
-4.6186614 2.5173717 -0.87694234
-4.55546 2.482924 -0.57827967
-4.926928 2.6853905 -0.31342208
-6.8980355 3.7597299 0
-7.0736651 3.8554554 0.44998479
-4.6194468 2.5105646 -0.87651479
-4.5584564 2.4774177 -0.57827967
-4.9255986 2.6769512 -0.31313151
-6.8911428 3.7451797 0
-7.0942931 3.8555875 0.45100036
-4.6111941 2.4988668 -0.8743754
-4.5546222 2.4682097 -0.57741451
-4.9037061 2.6573827 -0.31153539
-6.9002347 3.7393279 0
-7.1263614 3.8618689 0.45274201
-4.6164665 2.4945123 -0.87480295
-4.5598745 2.463933 -0.57770252
-4.9252019 2.6613379 -0.31269652
-6.8887272 3.7223308 0
-7.1584554 3.8680785 0.45448369
-4.6194773 2.4889324 -0.87480295
-4.5605736 2.4571958 -0.57741451
-4.9215493 2.6516862 -0.31226096
-6.9390335 3.7386882 0
-7.2042952 3.881609 0.45709592
-4.6202221 2.4821351 -0.8743754
-4.5680919 2.4541292 -0.57799059
-4.9361925 2.651885 -0.31298652
-5.85462 3.1452942 0
-7.2021108 3.8692107 0.45666036
-4.6186876 2.474124 -0.87351865
-4.561934 2.4437225 -0.57683742
-4.9210691 2.6361027 -0.31182539
-5.8400631 3.1283867 0
-7.1884656 3.8506944 0.45549983
-4.6216736 2.4685414 -0.87351865
-4.5603251 2.4357736 -0.57626134
-4.9127932 2.6240349 -0.31109983
-5.8277678 3.1127439 0
-7.1976924 3.8444519 0.4557898
-4.6201258 2.4605441 -0.8726635
-4.5609841 2.4290471 -0.57597333
-4.9136686 2.6168766 -0.31095484
-5.8315248 3.1056998 0
-7.2137976 3.8418581 0.45651537
-4.6140265 2.4501441 -0.87095165
-4.5707626 2.4271698 -0.57683742
-4.8961749 2.5999706 -0.30964872
-0 0 0
-7.2390871 3.8441057 0.45782149
-4.6124511 2.442167 -0.8700965
-4.5622649 2.4155948 -0.57539624
-4.9199786 2.6049945 -0.31095484
-5.8551154 3.1001239 0
-7.2850666 3.8572443 0.46043429
-4.6108537 2.4341927 -0.86923975
-4.5674744 2.4112916 -0.57568532
-4.9300094 2.6026835 -0.31138983
-5.8059297 3.0651052 0
-7.3172879 3.8629916 0.4621754
-4.6001663 2.4214475 -0.86667281
-4.5658026 2.4033592 -0.57510817
-4.9193592 2.5894651 -0.31051928
-0 0 0
-7.3311477 3.8589885 0.46275595
-4.5902605 2.4126928 -0.8645317
-4.5603828 2.3969889 -0.57424307
-4.9393234 2.5961642 -0.31168041
-5.809165 3.0533628 0
-7.3242774 3.8497229 0.4621754
-4.5795341 2.3999972 -0.86196476
-4.5609875 2.3902774 -0.573955
-4.9217448 2.5793397 -0.31037429
-5.858953 3.0705025 0
-7.3404379 3.8469045 0.4629015
-4.5869856 2.396842 -0.86282152
-4.5707517 2.3883593 -0.57482016
-4.9317694 2.577002 -0.31080985
-5.8419018 3.0525746 0
-7.3450809 3.8380322 0.4629015
-4.5898786 2.3912978 -0.86282152
-4.5759258 2.3840284 -0.57510817
-4.8910928 2.5482285 -0.30805206
-5.8594298 3.052726 0
-7.3450994 3.8267508 0.46261096
-4.5813675 2.3798299 -0.8606804
-4.57651 2.3773065 -0.57482016
-4.9126153 2.5518992 -0.30921316
-5.8215475 3.0240519 0
-7.3520217 3.8190696 0.46275595
-4.5888033 2.3766561 -0.86153716
-4.5724869 2.3682053 -0.573955
-4.9272294 2.5519354 -0.30993873
-5.8321323 3.0206072 0
-13.38541 6.9326391 0.84198576
-4.5848265 2.3675749 -0.86025286
-4.577641 2.3638642 -0.57424307
-4.9164615 2.5388288 -0.30906817
-5.8357778 3.0135581 0
-13.403012 6.9212294 0.84256631
-4.5671453 2.3514585 -0.85640156
-4.5758991 2.3559656 -0.57366699
-4.9079766 2.5269403 -0.30834261
-5.8972583 3.0362859 0
-13.425232 6.9121685 0.84343743
-4.5745463 2.3482809 -0.85725671
-4.5833402 2.3527949 -0.57424307
-4.9202638 2.5257502 -0.30892262
-5.8268342 2.9911258 0
-13.468242 6.9137378 0.84561408
-4.563674 2.3357365 -0.85468972
-4.5815792 2.3449006 -0.57366699
-4.8978748 2.5067842 -0.3073265
-0 0 0
-13.49509 6.90693 0.84677517
-4.5482001 2.3208861 -0.85126597
-4.5797968 2.3370094 -0.5730899
-4.9425573 2.5221212 -0.30993873
-0 0 0
-13.55203 6.9154201 0.849823
-4.5487156 2.3142257 -0.85083842
-4.5780115 2.3291304 -0.57251382
-4.9131823 2.4996536 -0.30790704
-0 0 0
-13.574276 6.9061122 0.85069412
-4.5377679 2.3017581 -0.84826976
-4.5762043 2.3212547 -0.57193673
-4.9347382 2.503119 -0.30906817
-0 0 0
-13.612734 6.9049854 0.85258079
-4.5497088 2.3009074 -0.84998167
-4.5813208 2.3168943 -0.57222581
-4.9006581 2.4783916 -0.30674595
-0 0 0
-13.646567 6.9014277 0.85417688
-4.5295682 2.2838531 -0.84570283
-4.5794935 2.3090258 -0.57164872
-4.9013314 2.4712996 -0.30660093
-0 0 0
-13.675776 6.8954611 0.855483
-4.5277419 2.2760744 -0.84484768
-4.5869064 2.3058162 -0.57222581
-4.9321733 2.4793804 -0.30834261
-0 0 0
-13.72821 6.9011073 0.85824078
-4.5281873 2.2694485 -0.84441847
-4.5804396 2.2956367 -0.57107264
-4.9351654 2.473419 -0.30834261
-0 0 0
-13.759766 6.8961544 0.85969192
-4.5309258 2.2639754 -0.84441847
-4.5855217 2.2912552 -0.57136065
-4.9381504 2.467454 -0.30834261
-0 0 0
-13.798304 6.8946214 0.86157858
-4.5382581 2.2607906 -0.84527522
-4.5906 2.2868652 -0.57164872
-4.9225216 2.4522161 -0.30718151
-0 0 0
-13.832211 6.8906898 0.86317527
-4.5363836 2.2530193 -0.84441847
-4.5794649 2.2744157 -0.56991947
-4.9091883 2.4381747 -0.30616537
-0 0 0
-13.868453 6.8878412 0.86491692
-4.5354466 2.2491388 -0.84399092
-4.5738845 2.2682002 -0.56905431
-4.8943629 2.4271262 -0.30514926
-0 0 0
-13.900547 6.8933144 0.86665863
-4.5381608 2.2436569 -0.84399092
-4.578938 2.2638171 -0.56934237
-4.9205894 2.4327288 -0.30660093
-0 0 0
-13.950789 6.8972402 0.86927086
-4.5270576 2.2313645 -0.84142393
-4.5839968 2.2594295 -0.56963146
-4.9421711 2.435972 -0.30776206
-0 0 0
-13.982416 6.8918643 0.87072194
-4.5343537 2.2281549 -0.84227908
-4.5704718 2.245903 -0.56761312
-4.9217854 2.4185364 -0.30631039
-0 0 0
-14.025717 6.8921547 0.87289917
-4.5416579 2.2249353 -0.84313583
-4.5638914 2.2358272 -0.56645995
-4.9317069 2.4160182 -0.30674595
-0 0 0
-14.050362 6.8832011 0.87391478
-4.544343 2.2194459 -0.84313583
-4.5712333 2.232579 -0.56703603
-4.925283 2.4054961 -0.30616537
-0 0 0
-14.08902 6.8810425 0.87580144
-4.5447068 2.2128263 -0.84270662
-4.5716043 2.2259228 -0.56674802
-4.9235091 2.3972659 -0.30587482
-0 0 0
-14.13938 6.884491 0.87841421
-4.5543075 2.2106974 -0.84399092
-4.578949 2.2226584 -0.56732512
-4.9077101 2.382242 -0.30471426
-0 0 0
-14.166389 6.8764791 0.87957531
-4.5500412 2.2018371 -0.84270662
-4.5699835 2.2114875 -0.56588286
-4.9222779 2.3819685 -0.30543983
-0 0 0
-14.202746 6.8729348 0.88131642
-4.5573268 2.1985707 -0.84356338
-4.5679975 2.2037184 -0.56530678
-4.9625978 2.3940837 -0.30776206
-0 0 0
-14.243811 6.8715773 0.8833487
-4.5553489 2.190835 -0.84270662
-4.5659995 2.1959574 -0.56473076
-4.9256802 2.3689411 -0.30529481
-0 0 0
-14.287222 6.8712511 0.88552535
-4.551055 2.182003 -0.84142393
-4.5733099 2.192673 -0.56530678
-4.9285393 2.3629878 -0.30529481
-0 0 0
-14.333003 6.8719568 0.8878476
-4.5652666 2.1820364 -0.84356338
-4.5689526 2.1837981 -0.56444168
-4.919662 2.3514247 -0.30456871
-0 0 0
-14.355367 6.8613586 0.88871872
-4.560945 2.1732047 -0.84227908
-4.571588 2.1782758 -0.56444168
-4.9178123 2.3432453 -0.3042787
-6.6411076 3.1643631 0
-14.396483 6.8596539 0.89075035
-4.5658841 2.1687925 -0.84270662
-4.5742168 2.1727505 -0.56444168
-4.9182954 2.3361876 -0.30413371
-6.6284685 3.1485188 0
-14.435271 6.8567462 0.89263707
-4.5638657 2.1610789 -0.84185153
-4.5768385 2.1672218 -0.56444168
-4.9117208 2.3257949 -0.30355313
-6.6275592 3.1382778 0
-14.469381 6.8515325 0.8942337
-4.5595074 2.1522741 -0.84056717
-4.5794539 2.16169 -0.56444168
-4.959167 2.34093 -0.30631039
-6.6054649 3.1180501 0
-14.48704 6.8384767 0.89481372
-4.5504928 2.1412995 -0.83842778
-4.5773864 2.1539545 -0.5638656
-4.9314294 2.3205545 -0.30442369
-6.6445432 3.1266847 0
-16.185688 7.6164069 0.9991641
-4.5530767 2.1357994 -0.83842778
-4.5776463 2.1473248 -0.56357759
-4.9624596 2.3278365 -0.30616537
-6.6294761 3.1098161 0
-16.20899 7.6034632 1.0000347
-4.548676 2.1270332 -0.83714348
-4.5802379 2.1417921 -0.56357759
-4.9535017 2.3163362 -0.30543983
-6.6285095 3.0995965 0
-16.253466 7.600379 1.0022113
-4.5267043 2.1134269 -0.83286464
-4.581531 2.1390245 -0.56357759
-4.9289985 2.3012502 -0.30384314
-6.6633906 3.1110027 0
-16.30044 7.6103468 1.0048242
-4.5315795 2.1090379 -0.83329219
-4.5887976 2.1356676 -0.56415361
-4.9270687 2.293102 -0.30355313
-6.6411972 3.090873 0
-16.335531 7.6027031 1.0064203
-4.5317984 2.1024816 -0.83286464
-4.5890307 2.129034 -0.5638656
-4.9581213 2.3002698 -0.30529481
-6.6213145 3.0718913 0
-16.38242 7.6004562 1.0087425
-4.5415239 2.0936713 -0.83371973
-4.5894599 2.1157701 -0.56328851
-4.937706 2.2763135 -0.30369815
-6.63345 3.0580623 0
-16.488047 7.6010942 1.0141125
-4.5627108 2.0967574 -0.83714348
-4.5967178 2.112385 -0.5638656
-4.9498973 2.2746859 -0.3042787
-6.6465993 3.0543916 0
-16.532629 7.5974379 1.0162892
-4.5535741 2.0858984 -0.83500403
-4.5922103 2.1035967 -0.56300044
-4.9313831 2.2589648 -0.30297258
-0 0 0
-16.581955 7.5958519 1.0187564
-4.5630989 2.0835946 -0.83628833
-4.6018095 2.1012704 -0.5638656
-4.9648347 2.2670345 -0.30485925
-0 0 0
-16.626579 7.5920005 1.0209336
-4.5632792 2.0770171 -0.83586079
-4.5996323 2.0935636 -0.56328851
-4.9391904 2.2481163 -0.30311757
-0 0 0
-16.661758 7.5837469 1.0225303
-4.5634408 2.0704379 -0.83543158
-4.6115804 2.092279 -0.56444168
-4.9655614 2.2528806 -0.30456871
-0 0 0
-16.732428 7.5915203 1.0263036
-4.5612655 2.0628088 -0.83457649
-4.6046782 2.082442 -0.56328851
-4.9446087 2.2361736 -0.30311757
-0 0 0
-16.772366 7.5852156 1.0281904
-4.5567317 2.0541301 -0.83329219
-4.6189876 2.0821943 -0.56473076
-4.9686246 2.2398074 -0.30442369
-0 0 0
-16.817045 7.5809588 1.030367
-4.5685768 2.0528312 -0.83500403
-4.6215005 2.0766118 -0.56473076
-4.9689593 2.232738 -0.3042787
-0 0 0
-16.852266 7.5723491 1.0319637
-4.5757442 2.0494101 -0.83586079
-4.6358066 2.0763113 -0.56617194
-4.985878 2.2331033 -0.30514926
-0 0 0
-16.923058 7.5795946 1.035737
-4.5829005 2.0459707 -0.83671588
-4.6288648 2.0664907 -0.56501877
-4.9411268 2.2058957 -0.30224702
-0 0 0
-17.019993 7.5983329 1.0411071
-4.5830264 2.0393889 -0.83628833
-0 0 -0
-4.9698958 2.2115412 -0.30384314
-0 0 0
-17.195328 7.6517043 1.051266
-4.5831428 2.03281 -0.83586079
-0 0 -0
-4.9773197 2.2076435 -0.30413371
-0 0 0
-17.342323 7.6920247 1.0596838
-4.5902867 2.0293446 -0.83671588
-0 0 -0
-4.9847322 2.203727 -0.30442369
-0 0 0
-17.411016 7.69733 1.0633122
-4.5927358 2.0237966 -0.83671588
-0 0 -0
-4.9826403 2.1956089 -0.30413371
-0 0 0
-17.460726 7.694098 1.0657793
-4.5834279 2.0130854 -0.83457649
-4.657835 2.0457654 -0.56703603
-4.9852896 2.1895866 -0.30413371
-0 0 0
-17.515215 7.6928492 1.0685371
-4.5728908 2.0051625 -0.83243704
-4.6472287 2.0377586 -0.56559485
-4.9747062 2.181354 -0.30340758
-0 0 0
-17.550793 7.6958303 1.0704238
-4.5894194 2.0058017 -0.83500403
-4.6567998 2.0352504 -0.56645995
-4.9606781 2.1680601 -0.30239204
-0 0 0
-17.595787 7.6902237 1.0726005
-4.589488 1.9992306 -0.83457649
-4.6521397 2.0265222 -0.56559485
-4.9775829 2.1682889 -0.30326259
-0 0 0
-17.652712 7.6897116 1.0755033
-4.5848341 1.9906156 -0.83329219
-4.6664453 2.0260489 -0.56703603
-4.9682841 2.1570997 -0.30253702
-0 0 0
-17.697735 7.6838961 1.07768
-4.5919523 1.9871153 -0.83414894
-4.6807652 2.025548 -0.56847829
-4.9875822 2.1583197 -0.30355313
-0 0 0
-17.757084 7.6841764 1.0807278
-4.5990601 1.9835967 -0.83500403
-0 0 -0
-4.9806428 2.1481752 -0.30297258
-5.8636298 2.529012 0
-17.81646 7.6843247 1.0837755
-4.5778742 1.9679021 -0.83072519
-4.6785154 2.0111651 -0.56761312
-4.9832349 2.1421554 -0.30297258
-5.888207 2.5311782 0
-17.863928 7.6792107 1.0860978
-4.5991254 1.9704568 -0.83414894
-4.6714325 2.0014362 -0.56645995
-4.990592 2.1381774 -0.30326259
-5.9271369 2.5394323 0
-17.911409 7.6739931 1.08842
-4.6227484 1.9739703 -0.83800024
-4.6809859 1.9988384 -0.56732512
-4.9644952 2.1199005 -0.30152091
-5.9254189 2.5302267 0
-17.973236 7.6747928 1.0916128
-4.6204014 1.9663707 -0.83714348
-4.6595936 1.9830503 -0.56444168
-4.9909673 2.1240776 -0.30297258
-5.9332566 2.5251014 0
-18.02553 7.6713839 1.094225
-4.6393189 1.9678042 -0.84013963
-4.6715112 1.9814587 -0.56559485
-4.9935303 2.1180456 -0.30297258
-5.9530768 2.5250449 0
-18.065891 7.6627913 1.0961123
-4.6204152 1.9532021 -0.83628833
-4.673902 1.9758126 -0.56559485
-5.0032587 2.1150427 -0.30340758
-5.9417362 2.5117679 0
-18.125385 7.6621985 1.0991595
-4.6298714 1.9506088 -0.83757263
-4.6691418 1.9671538 -0.56473076
-4.9794769 2.0979009 -0.30181149
-5.9519644 2.5076189 0
-18.189709 7.663497 1.1024978
-4.632225 1.945013 -0.83757263
-4.6882019 1.9685172 -0.56674802
-4.9844017 2.0928876 -0.30195647
-5.9597845 2.5024385 0
-18.234886 7.6565995 1.1046746
-4.634572 1.9394145 -0.83757263
-4.6977377 1.9658473 -0.56761312
-4.9821377 2.0848594 -0.30166647
-5.9484038 2.4892097 0
-18.289671 7.6536202 1.1074324
-4.6653342 1.9456666 -0.84270662
-4.6929455 1.9571819 -0.56674802
-5.0110269 2.0898368 -0.30326259
-5.9586153 2.4850264 0
-18.351662 7.6535172 1.1106251
-4.6795406 1.944957 -0.84484768
-4.6905346 1.9495264 -0.56617194
-5.0207491 2.0867734 -0.30369815
-5.9664154 2.4798205 0
-18.394484 7.6452971 1.1126568
-4.6984825 1.9461751 -0.84784222
-4.6904907 1.9428648 -0.56588286
-4.9824581 2.0638018 -0.30123091
-5.9742208 2.4746032 0
-18.463722 7.6479239 1.1162851
-4.726934 1.951272 -0.85255027
-4.6952324 1.9381856 -0.56617194
-5.0257773 2.0746341 -0.30369815
-5.9675841 2.4634106 0
-18.525795 7.6474233 1.1194785
-4.7435279 1.951417 -0.85511726
-4.7023501 1.9344771 -0.56674802
-5.0138669 2.0626304 -0.3028276
-5.9657383 2.454216 0
-18.563848 7.6368918 1.1212196
-4.7506375 1.9476334 -0.85597402
-4.7046843 1.9287938 -0.56674802
-5.0187573 2.0575552 -0.30297258
-5.9831519 2.4529309 0
-18.621149 7.6341691 1.1241224
-4.7613163 1.9486523 -0.85768586
-4.70824 1.9269298 -0.56703603
-5.0320215 2.059443 -0.30369815
-5.9798107 2.4473424 0
-18.673853 7.642602 1.1270251
-4.7755499 1.9477441 -0.85982531
-4.7057796 1.9192877 -0.56645995
-5.0417266 2.0563061 -0.30413371
-5.9803562 2.4391334 0
-18.736002 7.6416197 1.1302179
-4.7636266 1.9361709 -0.85725671
-4.7104893 1.9145733 -0.56674802
-5.0442076 2.0502126 -0.30413371
-5.9832988 2.4319055 0
-18.786142 7.6356077 1.1326852
-4.7731028 1.9333057 -0.85854101
-4.7080092 1.90694 -0.56617194
-4.9816523 2.017777 -0.3002148
-5.9765844 2.4207659 0
-18.841116 7.6314378 1.135443
-4.768292 1.9246535 -0.85725671
-4.7151022 1.9031843 -0.56674802
-5.0370927 2.0331511 -0.30340758
-5.9795051 2.4135427 0
-18.87923 7.6203337 1.1371841
-4.7682343 1.9179335 -0.85682911
-4.7030053 1.8916962 -0.56501877
-5.0154428 2.0173683 -0.30195647
-5.9944873 2.4111707 0
-16.017387 6.4426951 0.96433234
-0 0 -0
-4.7076859 1.8869735 -0.56530678
-5.0106387 2.0084054 -0.30152091
-0 0 0
-16.027569 6.4243026 0.9644773
-0 0 -0
-4.7243695 1.8870385 -0.56703603
-5.0347862 2.0110271 -0.3028276
-7.5131583 3.0009546 0
-16.016016 6.3972211 0.9633162
-0 0 -0
-4.7242455 1.880373 -0.56674802
-5.0299678 2.0020583 -0.30239204
-0 0 0
-16.011665 6.3730602 0.96259063
-0 0 -0
-4.7361312 1.8784777 -0.56790113
-5.0178862 1.9902292 -0.30152091
-0 0 0
-16.009691 6.3498769 0.96201009
-4.7487011 1.8768259 -0.85126597
-4.7648597 1.8832122 -0.57107264
-5.0686183 2.0032666 -0.30442369
-7.6256361 3.013875 0
-16.014938 6.3295732 0.96186507
-4.7581334 1.8739096 -0.85255027
-4.7430611 1.8679737 -0.5681892
-5.039607 1.9847633 -0.30253702
-7.6074815 2.9960766 0
-16.01532 6.3073602 0.96142954
-4.7341056 1.8578423 -0.84784222
-4.7573605 1.8669684 -0.56963146
-5.0371685 1.9767758 -0.30224702
-0 0 0
-16.020512 6.287056 0.96128452
-4.7196183 1.8455791 -0.84484768
-4.7523837 1.8583919 -0.5687663
-5.0250287 1.9650081 -0.30137593
-0 0 0
-16.020836 6.264854 0.96084899
-4.6787863 1.8230971 -0.83714348
-4.7377539 1.846074 -0.56674802
-5.0031929 1.9495027 -0.29992479
-7.6910348 2.996825 0
-16.011442 6.2388864 0.95983285
-4.70013 1.8248754 -0.84056717
-4.7520342 1.8450278 -0.5681892
-5.0346122 1.9547416 -0.30166647
-0 0 0
-16.01897 6.2195354 0.95983285
-4.7238765 1.8275299 -0.84441847
-4.734962 1.8318187 -0.56588286
-5.0442338 1.9514668 -0.30210146
-0 0 0
-16.016779 6.1964245 0.9592523
-4.6949449 1.8098183 -0.83885533
-4.729939 1.8233078 -0.56501877
-5.0417433 1.943503 -0.30181149
-0 0 0
-16.012135 6.1723948 0.95852673
-4.7115111 1.8096684 -0.84142393
-4.7369628 1.8194443 -0.56559485
-5.0222592 1.9290253 -0.30050537
-0 0 0
-16.014734 6.1511812 0.95823675
-4.7400599 1.8140645 -0.84613037
-4.7584829 1.8211151 -0.56790113
-5.0415673 1.9294541 -0.30152091
-0 0 0
-16.010023 6.127183 0.95751119
-4.7147837 1.8011261 -0.84142393
-4.7499175 1.8145478 -0.56674802
-5.0451665 1.9273378 -0.30166647
-0 0 0
-16.004013 6.1138005 0.95693064
-4.7073598 1.7917751 -0.83971208
-4.7593608 1.8115684 -0.56761312
-5.0693455 1.9295586 -0.30297258
-0 0 0
-16.001675 6.0907607 0.95635009
-4.7167153 1.7888141 -0.84099478
-4.7639623 1.8067325 -0.56790113
-5.1105466 1.9381747 -0.30529481
-0 0 0
-16.001732 6.0686564 0.9559145
-4.7428913 1.7921892 -0.84527522
-4.7492027 1.7945743 -0.56588286
-5.0618424 1.9127108 -0.30224702
-0 0 0
-16.001759 6.0465603 0.95547897
-4.7354436 1.7828392 -0.84356338
-4.7537956 1.7897484 -0.56617194
-5.0665793 1.9075079 -0.30239204
-0 0 0
-16.006622 6.0263066 0.95533395
-4.7351933 1.7762152 -0.84313583
-4.7850151 1.794904 -0.56963146
-5.0445466 1.8922566 -0.30094036
-0 0 0
-16.009031 6.0051374 0.95504397
-4.7394714 1.7647669 -0.84313583
-4.7844863 1.7815284 -0.56905431
-5.0929413 1.8963833 -0.30355313
-0 0 0
-16.040535 5.9727769 0.95605952
-4.7440052 1.759931 -0.84356338
-4.7817903 1.7739484 -0.56847829
