# .PCD v0.7 - Point Cloud Data file format
VERSION 0.7
FIELDS x y z
SIZE 4 4 4
TYPE F F F
COUNT 1 1 1
WIDTH 1570
HEIGHT 1
VIEWPOINT 0 0 0 1 0 0 0
POINTS 1570
DATA ascii
4.4912233 -2.957957 -0.30038267
4.3575444 -2.8699148 0
3.6882405 -2.4291058 0.24667743
0 -0 -0
2.1008916 -1.3800279 -0.69349688
2.3806272 -1.5637797 -0.63098246
2.7576818 -1.8114583 -0.55006087
3.2795837 -2.1542838 -0.43735704
4.4926248 -2.9511027 -0.30023766
4.3457804 -2.8546441 0
3.689003 -2.4232221 0.24653244
0 -0 -0
2.0710859 -1.3568698 -0.68311644
2.3973947 -1.5706505 -0.63492322
2.7577152 -1.8067141 -0.54963166
3.2843456 -2.1517355 -0.43764505
4.5092325 -2.9542189 -0.30110878
5.6095948 -3.6751199 0
3.6854057 -2.4144895 0.24609688
0 -0 -0
2.0769203 -1.3571082 -0.68449944
2.378016 -1.5538511 -0.62929326
2.7491534 -1.796361 -0.54749227
3.28478 -2.1463521 -0.43735704
4.5193181 -2.953028 -0.30154377
5.6009636 -3.6598003 0
3.6622176 -2.3929784 0.2443552
0 -0 -0
2.0911736 -1.3628188 -0.68865377
2.3841534 -1.5537539 -0.63042015
2.7513218 -1.7930379 -0.54749227
3.2873712 -2.1423814 -0.43735704
4.5228829 -2.9475653 -0.30154377
3.7717984 -2.4580829 0
4.6425176 -3.0255311 0.30951989
0 -0 -0
2.0907092 -1.35892 -0.68795961
2.3817639 -1.5480999 -0.62929326
2.7556367 -1.7911098 -0.54791981
3.2812829 -2.1327693 -0.43620387
4.5199118 -2.9378538 -0.30110878
3.7485809 -2.4365039 0
4.6374555 -3.014255 0.30893934
0 -0 -0
2.0986671 -1.3604881 -0.69003677
2.3921611 -1.5507494 -0.63154483
2.7664151 -1.7933644 -0.54963166
3.2860258 -2.1302087 -0.43649188
4.5147367 -2.9267364 -0.30052823
3.7602572 -2.4376354 0
4.6498156 -3.0143032 0.30951989
0 -0 -0
2.1045189 -1.360673 -0.69141972
2.3897698 -1.5451014 -0.63042015
2.76858 -1.7900205 -0.54963166
3.2864273 -2.1248336 -0.43620387
4.5248098 -2.9255075 -0.30096322
3.7435327 -2.4203742 0
3.7021055 -2.3935897 0.24624188
0 -0 -0
2.0956213 -1.3513324 -0.68795961
2.3852267 -1.5380803 -0.62873095
2.7578006 -1.7783294 -0.54706472
3.2976873 -2.1264679 -0.43735704
4.5021443 -2.9031451 -0.29922211
3.750833 -2.4186726 0
3.7028134 -2.3877077 0.24609688
0 -0 -0
2.1246815 -1.3664395 -0.69695705
2.402045 -1.5448194 -0.63267165
2.7664266 -1.7791629 -0.54834902
3.3089559 -2.128078 -0.43851021
4.5078321 -2.8991072 -0.2993671
3.7384284 -2.4042833 0
6.2800751 -4.0388842 0.41706252
0 -0 -0
2.1094375 -1.3530353 -0.69141972
2.3932102 -1.5350528 -0.62985563
2.7685745 -1.7758189 -0.54834902
3.30935 -2.122683 -0.4382222
4.4982047 -2.8852382 -0.29849598
3.7238059 -2.3885236 0
6.2718234 -4.0228729 0.41619143
0 -0 -0
2.0899415 -1.3369687 -0.68449944
2.4036248 -1.5376369 -0.6321072
2.7642286 -1.7683209 -0.54706472
3.3184426 -2.1228604 -0.43908623
4.4929318 -2.8741999 -0.29791543
3.7025721 -2.3685942 0
6.272306 -4.0124936 0.41590142
0 -0 -0
2.1000154 -1.3398399 -0.68726808
2.3883445 -1.5237981 -0.62760407
2.7642014 -1.7636002 -0.54663712
3.3253703 -2.121634 -0.43966338
4.513926 -2.8799498 -0.29907656
3.7164075 -2.3711214 0
6.2661991 -3.997925 0.41517586
0 -0 -0
2.0910518 -1.3305687 -0.68380797
2.3923337 -1.5222791 -0.62816858
2.7619946 -1.7575001 -0.54578036
3.3475688 -2.13011 -0.44225773
4.4998646 -2.8633337 -0.29791543
3.7390289 -2.3792021 0
6.2710252 -3.9903507 0.41517586
0 -0 -0
2.1201928 -1.3455153 -0.69280541
2.3963149 -1.5207475 -0.62873095
2.7792904 -1.7637913 -0.54877657
3.3741646 -2.14131 -0.44542924
4.5033212 -2.8578944 -0.29791543
3.7309163 -2.3677115 0
6.2648745 -3.9758103 0.41445029
0 -0 -0
2.1019361 -1.3321486 -0.6865766
2.397233 -1.5192995 -0.62873095
2.7846878 -1.7648576 -0.54963166
3.386379 -2.1461926 -0.44687042
4.5028543 -2.8537836 -0.29777044
3.7389343 -2.3696325 0
6.2716608 -3.9748039 0.41474029
0 -0 -0
2.0950615 -1.324246 -0.68380797
2.38833 -1.5096152 -0.62591708
2.7694588 -1.7505189 -0.54620796
3.4305041 -2.1683524 -0.45234713
4.5019107 -2.8455667 -0.29748043
3.8231885 -2.4165602 0
6.2588873 -3.9561162 0.4135792
0 -0 -0
2.1051493 -1.3270651 -0.6865766
2.4008975 -1.513502 -0.62873095
2.7672329 -1.744436 -0.54535282
3.4703157 -2.1876523 -0.45724782
4.4943571 -2.8331978 -0.29675487
4.1144958 -2.5937374 0
6.2636628 -3.9485507 0.4135792
0 -0 -0
2.1088729 -1.3258544 -0.68726808
2.4005756 -1.5092487 -0.62816858
2.7758605 -1.7451915 -0.54663712
3.5058038 -2.204109 -0.4615725
4.4933734 -2.8249965 -0.29646432
4.2410002 -2.6663289 0
6.2596302 -3.9354472 0.41299862
0 -0 -0
2.082844 -1.3059812 -0.67827064
2.4002385 -1.5049933 -0.62760407
2.7714405 -1.7377436 -0.54535282
3.5435259 -2.2218554 -0.46618518
4.4945841 -2.818186 -0.29631931
4.3059564 -2.699913 0
6.2577744 -3.9237385 0.41256306
0 -0 -0
2.1120708 -1.3207543 -0.68726808
2.3999031 -1.5007461 -0.62704176
2.7713637 -1.7330339 -0.54492527
3.548399 -2.2189422 -0.46647319
4.5045977 -2.8168876 -0.29675487
4.3246551 -2.7043631 0
6.2625108 -3.9161742 0.41256306
0 -0 -0
2.0966356 -1.3075806 -0.68173081
2.4038684 -1.4991885 -0.62760407
2.7843444 -1.7364749 -0.54706472
3.5642412 -2.2228627 -0.46820238
4.514606 -2.8155639 -0.29718986
5.6020174 -3.4937351 0
6.2694492 -3.9099834 0.41270864
0 -0 -0
2.0960855 -1.3037225 -0.68103933
2.4056783 -1.4962828 -0.62760407
2.7777214 -1.727686 -0.54535282
3.5823009 -2.2281179 -0.47022071
4.5069747 -2.8032463 -0.29646432
5.5907631 -3.4773405 0
4.2465219 -2.6412499 0.27933201
0 -0 -0
2.1168447 -1.3130895 -0.68726808
2.4096498 -1.4947182 -0.62816858
2.7841656 -1.7270322 -0.54620796
3.5937824 -2.2292416 -0.47137389
4.5103583 -2.7977984 -0.29646432
5.5750585 -3.4582374 0
4.1437287 -2.5703759 0.27236587
0 -0 -0
2.1013615 -1.2999719 -0.68173081
2.4049697 -1.4877939 -0.62647939
2.7840693 -1.7223176 -0.54578036
0 -0 -0
4.5137358 -2.7923465 -0.29646432
5.5504632 -3.4337006 0
4.0694952 -2.5175247 0.26728639
0 -0 -0
2.1029308 -1.2974318 -0.68173081
2.408926 -1.4862198 -0.62704176
2.7817831 -1.7162591 -0.54492527
3.6299722 -2.2395608 -0.47540942
4.5171065 -2.7868905 -0.29646432
5.5213914 -3.4064977 0
4.043788 -2.4948702 0.26539972
0 -0 -0
2.1109092 -1.2988353 -0.68380797
2.4020638 -1.4779818 -0.62479019
2.7926004 -1.7182776 -0.54663712
3.6414871 -2.2405949 -0.47656259
4.5293226 -2.7868772 -0.29704487
5.4900393 -3.3780026 0
4.0158119 -2.4709158 0.2633675
0 -0 -0
2.1167495 -1.2989055 -0.68519098
2.414674 -1.4817216 -0.62760407
2.7859225 -1.7095315 -0.54492527
3.6463943 -2.2375448 -0.4768506
4.5371122 -2.7841177 -0.29733488
4.0568166 -2.489393 0
3.9545701 -2.4266512 0.25915858
0 -0 -0
2.1504173 -1.3159912 -0.69557405
2.4099672 -1.4748278 -0.62591708
2.7901738 -1.7075028 -0.54535282
3.6402707 -2.2277367 -0.47569743
4.5316157 -2.7732134 -0.29675487
4.0842333 -2.4994285 0
3.9552851 -2.420516 0.25901359
0 -0 -0
2.1156034 -1.2911749 -0.68380797
2.4074056 -1.4692647 -0.62479019
2.7834699 -1.6987809 -0.54364097
3.640754 -2.2219903 -0.47540942
4.5305233 -2.7650259 -0.29646432
4.0916977 -2.4972057 0
3.9604228 -2.4170876 0.25915858
0 -0 -0
2.1107309 -1.2847034 -0.68173081
2.4222062 -1.4742838 -0.62816858
2.7986734 -1.7034218 -0.54620796
3.6434362 -2.2175896 -0.47540942
4.5338607 -2.7595494 -0.29646432
4.0969329 -2.4936118 0
4.0055156 -2.4379704 0.26191637
0 -0 -0
2.1101391 -1.2808515 -0.68103933
2.4131274 -1.464765 -0.62535471
2.7919519 -1.6947109 -0.54449606
3.6461132 -2.2131855 -0.47540942
4.5371919 -2.7540691 -0.29646432
4.0332055 -2.4481502 0
4.0328946 -2.4479613 0.26351306
0 -0 -0
2.12027 -1.2834976 -0.68380797
2.4127157 -1.4605285 -0.62479019
2.7896097 -1.6886799 -0.54364097
3.6509953 -2.2101164 -0.47569743
4.5405164 -2.748585 -0.29646432
3.9715984 -2.4041924 0
4.0447326 -2.4484639 0.26409304
0 -0 -0
2.1339226 -1.2900012 -0.68795961
2.4070804 -1.4551309 -0.6231032
2.8016114 -1.6936332 -0.54578036
3.6456957 -2.2038999 -0.4748334
4.5399547 -2.7444983 -0.29631931
3.9463241 -2.3856361 0
4.0439892 -2.4446769 0.26394805
0 -0 -0
2.1204462 -1.2783586 -0.68311644
2.4175413 -1.4574689 -0.62535471
2.7860682 -1.6796436 -0.54235667
3.654995 -2.2034955 -0.47569743
4.5432673 -2.7390106 -0.29631931
3.9447505 -2.3781812 0
4.0002108 -2.4116166 0.26090026
0 -0 -0
2.1069367 -1.2667453 -0.67827064
2.4214759 -1.4558547 -0.62591708
2.794698 -1.6802454 -0.54364097
3.6421444 -2.1897523 -0.47368023
4.5398908 -2.729501 -0.29588374
3.9342344 -2.3653646 0
4.0231619 -2.4188302 0.26220638
0 -0 -0
2.1127648 -1.2667763 -0.67965364
2.4166937 -1.4490066 -0.62422788
2.8011253 -1.679505 -0.54449606
3.6514361 -2.1893363 -0.47454426
4.5387325 -2.7213435 -0.29559377
3.9460177 -2.3659623 0
4.0082617 -2.4032826 0.26104581
0 -0 -0
2.1099918 -1.2616501 -0.67827064
2.4271657 -1.4513013 -0.62647939
2.8009515 -1.674803 -0.54406852
3.6540787 -2.1849227 -0.47454426
4.5442457 -2.7171896 -0.29573876
3.9578083 -2.3665349 0
3.9910848 -2.3864322 0.25973916
0 -0 -0
2.1093619 -1.257816 -0.67757916
2.4180081 -1.4418621 -0.62366551
2.7919509 -1.6648449 -0.54192907
3.650058 -2.1765356 -0.47368023
4.5475254 -2.7116969 -0.29573876
3.971839 -2.3684142 0
3.9828086 -2.3749552 0.25901359
0 -0 -0
2.1173429 -1.2591095 -0.67965364
2.4197485 -1.4389393 -0.62366551
2.7917564 -1.6601593 -0.54150152
3.6460137 -2.1681564 -0.47281507
4.5329313 -2.695575 -0.29457763
4.0172005 -2.3888881 0
4.0013113 -2.3794391 0.2600297
0 -0 -0
2.1059198 -1.2488745 -0.675502
2.4302273 -1.4411987 -0.62591708
2.7937603 -1.6567849 -0.54150152
3.6553073 -2.1677084 -0.47368023
4.5272455 -2.6847942 -0.29399708
4.1140962 -2.439784 0
4.0175891 -2.3825526 0.26090026
0 -0 -0
2.111742 -1.2488807 -0.67688501
2.4429002 -1.4447271 -0.62873095
2.8134367 -1.6638619 -0.54492527
3.6534669 -2.1606543 -0.47310308
4.5193052 -2.6727097 -0.29327151
4.1730409 -2.4679296 0
4.0405922 -2.3895996 0.26220638
0 -0 -0
2.091644 -1.2335861 -0.66996473
2.4337029 -1.4353217 -0.62591708
2.7999649 -1.6513314 -0.54192907
3.656075 -2.1562383 -0.47310308
4.4979091 -2.6527257 -0.29167485
4.1737719 -2.4615595 0
4.0501933 -2.3886769 0.26264194
0 -0 -0
2.101783 -1.2361451 -0.67273337
2.4332476 -1.4310931 -0.62535471
2.7975371 -1.6453466 -0.54107398
3.654223 -2.149199 -0.47252706
4.4921522 -2.6420195 -0.2910943
5.2041159 -3.060755 0
4.037396 -2.3745589 0.26162583
0 -0 -0
2.1530497 -1.2627982 -0.68865377
2.4349749 -1.4281518 -0.62535471
2.8150167 -1.6510526 -0.54406852
3.6545885 -2.1434748 -0.47223905
4.5087938 -2.64448 -0.29196543
5.180872 -3.0386648 0
4.0156136 -2.355222 0.2600297
0 -0 -0
2.1199253 -1.2399299 -0.67757916
2.4257259 -1.4187908 -0.62253869
2.7992828 -1.6372815 -0.54064476
3.6616366 -2.1416667 -0.47281507
4.5030136 -2.6337824 -0.29138485
5.1620712 -3.0192604 0
4.0229383 -2.3529894 0.26031971
0 -0 -0
2.1279168 -1.2411559 -0.67965364
2.4318326 -1.4184215 -0.62366551
2.801259 -1.633898 -0.54064476
3.6597576 -2.1346369 -0.47223905
4.5129199 -2.6322632 -0.29181984
5.1432395 -2.9999113 0
4.0123153 -2.3402741 0.25944915
0 -0 -0
2.1771283 -1.2663366 -0.69488257
2.4181678 -1.4065381 -0.61972481
2.8076735 -1.6330959 -0.54150152
3.6645679 -2.1315124 -0.47252706
4.5385628 -2.6398754 -0.29327151
5.1041241 -2.9688365 0
4.0128961 -2.3341191 0.25930414
0 -0 -0
2.1200614 -1.2297173 -0.67619354
2.463824 -1.4291128 -0.63098246
2.8163085 -1.6335675 -0.54278582
3.6604266 -2.1231885 -0.4716619
4.5462403 -2.6369946 -0.29356152
5.0761862 -2.9443836 0
4.0179591 -2.3305712 0.25944915
1.8880099 -1.0920718 -0.71917677
2.1562922 -1.2472528 -0.68726808
2.4391556 -1.410868 -0.62422788
2.8205004 -1.6314473 -0.54321343
3.6629894 -2.1187639 -0.4716619
4.5516791 -2.6328042 -0.29370707
5.0504565 -2.9213092 0
4.0185251 -2.3244147 0.25930414
0 -0 -0
2.1317196 -1.2296044 -0.67896217
2.4188528 -1.3952266 -0.61860013
2.8224695 -1.6280382 -0.54321343
3.6655467 -2.1143365 -0.4716619
4.5458536 -2.6221092 -0.29312652
5.0427127 -2.9087043 0
4.0325828 -2.3260477 0.2600297
0 -0 -0
2.1310313 -1.2257781 -0.67827064
2.4249377 -1.3948343 -0.61972481
2.8199799 -1.6220642 -0.54235667
3.6680989 -2.1099057 -0.4716619
4.5377502 -2.6101329 -0.29240042
5.0349464 -2.896122 0
4.0218716 -2.3133974 0.25915858
0 -0 -0
2.1687517 -1.2457318 -0.69003677
2.4390039 -1.4009649 -0.6231032
2.8165116 -1.6178055 -0.54150152
3.6648915 -2.1051152 -0.47108588
4.5325732 -2.6035118 -0.29196543
5.0276685 -2.8878946 0
4.0300303 -2.314851 0.25959414
1.881047 -1.074437 -0.71428853
2.1260104 -1.2143579 -0.675502
2.4445865 -1.3963257 -0.62366551
2.8159506 -1.6084454 -0.54064476
3.6677158 -2.0949659 -0.47079673
4.5275722 -2.5861082 -0.29123986
5.0165539 -2.8654099 0
4.0265875 -2.2999501 0.25901359
1.8200641 -1.0366894 -0.69065535
2.1405518 -1.2192358 -0.67965364
2.4264033 -1.3820539 -0.61860013
2.83128 -1.6126673 -0.54321343
3.6702445 -2.0905325 -0.47079673
4.5306935 -2.5806355 -0.29123986
5.013226 -2.8554809 0
4.0338836 -2.2976577 0.25930414
1.8707391 -1.0625616 -0.7093972
2.1420233 -1.2166485 -0.67965364
2.4302788 -1.3803747 -0.61916244
2.8198295 -1.6016357 -0.54064476
3.6750231 -2.0873775 -0.47108588
4.5270281 -2.5713079 -0.2908043
5.0166726 -2.8494213 0
4.0343909 -2.2914948 0.25915858
1.8806241 -1.0651728 -0.71265703
2.1413112 -1.2128241 -0.67896217
2.4407885 -1.3824462 -0.62141401
2.8240027 -1.5994961 -0.54107398
3.6707888 -2.0791101 -0.47022071
4.5188289 -2.5594344 -0.29007873
5.0178499 -2.8420763 0
4.0394244 -2.2879028 0.25930414
1.8474848 -1.0434566 -0.69962072
2.1384103 -1.2077707 -0.67757916
2.4380281 -1.3769944 -0.62028712
2.8259332 -1.5960827 -0.54107398
3.6732984 -2.0746732 -0.47022071
4.5196495 -2.5526907 -0.28993317
5.0122161 -2.8308916 0
4.0286064 -2.2753506 0.25843304
1.8831927 -1.060625 -0.71265703
2.1442358 -1.2076459 -0.67896217
2.4507661 -1.3802855 -0.6231032
2.8256166 -1.5914035 -0.54064476
3.6667879 -2.065156 -0.46906754
4.5136743 -2.5421274 -0.28935263
5.0178981 -2.8261092 0
4.0381474 -2.2743077 0.2588686
1.9469659 -1.0934458 -0.73629028
2.1325731 -1.1976856 -0.67481053
2.4347086 -1.3673695 -0.61860013
2.8185844 -1.58296 -0.53893292
3.6692805 -2.060724 -0.46906754
4.5031533 -2.5290396 -0.28848207
5.0213094 -2.820044 0
4.0590172 -2.2796059 0.2600297
1.9051565 -1.0669389 -0.71999097
2.1602855 -1.209818 -0.68311644
2.4474416 -1.3706331 -0.62141401
2.8204951 -1.5795531 -0.53893292
3.671768 -2.056289 -0.46906754
4.5016761 -2.5210598 -0.28819206
5.0269904 -2.8152499 0
4.073102 -2.2810469 0.26075527
1.9172401 -1.0706649 -0.72406811
2.1288881 -1.1888578 -0.67273337
2.4446549 -1.3651948 -0.62028712
2.8201625 -1.5748936 -0.53850538
3.6719937 -2.0505908 -0.46877953
4.4933691 -2.5092802 -0.28746596
5.0258398 -2.8066335 0
4.0917382 -2.2849932 0.26177138
1.9206897 -1.0695488 -0.7248823
2.1566253 -1.2009311 -0.68103933
2.4574087 -1.3684244 -0.6231032
2.828794 -1.5752327 -0.53978968
3.6767266 -2.0474095 -0.46906754
4.4782362 -2.4937356 -0.28630483
5.0428739 -2.8081579 0
4.112658 -2.2901609 0.26293251
1.9349414 -1.0744241 -0.72977054
2.1405282 -1.1885812 -0.675502
2.4590604 -1.3654541 -0.6231032
2.8306952 -1.5718136 -0.53978968
3.6769385 -2.0417111 -0.46877953
4.4539943 -2.4731903 -0.28456372
5.0371623 -2.797009 0
4.1335869 -2.2952764 0.26409304
1.871374 -1.0361704 -0.70532316
2.1353762 -1.1823471 -0.67342484
2.4740415 -1.3698642 -0.62647939
2.8415756 -1.573366 -0.54150152
3.6748731 -2.0347586 -0.46820238
4.4546995 -2.4665444 -0.28441817
5.0359802 -2.7883968 0
4.1681871 -2.3079042 0.26612529
1.8964278 -1.0470505 -0.71428853
2.1631584 -1.1943171 -0.68173081
2.4645751 -1.3607345 -0.62366551
2.823251 -1.5587656 -0.53765023
3.6818619 -2.0328195 -0.46877953
4.4463048 -2.4548817 -0.2836926
5.0325089 -2.7785349 0
4.1891708 -2.3129137 0.26728639
1.8868678 -1.0387993 -0.7102145
2.1558089 -1.1868627 -0.67896217
2.4550903 -1.3516295 -0.62085164
2.8386209 -1.5627791 -0.54021722
3.6911063 -2.0321078 -0.46964356
4.453825 -2.4520161 -0.28398317
5.0221877 -2.7649236 0
4.2169952 -2.3216314 0.26888251
1.9206144 -1.0543562 -0.72243661
2.1462479 -1.1782217 -0.675502
2.4322188 -1.3352107 -0.61465937
2.8337541 -1.5556408 -0.53893292
3.6822248 -2.0214241 -0.46820238
4.4567842 -2.4466326 -0.28398317
5.0300837 -2.7613556 0
4.2562423 -2.3365414 0.27120474
1.8785262 -1.0282992 -0.7061373
2.1344702 -1.1684021 -0.67135036
2.4583495 -1.3456925 -0.62085164
2.8356318 -1.5522157 -0.53893292
3.6823978 -2.0157328 -0.46791437
4.4665685 -2.4449852 -0.28441817
5.0357056 -2.7565291 0
4.2385507 -2.320169 0.26989862
1.9274999 -1.0520823 -0.72406811
2.1402805 -1.1682237 -0.67273337
2.4510527 -1.3378518 -0.61860013
2.8307519 -1.5451021 -0.53765023
3.691644 -2.0150006 -0.46877953
4.4786429 -2.4445662 -0.28499871
5.0413151 -2.751688 0
4.229949 -2.3088224 0.26917309
1.9244237 -1.0473872 -0.72243661
2.1350777 -1.1620377 -0.6706562
2.4682832 -1.3433882 -0.62253869
2.837122 -1.5441325 -0.53850538
3.689528 -2.0080631 -0.46820238
4.4815936 -2.4391527 -0.28499871
5.0354929 -2.7406182 0
4.2236066 -2.2987409 0.26859251
1.8729374 -1.017899 -0.70287746
2.146807 -1.1667409 -0.674119
2.440074 -1.3261249 -0.61522174
2.8403077 -1.5436429 -0.53893292
3.6952899 -2.0083063 -0.46877953
4.4853559 -2.4376893 -0.28514427
5.0325785 -2.7350924 0
4.2409697 -2.3048708 0.26960808
1.8763453 -1.0168161 -0.70369476
2.1437995 -1.1617532 -0.67273337
2.4483786 -1.3268086 -0.61691093
2.8421707 -1.5402098 -0.53893292
3.6908896 -2.0001416 -0.46791437
4.4860067 -2.4310262 -0.28499871
5.0450234 -2.7339647 0
4.2917252 -2.3257422 0.27265587
1.8927875 -1.0227697 -0.7093972
2.1694827 -1.1722821 -0.6803478
2.4723301 -1.3359261 -0.62253869
2.834996 -1.531893 -0.53722101
3.6887569 -1.9932235 -0.46733835
4.4889412 -2.4256039 -0.28499871
5.0437484 -2.7253947 0
4.3356853 -2.342792 0.27526864
1.9157848 -1.0322075 -0.71754843
2.1532288 -1.1601402 -0.67481053
2.4627602 -1.3269129 -0.61972481
2.8504088 -1.5357745 -0.53978968
3.6820548 -1.9838576 -0.46618518
4.4850125 -2.4164841 -0.28456372
3.8076108 -2.051506 0
4.416285 -2.3794544 0.2802031
1.9039627 -1.0228714 -0.71265703
2.152421 -1.1563513 -0.674119
2.4554083 -1.3191261 -0.61747324
2.8386898 -1.5250374 -0.53722101
3.6776114 -1.9757338 -0.46532002
4.4764776 -2.4049108 -0.28383759
3.8421788 -2.0641448 0
4.9364476 -2.6520219 0.31300268
1.9073822 -1.0217406 -0.71347433
2.1582353 -1.1561167 -0.675502
2.463722 -1.3197588 -0.61916244
2.836009 -1.5191844 -0.53636593
3.6845515 -1.9737289 -0.46589604
4.4633532 -2.3909149 -0.28282204
3.858439 -2.0668764 0
4.9969091 -2.6767285 0.31663105
1.9064291 -1.0182673 -0.71265703
2.1596308 -1.1535081 -0.675502
2.4697931 -1.3191727 -0.62028712
2.8514242 -1.5230107 -0.53893292
3.6869338 -1.9692755 -0.46589604
4.4524822 -2.3781724 -0.28195092
3.8586402 -2.0609877 0
5.0047283 -2.6731396 0.31692159
1.8945731 -1.0089943 -0.7077688
2.1610229 -1.1508977 -0.675502
2.4736342 -1.3173854 -0.62085164
2.8464715 -1.5159476 -0.53765023
3.6870298 -1.9636045 -0.46560803
4.4484787 -2.3691299 -0.28151593
3.845046 -2.0477593 0
5.0331764 -2.6805227 0.31851771
1.9154351 -1.0171359 -0.71510273
2.2022913 -1.1694623 -0.68795961
2.4707317 -1.3120099 -0.61972481
2.8528314 -1.5149127 -0.53850538
3.6893997 -1.9591479 -0.46560803
4.4490366 -2.3625309 -0.28137037
3.8130376 -2.0248022 0
5.031826 -2.6720042 0.31822771
1.8467644 -0.97781146 -0.68902385
2.1904039 -1.1597592 -0.68380797
2.4655764 -1.3054556 -0.61803561
2.8410518 -1.5042596 -0.53593838
3.682621 -1.9498475 -0.46445486
4.4541912 -2.3583727 -0.28151593
3.7993879 -2.0116725 0
5.0419335 -2.6695664 0.3186627
1.9506754 -1.0298136 -0.727328
2.1518734 -1.1360314 -0.67135036
2.4626622 -1.3001052 -0.61691093
2.8451355 -1.5020229 -0.53636593
3.6849742 -1.9453963 -0.46445486
4.4501414 -2.3493485 -0.28108037
3.7396741 -1.9742737 0
5.054347 -2.6683247 0.31924325
1.925673 -1.0136408 -0.71754843
2.1554625 -1.1345979 -0.67204189
2.446244 -1.2876604 -0.6124078
2.8446789 -1.4973894 -0.53593838
3.6896088 -1.9421459 -0.46474287
4.4368792 -2.3354962 -0.28006425
3.7144215 -1.9552069 0
5.0575676 -2.6622155 0.31924325
1.8853128 -0.98948848 -0.70206326
2.174603 -1.1413198 -0.67757916
2.4590452 -1.2906065 -0.61522174
2.8487568 -1.4951429 -0.53636593
3.6919527 -1.9376863 -0.46474287
4.435101 -2.3277206 -0.27977425
3.7259989 -1.9555551 0
5.0653868 -2.65852 0.31953382
1.8930788 -0.99064875 -0.70450896
2.1670892 -1.1340384 -0.67481053
2.4786131 -1.2970591 -0.61972481
2.8505614 -1.4916997 -0.53636593
3.687423 -1.9296297 -0.46387884
4.4356103 -2.3211563 -0.27962926
3.7514222 -1.9631205 0
5.0708952 -2.6536012 0.31967881
1.9096154 -0.99636495 -0.7102145
2.148442 -1.1209757 -0.66858172
2.462157 -1.2846602 -0.61522174
2.8455317 -1.4846907 -0.53508162
3.6782885 -1.9191916 -0.46243766
4.4337997 -2.3133886 -0.27933869
3.7745552 -1.9694198 0
5.083313 -2.6522801 0.32025939
1.9108179 -0.99405682 -0.7102145
2.1742704 -1.1311116 -0.67619354
2.472724 -1.2863748 -0.61747324
2.8496077 -1.4824394 -0.53551084
3.6874819 -1.9183233 -0.46330169
4.4365916 -2.3080297 -0.27933869
3.8046372 -1.9792706 0
5.0911288 -2.6485367 0.32054994
1.9251776 -0.99857318 -0.71510273
2.1578195 -1.1192425 -0.6706562
2.4562321 -1.2740266 -0.61297017
2.8582265 -1.4825377 -0.53679347
3.6966872 -1.9174402 -0.46416685
4.430151 -2.2978816 -0.27875814
3.8255076 -1.9842583 0
5.0920119 -2.6411831 0.32040438
1.904433 -0.98489475 -0.70695466
2.1814585 -1.1281611 -0.67757916
2.4532602 -1.2687258 -0.61184549
2.8577378 -1.4779049 -0.53636593
3.692107 -1.9094065 -0.46330169
4.4259977 -2.2889447 -0.27832258
3.8279026 -1.9796344 0
5.0998201 -2.637418 0.32069495
1.9225963 -0.99281633 -0.71347433
2.1553905 -1.1130297 -0.6692732
2.4720874 -1.2765701 -0.61634856
2.844949 -1.4691133 -0.53379893
3.6955557 -1.9083612 -0.4635897
4.4204602 -2.2826972 -0.27788758
3.8406575 -1.9832908 0
5.1129541 -2.6402967 0.32142049
1.9150047 -0.98596698 -0.7102145
2.1611905 -1.1127192 -0.6706562
2.4962144 -1.2852108 -0.62197632
2.8604116 -1.472723 -0.53636593
3.6909668 -1.9003459 -0.46272567
4.4232149 -2.2773542 -0.27788758
3.8314843 -1.9726932 0
5.1299977 -2.6412511 0.32229105
1.896399 -0.97349048 -0.70287746
2.1915457 -1.125 -0.67965364
2.48194 -1.27407 -0.61803561
2.8462007 -1.4610583 -0.53336972
3.6909616 -1.8947046 -0.46243766
4.4236541 -2.2708223 -0.27774256
3.7667246 -1.9335966 0
5.1516786 -2.6445439 0.32345217
1.9437755 -0.99484485 -0.71999097
2.159411 -1.1052094 -0.6692732
2.4834778 -1.2710701 -0.61803561
2.8525388 -1.4599595 -0.53422648
3.6863387 -1.8867071 -0.4615725
4.4263949 -2.2654755 -0.27774256
3.6671236 -1.8768725 0
4.2389388 -2.1695335 0.26598027
1.9163584 -0.9778921 -0.7093972
2.2054377 -1.1254054 -0.68311644
2.4782286 -1.2646071 -0.61634856
2.856585 -1.4576774 -0.53465408
3.6909173 -1.883426 -0.46186051
4.4198709 -2.2554011 -0.27716202
3.6160784 -1.8452367 0
4.317925 -2.2033796 0.27076918
1.9109361 -0.97221684 -0.70695466
2.1866653 -1.112498 -0.67688501
2.4729586 -1.258154 -0.61465937
2.8537729 -1.4518988 -0.53379893
3.6793633 -1.87193 -0.46013132
4.4133291 -2.2453461 -0.27658147
3.6090271 -1.8361455 0
4.3738532 -2.2252622 0.27410755
1.9363499 -0.98220295 -0.71591693
2.2081509 -1.1200725 -0.68311644
2.4948692 -1.2655089 -0.61972481
2.8578122 -1.4496096 -0.53422648
3.7000759 -1.8768433 -0.46243766
4.3882303 -2.2259059 -0.27483979
3.6135619 -1.8329595 0
4.3881235 -2.2258518 0.27483308
1.9287128 -0.97540081 -0.71265703
2.1692007 -1.0970218 -0.6706562
2.475992 -1.2521741 -0.61465937
2.8595617 -1.4461555 -0.53422648
3.6907938 -1.8665315 -0.46099535
4.3839583 -2.217083 -0.27440423
3.6227434 -1.8321165 0
4.3560257 -2.2029567 0.27265587
1.9034067 -0.95971644 -0.70287746
2.1705246 -1.0943999 -0.6706562
2.4843116 -1.2526145 -0.61634856
2.8773458 -1.4507861 -0.53722101
3.6953626 -1.8632383 -0.46128449
4.3912787 -2.2141261 -0.2746948
3.6156592 -1.8230511 0
4.333169 -2.1848266 0.27105975
1.9310644 -0.97073698 -0.71265703
2.1628795 -1.0872693 -0.66788757
2.4790106 -1.246187 -0.61465937
2.8607566 -1.438089 -0.53379893
3.6999199 -1.8599324 -0.4615725
4.3985896 -2.2111504 -0.27498478
3.6294832 -1.8245242 0
4.3265195 -2.174921 0.2704792
1.9123515 -0.9584372 -0.70532316
2.1552203 -1.0801588 -0.66511893
2.4850533 -1.2454654 -0.61578405
2.8647852 -1.4357804 -0.53422648
3.7044747 -1.8566182 -0.46186051
4.4012585 -2.2058339 -0.27498478
3.6223786 -1.8154731 0
4.3221726 -2.1661978 0.27004364
1.9510924 -0.97490561 -0.71917677
2.1632586 -1.080919 -0.66719609
2.4911067 -1.2447355 -0.61691093
2.8711061 -1.4346105 -0.53508162
3.6905172 -1.8440468 -0.45984218
4.3946228 -2.1958685 -0.27440423
3.64552 -1.821563 0
4.3271093 -2.1621339 0.27018863
1.92794 -0.96042764 -0.7102145
2.1757886 -1.0838966 -0.6706562
2.4857838 -1.2383245 -0.61522174
2.870542 -1.4299966 -0.53465408
3.6881168 -1.8372818 -0.45926616
4.3972726 -2.1905568 -0.27440423
3.6989708 -1.8426889 0
4.3297186 -2.156904 0.27018863
1.9290991 -0.9580974 -0.7102145
2.1501427 -1.0678798 -0.66235292
2.4872782 -1.2353201 -0.61522174
2.8745646 -1.4276679 -0.53508162
3.6856966 -1.830521 -0.458689
4.3999162 -2.1852419 -0.27440423
3.7361507 -1.8555793 0
4.3299966 -2.150516 0.27004364
1.9280341 -0.95466584 -0.7093972
2.1829026 -1.080864 -0.67204189
2.491044 -1.2334402 -0.61578405
2.871691 -1.4219176 -0.53422648
3.6879058 -1.8260661 -0.458689
4.393239 -2.1753118 -0.27382368
3.7547181 -1.8591483 0
4.3349185 -2.1464343 0.27018863
1.9380512 -0.95671171 -0.71265703
2.1887019 -1.0804445 -0.67342484
2.4834275 -1.2259347 -0.61353469
2.8734071 -1.4184465 -0.53422648
3.6877925 -1.8204648 -0.45840099
4.3842163 -2.164252 -0.27309811
3.7616246 -1.8569119 0
4.3328533 -2.1388967 0.26989862
1.9436454 -0.95655411 -0.71428853
2.1832595 -1.0744789 -0.67135036
2.4940174 -1.2274166 -0.61578405
2.8774199 -1.4161061 -0.53465408
3.6899893 -1.8160076 -0.45840099
4.3844991 -2.1578066 -0.27295312
3.7638655 -1.8523653 0
4.3331051 -2.1325135 0.26975363
1.9115139 -0.93787342 -0.70206326
2.2228427 -1.0906252 -0.68311644
2.4954987 -1.2244022 -0.61578405
2.8653057 -1.4058459 -0.53208709
3.680573 -1.8058523 -0.45695981
4.3754416 -2.1467855 -0.27222756
3.7707784 -1.850111 0
4.3356791 -2.1272762 0.26975363
1.9259714 -0.94208121 -0.70695466
2.2038698 -1.0780141 -0.67688501
2.4878552 -1.2169244 -0.61353469
2.8670022 -1.4023827 -0.53208709
3.6850736 -1.8025391 -0.45724782
4.3546863 -2.1300774 -0.27077588
3.7589798 -1.83869 0
6.1027884 -2.9851549 0.37947351
1.9271083 -0.93975335 -0.70695466
2.2006652 -1.0731534 -0.675502
2.4893239 -1.2139175 -0.61353469
2.8756101 -1.4022897 -0.53336972
3.696548 -1.8026198 -0.45840099
4.3198881 -2.1065912 -0.26845366
3.7986257 -1.8523979 0
6.1017156 -2.9754984 0.37918293
1.9032294 -0.92668599 -0.69798923
2.1990597 -1.0707264 -0.67481053
2.4877656 -1.2112978 -0.61297017
2.871845 -1.3983068 -0.53251463
3.6953132 -1.799255 -0.45811298
4.2954679 -2.0914714 -0.26685753
3.8582389 -1.8785838 0
4.3397422 -2.1130285 0.26960808
1.9554818 -0.94920653 -0.71673107
2.1710141 -1.0538276 -0.66581309
2.4938035 -1.2105122 -0.614097
2.8735325 -1.3948357 -0.53251463
3.6881771 -1.7902707 -0.45695981
4.2816267 -2.0783358 -0.26584142
3.8698709 -1.8784664 0
4.3376212 -2.1055162 0.26931807
1.9254843 -0.93177247 -0.70532316
2.1903517 -1.0599461 -0.67135036
2.5021193 -1.2108153 -0.61578405
2.8729074 -1.3902454 -0.53208709
3.6856856 -1.7835618 -0.45638379
4.3005099 -2.081085 -0.26685753
3.8159149 -1.8465818 0
4.3401623 -2.1002734 0.26931807
1.9221609 -0.92729938 -0.70369476
2.1758118 -1.0496671 -0.66650456
2.5012941 -1.206688 -0.61522174
2.8699565 -1.3845402 -0.53123033
3.6831746 -1.7768573 -0.45580664
4.3240819 -2.0860474 -0.26816365
3.7900155 -1.8284 0
4.34972 -2.0984159 0.26975363
1.9410992 -0.93354607 -0.7102145
2.2019506 -1.0589991 -0.674119
2.505038 -1.2047651 -0.61578405
2.8693161 -1.3799598 -0.53080279
3.689985 -1.7746497 -0.45638379
4.3265996 -2.080821 -0.26816365
3.7969172 -1.8260773 0
4.3405461 -2.0875287 0.26902807
1.8976519 -0.90982908 -0.69391519
2.1873908 -1.0487443 -0.6692732
2.4973361 -1.1973475 -0.61353469
2.8848655 -1.3831486 -0.53336972
3.6944568 -1.771307 -0.4566718
4.3267698 -2.0744693 -0.26801866
3.7991209 -1.8214881 0
4.333693 -2.0777888 0.26844752
1.9009777 -0.90860027 -0.69472939
2.1660259 -1.0352839 -0.66235292
2.4964819 -1.1932303 -0.61297017
2.8772702 -1.3752337 -0.53165787
3.694263 -1.7657274 -0.45638379
4.3292732 -2.0692399 -0.26801866
3.8107114 -1.8213855 0
4.3385429 -2.0736704 0.26859251
1.9277281 -0.9156698 -0.70369476
2.1866415 -1.0386535 -0.66788757
2.503953 -1.1893762 -0.614097
2.8782687 -1.3671761 -0.53123033
3.6915081 -1.7534643 -0.45551863
4.3272176 -2.0554259 -0.2675831
3.8574114 -1.8322682 0
4.350585 -2.0665255 0.26902807
1.9176661 -0.90805203 -0.69962072
2.1810992 -1.0327927 -0.66581309
2.5099766 -1.1885226 -0.61522174
2.8822365 -1.3647949 -0.53165787
3.6842735 -1.7445749 -0.45436546
4.3250055 -2.0479739 -0.2672931
3.8996062 -1.8465391 0
4.3601174 -2.0646 0.26946306
1.9142874 -0.90362209 -0.69798923
2.1868787 -1.0322963 -0.66719609
2.5022199 -1.1811503 -0.61297017
2.8676403 -1.3536437 -0.52866334
3.6816964 -1.7379116 -0.45378831
4.2992792 -2.0294359 -0.26555142
3.8665392 -1.825165 0
3.6201055 -1.7088381 0.22360124
1.9041982 -0.89604759 -0.69391519
2.1790442 -1.0253805 -0.6644274
2.5128415 -1.1824535 -0.61522174
2.8832057 -1.3567337 -0.53123033
3.6884787 -1.7356664 -0.45436546
4.2758632 -2.0120685 -0.26395476
3.8522558 -1.812734 0
3.6268744 -1.7066776 0.22389179
1.9119945 -0.89689606 -0.69636089
2.1643891 -1.0152917 -0.65958428
2.5027688 -1.174022 -0.6124078
2.8871648 -1.354338 -0.53165787
3.6835461 -1.7279118 -0.4535003
4.2594714 -1.9980724 -0.26279363
3.8567975 -1.8091822 0
3.6218741 -1.6989822 0.22345623
1.9488908 -0.91133237 -0.7093972
2.208787 -1.0328639 -0.67273337
2.5110927 -1.1742269 -0.614097
2.8934543 -1.3530253 -0.53251463
3.6762593 -1.7190773 -0.45234713
4.2548189 -1.989621 -0.26235807
3.882551 -1.8155426 0
3.6121576 -1.6891024 0.22273068
1.9275931 -0.89853638 -0.70124912
2.2259524 -1.0376148 -0.67757916
2.5148106 -1.1722643 -0.61465937
2.8974116 -1.3506117 -0.53294218
3.6713076 -1.7113588 -0.4514831
4.2407408 -1.9767969 -0.26134253
3.8918204 -1.8141496 0
3.5930018 -1.674857 0.22142456
1.9533354 -0.90766454 -0.7102145
2.1862478 -1.0158929 -0.66511893
2.5047059 -1.1638722 -0.61184549
2.8920553 -1.3438634 -0.53165787
3.6757162 -1.7080104 -0.45177111
4.238409 -1.9694792 -0.26105195
3.9034503 -1.8138325 0
4.4904356 -2.0865893 0.27657476
1.9432107 -0.90010649 -0.7061373
2.210242 -1.023797 -0.67204189
2.4991915 -1.15764 -0.6101563
2.9099844 -1.3479216 -0.53465408
3.6801219 -1.7046539 -0.45205912
4.23843 -1.9632654 -0.26090696
3.9410632 -1.8255234 0
4.4623041 -2.0669653 0.27468809
1.9555231 -0.90294147 -0.7102145
2.1955316 -1.0137627 -0.66719609
2.5052066 -1.1567518 -0.61128312
2.9186051 -1.347634 -0.53593838
3.6774871 -1.6980394 -0.4514831
4.245522 -1.9603233 -0.26119751
3.9787011 -1.8371217 0
4.4647985 -2.0615721 0.27468809
1.9296703 -0.88817704 -0.70043492
2.210433 -1.0174048 -0.67135036
2.5019817 -1.1515971 -0.6101563
2.9225609 -1.3451787 -0.53636593
3.6771798 -1.6925101 -0.45119396
4.2431622 -1.953017 -0.26090696
4.0045638 -1.8431964 0
4.4672866 -2.0561757 0.27468809
1.9324503 -0.88804209 -0.70124912
2.1928105 -1.0076886 -0.66581309
2.5142188 -1.1553892 -0.61297017
2.9490335 -1.3552048 -0.54107398
3.6829066 -1.6924504 -0.45177111
4.2396235 -1.9482852 -0.26061696
4.0506001 -1.861421 0
4.4519978 -2.0458801 0.27367198
1.9155453 -0.8774718 -0.69472939
2.1712136 -0.9945882 -0.65889013
2.5340936 -1.160816 -0.61747324
2.9646676 -1.358053 -0.54364097
3.6731937 -1.6826142 -0.45032993
4.2325249 -1.9388324 -0.26003641
4.0670381 -1.8630263 0
5.9781313 -2.7384584 0.36728233
1.9053649 -0.8700245 -0.69065535
2.1929507 -1.0013415 -0.66511893
2.5054491 -1.1440339 -0.6101563
2.9896533 -1.3651304 -0.54791981
3.6681633 -1.6749506 -0.44946477
4.2301326 -1.9315561 -0.25974584
4.0314174 -1.840819 0
5.9885201 -2.734468 0.36771736
1.9064147 -0.86772162 -0.69065535
2.1804631 -0.99245721 -0.66096729
2.5183904 -1.1462678 -0.61297017
3.0263493 -1.3774698 -0.55433971
3.6678326 -1.6694467 -0.44917676
4.2348261 -1.9275188 -0.25989085
3.9767902 -1.8100715 0
5.9823594 -2.7229242 0.36713678
1.9322226 -0.87665141 -0.69962072
2.2067938 -1.0012248 -0.66858172
2.5082064 -1.1379759 -0.6101563
0 -0 -0
3.6627789 -1.6618066 -0.4483116
4.2324243 -1.9202553 -0.25960085
3.9766068 -1.8041908 0
5.9809175 -2.7135487 0.36684677
1.9512879 -0.88245988 -0.7061373
2.1942823 -0.99235284 -0.6644274
2.5257878 -1.1422745 -0.614097
0 -0 -0
3.6742108 -1.6616428 -0.44946477
4.2394719 -1.9172792 -0.25989085
3.9266202 -1.7757937 0
5.9889226 -2.7084591 0.36713678
1.9275736 -0.86893123 -0.69717503
2.2297888 -1.005167 -0.67481053
2.536432 -1.1433986 -0.61634856
0 -0 -0
3.6714954 -1.6550741 -0.44888762
4.2275767 -1.9057502 -0.25902027
3.9477346 -1.7796 0
4.4169688 -1.9911263 0.27062419
1.9646935 -0.88280982 -0.7102145
2.1898155 -0.98396546 -0.66235292
2.5215857 -1.1330421 -0.6124078
0 -0 -0
3.6782155 -1.6527588 -0.44946477
4.2203956 -1.8963805 -0.25843972
3.9309003 -1.7662995 0
4.3885617 -1.9719437 0.26873752
1.9431976 -0.87033033 -0.70206326
2.1864192 -0.97926587 -0.66096729
2.522953 -1.1299944 -0.6124078
3.0627298 -1.3717527 -0.55947536
3.6707678 -1.6440842 -0.4483116
4.2179456 -1.8891574 -0.25814971
3.9425321 -1.7658036 0
4.3696003 -1.9570813 0.26743141
1.9239378 -0.85891461 -0.69472939
2.210505 -0.98684847 -0.66788757
2.5150356 -1.1228019 -0.6101563
3.0714107 -1.3711876 -0.56075799
3.6703923 -1.6385943 -0.44802359
4.2202253 -1.8840594 -0.25814971
3.9090142 -1.7451236 0
4.3411188 -1.9380305 0.26554474
1.9588482 -0.8716628 -0.70695466
2.2277427 -0.99131739 -0.67273337
2.5279956 -1.1249262 -0.61297017
3.0777605 -1.3695647 -0.56161475
3.6699996 -1.6331036 -0.44773445
4.2130027 -1.8747331 -0.25756916
3.9087446 -1.7393421 0
4.3149691 -1.9201069 0.26380306
1.9734517 -0.87530601 -0.71184283
2.2037101 -0.97743493 -0.66511893
2.5316823 -1.1229039 -0.61353469
0 -0 -0
3.6719701 -1.6286678 -0.44773445
4.2081366 -1.8664795 -0.2571336
3.9203591 -1.7388386 0
4.2840366 -1.9001441 0.26177138
1.9790334 -0.8749215 -0.71347433
2.200305 -0.97274464 -0.66373593
2.5237415 -1.1157345 -0.61128312
3.0904527 -1.3662748 -0.56332666
3.6668453 -1.6210954 -0.44687042
4.2056313 -1.8592901 -0.25684306
3.9248354 -1.7351515 0
4.2221599 -1.8665973 0.25785246
1.9552077 -0.86156553 -0.70450896
2.180819 -0.96098155 -0.65750712
2.5181103 -1.1096095 -0.60959393
3.0873985 -1.3604673 -0.5624699
3.6593339 -1.6124916 -0.44571725
4.1959877 -1.8489691 -0.25611749
3.9388344 -1.735654 0
4.0960231 -1.8049195 0.2500158
1.9494562 -0.85621971 -0.70206326
2.2026491 -0.96742451 -0.66373593
2.5240974 -1.1086076 -0.61071861
3.0843439 -1.3546731 -0.56161475
3.6683772 -1.6111861 -0.4465813
4.1958423 -1.8428538 -0.2559725
3.9623718 -1.7403114 0
3.9578414 -1.7383217 0.24145298
1.9731352 -0.86377722 -0.7102145
2.2199061 -0.97180587 -0.66858172
2.5184588 -1.1025029 -0.60903162
3.0953848 -1.3550632 -0.56332666
3.6703212 -1.6067525 -0.4465813
4.1933098 -1.8357005 -0.2556825
3.9692445 -1.7376118 0
3.9313748 -1.7210336 0.2397113
1.9945636 -0.87028748 -0.71754843
2.2348709 -0.97514069 -0.67273337
2.5291047 -1.1035237 -0.61128312
3.0899591 -1.3482412 -0.5620423
3.6675234 -1.6002496 -0.44600525
4.2002835 -1.8327087 -0.2559725
3.9546416 -1.7255279 0
3.957263 -1.7266717 0.24116242
1.9548115 -0.85013229 -0.70287746
2.1900351 -0.95242912 -0.65889013
2.5141234 -1.0933726 -0.60734242
3.1010025 -1.3486017 -0.5637542
3.6599667 -1.591691 -0.44485208
4.2072649 -1.8297067 -0.25626305
4.0497932 -1.7612236 0
4.0475101 -1.7602305 0.24653244
1.9535717 -0.84678763 -0.70206326
2.2280135 -0.9657461 -0.66996473
2.527097 -1.0953857 -0.6101563
3.1026297 -1.3448538 -0.5637542
3.6642582 -1.5882951 -0.44514009
4.2094727 -1.8246217 -0.25626305
4.1331 -1.7915175 0
4.1259165 -1.7884037 0.25117633
1.9676973 -0.85149866 -0.70695466
2.2170866 -0.95941907 -0.66650456
2.5300879 -1.0948669 -0.61071861
3.0869477 -1.3358415 -0.56075799
3.6628456 -1.5850549 -0.44485208
4.2129569 -1.8231093 -0.25640807
4.3682461 -1.8903087 0
4.1174574 -1.7817829 0.25059578
1.9755267 -0.85205418 -0.7093972
2.2067282 -0.95177257 -0.66304445
2.5430815 -1.0968432 -0.61353469
3.0979881 -1.3361772 -0.5624699
3.6647582 -1.5806278 -0.44485208
4.2103801 -1.8159572 -0.25611749
4.2844973 -1.8479244 0
3.9478254 -1.7027161 0.24014629
1.9470379 -0.83697808 -0.69880342
2.251662 -0.96792752 -0.67619354
2.5303943 -1.0877469 -0.6101563
3.0996006 -1.332433 -0.5624699
3.6619174 -1.5741576 -0.44427606
4.2292843 -1.8180529 -0.2571336
4.1289291 -1.7749131 0
5.9502792 -2.5578613 0.36176732
1.9571353 -0.83851826 -0.70206326
2.2205498 -0.95137602 -0.66650456
2.5340402 -1.0856884 -0.61071861
3.0846977 -1.321613 -0.55947536
3.6733267 -1.573806 -0.44542924
4.1860948 -1.7934972 -0.25437582
4.1047635 -1.7586517 0
5.9557519 -2.551692 0.36191231
1.9740607 -0.84294814 -0.7077688
2.2401555 -0.9565739 -0.67204189
2.5353501 -1.0826256 -0.61071861
3.0933681 -1.3209062 -0.56075799
3.6728401 -1.5683478 -0.44514009
4.2002139 -1.793543 -0.25510195
4.0566258 -1.7322291 0
5.9564433 -2.5434744 0.36176732
1.9500592 -0.82991475 -0.69880342
2.2182212 -0.9440403 -0.66511893
2.5296493 -1.0765792 -0.60903162
3.0949619 -1.3171674 -0.56075799
3.6652129 -1.5598574 -0.44398692
4.2143307 -1.7935532 -0.25582749
4.0060382 -1.7049073 0
5.9427733 -2.5291514 0.36075121
1.9533424 -0.82852578 -0.69962072
2.2355297 -0.94821769 -0.66996473
2.5543356 -1.0834417 -0.61465937
0 -0 -0
3.6623371 -1.5534095 -0.4434109
4.2308431 -1.7945458 -0.25669804
3.9721549 -1.6848211 0
4.1709404 -1.7691375 0.25306356
1.9702715 -0.83289874 -0.70532316
2.2620945 -0.95626199 -0.67757916
2.5275583 -1.0684823 -0.60790473
3.0886869 -1.3056899 -0.55904776
3.6642115 -1.5489831 -0.4434109
4.2282262 -1.7874106 -0.25640807
3.9717929 -1.6790079 0
4.1395626 -1.7499298 0.25103134
1.9371173 -0.81612593 -0.69310099
2.2100711 -0.93112397 -0.66165876
2.5358744 -1.068388 -0.60959393
3.0949893 -1.3039484 -0.55990291
3.6636992 -1.5435512 -0.44312289
4.2399611 -1.7863358 -0.25698861
3.9786108 -1.6762265 0
4.1344881 -1.7418991 0.25059578
1.9403787 -0.81474066 -0.69391519
2.2250779 -0.93428224 -0.66581309
2.530133 -1.062371 -0.60790473
3.0989273 -1.3012006 -0.56033045
3.6607873 -1.5371187 -0.44254574
4.2277369 -1.7751737 -0.25611749
3.9878342 -1.6744415 0
4.13659 -1.7369021 0.25059578
1.9208437 -0.80380934 -0.68658131
2.2516558 -0.94224322 -0.67342484
2.5196974 -1.0544097 -0.60509086
3.1028631 -1.2984452 -0.56075799
3.6698024 -1.5356905 -0.4434109
4.2226944 -1.7670575 -0.2556825
4.0234609 -1.6836848 0
4.1315012 -1.7288963 0.25016078
1.9697161 -0.82146543 -0.70369476
2.2620544 -0.94338453 -0.67619354
2.5397305 -1.0591886 -0.60959393
3.1139069 -1.2986475 -0.5624699
3.6621065 -1.5272728 -0.44225773
4.2200255 -1.7599517 -0.25539193
4.2921052 -1.7900125 0
4.1407752 -1.7269006 0.25059578
1.9524486 -0.81149602 -0.69717503
2.2168689 -0.92139697 -0.66235292
2.5339673 -1.0531926 -0.60790473
3.117851 -1.2958721 -0.56289905
3.6591678 -1.5208595 -0.44168061
4.2221489 -1.7548513 -0.25539193
4.3399186 -1.8038 0
4.1380644 -1.7199033 0.25030577
1.976258 -0.81859285 -0.70532316
2.2272429 -0.92255425 -0.66511893
2.5235028 -1.0452691 -0.60509086
3.10518 -1.2862077 -0.56033045
3.6610029 -1.5164371 -0.44168061
4.2314706 -1.7527325 -0.25582749
4.2940073 -1.7786361 0
4.1353431 -1.7129152 0.2500158
1.9955225 -0.82374901 -0.71184283
2.1982119 -0.90741891 -0.65612149
2.5388515 -1.0480344 -0.6084671
3.0901287 -1.275601 -0.55733591
3.66523 -1.513002 -0.44196972
4.223978 -1.7436525 -0.25524694
4.2504539 -1.7545816 0
4.1446085 -1.7108887 0.25045079
1.9279485 -0.79312938 -0.68739545
2.2457089 -0.92385131 -0.66996473
2.5495152 -1.0488328 -0.61071861
3.1035357 -1.2767485 -0.55947536
3.6574876 -1.5046362 -0.44081655
4.2188702 -1.7355806 -0.25481138
4.25738 -1.7514229 0
4.1226468 -1.6959957 0.24899967
1.9860752 -0.8142373 -0.7077688
2.2236154 -0.91162241 -0.66304445
2.5413768 -1.041896 -0.6084671
3.1003211 -1.2710481 -0.55861861
3.6545122 -1.4982516 -0.4402394
4.2474132 -1.741325 -0.25640807
4.2570872 -1.7452911 0
4.0910382 -1.6772155 0.24696799
1.9573156 -0.79968548 -0.69717503
2.2084563 -0.90229207 -0.65819865
2.5426338 -1.0388246 -0.6084671
3.106612 -1.2692448 -0.55947536
3.6563199 -1.4938346 -0.4402394
4.223052 -1.7253802 -0.25481138
4.2447424 -1.7342421 0
4.0208941 -1.642786 0.24261352
1.9422543 -0.79079479 -0.69146949
2.2188389 -0.9034071 -0.66096729
2.5627139 -1.0434167 -0.61297017
3.1176536 -1.2693622 -0.56118721
3.6533356 -1.4874668 -0.43966338
4.2227297 -1.7192973 -0.25466639
4.1889858 -1.7055585 0
4.020472 -1.6369474 0.24246852
1.9633368 -0.7979961 -0.69880342
2.2519178 -0.91528958 -0.6706562
2.5350969 -1.0303874 -0.60621554
3.116035 -1.2665091 -0.56075799
3.6542337 -1.4852593 -0.43966338
4.2045097 -1.7089185 -0.25350526
4.1273355 -1.677551 0
4.0214601 -1.6345181 0.24246852
1.9161944 -0.77613866 -0.68168992
2.2274508 -0.90221047 -0.66304445
2.5457604 -1.0311391 -0.6084671
3.115186 -1.2617803 -0.56033045
3.6608157 -1.482783 -0.4402394
4.2041655 -1.7028624 -0.25336027
4.1100621 -1.6647465 0
4.0354719 -1.6345344 0.24319409
1.9079632 -0.77012229 -0.67843008
2.2378449 -0.90327442 -0.66581309
2.5517213 -1.0299662 -0.60959393
3.1143301 -1.2570553 -0.55990291
3.66501 -1.4793295 -0.44052854
4.1965818 -1.6938908 -0.25277969
4.1337881 -1.6685451 0
4.0711823 -1.6432751 0.24522632
2.0350039 -0.81854242 -0.72325081
2.2505703 -0.90524995 -0.6692732
2.552964 -1.0268822 -0.60959393
3.1063201 -1.2494594 -0.558191
3.6619909 -1.4729676 -0.43995139
4.2010341 -1.6897876 -0.25292471
4.2034073 -1.6907423 0
4.143074 -1.6664745 0.24943522
1.9901168 -0.7976951 -0.70695466
2.2307067 -0.89413023 -0.66304445
2.5447688 -1.0200152 -0.60734242
3.1078277 -1.2457051 -0.558191
3.6661665 -1.4695032 -0.4402394
4.2103105 -1.6876115 -0.25336027
4.2537513 -1.7050236 0
4.2294946 -1.6953009 0.25451469
1.972717 -0.78795546 -0.70043492
2.2737172 -0.90818286 -0.675502
2.5507143 -1.0188229 -0.6084671
3.1236296 -1.2476604 -0.56075799
3.6631401 -1.4631553 -0.43966338
4.2219992 -1.6863782 -0.25394082
4.2751431 -1.7076055 0
4.2291293 -1.6892263 0.25436968
2.0081069 -0.79927891 -0.71265703
2.2305322 -0.88780999 -0.66235292
2.5472264 -1.0138626 -0.60734242
3.1227522 -1.2429368 -0.56033045
3.6600945 -1.4568131 -0.43908623
4.2264457 -1.6822356 -0.25408581
4.3158913 -1.7178373 0
4.2215104 -1.6802713 0.25378913
1.9929954 -0.79047585 -0.70695466
2.2409225 -0.88881046 -0.66511893
2.5437212 -1.0089086 -0.60621554
3.1170998 -1.2363261 -0.55904776
3.6450291 -1.4457171 -0.43706903
4.2284751 -1.6771276 -0.25408581
4.3421507 -1.7222145 0
4.2307768 -1.6780405 0.25422412
1.959468 -0.77443922 -0.69472939
2.2466655 -0.8879481 -0.66650456
2.561482 -1.0123727 -0.6101563
3.1257467 -1.2353867 -0.56033045
3.6371517 -1.4375089 -0.43591586
4.2449932 -1.6777458 -0.25495636
4.3514919 -1.7198372 0
4.2569714 -1.68248 0.25567579
1.9443023 -0.76573026 -0.68902385
2.2547419 -0.88799161 -0.66858172
2.574522 -1.0139315 -0.61297017
3.1176832 -1.2278463 -0.55861861
3.638886 -1.4331131 -0.43591586
4.2397714 -1.6697615 -0.25452137
4.3584146 -1.7164872 0
0 -0 0
1.9774414 -0.77602291 -0.70043492
2.2581463 -0.88618213 -0.6692732
2.561558 -1.0052524 -0.60959393
3.1263356 -1.2268926 -0.55990291
3.640615 -1.4287152 -0.43591586
4.2417855 -1.6646373 -0.25452137
4.3435245 -1.7045636 0
4.3069763 -1.6902206 0.25843304
1.9921844 -0.77903205 -0.70532316
2.2872531 -0.89441699 -0.67757916
2.5580335 -1.000304 -0.6084671
3.1325927 -1.224982 -0.56075799
3.6471517 -1.4261973 -0.43649188
4.2462115 -1.6604562 -0.25466639
4.3504238 -1.7012078 0
4.3090153 -1.6850152 0.25843304
2.0069466 -0.78201014 -0.7102145
2.250931 -0.87707913 -0.66650456
2.5545099 -0.99536914 -0.60734242
3.1221135 -1.2165369 -0.55861861
3.6512799 -1.4227276 -0.43677992
4.2724218 -1.6647565 -0.25611749
4.347631 -1.694062 0
4.3110485 -1.6798074 0.25843304
1.9272463 -0.74827391 -0.68168992
2.2590075 -0.8770836 -0.66858172
2.5580771 -0.99320054 -0.60790473
3.1164088 -1.2099788 -0.55733591
3.6505876 -1.4173794 -0.43649188
4.2841191 -1.6633548 -0.25669804
4.4030433 -1.7095284 0
4.3082352 -1.672718 0.25814304
1.9682521 -0.75872636 -0.69554353
2.2587729 -0.87071693 -0.66788757
2.5628383 -0.98792887 -0.6084671
3.1312978 -1.20706 -0.55947536
3.6491799 -1.4066944 -0.43591586
4.3051004 -1.6595402 -0.25771418
4.4533024 -1.7166693 0
4.3025665 -1.6585633 0.25756249
1.9737864 -0.75812173 -0.69717503
2.2832472 -0.87698412 -0.67481053
2.549803 -0.97936684 -0.60509086
3.1375422 -1.2051146 -0.56033045
3.6484649 -1.4013575 -0.43562785
4.3046794 -1.6534063 -0.25756916
4.4553733 -1.7112871 0
4.2997112 -1.6514981 0.25727192
1.9770072 -0.7566188 -0.69798923
2.2538478 -0.86256832 -0.66581309
2.5723395 -0.98445803 -0.6101563
3.1294062 -1.1976525 -0.55861861
3.6501555 -1.3969481 -0.43562785
4.3188057 -1.6528466 -0.25829473
4.4622946 -1.707761 0
4.2919965 -1.6425865 0.25669137
1.9663751 -0.74982709 -0.69391519
2.247854 -0.85716188 -0.66373593
2.5592871 -0.97591895 -0.60678005
3.1428416 -1.1984427 -0.56075799
3.6445882 -1.389771 -0.43476269
4.3450742 -1.6568834 -0.25974584
4.4643545 -1.702368 0
5.8914695 -2.2465618 0.35218841
2.0130265 -0.76622367 -0.7102145
2.25775 -0.85937351 -0.66650456
2.5598762 -0.97437257 -0.60678005
3.1435652 -1.1965437 -0.56075799
3.6454272 -1.3875688 -0.43476269
4.3582144 -1.6588789 -0.2604714
4.4361954 -1.688561 0
5.8903995 -2.2420785 0.35204339
1.9723485 -0.74801308 -0.69554353
2.2517474 -0.85397512 -0.6644274
2.5705547 -0.97488284 -0.60903162
3.1402128 -1.1909256 -0.55990291
3.6398437 -1.3804107 -0.43389753
4.3820891 -1.6619071 -0.26177809
4.4431038 -1.6850469 0
5.8833857 -2.2312739 0.35146284
1.9755696 -0.74650556 -0.69636089
2.2574756 -0.85302895 -0.66581309
2.5741053 -0.97267336 -0.60959393
3.1296451 -1.1825943 -0.55776346
3.6439261 -1.376925 -0.43418553
4.3695049 -1.6510984 -0.26090696
4.4427042 -1.678758 0
5.8860774 -2.2241633 0.35146284
1.9718394 -0.74237454 -0.69472939
2.2467675 -0.8458817 -0.66235292
2.5824149 -0.97224903 -0.61128312
3.1310716 -1.1788119 -0.55776346
3.6407506 -1.3707 -0.43360952
4.3836536 -1.6503943 -0.2616325
4.4544721 -1.6770567 0
5.8863311 -2.216135 0.35131782
1.9912483 -0.74693584 -0.70124912
2.2407389 -0.84052211 -0.66027576
2.590718 -0.97180259 -0.61297017
3.142108 -1.178634 -0.55947536
3.6351368 -1.3635738 -0.43274435
4.3905149 -1.6469233 -0.26192307
4.4540515 -1.6707563 0
5.8914351 -2.2099326 0.35146284
1.9365845 -0.72376293 -0.68168992
2.2675962 -0.84747249 -0.66788757
2.5704718 -0.96066666 -0.60790473
3.1363134 -1.1721396 -0.558191
3.6440525 -1.3618978 -0.43360952
4.3973651 -1.6434346 -0.26221308
4.4585118 -1.6662871 0
5.8819337 -2.1982648 0.35073727
1.9675666 -0.73263365 -0.69228369
2.2521679 -0.83860642 -0.66304445
2.5811553 -0.96110666 -0.6101563
3.140131 -1.1692442 -0.55861861
3.6578126 -1.3620056 -0.4350507
4.4017806 -1.6390259 -0.26235807
4.458076 -1.6599878 0
5.8724122 -2.1866233 0.35001171
2.0008969 -0.7422927 -0.70369476
2.2461209 -0.8332659 -0.66096729
2.5918438 -0.96152216 -0.6124078
3.1463597 -1.1672364 -0.55947536
3.6424782 -1.3512866 -0.43303236
4.4159455 -1.6382276 -0.2630842
4.467401 -1.6573163 0
5.8799176 -2.1813319 0.35030171
1.9507848 -0.72102177 -0.68576396
2.2565389 -0.83403027 -0.66373593
2.5763183 -0.9522227 -0.6084671
3.1453621 -1.1625447 -0.55904776
3.6465416 -1.3477837 -0.43332151
4.422792 -1.6346905 -0.26337418
4.4669614 -1.6510158 0
5.8776793 -2.1724255 0.35001171
1.9516546 -0.71866411 -0.68576396
2.2693138 -0.83563679 -0.66719609
2.577467 -0.94910902 -0.6084671
3.141942 -1.1569675 -0.558191
3.6408837 -1.3406944 -0.43245634
4.4320812 -1.6320398 -0.26380974
4.4616241 -1.6429183 0
5.8729825 -2.1626275 0.34957618
2.0105288 -0.73758608 -0.7061373
2.2514796 -0.82598168 -0.66165876
2.5881536 -0.94949448 -0.61071861
3.1481624 -1.1549402 -0.55904776
3.6425009 -1.3362942 -0.43245634
4.441371 -1.6293689 -0.2642453
4.458724 -1.6357352 0
5.8633962 -2.1510556 0.34885061
1.9557136 -0.71479654 -0.68658131
2.2666185 -0.82842952 -0.66581309
2.6036224 -0.95160162 -0.614097
3.1471376 -1.1502517 -0.55861861
3.6441128 -1.3318919 -0.43245634
4.4360123 -1.6213244 -0.26380974
4.4778008 -1.6365976 0
5.8708677 -2.1457515 0.34914061
1.993735 -0.72596329 -0.69962072
2.274683 -0.82826281 -0.66788757
2.5928349 -0.94410902 -0.61128312
3.1461153 -1.1455708 -0.558191
3.6432915 -1.3266037 -0.43216833
4.4428468 -1.6177396 -0.26409975
4.5042338 -1.640092 0
5.8563623 -2.132432 0.34812447
2.0503647 -0.74377877 -0.71917677
2.2426693 -0.81353807 -0.65819865
2.5844195 -0.93750948 -0.60903162
3.1523283 -1.1435208 -0.55904776
3.6424534 -1.3213159 -0.43187922
4.4399176 -1.6105995 -0.26380974
4.5159984 -1.6381983 0
