# .PCD v0.7 - Point Cloud Data file format
VERSION 0.7
FIELDS x y z
SIZE 4 4 4
TYPE F F F
COUNT 1 1 1
WIDTH 1822
HEIGHT 1
VIEWPOINT 0 0 0 1 0 0 0
POINTS 1822
DATA ascii
4.9119415 7.657918 0
4.8800068 7.6081305 0.50486732
4.0044155 6.2596784 -0.82826161
4.9310822 7.7082381 -0.5111146
4.9110966 7.6769972 0
4.8778105 7.6249638 0.50559288
3.9968488 6.2645121 -0.82826161
4.8868256 7.6594286 -0.50748622
4.9144139 7.7026691 0
4.8783779 7.6461883 0.50660896
3.9934382 6.275877 -0.82912564
4.8580403 7.6346402 -0.50545454
4.9106917 7.7173843 0
4.8775029 7.6652265 0.50747955
3.9886265 6.2850699 -0.82970279
4.841846 7.6295285 -0.50472844
4.9194903 7.7518759 0
4.8807669 7.6908579 0.50878567
3.9851806 6.2964435 -0.83056796
4.8340173 7.6375751 -0.50487399
4.9142966 7.7644138 0
4.8756409 7.7033386 0.5092212
3.9761851 6.2990603 -0.83027881
4.8372669 7.6631842 -0.50618011
4.9188004 7.7923493 0
4.8801966 7.7311931 0.51067233
3.9727061 6.3104291 -0.83114398
4.841845 7.691009 -0.50763124
4.9232492 7.8203154 0
4.876389 7.7458801 0.51125288
3.9733276 6.3283634 -0.83287317
4.8408413 7.710062 -0.50850236
4.9179492 7.8328724 0
4.8808455 7.7737775 0.51270455
3.9697976 6.3397384 -0.83373833
4.8466873 7.7401247 -0.51009846
4.9167657 7.8520393 0
4.8783426 7.7906785 0.51343012
3.9689832 6.3554978 -0.83517951
4.8510976 7.7680197 -0.51155013
4.9251938 7.8866692 0
4.8923225 7.834033 0.51589733
3.9613008 6.3602886 -0.83517951
4.8581872 7.8003345 -0.51329124
4.9170351 7.8948212 0
4.8842258 7.8421421 0.51604235
3.9590719 6.3738589 -0.83633268
4.8597269 7.8238573 -0.5144524
4.9294634 7.9361286 0
4.885715 7.8656964 0.51720345
3.9554548 6.3852367 -0.83719784
4.8612165 7.8473954 -0.5156135
4.9239831 7.9487185 0
4.8885212 7.8914728 0.51850957
3.950453 6.3944082 -0.83777386
4.8558297 7.8598976 -0.51604903
4.9294171 7.9790106 0
4.8899078 7.9150586 0.51967072
3.9427238 6.3991766 -0.83777386
4.8517809 7.874608 -0.51662958
4.9306941 8.0026865 0
4.889883 7.9364491 0.52068681
3.9349887 6.4039359 -0.83777386
4.8409033 7.878253 -0.51648462
4.9360094 8.0330315 0
4.8966088 7.9689102 0.52242792
0 0 -0
3.9313035 6.4153042 -0.83863902
4.830019 7.8818746 -0.51633906
4.9303799 8.0456486 0
4.8924074 7.9836831 0.52300847
3.9248965 6.4222546 -0.83892703
4.8232045 7.8921437 -0.51662958
4.9287949 8.0649204 0
4.9017296 8.0206337 0.52504075
3.9240081 6.4470329 -0.84123337
4.8021388 7.8897767 -0.51590407
4.9398746 8.1160727 0
4.9020414 8.0539141 0.52663684
3.9269519 6.4694581 -0.84353971
4.7858562 7.8844604 -0.51517791
4.9408674 8.1398335 0
4.9017458 8.0753822 0.52765298
3.9231515 6.4808383 -0.84440488
4.7830582 7.9013581 -0.51590407
4.9418101 8.1636086 0
4.9027495 8.0990829 0.52881408
3.9113064 6.478929 -0.84353971
4.766789 7.8960028 -0.51517791
4.941359 8.1851711 0
4.9037037 8.122797 0.52997518
3.9248202 6.5191045 -0.8481524
4.7478666 7.8861804 -0.51416236
4.9462271 8.2156553 0
4.9072847 8.1509733 0.53142631
3.9275913 6.5415821 -0.85045874
4.7396708 7.8941369 -0.51430738
4.9429984 8.2327881 0
4.9027829 8.1658077 0.53200686
3.9236717 6.5529823 -0.8513239
4.7234554 7.8887138 -0.51358181
4.9490905 8.2655497 0
4.9062586 8.1940155 0.53345799
3.9210548 6.5666013 -0.85247707
4.7099223 7.8877201 -0.51314628
4.9471021 8.2849255 0
4.909678 8.2222519 0.53490967
3.9236994 6.5891047 -0.85478228
4.7003884 7.8934054 -0.51314628
4.9437442 8.3020754 0
4.9117036 8.2482691 0.53621578
3.9249806 6.6094103 -0.85680062
4.6868658 7.8923745 -0.51271069
4.9536433 8.34161 0
4.9136734 8.2743034 0.5375219
3.9235802 6.6252732 -0.8582418
4.6773257 7.8980317 -0.51271069
4.9541693 8.3655043 0
4.9129415 8.295887 0.53853798
3.9247801 6.6456008 -0.86026013
4.6638188 7.8969717 -0.5122757
4.9559674 8.3916502 0
4.9134851 8.3197165 0.53969914
3.9246204 6.6637063 -0.86198932
4.6516337 7.898119 -0.51198512
4.9537458 8.4110823 0
4.9179301 8.3502703 0.54129523
3.9218054 6.6773648 -0.86314249
4.6460361 7.9104581 -0.51242071
4.954123 8.4350147 0
4.9209991 8.3786163 0.5427469
3.9281147 6.7066507 -0.86631399
4.6312213 7.9070973 -0.51184016
4.9597111 8.4679422 0
4.9200602 8.4002447 0.54376245
3.923923 6.7180948 -0.86717916
4.621664 7.9126873 -0.51184016
4.9586596 8.4896536 0
4.9230146 8.4286261 0.54521412
3.9275174 6.7429438 -0.86977351
4.6094866 7.9137797 -0.51155013
4.9641166 8.522625 0
4.9193645 8.4457932 0.54593968
3.9245636 6.7566309 -0.87092668
4.6025286 7.9238329 -0.51184016
4.964272 8.5466204 0
4.9130726 8.4584732 0.54637527
3.929358 6.7837453 -0.87380904
4.5981603 7.9383826 -0.51242071
4.9591594 8.5616198 0
4.9028482 8.4644041 0.54637527
3.9250407 6.7952094 -0.8746742
4.5846648 7.9371805 -0.51198512
4.9748445 8.6126776 0
6.5613141 11.359245 0.73272431
3.9245706 6.8133903 -0.87640339
4.5724792 7.9382153 -0.51169515
4.9709277 8.6299562 0
6.5592551 11.387427 0.73403043
3.9305074 6.8428006 -0.87957489
4.5667682 7.9504962 -0.51213068
4.9682717 8.6494923 0
6.5493746 11.402107 0.73446596
3.9315202 6.8541484 -0.88072807
4.5658388 7.9600091 -0.51256567
4.9734044 8.6705523 0
5.2988062 9.2378521 0.59484935
0 0 -0
3.9322212 6.8746033 -0.88274527
4.5562177 7.9655204 -0.51256567
4.977139 8.7014065 0
5.2489328 9.1765776 0.59049487
3.9290378 6.8883362 -0.88389844
4.5465894 7.9710197 -0.51256567
4.9833827 8.7368002 0
5.1979346 9.1129494 0.58599597
3.9283867 6.9065728 -0.88562876
4.5343876 7.9719949 -0.5122757
4.9818306 8.7586527 0
5.1470976 9.0492125 0.58149707
3.9340718 6.9360557 -0.88879913
4.5401354 8.00459 -0.5140174
4.9892168 8.7963533 0
5.0836005 8.962759 0.57554644
3.9346025 6.9565654 -0.89081746
4.5240602 7.998755 -0.51329124
4.9837093 8.8114367 0
5.061255 8.9485407 0.57424033
3.9376285 6.9815884 -0.89341182
4.5182228 8.0110073 -0.51372683
4.9832869 8.8355865 0
5.0810747 9.0089693 0.57772368
3.9380662 7.0021238 -0.89543015
4.5340152 8.061758 -0.51662958
4.9738817 8.8438673 0
5.1415114 9.1419239 0.58585095
3.9384551 7.0226622 -0.89744735
4.5280848 8.0740318 -0.51706517
4.9593716 8.8430595 0
5.1698599 9.2183809 0.59034985
3.9400663 7.0454755 -0.89975369
4.5056405 8.0568132 -0.5156135
4.9524951 8.8558617 0
5.177743 9.2586412 0.59252709
3.9416282 7.0683031 -0.90206003
4.49084 8.053174 -0.51503295
4.9582672 8.891386 0
5.1538939 9.2421923 0.59107542
3.9456568 7.0956702 -0.90494353
5.0947967 9.1622257 -0.58556712
4.9626975 8.9246645 0
4.9255352 8.8578339 0.56611311
3.9433503 7.1117406 -0.90638471
5.0900216 9.1797352 -0.58629262
4.9620061 8.948863 0
4.859386 8.7637892 0.55972695
3.9485173 7.1413922 -0.90955508
5.1002989 9.224535 -0.5887599
4.9675589 8.984458 0
4.8575954 8.7855749 0.56074309
3.9486282 7.1620154 -0.91157341
5.1004438 9.2511768 -0.59006655
4.9642363 9.0041237 0
4.8720675 8.8369484 0.5636459
3.9449556 7.1758475 -0.91272658
5.104279 9.2846489 -0.59180766
4.9771752 9.0534487 0
4.8839164 8.883811 0.56625813
3.9512019 7.2078261 -0.91618609
5.1030488 9.3090382 -0.59296876
4.9925027 9.107378 0
4.8894153 8.9193249 0.5681448
3.9548931 7.2352862 -0.91906846
5.1017675 9.3334379 -0.59412992
5.0102005 9.1659203 0
4.8985753 8.9617071 0.570467
3.9622383 7.2695808 -0.92281598
5.1016769 9.3601274 -0.59543604
5.0215425 9.2131042 0
4.9014187 8.9927101 0.57206315
3.9620981 7.2902732 -0.92483431
5.1052527 9.3936815 -0.59717768
5.0327735 9.2603197 0
4.8905492 8.9986258 0.57206315
3.9643762 7.3155198 -0.92742866
5.109992 9.4295406 -0.59906435
5.0352168 9.2915564 0
4.8400602 8.9314318 0.56741923
3.9629092 7.3339534 -0.92915785
5.1097107 9.4562798 -0.60037047
5.0326476 9.3136635 0
4.8304987 8.9395571 0.56756425
3.9638593 7.3569522 -0.9314642
5.1143022 9.4921837 -0.60225713
5.0349698 9.3449421 0
4.8135324 8.9339523 0.56683868
3.9647596 7.3799644 -0.93377054
5.1126671 9.5166683 -0.60341829
5.0347586 9.3716497 0
4.8027339 8.9397612 0.56683868
3.9619448 7.3961473 -0.93521172
5.1097541 9.5388746 -0.60443437
5.0381775 9.4052563 0
4.8140116 8.986783 0.56945091
3.9696777 7.421351 -0.93809521
5.1223755 9.5763311 -0.60661161
5.0459938 9.4335346 0
4.83922 9.0469694 0.57307923
3.972877 7.4489598 -0.94097757
5.1193571 9.5985565 -0.60762715
5.0517397 9.471777 0
4.8710804 9.133049 0.57815868
3.9723756 7.4697423 -0.94299591
5.1248336 9.6368494 -0.60965884
5.0464001 9.4893608 0
4.8563848 9.1320524 0.57772368
3.9730403 7.4928179 -0.94530225
5.1253605 9.6659956 -0.61111051
5.0483379 9.5207376 0
4.8234334 9.0965862 0.57511091
3.971235 7.5113277 -0.94703144
5.1233935 9.6905594 -0.61227167
5.0502114 9.5521402 0
4.8015089 9.0817356 0.5738048
3.9730103 7.5367112 -0.94962579
5.1274319 9.7266226 -0.61415833
5.0532293 9.5858622 0
4.7578187 9.0254745 0.56988645
3.9723256 7.5575347 -0.95164412
5.1301827 9.7604122 -0.61589998
5.0501156 9.6080799 0
4.7009721 8.9438181 0.56437141
3.972796 7.5806565 -0.95395046
5.13165 9.791914 -0.61749607
5.0614562 9.6579752 0
4.6756878 8.921874 0.56262976
3.9756093 7.6083708 -0.95683283
5.1366644 9.8303537 -0.61952835
5.0570121 9.6779184 0
4.6673083 8.9321184 0.56291974
3.9795601 7.6384034 -0.96000433
5.1367865 9.8595934 -0.62097943
5.0549345 9.702486 0
4.6673212 8.958498 0.56422645
3.9810574 7.6638618 -0.96259868
5.1356483 9.8865442 -0.62228554
5.0636005 9.7478466 0
4.6900277 9.0286875 0.56828976
3.978929 7.6824422 -0.96432787
5.1416254 9.9273548 -0.62446278
5.0625896 9.7747536 0
4.7018213 9.0781898 0.57104754
3.9815133 7.7102304 -0.96721137
5.1415462 9.9566431 -0.62591392
5.0615253 9.8016815 0
4.6991911 9.1000195 0.57206315
3.9792957 7.7288289 -0.96894056
5.146162 9.9951878 -0.6279456
5.0615888 9.830924 0
4.6703539 9.071044 0.56988645
3.9829483 7.758945 -0.97211206
5.1506968 10.033766 -0.62997782
5.0497065 9.8370333 0
4.6570139 9.072053 0.56959587
3.9841747 7.7844715 -0.97470641
5.1456699 10.053856 -0.63084835
5.0520453 9.8709278 0
4.6496015 9.0846148 0.57003146
3.9852884 7.8332644 -0.97960711
5.146101 10.114895 -0.63389617
5.0352545 9.8970213 0
4.6523767 9.1444569 0.57307923
3.9886878 7.8634415 -0.98277748
5.1515088 10.155869 -0.63607341
4.9609008 9.780097 0
4.7283068 9.3215523 0.58381927
3.9873555 7.8844142 -0.98479581
5.1509581 10.185268 -0.63752449
4.8739119 9.6374502 0
4.7498703 9.3921766 0.58788264
3.9871416 7.9077024 -0.98710215
5.1538548 10.221645 -0.63941121
4.9161592 9.7502232 0
4.7045932 9.3306246 0.58367372
3.9868772 7.9310017 -0.98940849
5.1555047 10.255725 -0.64115286
5.0493112 10.044477 0
4.5731158 9.0971918 0.56872535
3.9946713 7.9704914 -0.99373204
5.1582432 10.292144 -0.64303952
5.0814795 10.138979 0
4.4596696 8.8982935 0.55595362
3.9991152 7.9914074 -0.99603838
5.1659784 10.323143 -0.64478123
5.0893292 10.169975 0
4.4461517 8.8847179 0.55493748
5.1720619 10.36658 -0.64710343
5.0747108 10.171455 0
4.5189323 9.0574846 0.56538701
5.1676297 10.389101 -0.64811897
4.94768 9.9469099 0
4.4975705 9.0420017 0.56408089
5.17239 10.430259 -0.65029621
4.8350692 9.750042 0
4.4843354 9.042778 0.56379086
5.1712971 10.459789 -0.65174735
4.8198233 9.7488756 0
4.4975882 9.0971031 0.56683868
5.1724405 10.493999 -0.65348899
5.099124 10.345252 0
4.491188 9.1118536 0.56741923
5.1780925 10.537555 -0.65581125
5.1015401 10.381768 0
4.4790301 9.1149445 0.56727421
5.1824999 10.578799 -0.65798795
5.0981517 10.406622 0
4.4737277 9.1320152 0.56799978
5.179976 10.606065 -0.65929407
5.1049881 10.452527 0
4.4672518 9.1467533 0.56858033
5.1808071 10.64035 -0.66103572
5.1060262 10.486766 0
4.4857697 9.212882 0.57235366
5.184968 10.681669 -0.66321295
5.1069889 10.521023 0
4.5188842 9.3094549 0.57801372
5.1901674 10.72535 -0.66553515
5.1101413 10.559978 0
4.5415859 9.3850737 0.5823676
5.1873641 10.752674 -0.66684127
5.107554 10.587239 0
4.5505633 9.4326763 0.58497983
5.191258 10.794053 -0.66901797
5.1139321 10.633271 0
4.5729508 9.5084229 0.58933431
5.1939411 10.833126 -0.67105019
5.1112051 10.660561 0
4.5614586 9.5139418 0.58933431
5.1976528 10.874553 -0.67322689
5.1151557 10.701953 0
5.336545 11.165144 0.69121695
5.2001548 10.913662 -0.67525852
5.120132 10.745716 0
5.3006959 11.124669 0.68831414
5.2014565 10.950448 -0.67714524
5.1171927 10.77305 0
5.2839041 11.124022 0.68787855
5.2026811 10.987262 -0.67903244
5.1208754 10.8145 0
4.3141522 9.1108246 0.56306529
5.2093649 11.035831 -0.68164468
5.1255794 10.858335 0
4.2543354 9.012639 0.55667919
5.2115135 11.075029 -0.68367636
5.1257524 10.892778 0
4.2191043 8.966053 0.55348641
5.2135749 11.114249 -0.68570805
5.130271 10.936663 0
4.2071648 8.9687939 0.55334139
5.222291 11.150346 -0.68774027
5.138011 10.970396 0
4.2050529 8.9783955 0.55377692
5.2264023 11.194319 -0.69006252
5.1401634 11.009606 0
4.1952996 8.9858227 0.55392194
5.2293153 11.235956 -0.69223917
5.1444263 11.05356 0
4.1833434 8.9885311 0.55377692
5.233232 11.279981 -0.69456142
5.143116 11.08574 0
4.1735721 8.9959345 0.55392194
5.2337766 11.316954 -0.69644809
5.1482873 11.1321 0
4.1605158 8.9962492 0.55363137
5.2353268 11.356301 -0.69847977
5.1511726 11.173758 0
4.1409392 8.9823923 0.55247027
5.2378774 11.398037 -0.70065695
5.1496224 11.205988 0
4.1203189 8.9661417 0.55116415
5.2392492 11.437427 -0.70268863
5.1545029 11.252423 0
4.1084008 8.9687538 0.55101913
0 0 -0
5.1581984 11.296521 0
4.0910873 8.9595337 0.55014861
5.2234364 11.476072 -0.70428532
5.1553245 11.326427 0
5.13835 11.289135 0.69281304
5.2149324 11.494205 -0.70501089
5.1599131 11.372936 0
5.1290002 11.304801 0.69339359
5.1978273 11.493392 -0.7045753
5.1643972 11.419472 0
5.1185498 11.318095 0.69382912
5.1903453 11.513882 -0.70544642
5.1634297 11.454175 0
5.1005988 11.314795 0.69324857
5.1934648 11.558059 -0.70776814
5.1538525 11.469901 0
5.0826635 11.31147 0.69266802
5.1943674 11.59753 -0.70980036
5.1389265 11.473747 0
5.0764279 11.334206 0.69368416
5.1962366 11.639382 -0.71197701
5.1261191 11.482322 0
5.0796738 11.378285 0.69600582
5.1980157 11.681265 -0.71415424
5.1111841 11.486133 0
5.0638108 11.379672 0.69571584
5.1986451 11.720787 -0.71618593
5.1025767 11.504192 0
5.0437336 11.371526 0.69484472
5.1960373 11.753204 -0.71778262
5.0928817 11.519871 0
4.301919 9.7307491 0.59426874
5.5443506 12.582162 -0.76799834
5.0863013 11.54268 0
4.301681 9.7620888 0.59586489
5.5166044 12.560303 -0.76625669
5.0807228 11.56788 0
4.2773433 9.7387304 0.59412318
5.4962144 12.555059 -0.76553112
5.1116161 11.676518 0
4.247859 9.7034283 0.59165597
5.4730182 12.522661 -0.76335388
5.1306157 11.739219 0
4.2513604 9.7274189 0.59296209
5.4641075 12.543554 -0.76422447
5.4947295 12.613851 0
4.2655458 9.7921028 0.59659046
5.44274 12.535851 -0.76335388
5.4566841 12.567966 0
4.2754416 9.8473005 0.59963822
5.4389415 12.568652 -0.76495057
5.4394288 12.569778 0
4.2697339 9.8667727 0.60050935
5.422719 12.572823 -0.76480502
0 0 0
6.7665892 15.688647 0.9543407
5.4106026 12.58653 -0.76524055
5.3802581 12.51594 0
6.7496819 15.701591 0.95463127
5.397439 12.597839 -0.76553112
5.3753786 12.54635 0
6.7307048 15.709735 0.95463127
5.3852711 12.611514 -0.76596612
5.3571515 12.545662 0
6.7035542 15.698739 0.95347017
5.3751154 12.629964 -0.76669168
5.35116 12.573675 0
6.6835637 15.704439 0.95332515
5.3578234 12.63167 -0.76640165
5.3379936 12.584919 0
6.6645832 15.712503 0.95332515
5.3415456 12.635744 -0.76625669
5.3227835 12.59136 0
6.6425567 15.713362 0.95288956
5.3222384 12.63261 -0.76567614
5.3146391 12.614573 0
6.6205378 15.71419 0.95245403
5.3039517 12.631843 -0.76524055
5.30443 12.632981 0
6.6005402 15.719786 0.95230901
5.2714119 12.639831 -0.76495057
5.2548552 12.600132 0
6.5645347 15.740492 0.95259959
5.2591238 12.653382 -0.76538557
5.237627 12.601662 0
6.5435143 15.743608 0.95230901
5.2497993 12.674136 -0.76625669
5.2194118 12.600775 0
6.5244865 15.751504 0.95230901
5.2582731 12.738106 -0.76973945
5.2021942 12.602256 0
6.501483 15.749768 0.95172846
5.2586951 12.782899 -0.77206171
5.1879525 12.610937 0
6.4794812 15.750401 0.95129293
5.262959 12.837329 -0.77496451
5.1667895 12.602754 0
6.4535484 15.741396 0.95027733
5.2641497 12.884568 -0.77743173
5.1545115 12.616217 0
6.4345231 15.749183 0.95027733
5.2789502 12.965518 -0.78193063
5.1392636 12.622436 0
6.4086285 15.740097 0.94926125
5.2906351 13.039306 -0.78599453
5.1308546 12.645511 0
5.7458258 14.161169 0.85361922
5.3187027 13.154081 -0.79252511
5.1263032 12.678244 0
5.7092333 14.119931 0.85071695
5.3428493 13.236806 -0.79731458
5.1352015 12.722363 0
5.697783 14.116147 0.85028142
5.3423662 13.281823 -0.79963678
5.1644979 12.839621 0
5.6661763 14.086858 0.84810418
5.350482 13.348564 -0.80326515
5.1886744 12.944882 0
5.6491508 14.093695 0.84810418
5.3507333 13.39604 -0.80573237
5.1971622 13.01156 0
5.6311545 14.098099 0.84795916
5.3556814 13.455604 -0.80892515
5.2131958 13.097623 0
5.6064281 14.085579 0.84679806
5.3576221 13.50796 -0.81168294
5.222311 13.166806 0
5.5894041 14.092343 0.84679806
5.3623071 13.567584 -0.81487572
5.2303114 13.233612 0
5.5675979 14.087006 0.84607249
5.3620954 13.615151 -0.817343
5.2314816 13.283504 0
5.5515237 14.096139 0.84621751
5.3589277 13.65548 -0.81937468
5.2344418 13.338268 0
5.5354357 14.105252 0.84636253
5.3613505 13.710345 -0.82227743
5.239171 13.397902 0
5.5183878 14.111931 0.84636253
5.356101 13.745868 -0.82401913
5.240932 13.450298 0
5.5003901 14.11617 0.84621751
5.3488908 13.776547 -0.82547021
5.2378616 13.490582 0
5.4889741 14.137343 0.84708863
5.3378677 13.797545 -0.82634133
5.2384572 13.540585 0
5.4775114 14.158502 0.84795916
5.3389473 13.850044 -0.82909858
5.2342639 13.57848 0
5.4575949 14.157834 0.84752363
5.3352504 13.89044 -0.83113027
6.0455041 15.739602 0
5.4507332 14.191103 0.84912032
5.3351817 13.940564 -0.83374304
6.0274143 15.749333 0
5.4345098 14.200103 0.84926528
5.3303685 13.97856 -0.8356297
6.0065236 15.751737 0
5.4229045 14.221231 0.8501364
5.3254709 14.016566 -0.83751637
5.9837894 15.749251 0
5.4094086 14.23749 0.85071695
5.3140488 14.037567 -0.83838695
5.9647551 15.756471 0
5.3940396 14.248871 0.85100698
5.3236756 14.114482 -0.84259588
5.9402032 15.749061 0
5.8664799 15.5536 0.92850727
5.3157563 14.145224 -0.84404695
5.9184217 15.748916 0
5.8403692 15.541219 0.92734617
5.3086839 14.178407 -0.84564364
5.8948259 15.743872 0
5.8179421 15.53853 0.92676562
5.3106198 14.235934 -0.84869146
5.569273 14.929295 0
5.797348 15.540685 0.92647558
5.3038297 14.244006 -0.84898144
5.5657029 14.947295 0
5.78161 15.527136 0.9254595
5.3055935 14.301562 -0.8520292
5.5494466 14.958884 0
5.7601357 15.526809 0.92502451
5.2982187 14.334775 -0.85362589
5.5250511 14.948489 0
5.6179595 15.19986 0.90514106
5.290772 14.36799 -0.85522258
5.5060863 14.952714 0
5.5178866 14.984759 0.89193434
5.2832489 14.4012 -0.85681868
5.4826388 14.944701 0
5.4961967 14.981658 0.89135379
5.2792249 14.444184 -0.85899591
5.4645767 14.951315 0
0 0 0
5.2644362 14.45788 -0.85943151
5.4429455 14.948125 0
5.4590845 14.992448 0.89120823
5.2620258 14.505754 -0.86189872
5.4213295 14.944905 0
5.4409652 14.999033 0.89120823
5.2559748 14.543868 -0.86378539
5.4006133 14.944099 0
5.4175406 14.990939 0.89033771
5.2507181 14.584431 -0.86581707
5.3843169 14.955516 0
5.3985434 14.995031 0.89019269
5.2497568 14.63723 -0.86857426
5.3688755 14.969354 0
5.3795447 14.9991 0.89004767
5.2381878 14.660693 -0.8695904
5.3507843 14.975829 0
5.3596668 15.00069 0.8897571
5.2291808 14.691487 -0.87104154
5.3344321 14.987192 0
5.3363113 14.992473 0.88888657
5.2218456 14.727184 -0.87278318
5.319798 15.003439 0
5.3173213 14.996453 0.88874102
5.2152963 14.765332 -0.87466985
5.3215981 15.066289 0
5.2966032 14.995523 0.88830602
5.2129774 14.815748 -0.87728268
5.3336196 15.158625 0
5.2793417 15.004362 0.88845098
5.2053823 14.851453 -0.87902379
5.3325162 15.214178 0
5.2569113 14.998471 0.88772547
5.1977115 14.887171 -0.88076544
5.3330002 15.274661 0
5.2456369 15.024438 0.88888657
5.190815 14.925343 -0.8826521
5.3384767 15.34992 0
5.2436943 15.077389 0.89164382
5.1838336 14.963521 -0.88453877
5.3395166 15.412912 0
5.2484388 15.150009 0.89556271
5.1725302 14.989424 -0.88569993
5.3455081 15.490694 0
5.2513189 15.217746 0.89919102
5.1653943 15.027606 -0.88758659
5.345396 15.551283 0
5.2540398 15.285501 0.90281886
5.1522841 15.048592 -0.88845772
5.3552651 15.64145 0
5.2582927 15.358216 0.90673774
5.1457133 15.05908 -0.88889325
5.367692 15.708708 0
5.2733779 15.432695 0.91094667
5.1233249 15.05298 -0.88816714
5.3663154 15.766917 0
5.2773294 15.505466 0.91486502
5.1001287 15.044399 -0.88729656
5.3731599 15.84979 0
5.2744417 15.55859 0.9176228
5.079452 15.043162 -0.88686103
5.377317 15.92531 0
5.2855616 15.65357 0.92284727
5.062099 15.05175 -0.88700604
5.3788095 15.993463 0
5.2890053 15.726437 0.92676562
5.062067 15.112065 -0.89019936
5.3760095 16.049295 0
5.2939324 15.804266 0.93097448
5.1046524 15.300559 -0.90093887
5.3566132 16.055779 0
5.2937469 15.867346 0.93431282
5.1484828 15.557063 -0.91530722
5.3063512 16.034092 0
5.3035512 16.025631 0.94287568
5.144321 15.607689 -0.91791946
5.2829008 16.028135 0
5.2980108 16.073978 0.9453429
5.1457181 15.675612 -0.92154783
5.2700233 16.054289 0
5.2745333 16.068027 0.94461733
5.1437292 15.733683 -0.92459559
5.3088446 16.238739 0
5.2526913 16.066977 0.9441818
5.1416073 15.79177 -0.92764342
5.4149041 16.631166 0
5.2236199 16.043663 0.94244009
5.1313357 15.825153 -0.92923951
5.4228978 16.724337 0
5.2018256 16.042545 0.94200456
5.1241884 15.868435 -0.93141675
5.422678 16.792789 0
5.1824374 16.048819 0.94200456
5.1105771 15.891924 -0.93243229
5.4302669 16.886036 0
5.1733823 16.087225 0.94389123
5.1080132 15.950052 -0.93548012
5.4281135 16.949583 0
5.3401709 16.674978 0.97799748
5.1234756 16.06514 -0.94186622
5.4653525 17.137129 0
5.3444915 16.758156 0.98249638
5.1378784 16.177803 -0.94810683
5.5375919 17.436394 0
5.3462615 16.833944 0.98656029
5.1324291 16.22859 -0.95071906
5.5612464 17.584497 0
5.3525553 16.924623 0.99149472
5.1299868 16.289301 -0.95391184
5.5868974 17.740133 0
5.3500514 16.988075 0.99483252
5.130518 16.359957 -0.95768577
5.5825915 17.801508 0
5.3497386 17.058996 0.99860644
5.1363025 16.447983 -0.96247464
5.578918 17.86537 0
5.329896 17.067926 0.9987514
5.143373 16.505665 -0.96566802
5.5758648 17.893579 0
5.3180356 17.066177 0.99846089
5.1442146 16.578867 -0.96958631
5.5611801 17.92267 0
5.2997217 17.080038 0.99889642
5.140286 16.637203 -0.97263414
5.5372176 17.921925 0
5.2752452 17.074018 0.99817085
5.1354604 16.693075 -0.97553694
5.5186195 17.938553 0
5.2500248 17.065474 0.99729973
5.1282234 16.741501 -0.97800416
5.5045609 17.970087 0
5.2294011 17.071804 0.99729973
5.1223912 16.794901 -0.98076141
5.4987864 18.028997 0
5.216351 17.10297 0.9987514
5.1119089 16.833399 -0.98264807
5.5072441 18.135227 0
5.1888871 17.086885 0.99744529
5.1043491 16.881844 -0.98511529
5.5169601 18.24649 0
5.1652288 17.083193 0.99686474
5.089191 16.905418 -0.98613143
5.5271683 18.360304 0
5.143084 17.084442 0.99657422
5.0806971 16.95138 -0.98845363
5.537106 18.474157 0
5.125421 17.100599 0.99715477
4.6820335 15.690181 -0.91458112
5.5363603 18.553154 0
5.1136708 17.13666 0.99889642
4.6541944 15.665946 -0.91284001
5.536912 18.637159 0
5.1210794 17.237473 1.0044115
4.6175742 15.611756 -0.90935665
5.5955801 18.918341 0
5.1341481 17.358263 1.0110875
4.4746699 15.196092 -0.88482934
5.6374054 19.144772 0
5.1300497 17.421778 1.0144254
4.4256058 15.096764 -0.87873375
5.6581926 19.301403 0
5.4634991 18.637259 1.0848145
4.3986254 15.072167 -0.87699211
5.6632991 19.405653 0
5.4511657 18.678764 1.0868462
4.3782349 15.069983 -0.87655652
5.64856 19.442471 0
6.5688705 22.610201 1.3151387
4.3585801 15.070275 -0.87626654
5.6286778 19.461781 0
6.5487661 22.643087 1.3165904
4.3403673 15.075531 -0.87626654
5.61236 19.49358 0
6.5559068 22.770832 1.3235565
4.3221483 15.080764 -0.87626654
5.6081586 19.567888 0
6.552012 22.861164 1.328346
4.3039231 15.085976 -0.87626654
5.6180658 19.692268 0
6.558599 22.988995 1.3353121
4.2871099 15.096159 -0.87655652
5.6738925 19.979425 0
6.5726962 23.144373 1.3438749
4.270987 15.108832 -0.87699211
5.6886816 20.123999 0
6.5835996 23.289816 1.3518572
4.2653842 15.123912 -0.87771767
5.6899428 20.175016 0
6.606205 23.423836 1.3594044
4.2485127 15.134063 -0.87800819
4.23774 15.095689 0
6.6291614 23.614416 1.3699989
4.2323217 15.146696 -0.87844378
4.2138939 15.080746 0
6.6320872 23.735012 1.3765296
4.2376881 15.236911 -0.88337821
4.1956687 15.085827 0
6.6361279 23.860672 1.3833512
4.3052292 15.55253 -0.9013744
4.1725764 15.073326 0
6.6377916 23.978851 1.3897368
4.3154211 15.66293 -0.90746999
4.1543603 15.078357 0
6.6246858 24.044466 1.3930746
4.2985544 15.675653 -0.90790558
4.136138 15.083365 0
4.1954503 15.299662 0.88612878
4.2809772 15.685844 -0.90819556
4.118597 15.09087 0
4.172174 15.28718 0.88511324
4.2592964 15.680976 -0.90761501
4.0996752 15.093317 0
4.1489305 15.274654 0.8840971
4.2396684 15.683605 -0.90746999
4.0827947 15.103289 0
4.1230116 15.252061 0.88250041
4.2180147 15.678679 -0.90688944
4.0685978 15.123285 0
4.1032305 15.252018 0.88221043
4.1983957 15.681257 -0.90674442
4.0509963 15.130712 0
4.0834532 15.251941 0.88191986
4.1794448 15.686318 -0.90674442
4.0394096 15.160738 0
4.064353 15.254354 0.88177484
4.166481 15.71396 -0.90805054
4.0250888 15.180696 0
4.0472512 15.264283 0.88206542
4.1607466 15.769222 -0.91095281
4.0060797 15.183035 0
4.0341053 15.289252 0.88322598
4.207675 16.025555 -0.92546618
5.9188151 22.542686 0
4.0143099 15.289094 0.882936
4.2086687 16.108555 -0.92996508
7.3611794 28.174698 0
3.9997728 15.309012 0.88380653
7.329093 28.191122 0
3.9819274 15.316357 0.88395208
7.2904639 28.182327 0
3.9673212 15.336246 0.88482267
7.2596488 28.203714 0
3.9449022 15.325934 0.88395208
4.9044213 19.149483 0
7.2218528 28.197971 1.6258667
4.7360477 18.585468 0
7.1832833 28.189049 1.6248505
4.692481 18.507931 0
4.8063054 18.956873 1.0923612
4.6701145 18.513588 0
4.7656031 18.89213 1.0882978
4.65766 18.511362 0
4.7224879 18.769014 1.0810412
4.6110244 18.514986 0
4.6356735 18.613962 1.0714623
4.5986629 18.560963 0
4.6075554 18.596853 1.0701561
4.5949159 18.642305 0
4.5857024 18.604927 1.0703012
4.6095705 18.799492 0
4.5601254 18.597837 1.0695755
4.6651697 19.126135 0
4.5351872 18.593237 1.068995
4.6598516 19.205099 0
4.5163951 18.613859 1.0698662
5.9939337 24.834299 0
4.5030437 18.657185 1.0720428
5.9566317 24.811155 0
4.5199246 18.826841 1.0814767
5.9187903 24.785431 0
4.5225182 18.938425 1.0875717
5.8786139 24.749521 0
4.5320568 19.080389 1.095409
5.8397284 24.718613 0
7.9135938 33.496944 1.9225161
5.8086672 24.720589 0
7.87252 33.503956 1.922371
6.0831881 26.030104 0
7.8278913 33.495728 1.921355
6.0446634 26.007027 0
7.7868247 33.502636 1.9212099
6.0144057 26.019377 0
4.4096775 19.077042 1.0936674
4.4700208 19.445143 0
4.3848786 19.074764 1.0932324
4.4534817 19.480974 0
4.3583517 19.064846 1.0923612
4.4224401 19.453354 0
7.6380582 33.59816 1.9245483
4.3937669 19.435839 0
7.6140685 33.680851 1.9287567
4.3702793 19.441133 0
7.5836258 33.735664 1.9313694
4.3439474 19.433704 0
7.5400214 33.732117 1.9306433
6.3007221 28.268021 0
7.5094662 33.691017 1.9280311
6.2637463 28.262911 0
7.4687519 33.700069 1.9280311
6.2295914 28.270458 0
7.4257898 33.698917 1.9274505
6.1931996 28.267797 0
7.3761683 33.667255 1.9251283
6.17067 28.328657 0
7.3382492 33.688843 1.9258544
6.1469026 28.384422 0
7.2876368 33.65197 1.9232416
6.1197209 28.424902 0
7.2584543 33.714092 1.9262894
6.0870032 28.439901 0
6.7103457 31.352304 1.7908816
4.5503063 21.38633 0
6.672998 31.362928 1.7910267
4.5093851 21.32053 0
6.6270313 31.332834 1.7888495
4.4852252 21.333595 0
6.5880985 31.335737 1.7885594
4.457315 21.32881 0
6.5486355 31.336042 1.7881238
3.5256212 16.972935 -0.96828026
4.4299536 21.326544 0
6.5134091 31.356649 1.7888495
3.5030084 16.967003 -0.96769965
4.4015489 21.31913 0
6.4728894 31.351776 1.7881238
3.4762368 16.940678 -0.965958
4.3747401 21.319338 0
6.4303021 31.336668 1.7868178
3.4505732 16.919411 -0.96450686
4.3494964 21.327156 0
6.3856835 31.311319 1.7849311
3.4218683 16.88282 -0.96218467
4.3237233 21.332396 0
6.3421669 31.290997 1.7833345
3.394284 16.851286 -0.96015298
4.2964044 21.329958 0
6.3012757 31.283358 1.7824639
3.3662694 16.817154 -0.95797575
4.2680726 21.322369 0
6.2614312 31.280758 1.7818834
3.3418911 16.800821 -0.95681465
4.2392602 21.312199 0
6.2246447 31.293402 1.7821739
3.3200781 16.797207 -0.95637965
4.2069454 21.284119 0
6.2105079 31.420702 1.788995
3.2962737 16.783356 -0.95536351
4.1822267 21.294289 0
6.1895628 31.51487 1.7939295
3.2846351 16.777691 -0.95492798
4.1718607 21.309578 0
6.167027 31.500751 1.7929133
3.2633688 16.776552 -0.95463794
4.1485953 21.327385 0
6.1200299 31.462273 1.7903011
3.2391508 16.760073 -0.95347685
4.1247973 21.342602 0
6.0593295 31.352293 1.783625
3.2169371 16.753767 -0.9528963
4.0985141 21.345009 0
6.0062537 31.280491 1.779126
3.1947436 16.747433 -0.95231575
4.0727196 21.349945 0
5.9674783 31.282616 1.7788355
3.17257 16.741068 -0.95173514
4.0474057 21.357414 0
5.9224191 31.251516 1.7766589
3.1494558 16.729572 -0.95086461
4.0264101 21.387859 0
5.8856139 31.263752 1.7769488
3.1268497 16.720589 -0.95013851
3.9996083 21.387598 0
6.6043854 35.316444 2.0068381
3.1037972 16.70903 -0.94926792
6.6462264 35.779396 0
6.5598092 35.314178 2.0062575
3.0821905 16.705099 -0.94883239
3.382236 18.33131 0
6.5251489 35.365517 2.0087247
3.0591941 16.693481 -0.94796181
3.35727 18.320028 0
3.9092443 21.332056 1.2113695
3.0394859 16.69972 -0.94810683
3.3276749 18.283106 0
3.8857918 21.349543 1.212095
3.0253134 16.736618 -0.94999349
3.3074327 18.297358 0
3.8581452 21.344004 1.2115151
3.0092199 16.763277 -0.95129961
0 0 0
3.8263824 21.315395 1.2096277
2.988507 16.764345 -0.95115459
0 0 0
3.7974334 21.302103 1.2086122
2.9655316 16.752598 -0.95028406
0 0 0
3.7730503 21.314354 1.2090478
2.9479854 16.771519 -0.95115459
0 0 0
3.7499914 21.334248 1.2099184
2.9272718 16.772512 -0.95100963
0 0 0
3.7228699 21.331081 1.2094828
2.9034543 16.755554 -0.94984847
0 0 0
3.6944315 21.320208 1.2086122
2.8823242 16.753923 -0.94955796
0 0 0
3.6695478 21.329773 1.2089022
2.8426979 16.765968 -0.94984847
0 0 0
3.6219003 21.361633 1.2102083
2.8176928 16.741201 -0.94825184
0 0 0
3.6034176 21.409554 1.2126756
2.8064537 16.798414 -0.95129961
0 0 0
3.5809712 21.434395 1.2138367
0 0 -0
2.7852128 16.733469 -0.94752628
0 0 0
3.5658882 21.42374 1.2131112
2.7679567 16.75477 -0.94854236
0 0 0
3.5446584 21.456238 1.2147079
2.7498116 16.77092 -0.94926792
0 0 0
3.5162067 21.445114 1.2138367
2.7266235 16.756275 -0.94825184
0 0 0
3.4890411 21.44166 1.2134017
2.7109318 16.787777 -0.94984847
0 0 0
4.5695014 28.297197 1.6010487
2.6869452 16.767952 -0.94854236
0 0 0
4.5361295 28.307835 1.6013393
2.6666825 16.771187 -0.94854236
0 0 0
4.507226 28.346653 1.6032259
2.6464159 16.774397 -0.94854236
0 0 0
0 0 0
2.6237335 16.762175 -0.94767123
0 0 0
4.9683013 31.740849 1.79451
2.605871 16.780743 -0.94854236
0 0 0
4.7856107 30.817373 1.7419721
2.5820327 16.760769 -0.94723624
0 0 0
4.7353148 30.738388 1.7371826
2.5645251 16.781849 -0.94825184
0 0 0
4.6938534 30.715839 1.7355865
2.5438566 16.78237 -0.94810683
0 0 0
4.6458321 30.649553 1.7315226
2.5224173 16.777719 -0.94767123
0 0 0
4.6149759 30.696259 1.7338448
2.5009942 16.773052 -0.94723624
0 0 0
4.575582 30.686386 1.7329737
2.4830055 16.791479 -0.94810683
0 0 0
4.5453429 30.738167 1.7355865
2.4649756 16.809889 -0.94897735
0 0 0
4.5081987 30.743637 1.7355865
2.4405506 16.784576 -0.94738126
0 0 0
4.4508581 30.61021 1.7277492
2.4191554 16.779795 -0.94694573
0 0 0
4.3697472 30.309532 1.7104787
2.3963044 16.764698 -0.94592959
0 0 0
4.325767 30.263344 1.7075758
2.374953 16.759871 -0.94549459
0 0 0
4.2829995 30.224813 1.7051085
2.3528934 16.749865 -0.94476902
0 0 0
4.2482824 30.24283 1.7058342
2.3315773 16.744972 -0.94433349
0 0 0
4.2128124 30.255665 1.7062697
0 0 -0
0 0 0
4.171988 30.229845 1.704528
0 0 -0
0 0 0
4.1537242 30.232361 1.704528
2.2827365 16.764809 -0.945059
0 0 0
3.8700473 28.422291 1.6022098
2.262825 16.770128 -0.94520402
0 0 0
0 0 0
2.2446268 16.788307 -0.94607514
0 0 0
0 0 0
2.2236567 16.785851 -0.94578457
0 0 0
3.7205875 28.085823 1.582472
2.2050629 16.801405 -0.94651014
0 0 0
3.6825912 28.059383 1.5807303
2.1864362 16.816948 -0.94723624
0 0 0
3.6547139 28.110189 1.5833426
2.1667776 16.824728 -0.94752628
0 0 0
3.6107891 28.037273 1.5789887
2.1467752 16.829908 -0.94767123
0 0 0
3.5657308 27.953985 1.5740542
2.1274154 16.840227 -0.94810683
0 0 0
3.5238097 27.893826 1.5704259
2.1077113 16.847946 -0.9483974
0 0 0
3.4855876 27.861971 1.5683942
2.0883098 16.85821 -0.94883239
0 0 0
3.4541557 27.884216 1.5694103
2.0695198 16.873613 -0.94955796
0 0 0
3.4400709 28.04826 1.5784081
2.0510097 16.891584 -0.95042902
0 0 0
3.4315472 28.261333 1.5901643
2.0318382 16.904369 -0.95100963
2.211796 18.401571 0
3.3946047 28.242233 1.5888575
2.014787 16.935186 -0.95260572
2.1846418 18.362892 0
3.3620129 28.259224 1.5895838
1.9976654 16.966 -0.95420241
2.1618431 18.360344 0
3.3226993 28.219397 1.5871165
1.9816751 17.007118 -0.95637965
2.1363442 18.334517 0
3.2870946 28.210478 1.5863904
1.962016 17.017237 -0.95681465
2.1144867 18.339666 0
3.2553864 28.235081 1.5875515
1.9432201 17.035089 -0.95768577
2.0920305 18.339624 0
3.219501 28.223509 1.5866809
1.9243828 17.052912 -0.95855629
0 0 0
3.1909313 28.27643 1.5894381
1.9037763 17.055225 -0.95855629
4.600337 41.212711 0
3.1553216 28.267355 1.5887126
1.8848773 17.073006 -0.95942688
4.552249 41.233753 0
3.1214485 28.273727 1.5888575
1.866221 17.093353 -0.96044296
0 0 0
3.0906672 28.308475 1.5905993
1.8665504 17.192638 -0.965958
0 0 0
3.0648706 28.230263 1.5861003
0 0 -0
0 0 0
3.4900024 32.51218 1.826439
0 0 0
3.4479725 32.490528 1.8249874
0 0 0
0 0 0
5.3647647 51.743896 0
0 0 0
5.2937503 51.667496 0
3.2753546 31.967764 1.794945
5.2360353 51.720467 0
3.2380338 31.984623 1.7956706
5.1722426 51.71381 0
3.1991258 31.985929 1.7955256
0 0 -0
5.1087294 51.70966 0
0 0 0
0 0 -0
5.04498 51.702839 0
3.0133152 30.881578 1.7331192
0 0 -0
4.9830031 51.714081 0
2.9819791 30.947262 1.7366021
4.9178019 51.691563 0
0 0 0
4.964138 53.550865 0
2.9786639 32.132473 1.8024923
0 0 -0
4.890183 53.455757 0
2.9360485 32.094646 1.8001701
0 0 -0
4.837286 53.591221 0
2.8879225 31.994654 1.7943645
0 0 -0
5.1861448 58.242077 0
2.8455744 31.956718 1.7920429
0 0 -0
0 0 0
2.809459 31.9886 1.7936389
0 0 0
2.7690113 31.971262 1.7924778
0 0 0
2.7303784 31.974585 1.7924778
4.7251606 56.134861 0
2.6893444 31.949385 1.7908816
0 0 -0
4.6538863 56.099033 0
2.6507378 31.952612 1.7908816
0 0 -0
4.6225562 56.132957 0
2.6322861 31.964565 1.7914623
4.5606203 56.211132 0
2.6003847 32.050591 1.7961061
0 0 -0
4.493526 56.226978 0
2.369982 29.655317 1.661714
0 0 -0
4.4231329 56.201233 0
2.3345559 29.663345 1.6620045
0 0 -0
4.0184727 51.860607 0
1.7420834 22.482548 1.2595536
0 0 -0
4.2882934 56.224731 0
1.7174852 22.518316 1.2614402
0 0 -0
3.894887 51.89352 0
1.6898856 22.515188 1.2611496
0 0 -0
3.8306477 51.877422 0
1.6632534 22.52499 1.2615852
3.7626829 51.809338 0
1.6345294 22.50625 1.2604241
0 0 -0
3.699152 51.800869 0
1.6108506 22.557457 1.2631819
3.6412959 51.872795 0
1.579954 22.507545 1.2602791
3.5766456 51.848602 0
0 0 0
0 0 -0
3.5168087 51.894421 0
0 0 0
3.4525466 51.875267 0
0 0 0
0 0 -0
3.389863 51.879398 0
0 0 0
0 0 -0
3.3286731 51.90683 0
1.9580923 30.534197 1.7090269
0 0 -0
3.2809849 52.149761 0
1.9226646 30.559879 1.710333
3.2248609 52.265373 0
1.8802971 30.474005 1.7053986
3.1656344 52.334175 0
1.6108177 26.629992 1.4901683
0 0 -0
3.1031663 52.350948 0
1.578793 26.63451 1.4903133
3.0412657 52.37804 0
1.5490192 26.677902 1.4926355
2.9793048 52.405071 0
1.5129486 26.612309 1.4888622
2.9146795 52.385239 0
1.3445294 24.165089 1.3518572
2.8836024 52.397385 0
1.331358 24.191847 1.3533089
2.8216872 52.426823 0
1.3021258 24.193438 1.3533089
2.7583377 52.430191 0
1.2712537 24.163857 1.3515673
2.6944497 52.423092 0
1.2428554 24.180939 1.3524377
0 0 -0
2.6322784 52.449699 0
1.2142876 24.195396 1.3531634
2.5690286 52.455437 0
1.1854328 24.204636 1.353599
0 0 -0
2.5063899 52.474106 0
1.1589125 24.263145 1.3567917
2.4431043 52.479694 0
1.1323738 24.32423 1.3601301
0 0 -0
2.3796909 52.482609 0
0.88654423 19.552183 1.0932324
0 0 -0
2.3159299 52.477642 0
0.8655532 19.612938 1.0965701
0 0 -0
2.2535236 52.503799 0
1.0507671 24.481335 1.3686929
0 0 -0
2.190949 52.527287 0
0.81414729 19.518917 1.0912001
2.1269519 52.516895 0
0.78972113 19.499126 1.0900396
2.063494 52.519428 0
0.76840377 19.557182 1.0932324
2.0004292 52.532284 0
0.74971586 19.68792 1.100489
0 0 -0
1.9370484 52.537262 0
0.72774512 19.73814 1.1032463
0 0 -0
1.874308 52.560371 0
0.70695066 19.824697 1.1080357
1.8103497 52.549595 0
0.68389034 19.851501 1.1094868
0 0 -0
1.7472848 52.564747 0
0.66016227 19.860107 1.1099224
0 0 -0
1.683686 52.56422 0
0.6363309 19.866079 1.1102124
1.6208926 52.589626 0
0.61312681 19.892811 1.1116641
1.5572703 52.588947 0
0.7232942 24.425613 1.3649195
1.4939471 52.598587 0
0.56630599 19.938389 1.1141313
0 0 -0
1.4308155 52.615971 0
0.53945941 19.837763 1.1084713
1.3995112 52.635029 0
0.52554041 19.765354 1.1044074
0 0 -0
1.3357791 52.631481 0
0.4990865 19.664675 1.0987474
1.2724348 52.643463 0
0.47312757 19.574343 1.0936674
1.2091231 52.65797 0
0.44929668 19.567114 1.0932324
0 0 -0
1.1454954 52.659393 0
0.42486206 19.531269 1.0912001
1.0821868 52.676353 0
0.4001413 19.477213 1.0881523
0 0 -0
1.0184363 52.672417 0
0.37685791 19.490681 1.0888784
0.89132082 52.685131 0
0.32949167 19.475941 1.0880073
0.8276605 52.686169 0
0.3061626 19.489313 1.0887328
0 0 -0
0.7640745 52.692341 0
0.28329158 19.53644 1.0913457
0.70050919 52.701023 0
0.3228482 24.288662 1.3567917
0.63686121 52.704433 0
0.29356271 24.294235 1.3570822
0 0 -0
0.60750502 55.861649 0
0.26324698 24.206236 1.3521478
0.53985584 55.846729 0
0.23349594 24.15457 1.349245
0.47235358 55.844742 0
0.204024 24.121058 1.3473583
0.40487579 55.845272 0
0.1750478 24.144669 1.3486644
0.33738163 55.843109 0
0.14573228 24.121479 1.3473583
0 0 -0
0.27005681 55.874706 0
0.11659863 24.124235 1.3475033
0.20259959 55.890614 0
0.20197049 55.717064 3.1121628
0.13509171 55.901226 0
0.13501135 55.867973 3.1205807
0 0 -0
0.067558482 55.911758 0
0.029115235 24.095922 1.3459072
-0 0 -0
-0 55.917 0
-0 19.577463 1.0935223
-0 0 -0
-0.067571059 55.922169 0
-0.023646116 19.569653 1.0930868
-0.1013707 55.929916 0
-0.035445619 19.556644 1.0923612
-0.16897459 55.937565 0
-0.059013184 19.535799 1.0912001
-0.23647603 55.9165 0
-0.082519449 19.512331 1.0898941
-0 0 -0
-0.3042523 55.955212 0
-0.1059832 19.491428 1.0887328
-0.37184566 55.952194 0
-0.12944837 19.478298 1.0880073
-0.43965712 55.977734 0
-0.15249428 19.415775 1.0845245
-0 0 -0
-0.50677615 55.919914 0
-0.17543626 19.35841 1.0813311
-0 0 -0
-0 0 0
-0.19794643 19.272451 1.0765423
-0 0 -0
-0 0 0
-0.22084545 19.238413 1.0746551
-0 0 0
-0.24399234 19.230345 1.0742201
-0.71542573 51.482811 0
-0.26719221 19.22744 1.0740751
-0 0 0
-0.29030684 19.219307 1.0736395
-0 0 0
-0.3136566 19.226738 1.0740751
-0.92324179 52.689793 0
-0.33661491 19.210752 1.0732039
-0.9861753 52.649605 0
-0.35997313 19.218128 1.0736395
-1.0497395 52.645775 0
-0.38324597 19.220274 1.0737845
-1.1129106 52.623653 0
-0.40635985 19.214605 1.0734946
-0.77816421 34.805721 0
-0.42963469 19.216696 1.0736395
-0.81936127 34.768337 0
-0.45328236 19.234341 1.0746551
-0.86059791 34.736099 0
-0.47697353 19.251965 1.0756712
-0.90209579 34.716824 0
-0.50043797 19.259169 1.0761067
-0.94326562 34.687096 0
-0.52420276 19.276726 1.0771223
-0.98421705 34.652115 0
-0.54778963 19.286467 1.0777029
-1.0054538 34.661919 0
-0.56011981 19.309517 1.0790095
-1.0474138 34.66328 0
-0.58384353 19.32181 1.079735
-0 0 -0
-1.0888882 34.648983 0
-0.60800576 19.347057 1.0811862
-1.1311783 34.660648 0
-0.63290793 19.393049 1.0837984
-1.1748188 34.711273 0
-0.65686768 19.407858 1.0846696
-1.2173065 34.72543 0
-0.68204719 19.456383 1.0874268
-1.2601134 34.747337 0
-0.70565003 19.458139 1.0875717
-1.3022928 34.750996 0
-0.7296477 19.470263 1.0882978
-2.0515816 53.032951 0
-0.93085277 24.062347 1.3450361
-2.1153488 53.022629 0
-0.95951241 24.050819 1.3444555
-2.1810176 53.059032 0
-0.98750538 24.023684 1.3430045
-2.2478783 53.121361 0
-1.0168623 24.030264 1.3434399
-2.313648 53.15501 0
-1.1185489 25.698154 1.4367598
-2.3819444 53.243168 0
-1.1499474 25.704563 1.4371948
-2.4411404 53.128468 0
-1.179813 25.677202 1.4357437
-0 0 0
-1.2093692 25.644611 1.434002
-0 0 0
-1.239476 25.624962 1.4329859
-2.6133482 52.708595 0
-1.270824 25.631233 1.4334214
-2.0332208 40.030006 0
-1.3048251 25.689369 1.4367598
-2.0796952 39.991131 0
-1.3377538 25.724098 1.4387914
-2.1282921 39.99379 0
-1.3686974 25.71987 1.4386464
-2.1760495 39.980797 0
-1.3204135 24.260101 1.3570822
-2.2232003 39.957348 0
-1.3465506 24.201416 1.3538895
-2.269264 39.915665 0
-1.3746125 24.179018 1.3527284
-1.4886709 25.373648 0
-1.4225422 24.246517 1.3566467
-1.1856583 19.799742 0
-1.1685433 19.513931 1.0919262
-1.2079942 19.772312 0
-1.1914874 19.502131 1.0913457
-1.2305896 19.750059 0
-1.214889 19.498077 1.0912001
-1.2523081 19.714796 0
-1.2384478 19.496593 1.0912001
-1.2751204 19.697691 0
-1.2643549 19.531391 1.0932324
-1.2977213 19.677956 0
-1.0101074 15.316732 0.85739255
-1.3211488 19.671185 0
-1.0282661 15.31032 0.85710257
-1.3447393 19.666981 0
-1.0474739 15.319436 0.85768312
-1.3683208 19.662737 0
-1.0659837 15.318159 0.85768312
-1.3918947 19.658476 0
-1.0824729 15.288346 0.85608643
-1.4152737 19.651592 0
-1.385762 19.241814 1.0775578
-1.4395874 19.657648 0
-1.409011 19.240126 1.0775578
-1.4639186 19.663683 0
-1.4332223 19.251362 1.0782834
-1.4884627 19.672279 0
-1.4594237 19.288485 1.0804607
-1.5136282 19.688633 0
-1.4861147 19.33075 1.0829278
-1.5376195 19.689383 0
-1.5090661 19.323753 1.0826373
-1.5630552 19.708265 0
-1.531387 19.308966 1.0819118
-1.5906273 19.75305 0
-1.5517974 19.270845 1.0798801
-1.6149174 19.756296 0
-1.5729648 19.243063 1.078429
-1.6411549 19.782864 0
-1.2520827 15.092896 0.84592754
-1.6661487 19.793829 0
-1.26487 15.026643 0.84229916
-1.6931648 19.82811 0
-1.2812572 15.004392 0.84113806
-1.7044746 19.819302 0
-1.2889856 14.988076 0.84026694
-2.8348012 32.502441 0
-1.3070948 14.986508 0.84026694
-2.8678827 32.429005 0
-1.3249735 14.982332 0.84012192
-2.8842916 32.171505 0
-1.3440038 14.991073 0.84070247
-2.8970201 31.880312 0
-1.3649385 15.020491 0.84244418
-2.790206 30.298626 0
-1.3923792 15.119736 0.84810418
-2.8142419 30.160498 0
-1.4190969 15.208597 0.85318422
-0 0 -0
-2.8406415 30.050848 0
-1.4418738 15.25343 0.85579646
-2.8695092 29.969681 0
-1.4603034 15.251678 0.85579646
-2.9034591 29.942881 0
-1.4661922 15.120591 0.84853977
-2.939383 29.936762 0
-1.4710044 14.981752 0.84084749
-2.9722073 29.899525 0
-1.4873073 14.961871 0.83983195
-2.9989524 29.802692 0
-1.5051248 14.95748 0.83968693
-3.0186136 29.638536 0
-1.5221437 14.945311 0.83910638
-3.0352135 29.448486 0
-1.5391356 14.933121 0.83852583
-3.0570273 29.312792 0
-1.5558298 14.918321 0.83779973
-3.0725095 29.120146 0
-1.5711285 14.890594 0.83634859
-3.0858748 28.911993 0
-1.5885687 14.883522 0.83605856
-3.0981815 28.698662 0
-1.6057143 14.873839 0.83562303
-3.1142154 28.524162 0
-1.6214292 14.851223 0.83446193
-3.1338298 28.385876 0
-2.6783659 24.260336 1.3633229
-3.1496489 28.216536 0
-2.7186313 24.355207 1.3688378
-3.1671076 28.065315 0
-2.7495143 24.364813 1.3695635
-3.1818459 27.893408 0
-2.7724741 24.30468 1.3663706
-3.1955767 27.71633 0
-2.7938046 24.231625 1.3624523
-3.191047 27.530853 0
-2.7988701 24.147333 1.3578078
-0 0 -0
-3.2079616 27.387402 0
-1.8831147 16.076757 0.90412551
-3.2217813 27.220692 0
-1.9092575 16.131235 0.90731829
-3.2364388 27.064325 0
-1.9287475 16.128916 0.90731829
-3.2497878 26.900219 0
-1.9485462 16.129152 0.90746331
-3.2636898 26.743864 0
-1.9670891 16.119045 0.90702772
-0 0 -0
-3.2762632 26.579763 0
-1.9865643 16.116655 0.90702772
-3.29391 26.459572 0
-1.7649796 14.177862 0.79803401
-3.3119211 26.344545 0
-1.7898871 14.237585 0.80151677
-0 0 -0
-3.2365861 25.49633 0
-1.810362 14.261195 0.80296844
-3.2673912 25.492401 0
-2.0399926 15.916157 0.89628828
-3.297189 25.480688 0
-2.0555544 15.88533 0.89469159
-3.3269634 25.468941 0
-2.0727284 15.867381 0.893821
-3.353313 25.431364 0
-2.0881627 15.836525 0.89222437
-1.9208367 14.432952 0
-2.1079826 15.839147 0.89251488
-1.9543116 14.417953 0
-3.0438876 22.45631 1.2657942
-3.4112995 24.940447 0
-1.925947 14.080844 0.79382509
-3.4225757 24.799671 0
-1.9415385 14.068211 0.79324454
-3.4378252 24.689846 0
-1.9581778 14.063283 0.79309952
-1.9842205 14.125342 -0.79673404
-3.45064 24.564545 0
-1.9780607 14.081492 0.79426062
-1.9987359 14.104933 -0.79571843
-3.4715569 24.498524 0
-2.0045521 14.145978 0.79803401
-2.0150414 14.097358 -0.79542792
-3.4831121 24.368074 0
-2.0378199 14.256718 0.80441958
-2.0309625 14.087205 -0.79499292
-2.0524232 14.236061 0
-2.060235 14.290246 0.80645126
-2.0464871 14.074455 -0.79441231
-2.0718708 14.249028 0
-2.0703976 14.238896 0.80369401
-2.0568666 14.086069 -0.79513788
-2.0831101 14.265793 0
-2.0786247 14.235075 0.80354899
-2.0731277 14.078427 -0.79484731
-2.0992098 14.255548 0
-2.0965798 14.237689 0.80383903
-2.0939546 14.10162 -0.79629904
-2.1133752 14.232408 0
-2.1084392 14.199166 0.80180734
-2.110992 14.099079 -0.79629904
-2.1255615 14.196386 0
-2.1017399 14.037286 0.79280895
-2.1284139 14.099085 -0.796444
-2.1399937 14.175792 0
-2.1128829 13.996203 0.79063231
-2.1442752 14.088794 -0.79600847
-2.1520307 14.139751 0
-2.1317475 14.006482 0.79135787
-2.1589334 14.070787 -0.79513788
-2.1564839 14.054824 0
-2.1463046 13.988481 0.79048675
-2.1731529 14.050191 -0.7941218
-2.1599405 13.964767 0
-2.3403399 15.131113 0.85521591
-2.182924 14.001346 -0.79150957
-2.1695969 13.915867 0
-2.3562188 15.112864 0.85434479
-2.2006462 14.003827 -0.79179955
-2.1767137 13.851532 0
-2.3740749 15.107442 0.85419977
-2.2139075 13.978062 -0.79049343
-2.246779 14.185605 0
-2.3935475 15.112264 0.8546353
-2.2287481 13.962549 -0.78976786
-2.2807369 14.288245 0
-2.4220452 15.173508 0.85826367
-2.2381899 13.913672 -0.78715563
-2.2810535 14.180134 0
-2.4482176 15.219306 0.86102092
-1.7269764 10.653611 -0.60283774
-2.2861094 14.10287 0
-2.4661899 15.213775 0.8608759
-1.7473886 10.697681 -0.60545051
-2.2989538 14.074417 0
-2.4703298 15.123597 0.85594141
-0 0 -0
-1.7556711 10.667356 -0.60385382
-2.3189173 14.089607 0
-2.4839597 15.092395 0.85434479
-0 0 -0
-2.3194387 13.987284 -0.7919451
-2.3389192 14.10476 0
-2.5077195 15.122705 0.85623145
-0 0 -0
-2.3371935 13.989592 -0.79223514
-2.3516726 14.076259 0
-2.536267 15.181174 0.85971481
-2.3506451 13.966258 -0.79107398
-2.3699756 14.081109 0
-2.5597839 15.208847 0.86145645
-2.3657815 13.95316 -0.79049343
-0 0 0
-2.5664322 15.13658 0.8575381
-1.8143992 10.62326 -0.60196716
-2.409255 14.106125 0
-2.586031 15.141144 0.8579731
-1.8285562 10.628745 -0.60240269
-2.4373267 14.167312 0
-2.3391204 13.596473 0.7706039
-1.8431722 10.636768 -0.6029833
-2.577522 14.874631 0
-2.3453445 13.534757 0.76726609
-0 0 -0
-0 0 -0
-2.5981007 14.939731 0
-2.3446171 13.482137 0.76436329
-0 0 -0
-0 0 -0
-2.6094167 14.898136 0
-2.3474579 13.402514 0.76000941
-0 0 -0
-2.617923 14.841153 0
-2.3446932 13.292197 0.75391382
-0 0 -0
-2.6208329 14.753423 0
-2.3575706 13.271443 0.75289768
-0 0 -0
-2.6281166 14.69132 0
-2.3722317 13.260909 0.75246215
-0 0 -0
-1.7650326 9.798317 -0.55610532
-2.6449444 14.683017 0
-2.7406406 15.214259 0.86348814
-1.7824358 9.8268576 -0.55784696
-2.6612902 14.672125 0
-2.7557771 15.193047 0.86247259
-1.7915082 9.8093653 -0.55697644
-2.6855617 14.704736 0
-2.7610614 15.118134 0.85840869
-0 0 -0
-1.8019493 9.7995243 -0.55654085
-2.716506 14.773149 0
-2.7685196 15.056015 0.85507089
-1.8137888 9.7973394 -0.55654085
-2.7376711 14.787771 0
-2.5223067 13.624461 0.7739417
-1.8203881 9.7670393 -0.55494422
-2.7474315 14.740961 0
-2.5435293 13.646953 0.77539337
-0 0 -0
-2.7542021 14.678798 0
-2.5604959 13.64642 0.77553833
-0 0 -0
-1.6518432 8.7453508 -0.99200284
-0 0 -0
-2.7260523 14.432534 0
-2.5784302 13.650979 0.77597392
-1.643086 8.6417198 -0.98047227
-0 0 -0
-2.691478 14.155681 0
-2.5958927 13.652954 0.77626389
-1.6452618 8.5965443 -0.97557157
-1.7913796 9.360014 -0.53230357
-2.701242 14.114074 0
-2.6123877 13.649808 0.77626389
-1.6439055 8.5335951 -0.96865255
-1.7899092 9.2915077 -0.52853018
-2.7133722 14.08525 0
-2.629863 13.65175 0.77655447
-1.6581541 8.5519161 -0.97095889
-1.8031133 9.2995415 -0.52911079
-2.7298927 14.079398 0
-2.643882 13.635799 0.77582836
-1.6575884 8.4940624 -0.96461701
-1.8128551 9.2897034 -0.5286752
-2.7459068 14.070986 0
-2.9022217 14.871998 0.84636253
-1.6638628 8.4717493 -0.96231067
-1.8080559 9.205924 -0.52403128
-2.7603996 14.054892 0
-2.9191887 14.863385 0.84607249
