# .PCD v0.7 - Point Cloud Data file format
VERSION 0.7
FIELDS x y z
SIZE 4 4 4
TYPE F F F
COUNT 1 1 1
WIDTH 1562
HEIGHT 1
VIEWPOINT 0 0 0 1 0 0 0
POINTS 1562
DATA ascii
4.795804 -2.9309075 -0.62646687
4.7793827 -2.9208717 -0.31286439
4.7829843 -2.9230728 0
4.7814956 -2.922163 0.31300268
3.8445463 -2.3431802 -0.99740154
4.4854207 -2.7337813 -0.87572712
4.7905078 -2.9197264 -0.6253137
4.7584996 -2.9002178 -0.3112677
4.7865129 -2.9172914 0
4.789465 -2.9190907 0.31329325
3.8452055 -2.3372147 -0.99683923
4.4843292 -2.7256904 -0.87487036
4.8006649 -2.9179673 -0.62617886
4.7309184 -2.8755736 -0.30923602
4.8011603 -2.9182684 0
4.819634 -2.9294972 0.31503493
3.8501976 -2.3338826 -0.99740154
4.4964004 -2.7255929 -0.87658221
4.7953401 -2.9068015 -0.62502569
4.7232809 -2.8631215 -0.30851048
4.8202553 -2.9219046 0
4.8231702 -2.9236715 0.31503493
3.8464894 -2.325284 -0.99571234
4.4909034 -2.7148457 -0.87487036
4.7966375 -2.8996685 -0.62473768
4.7356319 -2.8627894 -0.30909103
4.8371496 -2.9241588 0
4.8400373 -2.9259045 0.31590548
3.8558266 -2.3245714 -0.99740154
4.4941802 -2.7094173 -0.87487036
4.7934899 -2.889863 -0.62387252
4.7702379 -2.875845 -0.31112272
4.8495946 -2.9236867 0
4.8502474 -2.9240801 0.31634104
3.8542731 -2.3172896 -0.99627471
4.5018549 -2.7066329 -0.87572712
4.7903261 -2.8800693 -0.62300736
4.784842 -2.8767722 -0.31184825
4.8598084 -2.9218438 0
4.8649092 -2.9249108 0.31706658
3.8483534 -2.3074045 -0.99402314
4.4985151 -2.6972299 -0.87444282
4.7938027 -2.874279 -0.62300736
4.7816267 -2.8669784 -0.31141269
4.8767319 -2.9240019 0
4.8728929 -2.9217 0.31735659
3.8511386 -2.3027527 -0.99402314
4.501771 -2.6917922 -0.87444282
4.7928367 -2.8658323 -0.62243134
4.7895522 -2.8638682 -0.31170326
4.8802614 -2.9181073 0
4.8697357 -2.9118133 0.31692159
3.8604674 -2.3020029 -0.99571234
4.5094256 -2.6889777 -0.8752979
4.7940764 -2.8587158 -0.62214333
4.7773843 -2.848762 -0.31068715
4.8770761 -2.9082084 0
4.8710122 -2.9045925 0.31677604
3.8588824 -2.2947419 -0.99458766
4.5060587 -2.6795945 -0.87401527
4.793077 -2.8502743 -0.62156618
4.7741294 -2.8390069 -0.31025216
4.889534 -2.907634 0
4.8789892 -2.9013634 0.31706658
3.8572772 -2.2874827 -0.99346083
4.5159106 -2.6780725 -0.8752979
4.7698212 -2.828649 -0.61810666
4.759676 -2.8226328 -0.30909103
4.8818536 -2.8950877 0
4.8735514 -2.8901644 0.31648603
3.8644166 -2.2854097 -0.99458766
4.5191431 -2.6726139 -0.8752979
4.7420716 -2.8044534 -0.61407113
4.7675524 -2.8195226 -0.30938104
4.8853478 -2.8891866 0
4.8792744 -2.8855948 0.31663105
3.8649805 -2.2794442 -0.99402314
4.5223694 -2.6671515 -0.8752979
4.7075849 -2.7763858 -0.60917044
4.7731915 -2.8150785 -0.30952603
4.8865957 -2.8819609 0
4.8760409 -2.8757358 0.31619549
3.8726757 -2.2713864 -0.99458766
4.5420918 -2.6640098 -0.87786657
4.6942034 -2.7532256 -0.60657609
4.7889462 -2.8087938 -0.31010658
4.8845668 -2.8648767 0
4.8672929 -2.8547456 0.31517991
3.8644447 -2.2602875 -0.99177164
4.5408711 -2.655925 -0.87700981
4.7533402 -2.7801964 -0.61378312
4.7878547 -2.800384 -0.3098166
4.8857718 -2.857655 0
4.8797107 -2.8541098 0.31576046
3.8767862 -2.2643638 -0.99458766
4.5513415 -2.65836 -0.87872165
4.7706466 -2.7864521 -0.61580038
4.7940292 -2.8001094 -0.31010658
4.8762631 -2.848141 0
4.8926506 -2.8577127 0.31648603
3.875124 -2.2571175 -0.99346083
4.5634232 -2.6580267 -0.8804335
4.7918897 -2.7911 -0.61810666
4.7906795 -2.790395 -0.30967158
4.884203 -2.8448691 0
4.8803806 -2.8426428 0.31546992
3.8778484 -2.2524335 -0.99346083
4.5710754 -2.655092 -0.88129026
4.7907901 -2.7827122 -0.61753064
4.771574 -2.7715509 -0.30821991
4.8763785 -2.8324261 0
4.8905549 -2.8406603 0.31590548
3.8849688 -2.2502959 -0.99458766
4.5764995 -2.6508522 -0.88171786
4.7986207 -2.7795117 -0.61810666
4.7659254 -2.7605736 -0.30763936
4.8775477 -2.8252287 0
4.8939838 -2.834749 0.31590548
3.8810821 -2.241786 -0.99289846
4.5885906 -2.6504564 -0.88342971
4.7975006 -2.7711267 -0.61753064
4.7602572 -2.7496142 -0.30705881
4.8809576 -2.8193331 0
4.8929009 -2.8262315 0.31561491
3.8815885 -2.2358279 -0.99233615
4.6051326 -2.6525953 -0.8859967
4.7963586 -2.7627432 -0.61695355
4.7703333 -2.7477524 -0.30749437
4.8798547 -2.8108377 0
4.9053187 -2.8255053 0.31619549
3.8776753 -2.2273381 -0.99064696
4.6216946 -2.6547031 -0.8885653
4.7974529 -2.7556589 -0.61666548
4.7894244 -2.7510474 -0.30851048
4.8787298 -2.8023443 0
6.8463826 -3.932565 0.44100928
3.9002049 -2.2340162 -0.99571234
4.6983967 -2.691216 -0.90268618
4.7940435 -2.7460022 -0.61580038
4.790484 -2.743963 -0.30836493
4.8866334 -2.799037 0
6.8398576 -3.9178331 0.44028375
3.8918719 -2.223002 -0.99289846
4.7462263 -2.7110014 -0.91124552
4.797358 -2.7402074 -0.61580038
4.7937961 -2.7381728 -0.30836493
4.8832302 -2.7892566 0
6.8084855 -3.8889451 0.43796149
3.8945551 -2.2182977 -0.99289846
4.7851882 -2.7255929 -0.91809303
4.8006659 -2.7344089 -0.61580038
4.7948451 -2.7310934 -0.30821991
4.8843374 -2.7820673 0
6.7793093 -3.8614235 0.43578428
3.8972325 -2.2135901 -0.99289846
4.8018665 -2.7274134 -0.92065996
4.8017192 -2.72733 -0.61551231
4.7958846 -2.7240157 -0.30807492
4.8809047 -2.7723064 0
6.7387905 -3.8275673 0.43288204
3.9109569 -2.2151396 -0.99571234
4.7984638 -2.7178175 -0.91937733
4.7960091 -2.7164271 -0.61435914
4.7923875 -2.714376 -0.30763936
4.8774552 -2.7625577 0
6.7569718 -3.8271031 0.4337526
3.90921 -2.2079155 -0.99458766
4.8017445 -2.7120178 -0.91937733
4.7992878 -2.7106302 -0.61435914
4.7888827 -2.7047534 -0.30720437
4.8830624 -2.7579458 0
6.761591 -3.8189359 0.4337526
3.9207306 -2.208178 -0.99683923
4.8027749 -2.7049503 -0.91894811
4.7980566 -2.7022932 -0.61378312
4.7898769 -2.6976862 -0.30705881
4.8886566 -2.7533195 0
4.8939147 -2.7562809 0.31372824
3.921174 -2.2021911 -0.99627471
4.8060398 -2.6991451 -0.91894811
4.7968035 -2.693958 -0.61320597
4.7931328 -2.6918964 -0.30705881
4.88517 -2.7435861 0
4.9017773 -2.7529128 0.31401882
3.9194026 -2.1949708 -0.99515003
4.8092976 -2.693336 -0.91894811
4.800055 -2.6881602 -0.61320597
4.7986555 -2.6873763 -0.30720437
4.8884816 -2.7376814 0
4.8937664 -2.7406409 0.31329325
3.9176109 -2.1877534 -0.99402314
4.8013444 -2.6812661 -0.91680866
4.7987876 -2.6798384 -0.61262995
4.7973576 -2.6790397 -0.30691379
4.8895159 -2.7305048 0
4.8970747 -2.7347257 0.31329325
3.9167147 -2.1841497 -0.99346083
4.8029633 -2.6783648 -0.91680866
4.7981491 -2.6756802 -0.61234194
4.7967081 -2.6748767 -0.3067688
4.8888941 -2.726284 0
4.89645 -2.7304976 0.31314769
3.9260151 -2.1831212 -0.99515003
4.801713 -2.6700668 -0.91595358
4.8013787 -2.6698806 -0.61234194
4.7931213 -2.6652892 -0.30633324
4.8853588 -2.7165792 0
4.8974767 -2.7233176 0.31300268
3.9286501 -2.178376 -0.99515003
4.807179 -2.6655066 -0.91638112
4.7978129 -2.6603131 -0.61147678
4.7940683 -2.658237 -0.30618826
4.888638 -2.7106743 0
4.8984933 -2.7161391 0.31285769
3.9268279 -2.1711659 -0.99402314
4.8059072 -2.6572142 -0.91552603
4.801024 -2.6545141 -0.61147678
4.7904525 -2.648669 -0.30575269
4.8850746 -2.7009864 0
4.9040437 -2.7114742 0.31300268
3.920548 -2.1615126 -0.99177164
4.8046141 -2.6489241 -0.91466928
4.7996936 -2.6462111 -0.61089969
4.7959228 -2.6441321 -0.30589768
4.8906116 -2.696337 0
4.9118719 -2.7080584 0.31329325
3.9320633 -2.16167 -0.99402314
4.8100586 -2.6443522 -0.91509682
4.8006229 -2.6391647 -0.61061162
4.7945642 -2.6358342 -0.30560768
4.8984318 -2.6929357 0
4.9174151 -2.7033718 0.31343824
3.9369068 -2.1581423 -0.99458766
4.8019972 -2.6323695 -0.91295737
4.7970018 -2.629631 -0.60974652
4.7977457 -2.630039 -0.30560768
4.8834252 -2.6770067 0
6.8664589 -3.7640705 0.43738094
3.9395118 -2.1533837 -0.99458766
4.8096838 -2.6290302 -0.91381413
4.7979083 -2.6225936 -0.60945845
4.80092 -2.6242399 -0.30560768
4.8935094 -2.67485 0
6.8755579 -3.7582612 0.43767095
3.9554927 -2.1559157 -0.99796391
4.785809 -2.6084743 -0.90867853
4.8033428 -2.618031 -0.60974652
4.7949615 -2.6134627 -0.30502713
4.8875971 -2.6639533 0
6.8800941 -3.7499506 0.43767095
3.9469345 -2.1450694 -0.99515003
4.7438474 -2.5781734 -0.90011919
4.8019619 -2.6097574 -0.60917044
4.7981157 -2.607667 -0.30502713
4.8999591 -2.6630166 0
6.8754878 -3.7366717 0.4370904
3.9495234 -2.1402986 -0.99515003
4.6724815 -2.532079 -0.8859967
4.8051119 -2.6039534 -0.60917044
4.7989807 -2.6006308 -0.30488214
4.8871541 -2.6484132 0
0 -0 0
3.9521067 -2.135525 -0.99515003
4.569397 -2.4690783 -0.86588347
4.7991524 -2.5932269 -0.60801727
4.797543 -2.5923572 -0.30459157
4.8903508 -2.6425059 0
6.8982182 -3.7274594 0.43796149
3.9524493 -2.129544 -0.99458766
4.5204053 -2.4355533 -0.85604143
4.8022823 -2.5874262 -0.60801727
4.7983866 -2.5853271 -0.30444658
4.8889623 -2.6341286 0
6.9027171 -3.7191215 0.43796149
3.9483025 -2.1211579 -0.99289846
4.507513 -2.4215841 -0.85304528
4.8008442 -2.5791712 -0.60744017
4.801507 -2.5795274 -0.30444658
4.8875518 -2.6257536 0
6.8980498 -3.7058592 0.43738094
3.955338 -2.118783 -0.99402314
4.5036449 -2.4124982 -0.85176092
4.8016791 -2.5721483 -0.6071521
4.8000436 -2.5712721 -0.30415657
4.8907208 -2.6198461 0
6.9048109 -3.6987474 0.43752593
3.9623818 -2.1163986 -0.99515003
4.506557 -2.4070549 -0.85176092
4.8070626 -2.5675619 -0.60744017
4.7985587 -2.5630198 -0.303866
4.8915896 -2.6127098 0
6.9046955 -3.6879554 0.43723595
3.9626958 -2.1104162 -0.99458766
4.4981351 -2.3955755 -0.84962153
4.8078809 -2.5605371 -0.6071521
4.801652 -2.5572197 -0.303866
4.894743 -2.6067972 0
6.9022641 -3.6759443 0.43680039
3.967485 -2.106817 -0.99515003
4.4896927 -2.38412 -0.84748209
4.8041248 -2.55109 -0.60628808
4.7955585 -2.5465412 -0.30328545
4.8886952 -2.5959988 0
6.9021063 -3.6651618 0.43650982
3.9507983 -2.094897 -0.99064696
4.5047355 -2.3886204 -0.85004908
4.7896671 -2.5397043 -0.60426974
4.7948027 -2.5424275 -0.30314046
4.8948569 -2.5954807 0
6.9043193 -3.6609912 0.43650982
3.9623117 -2.0948722 -0.99289846
4.4985409 -2.378376 -0.84833723
4.7858706 -2.5302873 -0.60340458
4.8024611 -2.5390587 -0.30343047
4.8910937 -2.5859187 0
6.9018531 -3.6490061 0.43607482
3.9625945 -2.0888991 -0.99233615
4.4968739 -2.3705468 -0.84748209
4.7706203 -2.5148535 -0.6010983
4.7986364 -2.5296223 -0.30299544
4.889606 -2.5775774 0
6.8993592 -3.6370275 0.43563926
3.9763591 -2.0900195 -0.99515003
4.4974647 -2.3639183 -0.84705454
4.771368 -2.507885 -0.60081023
4.8016896 -2.5238223 -0.30299544
4.888114 -2.569248 0
6.8991528 -3.6262727 0.43534926
3.9721279 -2.0816736 -0.99346083
4.4957662 -2.3560967 -0.84619778
4.774395 -2.5021179 -0.60081023
4.7978287 -2.5143988 -0.30255988
4.8912148 -2.5633397 0
6.8920155 -3.6118996 0.43462315
3.9881566 -2.0839353 -0.99683923
4.5031643 -2.3530428 -0.84705454
4.7774148 -2.4963472 -0.60081023
4.7985625 -2.5073974 -0.30241489
4.8896909 -2.5550148 0
6.8871627 -3.5987556 0.4340426
3.9839091 -2.0755918 -0.99515003
4.5014467 -2.3452253 -0.84619778
4.7689605 -2.4845984 -0.59936905
4.8015885 -2.5015976 -0.30241489
4.8904686 -2.5479035 0
4.9213052 -2.5639689 0.30995491
3.988667 -2.0719466 -0.99571234
4.5042772 -2.3397846 -0.84619778
4.7191658 -2.4514103 -0.59273809
4.8023043 -2.4945972 -0.30226991
4.8796911 -2.5347967 0
4.9220958 -2.556824 0.30980989
3.9798884 -2.0612838 -0.99289846
4.5048237 -2.3331609 -0.84577024
4.6899748 -2.4290552 -0.5887025
4.8006959 -2.4864004 -0.30197933
4.8919945 -2.5336862 0
4.9228764 -2.5496809 0.30966491
3.9891515 -2.059972 -0.99458766
4.5099182 -2.3288927 -0.84619778
4.6906104 -2.4222009 -0.58841449
4.8013902 -2.4794068 -0.30183434
4.8858027 -2.5229969 0
4.9167185 -2.5389616 0.30908433
3.989372 -2.0539839 -0.99402314
4.5081687 -2.3210938 -0.8453427
4.7280207 -2.4342875 -0.59273809
4.7928333 -2.4676573 -0.30110878
4.8865271 -2.5158968 0
4.9197826 -2.5330191 0.30908433
3.9918509 -2.0491621 -0.99402314
4.515533 -2.3179872 -0.84619778
4.7424703 -2.4344823 -0.59418035
4.798121 -2.4630499 -0.30125377
4.8872504 -2.5088031 0
4.9251494 -2.5282581 0.30922934
3.9898047 -2.0420241 -0.99289846
4.5183306 -2.3125293 -0.84619778
4.7684283 -2.440532 -0.59706271
4.7941523 -2.4536977 -0.30081823
4.8856492 -2.5005269 0
4.9305115 -2.5234878 0.30937433
3.9967914 -2.0395093 -0.99402314
4.5165529 -2.3047369 -0.8453427
4.7736754 -2.4359431 -0.59735072
4.7994261 -2.4490831 -0.30096322
4.8863511 -2.4934399 0
4.9543853 -2.528157 0.31068045
4.0037866 -2.0369852 -0.99515003
4.5284863 -2.3039339 -0.84705454
4.7512641 -2.4172754 -0.59418035
4.8000679 -2.4421051 -0.30081823
4.884717 -2.4851716 0
6.8911576 -3.5059776 0.43186593
4.0062447 -2.0321457 -0.99515003
4.5289707 -2.2972958 -0.84662533
4.7172742 -2.3928115 -0.58956766
4.7983847 -2.4339547 -0.30052823
4.9016376 -2.4863291 0
6.9069734 -3.5035245 0.43259147
4.004158 -2.025008 -0.99402314
4.547781 -2.2999325 -0.84962153
4.6947703 -2.3742688 -0.58639622
4.8036389 -2.4293265 -0.30067322
4.8907084 -2.4733598 0
6.908885 -3.4940047 0.43244648
4.0134106 -2.0236013 -0.99571234
4.541388 -2.2898128 -0.84790963
4.6837831 -2.3616097 -0.58466697
4.8042526 -2.4223516 -0.30052823
4.884398 -2.4627619 0
6.9131017 -3.4856541 0.43244648
4.0168996 -2.0223176 -0.99627471
4.5473609 -2.2893796 -0.84876639
4.7429624 -2.3878555 -0.591874
4.7964315 -2.4147749 -0.29994765
4.883563 -2.4586413 0
6.9059229 -3.4768031 0.43186593
4.0034509 -2.0094869 -0.99233615
4.5593009 -2.2884896 -0.85047829
4.7758932 -2.3972056 -0.59562153
4.7946968 -2.4066441 -0.29965711
4.888854 -2.4539049 0
6.9147592 -3.4707851 0.43215591
4.0217752 -2.0126045 -0.99627471
4.5597606 -2.2818267 -0.85004908
4.8019123 -2.4030061 -0.59850389
4.79528 -2.3996871 -0.29951212
4.8918152 -2.4479959 0
6.9026885 -3.4542909 0.43114036
4.0060148 -1.9986687 -0.99177164
4.5671129 -2.2786098 -0.85090584
4.804812 -2.397202 -0.59850389
4.8028307 -2.3962135 -0.29980266
4.8831282 -2.4362752 0
6.9045253 -3.4447844 0.43099481
4.0152545 -1.9972225 -0.99346083
4.5813527 -2.2788048 -0.85304528
4.8053918 -2.3902438 -0.59821588
4.7964163 -2.3857794 -0.29922211
4.8837404 -2.4292152 0
4.9242616 -2.4493709 0.30719766
4.0244961 -1.9957571 -0.99515003
4.5910044 -2.27669 -0.85432959
4.8059611 -2.3832877 -0.59792787
4.7969608 -2.3788245 -0.29907656
4.8843336 -2.4221528 0
4.9132457 -2.4364903 0.30632654
4.0360155 -1.9953973 -0.99740154
4.59835 -2.2734144 -0.85518467
4.8041959 -2.3751841 -0.59735072
4.8044949 -2.3753319 -0.2993671
4.8849263 -2.415097 0
4.9231763 -2.4340076 0.3067621
4.0247445 -1.9837768 -0.99402314
4.6103039 -2.2723961 -0.85689658
4.8047447 -2.3682351 -0.59706271
4.798039 -2.3649297 -0.29878655
4.890173 -2.4103422 0
4.9307795 -2.430357 0.30705267
4.0340948 -1.9762826 -0.99515003
4.7010756 -2.3030334 -0.87273091
4.8104534 -2.356617 -0.59706271
4.7990685 -2.3510394 -0.29849598
4.8913136 -2.39623 0
4.9226332 -2.4115729 0.30618155
4.0501742 -1.9780952 -0.99852622
4.7845817 -2.3367779 -0.88770854
4.8086448 -2.3485303 -0.59648561
4.794908 -2.3418212 -0.29806098
4.887188 -2.3868904 0
4.9302177 -2.4079061 0.30647212
4.0502791 -1.9720886 -0.99796391
4.8058658 -2.3399851 -0.8911323
4.8068328 -2.340456 -0.59590954
4.7977338 -2.3360257 -0.29806098
4.8994279 -2.3855407 0
4.9471364 -2.4087701 0.30734268
4.0572352 -1.9694145 -0.99909073
4.8156199 -2.3375406 -0.8924166
4.8073325 -2.3335178 -0.59562153
4.7958732 -2.3279552 -0.29777044
4.8952808 -2.3762085 0
4.9500432 -2.4027905 0.30734268
4.8184409 -2.3317201 -0.8924166
4.8124747 -2.3288329 -0.59590954
4.7963462 -2.321028 -0.29762542
4.8911271 -2.366894 0
6.9082294 -3.3430018 0.42867312
4.0436745 -1.9507717 -0.99458766
4.8143167 -2.3225491 -0.8911323
4.8106303 -2.3207707 -0.59533352
4.803823 -2.3174868 -0.29791543
4.8939834 -2.3609824 0
6.9122634 -3.3346522 0.42867312
4.0666351 -1.9557946 -0.9996531
4.8171196 -2.3167303 -0.8911323
4.8087649 -2.3127122 -0.59475636
4.8042803 -2.3105555 -0.29777044
4.8944898 -2.3539405 0
6.913939 -3.3251681 0.42852756
4.0644088 -1.9486803 -0.99852622
4.8199153 -2.3109078 -0.8911323
4.8092256 -2.3057828 -0.59446836
4.8000374 -2.3013775 -0.29733488
4.8973303 -2.3480246 0
6.9156113 -3.3156891 0.42838258
4.0667601 -1.9437679 -0.99852622
4.8250179 -2.3061883 -0.89155984
4.8073363 -2.2977371 -0.59389126
4.8121924 -2.3000581 -0.29791543
4.8954635 -2.3398588 0
6.9078927 -3.301729 0.42765701
4.0679336 -1.9413105 -0.99852622
4.8217812 -2.3010638 -0.89070475
4.8087239 -2.2948325 -0.59389126
4.7995148 -2.2904377 -0.29704487
4.9039245 -2.3402643 0
6.9075432 -3.2964368 0.42751202
4.0702763 -1.9363939 -0.99852622
4.8152857 -2.2908247 -0.88899285
4.8114929 -2.2890203 -0.59389126
4.802279 -2.2846367 -0.29704487
4.8902955 -2.32651 0
6.920907 -3.2925532 0.42809257
4.0703197 -1.9303865 -0.99796391
4.815733 -2.2839055 -0.8885653
4.8165994 -2.2843165 -0.59418035
4.8050361 -2.2788324 -0.29704487
4.8860464 -2.3172526 0
6.9248805 -3.2841883 0.42809257
4.0680594 -1.9232969 -0.99683923
4.8231258 -2.2802773 -0.88942045
4.8076572 -2.2729642 -0.59273809
4.8007364 -2.2696919 -0.29660931
4.8935533 -2.3135738 0
6.9077039 -3.2658238 0.42678645
4.0703802 -1.9183801 -0.99683923
4.8189092 -2.2711637 -0.88813609
4.808063 -2.2660518 -0.59245002
4.8034754 -2.2638896 -0.29660931
4.8986969 -2.3087678 0
6.9045911 -3.2541504 0.42635089
4.0818944 -1.9177823 -0.99909073
4.8146863 -2.2620676 -0.88685346
4.8084588 -2.2591417 -0.59216201
4.8038578 -2.2569799 -0.29646432
4.8944144 -2.299526 0
6.9132171 -3.248013 0.4266409
4.8174162 -2.2562482 -0.88685346
4.8064961 -2.2511337 -0.59158492
4.8042307 -2.2500727 -0.29631931
4.8971891 -2.2936103 0
6.9194965 -3.2407627 0.42678645
4.0888171 -1.9089863 -0.9996531
4.8178062 -2.2493367 -0.88642424
4.8162456 -2.2486081 -0.59245002
4.8022323 -2.2420654 -0.29602876
4.8952456 -2.2854915 0
6.9163418 -3.2291007 0.42635089
4.0842075 -1.9008269 -0.99796391
4.8181953 -2.2424314 -0.8859967
4.8119221 -2.2395117 -0.59158492
4.8049378 -2.2362614 -0.29602876
4.9050841 -2.2828703 0
6.9155221 -3.2185464 0.42606035
4.0934181 -1.8990997 -0.9996531
4.8209014 -2.236608 -0.8859967
4.8099365 -2.2315209 -0.59100884
4.8076363 -2.230454 -0.29602876
4.9101973 -2.2780359 0
6.9194064 -3.2101879 0.42606035
4.0864854 -1.8898859 -0.99740154
4.8166175 -2.2275517 -0.88471401
4.8126292 -2.2257075 -0.59100884
4.8008943 -2.2202802 -0.29544821
4.9058576 -2.2688229 0
6.9209237 -3.2007351 0.42591533
4.0933762 -1.8870723 -0.99852622
4.8169675 -2.2206523 -0.88428479
4.8106217 -2.2177269 -0.59043282
4.8035736 -2.2144778 -0.29544821
4.8967805 -2.2574468 0
6.9200711 -3.1901965 0.42562535
4.8173165 -2.2137594 -0.88385725
4.8109412 -2.2108295 -0.59014374
4.8038869 -2.207588 -0.2953032
4.8924084 -2.2482672 0
6.90975 -3.1753206 0.42475423
4.1025491 -1.8792932 -0.9996531
4.8199883 -2.207937 -0.88385725
4.8112597 -2.2039387 -0.58985567
4.8018308 -2.1996195 -0.29501319
4.899858 -2.2445238 0
4.9269166 -2.2569189 0.30269819
4.8226523 -2.2021115 -0.88385725
4.8115687 -2.1970503 -0.58956766
4.8092079 -2.1959724 -0.2953032
4.9049315 -2.2396815 0
4.9367337 -2.2542031 0.30313376
4.8159642 -2.1920288 -0.8821454
4.8095069 -2.18909 -0.58899057
4.8047605 -2.1869295 -0.29486763
4.8934264 -2.2272866 0
4.9205337 -2.2396247 0.30197266
4.8232889 -2.1883314 -0.88300216
4.8145108 -2.1843486 -0.58927965
4.8097725 -2.182199 -0.29501319
4.9055943 -2.2256732 0
4.9279737 -2.2358267 0.3022632
4.1035147 -1.8587803 -0.99796391
4.8129115 -2.1801178 -0.8808611
4.8064055 -2.1771708 -0.58812648
4.803987 -2.1760752 -0.29457763
4.8927097 -2.216264 0
4.9316878 -2.2339203 0.30240819
4.1127071 -1.8569584 -0.9996531
4.8155422 -2.1743009 -0.8808611
4.8113875 -2.1724248 -0.58841449
4.806613 -2.1702688 -0.29457763
4.9072413 -2.2157044 0
4.9249105 -2.2236824 0.30182764
4.8158274 -2.167428 -0.8804335
4.8116527 -2.165549 -0.58812648
4.8021207 -2.1612592 -0.2941421
4.9051733 -2.2076392 0
4.9299612 -2.2187955 0.30197266
4.1125417 -1.8449322 -0.99852622
4.8137631 -2.159508 -0.87957841
4.8142657 -2.1597335 -0.58812648
4.8047285 -2.1554551 -0.2941421
4.8959665 -2.1963856 0
4.9373851 -2.2149661 0.3022632
4.1124506 -1.8389254 -0.99796391
4.8116775 -2.151592 -0.87872165
4.8121452 -2.1518013 -0.58754933
4.8073297 -2.149648 -0.2941421
4.8962345 -2.1894026 0
4.9471669 -2.2121778 0.30269819
4.1146693 -1.8339549 -0.99796391
4.8189678 -2.1478686 -0.87957841
4.8123813 -2.1449332 -0.58726132
4.8051815 -2.1417241 -0.29385209
4.9107685 -2.1887856 0
4.9783168 -2.2188926 0.30443987
4.8192067 -2.1409991 -0.8791492
4.8126082 -2.1380677 -0.58697331
4.8030119 -2.1338043 -0.29356152
4.9062724 -2.1796792 0
6.9233642 -3.0758002 0.42315811
4.1260614 -1.8270935 -0.9996531
4.8147554 -2.1320593 -0.87786657
4.8104539 -2.1301546 -0.58639622
4.8127165 -2.1311567 -0.29399708
4.9112797 -2.1748021 0
6.9151983 -3.0621729 0.42243254
4.1212902 -1.8190277 -0.99796391
4.8126264 -2.1241651 -0.87700981
4.8035588 -2.120163 -0.58524305
4.8057795 -2.1211429 -0.29341653
4.9043803 -2.1646628 0
6.9165096 -3.0527627 0.42228699
4.1165056 -1.810976 -0.99627471
4.8151894 -2.1183484 -0.87700981
4.8108568 -2.1164422 -0.58582014
4.8035865 -2.1132438 -0.29312652
4.9069924 -2.1587353 0
6.9106793 -3.0402179 0.42170644
4.1326575 -1.8121248 -0.9996531
4.8177457 -2.1125286 -0.87700981
4.8063021 -2.1075108 -0.58495498
4.8061366 -2.1074381 -0.29312652
4.9072161 -2.1517603 0
6.9095926 -3.0297806 0.42141643
4.1301827 -1.8050929 -0.99852622
4.8202949 -2.1067057 -0.87700981
4.8135896 -2.1037753 -0.58553213
4.811058 -2.1026688 -0.29327151
4.9121947 -2.1468706 0
6.9061036 -3.0183067 0.42098087
4.1370244 -1.8021326 -0.9996531
4.8110714 -2.0957549 -0.87487036
4.8113813 -2.0958896 -0.58495498
4.8064461 -2.09374 -0.29283598
4.9171691 -2.1419721 0
6.9145145 -3.0120373 0.42127144
4.1391988 -1.7971325 -0.9996531
4.8136005 -2.0899401 -0.87487036
4.81391 -2.0900745 -0.58495498
4.8065915 -2.0868969 -0.29269096
4.9006562 -2.1277373 0
6.9229112 -3.0057478 0.42156145
4.1413674 -1.7921298 -0.9996531
4.8184757 -2.0851407 -0.8752979
4.8116889 -2.0822039 -0.58437896
4.8067269 -2.0800567 -0.29254597
4.9056187 -2.1228509 0
4.9067717 -2.1233497 0.29863486
4.136528 -1.7841046 -0.99796391
4.8162818 -2.0772855 -0.87444282
4.8094468 -2.0743377 -0.58380181
4.8068442 -2.073215 -0.29240042
4.9105678 -2.1179514 0
4.9093337 -2.1174192 0.29863486
4.8164325 -2.0704517 -0.87401527
4.8119497 -2.0685248 -0.58380181
4.8021908 -2.0643296 -0.29196543
4.9107347 -2.1109896 0
4.9214373 -2.1155906 0.29921541
4.8165641 -2.0636165 -0.87358606
4.8120704 -2.0616913 -0.5835138
4.8046818 -2.0585258 -0.29196543
4.9084926 -2.1030025 0
4.9215946 -2.1086161 0.29906985
4.8166957 -2.0567882 -0.87315851
4.8121819 -2.0548606 -0.58322579
4.8071656 -2.0527186 -0.29196543
4.908639 -2.0960491 0
4.9217515 -2.1016483 0.29892486
4.1440363 -1.766595 -0.99796391
4.815578 -2.0528719 -0.87273091
4.8110361 -2.0509357 -0.5829367
4.7988434 -2.045738 -0.29138485
4.9051208 -2.0910439 0
4.9158564 -2.0956204 0.29848987
4.8227758 -2.0490575 -0.87358606
4.806376 -2.0420897 -0.58207262
4.8108783 -2.0440025 -0.29196543
4.9028487 -2.0830781 0
4.9159865 -2.08866 0.29834428
4.8157926 -2.0392249 -0.87187415
4.8159785 -2.0393035 -0.5829367
4.8085542 -2.0361598 -0.29167485
4.9077563 -2.0781665 0
0 -0 0
4.8135276 -2.03141 -0.87101907
4.808907 -2.0294602 -0.58178353
4.8086195 -2.0293386 -0.29152986
4.9006729 -2.0681872 0
4.8539972 -2.0484891 0.29428095
4.8159785 -2.0255923 -0.87101907
4.806592 -2.0216444 -0.58120745
4.806282 -2.0215139 -0.29123986
4.8935728 -2.0582283 0
4.8277264 -2.0305333 0.29253927
4.813683 -2.0177851 -0.87016231
4.8114142 -2.016834 -0.58149546
4.8063178 -2.0146976 -0.2910943
4.8696613 -2.0412498 0
4.8014193 -2.0126441 0.29079759
4.8113847 -2.00999 -0.86930722
4.8114634 -2.0100229 -0.58120745
4.8087487 -2.0088887 -0.2910943
4.8264956 -2.0163026 0
4.7918615 -2.0018339 0.29007205
4.8161778 -2.0051606 -0.86973476
4.8138885 -2.0042076 -0.58120745
4.8111725 -2.0030768 -0.2910943
4.8193183 -2.0064681 0
4.8014755 -1.9990396 0.29050761
4.8138595 -1.9973739 -0.86887962
4.8115244 -1.9964051 -0.58063036
4.806396 -1.9942772 -0.29065931
4.8073211 -1.994661 0
4.7990828 -1.9912429 0.29021704
4.8162694 -1.9915559 -0.86887962
4.8139329 -1.9905899 -0.58063036
4.8063941 -1.9874724 -0.29051372
4.8217502 -1.9938223 0
4.7894816 -1.980479 0.28949147
4.1674261 -1.7173618 -0.99852622
4.8163009 -1.9847578 -0.86845207
4.8139458 -1.9837872 -0.58034235
4.8063917 -1.9806744 -0.29036874
4.8121271 -1.9830378 0
4.7966714 -1.9766686 0.28978148
4.8210683 -1.9799111 -0.86887962
4.8115587 -1.9760058 -0.57976627
4.8087816 -1.9748653 -0.29036874
4.8072953 -1.9742548 0
4.7894416 -1.9669228 0.28920093
4.8187008 -1.9721378 -0.86802286
4.8139429 -1.9701905 -0.57976627
4.8087616 -1.9680701 -0.29022375
4.807271 -1.9674599 0
4.7942266 -1.9621212 0.28934649
4.8187056 -1.9653454 -0.86759531
4.8091326 -1.961441 -0.57890111
4.8087325 -1.9612778 -0.29007873
4.8144598 -1.9636136 0
4.7941809 -1.9553428 0.28920093
4.811564 -1.9556551 -0.86588347
4.8114991 -1.9556288 -0.57890111
4.8062797 -1.9535073 -0.28978819
4.8192468 -1.9587777 0
4.7893252 -1.9466162 0.28876594
4.8163009 -1.9508026 -0.86631101
4.8138585 -1.9498135 -0.57890111
4.8038249 -1.9457493 -0.28949818
4.819191 -1.9519733 0
4.8037138 -1.9457043 0.28949147
4.82342 -1.9469051 -0.86716777
4.8090134 -1.9410902 -0.57803601
4.8085794 -1.9409151 -0.28964317
4.8143129 -1.9432293 0
4.796423 -1.9360082 0.28891093
4.8257689 -1.9410756 -0.86716777
4.8161592 -1.9372103 -0.5786131
4.8085127 -1.9341347 -0.28949818
4.8142452 -1.9364405 0
4.79635 -1.9292425 0.28876594
4.8173642 -1.9275585 -0.86502832
4.8124561 -1.9255946 -0.57774794
4.8120103 -1.9254162 -0.28949818
4.8080821 -1.9238445 0
4.7901888 -1.916685 0.28818536
4.8172984 -1.9207828 -0.86459917
4.8147793 -1.9197782 -0.57774794
4.8095016 -1.9176738 -0.28920761
4.8200727 -1.9218889 0
4.7973242 -1.9128184 0.28847536
4.8196158 -1.9149606 -0.86459917
4.8122926 -1.9120508 -0.57717192
4.8045774 -1.9089855 -0.28877261
4.812717 -1.9122195 0
4.794807 -1.9051033 0.28818536
4.8171573 -1.9072475 -0.86374402
4.8097849 -1.9043286 -0.57659477
4.8044577 -1.9022194 -0.28862706
4.8077626 -1.9035279 0
4.7995191 -1.900264 0.28833038
4.8194585 -1.9014255 -0.86374402
4.8120828 -1.8985156 -0.57659477
4.8140063 -1.8992746 -0.28906262
4.8148961 -1.8996257 0
4.8018117 -1.8944633 0.28833038
4.8121958 -1.8918438 -0.86203218
4.814373 -1.8926997 -0.57659477
4.8138819 -1.8925066 -0.28891763
4.8196173 -1.8947613 0
4.7944241 -1.8848571 0.28774983
4.8192544 -1.8878987 -0.86288726
4.8166566 -1.8868811 -0.57659477
4.80407 -1.8819505 -0.28819206
4.8097801 -1.8841873 0
4.7966981 -1.8790625 0.28774983
4.8215318 -1.8820742 -0.86288726
4.8165259 -1.8801202 -0.57630676
4.8039131 -1.8751968 -0.28804651
4.8169065 -1.8802688 0
4.798965 -1.8732653 0.28774983
4.8238025 -1.8762469 -0.86288726
4.8139682 -1.872422 -0.57572967
4.8086042 -1.8703355 -0.28819206
4.8143196 -1.8725585 0
4.7988057 -1.8665243 0.28760481
4.8141003 -1.8657795 -0.86074787
4.8089991 -1.8638024 -0.57486558
4.8108606 -1.8645239 -0.28819206
4.8117299 -1.8648608 0
4.8010573 -1.8607246 0.28760481
4.8187528 -1.8608887 -0.86117703
4.8160686 -1.8598521 -0.57544166
4.8155317 -1.8596447 -0.28833705
4.8115544 -1.8581088 0
4.7984495 -1.8530481 0.28731427
4.8185949 -1.8541403 -0.86074787
4.8159008 -1.8531035 -0.57515359
4.8056517 -1.8491598 -0.28761151
4.8210754 -1.8550947 0
4.7982626 -1.8463165 0.28716925
4.8160429 -1.8464804 -0.85989273
4.8181362 -1.8472831 -0.57515359
4.8103065 -1.8442811 -0.2877565
4.8160305 -1.8464757 0
4.7956419 -1.8386587 0.28687924
4.8182702 -1.8406597 -0.85989273
4.8131142 -1.83869 -0.57428849
4.8101068 -1.8375411 -0.28761151
4.8206868 -1.841583 0
4.7954259 -1.8319328 0.28673369
4.8132911 -1.832096 -0.85860842
4.8105025 -1.8310345 -0.57371241
4.8123231 -1.8317276 -0.28761151
4.8156095 -1.8329785 0
4.7952099 -1.8252137 0.2865887
4.8203063 -1.8281012 -0.85946518
4.8127112 -1.8252206 -0.57371241
4.8169603 -1.8268321 -0.2877565
4.8202519 -1.8280804 0
4.8047028 -1.8221834 0.28702426
4.8142052 -1.8224611 -0.85818088
4.8113966 -1.8213979 -0.5734244
4.8083425 -1.8202418 -0.28717595
4.8140607 -1.8224064 0
4.796082 -1.8156005 0.28644371
4.8164039 -1.8166428 -0.85818088
4.8135939 -1.8155829 -0.5734244
4.8081098 -1.8135144 -0.28703094
4.8138266 -1.8156706 0
4.7982726 -1.809804 0.28644371
4.8137851 -1.809014 -0.85732412
4.815784 -1.8097652 -0.5734244
4.8127275 -1.8086165 -0.28717595
4.806272 -1.8061907 0
4.8028855 -1.8049181 0.2865887
4.818378 -1.8040988 -0.85775334
4.8155379 -1.8030355 -0.57313532
4.8124781 -1.8018898 -0.28703094
4.8206348 -1.8049439 0
4.7977605 -1.7963792 0.28615314
4.8133368 -1.7955829 -0.85646898
4.8201432 -1.7981222 -0.5734244
4.814652 -1.7960734 -0.28703094
4.8130589 -1.7954793 0
4.8023691 -1.7914915 0.28629869
4.8179069 -1.7906591 -0.85689658
4.8101835 -1.7877886 -0.57198215
4.8168182 -1.7902546 -0.28703094
4.8152251 -1.7896624 0
4.799654 -1.7838752 0.28600815
4.8152571 -1.7830552 -0.85604143
4.8123403 -1.7819752 -0.57198215
4.8189783 -1.7844331 -0.28703094
4.8124981 -1.7820337 0
4.7993717 -1.777173 0.28586313
4.8222198 -1.7790109 -0.85689658
4.8120656 -1.7752646 -0.57169408
4.8113794 -1.7750115 -0.28645039
4.8122087 -1.7753174 0
4.8088317 -1.7740716 0.28629869
4.8195519 -1.7714134 -0.85604143
4.8166323 -1.7703403 -0.57198215
4.8135204 -1.7691966 -0.28645039
4.8119097 -1.7686046 0
4.8060889 -1.7664652 0.28600815
4.8192711 -1.7647034 -0.85561222
4.8114886 -1.7618536 -0.57111806
4.81077 -1.7615905 -0.28615984
4.814043 -1.762789 0
4.8057823 -1.7597641 0.28586313
4.8189907 -1.758 -0.85518467
4.818469 -1.7578098 -0.57169408
4.8128953 -1.7557763 -0.28615984
4.8112755 -1.7551854 0
4.8079052 -1.753956 0.28586313
4.8235216 -1.753052 -0.85561222
4.8132944 -1.7493349 -0.57082897
4.8174529 -1.7508464 -0.28630483
4.8109488 -1.7484825 0
4.8051319 -1.7463684 0.28557259
4.823225 -1.7463493 -0.85518467
4.8154044 -1.7435178 -0.57082897
4.8171239 -1.7441404 -0.28615984
4.8081689 -1.7408979 0
4.8072386 -1.740561 0.28557259
4.8229194 -1.7396499 -0.85475713
4.8150773 -1.7368212 -0.57054096
4.8143439 -1.7365569 -0.28586984
4.8102689 -1.7350868 0
4.8068962 -1.7338704 0.28542757
4.8201814 -1.7320832 -0.85390037
4.8171721 -1.7310019 -0.57054096
4.8115435 -1.7289792 -0.28557926
4.8050117 -1.7266322 0
4.8041019 -1.7263051 0.28513759
4.8222709 -1.7262577 -0.85390037
4.8168273 -1.7243091 -0.5702529
4.8136292 -1.7231642 -0.28557926
4.8144479 -1.7234572 0
4.8061843 -1.720499 0.28513759
4.8195219 -1.7187067 -0.85304528
4.8164735 -1.7176197 -0.56996489
4.8132625 -1.7164747 -0.28543428
4.8165269 -1.7176386 0
4.8082595 -1.7146904 0.28513759
4.8191786 -1.7120236 -0.85261768
4.8087964 -1.7083353 -0.56881171
4.8202348 -1.7123989 -0.28572482
4.8185987 -1.7118176 0
4.8054261 -1.7071381 0.28484702
4.8236613 -1.7070549 -0.85304528
4.8084211 -1.7016616 -0.56852371
4.8198438 -1.705704 -0.28557926
4.815752 -1.7042558 0
4.805038 -1.7004642 0.28470203
4.8208828 -1.6995199 -0.85219014
4.8177848 -1.6984276 -0.56938779
4.8219013 -1.6998788 -0.28557926
4.8178077 -1.6984357 0
4.8046408 -1.693794 0.28455701
4.8170609 -1.6949012 -0.85133338
4.8114972 -1.6929437 -0.56852371
4.8180299 -1.6952422 -0.28528929
4.8163805 -1.6946617 0
4.8081121 -1.6917526 0.28470203
4.8239555 -1.6907794 -0.85219014
4.8086529 -1.685416 -0.56794655
4.8127155 -1.6868399 -0.28485373
4.8135076 -1.6871176 0
4.810153 -1.6859417 0.28470203
4.8211427 -1.6832554 -0.85133338
4.8106861 -1.6796044 -0.56794655
4.8196616 -1.6827382 -0.28514427
4.8130879 -1.6804432 0
4.8097358 -1.6792727 0.28455701
4.8134747 -1.6740557 -0.84962153
4.8127117 -1.6737905 -0.56794655
4.8216915 -1.6769134 -0.28514427
4.815115 -1.6746262 0
4.806848 -1.671751 0.28426647
4.8251967 -1.6715996 -0.85133338
4.8098478 -1.6662823 -0.56737053
4.8212519 -1.670233 -0.28499871
4.8195915 -1.6696579 0
4.8088646 -1.6659417 0.28426647
4.8150821 -1.661582 -0.84919399
4.8167429 -1.6621552 -0.56794655
4.8183584 -1.6627127 -0.28470871
4.8117747 -1.6604407 0
4.8084197 -1.659283 0.28412145
4.8219366 -1.6574301 -0.85004908
4.8187475 -1.6563338 -0.56794655
4.8154445 -1.6551985 -0.28441817
4.816236 -1.6554706 0
4.8104215 -1.6534718 0.28412145
4.823936 -1.6516024 -0.85004908
4.8134022 -1.6479958 -0.56708145
4.8199067 -1.6502228 -0.28456372
4.815773 -1.6488076 0
4.8148718 -1.648499 0.28426647
4.818646 -1.6432891 -0.84876639
4.8178449 -1.6430159 -0.56737053
4.8194304 -1.6435566 -0.28441817
4.8202229 -1.6438267 0
4.8168602 -1.64268 0.28426647
4.815762 -1.6358126 -0.84790963
4.8173704 -1.636359 -0.56708145
4.8238802 -1.6385702 -0.28456372
4.8172722 -1.6363256 0
4.8114672 -1.6343538 0.28383148
4.8153057 -1.6291705 -0.84748209
4.8144488 -1.6288806 -0.56650537
4.8135428 -1.628574 -0.28383759
4.8143201 -1.6288371 0
4.8134384 -1.6285388 0.28383148
4.8221316 -1.624989 -0.84833723
4.8139648 -1.622237 -0.56621736
4.8204365 -1.6244178 -0.28412816
4.8162847 -1.6230187 0
4.8080134 -1.6202314 0.28339592
4.8192286 -1.6175292 -0.84748209
4.8134623 -1.6155937 -0.56592828
4.8248568 -1.6194181 -0.28427315
4.8157778 -1.6163708 0
4.8050361 -1.6127654 0.28310534
4.8211799 -1.6117048 -0.84748209
4.8154111 -1.6097764 -0.56592828
4.8194146 -1.6111147 -0.28383759
4.8127861 -1.6088988 0
4.8143768 -1.6094307 0.2835409
4.8182478 -1.6042547 -0.84662533
4.812449 -1.6023241 -0.5653522
4.8188949 -1.6044701 -0.2836926
4.8147264 -1.6030823 0
4.8113918 -1.6019721 0.2832509
4.8250604 -1.6000493 -0.84748209
4.8143816 -1.596508 -0.5653522
4.8208299 -1.5986463 -0.2836926
4.8166599 -1.5972635 0
4.8108506 -1.595337 0.28310534
4.8245554 -1.5934136 -0.84705454
4.8163075 -1.5906897 -0.5653522
4.8227577 -1.59282 -0.2836926
4.8161178 -1.590627 0
4.820179 -1.5919684 0.2835409
4.8157649 -1.5872842 -0.8453427
4.8172674 -1.5877795 -0.5653522
4.8163228 -1.5874683 -0.2832576
4.8121295 -1.586086 0
4.8162093 -1.5874307 0.2832509
4.820116 -1.5822641 -0.84577024
4.8167272 -1.5811517 -0.56506419
4.8182378 -1.5816475 -0.2832576
4.8189926 -1.5818954 0
4.8131814 -1.5799876 0.28296036
4.8220243 -1.5764387 -0.84577024
4.8161688 -1.5745245 -0.56477511
4.8201451 -1.5758244 -0.2832576
4.8233719 -1.5768793 0
4.8101521 -1.5725574 0.28267035
4.8214869 -1.5698171 -0.8453427
4.8131537 -1.567104 -0.56419903
4.8220458 -1.5699991 -0.2832576
4.8153749 -1.5678272 0
4.8120484 -1.5667441 0.28267035
4.82338 -1.5639901 -0.8453427
4.8150439 -1.561287 -0.56419903
4.8214602 -1.5633676 -0.28311205
4.8147926 -1.5612056 0
4.80899 -1.5593241 0.28237981
4.8228259 -1.5573728 -0.84491509
4.8193855 -1.5562619 -0.5644871
4.8184052 -1.5559453 -0.28282204
4.8092437 -1.5529869 0
4.8158207 -1.5551107 0.28267035
4.8222532 -1.5507561 -0.84448594
4.8163428 -1.5488553 -0.56391102
4.822753 -1.5509168 -0.28296703
4.8160763 -1.5487697 0
4.8176961 -1.5492907 0.28267035
4.8241234 -1.5449282 -0.84448594
4.8157501 -1.5422465 -0.56362301
4.8221512 -1.5442965 -0.28282204
4.8129826 -1.5413603 0
4.8071938 -1.5395064 0.28194478
4.8186569 -1.5367603 -0.84320325
4.8151383 -1.5356383 -0.56333393
4.8190575 -1.5368882 -0.28253147
4.8123641 -1.5347536 0
4.8139973 -1.5352743 0.28223479
4.8180566 -1.5301576 -0.84277403
4.8169904 -1.5298191 -0.56333393
4.8233948 -1.531853 -0.28267705
4.8241367 -1.5320886 0
4.8133745 -1.5286707 0.2820898
4.8241959 -1.5192831 -0.84320325
4.8182087 -1.5173976 -0.56304586
4.8245969 -1.5194095 -0.28253147
4.8129363 -1.5157371 0
4.8120928 -1.5154716 0.28179923
4.8235712 -1.5126826 -0.84277403
4.8200388 -1.5115746 -0.56304586
4.8239527 -1.512802 -0.28238648
4.827178 -1.5138135 0
4.8114438 -1.5088792 0.28165424
4.8204994 -1.5053241 -0.84191895
4.8243284 -1.5065197 -0.56333393
4.8158555 -1.5038739 -0.28180593
4.8215485 -1.5056517 0
4.8107853 -1.5022906 0.28150922
4.8247638 -1.5002599 -0.84234649
4.8212099 -1.4991548 -0.56275785
4.8251152 -1.5003692 -0.28224149
4.818399 -1.4982808 0
4.8150759 -1.4972475 0.28165424
4.8265734 -1.494429 -0.84234649
4.8180718 -1.4917967 -0.56218076
4.8244448 -1.4937701 -0.28209648
4.8202057 -1.4924575 0
4.8094325 -1.4891219 0.28121868
4.8234739 -1.4870849 -0.8414914
4.8174014 -1.4852127 -0.56189269
4.8212752 -1.486407 -0.28180593
4.8145423 -1.4843313 0
4.8087478 -1.4825447 0.28107369
4.8301706 -1.4827608 -0.84234649
4.8191924 -1.4793907 -0.56189269
4.8205862 -1.4798186 -0.28166091
4.8138466 -1.4777497 0
4.8130174 -1.477495 0.28121868
4.8295059 -1.4761736 -0.84191895
4.8209767 -1.4735667 -0.56189269
4.8248534 -1.4747516 -0.28180593
4.815629 -1.4719321 0
4.809834 -1.4701607 0.28092867
4.8254814 -1.4717565 -0.84106219
4.821866 -1.4706538 -0.56189269
4.8133187 -1.4680468 -0.28108037
4.8165174 -1.4690224 0
4.8132043 -1.4680119 0.28107369
4.8223486 -1.4644343 -0.84020704
4.8236394 -1.4648263 -0.56189269
4.8150892 -1.4622298 -0.28108037
4.8133035 -1.4616876 0
4.8100066 -1.4606863 0.28078368
4.8314881 -1.4608359 -0.8414914
4.8229327 -1.458249 -0.56160468
4.8193374 -1.4571619 -0.28122538
4.8150663 -1.4558706 0
4.8142529 -1.4556247 0.28092867
4.8307848 -1.4542549 -0.84106219
4.8197327 -1.4509277 -0.56102759
4.8136373 -1.4490927 -0.28079036
4.8193116 -1.4508009 0
4.8184938 -1.4505548 0.28107369
4.8276253 -1.4469441 -0.84020704
4.8165321 -1.4436193 -0.56045151
4.8203578 -1.4447659 -0.28108037
4.811089 -1.4419879 0
4.8053136 -1.4402568 0.2802031
4.8269124 -1.4403765 -0.8397795
4.8182731 -1.4377984 -0.56045151
4.8221002 -1.4389404 -0.28108037
4.8178205 -1.4376634 0
4.8120255 -1.4359341 0.28049311
4.8212647 -1.4323491 -0.83849519
4.8200068 -1.4319754 -0.56045151
4.8163605 -1.4308921 -0.2806448
4.8170619 -1.4311005 0
4.8137569 -1.4301187 0.28049311
4.8229918 -1.4265225 -0.83849519
4.8217335 -1.4261503 -0.56045151
4.8180857 -1.4250715 -0.2806448
4.8187876 -1.425279 0
4.8129921 -1.4235649 0.28034812
4.8074718 -1.4156173 -0.83549899
4.8308988 -1.4225156 -0.56131667
4.8148236 -1.4177821 -0.2803548
4.8205061 -1.4194554 0
4.8122187 -1.417015 0.2802031
4.7894716 -1.4040302 -0.8320753
4.8201971 -1.4130373 -0.55987442
4.8240161 -1.4141569 -0.28079036
4.8172183 -1.4121641 0
4.8089352 -1.4097359 0.27991256
4.7591314 -1.3888936 -0.8265121
4.8243909 -1.4079387 -0.5601635
4.8182359 -1.4061425 -0.2803548
4.8139291 -1.4048855 0
4.8131366 -1.4046544 0.28005812
4.7213736 -1.3716857 -0.81966627
4.8260884 -1.4021083 -0.5601635
4.8199315 -1.4003195 -0.2803548
4.81812 -1.3997933 0
4.8173232 -1.3995619 0.2802031
4.7131634 -1.3631271 -0.81795442
4.820323 -1.3941194 -0.55929834
4.8241134 -1.3952157 -0.28049982
4.8148031 -1.3925229 0
4.8115201 -1.3915735 0.27976757
4.6975365 -1.3524588 -0.81495821
4.8244872 -1.3890089 -0.55958641
4.8257961 -1.3893857 -0.28049982
4.8189902 -1.3874263 0
4.8107033 -1.3850405 0.27962255
4.6991673 -1.3467818 -0.81495821
4.8261619 -1.3831785 -0.55958641
4.8224802 -1.3821234 -0.28020981
4.8156548 -1.3801671 0
4.8123736 -1.3792267 0.27962255
4.7032576 -1.3418064 -0.81538576
4.8253446 -1.3766371 -0.55929834
4.8241467 -1.3762952 -0.28020981
4.8173189 -1.3743473 0
4.8115401 -1.3726987 0.27947757
4.7147532 -1.3389276 -0.81709766
4.8270044 -1.3708055 -0.55929834
4.8208022 -1.3690442 -0.27991927
4.8139739 -1.367105 0
4.8156924 -1.3675931 0.27962255
4.7311935 -1.3374209 -0.81966627
4.8261709 -1.3642691 -0.55901033
4.8249507 -1.3639243 -0.28006425
4.8056045 -1.3584554 0
4.8123355 -1.3603582 0.27933201
4.7352753 -1.3323978 -0.82009381
4.827816 -1.3584367 -0.55901033
4.8265953 -1.3580933 -0.28006425
4.8172636 -1.3554674 0
4.8189836 -1.3559514 0.27962255
4.7385483 -1.3302299 -0.82052141
4.8286357 -1.3555197 -0.55901033
4.8199172 -1.3530722 -0.27962926
4.8180814 -1.3525568 0
4.8147936 -1.3516338 0.27933201
4.7401524 -1.3245033 -0.82052141
4.8227944 -1.3475955 -0.55814517
4.8165383 -1.3458474 -0.27933869
4.8172083 -1.3460345 0
4.8089223 -1.3437192 0.27889699
4.7368073 -1.3174005 -0.81966627
4.8293982 -1.3431518 -0.55872124
4.823173 -1.3414204 -0.27962926
4.8263459 -1.3423028 0
4.8130436 -1.3386033 0.27904201
4.7260184 -1.3082497 -0.81752521
4.8210564 -1.3345579 -0.55756915
4.8222785 -1.3348963 -0.27948371
4.8154259 -1.3329992 0
4.8071423 -1.3307062 0.27860644
4.7399774 -1.3059496 -0.81966627
4.8326302 -1.331477 -0.55872124
4.8213854 -1.328379 -0.27933869
4.8145261 -1.3264892 0
4.8112493 -1.3255863 0.27875143
4.7489719 -1.302256 -0.82094896
4.8267593 -1.3235868 -0.55785716
4.8254905 -1.3232388 -0.27948371
4.8211403 -1.322046 0
4.8078408 -1.318399 0.27846146
4.760448 -1.2992203 -0.8226608
4.82336 -1.3163903 -0.55728006
4.8245816 -1.3167237 -0.27933869
4.8252521 -1.3169068 0
4.8169527 -1.3146417 0.27889699
4.7570643 -1.2921228 -0.82180572
4.8324375 -1.3125958 -0.55814517
4.8211584 -1.3095323 -0.27904868
4.819303 -1.3090283 0
4.8085074 -1.306096 0.27831644
4.7610979 -1.2870432 -0.82223326
4.8265271 -1.3047303 -0.55728006
4.8227372 -1.3037059 -0.27904868
4.8158517 -1.3018446 0
4.8075666 -1.2996048 0.27817088
4.7626495 -1.2812893 -0.82223326
4.8306046 -1.2995713 -0.55756915
4.8243093 -1.2978776 -0.27904868
4.8274736 -1.2987291 0
4.8116498 -1.2944719 0.27831644
4.7716355 -1.2775261 -0.82351756
4.8296657 -1.2930627 -0.55728006
4.8233566 -1.2913735 -0.27890313
4.8164721 -1.2895303 0
4.8081856 -1.2873117 0.2780259
4.7682099 -1.2704365 -0.8226608
4.8312249 -1.287226 -0.55728006
4.8249135 -1.2855444 -0.27890313
4.823061 -1.285051 0
4.814764 -1.2828403 0.27831644
4.7672629 -1.2640169 -0.82223326
4.8327765 -1.2813874 -0.55728006
4.8264632 -1.2797135 -0.27890313
4.8170614 -1.2772206 0
4.8137918 -1.2763537 0.27817088
4.7663069 -1.2576013 -0.82180572
4.8268261 -1.2735693 -0.55641598
4.8254957 -1.2732185 -0.27875814
4.8261528 -1.2733917 0
4.8178501 -1.271201 0.27831644
4.7628522 -1.2505362 -0.82094896
4.8308606 -1.2683924 -0.55670398
4.8270307 -1.2673869 -0.27875814
4.8201337 -1.265576 0
4.8168621 -1.264717 0.27817088
4.7444901 -1.239589 -0.81752521
4.8373899 -1.2638607 -0.55728006
4.8260469 -1.2608973 -0.27861315
4.8191438 -1.2590936 0
4.8209081 -1.2595545 0.27831644
4.7459846 -1.2338552 -0.81752521
4.8289003 -1.2554115 -0.55612689
4.8250546 -1.2544118 -0.27846813
4.8231783 -1.2539239 0
4.8148794 -1.2517664 0.27788088
4.75493 -1.2300491 -0.81880951
4.8304138 -1.2495759 -0.55612689
4.8240438 -1.2479281 -0.27832258
4.8196459 -1.2467903 0
4.8138752 -1.2452976 0.27773589
4.7507057 -1.2258946 -0.81795442
4.8361812 -1.247951 -0.55670398
4.8222833 -1.2443647 -0.27817759
4.8178806 -1.2432287 0
4.8146267 -1.242389 0.27773589
4.7496901 -1.2195132 -0.81752521
4.8326707 -1.2408189 -0.55612689
4.8262978 -1.2391827 -0.27832258
4.8193793 -1.2374063 0
4.8136001 -1.2359225 0.27759033
4.7461905 -1.2125037 -0.81667012
4.8316627 -1.2343391 -0.55583888
4.8227611 -1.2320651 -0.27803257
4.8158326 -1.2302949 0
4.8125749 -1.2294627 0.27744532
4.7501378 -1.2073997 -0.81709766
4.8331504 -1.2285 -0.55583888
4.8267622 -1.2268763 -0.27817759
4.814786 -1.2238321 0
4.8190985 -1.2249283 0.27773589
4.7441249 -1.1997705 -0.81581336
4.8321261 -1.2220256 -0.55555081
4.8332844 -1.2223185 -0.27846813
4.8187919 -1.2186534 0
4.8155317 -1.217829 0.27744532
4.743084 -1.1934114 -0.81538576
4.8335996 -1.2161862 -0.55555081
4.8246784 -1.2139415 -0.27788758
4.8278251 -1.2147332 0
4.811965 -1.2107426 0.27715534
4.7644444 -1.1926664 -0.81880951
4.8375721 -1.2109722 -0.55583888
4.8236232 -1.2074805 -0.27774256
4.8292894 -1.2088988 0
4.8109059 -1.2042971 0.27701032
4.7833209 -1.1912518 -0.82180572
4.8340168 -1.2038772 -0.5552628
4.8275976 -1.2022785 -0.27788758
4.8206449 -1.200547 0
4.804791 -1.1965986 0.27657476
4.8096695 -1.1916435 -0.82608455
4.8329501 -1.1974115 -0.55497372
4.8265271 -1.1958202 -0.27774256
4.8220921 -1.1947213 0
4.8112731 -1.1920408 0.27686477
4.8260655 -1.1895183 -0.82865316
4.8369122 -1.1921917 -0.5552628
4.8279686 -1.1899874 -0.27774256
4.8210077 -1.1882716 0
4.8152399 -1.1868501 0.27701032
4.8324809 -1.1849076 -0.8295083
4.8358297 -1.1857287 -0.55497372
4.8268719 -1.1835322 -0.27759701
4.824965 -1.1830647 0
4.8141394 -1.1804104 0.27686477
4.8388925 -1.1802831 -0.83036339
4.8347487 -1.1792724 -0.55468571
4.8257766 -1.177084 -0.27745202
4.8238654 -1.1766177 0
4.8180943 -1.17521 0.27701032
4.8403149 -1.1744354 -0.83036339
4.8336587 -1.1728203 -0.55439764
4.8347731 -1.1730907 -0.27788758
4.82023 -1.169562 0
4.8119326 -1.1675488 0.27657476
4.8367443 -1.1673825 -0.8295083
4.8375845 -1.1675853 -0.55468571
4.8235598 -1.1642003 -0.27716202
4.8241673 -1.1643469 0
4.8108163 -1.1611246 0.27642977
4.8431387 -1.1627347 -0.83036339
4.8364792 -1.1611359 -0.55439764
4.8274875 -1.1589772 -0.27730703
4.8230424 -1.15791 0
4.8147402 -1.1559168 0.27657476
4.8370571 -1.1550949 -0.82908076
4.8403916 -1.1558913 -0.55468571
4.8238244 -1.151935 -0.27701646
4.8294959 -1.1532893 0
4.8136082 -1.1494954 0.27642977
4.8434396 -1.1504347 -0.82993585
4.8342333 -1.148248 -0.55382055
4.8302741 -1.1473076 -0.27730703
4.8283563 -1.1468521 0
4.8124585 -1.1430759 0.27628422
4.8373384 -1.1428126 -0.82865316
4.8381414 -1.1430024 -0.55410963
4.8215413 -1.1390806 -0.27672645
4.8145466 -1.137428 0
4.8163719 -1.1378593 0.27642977
4.8450804 -1.1322865 -0.8295083
4.8383636 -1.1307168 -0.55382055
4.8293357 -1.128607 -0.27701646
4.8274083 -1.1281565 0
4.8165703 -1.1256237 0.27628422
4.8457637 -1.1293592 -0.8295083
4.8365293 -1.127207 -0.55353254
4.8274884 -1.1251 -0.27687147
4.8280888 -1.1252398 0
4.8172493 -1.1227136 0.27628422
4.8396201 -1.1217637 -0.828224
4.8378878 -1.1213622 -0.55353254
4.8212481 -1.1175053 -0.27643591
4.8218465 -1.1176441 0
4.8110156 -1.1151335 0.27584922
4.8484788 -1.1176456 -0.8295083
4.8291578 -1.1131917 -0.55237937
4.8251343 -1.1122643 -0.27658147
4.825727 -1.112401 0
4.8148894 -1.1099027 0.27599421
4.8423166 -1.110065 -0.828224
4.835546 -1.1085129 -0.55295646
4.8315353 -1.1075934 -0.27687147
4.8245335 -1.1059883 0
4.8136964 -1.1035039 0.27584922
4.8386536 -1.1030731 -0.82736886
4.834363 -1.1020949 -0.55266845
4.830339 -1.1011776 -0.27672645
4.8233314 -1.09958 0
4.8150263 -1.0976868 0.27584922
4.839983 -1.0972258 -0.82736886
4.835691 -1.0962527 -0.55266845
4.8240614 -1.0936162 -0.27629089
4.8170395 -1.0920244 0
4.816349 -1.0918679 0.27584922
4.8362918 -1.0902466 -0.8265121
4.8294401 -1.088702 -0.55180329
4.8304534 -1.0889305 -0.27658147
4.8234282 -1.0873468 0
4.8176651 -1.0860475 0.27584922
4.8175664 -1.07991 -0.82308835
4.8332734 -1.083431 -0.5520913
4.8216238 -1.0808196 -0.27600092
4.8247385 -1.0815178 0
4.8113647 -1.0785199 0.27541366
4.79632 -1.0690625 -0.81923705
4.837101 -1.0781523 -0.55237937
4.8330712 -1.0772539 -0.27658147
4.823504 -1.0751216 0
4.8151979 -1.0732702 0.27555865
4.7399716 -1.0504925 -0.80939507
4.8333549 -1.0711886 -0.55180329
4.826756 -1.0697261 -0.27614591
4.8324246 -1.0709825 0
4.819026 -1.068013 0.27570367
4.6760621 -1.0304027 -0.79826874
4.8371692 -1.0659037 -0.5520913
4.8331156 -1.0650104 -0.27643591
4.8210101 -1.0623429 0
4.8152428 -1.061072 0.27541366
4.6171217 -1.0115664 -0.78799754
4.833405 -1.0589521 -0.55151528
4.8343987 -1.0591698 -0.27643591
4.8299093 -1.0581862 0
4.8165212 -1.055253 0.27541366
4.6083074 -1.0038013 -0.78628564
4.8372059 -1.0536611 -0.55180329
4.8331385 -1.052775 -0.27629089
4.821013 -1.0501338 0
4.822866 -1.0505375 0.27570367
4.6019878 -0.99660194 -0.78500134
4.8359499 -1.0472685 -0.55151528
4.8293328 -1.0458355 -0.27600092
4.8273702 -1.0454105 0
4.8190575 -1.0436102 0.27541366
4.6031885 -0.99104059 -0.78500134
4.83215 -1.0403347 -0.55093813
4.8356686 -1.0410922 -0.27629089
4.8260884 -1.0390296 0
4.8203149 -1.0377866 0.27541366
4.5993671 -0.98440433 -0.78414625
4.8384666 -1.035579 -0.55151528
4.8318462 -1.0341618 -0.27600092
4.8298826 -1.0337416 0
4.8190269 -1.0314182 0.27526864
4.5980449 -0.97831243 -0.78371871
4.83465 -1.0286542 -0.55093813
4.8280039 -1.0272402 -0.27571034
4.8184032 -1.0251974 0
4.8202696 -1.0255946 0.27526864
4.596705 -0.97222316 -0.78328949
4.8384175 -1.0233464 -0.5512262
4.8368707 -1.0230193 -0.27614591
4.8349104 -1.0226047 0
4.8215051 -1.0197694 0.27526864
4.5998106 -0.96997708 -0.78371871
4.8314495 -1.0188236 -0.55036211
4.8323979 -1.0190237 -0.27585533
4.8253412 -1.0175356 0
4.8195705 -1.0163187 0.27512309
4.5984592 -0.96389025 -0.78328949
4.835206 -1.0135151 -0.55065012
4.8412576 -1.0147836 -0.27629089
4.8291121 -1.0122377 0
4.8258862 -1.0115615 0.27541366
4.6046519 -0.9593814 -0.78414625
4.8338976 -1.0071449 -0.55036211
4.832305 -1.0068132 -0.27571034
4.8328867 -1.0069343 0
4.8194714 -1.0041392 0.2749781
4.5982637 -0.95225471 -0.78286195
4.8351111 -1.0013033 -0.55036211
4.830976 -1.000447 -0.27556536
4.8264523 -0.99951017 0
4.8155971 -0.99726218 0.27468809
4.5918756 -0.9451468 -0.78157926
4.8413792 -0.99650222 -0.55093813
4.829639 -0.99408567 -0.27542034
4.8251095 -0.99315345 0
4.8218837 -0.99248946 0.2749781
4.5930142 -0.93959773 -0.78157926
