# .PCD v0.7 - Point Cloud Data file format
VERSION 0.7
FIELDS x y z
SIZE 4 4 4
TYPE F F F
COUNT 1 1 1
WIDTH 1585
HEIGHT 1
VIEWPOINT 0 0 0 1 0 0 0
POINTS 1585
DATA ascii
-3.5233359 6.6253581 0
-3.460129 6.5065026 0.41162279
-2.9754624 5.5788536 -0.70473951
-3.5915442 6.7339783 -0.42628789
-3.5276635 6.6142049 0
-3.4679885 6.502317 0.41162279
-2.9712229 5.5547304 -0.70214516
-3.58742 6.7067165 -0.42483622
-3.5344265 6.607645 0
-3.4782963 6.5027089 0.41191337
-2.992605 5.5784869 -0.70560467
-0 0 -0
-3.5301075 6.5804405 0
-3.4910595 6.5076513 0.41249335
-2.9858668 5.549818 -0.7024343
-3.611006 6.711762 -0.42570731
-3.5343559 6.5692925 0
-3.501385 6.5080094 0.41278392
-3.656992 6.7775955 -0.85839134
-3.6055393 6.6822367 -0.42411065
-3.5534122 6.585628 0
-3.5030777 6.492342 0.41205835
-3.6516418 6.7481556 -0.85522097
-0 0 -0
-3.5489836 6.5584455 0
-3.5022621 6.4721055 0.41104224
-3.6634953 6.7505603 -0.85608613
-3.6117618 6.6552334 -0.42294952
-3.5531802 6.5472879 0
-3.5187571 6.4838576 0.41205835
-0 0 -0
-3.6353064 6.6601753 -0.42382064
-0 0 0
-3.5331719 6.4730568 0.41191337
-0 0 -0
-3.639607 6.6489377 -0.42338508
-3.5806403 6.5412159 0
-3.5484746 6.4824543 0.41278392
-0 0 -0
-3.6426365 6.6354237 -0.42280453
-3.5797737 6.5209131 0
-3.5563047 6.4781618 0.41278392
-3.6755199 6.6761889 -0.84945512
-3.6531601 6.6355743 -0.42309508
-3.5876503 6.5165825 0
-3.5691423 6.482965 0.41336447
-3.6860869 6.6762757 -0.85003227
-3.6611753 6.6311555 -0.42309508
-3.60181 6.5236325 0
-3.5794826 6.4831929 0.41365448
-3.7016661 6.685389 -0.85176146
-3.6679227 6.6244469 -0.42294952
-3.6222987 6.542048 0
-3.5898335 6.4834142 0.41394502
-0 0 -0
-3.6721437 6.6132016 -0.42251453
-3.6213558 6.5217371 0
-3.5976648 6.4790716 0.41394502
-3.7064874 6.6560888 -0.84916711
-3.6738074 6.5974021 -0.42178842
-3.6342981 6.5264516 0
-3.6080167 6.4792557 0.41423503
-3.7132673 6.6493492 -0.8488791
-3.6741772 6.5793505 -0.42091787
-3.6421814 6.5220556 0
-3.6221764 6.4862328 0.41496059
-3.7147565 6.6425853 -0.84830195
-3.6794186 6.5793953 -0.42106286
-3.6562831 6.5380254 0
-3.6273663 6.4863176 0.41510615
-3.7202523 6.6335845 -0.84772593
-3.6911802 6.5817461 -0.42149842
-3.6641803 6.5336027 0
-3.6428249 6.4955239 0.4159767
-3.7219267 6.6178145 -0.84628475
-3.7029526 6.5840778 -0.42193398
-3.6669693 6.5200973 0
-3.660861 6.5092363 0.41713783
-3.7299201 6.6133127 -0.84628475
-3.7109056 6.5795989 -0.42193398
-3.6914639 6.5451279 0
-3.6763799 6.5183835 0.41800839
-3.7379084 6.6088009 -0.84628475
-3.7214091 6.5796289 -0.42222399
-3.6929648 6.5293384 0
-3.6919312 6.5275111 0.41887948
-3.7509904 6.6132698 -0.84743679
-3.7280757 6.5728698 -0.42207897
-3.7111235 6.5429811 0
-3.7113523 6.543385 0.4201856
-3.7513084 6.5952477 -0.8457076
-3.7360151 6.5683603 -0.42207897
-3.7061572 6.5158663 0
-3.721823 6.5434089 0.4204756
-3.760555 6.5929546 -0.8459956
-3.7439489 6.5638413 -0.42207897
-3.7191854 6.5204258 0
-3.7451758 6.5659919 0.42221728
-3.7710893 6.5929008 -0.84657276
-3.7596157 6.5728416 -0.42294952
-3.7348166 6.5294857 0
-3.7647169 6.5817595 0.4235234
-3.7803385 6.5905805 -0.84686077
-3.767555 6.568294 -0.42294952
-3.7465844 6.5317345 0
-5.0202308 8.7521877 0.56357616
-3.7908759 6.5904875 -0.84743679
-3.7780824 6.5682459 -0.4232401
-3.7531776 6.5249486 0
-5.0359845 8.755125 0.56415671
-3.7975454 6.5836639 -0.84714878
-3.7860162 6.5636759 -0.4232401
-3.7675595 6.5316787 0
-5.0348711 8.7287703 0.56285006
-3.7990239 6.5678782 -0.8457076
-3.8004482 6.5703406 -0.42396566
-3.7819681 6.5383921 0
-5.0363111 8.7069416 0.56183451
-3.8108516 6.5699973 -0.84657276
-3.8096869 6.5679893 -0.42411065
-3.7990024 6.5495691 0
-5.0363979 8.682868 0.56067336
-3.8135855 6.5564446 -0.84541959
-3.8189254 6.5656252 -0.42425564
-3.8095331 6.5494776 0
-5.0285978 8.6453352 0.55864167
-3.8175941 6.5451269 -0.84455442
-3.8255479 6.558764 -0.42411065
-3.8357987 6.5763383 0
-5.0049992 8.5808897 0.5548678
-3.815053 6.5226483 -0.84224808
-3.8413441 6.5675988 -0.42498177
-3.8411167 6.5672102 0
-4.962893 8.4851265 0.54906279
-3.8150828 6.504652 -0.84051889
-3.8453319 6.5562263 -0.42454621
-3.8727462 6.6029673 0
-4.9468498 8.4342957 0.54615998
-3.8150697 6.4866562 -0.83878857
-3.8624735 6.5672555 -0.42556232
-3.8873174 6.6094971 0
-0 0 0
-0 0 -0
-3.8150237 6.468679 -0.83705938
-3.8704059 6.5625839 -0.42556232
-3.8966217 6.6070347 0
-4.9236588 8.3484583 0.54137051
-3.8215215 6.4618402 -0.83677137
-3.8809755 6.5623713 -0.42585233
-3.9152005 6.6202426 0
-0 0 0
-0 0 -0
-3.8227315 6.4460964 -0.83533019
-3.8915555 6.5621514 -0.42614287
-4.9399977 8.3300915 0
-4.9292436 8.3119574 0.53977442
-3.8199415 6.4236879 -0.83302385
-3.9074478 6.5708404 -0.42701343
-4.935431 8.2995167 0
-4.929985 8.2903595 0.53875828
-3.8119128 6.4013805 -0.83042949
-3.9233809 6.5885696 -0.42831954
-4.9337826 8.285347 0
-4.9256907 8.2717571 0.53774273
-3.8143406 6.387887 -0.82927632
-3.9379985 6.5949769 -0.42904511
-4.9411244 8.2749147 0
-0 0 0
-3.8193965 6.3788309 -0.82869917
-3.9553096 6.6058216 -0.43006122
-4.9457717 8.2600069 0
-4.9403262 8.2509127 0.53716218
-3.8191154 6.3609104 -0.82696998
-3.9659612 6.6054888 -0.43035123
-4.9503903 8.2451 0
-4.9516287 8.2471628 0.53730714
-3.8201294 6.3452139 -0.8255288
-3.9846618 6.6185012 -0.43151236
-4.9616899 8.2413397 0
-4.9629288 8.2433977 0.53745216
-3.8197706 6.3273034 -0.82379848
-4.0060878 6.635931 -0.43296403
-4.9743371 8.2397985 0
-4.9769158 8.2440701 0.53788775
-3.8166978 6.3049822 -0.82149214
-4.018136 6.6377478 -0.43339902
-4.9842896 8.2337818 0
-4.9922562 8.2469425 0.5384683
-3.8162632 6.2871037 -0.81976295
-4.0396395 6.6551046 -0.43485069
-4.9969335 8.2321987 0
-5.0062585 8.2475615 0.5389033
-3.8184781 6.2736506 -0.81860977
-4.0598354 6.6701932 -0.43615681
-5.012289 8.2350473 0
-5.0229788 8.2526112 0.5396294
-3.8179686 6.2557812 -0.81687945
-5.026237 8.2355413 -0.53890997
-5.0235901 8.231204 0
-5.0315895 8.2443113 0.53948385
-3.8187757 6.2401347 -0.81543827
-5.0456805 8.2449789 -0.53992611
-5.0376091 8.2317896 0
-5.0469728 8.2470913 0.54006439
-3.8195503 6.2244954 -0.81399709
-5.0529184 8.2344427 -0.53963554
-5.0407476 8.2146082 0
-5.0542188 8.2365618 0.53977442
-3.8202927 6.2088633 -0.81255591
-5.0574226 8.2194872 -0.53905553
-5.0383964 8.1885653 0
-5.0532737 8.2127438 0.53861326
-3.8223598 6.1954374 -0.81140274
-5.0564361 8.1956787 -0.53789443
-5.0414557 8.1713991 0
-5.0536413 8.1911497 0.53759718
-3.8243999 6.1820159 -0.81024957
-5.0512962 8.1652536 -0.53629774
-5.043108 8.1520176 0
-5.0553355 8.1717834 0.53672659
-3.8250511 6.1664028 -0.80880839
-5.0529432 8.1458998 -0.53542721
-5.0433555 8.1304436 0
-5.0556169 8.1502094 0.53571051
-3.8243003 6.1485944 -0.80707806
-5.053174 8.124341 -0.53441107
-5.0394282 8.1022406 0
-5.054482 8.1264429 0.53454936
-3.8221498 6.128613 -0.80506086
-5.0533605 8.1027927 -0.53339493
-5.0409536 8.0829 0
-5.0505495 8.0982857 0.53309828
-3.8199515 6.1086369 -0.80304253
-5.0535073 8.0812654 -0.53237939
-5.0300179 8.0437021 0
-5.0493093 8.0745525 0.53193712
-3.8190882 6.0908728 -0.80131334
-5.0522256 8.0575418 -0.53121829
-5.0342031 8.0287991 0
-5.0480194 8.0508337 0.53077602
-3.8250644 6.0840578 -0.8010242
-5.0467429 8.0272312 -0.5296216
-5.0300517 8.0006819 0
-5.0535932 8.0381269 0.53034049
-3.8190975 6.0664301 -0.799007
-5.0419002 8.0087852 -0.52860552
-5.0224071 7.9778218 0
-5.0584483 8.0350723 0.53034049
-3.8181386 6.0486836 -0.79727668
-5.0390916 7.982914 -0.5272994
-5.0250983 7.9607458 0
-5.0723157 8.0355482 0.53077602
-3.8185294 6.0331407 -0.79583549
-5.03901 7.9614563 -0.5262838
-5.0249696 7.9392729 0
-5.0861921 8.0360022 0.53121161
-3.8202729 6.0197868 -0.79468232
-5.0374875 7.9378104 -0.5251227
-5.0234032 7.9156165 0
-5.093111 8.0254583 0.53092104
-3.8178279 5.9998975 -0.79266512
-5.0414953 7.9229488 -0.52454215
-5.0273752 7.9007583 0
-5.1069903 8.025877 0.53135657
-3.8222899 5.9909148 -0.79208797
-5.0328975 7.8883758 -0.52265549
-5.0243211 7.8749342 0
-5.1124902 8.0131273 0.53092104
-3.8183753 5.9688616 -0.78978163
-5.0312233 7.8647776 -0.52149433
-5.0170035 7.8425498 0
-5.1193709 8.0025702 0.53063101
-3.8172088 5.9511847 -0.78805244
-5.0379138 7.8543143 -0.52120382
-5.0180483 7.8233428 0
-5.1164122 7.976696 0.52932489
-3.8201983 5.9400396 -0.78718728
-5.0375657 7.8329291 -0.52018821
-5.0148292 7.7975755 0
-5.1133981 7.9508405 0.52801877
-3.8217661 5.9267244 -0.78603411
-5.0357614 7.8093662 -0.51902711
-5.0242476 7.7915106 0
-5.1089168 7.9228139 0.5265671
-3.8149772 5.8849225 -0.78171057
-5.0320034 7.7622876 -0.51670492
-5.0189967 7.7422242 0
-5.1110921 7.8842883 0.52482599
-3.8220854 5.8803086 -0.78171057
-5.0300503 7.7387724 -0.51554376
-5.0141625 7.7143288 0
-5.1092863 7.8606777 0.52366489
-3.816474 5.8561773 -0.77911508
-5.0308876 7.7196312 -0.51467323
-5.017796 7.6995435 0
-5.1074309 7.8370829 0.52250379
-3.8207202 5.8472357 -0.77853906
-5.0259953 7.6917901 -0.51322156
-5.0085912 7.6651545 0
-5.1069455 7.8156767 0.52148765
-3.8178594 5.8274679 -0.77652073
-5.0210485 7.6639805 -0.51177043
-5.017849 7.6590972 0
-5.1021485 7.7877693 0.52003658
-3.8177991 5.8120437 -0.77507955
-5.0245991 7.6492209 -0.51118988
-5.0128145 7.6312804 0
-5.1029925 7.7685637 0.51916546
-3.8191285 5.7987862 -0.77392638
-5.028121 7.6344638 -0.51060933
-5.0120101 7.6100016 0
-5.099514 7.7428632 0.51785934
-3.8218553 5.7876902 -0.77306122
-5.025887 7.6110358 -0.50944817
-5.0125999 7.5909138 0
-7.6202059 11.539785 0.77242082
-3.3101048 4.9995642 -0.99962467
-3.8159962 5.76366 -0.77046686
-5.0293422 7.5962911 -0.50886762
-5.0102749 7.5674915 0
-7.6327105 11.528404 0.77227587
-3.3147252 4.9934244 -0.99919713
-3.8158069 5.7482724 -0.76902568
-5.0298972 7.5772233 -0.5079971
-5.0064621 7.5419202 0
-7.6466351 11.519174 0.77227587
-3.3148966 4.9871411 -0.99834037
-3.8106911 5.7330461 -0.76729649
-5.0143394 7.543891 -0.50596541
-5.0095787 7.5367289 0
-7.6521559 11.51239 0.77213085
-3.3166533 4.9767299 -0.99705768
-3.811878 5.7198281 -0.76614332
-5.0191264 7.5313377 -0.50552988
-5.0013623 7.5046821 0
-5.0968719 7.6479969 0.51336044
-3.3183844 4.9663134 -0.99577338
-3.8144743 5.7087641 -0.76527816
-5.016674 7.5079837 -0.50436872
-5.0031986 7.4878163 0
-5.0960026 7.6267071 0.5123443
-3.3229554 4.9601693 -0.99534583
-3.811291 5.6891069 -0.76325983
-5.0112829 7.4803324 -0.50291765
-4.9963078 7.4579797 0
-5.0950947 7.6054387 0.51132876
-3.324651 4.9497557 -0.99406153
-3.8123937 5.675909 -0.76210666
-5.0101743 7.4591708 -0.50190151
-5.0024109 7.4476123 0
-5.0897894 7.577702 0.50987709
-3.3220286 4.9329634 -0.99149454
-3.8192492 5.6712985 -0.76210666
-5.010478 7.4401836 -0.50103092
-4.9968719 7.41998 0
-5.0655632 7.5219812 0.50653929
-3.326546 4.9268122 -0.99106532
-3.8159719 5.6516805 -0.76008946
-5.015101 7.4276614 -0.50059539
-5.0043788 7.4117823 0
-5.0353875 7.4577074 0.5026204
-3.331059 4.9206653 -0.99063778
-3.8140955 5.6342101 -0.75835913
-5.0124187 7.4043822 -0.49943426
-5.0016599 7.3884888 0
-5.0210943 7.4171977 0.50029868
-3.335562 4.9145145 -0.99021024
-3.8209007 5.6295977 -0.75835913
-5.0111456 7.3832679 -0.49841815
-5.0032773 7.371675 0
-5.0139999 7.3874731 0.49870202
-3.335721 4.9019914 -0.98849833
-3.8146055 5.6057334 -0.75576478
-5.0156822 7.370769 -0.49798316
-4.9975371 7.3441043 0
-5.014154 7.3685241 0.49783146
-3.3373001 4.8915935 -0.98721403
-3.8155453 5.5925736 -0.75461161
-5.0128689 7.3475313 -0.49682203
-5.0020113 7.3316169 0
-5.0171962 7.3538742 0.49725091
-3.3432081 4.8875575 -0.98721403
-3.8135412 5.5751543 -0.75288242
-5.0085416 7.3221688 -0.49551591
-4.9976439 7.3062372 0
-5.0158076 7.3327913 0.4962348
-3.3345954 4.8623481 -0.98293519
-3.8144236 5.5620103 -0.75172925
-5.0041542 7.2968192 -0.49420926
-4.9946933 7.2830234 0
-5.0173173 7.3160129 0.49550924
-3.3419213 4.8604283 -0.98336273
-3.8079538 5.5382175 -0.7491349
-5.0056081 7.2800636 -0.49348369
-4.9961128 7.2662539 0
-5.0129051 7.2906766 0.49420312
-3.3448806 4.8521638 -0.98250765
-3.8175762 5.5378675 -0.74971092
-5.0026026 7.2568951 -0.49232256
-4.9945536 7.2452192 0
-5.0128593 7.2717738 0.493332
-3.3478191 4.8438911 -0.98165089
-3.8213265 5.5289993 -0.7491349
-5.0098915 7.2487092 -0.49217758
-4.9899888 7.2199125 0
-5.0113049 7.2507544 0.49231645
-3.3551302 4.8419504 -0.98207843
-3.8250554 5.5201216 -0.74855775
-4.9979296 7.2127533 -0.49014589
-5.0001898 7.2160153 0
-5.0156212 7.2382846 0.49188089
-3.3551254 4.8294678 -0.9803682
-3.8243454 5.5048771 -0.74711657
-5.0066414 7.2067094 -0.49014589
-5.0133615 7.216382 0
-5.0139842 7.217279 0.49086478
-3.3624241 4.8275146 -0.98079574
-3.8280404 5.4960113 -0.74654055
-5.0049481 7.1857266 -0.48912978
-5.0220771 7.210319 0
-5.0123096 7.1962957 0.48984921
-3.3579652 4.8087134 -0.97779959
-3.8257906 5.4786539 -0.74481022
-5.004704 7.1668954 -0.48825923
-5.0322742 7.2063775 0
-5.0120721 7.1774473 0.48897809
-3.3608315 4.8004508 -0.97694445
-3.8279617 5.4676771 -0.74394619
-4.9969654 7.1374264 -0.48666257
-5.0424695 7.2024217 0
-5.0073304 7.1522303 0.48767197
-3.3637311 4.7984195 -0.97694445
-3.8253255 5.4568915 -0.74279302
-4.9938207 7.1237693 -0.485937
-5.0498104 7.20364 0
-5.0041938 7.1385674 0.48694643
-3.3680463 4.7922454 -0.97651523
-3.8334022 5.4543796 -0.74308103
-4.9889789 7.098599 -0.48463088
-5.0659919 7.2081771 0
-5.0038486 7.1197562 0.48607531
-3.3634882 4.773489 -0.9735207
-3.8310483 5.4370537 -0.74135071
-4.9915657 7.0840693 -0.48405033
-5.0761952 7.2041759 0
-5.0019751 7.0988421 0.48505974
-3.3677683 4.7673187 -0.97309154
-3.837615 5.4324207 -0.74135071
-4.9926271 7.0674229 -0.48332477
-0 0 0
-5.0075474 7.0885444 0.4847692
-3.3720438 4.7611527 -0.97266394
-3.8352098 5.4151192 -0.73962152
-4.9951558 7.0529032 -0.48274422
-5.086071 7.1812711 0
-5.002594 7.063406 0.48346308
-3.3777943 4.7570748 -0.97266394
-3.8357604 5.4020457 -0.73846835
-4.9886274 7.0256715 -0.48129255
-5.1037817 7.1878481 0
-5.0036049 7.0467649 0.48273751
-3.3790779 4.7467222 -0.97138131
-3.8422847 5.3974071 -0.73846835
-4.9895797 7.0090566 -0.48056698
-5.1154847 7.1859202 0
-5.0000601 7.0237789 0.48157641
-3.3788459 4.7342777 -0.9696694
-3.8458016 5.3885536 -0.73789233
-4.9889908 6.9903364 -0.47969642
-5.1241636 7.1797338 0
-5.0009975 7.0071592 0.48085085
-3.3815734 4.7260122 -0.96881264
-3.8492966 5.3796921 -0.73731518
-4.9928961 6.9779615 -0.47926086
-5.1358609 7.1777658 0
-5.0003853 6.9884281 0.47997972
-3.3872814 4.7219229 -0.96881264
-3.8512697 5.3687301 -0.73645002
-4.9892073 6.9550323 -0.47809973
-5.1490827 7.1779013 0
-4.9982281 6.9676075 0.47896418
-3.3929844 4.7178264 -0.96881264
-3.8607774 5.3682761 -0.73702717
-4.9900231 6.9384532 -0.4773742
-5.1592698 7.1737852 0
-4.9990592 6.9510169 0.47823861
-3.403188 4.7199721 -0.97009701
-3.8566706 5.3489194 -0.73500884
-4.9908061 6.9218822 -0.47664863
-5.1740227 7.1759896 0
-4.9968147 6.9302158 0.4772225
-3.4028733 4.7075348 -0.9683851
-3.863131 5.3442554 -0.73500884
-4.9854674 6.8968959 -0.47534251
-5.1781144 7.163403 0
-4.9960546 6.9115419 0.47635195
-3.396508 4.6867909 -0.96496135
-3.8680694 5.337491 -0.73472083
-4.9876981 6.8824506 -0.47476196
-5.1882977 7.1592546 0
-4.9952502 6.8928719 0.47548082
-3.4066966 4.6889157 -0.96624571
-3.872997 5.3307228 -0.73443282
-4.9883757 6.8659101 -0.4740364
-8.3403378 11.47949 0
-4.9974661 6.8784223 0.47490028
-3.4093342 4.6806421 -0.96538895
-3.8748653 5.3197651 -0.73356766
-4.9905486 6.8514762 -0.47345585
-8.3572636 11.473607 0
-4.9965973 6.8597808 0.47402972
-3.41045 4.6703057 -0.96410626
-3.8828142 5.3171663 -0.73385566
-4.9850273 6.8265486 -0.47214916
-8.3772602 11.471908 0
-4.994154 6.8390465 0.47301358
-3.4100249 4.657896 -0.96239442
-3.8922949 5.3166485 -0.73443282
-4.9871387 6.8121414 -0.47156918
-8.4064865 11.482772 0
-4.9901347 6.8162341 0.47185248
-3.4156506 4.6537724 -0.96239442
-3.8956525 5.3077674 -0.73385566
-4.9846025 6.7914453 -0.47055304
-7.410254 10.096358 0
-4.9937534 6.8039131 0.47141692
-3.4151857 4.6413713 -0.96068251
-3.9036002 5.3051457 -0.73414481
-4.9897218 6.7812271 -0.4702625
-7.4070268 10.06644 0
-4.9896569 6.7811389 0.47025636
-3.4177406 4.6331058 -0.95982575
-3.9130757 5.304584 -0.73472083
-4.9886599 6.762651 -0.46939194
-7.3944659 10.023973 0
-4.9916768 6.7667408 0.46967581
-3.4174917 4.626914 -0.95897067
-3.9162798 5.3022189 -0.73472083
-4.9865694 6.7512751 -0.46881136
-7.4020653 10.021595 0
-4.9849558 6.7490907 0.4686597
-3.4169695 4.6145291 -0.95725876
-3.9103699 5.2808537 -0.73241448
-4.9808078 6.7264528 -0.46750525
-7.3940368 9.9854565 0
-4.9869218 6.7347093 0.46807912
-3.4179509 4.6042113 -0.95597446
-3.9275415 5.2906647 -0.73443282
-4.9796357 6.7079072 -0.46663415
-7.3828325 9.9451761 0
-4.9873133 6.7182488 0.46735358
-3.426574 4.6041927 -0.95682961
-3.9277544 5.2776155 -0.73327965
-4.9768825 6.6872997 -0.46561858
-7.3715358 9.9049301 0
-4.9876719 6.701797 0.46662802
-3.4260001 4.5918274 -0.95511937
-3.9325833 5.2707944 -0.73299164
-4.9802957 6.6750312 -0.46518302
-7.3741641 9.8835039 0
-4.9817824 6.6770239 0.4653219
-3.4253955 4.5794616 -0.95340747
-3.9342999 5.2598233 -0.73212647
-4.9727969 6.6482048 -0.46373191
-7.3907785 9.8808403 0
-4.9789505 6.6564322 0.46430579
-3.4355423 4.5814748 -0.95469016
-3.9484098 5.2654104 -0.73356766
-4.9792686 6.6401148 -0.46358693
-7.3995867 9.8677349 0
-4.9807544 6.6420956 0.46372521
-3.4364524 4.5711703 -0.95340747
-3.9454467 5.2482347 -0.73183846
-4.9779167 6.6216273 -0.4627158
-7.4208846 9.8712645 0
-4.9794106 6.6236143 0.46285465
-0 0 -0
-3.4404237 4.564959 -0.95297831
-3.9517853 5.243464 -0.73183846
-4.978096 6.6052341 -0.46199024
-7.4249763 9.8519001 0
-4.9858422 6.6155119 0.4627091
-3.441299 4.5546598 -0.95169562
-3.9549966 5.2345538 -0.73126131
-4.9766779 6.5867791 -0.46111968
-7.4368753 9.8429213 0
-4.9844365 6.5970473 0.46183854
-3.4452455 4.5484462 -0.95126641
-3.9613187 5.2297711 -0.73126131
-4.9767842 6.5703983 -0.46039358
-7.4519086 9.8380814 0
-4.98142 6.5765185 0.46082243
-3.4484539 4.5298963 -0.94912702
-3.9645483 5.2078385 -0.72953212
-4.9753389 6.535615 -0.45879745
-7.4803863 9.826251 0
-4.9784112 6.5396509 0.45908076
-3.4492574 4.5196099 -0.94784433
-3.9661291 5.1968741 -0.72866696
-4.9800763 6.5254636 -0.45850688
-7.5017304 9.8296223 0
-4.9831595 6.5295033 0.45879075
-3.4531515 4.5133944 -0.94741511
-3.9739757 5.1941304 -0.72895497
-4.9753261 6.5029316 -0.45734578
-7.4930453 9.7936821 0
-4.9784141 6.506968 0.45762965
-3.4586024 4.5092187 -0.94741511
-3.9786763 5.1872745 -0.72866696
-4.9752741 6.486608 -0.45662022
-7.4953675 9.7722273 0
-4.9799471 6.4927006 0.45704907
-3.4656177 4.5070772 -0.94784433
-3.981791 5.1783662 -0.72809094
-4.9767728 6.472352 -0.45603967
-7.5103455 9.7672939 0
-4.9751172 6.4701991 0.45588797
-3.4647923 4.4947538 -0.94613248
-3.9896226 5.1755977 -0.72837895
-4.9703135 6.447814 -0.45473355
-7.4887772 9.7149286 0
-4.9718313 6.4497828 0.4548724
-3.4655101 4.4844685 -0.94484818
-3.9879673 5.1605425 -0.72693777
-4.9717455 6.4335794 -0.454153
-7.5005102 9.7058725 0
-4.974853 6.4376006 0.45443684
-3.4682188 4.4823737 -0.94484818
-3.9910841 5.1581321 -0.72693777
-4.9708595 6.4244075 -0.45371744
-7.4888525 9.6786966 0
-4.9707923 6.4243202 0.4537113
-3.4689107 4.4720926 -0.94356382
-3.9988976 5.1553478 -0.72722578
-4.9674749 6.4040298 -0.45270187
-7.4606662 9.6182327 0
-4.9689927 6.4059863 0.45284018
-3.4743118 4.4678979 -0.94356382
-4.0003591 5.1443849 -0.72636062
-4.9688287 6.3898182 -0.45212132
-7.438735 9.5660696 0
-4.9703488 6.3917727 0.45225963
-3.4733946 4.4555984 -0.94185197
-4.0065722 5.1395473 -0.72636062
-4.9653616 6.3694625 -0.45110521
-7.4358892 9.5386038 0
-4.9700823 6.3755178 0.45153406
-3.4756174 4.4473567 -0.94099689
-4.0111885 5.1326666 -0.72607261
-4.9730544 6.3634582 -0.45110521
-7.4409995 9.52141 0
-4.9697833 6.359273 0.4508085
-3.4794071 4.4411349 -0.94056928
-4.014194 5.1237397 -0.72549546
-4.9679193 6.3410807 -0.44994408
-7.4476881 9.5062714 0
-4.9694529 6.3430376 0.45008296
-3.4863548 4.4389443 -0.94099689
-4.018786 5.1168537 -0.72520745
-4.962738 6.3187251 -0.44878298
-4.9403682 6.2902436 0
-4.9706936 6.3288546 0.44950238
-3.4805982 4.4206085 -0.93800068
-4.0217686 5.1079335 -0.72463143
-4.9639397 6.3045578 -0.4482024
-4.9495735 6.2863121 0
-4.9703012 6.3126378 0.44877684
-3.4795752 4.4083395 -0.93628883
-4.0247297 5.0990057 -0.72405428
-4.9635057 6.2883592 -0.44747686
-4.9523335 6.2742043 0
-4.973094 6.3005066 0.44834128
-3.4912708 4.4121842 -0.93800068
-4.0292845 5.0921125 -0.72376627
-4.9646506 6.2742062 -0.44689628
-4.9502182 6.2559667 0
-4.2067981 5.3164501 0.37867767
-3.4886243 4.3979087 -0.93586123
-4.0370402 5.0892649 -0.72405428
-4.9625425 6.2559924 -0.44602573
-4.2267652 5.3284402 0
-4.2261376 5.3276491 0.37983879
-3.4939358 4.3936901 -0.93586123
-4.0415783 5.0823607 -0.72376627
-4.9620128 6.2398243 -0.44530016
-4.2445407 5.3375897 0
-4.2358093 5.3266101 0.38012934
-3.4976435 4.3874598 -0.93543369
-4.0477161 5.0774736 -0.72376627
-4.9663062 6.2297568 -0.44500962
-4.2639651 5.3487372 0
-4.2438607 5.3235178 0.38027436
-3.4933236 4.3711944 -0.93286508
-4.0490026 5.0665154 -0.72290111
-4.9673414 6.215632 -0.44442907
-4.2476754 5.3151145 0
-4.2470427 5.3143225 0.37998378
-3.4986029 4.3669701 -0.93286508
-4.0518904 5.0575862 -0.72232509
-4.9764771 6.211659 -0.44457462
-4.2166739 5.2632694 0
-4.2502146 5.3051348 0.37969378
-3.5022709 4.3607402 -0.93243754
-4.0563807 5.0506716 -0.72203708
-4.2599478 5.3041372 -0.37999049
-4.2181401 5.2520814 0
-4.2533708 5.2959476 0.3794038
-3.5075376 4.3565049 -0.93243754
-4.0624804 5.0457668 -0.72203708
-4.2810183 5.3171997 -0.3812966
-4.2310114 5.2550893 0
-4.2613945 5.2928262 0.37954879
-3.5015113 4.3382788 -0.92944133
-4.0669451 5.038836 -0.72174793
-4.2841792 5.3079829 -0.3810066
-4.2684159 5.2884531 0
-4.2710476 5.2917137 0.37983879
-3.5051377 4.3320508 -0.92901379
-4.0681543 5.0278916 -0.72088391
-0 0 -0
-4.2846217 5.2954268 0
-4.2725401 5.2804947 0.3794038
-3.5012906 4.3219538 -0.92730188
-4.0744443 5.0294485 -0.72145993
-4.282341 5.2860742 -0.37999049
-4.276351 5.2786798 0
-4.2479248 5.2435908 0.37693655
-3.5097499 4.3217092 -0.92815864
-4.0756254 5.0184965 -0.72059476
-4.2772632 5.2667823 -0.37897491
-4.2646837 5.2512927 0
-4.2182159 5.1940746 0.37374321
-3.5117247 4.3134799 -0.92730188
-4.086587 5.0195875 -0.72145993
-4.2836242 5.26161 -0.37897491
-4.2529502 5.2239332 0
-4.1949625 5.1527061 0.37113097
-3.5088201 4.2992916 -0.92516249
-4.092649 5.0146461 -0.72145993
-4.2899785 5.2564301 -0.37897491
-4.2477455 5.2046828 0
-4.1946135 5.1395812 0.37055042
-3.5172603 4.2990184 -0.92601758
-4.0970688 5.0076971 -0.72117192
-4.2897453 5.2431984 -0.37839437
-4.2441401 5.1874571 0
-4.1991768 5.1325002 0.37040541
-3.5110614 4.2808771 -0.92302305
-4.1063943 5.0067391 -0.72174793
-4.2845411 5.2239456 -0.37737826
-4.2273026 5.1541572 0
-4.2037292 5.1254153 0.37026042
-3.519489 4.2805934 -0.92387819
-4.1091585 4.9977818 -0.72117192
-4.2908502 5.2187648 -0.37737826
-4.2302184 5.145021 0
-4.204967 5.1143088 0.36982486
-3.5213964 4.2723799 -0.92302305
-4.1217747 5.0007963 -0.72232509
-4.2888908 5.2035522 -0.37665269
-4.2413993 5.1459327 0
-4.2061839 5.1032066 0.3693893
-3.5265563 4.2681217 -0.92302305
-4.124516 4.9918208 -0.72174793
-4.2885547 5.1903539 -0.37607214
-4.2459583 5.1387997 0
-4.2090397 5.0941181 0.36909929
-3.5284326 4.2598996 -0.92216629
-4.1371441 4.994801 -0.72290111
-4.2881932 5.1771636 -0.37549159
-4.2505059 5.1316633 0
-4.2151918 5.0890288 0.36909929
-3.5286622 4.2497139 -0.92088366
-4.1415257 4.9878106 -0.7226131
-4.2944455 5.1719785 -0.37549159
-4.2633533 5.1345325 0
-4.2346177 5.099925 0.37026042
-3.5321476 4.2434683 -0.92045444
-4.1442432 4.9788308 -0.72203708
-4.2890539 5.1528034 -0.37447545
-4.2628946 5.1213765 0
-4.2607188 5.1187625 0.37200153
-3.5306938 4.2313132 -0.91874254
-4.1552229 4.9797716 -0.72290111
-4.2886176 5.139637 -0.3738949
-4.2674074 5.1142178 0
-4.2768922 5.1255851 0.37287265
-3.5407467 4.2329531 -0.9200269
-4.1612368 4.9747472 -0.72290111
-4.2898278 5.1284776 -0.37345991
-4.2719159 5.1070633 0
-4.2814169 5.118422 0.37272766
-3.5343177 4.2149081 -0.91703236
-4.1705718 4.9736834 -0.72347826
-4.2926793 5.1193047 -0.37316933
-4.2780833 5.1018982 0
-4.2926025 5.1192126 0.37316266
-3.539408 4.2106342 -0.91703236
-4.1749158 4.9666624 -0.72319025
-4.2938442 5.1081448 -0.37273377
-4.2976418 5.1126623 0
-4.2971144 5.1120348 0.37301764
-3.5461457 4.2083158 -0.91745991
-4.182579 4.9635901 -0.72347826
-4.2966676 5.0989823 -0.3724438
-4.3105245 5.1154265 0
-4.2949176 5.0969057 0.3722921
-3.5446019 4.1961837 -0.915748
-4.1919084 4.9624805 -0.72405428
-4.2944436 5.0838637 -0.37171823
-4.3133464 5.1062417 0
-4.3044238 5.0956788 0.37258211
-3.5463486 4.1879759 -0.91489124
-4.194562 4.9534678 -0.72347826
-4.2972217 5.0747013 -0.37142766
-4.3161464 5.0970502 0
-4.3156166 5.0964246 0.37301764
-3.548878 4.1858325 -0.91489124
-4.1975536 4.950933 -0.72347826
-4.3002868 5.0721045 -0.37142766
-4.3242755 5.100399 0
-4.320374 5.0957966 0.37316266
-3.5506115 4.1776328 -0.91403615
-4.2085595 4.9517717 -0.72434342
-4.3013687 5.0609703 -0.37099266
-4.3236938 5.0872378 0
-4.343359 5.1103759 0.37461433
-3.5489974 4.1655235 -0.91232431
-4.2162156 4.9486499 -0.72463143
-4.3041072 5.0518098 -0.37070212
-4.3112702 5.0602169 0
-4.3444734 5.0991883 0.37417877
-3.5556936 4.1631823 -0.91275185
-4.2255483 4.9474816 -0.72520745
-4.3017721 5.0367279 -0.36997655
-4.2886496 5.0213637 0
-4.3421955 5.0840578 0.3734532
-3.5557113 4.1530313 -0.91146755
-4.2315235 4.9423718 -0.72520745
-4.3061662 5.0295544 -0.36983156
-4.2794824 4.9983878 0
-4.3365045 5.0649886 0.37243709
-3.5573862 4.1448393 -0.9106124
-4.2307539 4.9294047 -0.72405428
-4.3037806 5.0144906 -0.36910599
-4.2804322 4.9872866 0
-4.3324704 5.0479183 0.37156653
-3.5556948 4.1327543 -0.90890056
-4.2502022 4.9399743 -0.72636062
-4.3081369 5.0073113 -0.36896044
-4.2881575 4.9840894 0
-4.3317881 5.0348005 0.37098598
-3.562361 4.1303968 -0.9093281
-4.2494111 4.9270005 -0.72520745
-4.3192768 5.008007 -0.369396
-4.3043718 4.990725 0
-4.3259869 5.0157871 0.36996987
-3.5639944 4.1222095 -0.90847301
-4.2553616 4.9218626 -0.72520745
-4.3185272 4.9949217 -0.36881545
-4.3257165 5.0032368 0
-4.3286486 5.0066285 0.36967987
-3.5639272 4.1120787 -0.90718865
-4.259613 4.9147644 -0.72491944
-4.3330669 4.999516 -0.36954099
-4.3488069 5.0176768 0
-4.3346953 5.0013947 0.36967987
-3.5688932 4.107769 -0.90718865
-4.2655482 4.9096141 -0.72491944
-4.3391047 4.9942765 -0.36954099
-4.3582768 5.0163441 0
-4.3492546 5.005959 0.37040541
-3.5721698 4.1015201 -0.90676111
-4.2697806 4.9025078 -0.72463143
-4.3468475 4.9909954 -0.36968654
-4.3626275 5.0091133 0
-4.3757792 5.0242138 0.37214708
-3.5653033 4.0836625 -0.90376496
-4.2790999 4.901238 -0.72520745
-4.3631253 4.9974799 -0.3705571
-4.3566937 4.9901133 0
-4.3818469 5.0189228 0.37214708
-3.5736196 4.0832186 -0.90462172
-4.2833171 4.8941197 -0.72491944
-4.3708706 4.9941578 -0.37070212
-4.3524399 4.9730988 0
-4.3930368 5.019485 0.37258211
-3.5785506 4.0788975 -0.90462172
-4.2926359 4.8928251 -0.72549546
-4.3769016 4.9888725 -0.37070212
-4.3584456 4.9678364 0
-4.3939629 5.0083194 0.37214708
-3.5817764 4.0726376 -0.90419251
-4.2985449 4.8876348 -0.72549546
-4.3829265 4.9835806 -0.37070212
-4.3713198 4.9703832 0
-4.4051542 5.0088544 0.37258211
-3.5866947 4.0683064 -0.90419251
-4.3027387 4.8804989 -0.72520745
-4.3992586 4.9899793 -0.37157324
-4.3996944 4.9904737 0
-4.4060531 4.9976859 0.37214708
-3.5797131 4.0505109 -0.90119797
-4.3103437 4.8772326 -0.72549546
-4.4070039 4.9866052 -0.37171823
-4.4126153 4.9929543 0
-4.4000416 4.9787273 0.37113097
-3.5853467 4.0420971 -0.90077043
-4.3123178 4.86168 -0.72434342
-4.4332743 4.998045 -0.37316933
-4.3957515 4.9557424 0
-4.4245749 4.9882379 0.37243709
-3.5919323 4.0396786 -0.90119797
-4.3164654 4.8545275 -0.72405428
-4.4358602 4.9888048 -0.37287936
-4.3636947 4.9076438 0
-4.4616747 5.0178375 0.37504932
-3.5951045 4.033421 -0.90077043
-4.3188896 4.8454504 -0.72347826
-4.4539824 4.997014 -0.3738949
-4.3419151 4.8712835 0
-4.5023136 5.0512376 0.37795213
-3.6016841 4.0309868 -0.90119797
-4.3195696 4.8344402 -0.7226131
-4.4704084 5.0032582 -0.37476602
-4.3304615 4.8466301 0
-4.5170689 5.0554805 0.37867767
-3.6031234 4.0228038 -0.90034121
-4.3133264 4.8157287 -0.72059476
-4.4695158 4.9901109 -0.37418547
-4.3311038 4.8355765 0
-4.483305 5.005506 0.3753399
-3.6045549 4.0146303 -0.89948606
-4.3277869 4.8201418 -0.72203708
-4.48943 5.0001745 -0.37534657
-4.3386803 4.8322744 0
-4.4476867 4.9536819 0.37185654
-3.6076875 4.0083661 -0.89905852
-4.3214941 4.8014498 -0.72001874
-4.490252 4.9889503 -0.37491101
-4.3532195 4.8366985 0
-4.4293361 4.9212685 0.36982486
-3.6159642 4.007812 -0.89991367
-4.3342233 4.803906 -0.72117192
-4.5067172 4.9950929 -0.37578157
-4.366034 4.8391643 0
-4.4283166 4.908196 0.36924431
-3.6190839 4.0015378 -0.89948606
-4.3330851 4.7909923 -0.72001874
-4.5214696 4.9992852 -0.3765077
-4.3910823 4.8551188 0
-4.4359851 4.904767 0.3693893
-3.611845 3.9838476 -0.89648992
-4.3336573 4.7800026 -0.71915358
-4.5327377 4.9995875 -0.37694269
-4.4126759 4.8671603 0
-4.4366708 4.8936262 0.36895373
-3.6270187 3.9908824 -0.89905852
-4.3376918 4.7728505 -0.71886557
-4.5405283 4.9960356 -0.37708825
-4.4325566 4.8772326 0
-4.4495711 4.8959537 0.36953431
-3.6301043 3.9845939 -0.89862931
-4.3364882 4.7599578 -0.7177124
-4.5605545 5.0059052 -0.37824881
-4.4594789 4.894959 0
-4.4537354 4.8886547 0.3693893
-3.6279919 3.9726226 -0.89691746
-4.350956 4.7642622 -0.71915358
-4.5736089 5.0080657 -0.37882936
-4.4759169 4.9010935 0
-4.4666481 4.8909445 0.36996987
-3.6293259 3.9644525 -0.89606237
-4.3549647 4.7570958 -0.71886557
-4.5814166 5.004458 -0.37897491
-4.4783244 4.8918462 0
-4.4743075 4.8874583 0.37011486
-3.6358476 3.9619539 -0.89648992
-4.3484659 4.7384887 -0.71684724
-4.5979981 5.0104017 -0.37984547
-4.4859896 4.8883471 0
-4.496027 4.8992844 0.37142155
-3.6388958 3.9556704 -0.89606237
-4.3541884 4.7332306 -0.71684724
-4.6040487 5.0048423 -0.37984547
-4.4883723 4.879096 0
-4.5160103 4.9091396 0.37258211
-3.6436729 3.9512706 -0.89606237
-4.3493872 4.7165613 -0.71511805
-4.6224251 5.0126491 -0.38086161
-4.4960275 4.8755803 0
-4.5360312 4.9189615 0.37374321
-3.6432152 3.9412081 -0.89477801
-4.355083 4.7113023 -0.71511805
-4.6443515 5.024231 -0.3821677
-4.505445 4.8739629 0
-4.5490265 4.9211092 0.37432376
-3.6462317 3.934922 -0.89435047
-4.3537407 4.6984477 -0.71396488
-4.673377 5.0433912 -0.38405439
-4.5077963 4.8647013 0
-4.553205 4.9137049 0.37417877
-3.6509836 3.9305134 -0.89435047
-4.3682146 4.7026572 -0.71540606
-4.7236767 5.0853348 -0.38768274
-4.5119019 4.8573461 0
-4.5396843 4.8872557 0.37258211
-3.6533575 3.9283068 -0.89435047
-4.3604894 4.6886573 -0.71367687
-4.7532868 5.1110158 -0.38985941
-4.5201473 4.8603306 0
-4.5302544 4.8711982 0.37156653
-3.6493506 3.9145031 -0.89221108
-4.3538036 4.6701398 -0.71165854
-4.7683234 5.1147776 -0.39058551
-4.5313425 4.8605781 0
-4.5361371 4.8657207 0.37156653
-3.655829 3.9119644 -0.89263862
-4.3559151 4.6610999 -0.71108252
-4.765624 5.099514 -0.38985941
-4.5389876 4.8569989 0
-4.5331435 4.8507457 0.37084097
-3.6587999 3.9056726 -0.89221108
-4.3562374 4.6501684 -0.71021736
-4.7753386 5.0975485 -0.39014995
-4.5644264 4.8724051 0
-4.5336704 4.8395739 0.37040541
-3.6582429 3.895633 -0.89092672
-4.3689351 4.6524434 -0.71137053
-4.7779336 5.0879827 -0.38985941
-4.6095004 4.9086194 0
-4.535954 4.8303003 0.37011486
-3.6611896 3.8893425 -0.89049917
-4.3674622 4.6396279 -0.71021736
-4.7573676 5.0538306 -0.38768274
-4.670722 4.9617853 0
-4.5328836 4.8153577 0.3693893
-3.6641262 3.8830507 -0.89007163
-4.3766117 4.6381059 -0.71079338
-4.7723856 5.0575261 -0.3884083
-4.7249403 5.0072465 0
-4.5458322 4.8174367 0.36996987
-3.6705778 3.8804836 -0.89049917
-4.3679938 4.6177821 -0.70848703
-4.7642083 5.036654 -0.38724717
-4.7560215 5.0279994 0
-4.5534334 4.8138261 0.37011486
-3.6699634 3.8704553 -0.88921487
-4.3700147 4.6087503 -0.70791101
-4.7720766 5.0327778 -0.38739216
-4.7585154 5.0184755 0
-4.5574603 4.806437 0.36996987
-3.6711037 3.8623004 -0.88835979
-4.3773603 4.60534 -0.70819902
-4.772789 5.0213633 -0.38695717
-4.7681584 5.0164914 0
-4.5596881 4.7971635 0.36967987
-3.6757679 3.8578618 -0.88835979
-4.3811393 4.5981765 -0.70791101
-4.7680945 5.0043015 -0.38608605
-4.7688289 5.0050716 0
-4.5672717 4.79353 0.36982486
-3.676877 3.8497012 -0.88750303
-4.3849072 4.5910106 -0.707623
-4.7687588 4.9929047 -0.38565105
-4.7604928 4.9842501 0
-4.5784464 4.7936468 0.37026042
-3.6726513 3.8359861 -0.88536358
-4.3868704 4.5819688 -0.70704585
-4.7693958 4.9815063 -0.38521549
-4.7647138 4.9766164 0
-4.5824332 4.7862287 0.37011486
-3.6808352 3.8352463 -0.88621867
-4.3906145 4.5748005 -0.70675784
-4.7682142 4.9682407 -0.38463494
-4.7689233 4.9689794 0
-4.6008096 4.7938132 0.37113097
-3.6890297 3.8344994 -0.88707542
-4.3943477 4.5676298 -0.70646983
-4.7742143 4.9624758 -0.38463494
-4.7622919 4.9500833 0
-4.6156044 4.7976117 0.37185654
-3.684752 3.8208017 -0.88493603
-4.3980699 4.5604568 -0.70618182
-4.7693806 4.9454775 -0.38376382
-4.7682695 4.9443254 0
-4.630415 4.8013811 0.37258211
-3.6804466 3.8071203 -0.88279659
-4.3981819 4.5495586 -0.70531666
-4.7681355 4.9322453 -0.38318384
-4.767005 4.931076 0
-4.6434374 4.8032556 0.37316266
-3.6850441 3.8026705 -0.88279659
-4.4018779 4.5423856 -0.70502865
-4.7722783 4.9246092 -0.38303828
-4.769341 4.9215779 0
-4.7342224 4.8853388 0.37998378
-3.6842682 3.7926893 -0.88151228
-4.3983469 4.527782 -0.70358634
-4.7691741 4.9095216 -0.38231272
-4.7644005 4.9046078 0
-4.7618484 4.9019804 0.38172546
-3.682976 3.7867787 -0.88065553
-4.4064932 4.5306878 -0.7044515
-4.7667027 4.9010496 -0.38187715
-0 0 0
-4.7847395 4.9195948 0.38332215
-3.6803808 3.7749734 -0.87894368
-4.4065461 4.5198026 -0.70358634
-4.7744403 4.8971524 -0.38202271
-4.7660222 4.8885179 0
-4.7943044 4.9175272 0.38361213
-3.6849394 3.7705238 -0.87894368
-4.4174294 4.5200262 -0.7044515
-4.7676392 4.8783693 -0.3810066
-4.7664666 4.8771696 0
-4.8038788 4.915451 0.3839027
-3.6841085 3.7605724 -0.87766099
-4.4228878 4.5146852 -0.7044515
-4.7753468 4.8744597 -0.38115159
-4.766891 4.865828 0
-4.7843604 4.8836603 0.38187101
-3.6886497 3.7561183 -0.87766099
-4.4174695 4.4982686 -0.70272231
-4.7721314 4.8594179 -0.38042605
-4.7691231 4.8563542 0
-4.7775116 4.8648963 0.3808549
-3.6967838 3.7553136 -0.87851608
-4.4192691 4.4892378 -0.70214516
-4.7725296 4.8480911 -0.37999049
-4.7676849 4.8431697 0
-4.7852073 4.86097 0.38099989
-3.697716 3.7471933 -0.87766099
-4.4246902 4.4838948 -0.70214516
-4.7783837 4.8423209 -0.37999049
-0 0 0
-0 0 0
-3.7040446 3.7445457 -0.87808853
-4.4282875 4.4767079 -0.70185715
-4.7933664 4.8457785 -0.38071603
-4.7830319 4.835331 0
-0 0 0
-3.712178 3.7437096 -0.87894368
-4.4245896 4.4621725 -0.70041597
-4.7955623 4.8362966 -0.38042605
-4.7888708 4.8295479 0
-0 0 0
-3.1767197 3.1959701 -0.99825591
-3.7112749 3.7337646 -0.87766099
-4.4281564 4.4549904 -0.70012796
-4.7959056 4.8249679 -0.37999049
-4.7983756 4.8274531 0
-0 0 0
-3.1787872 3.190331 -0.99769354
-3.7212143 3.7347279 -0.87894368
-4.4371839 4.4532976 -0.70070398
-4.8072357 4.8246932 -0.38042605
-4.8078756 4.8253355 0
-0 0 0
-3.1862345 3.1900868 -0.99882036
-0 0 -0
-4.4370761 4.442441 -0.69983882
-4.816731 4.8225546 -0.38071603
-4.8192215 4.8250484 0
-4.8276677 4.8335042 0.38158047
-3.1846917 3.180846 -0.99713117
-3.721149 3.7166555 -0.87680423
-4.4314642 4.4261131 -0.69810963
-4.8243985 4.8185725 -0.38086161
-4.8342533 4.8284154 0
-4.8463755 4.8405232 0.38259658
-3.1813331 3.1698217 -0.99487966
-3.7256372 3.7121565 -0.87680423
-4.4423075 4.4262338 -0.69897479
-4.8394189 4.8219085 -0.38158715
-4.8382421 4.8207359 0
-4.8540597 4.8364959 0.38274157
-3.1905689 3.171351 -0.99656886
-3.7191994 3.6967974 -0.87423724
-4.4458127 4.419034 -0.69868565
-4.8526134 4.8233848 -0.3821677
-4.8477516 4.818552 0
-4.870954 4.8416147 0.38361213
-3.1871815 3.1603372 -0.99431729
-3.7309549 3.6995308 -0.87594914
-4.4474792 4.4100204 -0.69810963
-4.8658185 4.8248358 -0.38274828
-4.8628087 4.8218513 0
-4.8786511 4.8375607 0.38375768
-3.1891861 3.1546917 -0.99375284
-3.7226453 3.6823812 -0.87295294
-4.4436126 4.3955503 -0.69666845
-4.8734903 4.8207788 -0.38289326
-4.8815846 4.8287854 0
-4.8937278 4.8407969 0.38448325
-3.1893818 3.14727 -0.9926281
-3.7325754 3.6832914 -0.87423724
-4.4489202 4.3901777 -0.69666845
-4.8904057 4.8258338 -0.38376382
-4.8911242 4.8265429 0
-4.9051242 4.8403578 0.38491881
-3.1986165 3.1487632 -0.99431729
-3.7242157 3.6661706 -0.87124109
-4.4560633 4.3866115 -0.69695646
-4.9017901 4.8253918 -0.38419938
-4.9043713 4.8279324 0
-4.9128189 4.8362484 0.3850638
-3.1969783 3.1395533 -0.9926281
-3.7304728 3.663465 -0.87166864
-4.4539785 4.3739748 -0.69580328
-4.9131808 4.8249288 -0.38463494
-4.9102011 4.8220029 0
-4.927927 4.8394103 0.38578936
-3.2043183 3.1429608 -0.99431729
-3.7271926 3.655823 -0.87038594
-4.4492345 4.3640385 -0.69465011
-4.9198017 4.8255954 -0.38492495
-4.9224014 4.8281455 0
-4.9345565 4.8400679 0.38607937
-3.2081134 3.1390865 -0.99431729
-3.7279341 3.6477225 -0.86952919
-4.454504 4.3586593 -0.69465011
-4.9367757 4.8305545 -0.38579607
-4.9375305 4.8312931 0
-4.9478302 4.8413711 0.38665992
-3.2082641 3.1316547 -0.99319047
-3.7360165 3.646805 -0.87038594
-4.4486656 4.3424373 -0.69292092
-4.9481821 4.8300257 -0.38623106
-4.9377761 4.8198681 0
-4.9611139 4.842649 0.38724047
-3.2047641 3.1206853 -0.9909389
-3.7367384 3.6387029 -0.86952919
-4.4501996 4.3334465 -0.69234377
-4.9558816 4.8258615 -0.38637662
-4.9547873 4.8247957 0
-4.9725485 4.8420911 0.38767603
-3.2104733 3.111165 -0.99037659
-3.7399957 3.6243079 -0.86824656
-4.4625149 4.3244777 -0.69263178
-4.9768577 4.8229103 -0.38710219
-4.9813766 4.8272896 0
-4.9916997 4.8372936 0.38825661
-3.2178802 3.1108122 -0.99150127
-3.7388334 3.6144319 -0.86696219
-4.465879 4.3172865 -0.69234377
-4.9938869 4.8277264 -0.38797274
-4.9890823 4.823081 0
-4.997541 4.8312583 0.38825661
-3.2106667 3.0963423 -0.98812503
-3.7394989 3.6063442 -0.86610544
-4.4710922 4.3118868 -0.69234377
-5.0015926 4.8234973 -0.3881183
-4.9986491 4.8206592 0
-4.9790616 4.8017688 0.38636991
-3.2089105 3.0871739 -0.98643583
-3.7438538 3.6018231 -0.86610544
-4.4725747 4.3028984 -0.69176775
-4.9961782 4.8066378 -0.38724717
-4.9819646 4.7929635 0
-4.9736214 4.7849364 0.38549882
-3.2181399 3.0885742 -0.98812503
-3.7445025 3.593745 -0.86525035
-4.4796348 4.2992802 -0.69205576
-4.9813657 4.7808108 -0.38565105
-4.9671035 4.7671227 0
-4.934413 4.7357483 0.38201603
-3.2071867 3.070626 -0.98362195
-3.7506945 3.5909915 -0.86567789
-4.4680138 4.2777677 -0.68946141
-4.9552331 4.7442412 -0.38318384
-4.9653406 4.7539186 0
-4.9288664 4.718997 0.38114491
-3.2145731 3.0702617 -0.98474884
-3.74946 3.581136 -0.86439359
-4.4731793 4.272366 -0.68946141
-4.9402905 4.7185068 -0.38158715
-4.9353213 4.7137609 0
-4.9270487 4.7058592 0.38056433
-3.2182806 3.0663755 -0.98474884
-3.7463503 3.5695198 -0.86268175
-4.4708481 4.2598209 -0.68830824
-4.944109 4.7107434 -0.38144216
-4.9504328 4.7167687 0
-4.9421425 4.7088699 0.38129047
-3.2164564 3.0572312 -0.98305964
-3.7469428 3.5614567 -0.8618266
-4.4759922 4.254416 -0.68830824
-4.9403749 4.6958098 -0.38071603
-4.9466982 4.7018204 0
-4.9421768 4.6975226 0.3808549
-3.2275233 3.0603356 -0.98531115
-3.7512434 3.5569267 -0.8618266
-4.4811296 4.2490044 -0.68830824
-4.9403939 4.6844783 -0.38028103
-4.9467158 4.6904731 0
-4.9384232 4.6826096 0.38012934
-3.2293746 3.0546892 -0.98474884
-3.7555385 3.5523913 -0.8618266
-4.478744 4.2364769 -0.68715507
-4.9536014 4.685648 -0.38086161
-4.9467058 4.6791253 0
-4.9440775 4.6766391 0.38012934
-3.2275176 3.0455518 -0.98305964
-3.7598281 3.5478511 -0.8618266
-4.48386 4.2310624 -0.68715507
-4.9460287 4.6671739 -0.37984547
-4.9409957 4.662425 0
-4.9327178 4.6546135 0.37882322
-3.2219462 3.0329435 -0.98024571
-3.7622449 3.5415475 -0.86139905
-4.4739027 4.2114587 -0.68484873
-4.9384184 4.648725 -0.37882936
-4.9466257 4.6564512 0
-4.9402285 4.6504292 0.37896824
-3.2219005 3.0255661 -0.97911888
-3.7646518 3.5352435 -0.86097151
-4.4903045 4.2166762 -0.68657905
-4.9440317 4.6427546 -0.37882936
-4.959837 4.6575971 0
-4.9325829 4.6320038 0.37795213
-3.227438 3.0270989 -0.98024571
-3.7705281 3.5364773 -0.8618266
-4.4815283 4.2033429 -0.68484873
-4.9373612 4.6308804 -0.37810379
-4.9474716 4.6403632 0
-4.9315934 4.6254706 0.37766212
-3.2310934 3.0231969 -0.98024571
-3.7673006 3.5249033 -0.86011475
-4.48283 4.1943936 -0.68427271
-4.9429531 4.6249113 -0.37810379
-4.947372 4.629046 0
-4.935276 4.6177282 0.37751657
-3.2291696 3.0140874 -0.97855651
-3.7659254 3.5150921 -0.85883045
-4.4803319 4.1819148 -0.68311954
-4.9371443 4.6083007 -0.37723324
-4.9586711 4.6283937 0
-4.931356 4.6028981 0.376791
-3.236532 3.0136499 -0.9796834
-3.7682929 3.5087914 -0.85840285
-4.4815922 4.1729693 -0.68254238
-4.9465084 4.6058698 -0.37752324
-4.9394937 4.5993381 0
-4.9350142 4.5951672 0.37664601
-3.2289975 2.9993579 -0.97630501
-3.7687719 3.5007448 -0.85754776
-4.4942112 4.1745925 -0.68369555
-4.9368396 4.585742 -0.37636214
-4.9526749 4.600451 0
-4.9310455 4.5803604 0.37592044
-3.2326193 2.9954543 -0.97630501
-3.7692294 3.4926956 -0.856691
-4.4878726 4.1586146 -0.68196636
-4.9442883 4.5815449 -0.3765077
-4.9544158 4.590929 0
-4.9365764 4.5743985 0.37592044
-3.2399716 2.9949989 -0.97743183
-3.7659068 3.4811685 -0.85497916
-4.4909968 4.1514349 -0.68167835
-4.932642 4.5596876 -0.37520102
-4.9446707 4.5708065 0
-4.9344678 4.5613751 0.3753399
-3.2398486 2.9876335 -0.97630501
-3.7719958 3.478354 -0.8554067
-4.4998088 4.1495085 -0.68225437
-4.9305143 4.5466847 -0.374621
-4.9501901 4.5648289 0
-4.9361515 4.5518832 0.37504932
-3.2397199 2.9802794 -0.97518033
-3.7686388 3.4668419 -0.8536948
-4.493402 4.1335649 -0.68052518
-4.9360046 4.5407238 -0.374621
-4.9499545 4.5535564 0
-4.9359164 4.5406427 0.37461433
-3.241441 2.9746397 -0.97461581
-3.7803905 3.4692285 -0.8554067
-4.4831476 4.1141424 -0.67821884
-4.9319096 4.5259666 -0.3738949
-4.947783 4.5405335 0
-4.9394794 4.5329132 0.37446877
-3.2394159 2.9655788 -0.97292876
-3.7751141 3.4559927 -0.85326725
-4.4900217 4.110467 -0.67850685
-4.9297085 4.5129857 -0.37331435
-4.9455872 4.5275226 0
-4.9353719 4.5181704 0.37374321
-3.2373664 2.9565203 -0.97123957
-3.7792873 3.4514287 -0.85326725
-4.4873457 4.098062 -0.67735368
-4.9389992 4.5105338 -0.37360489
-4.9472146 4.5180368 0
-4.9427519 4.5139608 0.37388876
-3.2409365 2.9526064 -0.97123957
-3.7853508 3.4485869 -0.8536948
-4.4884663 4.08915 -0.67677653
-4.9290791 4.4905634 -0.3724438
-4.9545922 4.5138068 0
-4.9270711 4.4887342 0.3722921
-3.2520232 2.955524 -0.97349113
-3.7857192 3.4405608 -0.85283971
-4.4953237 4.0854678 -0.67706567
-4.9306588 4.481112 -0.37215379
-4.9504147 4.4990668 0
-4.9228787 4.474041 0.37156653
-3.2499428 2.9464707 -0.97180194
-3.7860737 3.4325387 -0.85198462
-4.4906778 4.0713487 -0.67562449
-4.9168158 4.457695 -0.37070212
-4.9500613 4.4878359 0
-4.9359813 4.475071 0.37214708
-3.2535007 2.9425416 -0.97180194
-3.7826028 3.4210739 -0.85027272
-4.5032597 4.0728526 -0.67677653
-4.9376159 4.4656944 -0.37186322
-4.9419746 4.4696369 0
-4.9240422 4.4534183 0.37084097
-3.2532845 2.9352074 -0.97067726
-3.7848222 3.4147763 -0.8498435
-4.4928217 4.0535541 -0.67447132
-4.9333634 4.4510236 -0.37113768
-4.947372 4.4636621 0
-4.9139857 4.4335399 0.36967987
-3.2624891 2.9363687 -0.97236425
-3.7889457 3.4102006 -0.8498435
-4.4977164 4.0481224 -0.67447132
-4.9368086 4.4433227 -0.37099266
-4.9411516 4.4472313 0
-4.9270644 4.4345527 0.37026042
-3.2546942 2.9222426 -0.96898806
-3.7854228 3.3987598 -0.84813166
-4.4949064 4.0357728 -0.67331815
-4.938303 4.4338789 -0.37070212
-4.9426522 4.4377837 0
-4.9285483 4.4251204 0.36996987
-3.2582228 2.9183078 -0.96898806
-3.7895269 3.3941834 -0.84813166
-4.5055537 4.0355105 -0.67418218
-4.924305 4.4105754 -0.36925098
-4.9499478 4.4335427 0
-4.9300246 4.4156981 0.36967987
-3.2617466 2.9143689 -0.96898806
-3.7878881 3.3844757 -0.84684896
-4.5084996 4.0283418 -0.67389417
-4.9373813 4.4115477 -0.36983156
-4.9553013 4.4275584 0
-4.9314771 4.4062719 0.3693893
-3.2578177 2.9073207 -0.96729887
-3.7975934 3.3890235 -0.84856087
-4.5090046 4.0238967 -0.67360616
-4.9187183 4.3895307 -0.36823487
-4.9405012 4.4089704 0
-4.9244466 4.3946428 0.36866376
-3.2613282 2.9033821 -0.96729887
-3.797847 3.3810153 -0.84770411
-4.5080662 4.0132847 -0.672741
-4.9337206 4.3922215 -0.36896044
-4.9419336 4.3995333 0
-4.9219899 4.3817782 0.36808318
-3.2667394 2.9011314 -0.96786338
-3.7980945 3.373018 -0.84684896
-4.5071082 4.0026803 -0.67187583
-4.9332008 4.3810854 -0.36852545
-4.9433579 4.3901057 0
-4.9292221 4.3775516 0.3682282
-3.2664351 2.8938088 -0.9667365
-3.796401 3.3633177 -0.84556466
-4.498395 3.9852302 -0.66985863
-4.9384913 4.3751216 -0.36852545
-4.9486589 4.3841295 0
-4.9306216 4.3681498 0.36793819
-3.2642157 2.8848104 -0.9650473
-3.7985404 3.3570299 -0.84513712
-4.5090232 3.9849322 -0.6707238
-4.9242997 4.3519402 -0.36707377
-4.9481006 4.3729749 0
-4.9222651 4.350142 0.36692208
-3.2600751 2.8741429 -0.96279579
-3.8006704 3.3507416 -0.84470958
-4.5060744 3.9726391 -0.66957062
-4.9256601 4.3425536 -0.36678377
-4.9475226 4.3618279 0
-4.9372611 4.3527813 0.36764762
-3.2654591 2.8718846 -0.96336025
-3.7970057 3.3393655 -0.84299767
-4.5147519 3.9706044 -0.67014664
-4.9250484 4.331449 -0.36634821
-4.9488845 4.3524127 0
-4.9308138 4.3365197 0.36677706
-3.2727432 2.871285 -0.96448499
-3.8048935 3.3381579 -0.84385282
-4.5234389 3.9685612 -0.6707238
-4.9361401 4.3306375 -0.36678377
-4.9443603 4.3378496 0
-4.9165211 4.3134251 0.36532596
-3.2666519 2.858963 -0.96167105
-3.8031273 3.3284843 -0.84256852
-4.5184932 3.9545705 -0.66928148
-4.9120369 4.2989988 -0.36460653
-4.9378443 4.3215847 0
-4.9178147 4.3040552 0.36503538
-3.2701039 2.8550138 -0.96167105
-3.8052144 3.3222001 -0.84214091
-4.5232682 3.9491079 -0.66928148
-4.9289761 4.3033171 -0.36547765
-4.9411039 4.3139052 0
-4.9191008 4.2946954 0.36474541
-3.2754655 2.8527277 -0.96223342
-3.8092258 3.3175998 -0.84214091
-4.5260882 3.9419425 -0.66899347
-4.9224119 4.2871156 -0.36460653
-4.9443521 4.3062243 0
-4.9242864 4.2887483 0.36474541
-3.2808263 2.8504326 -0.96279579
-3.8132317 3.3129945 -0.84214091
-4.5288973 3.9347758 -0.66870546
-4.915823 4.2709427 -0.36373597
-4.9416933 4.2934194 0
-4.9255381 4.2793837 0.36445484
-3.2727513 2.8364847 -0.95941955
-3.8114104 3.303339 -0.84085661
-4.5277829 3.9242172 -0.6678403
-4.9150872 4.2598929 -0.36330041
-4.9449124 4.2857423 0
-4.9208894 4.2649212 0.36372927
-3.2780964 2.8341882 -0.95998186
-3.8192868 3.3020926 -0.84171337
-4.5325212 3.9187434 -0.6678403
-4.9123683 4.2471528 -0.36271986
-4.9441795 4.2746563 0
-4.9339018 4.2657704 0.36430985
-3.2815187 2.8302252 -0.95998186
-3.8193822 3.2941189 -0.84085661
-4.5333395 3.9098885 -0.66726428
-4.9253674 4.2480025 -0.36330041
-4.929637 4.2516851 0
-4.9272499 4.2496262 0.36343929
-3.2887919 2.8295755 -0.96110874
-3.8233597 3.2895014 -0.84085661
-4.5360942 3.9027162 -0.66697514
-4.9245853 4.2369623 -0.36286485
-4.944633 4.2542105 0
-4.9205589 4.2334981 0.36256817
-3.2902749 2.82394 -0.96054423
-3.8214934 3.2798684 -0.83957398
-4.534924 3.8921835 -0.66611111
-4.9159045 4.2191672 -0.36184931
-4.9477968 4.2465396 0
-4.921731 4.2241678 0.36227816
-3.2917564 2.8183115 -0.95998186
-3.8215499 3.2719061 -0.83871722
-4.5435495 3.8900623 -0.66668713
-4.9150758 4.2081528 -0.36141375
-4.9450169 4.2337875 0
-4.9228802 4.2148347 0.36198762
-3.2932291 2.8126833 -0.95941955
-3.8235505 3.2656205 -0.83828962
-4.5462818 3.8828914 -0.66639912
-4.9102793 4.1937747 -0.36068818
-4.938251 4.2176652 0
-4.9259953 4.2071972 0.3618426
-3.2908211 2.803757 -0.95773035
-3.8294456 3.2626615 -0.83871722
-4.5470285 3.874037 -0.66582197
-4.9173193 4.1895223 -0.3608332
-4.9413648 4.2100086 0
-4.9112997 4.1843939 0.3603915
-3.2825937 2.7899086 -0.95435411
-3.8294768 3.2547102 -0.83786207
-4.5438304 3.8618464 -0.66466993
-4.9362392 4.1953583 -0.36184931
-4.930584 4.1905518 0
-4.9242644 4.1851811 0.36097148
-3.2975872 2.7957962 -0.95773035
-3.8353629 3.251739 -0.83828962
-4.5544062 3.8613665 -0.66553396
-4.9155412 4.1675477 -0.35996261
-4.9336605 4.18291 0
-4.9134698 4.1657915 0.35981095
-3.2934639 2.7888823 -0.9560433
-3.8334048 3.2461004 -0.83743286
-4.5527945 3.8552744 -0.66495794
-4.9220204 4.167932 -0.36025262
-4.9322109 4.1765614 0
-4.9159856 4.1628222 0.35981095
