# .PCD v0.7 - Point Cloud Data file format
VERSION 0.7
FIELDS x y z
SIZE 4 4 4
TYPE F F F
COUNT 1 1 1
WIDTH 1591
HEIGHT 1
VIEWPOINT 0 0 0 1 0 0 0
POINTS 1591
DATA ascii
-7.1318684 10.986958 -0.73164517
-9.2956572 14.320369 0
-9.5297289 14.680967 0.97763717
-3.0929089 4.7521791 -0.94527572
-4.0824041 6.2725153 -0.83417702
-7.1706553 11.017537 -0.73425794
-9.3271465 14.330935 0
-9.5573845 14.684689 0.97865331
-3.1014571 4.7527423 -0.94613248
-4.0857387 6.2610774 -0.83331186
-7.2024217 11.037152 -0.7361446
-9.357255 14.339268 0
-9.5893183 14.694886 0.98010445
-3.1100059 4.7532835 -0.94698757
-4.0890512 6.2496409 -0.83244669
-7.211483 11.021916 -0.73570907
-9.3759985 14.330126 0
-9.6184483 14.700684 0.98126554
-3.1058891 4.7344952 -0.94399142
-4.1008573 6.2511854 -0.83331186
-7.1977191 10.97192 -0.73295182
-9.3990164 14.327491 0
-9.6447592 14.702091 0.98213667
-3.108789 4.7264533 -0.94313627
-4.1055622 6.2419 -0.8327347
-7.1767011 10.911113 -0.72946846
-9.4363461 14.346568 0
-9.6725082 14.705617 0.98315221
-3.1201506 4.7312655 -0.94484818
-4.1088333 6.230463 -0.83187068
-7.1569762 10.852539 -0.72613013
-9.4694309 14.359048 0
-9.7017145 14.711273 0.98431331
-3.1216164 4.721066 -0.94356382
-4.1106524 6.2168636 -0.8307175
-7.1270919 10.778863 -0.72177625
-9.4882135 14.349772 0
-9.7266531 14.710383 0.98503947
-3.1244843 4.713016 -0.94270873
-4.123878 6.2205153 -0.83187068
-7.0956059 10.703111 -0.71727735
-9.5112925 14.346966 0
-9.7530317 14.71161 0.98591
-3.1259124 4.7028213 -0.94142443
-4.1285253 6.2112155 -0.83129352
-7.0883985 10.664238 -0.71524566
-8.4784527 12.755523 0
-9.785182 14.721451 0.98736113
-3.1273203 4.6926303 -0.94014013
-4.1302896 6.1976132 -0.83014035
-7.0854263 10.631878 -0.71364897
-8.4996319 12.753931 0
-9.8159304 14.729074 0.98866725
-3.1344185 4.6909885 -0.94056928
-4.1406517 6.1969237 -0.8307175
-7.0823865 10.599541 -0.71205229
-8.5280476 12.763125 0
-9.8380527 14.723687 0.98910278
-3.1443665 4.6935902 -0.94185197
-4.1438165 6.1854672 -0.82985234
-7.0807295 10.569391 -0.71060121
-8.5391159 12.746323 0
-9.860177 14.718267 0.98953837
-3.1486056 4.6876583 -0.94142443
-4.1498466 6.1783109 -0.82956433
-7.084805 10.54789 -0.70973063
-8.5458078 12.723038 0
-8.5277033 12.696083 0.85427505
-3.1414073 4.6708422 -0.93842822
-4.1550207 6.1779466 -0.82985234
-7.0868244 10.537137 -0.70929509
-8.5317049 12.685477 0
-8.5179758 12.665064 0.85253394
-3.1499219 4.6713037 -0.93928498
-4.158143 6.1664858 -0.82898718
-7.0821185 10.502714 -0.70755339
-8.5368462 12.660061 0
-8.527462 12.646144 0.85195339
-3.1555638 4.6674943 -0.93928498
-4.1641436 6.1593165 -0.82869917
-7.0933499 10.491998 -0.70740843
-8.5375586 12.628172 0
-8.5383682 12.629372 0.8515178
-3.158318 4.6594243 -0.93842822
-4.1686831 6.1500025 -0.82812315
-7.1016469 10.476965 -0.70697284
-8.5367527 12.594156 0
-10.012954 14.771976 0.99679506
-3.1711643 4.6662269 -0.94056928
-4.168838 6.1342587 -0.82668084
-7.1011577 10.449036 -0.70566672
-8.5329485 12.555852 0
-10.027872 14.755565 0.99650449
-3.1724625 4.6560249 -0.93928498
-4.1835332 6.1399107 -0.82812315
-7.1020727 10.423269 -0.70450562
-8.5569029 12.558433 0
-10.039841 14.734848 0.99592394
-3.1766393 4.6500707 -0.93885744
-4.18365 6.1241665 -0.82668084
-7.0941448 10.384646 -0.70247394
-8.5808821 12.560982 0
-10.034186 14.688376 0.99360168
-3.1895072 4.6568165 -0.94099689
-4.186666 6.112711 -0.82581681
-7.0773211 10.33319 -0.69957113
-8.6063433 12.565629 0
-10.013753 14.620506 0.98982835
-3.1835067 4.6360302 -0.93757313
-4.1999059 6.1161766 -0.82696998
-7.0647974 10.288218 -0.69710392
-8.6259413 12.561659 0
-9.9637527 14.509867 0.98315221
-3.189106 4.6321797 -0.93757313
-4.205822 6.1089606 -0.82668084
-7.050703 10.241154 -0.69449168
-8.6396389 12.549085 0
-9.9208708 14.410076 0.97720218
-3.2005339 4.6367736 -0.93928498
-4.2073288 6.0953679 -0.8255288
-7.049789 10.213383 -0.69318557
-8.6533194 12.536497 0
-9.7847681 14.175684 0.96210825
-3.1988316 4.6223507 -0.93714559
-4.2146907 6.0902801 -0.8255288
-7.0473351 10.183486 -0.6917339
-8.6640158 12.519609 0
-8.6204929 12.456718 0.84614778
-3.198561 4.6100459 -0.93543369
-4.2102513 6.0681825 -0.82322246
-7.0448251 10.153618 -0.69028276
-8.6732035 12.500579 0
-8.6251736 12.431355 0.84513223
-3.207058 4.6103883 -0.93628883
-4.2264395 6.0758262 -0.82495165
-7.0392828 10.119501 -0.68854111
-8.6853266 12.485813 0
-8.6208944 12.393187 0.84324503
-3.2067525 4.5980873 -0.93457693
-4.2293377 6.0643482 -0.82408649
-7.0262375 10.074758 -0.6860739
-8.6914768 12.462505 0
-8.6224861 12.363582 0.84193891
-3.21819 4.6026244 -0.93628883
-4.2233248 6.0401583 -0.82149214
-7.0294747 10.053487 -0.68520331
-8.6871433 12.42427 0
-8.6314631 12.344636 0.84135836
-3.2208049 4.5945325 -0.93543369
-4.2365584 6.0435224 -0.82264531
-7.0132766 10.004558 -0.68244553
-8.7021494 12.413764 0
-8.6433926 12.329946 0.84106833
-3.2259841 4.578342 -0.93372184
-4.2466803 6.0269217 -0.82178015
-7.0179772 9.9599686 -0.68055886
-8.7306261 12.390573 0
-0 0 0
-3.2243085 4.5700974 -0.93243754
-4.2488308 6.0222435 -0.82149214
-7.0090165 9.9344988 -0.67910773
-8.7366056 12.383162 0
-8.6895838 12.316515 0.84193891
-3.2372389 4.5766749 -0.93457693
-4.2531199 6.012886 -0.82091612
-6.9865017 9.8772278 -0.67576939
-8.7530689 12.374728 0
-8.7044601 12.306006 0.84193891
-3.2427666 4.5727601 -0.93457693
-4.2618771 6.0098505 -0.82120413
-7.0029421 9.8751402 -0.67620498
-8.7695189 12.366263 0
-8.7238331 12.301841 0.84237444
-3.2497754 4.5709286 -0.93500447
-4.2601461 5.9920526 -0.81947494
-7.0133648 9.8645554 -0.67605996
-8.7723904 12.33869 0
-8.7432098 12.297646 0.84281003
-3.2538075 4.5649104 -0.93457693
-4.2673836 5.9869003 -0.81947494
-6.9996409 9.8201046 -0.67359275
-8.781251 12.319604 0
-8.7701283 12.304 0.84397113
-3.2563388 4.5568023 -0.93372184
-4.2746143 5.9817395 -0.81947494
-7.0039492 9.8010712 -0.67286718
-8.7825136 12.28993 0
-8.8000937 12.314531 0.84542227
-3.2648296 4.5570335 -0.93457693
-4.2773185 5.9702606 -0.81860977
-7.0021625 9.7735844 -0.67156047
-8.7852316 12.262384 0
-8.8240442 12.316559 0.84629279
-3.2628472 4.5426626 -0.93243754
-4.290565 5.9734907 -0.81976295
-7.0079088 9.7566833 -0.67098051
-8.7985249 12.249648 0
-8.8525677 12.324888 0.84759945
-3.2698324 4.5407977 -0.93286508
-4.2962694 5.9662056 -0.81947494
-6.9984322 9.7186832 -0.66894823
-10.486105 14.561996 0
-8.8750439 12.324723 0.84832501
-3.2738156 4.5347643 -0.93243754
-4.2974195 5.9526215 -0.81832176
-6.9843149 9.6744061 -0.66648102
-10.509786 14.557755 0
-8.9005718 12.328732 0.84934062
-3.2762852 4.52665 -0.93158239
-4.3046088 5.9474244 -0.81832176
-7.0005713 9.6722775 -0.66691661
-10.539576 14.561911 0
-8.9185123 12.322183 0.84963113
-3.2802403 4.5206046 -0.93115318
-4.305716 5.933845 -0.81716859
-6.9939408 9.6385736 -0.6651749
-10.56175 14.555487 0
-10.859179 14.965384 1.0327874
-3.2917409 4.524941 -0.93286508
-4.3098369 5.9244509 -0.81659144
-6.9765429 9.5901976 -0.66241765
-10.577794 14.540604 0
-10.886429 14.964863 1.0336585
-3.2956946 4.5188885 -0.93243754
-4.3215656 5.9255104 -0.8174566
-6.9850607 9.5775585 -0.66212714
-8.9607048 12.28646 0
-10.904503 14.951698 1.0336585
-3.2920644 4.5024734 -0.92987055
-4.3226161 5.9119325 -0.81630343
-7.0012307 9.5754061 -0.66256267
-8.9740086 12.273525 0
-10.934831 14.955292 1.0348196
-3.3005347 4.5026293 -0.93072563
-4.3297563 5.9067054 -0.81630343
-6.9897509 9.5355015 -0.66038543
-8.9888325 12.262673 0
-10.972862 14.969311 1.0367063
-3.3074918 4.5007043 -0.93115318
-4.3292336 5.8910503 -0.81486225
-6.9981928 9.5228653 -0.66009545
-10.731167 14.60255 0
-10.998634 14.966508 1.0374318
-3.3129275 4.4967046 -0.93115318
-4.3378811 5.8878951 -0.81515026
-6.9927392 9.4913883 -0.65849876
-10.758062 14.602139 0
-11.025955 14.965755 1.0383024
-3.3095479 4.4864392 -0.92944133
-4.3475795 5.893599 -0.81630343
-6.9892197 9.4746199 -0.65762824
-10.777699 14.610299 0
-11.051964 14.982095 1.0398991
-3.3134415 4.4803748 -0.92901379
-4.3470092 5.8779459 -0.81486225
-6.9898458 9.4515409 -0.6566121
-10.817006 14.626556 0
-11.085506 14.989618 1.0413502
-3.315798 4.4722476 -0.92815864
-4.3541083 5.8726892 -0.81486225
-6.9842424 9.4201336 -0.65501601
-10.847072 14.6302 0
-11.117537 14.994996 1.0426563
-3.3211994 4.4682379 -0.92815864
-4.3596597 5.8653498 -0.81457424
-6.9847674 9.3970881 -0.65399987
-10.880269 14.637974 0
-11.154248 15.006577 1.044398
-3.3281283 4.4662781 -0.92858624
-4.3651938 5.8579979 -0.8142851
-6.9759345 9.361557 -0.6521132
-10.908829 14.639419 0
-11.184794 15.009757 1.0455592
-3.330447 4.4581361 -0.92772949
-4.3738213 5.8547969 -0.81457424
-6.9965687 9.3656073 -0.65298373
-10.938971 14.642906 0
-11.22003 15.019133 1.0471557
-3.3342938 4.4520559 -0.92730188
-4.3839903 5.8536444 -0.81515026
-6.9860759 9.3280325 -0.6509521
-10.966019 14.64218 0
-11.252187 15.024281 1.0484619
-3.3412108 4.4500747 -0.92772949
-4.3817453 5.8359365 -0.81342107
-6.9942188 9.3154249 -0.65066153
-11.002448 14.653886 0
-11.284372 15.029373 1.049768
-3.3527606 4.4542384 -0.92944133
-4.3872337 5.8285656 -0.81313193
-6.9867234 9.2820616 -0.64892042
-11.031104 14.655137 0
-11.311897 15.02818 1.0506386
-3.3504102 4.4399405 -0.92730188
-4.3958354 5.8253307 -0.81342107
-6.9869761 9.2590923 -0.64790428
-11.064483 14.662576 0
-11.34883 15.039391 1.0523802
-3.3542254 4.4338436 -0.92687434
-4.3950644 5.8096952 -0.81197876
-6.9950204 9.2464943 -0.6476137
-11.096321 14.667873 0
-11.388945 15.054683 1.0544125
-3.3580306 4.4277439 -0.9264468
-4.4036484 5.8064475 -0.8122679
-6.9920578 9.2194042 -0.64630759
-11.126617 14.671043 0
-11.422826 15.06161 1.0558636
-3.3602679 4.4195924 -0.92559004
-4.4012656 5.7887645 -0.81053758
-6.982749 9.1840601 -0.64442092
-11.156932 14.674154 0
-11.453598 15.064344 1.0570247
-3.3624964 4.4114494 -0.92473495
-4.408257 5.783442 -0.81053758
-7.0017157 9.1859474 -0.64514649
-11.184123 14.673085 0
-11.484393 15.067027 1.0581858
-3.3709385 4.411459 -0.92559004
-4.4215236 5.7863321 -0.81169075
-6.9923015 9.1506414 -0.64325982
-11.214486 14.676104 0
-11.521523 15.077915 1.0599275
-3.3793917 4.4114623 -0.9264468
-4.4206491 5.770721 -0.81024957
-6.9986172 9.1360035 -0.64282483
-11.240123 14.672871 0
-11.552368 15.080477 1.0610881
-3.3753352 4.3951559 -0.92387819
-4.4291925 5.7674246 -0.81053758
-6.9874907 9.0986853 -0.64079261
-11.265768 14.669597 0
-11.587993 15.089178 1.0626848
-3.3826857 4.3992229 -0.92516249
-4.4279509 5.7586026 -0.80967355
-6.9977398 9.1006432 -0.64122814
-11.280973 14.671041 0
-11.611361 15.100712 1.0639908
-3.3879988 4.3951325 -0.92516249
-4.4364834 5.7552943 -0.80996156
-6.9944549 9.0736618 -0.63992202
-11.30028 14.659458 0
-11.64705 15.10931 1.0655875
-3.393307 4.3910356 -0.92516249
-4.441854 5.7478848 -0.80967355
-6.9942899 9.0508089 -0.63890594
-11.317985 14.645793 0
-11.676415 15.109612 1.0666031
-3.4017515 4.3909869 -0.92601758
-4.4503784 5.7445564 -0.80996156
-7.0020413 9.0382471 -0.63861591
-11.340456 14.638281 0
-11.710581 15.116038 1.0680548
-3.4086339 4.3889065 -0.9264468
-4.4525552 5.7330446 -0.8090964
-6.9970155 9.0092535 -0.63716424
-11.342175 14.604017 0
-11.74318 15.120345 1.0693609
-3.4092019 4.378706 -0.92516249
-4.4531236 5.7194967 -0.80794322
-6.9919362 8.9802933 -0.6357131
-11.356612 14.586191 0
-11.785382 15.136893 1.0715375
-3.4097502 4.3685107 -0.92387819
-4.460031 5.7141118 -0.80794322
-6.9995875 8.9677458 -0.63542312
-11.363018 14.558095 0
-11.818057 15.141083 1.0728443
-3.4134457 4.3623676 -0.92345059
-4.4653397 5.7066836 -0.80765522
-7.0008073 8.9469995 -0.634552
-11.366168 14.52591 0
-11.855553 15.151341 1.0745853
-3.4139597 4.3521791 -0.92216629
-4.4706373 5.6992507 -0.80736721
-6.9939761 8.91605 -0.63295591
-11.382107 14.510119 0
-11.885079 15.151319 1.0756015
-3.4239779 4.3541059 -0.92345059
-4.4711251 5.6857123 -0.80621403
-6.9918947 8.8912525 -0.63179481
-11.388369 14.482034 0
-11.917832 15.155328 1.0769075
-2.7866135 3.5348024 -0.99713117
-3.4292364 4.3499656 -0.92345059
-4.4779921 5.6803055 -0.80621403
-7.0010195 8.8807507 -0.6316492
-11.391359 14.449871 0
-11.953833 15.163365 1.0785042
-3.4329 4.3438067 -0.92302305
-4.4816418 5.6708283 -0.80563688
-6.9972463 8.8539391 -0.63034308
-11.392677 14.415682 0
-11.989864 15.171329 1.0801004
-3.4397388 4.3416657 -0.92345059
-4.4884906 5.6654091 -0.80563688
-6.998261 8.8332615 -0.62947255
-11.387465 14.373351 0
-12.025938 15.179236 1.081697
-2.8025661 3.5286534 -0.99825591
-3.440191 4.3314738 -0.92216629
-4.4953327 5.6599813 -0.80563688
-6.9911509 8.8024149 -0.62787586
-11.382161 14.331046 0
-12.063663 15.189112 1.0834388
-2.8068275 3.5252645 -0.99825591
-3.4438248 4.3253078 -0.92173874
-4.4989495 5.6505027 -0.80506086
-7.0017815 8.7939606 -0.62787586
-11.3865 14.300994 0
-12.096573 15.192818 1.0847448
-2.8095016 3.5198865 -0.99769354
-3.4490485 4.3211436 -0.92173874
-4.5089974 5.6491013 -0.80563688
-6.9897118 8.7570658 -0.62584418
-11.382668 14.260785 0
-12.131128 15.198495 1.0861959
-2.8185167 3.5224431 -0.99938273
-3.4542673 4.3169727 -0.92173874
-4.5077419 5.633553 -0.8041957
-6.9824286 8.7262945 -0.62424755
-11.378755 14.220607 0
-12.167343 15.206145 1.0877926
-2.8195879 3.5150669 -0.99825591
-3.4562716 4.308795 -0.92088366
-4.521019 5.6361728 -0.80534887
-6.9864635 8.7097435 -0.62366694
-11.360107 14.162189 0
-12.203594 15.21373 1.0893893
-2.8233068 3.5153496 -0.99882036
-3.4540503 4.3006997 -0.91959929
-4.5195632 5.6273885 -0.80448371
-6.9835906 8.6953926 -0.62294143
-11.353996 14.137063 0
-12.229052 15.22661 1.0908405
-2.8243623 3.5079734 -0.99769354
-3.4560213 4.29252 -0.91874254
-4.5214977 5.6158853 -0.80361968
-6.9761715 8.664691 -0.62134528
-11.364541 14.115225 0
-12.266995 15.236111 1.0925821
-3.4612055 4.288341 -0.91874254
-4.5315261 5.6144395 -0.8041957
-6.9784713 8.6461391 -0.62061918
-11.357069 14.071104 0
-12.30498 15.245542 1.0943238
-2.8312347 3.4991646 -0.99713117
-3.468004 4.2861567 -0.91917175
-4.5415573 5.6129775 -0.80477172
-6.9872808 8.6356821 -0.62047416
-11.369157 14.051307 0
-12.339734 15.250858 1.0957749
-2.8386588 3.4996839 -0.99825591
-3.4796488 4.289938 -0.92088366
-4.5401912 5.5974441 -0.80333054
-6.9829798 8.6090727 -0.61916804
-11.376287 14.025428 0
-12.369613 15.250066 1.096791
-2.8380811 3.4903429 -0.99656886
-3.4783518 4.2777634 -0.91917175
-4.5436907 5.587944 -0.80275452
-6.9933772 8.6006289 -0.61916804
-11.398152 14.017732 0
-12.407696 15.259294 1.0985321
-2.8422964 3.4869108 -0.99656886
-3.4867589 4.2775331 -0.9200269
-4.5504394 5.5824499 -0.80275452
-6.9873495 8.5720358 -0.61771697
-11.390422 13.973696 0
-12.449113 15.272491 1.1005644
-2.8432889 3.4795351 -0.99544203
-3.4935477 4.2753029 -0.92045444
-4.5555463 5.5749464 -0.80246651
-6.9697528 8.5293827 -0.61524969
-11.41553 13.969997 0
-12.482353 15.275544 1.1018704
-2.8523233 3.4819958 -0.99713117
-3.4905789 4.2611513 -0.91831499
-4.5639167 5.5714369 -0.80275452
-6.976757 8.5169306 -0.61495918
-11.419209 13.940087 0
-12.520561 15.284573 1.1036121
-2.8607295 3.4750926 -0.99713117
-3.5008662 4.2527037 -0.91831499
-4.5691495 5.5504088 -0.80131334
-6.9808073 8.4799881 -0.61350805
-11.431362 13.886333 0
-12.588835 15.292381 1.1063694
-2.8600731 3.4657524 -0.99544203
-3.5092733 4.2524338 -0.91917175
-4.582438 5.5528636 -0.80246651
-6.981122 8.4595184 -0.61263692
-11.4266 13.846417 0
-12.617229 15.289187 1.1072404
-2.8658767 3.4642498 -0.99600434
-3.5144088 4.2481904 -0.91917175
-4.5792489 5.5353613 -0.80073619
-6.9780946 8.4350672 -0.61147636
-11.440001 13.828586 0
-12.634033 15.271923 1.1070949
-2.8635726 3.4529612 -0.99375284
-3.5097041 4.2320814 -0.91660315
-4.5826349 5.525846 -0.80016017
-6.984961 8.4226255 -0.61118579
-11.435106 13.788713 0
-12.645843 15.248646 1.1065143
-2.8742402 3.457314 -0.99600434
-3.5181005 4.2317891 -0.91745991
-4.5926123 5.5242786 -0.80073619
-6.9801841 8.3961983 -0.60987967
-11.430132 13.748871 0
-12.64599 15.211381 1.1049182
-2.8800468 3.455796 -0.99656886
-3.5182791 4.2216172 -0.9161756
-4.5992842 5.5187254 -0.80073619
-6.977016 8.371789 -0.60871857
-11.431743 13.717059 0
-12.651052 15.18012 1.1037571
-2.885848 3.4542618 -0.99713117
-3.5217333 4.215395 -0.915748
-4.6042924 5.5111809 -0.80044818
-6.9737988 8.3473997 -0.60755748
-11.424953 13.675279 0
-12.661057 15.154855 1.1030315
-2.8834939 3.4429803 -0.99487966
-3.5301175 4.2150688 -0.91660315
-4.6076236 5.5016441 -0.79987103
-6.980546 8.3349867 -0.60726744
-11.426424 13.643501 0
-12.672687 15.131577 1.102451
-2.8872044 3.4431827 -0.99544203
-3.5293677 4.2090049 -0.915748
-4.607626 5.4948993 -0.79929501
-6.9571991 8.2969208 -0.60480022
-11.421293 13.620649 0
-12.675147 15.115953 1.1018704
-2.8880961 3.4358053 -0.99431729
-3.5377514 4.2086635 -0.91660315
-4.6125994 5.48735 -0.799007
-6.9605312 8.2805519 -0.60421968
-11.42602 13.592892 0
-12.681698 15.086701 1.1008543
-2.8889678 3.4284232 -0.99319047
-3.5395291 4.2004638 -0.915748
-4.61589 5.4778128 -0.79842985
-6.9554639 8.2542543 -0.60291356
-11.420636 13.553206 0
-12.6949 15.065412 1.1004193
-2.889832 3.4210515 -0.99206579
-3.551228 4.2040277 -0.91745991
-4.6225052 5.4722314 -0.79842985
-6.9654322 8.2458439 -0.60291356
-11.431964 13.53343 0
-12.728183 15.067924 1.1017255
-2.8939636 3.4175572 -0.99206579
-3.5529842 4.1958117 -0.91660315
-4.6324601 5.4705935 -0.799007
-6.9703517 8.2314711 -0.60247803
-11.446629 13.517623 0
-12.754775 15.062448 1.102451
-2.9030192 3.4198637 -0.99375284
-3.5497465 4.1817327 -0.9144637
-4.6323714 5.4571047 -0.79785383
-6.9752464 8.2170973 -0.60204244
-11.456217 13.495846 0
-12.794825 15.072775 1.1043377
-2.9055042 3.4144204 -0.99319047
-3.5531347 4.175487 -0.91403615
-4.6406369 5.4534712 -0.79814184
-6.964962 8.1849165 -0.60030079
-11.464084 13.472085 0
-12.8366 15.085006 1.1063694
-2.9129291 3.414777 -0.99431729
-3.5598419 4.173142 -0.9144637
-4.6421852 5.4419546 -0.79727668
-6.9731622 8.1745195 -0.60015577
-11.478666 13.456245 0
-12.8818 15.101114 1.1086916
-2.9104476 3.4035304 -0.99206579
-3.5648816 4.1688375 -0.9144637
-4.6504436 5.438313 -0.79756582
-6.9712114 8.1522617 -0.59913963
-11.476311 13.420607 0
-12.940567 15.132935 1.112175
-2.9145579 3.4000111 -0.99206579
-3.5699162 4.1645269 -0.9144637
-4.6536412 5.4287586 -0.79698867
-3.8847468 4.531796 -0.33340308
-11.500986 13.416607 0
-13.107656 15.290888 1.1249466
-2.9153488 3.3926289 -0.9909389
-3.5833094 4.1699433 -0.91660315
-4.6551385 5.4172449 -0.7961235
-3.902076 4.5408964 -0.33441919
-11.498536 13.380994 0
-13.242968 15.411012 1.1349605
-1.9776248 2.2957697 -0.99912089
-2.9211028 3.3910272 -0.99150127
-2.5898471 3.0064816 -0.66154778
-4.6599946 5.4096584 -0.79583549
-3.8719478 4.4948368 -0.3313714
-11.502804 13.353287 0
-13.30058 15.440274 1.1382984
-2.9268634 3.3894238 -0.99206579
-0 0 -0
-4.6665277 5.4040236 -0.79583549
-3.8434105 4.4508214 -0.32846862
-11.527433 13.349224 0
-13.339606 15.447792 1.14004
-2.9292891 3.3839581 -0.99150127
-0 0 -0
-4.6696715 5.3944736 -0.79525948
-3.8487856 4.4461741 -0.32846862
-3.9046371 4.510695 0
-13.375265 15.451304 1.1414912
-1.9810724 2.2829838 -0.99667519
-2.9283845 3.3746643 -0.98981422
-0 0 -0
-4.6761861 5.3888273 -0.79525948
-3.8609674 4.4493709 -0.32904917
-3.9271448 4.5256333 0
-13.366683 15.403738 1.1391695
-2.9274557 3.3653705 -0.98812503
-0 0 -0
-4.6792955 5.3792663 -0.79468232
-3.8731623 4.4525442 -0.32962972
-3.9189458 4.5051765 0
-13.347764 15.344441 1.1359761
-2.9381995 3.3694911 -0.99037659
-0 0 -0
-4.6925917 5.3814063 -0.79583549
-3.8136477 4.3734441 -0.32411471
-3.9124119 4.4867058 0
-13.395332 15.361601 1.1384439
-1.9912077 2.2807093 -0.99830359
-2.93522 3.3619714 -0.9886874
-0 0 -0
-4.6958423 5.3785701 -0.79583549
-3.7752812 4.3241692 -0.32063192
-3.9014289 4.4686575 0
-13.502012 15.465068 1.1467161
-1.9923358 2.2764435 -0.99748939
-2.9443018 3.3641601 -0.99037659
-0 0 -0
-4.6972256 5.3670516 -0.79497033
-3.8523684 4.4017172 -0.32672694
-3.9016821 4.4580631 0
-13.554914 15.487849 1.149619
-2.9416618 3.3529601 -0.98812503
-0 0 -0
-4.6968908 5.3536019 -0.7938183
-0 0 -0
-3.8916204 4.4357405 0
-13.580474 15.479273 1.1501995
-2.9373226 3.339865 -0.98531115
-0 0 -0
-4.7050624 5.3498635 -0.7941063
-0 0 -0
-3.8849514 4.4173608 0
-13.566561 15.425777 1.1474417
-2.9463985 3.3420331 -0.98700035
-0 0 -0
-4.713232 5.3461127 -0.79439431
-3.8476849 4.3643417 -0.32498583
-3.867914 4.3872871 0
-13.612684 15.440559 1.1497639
-2.9218316 3.3061056 -0.97743183
-0 0 -0
-4.7179775 5.3384776 -0.7941063
-0 0 -0
-3.8628683 4.3709059 0
-11.007338 12.455003 0.92843753
-2.6545589 2.9963777 -0.88681012
-0 0 -0
-4.7312851 5.3405166 -0.79525948
-0 0 -0
-3.8664229 4.3642893 0
-11.010323 12.428084 0.92742199
-0 0 -0
-0 0 -0
-4.7239947 5.3193245 -0.79295313
-0 0 -0
-3.8613279 4.3479424 0
-11.027055 12.416713 0.92756701
-0 0 -0
-2.616354 2.9389138 -0.65598464
-4.7287002 5.3116827 -0.79266512
-0 0 -0
-3.8492706 4.3238316 0
-11.040324 12.401441 0.92742199
-0 0 -0
-2.6079435 2.9223487 -0.6529901
-4.7316675 5.3021016 -0.79208797
-0 0 -0
-3.8596926 4.3250046 0
-11.053565 12.386147 0.92727643
-2.0219185 2.2601712 -0.99993509
-0 0 -0
-2.6097562 2.9172766 -0.65256089
-4.7432456 5.3021655 -0.79295313
-3.8601654 4.3150277 -0.32338914
-3.8666492 4.3222756 0
-11.070261 12.374724 0.92742199
-0 0 -0
-2.6132793 2.9141212 -0.65256089
-4.746192 5.2925754 -0.79237598
-0 0 -0
-3.863183 4.3079143 0
-11.078266 12.353601 0.92684144
-2.0240667 2.2515986 -0.99830359
-0 0 -0
-2.6185198 2.9128759 -0.6529901
-4.7491283 5.2829933 -0.79179996
-0 0 -0
-3.8596878 4.2935681 0
-14.028805 15.605829 1.172114
-2.5896652 2.873786 -0.85697991
-2.6254711 2.9135203 -0.65384519
-4.7589679 5.2810903 -0.79237598
-3.8253384 4.245029 -0.31918025
-3.8526759 4.2753658 0
-14.051134 15.592731 1.1724046
-2.0311637 2.2485402 -0.99912089
-2.591434 2.8687711 -0.8564176
-2.6307087 2.9122488 -0.65427274
-4.7584105 5.2676587 -0.79122281
-3.8217576 4.2307644 -0.31845468
-3.84214 4.2533283 0
-14.087379 15.595019 1.1738558
-2.5948985 2.8656375 -0.8564176
-2.6307828 2.905266 -0.65341765
-4.7647719 5.2619052 -0.79122281
-3.8443048 4.2454009 -0.31990582
-3.8490217 4.2506104 0
-14.128884 15.603024 1.1757424
-2.0282807 2.2344694 -0.99504369
-2.5915279 2.8549745 -0.85416603
-2.6325676 2.9001861 -0.6529901
-4.764173 5.2484837 -0.79006964
-3.8075233 4.1945839 -0.31642303
-0 0 0
-14.172181 15.612881 1.1777747
-2.5932674 2.8499637 -0.85360366
-2.641248 2.9026937 -0.65427274
-4.7600698 5.2312489 -0.78834045
-3.854553 4.2360983 -0.31990582
-0 0 0
-14.215516 15.622647 1.1798064
-2.0389853 2.2380977 -0.99830359
-2.5966983 2.8502729 -0.85416603
-2.6447351 2.9030006 -0.65470195
-4.7684569 5.2341099 -0.78920561
-3.8046165 4.1761475 -0.31555191
-3.8355591 4.2101121 0
-14.247699 15.639026 1.181693
-2.5967102 2.8433771 -0.85303921
-2.6499703 2.9016964 -0.65512949
-2.8039293 3.0702806 -0.46345124
-3.7763717 4.135097 -0.31279466
-3.8406434 4.2054744 0
-14.289363 15.64674 1.1835797
-2.5984299 2.8383651 -0.85247684
-2.6552062 2.9003839 -0.6555571
-2.7989063 3.0573533 -0.46201006
-3.819963 4.1726928 -0.31598747
-3.8527515 4.208509 0
-14.325802 15.648625 1.1850308
-2.6018574 2.8352232 -0.85247684
-2.6587088 2.8971736 -0.6555571
-0 0 -0
-3.8390572 4.1833897 -0.31714857
-3.8543112 4.2000117 0
-14.365782 15.654278 1.1867725
-2.0531285 2.2318583 -0.99993509
-2.6070001 2.8339455 -0.85303921
-2.667423 2.8996286 -0.6568414
-0 0 -0
-3.8564253 4.1921363 -0.31816468
-3.8435273 4.1781154 0
-14.414592 15.669416 1.1892396
-2.6087015 2.8289273 -0.85247684
-3.688916 4.0003333 -0.90718865
-0 0 -0
-3.8104055 4.1320786 -0.31395578
-3.8626871 4.1887741 0
-14.452893 15.673002 1.1908363
-2.6103947 2.823909 -0.85191447
-3.7076871 4.0109534 -0.9106124
-2.7504518 2.9754219 -0.45163265
-3.8277373 4.1408229 -0.31497133
-3.8553779 4.1707244 0
-14.494748 15.68033 1.192723
-2.6138051 2.8207529 -0.85191447
-3.709038 4.0027008 -0.90975565
-2.7452567 2.9626122 -0.45019147
-3.8309734 4.1342907 -0.31482634
-3.8621817 4.1679697 0
-14.536642 15.68758 1.1946096
-2.0638916 2.221909 -0.99993509
-2.6310456 2.8324859 -0.8564176
-3.7033925 3.9869349 -0.90718865
-2.7382691 2.9479189 -0.44846115
-3.812978 4.1049104 -0.31293967
-3.8583608 4.1537681 0
-14.578575 15.694753 1.1964964
-2.651778 2.8478968 -0.86204535
-3.7187002 3.993726 -0.90975565
-2.7418292 2.9446082 -0.44846115
-3.837415 4.1212206 -0.31453633
-3.8651557 4.1510129 0
-14.618777 15.699946 1.198238
-2.7731063 2.9709923 -0.90031934
-3.7112668 3.9760988 -0.90676111
-2.7330294 2.9280555 -0.44644281
-3.8547981 4.1298723 -0.31555191
-3.8541813 4.1292114 0
-14.651921 15.697467 1.1993991
-2.0719323 2.2144129 -0.99993509
-3.0058334 3.2125359 -0.97461581
-3.723084 3.9791095 -0.90847301
-2.7295036 2.9172037 -0.44529074
-3.7781239 4.0379343 -0.30887577
-3.8520553 4.11695 0
-14.699283 15.71011 1.2017214
-3.0375249 3.2385542 -0.98362195
-2.8041983 2.9897854 -0.68337291
-2.7259488 2.9063573 -0.4441376
-3.7776725 4.0276861 -0.30844077
-3.8534696 4.1085 0
-14.734252 15.709393 1.2030275
-3.0362127 3.2293262 -0.98193276
-2.8007751 2.978914 -0.68166101
-2.7241416 2.8974063 -0.44327244
-3.8199127 4.0628719 -0.31148854
-3.835258 4.0791936 0
-14.765676 15.704824 1.204043
-3.0401125 3.2256551 -0.98193276
-2.8061383 2.9774013 -0.68209022
-2.7240894 2.8903446 -0.44269529
-3.7909558 4.0223236 -0.30873075
-3.8419673 4.0764484 0
-14.791771 15.694535 1.2046236
-3.0370347 3.2145987 -0.9796834
-0 0 -0
-2.7133765 2.8720174 -0.44039005
-3.7868924 4.0082979 -0.30800521
-3.8379557 4.0623465 0
-4.2436152 4.4917231 0.34515256
-3.0426624 3.2127697 -0.98024571
-0 0 -0
-2.7061701 2.8574653 -0.43865976
-3.8596263 4.075408 -0.31352022
-3.8589656 4.0747104 0
-4.2508245 4.4884772 0.34529755
-2.943332 3.100374 -0.94703716
-2.8080704 2.9578955 -0.67994916
-2.6953745 2.8391869 -0.43635342
-3.7804682 3.9821761 -0.3066991
-3.8423843 4.0473957 0
-4.2437201 4.4701443 0.34428144
-2.8104517 2.9532492 -0.90313321
-2.8116424 2.9545004 -0.67994916
-2.6898897 2.8265615 -0.43491223
-3.7978182 3.9907832 -0.30771521
-3.8472722 4.0427499 0
-4.2598696 4.4763112 0.34515256
-2.7859492 2.9239624 -0.89469159
-2.8098886 2.9490876 -0.67909402
-2.6719689 2.8043356 -0.43174073
-3.8056006 3.9941263 -0.3081502
-0 0 0
-4.2500243 4.460566 0.34413642
-2.7824607 2.9062057 -0.8913132
-2.8116796 2.9367242 -0.67780972
-2.6483316 2.7661116 -0.42684004
-3.8511815 4.0224562 -0.31105301
-0 0 0
-4.2302442 4.4183769 0.3416692
-2.7806971 2.8973472 -0.88962615
-2.8187845 2.9370325 -0.67866647
-2.6498828 2.7610455 -0.42655203
-3.8128569 3.9728062 -0.30756965
-2.7182875 2.8323195 0
-4.23558 4.4132624 0.3416692
-2.7859559 2.8958144 -0.89018852
-2.8187683 2.9299209 -0.67780972
-2.63708 2.7410679 -0.42395768
-3.8266604 3.9775572 -0.30829519
-0 0 0
-4.2445159 4.41189 0.34195974
-2.7894528 2.892446 -0.89018852
-2.8223066 2.926513 -0.67780972
-2.6368024 2.7341595 -0.42338166
-2.6266012 2.7235816 -0.21134706
-0 0 0
-4.2390175 4.3955321 0.34108865
-2.7911813 2.8872485 -0.88962615
-2.8240581 2.9212565 -0.67738217
-2.6383014 2.7291064 -0.42309251
-2.6208618 2.7110667 -0.21062149
-0 0 0
-4.2389054 4.3848004 0.34065309
-2.794668 2.8838737 -0.88962615
-2.8293705 2.9196839 -0.67780972
-2.6362023 2.7203498 -0.42222849
-2.622329 2.7060337 -0.2104765
-2.7319448 2.8191483 0
-4.2333546 4.3684831 0.33978254
-2.7928376 2.8750255 -0.88793695
-2.8346901 2.9181097 -0.67823893
-2.6322784 2.7097414 -0.42107531
-2.6382725 2.7159119 -0.21149261
-2.7389724 2.8195753 0
-4.2313876 4.3559093 0.33920196
-2.5263338 2.5943995 -0.99908531
-2.7998514 2.8752861 -0.88906163
-2.8400033 2.9165196 -0.67866647
-2.6319385 2.7028491 -0.42049816
-0 0 -0
-2.7369359 2.8106754 0
-4.2402697 4.3545127 0.33949196
-2.794451 2.8628113 -0.88624775
-2.8453166 2.9149213 -0.67909402
-2.6279757 2.6922634 -0.41934499
-0 0 -0
-2.74033 2.8073664 0
-4.2400885 4.3438134 0.33905697
-2.7659247 2.826746 -0.87611693
-2.8452494 2.907815 -0.67823893
-2.6276124 2.6853924 -0.41876897
-0 0 -0
-2.7437201 2.8040531 0
-4.234427 4.3275394 0.33818585
-2.731976 2.7853103 -0.86429685
-2.8559442 2.9116986 -0.67994916
-2.629046 2.6803706 -0.41848096
-0 0 -0
-2.7416375 2.7951601 0
-4.2323747 4.3149996 0.3376053
-2.6694286 2.7149715 -0.84347069
-2.8486652 2.8972661 -0.67738217
-2.6286523 2.6734998 -0.41790381
-0 0 -0
-2.7431898 2.7899914 0
-4.2430525 4.315443 0.33804086
-2.6316891 2.6701269 -0.83052593
-2.8575716 2.8993087 -0.67866647
-2.6336946 2.6721621 -0.41819182
-0 0 -0
-2.7520344 2.7922301 0
-4.2427897 4.304759 0.3376053
-2.5468378 2.5777988 -0.99977684
-2.6313384 2.6633267 -0.82939911
-2.8556583 2.8903737 -0.67738217
-2.6332893 2.6653013 -0.4176158
-2.6374099 2.669472 -0.20960593
-2.7480898 2.7814975 0
-4.2498198 4.3014832 0.33775085
-2.5287662 2.5533292 -0.99147087
-2.614892 2.6402917 -0.82320899
-3.8164878 3.8535593 -0.90419251
-2.636508 2.6621177 -0.4176158
-2.6406336 2.6662831 -0.20960593
-2.7496192 2.7763276 0
-4.2367258 4.2778792 0.33629918
-2.6325867 2.654948 -0.82827443
-3.8260453 3.8585441 -0.90590435
-2.6435812 2.6660359 -0.41848096
-2.6440718 2.6665308 -0.20975094
-2.751296 2.7746658 0
-4.2338262 4.2697887 0.33586419
-2.5369306 2.5523038 -0.9928565
-2.619673 2.6355479 -0.82320899
-3.8108034 3.8338962 -0.90119797
-2.6449718 2.661 -0.41819182
-2.6509519 2.6670163 -0.21004094
-2.7546465 2.7713394 0
-4.2408123 4.266511 0.33600917
-2.5311537 2.5403457 -0.98939371
-2.6138904 2.6233828 -0.82039511
-3.8118057 3.8256483 -0.90034121
-2.6463614 2.6559718 -0.41790381
-2.6486757 2.6582944 -0.20960593
-2.754323 2.7643254 0
-4.2312918 4.2466578 0.33484805
-2.5377705 2.540839 -0.9907794
-2.6134636 2.6166234 -0.81926829
-3.8200572 3.8246758 -0.90119797
-2.6532278 2.6564357 -0.41848096
-2.6500442 2.6532483 -0.20946038
-2.7576611 2.7609951 0
-4.2419305 4.2470593 0.33528361
-2.535512 2.5324502 -0.98870224
-2.6220183 2.6188521 -0.82095748
-3.8246758 3.8200572 -0.90119797
-2.6564357 2.6532278 -0.41848096
-2.6440575 2.6408646 -0.20873483
-2.7628348 2.7594984 0
-4.2397056 4.2345858 0.33470306
-2.5385702 2.5293846 -0.98870224
-2.625181 2.6156821 -0.82095748
-2.2545657 2.2464077 -0.53059721
-2.6559718 2.6463614 -0.41790381
-2.6509316 2.6413395 -0.20902538
-2.7624764 2.7524807 0
-4.2429729 4.2276201 0.3345575
-2.5345073 2.5192411 -0.9859336
-2.6139226 2.5981781 -0.81645435
-2.2681987 2.2545366 -0.5331642
-2.661 2.6449718 -0.41819182
-2.6522729 2.6362972 -0.20887983
-2.7694952 2.7528138 0
-4.257298 4.2316546 0.33528361
-2.5339899 2.5126474 -0.9845506
-2.6260798 2.6039615 -0.81926829
-2.2618089 2.2427585 -0.53102475
-2.6660359 2.6435812 -0.41848096
-2.6554563 2.6330907 -0.20887983
-2.7728195 2.7494652 0
-4.2421098 4.2063804 0.33368695
-2.5245373 2.497232 -0.9797048
-2.6057425 2.5775585 -0.81195128
-2.2608705 2.2364168 -0.53016967
-2.6784208 2.6494508 -0.41992214
-2.6660254 2.6371896 -0.20946038
-2.7779882 2.7479413 0
-4.2453437 4.1994257 0.33354196
-2.5329118 2.4994678 -0.98178196
-2.6160893 2.581547 -0.81420285
-2.2617388 2.2318752 -0.52974045
-2.6834593 2.6480274 -0.42021015
-2.6488702 2.6138952 -0.20786427
-2.7757473 2.7390971 0
-4.2485671 4.1924696 0.33339694
-2.5466537 2.5069618 -0.9859336
-2.6047208 2.5641239 -0.80969977
-2.2644339 2.2291408 -0.52974045
-0 0 -0
-2.6464696 2.6052222 -0.20742871
-2.7846208 2.74122 0
-4.2499228 4.1836839 0.3331064
-2.5228367 2.4775207 -0.97555315
-2.6150687 2.5680962 -0.81195128
-2.2671256 2.226403 -0.52974045
-2.6732438 2.6252263 -0.4176158
-2.6477635 2.6002035 -0.20728371
-2.787931 2.7378533 0
-4.2512703 4.1749077 0.33281639
-2.5240312 2.4727099 -0.974859
-2.6163566 2.563158 -0.81138897
-2.2753172 2.229053 -0.53102475
-2.6727152 2.6183705 -0.41703865
-2.649049 2.5951858 -0.2071387
-2.7912371 2.7344828 0
-4.2563119 4.1697679 0.33281639
-2.5306089 2.4731686 -0.97624463
-2.6067295 2.5475614 -0.80744821
-2.2724993 2.2209177 -0.52974045
-2.6721809 2.6115272 -0.41646263
-2.646606 2.5865326 -0.20670316
-2.8019841 2.738384 0
-4.2632036 4.1664362 0.33296138
-2.5192249 2.4560986 -0.97070736
-2.6152656 2.5497327 -0.8091374
-2.2770247 2.2199674 -0.53016967
-2.6734843 2.6064925 -0.41617462
-2.6422873 2.5760772 -0.20612259
-2.8034291 2.7331815 0
-4.2570682 4.1503949 0.33209026
-2.5221906 2.4530528 -0.97070736
-2.6074123 2.5359383 -0.80575901
-2.2741828 2.2118433 -0.5288853
-2.6655033 2.5924368 -0.4144443
-2.6565709 2.5837493 -0.20699315
-2.8029947 2.7261596 0
-4.2546287 4.1380014 0.33150971
-2.5125473 2.4377728 -0.96586156
-2.617769 2.5398631 -0.80801058
-2.2823827 2.2144582 -0.53016967
-2.6649246 2.5856154 -0.41386828
-2.6596909 2.5805373 -0.20699315
-2.811892 2.728209 0
-4.2484398 4.1220045 0.33063915
-2.5209007 2.4399712 -0.96793872
-2.6190121 2.5349329 -0.80744821
-2.2832069 2.2099082 -0.52974045
-2.6661901 2.5805964 -0.41358027
-2.6590762 2.5737109 -0.20670316
-2.8151865 2.7248094 0
-4.2347498 4.0987997 0.32918805
-2.516628 2.4299529 -0.96517003
-2.6056237 2.5158837 -0.80238277
-2.2840307 2.2053664 -0.52931291
-2.6581388 2.5665901 -0.41184995
-2.6771386 2.5849354 -0.20786427
-2.8166065 2.7196 0
-4.2340899 4.0882635 0.32875249
-2.5253189 2.4353981 -0.96793872
-2.612632 2.5196023 -0.80407196
-2.2890618 2.2075536 -0.53016967
-2.6689959 2.5739591 -0.41329113
-2.6749554 2.5797064 -0.20757371
-2.8144989 2.7142811 0
-4.2272086 4.0766878 0.32802692
-2.5174158 2.4219124 -0.96378708
-2.5991964 2.5005906 -0.79900658
-2.2861757 2.199445 -0.5288853
-2.6609242 2.5599766 -0.41156194
-2.6799483 2.578279 -0.20771927
-2.8159027 2.7090757 0
-4.2227707 4.062571 0.32730135
-2.5203402 2.4188688 -0.96378708
-2.6187131 2.5132811 -0.80407196
-2.2962401 2.2037911 -0.53059721
-2.6658797 2.5585487 -0.41184995
-2.6868076 2.578634 -0.20800927
-2.8191741 2.7056713 0
-4.2107983 4.0412674 0.3259947
-2.5160127 2.4088819 -0.96101844
-2.6107326 2.4995687 -0.80069357
-2.2933369 2.1956875 -0.52931291
-2.6633627 2.5499578 -0.41098478
-2.695554 2.5807784 -0.20844482
-2.8243194 2.704061 0
-4.2156782 4.0361762 0.3259947
-2.5261784 2.412771 -0.96378708
-2.6119151 2.4946589 -0.80013126
-2.2997046 2.1964643 -0.53016967
-2.6664419 2.5467377 -0.41098478
-2.6892769 2.5685477 -0.20771927
-2.8200567 2.6934562 0
-4.2017651 4.0131359 0.32454357
-2.5508807 2.4304771 -0.97209036
-2.6094072 2.4862411 -0.79844207
-2.300493 2.1919081 -0.52974045
-2.660156 2.5345948 -0.4095436
-2.6998963 2.5724592 -0.20829926
-2.827081 2.6936407 0
-4.2160153 4.0170164 0.32526913
-2.5192711 2.3945589 -0.95894128
-2.6068895 2.4778399 -0.79675502
-2.3068647 2.1926672 -0.53059721
-2.6669698 2.534946 -0.41012076
-2.6917057 2.5584574 -0.20742871
-2.8341029 2.6938052 0
-4.2114511 4.0029702 0.32454357
-2.5112431 2.3811593 -0.95478964
-2.5951312 2.4607017 -0.79225194
-2.3039222 2.1845777 -0.52931291
-2.6700308 2.5317216 -0.41012076
-2.69857 2.5587823 -0.20771927
-2.8335822 2.686801 0
-4.2181683 3.9996645 0.32468858
-2.53052 2.3936374 -0.96101844
-2.5925632 2.4523244 -0.79056275
-2.3140199 2.1888485 -0.53102475
-2.6693263 2.5249352 -0.4095436
-2.6978807 2.5519452 -0.20742871
-2.8387156 2.6851618 0
-4.2154469 3.9874225 0.324108
-2.1840594 2.0609233 -0.99015546
-2.5261116 2.3836908 -0.95824975
-2.6010702 2.4544232 -0.79225194
-2.3241313 2.1930978 -0.5327366
-2.6780205 2.5270352 -0.41040877
-2.7066338 2.5540352 -0.20786427
-2.8533185 2.69245 0
-4.2145977 3.9769812 0.32367301
-2.2081442 2.0786121 -0.99993509
-2.5162013 2.368598 -0.95340395
-2.5781286 2.4268928 -0.78437048
-2.3361237 2.199084 -0.53487605
-2.681072 2.5237975 -0.41040877
-2.7021496 2.5436387 -0.20728371
-2.8717225 2.703264 0
-4.2231808 3.9754443 0.32396302
-2.1980402 2.0640972 -0.9942295
-2.5190613 2.365556 -0.95340395
-2.5829167 2.4255202 -0.784935
-2.3350401 2.1927485 -0.53402096
-2.6784613 2.5152426 -0.4095436
-2.7014291 2.5368109 -0.20699315
-2.871196 2.6962326 0
-4.2166195 3.9596694 0.32309246
-2.1933177 2.0546808 -0.99096966
-2.5164235 2.3573635 -0.95132685
-2.5858455 2.4223974 -0.784935
-0 0 -0
-2.6852775 2.5155444 -0.41012076
-2.7025979 2.53177 -0.20684814
-2.8782468 2.6963162 0
-4.2251902 3.9581211 0.32338247
-2.2048261 2.0604653 -0.99504369
-2.5229394 2.3577502 -0.95271248
-2.5869088 2.4175313 -0.78437048
-2.3478343 2.1941104 -0.53573281
-2.6939788 2.5175908 -0.41098478
-2.7075517 2.5302751 -0.20699315
-2.8910153 2.7017264 0
-4.2147818 3.9388194 0.32222134
-2.2073143 2.0577998 -0.99504369
-2.5276196 2.3564091 -0.95340395
-2.5954056 2.4196033 -0.78605968
-2.3504839 2.1912718 -0.53573281
-2.6913486 2.5090477 -0.41012076
-2.714412 2.5305488 -0.20728371
-2.9190226 2.7212999 0
-4.2195382 3.9337239 0.32222134
-2.5433266 2.3653145 -0.95824975
-2.5927436 2.4112728 -0.78437048
-2.3531299 2.1884301 -0.53573281
-2.6868024 2.4987483 -0.40896758
-2.7117577 2.5219567 -0.20684814
-2.9165895 2.7124522 0
-4.2166772 3.9215441 0.32164079
-2.5296321 2.3468847 -0.952021
-2.5919333 2.4046853 -0.7832458
-2.3576527 2.1873295 -0.53616035
-2.6898196 2.4954998 -0.40896758
-2.7281389 2.5310509 -0.20786427
-2.9274962 2.7160063 0
-4.215703 3.9111495 0.32120579
-2.5343053 2.3455288 -0.95271248
-2.5799186 2.3877444 -0.77874273
-2.3640583 2.187963 -0.5370155
-2.6890328 2.4887309 -0.40839043
-2.7178442 2.5153961 -0.20684814
-2.9212277 2.70363 0
-4.2261415 3.9113426 0.32164079
-2.5279231 2.3339574 -0.94925231
-2.5771995 2.3794529 -0.77705353
-2.370476 2.188591 -0.53787225
-2.6920381 2.4854798 -0.40839043
-2.7151523 2.5068207 -0.2064126
-2.9187541 2.6948001 0
-4.232779 3.9080012 0.32178634
-2.5145783 2.3188238 -0.94371504
-2.5879815 2.3865128 -0.77986956
-2.3680198 2.1836748 -0.5370155
-2.695446 2.4856114 -0.40867957
-2.726223 2.5139925 -0.2071387
-2.9203818 2.6930363 0
-4.2083926 3.8807783 0.31975412
-2.5210674 2.3191774 -0.94509804
-2.5871198 2.3799403 -0.77874273
-2.3763263 2.1860275 -0.5382998
-2.7174792 2.4998605 -0.41156194
-2.7311692 2.512454 -0.20728371
-2.92172 2.6877453 0
-4.2207279 3.8827274 0.32033467
-2.5294149 2.3212199 -0.9471752
-2.575017 2.3630686 -0.77423966
-2.3751869 2.1796865 -0.53744465
-2.7147791 2.491327 -0.41069677
-2.7246323 2.5003693 -0.20655815
-2.9211268 2.6806905 0
-4.2273364 3.8793867 0.32048023
-2.524816 2.3113859 -0.94440651
-2.5947359 2.3753953 -0.77930504
-2.3834939 2.1820102 -0.53872734
-2.7044384 2.4758244 -0.40867957
-2.7372327 2.5058465 -0.20728371
-2.9224463 2.6754034 0
-4.2300987 3.8725162 0.32033467
-2.5201969 2.3015664 -0.94163787
-2.5882249 2.3636928 -0.77649117
-2.3918171 2.1843235 -0.54001164
-2.7131522 2.4777825 -0.4095436
-2.7325838 2.4955282 -0.20670316
-2.91607 2.6630969 0
-4.2040753 3.839366 0.31801245
-2.541518 2.3154118 -0.94855815
-2.587326 2.3571446 -0.77536649
-2.4248168 2.2090931 -0.54685915
-2.7161441 2.4745023 -0.4095436
-2.7317517 2.4887214 -0.2064126
-2.9173636 2.6578205 0
-4.2356067 3.8587859 0.32004467
-2.2222726 2.0196595 -0.99015546
-2.522042 2.2920978 -0.94025487
-2.5864079 2.3505955 -0.77423966
-2.45788 2.2337859 -0.55370659
-2.7133954 2.4660048 -0.40867957
-2.7424486 2.4924092 -0.20699315
-2.9167175 2.6507893 0
-4.2325745 3.8466747 0.31946412
-2.2045674 1.9987102 -0.98119009
-2.534101 2.2974725 -0.94371504
-2.5835972 2.3423469 -0.77255046
-2.5632644 2.3239126 -0.57681435
-2.716373 2.4627244 -0.40867957
-2.7165878 2.4629192 -0.20481648
-2.9160659 2.6437705 0
-4.2352962 3.8398139 0.3193191
-2.2491438 2.034178 -0.99993509
-2.5275736 2.2859964 -0.94025487
-2.5883155 2.3409328 -0.77311498
-2.6308064 2.3793626 -0.59136611
-2.7135901 2.4542339 -0.40781441
-2.7253451 2.4648654 -0.20525204
-2.9269788 2.6472278 0
-4.2206573 3.8172605 0.31786743
-2.5210152 2.274533 -0.93679208
-2.5892503 2.3360965 -0.77255046
-2.6679835 2.4071319 -0.5990687
-2.7088721 2.4440227 -0.40666124
-2.7321763 2.4650486 -0.20554203
-2.9263072 2.6401989 0
-4.2291288 3.8156426 0.318158
-2.2362711 2.0078466 -0.99096966
-2.5321066 2.2734637 -0.93886924
-2.5873327 2.3230488 -0.77030104
-2.6718845 2.3989642 -0.5986411
-2.7089949 2.4322836 -0.40579608
-2.7361939 2.4567046 -0.20539704
-2.9326789 2.6331196 0
-4.228672 3.7967331 0.31743243
-2.2313311 1.9985468 -0.98770982
-2.5385928 2.2737534 -0.94025487
-2.590138 2.319921 -0.77030104
-2.6728635 2.3940163 -0.59821194
-2.7080822 2.4255607 -0.40522006
-2.7410939 2.4551287 -0.20554203
-2.9281042 2.6226287 0
-4.2255144 3.7846861 0.31685188
-2.2429581 2.0040817 -0.99178386
-2.5132747 2.2456095 -0.9298718
-2.5910389 2.3150918 -0.76973659
-2.6661847 2.3822346 -0.59607249
-2.7071497 2.4188368 -0.40464291
-2.7401869 2.4483554 -0.20525204
-2.9681456 2.6520364 0
-4.2436423 3.7916918 0.31786743
-2.2177072 1.9767064 -0.97956169
-2.5347109 2.2592607 -0.93679208
-2.5919394 2.3102703 -0.76917422
-2.6901429 2.3978016 -0.60078055
-2.7004182 2.4069605 -0.40320173
-2.7431433 2.4450426 -0.20525204
-3.0237973 2.6951978 0
-4.2327027 3.7727299 0.31670633
-2.2348704 1.9871639 -0.98608142
-2.5149481 2.2361984 -0.92848879
-2.5890307 2.3020699 -0.76748502
-2.6757743 2.3791993 -0.59692925
-2.6994627 2.4002619 -0.40262571
-2.7422082 2.4382699 -0.20496148
-3.0776145 2.7365007 0
-4.2353182 3.7658877 0.31656131
-2.5289056 2.2431433 -0.93264043
-2.5918105 2.2989399 -0.76748502
-2.6805658 2.3776662 -0.5973568
-2.7023609 2.3969984 -0.40262571
-2.7470944 2.4366772 -0.20510648
-3.1003921 2.7500529 0
-4.2320895 3.7538702 0.31598076
-2.2655768 2.0046842 -0.99748939
-2.5165834 2.2267861 -0.92710316
-2.5850737 2.2873893 -0.76467115
-2.6738262 2.3659215 -0.59521741
-2.7013774 2.3903 -0.40204856
-2.7500367 2.433356 -0.20510648
-3.1290486 2.7687228 0
-4.2268944 3.7401459 0.31525519
-2.5117488 2.217103 -0.92433453
-2.5935524 2.2893102 -0.76636034
-2.6805284 2.3660834 -0.59607249
-2.7158945 2.3973007 -0.40377775
-2.7510288 2.4283135 -0.20496148
-3.1401961 2.7718289 0
-4.2411489 3.7436321 0.31598076
-2.5068946 2.2074347 -0.92156583
-2.5905938 2.2811356 -0.76467115
-2.6718295 2.3526671 -0.5935055
-2.7149105 2.3906021 -0.40320173
-2.7598133 2.430141 -0.20539704
-3.1454945 2.7697508 0
-4.2378688 3.7316358 0.31540021
-2.5001376 2.1961272 -0.91810572
-2.5952554 2.2796788 -0.76523346
-2.6650288 2.3409679 -0.59136611
-2.7080829 2.3787868 -0.40176055
-2.7510304 2.416512 -0.20452592
-3.1253755 2.7453377 0
-4.2209058 3.7076542 0.31380409
-2.4637468 2.1615257 -0.90426248
-2.5851758 2.2680595 -0.76185727
-2.6567886 2.3308878 -0.58922499
-2.7095194 2.3771503 -0.40176055
-2.7388225 2.4028587 -0.20351036
-3.1407297 2.755465 0
-4.2446251 3.7239487 0.31540021
-2.4399302 2.1354189 -0.89457357
-2.5860043 2.2632623 -0.7612949
-2.6287029 2.300632 -0.58237916
-2.7123897 2.3738747 -0.40176055
-2.7612736 2.4166574 -0.20496148
-3.1440568 2.7516682 0
-4.2432613 3.7136884 0.31496522
-2.4368374 2.1275177 -0.89249641
-2.5772491 2.2501063 -0.75791651
-2.6082754 2.2771943 -0.57724357
-0 0 -0
-2.7544065 2.4047763 -0.20423591
-3.1434546 2.7444406 0
-4.249701 3.7102656 0.31511021
-2.4261689 2.1130428 -0.88765323
-2.5531447 2.2236307 -0.75003719
-2.5742428 2.2420061 -0.56911176
-2.7122655 2.362215 -0.40089539
-2.7671056 2.4099774 -0.20496148
-3.0957465 2.6962035 0
-4.2385054 3.6914754 0.31394908
-2.2799225 1.9808319 -0.99586099
-0 0 -0
-2.5232239 2.1922159 -0.74046874
-2.5323851 2.2001753 -0.55926979
-2.7131672 2.3572414 -0.40060738
-2.7660964 2.4032271 -0.20467147
-3.0754271 2.6719785 0
-4.2547278 3.6965733 0.31481966
-0 0 -0
-2.4836323 2.1525574 -0.72808635
-2.5195229 2.1836636 -0.55584604
-2.7160134 2.3539615 -0.40060738
-2.7768524 2.4066904 -0.20525204
-3.0452223 2.6392858 0
-4.267046 3.6982369 0.31540021
-2.4395003 2.1091518 -0.88972777
-2.4477894 2.1163185 -0.71682864
-2.5027442 2.1638315 -0.5515672
-2.7169011 2.3489878 -0.40031937
-2.7718959 2.3965356 -0.20467147
-3.0503833 2.6373112 0
-4.2577577 3.6811872 0.31438464
-2.2758546 1.9628658 -0.99096966
-2.4439523 2.107846 -0.89042193
-2.440726 2.1050632 -0.71401477
-2.511183 2.1658306 -0.55284983
-2.7158163 2.3423216 -0.39974222
-2.7767553 2.3948801 -0.20481648
-3.0338564 2.6166229 0
-4.2523584 3.6675494 0.31365854
-2.2988358 1.9778478 -0.99993509
-2.4293761 2.0901606 -0.88419044
-2.4297831 2.0905108 -0.71007401
-2.5313101 2.1778615 -0.55670112
-2.708843 2.3306053 -0.39830104
-2.789494 2.3999951 -0.20554203
-3.0547693 2.6282299 0
-4.2607298 3.6658013 0.31394908
-2.282465 1.9589684 -0.99178386
-2.4357111 2.0904946 -0.88557613
-2.441946 2.0958459 -0.71288788
-2.5495236 2.1881764 -0.56012487
-2.7038062 2.3205924 -0.39714786
-2.7884521 2.3932412 -0.20525204
-3.0441244 2.6126769 0
-4.2651563 3.6606503 0.31394908
-2.2867134 1.9578211 -0.99260116
-2.4344201 2.0842838 -0.88419044
-2.4386919 2.0879409 -0.71120089
-2.5580175 2.1901045 -0.56140918
-2.6849942 2.2988183 -0.39397636
-2.7952857 2.3932469 -0.20554203
-3.0472791 2.6089966 0
-4.2557573 3.6436627 0.31293297
-2.2890773 1.9550567 -0.99260116
-2.4350309 2.0797129 -0.88349897
-2.4354148 2.0800407 -0.7095117
-2.56847 2.1936805 -0.56312108
-2.6563091 2.2687023 -0.38936481
-2.8120084 2.4016821 -0.20655815
-3.0365748 2.5934799 0
-4.272016 3.6486464 0.31380409
-2.2914379 1.9522893 -0.99260116
-2.4337265 2.0735183 -0.88211596
-2.4359939 2.0754502 -0.70894933
-2.5359499 2.1606121 -0.55541849
-2.655107 2.2621329 -0.38878766
-2.8188603 2.4016497 -0.20684814
-3.0397062 2.5898089 0
-4.2764215 3.643482 0.31380409
-2.2467146 1.9095049 -0.97222781
-2.4476962 2.0803211 -0.8862676
-2.4462445 2.0790873 -0.71120089
-2.5033464 2.1276188 -0.54771423
-2.6420717 2.2455227 -0.38648131
-2.8197823 2.3965607 -0.20670316
-3.0349011 2.5793924 0
-4.2966604 3.6517742 0.31496522
-2.2904916 1.9419495 -0.99015546
-2.4502082 2.0773621 -0.8862676
-2.4429388 2.0711989 -0.7095117
-2.4589298 2.0847566 -0.53744465
-2.642812 2.2406578 -0.38619331
-2.8405118 2.4082737 -0.20800927
-3.0181687 2.5588968 0
-4.3109779 3.6549802 0.31569076
-2.290951 1.9375859 -0.98934132
-2.4508028 2.0727816 -0.88557613
-2.4473777 2.0698848 -0.71007401
-2.4516487 2.0734968 -0.53530526
-2.6356452 2.2291131 -0.38475212
-2.8513558 2.4115517 -0.20858982
-2.9358113 2.4829805 0
-4.3054729 3.6413803 0.31496522
-2.2762907 1.9204738 -0.98200738
-2.4379656 2.0568767 -0.8800388
-2.4421089 2.0603721 -0.7078225
-2.461993 2.0771482 -0.5370155
-2.6343791 2.2225878 -0.38417497
-2.8522835 2.4064305 -0.20844482
-2.6185763 2.2092552 0
-4.3158221 3.6411972 0.31540021
-2.4346888 2.0490813 -0.87796164
-2.4484885 2.0606952 -0.70894933
-2.4507582 2.0626056 -0.53402096
-2.6430013 2.2244012 -0.38504013
-2.8651273 2.4113467 -0.20917039
-2.5654991 2.1591737 0
-4.3202186 3.6359797 0.31540021
-2.2695637 1.9054289 -0.97711605
-2.4467754 2.0542083 -0.88142449
-2.4529207 2.0593674 -0.7095117
-2.4571772 2.0629408 -0.53487605
-2.6318188 2.2095628 -0.3830218
-2.8819714 2.4195802 -0.2101865
-2.5621245 2.1510503 0
-4.3146605 3.6224046 0.31467465
-2.4492559 2.0512502 -0.88142449
-2.451515 2.0531423 -0.70838696
-2.4557357 2.0566771 -0.53402096
-2.6543198 2.2229912 -0.3859053
-2.8928614 2.4227695 -0.21076706
-2.5667152 2.1496224 0
-4.3150539 3.6138549 0.31438464
-2.2912309 1.9141989 -0.98444992
-2.4401772 2.0386355 -0.87727016
-2.453994 2.0501788 -0.70838696
-2.4542751 2.0504134 -0.5331642
-2.6589868 2.2214391 -0.38619331
-2.8977787 2.4209368 -0.21091205
-2.5713136 2.1481929 0
-4.3234015 3.6119671 0.31467465
-2.2715175 1.8954004 -0.97548765
-2.4548941 2.0484135 -0.88211596
-2.4513266 2.0454369 -0.70726013
-2.4633975 2.0555091 -0.53487605
-2.6682723 2.2264607 -0.38734648
-2.8713055 2.3958757 -0.20887983
-2.5546212 2.131628 0
-4.3235898 3.6076913 0.31452966
-2.306098 1.9195333 -0.98934132
-2.4631464 2.050256 -0.88419044
-2.459657 2.0473516 -0.70894933
-2.4481242 2.0377519 -0.53102475
-2.6749325 2.226541 -0.3879225
-2.8202815 2.3475258 -0.20496148
-2.565196 2.1351993 0
-4.3239479 3.5991366 0.31423908
-2.4617653 2.0440762 -0.88280743
-2.4562626 2.0395069 -0.70726013
-0 0 -0
-2.6796167 2.2249644 -0.38821164
-2.7691453 2.2993026 -0.20104313
-2.569782 2.1337657 0
-4.3083062 3.5773132 0.31278798
-2.2840781 1.8918792 -0.97793025
-2.4545751 2.0331001 -0.87934732
-2.4626424 2.0397823 -0.70838696
-2.4530416 2.0318298 -0.53102475
-2.6823032 2.221725 -0.38821164
-2.7559123 2.2826948 -0.19988202
-2.5563245 2.1173782 0
-4.3066201 3.5671306 0.31235242
-2.3187516 1.9158797 -0.99178386
-2.4686301 2.0397174 -0.88349897
-2.4670622 2.0384221 -0.70894933
-2.4515407 2.0255973 -0.53016967
-2.6909616 2.2234201 -0.38907567
-2.7406421 2.2644689 -0.1985759
-2.5628896 2.1176 0
-4.3169384 3.5668912 0.31278798
-2.301996 1.8973595 -0.98363578
-2.459481 2.0271623 -0.87934732
-2.4695234 2.0354395 -0.70894933
-2.4420969 2.0128341 -0.527601
-2.6896582 2.2168798 -0.38849965
-2.7353559 2.254545 -0.19799533
-2.5714731 2.1194689 0
