# .PCD v0.7 - Point Cloud Data file format
VERSION 0.7
FIELDS x y z
SIZE 4 4 4
TYPE F F F
COUNT 1 1 1
WIDTH 1768
HEIGHT 1
VIEWPOINT 0 0 0 1 0 0 0
POINTS 1768
DATA ascii
6.5621157 2.9868054 0
6.6315632 3.018415 0.40697834
0 0 -0
0 0 -0
0 0 -0
0 0 -0
6.5490327 2.9904082 0
6.6208267 3.023191 0.40654334
0 0 -0
0 0 -0
0 0 -0
0 0 -0
6.5572515 3.0037417 0
6.6100798 3.0279412 0.40610778
0 0 -0
0 0 -0
0 0 -0
7.2888379 3.3495274 -0.44805741
6.5725265 3.0203521 0
6.6158605 3.040266 0.40668833
0 0 -0
0 0 -0
0 0 -0
7.3366957 3.3822629 -0.4512502
6.5712423 3.0293841 0
6.6452141 3.0634859 0.40872002
0 0 -0
0 0 -0
0 0 -0
7.3396811 3.3943987 -0.45168576
6.5911937 3.048244 0
6.6863208 3.0922377 0.4114778
0 0 -0
0 0 -0
0 0 -0
7.3308644 3.4010797 -0.45139575
6.580421 3.0529191 0
6.7014365 3.1090629 0.4126389
0 0 -0
0 0 -0
0 0 -0
7.3338103 3.4132211 -0.45183074
6.5554943 3.0509861 0
6.7023821 3.1193488 0.41292891
0 0 -0
0 0 -0
0 0 -0
7.3414598 3.4275796 -0.45255688
6.5494471 3.0578051 0
6.7080259 3.1318421 0.41350946
0 0 -0
0 0 -0
7.2855392 3.4121995 -0.44936353
6.5410295 3.0635066 0
6.7042365 3.1399453 0.41350946
0 0 -0
0 0 -0
7.3284469 3.443099 -0.45226631
6.5161262 3.0614491 0
18.369545 8.6305008 1.1336545
0 0 -0
0 0 -0
7.3242812 3.4519515 -0.45226631
6.3758955 3.0049748 0
18.3638 8.6549034 1.1339445
0 0 -0
0 0 -0
6.2428627 2.9515004 0
18.353329 8.6770859 1.1339445
0 0 -0
0 0 -0
0 0 -0
6.1452336 2.9144335 0
18.349876 8.7025976 1.13438
0 0 -0
11.727505 5.5792446 -0.72540456
6.0900097 2.8972621 0
6.6100669 3.1446741 0.40886557
0 0 -0
0 0 -0
6.0700607 2.8967712 0
6.5898447 3.1448238 0.40784946
7.2612948 3.4760334 -0.89730889
0 0 -0
6.0501313 2.8962407 0
6.5602565 3.1404414 0.40625277
7.3550119 3.5318265 -0.90941662
7.4044681 3.5555749 -0.45879745
6.0348907 2.8979132 0
6.5330377 3.13712 0.40480167
7.3740463 3.5519376 -0.91230011
7.437623 3.5825613 -0.46111968
6.0102844 2.8950396 0
6.5198784 3.140501 0.40422112
7.4122248 3.5813682 -0.459813
5.9997592 2.8989065 0
6.511395 3.1461136 0.40393054
7.4686923 3.6197894 -0.46358693
5.9821959 2.8993413 0
6.51227 3.1562479 0.40422112
11.698591 5.6873255 -0.72656572
5.971673 2.9031572 0
6.5037732 3.16184 0.40393054
0 0 -0
11.666026 5.6889319 -0.72496957
5.9775085 2.9149292 0
6.4952812 3.1674206 0.40364054
0 0 -0
0 0 -0
11.689486 5.7178655 -0.72685623
5.9739823 2.9221497 0
6.4657712 3.1627061 0.40204388
0 0 -0
11.69423 5.7377076 -0.7275818
5.9681129 2.9282205 0
6.4502831 3.1647947 0.40131831
0 0 -0
0 0 -0
0 0 -0
11.687288 5.7518334 -0.7275818
5.9435573 2.9250882 0
5.9568911 2.9316504 0.37084097
0 0 -0
0 0 -0
11.682658 5.7671003 -0.72772682
5.9680223 2.9460917 0
5.8717914 2.8985879 0.36576095
0 0 -0
11.666367 5.7766004 -0.72714627
5.9388008 2.9405966 0
5.8519912 2.8976128 0.36474541
0 0 -0
6.5374084 3.2468388 -0.40771058
6.0121593 2.9859712 0
5.8577948 2.9093051 0.36532596
6.5470848 3.2565773 -0.40843672
5.9777369 2.9733787 0
5.8676662 2.9186287 0.36605152
6.5594144 3.2726028 -0.40945226
6.0230412 3.0049973 0
5.8594809 2.923394 0.36576095
0 0 -0
0 0 -0
6.5694022 3.2875054 -0.41032338
6.0333657 3.0192585 0
5.8559442 2.9304719 0.36576095
0 0 -0
0 0 -0
0 0 -0
6.0297132 3.0265462 0
5.8361492 2.9293892 0.36474541
0 0 -0
0 0 -0
6.5382247 3.2916846 -0.40887171
6.0934606 3.0677671 0
5.7444153 2.8920395 0.35923037
0 0 -0
6.5180125 3.2913868 -0.40785614
6.0711646 3.065743 0
5.5484052 2.8017662 0.34718421
6.4838982 3.2839985 -0.40596947
6.109242 3.0942404 0
5.4499769 2.7603326 0.34123364
7.1517167 3.6331034 -0.44805741
6.1147795 3.1063349 0
0 0 0
7.1473212 3.6417422 -0.44805741
6.1620407 3.1397166 0
5.4340291 2.7687762 0.34065309
7.1359811 3.6468318 -0.44762242
6.23703 3.1874242 0
5.4399352 2.7800701 0.34123364
0 0 -0
6.90728 3.5404866 -0.43354458
6.3072767 3.2329412 0
5.4666305 2.8020484 0.34312031
6.6349363 3.41102 -0.41670895
6.3033657 3.2405598 0
5.474802 2.8145955 0.34384644
6.5522909 3.3785481 -0.41177449
6.276319 3.2362492 0
5.4621592 2.8164451 0.34326586
0 0 -0
0 0 -0
6.2585297 3.2366552 0
5.4772167 2.8325922 0.34442699
0 0 -0
6.2546144 3.244215 0
5.4760947 2.8404036 0.34457198
0 0 -0
6.2414546 3.2469659 0
5.4519138 2.8362265 0.34326586
0 0 -0
6.2052288 3.2376533 0
5.4530859 2.8452137 0.34355587
6.3452873 3.3204908 -0.4000189
6.8492298 3.5842042 0
5.4565535 2.8554161 0.34399143
6.3412704 3.3281553 -0.4000189
6.8494983 3.5948939 0
5.4438958 2.857177 0.34341088
6.3349471 3.3346059 -0.39987388
6.8428488 3.6019566 0
5.4174504 2.8516517 0.34195974
6.326313 3.3398294 -0.39958334
6.8016682 3.5907822 0
5.3772345 2.8387856 0.33963752
6.3245673 3.348686 -0.39972833
6.1165595 3.2385516 0
5.3623204 2.8392026 0.33891198
6.3205161 3.3563254 -0.39972833
6.1264286 3.2532609 0
5.3497062 2.8408053 0.3383314
6.3026996 3.3566339 -0.39885777
6.1293869 3.2643323 0
5.355444 2.8521531 0.33891198
6.2986393 3.3642471 -0.39885777
6.1185489 3.2680566 0
5.4161606 2.892895 0.34297532
5.7311335 3.0700355 -0.36315542
6.1168966 3.2766798 0
5.6165061 3.0086324 0.35589203
5.6976643 3.0609727 -0.36126873
6.133564 3.2951522 0
5.6929765 3.058454 0.36097148
5.6825261 3.0616934 -0.36054319
6.2097602 3.3457625 0
0 0 0
5.6673856 3.0623777 -0.35981706
6.2950015 3.4015105 0
5.7267222 3.09444 0.36358428
6.8664613 3.7210257 -0.87049907
5.6796751 3.0778906 -0.3608332
6.377831 3.4562304 0
5.7138405 3.0964053 0.36300373
6.8551493 3.7256181 -0.86963505
6.6484885 3.6133027 -0.42265955
6.4376755 3.4987307 0
5.7169466 3.1070306 0.36343929
6.8483648 3.7326572 -0.8693459
6.630424 3.6138697 -0.42178842
6.4540071 3.517715 0
5.7223053 3.1189055 0.36401927
6.8120804 3.7235637 -0.86531037
6.6146545 3.6156483 -0.42106286
6.4292016 3.5142777 0
5.7914944 3.1656995 0.36866376
6.7758279 3.7143881 -0.86127484
6.6034517 3.6198947 -0.42062786
6.3450837 3.4782619 0
5.8560171 3.2101645 0.37301764
6.7487111 3.7207615 -0.8589685
6.5833001 3.6295657 -0.41990176
6.2637291 3.4533768 0
5.7959118 3.1954556 0.36967987
6.7306337 3.7214067 -0.85723931
6.5675421 3.6312323 -0.41917619
6.3893704 3.5327201 0
5.7761264 3.1936541 0.36866376
6.7216039 3.7270255 -0.85666215
6.5495191 3.6316073 -0.41830564
6.5125456 3.6111062 0
6.4698839 3.5874507 0.41321948
6.7012696 3.7263446 -0.85464382
6.531496 3.6319392 -0.41743451
6.5195479 3.6252954 0
6.4337463 3.577584 0.41118723
6.6945057 3.7331805 -0.85435581
6.5634136 3.6600773 -0.41975674
6.471983 3.609091 0
6.3749614 3.5549872 0.40770444
6.6877346 3.7400055 -0.8540678
6.6859803 3.7390244 -0.42788398
6.3790293 3.5673671 0
6.3411803 3.546201 0.40581778
6.6741867 3.7430229 -0.85291463
6.7245207 3.7712512 -0.4306418
6.1931305 3.4732366 0
6.3255525 3.5475016 0.40509167
6.7312808 3.7857413 -0.43136734
6.1186166 3.4411726 0
6.3144736 3.5513246 0.40465665
6.7561226 3.8104653 -0.433254
6.2255259 3.5112081 0
6.3033857 3.5551209 0.40422112
6.7311597 3.8071141 -0.43194792
6.3549232 3.5943165 0
6.3013453 3.5640128 0.40436611
6.7333374 3.8190918 -0.43238345
6.39358 3.6263843 0
6.3038168 3.5754714 0.40480167
6.6492057 3.7819991 -0.85262662
6.7038708 3.813092 -0.43078679
6.3688364 3.6225278 0
6.3333654 3.6023524 0.40697834
6.6266575 3.7797785 -0.85032028
6.6631446 3.8005908 -0.42846456
6.330543 3.610878 0
6.3290081 3.6100023 0.40697834
6.6333089 3.7942026 -0.85176146
6.5615659 3.7531662 -0.42222399
6.2855167 3.5952682 0
6.3246412 3.6176472 0.40697834
6.6332111 3.8047912 -0.85233861
6.4961753 3.7261879 -0.41830564
6.3398585 3.6365249 0
6.3180137 3.6239948 0.40683335
6.6263604 3.8115101 -0.85204947
6.473649 3.7236698 -0.41714451
6.3489995 3.6519711 0
6.392467 3.6769736 0.41191337
6.6150351 3.8156407 -0.85118544
6.4691448 3.7314892 -0.41714451
6.1755123 3.5621181 0
6.4938025 3.745712 0.41873449
6.6193752 3.8288109 -0.85233861
6.4781227 3.747107 -0.41801506
6.0518084 3.5005162 0
5.4838953 3.1720212 0.35386035
6.6080298 3.832912 -0.85147345
6.4735904 3.7549317 -0.41801506
6.0138125 3.4882429 0
5.5115218 3.1968949 0.35589203
6.5899749 3.8330884 -0.84974313
6.4623165 3.7588356 -0.41758007
6.0118408 3.4968143 0
5.5435929 3.2244558 0.35821426
6.4802113 3.7797306 -0.41903117
6.0076113 3.5040758 0
6.7898421 3.9603298 0.43905291
6.4666677 3.7823102 -0.41845062
5.9988842 3.5087068 0
6.7872925 3.9698415 0.4391979
6.4441619 3.7796042 -0.41728953
5.9879036 3.5120015 0
6.8093872 3.9938149 0.44093958
6.4418278 3.7887042 -0.41743451
6.0016017 3.5297892 0
6.8202286 4.0112572 0.44195515
6.4618673 3.8110065 -0.41903117
6.0018115 3.53968 0
6.8288102 4.0274181 0.44282624
5.470973 3.2355244 -0.35502815
5.9773712 3.5350075 0
6.8351197 4.0422788 0.44355181
6.6940012 3.9697464 -0.43470514
5.9193807 3.5103729 0
6.8369374 4.054512 0.44398737
6.7048354 3.9871299 -0.43572125
5.8882923 3.5015604 0
6.8007617 4.0441742 0.44195515
0 0 -0
6.7113557 3.9964979 -0.4363018
5.8727551 3.4971254 0
6.7358131 4.0110621 0.43789178
0 0 -0
6.699645 4.005991 -0.43601182
5.8708787 3.5104375 0
6.710691 4.0125957 0.43673068
6.4631524 3.869885 -0.83965373
6.6972237 4.0100379 -0.43601182
5.8598251 3.508636 0
6.6926579 4.0073037 0.43571454
6.4651265 3.8816872 -0.84051889
6.7012844 4.0234771 -0.43659237
5.8377318 3.5049968 0
6.7100925 4.0287657 0.43716624
6.4471316 3.881489 -0.83878857
6.6964178 4.0315714 -0.43659237
5.831265 3.5107071 0
6.8410034 4.118619 0.44601905
0 0 -0
6.6959863 4.0423431 -0.43688238
5.8314705 3.520438 0
6.9049754 4.168509 0.45051795
6.4642849 3.913131 -0.84224808
6.6888766 4.0490866 -0.43673736
5.7938232 3.5072696 0
6.933279 4.1970348 0.45269519
6.4507079 3.9155705 -0.84109491
6.6861982 4.0585132 -0.43688238
6.9597235 4.2245426 0
6.8948817 4.1851835 0.45051795
6.4503951 3.9260542 -0.84167206
6.6746283 4.0625348 -0.43644682
0 0 0
6.7965994 4.1367726 0.44442236
6.4412265 3.9311481 -0.84109491
6.6918988 4.084136 -0.43789849
6.9450555 4.2386403 0
6.4633489 3.9446497 0.42294285
6.4320636 3.9362304 -0.84051889
5.538939 3.3896646 -0.36271986
6.9443641 4.249743 0
6.2014971 3.7951305 0.40610778
6.4471416 3.9561732 -0.84311324
5.4861193 3.3664591 -0.35952708
5.5130129 3.3829618 0
6.1592588 3.7795191 0.40364054
6.488615 3.9924231 -0.84916711
5.4599209 3.3594711 -0.35807595
5.5067067 3.3882582 0
6.1524763 3.785598 0.40349555
6.7325163 4.153718 -0.88174278
5.4713316 3.3756125 -0.35909152
5.5092468 3.3990049 0
6.1390519 3.7875719 0.402915
6.7758799 4.1917834 -0.88808465
7.0118113 4.337739 -0.46053913
5.4785857 3.3892345 0
6.1256318 3.7895188 0.40233442
6.8675113 4.2599525 -0.9007684
7.1103406 4.4105806 -0.46736026
5.4567938 3.3848772 0
6.1210485 3.7969177 0.40233442
6.9150705 4.301033 -0.90768743
7.1535444 4.4493585 -0.47055304
5.4549079 3.3928413 0
6.116456 3.804311 0.40233442
6.9208398 4.3162274 -0.90912861
7.168004 4.4703732 -0.47185916
5.4485979 3.3980541 0
6.0809917 3.7924507 0.40030277
7.0493903 4.4082384 -0.92671418
7.1978474 4.5010743 -0.47418138
5.4511018 3.4087708 0
6.0235295 3.7667308 0.39681941
7.1667657 4.4936924 -0.94285744
5.3894811 3.3793027 -0.35531816
7.0123868 4.3968945 0
5.9925561 3.7574418 0.39507774
0 0 -0
7.2353411 4.5488796 -0.4773742
7.0026665 4.4025965 0
5.9880114 3.7646799 0.39507774
5.3263474 3.3576765 -0.35168982
7.0017405 4.4138274 0
6.0296168 3.8010106 0.39812553
5.3113065 3.3571694 -0.35096425
6.989809 4.418117 0
6.1194615 3.8679879 0.40436611
5.3072457 3.3635848 -0.35096425
5.5117397 3.493187 0
6.1674581 3.9087632 0.40784946
5.2965965 3.3658128 -0.35052869
5.4833593 3.4844944 0
6.1429949 3.903671 0.40654334
5.2969127 3.3750055 -0.35081926
5.4286618 3.4589512 0
6.0528145 3.8566394 0.40088332
5.2950182 3.3828008 -0.35096425
5.3828149 3.4388909 0
5.9780788 3.8191841 0.39623886
7.5663667 4.8467693 -0.50190151
5.3435926 3.4229321 0
5.9296989 3.798373 0.39333606
7.4315171 4.7730627 -0.4933387
5.346024 3.4336071 0
5.8901238 3.7830675 0.39101383
7.3689475 4.7454629 -0.48956534
5.3768716 3.4626036 0
5.8746271 3.7831488 0.39028826
7.343564 4.7416792 -0.48825923
5.4185948 3.4987426 0
5.8700514 3.7902443 0.39028826
7.3574581 4.763257 -0.48956534
5.4427619 3.5236723 0
5.9112716 3.826988 0.39333606
7.3974652 4.8018527 -0.49261314
0 0 0
5.985106 3.8850598 0.39856109
7.6203184 4.9596086 -0.50785208
5.4429555 3.5424936 0
5.9912944 3.8993745 0.39928663
7.7339993 5.0469108 -0.51583433
5.4626474 3.564714 0
5.9756999 3.8995121 0.39856109
0 0 -0
7.0859261 4.6484575 -0.94458663
7.7000494 5.0513306 -0.51438266
5.4714255 3.5893247 0
5.9488773 3.9025393 0.39739996
7.0543728 4.6399603 -0.94112712
7.6700664 5.0449276 -0.51278657
5.506218 3.6216731 0
5.9333053 3.9025862 0.39667439
6.9947829 4.6128831 -0.93392009
7.6097364 5.0184298 -0.50915819
5.5387702 3.6526794 0
5.915566 3.9011667 0.3958033
7.3392467 4.8527832 -0.49145201
5.5799384 3.6895113 0
5.913013 3.9097435 0.39594829
7.2640738 4.8157029 -0.48680755
5.6080155 3.7178223 0
5.8844676 3.9010959 0.39435217
7.2907119 4.8460541 -0.48898479
5.603519 3.724596 0
5.8689318 3.9010127 0.39362663
7.3389058 4.8908839 -0.49261314
5.577354 3.7169287 0
5.8534045 3.9008975 0.39290106
7.3265071 4.8954153 -0.49217758
5.5360742 3.6990867 0
5.8033175 3.8776529 0.38985327
7.2299218 4.8435259 -0.48608199
5.5121436 3.6927383 0
5.6065063 3.7559545 0.37693655
7.2068076 4.8406672 -0.48492089
5.4795942 3.6805329 0
5.3344994 3.5830758 0.35893983
7.1858726 4.8392158 -0.48390532
5.4276571 3.6551726 0
0 0 0
7.1692462 4.8406205 -0.48317921
5.3649983 3.6224062 0
5.3150597 3.5886879 0.35821426
7.1741571 4.8565674 -0.48390532
5.3476911 3.6201355 0
5.3515968 3.6227796 0.36097148
7.2843719 4.9440231 -0.49174201
5.3519263 3.6324406 0
5.4482679 3.6978292 0.3677932
7.3213577 4.982058 -0.49464482
5.3625965 3.6491549 0
5.4931993 3.738028 0.37113097
5.7699518 3.9365618 -0.39014995
5.3732262 3.6658947 0
5.49512 3.7490573 0.37156653
5.7716269 3.9479332 -0.39058551
5.3602004 3.6665072 0
5.460556 3.7351532 0.36953431
5.7582808 3.9490259 -0.39000496
5.3664956 3.6803396 0
5.4303322 3.7241187 0.3677932
0 0 -0
5.7537456 3.9510288 -0.38985941
5.3792906 3.6938949 0
5.445209 3.7391603 0.36895373
5.7297072 3.9447181 -0.38855329
5.4734249 3.768276 0
5.4214268 3.7324769 0.36764762
5.6950021 3.9309759 -0.38652161
5.5930891 3.8606305 0
5.3741517 3.7095089 0.36474541
5.683836 3.9334171 -0.38608605
5.6119542 3.8836722 0
5.3119726 3.6760743 0.36082649
7.1264772 4.9445219 -0.48448589
5.6094017 3.8919382 0
5.2498903 3.6425006 0.35690814
7.0970311 4.9368057 -0.48288921
5.6025524 3.8972228 0
5.2220192 3.6325178 0.35531148
7.0974569 4.9498382 -0.48332477
5.6021128 3.9069698 0
5.2218928 3.6418006 0.35560203
7.0893354 4.9569173 -0.48317921
5.6059194 3.9197013 0
5.2196159 3.6495953 0.35574704
7.089726 4.9699554 -0.48361477
5.618227 3.9384232 0
5.2173281 3.6573896 0.35589203
7.0922189 4.9844952 -0.48419532
5.6411424 3.9646611 0
5.2171612 3.6666822 0.35618258
5.4868169 3.8661125 -0.37491101
5.653367 3.9834666 0
5.2318416 3.6864522 0.35748869
5.4906306 3.8787365 -0.37549159
5.6464181 3.9887888 0
5.2358727 3.6987681 0.35806927
5.4732213 3.8763599 -0.374621
5.6479678 4.0001225 0
5.2313995 3.705092 0.35806927
0 0 -0
5.4727664 3.8859763 -0.37491101
5.6452498 4.0084491 0
5.220561 3.7068958 0.35763371
5.4638376 3.8895752 -0.374621
5.6319218 4.0092306 0
5.213963 3.7116957 0.35748869
5.4548998 3.8931525 -0.37433046
5.6397877 4.0251064 0
5.2031274 3.7134631 0.35705313
5.4480805 3.8982301 -0.37418547
5.6306825 4.0288863 0
5.202867 3.7227743 0.3573437
5.4687028 3.9229856 -0.37592712
5.6236978 4.0341716 0
5.1878018 3.7214808 0.3566176
5.4660659 3.9311061 -0.37607214
5.6124787 4.0364037 0
5.1917396 3.7338152 0.35719815
8.3887691 6.0484591 -0.57766014
5.6075974 4.0431824 0
5.1977692 3.7476885 0.35792425
8.3519764 6.0372825 -0.57562846
5.6174741 4.0606289 0
5.2058682 3.7630968 0.35879481
7.2516212 5.2552352 -0.99820626
8.1721563 5.9223456 -0.56372786
5.6104584 4.0658879 0
5.2181497 3.7815826 0.35995594
7.2285256 5.2518315 -0.99589992
7.8160434 5.6786876 -0.53963554
5.6076446 4.0741925 0
5.2345943 3.8031554 0.36140704
7.2096348 5.2514277 -0.99417073
10.241248 7.4596252 -0.7076984
5.6027179 4.080965 0
5.2510028 3.8247793 0.36285871
7.1865735 5.2479324 -0.99186438
10.223833 7.4658651 -0.70711786
5.5977826 4.0877318 0
5.2295895 3.818862 0.36169761
10.212709 7.4766793 -0.70697284
5.5886436 4.0914211 0
5.2123871 3.8159657 0.36082649
10.197382 7.4844003 -0.70653731
5.5794954 4.095088 0
5.211966 3.8253388 0.36111706
10.18624 7.4951777 -0.70639229
5.5577741 4.0894876 0
5.2219849 3.8424094 0.36213261
0 0 -0
7.7495842 5.7166986 -0.53789443
5.5486441 4.0931134 0
5.2403417 3.8656855 0.36372927
5.559567 4.1115532 -0.38623106
5.5562449 4.1090965 0
5.2440238 3.8781948 0.36430985
5.5859065 4.1414833 -0.3884083
5.5805397 4.1375041 0
5.2581177 3.8984551 0.36561596
5.5913239 4.1559787 -0.38913384
5.5818048 4.1489029 0
5.2617455 3.9110062 0.36619651
5.596714 4.1704931 -0.38985941
5.5600924 4.1432042 0
5.3278537 3.9701471 0.37113097
0 0 -0
5.5300632 4.1312289 0
5.3646865 4.0076847 0.37403378
5.5782995 4.1777754 -0.38927886
5.5188241 4.1332321 0
5.2828889 3.9565322 0.36866376
0 0 -0
5.56286 4.1767135 -0.38855329
5.5346336 4.1555204 0
5.2718682 3.9582307 0.3682282
5.5121398 4.149056 -0.38536051
5.6003003 4.2154155 0
5.2712379 3.9677262 0.36851874
6.3844481 4.8177495 -0.4467513
5.6699891 4.2786136 0
5.2934022 3.9944384 0.37040541
6.3682628 4.8176236 -0.44602573
5.6606598 4.2823181 0
5.4688454 4.1372094 0.38303158
5.4577327 4.1391807 -0.38260326
5.622304 4.2639928 0
5.5383759 4.2003412 0.38825661
5.485815 4.1709294 -0.38492495
5.600574 4.258182 0
5.5353627 4.2086015 0.3884016
5.5159011 4.2043314 -0.38739216
5.5726628 4.2475967 0
5.513741 4.2026854 0.38724047
5.5376554 4.2315016 -0.38927886
5.5675263 4.2543268 0
5.5210509 4.2188134 0.38811159
5.5325384 4.2381897 -0.38927886
5.5747738 4.2705441 0
5.5159492 4.2254815 0.38811159
5.5109344 4.2322164 -0.3881183
5.5985103 4.2994719 0
5.4984703 4.2226443 0.38724047
6.3255067 4.8821282 -0.44631574
5.598403 4.3209376 0
5.5129342 4.2549715 0.38898215
6.3216643 4.8913622 -0.44646129
5.5623012 4.3038087 0
5.5160093 4.2679901 0.38956273
6.3280644 4.9085498 -0.44733185
5.534483 4.292985 0
5.5026355 4.2682815 0.38898215
6.3303337 4.9225731 -0.4479124
5.5375094 4.3060594 0
5.4974742 4.2749271 0.38898215
6.3314552 4.9295859 -0.4482024
5.5492754 4.320591 0
5.4907937 4.2750583 0.38869217
6.3111615 4.9260459 -0.44718686
5.560463 4.3401036 0
5.4794769 4.2768917 0.38825661
6.297019 4.9272628 -0.44660628
10.232194 8.0064411 0
5.4947658 4.2995191 0.38970771
6.27879 4.9252424 -0.44573519
10.214322 8.0123739 0
5.4977446 4.3125706 0.39028826
6.2728343 4.9328256 -0.44573519
10.206676 8.0263166 0
5.5149994 4.3368802 0.39188495
6.2852407 4.9548841 -0.44704184
10.176538 8.0225353 0
10.329421 8.1430588 0.73468679
6.3037052 4.9818025 -0.44878298
6.6325912 5.2417207 0
10.32161 8.1571436 0.73483181
6.3241563 5.0103912 -0.45066965
6.6201391 5.2448874 0
10.313782 8.1712217 0.73497683
6.3099666 5.0115709 -0.45008963
6.6015654 5.2431679 0
5.4858351 4.3570204 0.39130437
9.3468609 7.4420028 -0.66735214
6.6033692 5.2576251 0
7.541728 6.0047493 0.5384683
9.3561382 7.4678783 -0.66865826
6.5868435 5.257484 0
7.546648 6.0235806 0.53933883
9.3410187 7.4743061 -0.66822273
6.5865841 5.2703185 0
7.5454531 6.0375667 0.53977442
9.348196 7.4985948 -0.66938382
6.5883312 5.2847872 0
7.5543675 6.0596867 0.54093552
7.7232914 6.2105393 -0.55356836
6.5900536 5.2992673 0
7.5814624 6.0964904 0.54340273
7.6712794 6.1839929 -0.55037558
6.6018786 5.3219247 0
10.28476 8.2907791 0.73787963
7.6254005 6.1622248 -0.54761779
6.6075845 5.3397093 0
10.270689 8.2999306 0.73758906
7.5594068 6.1240077 -0.54340947
6.6152849 5.3591585 0
10.268729 8.3188772 0.73816961
6.545537 5.3157668 -0.4709886
6.5926433 5.3540225 0
10.25867 8.3312788 0.73816961
6.5532088 5.3351507 -0.47200418
6.543788 5.3274813 0
7.5082245 6.1126556 0.5407905
6.5407243 5.338141 -0.47156918
6.5232306 5.323864 0
7.4968033 6.1184344 0.54049999
6.5242081 5.3378086 -0.47084305
7.6346502 6.2463217 0
7.479351 6.1192632 0.53977442
6.5197682 5.3473406 -0.4709886
7.6250792 6.2538867 0
7.4779811 6.1332407 0.54020995
6.5072789 5.3502622 -0.47055304
7.6335988 6.2763186 0
7.4785933 6.1488733 0.5407905
6.5128365 5.3680339 -0.4714236
7.6340427 6.2921586 0
7.4631376 6.1512942 0.54020995
6.5043445 5.3742461 -0.47127861
7.6465006 6.3179584 0
7.4276514 6.1371331 0.53817773
6.4958467 5.3804455 -0.47113362
7.6388612 6.3271928 0
7.4122262 6.1394734 0.53759718
6.4893408 5.3882904 -0.47113362
7.6111841 6.3197899 0
6.3892956 5.3052201 0.46387023
6.4988022 5.4094262 -0.47229472
7.5895462 6.3173323 0
10.195203 8.4862099 0.7409274
6.5122085 5.4339194 -0.47374585
7.5819077 6.326498 0
10.204889 8.5151672 0.74237853
6.5096283 5.4451218 -0.4740364
7.5562859 6.320622 0
0 0 0
6.5090117 5.4579873 -0.47447139
7.5406666 6.3230586 0
10.208175 8.5598383 0.74412018
6.4984374 5.4625072 -0.47418138
7.5230618 6.3237944 0
10.199811 8.5738373 0.7442652
6.4838843 5.4636579 -0.47360083
7.5333247 6.347971 0
10.187459 8.5844831 0.74412018
8.0890331 6.8329706 -0.59144795
7.5057716 6.3402781 0
10.175096 8.5951109 0.74397516
7.9875755 6.763823 -0.58462679
7.4941368 6.3459826 0
10.144869 8.5906038 0.74252349
7.9338326 6.7347913 -0.58128846
7.4705911 6.3415594 0
6.5709133 5.5778503 0.48143139
7.9395437 6.7561622 -0.5823046
7.4470668 6.3370886 0
6.5503144 5.5739965 0.48041528
8.0163755 6.8382597 -0.58854514
10.019179 8.5467243 0
6.5396247 5.5785375 0.48012528
8.0258789 6.8631382 -0.58985126
10.004886 8.555439 0
6.5703959 5.6185169 0.48288253
7.8873854 6.7612252 -0.58027291
10.00047 8.5726042 0
6.5951672 5.6535101 0.48520476
7.8279738 6.7267227 -0.57649958
9.980237 8.5762024 0
6.6040974 5.6750231 0.48636585
7.8001494 6.719214 -0.57504791
8.0454979 6.9305625 0
6.5775442 5.6660361 0.48491418
7.7861228 6.7235374 -0.57461232
8.0351496 6.9385796 0
6.5254655 5.6349244 0.48157641
7.7622838 6.7193422 -0.57345176
8.0267601 6.9482837 0
6.4872179 5.6155944 0.47925416
7.7070575 6.6878438 -0.5699684
9.972084 8.6533337 0
6.4627666 5.6081033 0.47794804
7.3911891 6.429419 -0.5471828
9.963582 8.6670828 0
6.4795117 5.636373 0.47968972
7.7985816 6.8003712 -0.57795066
9.9629087 8.6876659 0
5.5072327 4.8023124 0.40813944
7.7884045 6.8080807 -0.5778057
9.952404 8.6996984 0
5.5112133 4.8175187 0.40886557
7.7723556 6.8106365 -0.57722515
9.9458027 8.7151508 0
5.5092931 4.8275962 0.40915558
7.7328844 6.7925854 -0.57490289
7.3759332 6.4790382 0
5.4897885 4.8222442 0.40813944
7.7071218 6.7864709 -0.57359678
7.3602862 6.4810662 0
10.078311 8.8744106 0.75007075
7.7067084 6.8026567 -0.57417732
7.3622108 6.4985714 0
10.067581 8.8865824 0.75007075
7.7101555 6.8222919 -0.57504791
7.3543534 6.5074625 0
10.056836 8.8987398 0.75007075
7.7019062 6.8316031 -0.57504791
7.338697 6.5094361 0
10.042184 8.9074335 0.74978018
7.2509289 6.4472566 -0.5419578
7.3366551 6.5234818 0
10.025587 8.9143791 0.74934465
7.2043386 6.4136281 -0.53876495
7.3210535 6.5175333 0
5.4071631 4.8137016 0.40436611
7.7083726 6.879056 -0.57707959
7.3054061 6.5194435 0
6.335752 5.6541109 0.4743197
7.6710114 6.8623834 -0.57490289
9.8965006 8.8532753 0
6.3327928 5.6652308 0.47461027
7.1733041 6.4327617 -0.5381844
9.8935461 8.8721771 0
6.320137 5.6676722 0.47417471
7.1654592 6.457036 -0.53876495
9.8817415 8.9047699 0
6.2697444 5.6498771 0.47141692
7.1518655 6.4604621 -0.53832942
9.8632498 8.9097252 0
7.1729884 6.4795437 0.53991938
7.1325006 6.4586377 -0.53745884
9.8679094 8.9356108 0
6.3427458 5.7434969 0.47794804
7.1189179 6.4620099 -0.53702331
9.8551807 8.9457808 0
6.3704295 5.7825899 0.48056027
7.1014967 6.4618649 -0.53629774
6.3681941 5.794611 0
6.3788128 5.8042731 0.4817214
7.0341763 6.4161615 -0.53179884
6.3438773 5.7865119 0
6.3775563 5.8172317 0.48215696
6.972724 6.3755603 -0.52773494
6.3445635 5.8011975 0
6.3647676 5.8196712 0.4817214
6.966929 6.385735 -0.52787995
6.331799 5.8035889 0
6.3558173 5.8256035 0.48157641
6.9611268 6.3959117 -0.52802551
6.3247819 5.8112354 0
6.3411198 5.8262467 0.48099583
6.9553027 6.4060769 -0.52817047
6.3962317 5.8911529 0
6.3398113 5.8391876 0.48143139
6.9437351 6.4109473 -0.52787995
6.398675 5.9077091 0
9.9275208 9.1657887 0.75471467
6.9226403 6.4069834 -0.52686435
6.3915319 5.9154363 0
9.9126282 9.1742516 0.75442469
6.8939376 6.3959012 -0.52526772
6.3195157 5.862977 0
4.7661881 4.4218659 0.36314872
6.8843036 6.4024587 -0.5251227
7.0403752 6.5476065 0
9.8942299 9.2017155 0.75471467
6.8746638 6.4090023 -0.52497768
6.8915968 6.4247885 0
9.8926058 9.2225218 0.75544024
6.8858957 6.4350424 -0.52642882
6.8096781 6.3638153 0
9.8871527 9.2397919 0.75587577
6.8894897 6.4540133 -0.5272994
6.8304749 6.3987288 0
9.8683949 9.244626 0.75529522
6.91957 6.4979086 -0.53020215
6.8606734 6.4426012 0
9.8742638 9.2725506 0.75660133
7.0403647 6.6273694 -0.54007107
6.9116306 6.506187 0
4.7945504 4.5132971 0.3677932
7.0474706 6.6501379 -0.54123223
7.0002928 6.6056199 0
4.7664151 4.4976869 0.36605152
7.0583038 6.6765013 -0.5426833
7.0773773 6.6945429 0
4.7458754 4.4891582 0.3648904
7.0577736 6.6921768 -0.54326391
7.0976124 6.7299519 0
4.7272468 4.4823723 0.36387429
7.0779352 6.7275543 -0.54544109
7.0913601 6.740314 0
4.7105303 4.4773436 0.36300373
7.0810852 6.7468529 -0.54631168
7.0417624 6.7093859 0
4.6938257 4.4722738 0.36213261
7.0372305 6.7213097 -0.54355443
6.9677854 6.6549816 0
4.6884184 4.477942 0.36213261
7.0253468 6.7262101 -0.54326391
6.9240203 6.6291986 0
4.6811295 4.4818087 0.36198762
7.0022163 6.7203002 -0.54210275
6.9141293 6.6357594 0
4.6794634 4.4910636 0.36227816
6.9716277 6.7071447 -0.54036164
6.8760986 6.6152396 0
4.6627946 4.4859018 0.36140704
6.9504237 6.7029352 -0.53934556
6.7482166 6.5079284 0
4.6536336 4.4879284 0.36111706
6.9553986 6.7239728 -0.54036164
6.6898336 6.4672437 0
4.650074 4.4953527 0.36126205
6.9360695 6.721519 -0.53949052
6.646503 6.4409094 0
4.6297107 4.4865017 0.36010092
6.9055767 6.708168 -0.53774887
6.3624535 6.1805711 0
4.6205621 4.4884748 0.35981095
6.8881598 6.7074451 -0.53702331
6.3214226 6.1555767 0
4.618855 4.4976768 0.36010092
6.8707547 6.7066898 -0.53629774
6.3903346 6.2377415 0
7.1384153 6.9679589 0.55719
6.8533616 6.7059021 -0.53557217
6.6785369 6.5348392 0
7.1169949 6.9638634 0.55617446
6.8434005 6.7123604 -0.53542721
4.7273259 4.6368051 0
7.1178489 6.9815536 0.55690002
6.8297243 6.7151575 -0.53499162
4.699451 4.6206183 0
7.1520181 7.0320449 0.56023782
6.8253031 6.7270494 -0.53528166
4.6808877 4.6135039 0
7.1971831 7.093576 0.56444675
6.8171701 6.7352915 -0.53528166
4.6623559 4.6063581 0
4.6748447 4.6186972 0.36706707
6.7794938 6.7142749 -0.53295994
7.2306242 7.1610651 0
4.6600313 4.6152015 0.3663415
6.2937918 6.2483277 -0.49537036
6.944941 6.894773 0
6.6569648 6.6088772 0.52395487
6.7393064 6.7068124 -0.53107327
6.818552 6.785676 0
6.6397672 6.6077528 0.52322936
6.7551107 6.7388062 -0.53295994
6.7937675 6.7773695 0
5.3919549 5.3789401 0.42541063
6.7579842 6.7579842 -0.53383052
6.7708516 6.7708516 0
5.3909583 5.3909583 0.42584562
6.8213792 6.8378839 -0.53949052
6.7700171 6.7863975 0
5.3789401 5.3919549 0.42541063
7.1741848 7.2089434 -0.56808174
4.5993648 4.6216483 0
5.3632512 5.389236 0.42468452
7.1551733 7.1985326 -0.56692064
4.5965719 4.6244264 0
6.8162174 6.857523 0.54006439
7.1263428 7.1868749 -0.56532395
4.5909805 4.6299767 0
5.3388376 5.3841863 0.4235234
7.115828 7.193635 -0.56517899
4.5798907 4.6299686 0
5.3305025 5.3887877 0.42337841
7.156404 7.2521601 -0.56909734
4.5962286 4.6577282 0
6.638011 6.726831 0.52787322
7.5176716 7.6366959 -0.59855968
4.5887733 4.6614256 0
6.6171231 6.7218895 0.52685767
7.5412068 7.6791415 -0.60117191
4.5740147 4.6576772 0
6.5762281 6.6965127 0.52424544
7.5428295 7.6993814 -0.60204244
4.5610986 4.6557646 0
6.5790386 6.7155871 0.52511603
7.5498648 7.7252131 -0.60334855
4.5518351 4.6575532 0
6.5945277 6.7476883 0.52700269
7.5586672 7.7529392 -0.60480022
4.5371218 4.6537347 0
6.6280847 6.798439 0.53034049
6.7685027 6.959269 -0.54224831
4.5314956 4.6592131 0
6.7104454 6.8995757 0.53759718
6.8071303 7.0159268 -0.5460217
4.5240521 4.6628194 0
6.7310548 6.9375176 0.53991938
6.7896137 7.0148134 -0.54529613
4.5075512 4.6570587 0
0 0 0
6.7666936 7.0080576 -0.54413497
4.5091515 4.6699905 0
6.6709518 6.9089007 0.53643608
6.7437997 7.0012569 -0.54297388
4.5035057 4.6754355 0
6.6391664 6.8926291 0.53454936
6.7191334 6.9925394 -0.54166776
4.4960513 4.6789989 0
5.5506563 5.7765164 0.44747016
6.714272 7.0044012 -0.5419578
4.4939928 4.6881819 0
5.9662118 6.2240171 0.48157641
9.3060684 9.7317028 -0.75210911
4.4973164 4.7030115 0
6.0161543 6.291317 0.48622087
6.9933429 7.348671 -0.56663007
4.4895296 4.7176404 0
5.9149504 6.2154856 0.47925416
6.8807049 7.2478261 -0.55821282
4.4874063 4.7268329 0
5.6569848 5.9588146 0.45893577
6.777246 7.1561446 -0.5505206
4.4852738 4.7360344 0
5.6605048 5.9769688 0.45980686
6.6758084 7.0661173 -0.54297388
6.7867746 7.1835713 0
5.6836128 6.0159121 0.4622741
6.5781593 6.9796343 -0.53571719
6.7602434 7.1728311 0
5.6834683 6.0303392 0.46285465
6.5287881 6.9440413 -0.53237939
6.5929213 7.0122538 0
5.6779561 6.0390935 0.46299967
6.5150585 6.9462376 -0.53194386
6.5666366 7.0012288 0
5.6777654 6.0535307 0.46358022
6.4960117 6.9427238 -0.53107327
7.4489536 7.9611964 0
0 0 0
6.4255605 6.8840818 -0.52599329
6.4768991 6.9390836 0
5.6719832 6.0767298 0.46430579
6.3995337 6.8728275 -0.52454215
6.4294963 6.9050059 0
5.6681743 6.0873785 0.46459576
6.4265933 6.9186316 -0.52744496
6.3892632 6.8784437 0
5.6643553 6.0980344 0.46488634
6.9091835 7.4562178 -0.56779122
7.3095636 7.888298 0
5.6569829 6.1048741 0.46488634
6.958374 7.5275264 -0.57258064
7.3053284 7.9028597 0
5.6531262 6.1155176 0.46517634
7.0091615 7.600873 -0.57751513
7.3134198 7.9308167 0
5.6510191 6.1280766 0.4656119
7.0386715 7.6514049 -0.58070791
7.3214478 7.9587975 0
5.6436105 6.1349001 0.4656119
7.0628042 7.696281 -0.5834657
7.2995067 7.9542141 0
5.6414657 6.14746 0.46604747
7.0622706 7.7143903 -0.58419126
6.29003 6.8708425 0
5.6392922 6.1600165 0.46648246
7.0634546 7.734427 -0.58506185
6.2869835 6.8841972 0
5.614326 6.1476426 0.46503133
7.0576072 7.7468014 -0.58535236
6.2769094 6.8898668 0
5.6383891 6.188993 0.46764356
7.0342603 7.7399397 -0.58419126
6.233573 6.8589272 0
9.4580135 10.406845 0.78548259
7.0039592 7.7253332 -0.58244962
6.9681554 7.6858416 0
11.585063 12.778268 0.96341437
7.0172768 7.7588415 -0.58433628
6.9588633 7.6942554 0
11.557419 12.778772 0.96239883
7.1662903 7.9428735 -0.59754354
6.9600182 7.7142482 0
11.529783 12.779221 0.96138269
7.187974 7.9862876 -0.60015577
6.2334304 6.9257302 0
11.491737 12.768037 0.95949602
7.0793762 7.8847685 -0.59188354
6.2598314 6.9719868 0
11.458944 12.762582 0.95804489
6.8479447 7.6455712 -0.5733062
9.2603302 10.338943 0
11.415777 12.74545 0.95572269
6.8231215 7.6364026 -0.57200009
9.2460918 10.348179 0
6.5425873 7.3224306 0.54848224
6.8138895 7.6446414 -0.57200009
9.242238 10.369056 0
6.5562096 7.3555455 0.55036891
6.7977409 7.645102 -0.57141954
9.2331638 10.384109 0
6.547317 7.363462 0.55036891
6.7936726 7.6591439 -0.57185513
9.2257929 10.4011 0
6.5401378 7.3733101 0.55051386
6.8050761 7.6906991 -0.57359678
12.201795 13.789755 0
6.5553341 7.4084549 0.55254614
6.8353233 7.7437162 -0.57693458
12.176508 13.794727 0
6.5670123 7.4397473 0.55428779
6.8912125 7.8260722 -0.58244962
12.137474 13.78404 0
6.549427 7.4379206 0.55356169
6.9074755 7.8636789 -0.58462679
12.105353 13.7811 0
6.5267162 7.4302111 0.55240059
7.1274323 8.1338854 -0.60407466
12.064684 13.768318 0
10.874084 12.409595 0.92161644
7.2766261 8.3244181 -0.61757141
12.020634 13.751535 0
10.85395 12.416855 0.92118084
7.2443633 8.3077459 -0.61568469
11.983484 13.742512 0
10.811621 12.398633 0.91885918
7.142076 8.2004404 -0.60741246
11.954669 13.726199 0
10.797301 12.397325 0.91827863
7.1236424 8.1992588 -0.60668689
11.90906 13.707237 0
6.3277359 7.2831759 0.5389033
7.125638 8.2215996 -0.60770249
11.865223 13.690158 0
6.3189306 7.2908163 0.5389033
7.1411924 8.2596903 -0.60987967
11.82484 13.676919 0
6.3084188 7.2964826 0.53875828
7.1855135 8.3312798 -0.61452419
11.78621 13.66558 0
6.3046908 7.3100047 0.53919387
7.2381377 8.4128265 -0.61989361
11.747625 13.654166 0
10.681533 12.415056 0.91479528
7.2736616 8.4748068 -0.62381256
11.700612 13.632807 0
10.649605 12.408239 0.91334414
7.2836957 8.5072756 -0.6255542
11.665511 13.625187 0
10.621084 12.405308 0.91218305
7.2649684 8.5061846 -0.6248281
11.623692 13.609594 0
6.4042845 7.4984536 0.55080444
7.2243552 8.4793587 -0.62221587
11.578547 13.589953 0
6.4002767 7.5121222 0.55124003
7.210742 8.4841251 -0.62192583
11.541893 13.580138 0
6.527492 7.6802168 0.56299561
7.2156072 8.5106678 -0.62323195
11.50528 13.570253 0
6.5870948 7.7693501 0.56894565
7.2439075 8.5650072 -0.62656975
11.467029 13.558315 0
6.5558901 7.751513 0.56705892
7.2452836 8.5876579 -0.62758589
11.428823 13.546304 0
6.3086014 7.4774313 0.54645056
7.2298808 8.5904398 -0.6271503
11.385633 13.528245 0
6.2159057 7.3856492 0.53919387
7.1894245 8.5633516 -0.62453806
11.349198 13.518074 0
6.1936107 7.377234 0.53803271
7.1657252 8.5560961 -0.62337697
11.30612 13.499854 0
6.1863589 7.3867025 0.53817773
7.1520462 8.5607557 -0.62308639
11.278125 13.499531 0
6.1574373 7.3702426 0.53643608
7.1300569 8.5554247 -0.62207085
11.24514 13.493153 0
10.283925 12.339782 0.89723408
7.0997806 8.5400562 -0.6203292
11.217187 13.492727 0
10.277318 12.362195 0.89796025
7.0529675 8.5046291 -0.61713642
6.6839871 8.0597038 0
6.6166682 7.9785295 0.57896012
7.0161848 8.4811106 -0.61481416
6.6742435 8.0677748 0
6.6583638 8.0485792 0.58345902
7.027431 8.5156345 -0.61670083
6.6611743 8.0718145 0
7.0075083 8.4914923 0.61495245
6.9857635 8.4860086 -0.61394358
6.6530685 8.0818653 0
7.0220165 8.5300474 0.61712968
6.9540687 8.468339 -0.61205691
6.6581678 8.1080055 0
6.9919157 8.5144281 0.61538804
6.9487662 8.4827604 -0.61249191
6.6648545 8.1361732 0
6.9058814 8.4304085 0.6087119
7.0103312 8.6002293 -0.61974865
10.880707 13.348381 0
6.8083305 8.352416 0.60189074
7.0818973 8.7094936 -0.62700534
4.4845705 5.5152364 0
6.8228245 8.3908796 0.60406798
7.1270189 8.7866545 -0.63193977
4.4762654 5.5186319 0
5.511426 6.7948456 0.48868808
7.1409087 8.8255539 -0.63411647
4.4712296 5.5260577 0
0 0 0
7.1498237 8.8584404 -0.63585812
4.4678211 5.5355105 0
0 0 0
7.1521516 8.8832645 -0.63701922
4.4464359 5.522655 0
0 0 0
7.1300273 8.8777246 -0.63600367
4.4413939 5.5300589 0
5.4817719 6.8254519 0.48897809
7.1046686 8.8680763 -0.63469702
4.426568 5.52526 0
5.4767733 6.8361306 0.48926866
7.1004367 8.8847733 -0.63527757
10.587078 13.247606 0
5.474998 6.8508625 0.48984921
7.0670228 8.8649044 -0.63324589
10.561333 13.248183 0
5.4748135 6.86763 0.49057478
7.0563059 8.8734379 -0.63324589
10.522643 13.232421 0
5.500473 6.9169478 0.49362257
7.0407329 8.8758478 -0.63281035
10.495323 13.230852 0
5.5373201 6.9805818 0.49768591
7.0300031 8.8843489 -0.63281035
10.474483 13.237399 0
5.5530691 7.0178351 0.49986315
7.484509 9.4822655 -0.67475384
10.435909 13.22145 0
5.5510249 7.0326982 0.5004437
7.4650102 9.4810963 -0.67402828
10.392558 13.199291 0
5.5232339 7.0149016 0.49870202
7.1742907 9.1345491 -0.64877486
10.346058 13.17295 0
5.505127 7.0093126 0.49783146
7.070312 9.0245867 -0.64035761
6.6436162 8.47995 0
5.488636 7.0057263 0.49710536
7.0305986 8.9962654 -0.63774478
6.6574049 8.5187321 0
5.4785686 7.0103078 0.49696034
7.0037503 8.9842653 -0.63629371
6.6759048 8.5637112 0
5.4621077 7.0066776 0.4962348
6.9960766 8.9968195 -0.63658369
6.6959014 8.6107998 0
5.4329028 6.9866085 0.49434811
7.0090914 9.0360661 -0.63876092
6.7014461 8.639452 0
5.3989754 6.9603171 0.49202588
7.0013514 9.0486431 -0.6390515
6.7101135 8.6722431 0
5.3683023 6.9380679 0.4899942
7.0205731 9.0961733 -0.64180869
6.6900859 8.6679792 0
5.3535647 6.9363213 0.48941365
7.0587125 9.1684713 -0.64630759
6.6335678 8.6162558 0
5.343596 6.9407282 0.48926866
7.096693 9.2408819 -0.65080708
6.4345317 8.3786554 0
5.3352056 6.9471798 0.48926866
6.993875 9.1298132 -0.64238924
6.3357816 8.2707376 0
5.3268075 6.9536214 0.48926866
6.9181547 9.0536079 -0.63643867
6.1187954 8.0075073 0
5.3184013 6.9600525 0.48926866
6.8748555 9.0082188 -0.63295591
6.0776467 7.9636254 0
5.3189201 6.9694552 0.48970366
6.8340597 8.9772348 -0.63019812
6.0081201 7.8922787 0
5.3073502 6.971746 0.48941365
6.8169217 8.9772081 -0.62961757
6.8153796 8.9751778 0
5.2942066 6.9719434 0.48897809
6.8594103 9.0558596 -0.634552
6.7935348 8.9688902 0
5.270092 6.9576263 0.48752698
7.0583558 9.3419399 -0.65399987
5.2374325 6.9318948 0
5.1661305 6.8375249 0.47867361
7.09554 9.4147844 -0.65849876
5.2353182 6.9465318 0
5.0687284 6.7254906 0.47040135
5.3136048 7.0681596 -0.49391925
0 0 0
5.0434213 6.7087612 0.46880469
5.3050609 7.0745749 -0.49391925
5.1966543 6.9300094 0
5.0337543 6.7127738 0.4686597
5.2965088 7.0809803 -0.49391925
5.1867194 6.9342012 0
5.0303102 6.7250953 0.46909523
5.2832856 7.0811248 -0.49348369
5.1783371 6.9404635 0
5.0315008 6.7436604 0.46996579
5.2623148 7.0708275 -0.49232256
5.1668425 6.942544 0
4.2042723 5.6491647 0.39333606
5.2398291 7.0584049 -0.49101645
5.1599998 6.9508696 0
4.2005439 5.6584172 0.39362663
5.217381 7.045939 -0.48971036
5.1500502 6.9550099 0
4.1813331 5.6467829 0.3924655
5.1903381 7.0271564 -0.48796868
5.1478271 6.9696012 0
5.2844372 7.1545558 0.49681535
5.1725988 7.020875 -0.48709813
5.1455708 6.984189 0
5.305068 7.2006779 0.49957258
0 0 -0
5.1386738 6.9925046 0
5.3102107 7.2259254 0.50087869
5.1172199 6.9809723 -0.96476656
5.1632967 7.0438309 -0.48782367
5.1348324 7.0049996 0
4.1570616 5.6711135 0.39275551
5.1041994 6.9808846 -0.9639014
5.1501794 7.0437698 -0.4873881
5.1309738 7.0175033 0
4.1471419 5.6719413 0.3924655
5.1079535 7.0037651 -0.96620774
5.1431999 7.052093 -0.48753366
5.1270928 7.0300083 0
4.1356907 5.6706476 0.39202994
5.1070933 7.0203876 -0.96764892
5.1423168 7.0688071 -0.48825923
5.1262484 7.0467186 0
4.1211944 5.6651363 0.39130437
5.1062007 7.0370188 -0.9690901
5.1337719 7.0750151 -0.48825923
5.1039753 7.0339522 0
4.1189256 5.6764235 0.39173993
5.096179 7.04109 -0.96880209
5.1252193 7.0812135 -0.48825923
7.1843123 9.9261408 0
4.1181579 5.689816 0.39232051
5.0922108 7.0535359 -0.96966726
5.1242623 7.0979328 -0.48898479
7.1707859 9.9326982 0
4.1097546 5.6926751 0.39217496
5.0791488 7.0533853 -0.96880209
6.5171156 9.0502815 -0.62294143
5.7323537 7.9604874 0
4.0907254 5.6807675 0.39101383
5.0736427 7.0637226 -0.96937925
6.5228515 9.0813675 -0.62453806
5.7227306 7.9674077 0
4.0702171 5.6667142 0.38970771
5.0635934 7.0677395 -0.9690901
6.536087 9.1230383 -0.62686032
5.7252192 7.9912333 0
4.0542898 5.6589584 0.38883716
5.0580602 7.0780654 -0.96966726
6.5718884 9.1964617 -0.63135922
5.715559 7.9981451 0
4.0489583 5.6659651 0.38898215
5.0570087 7.0947008 -0.97110844
7.3269053 10.279239 -0.70508617
5.7209992 8.0262423 0
4.0390959 5.6666255 0.38869217
5.0604224 7.1176701 -0.97341478
7.3054485 10.275381 -0.70421559
5.7248673 8.0522366 0
4.0337501 5.6736174 0.38883716
5.0578032 7.1322188 -0.97456795
7.2840056 10.27148 -0.70334452
5.7226596 8.0697603 0
4.0238824 5.6742444 0.38854659
5.0581408 7.1509905 -0.97629714
6.3788199 9.0181131 -0.6169914
7.0684328 9.9930592 0
4.0005217 5.6557727 0.38695049
5.0524812 7.1613283 -0.97687429
6.3604245 9.015192 -0.6162653
4.0333867 5.7168756 0
3.9787023 5.6393666 0.38549882
5.0423317 7.1653066 -0.97658515
6.3540144 9.0292473 -0.61670083
4.0234776 5.717484 0
3.961422 5.6293006 0.38448325
5.0307012 7.1671638 -0.97600913
6.3386197 9.0305357 -0.6162653
4.0180659 5.7244778 0
3.9561086 5.6362081 0.38462824
5.0205555 7.1711206 -0.97572112
6.3277035 9.0381889 -0.6162653
5.599175 7.9975934 0
3.9463177 5.6367311 0.38433826
5.0148454 7.1814189 -0.97629714
6.3167782 9.0458279 -0.6162653
5.5939789 8.0107565 0
3.9409902 5.6436234 0.38448325
5.0033793 7.2020135 -0.97745031
6.287488 9.0503988 -0.61553973
5.5686646 8.0157022 0
3.919929 5.6424627 0.38375768
4.9902525 7.201674 -0.97658515
6.2750692 9.0558558 -0.61539471
5.5693521 8.0374012 0
3.9086668 5.6407857 0.38332215
4.9918423 7.2225947 -0.97860348
6.2655983 9.0655661 -0.61553973
5.5566745 8.0398388 0
3.8915052 5.6305394 0.38230601
4.9875169 7.2350116 -0.97946864
6.270864 9.0966654 -0.61713642
5.5410476 8.0379763 0
3.8861723 5.6373749 0.38245103
6.2834234 9.1384945 -0.61945862
5.5254331 8.036087 0
3.8823051 5.6463528 0.38274157
6.2929487 9.1760769 -0.6214903
5.5157189 8.042758 0
3.9092767 5.7003207 0.38607937
6.2877245 9.1922531 -0.62207085
5.5118742 8.0580091 0
3.971338 5.8058434 0.39290106
6.2780762 9.2019882 -0.62221587
8.5644884 12.553261 0
4.022892 5.8964887 0.39870608
6.2786474 9.2267532 -0.62337697
6.9315453 10.186216 0
4.0216117 5.9099383 0.39928663
6.2704096 9.2386293 -0.62366694
6.8870816 10.147214 0
4.0100884 5.9083409 0.3988511
6.2694402 9.2612629 -0.62468308
6.8529305 10.123199 0
3.9752743 5.8723049 0.39609385
6.2596979 9.2709837 -0.6248281
6.8421483 10.133627 0
3.8518577 5.7048297 0.38448325
6.2354293 9.2591448 -0.62352198
6.1903019 9.1921339 0
3.810127 5.657753 0.38099989
6.196485 9.2133245 -0.62018418
6.1978173 9.2153053 0
3.7791598 5.6190929 0.37824267
6.1535053 9.1733351 -0.6169914
6.1866779 9.2227879 0
3.7651255 5.6128592 0.37751657
6.1236281 9.1526823 -0.61510414
6.1871071 9.2475605 0
3.7699003 5.6346822 0.37867767
6.0952625 9.1341457 -0.61336303
6.1802635 9.2615261 0
3.8034739 5.6997523 0.38274157
6.0813389 9.1371737 -0.61307251
6.2036753 9.3209829 0
3.8440928 5.7757258 0.38753104
6.0616741 9.1315298 -0.61220193
6.2082362 9.3523169 0
3.852915 5.8041739 0.38912717
6.0735879 9.1735134 -0.61452419
6.2069898 9.3750038 0
3.8516369 5.8174915 0.38970771
6.0997243 9.2372189 -0.61829752
6.1942248 9.3803272 0
3.8446047 5.8221412 0.38970771
6.1042757 9.2684469 -0.61989361
8.3313942 12.65 0
3.8390005 5.828959 0.38985327
6.0959282 9.2801638 -0.62018418
8.3161039 12.660058 0
3.8362303 5.8401022 0.39028826
6.0733185 9.2701349 -0.61902308
8.2908154 12.654857 0
3.8334441 5.8512559 0.39072382
6.0379515 9.240489 -0.61655581
6.0961447 9.3295479 0
3.8334765 5.8667579 0.39144939
6.016849 9.2325373 -0.61553973
6.0706606 9.3151083 0
9.3009672 14.271843 0.95151377
6.0028596 9.2354479 -0.61524969
6.0537276 9.3137083 0
9.2936296 14.298324 0.95252985
5.964839 9.2012644 -0.61249191
6.0382209 9.3144627 0
9.274929 14.307356 0.95238429
6.4474812 9.9721584 -0.66328824
5.5380797 8.5656099 0
4.5118666 6.9783916 0.46416077
6.4283876 9.9690247 -0.66256267
5.5333672 8.5810442 0
4.4977984 6.9751029 0.46358022
6.406497 9.9614849 -0.66154659
5.5328503 8.6030483 0
4.4935794 6.987083 0.46401522
6.3860412 9.9560995 -0.660676
5.5238547 8.6119156 0
4.4837322 6.9903221 0.46387023
6.3600011 9.9419155 -0.65922433
5.5022254 8.6010456 0
4.4836869 7.0088725 0.46474135
6.3256269 9.9145527 -0.65690267
8.2366858 12.909875 0
4.4835978 7.0274239 0.4656119
6.2955093 9.8936911 -0.65501601
8.2182837 12.915422 0
4.4792895 7.0394154 0.46604747
6.2835503 9.9012909 -0.65501601
8.1998863 12.920953 0
4.4512854 7.0141029 0.46401522
6.2757468 9.9154568 -0.655451
8.2023602 12.959437 0
4.4233541 6.9887419 0.46198356
6.2831821 9.9537992 -0.65748322
8.2019777 12.993548 0
5.0418043 7.9872112 0.52758324
6.3002205 10.00756 -0.66053098
8.1834955 12.999041 0
5.0266123 7.9845018 0.52700269
6.3129916 10.054772 -0.66314322
8.1650181 13.004516 0
5.0128145 7.9839654 0.5265671
6.3104873 10.077804 -0.66415882
5.9768019 9.5449095 0
6.0098119 9.5976267 0.63251364
6.3120718 10.107465 -0.66561049
5.9597502 9.5432949 0
5.9885745 9.5894508 0.6314975
6.3259511 10.156985 -0.66836768
5.9537182 9.5593252 0
5.9495139 9.5525761 0.62859529
6.30545 10.151381 -0.66749716
8.1418848 13.107927 0
4.5313449 7.2951827 0.47968972
6.2712855 10.123651 -0.6651749
8.1370049 13.135455 0
5.8347344 9.418932 0.61887139
6.1962285 10.029536 -0.65849876
8.1197605 13.143065 0
5.8247137 9.4281836 0.61901635
6.1813817 10.032596 -0.65820879
8.1188917 13.177241 0
4.9328403 8.0061703 0.52526098
6.1733317 10.046693 -0.65864378
8.1111355 13.200342 0
4.9122801 7.9944139 0.52409989
6.238575 10.180429 -0.66691661
8.0965385 13.21235 0
5.8298707 9.513484 0.62322527
6.2709832 10.261125 -0.67170602
5.8617949 9.5915756 0
5.8183713 9.5205221 0.62322527
6.2693987 10.286445 -0.67286718
5.8529077 9.6030912 0
5.8041563 9.5231037 0.6229347
6.2529144 10.287349 -0.67243159
5.8399491 9.607935 0
6.309535 10.380501 0.6785205
6.276844 10.354887 -0.67634994
5.8229394 9.606082 0
4.42346 7.2973661 0.47664192
6.2952471 10.41361 -0.67968827
5.8005571 9.595293 0
4.4119534 7.2982626 0.47635195
6.320219 10.48351 -0.68375164
8.0515966 13.355391 0
4.4111786 7.316936 0.4772225
6.3503919 10.562402 -0.6883961
8.0408173 13.374031 0
4.3902855 7.3022203 0.47591639
6.3723636 10.628006 -0.69216943
8.0340204 13.399364 0
0 0 0
6.3795209 10.669152 -0.69434667
8.025835 13.42246 0
4.3086176 7.20576 0.46894968
6.3626308 10.670156 -0.69391114
8.0176105 13.445563 0
0 0 0
6.3430943 10.666671 -0.69318557
8.0040169 13.45971 0
4.2593217 7.1625586 0.46546689
6.3341732 10.681026 -0.69362056
8.0023508 13.493998 0
4.2466865 7.1609926 0.46503133
6.3212628 10.688672 -0.69362056
7.9926629 13.514854 0
4.2472911 7.181777 0.46604747
6.3055582 10.676833 -0.69260502
7.9884682 13.526406 0
4.2627683 7.217896 0.46822414
6.1507821 10.472476 -0.67838216
7.9715729 13.5726 0
4.2492619 7.2349005 0.4686597
6.0632696 10.352099 -0.67010939
7.126574 12.167528 0
4.2234459 7.2108836 0.466773
6.0415816 10.34371 -0.66909325
7.1105504 12.173876 0
4.2081785 7.2047648 0.46604747
6.0251594 10.344273 -0.66865826
7.0919099 12.175719 0
4.206008 7.2210689 0.466773
6.0152636 10.356035 -0.66894823
7.0628128 12.159523 0
4.2325134 7.2868061 0.47069135
6.0248857 10.401518 -0.67141551
7.054636 12.179305 0
4.2432432 7.325644 0.47286859
6.0344062 10.447039 -0.67388272
7.0685496 12.237395 0
4.2356868 7.333014 0.47301358
6.0373421 10.481342 -0.67562437
7.0823379 12.295545 0
4.2099638 7.3088574 0.47112691
6.0143189 10.470604 -0.67446327
6.0434875 10.521384 0
4.1752448 7.2688751 0.46822414
5.9952068 10.466592 -0.6737377
6.0230064 10.515125 0
4.152256 7.2491188 0.46662802
5.9658027 10.444498 -0.67185104
6.0077176 10.51788 0
4.1473565 7.2608933 0.46706301
5.932601 10.415573 -0.66952884
5.9924259 10.520604 0
4.1360102 7.2613878 0.466773
5.9123139 10.409182 -0.66865826
5.9694314 10.509743 0
7.9218459 13.94715 0.89592797
5.8933306 10.405015 -0.66793269
5.955442 10.514677 0
7.8537683 13.866282 0.89012295
5.8794723 10.40986 -0.66778713
5.9401755 10.517337 0
7.7820635 13.77848 0.8838824
5.8668895 10.416956 -0.66778713
5.9300146 10.529037 0
7.7488337 13.758442 0.88199574
5.8606639 10.435372 -0.66851324
5.9274831 10.554349 0
7.734746 13.772322 0.88228571
5.8531246 10.451506 -0.66909325
5.9159966 10.563771 0
7.7193675 13.783923 0.88243073
5.8531632 10.481261 -0.67054492
5.9095759 10.58228 0
7.7052431 13.797782 0.88272125
5.8518705 10.508756 -0.67185104
5.9056444 10.605322 0
7.6898284 13.80935 0.88286626
5.8404288 10.518088 -0.67199606
5.8978791 10.621552 0
7.6857491 13.841345 0.8843174
5.8289733 10.52741 -0.67214102
5.888824 10.635503 0
7.6652465 13.843808 0.8838824
5.8162484 10.534445 -0.67214102
5.8835135 10.656276 0
7.7276335 13.996364 0.89302576
5.8022633 10.53919 -0.67199606
5.8781667 10.67706 0
7.7683554 14.110387 0.89970136
5.7907739 10.54847 -0.67214102
5.8627539 10.679588 0
6.483427 11.810205 0.75253803
5.7880054 10.573693 -0.67330217
4.1766829 7.6300836 0
6.4703984 11.820308 0.75268298
5.7839408 10.596647 -0.67431825
4.1674604 7.6351247 0
4.4394321 8.133399 0.5175693
5.782311 10.624166 -0.67562437
4.1569843 7.6378622 0
4.4320831 8.1433172 0.51785934
5.7719507 10.635717 -0.67591494
4.1378217 7.6245809 0
4.4234786 8.1509485 0.5180043
5.7665129 10.656391 -0.67678553
4.1261311 7.6250014 0
4.3987913 8.1288719 0.51626319
5.7622709 10.679361 -0.67780161
5.8247213 10.795103 0
4.3519468 8.0655727 0.51190871
5.7518225 10.690888 -0.67809165
5.8042727 10.788378 0
4.3003421 7.9930282 0.50697428
5.743814 10.706989 -0.67867219
4.0529451 7.5550566 0
4.2796268 7.9776125 0.50566816
5.7394528 10.729963 -0.67968827
4.0364504 7.5461841 0
4.2614088 7.9667454 0.50465262
5.7264833 10.73689 -0.67968827
4.023654 7.5441647 0
4.2419968 7.953547 0.50349146
5.7244849 10.764447 -0.68099439
4.012094 7.5444298 0
6.260005 11.77145 0.74470073
5.7175593 10.782833 -0.68171996
3.9980984 7.5400748 0
6.2689018 11.822618 0.74745798
5.7093844 10.798922 -0.68230051
3.9634416 7.4965868 0
6.2533984 11.827888 0.74731296
5.7023892 10.817304 -0.68302608
6.5501728 12.425529 0
4.2689371 8.0980778 0.51132876
0 0 -0
5.7014065 10.847191 -0.68447775
6.5581565 12.477198 0
4.2676082 8.1193237 0.5123443
