# .PCD v0.7 - Point Cloud Data file format
VERSION 0.7
FIELDS x y z
SIZE 4 4 4
TYPE F F F
COUNT 1 1 1
WIDTH 1758
HEIGHT 1
VIEWPOINT 0 0 0 1 0 0 0
POINTS 1758
DATA ascii
0 0 0
2.5743821 40.527897 2.268296
0 0 -0
0 0 0
2.5323582 40.64249 2.2745366
0 0 -0
0 0 0
2.4899027 40.754448 2.2806323
0 0 -0
0 0 0
2.4442291 40.817074 2.2839699
0 0 -0
0 0 0
2.3970387 40.856319 2.2860022
0 0 -0
0 0 0
2.3494589 40.890316 2.2877438
0 0 -0
0 0 0
2.3058853 40.996887 2.2935488
0 0 -0
0 0 0
2.253777 40.95295 2.2909367
0 0 -0
3.3870766 62.931728 0
2.2090397 41.043858 2.295871
0 0 -0
0 0 0
2.1638126 41.12952 2.3005149
0 0 -0
0 0 0
2.1145144 41.139893 2.3009505
0 0 -0
0 0 0
2.065064 41.147614 2.3012412
0 0 -0
0 0 0
2.0177584 41.199383 2.3039985
0 0 -0
0 0 0
1.966736 41.175842 2.3025472
0 0 -0
0 0 0
2.3532863 51.216427 2.8637722
0 0 -0
0 0 0
0 0 0
0 0 -0
0 0 0
1.738236 39.935181 2.2327387
0 0 -0
0 0 0
1.6926174 39.999557 2.236222
0 0 -0
2.4800203 60.333061 0
1.6438576 39.991188 2.2356415
0 0 -0
2.4075327 60.346416 0
1.5951205 39.982761 2.2350609
0 0 -0
2.3323004 60.289474 0
1.547712 40.008026 2.236367
0 0 -0
0 0 0
1.4996606 40.017651 2.2368021
0 0 -0
0 0 0
1.4527186 40.058384 2.2389793
0 0 -0
0 0 0
1.407683 40.156193 2.2443492
0 0 -0
0 0 0
1.3612702 40.220181 2.2478321
0 0 -0
0 0 0
0 0 0
0 0 -0
0 0 0
0 0 0
0 0 -0
0 0 0
1.2106014 40.063835 2.2388341
0 0 -0
0 0 0
1.1587256 39.945797 2.2321582
0 0 -0
0 0 0
1.1093029 39.905609 2.229836
0 0 -0
0 0 0
1.0623962 39.956276 2.2325938
0 0 0
1.0155005 40.012077 2.2356415
0 0 0
0.96991539 40.127563 2.242027
0 0 -0
0 0 0
0.92220378 40.162476 2.2439137
0 0 0
0.85316235 39.220592 2.1912308
0 0 -0
0 0 0
0.80625159 39.244972 2.1925368
0 0 0
0.75832886 39.219944 2.1910858
0 0 -0
0 0 0
0.74976736 40.028336 2.236222
0 0 0
0.70162797 40.042198 2.2369475
0 0 -0
0 0 0
0.65337127 40.050804 2.2373827
0 0 -0
0 0 0
0.60450643 40.020397 2.2356415
0 0 -0
0 0 0
0.556113 40.01849 2.2354958
0 0 0
0.5073626 39.987965 2.2337549
0 0 -0
0 0 0
0.45868665 39.957371 2.2320132
0 0 0
0.41013873 39.931908 2.2305615
0 0 -0
0 0 0
0.36125278 39.862225 2.2266431
0 0 0
0.31318885 39.875622 2.2273686
0 0 -0
0 0 0
0.25832427 38.870453 2.1712029
0 0 0
0.21125782 38.852543 2.1701868
0 0 -0
0 0 0
0.16450973 38.899536 2.1727991
0 0 0
0.11743648 38.876324 2.1714928
0 0 -0
0 0 0
0.070447825 38.868641 2.1710572
0 0 -0
0 0 0
0.023487331 38.876495 2.1714928
-0 0 0
-0.023465356 38.840122 2.1694613
-0 0 -0
-0 0 0
-0.070348933 38.814075 2.1680095
-0 0 0
-0.11716178 38.785385 2.1664133
-0 0 -0
-0 0 0
-0.16427897 38.844975 2.1697512
-0 0 -0
-0 0 0
-0.21111655 38.826565 2.1687357
-0 0 0
-0.25771984 38.779507 2.1661229
-0 0 -0
-0 0 0
-0.30384251 38.685635 2.1608984
-0 0 0
-0.35018602 38.641068 2.1584311
-0 0 -0
-0 0 0
-0.39655569 38.60944 2.1566894
-0 0 -0
-0 0 0
-0.44320738 38.608932 2.1566894
-0 0 -0
-0 0 0
-0.46738058 38.678802 2.1606078
-0 0 -0
-0 0 0
-0.51539379 38.774342 2.165978
-0 0 -0
-0 0 0
-0.56265914 38.802273 2.1675746
-0 0 -0
-0 0 0
-0.61223722 38.973026 2.1771529
-0 0 0
-0 0 0
-0 0 -0
-0 0 0
-0 0 0
-0 0 0
-0.73954302 38.24836 2.1368067
-0 0 -0
-0 0 0
-0.78618491 38.268211 2.1379671
-0 0 -0
-0 0 0
-0.83208507 38.251652 2.1370966
-0 0 0
-0.87782687 38.229836 2.1359355
-0 0 -0
-0 0 0
-0.92314065 38.192387 2.1339037
-0 0 0
-1.0017881 39.471794 2.2054536
-0 0 -0
-0 0 0
-1.0497576 39.480946 2.2060342
-0 0 0
-1.0944295 39.37056 2.1999385
-0 0 0
-1.1890987 39.352222 2.1990681
-0 0 0
-1.2349334 39.296219 2.1960201
-0 0 0
-1.2815669 39.26873 2.1945691
-0 0 0
-1.3224226 39.072388 2.1836841
-0 0 0
-1.3684497 39.037006 2.1817973
-0 0 -0
-0 0 0
-1.4143931 39.001568 2.1799107
-0 0 0
-1.4617122 39.00502 2.1802006
-0 0 -0
-0 0 0
-0 0 0
-0 0 0
-1.8440181 46.221546 2.5838127
-0 0 0
-1.5662818 38.673306 2.1619139
-0 0 0
-1.6125771 38.661011 2.161334
-0 0 -0
-0 0 0
-1.6570616 38.607109 2.1584311
-0 0 -0
-0 0 0
-1.7037096 38.60508 2.1584311
-0 0 0
-0 0 0
-0 0 0
-1.8823035 40.433277 2.2608943
-0 0 0
-2.1633451 45.292076 2.5327265
-0 0 0
-2.2181971 45.292019 2.5328715
-0 0 0
-2.0183089 40.215992 2.2491388
-0 0 -0
-0 0 0
-2.0646331 40.169411 2.2466714
-0 0 0
-2.1107111 40.120174 2.2440586
-0 0 -0
-0 0 0
-2.1598849 40.130566 2.2447844
-0 0 0
-0.79487258 14.443477 0.80797821
-0 0 -0
-0 0 0
-0.81188625 14.43472 0.80754262
-0 0 0
-0.82783693 14.407792 0.80609155
-3.4241614 58.36311 0
-0.84539735 14.409372 0.80623651
-3.4928126 58.327755 0
-0.86203122 14.395374 0.805511
-3.5563047 58.209194 0
-0.87910736 14.38913 0.80522043
-3.6188688 58.080185 0
-0 0 0
-0 0 -0
-3.6911893 58.109535 0
-0 0 0
-0 0 -0
-3.7666118 58.185532 0
-0.93210059 14.398821 0.80594653
-2.2795789 34.566326 0
-0.94949806 14.397684 0.80594653
-0 0 -0
-2.3276222 34.657024 0
-0.97107249 14.458739 0.80942935
-0 0 -0
-2.3686092 34.641209 0
-1.0016589 14.649387 0.82016939
-2.3918655 34.673519 0
-1.0210593 14.801718 0.82873219
-1.3046695 18.585924 0
-1.0420365 14.844536 0.83119941
-1.3273119 18.586939 0
-1.0621935 14.874368 0.83294106
-0 0 0
-1.0818594 14.896396 0.83424717
-1.3724169 18.586269 0
-1.1002402 14.900255 0.83453721
-1.3929262 18.558651 0
-1.4000314 18.653316 1.0448335
-1.4187142 18.601065 0
-1.4225693 18.651611 1.0448335
-0 0 0
-1.4439011 18.63434 1.043963
-0 0 0
-1.168574 14.848141 0.83192497
-0 0 0
-1.1863074 14.844131 0.83177996
-1.5071268 18.57583 0
-1.2038221 14.837501 0.83148938
-1.5299978 18.579178 0
-1.535653 18.64785 1.0451236
-1.5522295 18.574726 0
-1.5577518 18.640808 1.0448335
-1.5744526 18.570246 0
-0 0 0
-1.5975592 18.576111 0
-1.6019042 18.626633 1.044253
-1.6188723 18.561195 0
-1.6239585 18.619513 1.043963
-1.6422157 18.569595 0
-1.645997 18.612354 1.0436724
-1.6639558 18.55983 0
-1.6691816 18.618118 1.044108
-0 0 0
-1.6919117 18.618673 1.044253
-0 0 0
-1.7132163 18.60368 1.0435275
-0 0 0
-1.7359351 18.604181 1.0436724
-0 0 0
-1.3977417 14.786563 0.82960272
-0 0 0
-1.4161031 14.790042 0.82989329
-1.7989683 18.552454 0
-1.4339731 14.78832 0.82989329
-1.8216381 18.552855 0
-1.8271018 18.608501 1.044398
-1.7282821 17.386005 -0.9759022
-1.8427674 18.537693 0
-1.8495853 18.606279 1.044398
-1.7369761 17.366867 -0.97488666
-1.8568158 18.565065 0
-1.8600509 18.59741 1.043963
-1.7592677 17.37768 -0.97561222
-1.8766249 18.536909 0
-1.8830439 18.600315 1.044253
-0 0 -0
-1.9000828 18.544985 0
-1.9057819 18.600609 1.044398
-0 0 -0
-1.9222213 18.540089 0
-1.9285234 18.600874 1.044543
-1.8380266 17.319876 -0.97285444
-1.9672942 18.537975 0
-1.9731948 18.593578 1.044398
-1.8575666 17.304728 -0.97212887
-1.9888598 18.52783 0
-1.9959372 18.593761 1.044543
-1.8767924 17.286976 -0.97125828
-2.0118067 18.530582 0
-2.0189641 18.596508 1.0448335
-1.8962613 17.271784 -0.97053277
-2.0356157 18.541071 0
-2.0419996 18.599215 1.0451236
-1.917416 17.272058 -0.97067773
-2.0580175 18.538597 0
-2.0641851 18.594154 1.0449786
-1.9353868 17.243912 -0.96922666
-2.0804164 18.536097 0
-2.0863614 18.589067 1.0448335
-1.9559275 17.238972 -0.96908104
-2.102519 18.530987 0
-2.1085286 18.583952 1.0446886
-1.976756 17.236595 -0.96908104
-2.1237223 18.518089 0
-2.1312778 18.583971 1.0448335
-1.9957871 17.218712 -0.96821052
-2.1460962 18.515511 0
-2.1540303 18.58396 1.0449786
-2.0168931 17.218866 -0.96835554
-2.1687696 18.515486 0
-2.1761818 18.578766 1.0448335
-0 0 -0
-2.192364 18.52319 0
-2.1989341 18.578701 1.0449786
-2.0569561 17.201044 -0.96762997
-2.2178347 18.546373 0
-2.2216895 18.578608 1.0451236
-2.0764921 17.188229 -0.96704942
-2.2396178 18.538507 0
-2.2422671 18.560436 1.044253
-2.0972593 17.185707 -0.96704942
-2.2623315 18.538368 0
-2.2659512 18.568031 1.0448335
-2.1170692 17.175421 -0.96661383
-2.2863226 18.548544 0
-2.290292 18.580748 1.0457041
-2.1375003 17.170275 -0.96646887
-2.3084106 18.543177 0
-2.3127418 18.577967 1.0457041
-2.1572728 17.159941 -0.96603328
-2.3321133 18.550703 0
-2.3342164 18.567432 1.0452691
-2.177352 17.152172 -0.9657433
-2.3532157 18.537544 0
-2.3569767 18.567173 1.0454141
-1.5780517 12.312063 -0.69333059
-2.3766057 18.542435 0
-2.3804011 18.572046 1.0458497
-1.5812572 12.219961 -0.68825114
-2.3996775 18.544716 0
-2.4018395 18.561422 1.0454141
-1.5791936 12.089218 -0.68099439
-2.4210718 18.53406 0
-2.424938 18.563656 1.0457041
-1.5773672 12.018698 -0.67707551
-2.4319305 18.530014 0
-2.4368298 18.567345 1.0459946
-1.574486 11.885418 -0.6696738
-2.455343 18.534796 0
-2.4589221 18.561813 1.0458497
-1.5785161 11.806246 -0.66531992
-2.4784272 18.53698 0
-2.4799712 18.548527 1.0452691
-1.586874 11.760555 -0.6628527
-2.5001271 18.528807 0
-2.5020332 18.542934 1.0451236
-1.5874116 11.658223 -0.65719265
-2.5228658 18.528358 0
-2.5247884 18.542479 1.0452691
-1.5820454 11.51472 -0.64921039
-2.5456059 18.527872 0
-2.5482516 18.547131 1.0457041
-1.5963141 11.515371 -0.64935541
-2.5687053 18.529934 0
-2.5692332 18.533743 1.0451236
-1.6001509 11.441388 -0.64529204
-2.5907331 18.524242 0
-2.5808291 18.453426 1.0407697
-1.5947349 11.303082 -0.63759983
-2.6142051 18.528831 0
-2.5867906 18.334524 1.0342391
-1.6032664 11.265137 -0.63556814
-2.6376908 18.533382 0
-2.595762 18.238773 1.0290141
-1.6076463 11.198892 -0.63193977
-2.6600828 18.53018 0
-2.6137376 18.207338 1.0274179
-1.6059113 11.091506 -0.6259892
-2.6820984 18.52438 0
-2.6357358 18.204168 1.0274179
-1.6129298 11.04585 -0.62352198
-2.7041039 18.518553 0
-2.6746233 18.31666 1.0339485
-1.6160555 10.97449 -0.61960363
-2.7276158 18.522999 0
-2.721359 18.480511 1.0433824
-1.6251162 10.944255 -0.61800694
-2.7496119 18.517107 0
-2.7524643 18.536318 1.0467203
-1.632953 10.906311 -0.61597526
-2.7731407 18.521496 0
-2.7767832 18.545824 1.0474458
-1.6329432 10.816977 -0.61104083
-2.7947421 18.512989 0
-2.7991903 18.542456 1.0474458
-1.6303732 10.712241 -0.60523522
-2.8182828 18.517311 0
-2.8219836 18.541626 1.0475909
-1.6401645 10.689726 -0.60407466
-2.8406553 18.513891 0
-2.8443856 18.538202 1.0475909
-1.6439443 10.628672 -0.60073632
-2.8638201 18.515594 0
-2.8675783 18.539892 1.0478814
-1.6455778 10.55479 -0.59667242
-2.8861904 18.512121 0
-2.8911793 18.544119 1.048317
-1.6522803 10.514297 -0.59449577
-2.9089603 18.511189 0
-2.9127767 18.535473 1.0480263
-1.6572599 10.463528 -0.59173799
-2.9329538 18.517942 0
-2.9355772 18.534504 1.0481714
-1.6505256 10.380416 -0.58709407
-2.9425063 18.505886 0
-2.9463665 18.530165 1.0480263
-1.6577227 10.345061 -0.5852074
-2.963629 18.494604 0
-2.9699883 18.53429 1.0484619
-1.6606936 10.284049 -0.58186901
-2.9868047 18.496153 0
-2.9911382 18.522989 1.0480263
-1.6681106 10.251258 -0.58012736
-3.0058076 18.471981 0
-3.0126834 18.514236 1.0477364
-1.672509 10.200522 -0.57737011
-3.0306509 18.48374 0
-2.2055748 13.451655 0.76139081
-0 0 -0
-1.672551 10.124149 -0.57316124
-3.0534081 18.482639 0
-2.2192864 13.433603 0.76052022
-1.6805173 10.096494 -0.57171011
-3.0757384 18.478937 0
-2.2321036 13.410406 0.75935912
-0 0 -0
-1.6841211 10.043202 -0.5688073
-3.0941896 18.452101 0
-2.2487352 13.410259 0.75950414
-0 0 -0
-1.6914937 10.012974 -0.56721061
-1.8949473 11.217339 0
-2.2649372 13.407533 0.75950414
-0 0 -0
-1.6957455 9.964819 -0.56459838
-1.8897274 11.104727 0
-2.2872379 13.440644 0.76153582
-0 0 -0
-1.7055901 9.9499598 -0.56387287
-1.9009459 11.089613 0
-2.3030381 13.435311 0.76139081
-1.7070009 9.8864374 -0.56038952
-1.9037169 11.025758 0
-2.3170602 13.419719 0.76066524
-1.7122687 9.8459749 -0.55821282
-1.9107963 10.987558 0
-2.3332736 13.416909 0.76066524
-1.7183369 9.8106279 -0.55632615
-1.9123982 10.918596 0
-2.3481383 13.4064 0.76022971
-1.3593855 7.7064333 -0.8722294
-1.7238697 9.7727146 -0.55429393
-1.9129313 10.844516 0
-2.3638847 13.400996 0.76008469
-1.3686962 7.7047853 -0.8722294
-1.732041 9.7501574 -0.55313283
-1.9101031 10.752521 0
-2.3759856 13.375107 0.75877857
-1.3757281 7.6903977 -0.87078822
-1.740162 9.7276039 -0.55197227
-1.9139284 10.698968 0
-2.3871114 13.344088 0.75718188
-1.3799751 7.660727 -0.86761671
-1.7491498 9.710146 -0.55110115
-1.9167051 10.640305 0
-2.4041555 13.346313 0.75747246
-1.3712289 7.5598078 -0.85637414
-1.7543898 9.6722355 -0.54906946
-1.9188771 10.579082 0
-2.4239902 13.363852 0.75863355
-1.3647029 7.4216514 -0.84109491
-1.7711805 9.6321945 -0.54703778
-1.9293777 10.492517 0
-2.4680243 13.421833 0.76226139
-1.3680196 7.3894777 -0.8376354
-1.3840855 7.4762592 -0.4246912
-1.9311577 10.431317 0
-2.4771461 13.380523 0.76008469
-1.3181862 7.0725446 -0.80188936
-1.381216 7.4107223 -0.42106286
-1.9342235 10.377808 0
-2.4799812 13.305995 0.75602078
-1.3200542 7.0353618 -0.79785383
-1.3772327 7.3401008 -0.41714451
-1.9366853 10.32176 0
-2.482161 13.228929 0.75181186
-1.315212 6.9862657 -0.79237598
-1.3778211 7.3188386 -0.41598341
-1.9352173 10.279667 0
-4.288476 22.779926 1.2947506
-1.3270242 7.0024629 -0.79439431
-1.3760204 7.2610068 -0.4127906
-1.9398837 10.236409 0
-4.3121271 22.754303 1.2935895
-1.3122226 6.878912 -0.78055739
-1.3804114 7.2363696 -0.41148448
-1.9385965 10.162478 0
-4.3405929 22.754187 1.2938801
-1.3176062 6.8620758 -0.77882707
-1.3734746 7.1530375 -0.40684003
-1.9440049 10.124352 0
-4.368084 22.748924 1.2938801
-1.3151001 6.804615 -0.7724852
-1.3722552 7.100348 -0.40393725
-1.9458667 10.068339 0
-4.4034576 22.784451 1.2962023
-1.3104817 6.7370143 -0.76499015
-1.3733928 7.0604324 -0.40176058
-1.9555467 10.053209 0
-4.4845653 23.054562 1.3118763
-1.3091788 6.6871958 -0.75951231
-1.3679445 6.9873667 -0.39769667
-1.959193 10.007423 0
-3.5739133 18.255304 1.0390285
-1.30726 6.6348653 -0.75374758
-1.3643309 6.9245224 -0.39421332
-1.9692712 9.9948359 0
-3.5989816 18.266264 1.0398991
-1.3122566 6.6180534 -0.75201726
-1.3646125 6.8820972 -0.39189163
-1.9767914 9.9694757 0
-3.617007 18.241512 1.038738
-1.3096241 6.563199 -0.74596339
-1.3591979 6.8116393 -0.38797274
-1.9806879 9.9262447 0
-3.6304021 18.193811 1.0362707
-1.3002418 6.4753976 -0.73616201
-1.3597556 6.7717853 -0.38579607
-1.9890934 9.9059811 0
-3.6390839 18.123178 1.0324974
-1.2916747 6.3927035 -0.72693777
-1.3571303 6.7166533 -0.38274828
-1.9979699 9.8882694 0
-3.6506867 18.067829 1.0295947
-1.29682 6.3784575 -0.72549546
-1.3497149 6.6386228 -0.37839437
-2.0078423 9.8756466 0
-3.6688912 18.045576 1.0285785
-1.2905314 6.308475 -0.7177124
-1.3483603 6.5911589 -0.37578157
-2.0281193 9.9140091 0
-3.6901727 18.038588 1.0284334
-1.2929395 6.2815824 -0.71483004
-1.3458483 6.5386329 -0.37287936
-2.0369477 9.8962517 0
-3.7051566 18.001032 1.0265468
-1.2879405 6.2192297 -0.70791101
-1.3437358 6.4886546 -0.37012157
-2.0425711 9.8632021 0
-3.7216363 17.971102 1.0250957
-1.2896506 6.1898131 -0.70473951
-1.3558152 6.5073771 -0.37128267
-2.0608573 9.8913002 0
-3.733809 17.920809 1.0224835
-1.2907634 6.1578827 -0.70128113
-1.3471531 6.4269028 -0.36678377
-2.0706718 9.8786144 0
-3.7506609 17.893387 1.0211768
-1.2880626 6.1082301 -0.69580328
-1.3382965 6.3464494 -0.3622843
-2.0815337 9.8710175 0
-3.7663827 17.860882 1.0195807
-1.2873926 6.0687242 -0.69147974
-1.342191 6.3270416 -0.36126873
-1.5658436 7.3813319 0
-3.7863431 17.84869 1.0191451
-1.2850071 6.0216279 -0.68628991
-1.3460385 6.3076243 -0.36025262
-1.5720462 7.3667111 0
-3.8079069 17.844101 1.0191451
-1.2770844 5.9492717 -0.67821884
-1.3503878 6.2907548 -0.35938206
-1.5705676 7.3164577 0
-3.8283756 17.834412 1.0188551
-1.2644546 5.8559465 -0.99876958
-1.2804501 5.9300246 -0.67620051
-1.3415359 6.2129259 -0.35502815
-1.5667748 7.256053 0
-3.8466306 17.814528 1.017984
-1.2655357 5.8268175 -0.99406153
-1.2760867 5.8753967 -0.67014664
-1.342424 6.180829 -0.3532865
-1.564494 7.2032905 0
-3.8670511 17.804794 1.017694
-1.2624995 5.7959528 -0.98892587
-1.2741323 5.8493576 -0.66726428
-1.3411812 6.1571693 -0.35198039
-1.5494606 7.1133504 0
-3.8811245 17.817682 1.0185646
-1.2667553 5.7818875 -0.98678648
-1.2773238 5.8301253 -0.66524595
-1.3413911 6.1225495 -0.35009369
-1.5547117 7.0962152 0
-3.9009819 17.805363 1.018129
-1.2654561 5.7427559 -0.9803682
-1.2715673 5.7704897 -0.65861607
-1.3465513 6.110774 -0.34951314
-1.5565645 7.0638328 0
-3.4259748 15.54739 0.88925183
-1.2629499 5.6986094 -0.97309154
-1.2729414 5.7436919 -0.65573257
-1.3455 6.0710864 -0.3473359
-1.5555263 7.018755 0
-3.441386 15.528023 0.8883813
-1.263693 5.6695247 -0.9683851
-1.272566 5.7093329 -0.65198505
-1.3511382 6.0618453 -0.34690034
-1.5458902 6.9355946 0
-3.4590166 15.518785 0.88809127
-1.2654896 5.645452 -0.96453381
-1.2664531 5.6497502 -0.64535517
-1.3368649 5.9638634 -0.34138533
-1.5508528 6.9184799 0
-3.4749222 15.501909 0.88736516
-1.2593254 5.586319 -0.95469016
-1.2698649 5.6330719 -0.64362484
-1.3400718 5.9445071 -0.34036976
-1.5431885 6.8455248 0
-3.4896522 15.479962 0.88634962
-1.2592639 5.5547509 -0.94955456
-1.2726692 5.613883 -0.64160764
-1.3237 5.8389859 -0.33441919
-1.5393763 6.7903576 0
-4.0575399 17.898252 1.0250957
-1.2551354 5.5056782 -0.94142443
-1.2702532 5.5719929 -0.63699496
-1.3145828 5.7664456 -0.33035529
-1.5446882 6.7758079 0
-4.0785861 17.890806 1.0249507
-1.2571982 5.4841404 -0.93800068
-1.2712045 5.545238 -0.63411146
-1.3012296 5.6762137 -0.32527584
-1.5389179 6.7130556 0
-4.0978785 17.875734 1.0243702
-1.2424892 5.3900652 -0.92216629
-1.2779039 5.5436983 -0.63411146
-1.2993338 5.6366639 -0.32309917
-1.5306598 6.6401834 0
-4.1218095 17.880898 1.0249507
-1.2443639 5.3685536 -0.91874254
-1.2740899 5.4968004 -0.62892276
-1.2967559 5.5945883 -0.32077691
-1.529282 6.5977745 0
-4.1439981 17.878433 1.0250957
-1.2467729 5.3495531 -0.915748
-1.2684028 5.4423609 -0.6228689
-1.3029257 5.5904894 -0.32063192
-1.5278016 6.5553684 0
-4.1650085 17.870884 1.0249507
-1.253821 5.3505397 -0.9161756
-1.2661278 5.4030576 -0.61854535
-1.2984152 5.5408401 -0.31787413
-1.519689 6.4851012 0
-5.0977592 21.754112 1.2480183
-1.2573422 5.3365297 -0.91403615
-1.2643501 5.3662734 -0.61450869
-1.3104718 5.5620275 -0.31918025
-1.5132021 6.4224744 0
-5.134171 21.79093 1.2504854
-1.2614225 5.3250151 -0.91232431
-1.2547375 5.2967944 -0.60672563
-1.3201857 5.5730801 -0.31990582
-1.5095627 6.3725228 0
-5.1694822 21.822639 1.2526627
-1.2494204 5.2460799 -0.89905852
-1.2599394 5.2902474 -0.60614961
-1.3227063 5.5537934 -0.31889024
-1.5184686 6.3757625 0
-5.1982546 21.826488 1.2532432
-1.2479857 5.2121048 -0.89349371
-1.2560924 5.2459617 -0.60124892
-1.334861 5.5749321 -0.32019636
-1.5182939 6.341023 0
-5.6451244 23.576376 1.3541098
-1.248276 5.1856399 -0.88921487
-1.2587972 5.2293477 -0.5995186
-1.3379464 5.5581527 -0.31932524
-1.5198627 6.3138766 0
-3.7526491 15.589411 0.89563799
-1.2485042 5.1591821 -0.88493603
-1.2584224 5.2001672 -0.59634709
-1.3434402 5.5514855 -0.31903526
-1.5232075 6.2943368 0
-3.7775939 15.610116 0.89708912
-1.2462406 5.1227446 -0.87894368
-1.2573704 5.1684942 -0.59288871
-1.3403195 5.5094614 -0.31671301
-1.5142014 6.2242131 0
-3.8111942 15.666136 0.90057248
-1.2469417 5.0987949 -0.87509239
-1.2543975 5.129282 -0.58856404
-1.3525305 5.5305519 -0.31801912
-1.5260493 6.240077 0
-3.8554287 15.765003 0.90652305
-1.2414596 5.0499277 -0.86696219
-1.2587414 5.1202254 -0.58769888
-1.3474277 5.480978 -0.3152619
-1.5311029 6.2281199 0
-3.8924611 15.833498 0.91073138
-1.2444819 5.0359659 -0.8648228
-1.2562413 5.0835519 -0.58366334
-1.3571657 5.4919562 -0.31598747
-1.5380036 6.2237411 0
-3.9109674 15.826262 0.91058636
-0 0 -0
-1.2574457 5.0752583 -0.58279818
-1.3523604 5.4583492 -0.31410077
-1.5480208 6.2480669 0
-3.9255271 15.844074 0.91174752
-0 0 -0
-1.2579523 5.0511489 -0.58020383
-1.3608391 5.4642777 -0.31453633
-1.5222393 6.11236 0
-3.2100108 12.889393 0.74194294
-0 0 -0
-1.2527505 5.004467 -0.57501513
-1.3592384 5.4298635 -0.31264967
-1.5176157 6.0625463 0
-3.2249522 12.882986 0.74179798
-1.2544922 4.9858427 -0.85711855
-1.2600574 5.0079613 -0.57559115
-1.3600901 5.4055305 -0.31134298
-1.5300202 6.0808988 0
-5.9908237 23.809877 1.3713803
-1.2479303 4.9345584 -0.84856087
-1.261037 4.9863844 -0.57328594
-1.3647113 5.3963327 -0.31090799
-1.4850483 5.8721685 0
-3.2656329 12.912945 0.74397516
-1.2425076 4.8882589 -0.84085661
-1.2626003 4.9673076 -0.5712676
-1.3718703 5.3971958 -0.31105301
-1.5068865 5.9283757 0
-3.2901938 12.944242 0.74600685
-1.2496852 4.8917332 -0.84171337
-1.2634797 4.9457302 -0.56896126
-1.366815 5.3502226 -0.30844077
-1.5005218 5.873601 0
-3.3077619 12.947812 0.74644244
-1.2472963 4.8578982 -0.83615023
-1.2572352 4.8966079 -0.56348455
-1.3790939 5.3712158 -0.30974689
-1.4933803 5.8163323 0
-3.9980111 15.571225 0.89796025
-1.2473931 4.8340192 -0.83229893
-1.2709035 4.9251289 -0.56694293
-1.3751949 5.3292894 -0.30742463
-1.4958546 5.7968812 0
-4.0187688 15.573924 0.89839524
-1.2235916 4.7182093 -0.81261325
-1.2638705 4.8735261 -0.56117821
-1.3829392 5.3326592 -0.30771521
-1.5067791 5.8101897 0
-4.0375838 15.569057 0.89839524
-1.2286448 4.7142458 -0.8121857
-1.2645397 4.8519721 -0.55887187
-1.3802059 5.2957768 -0.30568299
-1.4954207 5.7378502 0
-4.0570502 15.566689 0.89854079
-1.2334983 4.6864328 -0.8079052
-1.273628 4.8388972 -0.55771869
-1.3929996 5.2924261 -0.30568299
-1.5072945 5.7266669 0
-5.8929148 22.388962 1.2931545
-1.2437557 4.7023134 -0.8109014
-1.2702134 4.8023429 -0.55368209
-1.3987297 5.2882295 -0.30553797
-1.5082244 5.7021999 0
-5.9119902 22.351681 1.2914128
-1.24482 4.6834383 -0.8079052
-1.2746875 4.7958102 -0.55310601
-1.4011148 5.2714725 -0.30466741
-1.5244712 5.7355809 0
-5.9349871 22.329449 1.2905418
-1.2544539 4.6968164 -0.8104738
-1.2751421 4.7742753 -0.55079967
-1.4021193 5.2496924 -0.30350628
-1.5287142 5.7236772 0
-5.9679999 22.344862 1.2918484
-1.2541376 4.672976 -0.8066209
-1.2849338 4.787724 -0.55252999
-1.3997061 5.2153711 -0.30161962
-1.5376533 5.7293692 0
-5.3585324 19.966145 1.1546984
-1.2524326 4.6442003 -0.80191445
-1.290718 4.7861681 -0.55252999
-1.422242 5.2738786 -0.30510241
-1.5445751 5.7275071 0
-5.3907723 19.989761 1.1564401
-1.2667707 4.6748915 -0.80747765
-1.2951459 4.7796073 -0.55195284
-1.4286134 5.2721558 -0.30510241
-1.5542171 5.7356839 0
-4.1862645 15.448994 0.8940413
-1.2616283 4.6337271 -0.80063015
-1.2982023 4.7680564 -0.55079967
-1.4343008 5.267921 -0.30495742
-1.5543108 5.7086959 0
-3.6144841 13.275331 0.76850247
-1.271292 4.6470609 -0.80319881
-1.2950907 4.7340541 -0.54705215
-1.4434077 5.2762098 -0.30553797
-1.5632658 5.7143373 0
-3.6325772 13.278465 0.76893753
-1.271463 4.6257191 -0.79977506
-1.297383 4.7200184 -0.54561096
-1.4552914 5.2945061 -0.3066991
-1.5653429 5.6948853 0
-3.6513736 13.284089 0.76951808
-1.2810749 4.649694 -0.8040539
-1.3153476 4.7740874 -0.55195284
-1.4536577 5.2760878 -0.30568299
-1.5653275 5.681396 0
-3.6559482 13.269358 0.76879251
-1.2777897 4.6159825 -0.79849076
-1.3314663 4.8098879 -0.55627751
-1.4593391 5.2718253 -0.30553797
-1.5846875 5.7246428 0
-5.5033951 19.880873 1.1522312
-1.2861177 4.6243281 -0.80020261
-1.3448987 4.8356795 -0.55944788
-1.4643142 5.2650466 -0.30524743
-1.5867213 5.7051702 0
-5.5267177 19.871708 1.1520861
-1.2827241 4.590632 -0.79463947
-1.3528296 4.8415265 -0.56031305
-1.4699763 5.2607732 -0.30510241
-1.5873111 5.6806927 0
-5.5514231 19.867516 1.1522312
-1.2924317 4.6039033 -0.7972064
-1.3628716 4.854825 -0.56204224
-1.4735227 5.2489862 -0.30452186
-1.6005039 5.7013187 0
-4.1006665 14.607405 0.84745389
-1.2889358 4.5702219 -0.79164326
-1.3624188 4.8307724 -0.55944788
-1.4883279 5.2772126 -0.30626354
-1.604566 5.6893616 0
-4.1126709 14.582432 0.84629279
-1.2972562 4.5785403 -0.79335511
-1.3731911 4.8465447 -0.56146622
-1.4961213 5.2804151 -0.30655408
-1.6277573 5.7450118 0
-4.1260395 14.562456 0.84542227
-1.2964633 4.5547509 -0.78950381
-0 0 -0
-1.4918294 5.2411137 -0.30437687
-1.6183102 5.6854672 0
-3.7744517 13.26045 0.77009863
-1.3132581 4.5926714 -0.79635131
-1.3820549 4.8332648 -0.56031305
-1.5060201 5.2667909 -0.30597353
-1.6309028 5.7035255 0
-3.7969005 13.278363 0.77140474
-1.3081746 4.5540695 -0.78993142
-1.3878939 4.8315916 -0.56031305
-1.4980348 5.2150183 -0.30307075
-1.6428236 5.7190628 0
-3.8136616 13.27627 0.7715503
-1.3143874 4.5549498 -0.79035896
-1.393731 4.8299108 -0.56031305
-1.5165815 5.2556438 -0.30553797
-1.6338601 5.6620679 0
-3.8318596 13.279135 0.77198529
-1.322749 4.5632205 -0.79207081
-1.3988465 4.8257418 -0.56002504
-1.5236536 5.2563009 -0.30568299
-1.6486685 5.6875777 0
-3.8435628 13.259525 0.77111471
-1.3239571 4.5468354 -0.78950381
-1.4111837 4.8463955 -0.56261939
-1.5292779 5.2519636 -0.30553797
-1.6475383 5.658103 0
-4.8293452 16.585308 0.96486604
-0 0 -0
-1.3258475 4.5329151 -0.78736442
-1.4221193 4.8620572 -0.56463665
-1.5275979 5.2226763 -0.30394131
-1.6565635 5.6635942 0
-4.8326035 16.522097 0.96152771
-1.335664 4.546083 -0.78993142
-0 0 -0
-1.5368373 5.2307987 -0.30452186
-1.672942 5.6940465 0
-3.7795393 12.864087 0.74890965
-1.3397044 4.5395465 -0.78907627
-0 0 -0
-1.5460986 5.2389069 -0.30510241
-1.6702454 5.6595745 0
-3.8016989 12.881938 0.75021577
-1.3495647 4.5526867 -0.79164326
-0 0 -0
-1.5524276 5.2370348 -0.30510241
-1.6800413 5.6675329 0
-3.860831 13.024315 0.75877857
-0 0 -0
-1.3499389 4.5338378 -0.78864872
-0 0 -0
-1.5550476 5.2227054 -0.30437687
-1.6965421 5.6979222 0
-3.9240193 13.179016 0.76806694
-0 0 -0
-1.3495319 4.5125275 -0.78522497
-0 0 -0
-1.5591228 5.2133517 -0.30394131
-1.6922426 5.6584744 0
-3.9414282 13.179239 0.76835692
-0 0 -0
-1.362367 4.5354743 -0.78950381
-1.4610533 4.8640122 -0.5660789
-1.5684111 5.2214184 -0.30452186
-1.7103068 5.6938057 0
-3.95735 13.174467 0.76835692
-1.3656211 4.5264497 -0.78821951
-1.4661801 4.8597598 -0.56578976
-1.5777211 5.2294703 -0.30510241
-1.7104208 5.669313 0
-3.9717662 13.164705 0.76806694
-1.3681117 4.5149693 -0.78650767
-0 0 -0
-1.5863001 5.235023 -0.30553797
-1.7180238 5.6697307 0
-3.9823947 13.142487 0.7670508
-1.3720728 4.5084057 -0.78565252
-0 0 -0
-1.5858163 5.210732 -0.30423185
-1.7150236 5.6352859 0
-3.9816296 13.08298 0.76385802
-0 0 -0
-1.3730156 4.4920101 -0.78308392
-0 0 -0
-1.5905907 5.2038374 -0.30394131
-1.7256374 5.6456609 0
-3.9837644 13.033436 0.76124579
-1.3749781 4.488728 -0.78265637
-1.4753582 4.8164268 -0.56146622
-1.5960182 5.2103314 -0.30437687
-1.7176137 5.6072893 0
-3.9863098 13.013633 0.76022971
-1.3841742 4.4993286 -0.78479576
-1.4750926 4.7948637 -0.55915987
-1.6084251 5.2282677 -0.30553797
-1.745047 5.6723638 0
-4.0012679 13.006325 0.76008469
-1.3835504 4.4780412 -0.78137368
-1.4686689 4.7535381 -0.55454719
-1.6109068 5.2139096 -0.3048124
-1.7342323 5.6130681 0
-4.0139127 12.99155 0.75950414
-1.3904803 4.4812646 -0.78222883
-1.4698141 4.7369432 -0.552818
-1.6179749 5.2144384 -0.30495742
-1.7556648 5.6581879 0
-5.490315 17.694284 1.0348196
-1.3890213 4.4575262 -0.77837753
-1.4639937 4.6981206 -0.54849333
-1.6320033 5.2372828 -0.30640852
-1.7454683 5.6014047 0
-4.2022166 13.485387 0.78896594
-1.3951724 4.458292 -0.77880508
-1.4696693 4.6963482 -0.54849333
-1.6305715 5.2105131 -0.30495742
-1.7739983 5.6688356 0
-4.2254915 13.502616 0.79027206
-1.4074842 4.4786415 -0.78265637
-1.4699169 4.6773038 -0.54647613
-1.6384227 5.2134924 -0.30524743
-1.7839677 5.6766191 0
-4.2488146 13.519809 0.79157817
-1.4113511 4.4720464 -0.78180122
-1.4724537 4.665658 -0.54532295
-1.644721 5.2115088 -0.30524743
-1.7884749 5.6670117 0
-3.746685 11.87185 0.69535553
-1.4128766 4.4581046 -0.77966183
-1.4804322 4.6712651 -0.54618698
-1.6463083 5.1946602 -0.30437687
-1.7984661 5.6747699 0
-3.7680945 11.889615 0.69666225
-1.4221541 4.4686227 -0.78180122
-1.489213 4.6793318 -0.54734015
-1.658888 5.2124758 -0.30553797
-1.8061101 5.6750703 0
-0 0 0
-0 0 -0
-1.423646 4.4546771 -0.77966183
-1.4909298 4.6652126 -0.54589897
-1.6636014 5.2055125 -0.30524743
-1.8058367 5.6505752 0
-3.787324 11.850773 0.69492054
-1.4266735 4.4456182 -0.77837753
-1.4973553 4.6658678 -0.54618698
-1.6619515 5.178762 -0.30379629
-1.807893 5.6335258 0
-3.7952886 11.826394 0.69375944
-1.430468 4.4389997 -0.77752078
-1.5021995 4.6615958 -0.54589897
-1.67538 5.1990066 -0.30510241
-1.8186891 5.6437201 0
-3.807184 11.814378 0.69332385
-1.4382023 4.4445977 -0.77880508
-1.5102206 4.6671624 -0.54676414
-1.6808616 5.1945081 -0.30495742
-2.3831322 7.3647947 0
-3.8214564 11.809769 0.69332385
-1.4467447 4.4526224 -0.78051692
-1.5102633 4.6481123 -0.5447458
-1.6847272 5.1850572 -0.30452186
-1.8347359 5.6467366 0
-3.8373308 11.81009 0.69361442
-1.4513283 4.4484329 -0.78008938
-1.5078577 4.6216998 -0.54186344
-1.6926045 5.187963 -0.3048124
-1.831871 5.6148257 0
-3.8499849 11.8005 0.69332385
-1.4559039 4.4442387 -0.77966183
-1.5126365 4.6174188 -0.54157543
-1.7012964 5.193315 -0.30524743
-2.4138637 7.3684711 0
-3.8601968 11.783495 0.69259834
-1.4628756 4.4473486 -0.78051692
-1.5117493 4.595932 -0.53926909
-1.7059481 5.1863236 -0.30495742
-2.435776 7.4051042 0
-3.8711843 11.768949 0.69201773
-1.4666396 4.4407077 -0.77966183
-1.516488 4.591639 -0.53898001
-1.7113993 5.1817937 -0.3048124
-2.4316633 7.3626161 0
-3.8805141 11.749463 0.69114721
-1.4720043 4.4389319 -0.77966183
-1.5187786 4.5799832 -0.53782684
-1.7168422 5.177258 -0.30466741
-2.4446528 7.3720217 0
-3.8816221 11.705303 0.68882495
-0 0 -0
-1.5259471 4.5830574 -0.53840393
-1.7230966 5.1751795 -0.30466741
-2.4708228 7.4209137 0
-3.8924794 11.690743 0.6882444
-0 0 -0
-1.5273843 4.5689473 -0.53696275
-1.7276993 5.1681604 -0.30437687
-2.4624608 7.3660922 0
-3.9131932 11.705747 0.68940556
-0 0 -0
-1.5361959 4.5769067 -0.53811592
-1.7298095 5.1537542 -0.3036513
-2.4738445 7.3705153 0
-3.9546187 11.782299 0.69419497
-0 0 -0
-1.5375961 4.5627942 -0.53667474
-1.7401837 5.16397 -0.30437687
-2.4927185 7.3971062 0
-3.9696813 11.779972 0.69433999
-0 0 -0
-1.5428324 4.5692091 -0.53753877
-1.7408086 5.15553 -0.30394131
-2.4863644 7.3635468 0
-3.9726419 11.765265 0.69361442
-0 0 -0
-1.544201 4.5550961 -0.53609759
-1.7462033 5.1509643 -0.30379629
-2.4877408 7.338357 0
-3.986855 11.760456 0.69361442
-0 0 -0
-1.5530373 4.5630212 -0.53725076
-1.7515895 5.1463928 -0.3036513
-2.5041518 7.3575168 0
-4.0119457 11.787606 0.69550109
-1.5129994 4.4278374 -0.78008938
-1.5577141 4.5586958 -0.53696275
-1.7536064 5.1319809 -0.30292574
-2.5164063 7.3643365 0
-4.0698729 11.910602 0.70304781
-1.5175164 4.4235797 -0.77966183
-1.556507 4.5372381 -0.53465641
-1.7598062 5.129858 -0.30292574
-2.5168595 7.3366785 0
-4.1087122 11.976951 0.70725673
-1.5248466 4.4101954 -0.77794993
-1.5657752 4.5285697 -0.53407931
-1.7688015 5.115767 -0.30234519
-2.5430846 7.3551664 0
-4.12321 11.92524 0.70478946
-1.5377495 4.4301734 -0.78180122
-1.5712459 4.5266747 -0.53407931
-1.7758329 5.1160784 -0.30249017
-2.5459988 7.3348851 0
-4.1146097 11.853968 0.70087057
-1.5397226 4.4186158 -0.78008938
-1.5716094 4.5101228 -0.53235006
-1.7794474 5.1065655 -0.30205461
-1.9819751 5.6877689 0
-4.1067004 11.785194 0.69709724
-1.5433636 4.411901 -0.77923262
-1.580474 4.5179863 -0.53350323
-1.7864769 5.1068716 -0.3022002
-1.9828333 5.6681809 0
-4.0960565 11.709098 0.69288832
-1.5529486 4.4221501 -0.78137368
-1.5850759 4.5136352 -0.53321522
-1.7883389 5.0924435 -0.30147406
-1.9914037 5.6706872 0
-4.0757661 11.606083 0.6870833
-1.5523156 4.4033213 -0.77837753
-1.5913876 4.5141535 -0.53350323
-1.8152251 5.1490941 -0.30495742
-2.0086374 5.6977305 0
-4.0733714 11.554585 0.68432552
-1.5584905 4.4038601 -0.77880508
-1.5959789 4.5097914 -0.53321522
-1.8292465 5.168941 -0.30626354
-2.019861 5.7075639 0
-4.0743289 11.512918 0.68214881
-1.5638106 4.4019737 -0.77880508
-1.6022919 4.5102944 -0.53350323
-1.8285321 5.1471386 -0.30510241
-2.0232711 5.6953096 0
-4.0786681 11.48105 0.68055218
-1.5691284 4.4000807 -0.77880508
-1.6033975 4.4961767 -0.53206205
-1.8330061 5.1400352 -0.3048124
-2.0458879 5.7369885 0
-4.0829396 11.449199 0.67895603
-1.5744439 4.3981814 -0.77880508
-1.6079582 4.4918032 -0.53177404
-1.8339593 5.1231332 -0.30394131
-2.0352759 5.6855078 0
-4.0958924 11.441804 0.67881048
-1.5806243 4.3986893 -0.77923262
-1.6133845 4.4898567 -0.53177404
-1.8550856 5.1624823 -0.30640852
-2.059746 5.732028 0
-4.126411 11.483311 0.68156826
-1.585068 4.3943639 -0.77880508
-1.6231956 4.5000672 -0.53321522
-1.853388 5.1382408 -0.30510241
-2.0604885 5.7123957 0
-4.1799574 11.588307 0.68809944
-1.5903765 4.3924456 -0.77880508
-1.6277488 4.4956636 -0.53292614
-1.8719815 5.1702075 -0.30713466
-2.0700481 5.7172456 0
-4.223145 11.663863 0.69288832
-1.5948068 4.3881102 -0.77837753
-1.6305318 4.4864078 -0.53206205
-1.8729002 5.1532841 -0.30626354
-2.0725074 5.7025032 0
-4.2425628 11.673409 0.69375944
-1.6018656 4.3909984 -0.77923262
-1.6368371 4.4868617 -0.53235006
-1.8800153 5.1534562 -0.30640852
-2.0865314 5.7195539 0
-5.8461685 16.025387 0.95281988
-1.6036394 4.3794179 -0.77752078
-1.6431459 4.4873071 -0.53263807
-1.8808817 5.1365452 -0.30553797
-2.0889676 5.7048116 0
-5.8664203 16.02075 0.9529649
-1.6124723 4.3871145 -0.77923262
-1.6423233 4.4683313 -0.53062087
-1.8879824 5.1367054 -0.30568299
-2.0868826 5.6778607 0
-5.8768115 15.989264 0.95151377
-1.6186632 4.3875785 -0.77966183
-1.6566718 4.4906054 -0.53350323
-1.8815984 5.1002955 -0.3036513
-2.0910385 5.6680079 0
-4.1739268 11.313924 0.67358601
-1.6177537 4.3769684 -0.77794993
-1.6575893 4.4847469 -0.53292614
-1.9008927 5.1430244 -0.30626354
-2.0845404 5.6398983 0
-4.1879683 11.330898 0.67474717
-1.6221459 4.3725967 -0.77752078
-1.6621083 4.4803181 -0.53263807
-1.9089149 5.1456008 -0.30655408
-2.1085496 5.6837287 0
-4.2034621 11.330698 0.67503715
-1.6283264 4.3730459 -0.77794993
-1.6720326 4.4904237 -0.53407931
-1.9232907 5.165204 -0.3078602
-2.116323 5.6836133 0
-4.2361903 11.376745 0.67808491
-1.6318102 4.3662615 -0.77709317
-1.672026 4.4738679 -0.53235006
-1.9177057 5.1312366 -0.30597353
-2.1104355 5.6469274 0
-4.2563024 11.388659 0.67910105
-1.6397904 4.3714995 -0.77837753
-1.6801567 4.4791117 -0.53321522
-1.9184269 5.1143136 -0.30510241
-2.1081188 5.6200109 0
-4.2737107 11.393239 0.6796816
-1.6468785 4.3743153 -0.77923262
-1.6737212 4.4456124 -0.5294677
-1.9392539 5.1509008 -0.30742463
-2.1460831 5.7002654 0
-4.2865596 11.385637 0.67953658
-1.6585155 4.3891339 -0.78222883
-1.6854887 4.4605165 -0.5314849
-1.9445587 5.1461253 -0.30727965
-2.1410112 5.6660218 0
-4.2966399 11.370728 0.67895603
-1.6565353 4.3679247 -0.77880508
-1.6991309 4.4802399 -0.53407931
-1.9434041 5.1243353 -0.30611852
-2.1589267 5.6926222 0
-4.3085313 11.360663 0.67866552
-1.6590714 4.3587198 -0.77752078
-1.6944247 4.4516006 -0.53090888
-1.9597632 5.1486988 -0.30771521
-2.1667321 5.6924486 0
-4.3241057 11.360311 0.67895603
-1.6725843 4.3783016 -0.78137368
-1.7108786 4.4785438 -0.5343684
-1.9474372 5.0977802 -0.3048124
-2.1652474 5.6679392 0
-4.3350468 11.347793 0.6785205
-1.6723577 4.3618913 -0.77880508
-1.7135102 4.4692259 -0.53350323
-1.9619665 5.1172571 -0.30611852
-2.169302 5.6580353 0
-4.3441048 11.330418 0.67779493
-1.6739395 4.3502841 -0.77709317
-1.7170496 4.4623199 -0.53292614
-1.9606831 5.0954819 -0.30495742
-2.1864152 5.6821208 0
-4.3568597 11.322738 0.67764992
-1.6838177 4.3602295 -0.77923262
-1.7252363 4.4674826 -0.53379124
-1.9790068 5.1246185 -0.30684409
-2.1867192 5.6624875 0
-6.1321573 15.879161 0.9507882
-1.6974331 4.3797317 -0.78308392
-1.7250268 4.4509292 -0.53206205
-1.9955274 5.1488771 -0.30844077
-2.1691089 5.5967536 0
-6.1503983 15.86931 0.95064265
-1.6990052 4.3681169 -0.78137368
-1.7360275 4.4633002 -0.53379124
-1.9810228 5.0931797 -0.30524743
-2.1702077 5.5795712 0
-6.1686273 15.859447 0.95049763
-1.7098809 4.380404 -0.78394067
-1.7480037 4.4780674 -0.53580958
-1.9833997 5.0811095 -0.30466741
-2.1958747 5.6254315 0
-6.1849542 15.844728 0.95006263
-1.7076819 4.3592134 -0.78051692
-1.7543558 4.4783583 -0.53609759
-2.017019 5.1488609 -0.30887577
-2.1846335 5.5767312 0
-6.1974592 15.820304 0.94904655
-1.7279756 4.3953719 -0.78736442
-1.7588203 4.4738302 -0.53580958
-2.0061281 5.1028957 -0.30626354
-2.2027965 5.6031518 0
-6.2165709 15.812804 0.94904655
-1.722921 4.3670111 -0.78265637
-1.7594795 4.4596744 -0.5343684
-2.0132451 5.1028829 -0.30640852
-2.2343965 5.663425 0
-6.229949 15.790774 0.94817543
-1.7263082 4.360157 -0.78180122
-1.7696267 4.4695668 -0.53580958
-2.0213244 5.1052828 -0.3066991
-2.2077093 5.5760369 0
-6.2423315 15.76633 0.94715983
-1.7429501 4.3866959 -0.78693688
-1.7817086 4.4842443 -0.53782684
-2.0409224 5.1366396 -0.30873075
-2.2509601 5.665267 0
-6.2325954 15.686336 0.94280595
-1.741593 4.3678927 -0.78394067
-1.7852116 4.4772878 -0.53725076
-2.0307679 5.0931401 -0.30626354
-2.2520223 5.6480432 0
-4.375946 10.974816 0.65994376
-1.7449603 4.3610139 -0.78308392
-1.7992671 4.4967375 -0.53984511
-2.0388529 5.0955119 -0.30655408
-2.2627125 5.6549826 0
-4.393065 10.979171 0.66052431
-1.7502284 4.3589025 -0.78308392
-1.7979519 4.4777565 -0.53782684
-2.0595288 5.1292076 -0.30873075
-2.2860281 5.6932988 0
-4.4043894 10.969027 0.66023374
-1.7566935 4.3673706 -0.78479576
-1.8016248 4.4790759 -0.53811592
-2.0645685 5.1327887 -0.30902132
-2.2700436 5.6436267 0
-4.4129567 10.97119 0.66052431
-1.7456359 4.324779 -0.77752078
-1.8050975 4.4720941 -0.53753877
-2.0727124 5.1351047 -0.30931133
-2.2710147 5.6263947 0
-4.4223199 10.956212 0.65994376
-1.7643541 4.3559813 -0.78351313
-1.8124437 4.474709 -0.53811592
-2.074039 5.1205568 -0.30858576
-2.2856276 5.6429439 0
-5.2090831 12.860609 0.77503306
-1.7725132 4.3609738 -0.78479576
-1.8207681 4.4796972 -0.53898001
-2.0812023 5.1204519 -0.30873075
-2.2924442 5.6401782 0
-5.2246189 12.854306 0.77503306
-1.7787535 4.3612127 -0.78522497
-1.8320422 4.491868 -0.54071027
-2.0903327 5.125154 -0.30916631
-2.31007 5.6639137 0
-5.2548676 12.884076 0.7772103
-1.784022 4.3590603 -0.78522497
-1.8257122 4.4609261 -0.53725076
-2.0935702 5.1154075 -0.30873075
-2.3109994 5.6466718 0
-3.6278489 8.8642483 0.53498495
-1.7834346 4.3426495 -0.78265637
-1.83798 4.4754672 -0.53926909
-2.1056743 5.1273007 -0.30960187
-2.3306723 5.675169 0
-3.6326361 8.8454409 0.53411436
-1.7935699 4.352356 -0.78479576
-1.8483129 4.4851975 -0.54071027
-2.0980058 5.0911136 -0.30756965
-0 0 0
-3.6373794 8.8266258 0.53324324
-1.7968676 4.3454456 -0.78394067
-1.8438455 4.4590545 -0.53782684
-2.1071358 5.0957808 -0.30800521
-2.6287844 6.3573079 0
-3.648042 8.8222237 0.53324324
-1.8129398 4.3693557 -0.78864872
-1.8482417 4.4544368 -0.53753877
-2.1152811 5.0980268 -0.30829519
-0 0 0
-3.6606927 8.8226147 0.53353381
-1.8103245 4.3482027 -0.78522497
-1.8585924 4.4641366 -0.53898001
-2.1294293 5.1146579 -0.30945632
-2.6471417 6.3581467 0
-3.6763432 8.8301764 0.53425938
-1.8155773 4.3460121 -0.78522497
-1.8669771 4.4690499 -0.53984511
-2.1205864 5.0761232 -0.30727965
-2.6387713 6.3165212 0
-3.6920173 8.8377142 0.53498495
-1.8247968 4.3532853 -0.78693688
-1.8643764 4.4477077 -0.53753877
-2.1297328 5.080749 -0.30771521
-2.6635044 6.3541288 0
-3.7047043 8.8380442 0.53527552
-1.8340366 4.3605423 -0.78864872
-1.8817827 4.474062 -0.54099828
-2.1318407 5.0685911 -0.30713466
-2.6409123 6.2789421 0
-3.7194064 8.843133 0.53585547
-1.8373059 4.3535881 -0.78779197
-1.8801467 4.4551015 -0.53898001
-2.1440234 5.0803709 -0.30800521
-2.4319663 5.7626653 0
-3.7361526 8.8530006 0.53672659
-1.8405651 4.346642 -0.78693688
-1.8946083 4.4742694 -0.54157543
-2.1552258 5.0897379 -0.30873075
-2.4389274 5.7597227 0
-3.7407658 8.8341188 0.53585547
-1.8478215 4.3491354 -0.78779197
-1.8959675 4.4624548 -0.54042226
-2.1542642 5.0703964 -0.30771521
-2.4601307 5.7903008 0
-3.7544868 8.8367691 0.53629106
-1.8530753 4.3468995 -0.78779197
-1.9003409 4.4577742 -0.54013312
-2.1675193 5.0845151 -0.30873075
-2.4905958 5.84238 0
-3.7488577 8.7939806 0.53396881
-1.8643816 4.3588142 -0.79035896
-1.9108146 4.4673719 -0.54157543
-2.1930778 5.1272869 -0.31148854
-2.4853716 5.8106527 0
-3.7298512 8.7201729 0.52976048
-1.8676242 4.3518448 -0.78950381
-1.9131501 4.4579272 -0.54071027
-2.2125926 5.155673 -0.31337523
-2.4667368 5.7478676 0
-3.745508 8.7275963 0.53048605
-1.8617126 4.323647 -0.78479576
-1.921605 4.4627414 -0.54157543
-2.2126527 5.1386714 -0.31250411
-2.4798539 5.7592201 0
-3.7406352 8.6872635 0.52830881
-1.8782831 4.333272 -0.78736442
-1.932384 4.4580846 -0.54157543
-2.2488339 5.1881466 -0.31584245
-2.4989383 5.7651472 0
-3.7585168 8.6710434 0.52787322
-1.8937535 4.3545356 -0.79164326
-1.9387999 4.4581161 -0.54186344
-2.2374852 5.1449189 -0.31337523
-2.5079803 5.7669015 0
-3.7721012 8.6736469 0.52830881
-1.8933074 4.3463278 -0.79035896
-1.9414929 4.456944 -0.54186344
-2.2592702 5.1864419 -0.31598747
-2.5322471 5.8130951 0
-3.7731898 8.6618376 0.52772826
-1.9016428 4.3510962 -0.79164326
-1.945842 4.4522271 -0.54157543
-2.2707374 5.195611 -0.31671301
-2.5538623 5.8434215 0
-3.7878156 8.6667957 0.52830881
-1.905869 4.3464465 -0.79121572
-1.9481032 4.4427638 -0.54071027
-2.2759709 5.190486 -0.31656802
-2.5556927 5.8284073 0
-3.7962 8.6574574 0.52801877
-1.9038824 4.3276901 -0.78821951
-1.9576361 4.4498768 -0.54186344
-2.2927027 5.2115121 -0.31801912
-2.5480633 5.7919693 0
-3.8087487 8.6576166 0.52830881
-1.9288058 4.3700099 -0.79635131
-1.9661417 4.4546003 -0.54272753
-2.3010986 5.2134972 -0.31830969
-2.5540102 5.7865076 0
-3.8223557 8.6601419 0.52874434
-1.9174544 4.3301201 -0.78950381
-1.9746655 4.4593182 -0.54359263
-2.3094985 5.2154598 -0.3185997
-2.5652151 5.7929358 0
-3.8401828 8.6721506 0.52976048
-1.9278952 4.3395281 -0.79164326
-1.9769009 4.4498358 -0.54272753
-2.3337321 5.2530322 -0.32106692
-2.582777 5.813611 0
-6.4689636 14.561087 0.88997799
-1.9383616 4.3489165 -0.79378271
-1.9833323 4.4498129 -0.54301661
-2.345366 5.2620735 -0.32179248
-2.5770857 5.781961 0
-6.4802041 14.539014 0.88910687
-1.9404743 4.3395476 -0.79250002
-2.0003185 4.4733796 -0.54618698
-2.3389981 5.2307796 -0.32005137
-2.5840704 5.7788429 0
-6.5104957 14.559639 0.89084852
-1.9446627 4.3348508 -0.79207081
-1.9972529 4.4520798 -0.5438807
-2.3474419 5.2326865 -0.32034135
-2.5889227 5.7709718 0
-4.1702652 9.2959452 0.5690912
-1.9425272 4.3161182 -0.78907627
-2.0036955 4.4520288 -0.54416978
-2.3526974 5.227479 -0.32019636
-2.5926886 5.7607174 0
-4.1729631 9.2719431 0.56793004
-1.9604176 4.3418436 -0.79421186
-2.0080061 4.4472404 -0.5438807
-2.3419032 5.1867409 -0.31787413
-2.6135688 5.7884135 0
-4.1809545 9.2597876 0.56749451
-1.9709574 4.351161 -0.79635131
-2.0080431 4.433033 -0.54243946
-2.3599634 5.2099457 -0.31947079
-2.6141202 5.7710319 0
-4.1814203 9.2310638 0.56604338
-1.9794006 4.3557901 -0.79763561
-2.0219586 4.4494414 -0.5447458
-2.3705571 5.2165532 -0.32005137
-2.6318562 5.7915578 0
-4.1742969 9.185791 0.56357616
-1.9708161 4.3230233 -0.79207081
-2.0294814 4.4517064 -0.54532295
-2.4016466 5.2680578 -0.32338914
-2.6496501 5.8120584 0
-4.1724586 9.1523685 0.56183451
-1.9920545 4.3556585 -0.79849076
-2.0337801 4.4468918 -0.54503381
-2.3950415 5.2367959 -0.32164747
-2.6447632 5.7828164 0
-4.1370459 9.0457163 0.55559391
-1.986613 4.3299208 -0.79421186
-2.0337598 4.4326792 -0.54359263
-2.3872817 5.203198 -0.3197608
-2.6669405 5.8127275 0
-4.1295528 9.0005636 0.55312669
-2.0025744 4.3508315 -0.79849076
-2.0412793 4.4349222 -0.54416978
-2.3968275 5.2073927 -0.32019636
-2.6848454 5.8331466 0
-4.1230426 8.9578009 0.55080444
-1.9927664 4.3157845 -0.79250002
-2.0488031 4.4371443 -0.5447458
-2.39658 5.1903338 -0.31932524
-6.1926961 13.411679 0
-6.7796135 14.682781 0.90332967
-2.0076892 4.3343353 -0.79635131
-2.0606878 4.4487519 -0.54647613
-2.4192328 5.2228031 -0.32150248
-6.2121754 13.411264 0
-6.8028135 14.686374 0.90405577
-2.021579 4.3505301 -0.79977506
-2.073688 4.4626713 -0.54849333
-2.4244478 5.2175221 -0.32135749
-6.209733 13.363628 0
-6.8085084 14.65222 0.90245914
-2.0300851 4.3550577 -0.8010577
-2.0670614 4.434382 -0.54532295
-2.4109874 5.1721916 -0.31874469
-6.215981 13.334888 0
-6.8240099 14.639268 0.90216857
-2.0320866 4.3456321 -0.79977506
-2.0822775 4.4529653 -0.54791731
-2.4040313 5.1410379 -0.31700358
-6.2420096 13.348582 0
-6.8648071 14.680439 0.90521634
-2.0216463 4.3165069 -0.79463947
-2.0696068 4.4189095 -0.5438807
-2.4181557 5.1631117 -0.31845468
-6.2357244 13.314173 0
-6.9012265 14.735116 0.90884471
-2.0377743 4.3372908 -0.79891831
-2.0826447 4.432795 -0.54589897
-2.43102 5.1742926 -0.31932524
-6.2507019 13.304275 0
-6.9212379 14.731475 0.90913528
-2.0462978 4.3417935 -0.80020261
-2.0780764 4.4092207 -0.54330462
-2.4572127 5.2136645 -0.32193804
-6.2390361 13.237862 0
-6.9434643 14.732503 0.90971583
-2.049346 4.334672 -0.79934585
-2.1055126 4.4534726 -0.54907048
-2.4579585 5.1989479 -0.32121247
-6.2416787 13.20208 0
-6.9201684 14.637186 0.90434581
-2.0600855 4.3437963 -0.80148691
-2.1086736 4.4462471 -0.54849333
-2.4675758 5.203011 -0.32164747
-6.2498231 13.178075 0
-4.3937197 9.2643843 0.57271951
-2.0708456 4.3528924 -0.80362636
-2.1107142 4.4366956 -0.5476293
-2.4727457 5.1976814 -0.32150248
-6.2444978 13.125859 0
-4.3970957 9.2426414 0.57170343
-2.0661542 4.3295383 -0.79977506
-2.1249809 4.4528074 -0.54993451
-2.4902134 5.2181363 -0.32295358
-6.2469025 13.090119 0
-4.4082603 9.2373219 0.57170343
-2.0758178 4.3363004 -0.80148691
-2.1225455 4.4339128 -0.54791731
-2.4987626 5.2198153 -0.32324415
-6.2436128 13.042658 0
-4.4059548 9.2038631 0.56996173
-2.0888312 4.3499808 -0.80448145
-2.12902 4.4336739 -0.54820532
-2.5028162 5.2121029 -0.32295358
-6.241343 12.997567 0
-4.4193244 9.2032223 0.5702523
-2.0940857 4.3474541 -0.80448145
-2.141108 4.4450755 -0.54993451
-2.5046017 5.1997108 -0.32237303
-6.2480125 12.971269 0
-4.4462261 9.2306461 0.57228398
-2.0937543 4.3333654 -0.80234206
-2.1408525 4.4308429 -0.54849333
-2.5199263 5.2153983 -0.32353416
-6.2512259 12.93793 0
-4.4901586 9.2931147 0.57649291
-2.1057086 4.3446975 -0.80491066
-2.1495898 4.4352374 -0.54935849
-2.5375614 5.2357368 -0.32498583
-6.2362113 12.867142 0
-4.5081816 9.3017073 0.57736343
-2.1098311 4.3398342 -0.80448145
-2.1594708 4.4419417 -0.55051166
-2.5416114 5.2279887 -0.32469526
-6.2472029 12.850235 0
-4.5341859 9.3266315 0.5792501
-2.1162019 4.3395958 -0.80491066
-2.1671016 4.443974 -0.55108768
-2.5559001 5.2412648 -0.32571137
-6.2421904 12.800568 0
-4.531785 9.2931194 0.57750845
-2.1180587 4.3301158 -0.80362636
-2.1701989 4.4367099 -0.55051166
-2.5530972 5.2194996 -0.32455027
-6.2393608 12.75562 0
-4.5475774 9.2969732 0.578089
-2.1345947 4.350595 -0.8079052
-2.1755583 4.4340844 -0.55051166
-2.5822935 5.2630663 -0.32745305
-6.2513285 12.74106 0
-3.2002776 6.5226021 0.40581778
-2.1296492 4.3272853 -0.8040539
-2.1889102 4.4476995 -0.55252999
-2.6138914 5.3112288 -0.33064586
-6.2184558 12.63543 0
-3.2081566 6.5187302 0.40581778
-2.1462374 4.3477235 -0.80833274
-2.1919909 4.4404082 -0.55195284
-2.6237588 5.3150587 -0.33108142
-6.1726642 12.504226 0
-3.1907241 6.4635844 0.40262443
-2.1526315 4.347434 -0.80876195
-2.1927638 4.4284849 -0.55079967
-2.637095 5.3258519 -0.33195198
-6.203938 12.529414 0
-3.6470325 7.3655119 0.45908076
-2.1453214 4.3195372 -0.8040539
-2.2096159 4.4489927 -0.55368209
-2.6585531 5.3529134 -0.33383864
-6.1623502 12.4077 0
-3.6582434 7.3657589 0.45937133
-2.1562612 4.3284283 -0.80619335
-2.2242167 4.4648404 -0.55598837
-2.665019 5.3496971 -0.33383864
-6.1320839 12.309402 0
-3.6717753 7.3706365 0.45995188
-2.164933 4.3327112 -0.80747765
-2.2145817 4.4320736 -0.55224085
-2.6563835 5.3162575 -0.33195198
-6.0922828 12.192572 0
-3.1371462 6.2784152 0.39202994
-2.1713157 4.3323846 -0.8079052
-2.2303643 4.4502029 -0.55483526
-2.6581481 5.3037519 -0.3313714
-6.1081758 12.187526 0
-3.1680152 6.3210802 0.39493275
-2.1857729 4.3481069 -0.81132895
-2.2229645 4.4220915 -0.55166483
-2.6622229 5.2958975 -0.33108142
-6.0971842 12.128986 0
-3.1908216 6.3474264 0.39681941
-2.1883993 4.3467855 -0.81132895
-2.2291262 4.4276805 -0.55252999
-2.6724305 5.3082089 -0.33195198
-6.0998297 12.116002 0
-3.2226989 6.4011993 0.40030277
-2.1901774 4.3372612 -0.81004465
-2.236804 4.4295969 -0.55310601
-2.6753275 5.2980156 -0.33151641
-6.092175 12.064482 0
-3.2585373 6.45296 0.40378556
-2.193099 4.3300357 -0.8091895
-2.2491646 4.440731 -0.55483526
-2.6887739 5.308692 -0.33238751
-6.0914626 12.026932 0
-3.2651591 6.446702 0.40364054
-2.2018185 4.3342509 -0.8104738
-2.2639003 4.4564581 -0.55714154
-2.699894 5.3147058 -0.33296809
-6.0894909 11.987083 0
-3.302367 6.5006661 0.40726888
-2.2128801 4.3430214 -0.81261325
-2.265764 4.4468122 -0.55627751
-2.7015951 5.3021789 -0.33238751
-6.0850663 11.942615 0
-3.3196566 6.515193 0.40843001
-2.216959 4.3380609 -0.8121857
-2.2723114 4.446372 -0.55656552
-2.7127295 5.3081656 -0.33296809
-6.0876513 11.912084 0
-3.3145185 6.485723 0.40683335
-2.2245388 4.3399434 -0.81304079
-2.267065 4.4229097 -0.55397117
-2.7226939 5.3118143 -0.33340308
-6.0972919 11.895455 0
-3.2986474 6.4354658 0.40393054
-2.2286086 4.3349714 -0.81261325
