# .PCD v0.7 - Point Cloud Data file format
VERSION 0.7
FIELDS x y z
SIZE 4 4 4
TYPE F F F
COUNT 1 1 1
WIDTH 1659
HEIGHT 1
VIEWPOINT 0 0 0 1 0 0 0
POINTS 1659
DATA ascii
4.8147521 -3.4715261 -0.98957711
5.6353283 -4.0631771 -0.77436507
6.8681788 -4.952085 -0.47295058
6.9596663 -5.0180492 0
6.9502764 -5.0112791 0.4786039
0 -0 -0
0 -0 -0
4.8251891 -3.4701982 -0.99085975
5.6402335 -4.0563645 -0.77436507
6.8720498 -4.9422669 -0.47280556
6.959384 -5.0050764 0
6.9563265 -5.0028772 0.4786039
0 -0 -0
0 -0 -0
4.8168678 -3.4553902 -0.98829281
5.643023 -4.0480347 -0.77407593
6.8716807 -4.9294147 -0.47237
6.9569678 -4.9905958 0
6.9581475 -4.9914422 0.47831389
0 -0 -0
0 -0 -0
4.8210392 -3.4495676 -0.98829281
5.6521211 -4.0442262 -0.77465308
6.8818541 -4.924129 -0.47266001
6.9587641 -4.9791598 0
6.9493794 -4.972445 0.47729778
0 -0 -0
0 -0 -0
4.8377366 -3.4526844 -0.99085975
5.6506858 -4.0328846 -0.77378792
6.8772259 -4.9082642 -0.47193447
6.9605346 -4.9677215 0
6.9553823 -4.9640446 0.47729778
0 -0 -0
4.8356371 -3.4423745 -0.98957711
5.6492314 -4.0215526 -0.77292275
6.8746839 -4.8939228 -0.47135389
6.953815 -4.9502544 0
6.9550228 -4.9511142 0.47686222
0 -0 -0
4.8335118 -3.4320691 -0.98829281
5.6583085 -4.0177217 -0.77349991
6.8890672 -4.8916302 -0.47193447
6.9534235 -4.9373269 0
6.9525337 -4.9366951 0.47628224
0 -0 -0
4.8418412 -3.4291906 -0.9891479
5.6568246 -4.0063953 -0.77263474
6.8907356 -4.880302 -0.47164446
6.9551406 -4.9259162 0
6.9521303 -4.9237838 0.47584668
0 -0 -0
4.8438864 -3.4218581 -0.98872036
5.6595511 -3.9980664 -0.77234674
6.8966274 -4.8719721 -0.47164446
6.9547086 -4.9130025 0
6.953826 -4.9123788 0.47555611
0 -0 -0
4.8417282 -3.411571 -0.98743767
5.6559205 -3.985266 -0.77119356
6.891891 -4.8561535 -0.47091889
6.9542556 -4.9000969 0
6.9491377 -4.8964906 0.47483054
0 -0 -0
4.8500433 -3.4086676 -0.98829281
5.664968 -3.9814062 -0.77177072
6.9020014 -4.8508077 -0.4712089
6.9601712 -4.8916903 0
6.9444218 -4.8806214 0.474105
0 -0 -0
4.8520584 -3.4013326 -0.98786521
5.6718907 -3.9760416 -0.77205873
6.9248791 -4.8543968 -0.47237
6.9554238 -4.8758087 0
6.9460545 -4.8692408 0.47381443
0 -0 -0
4.8624701 -3.3998761 -0.9891479
5.6745729 -3.9677045 -0.77177072
6.9094486 -4.8311391 -0.47091889
6.9527788 -4.8614359 0
6.9498053 -4.8593569 0.47366944
0 -0 -0
4.8602638 -3.3895972 -0.98786521
5.6751161 -3.9578831 -0.77119356
6.9238062 -4.8287325 -0.47149944
6.9543829 -4.8500566 0
6.9492841 -4.8465009 0.47323444
0 -0 -0
4.8601375 -3.3807874 -0.98700845
5.677773 -3.9495473 -0.77090555
6.9211035 -4.8144274 -0.47091889
6.9474154 -4.8327303 0
6.9466023 -4.8321652 0.47265387
0 -0 -0
4.8642187 -3.3749123 -0.98700845
5.678287 -3.9397323 -0.7703284
6.918376 -4.8001361 -0.47033834
6.9468412 -4.8198857 0
6.950295 -4.8222823 0.47250831
0 -0 -0
4.8725891 -3.3763607 -0.98829281
5.6849217 -3.9392502 -0.77090555
6.9255424 -4.7989125 -0.47062835
6.9433322 -4.8112397 0
6.9489398 -4.8151255 0.47221833
0 -0 -0
4.8703279 -3.3660905 -0.98700845
5.6832924 -3.9279652 -0.77004039
6.924921 -4.7861075 -0.47019279
6.9427156 -4.7984061 0
6.9419231 -4.7978582 0.47134721
0 -0 -0
4.8638258 -3.3529198 -0.98486906
5.6944251 -3.9255004 -0.77090555
6.9242868 -4.7733164 -0.4697578
6.9420786 -4.7855811 0
6.9434409 -4.78652 0.47105721
0 -0 -0
4.8826828 -3.3572228 -0.98786521
5.690639 -3.9127553 -0.76975238
6.951457 -4.7796655 -0.4712089
6.9457135 -4.7757163 0
6.944941 -4.7751851 0.4707672
0 -0 -0
4.8803825 -3.3469636 -0.98658091
5.6910925 -3.9029479 -0.76917523
6.9507966 -4.7668524 -0.47077334
6.9386053 -4.7584915 0
6.9464159 -4.7638483 0.47047666
0 -0 -0
4.8801894 -3.3381684 -0.98572582
5.700078 -3.8989918 -0.76975238
6.9544086 -4.7569842 -0.47062835
6.9443498 -4.7501044 0
6.9435883 -4.7495832 0.46989608
0 -0 -0
4.8884563 -3.3351598 -0.98658091
5.709054 -3.895014 -0.7703284
6.9644485 -4.7515097 -0.47091889
6.9457808 -4.7387738 0
6.9450331 -4.7382636 0.4696061
0 -0 -0
4.8988519 -3.3335845 -0.98786521
5.7094836 -3.8852055 -0.76975238
6.948698 -4.7284698 -0.46946722
6.9428949 -4.7245212 0
6.9464526 -4.7269421 0.46931553
0 -0 -0
4.896502 -3.3233366 -0.98658091
5.7098894 -3.875396 -0.76917523
6.9673104 -4.7288284 -0.47033834
6.9485989 -4.7161283 0
6.9478636 -4.7156296 0.46902552
0 -0 -0
4.9005141 -3.3174176 -0.98658091
5.7124281 -3.8670454 -0.76888722
6.962254 -4.713119 -0.46961221
6.9392123 -4.6975207 0
6.9449492 -4.7014041 0.46844497
0 -0 -0
4.9002681 -3.3086238 -0.98572582
5.7106638 -3.8557968 -0.76802206
6.9808693 -4.7134299 -0.47048333
6.9427285 -4.6876779 0
6.9398594 -4.6857405 0.46771941
0 -0 -0
4.9042621 -3.3027003 -0.98572582
5.7196136 -3.8517861 -0.76859921
6.9779382 -4.6991858 -0.46990278
6.9419098 -4.6749229 0
6.9412012 -4.6744456 0.46742886
0 -0 -0
4.9125071 -3.2996321 -0.98658091
5.7307067 -3.8492002 -0.76946437
6.9814563 -4.6893034 -0.4697578
6.9432282 -4.6636267 0
6.9360614 -4.6588125 0.4667033
0 -0 -0
4.9164906 -3.2936938 -0.98658091
5.7117143 -3.8264363 -0.76629287
6.9914308 -4.683754 -0.47004777
6.9358897 -4.6465454 0
6.9352069 -4.6460881 0.46626773
0 -0 -0
4.9097967 -3.2806213 -0.98444152
5.7313895 -3.8295922 -0.7683112
6.9906015 -4.6709704 -0.46961221
6.9306817 -4.6309333 0
6.9386573 -4.6362624 0.46612275
0 -0 -0
4.9158912 -3.2761085 -0.98486906
5.7360129 -3.822664 -0.7683112
6.9897594 -4.6582017 -0.46917722
6.9341002 -4.6211081 0
6.9269562 -4.6163473 0.46496162
0 -0 -0
4.9242826 -3.2774062 -0.98615336
5.7361617 -3.8177607 -0.76802206
6.9817591 -4.6467805 -0.46845168
6.9303975 -4.6125965 0
6.9254217 -4.6092849 0.46467161
0 -0 -0
4.9261026 -3.2700355 -0.98572582
5.736465 -3.8079689 -0.76744604
6.9743752 -4.6297159 -0.46758056
6.9402986 -4.6070948 0
6.9201555 -4.5937238 0.46394551
0 -0 -0
4.9300499 -3.264081 -0.98572582
5.7432165 -3.8024611 -0.76773405
6.958302 -4.6069431 -0.46612942
6.93718 -4.5929589 0
6.9300385 -4.5882306 0.46423608
0 -0 -0
4.9361305 -3.2595346 -0.98615336
5.7434945 -3.792671 -0.76715803
6.9616976 -4.5971017 -0.46598443
6.9296985 -4.5759716 0
6.9312363 -4.5769873 0.46394551
0 -0 -0
4.9525757 -3.2532339 -0.98786521
5.750483 -3.7773614 -0.76687002
0 -0 -0
6.9494371 -4.5649271 0
6.9270806 -4.5502415 0.46292996
0 -0 -0
4.9393244 -3.2359931 -0.98444152
5.759366 -3.7732425 -0.76744604
6.9652705 -4.5632892 -0.46511331
6.9505901 -4.5536714 0
6.9304023 -4.5404453 0.46278495
0 -0 -0
4.9410839 -3.2286198 -0.98401392
5.75526 -3.7606213 -0.76629287
0 -0 -0
6.9648018 -4.5509639 0
6.9271822 -4.5263829 0.4622044
0 -0 -0
4.9557328 -3.2296536 -0.98615336
5.7532969 -3.7494266 -0.76542771
6.9370966 -4.5209093 -0.46250108
6.9746604 -4.5453897 0
6.9304633 -4.5165863 0.46205884
0 -0 -0
4.9596319 -3.2236633 -0.98615336
5.7643313 -3.7467022 -0.76629287
6.9447308 -4.5139389 -0.4626461
6.9452343 -4.514266 0
6.9315624 -4.5053797 0.46176884
0 -0 -0
4.9656754 -3.2190633 -0.98658091
5.7688541 -3.7397344 -0.76629287
6.9414582 -4.4998903 -0.46206552
6.9419489 -4.5002084 0
6.9282799 -4.4913468 0.46118829
0 -0 -0
4.9587846 -3.2060933 -0.98444152
5.7646809 -3.7271438 -0.7651397
6.9403424 -4.4872656 -0.46162996
6.9451981 -4.4904051 0
6.9358816 -4.4843817 0.46133327
0 -0 -0
4.9648104 -3.201489 -0.98486906
5.7735314 -3.7229817 -0.76571685
6.9457593 -4.4788766 -0.46162996
6.9462404 -4.4791865 0
6.9281964 -4.4675512 0.46046272
0 -0 -0
4.9708319 -3.1968749 -0.98529661
5.7845459 -3.720196 -0.76658088
6.9402404 -4.4634542 -0.46090442
6.9428916 -4.4651594 0
6.927031 -4.4549589 0.46002716
0 -0 -0
4.9746914 -3.1908662 -0.98529661
5.7803283 -3.707618 -0.76542771
6.9368801 -4.4494534 -0.46032384
6.9460936 -4.4553633 0
6.9280386 -4.4437823 0.45973715
0 -0 -0
4.9763827 -3.183471 -0.98486906
5.7848039 -3.7006309 -0.76542771
6.9400644 -4.4396691 -0.46017885
6.9383221 -4.4385548 0
6.9246478 -4.4298067 0.4591566
0 -0 -0
4.973731 -3.1733122 -0.98358476
5.7870932 -3.6922486 -0.7651397
6.9366617 -4.4256897 -0.4595983
6.9414883 -4.4287696 0
6.9190359 -4.4144444 0.4584305
0 -0 -0
4.9799814 -3.1730683 -0.98444152
5.7936893 -3.691534 -0.76571685
6.9327579 -4.4173079 -0.45916274
6.9244032 -4.4119849 0
6.9217019 -4.4102635 0.4584305
0 -0 -0
4.9859767 -3.1684239 -0.98486906
5.7915945 -3.6803677 -0.76485169
6.9358993 -4.4075356 -0.45901775
6.916554 -4.3952427 0
6.9248347 -4.4005046 0.45828548
0 -0 -0
4.9854689 -3.1596513 -0.98401392
5.7982202 -3.6747503 -0.7651397
6.9346333 -4.3949776 -0.45858219
6.8888845 -4.3659835 0
6.9147897 -4.382401 0.45726994
0 -0 -0
4.9914508 -3.1549954 -0.98444152
5.8048401 -3.6691222 -0.76542771
6.9355497 -4.383821 -0.45829219
0 -0 0
6.9200797 -4.3740425 0.45726994
0 -0 -0
4.9865732 -3.143486 -0.98272961
5.8048973 -3.6593497 -0.76485169
6.9320493 -4.369895 -0.45771164
0 -0 0
6.9187632 -4.3615193 0.45683438
0 -0 -0
4.9860172 -3.1347232 -0.98187286
5.8071275 -3.6509576 -0.76456368
6.932929 -4.3587523 -0.45742163
0 -0 0
6.9086275 -4.3434739 0.45581827
0 -0 -0
5.0028548 -3.1368811 -0.98444152
5.8115344 -3.6439381 -0.76456368
6.9315839 -4.3462296 -0.45698607
6.9297566 -4.3450837 0
6.909472 -4.332365 0.45552826
0 -0 -0
4.993578 -3.1226647 -0.98187286
5.8137341 -3.6355379 -0.76427454
6.9368305 -4.337851 -0.45698607
6.9283795 -4.3325663 0
6.9080901 -4.3198786 0.4550927
0 -0 -0
5.0082445 -3.1234248 -0.98401392
5.8181224 -3.6285105 -0.76427454
6.926631 -4.3198395 -0.45596996
6.9225707 -4.317307 0
6.9044857 -4.3060279 0.45451215
0 -0 -0
5.0011096 -3.1105881 -0.98187286
5.8225026 -3.6214778 -0.76427454
6.9274373 -4.3087244 -0.45567995
6.9277821 -4.308939 0
6.9030619 -4.2935638 0.45407659
0 -0 -0
5.0135903 -3.1099558 -0.98358476
5.8290787 -3.6158073 -0.76456368
6.9238057 -4.2948723 -0.4550994
6.9175005 -4.2909608 0
6.9060388 -4.2838511 0.45393157
0 -0 -0
5.0173445 -3.1038954 -0.98358476
5.8202415 -3.600594 -0.76283336
6.922359 -4.2824006 -0.45466384
6.9226804 -4.2825994 0
6.8979559 -4.2673039 0.45306101
0 -0 -0
5.0123525 -3.0924392 -0.98187286
5.8311934 -3.5976346 -0.76369852
6.9275284 -4.2740331 -0.45466384
6.9212031 -4.2701306 0
6.9031067 -4.258966 0.45306101
0 -0 -0
5.0160851 -3.0863805 -0.98187286
5.8355365 -3.5905859 -0.76369852
6.9304767 -4.2642989 -0.45451882
6.9241433 -4.2604022 0
6.9060283 -4.2492561 0.45291546
0 -0 -0
5.0263767 -3.0843463 -0.98315716
5.8354573 -3.5808241 -0.76312137
6.9223313 -4.2477651 -0.45364773
6.9226294 -4.2479477 0
6.90452 -4.2368355 0.45248047
0 -0 -0
5.0344834 -3.0809531 -0.98401392
5.8464003 -3.5778222 -0.76398653
6.9208164 -4.2353325 -0.45321271
6.9233217 -4.2368655 0
6.8985548 -4.2217088 0.4517549
0 -0 -0
5.0294375 -3.0695186 -0.98230207
5.8440938 -3.5667117 -0.76312137
6.9214883 -4.224257 -0.45292217
6.9173312 -4.2217197 0
6.8992105 -4.2106605 0.45146435
0 -0 -0
5.0356712 -3.0691488 -0.98315716
5.8462477 -3.5631802 -0.76312137
6.9196062 -4.2173724 -0.45263216
6.9154315 -4.214828 0
6.8950944 -4.2024331 0.45102879
0 -0 -0
5.0240269 -3.0537324 -0.98016262
5.8505487 -3.5561137 -0.76312137
6.9180331 -4.204958 -0.4521966
6.9138455 -4.2024126 0
6.9001675 -4.1940989 0.45102879
0 -0 -0
5.0342922 -3.0516479 -0.98144531
5.8482122 -3.5450234 -0.76225734
6.916441 -4.192554 -0.45176104
6.9166946 -4.1927075 0
6.9007902 -4.1830668 0.45073879
0 -0 -0
5.0401707 -3.0468893 -0.98187286
5.8524914 -3.5379543 -0.76225734
6.9103851 -4.1774735 -0.4510355
6.912847 -4.1789618 0
6.8947229 -4.1680055 0.45001325
0 -0 -0
5.0394559 -3.0381489 -0.98101777
5.8611879 -3.5335484 -0.76283336
6.9176512 -4.1704607 -0.45118049
6.9178915 -4.1706057 0
6.8930764 -4.1556454 0.44957769
0 -0 -0
5.0431232 -3.0320575 -0.98101777
5.8676677 -3.5277953 -0.76312137
6.9137774 -4.1567435 -0.45059994
6.9117761 -4.1555405 0
6.8958678 -4.1459761 0.44943267
0 -0 -0
5.0511823 -3.0285993 -0.98187286
5.8630528 -3.5153825 -0.7619682
6.9165683 -4.1470518 -0.45045492
6.9190221 -4.1485229 0
6.8964109 -4.1349654 0.44914213
0 -0 -0
5.0570478 -3.0238149 -0.98230207
5.8606429 -3.5043173 -0.76110417
6.9104257 -4.1320252 -0.44972938
6.9128633 -4.1334829 0
6.8947182 -4.122633 0.44870713
0 -0 -0
5.054081 -3.0137568 -0.98101777
5.8804173 -3.5065024 -0.76312137
6.9131837 -4.1223426 -0.44958436
6.9178529 -4.1251268 0
6.8952265 -4.1116347 0.44841656
0 -0 -0
5.0665445 -3.0128961 -0.98272961
5.8779869 -3.4954321 -0.76225734
6.9069948 -4.107347 -0.4488588
6.9116502 -4.1101155 0
6.8957272 -4.1006465 0.44812655
0 -0 -0
5.0657611 -3.0041504 -0.98187286
5.882206 -3.4883273 -0.76225734
6.9141855 -4.1003222 -0.44900382
6.9143748 -4.1004348 0
6.8872628 -4.0843563 0.44725543
0 -0 -0
5.0627651 -2.9941108 -0.98059022
5.8775115 -3.4759507 -0.76110417
6.9057112 -4.0840263 -0.44813269
6.9126019 -4.0881014 0
6.8899584 -4.0747099 0.44711044
0 -0 -0
5.070797 -2.990597 -0.98144531
5.8861589 -3.4714718 -0.76168019
6.9173574 -4.0796404 -0.44856825
6.9085698 -4.0744576 0
6.8859239 -4.0611019 0.4465299
0 -0 -0
5.0699859 -2.9818673 -0.98059022
5.8792038 -3.4578018 -0.76023901
6.9021258 -4.0594244 -0.44726214
6.9112468 -4.0647888 0
6.8930635 -4.0540943 0.44667488
0 -0 -0
5.073585 -2.9757392 -0.98059022
5.8856068 -3.4520028 -0.76052701
6.9159913 -4.0563402 -0.44784269
6.9071741 -4.0511684 0
6.8867526 -4.0391908 0.44594932
0 -0 -0
5.077177 -2.9696066 -0.98059022
5.8942428 -3.4475029 -0.76110417
6.9141569 -4.0440435 -0.44740713
6.9053226 -4.0388765 0
6.8826561 -4.025619 0.44536877
0 -0 -0
5.078546 -2.9621775 -0.98016262
5.9006362 -3.4416802 -0.76139218
6.921289 -4.0369992 -0.44755271
6.9057059 -4.0279098 0
6.8875151 -4.0172997 0.44536877
0 -0 -0
5.0776792 -2.953455 -0.97930586
5.8869042 -3.4241443 -0.75908583
6.9149251 -4.0220971 -0.44682658
6.9038167 -4.015636 0
6.8856239 -4.005054 0.44493321
0 -0 -0
5.079463 -2.9503868 -0.97930586
5.9090991 -3.4322779 -0.76168019
6.9196072 -4.0192275 -0.44697213
6.9017448 -4.0088525 0
6.8790545 -3.9956729 0.44435266
0 -0 -0
5.0763578 -2.9403858 -0.97802156
5.9177227 -3.4277306 -0.76225734
6.9132094 -4.0043478 -0.44624603
6.8975759 -3.9952924 0
6.879385 -3.9847558 0.44406265
0 -0 -0
5.0821362 -2.9355376 -0.97845078
5.917376 -3.4179878 -0.76168019
6.9202995 -3.9972951 -0.44639158
6.8956356 -3.9830487 0
6.8819466 -3.975142 0.44391766
0 -0 -0
5.0767817 -2.9242694 -0.97673893
5.9147844 -3.406966 -0.76081616
6.9318728 -3.9928176 -0.44682658
6.9004431 -3.9747138 0
6.8777385 -3.9616358 0.44333711
0 -0 -0
5.0869832 -2.9219651 -0.97802156
5.9121661 -3.3959506 -0.759951
6.9209266 -3.9753828 -0.44581103
6.900723 -3.963778 0
6.8802691 -3.9520295 0.44319209
0 -0 -0
5.0905099 -2.9158165 -0.97802156
5.9230003 -3.3926625 -0.76081616
6.939249 -3.9747639 -0.44668159
6.8964744 -3.950263 0
6.8850393 -3.9437132 0.44319209
0 -0 -0
5.0940294 -2.9096634 -0.97802156
5.9225993 -3.382935 -0.76023901
6.9395385 -3.9638011 -0.44639158
6.8967271 -3.939348 0
6.8785114 -3.9289434 0.44246599
0 -0 -0
5.0886192 -2.8984241 -0.97630972
5.9221921 -3.3732183 -0.75966299
6.9375467 -3.9515538 -0.44595602
6.8969636 -3.9284379 0
6.8787427 -3.9180593 0.44217598
0 -0 -0
5.0921178 -2.8922734 -0.97630972
5.9195142 -3.3622267 -0.75879782
6.9174609 -3.9290504 -0.44435936
6.888123 -3.9123871 0
6.8812146 -3.908463 0.442031
0 -0 -0
5.0956087 -2.8861184 -0.97630972
5.9235725 -3.3550715 -0.75879782
6.9176855 -3.9181304 -0.44406936
6.8928456 -3.9040613 0
6.8746295 -3.8937438 0.44130543
0 -0 -0
5.1013341 -2.8812253 -0.97673893
5.9276223 -3.3479116 -0.75879782
6.9269357 -3.9123223 -0.44435936
6.8952942 -3.8944511 0
6.8793292 -3.8854342 0.44130543
0 -0 -0
5.0936217 -2.868757 -0.97459781
5.9316635 -3.3407469 -0.75879782
6.9158158 -3.8950272 -0.44334379
6.8954549 -3.8835599 0
6.8749628 -3.8720186 0.44072488
0 -0 -0
5.1060371 -2.8676283 -0.97630972
5.9356956 -3.3335772 -0.75879782
6.9137182 -3.8828495 -0.44290823
6.8956084 -3.872679 0
6.8728371 -3.8598902 0.44028932
0 -0 -0
5.1005392 -2.8564394 -0.97459781
5.9464917 -3.3301952 -0.75966299
6.9093361 -3.8694143 -0.44232768
6.8912005 -3.8592577 0
6.8774962 -3.851583 0.44028932
5.1039872 -2.8502741 -0.97459781
5.9369574 -3.3154387 -0.75793266
6.904932 -3.8559952 -0.44174713
6.8913183 -3.8483927 0
6.8708038 -3.8369367 0.43956375
0 -0 -0
5.1051865 -2.8428571 -0.97417027
5.9454827 -3.3107817 -0.75850981
6.8982372 -3.8413293 -0.44102156
6.8914118 -3.8375285 0
6.8754349 -3.8286319 0.43956375
5.1035933 -2.8298638 -0.97288597
5.9469452 -3.2974894 -0.75793266
6.8915491 -3.8212576 -0.44015044
6.8892517 -3.8199837 0
6.8664532 -3.8073425 0.43854764
0 -0 -0
5.1025205 -2.8212132 -0.97203088
5.9509254 -3.2903013 -0.75793266
6.9120812 -3.8217301 -0.44116655
6.8847518 -3.8066194 0
6.8733206 -3.8002989 0.43869263
5.1014338 -2.8125694 -0.97117573
5.9548969 -3.2831085 -0.75793266
0 -0 -0
6.8870697 -3.7970426 0
6.8688054 -3.786973 0.43811208
5.1093235 -2.8088741 -0.97203088
5.9565949 -3.2746658 -0.75764465
6.8825893 -3.7837355 -0.43869933
6.8848085 -3.7849555 0
6.8642678 -3.7736633 0.43753153
5.1082158 -2.8002329 -0.97117573
5.9628134 -3.2687082 -0.75793266
6.8803182 -3.7716682 -0.43826377
6.8802485 -3.7716298 0
6.8665466 -3.7641184 0.43738651
5.1160965 -2.7965188 -0.97203088
5.9667587 -3.2615008 -0.75793266
6.8871574 -3.7646017 -0.43840933
6.8825192 -3.7620666 0
6.8642473 -3.7520788 0.43695095
5.1194715 -2.7903349 -0.97203088
5.9616108 -3.2493377 -0.75677949
6.8871336 -3.7537878 -0.43811876
6.8802023 -3.75001 0
6.8664966 -3.7425396 0.43680596
0 -0 -0
5.1318612 -2.7890503 -0.97374272
5.9746232 -3.247072 -0.75793266
6.8871026 -3.7429841 -0.43782878
6.8778753 -3.7379692 0
6.8550386 -3.725558 0.43579039
0 -0 -0
5.1329727 -2.7816255 -0.97331518
5.9762702 -3.2386193 -0.75764465
6.8824821 -3.7297075 -0.4372482
6.8846731 -3.7308948 0
6.8618178 -3.7185092 0.43593541
5.1250401 -2.7693207 -0.97117573
5.9801793 -3.231396 -0.75764465
6.8778391 -3.7164476 -0.43666765
6.8754339 -3.7151477 0
6.8548779 -3.7040403 0.43520984
5.1328979 -2.765559 -0.97203088
5.9772458 -3.2204859 -0.75677949
6.8823247 -3.7081342 -0.43666765
6.8730512 -3.7031376 0
6.8570542 -3.6945186 0.43506429
5.1339769 -2.758141 -0.97160327
5.981133 -3.2132614 -0.75677949
6.8868003 -3.6998155 -0.43666765
6.872931 -3.6923645 0
6.8615131 -3.6862304 0.43506429
0 -0 -0
5.1486177 -2.7579954 -0.97374272
5.987289 -3.207252 -0.7570675
6.8775182 -3.6841273 -0.43579653
6.870512 -3.6803741 0
6.8590975 -3.6742597 0.43462929
5.1542087 -2.7529805 -0.97417027
5.9911599 -3.2000153 -0.7570675
6.8796749 -3.6745915 -0.43565154
6.8657718 -3.6671653 0
6.8635321 -3.6659691 0.43462929
5.1597948 -2.747956 -0.97459781
5.9927416 -3.1915591 -0.75677949
6.88411 -3.666276 -0.43565154
6.8633041 -3.6551955 0
6.8564825 -3.6515625 0.43390316
5.1631117 -2.7417195 -0.97459781
6.003449 -3.1879561 -0.75764465
6.8770623 -3.6518631 -0.43492597
6.8700123 -3.6481192 0
6.8563042 -3.6408401 0.43361318
5.1664205 -2.7354789 -0.97459781
6.005013 -3.1794906 -0.75735664
6.876873 -3.6411166 -0.43463543
6.8721175 -3.6385989 0
6.8584042 -3.6313381 0.43346816
5.1771498 -2.7371564 -0.97630972
6.0023551 -3.1734419 -0.75677949
6.8767762 -3.6357481 -0.43449041
6.8697085 -3.6320112 0
6.8583021 -3.6259806 0.43332317
5.1736474 -2.7273111 -0.97502702
6.0061851 -3.166187 -0.75677949
6.8696737 -3.6213787 -0.43376487
6.8671923 -3.6200705 0
6.8557801 -3.6140547 0.43288761
5.176939 -2.7210577 -0.97502702
6.0145898 -3.1613364 -0.75735664
6.8786488 -3.6154957 -0.43405542
6.8715611 -3.6117702 0
6.8578444 -3.6045604 0.43274263
5.1665764 -2.7076485 -0.97245842
6.0138192 -3.1516631 -0.75677949
6.8738065 -3.6023567 -0.43347487
6.8690028 -3.5998394 0
6.8575873 -3.5938568 0.43245205
5.1675711 -2.7002161 -0.97203088
6.0199132 -3.145591 -0.7570675
6.8735437 -3.5916395 -0.4331843
6.8664255 -3.58792 0
6.8504119 -3.5795524 0.43172649
5.1753788 -2.6963398 -0.97288597
6.0214176 -3.137121 -0.75677949
6.8732738 -3.5809326 -0.43289432
6.8684497 -3.5784192 0
6.8478165 -3.5676694 0.43129095
5.1740813 -2.6877201 -0.97203088
6.0274973 -3.1310341 -0.7570675
6.870676 -3.5690303 -0.43245876
6.8612232 -3.5641203 0
6.8544259 -3.5605893 0.43143594
5.1750479 -2.6802869 -0.97160327
6.0335793 -3.1249416 -0.75735664
6.8657541 -3.5559456 -0.43187818
6.8655248 -3.5558271 0
6.8518081 -3.5487227 0.43100095
5.1782827 -2.6740317 -0.97160327
6.0212617 -3.1093407 -0.75533831
6.8769741 -3.5512252 -0.43231374
6.8675065 -3.5463359 0
6.8422337 -3.5332854 0.43012983
5.1837902 -2.668947 -0.97203088
6.03651 -3.1079814 -0.75677949
6.8627782 -3.5333974 -0.43115264
6.8694658 -3.5368407 0
6.8372569 -3.5202575 0.42954928
5.1938648 -2.6661994 -0.97331518
6.0356631 -3.0983253 -0.75620347
6.8670425 -3.5251024 -0.43115264
6.8691082 -3.5261629 0
6.8438239 -3.5131834 0.42969483
5.1925077 -2.6575804 -0.97245842
6.044003 -3.0933845 -0.75677949
6.8643556 -3.5132496 -0.43071708
6.8640971 -3.5131176 0
6.8480639 -3.5049114 0.42969483
5.2025771 -2.6548059 -0.97374272
6.0477362 -3.0860794 -0.75677949
6.8639712 -3.502593 -0.43042707
6.8683372 -3.5048211 0
6.8407145 -3.4907255 0.4289687
5.196629 -2.6438615 -0.97203088
6.0537639 -3.0799413 -0.7570675
6.8589344 -3.4895837 -0.42984653
6.8679233 -3.4941568 0
6.8356638 -3.4777443 0.42838815
5.2043943 -2.6399007 -0.97288597
6.0551763 -3.0714552 -0.75677949
6.8631458 -3.4812934 -0.42984653
6.8582191 -3.4787941 0
6.8491306 -3.474184 0.4289687
5.2075806 -2.6336102 -0.97288597
6.0565772 -3.0629704 -0.75649148
6.8580723 -3.4683075 -0.42926595
6.8647375 -3.4716783 0
6.844048 -3.461215 0.42838815
5.2084689 -2.6261613 -0.97245842
6.0556593 -3.0533233 -0.75591546
6.8692117 -3.4635243 -0.42970097
6.8619628 -3.4598694 0
6.8343086 -3.445926 0.42751759
5.2146444 -2.6253252 -0.97331518
6.062119 -3.0519881 -0.75649148
6.864347 -3.4558718 -0.42926595
0 -0 0
6.8387079 -3.4429636 0.42766258
5.2201052 -2.6201727 -0.97374272
6.0634928 -3.0435019 -0.75620347
6.8592286 -3.4429123 -0.4286854
6.8472819 -3.4369159 0
6.8335738 -3.4300351 0.42708203
5.2255607 -2.6150112 -0.97417027
6.0625353 -3.0338559 -0.75562632
6.85641 -3.4311321 -0.42824984
6.8491049 -3.4274762 0
6.8284183 -3.4171243 0.42650148
5.2287169 -2.6086953 -0.97417027
6.0661969 -3.0265281 -0.75562632
6.8582282 -3.4216859 -0.42810485
6.8439264 -3.4145505 0
6.8418427 -3.413511 0.42708203
5.2203751 -2.5966601 -0.97203088
6.0744853 -3.0215023 -0.75620347
6.8483939 -3.406451 -0.42723373
6.8480473 -3.4062786 0
6.8413138 -3.4029293 0.42679203
5.2258062 -2.5914898 -0.97245842
6.0804467 -3.0153081 -0.75649148
6.8594909 -3.401638 -0.42766929
6.8428316 -3.3933766 0
6.8454204 -3.3946605 0.42679203
5.2312326 -2.5863101 -0.97288597
6.079453 -3.0056686 -0.75591546
6.856606 -3.3898911 -0.42723373
6.8422656 -3.3828013 0
6.8425274 -3.3829308 0.42635646
5.2412639 -2.5833933 -0.97417027
6.0830803 -2.9983206 -0.75591546
6.85604 -3.3793085 -0.42694372
6.8463478 -3.3745313 0
6.8466096 -3.3746603 0.42635646
5.239778 -2.5747962 -0.97331518
6.086699 -2.990968 -0.75591546
6.8601184 -3.3710217 -0.42694372
6.8410773 -3.3616652 0
6.8460226 -3.3640954 0.42606649
5.2405734 -2.5673306 -0.97288597
6.092629 -2.9847481 -0.75620347
6.8548527 -3.3581576 -0.42636317
6.8498039 -3.3556845 0
6.8477426 -3.3546743 0.42592093
5.2413673 -2.559871 -0.97245842
6.0985527 -2.9785182 -0.75649148
6.8589053 -3.3498724 -0.42636317
6.8491812 -3.3451233 0
6.8494582 -3.3452585 0.42577592
5.2513828 -2.5569084 -0.97374272
6.0951686 -2.9677491 -0.75562632
6.8512692 -3.3358958 -0.4256376
6.8368368 -3.3288689 0
6.8464932 -3.3335705 0.42534092
0 -0 -0
5.2544684 -2.5505612 -0.97374272
6.1010838 -2.9615149 -0.75591546
6.8552947 -3.327615 -0.4256376
6.8432021 -3.3217452 0
6.8458366 -3.3230238 0.42505035
0 -0 -0
5.2598553 -2.5453274 -0.97417027
6.097671 -2.9507596 -0.7550503
6.8639841 -3.3215909 -0.42592761
6.8448615 -3.3123372 0
6.8451734 -3.3124881 0.42476037
5.2675552 -2.541203 -0.97502702
6.1058865 -2.9456353 -0.75562632
6.8539548 -3.3065226 -0.42505705
6.8418336 -3.3006749 0
6.8468237 -3.3030822 0.42461482
5.268302 -2.5337205 -0.97459781
6.1164365 -2.9416194 -0.75649148
6.8579454 -3.2982385 -0.42505705
6.8411217 -3.2901473 0
6.8461308 -3.2925565 0.42432481
5.2713599 -2.527353 -0.97459781
6.112987 -2.9308712 -0.75562632
6.8595848 -3.2888272 -0.42491207
6.8474364 -3.2830029 0
6.8313599 -3.275295 0.42316368
5.2744098 -2.5209818 -0.97459781
6.1118612 -2.9212539 -0.7550503
6.85886 -3.2782931 -0.42462149
6.8443608 -3.271363 0
6.8329701 -3.2659187 0.42301869
5.2713027 -2.5155857 -0.97374272
6.1206303 -2.9209039 -0.75591546
6.8584967 -3.2730308 -0.4244765
6.8463359 -3.2672274 0
6.8490081 -3.2685025 0.42388925
5.2766542 -2.5103161 -0.97417027
6.1264882 -2.9146163 -0.75620347
6.8530607 -3.2602761 -0.42389593
6.8502789 -3.2589526 0
6.845911 -3.2568746 0.42345369
5.2773666 -2.5028396 -0.97374272
6.1276708 -2.9061043 -0.75591546
6.8546495 -3.2508807 -0.42375094
6.8542118 -3.2506728 0
6.8545413 -3.2508292 0.42374423
5.2850237 -2.4986534 -0.97459781
6.138186 -2.9020114 -0.75677949
6.8609195 -3.2437053 -0.42389593
6.8557749 -3.2412729 0
6.8584642 -3.2425444 0.42374423
5.2903681 -2.4933631 -0.97502702
6.129992 -2.88908 -0.75533831
6.8483782 -3.2276573 -0.42287982
6.8549824 -3.2307699 0
6.869431 -3.2375796 0.42417979
5.2910466 -2.4858742 -0.97459781
6.1334786 -2.8816712 -0.75533831
6.8569813 -3.2215919 -0.42317039
6.8612347 -3.2235901 0
6.8803868 -3.2325883 0.42461482
5.3033457 -2.4838345 -0.97630972
6.1369562 -2.874258 -0.75533831
6.8561583 -3.211098 -0.42287982
6.8651247 -3.2152975 0
6.8937001 -3.2286808 0.42519537
5.2993712 -2.4741697 -0.97502702
6.138083 -2.8657475 -0.7550503
6.8529768 -3.1995168 -0.42244482
6.8666487 -3.2059 0
6.8717041 -3.2082601 0.42359924
5.3000231 -2.4666784 -0.97459781
6.1509213 -2.862694 -0.75620347
6.8568377 -3.1912339 -0.42244482
6.8681602 -3.1965036 0
6.856729 -3.1911833 0.42243814
5.300673 -2.4591932 -0.97417027
6.1543756 -2.8552599 -0.75620347
6.8606887 -3.1829464 -0.42244482
6.8602066 -3.1827228 0
6.8252206 -3.1664915 0.42026091
5.3106332 -2.4560204 -0.97545457
6.1507764 -2.8445632 -0.75533831
6.8550959 -3.1702914 -0.42186427
6.8782248 -3.1809881 0
6.8408318 -3.1636949 0.42098644
5.3142223 -2.4421086 -0.97502702
6.1740861 -2.8372521 -0.75735664
6.8556514 -3.15046 -0.42142871
6.8787951 -3.1610956 0
6.8602695 -3.1525822 0.42171258
5.3265047 -2.4399619 -0.97673893
6.161047 -2.8222485 -0.75533831
6.8618135 -3.1432552 -0.4215737
6.8376613 -3.1321917 0
6.8640738 -3.1442904 0.42171258
5.3201084 -2.4292591 -0.97502702
6.1644526 -2.8148022 -0.75533831
6.8561516 -3.1306446 -0.42099315
6.8935189 -3.147707 0
6.8725905 -3.1381509 0.42200258
5.3300424 -2.4260161 -0.97630972
6.1702013 -2.8084219 -0.75562632
6.8528414 -3.1191316 -0.42055815
6.8760014 -3.129673 0
6.8763776 -3.1298444 0.42200258
5.3189483 -2.4132123 -0.97374272
6.171237 -2.7998967 -0.75533831
6.8518682 -3.1086998 -0.42026758
6.8537059 -3.1095335 0
6.8470306 -3.1065052 0.4199709
5.3274226 -2.4131773 -0.97502702
6.1705737 -2.7951016 -0.7550503
6.8584833 -3.1067059 -0.42055815
6.8650656 -3.1096876 0
6.865468 -3.10987 0.42098644
5.3303342 -2.4067383 -0.97502702
6.1739464 -2.7876437 -0.7550503
6.855125 -3.0952077 -0.42012259
6.864079 -3.0992503 0
6.8573818 -3.0962267 0.42026091
0 -0 -0
5.3308907 -2.3992393 -0.97459781
6.1867447 -2.7844279 -0.75620347
6.8541164 -3.0847874 -0.41983202
6.8488331 -3.0824094 0
6.8516397 -3.0836728 0.41968033
5.3361349 -2.3938498 -0.97502702
6.187747 -2.7758927 -0.75591546
6.8483558 -3.0722489 -0.41925147
6.8620505 -3.0783927 0
6.855361 -3.0753918 0.41968033
5.334332 -2.3853028 -0.97417027
6.1887288 -2.767355 -0.75562632
6.8473229 -3.0618525 -0.41896147
6.8562617 -3.0658495 0
6.8495836 -3.0628633 0.41909978
0 -0 -0
5.325489 -2.373631 -0.97203088
6.1849875 -2.7567194 -0.75476229
6.8628826 -3.0588648 -0.41968703
6.8694696 -3.0618007 0
6.8532796 -3.0545847 0.41909978
5.3377371 -2.3713634 -0.97374272
6.188314 -2.749244 -0.75476229
6.8689456 -3.0516241 -0.41983202
6.8660269 -3.0503273 0
6.8474669 -3.0420816 0.41851923
5.3335547 -2.361793 -0.97245842
6.1774368 -2.7354791 -0.75303197
6.8631244 -3.0391138 -0.41925147
6.8578119 -3.036761 0
6.8582678 -3.036963 0.41895479
5.3481445 -2.3605285 -0.97459781
6.1925664 -2.7332337 -0.75447315
6.8596668 -3.027674 -0.41881648
6.8519526 -3.0242691 0
0 -0 0
5.3392467 -2.348897 -0.97245842
6.2053347 -2.7299154 -0.75562632
6.8680725 -3.0214739 -0.41910648
6.8532219 -3.0149407 0
6.8394213 -3.0088694 0.4173581
5.3467875 -2.3445075 -0.97331518
6.1920543 -2.7151477 -0.75360912
6.8764825 -3.0152619 -0.41939703
6.8377924 -2.9982967 0
0 -0 0
5.3425574 -2.3349602 -0.97203088
6.2024336 -2.7107682 -0.75447315
6.9039259 -3.017355 -0.42084816
6.8557138 -2.9962838 0
6.8490605 -2.993376 0.41750365
5.3500772 -2.3305514 -0.97288597
6.2033358 -2.70224 -0.75418514
6.883749 -2.9986355 -0.41939703
6.8593292 -2.987998 0
0 -0 0
5.3505368 -2.3230639 -0.97245842
6.2065964 -2.6947424 -0.75418514
6.8849769 -2.9892778 -0.41925147
6.8677135 -2.9817824 0
6.8705707 -2.9830229 0.41837421
5.3604102 -2.3196566 -0.97374272
6.221714 -2.6923761 -0.75562632
6.87428 -2.9747665 -0.41838092
6.8593621 -2.9683111 0
6.8646312 -2.9705911 0.41779366
5.3537803 -2.3091114 -0.97203088
6.2130899 -2.6797357 -0.75418514
6.8659415 -2.9613137 -0.41765535
6.853385 -2.955898 0
6.8705993 -2.9633224 0.41793868
5.3589225 -2.3036535 -0.97245842
6.2186975 -2.6732469 -0.75447315
6.8695149 -2.9530153 -0.41765535
6.8569517 -2.9476149 0
6.8383732 -2.9396284 0.41576201
5.3640594 -2.2981865 -0.97288597
6.2195477 -2.6647134 -0.75418514
6.8754644 -2.9457352 -0.41780037
6.8652973 -2.9413793 0
6.8419204 -2.9313636 0.41576201
5.3560152 -2.2909112 -0.97117573
6.2164049 -2.6589229 -0.75360912
6.874856 -2.9405599 -0.41765535
0 -0 0
6.8436899 -2.9272294 0.41576201
5.368216 -2.2884605 -0.97288597
6.2243671 -2.6534362 -0.75418514
6.8425469 -2.916965 -0.41547814
6.8490729 -2.9197471 0
6.8424368 -2.916918 0.41547143
0 -0 -0
6.2299471 -2.6469238 -0.75447315
6.8699865 -2.9188581 -0.41692981
0 -0 0
6.8459563 -2.9086483 0.41547143
5.3808246 -2.2784848 -0.97417027
6.2283821 -2.6373792 -0.75389713
6.8639374 -2.906502 -0.41634923
6.8633008 -2.9062324 0
6.8494658 -2.9003739 0.41547143
5.383574 -2.2719815 -0.97417027
6.2339449 -2.630856 -0.75418514
6.8626518 -2.8961835 -0.41605869
0 -0 0
6.8457904 -2.8890676 0.41503644
5.3863153 -2.265475 -0.97417027
6.239501 -2.6243234 -0.75447315
6.8637533 -2.8868828 -0.41591367
6.8607082 -2.885602 0
6.8468738 -2.8797834 0.41489089
5.3914137 -2.2599564 -0.97459781
6.24506 -2.6177852 -0.75476229
6.860045 -2.8755727 -0.41547814
6.8641896 -2.87731 0
6.8407722 -2.8674939 0.41431087
5.3870416 -2.2504745 -0.97331518
6.2529869 -2.6122293 -0.75533831
6.8635144 -2.8672814 -0.41547814
6.8652534 -2.8680079 0
6.8490224 -2.8612275 0.41460088
5.3968596 -2.2469208 -0.97459781
6.2489729 -2.6016886 -0.75447315
6.8621807 -2.8569906 -0.41518813
6.8663135 -2.8587112 0
6.8500781 -2.8519518 0.41445589
5.3900862 -2.2364631 -0.97288597
6.2330003 -2.586206 -0.75216681
6.8680258 -2.8496919 -0.41533312
6.8625488 -2.8474195 0
6.8463168 -2.8406844 0.41402033
5.4022737 -2.2338722 -0.97459781
6.2528543 -2.5855923 -0.75418514
6.8666658 -2.8394072 -0.41504312
6.841939 -2.8291824 0
6.8497443 -2.8324099 0.41402033
5.4002266 -2.2253888 -0.97374272
6.2535849 -2.5770504 -0.75389713
0 -0 -0
6.8501697 -2.8228981 0
6.8507614 -2.8231421 0.41387531
5.3981581 -2.2169096 -0.97288597
6.251904 -2.5675254 -0.75331998
6.8879251 -2.8287256 -0.41591367
6.8415318 -2.8096728 0
6.8541679 -2.8148623 0.41387531
5.4032154 -2.2113607 -0.97331518
6.2526107 -2.5589905 -0.75303197
0 -0 -0
6.8473372 -2.8023927 0
6.8551612 -2.8055949 0.41373032
5.4034996 -2.2038579 -0.97288597
6.2437258 -2.5465505 -0.75159079
6.8562446 -2.796371 -0.41359144
6.8458939 -2.7921495 0
6.8392982 -2.7894592 0.4125692
5.4109192 -2.1992624 -0.97374272
6.2563825 -2.5429001 -0.75274396
6.8499894 -2.7841709 -0.4130109
6.8492627 -2.7838755 0
6.8450685 -2.7821708 0.41271421
5.4088097 -2.1907935 -0.97288597
6.2618456 -2.5363085 -0.75303197
6.8557549 -2.7768664 -0.41315588
6.8405633 -2.7707133 0
6.8363857 -2.7690213 0.41198865
5.4114528 -2.1842563 -0.97288597
6.2601132 -2.5268061 -0.75245595
6.8542905 -2.7666373 -0.41286591
6.8487282 -2.7643921 0
6.8397264 -2.7607589 0.41198865
5.4008684 -2.1761906 -0.97074652
6.2688289 -2.5259209 -0.75331998
6.8559608 -2.7624958 -0.41286591
6.8407412 -2.7563634 0
6.8245196 -2.7498271 0.41097254
5.4106431 -2.1725335 -0.97203088
6.2694788 -2.5173814 -0.75303197
6.8520575 -2.7513041 -0.41243035
6.839241 -2.7461581 0
6.832665 -2.7435174 0.41126308
5.418026 -2.1678996 -0.97288597
6.2845206 -2.5146077 -0.75447315
6.8505564 -2.7410939 -0.41214034
6.8473825 -2.7398241 0
6.8383851 -2.7362239 0.4114081
5.4158773 -2.1594517 -0.97203088
6.2779441 -2.5031803 -0.75331998
6.8538632 -2.7328143 -0.41214034
6.8410273 -2.7276964 0
6.8344431 -2.725071 0.41097254
5.4160991 -2.1519592 -0.97160327
6.2761612 -2.4936845 -0.75274396
6.8523264 -2.72261 -0.41184977
6.8418927 -2.7184646 0
6.8353181 -2.7158523 0.41082752
5.4115329 -2.1425774 -0.97031897
6.27917 -2.4860992 -0.75274396
6.8531971 -2.7133727 -0.41170478
6.8427553 -2.7092385 0
6.8385944 -2.7075911 0.41082752
5.4236693 -2.1398056 -0.97203088
6.2821693 -2.4785101 -0.75274396
6.8564711 -2.70509 -0.41170478
6.8387585 -2.698102 0
6.8346076 -2.6964643 0.41039199
5.4238644 -2.1323123 -0.97160327
6.2803407 -2.4690232 -0.75216681
6.8549027 -2.6949039 -0.41141477
6.8420138 -2.6898367 0
6.8330288 -2.6863043 0.41010198
5.4288249 -2.1266923 -0.97203088
6.2833195 -2.4614327 -0.75216681
6.850893 -2.6837747 -0.41097921
6.8404174 -2.6796708 0
6.8314261 -2.6761487 0.40981141
5.414649 -2.1135962 -0.96903467
6.2887053 -2.454782 -0.75245595
6.8541307 -2.6754947 -0.41097921
6.8436503 -2.6714036 0
6.8370728 -2.6688364 0.40995643
5.4243784 -2.1098447 -0.97031897
6.294075 -2.4481182 -0.75274396
6.8549395 -2.66627 -0.41083422
6.8492961 -2.6640749 0
6.835454 -2.6586909 0.40966642
5.4245324 -2.1023619 -0.96989143
6.2970285 -2.4405115 -0.75274396
6.8557262 -2.6570435 -0.41068867
6.8428035 -2.652035 0
6.8338113 -2.6485498 0.40937585
5.4222746 -2.0939546 -0.96903467
6.2903214 -2.4291737 -0.75159079
6.8540883 -2.6468873 -0.41039866
6.8314414 -2.6381414 0
6.8370066 -2.6402905 0.40937585
5.4224076 -2.0864804 -0.96860713
6.2956638 -2.4224994 -0.7518788
6.852427 -2.6367354 -0.41010812
6.8321881 -2.6289477 0
6.8305006 -2.6282985 0.40879586
5.4297233 -2.0817666 -0.96946388
6.2985864 -2.4148905 -0.7518788
6.85076 -2.626595 -0.40981811
6.832932 -2.6197598 0
6.8312383 -2.6191103 0.40865031
5.437026 -2.0770347 -0.97031897
6.3014994 -2.4072781 -0.7518788
6.858779 -2.620168 -0.41010812
6.8360925 -2.6115015 0
6.8295479 -2.6090014 0.4083603
5.4347382 -2.068639 -0.96946388
6.3092427 -2.4015043 -0.75245595
6.8546615 -2.6091082 -0.40967309
6.836813 -2.6023147 0
6.8326955 -2.6007473 0.4083603
5.4239812 -2.0607939 -0.96732283
6.2744226 -2.3839116 -0.74813128
6.8538098 -2.6040444 -0.40952811
6.8408146 -2.599107 0
6.8318386 -2.5956969 0.40821528
5.4456739 -2.0615094 -0.97074652
6.3111591 -2.3891466 -0.75216681
6.8545141 -2.5948386 -0.40938255
6.8342142 -2.5871539 0
6.8373981 -2.5883591 0.4083603
5.4361539 -2.0503991 -0.96860713
6.3140416 -2.3815191 -0.75216681
6.8527865 -2.584722 -0.40909255
6.8275952 -2.5752203 0
6.8307953 -2.5764275 0.40777975
5.433826 -2.0420246 -0.96775198
6.3217616 -2.3757095 -0.75274396
6.8583345 -2.577353 -0.40923753
6.8428893 -2.5715489 0
6.8266039 -2.5654287 0.40734419
5.4362893 -2.0354574 -0.96775198
6.3173585 -2.3653476 -0.7518788
6.8590126 -2.5681541 -0.40909255
6.8435473 -2.5623634 0
6.8272676 -2.556268 0.40719917
5.4411922 -2.0223141 -0.96775198
6.3133583 -2.3464696 -0.75072563
6.8578897 -2.5488544 -0.40865698
6.8350878 -2.5403795 0
6.8382921 -2.5415704 0.40748918
5.4388127 -2.0139534 -0.96689522
6.325891 -2.3424323 -0.7518788
6.8536515 -2.5378582 -0.40822142
6.8381524 -2.5321188 0
6.8291764 -2.5287952 0.40676361
5.4436483 -2.0082679 -0.96732283
6.3262925 -2.3338926 -0.75159079
6.8518424 -2.5277781 -0.40793145
6.8338795 -2.5211513 0
6.8322272 -2.5205417 0.40676361
5.4436636 -2.0008039 -0.96689522
6.3363934 -2.3289244 -0.75245595
6.8597646 -2.5212882 -0.40822142
6.8369207 -2.512892 0
6.8328309 -2.5113888 0.40661862
5.4340267 -1.9898124 -0.96475583
6.3319139 -2.3185976 -0.75159079
6.8554931 -2.5103199 -0.40778643
6.8375106 -2.5037351 0
6.8358607 -2.5031309 0.40661862
5.441246 -1.9850029 -0.96561092
6.3274193 -2.3082848 -0.75072563
6.8585215 -2.5020344 -0.40778643
6.8380885 -2.4945805 0
6.8291159 -2.491307 0.40603808
5.4412298 -1.9775507 -0.96518338
6.327775 -2.2997551 -0.75043762
6.8590903 -2.4928553 -0.40764087
6.8337574 -2.4836483 0
6.8321209 -2.4830537 0.40603808
5.4436154 -1.9709746 -0.96518338
6.3378472 -2.29475 -0.75130278
6.8572159 -2.4827981 -0.40735087
6.8343086 -2.4745042 0
6.8326755 -2.4739127 0.40589306
5.4459929 -1.9643956 -0.96518338
6.3406157 -2.2870903 -0.75130278
6.857769 -2.47363 -0.40720588
6.8348479 -2.4653623 0
6.8332176 -2.4647741 0.40574807
5.4459491 -1.9569465 -0.96475583
6.3506699 -2.2820487 -0.75216681
6.8558574 -2.4635828 -0.40691531
6.837822 -2.4571018 0
6.8361912 -2.4565158 0.40574807
5.4483099 -1.9503647 -0.96475583
6.3436913 -2.27089 -0.75101477
6.858829 -2.455297 -0.40691531
6.8456817 -2.4505904 0
6.8293686 -2.4447508 0.40516752
5.4409909 -1.940331 -0.96304393
6.3342423 -2.2588768 -0.74957246
6.8617907 -2.4470077 -0.40691531
6.8388324 -2.4388204 0
6.8323178 -2.436497 0.40516752
5.4578404 -1.9389096 -0.96561092
6.3467164 -2.2546847 -0.75072563
6.8574038 -2.4361076 -0.40648031
6.8491335 -2.4331696 0
6.8377028 -2.4291086 0.40531251
5.4517593 -1.9330407 -0.96432829
6.3627086 -2.2560377 -0.75245595
6.8564186 -2.4310935 -0.40633476
6.8383403 -2.4246836 0
6.8367224 -2.4241097 0.40516752
5.4492455 -1.9247404 -0.96347153
6.3629842 -2.2474842 -0.75216681
6.8544555 -2.4210777 -0.40604475
6.8412652 -2.4164188 0
6.832294 -2.41325 0.40473196
5.4588342 -1.9207115 -0.96475583
6.3583827 -2.2372212 -0.75130278
6.8573756 -2.4127939 -0.40604475
6.8318982 -2.4038293 0
6.8302979 -2.4032662 0.40444139
5.4587307 -1.9132659 -0.96432829
6.3635197 -2.2303913 -0.75159079
6.8529272 -2.401927 -0.40560919
6.8347979 -2.3955727 0
6.8331966 -2.3950114 0.40444139
5.4658809 -1.9083594 -0.96518338
6.3686495 -2.2235525 -0.7518788
6.8582754 -2.3945005 -0.40575421
6.837687 -2.3873124 0
6.8262725 -2.383327 0.40386084
5.4633384 -1.9000688 -0.96432829
6.3664508 -2.2141578 -0.75130278
6.8611636 -2.3862119 -0.40575421
6.8331995 -2.3764863 0
6.8316088 -2.3759332 0.40400639
5.4559274 -1.8901047 -0.96261638
6.3788972 -2.2098503 -0.75245595
6.8591361 -2.3762202 -0.4054642
6.8409796 -2.3699303 0
6.8344746 -2.3676767 0.40400639
5.4606318 -1.8843474 -0.96304393
6.376668 -2.2004521 -0.7518788
6.8620024 -2.3679304 -0.4054642
6.8438382 -2.3616626 0
6.8299594 -2.3568733 0.40357083
5.47019 -1.8802521 -0.96432829
6.3768787 -2.1919055 -0.75159079
6.8574839 -2.3571026 -0.40502864
6.8368421 -2.3500075 0
6.8328023 -2.3486187 0.40357083
5.4675961 -1.8719765 -0.96347153
6.3795223 -2.1841986 -0.75159079
6.8578711 -2.3479741 -0.40488365
6.8372169 -2.3409026 0
6.8356347 -2.3403609 0.40357083
5.4649992 -1.863713 -0.96261638
6.3895035 -2.1789939 -0.75245595
6.8582463 -2.3388481 -0.40473863
6.8400407 -2.3326395 0
6.8310776 -2.3295827 0.40313527
5.4696755 -1.8579332 -0.96304393
6.3994718 -2.1737652 -0.75331998
6.8586092 -2.3297246 -0.40459365
6.8453159 -2.3252091 0
6.8289714 -2.3196571 0.40284526
5.4743457 -1.8521446 -0.96347153
6.4020934 -2.1660311 -0.75331998
6.8614192 -2.3214357 -0.40459365
6.8407226 -2.3144331 0
6.834228 -2.3122361 0.40299028
5.4741492 -1.8447096 -0.96304393
6.4120617 -2.1607726 -0.75418514
6.8592896 -2.311482 -0.40430307
6.8459873 -2.3069992 0
6.8296275 -2.3014863 0.40255472
5.4788055 -1.8389099 -0.96347153
6.40241 -2.1489091 -0.75274396
6.8620777 -2.3031921 -0.40430307
6.838901 -2.2954133 0
6.8324032 -2.2932324 0.40255472
5.4712849 -1.8290329 -0.96175963
6.4050016 -2.1411715 -0.75274396
6.8549981 -2.2916038 -0.40372252
6.8441353 -2.2879725 0
6.8327074 -2.284152 0.40240973
5.4808002 -1.8248543 -0.96304393
6.4075842 -2.1334307 -0.75274396
6.8651605 -2.2857826 -0.40415809
6.8468947 -2.279701 0
6.8305364 -2.2742541 0.40211973
5.4770341 -1.8199253 -0.96218884
6.4162378 -2.1320066 -0.75360912
6.8542132 -2.2775383 -0.40343252
6.8383923 -2.2722814 0
6.8319087 -2.2701271 0.40211973
5.4865336 -1.8157233 -0.96347153
6.4138937 -2.1226256 -0.75303197
6.8569603 -2.2692547 -0.40343252
6.8386645 -2.2631998 0
6.8297086 -2.260236 0.40182915
5.4814162 -1.8066841 -0.96218884
6.4189081 -2.1156828 -0.75331998
6.8572221 -2.2601521 -0.40328696
6.8339763 -2.2524903 0
6.8250284 -2.249541 0.40139359
5.4787126 -1.7984568 -0.96133208
6.4067197 -2.1030867 -0.75159079
6.8574815 -2.2510552 -0.40314198
6.8391633 -2.2450421 0
6.8277416 -2.2412927 0.40139359
5.4833193 -1.7926325 -0.96175963
6.4141684 -2.0969498 -0.75216681
6.857729 -2.241961 -0.40299696
6.8369288 -2.2351608 0
6.8378568 -2.2354641 0.40182915
5.4781656 -1.7836237 -0.96047699
6.424078 -2.0916011 -0.75303197
6.8554869 -2.2320626 -0.40270641
6.837152 -2.2260931 0
6.8282013 -2.2231789 0.40110362
5.4778676 -1.776209 -0.96004778
6.4192171 -2.0814433 -0.75216681
6.85324 -2.2221761 -0.40241641
6.8348808 -2.216223 0
6.8333521 -2.2157273 0.4012486
5.4873409 -1.7719561 -0.96133208
6.4291139 -2.0760705 -0.75303197
6.8559198 -2.2138937 -0.40241641
6.8425117 -2.209564 0
6.8286133 -2.2050757 0.40081361
5.4943705 -1.7668977 -0.96218884
6.4316177 -2.0683007 -0.75303197
6.8536382 -2.2040155 -0.40212587
6.8352666 -2.1981075 0
6.8287916 -2.1960254 0.40066805
5.4891644 -1.757908 -0.96090454
6.4341121 -2.0605278 -0.75303197
6.8562961 -2.1957326 -0.40212587
6.8428698 -2.1914327 0
6.8363943 -2.1893589 0.4009586
5.4863887 -1.7497126 -0.96004778
6.434135 -2.0519669 -0.75274396
6.8515244 -2.1850803 -0.40169084
6.8455124 -2.1831629 0
6.8266592 -2.1771502 0.40023303
5.4982853 -1.7461902 -0.96175963
6.4341469 -2.0434089 -0.75245595
6.859108 -2.1783714 -0.40198085
6.8407021 -2.1725259 0
6.8342333 -2.1704714 0.40052304
5.4955006 -1.7379987 -0.96090454
6.4267468 -2.0325131 -0.75130278
6.8567848 -2.1685164 -0.40169084
6.8383641 -2.1626906 0
6.8319006 -2.1606464 0.40023303
5.4975967 -1.7313572 -0.96090454
6.443996 -2.0294063 -0.75303197
6.8544388 -2.1586671 -0.4014003
6.8409724 -2.1544261 0
6.8245926 -2.1492677 0.39965248
5.5021319 -1.7254806 -0.96133208
6.4390368 -2.0192959 -0.75216681
6.8570418 -2.1503832 -0.4014003
6.8386087 -2.1446025 0
6.8271847 -2.1410198 0.39965248
5.4993167 -1.7173021 -0.96047699
6.4439483 -2.0122874 -0.75245595
6.8546791 -2.1405487 -0.40111029
6.8387036 -2.1355598 0
6.8173575 -2.1288941 0.39892638
5.5087347 -1.7129405 -0.96175963
6.4463749 -2.0044997 -0.75245595
6.8547821 -2.1314938 -0.4009653
6.8387961 -2.126523 0
6.8248925 -2.1221998 0.39921692
5.4985414 -1.7024875 -0.95962024
6.4710269 -2.0035934 -0.7550503
6.8523831 -2.121671 -0.40067473
6.841361 -2.1182582 0
6.8274517 -2.1139514 0.39921692
5.5069294 -1.7014393 -0.96090454
6.4549351 -1.9943382 -0.75303197
6.856144 -2.1182971 -0.40081975
6.8426394 -2.1141245 0
6.8212771 -2.1075244 0.39878136
5.5065303 -1.6940298 -0.96047699
6.4548702 -1.9857774 -0.75274396
6.8512549 -2.1077213 -0.40038472
6.8377242 -2.1035585 0
6.8213377 -2.0985174 0.39863637
5.511025 -1.6881262 -0.96090454
6.4572649 -1.9779766 -0.75274396
6.853797 -2.0994413 -0.40038472
6.8427563 -2.0960596 0
6.8313241 -2.0925574 0.39907193
5.4983239 -1.6769712 -0.95833588
6.4571786 -1.9694189 -0.75245595
6.8538361 -2.0903981 -0.40023917
6.8403006 -2.0862699 0
6.8263888 -2.0820267 0.39863637
5.5077171 -1.6725647 -0.95962024
6.4743981 -1.9661231 -0.75418514
6.8538728 -2.0813608 -0.40009418
6.8353434 -2.0757339 0
6.8239317 -2.0722682 0.39834636
5.5072794 -1.6651664 -0.95919263
6.4643927 -1.9545566 -0.75274396
6.853898 -2.0723264 -0.39994919
6.8378468 -2.0674732 0
6.8314004 -2.0655241 0.39863637
5.5117431 -1.6592499 -0.95962024
6.4716983 -1.9482338 -0.75331998
6.8539109 -2.0632949 -0.39980417
6.8353605 -2.0577104 0
6.8239388 -2.0542719 0.39805582
5.5186667 -1.6540643 -0.96047699
6.4690971 -1.938929 -0.75274396
6.8539028 -2.0542636 -0.39965862
6.842823 -2.0509427 0
6.8239293 -2.0452797 0.3979108
5.5083547 -1.6437225 -0.95833588
6.4838252 -1.9348081 -0.75418514
6.8489175 -2.0437536 -0.39922363
6.8353209 -2.0396962 0
6.8263955 -2.0370328 0.3979108
5.5103369 -1.6370655 -0.95833588
6.4812045 -1.9255005 -0.75360912
6.856359 -2.0369551 -0.39951363
6.8402824 -2.0321789 0
6.8263636 -2.0280437 0.39776582
5.5172391 -1.6318638 -0.95919263
6.481039 -1.9169321 -0.75331998
6.851347 -2.0264602 -0.39907861
6.8452263 -2.0246499 0
6.8238206 -2.0183187 0.39747524
5.524127 -1.626645 -0.96004778
6.4907961 -1.9112922 -0.75418514
6.8587713 -2.0196466 -0.39936861
6.8351874 -2.0127022 0
6.8337345 -2.0122745 0.3979108
5.5162349 -1.6170803 -0.95833588
6.4856524 -1.9012644 -0.75331998
6.8537235 -2.0091641 -0.39893305
6.8376141 -2.0044417 0
6.8261871 -2.001092 0.39733025
5.5181847 -1.6104139 -0.95833588
6.4805036 -1.8912547 -0.75245595
6.8561463 -2.0008814 -0.39893305
6.8400311 -1.9961784 0
6.826108 -1.992115 0.39718527
5.5250616 -1.6051788 -0.95919263
6.4827838 -1.8834229 -0.75245595
6.8510804 -1.9904228 -0.39849806
6.8349385 -1.9857332 0
6.8334961 -1.9853141 0.39747524
5.5165925 -1.5882717 -0.95705324
6.4947658 -1.8698957 -0.75331998
6.8558702 -1.9738606 -0.39849806
6.8372188 -1.9684906 0
6.8257909 -1.9652005 0.39674971
5.5308437 -1.5851405 -0.95919263
6.4970207 -1.8620467 -0.75331998
6.8557453 -1.9648572 -0.3983525
6.8370929 -1.9595114 0
6.8281608 -1.9569515 0.39674971
5.5278134 -1.5770464 -0.95833588
6.50176 -1.8549066 -0.75360912
6.8531218 -1.9551476 -0.3980625
6.8369455 -1.9505327 0
6.8355126 -1.9501239 0.39703971
5.5287652 -1.5737065 -0.95833588
6.5028796 -1.8509783 -0.75360912
6.8592954 -1.9524283 -0.3983525
6.8431339 -1.9478281 0
6.8266931 -1.9431484 0.39645913
5.5306625 -1.5670249 -0.95833588
6.5051112 -1.8431194 -0.75360912
6.8466539 -1.93989 -0.39748195
6.8379679 -1.9374291 0
6.8290358 -1.9348983 0.39645913
5.537498 -1.561736 -0.95919263
6.4998631 -1.833151 -0.75274396
6.8589964 -1.934437 -0.3980625
6.8352995 -1.9277538 0
6.8288703 -1.9259406 0.39631414
5.5270257 -1.5515754 -0.95705324
6.5045614 -1.8259943 -0.75303197
6.8538213 -1.9240403 -0.39762694
6.825088 -1.9159743 0
6.8236852 -1.9155803 0.39587858
5.5363064 -1.5469664 -0.95833588
6.5117497 -1.8195269 -0.75360912
6.8661513 -1.9185545 -0.39820752
6.8399382 -1.91123 0
6.8385148 -1.9108323 0.39660469
5.5258083 -1.5368372 -0.95619649
6.5189223 -1.8130422 -0.75418514
6.8709655 -1.9109523 -0.3983525
6.8347178 -1.9008712 0
6.8282943 -1.8990846 0.39587858
5.5375571 -1.5328987 -0.95790833
6.513628 -1.8030932 -0.75331998
6.8532352 -1.8971028 -0.39719138
6.8420215 -1.8939986 0
6.8255801 -1.8894473 0.39558858
5.5394053 -1.5262065 -0.95790833
6.5183024 -1.7959105 -0.75360912
6.8655434 -1.8915815 -0.39777195
6.8417983 -1.8850393 0
6.8203406 -1.8791274 0.39515302
5.5437188 -1.5201904 -0.95833588
6.5229597 -1.7887163 -0.75389713
6.8878713 -1.8887818 -0.39893305
6.8440709 -1.876771 0
6.8301263 -1.8729471 0.39558858
5.5406032 -1.5121403 -0.95748079
6.5276093 -1.7815137 -0.75418514
6.8826356 -1.8784074 -0.39849806
6.8463335 -1.8684999 0
6.8323846 -1.8646929 0.39558858
5.5449014 -1.5061166 -0.95790833
6.5272632 -1.7729477 -0.75389713
6.8823853 -1.8694066 -0.3983525
6.8385406 -1.8574973 0
6.8321276 -1.8557554 0.39544359
5.5516782 -1.5007567 -0.95876509
6.5219078 -1.763034 -0.75303197
6.8896608 -1.8624467 -0.39864308
6.8332405 -1.8471949 0
6.8318586 -1.8468214 0.39529857
5.555964 -1.4947138 -0.95919263
6.5340242 -1.75784 -0.75418514
6.8969197 -1.8554693 -0.39893305
6.8430095 -1.8409659 0
6.829062 -1.8372136 0.39500803
5.5503244 -1.486007 -0.95790833
6.5311513 -1.748607 -0.75360912
6.8916335 -1.8451203 -0.39849806
6.8427172 -1.8320236 0
6.8287692 -1.8282894 0.39486301
5.5471597 -1.4779789 -0.95705324
6.5332594 -1.7407142 -0.75360912
6.9089184 -1.8408043 -0.39936861
6.8348665 -1.8210741 0
6.8309736 -1.8200368 0.39486301
5.5613456 -1.4745641 -0.95919263
6.5403533 -1.7341433 -0.75418514
6.9111376 -1.8324549 -0.39936861
6.8420887 -1.8141469 0
6.8331676 -1.8117815 0.39486301
5.5482259 -1.4639125 -0.95662403
6.537447 -1.7249207 -0.75360912
6.8932471 -1.8187995 -0.39820752
6.8518271 -1.8078707 0
6.8328419 -1.8028615 0.39471802
5.5590391 -1.4631739 -0.95833588
6.5434856 -1.7222862 -0.75418514
6.8968549 -1.8152953 -0.3983525
6.8378224 -1.7997575 0
6.8339295 -1.798733 0.39471802
5.5533605 -1.4545064 -0.95705324
6.550571 -1.7156904 -0.75476229
6.8915095 -1.8049873 -0.39791751
6.8374767 -1.7908353 0
6.8285546 -1.7884985 0.39428246
