# .PCD v0.7 - Point Cloud Data file format
VERSION 0.7
FIELDS x y z
SIZE 4 4 4
TYPE F F F
COUNT 1 1 1
WIDTH 1884
HEIGHT 1
VIEWPOINT 0 0 0 1 0 0 0
POINTS 1884
DATA ascii
7.8287396 15.980446 0
7.7258935 15.770511 0.98090583
6.7684326 13.858449 -0.86146873
7.8162794 16.003929 0
7.6965704 15.758822 0.97959971
6.7471323 13.857273 -0.86088818
7.8151646 16.0508 0
7.6752458 15.763434 0.97930914
6.732655 13.870095 -0.86117876
7.8162189 16.102369 0
12.536261 25.826235 1.6035221
6.7086344 13.884612 -0.86132371
7.8289123 16.203209 0
7.6128983 15.756134 0.97742248
6.6884689 13.885683 -0.86088818
7.8409467 16.278299 0
7.5848336 15.746593 0.97626138
6.6739373 13.898443 -0.86117876
8.1006432 16.869551 0
7.5545559 15.732327 0.97481024
6.6582599 13.908839 -0.86132371
8.1060963 16.933311 0
7.5276861 15.725035 0.9737941
6.6559968 13.947358 -0.86321038
8.0878735 16.947796 0
7.5064435 15.729434 0.97350413
6.6369042 13.950693 -0.86291987
8.0785675 16.981052 0
7.4840822 15.731451 0.97306859
6.634521 13.98923 -0.86480707
8.0792332 17.03548 0
12.240467 25.809658 1.5955398
6.619832 14.00193 -0.86509705
11.300994 23.903284 0
12.208158 25.822073 1.5953943
6.6184158 14.042821 -0.86712873
8.1245775 17.238565 0
12.175842 25.834457 1.5952493
6.5959191 14.039051 -0.86640316
8.1192331 17.281342 0
12.139093 25.837393 1.5945238
6.5723405 14.032896 -0.86553264
8.1193199 17.33592 0
12.099049 25.833218 1.5933626
6.5048156 13.932526 -0.8588565
8.1269903 17.407026 0
12.067825 25.847818 1.5933626
6.4507003 13.860283 -0.85392201
8.1388922 17.487614 0
12.027813 25.843534 1.5922015
6.4350405 13.870422 -0.85406703
8.1341867 17.532848 0
11.994392 25.853338 1.5919116
6.4509959 13.948936 -0.85842091
8.1217346 17.561562 0
11.957688 25.856014 1.5911853
6.4907012 14.079419 -0.86596763
8.103775 17.578445 0
11.914474 25.844492 1.5895892
6.4888768 14.120312 -0.86799985
8.0825291 17.588224 0
11.876725 25.8447 1.5887182
6.4739723 14.132862 -0.86828989
8.0601883 17.595615 0
11.844407 25.85667 1.5885731
6.4514956 14.128858 -0.86756432
8.0259495 17.576933 0
11.811 25.866241 1.5882832
6.4268827 14.120086 -0.86654818
8.0003929 17.577143 0
11.043483 24.262918 1.4890127
6.3947883 14.094718 -0.8645165
7.9748473 17.577316 0
11.012012 24.271517 1.4887228
6.3713307 14.088233 -0.86364597
7.9439521 17.565601 0
11.692532 25.854427 1.5849448
6.3489609 14.08407 -0.86291987
7.9248629 17.579937 0
11.658082 25.861437 1.5845098
6.3351345 14.098845 -0.8633554
7.9121485 17.60849 0
11.621497 25.863647 1.5837837
6.3393784 14.131119 -0.86509705
7.9174843 17.648878 0
11.601615 25.861181 1.5832031
6.3583608 14.219415 -0.87003154
7.9195232 17.710695 0
11.570358 25.875179 1.5832031
6.3454061 14.236581 -0.87061208
7.9235454 17.7773 0
10.681224 23.964441 1.4655015
6.3229256 14.232367 -0.86988652
7.9221358 17.832052 0
11.485645 25.853209 1.5801558
6.3004646 14.228119 -0.86916095
7.9311371 17.91061 0
11.45019 25.857565 1.5795753
6.2853642 14.240472 -0.86945099
7.9494205 18.010649 0
11.415789 25.864246 1.5791398
6.2608275 14.231404 -0.86843485
7.9706187 18.117908 0
11.380343 25.868507 1.5785593
6.2331944 14.215166 -0.86698377
7.9852967 18.210939 0
11.346989 25.877476 1.5782686
6.1993637 14.184591 -0.86466151
7.9872589 18.275425 0
11.308432 25.874508 1.5772531
6.1635427 14.149197 -0.86204928
7.9901152 18.342325 0
11.273008 25.878624 1.5766726
6.1381631 14.137566 -0.86088818
7.989707 18.402086 0
11.239659 25.887455 1.576382
6.1241727 14.152128 -0.86132371
7.9953732 18.476217 0
11.20115 25.884331 1.5753665
6.1142688 14.176213 -0.86233926
8.0060205 18.562326 0
11.16369 25.883526 1.5744953
6.0909801 14.169271 -0.86146873
7.9979773 18.605465 0
11.130356 25.892225 1.5742053
6.0810189 14.193342 -0.86248487
6.2106795 14.495975 0
11.093946 25.893717 1.5734798
6.0740671 14.224572 -0.86393595
6.1737437 14.458001 0
11.059588 25.899931 1.5730442
6.0467014 14.207996 -0.86248487
6.1470985 14.4439 0
11.019128 25.891758 1.5717381
6.0041642 14.155491 -0.8588565
6.1194768 14.427354 0
10.290803 24.261723 1.4720322
5.9718781 14.126832 -0.85667926
6.0959616 14.42036 0
10.263505 24.278931 1.4723227
5.9497609 14.122067 -0.85595369
6.0704498 14.408528 0
10.228106 24.276941 1.4714516
5.9266591 14.114876 -0.85508317
6.0520287 14.413455 0
10.874745 25.899191 1.5689803
5.9055872 14.112438 -0.85450262
6.0305901 14.411155 0
10.842441 25.909918 1.5688353
5.8845301 14.109971 -0.85392201
6.0091653 14.408823 0
5.9854975 14.352072 0.86857373
5.8634877 14.107473 -0.85334146
5.9907532 14.413672 0
5.9651585 14.352093 0.86813819
5.8474307 14.116946 -0.85348648
5.9733324 14.4209 0
5.9358802 14.330482 0.86639649
5.8254123 14.111995 -0.85276091
5.9559031 14.428107 0
5.9096379 14.31603 0.86509037
5.1628456 12.549907 -0.75798947
5.9374762 14.432889 0
5.881464 14.296733 0.86349428
5.1532903 12.548222 -0.75769943
5.9267764 14.431654 0
5.8659143 14.283456 0.86247814
5.133204 12.542417 -0.75697386
5.908349 14.436399 0
5.8447146 14.280914 0.86189759
5.1160808 12.543794 -0.75668335
5.1292367 12.57605 0
5.8196039 14.268718 0.86073649
5.0979881 12.542751 -0.7562483
5.1091347 12.570177 0
5.7974677 14.263705 0.86001092
5.0828285 12.548903 -0.7562483
5.0861263 12.557044 0
5.7782755 14.265879 0.85972035
5.0657148 12.550211 -0.75595778
5.0651073 12.548705 0
5.0783129 12.581422 0.75783777
5.0486093 12.551506 -0.75566775
5.0509109 12.557228 0
5.0689268 12.602018 0.75870883
5.0295725 12.54795 -0.7550872
5.0337996 12.558496 0
5.0420952 12.57919 0.75696719
5.0134406 12.551598 -0.75494164
5.0186214 12.564569 0
5.0278549 12.587685 0.75711221
4.9944305 12.547998 -0.75436163
4.9976597 12.55611 0
5.0107212 12.588926 0.75682217
4.9744725 12.54194 -0.75363553
4.9796085 12.55489 0
4.9974208 12.599798 0.75711221
4.9669552 12.567274 -0.75479662
4.9625201 12.556052 0
4.9917455 12.629997 0.75856388
4.9337254 12.571991 -0.75436163
4.9416714 12.592239 0
4.9574118 12.632348 0.75798333
4.9147458 12.568263 -0.75378108
4.9236083 12.590927 0
0 0 0
4.895782 12.564507 -0.75320053
4.9017758 12.57989 0
4.9174342 12.620075 0.75653166
4.8758917 12.558296 -0.75247443
4.8780956 12.563972 0
4.8908958 12.596941 0.75478995
4.8654046 12.576303 -0.75320053
4.8610349 12.565007 0
4.8709846 12.590727 0.75406438
4.8567448 12.599137 -0.75421607
4.8430395 12.563584 0
4.8520293 12.586905 0.75348383
4.8471093 12.619555 -0.7550872
4.8231907 12.557282 0
4.8377514 12.595191 0.75362939
5.6686249 14.811833 -0.88585103
4.8256855 12.609275 0
4.8197417 12.593744 0.75319386
5.6655364 14.857518 -0.88817328
4.8215733 12.644277 0
4.8193345 12.638406 0.75551605
5.6632681 14.905644 -0.8906405
8.3481359 21.972181 0
5.4823461 14.429461 0.86218756
5.6489334 14.922197 -0.89122105
8.3298759 22.004164 0
5.4612274 14.426353 0.86160702
5.6382313 14.948453 -0.89238161
8.3905287 22.245527 0
5.4447117 14.43538 0.86175257
5.611939 14.933366 -0.89107549
8.4268084 22.423731 0
5.4318347 14.454108 0.86247814
5.5847812 14.915806 -0.88962442
8.4143085 22.472893 0
5.4171 14.467963 0.86291373
5.5739479 14.914305 -0.88933384
8.4089289 22.49991 0
5.4092669 14.473665 0.86305869
5.5341649 14.862596 -0.88585103
8.4053459 22.573462 0
5.397213 14.494797 0.86392927
5.9292102 15.98256 -0.95217627
8.4224176 22.703159 0
5.3796949 14.501307 0.86392927
5.897284 15.955595 -0.95014465
8.4202423 22.781672 0
5.3621693 14.507797 0.86392927
5.8815918 15.972463 -0.9507252
8.407094 22.830894 0
9.5699091 25.988714 1.5469202
5.8667622 15.991753 -0.95145077
8.4019089 22.902115 0
9.5662441 26.075886 1.5514197
5.8510027 16.008593 -0.95203131
8.4028187 22.990469 0
9.5650558 26.170399 1.5563542
5.8387675 16.035183 -0.95319241
8.4177704 23.117977 0
9.5805426 26.311333 1.5640458
5.8255882 16.059319 -0.95420796
8.42799 23.233324 0
9.5806427 26.410826 1.5692708
5.8052969 16.063904 -0.954063
8.4237938 23.309578 0
9.5822811 26.515242 1.5747858
5.7964449 16.100245 -0.95580465
8.4114895 23.36381 0
4.9910707 13.863232 0.82300246
5.7875137 16.136589 -0.95754629
8.4096088 23.447443 0
4.9874721 13.905933 0.8251791
5.7610173 16.123995 -0.9563852
6.9838152 19.546373 0
4.9689188 13.907061 0.82488912
5.7406597 16.128498 -0.95624018
6.9523354 19.532724 0
0 0 0
5.7159557 16.120724 -0.95536911
6.923512 19.526398 0
0 0 0
5.6956081 16.12517 -0.9552241
6.8921132 19.512667 0
0 0 0
5.6743932 16.127134 -0.95493352
6.8616204 19.501339 0
4.9007802 13.928456 0.82474357
4.4594231 12.723161 -0.75305498
6.8354688 19.502247 0
4.881371 13.927018 0.82430857
4.4226341 12.667212 -0.7494266
6.8058968 19.493299 0
4.8611131 13.923093 0.82372802
4.403914 12.662738 -0.74884665
6.7831917 19.503963 0
4.8408718 13.91914 0.82314742
4.3775506 12.636125 -0.74695939
6.7706943 19.544111 0
4.8240499 13.924978 0.82314742
4.3605852 12.636497 -0.74666941
6.7479224 19.554737 0
4.8063741 13.928344 0.82300246
4.3292675 12.595075 -0.74391216
6.7251344 19.565334 0
4.7903848 13.936596 0.82314742
4.3123608 12.595375 -0.74362159
6.7014885 19.573446 0
4.7718563 13.937452 0.8228569
4.288753 12.575987 -0.74217051
6.6870742 19.608627 0
4.7558537 13.945675 0.82300246
4.2668681 12.561477 -0.74100935
6.6667242 19.626551 0
4.7331486 13.934186 0.82198632
4.2491879 12.559237 -0.74057382
8.2343159 24.337997 0
4.6788344 13.829135 0.8154552
4.2366133 12.547035 -0.73970324
8.246253 24.421871 0
4.5915127 13.598096 0.80166793
4.2057109 12.505348 -0.73694545
8.2466002 24.520611 0
4.5518866 13.534673 0.79760402
4.1897731 12.507959 -0.73680049
8.2409363 24.602119 0
4.5322275 13.530307 0.79702348
4.1672564 12.49083 -0.73549438
8.2466173 24.718206 0
4.5092969 13.516054 0.79586232
4.147243 12.481057 -0.73462325
8.2487507 24.824474 0
4.4864073 13.501766 0.79470122
4.1280775 12.473727 -0.73389769
8.2489986 24.925829 0
4.469274 13.504713 0.7945562
4.1089363 12.466369 -0.73317212
8.2563477 25.049471 0
4.4562063 13.519975 0.79513681
4.0922508 12.466392 -0.73288214
8.2512379 25.136084 0
4.4495921 13.554976 0.79687846
4.0699153 12.449092 -0.73157543
8.2362232 25.193027 0
4.452589 13.619617 0.80036181
4.0532627 12.449063 -0.73128545
8.2194719 25.245028 0
4.4835896 13.770757 0.80892462
4.0374169 12.451483 -0.73114043
4.421185 13.635032 0
4.4925914 13.85525 0.81356853
4.0199723 12.448932 -0.7307049
4.387114 13.585884 0
4.493412 13.915064 0.81676131
4.0001559 12.438942 -0.72983432
4.3786607 13.615946 0
4.4797769 13.930378 0.81734186
3.9851232 12.443767 -0.72983432
4.3542695 13.596447 0
4.4676981 13.950634 0.81821299
3.9661343 12.436188 -0.72910821
0 0 0
4.4500494 13.953548 0.81806797
3.9511049 12.440971 -0.72910821
0 0 0
4.4614978 14.048062 0.82329243
3.9321525 12.433351 -0.72838265
0 0 0
4.4970145 14.219428 0.8330164
3.9140043 12.428179 -0.7278021
0 0 0
4.4845119 14.239717 0.83388692
3.8989844 12.432899 -0.7278021
0 0 0
4.4680824 14.247612 0.83403248
3.8831849 12.435123 -0.72765708
0 0 0
4.4446673 14.233158 0.83287138
3.8627551 12.422436 -0.726641
0 0 0
4.4274659 14.238518 0.83287138
0 0 -0
0 0 0
4.4048777 14.22648 0.83185524
3.8100755 12.41152 -0.72518986
0 0 0
4.3765855 14.256955 0.8330164
3.8033369 12.416302 -0.72533488
0 0 0
4.3641667 14.247177 0.83229083
3.7860594 12.41344 -0.72489989
0 0 0
4.3446736 14.244981 0.83185524
3.7718117 12.420489 -0.72504485
0 0 0
4.3274584 14.25022 0.83185524
3.7568011 12.425037 -0.72504485
0 0 0
4.3064771 14.243005 0.83112967
3.7380409 12.41713 -0.72431934
0 0 0
4.2847686 14.233264 0.83025861
3.7237797 12.424124 -0.7244643
0 0 0
4.2638378 14.225988 0.82953304
3.7080226 12.426126 -0.72431934
0 0 0
4.2421885 14.216195 0.82866246
3.6952231 12.438064 -0.72475433
0 0 0
4.2235265 14.216324 0.82837188
3.678719 12.43754 -0.7244643
0 0 0
4.2056093 14.218927 0.82822692
3.6614852 12.434496 -0.72402877
0 0 0
4.1920948 14.23646 0.82895249
3.6442642 12.431428 -0.72359318
0 0 0
4.1792769 14.25648 0.82982355
3.6292408 12.435822 -0.72359318
0 0 0
4.1685987 14.283967 0.83112967
3.6142118 12.440199 -0.72359318
0 0 0
4.1513362 14.288994 0.83112967
3.5984564 12.442063 -0.72344822
0 0 0
4.1362343 14.30149 0.83156526
3.5819836 12.441413 -0.72315818
0 0 0
4.1232629 14.321455 0.83243579
3.5683782 12.450723 -0.72344822
0 0 0
4.1081038 14.333922 0.83287138
0 0 -0
0 0 0
4.0907807 14.338876 0.83287138
3.536149 12.451808 -0.72301263
0 0 0
4.072031 14.338804 0.8325808
3.521101 12.456072 -0.72301263
0 0 0
4.0561175 14.34872 0.83287138
3.5060477 12.460318 -0.72301263
0 0 0
4.0429983 14.368613 0.8337419
3.4881861 12.454536 -0.72243208
0 0 0
4.0319405 14.396006 0.83504802
3.4731348 12.458742 -0.72243208
0 0 0
4.0187306 14.41589 0.83591914
3.4594691 12.467942 -0.72272265
0 0 0
4.0020027 14.423236 0.83606416
3.4464772 12.47963 -0.72315818
3.8067276 13.784089 0
3.9880302 14.440582 0.83678973
3.4300168 12.478768 -0.72286767
3.8038647 13.838867 0
3.9815977 14.485479 0.83911192
3.4135661 12.477897 -0.72257763
3.7816465 13.823371 0
0 0 0
3.3991685 12.484516 -0.72272265
3.7676756 13.837975 0
7.9984736 29.376911 1.7006153
3.3834021 12.486109 -0.72257763
3.7557151 13.860093 0
7.9772425 29.43922 1.703663
3.3745003 12.48313 -0.72228706
0 0 0
7.9709821 29.486675 1.7061303
3.3614404 12.494728 -0.72272265
0 0 0
7.9400706 29.513844 1.7071458
3.3470118 12.501287 -0.72286767
0 0 0
3.934299 14.69484 0.84970641
3.3325725 12.507832 -0.72301263
0 0 0
3.9038315 14.651885 0.84694922
3.3194551 12.519386 -0.72344822
0 0 0
3.8847914 14.651563 0.84665865
3.3043256 12.523388 -0.72344822
0 0 0
6.5994987 25.012089 1.4448926
3.2872107 12.51983 -0.72301263
0 0 0
6.5613532 24.989885 1.4431509
3.274708 12.533849 -0.72359318
0 0 0
6.525898 24.977684 1.4419898
3.2608697 12.54283 -0.72388375
0 0 0
6.4930973 24.975491 1.4414092
3.2476647 12.554311 -0.72431934
2.9889433 11.554187 0
6.4661703 24.995903 1.4421353
3.2337871 12.563254 -0.72460932
2.9743321 11.555272 0
6.4359632 25.003698 1.4421353
3.2173164 12.562122 -0.72431934
2.9629502 11.568942 0
6.4038115 25.003902 1.4416999
3.2104759 12.598732 -0.726206
0 0 0
6.3966913 25.102261 1.4469243
3.1933341 12.595044 -0.72577041
0 0 0
6.3586946 25.079756 1.4451832
3.1800203 12.606454 -0.726206
0 0 0
6.336648 25.120173 1.4470699
3.1622555 12.600206 -0.72562546
0 0 0
0 0 0
2.8700769 11.494812 -0.66176742
0 0 0
0 0 0
2.8649542 11.533572 -0.66379911
2.8589237 11.509295 0
0 0 0
2.851016 11.537025 -0.66379911
2.84127 11.497586 0
0 0 0
2.839555 11.550555 -0.66437966
2.8255107 11.493427 0
0 0 0
2.8268299 11.559021 -0.66466963
2.8042023 11.466496 0
0 0 0
2.8116336 11.557384 -0.66437966
2.7897305 11.46735 0
8.9019508 36.591988 2.1035013
2.8019457 11.578454 -0.66539574
2.7746472 11.465649 0
0 0 0
2.7903833 11.591927 -0.66597575
2.7601826 11.466465 0
0 0 0
2.778795 11.605398 -0.6665563
2.7457201 11.467263 0
8.576848 35.820469 2.0573494
2.7659755 11.613808 -0.66684687
2.7294505 11.460446 0
8.53055 35.818169 2.0566239
2.7519403 11.617141 -0.66684687
2.7156007 11.463736 0
6.2646356 26.445761 1.518039
2.7389481 11.593518 -0.66539574
2.7074766 11.460304 0
6.2444768 26.431847 1.5170234
2.7183988 11.568992 -0.66379911
2.6942241 11.466107 0
7.0362968 29.945148 1.7181759
2.7002783 11.554553 -0.66278297
2.6791818 11.464282 0
6.9989276 29.948574 1.7178859
2.6821988 11.540098 -0.66176742
2.6641502 11.462445 0
6.97156 29.994976 1.7200631
2.6664965 11.535733 -0.66133183
2.6526427 11.475799 0
6.9347248 30.000837 1.7199175
2.6519744 11.536417 -0.66118687
2.6370249 11.471384 0
6.9106941 30.062374 1.7229654
2.6362951 11.532011 -0.66075128
2.6237414 11.477097 0
6.8836298 30.111231 1.7252876
2.6118557 11.55355 -0.66162187
2.595998 11.483404 0
0 0 0
2.5961857 11.549099 -0.66118687
2.5838337 11.494152 0
0 0 0
2.5816605 11.549685 -0.66104132
2.5716469 11.504888 0
7.2747798 32.545494 1.8627275
2.5722132 11.573089 -0.66220242
2.5566134 11.5029 0
7.2162828 32.468025 1.8577931
2.55935 11.581267 -0.66249299
2.5455198 11.518684 0
7.1686349 32.43866 1.8556159
2.5420074 11.569118 -0.66162187
2.5327179 11.526841 0
7.1288772 32.444759 1.8554709
2.953362 13.519178 -0.77293837
2.5176764 11.524803 0
7.08357 32.425434 1.8538747
0 0 -0
2.5065103 11.54055 0
7.0493479 32.456821 1.8551809
0 0 -0
2.4931147 11.546122 0
4.1381197 19.164474 1.0951246
3.0373998 14.149666 -0.80835074
2.4824381 11.564387 0
4.1133237 19.161835 1.094689
3.0240948 14.171107 -0.80936629
2.4706354 11.577559 0
4.0896254 19.164253 1.0945441
0 0 -0
0 0 0
4.0632319 19.153934 1.0936735
3.028441 14.361426 -0.81981581
0 0 0
4.0374026 19.146111 1.0929474
0 0 -0
0 0 0
4.0105357 19.133179 1.0919318
0 0 -0
0 0 0
3.9916539 19.158361 1.0930929
0 0 -0
0 0 0
3.9727173 19.183527 1.094254
0 0 -0
9.3182735 45.271645 0
3.9432485 19.157772 1.0925124
0 0 -0
9.2835979 45.241581 0
4.9966283 24.349974 1.3884363
3.0990834 15.19593 -0.8662582
9.2258043 45.237461 0
4.9703193 24.371275 1.3893074
3.0812356 15.202207 -0.86640316
9.1649351 45.217976 0
4.936738 24.35689 1.3881463
3.0818484 15.300166 -0.87177318
6.83285 33.922417 0
4.9129467 24.39085 1.3897424
3.0776372 15.375211 -0.87583655
6.8010497 33.976578 0
4.8809218 24.384031 1.3890169
3.074266 15.455379 -0.88019103
6.7686214 34.02816 0
6.4456749 32.404598 1.845457
3.0817873 15.591627 -0.88773769
6.7613096 34.207363 0
6.4029884 32.394516 1.8444408
3.0814736 15.689677 -0.89310771
7.9291544 40.3722 0
6.6622858 33.921795 1.9309394
3.0774434 15.769895 -0.89746165
7.8823586 40.391956 0
6.6123357 33.883919 1.9283272
3.0628371 15.796557 -0.89876777
7.8340435 40.404015 0
6.5812812 33.942902 1.9312301
0 0 -0
7.7832484 40.403229 0
6.5328894 33.912552 1.9290528
7.7241507 40.358929 0
6.4948397 33.935741 1.9299239
7.6734347 40.358006 0
6.0039244 31.577309 1.7953862
0 0 -0
7.6188679 40.336559 0
5.9686594 31.599865 1.7962573
7.5749221 40.371311 0
5.927597 31.591726 1.7953862
7.5132623 40.311363 0
0 0 0
0 0 0
0 0 0
0 0 0
0 0 0
0 0 0
0 0 0
0 0 0
0 0 0
0 0 0
5.6472783 31.350027 1.7792766
0 0 -0
0 0 0
5.616715 31.397755 1.7815989
0 0 0
5.5755911 31.386606 1.7805828
0 0 0
5.5336003 31.370293 1.7792766
0 0 0
5.496139 31.379513 1.7794217
0 0 -0
0 0 0
6.3138547 36.306252 2.0583656
0 0 0
6.2901444 36.299816 2.057785
0 0 -0
1.7521206 10.184453 0
5.6127839 32.625111 1.8490852
0 0 -0
1.7459484 10.222482 0
5.5707331 32.616497 1.8482141
1.7305495 10.206621 0
5.5213289 32.564289 1.8448764
1.7208064 10.224098 0
5.6587915 33.621468 1.9043804
0 0 -0
1.7135974 10.256972 0
0 0 0
0 0 -0
1.6977967 10.238496 0
0 0 0
1.6970344 10.311083 -0.58368599
1.699371 10.32528 0
0 0 0
1.6900192 10.346461 -0.58557266
1.7045135 10.435197 0
0 0 0
1.6783488 10.353631 -0.58586323
1.7060615 10.524589 0
0 0 0
1.6658372 10.355651 -0.58586323
1.6978903 10.554909 0
0 0 0
1.6512756 10.344829 -0.58513767
0 0 0
4.9277897 30.871368 1.7461865
1.636335 10.331413 -0.58426654
0 0 0
0 0 0
1.6246579 10.338521 -0.58455712
0 0 0
5.1786871 32.954609 1.8633081
1.6121646 10.340477 -0.58455712
0 0 0
0 0 0
1.5980803 10.332146 -0.58397657
0 0 0
0 0 0
1.5840185 10.323795 -0.58339602
1.6221137 10.572081 0
0 0 0
1.5703697 10.317993 -0.58296043
1.6101222 10.579184 0
0 0 0
1.5582888 10.32245 -0.58310544
1.5969501 10.57855 0
0 0 0
1.5415837 10.296064 -0.58150929
1.5876347 10.603634 0
0 0 0
1.4360689 9.7522173 -0.55059588
1.5665535 10.638327 0
4.9397669 33.545525 1.893931
1.4182785 9.7128162 -0.54827422
1.5533223 10.637639 0
4.8695712 33.348351 1.8824654
1.4009559 9.6759462 -0.54609698
1.5408403 10.642081 0
5.6427946 38.972942 2.1995788
1.3863095 9.6570549 -0.54493582
1.5261315 10.631058 0
5.5735469 38.825417 2.190871
1.3698806 9.6252823 -0.54304916
1.5136526 10.635478 0
0 0 0
1.3618802 9.6526651 -0.54450083
1.5008006 10.637299 0
0 0 0
1.3556857 9.6509056 -0.54435527
1.4940107 10.635619 0
0 0 0
1.3633739 9.7915077 -0.55219257
1.4815185 10.640001 0
4.6919174 33.696514 1.9003166
1.373566 9.952734 -0.5611909
1.4675933 10.634048 0
4.6416082 33.632668 1.8963982
1.3706939 10.021318 -0.56496423
1.4533324 10.625499 0
4.6062469 33.676861 1.8985749
1.3613763 10.043566 -0.56612539
1.4401432 10.624671 0
4.5672979 33.695286 1.8993011
1.348894 10.042631 -0.56598037
1.4283427 10.634133 0
4.642108 34.56089 1.9477751
1.3384721 10.05713 -0.56670594
1.4154924 10.635852 0
4.5976024 34.545868 1.946614
1.3249604 10.048435 -0.56612539
1.4012792 10.627234 0
4.5528002 34.528217 1.9453079
1.3158466 10.073215 -0.56743151
1.389112 10.634085 0
4.5036712 34.477005 1.9421145
1.3023403 10.06449 -0.56685096
1.3752595 10.628011 0
4.4510064 34.397392 1.9373256
1.2905084 10.068631 -0.56699592
1.3630791 10.634832 0
4.9927969 38.954132 2.1936283
1.2776877 10.065033 -0.56670594
1.3492444 10.628723 0
4.948998 38.985916 2.19508
1.2655251 10.066569 -0.56670594
1.3370492 10.635506 0
0 0 0
1.2533606 10.06809 -0.56670594
1.3232338 10.629373 0
4.1874471 33.637241 1.8933505
1.2411945 10.069598 -0.56670594
1.3110255 10.636125 0
5.2644196 42.709335 2.4036345
1.2283963 10.065927 -0.56641537
1.2972268 10.629949 0
5.2074594 42.671822 2.4011674
1.2193497 10.093205 -0.56786704
1.2850064 10.636681 0
5.1459222 42.595531 2.396523
0 0 -0
1.2727706 10.643389 0
0 0 0
0 0 -0
1.2599093 10.644919 0
0 0 0
0 0 -0
1.2473496 10.649026 0
0 0 0
0 0 -0
1.23568 10.660867 0
3.5925608 30.994925 1.7428488
1.157461 10.092641 -0.56743151
1.2230937 10.664935 0
3.5583627 31.027632 1.7444448
1.1493658 10.130174 -0.56946313
1.2104995 10.668988 0
0 0 0
1.1521941 10.265821 -0.57700986
1.1964462 10.660098 0
0 0 0
1.1443763 10.308527 -0.57933211
1.1809806 10.638259 0
0 0 0
1.1424255 10.34796 -0.58150929
1.170841 10.605345 0
0 0 0
1.1392275 10.434573 -0.58629876
1.1588733 10.614515 0
0 0 0
1.1374947 10.536689 -0.59195882
1.139622 10.556394 0
0 0 0
1.1402047 10.682737 -0.60008603
0 0 0
0 0 0
1.1308401 10.717698 -0.60197276
0 0 0
0 0 0
1.1189672 10.729394 -0.60255331
0 0 0
0 0 0
1.1049362 10.7204 -0.60197276
0 0 0
0 0 0
1.0935622 10.737242 -0.60284382
1.1301433 11.096417 0
0 0 0
1.0798068 10.730797 -0.60240829
1.1203821 11.134022 0
0 0 0
1.0665832 10.72951 -0.60226327
1.1020374 11.08617 0
0 0 0
1.0541252 10.735959 -0.60255331
1.0904205 11.105617 0
0 0 0
1.0406511 10.732057 -0.60226327
1.0762479 11.099162 0
0 0 0
1.0279301 10.73589 -0.60240829
1.0640761 11.113405 0
2.9774077 31.096594 1.7448804
1.0142233 10.729362 -0.60197276
1.0484428 11.091367 0
2.937875 31.079472 1.7437193
1.0002925 10.72023 -0.60139215
1.0345563 11.087438 0
2.9003196 31.083 1.7437193
0.98805362 10.729197 -0.60182774
1.0173401 11.047215 0
2.8634748 31.094246 1.7441548
0.97132623 10.688977 -0.59950548
0 0 0
2.828958 31.131323 1.7460415
0 0 -0
0 0 0
2.7869313 31.085543 1.7432837
0 0 -0
0 0 0
0 0 0
0 0 -0
0 0 0
5.000813 57.336868 3.2147765
0 0 -0
0 0 0
0 0 0
0 0 -0
0 0 0
0 0 0
0 0 -0
0 0 0
0 0 0
0 0 0
0 0 0
0 0 0
0 0 0
0 0 0
0 0 0
0 0 0
0 0 0
0 0 0
2.5422027 32.553181 1.8238324
0 0 0
2.502667 32.553631 1.8236868
0 0 0
2.4633305 32.556629 1.8236868
0 0 0
2.4203255 32.510357 1.8209296
0 0 0
2.2975409 31.373051 1.7570716
0 0 0
2.2193322 31.344818 1.7551849
0 0 0
2.1791117 31.313782 1.7532983
0 0 0
2.1444638 31.36305 1.7559105
0 0 0
2.1051731 31.344877 1.7547493
0 0 0
2.0705464 31.396664 1.7575071
0 0 0
2.0284119 31.33432 1.7538788
0 0 0
1.9921958 31.362675 1.75533
0 0 0
1.9560764 31.393589 1.7569265
0 0 0
1.9807291 32.420349 1.8142534
0 0 0
1.9417092 32.425312 1.8143984
0 0 0
1.9019194 32.417259 1.8138179
0 0 0
1.8618541 32.403973 1.8129474
0 0 0
1.8229904 32.411381 1.8132373
0 0 0
1.7832551 32.403183 1.8126568
0 0 0
1.7002531 31.590626 1.7670856
0 0 0
1.664811 31.644554 1.7699883
0 0 0
1.6285739 31.685461 1.7721649
0 0 0
1.6253793 32.000435 1.7897261
0 0 0
1.589414 32.056873 1.792774
0 0 0
1.5539421 32.126244 1.7965473
0 0 0
1.5165915 32.159245 1.7982889
0 0 0
1.480356 32.218155 1.8014817
0 0 0
1.345158 30.068071 1.6811674
0 0 0
1.985852 45.62405 2.5507979
0 0 0
1.930613 45.623821 2.550653
0 0 0
1.8756979 45.631317 2.5509436
0 0 0
1.8231494 45.69846 2.5545719
0 0 0
1.7661222 45.653885 2.551959
0 0 0
1.1320987 30.209454 1.6885691
0 0 0
1.0940888 30.16925 1.6862469
3.3819692 96.475563 0
1.0523549 30.019949 1.6778296
3.2670674 96.528999 0
1.0173113 30.05755 1.6798613
3.14924 96.496452 0
0.97777128 29.960073 1.6743462
3.032232 96.487183 0
0.94001919 29.911896 1.671589
2.9150937 96.472565 0
0.90379709 29.910404 1.6714435
2.7982969 96.468224 0
0.86682701 29.882912 1.6698474
2.6816595 96.468925 0
0.82927465 29.831987 1.6669446
2.5647478 96.459091 0
0.79391843 29.858938 1.6683956
2.4475999 96.438705 0
0.75711417 29.83131 1.6667995
2.3311965 96.4468 0
0.72301453 29.912724 1.6712985
2.2144785 96.441742 0
0.68877912 29.996704 1.6759429
2.0979459 96.444344 0
0.65801471 30.249491 1.6900208
2.0395133 96.437782 0
0.6456176 30.527838 1.7055497
1.9233488 96.458397 0
0.61054313 30.619516 1.7106292
1.8066987 96.455444 0
0.57500476 30.698166 1.7149831
1.6895572 96.423729 0
0.53754741 30.678055 1.713822
0.43021378 26.371542 0
0.52192402 31.993258 1.7872589
0.39897752 26.413677 0
0.48263812 31.952293 1.7849367
0.36774856 26.463585 0
0.42290902 30.432989 1.7000347
0.33481476 26.388546 0
0.38564187 30.394503 1.6978575
0 0 0
0.34861755 30.368969 1.6964064
0 0 0
0.31128183 30.307009 1.6929229
0 0 0
0.27120027 29.925434 1.671589
0 0 0
0.23422472 29.821804 1.6657834
0 0 0
0.19794901 29.785692 1.6637517
0 0 0
0.16200101 29.793697 1.6641868
0 0 0
0.12600103 29.793873 1.6641868
0 0 0
0.089859597 29.747236 1.6615746
0 0 0
0.048631947 26.832022 1.4987367
0 0 0
0.016237343 26.876232 1.5012039
-0 0 0
-0.016256182 26.907413 1.5029457
-0 0 0
-0.048829742 26.941151 1.5048323
-0 0 0
-0.081437744 26.959255 1.5058478
-0 0 0
-0.1467711 26.992756 1.5077345
-0 0 0
-0.1797664 27.049728 1.5109279
-0 0 0
-0.21238934 27.041693 1.5104923
-0 0 0
-0.24527569 27.0648 1.5117984
-0 0 0
-0.30319613 29.519768 1.6489484
-0 0 0
-0.34038585 29.651884 1.6563501
-0 0 0
-0.35760927 29.594505 1.6531568
-0 0 0
-0.39319554 29.581064 1.6524311
-0 0 0
-0.3929601 27.099436 1.5138301
-0 0 0
-0.42619395 27.130119 1.5155717
-0 0 0
-0.45879927 27.119192 1.5149912
-0.3532612 19.488598 0
-0.49104929 27.090046 1.5133951
-0.37610468 19.451725 0
-0.65905076 34.085388 1.9042355
-0 0 0
-0.69986218 34.06638 1.9032193
-0.40171769 18.4673 0
-0.612526 28.158337 1.5731893
-0.4233743 18.438179 0
-0.64660895 28.160172 1.5733342
-0.44489852 18.406445 0
-0.68025798 28.143787 1.5724636
-0.46628022 18.372065 0
-0.88962054 35.052238 1.9585146
-0.48737243 18.329872 0
-0.93204266 35.053734 1.9586595
-0 0 0
-0.97432542 35.049984 1.9585146
-0 0 0
-1.0164497 35.040989 1.958079
-0 0 0
-1.0597309 35.0709 1.9598207
-0 0 0
-1.1014534 35.048817 1.9586595
-0 0 0
-0 0 0
-0 0 0
-0 0 0
-0 0 0
-0 0 0
-0 0 0
-0 0 0
-0 0 0
-1.3577456 36.230724 2.0251303
-0 0 0
-1.1590583 29.961412 1.6747818
-0 0 0
-1.2680751 31.785151 1.7768095
-0 0 0
-1.3056266 31.762825 1.7756484
-0 0 0
-1.3226502 31.710106 1.7727455
-0 0 0
-1.2059793 28.097553 1.5708669
-0 0 0
-1.2394706 28.085691 1.5702864
-0 0 0
-1.6107142 35.523304 1.9862347
-0 0 0
-1.6526693 35.500565 1.9850736
-0 0 0
-1.6946962 35.480381 1.984058
-0 0 0
-1.7376931 35.4809 1.984203
-1.0143055 20.210634 0
-1.7800425 35.468395 1.9836224
-0 0 0
-1.8195635 35.401344 1.9799941
-0 0 0
-1.6637189 31.623795 1.7688272
-0 0 0
-1.7633718 32.763367 1.8326852
-0 0 0
-1.8023875 32.750835 1.8321047
-0 0 0
-1.8390408 32.696747 1.8292018
-0 0 0
-2.030277 35.335232 1.9769464
-0 0 0
-2.0747976 35.36388 1.978688
-0 0 0
-2.1190794 35.38728 1.9801391
-0 0 0
-2.173562 35.576618 1.9908792
-0 0 0
-2.2415934 35.975925 2.0133748
-0 0 0
-2.2868731 36.001709 2.014971
-0 0 0
-2.3305402 36.001511 2.015116
-0.62438643 9.467864 -0.52998745
-0 0 0
-1.887424 28.619894 1.6020705
-0.63617396 9.4722824 -0.53027743
-0 0 0
-1.9209597 28.602041 1.6011999
-0.64690983 9.4611378 -0.52969688
-0 0 0
-1.9551635 28.594509 1.6009094
-0.65870243 9.465538 -0.52998745
-0 0 0
-1.9891722 28.584358 1.6004744
-0.66903776 9.4491787 -0.52911633
-0 0 0
-2.0207732 28.540462 1.598152
-0.67530179 9.4565506 -0.52955192
-0 0 0
-2.5058901 35.091091 1.9650457
-0.68691576 9.4583168 -0.52969688
-0 0 0
-2.5460305 35.056938 1.963304
-0.69853568 9.4600792 -0.52984244
-0.72037256 9.7558098 0
-2.5885792 35.056427 1.963449
-0 0 -0
-0.70821494 9.4358997 -0.52853578
-0.72943342 9.7186041 0
-2.6297696 35.037731 1.9625785
-0 0 -0
-0.71507138 9.3754539 -0.52519798
-0.73998803 9.7021408 0
-2.6748703 35.070797 1.9646101
-0.71114361 9.177701 -0.51416796
-0.74507678 9.6156263 0
-2.7232664 35.145252 1.9689641
-0.69829261 8.8726492 -0.99201393
-0.69675034 8.8530521 -0.49602678
-0.75118148 9.5446663 0
-2.7663422 35.149712 1.9693996
-0.71032095 8.7549372 -0.97904217
-0 0 -0
-0.76414382 9.4183216 0
-2.3467777 28.924801 1.6209377
-0.72004992 8.743762 -0.977889
-0 0 -0
-0.76975703 9.3473692 0
-2.3791666 28.890867 1.6191961
-0.72996813 8.7351503 -0.97702384
-0 0 -0
-0.77433223 9.2660322 0
-2.4129922 28.875027 1.6184705
-0.73943001 8.7213783 -0.97558266
-0 0 -0
-0.77981186 9.1976719 0
-2.448539 28.87986 1.618906
-0.75107545 8.7333612 -0.97702384
-0 0 -0
-0.78557307 9.1344919 0
-2.4827647 28.869112 1.6184705
-0.76162744 8.7324467 -0.97702384
-0.75128549 8.6138716 -0.48296449
-0.79050493 9.0635424 0
-1.7915913 20.541508 1.1517259
-0.77217835 8.7315207 -0.97702384
-0.76100713 8.6051998 -0.48252949
-0.79595369 9.0003633 0
-1.8141218 20.513451 1.1502748
-0.78111118 8.7125454 -0.97500551
-0.77070796 8.5965071 -0.48209393
-0.80171609 8.9423733 0
-1.8372825 20.493124 1.1492587
-0.79280818 8.724472 -0.97644669
-0.77991903 8.582633 -0.48136839
-0.80781019 8.8895617 0
-1.8603978 20.472782 1.1482432
-0.80500996 8.741539 -0.97846502
-0.78647637 8.5402851 -0.47904614
-0.81306249 8.8289814 0
-1.8841807 20.460169 1.1476625
-0.81388944 8.7225304 -0.97644669
-0.79293251 8.4979324 -0.47672391
-0.81720245 8.7580366 0
-1.9081769 20.450113 1.147227
-0.82588929 8.7369957 -0.97817701
-0.79953265 8.4581718 -0.47454724
-0.82362092 8.7129993 0
-1.9319073 20.437445 1.1466465
-0.83619934 8.7334194 -0.977889
-0.80678022 8.4261608 -0.47280556
-0.8281951 8.6498222 0
-1.9575912 20.445442 1.147227
-0.84625161 8.7272491 -0.97731185
-0.81069154 8.3605242 -0.46917722
-0.8331207 8.5918322 0
-1.9835478 20.455992 1.1479526
-0.85856563 8.7442408 -0.97933018
-0.81292152 8.2793694 -0.46467775
-0.8384155 8.5390186 0
-2.0095327 20.466507 1.1486782
-0.86913067 8.7431974 -0.97933018
-0.81470078 8.1956482 -0.46003386
-0.84435648 8.4939756 0
-2.0365741 20.487333 1.1499842
-0.88047165 8.7498636 -0.98019534
-0.81497735 8.0990009 -0.45466384
-0 0 0
-2.0621083 20.492615 1.1504198
-0.89051884 8.7436419 -0.97961819
-0.818708 8.0385609 -0.45132604
-0.85617894 8.4064722 0
-2.0892375 20.513372 1.1517259
-0.89791018 8.7636871 -0.98192453
-0.8174727 7.9786091 -0.44798771
-0.85621846 8.3567715 0
-2.103749 20.532785 1.152887
-0.82148558 7.9233418 -0.44493991
-0.85584801 8.2547722 0
-2.1331124 20.574163 1.1553543
-0.82753485 7.8887501 -0.44305325
-0.85984886 8.1967945 0
-2.1614947 20.605165 1.157241
-0.83103412 7.8309031 -0.43986043
-0.86343652 8.1362333 0
-2.1888583 20.625792 1.158547
-0.83162087 7.7472177 -0.43521598
-0.86771154 8.0834312 0
-2.2159975 20.643801 1.1597081
-0.83845741 7.72296 -0.43390986
-0.87270325 8.0383959 0
-2.2392576 20.625612 1.1588377
-0 0 -0
-0.84013271 7.6522098 -0.42999151
-0.87588376 7.9778428 0
-2.2604918 20.589315 1.156951
-0.84335786 7.5969572 -0.42694372
-0.88035363 7.9302144 0
-2.2750471 20.493597 1.1517259
-0.85050768 7.5778546 -0.42592761
-0.88442075 7.8800135 0
-2.2844489 20.353987 1.1440343
-0.85292661 7.5174456 -0.42258981
-0.89012772 7.8453245 0
-2.2970309 20.245358 1.1380837
-0.8557924 7.4621997 -0.41954204
-0.894566 7.8002915 0
-2.3164589 20.198683 1.1356164
-0.85972267 7.4172826 -0.4170748
-0.89649969 7.7345777 0
-2.3375723 20.167475 1.1340197
-0.8647548 7.3826904 -0.41518813
-0.90221155 7.7024708 0
-2.3592186 20.141411 1.1327137
-0 0 -0
-0.86756641 7.3300314 -0.41228533
-0.90754151 7.6677794 0
-2.3869138 20.166931 1.1343102
-0.87056142 7.279964 -0.40952811
-0.91155291 7.6227503 0
-2.413748 20.184673 1.1354715
-0.87374693 7.2324677 -0.40691531
-0.91795391 7.5983925 0
-2.4409399 20.204958 1.1367775
-0.88028288 7.2133584 -0.40589976
-0.92177534 7.5533633 0
-2.4653521 20.201992 1.1367775
-0.88264048 7.1607113 -0.40299696
-0.92644352 7.516078 0
-2.4891241 20.193836 1.136487
-0.88583547 7.1158066 -0.40052974
-0.93198901 7.4865522 0
-2.512881 20.185661 1.136197
-0.89054352 7.0837932 -0.39878806
-0.93713892 7.4544344 0
-2.5395389 20.200661 1.1372131
-0.89517552 7.0517788 -0.39704639
-0.94385099 7.4352217 0
-1.0528768 8.2940769 0.4669933
-0.89774996 7.0043044 -0.39443415
-0.94687951 7.3876157 0
-1.0576136 8.2515707 0.46467161
-0.90021104 6.9568338 -0.39182192
-0.95046163 7.3451705 0
-1.065915 8.2373953 0.46394551
-0.90390372 6.9196644 -0.3897897
-0.95428067 7.3053155 0
-1.0738487 8.2206469 0.46307495
-0.90920728 6.8953843 -0.38848358
-0.95868456 7.2706175 0
-1.0814029 8.2013073 0.46205884
-0.91273987 6.8582253 -0.3864519
-0.96128833 7.2230134 0
-1.0861708 8.1613665 0.45988217
-0.91549146 6.8159122 -0.38412967
-0.96689755 7.1986351 0
-1.0904969 8.1188421 0.45755994
-0 0 -0
-0.91370261 6.7715836 -0.38166243
-0.97020346 7.1903195 0
-1.0905379 8.0821352 0.45552826
-0.91872919 6.7473049 -0.38035631
-0.97327286 7.1478829 0
-1.0922391 8.0215912 0.45218992
-0.92369848 6.7230239 -0.37905023
-0.94081867 6.847631 0
-1.0959185 7.9765058 0.44972268
-0.92682678 6.685874 -0.37701854
-0.92050511 6.6402712 0
-1.0991341 7.9288516 0.44711044
-0 0 -0
-0.93130493 6.6590104 -0.37556687
-0.9202382 6.5798812 0
-1.1004369 7.8683372 0.44377264
-0.93354213 6.6167126 -0.37324464
-0 0 0
-1.1044979 7.8284044 0.44159544
-0.90127456 6.3326855 -0.71296126
-0.93714434 6.5847192 -0.3715035
-0 0 0
-1.1080983 7.7859039 0.43927321
-0.90782422 6.3239183 -0.71209723
-0.94140697 6.5578566 -0.37005183
-0 0 0
-1.1119677 7.7459855 0.43709651
-0 0 -0
-0.94300073 6.5129986 -0.36758462
-0.95016509 6.5624809 0
-1.1135076 7.6906343 0.43404874
-0 0 -0
-0.94636434 6.4810004 -0.36584294
-0.95771819 6.5587554 0
-1.1134136 7.6250062 0.43042037
-0.92734945 6.2975488 -0.70950174
-0.94132459 6.3924522 -0.36090848
-0.96564251 6.5575933 0
-1.1146768 7.5696726 0.4273726
-0.92850018 6.2529325 -0.70460105
-0.91889936 6.1882763 -0.34944344
-0.97203636 6.5461245 0
-1.117716 7.5271959 0.42505035
-0.92380065 6.169961 -0.69537681
-0.90675408 6.056109 -0.34204173
-0.97878885 6.5372214 0
-1.1206541 7.4847231 0.42272812
-0.92276204 6.1125798 -0.68903494
-0.90631366 6.0036221 -0.33913895
-0.99212503 6.5720558 0
-1.1242676 7.4473977 0.42069647
-0.92742264 6.0935588 -0.68701661
-0.90457439 5.9434361 -0.33580059
-0.99419272 6.5322666 0
-1.1297472 7.4229164 0.41939035
-0.9332158 6.0822077 -0.68586344
-0.90781522 5.9166598 -0.33434948
-1.0024793 6.5336304 0
-1.1367455 7.4087062 0.41866478
-0.93107581 6.0197291 -0.67894441
-0.91099262 5.8898845 -0.33289838
-1.0131581 6.5504203 0
-1.1441078 7.3970556 0.41808423
-0.91992354 5.9004197 -0.9955678
-0.93516123 5.9981551 -0.67663807
-0.91570622 5.8733697 -0.33202726
-1.0170624 6.5234718 0
-1.1470402 7.3571539 0.415907
-0.9257471 5.8449373 -0.98658091
-0.94115877 5.9422426 -0.67058533
-0.92339343 5.8300767 -0.32970503
-1.0307889 6.5081453 0
-1.1449003 7.2286162 0.40879586
-0.92309749 5.7829747 -0.97630972
-0.94262952 5.9053378 -0.66654867
-0.92675132 5.8058653 -0.32839891
-1.0349604 6.4837675 0
-1.1470805 7.1861725 0.40647364
-0.92274654 5.7362394 -0.96860713
-0.94401401 5.8684483 -0.66251314
-0.93211514 5.7944794 -0.32781833
-0 0 0
-1.1450336 7.118084 0.40270028
-0.92023051 5.6768456 -0.95876509
-0.94365531 5.8213515 -0.65732443
-0.93537432 5.7702665 -0.32651222
-1.0472946 6.4606957 0
-1.1440701 7.0576982 0.39936194
-0.91922611 5.6275907 -0.95063329
-0.94443381 5.7819147 -0.65299976
-0.94150889 5.764008 -0.32622224
-0 0 0
-1.1450579 7.0101552 0.39674971
-0.92262584 5.6270342 -0.95063329
-0.94165051 5.7430644 -0.64867622
-0.9420476 5.7454863 -0.3252061
-0 0 0
-1.1446677 6.9812536 0.39515302
-0.92816865 5.6183147 -0.94934899
-0.94099987 5.6959834 -0.64348638
-0.94983709 5.7494764 -0.32549667
-1.0583221 6.4061489 0
-1.1471738 6.9439783 0.39312136
-0.93284965 5.6045303 -0.9472096
-0.94406009 5.6718822 -0.64089203
-0.95464915 5.7355008 -0.32477057
-1.0660619 6.4048653 0
-1.1504438 6.911829 0.39137968
-0.93834853 5.5958114 -0.9459269
-0.9500581 5.6656408 -0.64031601
-0.95943046 5.7215323 -0.324045
-1.0729402 6.3984442 0
-1.1583652 6.9078736 0.39123467
-0 0 -0
-0.94211572 5.5769525 -0.9429307
-0.95561028 5.6568351 -0.63945085
-0.96461177 5.7101202 -0.32346445
-1.0802376 6.3945794 0
-1.1632485 6.8859715 0.39007357
-0.95057631 5.5859327 -0.9446426
-0.9615761 5.6505718 -0.6388737
-0.97107518 5.7063913 -0.32331944
-1.086217 6.383007 0
-1.171568 6.8845611 0.39007357
-0.95645684 5.5797148 -0.94378585
-0.96709329 5.6417651 -0.63800967
-0.97709233 5.7000966 -0.32302943
-1.0952467 6.3893776 0
-1.1785684 6.8754549 0.38963801
-0.96188909 5.5709734 -0.94250315
-0.97258896 5.6329436 -0.63714451
-0.98176724 5.6861019 -0.32230332
-1.098539 6.3624091 0
-1.1886437 6.8842678 0.39021856
-0.96949863 5.5748606 -0.9433583
-0.97584933 5.6113787 -0.63483816
-0.98774749 5.6797962 -0.32201332
-1.1115767 6.3918452 0
-1.1974076 6.8853941 0.39036411
-0.97534913 5.5686326 -0.94250315
-0.98485959 5.6229315 -0.63627934
-0.99192083 5.6632466 -0.32114276
-1.1197478 6.3930583 0
-1.2048289 6.8788185 0.39007357
-0.98609006 5.5902004 -0.94635445
-0.98805863 5.6013598 -0.633973
-0.99785936 5.6569209 -0.32085222
-1.1315401 6.4147649 0
-1.2126888 6.8748012 0.38992855
-0.98925209 5.5687847 -0.9429307
-0.98532808 5.5466952 -0.62792027
-1.0042399 5.6531553 -0.3207072
-1.1379243 6.4057031 0
-1.215995 6.8451858 0.38833189
-0.99688333 5.5726342 -0.94378585
-0.98656392 5.5149479 -0.62446076
-1.0106127 5.6493821 -0.32056221
-1.1516225 6.4376349 0
-1.2256384 6.8513875 0.38876745
-1.0054364 5.5815315 -0.94549769
-0 0 -0
-1.016516 5.6430378 -0.32027164
-1.1432515 6.3465915 0
-1.2458923 6.9163861 0.39254078
-0 0 -0
-1.0117222 5.5777888 -0.94507015
-0 0 -0
-1.021942 5.6341324 -0.31983608
-1.1518492 6.3503318 0
-1.2426552 6.8509598 0.38891244
-0 0 -0
-1.0175396 5.5715165 -0.94421506
-0 0 -0
-1.0264153 5.6201153 -0.31911054
-1.1609229 6.3566084 0
-1.2588681 6.8929057 0.39137968
-1.022414 5.560184 -0.94250315
-1.0061903 5.4719553 -0.62013608
-1.0322664 5.6137648 -0.31882054
-1.1742506 6.3859162 0
-1.2601484 6.8530531 0.38920301
-1.0314677 5.5715632 -0.9446426
-1.0113884 5.4631033 -0.61927092
-1.0385745 5.609951 -0.31867498
-1.1843343 6.3972855 0
-1.2712653 6.8668509 0.39007357
-1.0367875 5.5627394 -0.9433583
-1.0179888 5.4618773 -0.61927092
-1.0439253 5.6010356 -0.31823999
-1.1868193 6.3677139 0
-1.2824173 6.8806314 0.39094412
-1.0449289 5.5690541 -0.9446426
-1.0222032 5.4479351 -0.61782974
-1.0482968 5.5870032 -0.31751442
-1.1964324 6.3765068 0
-1.2845012 6.8458791 0.38905746
-1.0535631 5.5778775 -0.94635445
-1.0302259 5.4543233 -0.6186949
-1.0535995 5.5780702 -0.31707886
-1.2017215 6.3622727 0
-1.2937376 6.8494334 0.389348
-1.0574242 5.5614643 -0.94378585
-1.0344005 5.440372 -0.61725372
-1.0593671 5.5716829 -0.31678832
-1.2137828 6.3838239 0
-1.3073505 6.8759375 0.39094412
-1.0684876 5.5828815 -0.94763875
-1.0429181 5.4492798 -0.61840689
-1.0651227 5.5652995 -0.31649831
-1.2200274 6.3746815 0
-1.3146818 6.8692536 0.39065412
-1.0723182 5.5664573 -0.94507015
-1.0475446 5.4378562 -0.61725372
-1.0718465 5.5640082 -0.31649831
-1.2316674 6.3936467 0
-1.3254381 6.8804154 0.39137968
-1.0795316 5.5676751 -0.94549769
-1.0536226 5.4340496 -0.61696571
-1.0765903 5.5525055 -0.31591776
-1.2284946 6.3359509 0
-1.334741 6.8839154 0.39167023
-1.0877337 5.5739279 -0.94678199
-1.0577095 5.4200726 -0.6155234
-1.0813079 5.5409989 -0.31533718
-1.2426291 6.3676653 0
-1.3425587 6.8797398 0.39152467
-1.0896209 5.5657091 -0.94549769
-1.0589961 5.4092793 -0.61437023
-1.0826583 5.5301447 -0.31475663
-1.2464758 6.3669133 0
-1.3467149 6.8789277 0.39152467
-1.098828 5.5769892 -0.94763875
-1.0675313 5.4181466 -0.6155234
-1.0863267 5.5135407 -0.31388608
-1.2521558 6.3551888 0
-1.3575388 6.8900499 0.39225081
-1.1060646 5.5781732 -0.94806635
-1.072065 5.4067044 -0.61437023
-1.0909663 5.5020289 -0.31330553
-1.2654004 6.3817449 0
-1.3668729 6.8934975 0.39254078
-1.1233524 5.6296964 -0.95705324
-1.0785972 5.405405 -0.61437023
-1.0950718 5.487968 -0.31257996
-1.27413 6.3853207 0
-1.3701175 6.8663635 0.39108968
-1.1594627 5.7742968 -0.98187286
-1.0836017 5.3964972 -0.6135062
-1.0991429 5.4738955 -0.31185383
-1.2772338 6.3608146 0
-1.3799465 6.8723383 0.39152467
-1.1822003 5.8508968 -0.99514025
-1.087047 5.3799677 -0.61177588
-1.1036978 5.4623752 -0.31127328
-1.2941955 6.405179 0
-1.391338 6.8859525 0.39239579
-1.1877342 5.8419147 -0.99385595
-1.0889094 5.3558412 -0.60918152
-1.1066748 5.4432206 -0.31025773
-1.2946758 6.3679109 0
-1.398621 6.879169 0.39210522
-1.1906762 5.8203554 -0.9904322
-1.0922707 5.3393226 -0.60745233
-1.1101253 5.4266 -0.30938661
-1.2976754 6.3433971 0
-1.4053712 6.869844 0.39167023
-1.1987442 5.823946 -0.99128896
-1.095071 5.3202624 -0.605434
-1.1151115 5.4176269 -0.30895162
-1.2995672 6.3137822 0
-1.4141945 6.8706837 0.39181525
-1.203176 5.8099174 -0.9891479
-1.0988766 5.3062744 -0.60399282
-1.1169149 5.3933778 -0.3076455
-1.3188049 6.368268 0
-1.4267107 6.8893256 0.39297634
-1.2128149 5.821032 -0.99128896
-1.102121 5.2897453 -0.6022625
-1.1228993 5.389473 -0.30749995
-1.3264987 6.3666697 0
-1.4313235 6.8697872 0.39196023
-1.2172128 5.806993 -0.9891479
-1.1074516 5.2833514 -0.60168648
-1.1294106 5.3881125 -0.30749995
-1.3299193 6.3446851 0
-1.4385581 6.8629713 0.39167023
-1.1106336 5.2668295 -0.59995729
-1.1337757 5.3765736 -0.30691937
-1.3402711 6.3558135 0
-1.4538192 6.8942785 0.39355692
-1.1164584 5.2629461 -0.59966815
-1.1408122 5.377749 -0.30706492
-1.3409276 6.3210859 0
-1.4632258 6.8975959 0.3938469
-1.121199 5.2540121 -0.59880412
-1.1467655 5.3738179 -0.30691937
-1.3491091 6.3220134 0
-1.4666791 6.8729544 0.39254078
-1.1253752 5.242538 -0.59765095
-1.1565311 5.3876767 -0.30779049
-1.3578384 6.3254628 0
-1.4793456 6.8915014 0.39370191
-1.1333451 5.2487516 -0.59851497
-1.1690714 5.414207 -0.30938661
-1.372072 6.3543439 0
-1.4860257 6.8820868 0.39326635
-1.1363937 5.2322178 -0.59678578
-1.1827816 5.4457984 -0.31127328
-1.383062 6.3679361 0
-1.4877222 6.8498154 0.39152467
-1.1399554 5.2182088 -0.5953446
-1.1854805 5.4266024 -0.31025773
-1.3885337 6.3560901 0
-1.5043168 6.8860936 0.39370191
-1.270534 5.7824216 -0.98700845
-1.1462598 5.2168279 -0.5953446
-1.1942672 5.435318 -0.31083828
-1.3900708 6.3264542 0
-1.5115199 6.8791904 0.39341134
-1.2730886 5.7608294 -0.98358476
-1.1525624 5.2154388 -0.5953446
-1.2002715 5.4313264 -0.31069273
-1.4072604 6.3679681 0
-1.5198309 6.8773589 0.39341134
-1.2806071 5.7618003 -0.98401392
-1.15774 5.2089877 -0.59476745
-1.2090883 5.4400182 -0.31127328
-1.4087421 6.338315 0
-1.5315235 6.8907418 0.39428246
-1.2875681 5.7602487 -0.98401392
-1.1623422 5.2000198 -0.59390342
-1.2145281 5.4334865 -0.31098327
-1.4192377 6.3493047 0
-1.5409811 6.8939528 0.39457247
-1.2849566 5.7161136 -0.97673893
-1.1691912 5.2011328 -0.59419143
-1.2205232 5.429482 -0.31083828
-1.4291917 6.3577418 0
-1.5453223 6.8743472 0.39355692
-1.2952577 5.7295752 -0.97930586
-1.1726239 5.1871042 -0.59275025
-1.2247909 5.4178653 -0.31025773
-1.4334308 6.3407845 0
-1.5547723 6.8775392 0.3938469
-1.3067323 5.7480316 -0.98272961
-1.1771699 5.1781149 -0.59188509
-1.2301832 5.4113092 -0.30996716
-1.447438 6.3669653 0
-1.5630814 6.8756552 0.3938469
-0 0 -0
-1.3022177 5.7122059 -0.97673893
-1.1802981 5.177403 -0.59188509
-1.2334523 5.4105649 -0.30996716
-1.4345098 6.2925076 0
-1.5631938 6.8569827 0.39283136
-1.3125594 5.7256365 -0.97930586
-1.1865531 5.1759729 -0.59188509
-1.2388289 5.4040098 -0.30967715
-1.4554852 6.3491063 0
-1.5743805 6.8677502 0.39355692
-1.3160181 5.7090421 -0.97673893
-1.1899021 5.1619358 -0.59044391
-1.2424399 5.3898516 -0.30895162
-1.4590654 6.3295984 0
-1.587347 6.8860993 0.39471802
-1.3229154 5.707448 -0.97673893
-1.1949692 5.1554503 -0.58986676
-1.2442577 5.3680954 -0.30779049
-1.477289 6.3734612 0
-1.5968387 6.8892341 0.39500803
-1.3298107 5.7058454 -0.97673893
-1.2011976 5.1540027 -0.58986676
-1.2472032 5.3513994 -0.30691937
-1.4861692 6.3767357 0
-1.6010327 6.8695827 0.39399192
-1.3402172 5.7192259 -0.97930586
-1.2056557 5.145 -0.58900273
-1.2495202 5.3321862 -0.30590382
-1.4784362 6.3090601 0
-1.6140749 6.8878827 0.39515302
-1.3498918 5.698482 -0.97630972
-1.2168921 5.1370325 -0.58842558
-1.2731825 5.3746591 -0.30851606
-1.5044755 6.3510475 0
-1.6337098 6.8966017 0.39587858
-1.355588 5.6918573 -0.97545457
-1.224298 5.1405954 -0.58900273
-1.2893081 5.4135604 -0.31083828
-1.5157672 6.3644199 0
-1.6432469 6.899683 0.39616913
-1.3606706 5.682723 -0.97417027
-1.2280993 5.1290507 -0.58784956
-0 0 -0
-1.5240617 6.3651123 0
-1.6437173 6.8648438 0.39428246
-1.3603266 5.6511259 -0.96903467
-1.2379266 5.1426463 -0.58957875
-0 0 -0
-1.5207895 6.3177271 0
-1.6544435 6.8729577 0.39486301
-1.3647388 5.6394978 -0.96732283
-1.2435318 5.1386352 -0.58929074
-1.310755 5.4164209 -0.31127328
-1.5424993 6.3740554 0
-1.6688575 6.8962045 0.39631414
-0 0 -0
-1.373373 5.64533 -0.96860713
-1.2460704 5.122045 -0.58756042
-1.3179147 5.4173651 -0.31141883
-1.5489707 6.3671346 0
-1.6778026 6.8967052 0.39645913
-1.3783633 5.6361833 -0.96732283
-1.2528747 5.1230555 -0.58784956
-1.3226072 5.4081941 -0.31098327
-1.5554254 6.3601975 0
-1.6898395 6.909822 0.39733025
-1.3851725 5.6345134 -0.96732283
-1.2596809 5.1240473 -0.58813757
-1.3247981 5.3889265 -0.30996716
-1.5612472 6.350739 0
-1.6944643 6.8926306 0.39645913
-1.390134 5.6253667 -0.96604013
-1.2646291 5.1174946 -0.58756042
-1.3331792 5.3948917 -0.31040272
-1.573912 6.36905 0
-1.6946882 6.8577871 0.39457247
-1.3981665 5.6286607 -0.96689522
-1.271437 5.1184802 -0.58784956
-1.333434 5.3680639 -0.30895162
-1.5828627 6.3722 0
-1.7104903 6.8859959 0.39631414
-1.401858 5.6145167 -0.96475583
-1.2769924 5.1144233 -0.58756042
-1.343066 5.3790517 -0.30967715
-1.5886692 6.3627052 0
-1.7150339 6.8688025 0.39544359
-1.4073924 5.6078439 -0.96390069
-1.2800239 5.1003356 -0.58611923
-1.3508283 5.3824606 -0.30996716
-1.6007912 6.3784533 0
-1.7277579 6.8843603 0.39645913
-0 0 -0
-1.4160492 5.6135993 -0.96518338
-1.2893482 5.1113224 -0.58756042
-1.3547888 5.3707461 -0.30938661
-1.6110433 6.3866081 0
-1.7360752 6.8822675 0.39645913
-1.4196773 5.5994449 -0.96304393
-1.2936182 5.1022468 -0.58669639
-1.370219 5.4043727 -0.31141883
-1.6187592 6.3846564 0
-0 0 0
-0 0 -0
-1.4289777 5.6076756 -0.96475583
-1.2997824 5.1006799 -0.58669639
-1.3838043 5.4304037 -0.31301495
-1.6219734 6.3650403 0
-0 0 0
-0 0 -0
-1.425562 5.5661559 -0.95790833
-1.3053011 5.0965929 -0.58640724
-1.3929436 5.4387965 -0.3135955
-1.6277254 6.3555098 0
-0 0 0
-0 0 -0
-1.4231795 5.5429182 -0.95405704
-1.3096676 5.1008186 -0.5869844
-1.3975229 5.4429922 -0.31388608
-1.6335071 6.3620901 0
-1.7716284 6.9000373 0.3979108
-0 0 -0
-1.4048629 5.4442616 -0.93736756
-1.3145362 5.0942187 -0.58640724
-1.4034475 5.4387765 -0.31374052
-1.6457456 6.3777537 0
-1.7806131 6.9004049 0.39805582
-1.3979082 5.3903799 -0.92838067
-1.3226391 5.1001401 -0.58727241
-1.4093666 5.4345641 -0.3135955
-1.6514902 6.3682008 0
-1.7882979 6.8957357 0.3979108
-1.3940618 5.3489413 -0.92153317
-1.328149 5.0960374 -0.5869844
-1.4152775 5.4303451 -0.31345052
-1.6559026 6.353611 0
-1.795974 6.8910575 0.39776582
-0 0 -0
-1.4011737 5.3497343 -0.92196071
-1.3336508 5.0919294 -0.58669639
-1.417889 5.4135537 -0.31257996
-1.6655573 6.3591609 0
-1.8056147 6.8939052 0.39805582
-1.3978375 5.3108068 -0.91554248
-1.3398025 5.0903144 -0.58669639
-1.4277356 5.4243984 -0.31330553
-1.6765515 6.3697252 0
-1.814604 6.8942289 0.39820081
-0 0 -0
-1.4101607 5.3314466 -0.91939378
-1.3446281 5.0836859 -0.58611923
-1.4249854 5.3874955 -0.31127328
-1.6722696 6.322412 0
-1.8262546 6.9045892 0.39892638
-1.4423168 5.4264884 -0.93608326
-1.3554212 5.0995574 -0.58813757
-1.4301605 5.3807521 -0.31098327
-1.6885977 6.3530812 0
-1.8332624 6.8973598 0.39863637
-1.4687436 5.4991407 -0.94892144
-1.3589123 5.0879207 -0.5869844
-1.4359912 5.3765121 -0.31083828
-1.6855282 6.3108068 0
-1.8402555 6.8901234 0.39834636
-1.4900248 5.5519028 -0.95833588
-1.3677409 5.0962672 -0.58813757
-1.454609 5.4199419 -0.31345052
-1.6938262 6.3112764 0
-1.8539653 6.9079623 0.39950693
-1.5000759 5.5624981 -0.96047699
-1.3738978 5.0946107 -0.58813757
-1.4537139 5.3905807 -0.31185383
-1.7055154 6.324297 0
-1.8602831 6.8981977 0.39907193
-0 0 -0
-1.5034372 5.5482855 -0.95833588
-1.3800526 5.092947 -0.58813757
-1.456829 5.3762827 -0.31112829
-1.7070305 6.2996268 0
