# .PCD v0.7 - Point Cloud Data file format
VERSION 0.7
FIELDS x y z
SIZE 4 4 4
TYPE F F F
COUNT 1 1 1
WIDTH 1569
HEIGHT 1
VIEWPOINT 0 0 0 1 0 0 0
POINTS 1569
DATA ascii
-2.5132005 2.2022276 -0.92192489
-3.1321547 2.7445951 -0.92256439
-4.2365098 3.7123015 -0.9390794
-5.7134185 5.006464 -0.8467223
-8.3459492 7.3132567 -0.61982393
-30.885506 27.063862 0
-39.187149 34.338295 2.91029
-2.2767529 1.9901788 -0.99709797
-2.5196409 2.2024946 -0.92331058
-3.1278164 2.7341194 -0.92031282
-4.2409921 3.7071798 -0.9390794
-5.7214093 5.0012574 -0.84701031
-8.3665218 7.3134308 -0.62069505
-30.88096 26.993984 0
-39.273609 34.330254 2.9136283
-2.2437675 1.9565675 -0.98161596
-2.5185151 2.1961477 -0.92192489
-3.1349444 2.7336748 -0.9214375
-4.2474012 3.7037382 -0.93950701
-5.7293959 4.9960389 -0.84729832
-8.3733883 7.3016033 -0.62054944
-30.890017 26.936127 0
-39.373814 34.334003 2.9179821
-2.2349377 1.944119 -0.97672462
-2.5154939 2.1881683 -0.91985041
-3.1382451 2.7298846 -0.9214375
-4.2499385 3.6969202 -0.9390794
-5.7315292 4.9857206 -0.8467223
-8.3861294 7.2948947 -0.62084001
-30.875416 26.85779 0
-39.444672 34.311981 2.9201589
-2.2634161 1.9640924 -0.98813254
-2.518136 2.185127 -0.91985041
-3.1415415 2.7260907 -0.9214375
-4.2524652 3.6901014 -0.93865186
-5.739501 4.980485 -0.84701031
-8.4322214 7.3171086 -0.62359726
-30.880331 26.796587 0
-39.511612 34.28643 2.9220455
-2.2770035 1.971065 -0.99302393
-2.5150821 2.1771553 -0.91777325
-3.1409945 2.7189701 -0.92031282
-4.2588601 3.6866391 -0.9390794
-5.7494292 4.9769354 -0.84758747
-8.5726805 7.4208536 -0.63332117
-30.88711 26.737112 0
-31.005404 26.839512 2.2905765
-2.2906039 1.9780014 -0.99791211
-2.5291002 2.1839497 -0.92192489
-3.1385064 2.7101891 -0.91862363
-4.2535987 3.6731031 -0.93694001
-5.7495642 4.9649115 -0.8467223
-8.6445742 7.4648347 -0.63796562
-30.887878 26.672558 0
-30.986681 26.757877 2.286803
-2.512733 2.1645217 -0.91500461
-3.1417789 2.7063949 -0.91862363
-4.2638631 3.6729822 -0.93822265
-5.7633977 4.9647131 -0.84787548
-8.6575212 7.4577723 -0.63825566
-30.896421 26.614834 0
-30.973715 26.681416 2.2834654
-2.2616386 1.9434679 -0.9832443
-2.5191557 2.164757 -0.91639024
-3.15083 2.7075665 -0.92031282
-4.281929 3.6795406 -0.94121885
-5.7693925 4.9577456 -0.84787548
-8.6015005 7.391428 -0.63346672
-30.898956 26.552044 0
-30.960602 26.605019 2.2801268
-2.2339611 1.9149964 -0.97020489
-2.5122404 2.153543 -0.91292745
-3.1695321 2.7169867 -0.92481589
-3.5399437 3.0345111 -0.7773152
-5.7773404 4.9524527 -0.84816349
-8.5236216 7.3066192 -0.62708062
-30.850008 26.445246 0
-30.965111 26.543917 2.2780952
-2.2513011 1.9251462 -0.97672462
-2.5453479 2.1765935 -0.92400205
-3.1843958 2.7230599 -0.92819214
-3.5572667 3.0419116 -0.78031141
-5.7872558 4.9488335 -0.84874064
-8.4909735 7.2608528 -0.6240328
-30.860188 26.389351 0
-30.959637 26.474394 2.2753375
-2.2980597 1.957931 -0.99546957
-2.5187345 2.1459444 -0.91292745
-3.1912582 2.71893 -0.92875451
-3.5627742 3.0354593 -0.78031141
-5.7942414 4.9366536 -0.8484515
-8.4942322 7.2370272 -0.62330729
-30.87627 26.30637 0
-30.971972 26.387907 2.2727253
-2.2910018 1.9471451 -0.99139243
-2.5289719 2.1493983 -0.91569608
-3.1867969 2.7084901 -0.92650294
-3.562531 3.0278304 -0.77945626
-5.8002019 4.9296489 -0.8484515
-8.4970284 7.2217083 -0.6228717
-30.874323 26.240393 0
-30.995914 26.343733 2.2721446
-2.2990105 1.9491721 -0.99383807
-2.535398 2.1495888 -0.91708177
-3.2016995 2.7144997 -0.92988133
-3.5583549 3.0168831 -0.77774441
-5.8120747 4.9276567 -0.84931666
-8.509716 7.2147999 -0.62316227
-30.874247 26.17614 0
-31.017815 26.297861 2.271419
-2.282496 1.9304351 -0.98569
-2.5207555 2.1319447 -0.91085297
-3.1952784 2.7024264 -0.92706746
-3.5600319 3.0109189 -0.7773152
-5.8160515 4.9189615 -0.84902865
-8.524374 7.2095413 -0.62359726
-30.868095 26.106882 0
-31.045603 26.25701 2.2711291
-2.2621579 1.9085501 -0.97591043
-2.5386698 2.1418393 -0.91639024
-3.1985416 2.6985636 -0.92706746
-3.5617073 3.0049613 -0.77688766
-5.8279233 4.9169354 -0.84989381
-8.5291109 7.195888 -0.62330729
-30.877743 26.051109 0
-31.065388 26.209421 2.2702579
-2.2909329 1.9280934 -0.9873184
-2.5431736 2.1403842 -0.91708177
-3.1979082 2.6914215 -0.92594057
-3.5594416 2.9956949 -0.77560335
-5.8378143 4.9132175 -0.85046983
-8.5556898 7.2006345 -0.62461334
-30.871365 25.981939 0
-31.102999 26.176888 2.2706935
-2.2364764 1.8776501 -0.96287096
-2.5572824 2.1469853 -0.92123342
-3.2050536 2.6908262 -0.92706746
-3.5650303 2.9930472 -0.77603251
-5.8437467 4.9061604 -0.85046983
-8.5783167 7.2019882 -0.62562948
-30.8848 25.92956 0
-31.140579 26.1443 2.2711291
-2.305058 1.9304848 -0.99139243
-2.5406451 2.1277888 -0.91431314
-3.2024567 2.6820557 -0.92537826
-3.5607719 2.9821444 -0.77432066
-5.8496709 4.8990955 -0.85046983
-8.5790443 7.1849442 -0.62504894
-30.86623 25.850449 0
-31.180107 26.113321 2.2717092
-2.2827327 1.9070992 -0.98079866
-2.5412908 2.1231105 -0.9136216
-3.2076433 2.6798117 -0.92594057
-3.5486126 2.964673 -0.77089691
-5.8555861 4.892024 -0.85046983
-8.5996799 7.1845655 -0.62591946
-30.875479 25.794785 0
-31.219614 26.082291 2.2722898
-2.2812419 1.9011779 -0.97917026
-2.5457797 2.1216428 -0.91431314
-3.2011213 2.6678019 -0.9231267
-3.5206399 2.9340875 -0.76404947
-5.8654704 4.8882599 -0.85104698
-8.6103497 7.1758313 -0.62606448
-30.880636 25.7358 0
-31.269077 26.059526 2.2735963
-2.5348353 2.107337 -0.90946734
-3.2004309 2.6606801 -0.92199987
-4.3433495 3.6108463 -0.9416464
-5.8733597 4.8828211 -0.85133499
-8.6270065 7.1720667 -0.62664503
-30.875685 25.668518 0
-31.304535 26.025043 2.2738864
-2.2439783 1.8609518 -0.96124262
-2.558624 2.1218903 -0.91708177
-3.205605 2.6584377 -0.92256439
-4.3477097 3.6055956 -0.9416464
-5.8812442 4.8773704 -0.851623
-8.6416683 7.166615 -0.62708062
-30.880636 25.609596 0
-31.36796 26.013739 2.2762086
-2.267168 1.8755646 -0.97020489
-2.5515225 2.1108031 -0.9136216
-3.2009838 2.6480839 -0.92031282
-4.340199 3.5905249 -0.9390794
-5.8911233 4.8735609 -0.85220015
-8.6443129 7.1511979 -0.62664503
-30.883488 25.549044 0
-31.415386 25.989069 2.2773697
-2.246557 1.8539459 -0.96042532
-2.5560043 2.1093137 -0.91431314
-3.204181 2.6442142 -0.92031282
-4.3445344 3.585278 -0.9390794
-5.8990006 4.868084 -0.85248816
-8.6629744 7.1490216 -0.62737119
-30.876205 25.48024 0
-31.474821 25.974241 2.2794013
-2.2869596 1.882647 -0.97672462
-2.5624213 2.1094098 -0.91569608
-3.2093334 2.6419539 -0.92087519
-4.3528233 3.5832858 -0.93993455
-5.8988857 4.856019 -0.851623
-8.6635809 7.1319432 -0.62679058
-30.878836 25.419754 0
-31.562355 25.982431 2.2834654
-2.294965 1.8845896 -0.97917026
-2.5688496 2.1094992 -0.91708177
-3.2066307 2.6332352 -0.919186
-4.3531857 3.5747685 -0.9390794
-5.9067459 4.8505278 -0.85191101
-8.6882572 7.1346622 -0.62795174
-30.883385 25.360954 0
-25.605785 21.027073 1.8506814
-2.3106263 1.8927803 -0.9848758
-2.5675113 2.1032112 -0.91569608
-3.2078464 2.6277502 -0.91862363
-4.3515425 3.5646241 -0.9377951
-5.9166083 4.8466682 -0.85248816
-8.6948566 7.1225076 -0.62780619
-30.887835 25.302181 0
-25.645247 21.007645 1.8516974
-2.2612348 1.8477594 -0.96287096
-2.5583985 2.0905857 -0.9115445
-3.2129848 2.6254783 -0.919186
-4.3657837 3.5674837 -0.93993455
-5.9224601 4.8395157 -0.85248816
-8.7115049 7.1185727 -0.62838674
-30.888163 25.240145 0
-25.598183 20.917458 1.846473
-2.3381755 1.9059242 -0.99465227
-2.5745368 2.0985901 -0.91639024
-3.2141871 2.6199903 -0.91862363
-4.3661156 3.5589652 -0.9390794
-5.9283032 4.832356 -0.85248816
-8.7180872 7.1064014 -0.62824172
-30.896446 25.184715 0
-25.64962 20.907854 1.8483597
-2.27528 1.8500845 -0.96694499
-2.5614986 2.0828156 -0.91085297
-3.2134116 2.6129017 -0.91749895
-4.366425 3.5504448 -0.93822265
-5.9401526 4.83008 -0.85335219
-8.7246532 7.0942245 -0.6280967
-30.888487 25.116167 0
-25.664778 20.868645 1.8476336
-2.2736783 1.8442229 -0.96531665
-2.5737536 2.0876195 -0.91431314
-3.2106442 2.6042135 -0.91580975
-4.3766952 3.550019 -0.93950701
-5.9459844 4.8228989 -0.85335219
-8.7352352 7.0853124 -0.62824172
-30.87435 25.042761 0
-25.68796 20.835983 1.8474886
-2.2786293 1.8459576 -0.96694499
-2.5730669 2.0844865 -0.9136216
-3.2201145 2.6086712 -0.91806132
-4.3808317 3.5489886 -0.93993455
-5.9549284 4.8241916 -0.85421735
-8.7576838 7.0947533 -0.62954783
-30.857119 24.997892 0
-42.177116 34.168423 3.0319104
-2.2866271 1.847865 -0.96939069
-2.5833888 2.0876834 -0.91639024
-3.2311692 2.6111665 -0.92031282
-4.3871193 3.5453107 -0.94036376
-5.9547162 4.8121142 -0.85335219
-8.7925215 7.1053963 -0.6314345
-30.856945 24.936058 0
-42.250706 34.143566 3.0342326
-2.3215685 1.8714691 -0.9832443
-2.5780966 2.0782623 -0.9136216
-3.2204726 2.5960963 -0.91637212
-4.3814011 3.5319471 -0.93822265
-5.9625454 4.8065434 -0.85364133
-8.8597651 7.1420584 -0.63564342
-30.860714 24.877523 0
-42.32835 34.121845 3.0368454
-2.291086 1.8423337 -0.96939069
-2.574739 2.0704279 -0.9115445
-3.2236073 2.5922031 -0.91637212
-4.3876719 3.5282638 -0.93865186
-5.9723763 4.8025742 -0.85421735
-8.9291334 7.1801944 -0.6399973
-30.856276 24.812492 0
-42.414093 34.106495 3.0400381
-2.2836723 1.8318329 -0.96531665
-2.6261611 2.1065581 -0.92884785
-3.2366452 2.5962539 -0.919186
-4.3939323 3.5245643 -0.9390794
-5.9761596 4.7937374 -0.85392934
-8.9823914 7.2051668 -0.64319009
-30.876085 24.76705 0
-42.485672 34.079605 3.0422149
-2.2916756 1.8337063 -0.96776235
-2.5993197 2.0798707 -0.91846478
-3.2397799 2.5923412 -0.919186
-4.3981881 3.5192525 -0.9390794
-5.9900255 4.7929764 -0.85508251
-8.9951525 7.1975579 -0.64348066
-30.875507 24.705334 0
-42.557255 34.052597 3.0443921
-2.2861626 1.8247684 -0.96450245
-2.5939879 2.0704682 -0.91569608
-3.240926 2.5868411 -0.91862363
-3.585907 2.8621979 -0.76490623
-5.9978323 4.7873473 -0.85537052
-9.0099373 7.1915483 -0.64391625
-30.866695 24.637167 0
-25.990929 20.74543 1.8575026
-2.2941611 1.8266189 -0.96694499
-2.6082673 2.0767114 -0.91985041
-3.2420635 2.581342 -0.91806132
-3.5813298 2.8514669 -0.76319432
-5.99754 4.7752619 -0.85450536
-9.0186205 7.1806564 -0.64391625
-30.878113 24.585258 0
-26.015978 20.71401 1.8575026
-2.3041081 1.8299942 -0.97020489
-2.5989838 2.0641935 -0.91569608
-3.2591023 2.58848 -0.92199987
-4.4048834 3.4984951 -0.9377951
-6.0093837 4.7728391 -0.85537052
-9.0252495 7.1681328 -0.64377069
-30.856857 24.507473 0
-26.075584 20.710037 1.8599703
-2.2695148 1.7980512 -0.95472288
-2.6034482 2.0626142 -0.91639024
-3.2602379 2.5829639 -0.9214375
-4.4030695 3.4883862 -0.9365108
-6.0151463 4.7655745 -0.85537052
-9.0440855 7.1652889 -0.6444962
-30.864006 24.452393 0
-26.070036 20.654308 1.8577931
-2.2774975 1.7999008 -0.95716542
-2.6000319 2.0547986 -0.91431314
-3.257374 2.5742948 -0.91974831
-4.4072814 3.4830635 -0.9365108
-6.0209002 4.7583027 -0.85537052
-9.0384722 7.1430826 -0.64348066
-30.879236 24.403784 0
-25.391668 20.066973 1.8077223
-2.2990844 1.812452 -0.96531665
-2.6084251 2.0563166 -0.91639024
-3.2584887 2.5687854 -0.919186
-4.3873029 3.4586706 -0.93137681
-6.0327411 4.7558293 -0.85623568
-8.9960833 7.0919404 -0.63985234
-30.884174 24.34712 0
-25.48732 20.092583 1.8128023
-2.2876711 1.7989765 -0.95961112
-2.6187961 2.0593665 -0.91915894
-3.2536011 2.5585637 -0.91693443
-3.7478032 2.9471939 -0.79486144
-6.0425453 4.7517309 -0.8568117
-8.8943529 6.9943323 -0.63201505
-30.874708 24.279224 0
-25.532001 20.077831 1.8142534
-2.2723427 1.7824833 -0.95227718
-2.619303 2.0546477 -0.91846478
-3.2686892 2.5640428 -0.92031282
-3.7755992 2.9616759 -0.79999703
-6.0482826 4.7444263 -0.8568117
-8.9334669 7.007638 -0.63419229
-30.861023 24.20817 0
-25.568506 20.056585 1.815124
-2.3095286 1.8071494 -0.96694499
-2.6079588 2.0406637 -0.9136216
-3.2777824 2.5647843 -0.92199987
-3.7771552 2.9555311 -0.79956949
-6.0540109 4.7371149 -0.8568117
-8.9398746 6.9952326 -0.63404673
-30.875902 24.159636 0
-25.625465 20.051296 1.8174462
-2.2902842 1.7876335 -0.95798272
-2.6163499 2.0421374 -0.91569608
-3.2748759 2.5561361 -0.92031282
-3.7685781 2.9414852 -0.79700089
-6.0617752 4.7313924 -0.85710084
-8.9585686 6.992424 -0.63477284
-30.882511 24.1047 0
-43.6026 34.0331 3.0895278
-2.308044 1.7970121 -0.96450245
-2.5950611 2.0204797 -0.90739018
-3.2739484 2.5490525 -0.919186
-3.7214932 2.8975046 -0.78630209
-6.0674877 4.7240644 -0.85710084
-8.9649544 6.9799933 -0.63462728
-30.893135 24.05298 0
-43.676495 34.005932 3.09185
-2.3082559 1.7927016 -0.96368515
-2.6252439 2.0388894 -0.91708177
-3.2890706 2.5544488 -0.92256439
-3.6580961 2.8410516 -0.77218121
-6.075232 4.7183146 -0.85738885
-8.9692822 6.9659715 -0.63433731
-30.901617 23.999668 0
-43.791431 34.010513 3.097075
-2.3084686 1.788399 -0.96287096
-2.597955 2.0126677 -0.9066987
-3.2841201 2.5442483 -0.92031282
-3.6128223 2.7988977 -0.76191002
-6.078886 4.7093878 -0.85710084
-8.9633112 6.9439874 -0.63332117
-30.88739 23.928843 0
-43.896168 34.006901 3.1015739
-2.2930284 1.7720078 -0.95553708
-2.6321466 2.0340719 -0.91777325
-3.2892005 2.5418305 -0.92087519
-3.5897975 2.7741258 -0.75634688
-6.0886612 4.7051992 -0.85767686
-8.9840355 6.9426885 -0.63419229
-30.864801 23.851721 0
-43.982456 33.988789 3.1047668
-2.3303993 1.7963942 -0.97020489
-2.610759 2.0125101 -0.90946734
-3.2902591 2.5363045 -0.92031282
-3.5870454 2.7650831 -0.75506252
-6.0963888 4.6994166 -0.85796487
-8.9862423 6.9270673 -0.63375676
-30.875051 23.80011 0
-44.060532 33.964172 3.107379
-2.3012187 1.7694716 -0.95716542
-2.6271124 2.0200603 -0.91431314
-3.2933214 2.5323269 -0.92031282
-3.5944579 2.7638793 -0.75591928
-6.1082158 4.6967783 -0.85883003
-9.0296211 6.9431291 -0.63622397
-30.881098 23.745342 0
-44.155102 33.952095 3.1111529
-2.2983706 1.7650731 -0.95553708
-2.6263444 2.0169461 -0.9136216
-3.2948506 2.5303369 -0.92031282
-3.6042709 2.7679615 -0.75763118
-6.1192575 4.6993885 -0.85998321
-9.0193863 6.9265924 -0.63520783
-25.964645 19.939993 0
-44.190025 33.936485 3.1121686
-2.2671485 1.7367444 -0.94168341
-2.622803 2.0091929 -0.9115445
-3.2918525 2.5217168 -0.91862363
-3.6055691 2.7620387 -0.75720197
-6.1187696 4.6872711 -0.85911804
-9.02775 6.915689 -0.63520783
-25.999048 19.916517 0
-27.098585 20.758816 1.9067028
-2.2731693 1.7370023 -0.94331181
-2.6332026 2.0121152 -0.91431314
-3.2928801 2.5161963 -0.91806132
-3.6027904 2.7530088 -0.75591928
-6.1305962 4.684587 -0.85998321
-26.000345 19.867704 0
-27.12365 20.726057 1.9067028
-2.3165443 1.765717 -0.96042532
-2.6296442 2.0043681 -0.91223598
-3.3019745 2.5168319 -0.91974831
-3.5999875 2.7439835 -0.75463498
-6.1383076 4.6787424 -0.86027122
-26.036757 19.845743 0
-27.136269 20.683815 1.9058316
-2.3226149 1.7659113 -0.96205682
-2.630069 1.9996723 -0.9115445
-3.3029926 2.5113039 -0.919186
-4.5085244 3.4278841 -0.94421506
-6.1439562 4.6713219 -0.86027122
-26.066925 19.818989 0
-27.163307 20.652582 1.9059767
-2.3109598 1.7526474 -0.95635128
-2.6384819 2.0010424 -0.9136216
-3.3100774 2.5103848 -0.92031282
-4.4676614 3.388304 -0.93479896
-6.1516552 4.6654563 -0.86055923
-27.380568 20.765606 0
-27.194456 20.624456 1.9064121
-2.3209603 1.7558184 -0.95961112
-2.6368926 1.9948227 -0.91223598
-3.321214 2.5125153 -0.92256439
-4.4799409 3.3890984 -0.9365108
-6.1634779 4.6627026 -0.86142439
-27.389042 20.719952 0
-27.229715 20.599421 1.9071378
-2.307297 1.7411025 -0.95309138
-2.649312 1.9991894 -0.91569608
-3.3222132 2.5069654 -0.92199987
-4.4758363 3.3774977 -0.93479896
-6.1691074 4.655252 -0.86142439
-27.38497 20.664892 0
-25.819345 19.483459 1.8067068
-2.2955818 1.7279129 -0.94738901
-2.643708 1.9899518 -0.91292745
-3.3232119 2.5014229 -0.9214375
-4.4799142 3.372087 -0.93479896
-6.1767921 4.6493483 -0.8617124
-26.108353 19.652081 0
-25.859476 19.464748 1.8078679
-2.2956858 1.7236496 -0.94657165
-2.6621604 1.9988065 -0.91846478
-3.3242021 2.4958813 -0.92087519
-4.4819345 3.3651316 -0.93437135
-6.1824055 4.6418815 -0.8617124
-26.107105 19.601768 0
-25.866354 19.421007 1.8067068
-2.2997508 1.7223603 -0.94738901
-2.6766257 2.0046146 -0.92261904
-3.3272152 2.491863 -0.92087519
-4.494216 3.365869 -0.93608326
-6.1921544 4.6375117 -0.86228955
-26.124527 19.565533 0
-25.88356 19.385065 1.8062712
-2.2840114 1.7062687 -0.94005507
-2.6649749 1.9908673 -0.91777325
-3.3200479 2.4802389 -0.91806132
-4.4859443 3.3512208 -0.93351626
-6.2018938 4.6331196 -0.86286557
-26.137718 19.526161 0
-25.900717 19.349108 1.8058356
-2.3197613 1.7286123 -0.95390868
-2.6714058 1.9906466 -0.91915894
-3.3332274 2.4838152 -0.92087519
-4.4899902 3.345798 -0.93351626
-6.2095675 4.627172 -0.86315471
-26.115387 19.460356 0
-25.907408 19.305376 1.8046745
-2.2920916 1.7036902 -0.94168341
-2.6717899 1.9859164 -0.91846478
-3.3443832 2.4858489 -0.9231267
-4.5084457 3.3510857 -0.9365108
-6.2109981 4.6165767 -0.86257756
-26.107557 19.405504 0
-25.914042 19.261663 1.803514
-2.3020902 1.7068075 -0.94494331
-2.6701608 1.9797012 -0.91708177
-3.3453455 2.4802942 -0.92256439
-4.502183 3.3379927 -0.93437135
-6.2165718 4.6090689 -0.86257756
-26.093351 19.346041 0
-25.905983 19.207123 1.8013368
-2.2723553 1.6805105 -0.93190384
-2.6846497 1.9854208 -0.92123342
-3.3340375 2.4656727 -0.91862363
-4.510345 3.3356059 -0.93522811
-6.2262998 4.6046329 -0.86315471
-26.104158 19.305216 0
-25.954243 19.194347 1.8030784
-2.3042209 1.6997734 -0.94412911
-2.6648448 1.9657977 -0.9136216
-3.3411 2.4646564 -0.91974831
-4.5164361 3.331676 -0.93565571
-6.2401767 4.6032419 -0.86430675
-26.119089 19.267481 0
-25.994146 19.175312 1.8042395
-2.3062732 1.696988 -0.94412911
-2.6914585 1.9804127 -0.92192489
-3.3543143 2.4681513 -0.92256439
-4.5183926 3.3246963 -0.93522811
-6.2436528 4.5941668 -0.86401874
-30.873199 22.716932 0
-30.885185 22.72575 2.1418164
-2.2963629 1.6854228 -0.93923777
-2.6675591 1.9578633 -0.91292745
-3.3511469 2.4595847 -0.92087519
-4.5265417 3.3222692 -0.93608326
-6.2471166 4.5850906 -0.86373073
-30.869154 22.656511 0
-30.895863 22.676115 2.1406553
-2.3322988 1.7074656 -0.95309138
-2.6577811 1.9457498 -0.90877581
-3.3582129 2.4585328 -0.92199987
-4.5222673 3.3107319 -0.93437135
-6.2568221 4.5805917 -0.86430675
-30.869209 22.599211 0
-30.893892 22.617281 2.1386237
-2.3054414 1.6813939 -0.94086927
-2.6552205 1.936493 -0.9066987
-3.3565104 2.4479547 -0.92031282
-4.5303326 3.3040411 -0.93479896
-6.2692971 4.5722947 -0.8648839
-30.855453 22.503357 0
-30.869749 22.513783 2.134124
-2.3194597 1.6873281 -0.94575751
-2.6737883 1.9450901 -0.91223598
-3.3635714 2.4468839 -0.9214375
-4.5301738 3.2955472 -0.93394381
-6.272728 4.5631962 -0.86459589
-30.865786 22.45381 0
-30.869616 22.456596 2.1322374
-2.2814879 1.6554929 -0.9294582
-2.674108 1.9403859 -0.9115445
-3.3665257 2.4428179 -0.9214375
-4.5320768 3.2885649 -0.93351626
-6.2803283 4.5571313 -0.8648839
-30.863409 22.395103 0
-30.884113 22.410126 2.131367
-2.2995043 1.6643282 -0.93597788
-2.6723821 1.9342088 -0.91015881
-3.3694749 2.4387484 -0.9214375
-4.536047 3.2830863 -0.93351626
-6.28583 4.5495391 -0.8648839
-30.882013 22.35169 0
-30.883806 22.352989 2.1294801
-2.3035233 1.6629994 -0.93679523
-2.6645489 1.9236373 -0.9066987
-3.3765433 2.4376526 -0.92256439
-4.5358438 3.274595 -0.93265951
-6.297616 4.546484 -0.86574906
-30.917439 22.320452 0
-30.889721 22.300442 2.1280286
-2.3095386 1.6631006 -0.93842357
-2.6668713 1.9204162 -0.9066987
-3.3732984 2.4291151 -0.92087519
-4.5439677 3.272115 -0.93351626
-6.2989035 4.5358458 -0.86517191
-19.954536 14.369279 0
-30.889235 22.243364 2.1261418
-2.3155651 1.6631953 -0.94005507
-2.6814194 1.9259766 -0.91085297
-3.3782928 2.4265182 -0.9214375
-4.5416613 3.2621279 -0.93223196
-6.3106837 4.5327592 -0.86603707
-19.973997 14.346674 0
-26.651062 19.142593 1.8328302
-2.2934628 1.6431228 -0.9302755
-2.6959772 1.931499 -0.91500461
-3.3812225 2.4224343 -0.9214375
-4.5476842 3.2581315 -0.93265951
-6.3224654 4.5296512 -0.86690223
-5.0814385 3.6405332 0
-26.642496 19.087683 1.8306535
-2.3235955 1.660466 -0.94168341
-2.6881051 1.9209483 -0.9115445
-3.377943 2.4139137 -0.91974831
-4.5453582 3.2481608 -0.93137681
-6.3300366 4.5235109 -0.86719024
-5.0202003 3.5874879 0
-26.616913 19.020727 1.8273152
-2.3296218 1.6605235 -0.94331181
-2.6965549 1.9220687 -0.9136216
-3.3808572 2.4098303 -0.91974831
-4.5618176 3.2516034 -0.93394381
-6.3312812 4.5128536 -0.86661309
-5.0775027 3.6191769 -0.34828231
-5.0436025 3.5950131 0
-26.496 18.885998 1.8174462
-2.2994039 1.6347984 -0.9302755
-2.7009182 1.9202614 -0.91431314
-3.3858435 2.4072201 -0.92031282
-4.563653 3.2446029 -0.93351626
-6.3367295 4.5052004 -0.86661309
-5.0966902 3.6235743 -0.34929788
-0 0 0
-26.146099 18.588991 1.7919034
-2.3175066 1.6434566 -0.93679523
-2.6930063 1.9097418 -0.91085297
-3.3866711 2.4016533 -0.91974831
-4.5717545 3.2420533 -0.93437135
-6.3485003 4.5020304 -0.86747825
-0 0 -0
-0 0 0
-26.204571 18.582935 1.7943707
-2.2952766 1.6235276 -0.9270156
-2.707597 1.915176 -0.91500461
-3.3895705 2.3975594 -0.91974831
-4.5777621 3.2380078 -0.93479896
-6.3539352 4.4943562 -0.86747825
-0 0 -0
-0 0 0
-28.282532 20.005203 1.9350034
-2.3315673 1.6449741 -0.94086927
-2.6935098 1.9003329 -0.90946734
-3.3945472 2.3949308 -0.92031282
-4.5816712 3.2324741 -0.93479896
-6.3551383 4.483696 -0.86690223
-0 0 -0
-0 0 0
-28.253607 19.933567 1.931375
-2.3153636 1.6293554 -0.93353534
-2.708118 1.9057425 -0.9136216
-3.3912027 2.3864393 -0.91862363
-4.5939713 3.2328451 -0.9365108
-5.0724425 3.5695527 -0.69134128
-0 0 -0
-0 0 0
-28.271294 19.894926 1.9309394
-2.3132808 1.6237139 -0.93190384
-2.7186325 1.9082341 -0.91639024
-3.3982391 2.3852568 -0.91974831
-4.6020803 3.2302444 -0.93736756
-5.0873351 3.5708492 -0.69278246
-0 0 -0
-0 0 0
-28.288931 19.856272 1.930504
-2.3010738 1.610999 -0.92620146
-2.7168219 1.9020673 -0.91500461
-3.4073653 2.3855219 -0.9214375
-4.5996695 3.220263 -0.93608326
-5.0704536 3.5498626 -0.68989897
-0 0 -0
-0 0 0
-28.31929 19.826548 1.9309394
-2.313149 1.6152915 -0.9302755
-2.7129455 1.8944728 -0.91292745
-3.4144156 2.3843155 -0.92256439
-4.5930357 3.2073557 -0.93394381
-5.0747395 3.5437336 -0.68989897
-0 0 -0
-0 0 0
-28.345354 19.7938 1.9310845
-2.3191514 1.6153178 -0.93190384
-2.7111192 1.8883284 -0.9115445
-3.4172943 2.380188 -0.92256439
-4.5990124 3.2032692 -0.93437135
-5.0747766 3.5346453 -0.68932295
-5.0824437 3.5399854 -0.34596008
-0 0 0
-28.384178 19.769934 1.9321005
-2.3048627 1.601233 -0.92538416
-2.7154574 1.8864812 -0.91223598
-3.4201677 2.3760571 -0.92256439
-4.5965524 3.1933146 -0.93308705
-5.0769219 3.5270367 -0.68903494
-5.0781813 3.5279114 -0.34537953
-0 0 0
-30.859901 21.438974 2.0988574
-2.2936494 1.5913893 -0.92049593
-2.7104108 1.8805485 -0.91015881
-3.4320388 2.3812313 -0.92537826
-4.6090326 3.1978581 -0.93522811
-5.079052 3.5239687 -0.68903494
-5.0803118 3.524843 -0.34537953
-0 0 0
-30.857903 21.409956 2.0978413
-2.3260508 1.60971 -0.93271804
-2.7126813 1.8772721 -0.91015881
-3.416111 2.3640707 -0.92031282
-4.6023326 3.1849782 -0.93308705
-5.0769234 3.513412 -0.68816978
-5.078155 3.5142643 -0.34494397
-0 0 0
-30.866655 21.360826 2.0966802
-2.309689 1.5942633 -0.92538416
-2.6963675 1.861168 -0.90393001
-3.4294188 2.3671567 -0.9231267
-4.5977354 3.1735876 -0.93137681
-5.0769038 3.5043337 -0.68759263
-5.078125 3.5051765 -0.34465396
-0 0 0
-30.875336 21.311705 2.0955191
-2.3217907 1.5984778 -0.9294582
-2.7151456 1.8692899 -0.90946734
-3.4280868 2.3601267 -0.92199987
-4.6057916 3.1709385 -0.93223196
-5.0768776 3.495266 -0.68701661
-5.0737953 3.493144 -0.34407341
-0 0 0
-30.868967 21.252285 2.0933423
-2.3074286 1.5844837 -0.92294157
-2.7236085 1.8702695 -0.9115445
-3.4309359 2.355983 -0.92199987
-4.6159701 3.1697316 -0.93351626
-5.0768371 3.4862037 -0.68644059
-5.0822926 3.4899497 -0.34436342
-0 0 0
-30.873199 21.200258 2.0918906
-2.3195353 1.5886765 -0.9270156
-2.7051721 1.8528035 -0.90462416
-3.4295917 2.3489666 -0.92087519
-4.6155567 3.161248 -0.93265951
-5.0810456 3.4800668 -0.68644059
-5.082222 3.4808724 -0.34407341
-0 0 0
-30.868784 21.142385 2.089859
-2.3092041 1.5775048 -0.92212427
-2.7219038 1.8594354 -0.90946734
-3.4240351 2.339088 -0.91862363
-4.6193733 3.1556687 -0.93265951
-5.076704 3.4680889 -0.68528742
-5.082129 3.4717946 -0.34378284
-0 0 0
-30.874998 21.091881 2.088553
-2.3274488 1.5858471 -0.928644
-2.7096417 1.8462608 -0.90462416
-3.4184597 2.329226 -0.91637212
-4.6168246 3.1457524 -0.93137681
-5.0808911 3.461952 -0.68528742
-5.0863204 3.4656515 -0.34378284
-0 0 0
-30.883284 21.042852 2.0873919
-2.3457172 1.5941477 -0.93516374
-2.7160165 1.8458029 -0.90600717
-3.4170725 2.3222401 -0.91524744
-4.6312361 3.1473849 -0.93351626
-5.0807877 3.4528999 -0.68471026
-5.0797606 3.4522018 -0.3430573
-0 0 0
-30.878603 20.985077 2.0853601
-2.3271866 1.5774471 -0.9270156
-2.7327833 1.8523746 -0.91085297
-3.4219773 2.3195338 -0.91580975
-4.6414042 3.1461034 -0.93479896
-5.0806785 3.4438584 -0.68413424
-5.0860772 3.4475179 -0.34320229
-0 0 0
-30.878126 20.930256 2.0836184
-2.318855 1.5677137 -0.92294157
-2.7350197 1.8490711 -0.91085297
-3.4247775 2.3153973 -0.91580975
-4.6452022 3.1404929 -0.93479896
-5.0805464 3.4348168 -0.68355709
-5.0880885 3.4399159 -0.3430573
-0 0 0
-30.868952 20.869644 2.0812962
-2.3145978 1.560764 -0.92049593
-2.7289317 1.8401546 -0.90808433
-3.4296772 2.3126767 -0.91637212
-4.6468673 3.1334441 -0.93437135
-5.0825505 3.4272308 -0.68326908
-5.0879364 3.4308627 -0.3427673
-0 0 0
-30.870453 20.816355 2.0797
-2.3144331 1.5565881 -0.91968173
-2.7269857 1.834053 -0.9066987
-3.4303629 2.3071144 -0.91580975
-4.6527781 3.1292582 -0.93479896
-5.0802469 3.4167554 -0.68240392
-5.0920782 3.4247124 -0.3427673
-0 0 0
-30.869709 20.761637 2.0779583
-2.3204136 1.5565414 -0.92131007
-2.739615 1.8377432 -0.91015881
-3.43104 2.3015535 -0.91524744
-4.6565557 3.1236339 -0.93479896
-5.08008 3.4077353 -0.6818279
-5.0940566 3.4171109 -0.34262228
-0 0 0
-30.875353 20.711294 2.0766523
-2.3305094 1.5592341 -0.92456996
-2.7376673 1.8316442 -0.90877581
-3.4401479 2.3016407 -0.91693443
-4.6624665 3.1194365 -0.93522811
-5.0841942 3.4015946 -0.6818279
-5.0938587 3.4080608 -0.34233174
-0 0 0
-30.878756 20.659521 2.0752006
-2.3447232 1.5646458 -0.9294582
-2.7482257 1.833905 -0.9115445
-3.4450459 2.2988968 -0.91749895
-4.657691 3.1081011 -0.93351626
-5.0818439 3.3911405 -0.68096274
-5.0958133 3.4004624 -0.34218675
-0 0 0
-30.875601 20.603445 2.073314
-2.3486757 1.5631849 -0.9302755
-2.7462585 1.8278003 -0.91015881
-3.4478214 2.2947326 -0.91749895
-4.6678481 3.1067338 -0.93479896
-5.0773253 3.3792653 -0.67980957
-5.0912662 3.3885438 -0.34160617
-0 0 0
-30.881006 20.553167 2.0720079
-2.313493 1.5357383 -0.91560453
-2.7380164 1.8175445 -0.9066987
-3.4463537 2.2877514 -0.91637212
-4.6694617 3.0996728 -0.93437135
-5.0857186 3.3759916 -0.68038672
-5.0953565 3.3823895 -0.34160617
-0 0 0
-30.877678 20.497158 2.070121
-2.3091705 1.5288525 -0.91316199
-2.7423003 1.8156185 -0.90739018
-3.4406409 2.2779748 -0.91412055
-4.6732039 3.0940285 -0.93437135
-5.0876312 3.368412 -0.68009758
-5.0907736 3.3704925 -0.34102562
-0 0 0
-30.882925 20.446924 2.068815
-2.3327661 1.5424484 -0.92212427
-2.7454953 1.8153491 -0.90808433
-3.4589722 2.2871072 -0.91862363
-4.6814981 3.0954535 -0.93565571
-5.0853543 3.3624873 -0.67952156
-5.0906434 3.3659844 -0.34088063
-0 0 0
-30.867096 20.409634 2.0669284
-2.3181217 1.5287429 -0.91560453
-2.7476869 1.8120303 -0.90808433
-3.4680989 2.2871239 -0.92031282
-4.6745219 3.0827296 -0.93351626
-5.0786195 3.3492217 -0.67808038
-5.090364 3.356967 -0.34059006
-0 0 0
-30.867872 20.356585 2.0653317
-2.3488805 1.5449584 -0.9270156
-2.7582583 1.8142235 -0.91085297
-3.4729807 2.2843266 -0.92087519
-4.6696649 3.0714364 -0.93180442
-5.0869803 3.3459227 -0.6786564
-5.0944166 3.3508139 -0.34059006
-0 0 0
-30.879425 20.310707 2.064461
-2.3197446 1.521782 -0.91479039
-2.749954 1.8040049 -0.90739018
-3.4736159 2.2787361 -0.92031282
-4.6905437 3.0770564 -0.93522811
-5.0780478 3.331264 -0.67692721
-5.0941205 3.3418081 -0.34030005
-5.1222286 3.3602471 0
-30.873522 20.253424 2.062429
-2.3277884 1.5230389 -0.91723603
-2.7542372 1.8020583 -0.90808433
-3.4742343 2.2731421 -0.91974831
-4.6856661 3.0657647 -0.93351626
-5.0885563 3.32937 -0.67779124
-5.100327 3.3370717 -0.34044507
-5.1219254 3.351203 0
-30.882757 20.20615 2.0614133
-2.3254833 1.517521 -0.91560453
-2.7669156 1.8055829 -0.9115445
-3.4706008 2.2647808 -0.91806132
-4.6915145 3.0615022 -0.93394381
-5.0817471 3.316153 -0.67635006
-5.0999994 3.3280635 -0.3401545
-5.1216164 3.34217 0
-30.883211 20.153196 2.0598166
-2.3397481 1.522802 -0.92049593
-2.7606847 1.7967644 -0.90877581
-3.4648166 2.2550416 -0.91580975
-4.6866045 3.05023 -0.93223196
-5.0879159 3.3114197 -0.67663807
-5.0909543 3.3133972 -0.33928394
-5.178 3.37005 0
-30.881405 20.098858 2.058075
-2.3332939 1.5145909 -0.91723603
-2.771271 1.7988911 -0.9115445
-3.4760637 2.256387 -0.91806132
-4.6988993 3.0501559 -0.93394381
-5.089746 3.3038628 -0.67635006
-5.0993171 3.3100755 -0.33957452
-6.4109902 4.1615105 0
-30.877337 20.043137 2.0561883
-2.3226697 1.5037086 -0.91234469
-2.7586989 1.7859961 -0.9066987
-3.4702559 2.2466619 -0.91580975
-4.6961145 3.0402892 -0.93265951
-5.0872273 3.2934976 -0.67548603
-5.0967674 3.2996738 -0.33913895
-6.4181967 4.1551738 0
-30.881903 19.993105 2.054882
-2.3514841 1.518334 -0.92294157
-2.765074 1.7853857 -0.90808433
-3.4751005 2.243844 -0.91637212
-4.6933212 3.0304391 -0.93137681
-5.086853 3.2845395 -0.67490888
-5.1029315 3.2949212 -0.33928394
-6.4188442 4.1445951 0
-30.882032 19.940275 2.0532861
-2.3366928 1.504786 -0.91642189
-2.7587924 1.7766101 -0.9053157
-3.4820859 2.2423975 -0.91749895
-4.7056046 3.0303202 -0.93308705
-5.086473 3.2755923 -0.67433286
-5.0959878 3.2817197 -0.33855838
-6.4150949 4.1311998 0
-30.882071 19.88747 2.0516894
-2.3489056 1.5086386 -0.92049593
-2.7714894 1.7800529 -0.90877581
-3.4783771 2.2340677 -0.91580975
-4.7092624 3.0246322 -0.93308705
-5.0926013 3.2708404 -0.67462087
-5.097765 3.274157 -0.33841339
-6.4135108 4.119225 0
-30.877659 19.831886 2.0498028
-2.3611307 1.5124639 -0.92456996
-2.7841988 1.7834675 -0.91223598
-3.4917698 2.2367146 -0.91862363
-4.7107544 3.0175564 -0.93265951
-5.090014 3.260498 -0.67375571
-5.0995231 3.2665894 -0.33826783
-6.4316278 4.1198921 0
-26.543259 17.00275 1.7607
-2.3233888 1.4843313 -0.90908796
-2.7821276 1.7774034 -0.91085297
-3.4730618 2.2188168 -0.91299587
-4.7100744 3.0091009 -0.93180442
-5.0917726 3.252954 -0.6734677
-5.0969038 3.2562325 -0.33783284
-6.4475732 4.1191278 0
-26.568159 16.973461 1.7609899
-2.3376832 1.4894891 -0.91397619
-2.7927363 1.7794328 -0.9136216
-3.4843116 2.2200801 -0.91524744
-4.7158699 3.0047855 -0.93223196
-5.0913324 3.2440169 -0.67289054
-5.1008344 3.2500713 -0.33783284
-6.5008278 4.1420975 0
-26.643431 16.976252 1.7646183
-2.3561697 1.4972683 -0.92049593
-2.777945 1.7652926 -0.90808433
-3.4848409 2.2145019 -0.91468292
-4.7238264 3.0018361 -0.93308705
-5.0930676 3.2364767 -0.67260253
-5.1047578 3.2439055 -0.33783284
-6.5277891 4.1481953 0
-26.661734 16.942654 1.7644733
-2.3475409 1.487806 -0.91642189
-2.7821929 1.7632765 -0.90877581
-3.4918106 2.2130125 -0.91580975
-4.7339568 3.0002501 -0.93437135
-5.0926094 3.2275538 -0.67202652
-5.1020875 3.2335608 -0.33739728
-6.5789566 4.1695595 0
-26.723881 16.936852 1.7672305
-2.3535113 1.487607 -0.91805023
-2.7885587 1.7625917 -0.91015881
-3.4901824 2.2060738 -0.91468292
-4.7267308 2.9876711 -0.93223196
-5.0943127 3.2200122 -0.67173737
-5.0993991 3.2232273 -0.33696172
-0 0 0
-26.687222 16.868454 1.7634572
-2.3532183 1.4834454 -0.91723603
-2.7949352 1.7618994 -0.9115445
-3.5057464 2.2099876 -0.91806132
-4.7346764 2.9846931 -0.93308705
-5.0938277 3.2110984 -0.67116135
-5.1076908 3.2198374 -0.33725226
-0 0 0
-30.85746 19.452236 2.0374665
-2.3541141 1.4820234 -0.91723603
-2.7938781 1.7588751 -0.91085297
-3.4984796 2.2024543 -0.91580975
-4.7364788 2.981832 -0.93308705
-5.1001406 3.2107737 -0.67173737
-5.096437 3.2084422 -0.33638117
-0 0 0
-30.882397 19.441893 2.038337
-2.3475301 1.4739208 -0.91397619
-2.7875025 1.7501619 -0.90808433
-3.5140457 2.2063296 -0.919186
-4.7400784 2.9761066 -0.93308705
-5.0952625 3.1991129 -0.67058533
-5.1003098 3.2022817 -0.33638117
-0 0 0
-30.857456 19.374168 2.0351443
-2.3681607 1.4828874 -0.92131007
-2.7768533 1.7388012 -0.90393001
-3.508095 2.1966879 -0.91693443
-4.7480264 2.9731045 -0.93394381
-5.092546 3.1888344 -0.66972017
-5.1063843 3.1974998 -0.33652672
-0 0 0
-27.498264 17.218777 1.8122218
-2.3699508 1.4800249 -0.92131007
-2.7895899 1.7420878 -0.90739018
-3.5064404 2.1897583 -0.91580975
-4.7516155 2.9673653 -0.93394381
-5.098587 3.1840475 -0.67000818
-5.0948143 3.1816914 -0.33551061
-27.706112 17.302359 0
-27.541086 17.199299 1.8136729
-2.3612494 1.4706281 -0.91723603
-2.7895653 1.7373909 -0.9066987
-3.5177109 2.1908929 -0.91806132
-4.7464814 2.9561932 -0.93223196
-5.0958419 3.1737812 -0.66914302
-5.1030617 3.1782777 -0.33580059
-27.746878 17.28125 0
-27.590519 17.183867 1.8155596
-2.3732009 1.470124 -0.92049593
-2.7873638 1.7266848 -0.90462416
-3.5273111 2.1850591 -0.919186
-4.7601604 2.948771 -0.93351626
-5.1057019 3.1628232 -0.66943216
-5.1063142 3.1632023 -0.33551061
-30.817177 19.090281 0
-27.753452 17.192398 1.8235419
-2.3749757 1.4672554 -0.92049593
-2.8043821 1.7325418 -0.90946734
-3.5191426 2.1741195 -0.91637212
-4.7702656 2.9470608 -0.93479896
-5.100718 3.1512139 -0.66827899
-5.1057067 3.1542959 -0.33522004
-30.835789 19.050291 0
-26.456751 16.344931 1.7370431
-2.3557 1.4514171 -0.91234469
-2.7979298 1.723888 -0.9066987
-3.5260978 2.172534 -0.91749895
-4.7803817 2.9453359 -0.93608326
-5.1023135 3.1436877 -0.66798985
-5.1073046 3.1467626 -0.33507505
-27.836727 17.151037 0
-26.465422 16.306137 1.7363176
-2.3595641 1.4498674 -0.91316199
-2.7936044 1.7165695 -0.90462416
-3.5243864 2.1656086 -0.91637212
-4.7708182 2.9314964 -0.93351626
-5.1017056 3.1348147 -0.66741383
-5.1133146 3.1419482 -0.33522004
-27.850777 17.113302 0
-26.467394 16.263264 1.7351565
-2.3507793 1.4405594 -0.90908796
-2.8020875 1.7171215 -0.9066987
-3.5248361 2.1600223 -0.91580975
-4.7809172 2.9297497 -0.93479896
-5.1010747 3.1259425 -0.66683668
-5.1038184 3.1276238 -0.33434948
-27.862558 17.074198 0
-26.478165 16.22584 1.734576
-2.3672748 1.4467362 -0.91479039
-2.806299 1.7150414 -0.90739018
-3.5469539 2.1676853 -0.92087519
-4.7866502 2.9253132 -0.93522811
-5.102643 3.1184292 -0.66654867
-5.1120324 3.1241672 -0.33464006
-30.832022 18.84268 0
-27.914455 17.059639 1.8273152
-2.3753548 1.447735 -0.91723603
-2.8083692 1.7116493 -0.90739018
-3.5365567 2.1554663 -0.91749895
-4.7879829 2.9181876 -0.93479896
-5.1019945 3.1095717 -0.66597265
-5.1135783 3.116632 -0.33449447
-30.879213 18.820312 0
-27.928398 17.021845 1.8268802
-2.3602059 1.4345937 -0.9107163
-2.8061519 1.705651 -0.90600717
-3.534812 2.1485493 -0.91637212
-4.778348 2.9044025 -0.93223196
-5.1057482 3.1034045 -0.66597265
-5.1129041 3.1077542 -0.33420449
-30.879688 18.769466 0
-30.86202 18.758728 2.0172932
-2.3555946 1.4278959 -0.90827066
-2.8017726 1.6983565 -0.90393001
-3.5330639 2.141645 -0.91524744
-4.7884417 2.9026201 -0.93351626
-5.107276 3.0958884 -0.66568351
-5.1099868 3.0975318 -0.33376893
-30.937954 18.753727 0
-30.849112 18.699873 2.014971
-2.3509789 1.4212162 -0.90582812
-2.8102655 1.6988647 -0.90600717
-3.5421662 2.141314 -0.91693443
-4.7919455 2.896832 -0.93351626
-5.1021676 3.0843678 -0.66453147
-5.1137257 3.0913551 -0.33376893
-30.978409 18.7271 0
-30.851673 18.650486 2.0136647
-2.3696198 1.4285784 -0.91234469
-2.8166091 1.698056 -0.90739018
-3.542577 2.1357219 -0.91637212
-4.7888451 2.8870623 -0.93223196
-5.1058908 3.0782006 -0.66453147
-5.1063328 3.0784671 -0.33304337
-31.007704 18.693689 0
-30.871964 18.611855 2.0135198
-2.3565228 1.416803 -0.90664226
-2.8315635 1.70241 -0.9115445
-3.545155 2.1314399 -0.91637212
-4.8011298 2.8865647 -0.93394381
-5.1051688 3.069361 -0.66395432
-5.1167321 3.076313 -0.33347893
-31.048111 18.666937 0
-30.856573 18.551779 2.0110526
-2.385788 1.4304762 -0.91723603
-2.8293111 1.6964047 -0.91015881
-3.5433736 2.1245439 -0.91524744
-4.7958078 2.8754811 -0.93223196
-5.1088738 3.06319 -0.66395432
-5.1115313 3.0647833 -0.33289838
-31.121975 18.660183 0
-27.565264 16.527643 1.7952411
-2.3811488 1.4237858 -0.91479039
-2.8464332 1.7019985 -0.91500461
-3.5502956 2.1228664 -0.91637212
-4.7992787 2.8696842 -0.93223196
-5.1036916 3.0517051 -0.66280115
-5.1152306 3.0586047 -0.33289838
-0 0 0
-27.551758 16.474319 1.793064
-2.3692801 1.4147466 -0.90990216
-2.849613 1.7015634 -0.91569608
-3.5559447 2.1233289 -0.91749895
-4.8076258 2.8707337 -0.93351626
-5.1010971 3.0459719 -0.66222513
-5.1081533 3.0501852 -0.3323178
-28.275675 16.883997 0
-27.595173 16.477654 1.7952411
-2.3709879 1.4118828 -0.90990216
-2.8516669 1.6981189 -0.91569608
-3.5541372 2.1164281 -0.91637212
-4.8088789 2.8636055 -0.93308705
-5.104774 3.0398059 -0.66222513
-5.1118355 3.0440106 -0.3323178
-28.298298 16.851154 0
-27.628454 16.452272 1.7961117
-2.3854387 1.4165865 -0.91479039
-2.8494065 1.6921126 -0.91431314
-3.5654309 2.1173217 -0.91862363
-4.8145494 2.8591073 -0.93351626
-5.103991 3.0309916 -0.66164798
-5.1132693 3.0365012 -0.33217224
-28.904881 17.165087 0
-27.69747 16.448069 1.7993051
-2.4020374 1.4225204 -0.92049593
-2.8449712 1.684832 -0.91223598
-3.5614257 2.1091266 -0.91693443
-4.8180003 2.8532877 -0.93351626
-5.1054263 3.0235054 -0.66135997
-5.1102333 3.0263524 -0.33173725
-28.950226 17.144732 0
-27.764275 16.442394 1.8023529
-2.3718297 1.4007628 -0.90827066
-2.8491631 1.6826677 -0.91292745
-3.5727229 2.1099901 -0.919186
-4.8192277 2.8461549 -0.93308705
-5.1001678 3.0120733 -0.66020679
-5.1161218 3.0214953 -0.33188224
-28.939552 17.091213 0
-27.790827 16.412794 1.8027879
-2.3692653 1.3953897 -0.90664226
-2.8339005 1.6690387 -0.90739018
-3.5621376 2.0979373 -0.91580975
-4.831511 2.8455408 -0.93479896
-5.10603 3.0072198 -0.6604948
-5.1130495 3.0113542 -0.33144671
-28.957941 17.054913 0
-27.571081 16.238115 1.7872589
-2.3688204 1.3912754 -0.90582812
-2.8510599 1.6745082 -0.91223598
-3.5734339 2.098779 -0.91806132
-4.8371658 2.8410044 -0.93522811
-5.1074319 2.9997394 -0.66020679
-5.1099691 3.0012298 -0.33101168
-28.931404 16.992233 0
-27.456255 16.125837 1.7785511
-2.383292 1.3959045 -0.9107163
-2.8400965 1.6634569 -0.90808433
-3.580348 2.0970254 -0.919186
-4.8405948 2.8351576 -0.93522811
-5.1021252 2.988337 -0.65905362
-5.1203122 2.9989891 -0.33144671
-22.307341 13.065506 0
-27.477961 16.093962 1.7786961
-2.3977783 1.4005008 -0.91560453
-2.8399317 1.6587551 -0.90739018
-3.5675271 2.0837309 -0.91524744
-4.8373652 2.8254213 -0.93394381
-5.1079636 2.9834733 -0.65934163
-5.1172071 2.9888723 -0.33101168
-22.309624 13.030664 0
-27.497387 16.060747 1.7786961
-2.3909256 1.3926265 -0.91234469
-2.833271 1.6502764 -0.90462416
-3.5832117 2.0870893 -0.91862363
-4.8496485 2.8247423 -0.93565571
-5.1048665 2.9733975 -0.6584776
-5.1185632 2.9813752 -0.33086613
-22.293873 12.985363 0
-27.527998 16.034048 1.7794217
-2.3840661 1.3847758 -0.90908796
-2.8439322 1.6518872 -0.90739018
-3.5945196 2.087863 -0.92087519
-4.8441787 2.8137231 -0.93394381
-5.1129241 2.9698226 -0.65905362
-5.1221619 2.9751883 -0.33086613
-22.318548 12.963644 0
-27.466471 15.953796 1.7741972
-2.3942842 1.3868445 -0.91234469
-2.8350737 1.6421636 -0.90393001
-3.6014328 2.0860629 -0.92199987
-4.8497944 2.8091531 -0.93437135
-5.1120372 2.9610522 -0.6584776
-5.1167593 2.9637876 -0.33028558
-22.343204 12.941885 0
-27.395788 15.868501 1.7683916
-2.3895438 1.3802453 -0.90990216
-2.8435752 1.6425024 -0.90600717
-3.6061573 2.0829844 -0.92256439
-4.8465142 2.7994378 -0.93308705
-5.1066523 2.9496984 -0.65732443
-5.1203365 2.9576027 -0.33028558
-22.626986 13.069772 0
-27.363197 15.805498 1.7650539
-2.3762157 1.3687204 -0.90419662
-2.8390338 1.6353076 -0.90393001
-3.6108713 2.0798924 -0.9231267
-4.8432264 2.7897396 -0.93180442
-5.112452 2.9448156 -0.65761244
-5.1216569 2.9501178 -0.33014059
-22.82091 13.145038 0
-27.380026 15.771128 1.7649088
-2.4014449 1.379391 -0.91316199
-2.8540645 1.6393758 -0.90808433
-3.6111805 2.0742636 -0.92256439
-4.8488178 2.7851629 -0.93223196
-5.1115165 2.9360571 -0.65703529
-5.1229668 2.9426341 -0.32999557
-22.857084 13.129119 0
-27.381037 15.727678 1.7637477
-2.4095378 1.3801702 -0.91560453
-2.8516853 1.6334298 -0.9066987
-3.6070678 2.0661087 -0.92087519
-4.8588643 2.7831309 -0.93351626
-5.1105757 2.92731 -0.65645927
-5.122005 2.9338565 -0.32970503
-22.893253 13.113132 0
-27.440601 15.717827 1.7663599
-2.3833055 1.3613225 -0.90501076
-2.844943 1.6250056 -0.90393001
-3.61397 2.0642669 -0.92199987
-4.8533072 2.7721651 -0.93180442
-5.1096129 2.9185646 -0.65588212
-5.125546 2.9276655 -0.32970503
-22.877449 13.067391 0
-30.877714 17.63707 1.9862347
-2.3871026 1.3596686 -0.90582812
-2.8534465 1.6252931 -0.90600717
-3.6142559 2.0586421 -0.9214375
-4.8611102 2.7688372 -0.93265951
-5.1108904 2.9111094 -0.65559411
-5.1223125 2.9176157 -0.32927001
-22.866085 13.024282 0
-27.537207 15.684903 1.7701333
-2.3994873 1.3628855 -0.90990216
-2.8488617 1.6181258 -0.90393001
-3.605696 2.0480003 -0.91862363
-4.8622222 2.7616949 -0.93223196
-5.1099105 2.9023795 -0.65501809
-5.1258345 2.9114242 -0.32927001
-22.888596 13.000501 0
-27.646515 15.702951 1.7759389
-2.4132054 1.3687495 -0.91479039
-2.8498387 1.6164043 -0.90393001
-3.6069326 2.0458214 -0.91862363
-4.861659 2.7574916 -0.93180442
-5.1139107 2.9005666 -0.6553061
-5.1230679 2.9057603 -0.32897946
-22.88286 12.978964 0
-27.680853 15.700344 1.777535
-2.4084015 1.3621811 -0.91234469
-2.8583429 1.6166661 -0.90600717
-3.6094019 2.0414617 -0.91862363
-4.8605142 2.7490852 -0.93094766
-5.1106558 2.8905642 -0.65444094
-5.1197963 2.8957341 -0.32854447
-22.887201 12.9449 0
-27.742779 15.691193 1.7802927
-2.4165061 1.3629137 -0.91479039
-2.8493705 1.6070502 -0.90254706
-3.611866 2.0370989 -0.91862363
-4.866075 2.7444751 -0.93137681
-5.1186547 2.8869305 -0.65501809
-5.1232915 2.8895457 -0.32854447
-10.293162 5.8053622 0
-27.723244 15.63596 1.7778256
-2.3966124 1.3478794 -0.90664226
-2.8622415 1.6097538 -0.90600717
-3.6098998 2.0302446 -0.91749895
-4.873858 2.7411077 -0.93223196
-5.1131215 2.8756719 -0.65386492
-5.1177197 2.878258 -0.32796392
-10.28883 5.7865429 0
-27.733057 15.597356 1.777245
-2.3874629 1.3389388 -0.90256822
-2.8707509 1.6099769 -0.90808433
-3.6189923 2.0296063 -0.919186
-4.8861227 2.7402394 -0.93394381
-5.1143389 2.8682277 -0.65357691
-5.1279864 2.8758814 -0.32839891
-10.316241 5.7855625 0
-27.688425 15.528245 1.7731811
-2.4084916 1.3469093 -0.90990216
-2.8748817 1.6077304 -0.90877581
-3.6125715 2.0202711 -0.91693443
-4.8961539 2.7380934 -0.93522811
-5.1155367 2.8607798 -0.65328777
-5.1246605 2.8658822 -0.32796392
-10.325494 5.7743621 0
-27.66181 15.469412 1.7702783
-2.4252217 1.352421 -0.91560453
-2.8833978 1.6079222 -0.91085297
-3.6127927 2.0146682 -0.91637212
-4.9016986 2.7334244 -0.93565571
-5.1167331 2.853338 -0.65299976
-5.1303868 2.8609521 -0.32810891
-0 0 0
-27.682758 15.437246 1.7704239
-2.4009411 1.3350803 -0.90582812
-2.8831396 1.6032143 -0.91015881
-3.6218886 2.0140071 -0.91806132
-4.9005065 2.7250023 -0.93479896
-5.1133933 2.8433812 -0.6521346
-5.1292939 2.8522229 -0.32781833
-0 0 0
-10.356677 5.7589903 0.66190571
-2.3939064 1.3273841 -0.90256822
-2.8741064 1.5936477 -0.9066987
-3.6243196 2.0096292 -0.91806132
-4.8970671 2.715348 -0.93351626
-5.1168251 2.8372006 -0.6521346
-5.1236463 2.8409829 -0.32723778
-0 0 0
-10.354538 5.7414317 0.66132516
-2.3890173 1.3209016 -0.90012258
-2.8804252 1.5926039 -0.90808433
-3.6222935 2.0027871 -0.91693443
-4.9003444 2.7094288 -0.93351626
-5.1157269 2.8285153 -0.65155858
-5.1179795 2.8297606 -0.32665724
-0 0 0
-10.359197 5.7276602 0.66118014
-2.3992693 1.3227873 -0.90338242
-2.8823476 1.5891223 -0.90808433
-3.6402888 2.0069976 -0.92087519
-4.90136 2.7022629 -0.93308705
-5.1146064 2.8198318 -0.65098143
-5.1213951 2.8235745 -0.32665724
-10.307778 5.6829791 0
-0 0 0
-2.4073658 1.3234605 -0.90582812
-2.886462 1.5868459 -0.90877581
-3.6427114 2.0025976 -0.92087519
-4.9023743 2.6951029 -0.93265951
-5.1157455 2.8124049 -0.65069342
-5.1248031 2.8173842 -0.32665724
-10.303237 5.6642528 0
-0 0 0
-2.4327974 1.3336163 -0.91479039
-2.8861794 1.5821521 -0.90808433
-3.6495802 2.0006349 -0.92199987
-4.9123821 2.6928806 -0.93394381
-5.1191401 2.8062215 -0.65069342
-5.1282034 2.8111899 -0.32665724
-10.280409 5.6355371 0
-0 0 0
-2.4040487 1.3140814 -0.90338242
-2.8968945 1.5834768 -0.91085297
-3.6542311 1.9974459 -0.92256439
-4.9178829 2.6881731 -0.93437135
-5.1225271 2.800034 -0.65069342
-5.1224852 2.8000109 -0.32607722
-10.271223 5.6143723 0
-10.293278 5.6264277 0.65522957
-2.3969538 1.3064443 -0.90012258
-2.8855846 1.5727693 -0.9066987
-3.656642 1.993029 -0.92256439
-4.9143634 2.6785419 -0.93308705
-5.1190915 2.7901278 -0.64982826
-5.1235762 2.7925723 -0.32593167
-10.24372 5.5832739 0
-10.252158 5.587873 0.6521818
-2.4007003 1.3047261 -0.90093672
-2.8918955 1.5716797 -0.90808433
-3.6590474 1.9886093 -0.92256439
-4.919858 2.6738312 -0.93351626
-5.1201887 2.7827063 -0.64954025
-5.1269469 2.7863793 -0.32593167
-10.179581 5.532371 0
-10.229225 5.5593519 0.65029514
-2.4196594 1.3112452 -0.90745646
-2.8915806 1.5669855 -0.90739018
-3.6592071 1.9829725 -0.92199987
-4.9298496 2.6715505 -0.93479896
-5.1212754 2.7752864 -0.64925224
-5.1280274 2.7789454 -0.32578668
-10.135923 5.4927902 0
-10.201674 5.5284209 0.64811844
-2.425595 1.3106728 -0.90908796
-2.8956852 1.5646865 -0.90808433
-3.6705422 1.9833813 -0.92425138
-4.9263053 2.6619341 -0.93351626
-5.1177964 2.7654064 -0.64838707
-5.1336656 2.7739813 -0.32593167
-10.101345 5.458272 0
-10.171769 5.496326 0.64579618
-2.4249949 1.3065653 -0.90827066
-2.8931522 1.5588043 -0.9066987
-3.6684666 1.9765365 -0.9231267
-4.9340339 2.6584127 -0.93437135
-5.1256924 2.7616765 -0.64896423
-5.1347284 2.7665451 -0.32578668
-10.07815 5.430016 0
-7.27108 3.917592 0.46133327
-2.4026279 1.2907706 -0.89930838
-2.8950338 1.5553073 -0.9066987
-3.6574178 1.9648851 -0.91974831
-4.9304562 2.648803 -0.93308705
-5.126749 2.7542582 -0.64867622
-5.1266241 2.7541912 -0.32506111
-10.098455 5.4252219 0
-7.2506356 3.8952799 0.45973715
-2.3925192 1.283478 -0.89523435
-2.895973 1.553558 -0.9066987
-3.6608498 1.9638797 -0.92031282
-4.936584 2.6482532 -0.93394381
-5.1238494 2.7487125 -0.64809906
-5.1259999 2.7498662 -0.32491612
-7.2283225 3.8776667 0
-7.2735934 3.9019527 0.46104327
-2.4420111 1.3062308 -0.91316199
-2.900058 1.5512398 -0.90739018
-3.6564965 1.9558583 -0.91862363
-4.9510961 2.6483393 -0.93608326
-5.1248884 2.7413006 -0.64781106
-5.1293187 2.7436705 -0.32491612
-7.2444744 3.8750663 0
-7.2530971 3.8796785 0.45944661
-2.4348645 1.2986267 -0.90990216
-2.9107847 1.552457 -0.91015881
-3.6610968 1.9526334 -0.919186
-4.947495 2.6387296 -0.93479896
-5.1213484 2.7314534 -0.64694589
-5.1280403 2.7350225 -0.32462555
-7.2399659 3.8614111 0
-10.203794 5.4421587 0.6459412
-2.4058766 1.2794344 -0.89849108
-2.8949466 1.5395197 -0.90462416
-3.6634536 1.9482082 -0.919186
-4.9529529 2.6339583 -0.93522811
-5.1246448 2.7252634 -0.64694589
-5.1221642 2.7239442 -0.324045
-7.23314 3.8465514 0
-10.231009 5.440805 0.64724731
-2.4401772 1.2938955 -0.9107163
-2.8945818 1.5348419 -0.90393001
-3.6635623 1.9425911 -0.91862363
-4.9538574 2.6267657 -0.93479896
-5.1233683 2.7166481 -0.64636987
-5.1277456 2.7189691 -0.32418999
-7.2216854 3.8292735 0
-10.251354 5.4357448 0.64811844
-2.4395559 1.2897919 -0.90990216
-2.9053059 1.5360336 -0.9066987
-3.6569216 1.9334126 -0.91637212
-4.9524932 2.6183805 -0.93394381
-5.1243539 2.7092433 -0.64608073
-5.1310272 2.7127714 -0.32418999
-10.044564 5.3105559 0
-0 0 0
-2.4345512 1.2833844 -0.90745646
-2.9116025 1.5348641 -0.90808433
-3.668246 1.933732 -0.91862363
-4.9647369 2.617183 -0.93565571
-5.1230521 2.7006395 -0.64550471
-5.1251154 2.7017272 -0.32361001
-10.087809 5.3178329 0
-0 0 0
-2.4273491 1.2758421 -0.90419662
-2.9023535 1.5255098 -0.90462416
-3.6705799 1.9292983 -0.91862363
-4.9633465 2.6087911 -0.93479896
-5.1285987 2.6956496 -0.64579272
-5.1306744 2.6967404 -0.323755
-10.089615 5.303216 0
-0 0 0
-2.4595332 1.288968 -0.91560453
-2.9086347 1.5243287 -0.90600717
-3.6661544 1.9213221 -0.91693443
-4.9755902 2.6075583 -0.9365108
-5.127275 2.6870518 -0.6452167
-5.1293216 2.6881244 -0.32346445
-0 0 0
-10.275198 5.3849249 0.64797288
-2.441376 1.2756945 -0.90827066
-2.9149172 1.5231345 -0.90739018
-3.6797311 1.9227735 -0.91974831
-4.9673634 2.5956013 -0.93437135
-5.1328082 2.6820512 -0.64550471
-5.132566 2.6819246 -0.32346445
-10.07934 5.2667675 0
