# .PCD v0.7 - Point Cloud Data file format
VERSION 0.7
FIELDS x y z
SIZE 4 4 4
TYPE F F F
COUNT 1 1 1
WIDTH 1573
HEIGHT 1
VIEWPOINT 0 0 0 1 0 0 0
POINTS 1573
DATA ascii
-1.8378268 1.4723769 -0.39259359
-1.8674389 1.4961007 -0.26670787
-7.0704718 5.664516 -0.50604069
-9.0236406 7.2292995 0
-8.7919855 7.0437088 0.62925112
-1.7695613 1.4141787 -0.74691534
-1.8480452 1.4769007 -0.65268797
-1.808311 1.4451463 -0.51280373
-1.8295797 1.4621437 -0.39045414
-1.849044 1.4776989 -0.26382551
-7.0671635 5.6478591 -0.50531512
-9.0425329 7.2265129 0
-8.7923708 7.0265913 0.62867057
-1.7268234 1.3766083 -0.72817349
-1.8459088 1.471542 -0.65130496
-1.8199956 1.4508842 -0.51561975
-1.8373612 1.4647279 -0.39173684
-1.8568897 1.4802958 -0.26468953
-7.0699153 5.6360731 -0.50502455
-9.0471916 7.2123404 0
-10.848829 8.6485891 0.77496338
-1.778779 1.4145149 -0.74936104
-1.8123447 1.4412068 -0.63884735
-1.7998694 1.4312862 -0.50942749
-1.8130116 1.4417373 -0.38617367
-1.858677 1.4780511 -0.26468953
-7.0563865 5.6113563 -0.50357348
-9.062005 7.2062578 0
-10.920281 8.6839905 0.77931726
-1.7998543 1.4277276 -0.75751221
-1.8121136 1.4374523 -0.6381532
-1.8015975 1.4291104 -0.50942749
-1.8308417 1.4523082 -0.38959742
-1.8624938 1.4774162 -0.26497868
-7.0692706 5.6076722 -0.50400901
-9.0707054 7.195303 0
-10.922623 8.6643295 0.77873671
-1.7705666 1.401013 -0.7444728
-1.8472999 1.4617306 -0.64992195
-1.8073043 1.4300828 -0.51055217
-1.850711 1.4644296 -0.39344871
-1.8460249 1.4607216 -0.26238433
-7.0556602 5.5829992 -0.50255734
-9.0753155 7.1811109 0
-10.931048 8.6495142 0.77859169
-1.8091139 1.4279635 -0.75995481
-1.8490648 1.4594975 -0.64992195
-1.8150163 1.4326223 -0.51224136
-1.8242729 1.4399288 -0.38745797
-1.8579377 1.4665009 -0.26382551
-7.0501671 5.5648136 -0.50168681
-9.0860262 7.1717505 0
-10.937416 8.6330833 0.77830172
-1.7661794 1.3906143 -0.7412129
-1.8094355 1.4246721 -0.63538724
-1.8047717 1.4210001 -0.50886512
-1.8260114 1.4377234 -0.38745797
-1.8454812 1.453053 -0.26180717
-7.0507593 5.5514669 -0.50125122
-9.135581 7.192966 0
-10.933547 8.6086073 0.77728558
-1.7270412 1.3564212 -0.72409946
-1.8091769 1.4209307 -0.63469309
-1.8064873 1.4188184 -0.50886512
-1.819672 1.4291736 -0.38574612
-1.8533398 1.4556164 -0.26267233
-7.0595036 5.5445466 -0.50139624
-0 0 0
-10.937808 8.5905743 0.77685004
-1.8240044 1.4290161 -0.76402885
-1.8069465 1.4156523 -0.63331008
-1.7982014 1.408801 -0.50605124
-1.8395823 1.4412208 -0.38959742
-1.8469532 1.4469954 -0.26151916
-7.0518856 5.5247998 -0.50038069
-0 0 0
-10.931816 8.5645313 0.77568895
-1.7225243 1.346156 -0.72083956
-1.8185375 1.4211905 -0.63677019
-1.8119109 1.4160117 -0.50942749
-1.8251411 1.4263512 -0.38617367
-1.8609241 1.4543157 -0.26324835
-7.0503669 5.5098748 -0.49980012
-0 0 0
-10.948301 8.556118 0.77612448
-1.8040684 1.4063749 -0.75425237
-1.8261911 1.4236208 -0.63884735
-1.7975891 1.4013239 -0.50492442
-1.8147197 1.4146782 -0.38360667
-1.8606421 1.4504774 -0.26296034
-7.0529165 5.4981532 -0.49950957
-0 0 0
-10.964782 8.547677 0.77656007
-1.7433306 1.3556429 -0.72817349
-1.8219666 1.4167916 -0.63677019
-1.8273586 1.4209845 -0.51280373
-1.8245336 1.4187877 -0.38531855
-1.8685207 1.4529928 -0.26382551
-7.0513496 5.4832468 -0.49892899
-0 0 0
-10.952536 8.5168743 0.77496338
-1.7859775 1.3853462 -0.745287
-1.8216969 1.4130529 -0.63607872
-1.8009702 1.3969758 -0.50492442
-1.8201596 1.4118605 -0.38403425
-1.8661836 1.4475604 -0.26324835
-7.0456553 5.4651704 -0.49805844
-11.056639 8.5764084 0
-10.983355 8.5195627 0.77641505
-1.7778782 1.3756261 -0.7412129
-1.8551496 1.4354147 -0.64715332
-1.8026569 1.3947985 -0.50492442
-1.8279569 1.4143744 -0.38531855
-1.8720266 1.4484731 -0.26382551
-7.0378656 5.4455204 -0.49704233
-11.044351 8.5455217 0
-10.975147 8.4919758 0.77510893
-1.7306256 1.3357248 -0.72083956
-1.7992899 1.3887209 -0.62708127
-1.796295 1.3864095 -0.50267285
-1.8357553 1.4168655 -0.38660121
-1.8655852 1.4398887 -0.26267233
-7.0444403 5.4370127 -0.49704233
-11.932281 9.209527 0
-10.991565 8.4834671 0.77554393
-1.7635733 1.3577571 -0.73387903
-1.8029525 1.3880748 -0.62777275
-1.8060223 1.3904382 -0.50492442
-1.815097 1.3974247 -0.38189483
-1.873474 1.4423685 -0.2635375
-7.0407124 5.4205728 -0.49631676
-11.9434 9.1951027 0
-10.981222 8.4543314 0.77409279
-1.7514889 1.3450859 -0.72817349
-1.8145752 1.3935341 -0.63123292
-1.8117354 1.3913531 -0.50605124
-1.8106743 1.3905383 -0.3806105
-1.8711088 1.43695 -0.26296034
-7.0328288 5.4009809 -0.49530065
-11.954502 9.1806641 0
-10.970825 8.4252329 0.77264172
-1.7903941 1.3715278 -0.7436586
-1.8222343 1.3959188 -0.63331008
-1.8113923 1.3876134 -0.50548679
-1.8306919 1.4023978 -0.38446179
-1.8625793 1.426825 -0.26151916
-7.0331674 5.3877435 -0.49486566
-11.98005 9.1772928 0
-10.99956 8.4261904 0.77394783
-1.7409853 1.3303431 -0.72246796
-1.8677708 1.4272242 -0.64853632
-1.8009579 1.3761702 -0.50211054
-1.7997494 1.3752466 -0.37761432
-1.864302 1.4245734 -0.26151916
-7.0314136 5.3729305 -0.49428511
-11.995262 9.1659679 0
-10.997341 8.4034243 0.77307671
-1.7457221 1.3322929 -0.72409946
-1.7968445 1.3713083 -0.62362111
-1.7815942 1.3596697 -0.49648276
-1.8046651 1.3772769 -0.37847108
-1.8548838 1.4156026 -0.26007798
-7.0305233 5.3655257 -0.49399453
-12.015282 9.1697731 0
-11.006552 8.3999348 0.77336723
-1.715865 1.306229 -0.71105999
-1.842412 1.4025649 -0.63884735
-1.8034492 1.3729037 -0.50211054
-1.8083686 1.3766488 -0.37889862
-1.8360089 1.3976903 -0.25719449
-7.0266657 5.3491588 -0.493269
-12.028421 9.1568232 0
-11.008423 8.3803339 0.77278668
-1.7587768 1.3355426 -0.72817349
-1.8081375 1.3730251 -0.62638712
-1.8132011 1.3768702 -0.50436205
-1.8263862 1.3868823 -0.38232237
-1.8480018 1.4032964 -0.2586368
-7.0227785 5.3328085 -0.49254343
-12.035336 9.1391382 0
-10.989565 8.3450232 0.77075446
-0 0 -0
-1.8198001 1.3784176 -0.62984991
-1.7865111 1.3532026 -0.49648276
-1.8198754 1.3784746 -0.3806105
-1.8641226 1.4119899 -0.260654
-7.0167851 5.3149023 -0.49167231
-12.052588 9.1292982 0
-11.014142 8.3427219 0.7717706
-1.7915812 1.3536392 -0.74039876
-1.829471 1.3822672 -0.63261855
-1.8205739 1.3755449 -0.50548679
-1.8113008 1.3685385 -0.37847108
-1.8761437 1.417531 -0.26209518
-7.0190597 5.3032904 -0.4913823
-11.029597 8.3334751 0
-11.030436 8.3341084 0.77220613
-0 0 -0
-1.8471601 1.3921294 -0.6381532
-1.801947 1.3580542 -0.49985901
-1.808849 1.3632559 -0.37761432
-1.836552 1.3841345 -0.25633046
-7.0233893 5.2932429 -0.49123731
-11.043812 8.3232718 0
-11.036344 8.3176432 0.77191556
-1.7533612 1.3181181 -0.72328526
-1.8548588 1.3944205 -0.64023036
-1.8015577 1.3543504 -0.49929664
-1.8022951 1.3549049 -0.37590408
-1.8588935 1.3974537 -0.25921282
-7.0173144 5.2753811 -0.49036619
-11.053861 8.3099213 0
-11.044311 8.302742 0.7717706
-1.7074951 1.2804111 -0.70372611
-1.8525319 1.3891709 -0.63884735
-1.8072546 1.3552185 -0.50042135
-1.8183014 1.3635023 -0.37889862
-1.8647153 1.3983071 -0.25978884
-7.0216064 5.2653408 -0.4902212
-11.057645 8.291873 0
-11.058496 8.2925119 0.77206111
-0 0 -0
-1.8642519 1.3944434 -0.64230752
-1.7946539 1.3423847 -0.49648276
-1.8261166 1.3659185 -0.38018295
-1.8539804 1.3867605 -0.25805965
-7.0154829 5.2475171 -0.48935065
-11.209361 8.3844995 0
-11.068509 8.2791433 0.77206111
-1.7739681 1.3235722 -0.72980183
-1.8498493 1.3801879 -0.63677019
-1.8084898 1.3493291 -0.49985901
-1.8277657 1.363711 -0.38018295
-1.8369993 1.3706003 -0.2554653
-7.0155687 5.2343736 -0.48891509
-11.273721 8.4114161 0
-11.078505 8.2657633 0.77206111
-0 0 -0
-1.8112642 1.3479953 -0.62292695
-1.806046 1.3441118 -0.4987343
-1.8108799 1.3477094 -0.37633166
-1.8324273 1.3637456 -0.25460014
-7.009377 5.2165818 -0.48804396
-11.283876 8.397788 0
-11.086393 8.2508154 0.77191556
-1.7216017 1.2780365 -0.70698595
-1.8068542 1.341324 -0.62085247
-1.8035846 1.3388966 -0.49760744
-1.8145663 1.347049 -0.3767592
-1.8236918 1.3538233 -0.25315896
-7.0115061 5.2050138 -0.48775396
-11.283561 8.3763866 0
-11.094271 8.2358665 0.7717706
-1.7291056 1.2803693 -0.70943165
-1.800409 1.3331679 -0.61808383
-1.8011209 1.3336952 -0.49648276
-1.8038183 1.3356925 -0.37419224
-1.8066205 1.3377675 -0.2505646
-7.0052648 5.187263 -0.4868834
-11.295772 8.3642998 0
-11.102127 8.2209101 0.77162558
-0 0 -0
-1.8060505 1.3339697 -0.61946684
-1.8170321 1.3420807 -0.50042135
-1.8157533 1.3411362 -0.37633166
-1.8144791 1.3401951 -0.25142977
-7.0031672 5.1726193 -0.48630285
-11.307961 8.35219 0
-11.107868 8.2043991 0.77133501
-1.6943853 1.248331 -0.69394648
-1.8197837 1.3407177 -0.62362111
-1.7981998 1.3248158 -0.49479356
-1.8153079 1.3374201 -0.37590408
-1.7890285 1.318059 -0.24768223
-7.0073142 5.1626081 -0.4861573
-11.311757 8.3338871 0
-11.124052 8.1955967 0.7717706
-0 0 -0
-1.8234221 1.3400021 -0.62431264
-1.7916093 1.3166234 -0.49254203
-1.8065736 1.3276205 -0.37376302
-1.8052033 1.3266134 -0.24969944
-7.0030794 5.1464448 -0.48543173
-11.317628 8.3171339 0
-11.129763 8.1790743 0.77148056
-1.7427891 1.2742717 -0.71187419
-1.8671507 1.3652009 -0.6381532
-1.8070885 1.3212854 -0.49591824
-1.8097768 1.3232509 -0.37376302
-1.7937946 1.3115652 -0.24768223
-6.9924288 5.1126404 -0.48383561
-11.350295 8.2989731 0
-11.145297 8.1490841 0.77119005
-0 0 -0
-1.8201596 1.3274704 -0.621544
-1.8045818 1.3161093 -0.49479356
-1.8341911 1.3377037 -0.37847108
-1.8267182 1.3322537 -0.25200579
-6.9902039 5.098063 -0.48325506
-11.364524 8.2883224 0
-11.157232 8.1371412 0.77133501
-0 0 -0
-1.8177009 1.3223156 -0.62015831
-1.8082235 1.3154211 -0.4953559
-1.8150511 1.320388 -0.37419224
-1.8199604 1.3239592 -0.25085261
-6.9879537 5.0834985 -0.48267451
-11.340858 8.2500887 0
-11.162858 8.1205997 0.77104503
-0 0 -0
-1.7969674 1.3039153 -0.61254656
-1.8118662 1.3147261 -0.49591824
-1.81041 1.3136696 -0.37290791
-1.8048114 1.309607 -0.24854627
-6.9919896 5.0735269 -0.48252949
-17.105179 12.411857 0
-11.181074 8.1132097 0.77162558
-1.790972 1.2962643 -0.72898769
-1.8127619 1.3120353 -0.61738968
-1.8031638 1.3050884 -0.49310437
-1.8161511 1.3144884 -0.37376302
-1.7959181 1.2998443 -0.24710509
-6.9917984 5.0605025 -0.48209393
-17.092758 12.371345 0
-11.186655 8.0966434 0.77133501
-0 0 -0
-1.8176244 1.3138821 -0.61877531
-1.7977722 1.2995318 -0.49141517
-1.8127881 1.3103861 -0.37290791
-1.7987972 1.3002727 -0.24739312
-6.9843268 5.0486679 -0.48136839
-17.121317 12.376259 0
-11.187337 8.0868425 0.77104503
-0 0 -0
-1.8049641 1.3014127 -0.61392951
-1.8055263 1.3018181 -0.49310437
-1.8122898 1.3066949 -0.37248036
-1.8087591 1.3041492 -0.24854627
-6.9883084 5.0387006 -0.48122284
-17.125706 12.347953 0
-11.192881 8.0702763 0.77075446
-0 0 -0
-1.8187596 1.3080224 -0.61808383
-1.805037 1.2981534 -0.49254203
-1.8117774 1.3030009 -0.37205115
-1.8271322 1.314044 -0.25085261
-6.9796309 5.0196376 -0.48020726
-17.132162 12.321173 0
-11.198409 8.0537148 0.77046448
-0 0 -0
-1.8264483 1.3102067 -0.62015831
-1.7942206 1.2870879 -0.48916581
-1.8342133 1.3157768 -0.37633166
-1.8140051 1.3012804 -0.2488343
-6.9645729 4.9960513 -0.47875559
-17.142811 12.297432 0
-11.193351 8.0295744 0.76944834
-0 0 -0
-1.8239535 1.3050818 -0.61877531
-1.8061044 1.2923105 -0.49197969
-1.8003131 1.2881665 -0.36905661
-1.8176856 1.3005971 -0.24912342
-6.9769464 4.9921699 -0.47919115
-7.1111441 5.0881915 0
-11.169242 7.9918561 0.76712668
-1.7472442 1.2470052 -0.70780015
-1.8357373 1.3101625 -0.62223548
-1.8014581 1.2856976 -0.49029049
-1.7997807 1.2845005 -0.36862907
-1.8360982 1.3104202 -0.25142977
-0 0 -0
-7.1532965 5.1052952 0
-7.1372714 5.0938582 0.4897795
-0 0 -0
-1.7821425 1.2686646 -0.60354912
-1.7926625 1.2761534 -0.48747662
-1.8159646 1.2927417 -0.37162361
-1.8461087 1.3142005 -0.25258294
-1.9659547 1.3995161 -0.13479316
-7.1615782 5.098156 0
-7.1561179 5.0942693 0.49065006
-0 0 -0
-1.8368546 1.3042715 -0.621544
-1.8004204 1.278401 -0.48916581
-1.8196163 1.2920313 -0.37205115
-1.8139526 1.2880098 -0.24797025
-1.9528115 1.3866075 -0.13377705
-0 0 0
-7.1432023 5.0720806 0.48934394
-1.7537681 1.2420906 -0.70861429
-1.7995284 1.2744999 -0.60839224
-1.8123294 1.283566 -0.49197969
-1.8190833 1.2883495 -0.37162361
-1.8387195 1.3022566 -0.25114062
-1.8802745 1.3316876 -0.12869759
-0 0 0
-7.1493254 5.063446 0.48934394
-0 0 -0
-1.8092633 1.2781146 -0.61116087
-1.813879 1.2813753 -0.49197969
-1.805968 1.2757868 -0.36862907
-1.8212808 1.2866042 -0.24854627
-1.9412986 1.3713881 -0.13276093
-0 0 0
-11.251269 7.9482136 0.76944834
-1.7709095 1.2478156 -0.71431988
-1.782099 1.2556999 -0.60147196
-1.8008845 1.2689364 -0.48803896
-1.815894 1.2795124 -0.37033927
-1.8334038 1.2918501 -0.24998747
-1.917473 1.3510869 -0.13101982
-7.1265669 5.0215106 0
-11.269361 7.9405999 0.77002889
-0 0 -0
-1.7877162 1.2564279 -0.60285497
-1.8169702 1.2769881 -0.49197969
-1.8153405 1.2758427 -0.36991173
-1.8370856 1.2911254 -0.2502766
-1.9254757 1.353247 -0.13145481
-7.1752138 5.0428247 0
-11.295955 7.93893 0.77119005
-1.7314208 1.2137401 -0.69720638
-1.7995104 1.2614714 -0.60631776
-1.7935448 1.2572895 -0.48522508
-1.8252889 1.2795424 -0.37162361
-1.8301727 1.282966 -0.24912342
-1.9292433 1.3524153 -0.13160038
-17.356503 12.167049 0
-11.303413 7.9237852 0.77104503
-0 0 -0
-1.8174736 1.2707914 -0.61185241
-1.8075528 1.2638546 -0.4886013
-1.8163166 1.2699823 -0.36948419
-1.8253604 1.2763058 -0.24825826
-1.9223579 1.3441273 -0.13101982
-17.394646 12.162469 0
-0 0 0
-1.7079961 1.1911737 -0.68661261
-1.7490478 1.2198036 -0.5883202
-1.8090786 1.2616696 -0.4886013
-1.8115311 1.2633801 -0.36819986
-1.8353872 1.2800176 -0.24941143
-1.9154553 1.3358579 -0.13043925
-17.39012 12.128045 0
-11.314004 7.8905005 0.77046448
-0 0 -0
-1.7958332 1.2492096 -0.60354912
-1.8293726 1.2725401 -0.49366671
-1.8151697 1.2626604 -0.36862907
-1.8348113 1.2763233 -0.24912342
-1.9106667 1.3290895 -0.13000371
-17.411173 12.111484 0
-11.327792 7.8797889 0.77075446
-0 0 -0
-1.8179497 1.2613373 -0.6104694
-1.8121222 1.2572942 -0.4886013
-1.8209082 1.2633901 -0.36948419
-1.8257288 1.2667347 -0.24768223
-1.9250766 1.3356646 -0.13087426
-17.38731 12.063735 0
-11.345844 7.8720207 0.77133501
-0 0 -0
-1.7905951 1.2391557 -0.60078049
-1.8261803 1.2637819 -0.49197969
-1.8139899 1.2553457 -0.36777231
-1.8336325 1.268939 -0.24854627
-1.9181423 1.3274229 -0.1302937
-17.408287 12.047155 0
-11.344666 7.850914 0.77060944
-0 0 -0
-1.7776363 1.2270137 -0.59593469
-1.8067908 1.2471377 -0.48634976
-1.7922641 1.2371106 -0.36306426
-1.8202701 1.2564417 -0.24652906
-1.9368527 1.3369129 -0.13145481
-17.435686 12.034986 0
-11.352008 7.8357258 0.77046448
-0 0 -0
-1.791512 1.2333981 -0.60008633
-1.7873719 1.2305478 -0.48072198
-1.8022153 1.240767 -0.36477613
-1.8132653 1.2483745 -0.24537589
-1.9085071 1.3139454 -0.12942314
-17.445925 12.010955 0
-11.374306 7.8308415 0.77133501
-0 0 -0
-1.8054137 1.2397561 -0.6042406
-1.8160852 1.2470841 -0.48803896
-1.8037132 1.2385885 -0.36477613
-1.8190327 1.2491081 -0.24595192
-1.9036652 1.3072242 -0.12898758
-11.35928 7.8002825 0
-11.377339 7.8126836 0.77090001
-1.7743719 1.2168633 -0.70943165
-1.7668499 1.2117047 -0.59108889
-1.806363 1.2388028 -0.48522508
-1.8171676 1.2462125 -0.36734474
-1.7963295 1.2319218 -0.24278153
-1.9044546 1.3060739 -0.12898758
-11.359694 7.7904716 0
-11.379909 7.8043346 0.77075446
-0 0 -0
-1.8283606 1.2506431 -0.61116087
-1.8036602 1.2337474 -0.48409823
-1.8123136 1.2396666 -0.36606044
-1.8341067 1.2545736 -0.24768223
-1.901746 1.3008405 -0.12869759
-11.369099 7.7767401 0
-11.38933 7.7905784 0.77075446
-0 0 -0
-1.7925713 1.2229856 -0.59870332
-1.7820673 1.2158192 -0.4779081
-1.7968458 1.2259018 -0.36263669
-1.8270749 1.2465258 -0.24652906
-1.909758 1.3029364 -0.12913314
-11.86217 8.0929909 0
-11.403032 7.7797427 0.77104503
-1.7624242 1.1992995 -0.70291191
-1.8127127 1.2335199 -0.60493213
-1.7919377 1.2193829 -0.48015964
-1.8089352 1.2309494 -0.36477613
-1.811473 1.2326763 -0.24422273
-1.9285085 1.312317 -0.1302937
-11.89561 8.094759 0
-11.412424 7.7659588 0.77104503
-0 0 -0
-1.8038248 1.2242856 -0.60147196
-1.8165301 1.2329088 -0.48634976
-1.8082992 1.2273225 -0.36434856
-1.8108149 1.2290299 -0.2439336
-1.897849 1.2881013 -0.12811702
-11.571626 7.8538532 0
-11.4218 7.7521634 0.77104503
-0 0 -0
-1.8198473 1.2319511 -0.60631776
-1.809602 1.2250155 -0.48409823
-1.8097808 1.2251366 -0.36434856
-1.8058791 1.2224953 -0.24306956
-1.9058613 1.2901785 -0.12855259
-11.4281 7.7362866 0
-11.437615 7.7427282 0.77148056
-0 0 -0
-1.8171722 1.2269409 -0.60493213
-1.7963461 1.2128793 -0.48015964
-1.8218955 1.23013 -0.36648798
-1.8030636 1.2174149 -0.24249242
-1.916033 1.2936909 -0.12913314
-11.420193 7.7108274 0
-11.442652 7.7259912 0.77119005
-0 0 -0
-1.8373795 1.237355 -0.61116087
-1.7978103 1.2107079 -0.48015964
-1.7914478 1.206423 -0.36006972
-1.8345724 1.2354647 -0.24652906
-1.9046589 1.2826633 -0.12826203
-11.410067 7.6839352 0
-11.551117 7.778923 0.77786618
-1.7552735 1.1789818 -0.69720638
-1.7972294 1.2071627 -0.59732032
-1.8034863 1.2113655 -0.48128432
-1.812081 1.2171383 -0.36392102
-1.8188871 1.2217097 -0.24422273
-1.9018974 1.2774662 -0.12797202
-11.404226 7.6599889 0
-13.786454 9.2600832 0.92764229
-0 0 -0
-1.7757576 1.1896294 -0.58970588
-1.8155016 1.2162551 -0.48409823
-1.8050195 1.2092328 -0.36220914
-1.8246555 1.2223876 -0.24479875
-1.9034396 1.2751671 -0.12797202
-13.748472 9.2104845 0
-13.765258 9.2217293 0.92546564
-1.7581174 1.1747365 -0.69720638
-1.7917975 1.1972408 -0.59455168
-1.8064085 1.2070036 -0.48128432
-1.7872714 1.1942166 -0.35835785
-1.8067781 1.2072505 -0.2422044
-1.9157796 1.2800829 -0.12869759
-13.781235 9.2083263 0
-13.78935 9.2137489 0.92633617
-0 0 -0
-1.8224659 1.2145501 -0.6042406
-1.7994081 1.1991836 -0.47903278
-1.8079364 1.2048672 -0.36220914
-1.8168447 1.210804 -0.24335757
-1.9129962 1.2748824 -0.12840703
-13.798841 9.1959934 0
-13.804792 9.1999598 0.92662615
-0 0 -0
-1.8009475 1.1970695 -0.59662616
-1.8135563 1.2054504 -0.48241118
-1.8008395 1.1969978 -0.36049727
-1.8075383 1.2014503 -0.24191639
-1.8993934 1.2625054 -0.12739147
-13.796943 9.1706724 0
-0 0 0
-1.7767864 1.177917 -0.70291191
-1.7647586 1.1699431 -0.58416855
-1.8001851 1.193429 -0.47847044
-1.8108429 1.2004946 -0.36220914
-1.7982118 1.1921209 -0.24047519
-1.9182435 1.2716956 -0.12855259
-0 0 0
-0 0 0
-0 0 -0
-1.7954644 1.187179 -0.59385753
-1.8079863 1.1954587 -0.48015964
-1.8122921 1.1983057 -0.36220914
-1.8018063 1.1913724 -0.24076322
-1.8980997 1.2550426 -0.12710091
-0 0 0
-13.831554 9.1455622 0.92619115
-0 0 -0
-1.805275 1.1905334 -0.59662616
-1.8051829 1.1904727 -0.47903278
-1.7987355 1.1862208 -0.35921296
-1.8313124 1.2077044 -0.24451074
-1.9148014 1.2627633 -0.12811702
-0 0 0
-13.838253 9.1259794 0.92590064
-1.7190995 1.1307247 -0.67846453
-1.7564158 1.1552691 -0.58001691
-1.8193613 1.1966711 -0.48241118
-1.8023185 1.1854613 -0.35964215
-1.8262855 1.2012254 -0.24364558
-1.9033043 1.251884 -0.12724647
-0 0 0
-13.855784 9.1135368 0.92633617
-1.7803862 1.167956 -0.70209461
-1.7703925 1.1614001 -0.58416855
-1.8016871 1.1819297 -0.47734576
-1.7908669 1.1748315 -0.35707355
-1.8234144 1.1961831 -0.24306956
-1.9026366 1.2481538 -0.12710091
-0 0 0
-13.864615 9.0953646 0.92619115
-1.7362988 1.1360357 -0.68416691
-1.8011813 1.1784873 -0.59385753
-1.8052381 1.1811416 -0.4779081
-1.8116162 1.1853148 -0.36092484
-1.8313453 1.1982232 -0.2439336
-1.912841 1.2515447 -0.12768146
-13.849995 9.0618553 0
-13.884293 9.0842953 0.92677176
-1.7459497 1.1393397 -0.68742681
-1.781598 1.1626024 -0.58693725
-1.806664 1.1789595 -0.4779081
-1.8001523 1.1747103 -0.35835785
-1.8132992 1.1832894 -0.24133925
-1.9208822 1.2534939 -0.12811702
-13.854403 9.0408506 0
-13.893077 9.0660887 0.92662615
-1.7362863 1.1315386 -0.68335277
-1.7507707 1.1409781 -0.57655412
-1.7882192 1.1653833 -0.47284269
-1.7987131 1.1722221 -0.3579303
-1.8356873 1.1963183 -0.24422273
-1.9151062 1.2480756 -0.12768146
-13.86204 9.0338984 0
-13.900735 9.0591164 0.92677176
-1.768739 1.1496457 -0.69557798
-1.7710854 1.1511707 -0.58278561
-1.7832328 1.1590663 -0.4711535
-1.8022784 1.1714456 -0.35835785
-1.8262902 1.1870528 -0.24278153
-1.9144362 1.244346 -0.12753646
-13.868577 9.0143032 0
-13.896419 9.0323992 0.92575562
-1.7556072 1.1380951 -0.68987244
-1.7872049 1.1585788 -0.58762872
-1.7952904 1.1638203 -0.47396737
-1.777844 1.1525103 -0.35322225
-1.8233784 1.1820287 -0.2422044
-1.9181167 1.243444 -0.12768146
-13.877277 8.9961243 0
-13.913865 9.0198431 0.92619115
-1.7445236 1.1279186 -0.68498111
-1.7864988 1.1550575 -0.58693725
-1.8116337 1.1713085 -0.4779081
-1.8051041 1.1670867 -0.35835785
-1.8074291 1.1685899 -0.23989806
-1.902161 1.2298387 -0.12652035
-13.885954 8.9779387 0
-13.920385 9.0002003 0.92590064
-1.7271925 1.1137562 -0.67764717
-1.7499455 1.1284281 -0.57447964
-1.7916893 1.155346 -0.47227818
-1.7870983 1.1523855 -0.35450655
-1.8023164 1.1621988 -0.23903291
-1.9101992 1.2317654 -0.12695591
-13.896791 8.961153 0
-13.929069 8.981967 0.92575562
-1.7056762 1.0969659 -0.6686849
-1.7702963 1.1385249 -0.58070844
-1.8101807 1.1641756 -0.47678125
-1.7884893 1.1502253 -0.35450655
-1.8254778 1.1740136 -0.24191639
-1.920428 1.2350786 -0.12753646
-13.901041 8.9401302 0
-13.942095 8.9665337 0.92590064
-1.8006094 1.1549468 -0.70535445
-1.7716707 1.136385 -0.58070844
-1.7859211 1.1455255 -0.47002664
-1.7898779 1.1480634 -0.35450655
-1.82472 1.1704119 -0.24162836
-1.9328529 1.2397704 -0.12826203
-13.909644 8.9219236 0
-13.931051 8.9356546 0.9244495
-1.7582829 1.1248015 -0.68824095
-1.7920605 1.1464095 -0.58693725
-1.7937272 1.1474757 -0.47171584
-1.8128841 1.1597308 -0.35878539
-1.843555 1.1793513 -0.2439336
-1.9387314 1.2402372 -0.12855259
-13.924804 8.907918 0
-13.954967 8.9272137 0.92532003
-1.7804811 1.1359726 -0.69639218
-1.7976702 1.1469395 -0.5883202
-1.8143889 1.1576062 -0.47678125
-1.7883147 1.1409705 -0.3536498
-1.8297216 1.1673887 -0.24191639
-1.9029909 1.2141356 -0.12608536
-13.926781 8.8854866 0
-13.952604 8.9019623 0.9244495
-1.7818525 1.1338204 -0.69639218
-1.7588456 1.1191808 -0.57517111
-1.7900618 1.1390442 -0.47002664
-1.7983552 1.1443213 -0.35536167
-1.8420395 1.1721183 -0.24335757
-1.9197961 1.2215961 -0.12710091
-13.941895 8.8714437 0
-13.96335 8.8850965 0.9244495
-1.7915685 1.136964 -0.69965202
-1.7601966 1.1170547 -0.57517111
-1.8150377 1.151858 -0.47621891
-1.7910668 1.1366456 -0.3536498
-1.823802 1.1574199 -0.24076322
-1.9519902 1.2387706 -0.12913314
-13.94601 8.8504066 0
-0 0 0
-1.7595259 1.1136491 -0.68661261
-1.7827395 1.1283416 -0.58209145
-1.7928092 1.134715 -0.47002664
-1.7902719 1.133109 -0.35322225
-1.8361247 1.1621304 -0.2422044
-1.9183556 1.2141765 -0.12681091
-13.947897 8.8279819 0
-0 0 0
-1.7650462 1.1141583 -0.68824095
-1.7841015 1.1261866 -0.58209145
-1.8049283 1.1393332 -0.47284269
-1.7938083 1.1323138 -0.3536498
-1.8506464 1.168192 -0.2439336
-1.9330009 1.2201771 -0.12768146
-13.951958 8.8069582 0
-13.951521 8.8066826 0.9215467
-1.7559351 1.1054422 -0.68416691
-1.7663553 1.1120021 -0.57586265
-1.8127483 1.1412086 -0.47452971
-1.8321043 1.1533941 -0.36092484
-1.8498698 1.1645783 -0.24364558
-1.9564679 1.2316867 -0.12913314
-13.96699 8.7928638 0
-13.959954 8.788435 0.92140174
-1.7677336 1.1098896 -0.68824095
-1.7337025 1.0885229 -0.56478804
-1.7904612 1.1241593 -0.46833959
-1.7943674 1.1266119 -0.35322225
-1.8622261 1.1692177 -0.24508677
-1.9095361 1.1989218 -0.1259398
-13.975402 8.7745991 0
-13.979366 8.7770882 0.92198229
-1.7376573 1.0880808 -0.67601883
-1.7924289 1.1223775 -0.58347708
-1.8047353 1.1300834 -0.47171584
-1.8000747 1.1271652 -0.35407734
-1.8746047 1.1738341 -0.24652906
-1.9528296 1.2228167 -0.12869759
-13.98379 8.7563257 0
-13.996571 8.764329 0.92241782
-1.755742 1.0964539 -0.68253857
-1.7639889 1.1016041 -0.57378548
-1.7974788 1.1225184 -0.4694643
-1.7992601 1.1236309 -0.3536498
-1.8760216 1.1715682 -0.24652906
-1.8970064 1.1846731 -0.12492424
-13.974496 8.7270174 0
-13.998334 8.7419043 0.92183727
-1.7751828 1.1026407 -0.6890583
-1.7368143 1.0788083 -0.56409657
-1.7958735 1.1154926 -0.46833959
-1.8019702 1.1192795 -0.3536498
-1.8656604 1.1588401 -0.24479875
-1.908693 1.1855694 -0.12550479
-13.997753 8.6945934 0
-14.015 8.7053061 0.9215467
-1.7492013 1.0835756 -0.67846453
-1.7957019 1.1123813 -0.58278561
-1.8058602 1.118674 -0.47059116
-1.7967808 1.1130496 -0.35236713
-1.8802562 1.16476 -0.24652906
-1.9300026 1.1955764 -0.12681091
-13.999399 8.6721916 0
-14.016673 8.6828918 0.92096615
-1.7666628 1.0929161 -0.68498111
-1.7494322 1.0822567 -0.56755668
-1.7978923 1.1122358 -0.46833959
-1.8018149 1.1146624 -0.35322225
-1.8721611 1.1581808 -0.24537589
-1.8909527 1.169806 -0.12419868
-14.009058 8.6664677 0
-14.032963 8.6812553 0.92169172
-1.7511624 1.0804036 -0.67846453
-1.7486056 1.0788261 -0.56686521
-1.805716 1.1140611 -0.47002664
-1.8031604 1.1124845 -0.35322225
-1.8669533 1.1518424 -0.24451074
-1.9034199 1.1743408 -0.12492424
-1.9468461 1.2011333 0
-14.027968 8.654747 0.92067617
-1.7840362 1.0977114 -0.69068664
-1.75632 1.0806578 -0.56894237
-1.7919186 1.1025616 -0.46608806
-1.7848283 1.0981989 -0.34937096
-1.8705444 1.1509397 -0.24479875
-1.8782805 1.1556997 -0.12318256
-1.9394299 1.1933247 0
-14.042838 8.6405106 0.92096615
-1.7600819 1.0800428 -0.68090707
-1.7554883 1.077224 -0.56825083
-1.791086 1.0990679 -0.46552572
-1.7970917 1.1027532 -0.35151038
-1.8851652 1.1567979 -0.24652906
-1.9372541 1.1887614 -0.12695591
-1.9519591 1.1977848 0
-14.04663 8.6194639 0.92053115
-1.7782511 1.0882365 -0.68742681
-1.7482291 1.0698639 -0.5654822
-1.8075774 1.1061833 -0.4694643
-1.787477 1.0938824 -0.34937096
-1.8865615 1.1545192 -0.24652906
-1.887719 1.1552275 -0.12361812
-1.9378726 1.1859201 0
-14.057034 8.6024847 0.92053115
-1.7711258 1.0809366 -0.68416691
-1.747373 1.06644 -0.56478804
-1.7980704 1.0973812 -0.4666504
-1.7887974 1.0917218 -0.34937096
-1.8923665 1.1549311 -0.24710509
-1.9002014 1.1597128 -0.12434368
-1.9815055 1.2093335 0
-14.065194 8.584136 0.9203856
-1.7470952 1.0633752 -0.67438734
-1.7422373 1.0604185 -0.56271356
-1.7907132 1.0899235 -0.46439886
-1.7966958 1.0935649 -0.35065526
-1.8871303 1.1486081 -0.24623995
-1.8905053 1.1506623 -0.12361812
-1.9473958 1.1852889 0
-14.075557 8.5671339 0.9203856
-1.7800733 1.080502 -0.68661261
-1.749945 1.0622141 -0.56478804
-1.798547 1.0917156 -0.46608806
-1.7870374 1.0847292 -0.3485142
-1.8796726 1.1409587 -0.24508677
-1.9074367 1.1578114 -0.12463368
-1.9532802 1.1856384 0
-14.074794 8.5433798 0.91966003
-1.7919475 1.0847487 -0.69068664
-1.7598119 1.0652957 -0.56755668
-1.7976934 1.088227 -0.46552572
-1.7971309 1.0878866 -0.35022604
-1.8965406 1.1480639 -0.24710509
-1.8688265 1.1312872 -0.12202144
-1.9435818 1.1765401 0
-14.073995 8.5196409 0.91893446
-1.7742156 1.0710876 -0.68335277
-1.7417703 1.0515004 -0.56132787
-1.8055264 1.0899899 -0.46721277
-1.7874579 1.079082 -0.34808663
-1.8979264 1.1457714 -0.24710509
-1.8679698 1.1276866 -0.12187645
-1.9516796 1.1782219 0
-14.099852 8.5120306 0.9199506
-1.7712775 1.0663959 -0.68172437
-1.7473422 1.0519856 -0.56271356
-1.8090252 1.0891218 -0.46777725
-1.7953604 1.0808948 -0.34937096
-1.8993095 1.1434773 -0.24710509
-1.9071732 1.1482116 -0.12434368
-1.9486468 1.1731808 0
-14.096766 8.4869432 0.91907948
-1.7513707 1.0515298 -0.67357314
-1.7270993 1.0369571 -0.5557906
-1.7950889 1.0777783 -0.46383652
-1.7878617 1.0734391 -0.34765908
-1.9139905 1.1491673 -0.2488343
-1.9063336 1.1445701 -0.12419868
-1.941138 1.1654669 0
-14.086963 8.4578676 0.91777337
-1.7547585 1.0506814 -0.67438734
-1.7326599 1.0374496 -0.55717629
-1.8072877 1.0821338 -0.4666504
-1.8045768 1.0805105 -0.35065526
-1.9153776 1.1468538 -0.2488343
-1.878727 1.1249088 -0.12231145
-1.9135201 1.1457416 0
-14.103862 8.4448452 0.9182089
-1.7687633 1.0561655 -0.67927867
-1.7769918 1.0610789 -0.57101947
-1.804235 1.0773464 -0.46552572
-1.7992667 1.0743798 -0.34937096
-1.9101063 1.1405643 -0.24797025
-1.8934749 1.1306335 -0.12318256
-1.9461812 1.1621054 0
-12.003655 7.1676331 0.78091395
-1.7551708 1.0451744 -0.67357314
-1.7373154 1.0345417 -0.55786777
-1.7924324 1.0673629 -0.46214733
-1.8027672 1.0735171 -0.3497985
-1.9003736 1.1316401 -0.24652906
-1.8747486 1.1163808 -0.12187645
-1.9520603 1.1624186 0
-11.987746 7.1384983 0.77931726
-1.779811 1.056936 -0.68253857
-1.7342542 1.0298823 -0.55648476
-1.8002771 1.0690898 -0.46383652
-1.7952341 1.066095 -0.34808663
-1.9128569 1.1359451 -0.24797025
-1.8827922 1.1180912 -0.12231145
-1.9243759 1.1427855 0
-12.009772 7.1319714 0.78018838
-1.7598162 1.0421879 -0.67438734
-1.772192 1.049517 -0.56825083
-1.8015676 1.0669137 -0.46383652
-1.7832724 1.056079 -0.34551966
-1.9364789 1.1468101 -0.25085261
-1.8707314 1.1078736 -0.12144089
-1.943661 1.1510634 0
-12.013906 7.1148043 0.77989781
-1.7525615 1.0350333 -0.6711275
-1.751853 1.0346149 -0.56132787
-1.7875384 1.0556902 -0.45989579
-1.7911719 1.0578361 -0.34680232
-1.9512299 1.1523637 -0.25258294
-1.8899678 1.1161833 -0.12260201
-1.9428116 1.1473919 0
-12.004595 7.0897117 0.77873671
-1.7495555 1.0304087 -0.6694991
-1.759589 1.0363181 -0.56340504
-1.8019533 1.0612687 -0.46327418
-1.7924488 1.055671 -0.34680232
-1.9548475 1.1513164 -0.25287095
-1.8644472 1.0980748 -0.12086033
-1.9509262 1.149007 0
-11.968381 7.0488329 0.7758345
-1.7785029 1.0445652 -0.68009287
-1.7478646 1.0265703 -0.55925339
-1.8119981 1.0642378 -0.46552572
-1.7848775 1.0483091 -0.34509209
-2.0075269 1.1790774 -0.25950083
-1.8792205 1.1037195 -0.12173145
-1.9343605 1.1361047 0
-18.059748 10.607002 1.1698676
-1.7584407 1.0299264 -0.6719448
-1.7512664 1.0257244 -0.55994493
-1.8001235 1.0543401 -0.46214733
-1.7861428 1.0461516 -0.34509209
-2.0022609 1.1727329 -0.2586368
-1.8872728 1.1053839 -0.12216645
-1.9357319 1.1337667 0
-18.023228 10.556284 1.1666749
-1.7483972 1.0226258 -0.66787076
-1.7345614 1.0145333 -0.5544076
-1.8029513 1.0545341 -0.46270967
-1.7867745 1.0450723 -0.34509209
-1.9895689 1.1636854 -0.25690648
-1.9193461 1.1226126 -0.12419868
-1.9206891 1.1233981 0
-18.038574 10.55064 1.1672554
-1.7773843 1.0366998 -0.67846453
-1.7769542 1.036449 -0.56755668
-1.7954448 1.0472341 -0.46045813
-1.7946819 1.0467891 -0.34637475
-1.9887415 1.1599787 -0.25661847
-1.8847884 1.0993457 -0.12187645
-1.9377836 1.1302563 0
-18.062531 10.535381 1.167981
-1.7700897 1.0295806 -0.67520463
-1.7760388 1.0330409 -0.56686521
-1.8011059 1.0476214 -0.46158499
-1.7981623 1.0459092 -0.34680232
-2.0102615 1.1692777 -0.25921282
-1.8906033 1.0996779 -0.12216645
-1.9121524 1.1122119 0
-18.050537 10.499176 1.1663843
-1.7927082 1.0398399 -0.68335277
-1.7469081 1.013274 -0.55717629
-1.7979703 1.0428921 -0.46045813
-1.7927696 1.0398754 -0.34551966
-2.0295718 1.1772298 -0.26151916
-1.8874396 1.0947877 -0.12187645
-1.958519 1.1360165 0
-18.069956 10.481271 1.1668199
-1.7575942 1.0166361 -0.6694991
-1.7503008 1.0124173 -0.55786777
-1.8058296 1.0445367 -0.46214733
-1.7984647 1.0402766 -0.34637475
-2.0959191 1.2123317 -0.26987937
-1.9067552 1.1029146 -0.12303756
-1.9260963 1.1141019 0
-18.08036 10.458129 1.1666749
-1.7759491 1.0243912 -0.67601883
-1.7493516 1.0090494 -0.55717629
-1.7982864 1.0372757 -0.45989579
-1.7952772 1.03554 -0.34551966
-2.1085827 1.2162588 -0.27132055
-1.8923284 1.0915203 -0.12202144
-1.9454759 1.1221765 0
-18.104235 10.442765 1.1674005
-1.7343364 0.99759752 -0.65971953
-1.7440435 1.0031811 -0.55509913
-1.7951376 1.0325707 -0.45877111
-1.7920725 1.0308076 -0.3446629
-2.1548917 1.2395027 -0.27708641
-1.8981464 1.0918218 -0.12231145
-1.9581078 1.1263118 0
-18.110081 10.416994 1.1669649
-1.7698437 1.0151774 -0.672759
-1.730019 0.99233407 -0.55025333
-1.7875679 1.0253439 -0.45651957
-1.7799605 1.0209804 -0.34209591
-2.1653621 1.2420456 -0.27823958
-1.9129925 1.0972872 -0.12318256
-1.9346415 1.109705 0
-18.120403 10.393812 1.1668199
-1.7667741 1.0105815 -0.6711275
-1.7529979 1.0027015 -0.55717629
-1.7799832 1.0181369 -0.45426804
-1.7967931 1.027752 -0.34509209
-2.1960461 1.2561219 -0.2819871
-1.8985261 1.0859425 -0.12216645
-1.9111291 1.0931515 0
-18.119411 10.364166 1.1659487
-1.7422391 0.9937557 -0.66135103
-1.7716417 1.0105267 -0.56271356
-1.7900405 1.021021 -0.45651957
-1.8047167 1.0293922 -0.34637475
-2.2402432 1.2778121 -0.28746381
-1.8772702 1.070776 -0.12071533
-1.9531441 1.1140537 0
-18.154495 10.355142 1.1674005
-1.7627721 1.0026464 -0.6686849
-1.7445145 0.99226171 -0.55371612
-1.7890663 1.0176023 -0.45595723
-1.8282772 1.0399051 -0.35065526
-2.2395394 1.2738267 -0.2871758
-1.9124359 1.0877737 -0.12289201
-1.9454401 1.106546 0
-18.146669 10.321637 1.1660943
-1.7618345 0.99929756 -0.66787076
-1.7151573 0.97282261 -0.54402453
-1.7902946 1.0154399 -0.45595723
-1.7960366 1.0186967 -0.34423533
-2.2208309 1.2596364 -0.28458145
-1.8956759 1.0752113 -0.12173145
-1.9445055 1.1029069 0
-18.159128 10.299703 1.1660943
-1.7350671 0.98134625 -0.65727383
-1.7600052 0.99545115 -0.55786777
-1.8025764 1.0195292 -0.45877111
-1.7928016 1.0140007 -0.34338021
-2.1277997 1.2034742 -0.27247372
-1.9060119 1.0780319 -0.12231145
-1.9050661 1.0774969 0
-18.196432 10.291821 1.1676904
-1.7577838 0.99139327 -0.66542506
-1.7568406 0.9908613 -0.55648476
-1.7949543 1.0123575 -0.45651957
-1.7850817 1.0067893 -0.34166837
-2.0684228 1.1665943 -0.26468953
-1.9118441 1.0782835 -0.12260201
-1.9539677 1.1020412 0
-12.168446 6.8630252 0.7803334
-1.7460506 0.98199672 -0.66053373
-1.7449124 0.98135656 -0.55233049
-1.782884 1.0027122 -0.45314118
-1.7818177 1.0021125 -0.34081161
-2.0833616 1.1717039 -0.26641986
-1.9131457 1.0759727 -0.12260201
-1.9439582 1.093302 0
-12.176729 6.8483171 0.7803334
-1.788197 1.002858 -0.67601883
-1.7373443 0.97433883 -0.5495618
-1.7796662 0.99807382 -0.45201647
-1.7942201 1.006236 -0.34295103
-2.134402 1.1970171 -0.27276173
-1.925774 1.0800141 -0.12332756
-1.9361982 1.0858603 0
-12.196325 6.8399529 0.78105897
-1.7376348 0.97174364 -0.65645969
-1.7472789 0.97713697 -0.55233049
-1.7919571 1.0021225 -0.45483038
-1.7842342 0.99780363 -0.34081161
-2.1358469 1.1944373 -0.27276173
-1.9497522 1.0903668 -0.12477868
-1.9397781 1.084789 0
-0 0 0
-1.7560768 0.9792735 -0.66297936
-1.7331269 0.96647543 -0.54748732
-1.7953837 1.0011929 -0.45539272
-1.7831987 0.99439794 -0.34038404
-2.1576173 1.2031919 -0.27535608
-1.9578788 1.0918081 -0.12521423
-1.9365458 1.0799117 0
-0 0 0
-1.7788557 0.98916018 -0.6711275
-1.7299039 0.96193981 -0.54610169
-1.7877095 0.99408346 -0.45314118
-1.7709334 0.9847548 -0.3378154
-2.1251686 1.1817328 -0.27103254
-1.9501128 1.0843903 -0.12463368
-1.9310236 1.0737755 0
-0 0 0
-1.7778902 0.98581266 -0.6703133
-1.7749461 0.98418027 -0.55994493
-1.793358 0.9943893 -0.45426804
-1.8125371 1.0050238 -0.34551966
-2.0587385 1.1415387 -0.26238433
-1.9514216 1.0820332 -0.12463368
-1.9528017 1.0827985 0
-0 0 0
-1.7488022 0.96692288 -0.65890533
-1.7541746 0.96989334 -0.55302197
-1.7901065 0.98976034 -0.45314118
-1.7957777 0.99289596 -0.34209591
-2.0125842 1.1127696 -0.25633046
-1.9618237 1.0847037 -0.12521423
-1.9449985 1.0754009 0
-12.241978 6.768661 0.78134948
-1.7731891 0.97900826 -0.66787076
-1.726211 0.95307088 -0.54402453
-1.8040547 0.99604976 -0.45651957
-1.7963773 0.99181086 -0.34209591
-2.0177805 1.1140513 -0.25690648
-1.9784042 1.092311 -0.12623036
-1.9342585 1.0679375 0
-12.259709 6.7687969 0.78222007
-1.783023 0.98162848 -0.6711275
-1.753734 0.96550363 -0.55233049
-1.7896738 0.98528999 -0.45257884
-1.7908258 0.98592424 -0.34081161
-0 0 -0
-1.9159867 1.0548304 -0.12216645
-1.9583414 1.0781485 0
-12.261048 6.7502179 0.78178453
-1.7538795 0.96282405 -0.65971953
-1.7373059 0.95372564 -0.54679316
-1.7886378 0.98190522 -0.45201647
-1.8167711 0.9973495 -0.34551966
-0 0 -0
-1.9354821 1.0625181 -0.12332756
-1.9619305 1.0770375 0
-12.280591 6.7416534 0.78251064
-1.77022 0.96901268 -0.66542506
-1.7208519 0.94198877 -0.54125589
-1.7920496 0.98096216 -0.45257884
-1.797711 0.98406124 -0.34166837
-0 0 -0
-1.9618392 1.0739044 -0.12492424
-1.919854 1.0509219 0
-12.29556 6.7305493 0.78294563
-1.7540338 0.95739979 -0.65890533
-1.7131805 0.93510091 -0.53848726
-1.7887774 0.97636372 -0.45145413
-1.7831237 0.97327787 -0.33867216
-0 0 -0
-1.9380442 1.0578377 -0.12332756
-1.9485348 1.0635638 0
-12.30597 6.7169361 0.78309119
-1.763873 0.96000582 -0.66216522
-1.7605814 0.95821434 -0.55302197
-1.7832583 0.9705565 -0.44976494
-1.7865511 0.97234857 -0.33909974
-2.0153871 1.0968949 -0.25575331
-1.9210625 1.0455579 -0.12216645
-1.9360989 1.0537416 0
-12.316358 6.7033029 0.78323621
-1.7758912 0.96376723 -0.66623926
-1.7352865 0.94173127 -0.54471868
-1.7911316 0.97203809 -0.45145413
-1.7764456 0.96406811 -0.33696032
-2.0189819 1.0956914 -0.25604132
-1.8903555 1.0258864 -0.12013477
-1.9396647 1.0526463 0
-12.331293 6.692131 0.7836712
-1.7661878 0.95574039 -0.66216522
-1.7695132 0.95753998 -0.55509913
-1.7900636 0.96866041 -0.45088965
-1.7821203 0.96436203 -0.3378154
-2.0203044 1.093251 -0.25604132
-1.907593 1.0322593 -0.12115089
-1.9638195 1.0626853 0
-12.341662 6.6784663 0.78381675
-1.7695143 0.95477813 -0.66297936
-1.739763 0.93872517 -0.54541016
-1.7957094 0.96891224 -0.45201647
-1.7810273 0.96099019 -0.33738786
-2.0193498 1.0895821 -0.25575331
-1.9317025 1.0422901 -0.12260201
-1.9467793 1.0504251 0
-12.345145 6.6610789 0.78352618
-1.7663177 0.95029956 -0.66135103
-1.747526 0.94018936 -0.54748732
-1.7968788 0.96674174 -0.45201647
-1.7912297 0.9637025 -0.33909974
-2.0206649 1.0871413 -0.25575331
-1.9077871 1.0264117 -0.12100533
-1.9526352 1.0505404 0
-12.366919 6.6535463 0.7843973
-1.7631046 0.94582558 -0.65971953
-1.7420264 0.9345181 -0.54541016
-1.7778963 0.95376062 -0.44695106
-1.7810844 0.95547098 -0.33696032
-2.0105832 1.0785866 -0.25431213
-1.8517838 0.99339795 -0.11737698
-1.9217919 1.0309541 0
-12.379524 6.6410527 0.78468728
-1.768609 0.94602829 -0.66135103
-1.7564232 0.93951005 -0.5495618
-1.7902478 0.9576028 -0.44976494
-1.7935535 0.95937097 -0.33909974
-2.0096064 1.0749376 -0.25402412
-1.8919319 1.0119936 -0.11984421
-1.9574608 1.047045 0
-12.389829 6.6273141 0.7848323
-1.7719296 0.94505256 -0.66216522
-1.7487026 0.93266457 -0.54679316
-1.7846755 0.95185053 -0.44807574
-1.7924484 0.95599622 -0.33867216
-2.0131838 1.0737246 -0.25431213
-1.8610594 0.99258965 -0.11781254
-1.9587245 1.044679 0
-12.400126 6.613565 0.78497785
-1.7643414 0.93826884 -0.65890533
-1.7254694 0.91759694 -0.53918141
-1.7880656 0.9508853 -0.44863811
-1.7868006 0.9502126 -0.33738786
-2.0121982 1.070078 -0.25402412
-1.8714343 0.99522042 -0.1183931
-1.9163252 1.0190932 0
-12.408109 6.598577 0.78497785
-1.7480048 0.92687345 -0.65238559
-1.7398714 0.92256069 -0.54333305
-1.7847278 0.94634575 -0.4475134
-1.7924877 0.95046037 -0.33824462
-1.9723533 1.0458335 -0.2488343
-1.8955879 1.0051289 -0.11984421
-1.9428493 1.030189 0
-12.422954 6.5872278 0.78541285
-1.7469406 0.92360657 -0.65157145
-1.7298976 0.9145959 -0.53987288
-1.7903583 0.94656146 -0.44863811
-1.7936349 0.94829381 -0.33824462
-1.9530386 1.0325705 -0.24623995
-1.848563 0.97733426 -0.11679643
-1.9072809 1.0083784 0
-12.428609 6.5709987 0.78526783
-1.7480553 0.92149502 -0.65157145
-1.7154642 0.90431452 -0.53502709
-1.7825185 0.93966246 -0.44638872
-1.7834272 0.9401415 -0.3361052
-1.9565794 1.0314195 -0.24652906
-1.9095111 1.0066072 -0.12057033
-1.9476331 1.0267034 0
-12.43654 6.5559764 0.78526783
-1.7710413 0.93087929 -0.65971953
-1.7476498 0.91858447 -0.54471868
-1.7836525 0.93750799 -0.44638872
-1.7709237 0.93081748 -0.33353657
-1.9555281 1.0278478 -0.24623995
-1.8831249 0.98979175 -0.11882865
-1.9327533 1.015877 0
-12.444452 6.5409446 0.78526783
-1.7721648 0.92873871 -0.65971953
-1.7309816 0.90715575 -0.53918141
-1.7780303 0.93181258 -0.44469953
-1.7811421 0.93344343 -0.33524844
-1.9361525 1.0146797 -0.24364558
-1.8820202 0.98631066 -0.11868366
-1.9524115 1.0232006 0
-12.433934 6.5162539 0.78410673
-1.7278306 0.90151656 -0.64260602
-1.7459639 0.91097778 -0.54333305
-1.7909775 0.93446422 -0.4475134
-1.7851048 0.9314 -0.33567598
-1.9035982 0.9932254 -0.23932204
-1.8423333 0.96125972 -0.11607087
-1.9150407 0.99919564 0
-10.038458 5.2376871 0.63244396
-1.7442694 0.90741396 -0.64831156
-1.7292584 0.89960492 -0.53779572
-1.7898533 0.93112797 -0.44695106
-1.7794034 0.9256916 -0.33439332
-1.9277381 1.0028591 -0.2422044
-1.8665496 0.97102731 -0.11752255
-1.9439518 1.0112939 0
-10.019421 5.2123613 0.63084728
-1.7497483 0.90757954 -0.64993995
-0 0 -0
-1.7887238 0.92779577 -0.44638872
-1.7850738 0.92590255 -0.33524844
-1.9243609 0.99814957 -0.24162836
-1.9115407 0.9914999 -0.12027977
-1.9405564 1.0065501 0
-10.009571 5.1918793 0.62983173
-1.7398688 0.89978886 -0.64586592
-1.7470284 0.9034915 -0.54264152
-1.7875801 0.92446321 -0.44582421
-1.79759 0.92963994 -0.33738786
-1.9462403 1.0065157 -0.24422273
-1.878123 0.97128832 -0.1181031
-1.9394617 1.0030102 0
-10.02045 5.1821661 0.63012171
-1.7409548 0.89768595 -0.64586592
-1.7391996 0.89678091 -0.53987288
-1.7819272 0.91881251 -0.44413719
-1.798712 0.92746723 -0.33738786
-1.9198686 0.98993897 -0.24076322
-1.9277928 0.99402493 -0.12115089
-1.9314198 0.99589515 0
-1.9784909 1.0201664 0.12433699
-1.7574272 0.90349317 -0.65157145
-1.7648271 0.90729749 -0.54748732
-1.798848 0.92478758 -0.44807574
-1.7747245 0.9123857 -0.33268145
-1.9348607 0.99471176 -0.24249242
-1.8850822 0.96912062 -0.1183931
-1.9233636 0.98880106 0
-2.0074534 1.0320317 0.12607867
-1.7739078 0.90925759 -0.65727383
-1.7525223 0.898296 -0.54333305
-1.7886604 0.91681939 -0.44526187
-1.7781079 0.91141045 -0.33310902
-1.9659815 1.0077094 -0.24623995
-1.9001306 0.97395605 -0.11926422
-1.9546624 1.0019076 0
-1.9925102 1.0213073 0.12506254
-1.7750051 0.90711349 -0.65727383
-1.7558383 0.89731836 -0.54402453
-1.7784563 0.90887725 -0.44244799
-1.790635 0.91510111 -0.33524844
-1.9533832 0.99827331 -0.24451074
-1.8827956 0.96219963 -0.1181031
-1.9303778 0.98651654 0
-1.9891196 1.0165364 0.12477254
-1.7738998 0.9038471 -0.65645969
-1.7368054 0.88494658 -0.53779572
-1.7818149 0.90788007 -0.44301033
-1.7825903 0.90827513 -0.33353657
-1.9615039 0.99943614 -0.24537589
-1.9279397 0.98233432 -0.12086033
-1.8898337 0.9629184 0
-1.9833986 1.010592 0.12433699
-1.7705877 0.89946634 -0.65483129
-1.7378734 0.88284737 -0.53779572
-1.791972 0.9103297 -0.44526187
-1.7791135 0.90379745 -0.33268145
-1.9696214 1.0005763 -0.24623995
-1.8897442 0.95999831 -0.1183931
-1.9490004 0.99010074 0
-1.9892471 1.0105462 0.12462699
-1.7782817 0.90067333 -0.65727383
-1.7657958 0.89434946 -0.54610169
-1.7772014 0.90012616 -0.44132113
-1.7779076 0.90048385 -0.33225226
-1.9639134 0.99469304 -0.24537589
-1.8932186 0.95888722 -0.1185381
-1.9548342 0.9900946 0
-1.9811944 1.0034456 0.12404643
-1.7153975 0.86622053 -0.63364375
-1.7355273 0.87638551 -0.53641272
-1.7737558 0.89568967 -0.44019645
-1.7950369 0.90643597 -0.33524844
-1.9512565 0.98532182 -0.24364558
-1.9454093 0.98236912 -0.12173145
-1.9095758 0.96427441 0
-1.9916834 1.005736 0.12462699
-1.7804531 0.89637327 -0.65727383
-1.7298604 0.8709023 -0.53433561
-1.7861822 0.8992576 -0.44301033
-1.7800785 0.89618474 -0.33225226
-1.9316559 0.97249669 -0.24105123
-1.9256999 0.96949822 -0.12042477
-1.9409562 0.97717899 0
-2.0021808 1.0080026 0.12520754
-1.7903707 0.89865637 -0.66053373
-1.7510889 0.87893927 -0.54056436
-1.7781838 0.89253932 -0.44075879
-1.7788681 0.8928827 -0.33182469
-1.9351389 0.97132117 -0.24133925
-1.929199 0.96833968 -0.12057033
-1.9165479 0.96198958 0
-1.9848187 0.99625736 0.12404643
-1.7649401 0.88322353 -0.65075725
-0 0 -0
-1.78608 0.89380246 -0.44244799
-1.7776521 0.88958496 -0.33139715
-1.9501938 0.97592944 -0.24306956
-1.9303677 0.96600789 -0.12057033
-1.9456371 0.97364914 0
-1.9976463 0.99967599 0.12477254
-1.7173461 0.85681295 -0.63282645
-0 0 -0
-1.7735125 0.88483536 -0.4390696
-1.7764308 0.88629138 -0.33096957
-1.930544 0.96318108 -0.24047519
-1.9733814 0.98455334 -0.12318256
-1.9398236 0.96781081 0
-1.975597 0.98565876 0.12332087
-1.7604284 0.87565249 -0.64831156
-0 0 -0
-1.7745804 0.8826918 -0.4390696
-1.7751955 0.88299775 -0.33054039
-1.9201207 0.9550848 -0.23903291
-1.9699121 0.97985148 -0.12289201
-1.9130298 0.95155776 0
-1.9953989 0.99252886 0.12448198
-1.7260566 0.8559556 -0.63527215
-1.7418354 0.86378032 -0.53641272
-1.7756456 0.88054693 -0.4390696
-1.7808651 0.88313526 -0.33139715
-1.9120045 0.94816762 -0.23787974
-1.9548057 0.9693929 -0.12187645
-1.928172 0.9561851 0
-1.9686615 0.97626394 0.12274031
-1.7603259 0.87030137 -0.64749742
-0 0 -0
-1.7721572 0.87615073 -0.43794492
-1.7888367 0.88439703 -0.33268145
-1.9131488 0.94585663 -0.23787974
-1.9233607 0.95090538 -0.11984421
-1.9409884 0.95962048 0
-1.981493 0.97964591 0.12346642
-1.7697165 0.87361389 -0.65075725
-0 0 -0
-1.7749624 0.87620354 -0.43850726
-1.7824628 0.87990606 -0.33139715
-1.929957 0.95271605 -0.23989806
-1.9588873 0.96699739 -0.12202144
-1.9368961 0.95614147 0
-1.9937323 0.98419851 0.12419198
-1.7951579 0.88347691 -0.65971953
-0 0 -0
-1.7782974 0.87517911 -0.4390696
-1.7858257 0.87888414 -0.33182469
-1.9171873 0.94353294 -0.23816887
-2.0113406 0.98987007 -0.12521423
-1.9333843 0.95150423 0
-1.978598 0.97375596 0.12317587
-1.7629468 0.86497986 -0.64749742
-1.7477229 0.85751027 -0.53710425
-1.7839203 0.87527031 -0.44019645
-1.7684495 0.86767972 -0.32840097
-1.9043893 0.93437773 -0.23643856
-2.0638521 1.0126173 -0.12840703
-1.9321985 0.94802219 0
-1.9704421 0.96678621 0.12259531
-1.7440023 0.85307175 -0.64016038
-0 0 -0
-1.7941065 0.87758005 -0.44244799
-1.7741131 0.8678003 -0.32925773
-1.9287555 0.94344306 -0.23932204
-2.0510738 1.0032746 -0.12753646
-1.9426938 0.95026094 0
-1.962272 0.95983762 0.12201475
-1.7805763 0.86829716 -0.65319979
-0 0 -0
-1.7700413 0.86315978 -0.43625572
-1.7751603 0.86565602 -0.32925773
-1.9368618 0.94450969 -0.24018608
-2.0452757 0.99737757 -0.12710091
-1.929801 0.94106644 0
-1.9517549 0.95177233 0.12128919
-1.7727329 0.86182249 -0.64993995
-1.7350237 0.84349 -0.53225845
-1.7916472 0.87101781 -0.44132113
-1.7900528 0.8702426 -0.33182469
-1.9356776 0.94103885 -0.23989806
-2.0254493 0.98468173 -0.1257948
-10.024191 4.8733082 0
-1.9692643 0.95736712 0.12230531
-1.7248459 0.83596683 -0.63201225
-1.7405611 0.84358335 -0.53364408
-1.7881298 0.86663806 -0.44019645
-1.7818627 0.86360067 -0.33011281
-1.960093 0.94998205 -0.24278153
-2.0126121 0.97543609 -0.12492424
-10.03944 4.8657322 0
-1.9587214 0.94931728 0.1215792
-1.7703638 0.85538751 -0.64831156
-0 0 -0
-1.7914612 0.86558115 -0.44075879
-1.7782866 0.85921556 -0.32925773
-1.9821972 0.95773917 -0.24537589
-2.0254855 0.97865474 -0.12564979
-10.073432 4.8671846 0
-1.959867 0.9469499 0.1215792
-1.7624891 0.84895742 -0.64505172
-0 0 -0
-1.7741925 0.85459471 -0.43625572
-1.7677619 0.85149723 -0.32711828
-1.999658 0.96319717 -0.24739312
-2.0243278 0.97508007 -0.12550479
-10.048827 4.8403282 0
-1.9563323 0.94232798 0.12128919
-1.779112 0.85431743 -0.65075725
-0 0 -0
-1.7843858 0.85684985 -0.43850726
-1.7780459 0.85380548 -0.32883015
-1.9821676 0.95182329 -0.24508677
-1.9903663 0.9557603 -0.12332756
-10.082821 4.8417015 0
-1.9762086 0.94896185 0.12245031
-1.7957419 0.8596344 -0.65645969
-0 0 -0
-1.778551 0.85140496 -0.43682021
-1.7744409 0.84943748 -0.3279734
-1.9949877 0.95501477 -0.24652906
-1.9399619 0.92867357 -0.12013477
-1.9295373 0.92368323 0
-1.9656373 0.94096452 0.12172475
-1.7677833 0.84362644 -0.64586592
-1.7705251 0.84493488 -0.54125589
-1.7749877 0.8470645 -0.43569338
-1.7731514 0.84618819 -0.32754585
-1.9611235 0.93589276 -0.2422044
-1.9504631 0.93080533 -0.12071533
-1.9517885 0.93143791 0
-1.9761533 0.94306529 0.12230531
-1.7330909 0.82450086 -0.63282645
-0 0 -0
-1.7783022 0.84600967 -0.43625572
-1.7788043 0.84624863 -0.32840097
-1.9622529 0.93352246 -0.2422044
-1.8506958 0.88045025 -0.11447475
-1.9411643 0.92348975 0
-1.9585197 0.93174642 0.1211442
-1.7318548 0.82134807 -0.63201225
-1.7589656 0.83420563 -0.53710425
-1.7793231 0.84386033 -0.43625572
-1.7821517 0.84520185 -0.32883015
-1.9657142 0.93225801 -0.24249242
-1.8987051 0.90047836 -0.11737698
-1.9211088 0.91110355 0
-1.9572985 0.92826682 0.12099919
-1.7350783 0.82031029 -0.63282645
-1.7554318 0.82993299 -0.53571856
-1.7757516 0.83953977 -0.43513101
-1.7808442 0.84194744 -0.32840097
-1.959831 0.92656881 -0.24162836
-6.7129307 3.1737392 -0.41475257
-1.9245679 0.90989715 0
-1.972509 0.93256277 0.12186976
-1.7248917 0.81294566 -0.62875241
-1.7541661 0.82674277 -0.53502709
-1.7836622 0.8406443 -0.43682021
-1.7772205 0.83760834 -0.32754585
-1.9492441 0.91868347 -0.24018608
-6.7449665 3.1789188 -0.41649425
-1.925666 0.90757102 0
-1.9853846 0.93571657 0.12259531
