# .PCD v0.7 - Point Cloud Data file format
VERSION 0.7
FIELDS x y z
SIZE 4 4 4
TYPE F F F
COUNT 1 1 1
WIDTH 1600
HEIGHT 1
VIEWPOINT 0 0 0 1 0 0 0
POINTS 1600
DATA ascii
3.3192968 1.8747336 -0.42490479
3.0984218 1.7499838 -0.19876216
3.194494 1.8042452 0
0 0 0
2.3189011 1.3134099 -0.87874085
2.6167433 1.4821057 -0.82971114
3.026207 1.7140232 -0.77045894
3.5718036 2.0230455 -0.68435133
3.3170292 1.8787429 -0.42490479
3.0917788 1.7511626 -0.19847161
3.1787291 1.8004107 0
0 0 0
2.3194678 1.3174351 -0.87955821
2.6171298 1.4865043 -0.83040261
3.0219264 1.7164248 -0.76989663
3.5738165 2.0298932 -0.68520647
3.3259995 1.8891354 -0.42634597
3.0738511 1.7459176 -0.19745605
3.1923854 1.8132439 0
3.2318935 1.8356842 0.20760828
2.2856574 1.3018864 -0.86733294
2.6087899 1.4859393 -0.82832551
3.0220561 1.7213314 -0.77045894
3.5691328 2.0329406 -0.68477887
3.3124793 1.8867534 -0.42490479
3.0694749 1.7483406 -0.19731049
3.1675825 1.8042217 0
3.2545121 1.8537358 0.20920496
2.299108 1.3132296 -0.87303847
2.6265965 1.500288 -0.83455426
3.0221865 1.7262455 -0.77102345
3.5599844 2.0334308 -0.68349457
3.2877336 1.8779235 -0.42202133
6.228302 3.5575495 -0.40064073
3.1925182 1.8235373 0
3.2387276 1.8499317 0.20833385
2.2996621 1.3172339 -0.87385267
2.6008415 1.4897479 -0.8269425
3.0245039 1.7324194 -0.77214813
3.575345 2.0479381 -0.68691832
3.2899551 1.8844683 -0.42259845
6.2172327 3.5611968 -0.40020517
3.2061226 1.8364495 0
3.3063896 1.8938819 0.2128333
2.2852137 1.3126277 -0.86896443
2.612088 1.5003844 -0.83109415
3.0290205 1.7398705 -0.77383733
3.5550601 2.042028 -0.68349457
3.2876756 1.8884422 -0.42259845
6.2174273 3.5712926 -0.40049517
3.1903567 1.8325422 0
3.299588 1.8952847 0.21254274
2.2921846 1.3203177 -0.87222117
2.6211407 1.5097994 -0.83455426
3.0181088 1.7384564 -0.77158582
3.5681632 2.0552924 -0.68649077
3.2786655 1.8885392 -0.42173332
6.2243719 3.5852911 -0.40122128
3.2039282 1.8454899 0
3.2139959 1.851289 0.20717329
2.3269694 1.3441013 -0.88607478
2.6019354 1.5029268 -0.82901698
3.0116014 1.7395576 -0.77045894
3.5723481 2.0634553 -0.68777508
3.2718976 1.8899095 -0.42115617
6.2200351 3.5928094 -0.40122128
3.2174644 1.8584679 0
3.1802516 1.8369731 0.20514105
2.3403168 1.3555849 -0.89178032
2.6196532 1.5173854 -0.83524579
3.027087 1.7533838 -0.77496201
3.5654051 2.0651946 -0.68691832
3.2651396 1.8912714 -0.42058015
6.2246833 3.6055319 -0.40180182
3.1972091 1.8519239 0
3.1690357 1.8356049 0.20456049
2.2937973 1.3323435 -0.87466681
2.6134834 1.518032 -0.83386278
3.020576 1.7544901 -0.77383733
3.5584719 2.066925 -0.68606323
3.2673206 1.8978109 -0.42115617
6.2225671 3.6143546 -0.40194684
3.2444739 1.8845404 0
3.1803012 1.847266 0.20543161
2.307138 1.3438232 -0.88037235
2.6181529 1.524978 -0.83593994
3.0206473 1.7594162 -0.7743997
3.5537472 2.0699275 -0.68563402
3.2493868 1.8926486 -0.41913897
6.2204385 3.6231773 -0.40209183
3.235446 1.8845285 0
3.18031 1.8524139 0.20557661
2.2841661 1.3341419 -0.87222117
2.6033063 1.5205461 -0.83178562
3.011935 1.7592191 -0.7727105
3.5645478 2.0819907 -0.68820262
3.2604938 1.904398 -0.42086816
6.2138143 3.6293814 -0.40194684
3.2309213 1.8871253 0
3.2453778 1.895569 0.20993051
2.301753 1.3481468 -0.87955821
2.6166227 1.5325673 -0.83663142
3.0141962 1.7654279 -0.77383733
3.557595 2.083699 -0.68734586
3.2425737 1.8991896 -0.41885093
6.2183933 3.6421402 -0.40252739
3.2331257 1.8936559 0
3.2722309 1.9165599 0.21181719
2.2852018 1.3421638 -0.87385267
2.6061158 1.5306457 -0.83386278
3.0076747 1.7664926 -0.7727105
3.5595059 2.0905988 -0.68820262
3.2469609 1.9070321 -0.41971499
6.2162261 3.6509657 -0.40267238
3.2600062 1.914694 0
3.2900758 1.9323547 0.21312331
2.279315 1.3424129 -0.87222117
2.5956175 1.5287009 -0.83109415
3.0142958 1.7752833 -0.77496201
3.5481296 2.0896871 -0.68649077
3.2602572 1.9201435 -0.42173332
6.2185292 3.6624315 -0.40310794
3.2442396 1.9107099 0
3.2698267 1.9257795 0.21196219
2.2947166 1.355221 -0.87874085
2.6002512 1.5356647 -0.83317131
3.007777 1.7763425 -0.77383733
3.541177 2.0913596 -0.68563402
3.2601595 1.9253955 -0.42202133
6.2163348 3.6712627 -0.40325296
3.2284875 1.9066905 0
3.2496068 1.9191631 0.21080163
2.301584 1.3630306 -0.88200074
2.613498 1.5477504 -0.83801442
3.0056283 1.7799755 -0.77383733
3.5077286 2.0773263 -0.67964327
3.271188 1.9372437 -0.42375162
6.2230711 3.6853905 -0.4039785
3.2216985 1.9079353 0
3.2361 1.9164641 0.21007551
2.2808113 1.3544537 -0.87466681
2.6137891 1.5521917 -0.83870858
3.0078406 1.7861983 -0.77496201
3.4367986 2.0409338 -0.66637754
0 0 -0
3.2383578 1.9230901 -0.21037276
3.2238703 1.9144869 0
3.2226131 1.9137403 0.20934996
2.2757478 1.3533072 -0.87303847
2.6106884 1.5524846 -0.83801442
3.0089428 1.7893125 -0.77552438
3.3406951 1.986594 -0.64797616
3.258779 1.9378814 -0.42259845
3.2416577 1.9276999 -0.21066277
3.249547 1.9323914 0
3.2147541 1.9117012 0.2089144
2.2889647 1.3649135 -0.87874085
2.5872672 1.5427916 -0.83109415
3.0045984 1.7916468 -0.77496201
3.3052177 1.9709067 -0.64155626
0 0 -0
3.2393262 1.9316155 -0.21066277
3.2472098 1.9363165 0
3.1745036 1.8929616 0.20644717
2.3170164 1.3854384 -0.89015198
2.5875523 1.5472029 -0.83178562
3.0046101 1.7965788 -0.77552438
3.2741938 1.9577739 -0.63599306
0 0 -0
3.2436824 1.9395299 -0.21109833
3.2426362 1.9389043 0
3.1744506 1.8981334 0.20659272
2.2856596 1.370441 -0.87874085
2.6050436 1.5619379 -0.83801442
2.9959056 1.7962918 -0.77383733
3.2828319 1.9683278 -0.63813251
3.2628224 1.9563304 -0.42403966
3.2391102 1.9421129 -0.21095333
3.242521 1.944158 0
3.178834 1.9059725 0.20702773
2.2755291 1.3681076 -0.87548101
2.592406 1.5586222 -0.83455426
2.9893734 1.7972895 -0.7727105
3.2782533 1.9709716 -0.63770497
3.2604561 1.9602715 -0.42403966
3.2478938 1.9527186 -0.21167888
3.2557845 1.9574628 0
3.1765287 1.9098121 0.20702773
2.2802265 1.3746856 -0.87792671
2.5926673 1.5630476 -0.83524579
3.0176685 1.8192691 -0.78059196
3.2890558 1.9828811 -0.64027196
3.2425776 1.9548604 -0.42202133
3.2410769 1.9539558 -0.21138832
3.2578788 1.9640852 0
3.1630943 1.9069422 0.20630217
2.2933719 1.3863916 -0.88363224
2.6186934 1.5830554 -0.84424585
2.9937193 1.8097664 -0.77496201
3.282268 1.9842002 -0.63941681
3.2269366 1.9507512 -0.42029211
3.2098076 1.9403963 -0.20950165
3.2354522 1.9558991 0
3.1518929 1.9053857 0.20572162
2.3233931 1.4083762 -0.89585435
2.5996156 1.5758146 -0.83870858
3.0002217 1.818651 -0.77721357
3.2908423 1.9948169 -0.64155626
3.2157297 1.9492857 -0.41913897
3.2052407 1.9429276 -0.20935665
3.2486675 1.9692518 0
3.1584766 1.9145806 0.20630217
2.2794566 1.3855122 -0.87955821
2.6019931 1.5815582 -0.84009159
3.0023689 1.8249168 -0.7783404
0 0 -0
3.2001064 1.9451067 -0.41740865
3.2162092 1.9548944 -0.21022721
0 0 0
3.1450608 1.9116488 0.20557661
2.2693388 1.3831202 -0.87629831
2.5872309 1.5768696 -0.83593994
3.0044968 1.8311855 -0.77946514
3.2816322 2.0000944 -0.64070112
3.2088032 1.9557065 -0.41885093
3.2138448 1.9587791 -0.21022721
3.2750068 1.9960563 0
3.13609 1.9113892 0.20514105
2.3014009 1.406478 -0.88933462
2.6003022 1.5891486 -0.84078306
3.0066223 1.8374671 -0.78059196
3.2770164 2.0027156 -0.64027196
3.1976099 1.9541872 -0.41769776
3.2336516 1.9762137 -0.21167888
3.2970216 2.0149417 0
3.1360018 1.9165361 0.20528661
2.3039186 1.4118432 -0.89096612
2.6154928 1.6027761 -0.84632033
3.0000627 1.8384408 -0.77946514
3.268034 2.0026538 -0.63898927
3.1996527 1.9607497 -0.41827381
3.229048 1.9787631 -0.21153389
0 0 0
3.1336839 1.920324 0.20528661
2.2621982 1.3900396 -0.87548101
2.6007333 1.5980572 -0.84216875
3.0000019 1.8433934 -0.78002745
3.2787306 2.014662 -0.64155626
3.1862648 1.9578452 -0.41683263
0 0 -0
3.2721887 2.0106423 0
3.1202853 1.9173032 0.20456049
2.2647295 1.3953675 -0.87711251
2.5817132 1.5906706 -0.83663142
2.9912889 1.8430222 -0.7783404
3.2631848 2.0105455 -0.63898927
3.1838968 1.9616938 -0.41683263
0 0 -0
3.2387412 1.9954851 0
3.104697 1.9128965 0.20368993
2.3050959 1.4240837 -0.89341182
2.592591 1.6016978 -0.84078306
2.9955385 1.8506379 -0.78002745
3.256381 2.011786 -0.63813251
4.4048934 2.7213345 -0.57711434
0 0 -0
3.2141829 1.985716 0
3.1156428 1.9248382 0.20456049
2.2655492 1.403437 -0.87874085
2.6183772 1.622003 -0.8497805
2.991142 1.8529192 -0.77946514
3.262677 2.0211265 -0.63984436
4.3928151 2.7212119 -0.57596225
0 0 -0
3.1741726 1.9663008 0
3.1066942 1.9245002 0.20412549
2.2575591 1.4022648 -0.87629831
2.5908501 1.609286 -0.84147722
3.0040121 1.8659182 -0.78340584
3.2580538 2.0237143 -0.63941681
4.4114909 2.7401626 -0.57884467
0 0 -0
3.1452656 1.9536566 0
3.0933237 1.9213934 0.20339938
2.2768388 1.4180557 -0.88444644
2.5846407 1.6097602 -0.84009159
2.9974375 1.8668574 -0.78227901
3.2730381 2.0385065 -0.64284056
4.4059834 2.7441249 -0.57855666
0 0 -0
0 0 0
3.0976191 1.9292521 0.20383494
2.2688324 1.4168769 -0.88200074
2.625252 1.6394595 -0.85393482
3.0038002 1.8758614 -0.78453052
3.268389 2.0410962 -0.64241135
3.2597318 2.0356898 -0.4283632
0 0 -0
0 0 0
3.0886714 1.9288632 0.20339938
2.2754982 1.4248643 -0.88526058
2.5913725 1.6226574 -0.8435517
2.9864628 1.870054 -0.78059196
3.2593997 2.0409606 -0.64112872
3.2485011 2.0341363 -0.42721003
0 0 -0
3.1536052 1.9747148 0
3.1017568 1.9422485 0.2044155
2.3135481 1.4525847 -0.90074575
2.5702896 1.6137826 -0.83732295
2.9906507 1.8777106 -0.78227901
3.2677994 2.0517211 -0.64326811
3.2526145 2.0421872 -0.42807519
0 0 -0
3.1556208 1.9812888 0
3.1038134 1.9487609 0.20470606
2.2992373 1.4474759 -0.89585435
2.5810804 1.6249092 -0.84147722
2.9862313 1.8799704 -0.78171664
3.2653179 2.0556681 -0.64326811
3.2545264 2.0488746 -0.42865232
0 0 -0
3.1400144 1.9767839 0
3.0926604 1.9469724 0.20412549
2.3004591 1.4501866 -0.89667165
2.5737293 1.6224533 -0.83940005
2.9743497 1.8750005 -0.77890277
3.2619059 2.056273 -0.64284056
3.2620401 2.0563576 -0.42980549
0 0 -0
3.1234064 1.9689643 0
3.0914836 1.9488405 0.20412549
2.2694519 1.4344747 -0.88526058
2.584487 1.633602 -0.8435517
2.9914105 1.8908101 -0.78396821
3.2680986 2.0656991 -0.64455241
3.2508075 2.0547698 -0.42865232
0 0 -0
3.1122255 1.9671749 0
3.0891266 1.9525745 0.20412549
2.2551951 1.4292798 -0.88037235
2.5973465 1.6461258 -0.84839749
2.9869795 1.8930644 -0.78340584
3.2656002 2.0696464 -0.64455241
3.2526877 2.0614629 -0.42922837
3.1812356 2.0161786 -0.21037276
3.1054542 1.9681504 0
3.093343 1.9604747 0.20456049
2.2618105 1.4373062 -0.88363224
2.5635924 1.6290786 -0.83801442
2.9825473 1.8953108 -0.78284353
3.267426 2.0763419 -0.64540756
3.2567453 2.0695546 -0.4300935
3.1875696 2.0255957 -0.21095333
3.1030738 1.9719013 0
3.0975533 1.9683932 0.20499605
2.2579899 1.4387113 -0.88281804
2.5827839 1.6456586 -0.84493738
2.9823959 1.9002773 -0.78340584
3.2627521 2.0789101 -0.64498001
3.2607884 2.0776591 -0.43095866
3.171967 2.0210652 -0.2100822
3.0765436 1.9602648 0
3.097362 1.9735296 0.20514105
2.2458296 1.4347814 -0.87874085
2.5617683 1.6366235 -0.83870858
2.9800975 1.9038794 -0.78340584
3.2580764 2.0814703 -0.64455241
3.2582757 2.0815976 -0.43095866
3.180469 2.0318897 -0.21080777
3.0939088 1.9765894 0
3.0927875 1.975873 0.20499605
2.25034 1.4414948 -0.88118654
2.593581 1.661364 -0.8497805
2.9927659 1.9170688 -0.7873444
3.2598782 2.0881722 -0.64540756
3.2513981 2.0827401 -0.43038154
3.1780117 2.0357313 -0.21080777
3.1068604 1.9901541 0
3.1013358 1.9866152 0.20572162
2.2652335 1.4548984 -0.88770628
2.5873539 1.6617876 -0.84839749
2.9733522 1.9097039 -0.78284353
3.2681501 2.0990446 -0.64754695
3.2532358 2.0894656 -0.43095866
3.1668043 2.033953 -0.21022721
3.0891232 1.9840604 0
3.0989332 1.9903611 0.20572162
2.2593138 1.4549555 -0.88607478
2.5832369 1.6635557 -0.84770602
2.9774451 1.9174184 -0.78453052
3.2699323 2.1057744 -0.6484037
3.2724502 2.1073961 -0.43384105
3.1709003 2.0419998 -0.21066277
3.1064224 2.0004773 0
3.0943434 1.9926987 0.20557661
2.2534053 1.4550054 -0.88444644
2.5685754 1.6585081 -0.8435517
2.9665878 1.9155014 -0.78227901
3.2781663 2.1166852 -0.65054315
0 0 -0
3.1706114 2.0472379 -0.21080777
3.1061871 2.0056396 0
3.0984843 2.0006659 0.20601217
2.2620175 1.4644419 -0.88852048
2.6065845 1.6875165 -0.85670346
2.9749417 1.9259928 -0.78509504
3.2949982 2.133199 -0.65439445
0 0 -0
3.152873 2.0411866 -0.20979221
3.1125 2.0150487 0
3.102602 2.0086408 0.20644717
2.2747602 1.4765954 -0.89422601
2.5792921 1.6742735 -0.84839749
2.9832666 1.936502 -0.78790891
3.2988799 2.1413734 -0.65567875
3.2474337 2.1079786 -0.43153471
3.1373231 2.0365033 -0.20892109
3.103512 2.0145557 0
3.0914545 2.0067291 0.20586661
2.258472 1.4699041 -0.88852048
2.5667558 1.6705476 -0.84493738
2.9809246 1.9401053 -0.78790891
3.3027468 2.14956 -0.65696305
3.2275419 2.1006138 -0.42922837
3.1261487 2.0346229 -0.20834054
3.1163461 2.0282431 0
3.0933874 2.0133007 0.20615716
2.2670417 1.4793843 -0.89259452
2.5668344 1.6750176 -0.84562886
2.9764442 1.9423131 -0.7873444
3.2936954 2.1493392 -0.65567875
3.2228374 2.1030998 -0.42894036
3.1280444 2.0412416 -0.2086311
3.1029978 2.0248971 0
3.0887785 2.0156181 0.20601217
2.2404413 1.465889 -0.88281804
2.5585086 1.6739959 -0.8435517
2.9698467 1.9431285 -0.78621972
3.28895 2.1519132 -0.6552512
3.220294 2.1069925 -0.42894036
3.1168783 2.0393291 -0.20805053
8.0939245 5.2957401 0
3.0885129 2.0207701 0.20615716
2.2758634 1.4929954 -0.89748585
2.5522926 1.6743366 -0.84216875
2.9823704 1.956473 -0.79016048
3.3442948 2.1938999 -0.66680509
3.2199063 2.1122994 -0.42922837
3.1274436 2.0516429 -0.20892109
8.1136332 5.3226461 0
3.0991008 2.0330496 0.20702773
2.2410183 1.4740127 -0.88444644
2.5775139 1.6953402 -0.85116613
2.969384 1.9530897 -0.7873444
3.4081216 2.2416661 -0.68007082
3.2130339 2.1133487 -0.42865232
3.1206245 2.052567 -0.2086311
8.0854483 5.3181419 0
3.0944731 2.0353663 0.20688273
2.2392356 1.4767195 -0.88444644
2.5566163 1.6860242 -0.84493738
2.9691491 1.9580791 -0.78790891
3.4804182 2.2952483 -0.69505012
3.1975186 2.1086829 -0.42692202
3.1246436 2.0606239 -0.20906609
8.085536 5.3322077 0
3.0920117 2.0391037 0.20688273
2.2271433 1.4726094 -0.88037235
2.5713186 1.7001817 -0.85047466
2.9646554 1.9602598 -0.7873444
3.5140426 2.3235202 -0.70232517
3.1971235 2.1139703 -0.42721003
3.1286559 2.0686986 -0.20950165
8.0856018 5.3462811 0
3.0873802 2.0414066 0.20673773
2.2418425 1.486225 -0.88689208
2.5525346 1.6921976 -0.84493738
2.9538217 1.95823 -0.78509504
3.4727156 2.3022299 -0.69462091
3.1881058 2.1135483 -0.42634597
3.1304898 2.075352 -0.20979221
8.0921469 5.3646722 0
3.1173911 2.0666683 0.2089144
2.2359245 1.4861938 -0.88526058
2.5463052 1.6925005 -0.8435517
2.9662597 1.9716395 -0.78903359
3.3673213 2.2382205 -0.67408013
3.1855497 2.117399 -0.42634597
3.1171534 2.0719368 -0.20906609
8.0834932 5.3730068 0
3.1062357 2.0646799 0.20833385
2.2329705 1.4861761 -0.88444644
2.5640767 1.7065473 -0.8497805
2.9650681 1.9734312 -0.78903359
3.2890356 2.1890509 -0.65867329
3.1907232 2.1236184 -0.42721003
3.1375368 2.0882194 -0.21051776
8.0824099 5.3793302 0
3.1179707 2.0751972 0.20920496
2.2499108 1.5053093 -0.89259452
2.5787172 1.7252982 -0.85601193
2.9666278 1.984831 -0.79072279
3.4352138 2.2983396 -0.68905777
3.1748354 2.1241329 -0.42576885
3.1260002 2.0914593 -0.2100822
8.0780392 5.404635 0
9.3799505 6.2756829 0.63037771
2.2337282 1.4983927 -0.88689208
2.564126 1.7200247 -0.85185766
2.9431305 1.9742621 -0.78509504
3.4878583 2.3396676 -0.70018405
3.1744208 2.1294124 -0.42605796
3.121315 2.0937889 -0.20993721
8.0693436 5.4129434 0
9.3831482 6.2942486 0.63110322
2.2544701 1.5162596 -0.89585435
2.5828674 1.7371253 -0.85878062
2.9512827 1.9849056 -0.78790891
3.4807725 2.3410177 -0.69932896
3.1761339 2.1361308 -0.42663401
3.1166286 2.0961101 -0.20979221
8.0692778 5.4270482 0
9.384161 6.3113823 0.63168383
2.2546916 1.5203683 -0.89667165
2.5433216 1.7149953 -0.84632033
2.9467695 1.9870455 -0.7873444
3.4609141 2.3337402 -0.69590521
3.1735504 2.139967 -0.42663401
3.1442511 2.1202099 -0.21182388
8.0670252 5.4397016 0
0 0 0
2.2426093 1.5161661 -0.89259452
2.5578742 1.7293081 -0.85185766
2.9570003 1.9991461 -0.79072279
3.3666518 2.2761002 -0.67750388
3.1645319 2.1394527 -0.42576885
3.1502976 2.1298292 -0.21240444
8.0690708 5.4552755 0
9.3688812 6.3340416 0.63168383
2.2285042 1.5105567 -0.88770628
2.5474763 1.7267669 -0.84908903
2.9545825 2.0027175 -0.79072279
3.2895331 2.2297587 -0.66252625
3.1640918 2.1447301 -0.42605796
3.1434159 2.1307154 -0.21211389
8.0667772 5.4679394 0
9.3741302 6.3541079 0.63255489
2.2389386 1.5215811 -0.89259452
2.5889599 1.7594553 -0.86362374
2.9500608 2.0048594 -0.79016048
3.2910788 2.2366149 -0.66338134
3.1465213 2.1383736 -0.42403966
3.1451414 2.1374359 -0.21240444
8.0601645 5.4776826 0
9.3578491 6.3595877 0.63197434
2.2187176 1.5117612 -0.88526058
2.5640323 1.7470473 -0.85601193
2.9539297 2.0127106 -0.79184747
3.3732312 2.2984087 -0.68050003
3.1375208 2.1378036 -0.4231745
3.1447017 2.1426964 -0.21254943
8.0599947 5.4918151 0
9.3608932 6.3782043 0.63269991
2.2291384 1.5228088 -0.89015198
2.5412002 1.73599 -0.84908903
2.9493995 2.0148463 -0.79128516
3.4615917 2.3647442 -0.69890141
3.1199834 2.1313787 -0.42115617
3.1485493 2.1508932 -0.21298499
8.0533524 5.5015502 0
9.3596182 6.3939095 0.6331355
2.2252517 1.5241004 -0.88933462
2.54738 1.7447299 -0.85185766
2.9427741 2.0155399 -0.79016048
3.4926105 2.3921292 -0.70574725
3.1110101 2.1307666 -0.42029211
3.133081 2.1458833 -0.21211389
8.0509977 5.5142212 0
9.3561687 6.4081478 0.63342547
2.2356372 1.5351855 -0.89422601
2.5411377 1.744969 -0.85047466
2.9508076 2.0262845 -0.79297435
3.4791386 2.3890831 -0.7036078
3.108433 2.1345241 -0.42029211
3.1540504 2.165849 -0.21371056
8.0464725 5.5254169 0
9.3505669 6.4209232 0.63357103
2.2215619 1.5294735 -0.88933462
2.5493574 1.7551501 -0.85393482
2.9420764 2.0255244 -0.79128516
3.4593341 2.3816395 -0.70018405
3.1058517 2.1382785 -0.42029211
3.166415 2.1799743 -0.21472667
8.0526476 5.5439873 0
9.3449402 6.4336891 0.63371605
2.235985 1.5433891 -0.89585435
2.5327802 1.7482519 -0.84908903
2.9375377 2.0276358 -0.79072279
3.4163194 2.358115 -0.69205391
3.1053922 2.1434975 -0.42058015
3.1766055 2.1926525 -0.21559723
8.0459433 5.5537133 0
9.3457136 6.4508801 0.6342966
2.2361567 1.5475003 -0.89667165
2.5347958 1.754169 -0.85047466
2.9350855 2.031184 -0.79072279
3.3269229 2.3023493 -0.67450768
3.1028001 2.1472483 -0.42058015
3.1782312 2.1994493 -0.21588778
8.0477867 5.569355 0
9.3357697 6.4606853 0.63415104
2.2220972 1.5417447 -0.89178032
2.5512233 1.7701002 -0.85670346
2.938894 2.0390756 -0.79241198
3.2650912 2.265399 -0.66252625
3.1108265 2.1583664 -0.42202133
3.1841109 2.209213 -0.21646835
8.0324984 5.5731411 0
9.3322296 6.474926 0.63444161
2.2303758 1.5514841 -0.89585435
2.5470252 1.7717505 -0.85601193
2.9364281 2.0426252 -0.79241198
3.2391684 2.253216 -0.6578182
3.1252027 2.1739397 -0.42432767
3.1835701 2.2145412 -0.21661335
8.0279007 5.5843329 0
9.324399 6.4861975 0.63444161
2.2487762 1.5683192 -0.90400559
2.5469382 1.7762604 -0.85670346
2.9360399 2.0476239 -0.79297435
3.2427623 2.2615352 -0.6591025
3.1353068 2.1865945 -0.42605796
3.1915467 2.2258167 -0.2173389
8.0254126 5.5970039 0
9.316555 6.4974594 0.63444161
2.2468796 1.5710353 -0.90400559
2.5468442 1.7807728 -0.85739493
2.9314833 2.0497155 -0.79241198
3.2421291 2.2669213 -0.65953004
3.1517379 2.2037191 -0.42865232
3.1909823 2.231159 -0.21748391
8.0314369 5.6156416 0
9.3214703 6.517643 0.63531214
2.2085462 1.548209 -0.88933462
2.5446906 1.7838489 -0.85739493
2.9248393 2.0503361 -0.79128516
3.2309794 2.2649429 -0.6578182
3.1511886 2.2090089 -0.42894036
3.1861584 2.2335231 -0.2173389
8.0331697 5.6313176 0
9.3157225 6.5303974 0.63545769
2.210722 1.5537214 -0.89096612
2.5220118 1.7724996 -0.85047466
2.9389904 2.065557 -0.79578823
3.2240438 2.2658961 -0.65696305
3.1337023 2.2024028 -0.42692202
3.1813333 2.2358785 -0.2171939
8.0306225 5.6440158 0
9.316328 6.5476255 0.63603824
2.1987429 1.5492748 -0.88689208
2.5280714 1.7813257 -0.85324329
2.9240339 2.0603282 -0.79241198
3.2171028 2.26683 -0.65610629
3.1352715 2.2091701 -0.42749915
3.1764991 2.23822 -0.21704835
8.0344315 5.6612086 0
9.3147764 6.5633631 0.63647324
2.2179983 1.5648487 -0.89504015
2.5433941 1.794423 -0.85878062
2.9331677 2.069417 -0.79522586
3.2199318 2.2717357 -0.65696305
3.1402705 2.2155328 -0.4283632
3.1793969 2.2431374 -0.2173389
8.0203791 5.6585617 0
9.3129311 6.5704861 0.63661826
2.2080345 1.5618184 -0.89178032
2.5494089 1.8032843 -0.86154658
2.9285927 2.0714939 -0.79466355
3.2108951 2.2711761 -0.65567875
3.1333721 2.2163413 -0.42778718
3.1766841 2.2469776 -0.2173389
8.0262804 5.6772628 0
9.300746 6.5787358 0.63632828
2.2000954 1.5601946 -0.88933462
2.536998 1.7991087 -0.85808647
2.9322994 2.0794361 -0.7963506
3.2102406 2.2765377 -0.65610629
3.1222525 2.2141409 -0.42663401
3.1739669 2.2508142 -0.2173389
8.0215435 5.688467 0
9.3012686 6.5959816 0.63690883
2.1941836 1.5599903 -0.88770628
2.5307369 1.7992682 -0.85670346
2.9318535 2.0844486 -0.79691291
3.2074873 2.2804151 -0.65610629
3.1259007 2.2224097 -0.42749915
3.1733606 2.2561519 -0.21748391
8.0252676 5.7056937 0
9.2975235 6.6102242 0.63719881
2.1943078 1.5640737 -0.88852048
2.5346916 1.8066947 -0.85878062
2.9231315 2.0835695 -0.79522586
3.1921914 2.2753518 -0.65353936
3.1295257 2.2306845 -0.4283632
3.1748681 2.2630041 -0.21777447
8.0331964 5.725956 0
9.3043432 6.6320124 0.63821495
2.2386694 1.5997769 -0.90726542
2.5325067 1.809756 -0.85878062
2.9288809 2.0930092 -0.79747742
3.1915262 2.2806983 -0.6539669
3.1436632 2.2464948 -0.43066955
3.170011 2.2653234 -0.21762891
8.0347414 5.7417111 0
9.3111229 6.6538272 0.63923103
2.1824851 1.563614 -0.88526058
2.5384679 1.8186536 -0.86154658
2.9118893 2.0861866 -0.79353666
3.1908529 2.2860465 -0.65439445
3.1409464 2.2502918 -0.43066955
3.16939 2.2706697 -0.21777447
8.0426092 5.7620263 0
9.3072977 6.6680965 0.63952106
2.1986592 1.5792255 -0.89259452
2.5260825 1.8144031 -0.85808647
2.9134977 2.0926709 -0.79466355
3.1943452 2.2943947 -0.65567875
3.1508336 2.2631416 -0.43239984
3.1666441 2.2744977 -0.21777447
8.0483189 5.7808466 0
9.3055668 6.683887 0.63995659
2.1867228 1.5746609 -0.88852048
2.5279639 1.8203889 -0.8594721
2.9233346 2.1050959 -0.79803979
3.1790676 2.2892492 -0.65311015
3.1501937 2.2684572 -0.43268788
3.1681066 2.2813563 -0.21806446
8.0540037 5.799695 0
9.3016968 6.6981597 0.64024663
2.2108679 1.5961081 -0.89911425
2.517626 1.8175682 -0.85670346
2.922847 2.1101124 -0.7986021
3.1846247 2.2990992 -0.65482199
3.1474502 2.2722619 -0.43268788
3.1590254 2.2806182 -0.21762891
8.0554304 5.815516 0
9.2978144 6.7124391 0.64053714
2.1929202 1.5871851 -0.89259452
2.5133977 1.8191394 -0.85601193
2.9120619 2.1076834 -0.7963506
3.1818442 2.3029456 -0.65482199
3.1384146 2.2715123 -0.43182272
3.1646872 2.2905278 -0.21820946
8.0736961 5.8435559 0
9.2875938 6.722147 0.64039218
2.2170045 1.6087027 -0.90318829
2.5132265 1.823647 -0.85670346
2.9136302 2.114188 -0.79747742
3.181143 2.3083005 -0.6552512
3.1231112 2.2661915 -0.4300935
3.159816 2.2928255 -0.21806446
8.0918989 5.8716421 0
9.2815657 6.7348886 0.64053714
2.207072 1.60557 -0.89993155
2.519136 1.8325858 -0.8594721
2.9172318 2.1221869 -0.79916447
3.1783516 2.3121426 -0.6552512
4.3480716 3.1630743 -0.5993126
3.1570435 2.2966418 -0.21806446
8.1121626 5.9013228 0
9.279727 6.7506862 0.64097273
2.193145 1.5994943 -0.89504015
2.4986792 1.8223251 -0.85324329
2.9064536 2.1197214 -0.79691291
3.1817718 2.3205149 -0.6565339
4.3609643 3.1805184 -0.60161889
3.1500711 2.2973955 -0.21777447
8.1134291 5.9172487 0
9.2778559 6.7664828 0.64140773
2.1872241 1.5992284 -0.89341182
2.5268471 1.8475498 -0.86362374
2.9120946 2.1292305 -0.79916447
3.1706765 2.3182971 -0.65482199
3.1566341 2.3080299 -0.43585935
3.151484 2.3042643 -0.21806446
8.1188822 5.9362669 0
9.2738724 6.7807589 0.6416983
2.1952555 1.6091747 -0.89748585
2.5064044 1.8372544 -0.85739493
2.917717 2.1387563 -0.80141598
3.1637361 2.3190942 -0.6539669
3.1538429 2.3118422 -0.43585935
3.1528931 2.311146 -0.21835501
8.1201 5.9522271 0
9.2719536 6.7965636 0.6421333
2.2092426 1.6235352 -0.90400559
2.512269 1.8462241 -0.86016357
2.9110396 2.1392739 -0.8002913
3.1629982 2.324434 -0.65439445
3.1427104 2.3095248 -0.43470618
3.1563737 2.3195658 -0.21879002
8.1296787 5.9743633 0
9.2637339 6.8077621 0.6421333
2.1873767 1.6115402 -0.89585435
2.5261946 1.8611629 -0.8657009
2.91254 2.1458011 -0.80141598
3.1725917 2.337393 -0.65696305
4.3517823 3.2061567 -0.60248297
3.1472986 2.3187585 -0.21835501
8.1329279 5.991899 0
9.2638693 6.8251157 0.64271384
2.169523 1.6024346 -0.88933462
2.4977121 1.8448387 -0.85670346
2.9079032 2.1478107 -0.80085367
3.1676943 2.3396952 -0.6565339
4.3333478 3.2006602 -0.60046571
3.150759 2.3271866 -0.21879002
8.1403379 6.0125465 0
9.2577124 6.8378525 0.6428594
2.1735461 1.6094688 -0.89178032
2.5055602 1.8553187 -0.86016357
2.9053059 2.1513226 -0.80085367
3.1689949 2.3465793 -0.65739065
4.3440218 3.2166638 -0.60248297
3.1479447 2.330992 -0.21879002
8.1393356 6.02702 0
9.2515297 6.8505783 0.64300442
2.1894588 1.6253517 -0.89911425
2.5073414 1.8613328 -0.86154658
2.900666 2.1533184 -0.8002913
3.1620309 2.3473434 -0.6565339
4.3318248 3.2157435 -0.6013298
3.1534715 2.3409894 -0.21937057
8.1445885 6.0461612 0
9.2474136 6.8648467 0.64329439
2.1874933 1.627996 -0.89911425
2.5030799 1.8628646 -0.8608551
2.9000983 2.1583374 -0.80085367
3.1633148 2.3542306 -0.65739065
4.3258629 3.2194326 -0.60104179
3.1506405 2.3447981 -0.21937057
8.1351833 6.0544395 0
9.2516232 6.8853264 0.64416552
2.1657186 1.6158606 -0.89096612
2.4948006 1.8613913 -0.85878062
2.9097114 2.1709597 -0.80423206
3.1645789 2.3611186 -0.65824574
4.3281908 3.2292988 -0.60190696
3.1498935 2.3501616 -0.21951613
8.1466408 6.0782762 0
9.2412167 6.894948 0.6440205
2.1706841 1.6216078 -0.89341182
2.4976914 1.8658983 -0.86016357
2.9063578 2.1711922 -0.80366755
3.163152 2.36303 -0.65824574
4.3241692 3.2303667 -0.60161889
3.1380587 2.3442841 -0.21879002
8.14505 6.0847526 0
9.2495356 6.9098573 0.64489108
2.206305 1.6523758 -0.90889382
2.501461 1.873428 -0.86224073
2.9037323 2.1747024 -0.80366755
3.1541362 2.3622382 -0.65696305
4.324399 3.2386873 -0.60219496
3.1352239 2.348074 -0.21879002
8.1481056 6.1023889 0
9.2432575 6.922585 0.6450361
2.1687336 1.6283313 -0.89422601
2.4971836 1.8749385 -0.86154658
2.8990724 2.1766851 -0.80310518
3.1410093 2.3583364 -0.65482199
4.3142757 3.2392497 -0.6013298
3.1282325 2.3487434 -0.21850002
8.1407261 6.1122298 0
9.2494335 6.9446712 0.64605218
2.1924338 1.6502723 -0.90481979
2.4889088 1.8734326 -0.8594721
2.8923841 2.1771333 -0.8019805
3.1422634 2.3652208 -0.65567875
4.3165598 3.2491281 -0.60219496
3.1316223 2.3572109 -0.21893558
8.147891 6.133019 0
9.2431097 6.9574032 0.6461972
2.1884673 1.6514328 -0.90400559
2.5066652 1.8915473 -0.86639237
2.8958302 2.1852138 -0.80366755
3.137356 2.367471 -0.6552512
4.320889 3.2605734 -0.60334814
3.1287718 2.3609931 -0.21893558
8.1404753 6.1428599 0
9.2367687 6.9701304 0.64634222
2.1943548 1.6600405 -0.90726542
2.4903708 1.8839782 -0.86154658
2.8931875 2.1887112 -0.80366755
3.1529164 2.3851974 -0.6591025
4.3148856 3.2642331 -0.60306013
3.1300573 2.3679044 -0.21922557
8.1371937 6.1558285 0
9.2324877 6.9844246 0.64663273
2.1509936 1.6313279 -0.89015198
2.4860954 1.8854715 -0.8608551
2.8905408 2.1922054 -0.80366755
3.1888883 2.4184742 -0.66723263
3.1321929 2.3754759 -0.43816459
3.1189122 2.3654039 -0.21864502
8.1401157 6.1735182 0
9.2261105 6.9971437 0.64677775
2.172631 1.6518768 -0.89993155
2.4878135 1.8915137 -0.86224073
2.8838484 2.1926239 -0.80254287
3.2554386 2.4751482 -0.68178272
3.1252062 2.3761311 -0.43758857
3.1388071 2.386472 -0.2202417
8.1305809 6.1817756 0
9.223856 7.0130062 0.64721328
2.1765249 1.6589913 -0.90237409
2.4895127 1.8975571 -0.86362374
2.881197 2.1961067 -0.80254287
3.3810616 2.5771139 -0.70874339
3.1367342 2.3908825 -0.43960688
3.1400504 2.3934102 -0.22053169
8.1313839 6.197906 0
9.2257071 7.0320206 0.64793885
2.1666632 1.6556174 -0.89911425
2.4892097 1.9020855 -0.86431521
2.8845999 2.2042162 -0.80423206
3.4350579 2.6248388 -0.72072649
3.1400025 2.3993776 -0.44047093
3.0979333 2.3672311 -0.21777447
8.1342268 6.2156258 0
9.2172031 7.0431628 0.64793885
2.1725092 1.6642463 -0.90237409
2.4809406 1.9005194 -0.86224073
2.8940332 2.2169681 -0.80760825
3.4339197 2.630547 -0.72115403
3.1350498 2.4015985 -0.44018292
6.1746144 4.7300506 -0.43445641
8.1349745 6.2317805 0
9.2107468 7.0558739 0.64808387
2.16658 1.6638622 -0.90074575
2.4846058 1.9080955 -0.86431521
2.881278 2.2127268 -0.80479437
3.4429505 2.6440728 -0.72372103
0 0 -0
6.1791968 4.74542 -0.43518198
8.1212444 6.2368484 0
9.2083988 7.0717473 0.6485194
2.1841486 1.6815537 -0.90889382
2.4743469 1.9049745 -0.86154658
2.8886671 2.2239554 -0.80760825
3.4458573 2.6529305 -0.72500533
0 0 -0
6.18993 4.765564 -0.43634307
8.1219511 6.2530074 0
9.2039614 7.0860362 0.64880943
2.1586359 1.66607 -0.89911425
2.4780033 1.9125628 -0.86362374
2.8819511 2.2243361 -0.80648142
3.4365509 2.6523852 -0.72372103
3.1201789 2.4082046 -0.43931776
6.1697659 4.7619247 -0.43532696
8.1267548 6.2723603 0
9.2015657 7.1019168 0.64924496
2.1546683 1.667166 -0.89830005
2.4776728 1.9170895 -0.86431521
2.875246 2.22471 -0.80535674
3.445529 2.6659644 -0.72628969
3.1090844 2.4056416 -0.43816459
6.1783953 4.7805085 -0.43634307
8.1274033 6.2885456 0
9.1970921 7.1162128 0.64953554
2.1643662 1.6788546 -0.90318829
2.4733741 1.9185456 -0.86362374
2.8785808 2.232856 -0.80704594
3.4402788 2.6685538 -0.72586209
3.1061754 2.4093966 -0.43816459
6.1746659 4.7895617 -0.43648809
8.1321335 6.307929 0
9.1925888 7.1305027 0.64982551
2.1896555 1.7027125 -0.91459936
2.4710541 1.9215329 -0.86362374
2.8738692 2.2347684 -0.80648142
3.4411008 2.6758573 -0.72671723
3.1053095 2.4147403 -0.4384537
6.1770792 4.8033996 -0.43706864
8.1409407 6.3305311 0
9.1921711 7.1479855 0.65040612
2.1544604 1.6795257 -0.90074575
2.4707072 1.9260582 -0.86431521
2.8771803 2.2429273 -0.80817062
3.4297669 2.6737001 -0.72500533
3.0881083 2.4073577 -0.4364354
6.1774206 4.8156538 -0.4375042
8.1373949 6.3435664 0
9.1794252 7.155889 0.65011555
2.1699548 1.6958237 -0.90807962
2.4683781 1.9290421 -0.86431521
2.8744681 2.2464023 -0.80817062
3.4265337 2.6778424 -0.72500533
3.0913131 2.4158669 -0.43730053
6.1838775 4.8327117 -0.43837476
8.1420231 6.3630066 0
9.1728249 7.1685801 0.6502611
2.1639082 1.6995375 -0.90726542
2.4794931 1.9473983 -0.86985254
2.8710275 2.25491 -0.80873299
3.4402368 2.7019682 -0.72928423
3.0854659 2.4233303 -0.43730053
6.1905704 4.8620849 -0.43968087
8.1327648 6.3874879 0
9.1718225 7.2035661 0.6514222
2.152138 1.6945015 -0.90318829
2.4771383 1.9503928 -0.86985254
2.8643119 2.2552369 -0.80760825
3.4188192 2.6918323 -0.72543293
3.086596 2.4302537 -0.43787658
6.1785722 4.8647437 -0.43924588
8.1311693 6.4021354 0
9.171279 7.2210732 0.65200275
2.1705275 1.7111059 -0.91133946
2.472023 1.9487858 -0.86846954
2.8709304 2.2632592 -0.80985981
3.43332 2.7066112 -0.72885662
3.0770023 2.4257131 -0.43672341
6.1878719 4.8781247 -0.44011644
8.1538668 6.4279904 0
9.1730299 7.2314339 0.65243775
2.1684585 1.7137274 -0.91133946
2.4637597 1.9471031 -0.86639237
2.8662021 2.2651525 -0.80929744
3.4381032 2.7171245 -0.73056853
3.0862486 2.4390547 -0.4384537
6.1962457 4.8968778 -0.44113255
8.1440544 6.4362259 0
9.1704035 7.2473474 0.65287334
2.1605725 1.7117403 -0.90889382
2.4712353 1.9578668 -0.86985254
2.8634629 2.2686141 -0.80929744
3.4267693 2.7149003 -0.72885662
3.0792406 2.4395666 -0.43787658
6.2045751 4.9156518 -0.44214809
8.1444311 6.4525266 0
9.159605 7.2568107 0.65272832
2.1372182 1.697445 -0.89993155
2.4669051 1.9592925 -0.86916101
2.8646953 2.2752299 -0.81042218
3.4295187 2.7238302 -0.73014098
3.0722437 2.4400713 -0.43730053
6.1945653 4.9199162 -0.44185811
8.1447802 6.4688373 0
9.1630344 7.2775664 0.6535989
2.1428926 1.7061784 -0.90318829
2.4723866 1.9685225 -0.87192971
2.861944 2.2786896 -0.81042218
3.4362643 2.7359655 -0.73228037
3.0753577 2.4486103 -0.43816459
6.1865854 4.9257803 -0.44171309
8.1491776 6.4884033 0
9.1542349 7.2886329 0.6535989
2.1427667 1.7103127 -0.90400559
2.4621632 1.9652483 -0.86916101
2.8591886 2.282146 -0.81042218
3.4349604 2.7417154 -0.73270792
3.0865493 2.4636207 -0.44018292
6.2131147 4.9591818 -0.44403479
8.153532 6.5079832 0
9.1535444 7.3061724 0.65417945
2.1484179 1.7190773 -0.90726542
2.4597867 1.968222 -0.86916101
2.8663468 2.293535 -0.81323606
3.4316452 2.7458639 -0.73270792
3.0775096 2.4624989 -0.43931776
6.2091527 4.9683132 -0.44418034
8.1598883 6.5292134 0
9.1406555 7.3139834 0.65388942
2.1617632 1.7340442 -0.91378516
2.4574068 1.9711927 -0.86916101
2.8556454 2.2906373 -0.81098449
3.4283247 2.7500083 -0.73270792
3.0765553 2.4678388 -0.43960688
6.2153025 4.9855647 -0.4450509
8.1438732 6.5325546 0
9.1419439 7.3331509 0.65461498
2.1481059 1.7273589 -0.90889382
2.4569762 1.9757313 -0.86985254
2.8548613 2.2956829 -0.81154901
3.4230008 2.7525415 -0.73228037
4.2869177 3.4472444 -0.61314952
6.1971283 4.983304 -0.44418034
8.1582775 6.5603251 0
9.1350994 7.3458185 0.65476
2.1498694 1.7330586 -0.91052532
2.4604485 1.9834236 -0.87192971
2.8501015 2.2975316 -0.81098449
3.4196725 2.7566757 -0.73228037
4.2968469 3.4637861 -0.6151678
6.2113285 5.007093 -0.44563144
8.1888428 6.6012125 0
9.1262169 7.3568511 0.65476
2.1381564 1.7278831 -0.90644813
2.4482958 1.9785123 -0.86846954
2.8453488 2.2993782 -0.81042218
3.4243255 2.7672596 -0.73399228
4.3027153 3.4771025 -0.61660904
6.207293 5.0162263 -0.44577643
8.4662514 6.8417315 0
9.1274242 7.3760376 0.65548557
2.1283851 1.7242421 -0.90318829
2.4537008 1.9877861 -0.87123817
2.8484933 2.3076143 -0.81211138
3.4209793 2.7713952 -0.73399228
4.2904716 3.4757864 -0.61545587
6.2133455 5.0335398 -0.44664755
8.5651531 6.9387803 0
9.1205225 7.3886952 0.65563053
2.1454899 1.742397 -0.91133946
2.4590869 1.9970757 -0.87400681
2.8535924 2.3174617 -0.81436288
3.4076664 2.7674367 -0.73185283
4.2862687 3.480968 -0.61545587
6.205236 5.0394011 -0.446502
8.5628166 6.954042 0
9.1236944 7.4095416 0.65650165
2.1472127 1.748106 -0.91296786
2.4449952 1.990539 -0.86985254
2.8429084 2.3144913 -0.81211138
3.4222348 2.7861373 -0.73570412
4.2920866 3.494308 -0.61689705
6.2092233 5.0551028 -0.44722813
8.5806437 6.9857421 0
9.1147346 7.4205604 0.65650165
2.1412728 1.7475766 -0.91133946
2.4503627 1.9998369 -0.87262118
2.8460171 2.322746 -0.81380057
3.4109106 2.7837777 -0.73399228
4.2898631 3.5011253 -0.61718506
6.223238 5.0790281 -0.44867924
8.5742178 6.9977551 0
9.117836 7.4414229 0.65737224
2.1449003 1.7548594 -0.91378516
2.4440649 1.999622 -0.87123817
2.8451731 2.3277905 -0.81436288
3.4075446 2.7878971 -0.73399228
4.2856297 3.5063064 -0.61718506
6.2191057 5.0881877 -0.44882423
8.5738134 7.0147023 0
9.1068287 7.4507909 0.65722722
2.1561503 1.7684171 -0.9194876
2.4358256 1.9977993 -0.86916101
2.8364627 2.3263912 -0.81267369
3.4140959 2.8001506 -0.73613167
4.2873917 3.5164044 -0.61805022
6.2049165 5.0891075 -0.44824368
8.5693521 7.0283546 0
9.10987 7.471673 0.6580978
2.1349239 1.7553271 -0.91133946
2.4489129 2.0134876 -0.87469834
2.8473902 2.3411143 -0.81661445
3.4107099 2.8042738 -0.73613167
4.2951231 3.531435 -0.61977941
6.2248535 5.118053 -0.45013034
8.5508041 7.0304413 0
9.09482 7.4777293 0.65766281
2.1423359 1.765764 -0.91541356
2.4348662 2.0068743 -0.8705467
2.8386753 2.3397033 -0.81492525
3.4152427 2.8149238 -0.73784357
4.2968426 3.5415592 -0.62064457
6.2246823 5.1305304 -0.4505659
8.5543489 7.0506964 0
9.101819 7.5019345 0.65882391
2.1421044 1.769924 -0.9162277
2.4421077 2.0178032 -0.87400681
2.8417244 2.3479884 -0.81661445
3.403923 2.8125079 -0.73613167
4.2786083 3.5352209 -0.61862731
6.2184782 5.1380477 -0.4505659
8.5518436 7.0660019 0
9.0967503 7.5162339 0.65911388
2.1418657 1.7740861 -0.9170419
2.4319394 2.0143514 -0.87123817
2.831058 2.3449371 -0.81436288
3.3906393 2.8084328 -0.73399228
4.2822938 3.5469813 -0.61977941
6.2222691 5.1538439 -0.45129147
8.5432997 7.0763302 0
9.0876617 7.5272202 0.65911388
2.1245155 1.7640476 -0.91052532
2.4352887 2.0220916 -0.87331265
2.8360419 2.3548489 -0.81661445
3.4050164 2.8272853 -0.73784357
4.2680569 3.5438931 -0.61833823
6.2220368 5.1663399 -0.45172703
8.5407515 7.0916371 0
9.0845594 7.5431767 0.65954947
2.1348493 1.7748082 -0.91541356
2.4282846 2.0187557 -0.87123817
2.8404746 2.3614304 -0.81830144
3.3954117 2.8227775 -0.73613167
4.2818265 3.5596991 -0.62064457
6.2249107 5.1750832 -0.45216259
8.5464697 7.105113 0
9.0859966 7.5536489 0.65998501
2.1251085 1.771057 -0.91215366
2.4431868 2.0361421 -0.87746698
2.8356693 2.3632357 -0.81773913
3.4018567 2.835094 -0.73827112
4.2814999 3.5681851 -0.62122166
6.2406044 5.2008953 -0.45375869
8.5338764 7.1120987 0
9.0768633 7.5646219 0.65998501
2.1172748 1.7688681 -0.90970796
2.4253223 2.0262251 -0.87192971
2.8347597 2.3682878 -0.81830144
3.4102526 2.8490806 -0.74083972
4.2712288 3.5683794 -0.62035656
6.2363157 5.210103 -0.45390427
8.53127 7.1274123 0
9.0736923 7.5805769 0.66042
2.1208224 1.7761874 -0.91215366
2.4247937 2.0307634 -0.87262118
2.8318961 2.3717113 -0.81830144
3.3930292 2.84166 -0.73784357
4.2748456 3.5801806 -0.62150973
6.2439547 5.2293081 -0.45491982
8.5326262 7.146069 0
9.0724945 7.5982089 0.66100055
2.1262462 1.7851056 -0.91541356
2.4300239 2.0401442 -0.87538981
2.8231959 2.3702347 -0.81661445
3.4033575 2.8573136 -0.74083972
4.2724953 3.5870047 -0.62179774
6.2376313 5.2368488 -0.45491982
8.5180111 7.1513586 0
9.0752516 7.6191936 0.66187167
2.1127453 1.7781274 -0.91052532
2.4217968 2.0382311 -0.87331265
2.8281059 2.3801887 -0.81886595
3.3999023 2.8614237 -0.74083972
4.2701349 3.5938284 -0.62208575
6.2332854 5.2460537 -0.4550648
8.5332499 7.1817489 0
9.0660381 7.6301537 0.66187167
2.1275952 1.7950217 -0.9178592
2.4270022 2.047627 -0.87608135
2.8310485 2.388515 -0.820553
3.3905544 2.8605621 -0.73955542
4.2657895 3.5989854 -0.62208575
6.2368779 5.2619643 -0.45579094
8.5365047 7.2021265 0
9.054821 7.6394224 0.66172612
2.1235323 1.7959905 -0.9170419
2.4264472 2.0521827 -0.8767755
2.8165236 2.3820922 -0.81717676
3.3910193 2.8679755 -0.74041218
4.2574921 3.6008 -0.62150973
6.2285256 5.2678137 -0.45564538
8.5536261 7.2342825 0
9.0535192 7.6570697 0.66230667
2.1213605 1.798555 -0.9170419
2.4086573 2.042134 -0.87123817
2.8213956 2.3920662 -0.81942832
3.3816755 2.867089 -0.73912787
4.2649713 3.6159744 -0.62323892
6.2380118 5.2887788 -0.45680648
8.5686998 7.2648087 0
9.0502081 7.6730461 0.66274226
2.1116598 1.7947205 -0.91378516
2.417654 2.0547879 -0.87538981
2.8165689 2.3938298 -0.81886595
3.382117 2.8744946 -0.73998296
4.2625756 3.6228049 -0.623528
6.2415147 5.3047247 -0.45753205
8.5658665 7.2802148 0
9.0468721 7.6890259 0.66317779
2.1282997 1.8132968 -0.92193323
2.4342694 2.0739808 -0.88231277
2.8194711 2.4021702 -0.820553
3.4060016 2.9018898 -0.74597532
4.2562203 3.6262705 -0.62323892
6.2390599 5.3156362 -0.45782259
8.5729036 7.3040552 0
9.0415268 7.7033186 0.66346782
2.1073165 1.7998184 -0.91378516
2.4222178 2.0687695 -0.87884998
2.8281629 2.4154794 -0.8239314
3.4005349 2.9043312 -0.7455461
4.265605 3.6431708 -0.62525725
6.2444839 5.333293 -0.45869318
8.5660572 7.3161039 0
9.0361681 7.7176166 0.6637584
2.1314213 1.8248645 -0.92519313
2.4101896 2.0635383 -0.87538981
2.8155935 2.4106338 -0.82111752
3.3911788 2.9034343 -0.74426347
4.2572665 3.6449547 -0.6246801
6.2498817 5.3509774 -0.45956427
8.5651178 7.3332191 0
9.0347319 7.7352891 0.66433895
2.1085823 1.8097302 -0.9162277
2.4134076 2.0713522 -0.87746698
2.810745 2.4123747 -0.820553
3.3954599 2.9142172 -0.74597532
4.2508984 3.6484132 -0.62439209
6.2493215 5.3635974 -0.45999926
8.5542707 7.3418632 0
9.0273485 7.7478909 0.6644839
2.1157601 1.820335 -0.92030174
2.4147029 2.0775361 -0.87884998
2.8097599 2.4174311 -0.82111752
3.3958244 2.921663 -0.74683046
4.250412 3.656924 -0.62496924
6.2546582 5.3813162 -0.46087039
8.5473719 7.3538961 0
9.0258589 7.7655716 0.66506451
2.113559 1.8228902 -0.92030174
2.41979 2.0870063 -0.88161862
2.8029847 2.4175022 -0.81999063
3.3806319 2.9157078 -0.74426347
4.2459903 3.6620572 -0.62496924
6.2442122 5.3854723 -0.46057984
8.5404482 7.3659167 0
9.0223742 7.7815652 0.66550004
2.1094871 1.8238277 -0.9194876
2.4039872 2.0784478 -0.8767755
2.8135183 2.4325216 -0.8239314
3.3984616 2.9382541 -0.74896985
4.2474265 3.672255 -0.62583327
6.2416353 5.3964152 -0.46087039
8.5374498 7.3813386 0
9.0129652 7.7924609 0.66550004
2.1035497 1.8231409 -0.9178592
2.4128454 2.0912066 -0.88092715
2.8009784 2.4276004 -0.82111752
3.3910329 2.9389989 -0.74811476
4.2508044 3.6841605 -0.62698644
6.2429647 5.4107604 -0.46145096
8.5285254 7.3916492 0
9.0113897 7.8101468 0.66608006
2.0976102 1.8224361 -0.9162277
2.3951662 2.0809574 -0.87538981
2.8018756 2.4343126 -0.8222422
3.3739123 2.9313071 -0.74511856
4.2522087 3.6943848 -0.62785161
6.2403417 5.4217052 -0.46174094
8.5392294 7.4190145 0
9.0078325 7.8261437 0.66651559
2.0972686 1.826591 -0.9170419
2.3964372 2.0871484 -0.8767755
2.804682 2.4427044 -0.8239314
3.3839207 2.947185 -0.74811476
4.2321382 3.6859303 -0.62554526
6.2377086 5.4326577 -0.46203151
8.5361481 7.4344563 0
8.9983692 7.8370223 0.66651559
2.1006474 1.834002 -0.9194876
2.3939135 2.0900426 -0.8767755
2.8017285 2.4460914 -0.8239314
3.3706901 2.942832 -0.74597532
4.2452149 3.7063494 -0.62813962
6.2428803 5.4504414 -0.46290207
8.5212755 7.4396286 0
8.9986782 7.8564324 0.66724116
2.1040113 1.8414237 -0.92193323
2.4121475 2.1111035 -0.88438725
2.8025913 2.4528186 -0.82505608
3.388375 2.9654949 -0.75068176
4.2310038 3.7029605 -0.62669843
6.2441115 5.4648256 -0.46348262
8.533824 7.4687748 0
8.9833183 7.8621707 0.66680616
2.0887775 1.832553 -0.9162277
2.3945079 2.1007802 -0.87884998
2.7996254 2.4562032 -0.82505608
3.373215 2.9594321 -0.74811476
4.2440228 3.7234206 -0.62929279
6.2550812 5.4877882 -0.46478873
8.5326109 7.4859395 0
8.985528 7.8832984 0.66767669
2.0921314 1.8399739 -0.9186734
2.4013925 2.1119609 -0.88231277
2.7966557 2.4595842 -0.82505608
3.3696368 2.963506 -0.74811476
4.23564 3.7251329 -0.62871677
6.2425981 5.4901991 -0.46435374
8.537241 7.5082769 0
8.9857502 7.9027281 0.66840225
2.1040058 1.8526728 -0.92437893
2.3963468 2.1100922 -0.88092715
2.7989867 2.4646349 -0.8261829
3.3716953 2.9689307 -0.74896985
4.2353282 3.729399 -0.62900478
6.2568293 5.5094228 -0.46565986
8.5385647 7.5185943 0
8.9790258 7.9064403 0.6682573
2.0980563 1.8519393 -0.92274743
2.403198 2.1212857 -0.88438725
2.7960067 2.4680152 -0.8261829
3.36426 2.9696083 -0.74811476
4.2327561 3.7362237 -0.62929279
6.2462678 5.5135365 -0.46536928
8.5372782 7.5357952 0
8.9733658 7.9207263 0.66854781
2.0958171 1.8544731 -0.92274743
2.3912406 2.1158772 -0.88092715
2.7854109 2.4646568 -0.8239314
3.3741288 2.9855807 -0.75111091
4.2301812 3.7430544 -0.62958187
6.2415457 5.5228 -0.4655143
8.5379105 7.5547266 0
8.9793491 7.9453316 0.66970837
2.0972762 1.8602874 -0.92437893
2.38305 2.1137691 -0.87884998
2.7995367 2.4831936 -0.82899684
3.3839564 3.0015748 -0.75410545
4.2372613 3.7584577 -0.63131112
6.2407012 5.535512 -0.46594986
8.5482416 7.5823035 0
8.9639158 7.9510078 0.66927338
2.0783982 1.8480345 -0.9170419
2.3804941 2.116647 -0.87884998
2.788939 2.479821 -0.82674527
3.3630633 2.9903111 -0.75025415
4.2269163 3.7584171 -0.63044596
6.2320681 5.5413237 -0.46580485
8.5351877 7.5891719 0
8.9620695 7.9687395 0.66985393
2.083544 1.8571228 -0.92030174
2.3891752 2.1295407 -0.88300425
2.7821505 2.479811 -0.82562059
3.3824437 3.0148695 -0.75538981
4.2262373 3.7669673 -0.63102305
6.225368 5.5488501 -0.46580485
8.533782 7.6064057 0
8.9563103 7.9830174 0.67014396
2.0868294 1.8645809 -0.92274743
2.3791173 2.1257398 -0.88023561
2.784831 2.4882448 -0.82730764
3.3768859 3.0172455 -0.75496221
4.2351785 3.7841294 -0.63304031
6.2283454 5.5650229 -0.46653041
8.545927 7.6357808 0
8.9563437 8.0024881 0.67086953
2.0698464 1.853909 -0.9162277
2.3728058 2.125262 -0.87884998
2.7818224 2.4916079 -0.82730764
3.3579402 3.007622 -0.75153852
4.2171216 3.7771692 -0.63102305
6.2196827 5.5708127 -0.46638542
8.5308847 7.6408973 0
8.9524765 8.018507 0.67130506
2.0896738 1.8762234 -0.92600727
2.3683712 2.1264532 -0.87815845
2.7939351 2.5085478 -0.83181071
3.361944 3.0185373 -0.75325036
4.2337193 3.801265 -0.63419348
6.224544 5.5887365 -0.46725598
8.5332603 7.6616282 0
8.9505148 8.0362625 0.67188561
2.0745437 1.8671713 -0.92030174
2.3881767 2.1494532 -0.88646442
2.7795739 2.5017262 -0.82843447
3.34303 3.0088589 -0.74982661
4.2175922 3.7959993 -0.63246429
6.2274418 5.6049433 -0.46798152
8.5201321 7.6684546 0
8.9446573 8.0505447 0.67217565
2.0667861 1.8647143 -0.9178592
2.376266 2.1439359 -0.88300425
2.7803185 2.5084839 -0.82955915
3.3546395 3.0266531 -0.75325036
4.2053208 3.7941623 -0.63131112
6.2187371 5.6107249 -0.46783653
8.5282488 7.6944327 0
8.9368582 8.0630922 0.6723212
2.0755265 1.8771545 -0.92274743
2.3736737 2.1468058 -0.88300425
2.7848234 2.5186589 -0.83181071
3.3566864 3.0358651 -0.75453305
4.2179961 3.8148537 -0.63390547
6.2177367 5.6234655 -0.46827209
8.528594 7.7134585 0
8.9290342 8.0756264 0.67246616
2.0714276 1.8780024 -0.92193323
2.385947 2.1631527 -0.88854158
2.7780168 2.5186119 -0.83068603
3.3511155 3.0381961 -0.75410545
4.2152977 3.8216829 -0.63419348
6.2167144 5.6362119 -0.46870765
8.5346918 7.7377424 0
8.9327469 8.098628 0.6734823
2.0764732 1.8871533 -0.92519313
2.3703337 2.1542213 -0.88369578
2.7730858 2.5202529 -0.83012152
3.358844 3.0526056 -0.75667411
4.2049403 3.8215599 -0.63332939
6.2195125 5.6524558 -0.46943322
8.588891 7.805809 0
8.9287186 8.1146536 0.67391729
2.0741913 1.8896608 -0.92519313
2.3714416 2.1604662 -0.88508141
2.7794354 2.5321629 -0.83293754
3.3494585 3.0514736 -0.75538981
4.2117877 3.837086 -0.63505864
6.216516 5.6634636 -0.46972319
8.6217737 7.8547368 0
8.920826 8.1271849 0.67406231
2.076911 1.9013436 -0.92845297
2.3532586 2.154331 -0.88023561
2.7714283 2.5371516 -0.83237302
3.343966 3.061291 -0.75581735
4.2005968 3.8455081 -0.63477063
6.1932302 5.6696987 -0.46899766
8.7064209 7.9704413 0
8.9126635 8.1592493 0.67493343
2.0618629 1.8921522 -0.92274743
2.3580475 2.1639578 -0.88300425
2.7721086 2.5439377 -0.83349991
3.3535061 3.0774806 -0.7588135
4.2111926 3.8645713 -0.63707691
6.1959457 5.6859603 -0.46972319
8.7140388 7.9967909 0
8.9008846 8.1682577 0.67478842
2.0650339 1.8996638 -0.92519313
2.3609719 2.1719027 -0.88508141
2.7652891 2.5438416 -0.83237302
3.3422279 3.0745785 -0.75710166
4.2065196 3.869657 -0.63707691
6.2024589 5.705759 -0.47073933
8.7196922 8.02141 0
8.9024792 8.189559 0.67565894
2.0645523 1.9038315 -0.92600727
2.3749428 2.1900587 -0.89131021
2.7678189 2.5523503 -0.83406222
3.3460591 3.0855758 -0.7588135
4.1923285 3.8659649 -0.63563466
6.1936517 5.7114897 -0.47059432
8.7329454 8.0531044 0
8.8964014 8.2038364 0.67594951
2.0803967 1.9230988 -0.9341554
2.3649259 2.186115 -0.88854158
2.7610047 2.5522466 -0.83293754
3.3479853 3.0948458 -0.76009786
4.197156 3.8798113 -0.63707691
6.1924648 5.7242556 -0.47102931
8.7614298 8.0989819 0
8.8941145 8.2216349 0.67653006
2.0472534 1.8970541 -0.92030174
2.3604372 2.1872609 -0.88784742
2.7635047 2.5607569 -0.83462459
3.342355 3.0971391 -0.75966865
4.1829734 3.8760848 -0.63563466
6.1874552 5.7335052 -0.47117487
8.7993584 8.1537828 0
8.8898859 8.237669 0.67696506
2.0485849 1.9028939 -0.92193323
2.3559563 2.1884055 -0.88715589
2.7604084 2.5640941 -0.83462459
3.3292079 3.0924418 -0.7575292
4.189661 3.8917012 -0.63736498
6.188138 5.7480512 -0.47175545
8.8104763 8.1838942 0
8.8761225 8.2448711 0.67667508
2.0517125 1.9104223 -0.92437893
2.3588202 2.1963813 -0.88923305
2.7591732 2.5691643 -0.8351891
3.3404987 3.1104569 -0.76095295
4.1849556 3.8967609 -0.63736498
6.1830883 5.7572927 -0.47190043
8.7967682 8.1909838 0
8.8813667 8.2697563 0.67783618
2.0595953 1.9200869 -0.92845297
2.3740063 2.2132008 -0.89546186
2.7464659 2.5604315 -0.83181071
3.3442538 3.1177278 -0.76223725
4.1844907 3.9010506 -0.63765299
6.1834064 5.7645679 -0.47219044
8.7918186 8.1962967 0
8.8782682 8.2768908 0.6779812
2.0608819 1.925946 -0.93008137
2.3584979 2.2040756 -0.89061606
2.7526505 2.5724211 -0.83462459
3.3423579 3.1235173 -0.76266479
4.1930041 3.9184675 -0.63967133
6.1764364 5.7720351 -0.47219044
8.8028259 8.2264624 0
8.8720541 8.2911568 0.67827117
2.0621643 1.9318174 -0.93171287
2.3594983 2.2103572 -0.89200169
2.7643747 2.589642 -0.83912766
3.3273442 3.117027 -0.76009786
4.1863804 3.9217646 -0.63938326
6.1751485 5.7848248 -0.472626
8.7985792 8.2424316 0
8.8639307 8.3036528 0.67841673
2.0544217 1.9292303 -0.92926717
2.3549986 2.2114909 -0.89131021
2.7612438 2.5929804 -0.83912766
3.3347998 3.1315854 -0.76266479
