# .PCD v0.7 - Point Cloud Data file format
VERSION 0.7
FIELDS x y z
SIZE 4 4 4
TYPE F F F
COUNT 1 1 1
WIDTH 1833
HEIGHT 1
VIEWPOINT 0 0 0 1 0 0 0
POINTS 1833
DATA ascii
2.4093926 0.97759932 -0.85735607
0 0 -0
0 0 -0
0 0 -0
0 0 -0
0 0 -0
2.4754539 1.0044035 0
2.5117731 1.0191396 0.15140682
2.4677227 1.0047408 -0.87854362
0 0 -0
0 0 -0
0 0 -0
0 0 -0
0 0 -0
2.4573636 1.0005231 0
2.5201662 1.0260934 0.15198737
2.397871 0.97967982 -0.85409617
0 0 -0
0 0 -0
0 0 -0
0 0 -0
0 0 -0
2.4826562 1.0143199 0
2.5165215 1.0281559 0.15184239
2.5201638 1.0331993 -0.8980996
0 0 -0
0 0 -0
0 0 -0
0 0 -0
0 0 -0
2.5368056 1.040022 0
2.5176792 1.0321807 0.15198737
2.4000635 0.98735052 -0.85572457
0 0 -0
0 0 -0
0 0 -0
0 0 -0
2.4973166 1.027359 -0.15083295
2.4826021 1.0213057 0
2.5140295 1.0342344 0.15184239
2.487962 1.0270274 -0.88750589
0 0 -0
0 0 -0
0 0 -0
0 0 -0
2.4936738 1.0293852 -0.15068796
2.519856 1.0401931 0
2.5151775 1.0382619 0.15198737
2.4319248 1.0073361 -0.86794984
0 0 -0
0 0 -0
0 0 -0
0 0 -0
0 0 -0
2.4825289 1.0282972 0
2.5187271 1.0432909 0.15227793
2.3815808 0.99323267 -0.85083634
0 0 -0
0 0 -0
0 0 -0
0 0 -0
0 0 -0
2.5304761 1.0553291 0
2.5281873 1.0543746 0.1530035
0 0 -0
0 0 -0
0 0 -0
0 0 -0
0 0 -0
0 0 -0
2.4835913 1.0393006 0
2.5245168 1.0564265 0.1528585
0 0 -0
2.4299133 1.0202901 -0.72710627
0 0 -0
0 0 -0
0 0 -0
0 0 -0
2.5279183 1.0614412 0
2.5328126 1.0634961 0.15343849
0 0 -0
0 0 -0
0 0 -0
0 0 -0
0 0 -0
2.5364299 1.068622 -0.15373574
2.4594898 1.0362064 0
2.5243487 1.0635321 0.1530035
0 0 -0
2.3812251 1.0066224 -0.71326303
0 0 -0
0 0 -0
0 0 -0
2.5040252 1.058534 -0.15184908
2.4965897 1.0553908 0
2.5254529 1.0675923 0.1531485
0 0 -0
2.4868808 1.0530579 -0.74510115
0 0 -0
0 0 -0
0 0 -0
0 0 -0
2.4743762 1.047763 0
2.5295885 1.0711423 0.15343849
0 0 -0
2.4255767 1.0305572 -0.72710627
0 0 -0
0 0 -0
0 0 -0
2.4757931 1.0518926 -0.1502524
2.5377831 1.0782304 0
2.525903 1.0731829 0.15329349
0 0 -0
2.4312556 1.0364397 -0.72918344
0 0 -0
0 0 -0
0 0 -0
2.5008161 1.0660933 -0.15184908
2.5053582 1.0680295 0
2.5174403 1.0731802 0.1528585
0 0 -0
2.3907909 1.0226053 -0.71741736
0 0 -0
0 0 -0
0 0 -0
2.473244 1.0578727 -0.1502524
2.4921041 1.0659397 0
2.528085 1.0813296 0.15358405
2.5075226 1.0761205 -0.8997311
2.4540968 1.0531925 -0.73679525
0 0 -0
0 0 -0
0 0 -0
2.4409242 1.0475394 -0.14836572
2.5410349 1.0905026 0
2.5243819 1.0833558 0.15343849
2.3745587 1.0224576 -0.85246468
2.4205675 1.0422685 -0.72710627
0 0 -0
0 0 -0
0 0 -0
2.5565979 1.1008416 -0.15547742
2.4823475 1.0688702 0
2.5302331 1.0894892 0.15387405
0 0 -0
2.4423323 1.0551401 -0.73402661
0 0 -0
0 0 -0
0 0 -0
2.4837098 1.0730162 -0.15112351
2.5240531 1.0904453 0
2.5217564 1.0894531 0.15343849
0 0 -0
2.3904197 1.0361421 -0.71880037
0 0 -0
0 0 -0
0 0 -0
2.4990933 1.0832473 -0.15213907
2.5466166 1.1038465 0
2.5323656 1.0976694 0.15416461
0 0 -0
2.4213703 1.0530351 -0.72848928
0 0 -0
0 0 -0
0 0 -0
2.5335279 1.1018115 -0.15431631
2.4903874 1.08305 0
2.5238864 1.0976186 0.15372905
0 0 -0
0 0 -0
0 0 -0
0 0 -0
0 0 -0
2.4821832 1.0830505 -0.15126851
2.4938521 1.0881419 0
2.5320849 1.1048241 0.15430962
0 0 -0
2.3866482 1.0448003 -0.71880037
0 0 -0
0 0 -0
0 0 -0
2.4689732 1.0808396 -0.15054296
2.5425985 1.1130705 0
2.5307481 1.1078827 0.15430962
0 0 -0
0 0 -0
0 0 -0
0 0 -0
0 0 -0
2.4914517 1.0942694 -0.15199408
2.534101 1.1130013 0
2.5056212 1.1004927 0.1528585
0 0 -0
2.4024825 1.0586579 -0.72433764
0 0 -0
0 0 -0
0 0 -0
2.5162861 1.1088058 -0.15359075
2.4898913 1.0971748 0
2.5280633 1.1139954 0.15430962
0 0 -0
2.3966167 1.0595332 -0.72295463
0 0 -0
0 0 -0
0 0 -0
2.4935486 1.1023864 -0.15228407
2.4718995 1.0928154 0
2.5124516 1.1107432 0.15343849
0 0 -0
0 0 -0
0 0 -0
0 0 -0
0 0 -0
2.5325925 1.1233076 -0.1547513
2.5490818 1.1306213 0
0 0 0
0 0 -0
0 0 -0
0 0 -0
0 0 -0
0 0 -0
2.4718943 1.0999619 -0.15112351
2.5191813 1.1210039 0
2.5145125 1.1189264 0.15372905
0 0 -0
0 0 -0
0 0 -0
0 0 -0
0 0 -0
2.4990273 1.1156551 -0.15286463
2.494056 1.1134357 0
2.5107882 1.1209056 0.15358405
0 0 -0
0 0 -0
0 0 -0
0 0 -0
0 0 -0
2.4976773 1.1186738 -0.15286463
2.4855902 1.1132601 0
2.5165396 1.127122 0.15401906
0 0 -0
0 0 -0
0 0 -0
0 0 -0
0 0 -0
2.517662 1.1312791 -0.1541713
2.4771192 1.1130617 0
2.5151758 1.1301619 0.15401906
0 0 -0
0 0 -0
0 0 -0
2.4576194 1.1060847 -0.44930398
0 0 -0
2.5075002 1.1285342 -0.15359075
2.5191598 1.1337818 0
2.5168691 1.1327507 0.15416461
0 0 -0
2.3722138 1.0710956 -0.71810883
0 0 -0
0 0 -0
0 0 -0
2.4966617 1.127286 -0.15301019
2.5059307 1.131471 0
2.5036504 1.1304415 0.15343849
0 0 -0
0 0 -0
0 0 -0
0 0 -0
0 0 -0
2.5189626 1.1410215 -0.15446131
2.5211585 1.1420161 0
2.523592 1.1431184 0.15474518
0 0 -0
0 0 -0
0 0 -0
0 0 -0
0 0 -0
2.5033927 1.1376163 -0.15359075
2.4889777 1.1310655 0
2.5056472 1.1386406 0.15372905
0 0 -0
0 0 -0
0 0 -0
0 0 -0
0 0 -0
2.4901879 1.1352478 -0.15286463
2.5065534 1.1427085 0
2.520822 1.1492136 0.15474518
0 0 -0
2.3624418 1.0804596 -0.7167232
2.4783254 1.1334587 -0.60371745
0 0 -0
0 0 -0
2.4982665 1.1425787 -0.15344518
2.526469 1.1554772 0
2.5147011 1.1500951 0.15445462
0 0 -0
0 0 -0
0 0 -0
2.5101948 1.1517037 -0.46043029
0 0 -0
2.5039716 1.1488484 -0.15388075
2.5061476 1.1498468 0
2.506222 1.149881 0.15401906
0 0 -0
0 0 -0
2.4386487 1.1224465 -0.5947113
2.4551742 1.1300527 -0.45058829
0 0 -0
2.4836981 1.1431816 -0.15271963
2.4953001 1.1485217 0
2.5189979 1.1594292 0.15489016
0 0 -0
0 0 -0
2.4834278 1.1466956 -0.60596901
2.4421561 1.1276388 -0.44844887
0 0 -0
2.5106244 1.1592534 -0.15446131
2.5387967 1.1722616 0
2.5152383 1.1613837 0.15474518
0 0 -0
0 0 -0
2.4820404 1.1496955 -0.60596901
2.4757247 1.1467701 -0.45486712
0 0 -0
2.5068662 1.161195 -0.15431631
2.4877899 1.1523587 0
2.5232644 1.1687907 0.15532573
0 0 -0
0 0 -0
2.4714322 1.1484108 -0.60371745
2.4976218 1.1605804 -0.45914763
2.4761312 1.1505942 -0.30433378
2.4889638 1.1565572 -0.1533002
2.5100014 1.166333 0
2.5147786 1.1685526 0.15489016
0 0 -0
0 0 -0
2.4516191 1.1428081 -0.59921438
2.4799285 1.1560043 -0.45615146
2.4934936 1.1623276 -0.30664012
2.4922793 1.1617616 -0.15359075
2.5180256 1.1737632 0
2.5133648 1.1715904 0.15489016
0 0 -0
0 0 -0
2.4732487 1.1565305 -0.60484213
2.448302 1.144865 -0.45058829
2.4803746 1.1598626 -0.30519894
2.4838099 1.1614691 -0.15315519
2.481241 1.1602678 0
2.5237141 1.1801288 0.15561573
0 0 -0
0 0 -0
2.4879544 1.1670727 -0.60878289
2.4910676 1.1685331 -0.45871842
2.51175 1.1782349 -0.30923447
2.5129848 1.1788142 -0.15504186
2.508111 1.176528 0
2.5011163 1.1732467 0.15430962
0 0 -0
0 0 -0
2.4819398 1.1679122 -0.607656
2.4873333 1.1704502 -0.45829087
2.5150096 1.1834737 -0.30981159
2.478647 1.1663628 -0.15301019
2.5114019 1.1817759 0
2.5067525 1.1795882 0.15474518
0 0 -0
0 0 -0
2.4782312 1.1698267 -0.60709369
2.495203 1.1778381 -0.46000275
2.5135777 1.1865118 -0.30981159
2.4983819 1.1793387 -0.15431631
2.5076118 1.1836956 0
2.5076728 1.1837244 0.15489016
0 0 -0
0 0 -0
2.4653358 1.1673843 -0.60427982
2.4752171 1.1720632 -0.456579
2.4864259 1.1773708 -0.30664012
2.539223 1.2023712 -0.15692854
2.5320554 1.1989772 0
2.5109332 1.1889755 0.15518017
0 0 -0
0 0 -0
2.4753971 1.1758122 -0.60709369
2.4853909 1.1805593 -0.45871842
2.5013578 1.1881436 -0.30865842
2.4955246 1.1853728 -0.15431631
2.5188532 1.1964538 0
2.5118484 1.1931267 0.15532573
0 0 -0
0 0 -0
2.4877417 1.1853622 -0.61047208
2.490917 1.1868752 -0.46000275
2.4719007 1.1778142 -0.30519894
2.5269268 1.2040333 -0.15634798
2.470417 1.1771073 0
2.5033655 1.1928067 0.15489016
0 0 -0
0 0 -0
2.4542084 1.173025 -0.60259062
2.4802167 1.185456 -0.45829087
2.4658041 1.1785673 -0.30462179
2.4926529 1.1914001 -0.15431631
2.5206461 1.2047799 0
2.5159843 1.2025517 0.15576074
0 0 -0
0 0 -0
2.4665406 1.1825827 -0.60596901
2.4787824 1.1884521 -0.45829087
2.5809875 1.2374542 -0.31903586
2.4771485 1.1876687 -0.15344518
2.5144994 1.2055765 0
2.5192201 1.2078398 0.15605129
0 0 -0
0 0 -0
2.4582381 1.1822573 -0.60427982
2.4842873 1.1947852 -0.45957518
2.4699438 1.187887 -0.30548695
2.4897664 1.1974204 -0.15431631
2.5200703 1.2119946 0
2.5107315 1.2075033 0.15561573
0 0 -0
0 0 -0
2.4499402 1.1819136 -0.60259062
2.4805319 1.1966718 -0.45914763
2.4545336 1.1841296 -0.30375773
2.5117166 1.2117162 -0.15576743
2.5232964 1.2173026 0
2.5116088 1.2116641 0.15576074
0 0 -0
2.4874258 1.2037048 -0.76240456
2.459944 1.190406 -0.6054045
2.4698412 1.1951953 -0.45743576
2.4693918 1.1949779 -0.30577496
2.5219433 1.2204084 -0.15649298
2.5265045 1.2226156 0
2.5171621 1.2180947 0.15619628
0 0 -0
2.4754124 1.1997375 -0.75894439
2.4638016 1.1941104 -0.60653132
2.4621863 1.1933274 -0.45615146
2.4756541 1.1998549 -0.30664012
2.4814568 1.2026671 -0.15402575
2.4976711 1.2105256 0
2.5187616 1.2207474 0.15634128
2.4807208 1.2060142 -0.90951073
2.4897568 1.2104071 -0.76379019
2.4783554 1.2048641 -0.61047208
2.4607425 1.1963017 -0.45615146
2.4835072 1.2073689 -0.30779329
2.4846802 1.207939 -0.15431631
2.5032215 1.216953 0
2.5196195 1.2249249 0.15648629
2.5059202 1.2220107 -0.9192903
2.463486 1.2013177 -0.75617576
2.465472 1.2022862 -0.607656
2.5123575 1.2251499 -0.46599346
2.4936683 1.2160361 -0.30923447
2.508903 1.2234653 -0.15591241
0 0 0
2.5134709 1.2256929 0.15619628
2.4422755 1.1946293 -0.89647126
2.4778101 1.212011 -0.76102155
2.4503272 1.1985677 -0.60427982
2.4808998 1.2135222 -0.46043029
2.492197 1.2190483 -0.30923447
2.5074229 1.226496 -0.15591241
2.5400138 1.2424377 0
2.5213249 1.233296 0.15677685
0 0 -0
2.4155302 1.1851661 -0.74233252
2.4397526 1.1970507 -0.60202825
2.5024822 1.2278287 -0.4647108
2.4976907 1.2254777 -0.31009963
2.5082786 1.2306726 -0.15605798
2.4987938 1.2260189 0
2.5175023 1.2351981 0.15663184
2.4615531 1.2114395 -0.90461934
2.4231002 1.1925151 -0.74510115
2.4656615 1.2134615 -0.60878289
2.4802699 1.2206509 -0.46085951
0 0 -0
2.5137773 1.2371414 -0.15649298
2.513658 1.2370827 0
2.5206661 1.2405317 0.15692185
2.4844687 1.2264487 -0.91358477
2.3766656 1.173232 -0.73125792
2.4619174 1.2153163 -0.60822052
0 0 -0
0 0 -0
0 0 -0
2.4864891 1.227446 0
2.5168376 1.2424275 0.15677685
2.482985 1.2294497 -0.91358477
2.4202113 1.1983674 -0.74510115
2.4581635 1.2171594 -0.607656
2.5003133 1.2380298 -0.46513835
2.4816449 1.2287861 -0.30865842
0 0 -0
2.5596364 1.2674036 0
2.5153346 1.2454677 0.15677685
2.5080612 1.2456419 -0.92336434
2.5311027 1.2570857 -0.77970791
2.4703493 1.2269123 -0.61103439
0 0 -0
0 0 -0
2.5302191 1.2566469 -0.15779909
2.5254755 1.2542909 0
2.5161529 1.2496607 0.15692185
2.4777963 1.2343456 -0.91277057
2.4262905 1.2086872 -0.74786985
2.455215 1.2230963 -0.607656
0 0 -0
2.4832938 1.2370842 -0.30923447
0 0 -0
2.5192947 1.2550184 0
2.514641 1.2527001 0.15692185
2.4763031 1.2373385 -0.91277057
2.4046326 1.2015268 -0.74164104
2.462827 1.2306049 -0.60990757
0 0 -0
0 0 -0
0 0 -0
2.5084641 1.2534086 0
2.5224233 1.2603835 0.1575024
2.4504983 1.228147 -0.9038052
2.4076602 1.2066774 -0.74302405
2.4681551 1.2369963 -0.61159676
2.4782336 1.2420474 -0.46214217
2.4710476 1.2384461 -0.3080813
2.49545 1.2506762 -0.15591241
2.5348675 1.2704315 0
2.5208986 1.2634304 0.1575024
2.4733057 1.2433192 -0.91277057
2.4712014 1.2422614 -0.76309603
2.4712033 1.2422624 -0.61272359
2.4904969 1.251961 -0.4647108
2.4787931 1.2460777 -0.30923447
2.5009041 1.2571927 -0.15634798
2.5356536 1.2746612 0
2.5193701 1.2664754 0.1575024
2.4673834 1.2440791 -0.91113907
2.4069839 1.213625 -0.74371821
2.4560833 1.2383815 -0.6093452
0 0 -0
2.4819093 1.2514031 -0.30981159
2.5040281 1.2625557 -0.15663853
2.5131996 1.26718 0
2.5248008 1.2730294 0.15793796
2.430589 1.2292126 -0.8980996
2.4211805 1.2244546 -0.74856132
2.463655 1.2459351 -0.61159676
2.4897525 1.2591333 -0.46513835
2.4757748 1.2520643 -0.30923447
2.4978588 1.2632328 -0.15634798
2.5348861 1.2819586 0
2.5209441 1.2749077 0.15779296
2.4320214 1.2373265 -0.8997311
2.4115129 1.2268925 -0.74648684
2.4923377 1.2680134 -0.61947608
2.4912741 1.2674723 -0.46599346
2.4773567 1.2603916 -0.30981159
2.5017488 1.2728014 -0.15678354
2.5225024 1.2833601 0
2.5224833 1.2833505 0.15808296
2.4371312 1.2436357 -0.9021768
2.4256647 1.2377844 -0.75132996
2.4998567 1.2756436 -0.62172759
2.4828877 1.2669845 -0.4647108
2.487349 1.2692611 -0.31125277
2.5002091 1.2758234 -0.15678354
2.5093615 1.2804937 0
2.5209308 1.2863975 0.15808296
2.4554262 1.256713 -0.90951073
2.3996077 1.2281446 -0.74371821
2.5209365 1.290242 -0.62735754
2.4882038 1.273489 -0.46599346
2.4835134 1.2710884 -0.31096476
2.491724 1.2752907 -0.15634798
2.5402508 1.3001271 0
2.5332487 1.2965435 0.15895352
2.3945358 1.2292022 -0.88750589
2.4137387 1.2390598 -0.74856132
2.5238922 1.2956055 -0.62848222
2.4821002 1.2741522 -0.46513835
2.4796681 1.2729037 -0.31067565
2.499428 1.2830472 -0.15692854
2.5247819 1.2960622 0
2.5316801 1.2996035 0.15895352
2.4326072 1.2524618 -0.9021768
2.4568496 1.2649434 -0.76240456
2.5403974 1.3079591 -0.63298529
2.4782786 1.2759764 -0.4647108
2.4873266 1.2806349 -0.31182882
2.4978759 1.2860663 -0.15692854
2.5278461 1.3014969 0
2.5347331 1.3050427 0.15924408
2.4362392 1.2561945 -0.9038052
2.4025698 1.2388335 -0.74579269
2.5576735 1.3188094 -0.63748837
2.4934721 1.2857053 -0.46770534
2.4819591 1.2797689 -0.31125277
2.501713 1.2899545 -0.15721853
2.5270593 1.3030238 0
2.5316367 1.3053842 0.15909907
2.41277 1.2477858 -0.89565706
2.4010713 1.2417357 -0.74579269
2.5741336 1.3312365 -0.64199144
2.4850826 1.285183 -0.46642268
2.4873054 1.2863325 -0.31211793
2.4955409 1.2905915 -0.15692854
2.5162363 1.3012944 0
2.5346694 1.3108271 0.15938908
2.4704928 1.2814236 -0.91765881
2.3928945 1.241174 -0.74371821
2.5815454 1.3390256 -0.644243
2.4926431 1.2929127 -0.46813452
2.4880431 1.2905267 -0.31240594
2.4985883 1.2959964 -0.15721853
2.5215862 1.3079252 0
2.5469277 1.3210697 0.16026019
2.4404404 1.2695801 -0.90706503
2.4091978 1.253327 -0.74925548
2.5799255 1.3421439 -0.644243
2.4910791 1.2959236 -0.46813452
2.4841895 1.2923396 -0.31211793
2.5016353 1.3014153 -0.15750909
2.5407896 1.3217843 0
2.5407147 1.3217455 0.15996963
2.4389045 1.2725279 -0.90706503
2.3987849 1.251595 -0.74648684
2.582803 1.3476088 -0.64536768
2.4963324 1.3024917 -0.46941721
2.4849172 1.2965356 -0.31240594
2.5069745 1.3080442 -0.15794465
2.5414956 1.3260561 0
2.5437279 1.3272208 0.16026019
2.4461246 1.2800578 -0.91032487
2.4194946 1.2661223 -0.75340712
2.5699186 1.3448392 -0.64255381
2.4856589 1.3007461 -0.46770534
2.4925153 1.3043342 -0.31355911
2.5030832 1.3098643 -0.15779909
2.5283644 1.3230939 0
2.5467224 1.3327006 0.16055019
2.4445763 1.2830125 -0.91032487
2.4357343 1.2783719 -0.75894439
2.5480452 1.3373173 -0.63748837
2.4886358 1.3061368 -0.4685621
2.4863527 1.3049386 -0.31298199
2.4946029 1.3092686 -0.1573641
2.5336704 1.3297728 0
2.5497162 1.3381944 0.16084075
2.4386542 1.2836651 -0.90869653
2.4297435 1.2789748 -0.75755876
2.5374339 1.3356611 -0.63523686
2.4915946 1.3115321 -0.46941721
2.4847741 1.3079419 -0.31298199
2.4953163 1.313491 -0.15750909
2.5297611 1.3316222 0
2.5549889 1.3449017 0.16127574
2.452395 1.2946848 -0.91439891
2.3882663 1.2608294 -0.74510115
2.5043645 1.3221208 -0.62735754
2.4945529 1.316941 -0.47027397
2.483192 1.3109432 -0.31298199
2.4983187 1.3189291 -0.15779909
2.5327575 1.3371103 0
2.5556664 1.3492045 0.16142131
2.4311721 1.2872393 -0.90706503
2.3623586 1.2508045 -0.7374894
2.4870441 1.3168221 -0.62341678
2.4906931 1.3187541 -0.4698464
2.4930332 1.3199931 -0.31442317
2.5036147 1.3255957 -0.15823466
2.5311401 1.3401697 0
2.5563285 1.3535063 0.1615663
2.3532188 1.2496082 -0.87854362
2.4671926 1.3101306 -0.77071047
2.4674981 1.3102928 -0.61891371
2.4890978 1.3217627 -0.4698464
2.4822989 1.3181523 -0.31327
2.5043037 1.3298373 -0.15837966
2.5272138 1.342003 0
2.5661638 1.3626863 0.16229187
2.401876 1.279169 -0.89728546
2.4656079 1.3131107 -0.77071047
2.4636726 1.31208 -0.6183514
2.4829631 1.3223536 -0.46898964
2.489836 1.3260139 -0.31442317
2.49123 1.3267564 -0.15765409
2.5301888 1.3475047 0
2.5645154 1.365786 0.16229187
2.4744482 1.3216593 -0.92499268
2.4595895 1.3137228 -0.76932484
2.4755285 1.3222363 -0.62172759
2.4904208 1.3301905 -0.47070152
2.4836733 1.3265866 -0.31384715
2.4987929 1.3346623 -0.15823466
2.5262654 1.349336 0
2.5628631 1.3688837 0.16229187
2.477211 1.3269846 -0.92662418
2.3982971 1.2847122 -0.75063848
2.4627323 1.3192286 -0.61891371
2.4956024 1.3368363 -0.47198582
2.4820685 1.3295867 -0.31384715
2.485728 1.331547 -0.15750909
2.529217 1.354843 0
2.565784 1.374431 0.16258186
2.5300362 1.3592186 -0.94699752
2.4099989 1.2947307 -0.75479013
2.4633727 1.3234048 -0.61947608
2.4804125 1.3325591 -0.46941721
2.487298 1.3362583 -0.31471229
2.4932735 1.3394685 -0.15808965
2.5413294 1.3652856 0
2.5755732 1.3836826 0.16330798
2.4674673 1.3294491 -0.92417854
2.4592326 1.3250122 -0.77071047
2.4617717 1.3263803 -0.61947608
2.4968801 1.3452963 -0.47284093
2.483398 1.3380322 -0.31442317
2.4893677 1.3412489 -0.15794465
2.5396779 1.3683554 0
2.5670345 1.3830949 0.16287242
2.4702122 1.3347816 -0.92581004
2.4112816 1.3029385 -0.75617576
2.4691088 1.3341855 -0.62172759
2.4884837 1.3446548 -0.47155827
2.4863348 1.3434936 -0.31500033
2.494597 1.347958 -0.15837966
2.5357351 1.370187 0
2.5836499 1.3960779 0.16403353
2.5011868 1.3554261 -0.93803215
2.4339705 1.3190006 -0.76379019
2.4652631 1.3359586 -0.62116528
2.4891119 1.3488826 -0.47198582
2.4869814 1.347728 -0.31528834
2.4929664 1.3509712 -0.15837966
2.5409441 1.3769711 0
2.5796788 1.3979619 0.16388854
2.4496064 1.3313055 -0.9192903
2.4566154 1.3351148 -0.771402
2.4703467 1.3425775 -0.62285447
2.482965 1.3494352 -0.47112906
0 0 -0
2.4867704 1.3515034 -0.15808965
2.5301321 1.3750694 0
2.5802686 1.4023174 0.16403353
2.4154413 1.3165206 -0.90706503
2.4594104 1.3404857 -0.77278763
2.4821045 1.3528551 -0.62623066
2.4926004 1.3585758 -0.47326851
2.4700954 1.3463095 -0.31355911
2.4874151 1.3557495 -0.15823466
2.5330346 1.3806142 0
2.5854104 1.4091612 0.16446854
2.6025243 1.4225706 -0.97796464
2.4511826 1.3398454 -0.77071047
2.4737859 1.3522006 -0.62454367
2.4932163 1.3628215 -0.47369769
2.4639232 1.3468096 -0.31298199
2.4834971 1.3575089 -0.15808965
2.5450706 1.3911657 0
2.5996683 1.4210095 0.16548465
2.4781585 1.3584825 -0.77970791
2.4587774 1.3478581 -0.62116528
2.4915676 1.365833 -0.47369769
2.4804387 1.3597323 -0.31528834
2.5023599 1.3717492 -0.15939577
2.554796 1.4004937 0
2.6025109 1.4266502 0.16577521
2.5468657 1.4001513 -0.80185711
2.4482405 1.3459316 -0.61891371
2.4966576 1.3725492 -0.47498035
2.4697275 1.3577442 -0.31413516
2.5052502 1.377273 -0.15968576
2.5508237 1.4023272 0
2.6007853 1.4297937 0.16577521
2.6396363 1.4553086 -0.83161807
2.4599676 1.356252 -0.6222921
2.4905055 1.3730885 -0.47412527
2.4726198 1.3632274 -0.31471229
2.4922087 1.3740274 -0.15896021
2.5468504 1.404153 0
2.5967736 1.4316771 0.16562966
2.6422627 1.4609225 -0.83300108
2.451654 1.3555337 -0.62060291
2.4910891 1.3773377 -0.47455281
2.486809 1.3749712 -0.31672952
2.4905467 1.3770378 -0.15896021
2.5588129 1.4147825 0
2.6155057 1.4461284 0.16693577
2.608464 1.4442934 -0.82262063
2.4419429 1.3520914 -0.6183514
2.4925001 1.3800846 -0.47498035
2.4746661 1.3702101 -0.31528834
2.4942651 1.381062 -0.15925077
2.5556831 1.4150687 0
2.6123605 1.4464507 0.16679077
2.6067171 1.4474441 -0.82262063
2.4536316 1.3624396 -0.62172759
2.4998078 1.3880801 -0.47669223
2.4775355 1.3757129 -0.31586546
2.4948642 1.385335 -0.15939577
2.5471435 1.4143643 0
2.6174281 1.4533917 0.16722633
2.5918109 1.4432671 -0.81846631
2.4542098 1.3666432 -0.6222921
2.4981289 1.3910997 -0.47669223
2.4645662 1.3724101 -0.31442317
2.4909203 1.3870856 -0.15925077
2.5636225 1.4275702 0
12.647157 7.0426536 0.80856436
2.5856886 1.4439538 -0.81708336
2.4525568 1.3696076 -0.6222921
2.4897287 1.390366 -0.47540957
2.4877486 1.3892602 -0.31759468
2.4937756 1.3926258 -0.15954077
2.5687144 1.4344747 0
12.663595 7.071867 0.81016099
2.5664308 1.4372703 -0.81154603
2.4509001 1.37257 -0.6222921
2.4947598 1.3971326 -0.47669223
2.4702692 1.3834172 -0.31557634
2.4966297 1.3981798 -0.15983133
2.5692477 1.4388479 0
12.648237 7.0833535 0.80972546
2.5537574 1.434229 -0.80808592
2.4603148 1.3817503 -0.62510598
2.4841168 1.3951179 -0.47498035
2.4821312 1.3940027 -0.31730664
2.4972017 1.4024667 -0.15997632
2.5743167 1.4457756 0
15.369577 8.6317892 0.98460948
2.5607662 1.4422382 -0.81085455
2.4586434 1.3847221 -0.62510598
2.4846725 1.3993819 -0.47540957
2.4714303 1.3919238 -0.31615347
2.490973 1.4029303 -0.15968576
2.5861692 1.4565454 0
15.397623 8.6720295 0.9870767
2.5808618 1.4576666 -0.81777483
2.4635994 1.3914369 -0.62679303
2.4986198 1.4112165 -0.4784041
2.4629881 1.3910918 -0.31528834
2.491545 1.4072206 -0.15983133
2.6047997 1.4711866 0
15.353202 8.671464 0.9849
2.5376205 1.4372911 -0.80462313
2.4552898 1.3906597 -0.62510598
2.487978 1.409174 -0.47669223
2.4725564 1.4004391 -0.31672952
2.4943604 1.4127889 -0.16012132
2.5894375 1.4666399 0
15.30427 8.6682358 0.98243225
2.548975 1.447793 -0.80877739
2.4558151 1.3948791 -0.62566835
2.4952021 1.4172505 -0.4784041
2.4731178 1.4047068 -0.31701863
2.4903941 1.4145197 -0.15997632
12.677615 7.2007623 0
15.2599 8.6674747 0.98025554
2.5210643 1.4359717 -0.80047148
2.4541278 1.3978454 -0.62566835
2.5024102 1.4253466 -0.48011598
2.4848993 1.4153725 -0.31874785
2.5022261 1.4252417 -0.16084689
12.612372 7.1838751 0
12.628159 7.1928663 0.81175715
2.4735823 1.4128877 -0.78593671
2.4590583 1.4045917 -0.62735754
2.4917698 1.4232763 -0.4784041
2.4764473 1.4145242 -0.31788269
2.4824517 1.4179538 -0.15968576
12.590128 7.1913671 0
12.614949 7.2055445 0.81146711
2.4631655 1.4108877 -0.78316808
2.4705839 1.4151369 -0.63073373
2.4900482 1.4262861 -0.4784041
2.4702518 1.4149468 -0.31730664
2.4942694 1.4287039 -0.16055688
12.558851 7.1936417 0
12.572411 7.2014079 0.80928987
2.4592855 1.4126146 -0.7824766
2.4578578 1.4117945 -0.62791985
2.4927793 1.4318534 -0.47926086
2.4752624 1.4217917 -0.3181707
2.4925413 1.4317167 -0.16055688
12.597539 7.2360315 0
12.570461 7.2204781 0.80972546
2.4445374 1.4080744 -0.77832496
2.4473431 1.4096904 -0.62566835
2.4932697 1.4361445 -0.47968841
2.4757903 1.4260762 -0.31845981
2.4863019 1.4321311 -0.16026632
12.588786 7.2512479 0
12.552721 7.230474 0.80914491
2.4602053 1.4210608 -0.78385955
2.4566369 1.4189998 -0.62848222
2.4982033 1.4430093 -0.48097274
2.480778 1.4329441 -0.31932387
2.5003221 1.4442332 -0.16128244
12.568741 7.2599411 0
12.570976 7.2612324 0.81088656
2.4302669 1.4076868 -0.77486211
2.4615188 1.425789 -0.63017142
2.4942303 1.4447364 -0.48054352
2.4835253 1.4385358 -0.31990102
2.4963291 1.4459521 -0.16113745
12.580235 7.2868667 0
12.580181 7.2868357 0.81204772
2.3895197 1.3879435 -0.76240456
2.4597943 1.4287622 -0.63017142
2.4969265 1.4503304 -0.48140028
2.4817853 1.4415356 -0.31990102
2.5080571 1.4567956 -0.162008
12.596169 7.3164368 0
12.59833 7.3176923 0.81378937
2.4624531 1.4342886 -0.6312961
2.4929562 1.4520556 -0.48097274
2.4800417 1.4445333 -0.31990102
2.5040519 1.4585184 -0.161863
12.585072 7.3303428 0
12.571516 7.3224473 0.81262827
2.4673026 1.4411087 -0.63298529
2.5044956 1.4628325 -0.4835397
2.4894593 1.4540502 -0.3213422
2.5112629 1.4667852 -0.16244356
12.576205 7.3455439 0
12.558167 7.3350086 0.8123377
2.4787102 1.4517914 -0.63636154
2.5071607 1.468455 -0.48439646
2.4921687 1.459674 -0.32191932
2.5050087 1.4671944 -0.16215356
12.540373 7.3449512 0
12.544815 7.3475533 0.81204772
2.5041335 1.4687145 -0.64311612
2.5106974 1.4725643 -0.48525158
2.4912863 1.4611794 -0.32191932
2.4817038 1.455559 -0.16070189
12.517974 7.3419929 0
12.517956 7.3419824 0.81059599
2.5176904 1.4807574 -0.64705688
2.5177672 1.4808025 -0.48696345
2.4939735 1.4668086 -0.32249537
6.6972451 3.9389255 -0.43398571
12.477692 7.3386445 0
12.47996 7.3399787 0.80870932
2.5115263 1.4812193 -0.6459322
2.5336654 1.4942763 -0.4903872
2.4855137 1.4658779 -0.32163021
6.6790471 3.9390924 -0.43311459
12.446403 7.3404975 0
12.441988 7.337894 0.80682266
2.5228529 1.492011 -0.64930844
2.5672114 1.5182445 -0.49723467
6.6809945 3.9511292 -0.43355015
12.426317 7.3489037 0
12.421932 7.3463101 0.80609709
2.5407155 1.5067216 -0.65437382
2.5697868 1.5239617 -0.49808979
6.6784482 3.9605231 -0.43369517
12.399521 7.3532934 0
12.404106 7.3560123 0.80551654
2.5847535 1.537062 -0.6661939
2.5723605 1.5296924 -0.49894655
6.6825914 3.9739022 -0.43427572
12.404053 7.3762541 0
12.39744 7.3723216 0.80566156
2.6025333 1.5518949 -0.67125928
2.5682991 1.5314809 -0.49851733
6.6710873 3.9779804 -0.43384016
0 0 0
12.386293 7.3859668 0.80551654
2.6072009 1.5589516 -0.67294848
2.5532315 1.5266812 -0.49595034
6.6528993 3.9780395 -0.4329696
12.412994 7.422235 0
12.384052 7.4049296 0.80595213
2.603138 1.5607954 -0.67238617
6.630259 3.9753857 -0.43180847
12.399549 7.4345493 0
12.386237 7.4265676 0.8066777
2.5947154 1.5600107 -0.67069697
6.5630965 3.945905 -0.42774457
12.403943 7.4575748 0
12.383937 7.4455466 0.80711323
2.577594 1.5539603 -0.66675621
6.5160489 3.9283462 -0.42498735
12.39715 7.4738994 0
12.383833 7.4658709 0.80769378
2.5604997 1.547876 -0.66281766
6.4601502 3.905297 -0.42164901
12.397018 7.4942589 0
12.374803 7.4808292 0.80769378
2.5046411 1.5223851 -0.64930844
6.4062934 3.8939095 -0.41874677
12.401107 7.5377107 0
12.37667 7.5228577 0.8089999
0 0 -0
12.39421 7.5540428 0
12.383105 7.5472746 0.81001604
6.3525209 3.8822794 -0.41584396
12.389519 7.5717301 0
12.373977 7.5622315 0.81001604
0 0 -0
12.389236 7.592134 0
12.37147 7.5812469 0.81045103
6.3054862 3.8744948 -0.41337675
12.362315 7.5961986 0
12.371157 7.6016312 0.81103158
0 0 -0
6.9958334 4.3103418 0
12.370811 7.622026 0.81161213
6.2872624 3.8842585 -0.41279617
6.9751196 4.3092155 0
12.372643 7.6437955 0.8123377
6.2737284 3.886379 -0.41221562
6.9699078 4.3176403 0
12.374441 7.6655803 0.81306326
6.2579937 3.8871028 -0.41149008
6.9425826 4.3123298 0
12.369589 7.6832714 0.81335378
7.2533741 4.5114508 -0.9520939
6.2446136 3.8840225 -0.41076452
6.9443998 4.3192749 0
12.373771 7.6962328 0.81393439
7.2259665 4.5065217 -0.94921041
6.2310967 3.8860648 -0.41018397
6.9413819 4.3290386 0
12.375484 7.7180524 0.81465989
7.2073622 4.5070243 -0.94748122
6.1867361 3.8687897 -0.40757117
6.9295244 4.333282 0
12.37056 7.7357583 0.81495047
7.1843805 4.5047374 -0.94517487
6.1732593 3.8707461 -0.40699115
6.9154639 4.3361216 0
12.374408 7.7589793 0.81582105
7.1570396 4.499651 -0.94229245
6.1619763 3.874052 -0.40655559
6.8992052 4.3375502 0
12.382623 7.7849898 0.81698215
7.1472173 4.5055346 -0.94171536
6.1506939 3.8773363 -0.40612006
6.8829532 4.3389454 0
0 0 0
7.1352067 4.5100203 -0.9408502
6.137219 3.8792121 -0.40553948
6.8469028 4.3277893 0
0 0 0
7.1232042 4.5144887 -0.93998617
6.1237478 3.8810608 -0.40495893
6.8350801 4.3318834 0
0 0 0
7.119925 4.524478 -0.94027418
6.1102815 3.8828828 -0.40437838
6.7705331 4.3024511 0
0 0 0
7.110086 4.5302954 -0.93969703
6.0968199 3.8846779 -0.40379781
6.7477708 4.2994409 0
0 0 0
7.1067929 4.5402799 -0.93998617
6.0811749 3.8850486 -0.40307227
6.7184525 4.2921829 0
12.547009 8.0158424 0.83164054
7.1143651 4.5572319 -0.94171536
6.0545998 3.8783805 -0.40162113
6.6803875 4.2792397 0
12.546067 8.0366039 0.83222109
7.1066794 4.5644283 -0.94142735
6.0433483 3.8814793 -0.40118557
6.6467476 4.2690263 0
12.547276 8.0587769 0.83294666
7.105504 4.57581 -0.94200337
6.0299149 3.8831513 -0.40060502
6.6350265 4.2728314 0
12.548451 8.080965 0.83367223
7.0956283 4.5815892 -0.94142735
6.0143061 3.8833883 -0.39987946
6.614552 4.2709622 0
12.538678 8.0961218 0.83367223
7.0987716 4.5957818 -0.94258052
6.0008845 3.885004 -0.39929891
6.5875363 4.2648053 0
12.544157 8.1211529 0.83468831
7.0953808 4.605763 -0.94286853
5.9918308 3.889425 -0.3990089
6.5649233 4.2614317 0
12.543053 8.141963 0.83526891
7.1006474 4.6213861 -0.94430971
5.9784155 3.8909926 -0.39842835
6.5466776 4.2608404 0
12.544093 8.1641989 0.83599442
7.0972223 4.6313744 -0.94459772
5.9715276 3.8967893 -0.3982828
6.5197339 4.254528 0
12.538567 8.1821871 0.83628446
7.0937915 4.641367 -0.94488686
5.9559445 3.8968899 -0.39755723
6.5167642 4.2638264 0
12.537369 8.203022 0.83686501
7.086009 4.6485124 -0.94459772
5.9490609 3.9026599 -0.39741224
6.4941988 4.2602773 0
12.542659 8.2281437 0.83788115
7.0847135 4.6599164 -0.94517487
5.9378262 3.90556 -0.39697668
6.4890466 4.2681208 0
12.541391 8.2490044 0.8384617
7.0466871 4.6471128 -0.9408502
5.9244261 3.9070098 -0.39639613
6.4708533 4.2673645 0
12.540092 8.2698746 0.83904225
6.5232997 4.313271 -0.87166446
5.9175353 3.9127338 -0.39625111
6.4439793 4.2608237 0
12.53876 8.2907534 0.8396228
6.5228472 4.3186378 -0.87195247
5.9086685 3.9120033 -0.39581555
6.432724 4.2589693 0
12.542415 8.3040657 0.84020334
6.5068517 4.319365 -0.87051129
5.893115 3.9119558 -0.39509001
6.4189 4.2609816 0
12.543195 8.3263979 0.84092891
6.4908557 4.320055 -0.86906898
5.8948755 3.9233942 -0.39552557
6.4050889 4.2629719 0
12.535286 8.3429861 0.84107393
6.457664 4.3092322 -0.86532146
5.8836441 3.9261858 -0.39509001
6.3826151 4.2591519 0
12.542487 8.3696651 0.84223503
6.4309597 4.3026519 -0.8624391
5.8680997 3.9260688 -0.39436445
6.3688121 4.2610722 0
12.532365 8.3848143 0.84223503
6.3333993 4.248466 -0.85004336
5.8611956 3.9317102 -0.39421946
6.357173 4.2644138 0
12.533011 8.4071875 0.8429606
6.2917771 4.2315784 -0.84514266
5.8542781 3.9373353 -0.3940739
6.3412199 4.2648315 0
12.535785 8.4310284 0.84383172
6.2394853 4.2073669 -0.83880079
5.8452115 3.9415033 -0.3937839
6.3188 4.2608504 0
12.52774 8.4476213 0.84397668
6.1851115 4.1815829 -0.83216977
5.8382945 3.9471095 -0.39363888
6.317955 4.2713947 0
12.536896 8.4758492 0.84528279
6.1543627 4.1716385 -0.82871026
5.8313718 3.9527044 -0.39349389
6.2955637 4.2673492 0
12.530943 8.4939041 0.84557283
6.0787334 4.131103 -0.81919801
5.8244362 3.9582827 -0.39334834
6.2860937 4.2720246 0
12.533569 8.5178051 0.84644395
6.0117526 4.0962105 -0.81083781
5.8153586 3.9623942 -0.39305833
6.2744727 4.2752194 0
12.534003 8.5402575 0.84716952
5.9726276 4.0801277 -0.80622512
5.8062711 3.9664836 -0.39276779
6.252111 4.2710538 0
12.534401 8.5627232 0.84789503
5.9506216 4.0756493 -0.80391878
5.7971907 3.9705627 -0.39247778
6.2576876 4.2859626 0
12.539054 8.5881424 0.84891117
5.9392939 4.0784426 -0.80305362
5.7881007 3.9746199 -0.39218721
6.2374845 4.2832065 0
12.528667 8.6032867 0.84891117
5.9364982 4.0870872 -0.80334276
5.7854404 3.9830885 -0.39233276
6.225872 4.2863111 0
12.535385 8.6302071 0.85007226
5.9060116 4.0766253 -0.79988325
5.7784786 3.988596 -0.39218721
6.2142687 4.2894001 0
12.527084 8.646822 0.85021728
5.8989487 4.0822825 -0.7995941
5.7715206 3.9940979 -0.39204222
6.2069354 4.2954206 0
12.525174 8.6678667 0.85079783
5.8748879 4.076139 -0.79699975
5.7688231 4.0025487 -0.39218721
6.1953321 4.298471 0
12.523232 8.68892 0.85137838
5.863595 4.0788078 -0.79613572
5.7618513 4.0080338 -0.39204222
6.1986794 4.3118982 0
12.527658 8.7144337 0.85239452
5.8332038 4.0681353 -0.79267621
5.7570043 4.0149927 -0.39204222
6.1785202 4.3089623 0
12.527773 8.7369957 0.85312009
5.8028474 4.057395 -0.7892167
5.7500215 4.0204587 -0.3918972
6.1605082 4.3074741 0
12.525725 8.7580824 0.85370064
5.7834444 4.0490332 -0.78691036
5.7497177 4.0254207 -0.39204222
6.1600428 4.3126922 0
12.524685 8.7686262 0.85399061
5.7827859 4.0589929 -0.78748751
5.7406001 4.0293822 -0.39175221
6.1526909 4.3186326 0
12.520463 8.7882328 0.85442621
5.7503734 4.0466223 -0.78373885
5.7335963 4.0348158 -0.39160666
6.1368284 4.3185763 0
12.524713 8.8138247 0.85544229
5.72858 4.0416446 -0.78143364
5.7372093 4.0477328 -0.39218721
6.1124692 4.3124871 0
12.52891 8.8394327 0.85645789
5.7279115 4.051548 -0.78200966
5.7365613 4.0576663 -0.39247778
6.1136303 4.3243799 0
12.530952 8.8635712 0.85732895
5.723012 4.058466 -0.78200966
5.723176 4.0585823 -0.3918972
6.0999088 4.3257422 0
12.526586 8.8832111 0.85776401
5.6991339 4.0518913 -0.77941531
5.7182674 4.0654945 -0.3918972
6.0925584 4.3316031 0
12.528554 8.9073772 0.85863507
5.7089791 4.0692849 -0.78143364
5.7112374 4.0708942 -0.39175221
6.0851951 4.3374467 0
12.528359 8.9300489 0.85936064
5.6991286 4.0830693 -0.78143364
5.7098317 4.0907378 -0.39233276
6.062006 4.3430481 0
12.525751 8.973917 0.86066675
5.6815825 4.0808964 -0.77970332
5.6837764 4.0824723 -0.39088109
6.0461869 4.3427801 0
12.521232 8.9935951 0.86110234
5.6766472 4.0877585 -0.77970332
5.6704049 4.0832634 -0.39030054
6.045155 4.3531213 0
12.516676 9.0132685 0.86153734
5.6779971 4.0991578 -0.78056848
5.6823211 4.1022797 -0.39146167
6.0293422 4.352807 0
12.51842 9.0375147 0.86240846
5.6562777 4.0938835 -0.77826214
5.6542115 4.0923882 -0.38986555
6.030405 4.3646684 0
12.524331 9.0648222 0.86356956
5.6576095 4.1052737 -0.7791273
5.6597762 4.1068463 -0.39059108
6.0124846 4.3627782 0
12.51968 9.0845289 0.86400509
5.6568241 4.1151471 -0.77970332
5.6653142 4.1213236 -0.39131665
6.0009007 4.3654513 0
12.517091 9.1057577 0.8645851
5.6518474 4.1219792 -0.77970332
5.6624274 4.1296954 -0.39146167
5.9998231 4.3757629 0
12.522875 9.1331253 0.8657462
5.6405969 4.1242242 -0.77883816
5.6532426 4.1334701 -0.39117166
5.9882269 4.3783998 0
12.516029 9.1513205 0.86603677
5.6314416 4.1279812 -0.77826214
5.6545248 4.1449022 -0.39160666
5.9829321 4.3856325 0
12.519627 9.177186 0.86705232
5.6327043 4.139379 -0.7791273
5.6327696 4.1394272 -0.3904461
5.9692483 4.3866997 0
12.516904 9.1984615 0.86763293
5.6214495 4.1415782 -0.77826214
5.6361318 4.1523957 -0.39102665
5.9723163 4.4000778 0
12.516246 9.2212896 0.86835903
5.6226845 4.1529794 -0.7791273
5.6311102 4.1592026 -0.39102665
5.9544387 4.3980169 0
12.513455 9.2425814 0.86893958
5.6114244 4.1551509 -0.77826214
5.6219001 4.1629081 -0.3907361
5.9428439 4.4005609 0
12.516891 9.2685146 0.86995512
5.6234589 4.1693249 -0.78028047
5.625648 4.170948 -0.39117166
5.9318218 4.3979502 0
12.519638 9.2822657 0.87053567
5.605958 4.1668563 -0.77855015
5.6247711 4.1808395 -0.39146167
5.9369531 4.4128819 0
12.518838 9.3051348 0.87126124
5.5926232 4.1674447 -0.77739698
5.6343021 4.198503 -0.39247778
5.9107442 4.4044986 0
12.511757 9.3233633 0.87155181
5.6000204 4.1834903 -0.7791273
0 0 -0
5.9095917 4.4147553 0
12.517136 9.3509159 0.87271291
5.5866804 4.184052 -0.77797413
0 0 -0
5.902164 4.4203281 0
12.514147 9.3722639 0.87329346
5.579546 4.1892419 -0.77768499
0 0 -0
5.886415 4.4196453 0
12.515277 9.3967361 0.87416404
5.5682869 4.1913185 -0.77682096
0 0 -0
5.8748384 4.4220638 0
12.510144 9.4165411 0.87459958
5.5714765 4.2042756 -0.77797413
5.5963855 4.2230716 -0.39160666
5.8674073 4.427587 0
12.507053 9.437911 0.87518018
5.5663924 4.2110047 -0.77797413
5.5892081 4.2282648 -0.39146167
5.8496041 4.4252558 0
12.51014 9.4639854 0.87619573
5.5695438 4.223979 -0.7791273
5.5820265 4.2334466 -0.39131665
5.8318071 4.4228816 0
12.51319 9.4900875 0.87721181
5.5520782 4.2213101 -0.77739698
5.574841 4.2386169 -0.39117166
5.7974591 4.407876 0
12.512054 9.5130625 0.87793738
5.5531464 4.2327209 -0.77826214
5.5738444 4.2484975 -0.39146167
5.7755704 4.402257 0
12.504688 9.5313272 0.87822795
5.5541954 4.2441406 -0.7791273
5.5707698 4.2568054 -0.39160666
5.7619753 4.4029117 0
12.507609 9.5574684 0.87924349
5.5387912 4.2429795 -0.77768499
5.563561 4.2619548 -0.39146167
0 0 0
12.504303 9.5788956 0.87982404
5.5418658 4.2559705 -0.77883816
5.5604663 4.2702551 -0.39160666
0 0 0
12.503021 9.6019087 0.88054961
5.5285211 4.2563524 -0.77768499
5.5553026 4.2769709 -0.39160666
0 0 0
12.499646 9.6233501 0.88113016
5.5274734 4.2661929 -0.77826214
5.5501304 4.28368 -0.39160666
0 0 0
12.4983 9.646389 0.88185626
5.5223145 4.2728686 -0.77826214
5.5490646 4.2935667 -0.3918972
5.7249804 4.4296808 0
12.494856 9.6678448 0.88243687
5.5130563 4.2763648 -0.77768499
5.5438728 4.3002682 -0.3918972
5.7072897 4.4270277 0
12.497531 9.6940784 0.88345242
5.5262671 4.297317 -0.78028047
5.5345659 4.3037705 -0.39160666
5.7060413 4.4371128 0
12.49812 9.7187462 0.88432354
5.5292301 4.3103523 -0.78143364
5.5334644 4.313653 -0.3918972
5.7027264 4.4456024 0
12.502762 9.7466211 0.88548464
5.5572028 4.3375592 -0.78575718
5.528811 4.3153982 -0.39175221
5.6979899 4.4474473 0
12.505057 9.7605619 0.88606465
5.5601058 4.3506465 -0.78691036
5.5235925 4.3220754 -0.39175221
5.7049136 4.4639544 0
12.505537 9.7852755 0.88693577
5.5487375 4.352571 -0.78604519
5.5183663 4.3287468 -0.39175221
5.6913247 4.4644198 0
12.501882 9.8067942 0.88751632
5.5414433 4.3576751 -0.78575718
5.5110831 4.3338003 -0.39160666
5.6920576 4.4761147 0
12.502275 9.8315268 0.88838685
5.5382028 4.3659673 -0.78604519
5.5058427 4.3404565 -0.39160666
5.6846032 4.4813795 0
12.494472 9.8498468 0.88867742
5.5349588 4.3742642 -0.78633434
5.506712 4.3519411 -0.39204222
5.6853113 4.4930878 0
12.492752 9.8729906 0.88940299
5.5235853 4.3761287 -0.78546917
5.5075617 4.3634338 -0.39247778
5.6757946 4.4967184 0
12.490994 9.8961449 0.89012855
5.5142388 4.3795795 -0.78489202
5.4961791 4.3652358 -0.39204222
5.672401 4.5051966 0
12.493273 9.9225454 0.89114463
5.5089431 4.3862391 -0.78489202
5.4970007 4.3767309 -0.39247778
5.6791649 4.5217705 0
12.485336 9.9408674 0.89143467
5.5056663 4.3945107 -0.78518116
5.4876428 4.3801246 -0.39218721
5.673697 4.5286293 0
12.499715 9.9770174 0.89332134
5.4983273 4.3995395 -0.78489202
5.4904618 4.3932457 -0.39276779
5.6641607 4.5322328 0
12.491712 9.9953632 0.89361191
5.4990616 4.4110365 -0.78575718
5.4810996 4.3966279 -0.39247778
5.666801 4.5455871 0
12.491783 10.020203 0.89448243
5.5017905 4.424161 -0.78691036
5.4818597 4.4081345 -0.39291334
5.6572442 4.5491662 0
12.493843 10.046689 0.89549857
5.4964409 4.4308057 -0.78691036
5.4745007 4.4131193 -0.39276779
5.6557994 4.5592685 0
12.489787 10.068301 0.89607912
5.4870634 4.4341955 -0.78633434
5.4732103 4.4230008 -0.39305833
5.6604052 4.5742764 0
12.487715 10.09155 0.89680469
5.4877248 4.4457021 -0.78719836
5.5970731 4.534287 -0.4023467
5.6508255 4.5778327 0
12.485605 10.114808 0.89753026
5.5084481 4.4735255 -0.79094589
5.8053875 4.7146759 -0.41773066
5.6513524 4.589581 0
12.483459 10.138076 0.89825583
5.5271087 4.499774 -0.7944054
5.8399882 4.754498 -0.42063344
5.645803 4.596406 0
12.483294 10.162999 0.89912689
0 0 -0
5.8241754 4.7533379 -0.41990787
5.6422591 4.6048684 0
12.487109 10.191218 0.90028805
5.5042109 4.5032935 -0.79267621
5.8003221 4.7455583 -0.41860121
5.6427355 4.6166282 0
12.478805 10.209587 0.90057802
5.5167627 4.5247021 -0.79527056
5.7704821 4.7327957 -0.4168601
5.6431918 4.628396 0
12.482532 10.237841 0.90173912
5.5252786 4.5428648 -0.79728889
5.7346501 4.7150092 -0.41468287
5.6355791 4.6335535 0
12.474163 10.256213 0.90202916
5.5197854 4.5495377 -0.79728889
5.6968665 4.6954923 -0.41236064
5.6400237 4.6486406 0
12.467778 10.276237 0.90246469
5.5222597 4.5627937 -0.79844207
5.6571374 4.6742373 -0.40989339
5.6344023 4.6554523 0
12.465366 10.299569 0.90319026
5.5294647 4.5743709 -0.79988325
5.6382952 4.6644034 -0.40873227
5.637599 4.6638274 0
6.9855795 5.7789741 0.50639987
5.5458279 4.5992064 -0.80305362
5.6066551 4.6496511 -0.4068456
5.6359696 4.6739616 0
6.9785919 5.7874103 0.50639987
5.5402665 4.6059041 -0.80305362
5.5970407 4.6531029 -0.40655559
5.6323175 4.6824303 0
6.9675937 5.7925129 0.5061093
5.5108542 4.5927243 -0.7995941
5.591414 4.6598625 -0.40655559
5.63065 4.6925616 0
6.9585953 5.7992659 0.50596428
5.5096593 4.6143365 -0.80103642
5.5661902 4.6616807 -0.40553948
5.6212945 4.7078309 0
6.9146771 5.7910376 0.50378704
5.5001144 4.617661 -0.80045927
5.5506048 4.6600509 -0.40481395
5.6175933 4.7162914 0
6.9076743 5.7993884 0.50378704
5.4984922 4.6276379 -0.80103642
5.5529222 4.6734471 -0.40539449
5.6218443 4.7314529 0
6.8410239 5.7575383 0.49943316
5.5027795 4.6426158 -0.8024776
5.5413113 4.6751246 -0.40495893
5.6201053 4.7416019 0
6.8281097 5.7607784 0.49899817
5.5030923 4.654274 -0.80334276
5.5316939 4.6784644 -0.40466893
5.6203275 4.7534266 0
6.7358298 5.6968694 0.49275702
5.5053482 4.667604 -0.8044948
5.5339646 4.6918664 -0.40524948
5.6145797 4.7602139 0
6.7547126 5.7268543 0.49464425
5.5036497 4.6776061 -0.80507195
5.516408 4.6884499 -0.40437838
5.6127939 4.7703686 0
6.7062111 5.6996751 0.49159646
5.4999604 4.6859288 -0.80535996
5.5305219 4.7119665 -0.40583006
5.6129627 4.7822056 0
6.6914077 5.7010331 0.49101591
5.4942946 4.6925707 -0.80535996
5.5149393 4.7102032 -0.40510392
5.6131191 4.7940564 0
6.6766105 5.702364 0.49043533
5.4945168 4.7042542 -0.80622512
5.5131955 4.7202468 -0.40539449
5.6073222 4.8008356 0
6.6361623 5.6816998 0.48796812
5.4966793 4.717628 -0.80737829
5.5272021 4.743825 -0.4068456
5.6054711 4.8110003 0
6.641119 5.6998649 0.48883867
5.4968591 4.7293286 -0.80824345
5.5175304 4.7471137 -0.40655559
5.6055665 4.8228574 0
6.644074 5.7163572 0.48956424
5.4950538 4.7393422 -0.80881947
5.5354028 4.7741423 -0.40829727
5.6036801 4.8330297 0
6.6155229 5.705718 0.48796812
5.4932404 4.7493653 -0.80939662
5.5433841 4.7927184 -0.40931284
5.6037445 4.8449054 0
6.6164865 5.7205052 0.48854867
5.4972682 4.7644677 -0.81083781
5.5690064 4.8266425 -0.41163507
5.6018157 4.8550782 0
6.5938606 5.7148809 0.48738757
5.4954085 4.7744961 -0.81141382
5.6455507 4.9049416 -0.41773066
5.601841 4.8669658 0
6.5516391 5.6921654 0.48477477
5.4935403 4.784533 -0.81199098
5.6984005 4.9629536 -0.42208454
5.5998774 4.8771462 0
6.5878687 5.7376256 0.48796812
0 0 -0
5.7237177 4.9971786 -0.4244068
5.5979047 4.8873353 0
6.5124202 5.6857667 0.4828881
5.5121188 4.8183103 -0.81602651
5.7324324 5.0108929 -0.42527735
5.598866 4.8941388 0
6.4776893 5.6623449 0.48056641
5.5218554 4.838604 -0.81833285
5.7381029 5.0280943 -0.42614844
5.5949039 4.9026136 0
0 0 0
5.5587525 4.8828225 -0.82467473
5.7144551 5.0195918 -0.42484233
5.5948439 4.914525 0
0 0 0
5.5606132 4.8963728 -0.8258279
5.7161865 5.0333619 -0.42542291
5.5928116 4.9247246 0
0 0 0
5.5546927 4.9030881 -0.8258279
5.715939 5.0454187 -0.4258579
5.5888062 4.9331994 0
6.4054384 5.6540351 0.47722808
5.535203 4.8977966 -0.82380956
5.7078943 5.0506015 -0.42571291
5.5925846 4.9485703 0
6.3888741 5.6531625 0.47650251
5.5234818 4.8993373 -0.82294554
5.6901278 5.0471525 -0.42484233
5.5885463 4.9570494 0
0 0 0
5.5175581 4.9060078 -0.82294554
5.6801376 5.0505676 -0.42455178
5.5883889 4.9689879 0
0 0 0
5.5039024 4.905787 -0.82179236
5.662396 5.0470567 -0.42368123
5.58044 4.9740067 0
0 0 0
5.4941096 4.9089837 -0.82121521
5.6524143 5.0504289 -0.42339066
5.5802422 4.9859433 0
0 0 0
5.490099 4.9173427 -0.82150322
5.6443744 5.0555234 -0.42324567
5.5819678 4.9996276 0
6.2655711 5.6119137 0.46982637
5.4841533 4.9239731 -0.82150322
5.6305275 5.0553956 -0.42266512
5.5797997 5.0098491 0
6.280056 5.6385779 0.47142306
5.4820485 4.9340596 -0.82208037
5.6147599 5.0535054 -0.42193955
5.5776072 5.0200663 0
6.3079991 5.6774483 0.47403529
5.4818454 4.9458799 -0.82294554
5.5932155 5.046361 -0.42077842
5.5773358 5.0320339 0
6.3011346 5.6850657 0.47403529
5.4701085 4.9472933 -0.82208037
5.5794053 5.0461435 -0.42019787
5.5789723 5.045752 0
6.2904024 5.6891861 0.47374472
5.4717917 4.9608483 -0.82323354
5.5617571 5.0424132 -0.41932732
5.5747976 5.0542359 0
6.2739 5.6880579 0.47301915
5.4657931 4.9674563 -0.82323354
5.5518107 5.0456314 -0.41903678
5.5744662 5.0662208 0
6.2670226 5.6956344 0.47301915
5.4597874 4.9740572 -0.82323354
5.53227 5.040091 -0.4180212
5.5721846 5.0764551 0
6.2505336 5.6944547 0.47229362
5.4518647 4.9789081 -0.82294554
5.5108261 5.0327539 -0.4168601
5.5718136 5.0884509 0
6.2282987 5.6879849 0.47113249
5.447751 4.9872365 -0.82323354
5.4951525 5.0306311 -0.41613397
5.5695038 5.0986977 0
6.2080107 5.6832294 0.47011694
5.4512472 5.0025578 -0.82467473
5.4622707 5.0126739 -0.41410229
5.5729246 5.1142201 0
6.2145348 5.7030196 0.47113249
5.4585252 5.0214005 -0.82669306
5.4370899 5.0016818 -0.41265118
5.5724816 5.1262307 0
6.1980796 5.7017303 0.47040695
5.4790702 5.052537 -0.83072859
5.4425001 5.0188136 -0.41352174
5.5643721 5.1311979 0
6.1988263 5.7162614 0.4709875
5.5185452 5.1012902 -0.83764762
5.4574227 5.0447898 -0.41511843
5.5619936 5.1414542 0
6.1861887 5.7184539 0.47055194
5.534441 5.1221886 -0.84052998
5.4715357 5.0639691 -0.41642454
5.570343 5.1554165 0
6.1846452 5.7239604 0.47069749
5.5320435 5.1323938 -0.84110713
0 0 -0
5.5679288 5.1656866 0
6.1777244 5.7314291 0.47069749
5.5163627 5.1302624 -0.83966482
0 0 -0
5.5654907 5.175952 0
6.1898189 5.7565823 0.4721486
5.5120568 5.1386929 -0.83995396
0 0 -0
5.5649452 5.1879988 0
6.163856 5.7463417 0.47069749
5.5001726 5.1400495 -0.8390888
0 0 -0
5.5662785 5.201827 0
6.1701922 5.7661996 0.47171304
5.4977298 5.1502252 -0.83966482
0 0 -0
5.5675859 5.2156658 0
6.1423659 5.7541146 0.47011694
5.4839606 5.1497817 -0.83851165
5.4574094 5.1248484 -0.41816622
5.5650706 5.2259488 0
6.1600313 5.7846546 0.47200361
5.4796228 5.1581821 -0.83880079
5.4606714 5.1403427 -0.41889176
5.5644388 5.2380228 0
6.1019506 5.7440033 0.46808469
5.4959531 5.1860943 -0.84225917
5.4620161 5.1540704 -0.41947231
5.5618873 5.248311 0
6.0231934 5.683609 0.46256968
5.5028377 5.2051744 -0.8442775
5.4690003 5.1731672 -0.42048845
5.555542 5.2550278 0
6.0653987 5.7373052 0.46634302
5.5059271 5.2207165 -0.84571868
5.4740553 5.1904955 -0.421359
5.5529685 5.2653217 0
6.0207577 5.708879 0.46344081
5.5239844 5.2505288 -0.8494662
5.4677796 5.1971064 -0.421359
5.5503716 5.27561 0
6.0195003 5.7215152 0.4638758
5.5419779 5.2803926 -0.85321373
5.4746661 5.216258 -0.42237511
5.5496473 5.2877002 0
6.0201073 5.7359538 0.46445635
5.5486884 5.299592 -0.85523206
5.4796305 5.233634 -0.42324567
5.5112619 5.2638459 0
5.9737134 5.7055364 0.46140856
5.5647001 5.3277574 -0.85869157
5.4733024 5.2402515 -0.42324567
0 0 0
5.966815 5.7127504 0.46140856
5.5582581 5.3344769 -0.85869157
5.4725928 5.2522607 -0.42368123
0 0 0
5.973033 5.7325525 0.4624247
5.5723138 5.3609166 -0.86186308
0 0 -0
5.5334015 5.3234806 0
5.9529924 5.7271533 0.46140856
5.5472107 5.3496876 -0.85897958
5.4748468 5.2799006 -0.42484233
5.5513163 5.3536468 0
5.9385862 5.7271271 0.46082801
5.557477 5.3725638 -0.86157393
5.4740624 5.291925 -0.42527735
0 0 0
5.9522138 5.7541666 0.4624247
5.5714149 5.3990765 -0.86474544
5.4732642 5.3039618 -0.42571291
0 0 0
5.919136 5.736042 0.46039301
5.576015 5.4166145 -0.86647463
5.4724445 5.3160048 -0.42614844
5.5001407 5.3429089 0
5.9233804 5.7540498 0.46126357
5.5758667 5.4427223 -0.86849296
5.4707351 5.3401008 -0.42701903
5.5225992 5.3907266 0
5.8759909 5.7356801 0.45865133
5.5670266 5.4406648 -0.8676278
5.4712281 5.3470407 -0.42730957
5.4635077 5.3394957 0
5.8706684 5.7374144 0.45850635
5.5678387 5.4546275 -0.86878097
5.4703264 5.359098 -0.42774457
5.45333 5.3424473 0
5.852591 5.7335896 0.45763522
5.5630875 5.4631619 -0.86906898
5.4694104 5.3711677 -0.42818013
5.4505882 5.3526831 0
5.8549266 5.7497587 0.45836079
5.5601721 5.4735122 -0.86964613
5.4721737 5.3868852 -0.4289057
5.4570937 5.3720398 0
5.8257608 5.7349615 0.45661965
5.562758 5.4893084 -0.87108731
5.4656606 5.3934932 -0.4289057
5.4487481 5.3768039 0
5.8003283 5.7237415 0.45516798
5.5542841 5.4942088 -0.8707993
5.4646835 5.4055772 -0.42934126
5.43855 5.3797264 0
5.7897167 5.7270951 0.454878
5.551311 5.5045547 -0.87137532
5.463685 5.4176669 -0.42977682
5.4394307 5.3936167 0
5.7274418 5.6792021 0.45052409
5.5464954 5.5130873 -0.87166446
5.4700298 5.4370823 -0.43079236
5.43291 5.4001856 0
5.7076731 5.6732941 0.44950795
5.5471587 5.5270872 -0.87281764
5.4671412 5.4473591 -0.43108293
5.4374456 5.4177709 0
5.7100158 5.6893549 0.45023352
5.538641 5.5319529 -0.87252849
5.4605551 5.4539614 -0.43108293
5.4345746 5.4280119 0
0 0 0
5.5429235 5.5496249 -0.87425882
5.463141 5.4697461 -0.43180847
5.4445624 5.4511452 0
0 0 0
5.5325589 5.5526505 -0.87368166
5.4656963 5.4855447 -0.43253404
5.4398141 5.4595685 0
0 0 0
5.524024 5.5574985 -0.87339365
5.4627314 5.4958344 -0.43282458
5.4368792 5.4698257 0
0 0 0
5.5100203 5.5568228 -0.87224048
5.4670606 5.5134983 -0.43369517
5.4449253 5.4911752 0
0 0 0
5.5014844 5.5616393 -0.87195247
5.4658785 5.5256438 -0.4341307
5.4364581 5.4959021 0
0 0 0
5.4856787 5.5590796 -0.87051129
5.4628444 5.5359402 -0.4344207
5.4316397 5.5043173 0
5.6781154 5.7540913 0.45153964
5.4753251 5.5620136 -0.86993414
5.4616218 5.5480938 -0.43485627
5.4468932 5.5331321 0
5.6766291 5.7665048 0.4519752
5.4667897 5.566782 -0.86964613
5.4603777 5.5602527 -0.43529183
5.4420257 5.5415645 0
5.6714759 5.7752118 0.45212018
5.4600596 5.5733833 -0.86964613
5.4572887 5.5705552 -0.43558183
5.4262209 5.5388427 0
5.6644936 5.7820606 0.45212018
5.456933 5.5836725 -0.87022215
5.4578185 5.5845785 -0.43616238
5.4195247 5.5453954 0
5.661139 5.7926211 0.45241076
5.4483786 5.5884123 -0.86993414
5.4601345 5.6004701 -0.43688795
