# .PCD v0.7 - Point Cloud Data file format
VERSION 0.7
FIELDS x y z
SIZE 4 4 4
TYPE F F F
COUNT 1 1 1
WIDTH 1707
HEIGHT 1
VIEWPOINT 0 0 0 1 0 0 0
POINTS 1707
DATA ascii
-0.97765398 11.367972 -0.63731539
-5.1987309 60.449844 0
-5.2776198 61.367149 3.4403872
-0.99274349 11.38231 -0.63818592
-5.2760649 60.492771 0
-5.3569593 61.420269 3.4437256
-1.0090142 11.409576 -0.63978261
-5.3500714 60.496723 0
-5.4327712 61.431862 3.444741
-0 0 -0
-5.4264193 60.526497 0
-5.5123329 61.484779 3.4480796
-0 0 -0
-5.5037894 60.566555 0
-5.5922642 61.540173 3.4515622
-0 0 -0
-5.5767293 60.557262 0
-5.6685252 61.55407 3.4527233
-0 0 -0
-5.6195602 60.621262 0
-5.7270575 61.780895 3.4656401
-0 0 -0
-5.6959682 60.648109 0
-0 0 0
-0 0 -0
-5.7687521 60.635998 0
-5.8829861 61.836723 3.469559
-0 0 -0
-5.8427634 60.636757 0
-5.961936 61.873535 3.4720261
-0 0 -0
-5.4469614 55.822491 0
-2.3869059 24.461903 1.3728377
-0 0 -0
-5.5092907 55.764072 0
-2.421571 24.510717 1.3757404
-0 0 -0
-5.5600915 55.591652 0
-2.4514441 24.510357 1.3758854
-0 0 -0
-5.6152015 55.46579 0
-2.4821053 24.517717 1.3764659
-0 0 -0
-5.6800952 55.438255 0
-2.5114627 24.512108 1.3763204
-0 0 -0
-6.3313241 61.066494 0
-2.5434914 24.532324 1.3776271
-0 0 -0
-6.4029346 61.038094 0
-2.5742164 24.53957 1.3782077
-0 0 -0
-6.4766822 61.030312 0
-2.6038659 24.536442 1.3782077
-0 0 -0
-6.6942978 62.36277 0
-2.6321239 24.520351 1.3774816
-0 0 -0
-6.7713308 62.370155 0
-2.6600678 24.501659 1.376611
-0 0 -0
-6.8441324 62.33865 0
-2.6891036 24.493256 1.3763204
-0 0 -0
-6.2860394 56.624565 0
-2.7209907 24.510651 1.3774816
-0 0 -0
-6.351552 56.591068 0
-2.7500257 24.502184 1.3771915
-6.4196339 56.580769 0
-2.7761147 24.467861 1.3754499
-7.1862655 62.661633 0
-2.8033087 24.443836 1.3742887
-7.2631736 62.663246 0
-2.8325434 24.437853 1.3741437
-7.3449388 62.706108 0
-2.3923242 20.424044 1.1486084
-7.4265137 62.746296 0
-2.4182227 20.431459 1.149189
-7.5100498 62.801876 0
-2.4429083 20.428524 1.149189
-7.5918579 62.841839 0
-2.9499996 24.418713 1.3738532
-7.6715674 62.863621 0
-2.9908342 24.507986 1.3790781
-7.7577081 62.936958 0
-3.0245774 24.537878 1.3809649
-7.8433938 63.005013 0
-3.0539036 24.53163 1.3808199
-7.8856568 63.033829 0
-3.05937 24.455009 1.376611
-7.9719257 63.10429 0
-3.0824034 24.399736 1.3737081
-8.0567303 63.161728 0
-3.115829 24.426926 1.3754499
-8.1400232 63.206146 0
-2.6183097 20.330811 1.1449801
-8.2251129 63.263363 0
-2.6371789 20.283831 1.1425128
-8.3103542 63.320473 0
-2.662025 20.283213 1.1426584
-8.3926678 63.35424 0
-2.6868722 20.282555 1.1428034
-8.4799042 63.424011 0
-2.7144766 20.302471 1.1441095
-8.564189 63.470455 0
-2.7511666 20.389297 1.149189
-8.652812 63.547733 0
-2.7772033 20.396257 1.1497695
-8.73207 63.555279 0
-2.8029075 20.400612 1.1502051
-0 0 -0
-8.8152895 63.59108 0
-2.8268414 20.392057 1.1499145
-0 0 -0
-8.9000502 63.637081 0
-2.8521996 20.393778 1.1502051
-0 0 -0
-8.9823904 63.664936 0
-3.454005 24.481123 1.3809649
-0 0 -0
-9.0805788 63.803471 0
-3.4978609 24.577253 1.3866249
-0 0 -0
-9.1632118 63.831085 0
-3.6036136 25.102833 1.4165223
-0 0 -0
-9.2511473 63.894657 0
-3.6197946 25.000742 1.4110072
-0 0 -0
-9.3275928 63.878288 0
-3.6563828 25.040058 1.4134744
-0 0 -0
-9.4104567 63.905586 0
-3.0105743 20.444546 1.154269
-0 0 -0
-9.5494509 63.779713 0
-3.0626643 20.455191 1.1552845
-0 0 -0
-9.6148558 63.690933 0
-3.0912576 20.477175 1.1567363
-9.7008123 63.738438 0
-3.1382816 20.619837 1.1650085
-8.6186686 56.171928 0
-3.1726522 20.677671 1.1684918
-8.6549816 56.182148 0
-3.1859345 20.680883 1.1687819
-8.7196655 56.151077 0
-3.2145092 20.700125 1.1700879
-0 0 -0
-8.7887144 56.148216 0
-3.2439396 20.724466 1.1716846
-0 0 -0
-0 0 -0
-8.8553352 56.129841 0
-3.2689786 20.720531 1.1716846
-8.9272366 56.144798 0
-3.9007339 24.53233 1.387496
-8.9950705 56.133968 0
-0 0 0
-9.0587425 56.097374 0
-4.111196 25.459085 1.440469
-9.1348782 56.13776 0
-4.1452942 25.474617 1.4416301
-9.1980705 56.098431 0
-4.175652 25.467028 1.441485
-9.266696 56.092403 0
-4.2085381 25.474779 1.4422107
-9.3348942 56.08374 0
-4.2410231 25.479929 1.4427912
-9.4052353 56.087814 0
-4.271378 25.472225 1.4426463
-9.4729996 56.076412 0
-4.304749 25.482414 1.4435167
-9.5429325 56.077747 0
-4.3355365 25.477194 1.4435167
-10.941585 63.830296 0
-4.3654389 25.466808 1.4432262
-11.030659 63.886272 0
-4.3891354 25.420557 1.4409045
-11.120773 63.947243 0
-4.4087181 25.351236 1.4372762
-11.196688 63.926075 0
-5.1314793 29.297531 1.6613598
-11.293361 64.022697 0
-5.1749997 29.337366 1.663972
-11.391194 64.124306 0
-4.4705901 25.166239 1.4276973
-11.474625 64.143799 0
-4.5000811 25.155708 1.4274073
-10.428259 57.890934 0
-4.527709 25.134903 1.4265362
-0 0 -0
-10.501453 57.896217 0
-4.5580764 25.129416 1.4265362
-10.564857 57.847649 0
-4.5907707 25.136667 1.4272617
-10.590422 57.790058 0
-4.6092353 25.151783 1.4282779
-10.66638 57.81049 0
-3.3591731 18.206312 1.0340997
-10.741453 57.825706 0
-3.377847 18.184355 1.0330836
-10.804619 57.776867 0
-3.4031608 18.198141 1.0340997
-12.331308 65.502586 0
-3.422744 18.18125 1.0333741
-12.436612 65.625717 0
-5.52985 29.180002 1.6588926
-12.51785 65.620865 0
-5.5631566 29.16309 1.6583121
-12.607925 65.661911 0
-3.7968097 19.773737 1.1246617
-12.693676 65.679848 0
-3.8152773 19.741077 1.1230656
-12.783959 65.720657 0
-3.8326783 19.703297 1.1211789
-12.862861 65.702614 0
-3.850991 19.670599 1.1195822
-12.924633 65.597656 0
-3.8707378 19.645536 1.1184211
-12.998823 65.556465 0
-3.8899248 19.617908 1.117115
-13.058166 65.441177 0
-3.9100666 19.595354 1.1160989
-0 0 -0
-13.093682 65.208481 0
-3.9306726 19.575335 1.1152283
-0 0 -0
-0 0 0
-3.9512339 19.555283 1.1143572
-0 0 -0
-0 0 0
-3.975379 19.553049 1.1145028
-0 0 -0
-0 0 0
-3.9948359 19.527864 1.1133416
-0 0 -0
-7.3589897 35.752716 0
-4.0121422 19.492483 1.1115999
-0 0 -0
-7.3916292 35.692829 0
-4.0383263 19.50034 1.1123255
-0 0 -0
-7.4368749 35.694061 0
-4.0602951 19.487812 1.11189
-7.4778633 35.674862 0
-4.0822415 19.475269 1.111455
-7.5274076 35.696358 0
-4.1073775 19.477943 1.11189
-7.571074 35.689781 0
-4.1314507 19.475515 1.1120355
-7.616365 35.690784 0
-4.157691 19.483213 1.112761
-4.8525877 22.672424 0
-4.8503013 22.661743 1.2944663
-4.8799791 22.666544 0
-4.884243 22.686348 1.2962079
-4.9035077 22.642824 0
-4.9111018 22.677893 1.2960628
-3.7534275 17.231443 -0.98505169
-4.925879 22.613998 0
-4.9429245 22.692253 1.297224
-3.7614546 17.168514 -0.98171335
-4.9448447 22.569895 0
-4.9720068 22.693872 1.297659
-3.7777233 17.143656 -0.98055226
-4.9715528 22.561365 0
-4.9999847 22.690392 1.2978046
-3.7939374 17.118784 -0.97939116
-4.9948678 22.537552 0
-4.0570254 18.305874 1.0473064
-3.8140545 17.111654 -0.97924614
-4.7027864 21.098925 0
-4.0870571 18.336472 1.0493386
-3.834728 17.107033 -0.97924614
-5.0459032 22.510183 0
-4.1137547 18.351793 1.0504992
-3.8548248 17.099854 -0.97910112
-5.0696659 22.488842 0
-4.1599255 18.453268 1.0565947
-3.8920937 17.072752 -0.97808504
-5.1268897 22.48921 0
-4.1981559 18.4153 1.0549986
-3.91272 17.068037 -0.97808504
-5.1540599 22.483 0
-4.2087917 18.35956 1.0520959
-3.935092 17.070894 -0.97852057
-5.1829743 22.484356 0
-4.228055 18.341803 1.0513703
-3.9580629 17.076254 -0.97910112
-5.2089643 22.473011 0
-4.3364601 18.708771 1.0727048
-3.9810524 17.081581 -0.97968167
-5.2361145 22.466702 0
-4.3708563 18.75412 1.0756071
-4.0058374 17.09446 -0.98069727
-5.2650394 22.467962 0
-4.3881788 18.726059 1.0743009
-4.0276828 17.094671 -0.98098779
-4.4590445 18.925495 0
-4.4066329 18.703045 1.0732853
-4.0513296 17.10243 -0.98171335
-4.4747128 18.889715 0
-4.4304256 18.702759 1.0735754
-4.0743999 17.107634 -0.9822939
-4.4902983 18.853914 0
-4.4584384 18.72014 1.0748814
-4.0999088 17.122915 -0.98345506
-4.5064096 18.820631 0
-4.4774256 18.699581 1.074011
-4.1260681 17.140682 -0.98476118
-4.5224495 18.787348 0
-4.496367 18.678995 1.0731398
-4.1528864 17.160934 -0.98621225
-4.5420847 18.769215 0
-4.5189338 18.673548 1.0731398
-4.1742353 17.158438 -0.98635781
-4.5616851 18.751072 0
-4.5402665 18.663031 1.0728498
-0 0 -0
-4.2202702 17.256855 -0.99230784
-4.5793924 18.725321 0
-4.552321 18.614624 1.0703826
-4.2405958 17.294682 -0.9946301
-4.5869875 18.707392 0
-4.5499535 18.556353 1.0671898
-4.2695737 17.32234 -0.99651676
-4.6052279 18.684145 0
-4.5736146 18.555883 1.0674797
-0 0 -0
-4.6278005 18.678566 0
-4.5929084 18.537735 1.0667542
-0 0 -0
-4.6453352 18.652758 0
-4.6096535 18.509481 1.0654482
-0 0 -0
-0 0 -0
-4.6716633 18.662283 0
-7.2454429 28.943977 1.6665843
-0 0 -0
-4.6891294 18.636435 0
-7.2943611 28.990644 1.6697776
-0 0 -0
-4.7090921 18.620663 0
-7.3287463 28.979282 1.6696321
-0 0 -0
-4.7315879 18.61496 0
-7.3656778 28.977964 1.6700677
-4.2435751 16.610933 -0.95762163
-4.7521439 18.601662 0
-7.5537515 29.568195 1.7046089
-4.2804432 16.671225 -0.96139497
-4.7746172 18.595905 0
-7.5649185 29.463413 1.6990938
-4.2953901 16.645912 -0.96023387
-4.7944822 18.580044 0
-7.608305 29.484444 1.7008356
-4.3194151 16.655807 -0.96110493
-4.8182368 18.579279 0
-9.5896025 36.977821 2.1337645
-0 0 -0
-4.8387132 18.565886 0
-9.6427946 36.998894 2.1356511
-0 0 -0
-8.6188183 32.906971 0
-9.7026339 37.045021 2.138989
-0 0 -0
-8.6380396 32.818523 0
-9.7738447 37.133785 2.1447945
-0 0 -0
-4.3865767 16.584494 -0.95820218
-8.6477432 32.694843 0
-9.8632212 37.290249 2.1545184
-4.4086156 16.586718 -0.95863771
-8.6457949 32.528435 0
-9.9356356 37.381256 2.1604683
-0 0 -0
-4.4313335 16.591412 -0.95921773
-8.6421165 32.357056 0
-9.9875031 37.394333 2.1619201
-3.5690897 13.298596 -0.7690953
-8.6495037 32.228458 0
-10.058272 37.477596 2.1674352
-3.5750065 13.256639 -0.76691812
-8.6579466 32.104916 0
-9.4885778 35.185013 2.0355101
-3.5855851 13.232246 -0.76575696
-8.6490908 31.91861 0
-9.5412769 35.211136 2.0376868
-3.6063502 13.245457 -0.7667731
-8.6521025 31.777569 0
-9.0261354 33.151325 1.9191141
-3.6168668 13.221039 -0.76561201
-8.6575298 31.646599 0
-9.0709858 33.15794 1.9201303
-3.6300845 13.206636 -0.7650314
-8.6661043 31.528215 0
-9.1069107 33.131916 1.9192592
-0 0 -0
-3.6304698 13.176883 -0.76343477
-8.6450577 31.377457 0
-9.1310682 33.141445 1.9201303
-3.6408458 13.152462 -0.76227421
-8.6447802 31.229046 0
-9.1717997 33.132889 1.9202753
-3.6574309 13.150554 -0.76241916
-8.641367 31.070652 0
-9.206953 33.104256 1.9192592
-3.6677237 13.126104 -0.76125807
-8.6536922 30.969963 0
-4.5459399 16.269077 0.94353706
-3.6835814 13.121663 -0.76125807
-8.6489067 30.809156 0
-4.5536561 16.221045 0.94106984
-3.6980217 13.112196 -0.76096749
-8.6501017 30.670946 0
-4.5527987 16.143007 0.93686092
-0 0 -0
-3.7074881 13.08522 -0.75966138
-8.6552305 30.547796 0
-4.5595522 16.092499 0.93424869
-0 0 -0
-3.7168946 13.058241 -0.75835526
-8.6565123 30.412169 0
-4.5725923 16.064487 0.93294257
-3.7269552 13.033753 -0.75719416
-8.6610565 30.289089 0
-4.5827131 16.026474 0.9310559
-3.7319422 12.991786 -0.75501752
-8.661006 30.151039 0
-4.5862932 15.965986 0.92786312
-0 0 -0
-3.7497969 12.994749 -0.75545251
-8.6642447 30.025545 0
-4.5861297 15.893023 0.92394423
-3.7611563 12.97524 -0.75458193
-8.6650152 29.892576 0
-4.5915866 15.840058 0.92118698
-0 0 -0
-3.781189 12.98565 -0.75545251
-8.6763926 29.797132 0
-4.6012797 15.802069 0.91930032
-3.7932303 12.968604 -0.75472695
-8.6780539 29.669235 0
-4.615263 15.779037 0.91828424
-3.8096292 12.966502 -0.75487196
-4.6241736 15.738895 0
-4.6365237 15.780931 0.91871977
-0 0 -0
-3.8363271 12.999274 -0.75704914
-4.6358228 15.708341 0
-4.6474977 15.7479 0.91712308
-3.8483396 12.982176 -0.75632364
-4.6533189 15.697732 0
-4.6650467 15.737295 0.9168331
-3.8981311 13.09207 -0.76299977
-4.6670866 15.674645 0
-4.6855402 15.736623 0.91712308
-0 0 -0
-2.1889851 7.3194675 -0.42672902
-8.6043692 28.771053 0
-4.6918955 15.688631 0.91465586
-2.1828771 7.2670455 -0.42382622
-8.6428699 28.773096 0
-10.517338 35.013412 2.0420408
-0 0 -0
-2.1826499 7.23455 -0.42208454
-8.6791325 28.767611 0
-10.531871 34.908646 2.0366712
-0 0 -0
-2.1665237 7.1498456 -0.4172951
-8.7146435 28.7596 0
-10.577058 34.905842 2.0372519
-0 0 -0
-2.17592 7.1497159 -0.41744065
-2.1757247 7.1490741 0
-9.885417 32.481853 1.8964735
-0 0 -0
-2.1805584 7.1339984 0
-9.9178219 32.447525 1.8951674
-0 0 -0
-2.1830671 7.111455 0
-10.955147 35.686962 2.0851452
-0 0 -0
-2.203069 7.1305194 -0.4168601
-8.8785715 28.73665 0
-11.025177 35.684418 2.0861609
-0 0 -0
-2.2263119 7.1749978 -0.41961733
-2.2107091 7.1247125 0
-9.9194336 31.968527 1.869624
-0 0 -0
-0 0 -0
-2.264354 7.2665677 -0.42513233
-0 0 0
-9.9480047 31.924271 1.8677373
-0 0 -0
-0 0 -0
-2.2909825 7.3208656 -0.4284707
-0 0 0
-9.9788132 31.887432 1.8662862
-0 0 -0
-2.2089128 7.0288029 -0.82121521
-2.3115098 7.3552685 -0.43064737
-0 0 0
-10.007987 31.845604 1.8645445
-2.2181818 7.0285926 -0.82150322
-2.3243051 7.3648577 -0.43137291
-0 0 0
-10.040984 31.816141 1.8635284
-2.2274566 7.0283799 -0.82179236
-2.3661721 7.4660745 -0.4374685
-2.2482111 7.0938678 0
-10.074711 31.789127 1.8626578
-2.2304559 7.0084286 -0.81977403
-2.3712523 7.4508319 -0.43674293
-2.258358 7.0961008 0
-10.113115 31.77693 1.8626578
-2.2373493 7.0008054 -0.81919801
-0 0 -0
-2.3105018 7.2297039 0
-10.149923 31.759743 1.8623679
-2.2434349 6.9907064 -0.81833285
-0 0 -0
-2.3208277 7.2318678 0
-10.19464 31.767239 1.8635284
-2.2510877 6.9855309 -0.81804484
-2.4149814 7.494122 -0.43979073
-6.0970278 18.920176 0
-10.237004 31.767271 1.8642545
-0 0 -0
-2.2547474 6.9680362 -0.81631452
-2.4184341 7.4738908 -0.43877462
-6.1142755 18.89546 0
-10.284179 31.782066 1.8658506
-2.0961285 6.45122 -0.75606501
-2.4298728 7.4783792 -0.43921018
-6.1403189 18.897959 0
-10.319362 31.759731 1.86527
-0 0 -0
-2.0750413 6.3601613 -0.74568647
-2.4389071 7.4754376 -0.43921018
-0 0 0
-13.379083 41.007919 2.4093699
-2.0786996 6.3453617 -0.74424529
-2.4463215 7.4675512 -0.43892017
-0 0 0
-13.423771 40.97691 2.4084995
-2.0847504 6.3379364 -0.74366927
-2.461024 7.4818616 -0.43993574
-0 0 0
-11.711501 35.604622 2.0935626
-2.096462 6.3476906 -0.74511045
-2.4708767 7.4813471 -0.44008073
-2.3966017 7.2564564 0
-11.757773 35.600315 2.0941432
-2.105757 6.3500581 -0.74568647
-2.1192489 6.3907437 -0.37607771
-2.4283011 7.3227119 0
-10.281239 31.003796 1.8244883
-2.1077111 6.3303375 -0.74366927
-2.1236858 6.3783164 -0.37549716
-2.4313948 7.302495 0
-10.310483 30.966692 1.8230366
-0 0 -0
-2.1202772 6.3424997 -0.74539846
-2.1421003 6.4077806 -0.37738383
-2.4459901 7.3168225 0
-10.330593 30.90246 1.8199887
-2.1221776 6.3227668 -0.74338013
-2.1374414 6.3682437 -0.37520716
-0 0 0
-11.72218 34.924793 2.0577152
-2.1372488 6.3422546 -0.74597448
-2.1492829 6.3779659 -0.37593272
-0 0 0
-11.764372 34.910603 2.0577152
-2.1449106 6.3396678 -0.74597448
-2.1644819 6.3975143 -0.37723884
-2.1589079 6.3810391 0
-11.799884 34.876671 2.0565541
-2.1492448 6.3272848 -0.74482244
-2.1738837 6.3998199 -0.37752938
-2.1749854 6.4030633 0
-11.841182 34.859932 2.0564091
-2.1602247 6.334466 -0.74597448
-2.1707094 6.3652096 -0.37564215
-2.1801996 6.3930387 0
-11.89168 34.870186 2.0578601
-2.1598706 6.3209243 -0.7445333
-2.1787579 6.3761988 -0.37636825
-2.1748075 6.3646379 0
-11.927867 34.907249 2.0604725
-2.1171527 6.1715279 -0.72723687
-2.1881454 6.3784723 -0.37665826
-6.0728235 17.70236 0
-12.04339 35.10664 2.0730991
-2.0698667 6.0100183 -0.70849925
-2.1966963 6.3782783 -0.37680328
-6.0950556 17.697468 0
-12.160257 35.30825 2.085871
-2.0610676 5.9610653 -0.70302141
-2.2061014 6.3805356 -0.37709382
-6.1155853 17.687632 0
-12.220742 35.345104 2.0889187
-2.0784466 5.9878922 -0.70648092
-2.2163665 6.385232 -0.37752938
-7.6098447 21.923552 0
-12.022317 34.635643 2.0478463
-2.0814257 5.9731665 -0.70503974
-2.2232225 6.3800883 -0.37738383
-7.6346183 21.90943 0
-12.033377 34.532757 2.0426214
-2.0860784 5.9633207 -0.70417458
-2.2292156 6.3724966 -0.37709382
-7.6550698 21.882992 0
-4.3766437 12.511192 0.74035239
-2.0907106 5.9534721 -0.70330942
-2.2343302 6.3624411 -0.37665826
-7.6875424 21.890917 0
-4.3857303 12.48873 0.73933631
-2.0875866 5.921679 -0.69985104
-2.2385607 6.3499341 -0.37607771
-7.7174492 21.89143 0
-4.3947721 12.466275 0.73832077
-2.0964644 5.9240241 -0.70042706
-2.2531669 6.3668213 -0.37723884
-7.7499733 21.899265 0
-4.4063644 12.451158 0.73774016
-2.093231 5.8922396 -0.69696754
-2.2608583 6.3640943 -0.37723884
-7.7807841 21.902143 0
-4.4161854 12.431129 0.7368691
-2.0925307 5.8677826 -0.69437319
-2.1725428 6.0921493 -0.36127433
-7.809866 21.900082 0
-0 0 0
-2.0970032 5.8579421 -0.69350803
-2.1115983 5.8987126 -0.34995428
-7.8389511 21.897974 0
-0 0 0
-2.0935872 5.8262038 -0.69004965
-2.1116943 5.8765941 -0.34879315
-7.8618846 21.878689 0
-0 0 0
-2.0944815 5.8066363 -0.68803132
-2.1082134 5.8447065 -0.3470515
-7.8918471 21.878965 0
-4.454175 12.348534 0.73324072
-2.0970941 5.791944 -0.68659014
-2.1143904 5.8397141 -0.34690648
-7.9173927 21.866968 0
-4.4664412 12.33582 0.73280573
-0 0 -0
-2.1143444 5.8176179 -0.34574538
-0 0 0
-4.4786797 12.323085 0.73237014
-2.0986733 5.7528367 -0.68255347
-2.1133585 5.7930913 -0.34443927
-0 0 0
-4.4908938 12.310339 0.73193461
-2.059118 5.6232948 -0.99835843
-2.1038458 5.7454438 -0.68197745
-2.114994 5.7758889 -0.34356815
-0 0 0
-4.5048728 12.302465 0.73178959
-2.055284 5.5918894 -0.99322283
-2.1027567 5.7210503 -0.6793831
-2.1121135 5.7465076 -0.34197202
-2.138989 5.8196282 0
-4.5197344 12.297013 0.73178959
-2.0504894 5.558095 -0.98765969
-2.1034007 5.7015171 -0.67736477
-2.1172552 5.7390709 -0.34168148
-2.13431 5.7853007 0
-4.5345898 12.291543 0.73178959
-2.0643351 5.5748715 -0.99108344
-2.1004112 5.6722975 -0.6741944
-2.1133604 5.7072678 -0.3399398
-2.1313572 5.7558689 0
-4.5485368 12.283621 0.73164463
-2.0692794 5.5675564 -0.99022669
-2.0964503 5.6406617 -0.67073488
-2.1193507 5.7022767 -0.33979478
-2.131057 5.7337737 0
-4.5651846 12.282983 0.73193461
-2.0706236 5.5506253 -0.98765969
-2.1005516 5.6308522 -0.66986972
-2.1244245 5.6948471 -0.33950478
-2.1279805 5.7043796 0
-4.5800228 12.277457 0.73193461
-2.0782282 5.5505214 -0.98808724
-2.1000984 5.608932 -0.66756338
-2.1158154 5.6509094 -0.33703756
-2.1339564 5.6993599 0
-4.5957685 12.274355 0.73208016
-2.0752692 5.5324378 -0.98509103
-2.0953119 5.5858688 -0.66496903
-2.1119282 5.6301665 -0.33587644
-2.1264343 5.6688385 0
-4.6031833 12.271576 0.73208016
-2.081049 5.5275259 -0.98466349
-2.0993247 5.5760689 -0.66410387
-2.1132345 5.6130152 -0.33500534
-2.128695 5.6540799 0
-4.6189222 12.268435 0.73222518
-2.0877264 5.5250072 -0.98466349
-2.0960066 5.5469208 -0.66093349
-2.1089935 5.5812893 -0.33326367
-2.1226482 5.6174254 0
-4.6374168 12.272568 0.73280573
-2.0880277 5.5056767 -0.98166734
-2.0972028 5.5298691 -0.65920317
-2.1111295 5.5665913 -0.3325381
-2.123899 5.6002612 0
-4.6540833 12.27181 0.73309571
-2.0837238 5.474369 -0.97653335
-2.0965221 5.5079927 -0.65689683
-2.1160073 5.5591841 -0.33224809
-2.1158514 5.5587745 0
-4.6726055 12.275891 0.73367625
-2.0738456 5.4286776 -0.9688291
-2.1031759 5.5054555 -0.65689683
-2.1171575 5.5420542 -0.33137697
-2.1207073 5.5513468 0
-4.6865087 12.267811 0.7335313
-2.0629454 5.3806329 -0.96069896
-2.0996439 5.4763513 -0.65372646
-2.1164105 5.520082 -0.33021587
-2.1218252 5.534205 0
-4.6985369 12.254858 0.73309571
-2.0657578 5.3685532 -0.95898712
-2.1016161 5.4617429 -0.65228528
-2.1184139 5.5053978 -0.3294903
-2.1266396 5.5267744 0
-4.7198744 12.26615 0.73411185
-2.063921 5.3445029 -0.95513582
-2.1054177 5.4519587 -0.65142012
-2.1194499 5.4882946 -0.32861975
-2.1276927 5.5096393 0
-2.2307947 5.7766204 0.34588367
-2.0685201 5.3372135 -0.95427907
-2.097049 5.4108238 -0.64680743
-2.122324 5.4760385 -0.3280392
-2.1287074 5.4925089 0
-2.2161782 5.7182021 0.3425459
-2.0721786 5.3275399 -0.95299637
-2.1082723 5.4203362 -0.64824861
-2.1176357 5.4444094 -0.32629752
-2.1287377 5.4729524 0
-2.224968 5.7203588 0.3428359
-2.0720794 5.3082905 -0.95000023
-2.101655 5.3840575 -0.64421308
-2.1157098 5.420064 -0.32499141
-2.1287239 5.4534035 0
-2.22054 5.6886196 0.34109423
-2.0841081 5.3201194 -0.95256716
-2.1025002 5.3670692 -0.64248389
-2.1137283 5.395731 -0.32368529
-2.1362636 5.4532571 0
-2.216989 5.6593256 0.3394981
-2.0818884 5.2768698 -0.94572133
-2.1031213 5.3306875 -0.63873523
-2.1191323 5.3712702 -0.32252416
-2.1341538 5.4093447 0
-2.2039571 5.5862718 0.3354342
-2.0816472 5.2576404 -0.94272518
-2.1086097 5.3257399 -0.63844723
-2.1179686 5.3493776 -0.32136306
-2.1406884 5.4067616 0
-2.1839221 5.5159574 0.33137029
-2.0737791 5.2193341 -0.93630522
-2.1064487 5.3015571 -0.63585287
-2.1253891 5.3492274 -0.32150805
-2.1356883 5.3751483 0
-2.1781132 5.4819241 0.32948363
-2.0791345 5.2144423 -0.93587768
-2.111896 5.296608 -0.63556486
-2.1260786 5.3321781 -0.32063749
-2.1315777 5.3459697 0
-2.1799242 5.4672222 0.32875806
-2.0882952 5.2190785 -0.93716198
-2.1096475 5.2724423 -0.63297051
-2.1219008 5.3030653 -0.31904083
-2.1380358 5.3433905 0
-2.1759133 5.4380536 0.32716194
-2.0993817 5.2284603 -0.93930143
-2.1131246 5.2626863 -0.63210535
-2.124434 5.2908521 -0.31846026
-2.1444907 5.3408031 0
-2.1824825 5.4354205 0.32716194
-2.1037807 5.2211623 -0.93844634
-2.1146495 5.248136 -0.63066417
-2.1298552 5.2858734 -0.31831527
-2.1499708 5.3357964 0
-2.1900187 5.4351873 0.32730696
-2.109123 5.2162294 -0.93801713
-2.1229265 5.2503681 -0.63124019
-2.1284482 5.2640243 -0.31715414
-2.1505649 5.3187227 0
-2.1975577 5.4349437 0.32745194
-2.1154242 5.2136774 -0.93801713
-2.1214895 5.2286258 -0.62893385
-2.1416469 5.2783055 -0.31817028
-2.1609039 5.3257666 0
-2.1972835 5.4154277 0.32643583
-2.1207552 5.2087421 -0.93758959
-2.1268313 5.2236652 -0.62864584
-2.1401842 5.2564611 -0.31700915
-2.1614473 5.3086848 0
-2.2018676 5.4079599 0.32614583
-2.1231639 5.1966705 -0.93587768
-2.1331415 5.2210913 -0.62864584
-2.1426029 5.2442493 -0.3164286
-2.1629398 5.2940259 0
-2.205451 5.398077 0.32571027
-2.1382046 5.2154756 -0.93972898
-2.135524 5.2089376 -0.62749267
-2.1459801 5.2344418 -0.31599304
-2.1673625 5.2865973 0
-2.2168994 5.4074273 0.32643583
-2.1442816 5.2213092 -0.94101328
-2.1376891 5.205256 -0.62720466
-2.1540768 5.2451601 -0.31671858
-2.1666012 5.2756572 0
-2.2112827 5.3844562 0.32512972
-2.1456995 5.2068496 -0.93887389
-2.1420078 5.1978912 -0.62662864
-2.1524966 5.2233434 -0.31555805
-2.1749554 5.277843 0
-2.2148199 5.3745799 0.32469472
-2.1539495 5.208993 -0.93972898
-2.1482871 5.1952991 -0.62662864
-2.164762 5.2351413 -0.3164286
-0 0 0
-2.2203166 5.3694916 0.32454914
-2.1553237 5.1945333 -0.93758959
-0 0 -0
-2.1671028 5.2229218 -0.31584802
-2.1897004 5.2773838 0
-2.2258081 5.3644071 0.32440415
-2.1645598 5.1990371 -0.93887389
-2.1588457 5.1853123 -0.62605149
-2.1754076 5.2250924 -0.31613803
-2.1850712 5.2483034 0
-2.2362833 5.3713093 0.3249847
-2.175787 5.2082591 -0.94101328
-2.1681013 5.1898618 -0.62691665
-2.177717 5.2128787 -0.31555805
-2.1974285 5.2600632 0
-2.2347589 5.349422 0.3238236
-2.176126 5.1914258 -0.93844634
-2.1753697 5.1896214 -0.62720466
-2.1930537 5.2318091 -0.31686416
-0 0 0
-2.2422245 5.349112 0.32396859
-2.1863782 5.1982579 -0.94015819
-0 0 -0
-2.1993737 5.2291555 -0.31686416
-2.2060976 5.2451415 0
-2.2466733 5.3416133 0.32367858
-2.1976473 5.2074356 -0.94229764
-2.1868999 5.1819687 -0.62691665
-2.2006361 5.2145171 -0.31613803
-2.2215436 5.2640586 0
-2.2521167 5.336503 0.32353359
-2.206938 5.2118611 -0.94358027
-2.199209 5.1936083 -0.62864584
-2.2079513 5.2142539 -0.31628358
-2.2167389 5.2350063 0
-2.2615998 5.3409491 0.32396859
-2.2102253 5.2021093 -0.94229764
-2.198406 5.1742907 -0.62662864
-2.2162805 5.216361 -0.31657359
-2.2301874 5.2490935 0
-2.2670364 5.3358231 0.3238236
-2.2185209 5.2041535 -0.94315273
-2.2066832 5.1763844 -0.62720466
-2.2174878 5.2017298 -0.31584802
-2.2324462 5.2368188 0
-2.2785761 5.3450294 0.32454914
-2.2318752 5.2179928 -0.94614893
-2.2119198 5.1713386 -0.62691665
-2.2217298 5.194273 -0.31555805
-2.2459335 5.2508602 0
-2.2880995 5.349442 0.3249847
-2.242228 5.2247281 -0.94786078
-2.2171478 5.1662874 -0.62662864
-2.2351747 5.208293 -0.31657359
-2.2420149 5.2242312 0
-2.2996843 5.3586102 0.32571027
-2.2454927 5.2149396 -0.94657648
-2.2254324 5.1683512 -0.62720466
-2.2373557 5.1960416 -0.31599304
-2.2493539 5.2239065 0
-2.3010204 5.3438969 0.3249847
-2.2538304 5.2169399 -0.94743323
-2.2234695 5.1466637 -0.62489831
-2.2456954 5.1981101 -0.31628358
-2.2505047 5.2092419 0
-2.3023241 5.3291879 0.32425916
-2.2601326 5.2142129 -0.94743323
-2.2327735 5.1510949 -0.62576348
-2.2550719 5.202538 -0.31671858
-2.2599034 5.2136846 0
-2.3035955 5.3144841 0.32353359
-2.2359004 5.1412754 -0.62489831
-2.2582507 5.192668 -0.31628358
-2.27139 5.2228808 0
-2.3214116 5.3379011 0.32512972
-2.2462487 5.1480522 -0.62605149
-2.2707565 5.2042203 -0.31715414
-2.2766595 5.2177491 0
-2.3309782 5.3422394 0.32556528
-2.2535036 5.1477017 -0.6263395
-2.2864203 5.2228937 -0.31846026
-2.2829623 5.2149944 0
-2.3374317 5.3394189 0.32556528
-2.2618041 5.1497159 -0.62691665
-2.2822824 5.196341 -0.31700915
-2.3028662 5.2432065 0
-2.3459694 5.3413444 0.32585526
-2.2680249 5.1469793 -0.62691665
-2.290653 5.1983304 -0.31729916
-2.3050022 5.2308936 0
-2.3566127 5.3480172 0.32643583
-2.2773809 5.1513338 -0.62778181
-2.3011353 5.2050653 -0.31787971
-2.3092144 5.2233396 0
-2.3504691 5.3166561 0.32469472
-2.3020699 5.1902122 -0.94657648
-2.2898939 5.1627603 -0.629511
-2.3063703 5.1999078 -0.31773472
-2.3197448 5.2300615 0
-2.3653157 5.3328056 0.32585526
-2.3104291 5.1921225 -0.94743323
-2.2982314 5.164711 -0.63008702
-2.3126516 5.1971173 -0.31773472
-2.3292377 5.2343903 0
-2.3728173 5.3323245 0.32600084
-2.3041568 5.1696162 -0.94358027
-2.2950354 5.1491513 -0.62835783
-2.3263676 5.2194486 -0.31918582
-2.3451135 5.261507 0
-2.3707502 5.319025 0.32527527
-2.3145931 5.1762023 -0.94529217
-2.3023102 5.1487336 -0.62864584
-2.3252506 5.2000356 -0.31817028
-2.3408437 5.2349072 0
-2.3792946 5.3208966 0.32556528
-2.316643 5.1640329 -0.94358027
-2.3085299 5.1459479 -0.62864584
-2.3336573 5.2019596 -0.31846026
-2.3471675 5.2320747 0
-2.3942308 5.3369842 0.32672638
-2.320776 5.1565528 -0.94272518
-2.3147459 5.1431546 -0.62864584
-2.3420761 5.2038794 -0.31875083
-2.3556259 5.2339859 0
-2.4017432 5.3364544 0.3268714
-0 0 -0
-2.327347 5.1545024 -0.63037616
-2.3526394 5.2105188 -0.31933138
-2.3608785 5.228766 0
-2.4103301 5.3382897 0.32716194
-2.340646 5.1672997 -0.94572133
-2.3410411 5.1681719 -0.63239336
-2.3567872 5.2029338 -0.31904083
-2.3661177 5.2235322 0
-2.4135611 5.32827 0.32672638
-2.3394527 5.1481061 -0.94272518
-2.3494263 5.1700535 -0.63297051
-2.3609242 5.1953554 -0.31875083
-2.3724277 5.2206693 0
-2.4285977 5.344275 0.32788751
-2.356318 5.1686292 -0.94700402
-2.3513799 5.1577973 -0.63181734
-2.3704305 5.199585 -0.31918582
-2.386292 5.2343774 0
-2.4210422 5.3106027 0.32600084
-2.3636324 5.1681194 -0.94743323
-2.3608387 5.1620111 -0.6326825
-2.3767116 5.1967173 -0.31918582
-2.3926151 5.2314901 0
-2.4371827 5.3289385 0.32730696
-2.3655932 5.1559267 -0.94572133
-2.370307 5.1662006 -0.63354653
-2.3894925 5.2080164 -0.32005695
-2.4043598 5.2404203 0
-2.4425373 5.3236303 0.32716194
-2.377187 5.164722 -0.94786078
-2.3722219 5.1539345 -0.63239336
-2.3968692 5.2074838 -0.32020193
-2.4030762 5.2209692 0
-2.4522243 5.3277493 0.32759693
-2.3780463 5.1501951 -0.94572133
-2.3827846 5.1604571 -0.63354653
-2.4042478 5.2069407 -0.32034695
-2.4071989 5.2133317 0
-2.4630172 5.334219 0.32817751
-2.3875012 5.1542993 -0.94700402
-2.3890183 5.1575742 -0.63354653
-2.412724 5.2087517 -0.32063749
-2.417872 5.2198653 0
-2.4716473 5.335959 0.32846805
-2.3980546 5.1607223 -0.94871587
-2.4017904 5.1687622 -0.63527685
-2.41573 5.198761 -0.32020193
-2.447207 5.2665005 0
-2.4791868 5.3353229 0.32861307
-2.4053721 5.1601458 -0.94914347
-2.4091258 5.1681981 -0.63556486
-2.4307926 5.2146792 -0.32136306
-2.4568684 5.2706184 0
-2.4878254 5.337029 0.32890305
-2.4181318 5.1711922 -0.95171207
-2.4186566 5.1723146 -0.63643003
-2.4315894 5.1999717 -0.32063749
-2.4455967 5.2299261 0
-2.4997787 5.3457952 0.32962918
-2.4298284 5.1798849 -0.95385152
-2.426002 5.1717277 -0.63671803
-2.4389732 5.1993799 -0.32078251
-2.4530184 5.2293215 0
-2.5073388 5.3451209 0.32977417
-2.4360855 5.1769452 -0.95385152
-2.4333494 5.1711307 -0.63700604
-2.4485741 5.203485 -0.32121804
-2.4726324 5.254611 0
-2.5137954 5.3420873 0.32977417
-2.4401495 5.1693592 -0.95299637
-2.4274499 5.1424556 -0.63383454
-2.4604046 5.2122693 -0.32194361
-2.4712021 5.2351432 0
-2.5202484 5.339046 0.32977417
-2.4430969 5.1594443 -0.95171207
-2.4414113 5.1558847 -0.63585287
-2.4678118 5.2116385 -0.3220886
-2.4786429 5.2345123 0
-2.5266979 5.3359971 0.32977417
-2.4482288 5.1541724 -0.95128453
-2.4265573 5.1085477 -0.63037616
-2.4707615 5.2016096 -0.32165307
-2.4894326 5.2409167 0
-2.5442903 5.3564067 0.33122528
-2.4533477 5.1488862 -0.95085531
-2.4260507 5.0915976 -0.62864584
-2.4748116 5.193933 -0.32136306
-2.5047147 5.256691 0
-2.5507605 5.3533287 0.33122528
-2.4662113 5.1598191 -0.95342392
-2.437777 5.1003284 -0.63008702
-2.4866874 5.2026587 -0.3220886
-2.5133111 5.2583613 0
-2.5639527 5.3643136 0.3320964
-2.4602351 5.1313705 -0.94871587
-2.4327581 5.0740609 -0.62720466
-2.4985878 5.2113633 -0.32281417
-2.5309124 5.2787833 0
-2.5760484 5.3729248 0.33282197
-2.4619832 5.1191406 -0.94700402
-2.4388874 5.0711179 -0.62720466
-2.5037577 5.2060013 -0.32266918
-2.5305233 5.2616539 0
-2.5780337 5.3604412 0.33224142
-2.4770901 5.1346588 -0.95042777
-2.4461358 5.0704942 -0.62749267
-2.5134346 5.2099953 -0.32310474
-2.5357492 5.2562509 0
-2.5799928 5.3479609 0.33166084
-2.4774356 5.11168 -0.94700402
-2.4587071 5.0730371 -0.62835783
-2.5194724 5.1984143 -0.32266918
-2.557754 5.2774005 0
-2.6021485 5.3689995 0.33325753
-2.5004473 5.1433158 -0.95342392
-2.4625754 5.0654149 -0.62778181
-2.5325706 5.2093921 -0.3235403
-2.5561671 5.2579288 0
-2.6131742 5.3751903 0.33383751
-2.5100367 5.1472149 -0.95470828
-2.4720919 5.0694032 -0.62864584
-2.5422769 5.2133279 -0.32397529
-2.5511091 5.2314401 0
-2.6173913 5.367362 0.33354753
-2.5173812 5.146482 -0.95513582
-2.481626 5.0733852 -0.629511
-2.5520005 5.217257 -0.32441086
-2.5620027 5.2377052 0
-2.6204486 5.3571906 0.33311197
-2.5269868 5.1503434 -0.95641845
-2.4934499 5.0819907 -0.63095218
-2.5583026 5.21417 -0.32441086
-2.5740602 5.2462854 0
-2.6360762 5.372683 0.33427307
-2.5309432 5.1426845 -0.95556337
-2.4950202 5.0696917 -0.62979901
-2.5623043 5.2064075 -0.32412028
-2.5769532 5.2361732 0
-2.6414199 5.3671646 0.33412808
-2.5394258 5.1442218 -0.95641845
-2.5034361 5.0713162 -0.63037616
-2.5720451 5.2103 -0.32455584
-2.5959468 5.258719 0
-2.6605566 5.3896012 0.33572474
-2.5672836 5.1848617 -0.96455026
-2.5107086 5.0706034 -0.63066417
-2.580647 5.2118502 -0.32484642
-2.6138494 5.2789054 0
-2.6624548 5.377068 0.33514419
-2.5564175 5.1472664 -0.95813036
-2.5248883 5.0837836 -0.6326825
-2.589252 5.213378 -0.32513639
-2.622539 5.2804003 0
-2.6689501 5.3738475 0.33514419
-2.5626349 5.1441736 -0.95813036
-2.5321815 5.0830421 -0.63297051
-2.5990264 5.2172251 -0.32557195
-2.6184745 5.2562647 0
-2.6812334 5.3822455 0.33586976
-2.5631127 5.1295938 -0.95599091
-2.5360069 5.0753469 -0.63239336
-2.6076493 5.2187257 -0.32586196
-2.6271482 5.2577486 0
-2.6923807 5.3882995 0.33645031
-2.5762124 5.1402674 -0.95855957
-2.5537288 5.0954065 -0.63527685
-2.6186101 5.2248631 -0.32644251
-2.6381636 5.2638769 0
-2.7000525 5.387363 0.3365953
-2.5812652 5.1348505 -0.95813036
-2.5529115 5.0784469 -0.63354653
-2.6155851 5.2031221 -0.32528141
-2.6304998 5.2327914 0
-2.7100625 5.3910637 0.33703086
-2.59325 5.1431956 -0.96027142
-2.5602093 5.0776658 -0.63383454
-2.6312292 5.2185197 -0.32644251
-2.6415074 5.2389045 0
-2.7142324 5.3831401 0.33674031
-2.5959859 5.133184 -0.95898712
-2.5710118 5.0838013 -0.63498771
-2.6398802 5.2199783 -0.32673308
-2.6525292 5.2449899 0
-2.7265973 5.3914485 0.33746588
-2.6045067 5.1346178 -0.95984221
-2.5818331 5.0899177 -0.63614088
-2.6508875 5.2260542 -0.32731363
-2.6741731 5.2719603 0
-2.7389905 5.3997436 0.33819199
-2.6223519 5.1543512 -0.96412271
-2.5950205 5.1006303 -0.63787121
-2.6560187 5.2205248 -0.32716808
-2.6769998 5.2617645 0
-2.7384412 5.3825297 0.33732086
-2.6192434 5.1328859 -0.96069896
-2.5941257 5.0836635 -0.63614088
-2.665869 5.2242575 -0.32760364
-2.6845374 5.2608418 0
-2.7473073 5.3838506 0.33761144
-2.619597 5.1182938 -0.95855957
-2.6002665 5.0805254 -0.63614088
-2.6757324 5.2279739 -0.3280392
-2.6885231 5.2529655 0
-2.7609115 5.3944011 0.33848199
-2.629293 5.1219697 -0.95984221
-2.6182177 5.1003942 -0.63902438
-2.6879795 5.2362933 -0.32876474
-2.7043719 5.2682261 0
-2.7721741 5.4003077 0.33906254
-2.6495812 5.1461768 -0.9649778
-2.6160896 5.0811276 -0.63700604
-2.6824124 5.2099438 -0.32731363
-2.6881042 5.2209988 0
-2.7751279 5.3900213 0.33862698
-2.6557972 5.1429715 -0.9649778
-2.6293454 5.0917473 -0.63873523
-2.6970479 5.2228537 -0.32832921
-2.7170951 5.2616754 0
-2.7852166 5.3935928 0.33906254
-2.6631892 5.142036 -0.9654054
-2.6354959 5.0885668 -0.63873523
-2.7093353 5.2311344 -0.32905531
-2.7222552 5.2560797 0
-2.7941194 5.3948336 0.33935255
-2.6646714 5.1297107 -0.96369517
-2.6452208 5.0922666 -0.6396004
-2.7132561 5.2232404 -0.32876474
-2.7250085 5.2458649 0
-2.8042305 5.3983736 0.33978811
-2.6713209 5.1349254 -0.9649778
-2.6494892 5.0929599 -0.63988841
-2.7212081 5.2308211 -0.32934532
-2.74739 5.2811489 0
-2.8110902 5.4035964 0.34022367
-2.6775234 5.1316938 -0.9649778
-2.6520553 5.0828819 -0.63902438
-2.7215178 5.2160125 -0.32861975
-2.7429357 5.2570615 0
-2.8212245 5.4071088 0.34065923
-2.6908658 5.1421061 -0.96754646
-2.6653881 5.0934196 -0.64075357
-0 0 -0
-2.7553179 5.2652707 0
-2.8277559 5.4036961 0.34065923
-2.7030408 5.1502142 -0.96968585
-2.6763484 5.0993562 -0.64190674
-2.7292845 5.2002172 -0.3280392
-2.7520022 5.2435021 0
-2.8342831 5.4002752 0.34065923
-2.7140448 5.1560307 -0.97139776
-2.6849198 5.1007004 -0.64248389
-2.7391982 5.2038159 -0.32847476
-2.7789428 5.2793212 0
-2.8504889 5.4152417 0.34182033
-2.7250667 5.161828 -0.9731096
-2.6886637 5.0928736 -0.64190674
-2.7479079 5.2050939 -0.32876474
-2.7731719 5.2529492 0
-2.858242 5.4140892 0.34196532
-2.7288971 5.1539898 -0.97225285
-2.6984477 5.0964808 -0.6427719
-2.7541952 5.2017698 -0.32876474
-2.7880428 5.2656965 0
-2.8611331 5.4037399 0.34152979
-2.7315142 5.1438932 -0.97097021
-2.7070274 5.0977807 -0.64334792
-2.7580435 5.1938524 -0.32847476
-2.7944033 5.2623239 0
-2.87497 5.4140444 0.34240034
-2.7473764 5.1587067 -0.97439229
-2.7204823 5.1082082 -0.64507824
-2.766758 5.1950989 -0.32876474
-0 0 0
-2.8790691 5.4059839 0.34211034
-2.7451453 5.1395397 -0.97139776
-2.730305 5.1117549 -0.64594227
-2.780376 5.2054996 -0.32963532
-2.7960782 5.2348976 0
-2.8892729 5.4093795 0.3425459
-2.759835 5.1520524 -0.97439229
-2.7303741 5.0970545 -0.64450109
-2.7805302 5.1906857 -0.32890975
-2.8024015 5.2315154 0
-2.8970327 5.4081726 0.34269089
-2.7709179 5.1577592 -0.97610414
-2.7414272 5.1028657 -0.64565426
-2.791719 5.1964784 -0.3294903
-2.8111818 5.2327061 0
-2.9109416 5.4183979 0.34356144
-2.7637577 5.1295547 -0.97139776
-2.7549543 5.1132159 -0.64738458
-2.7955332 5.1885304 -0.3292003
-2.8187356 5.2315946 0
-2.9125564 5.4057264 0.34298089
-2.7833741 5.1510482 -0.97610414
-2.7635875 5.11443 -0.6479606
-2.8055027 5.1920004 -0.32963532
-2.8300037 5.2373433 0
-2.9215591 5.4067798 0.34327143
-2.8079436 5.1815381 -0.9825241
-2.7722323 5.1156392 -0.64853776
-2.8216784 5.2068834 -0.33079642
-2.8363299 5.2339201 0
-2.933042 5.412384 0.34385201
-2.7970433 5.1465688 -0.97653335
-2.7722325 5.1009169 -0.64709544
-2.8279679 5.2034702 -0.33079642
-2.8414106 5.2282047 0
-2.9482617 5.4248109 0.34486756
-2.8106289 5.1567049 -0.97910035
-2.7882965 5.1157317 -0.64940178
-2.8367426 5.2046165 -0.33108699
-2.8564453 5.2407656 0
-2.9597886 5.4303708 0.34544814
-2.8217826 5.1623154 -0.98081219
-2.7919972 5.1078238 -0.64882576
-2.8455195 5.2057409 -0.33137697
-2.8615239 5.2350202 0
-2.9626126 5.4199567 0.34501311
-2.8403556 5.1814079 -0.98509103
-2.8018932 5.1112442 -0.64968979
-2.8418152 5.1840706 -0.33021587
-2.8716016 5.2384071 0
-2.9766514 5.4300399 0.34588367
-2.8404319 5.1667266 -0.98295164
-2.8093166 5.1101284 -0.64997894
-2.8593471 5.2011328 -0.33152255
-2.8816915 5.2417774 0
-2.9857163 5.4309978 0.34617424
-2.8541117 5.1767831 -0.98552024
-2.819232 5.1135187 -0.65084296
-2.871901 5.2090497 -0.33224809
-2.8905337 5.2428455 0
-2.9897649 5.4228311 0.34588367
-2.8616056 5.1755753 -0.98594779
-2.8291645 5.1169009 -0.65170813
-2.8719077 5.1942077 -0.33152255
-2.8993876 5.2439084 0
-3.0000882 5.4260387 0.34631923
-2.8840389 5.2012973 -0.99151099
-2.8340921 5.1112189 -0.65142012
-2.884481 5.2020941 -0.33224809
-2.9031951 5.2358446 0
-3.0053835 5.4201393 0.34617424
-2.8840852 5.1865931 -0.98937154
-2.8503218 5.125875 -0.65372646
-2.8869748 5.1917901 -0.33181253
-2.9107878 5.2346139 0
-3.0207665 5.432394 0.34718978
-2.8959568 5.2005424 -0.99236608
-2.8496418 5.1173706 -0.6528613
-2.8913739 5.1923127 -0.33195755
-2.9202795 5.2442212 0
-3.0278418 5.4373808 0.34762534
-2.8909752 5.1768703 -0.98851478
-2.8545632 5.1116676 -0.65257329
-2.900182 5.193357 -0.33224809
-2.9266138 5.2406888 0
-3.0394771 5.4427929 0.34820592
-2.9285853 5.2293653 -0.99921358
-2.8708482 5.1262679 -0.65487963
-2.9102604 5.1966438 -0.33268309
-2.9316738 5.23488 0
-3.0435097 5.4345779 0.34791535
-2.8757749 5.1205425 -0.65459162
-2.921627 5.2021861 -0.33326367
-2.9456408 5.2449441 0
-3.0538926 5.4376955 0.34835091
-2.884496 5.1215668 -0.65516764
-2.9279106 5.1986518 -0.33326367
-2.9545279 5.2459121 0
-3.0693879 5.449852 0.34936702
-2.8894114 5.115828 -0.65487963
-2.93419 5.1951103 -0.33326367
-2.9570284 5.2355466 0
-3.0708592 5.437089 0.34878647
-2.9057884 5.1303372 -0.65718597
-2.9404652 5.1915612 -0.33326367
-2.9671965 5.2387567 0
-3.0710249 5.4220719 0.34806091
-2.9068756 5.1178265 -0.6560328
-2.9480231 5.1902704 -0.33340922
-2.9748135 5.2374372 0
-3.0942564 5.4477277 0.34994757
-2.9207358 5.1277909 -0.65776199
-2.9581468 5.1934714 -0.33384421
-2.9850001 5.2406168 0
-3.1059809 5.4530163 0.35052815
-0 0 -0
-2.9217982 5.1152744 -0.65660882
-2.967 5.1944103 -0.33413476
-2.995204 5.2437878 0
-3.1125674 5.4492593 0.35052815
-0 0 -0
-2.9369771 5.1274529 -0.65862715
-2.9797306 5.2020931 -0.33486032
-3.0015378 5.2401648 0
-3.1139834 5.4364753 0.34994757
-0 0 -0
-2.9444575 5.1261411 -0.65891516
-2.9860141 5.1984887 -0.33486032
-3.0117574 5.2433062 0
-3.1270201 5.4439726 0.35067314
-0 0 -0
-2.9545236 5.1293054 -0.65978032
-2.9948847 5.1993761 -0.33515033
-3.0128946 5.2306428 0
-3.1335957 5.4401903 0.35067314
-2.9620116 5.1279693 -0.66006833
-3.0037668 5.2002578 -0.33544087
-3.023119 5.2337613 0
-3.1518626 5.4566483 0.35197926
-2.9707959 5.1288586 -0.66064435
-3.0100482 5.1966248 -0.33544087
-3.0346584 5.2391129 0
-3.153244 5.4438419 0.35139871
-3.0114553 5.1702056 -0.99750167
-2.9896944 5.1328459 -0.66208667
-3.0356734 5.2117844 -0.33689201
-3.0499277 5.2362571 0
-3.1781597 5.4564118 0.35270482
-3.020292 5.171001 -0.99835843
-2.9971974 5.1314607 -0.66237468
-3.0327985 5.1924129 -0.33587644
-3.0588751 5.2370582 0
-3.1860597 5.4548092 0.35284981
-3.0073185 5.1345329 -0.66323984
-3.0495763 5.2066817 -0.33703756
-3.0717812 5.2445931 0
-3.1939654 5.4532042 0.35299537
-3.0135205 5.1308956 -0.66323984
-3.0650733 5.2186708 -0.33805311
-3.0767941 5.2386274 0
-3.2031817 5.4538178 0.35328537
-3.027591 5.1406183 -0.66496903
-3.0674195 5.2082443 -0.33761758
-3.080483 5.2304249 0
-3.2190011 5.4656186 0.35430148
-3.0416892 5.1503148 -0.66669822
-3.0776758 5.2112484 -0.33805311
-3.0868006 5.2266989 0
-3.2203174 5.4527755 0.35372093
-3.0505486 5.1510911 -0.66727537
-3.0826476 5.2052922 -0.33790812
-3.0957634 5.2274399 0
-3.2388191 5.4690003 0.35502705
-3.05809 5.1496229 -0.66756338
-3.0862787 5.1970911 -0.33761758
-3.1127083 5.2415967 0
-3.2427738 5.4606185 0.35473704
-3.0616658 5.1414838 -0.66698736
-3.0978739 5.2022886 -0.33819813
-3.1243656 5.2467761 0
-10.816312 18.163933 1.180828
-3.0731802 5.1466632 -0.66814053
-3.1108224 5.209703 -0.33892423
-3.1213672 5.2273622 0
-10.836921 18.148621 1.180683
-3.077615 5.1470237 -0.66842854
-3.1139693 5.2078223 -0.33892423
-3.1338701 5.2411046 0
-10.846546 18.139833 1.1805375
-3.0891523 5.1521745 -0.66958171
-3.1269393 5.2151966 -0.3396498
-3.1402006 5.2373142 0
-10.848417 18.093292 1.1783608
-3.0953753 5.148438 -0.66958171
-3.1345763 5.2136393 -0.33979478
-3.1532302 5.2446661 0
-10.872947 18.084621 1.1786507
-3.1056015 5.1513414 -0.67044687
-3.1435542 5.2142944 -0.34008479
-3.1582227 5.2386255 0
-10.898817 18.078148 1.1790863
-3.1118236 5.1475849 -0.67044687
-3.1525435 5.2149439 -0.34037536
-3.1766663 5.254848 0
-10.913933 18.05385 1.1783608
-3.1180413 5.1438212 -0.67044687
-3.165576 5.222239 -0.3411009
-3.1762695 5.2398801 0
-10.930351 18.031761 1.1777802
-3.1349967 5.1577234 -0.67275208
-3.1786306 5.2295103 -0.34182647
-3.1920619 5.2516079 0
-10.971024 18.049622 1.1798118
-3.1385367 5.1495185 -0.67217606
-3.1876545 5.2301078 -0.34211701
-3.1929874 5.2388577 0
-10.991474 18.034136 1.1796669
-3.1420565 5.1413045 -0.67159891
-3.1993916 5.2351213 -0.34269759
-3.2101722 5.2527614 0
-11.021384 18.034142 1.1805375
-3.1604333 5.1573582 -0.6741944
-3.2111456 5.2401137 -0.34327814
-3.2165167 5.2488785 0
-11.048597 18.029673 1.181118
-3.1680155 5.1557374 -0.67448241
-3.2174749 5.2362299 -0.34327814
-3.225579 5.2494187 0
-11.079899 18.031809 1.1821342
-3.1728873 5.1497059 -0.6741944
-3.2237997 5.2323384 -0.34327814
-3.238744 5.2565937 0
-11.096227 18.009558 1.1815536
-3.1859033 5.1568685 -0.67563558
-3.2369468 5.23949 -0.34400371
-3.2519364 5.2637529 0
-11.117979 17.996138 1.1815536
-3.1962142 5.159605 -0.67649961
-3.2419083 5.2333679 -0.34385869
-3.2624018 5.2664509 0
-11.16161 18.018034 1.1838758
-3.203815 5.1579428 -0.67678875
-3.2495992 5.2316523 -0.34400371
-3.2701402 5.2647219 0
-11.180629 18.000116 1.1835852
-3.2141433 5.1606479 -0.67765278
-3.2641578 5.2409515 -0.34487426
-3.2806227 5.2673879 0
-11.203748 17.988804 1.1837308
-3.2258568 5.1655354 -0.67880595
-3.2759936 5.2458196 -0.34545481
-3.2856078 5.2612147 0
-11.202078 17.937788 1.1812636
-3.234844 5.1660228 -0.6793831
-3.280952 5.2396569 -0.34530982
-3.2905827 5.2550368 0
-22.302368 35.616722 2.3472536
-3.2424576 5.1642985 -0.67967111
-3.294188 5.2466898 -0.34603536
-10.211684 16.264263 0
-22.367495 35.624958 2.3495758
-3.2486954 5.160377 -0.67967111
-3.3046796 5.2493048 -0.34647092
-10.236875 16.260723 0
-22.366224 35.527538 2.3449314
-3.2673526 5.1761303 -0.68226546
-5.165359 8.1829462 -0.5405122
-10.264848 16.261541 0
-15.154048 24.006998 1.5857462
-3.2694588 5.1656284 -0.68140143
-5.1710725 8.1701107 -0.54007667
-10.280313 16.242527 0
-15.112176 23.876699 1.5783445
-3.2784672 5.1660376 -0.68197745
-5.1795497 8.161664 -0.53993165
-10.316665 16.256462 0
-15.191133 23.937397 1.5835689
-3.3107181 5.209897 -0.68803132
-5.1733303 8.1409883 -0.53877056
-10.327878 16.25242 0
-15.184692 23.895325 1.5813923
-5.2250495 8.20047 -0.54312444
-10.358697 16.257488 0
-15.212153 23.874762 1.5812467
-4.6544251 7.2854619 -0.48289478
-10.385337 16.255924 0
-15.215812 23.816952 1.5786345
-4.6870503 7.3170271 -0.48536202
-10.413397 16.256516 0
-15.259997 23.822618 1.5802312
-4.6944852 7.3091741 -0.48521701
-10.444283 16.261438 0
-15.277537 23.786673 1.5790701
-0 0 -0
-4.6962805 7.2925754 -0.48449147
-10.468148 16.255365 0
-15.296419 23.752901 1.578054
-3.9867427 6.1743741 -0.81919801
-4.7093186 7.2934465 -0.48492703
-10.490608 16.247082 0
-15.337792 23.754045 1.5793601
-4.7110634 7.2768383 -0.48420089
-10.521546 16.251871 0
-15.363662 23.731136 1.5790701
-4.7198524 7.2711406 -0.48420089
-10.555343 16.260971 0
-15.379594 23.692942 1.5777639
-4.7328882 7.2719679 -0.48463646
-10.587759 16.267834 0
-15.396872 23.656919 1.5766028
-4.7487702 7.277122 -0.48536202
-10.601718 16.246311 0
-15.416922 23.625237 1.5757318
-4.7504478 7.260509 -0.48463646
-10.637016 16.257446 0
-15.442615 23.602245 1.5754417
-0 0 -0
-4.7706199 7.2721453 -0.48579758
-10.660936 16.251112 0
-15.479671 23.596601 1.5763123
-0 0 -0
-4.7779765 7.2642064 -0.48565257
-10.687715 16.249088 0
-15.486757 23.545322 1.5741357
-0 0 -0
-4.2313399 6.4162269 -0.85667324
-4.7981949 7.2757816 -0.48681369
-10.721665 16.257883 0
-15.495171 23.496227 1.572104
-4.2490768 6.4262137 -0.85869157
-4.8184428 7.2873101 -0.48797426
-10.748478 16.25577 0
-15.52068 23.473148 1.5718133
-4.251122 6.4124522 -0.8575384
-4.8487825 7.313971 -0.49015149
-10.778179 16.257956 0
-15.547598 23.452213 1.5716684
-4.2502794 6.3943906 -0.85580921
-4.8561792 7.3059449 -0.49000648
-10.805017 16.255756 0
-17.57663 26.443398 1.7735469
-4.2422233 6.3655725 -0.85263771
-4.8664432 7.3022323 -0.49015149
-10.833314 16.255686 0
-17.592716 26.398354 1.7719502
-4.2326679 6.3346353 -0.84917819
-4.8767052 7.2985053 -0.49029648
-10.855837 16.246908 0
-17.61594 26.364119 1.7710797
-4.2000165 6.2693567 -0.84110713
-4.881186 7.2861371 -0.48986149
-10.885601 16.248917 0
-17.637659 26.3277 1.7700636
-4.1513429 6.1805382 -0.82986343
-4.9102674 7.3104281 -0.49189314
-10.911031 16.244392 0
-17.660767 26.29343 1.7691931
-4.155921 6.1712308 -0.82928741
-4.9307084 7.321732 -0.49305427
-10.942281 16.248466 0
-17.689619 26.267757 1.7689024
-4.1451855 6.1472702 -0.82640392
-5.9854116 8.8763075 -0.59798467
-10.968097 16.265581 0
-17.696772 26.244143 1.768032
-4.1815829 6.1851115 -0.83216977
-5.9932189 8.8647594 -0.5976941
-10.987742 16.252317 0
-17.741568 26.242113 1.769338
-4.1759939 6.1607876 -0.82957542
-6.0083013 8.863966 -0.59812969
-11.019053 16.256262 0
-17.770344 26.216351 1.7690475
-4.1790719 6.1493177 -0.82871026
-0 0 -0
-11.059165 16.273067 0
-17.803473 26.197016 1.7691931
-4.2083464 6.1763277 -0.83303493
-6.0136085 8.825798 -0.596533
-11.078819 16.259691 0
-17.854134 26.203398 1.7710797
-4.2055922 6.1562862 -0.8310166
-6.0154767 8.8056555 -0.59566242
-11.105803 16.257044 0
-17.893108 26.192532 1.7718053
-4.2101073 6.1469364 -0.83044058
-6.0202389 8.7898054 -0.59508187
-11.138672 16.262936 0
-17.933552 26.18375 1.7726759
-4.1472154 6.0238347 -0.81516135
-6.0282025 8.755971 -0.59377575
-11.19565 16.261694 0
-18.001198 26.146759 1.7731113
-4.1486139 6.0103045 -0.81400818
-6.0269694 8.7315731 -0.59261465
-11.221205 16.256721 0
-18.029827 26.120716 1.7728214
-4.1691184 6.0244269 -0.81660253
-6.031601 8.7157373 -0.5920341
-11.252682 16.260263 0
-18.666117 26.972769 1.8321799
-4.1660776 6.0045156 -0.81458533
-6.0228729 8.6806908 -0.59014744
-11.284189 16.26376 0
-18.70018 26.952335 1.8323255
-4.1541305 5.9718766 -0.81083781
-4.4145832 6.3462968 -0.43180847
-11.312752 16.262936 0
-18.717892 26.908384 1.8308738
-4.1569033 5.9604864 -0.80997264
-4.4252181 6.3452168 -0.43209848
-11.342812 16.264191 0
-18.77269 26.917721 1.8330511
-4.1433554 5.925787 -0.80593711
-4.3956647 6.2866373 -0.4284707
-11.368421 16.259005 0
-18.800732 26.888628 1.8326155
-4.1505127 5.9207764 -0.80593711
-4.4062376 6.2855725 -0.42876068
-11.401507 16.264442 0
-18.840664 26.876528 1.833341
-4.1294045 5.8755484 -0.80045927
-4.3944073 6.2526088 -0.42687401
-11.428632 16.261299 0
-18.879103 26.862246 1.8339216
-4.0843625 5.7965589 -0.79036987
-4.409441 6.2579131 -0.42759958
-11.455766 16.258112 0
-18.932497 26.869148 1.8359532
-4.0555472 5.7409191 -0.78345084
-0 0 -0
-11.482909 16.254885 0
-18.981443 26.8696 1.8375499
-4.0460415 5.7128024 -0.78028047
-0 0 -0
-11.516077 16.260109 0
-19.033419 26.874208 1.8394367
-4.0529413 5.7079096 -0.78028047
-0 0 -0
-11.541743 16.254671 0
-19.094461 26.891447 1.8421944
-4.059835 5.7030082 -0.78028047
-4.4260745 6.2174788 -0.42629346
-11.56892 16.251312 0
-19.166117 26.923391 1.8459678
-4.0622139 5.6917806 -0.77941531
-4.4622598 6.2523055 -0.42905068
-11.596106 16.247911 0
-19.224295 26.936167 1.848435
-4.0491085 5.6661749 -0.77624381
-4.4917178 6.2855468 -0.43151793
-11.607437 16.243025 0
-8.7518129 12.246969 0.84078389
-4.0499268 5.6528683 -0.77509063
-4.4947739 6.2737837 -0.43108293
-8.7686214 12.239201 0
-8.7696285 12.240605 0.84107393
-4.0280895 5.6080623 -0.76961392
-4.529634 6.3063326 -0.43369517
-8.774292 12.21591 0
-8.7950249 12.244776 0.84209001
-4.0076599 5.5654144 -0.76442522
-0 0 -0
-8.7723217 12.182074 0
-8.7991838 12.219377 0.84107393
-3.9780464 5.5102377 -0.75750619
-0 0 -0
-11.751307 16.277462 0
-8.816987 12.212954 0.84136444
-4.0392895 5.5808487 -0.7678836
-4.4442987 6.1404257 -0.42339066
-11.775546 16.269577 0
