# .PCD v0.7 - Point Cloud Data file format
VERSION 0.7
FIELDS x y z
SIZE 4 4 4
TYPE F F F
COUNT 1 1 1
WIDTH 1906
HEIGHT 1
VIEWPOINT 0 0 0 1 0 0 0
POINTS 1906
DATA ascii
0 0 -0
0 0 0
7.2909894 33.374908 1.9081594
0 0 -0
0 0 0
7.2627888 33.439552 1.9113522
0 0 -0
0 0 0
7.2157993 33.417831 1.9096111
0 0 -0
0 0 0
7.1814127 33.454468 1.9112072
0 0 -0
0 0 0
7.1149559 33.341148 1.9042411
0 0 -0
0 0 0
0 0 0
0 0 -0
0 0 0
0 0 0
0 0 -0
0 0 0
0 0 0
0 0 -0
0 0 0
0 0 0
0 0 -0
0 0 0
0 0 0
0 0 -0
0 0 0
0 0 0
0 0 -0
0 0 0
0 0 0
0 0 -0
0 0 0
0 0 0
0 0 -0
0 0 0
0 0 0
0 0 -0
6.1043668 30.496098 0
6.8392835 34.167583 1.946329
0 0 -0
6.0680213 30.506002 0
6.7838016 34.104473 1.9422656
0 0 -0
6.033679 30.526075 0
6.7430911 34.115192 1.9424106
0 0 -0
0 0 0
6.6973581 34.100368 1.9411045
0 0 -0
0 0 0
6.6456985 34.054882 1.9380567
0 0 -0
0 0 0
6.6065235 34.07309 1.9386373
0 0 -0
6.22475 32.312984 0
6.5545354 34.024918 1.9354445
0 0 -0
6.2072263 32.432953 0
6.5036492 33.981773 1.9325417
0 0 -0
6.1753235 32.478771 0
6.4606428 33.979393 1.9319612
0 0 -0
6.1268983 32.43763 0
6.4856482 34.336956 1.951844
0 0 -0
6.0838599 32.424545 0
6.4657168 34.45969 1.9583751
0 0 -0
6.0532589 32.477921 0
6.4426408 34.567093 1.9640352
0 0 -0
6.0116429 32.47242 0
6.3918829 34.526314 1.961278
0 0 -0
5.9733424 32.484772 0
6.6884894 36.373951 2.0657728
0 0 -0
5.654964 30.963636 0
6.6305299 36.305325 2.0614188
0 0 -0
5.6147604 30.955086 0
6.5880485 36.320984 2.0618544
0 0 -0
5.574584 30.946476 0
0 0 0
0 0 -0
5.5335207 30.932693 0
0 0 0
0 0 -0
5.7633224 32.443401 0
0 0 0
0 0 -0
5.7281852 32.473404 0
0 0 0
0 0 -0
5.707665 32.471737 0
0 0 0
0 0 -0
5.6755843 32.51963 0
0 0 0
0 0 -0
5.6238446 32.454666 0
0 0 0
0 0 -0
4.2344742 24.613489 0
0 0 0
0 0 -0
4.1999121 24.590376 0
0 0 0
0 0 -0
4.1645412 24.562078 0
0 0 0
0 0 -0
4.1361542 24.574785 0
0 0 0
0 0 -0
4.0940213 24.505327 0
0 0 0
0 0 -0
4.063983 24.50769 0
0 0 0
0 0 -0
4.0326767 24.502312 0
0 0 0
0 0 -0
4.0005512 24.49176 0
0 0 0
0 0 -0
3.9709547 24.496576 0
0 0 0
0 0 -0
5.2255068 32.48428 0
0 0 0
0 0 -0
5.1616397 32.336384 0
0 0 0
0 0 -0
5.0667901 31.990456 0
0 0 0
0 0 -0
5.0244966 31.973417 0
0 0 0
0 0 -0
4.9706254 31.881756 0
0 0 0
0 0 -0
4.9237456 31.833731 0
0 0 0
0 0 -0
0 0 0
0 0 0
0 0 -0
9.0980082 59.77776 0
6.5968661 43.3442 2.4489214
0 0 -0
9.0327635 59.835022 0
6.5177259 43.174858 2.4389069
0 0 -0
8.9531364 59.796997 0
6.4520869 43.092766 2.4338276
0 0 -0
8.8858461 59.841236 0
0 0 0
0 0 -0
8.8211164 59.903423 0
6.3180251 42.905151 2.4223619
0 0 -0
8.749855 59.921757 0
6.2748137 42.971897 2.4257002
0 0 -0
0 0 0
0 0 0
0 0 -0
0 0 0
0 0 0
0 0 -0
0 0 0
0 0 0
0 0 -0
0 0 0
0 0 0
0 0 -0
0 0 0
0 0 0
0 0 -0
0 0 0
0 0 0
0 0 -0
0 0 0
0 0 0
0 0 -0
0 0 0
0 0 0
0 0 -0
0 0 0
0 0 0
0 0 -0
0 0 0
0 0 0
0 0 -0
0 0 0
5.7073412 43.284203 2.438617
0 0 -0
0 0 0
5.6654692 43.37093 2.4431159
0 0 -0
0 0 0
5.6077247 43.336514 2.4407938
0 0 -0
0 0 0
5.5619636 43.394806 2.4436965
0 0 -0
0 0 0
5.5249043 43.52264 2.4505177
0 0 -0
0 0 0
5.4843035 43.624676 2.4558876
0 0 -0
0 0 0
5.4351192 43.659637 2.4574842
0 0 -0
0 0 0
5.3849025 43.686794 2.4586449
0 0 -0
0 0 0
0 0 0
0 0 -0
0 0 0
0 0 0
0 0 -0
0 0 0
0 0 0
0 0 -0
0 0 0
0 0 0
0 0 -0
0 0 0
0 0 0
0 0 -0
0 0 0
0 0 0
0 0 -0
0 0 0
2.641752 22.912819 1.2883009
0 0 -0
0 0 0
2.6240768 23.003767 1.2932354
6.9867468 61.913036 0
2.5927827 22.975937 1.2914937
6.9200158 61.993855 0
2.5586779 22.922245 1.2883009
6.8539557 62.082355 0
2.5326903 22.940821 1.2891721
0 0 0
2.509763 22.987776 1.2916392
0 0 0
2.4736176 22.913282 1.2872849
6.3018584 59.042992 0
2.4434478 22.893003 1.2859787
6.2351542 59.094559 0
2.4065146 22.808084 1.2810442
6.1642857 59.107231 0
2.3746421 22.769634 1.2787225
6.1011324 59.194881 0
2.3402007 22.705278 1.2749486
6.0296025 59.202213 0
2.311975 22.700342 1.2745136
5.9554586 59.183563 0
0 0 0
5.8883185 59.234741 0
2.3758547 23.900394 1.3415644
5.8182659 59.257347 0
2.3479896 23.913591 1.342145
5.7511816 59.310955 0
2.3025415 23.74572 1.3325661
5.684968 59.374851 0
2.2359579 23.352753 1.310361
5.6146913 59.397228 0
2.2028482 23.303699 1.3074582
5.5470271 59.448017 0
2.1756542 23.316694 1.3080387
5.4732828 59.433945 0
2.1486702 23.332241 1.3087643
5.4428267 59.496841 0
2.1355205 23.343885 1.3093449
5.3716345 59.511154 0
2.1203935 23.491371 1.3174727
5.3027234 59.551296 0
2.0952334 23.530148 1.3195044
5.2293978 59.54211 0
2.0702107 23.571491 1.3216816
1.9960289 23.046333 0
2.0428483 23.586916 1.3224071
1.9679592 23.046139 0
2.003072 23.457335 1.3150054
1.9361813 23.001814 0
1.9644839 23.338049 1.3081844
4.9574785 59.758602 0
1.912868 23.058157 1.2923648
1.88165 23.019403 0
1.8826765 23.031961 1.2907681
4.8207798 59.866386 0
1.8523427 23.003138 1.2890265
4.753583 59.937023 0
1.8280388 23.049393 1.2914937
4.6850066 59.992012 0
1.8155613 23.248457 1.3025237
4.6105204 59.971687 0
1.7930458 23.323175 1.3065877
4.5402126 60.005764 0
1.7719198 23.418594 1.3118122
4.4715676 60.063099 0
0 0 0
4.4020314 60.109989 0
0 0 0
4.3372483 60.224281 0
0 0 0
4.263557 60.216499 0
0 0 0
4.1897101 60.206036 0
0 0 0
0 0 0
0 0 0
0 0 0
0 0 0
3.4912596 52.939606 0
0 0 0
3.412328 52.712658 0
1.533934 23.69577 1.3263255
3.3686569 52.530327 0
1.5241072 23.766699 1.3302438
3.3068156 52.560329 0
1.4947367 23.75816 1.3296639
0.32799065 5.3157496 -0.5936265
3.2392976 52.499352 0
1.466668 23.770313 1.3302438
0.31856665 5.2665343 -0.87961131
0.32219204 5.3264694 -0.59477967
3.173032 52.45647 0
1.4363766 23.746136 1.3287927
0.31098765 5.2464151 -0.87618756
0.31391922 5.2958713 -0.59132016
0 0 -0
3.1124179 52.507023 0
0 0 0
0.30420217 5.2391062 -0.87490487
0.30617076 5.2730098 -0.58872581
0 0 -0
0.3008036 5.1805744 0
0 0 0
0.29054201 5.2218819 -0.87190872
0.29270822 5.2608147 -0.58728349
0 0 -0
0.2826452 5.0799532 0
0 0 0
0.28395289 5.2170978 -0.87105197
0.28283727 5.1966004 -0.58007646
0 0 -0
0.27905247 5.1270614 0
0 0 0
0.27792192 5.2225685 -0.87190872
0.25882858 4.8637757 -0.54288924
0 0 -0
0 0 0
0 0 0
0 0 -0
0.24368362 4.6858711 -0.52299845
0 0 -0
0.26531023 5.1017361 0
0 0 0
0 0 -0
0.23749667 4.6758294 -0.52184528
0.24420831 4.8079681 -0.26890093
0 0 0
0 0 0
0 0 -0
0.23184668 4.6761131 -0.52184528
0.24148637 4.8705359 -0.27238372
0 0 0
2.2357242 45.092297 2.5217774
0 0 -0
0.22669618 4.6867237 -0.52299845
0.2339692 4.8370862 -0.27049702
0 0 0
2.1775973 45.019711 2.5175691
0.24576026 5.2113338 -0.86976928
0.21993658 4.663744 -0.5204041
0.22861397 4.8477478 -0.2710776
0.2391783 5.0717635 0
2.1249115 45.05864 2.5196006
0.23934504 5.2090549 -0.86934006
0.21441981 4.6665878 -0.52069211
0.22251795 4.842834 -0.2707876
0.2322136 5.0538478 0
0 0 0
0.23236258 5.1939583 -0.86677313
0.21421367 4.7882791 -0.53424102
0.21678218 4.8456926 -0.27093259
0.22599064 5.0515275 0
0 0 0
0.22541697 5.1788526 -0.86420614
0.22675987 5.2097049 -0.58122963
0 0 -0
0.21932095 5.0387993 0
0 0 0
0.2186162 5.1662898 -0.86206508
0.21532559 5.0885267 -0.56768072
0 0 -0
0.21246208 5.0208569 0
0 0 0
0.20984364 5.1050024 -0.85179549
0.19951083 4.8536291 -0.54144806
0 0 -0
0.20639519 5.0211096 0
0 0 0
0.19282845 4.833374 -0.80643344
0.18859391 4.7272325 -0.52732199
0.19232382 4.820725 -0.26948148
0.20032802 5.0213556 0
0 0 0
0.18460652 4.7720394 -0.79616219
0.18198209 4.7041984 -0.52472764
0.18649878 4.8209538 -0.26948148
0.19365712 5.0059958 0
0 0 0
0.17835973 4.7594352 -0.7940228
0.17436063 4.6527214 -0.51896179
0.18038143 4.8133831 -0.26904592
0.18751048 5.0036178 0
0 0 0
0.17520045 4.7518439 -0.79273844
0.17040606 4.621809 -0.51550227
0.17699477 4.8005104 -0.26832035
0.18429589 4.9985337 0
0 0 0
0.16973318 4.7597508 -0.7940228
0.16408433 4.6013427 -0.51319706
0.1711013 4.7981167 -0.2681748
0.17769971 4.9831524 0
0 0 0
0.1646889 4.7804766 -0.79744649
0.15825714 4.5937805 -0.5123319
0.16503546 4.7905364 -0.2677398
0.17149903 4.9781566 0
0 0 0
0.16019152 4.8191495 -0.80386478
0.15322176 4.6094737 -0.51406109
0.15924691 4.7907324 -0.2677398
0.16557015 4.9809589 0
0 0 0
0.1562587 4.8783545 -0.81370842
0.1465756 4.5760508 -0.51031357
0.1533747 4.7883167 -0.26759425
0.15913501 4.968152 0
0 0 0
0.15091741 4.8964934 -0.81670296
0.14040878 4.5555425 -0.50800723
0.14750887 4.7859039 -0.26744926
0.15281115 4.9579358 0
0 0 0
0.14560871 4.9171996 -0.82012671
0.13490421 4.5557089 -0.50800723
0.14141828 4.7756891 -0.26686868
0.14651223 4.947711 0
0 0 0
0.13514882 4.7582927 -0.79359519
0.12851849 4.5248532 -0.50454885
0.1356477 4.7758565 -0.26686868
0.14001676 4.9296818 0
0 0 0
0.1201883 4.4197345 -0.73710519
0.12227753 4.496562 -0.50137734
0.12980634 4.7734222 -0.26672369
0.13377713 4.9194412 0
0 0 0
0.11384781 4.3813906 -0.7306869
0.11603799 4.4656792 -0.49791783
0.1240385 4.7735753 -0.26672369
0.12735957 4.9013858 0
0 0 0
0.10868577 4.386857 -0.97211772
0.10810854 4.3635583 -0.72769076
0 0 -0
0.11814188 4.7685313 -0.26643369
0.12111488 4.8885298 0
0 0 0
0.10410339 4.4174676 -0.9788723
0.10301746 4.3713875 -0.72897506
0.10518498 4.4633632 -0.49762982
0.11244112 4.771266 -0.2665787
0.11557572 4.9042783 0
0 0 0
0.098935887 4.4252033 -0.98055935
0.097678088 4.3689446 -0.72854751
0.099791802 4.4634871 -0.49762982
0.10673392 4.7739935 -0.26672369
0.10959166 4.9018149 0
0 0 0
0.093642488 4.4278574 -0.98112172
0.092127457 4.3562198 -0.7264064
0.094398476 4.4636045 -0.49762982
0.10080052 4.7663231 -0.26628813
0.10328346 4.883728 0
0 0 0
0.088140406 4.4203539 -0.97943467
0.086915076 4.358902 -0.72683561
0.088540994 4.440444 -0.49503547
0.095093228 4.7690468 -0.26643369
0.097538054 4.8916578 0
0.10068505 5.0494838 0.28210095
0.082466066 4.4026713 -0.97549391
0.081455827 4.3487372 -0.72512376
0.083272308 4.445715 -0.49561149
0.089330703 4.7691584 -0.26643369
0.09152998 4.8865728 0
0.094632469 5.0522075 0.2822465
0.07745789 4.4205537 -0.97943467
0.076425999 4.3616633 -0.72726315
0.07799118 4.4509892 -0.49618864
0.083659001 4.7744536 -0.26672369
0.086218134 4.9205046 0
0.088072471 5.0263324 0.28079483
0.072240673 4.4282584 -0.98112172
0.071030065 4.3540497 -0.72597885
0.072612979 4.4510803 -0.49618864
0.077805258 4.7693601 -0.26643369
0.080187619 4.9153957 0
0.082465336 5.055017 0.28239152
0.066698089 4.4156418 -0.97830778
0.065885343 4.3618355 -0.72726315
0.067156456 4.4459872 -0.49561149
0.072159983 4.7772379 -0.26686868
0.074523449 4.9337072 0
0.076043315 5.0343275 0.28123039
0.061362606 4.4157195 -0.97830778
0.060579237 4.3593473 -0.72683561
0.061784305 4.4460654 -0.49561149
0.066423781 4.7799273 -0.26701424
0.068561971 4.9337935 0
0.069924183 5.0318203 0.2810854
0.055962615 4.4107137 -0.9771831
0.055246573 4.3542786 -0.72597885
0.056412056 4.4461365 -0.49561149
0.060648125 4.780004 -0.26701424
0.062666371 4.9390726 0
0.063976027 5.042294 0.28166595
0.050749753 4.4209409 -0.97943467
0.050073668 4.3620453 -0.72726315
0.051039729 4.4462018 -0.49561149
0.054902177 4.7826695 -0.26715925
0.05654908 4.9261355 0
0.057913154 5.0449634 0.28181094
0.045355629 4.4159126 -0.97830778
0.044723831 4.3543997 -0.72597885
0.045561068 4.4359145 -0.49445832
0.049149878 4.7853279 -0.26730424
0.050676979 4.9340096 0
0.051790599 5.0424337 0.28166595
0.042663202 4.4134011 -0.97774547
0.042192359 4.3646936 -0.72769076
0.042906068 4.4385252 -0.49474633
0.0462588 4.785357 -0.26730424
0.047570318 4.92103 0
0.048618529 5.0294652 0.28093982
0.037480894 4.4312372 -0.98168617
0.036918446 4.3647413 -0.72769076
0.037542947 4.4385738 -0.49474633
0.040542554 4.7932067 -0.2677398
0.041668162 4.9262838 0
0.042519413 5.0269241 0.28079483
0.032237072 4.4465194 -0.98506242
0.031588633 4.3570795 -0.7264064
0.032161038 4.4360318 -0.49445832
0.034769692 4.7958484 -0.26788482
0.035583589 4.9081111 0
0.03629462 5.0061851 0.2796337
0.026741492 4.4262285 -0.98055935
0.02635498 4.3622532 -0.72726315
0.026644705 4.4102082 -0.49157596
0.028927708 4.7880893 -0.26744926
0.029543055 4.8899407 0
0.030418297 5.0348101 0.28123039
0.021159943 4.3779883 -0.96986616
0.021096425 4.3648467 -0.72769076
0.021340789 4.4154053 -0.49215198
0.023154764 4.7907166 -0.26759425
0.023634497 4.8899727 0
0.024309549 5.0296412 0.28093982
0.015860748 4.3754625 -0.96930164
0.01601775 4.4187746 -0.73667765
0.016071258 4.4335356 -0.49417031
0.017375549 4.7933469 -0.2677398
0.017688166 4.8795881 0
0.01826987 5.0400605 0.2815204
0.010901843 4.5112047 -0.75208443
0.010726674 4.4387197 -0.49474633
0.011589987 4.7959604 -0.26788482
0.011867597 4.9108357 0
0.012129692 5.0192914 0.28035927
0.0055532702 4.5959158 -0.76620531
0.0053820983 4.4542532 -0.49647665
0.0057887123 4.7907691 -0.26759425
0.0059243655 4.9030366 0
0.0060899686 5.0400901 0.2815204
-0 4.636992 -0.77305281
-0 4.4801164 -0.49935901
-0 4.7881765 -0.26744926
-0 4.9134498 0
-0 5.0556893 0.28239152
-0.0056308121 4.66009 -0.77690411
-0.0054414696 4.5033889 -0.50195336
-0.0057855756 4.7881732 -0.26744926
-0.0059149289 4.8952265 0
-0.0060774097 5.0296965 0.28093982
-0.011280233 4.6677833 -0.77818841
-0.010964181 4.5370007 -0.50570089
-0.011583714 4.7933645 -0.2677398
-0.011836156 4.8978257 0
-0.012198772 5.0478768 0.28195596
-0.017022697 4.6960063 -0.78289646
-0.016540028 4.5628538 -0.50858438
-0.01740378 4.8011346 -0.2681748
-0.017763637 4.9004078 0
-0.018326402 5.0556564 0.28239152
-0.022833334 4.7242126 -0.78760284
-0.022078311 4.5679984 -0.5091604
-0.023242688 4.808908 -0.26861036
-0.023785437 4.9212027 0
-0.024422616 5.0530343 0.2822465
-0.028650181 4.7421532 -0.79059905
-0.0276135 4.5705624 -0.50944954
-0.02902193 4.8036847 -0.26832035
-0.029951822 4.9575996 0
-0.03055957 5.0581932 0.28253651
-0.03434287 4.7369761 -0.78974229
-0.033173576 4.5756936 -0.51002556
-0.03501457 4.8296247 -0.26977149
-0.036055259 4.9731693 0
-0.036652565 5.0555568 0.28239152
-0.039632391 4.6856012 -0.78118455
-0.038746096 4.5808177 -0.51060158
-0.040916156 4.8373766 -0.27020705
-0.041998364 4.9653225 0
-0.042695235 5.0477109 0.28195596
-0.045045808 4.6598754 -0.77690411
-0.044481102 4.6014585 -0.51290792
-0.046685774 4.8295259 -0.26977149
-0.048173979 4.9834771 0
-0.048618529 5.0294652 0.28093982
-0.05022978 4.6187568 -0.77005827
-0.050041035 4.6014013 -0.51290792
-0.052577738 4.8346577 -0.27006149
-0.053884272 4.9547968 0
-0.05475219 5.0346041 0.28123039
-0.055779502 4.6161184 -0.76962906
-0.055975914 4.6323733 -0.51636744
-0.058482289 4.8397923 -0.27035204
-0.060028333 4.9677372 0
-0.061494779 5.0890951 0.28427818
-0.061493613 4.6263151 -0.77134091
-0.062054534 4.6685147 -0.5204041
-0.064399198 4.8449092 -0.27064204
-0.066203743 4.98067 0
-0.067747556 5.0968146 0.28471375
-0.068707913 4.7382565 -0.52818716
-0.070177995 4.8396368 -0.27035204
-0.072297402 4.985796 0
-0.073453903 5.0655508 0.28297207
-0.075570673 4.8105826 -0.53625935
-0.076270513 4.8551321 -0.27122259
-0.07832171 4.9857049 0
-0.72849417 46.373566 2.5905697
-0.081733108 4.8311667 -0.53856456
-0.082093023 4.8524408 -0.2710776
-0.084257774 4.9803972 0
-0.78316456 46.292118 2.5860708
-0.087758079 4.8414087 -0.53971773
-0.088285886 4.8705268 -0.27209371
-0.090181306 4.9750929 0
-0.83778054 46.218403 2.5820076
-0 0 -0
-0.097100019 4.8696899 -0.54288924
-0.09877082 4.9534826 -0.27673763
-0.099146262 4.9723115 0
-0.91937244 46.1077 2.575912
-0 0 -0
-0.10331204 4.8850794 -0.54461843
-0.10536047 4.9819388 -0.27833429
-0.10564966 4.9956131 0
-0.97277647 45.997452 2.5698164
-0 0 -0
-0.11360816 5.0814648 -0.56652755
-0.11190275 5.0051856 -0.27964041
-0.11162747 4.9928722 0
-1.0264381 45.910515 2.565027
-0 0 -0
-0.12285564 5.2131901 -0.58122963
-0.11850137 5.0284238 -0.28094652
-0.1180283 5.0083494 0
-1.0798299 45.820927 2.5600924
-0.12902549 5.2078238 -0.86848497
-0.13011566 5.2518258 -0.5855543
-0.12489888 5.0412626 -0.28167209
-0.12401517 5.0055938 0
-1.1330711 45.733868 2.5553031
-0.13545126 5.2127914 -0.86934006
-0.13693172 5.2697663 -0.58757263
-0.13153014 5.0618887 -0.28283319
-0.13046911 5.0210552 0
-1.1864408 45.659733 2.551239
-0.1417498 5.2126241 -0.86934006
-0.14231464 5.2333951 -0.58353597
-0.23215121 8.5369921 -0.47702006
-0.13674828 5.0287008 0
-1.2394918 45.580345 2.5468853
-0.14804813 5.2124491 -0.86934006
-0.14628847 5.1504951 -0.57431173
-0.24194984 8.5185213 -0.47600394
-0.14334139 5.0467348 0
-1.292648 45.511288 2.5431118
-0.15434626 5.212266 -0.86934006
-0.15243524 5.1477318 -0.57402372
-0.25278109 8.5364065 -0.47702006
-0.14967045 5.0543647 0
-1.3452544 45.429184 2.5386128
-0.16111879 5.2274761 -0.87190872
-0.16112506 5.2276793 -0.58295995
-0.26317546 8.5386896 -0.47716504
-0.15561704 5.0489726 0
-1.3980646 45.360001 2.5348396
-0.1677638 5.2375402 -0.87362057
-0.16802129 5.2455792 -0.58497828
-0.27324295 8.530571 -0.47672948
-0.16246773 5.0721989 0
-1.4495447 45.254395 2.5290339
-0.17400701 5.2347708 -0.87319303
-0.17582013 5.2893157 -0.58987898
-0.28363687 8.5328398 -0.47687507
-0.16868275 5.0745974 0
-1.501376 45.166912 2.5242445
-0.18050869 5.2396827 -0.87404811
-0.1818549 5.2787595 -0.58872581
-0.29376781 8.5272913 -0.47658449
-0.1751727 5.0847936 0
-1.553893 45.105343 2.5209067
-0.18729702 5.2522855 -0.87618756
-0.18860182 5.2888756 -0.58987898
-0.30360824 8.5139484 -0.47585893
-0.18150187 5.0897746 0
-1.6059853 45.035919 2.5171335
-0.19364324 5.2520556 -0.87618756
-0.19499224 5.2886438 -0.58987898
-0.31418279 8.521368 -0.47629449
-0 0 0
-1.6581035 44.971626 2.5136502
-0.19950086 5.2389941 -0.87404811
-0.20157905 5.2935686 -0.590455
-0.3243798 8.5183783 -0.47614893
-0.19429639 5.1023221 0
-1.7085857 44.868332 2.5079901
-0.20613346 5.2464471 -0.87533247
-0.33022889 8.4048862 -0.93754131
-0.33446851 8.5127926 -0.47585893
-0.20107464 5.1176915 0
-1.7594328 44.780556 2.5032005
-0.21330367 5.2667136 -0.87875617
-0 0 -0
-0.34496441 8.5175695 -0.47614893
-0.20715301 5.1148467 0
-1.8104907 44.703106 2.4989917
-0.21998794 5.2741394 -0.88003886
-0 0 -0
-0.35482284 8.5067616 -0.47556838
-0.21376698 5.1249938 0
-1.8610395 44.617817 2.4943478
-0.22746156 5.2995214 -0.88431937
-0 0 -0
-0.36532441 8.5115242 -0.47585893
-0.21995938 5.1247315 0
-1.9161755 44.644085 2.4959438
-0.23443063 5.3120632 -0.88645875
-0 0 -0
-0.37537929 8.5058794 -0.47556838
-0.22706895 5.1452518 0
-1.8721719 42.42234 2.3718562
-0.24143033 5.3245959 -0.8885982
-0.3806493 8.3949842 -0.9366762
-0.38589236 8.5106163 -0.47585893
-0.2335218 5.1501784 0
-1.920958 42.365536 2.3688085
-0.24786387 5.3243003 -0.8885982
-0.39079273 8.3945179 -0.9366762
-0.39581287 8.5023546 -0.47542337
-0.23889734 5.1316924 0
-1.9677975 42.269753 2.363584
-0.25380719 5.3137403 -0.88688636
-0.40093556 8.3940401 -0.9366762
-0.40583831 8.4966841 -0.47513339
-0.41755438 8.7419739 0
-2.0158954 42.205051 2.3601005
-0.4057571 8.3886337 -0.93610013
-0.4107202 8.4912415 -0.47484282
-0.42434463 8.772913 0
-2.0373762 42.120773 2.3554561
-0.41602078 8.3907185 -0.93638813
-0.42110845 8.4933319 -0.47498783
-0.43533093 8.7801847 0
-2.0838945 42.030045 2.3505216
-0.42576528 8.3824577 -0.93552303
-0.43137068 8.4928169 -0.47498783
-0.44593975 8.7796516 0
-1.9351257 38.098713 2.1307919
-0.43643084 8.3922691 -0.9366762
-0.44136265 8.4871044 -0.47469783
-0.4556022 8.7609215 0
-1.9826437 38.124893 2.1323886
-0.44657093 8.391736 -0.9366762
-0.45134142 8.4813805 -0.47440782
-0.46798548 8.7941465 0
-2.0276041 38.101715 2.1312275
-0.45656994 8.3886099 -0.93638813
-0.46144757 8.4782267 -0.47426227
-0.47747964 8.7727852 0
-2.0723703 38.075886 2.1299214
-0.46627441 8.3803024 -0.93552303
-0.47140306 8.4724789 -0.47397226
-0.48952499 8.7981825 0
-2.1176538 38.060375 2.1291952
-0.47640002 8.3797321 -0.93552303
-0.48237735 8.4848719 -0.47469783
-0.49794018 8.7586174 0
-2.1621664 38.031853 2.1277442
-0 0 -0
-0.48652494 8.3791504 -0.93552303
-0.49247885 8.4816914 -0.47455281
-0.50957847 8.7761889 0
-2.2066128 38.003273 2.1262929
-0.49664918 8.3785572 -0.93552303
-0.50257337 8.4784985 -0.47440782
-0.52018237 8.7755661 0
-2.2514544 37.982422 2.1252768
-0.50677264 8.3779507 -0.93552303
-0.5125035 8.4726925 -0.47411725
-0.52968609 8.7567549 0
-2.2957783 37.953739 2.1238258
-0.51689541 8.3773317 -0.93552303
-0.52338082 8.4824419 -0.47469783
-0.54058677 8.7612982 0
-2.3398759 37.922409 2.1222291
-0.52701741 8.3767014 -0.93552303
-0.53460842 8.4973583 -0.47556838
-0.55051905 8.7502489 0
-2.3855331 37.916962 2.1220841
-0.53697324 8.3734798 -0.93523502
-0.54603964 8.5148602 -0.47658449
-0.5617578 8.7599659 0
-2.4286859 37.872562 2.1197619
-0.54742754 8.3779821 -0.93581104
-0.55649704 8.5167847 -0.47672948
-0.570476 8.7307224 0
-2.4730904 37.848858 2.1186008
-0.55720711 8.3721581 -0.93523502
-0.56730539 8.5238867 -0.47716504
-0.58240688 8.7507906 0
-2.5177865 37.830288 2.1177301
-0.56732279 8.3714781 -0.93523502
-0.57760441 8.5231943 -0.47716504
-0.59315658 8.7526846 0
-2.561914 37.80389 2.1164241
-0.57779336 8.3759422 -0.93581104
-0.58772391 8.5199013 -0.47702006
-0.60337347 8.7467632 0
-2.606339 37.782616 2.1154079
-0.58737075 8.3675051 -0.93494695
-0.59783638 8.5165949 -0.47687507
-0.61467075 8.7564125 0
-2.6498065 37.748337 2.1136663
-0 0 -0
-0.60738623 8.5054989 -0.47629449
-0.62469441 8.7478733 0
-2.6935654 37.719193 2.1122153
-0.60684061 8.3557425 -0.93379378
-0.61634529 8.4866152 -0.47527838
-0.6348874 8.7419262 0
-2.7376339 37.695179 2.1110542
-0.61617458 8.3446856 -0.93264061
-0.62583387 8.4754982 -0.47469783
-0.64679158 8.7593231 0
-2.7818396 37.673698 2.110038
-0.62121594 8.3443117 -0.93264061
-0.6297971 8.4595757 -0.47382727
-0.65034467 8.7355747 0
-2.8028638 37.648693 2.1087317
-0.63149291 8.3461313 -0.93292868
-0 0 -0
-0.66109556 8.7373753 0
-2.8473728 37.632328 2.1080062
-0.64157712 8.3453627 -0.93292868
-0.65063673 8.4632063 -0.47411725
-0.67205107 8.7417545 0
-2.890054 37.592594 2.1059747
-0 0 -0
-0.65145922 8.3420048 -0.93264061
-0.66106451 8.4650021 -0.47426227
-0.68180281 8.7305584 0
-2.93507 37.583885 2.105684
-0.66133416 8.3386354 -0.9323526
-0.67108709 8.4616089 -0.47411725
-0.69194037 8.7245445 0
-2.9784267 37.554413 2.104233
-0.67140925 8.3378305 -0.9323526
-0 0 -0
-0.70373476 8.7392616 0
-3.0219247 37.527481 2.1029267
-0.68148339 8.3370132 -0.9323526
-0.68878168 8.4262972 -0.47223058
-0.71493018 8.7461891 0
-3.066632 37.516029 2.1024914
-0.69283915 8.3516445 -0.93408185
-0.70025122 8.4409914 -0.47310114
-0.72571266 8.7479095 0
-3.1089535 37.476048 2.1004596
-0.70206219 8.3404922 -0.93292868
-0.71044999 8.4401388 -0.47310114
-0.73409975 8.7210979 0
-3.1527078 37.454136 2.0994434
-0.71235937 8.3422117 -0.93321669
-0.71998513 8.4315147 -0.47266614
-0.74596512 8.7357578 0
-3.1964135 37.432175 2.0984273
-0.72199285 8.3361969 -0.93264061
-0.72994757 8.4280424 -0.47252059
-0.75786781 8.750412 0
-3.2396231 37.404987 2.0971212
-0.7322911 8.3378925 -0.93292868
-0.74035871 8.4297504 -0.47266614
-0.76730132 8.7365198 0
-3.2829986 37.380337 2.0959601
-0.74190688 8.3318539 -0.9323526
-0.74962199 8.4184971 -0.4720856
-0.78085852 8.7692928 0
-3.3267808 37.360821 2.0950897
-0.75290293 8.3412457 -0.9335047
-0.76072794 8.4279366 -0.47266614
-0.78724223 8.7216825 0
-3.3702862 37.338654 2.0940735
-0.76227492 8.3326101 -0.93264061
-0.77091092 8.4270115 -0.47266614
-0.80086207 8.7544146 0
-3.4130335 37.308685 2.0926223
-0.77258122 8.3342552 -0.93292868
-0.7810927 8.426074 -0.47266614
-0.81264126 8.7664051 0
-3.4571519 37.294182 2.0920417
-0.78265101 8.3333158 -0.93292868
-0.79175889 8.4302931 -0.47295615
-0.82323313 8.7654161 0
-3.4992964 37.258934 2.0903001
-0.8030349 8.333972 -0.93321669
-0.81163132 8.4231873 -0.47266614
-0.84116763 8.7297173 0
-3.5853388 37.208984 2.0879779
-0.8126024 8.3278522 -0.93264061
-0.82231271 8.4273672 -0.47295615
-0.85399061 8.7520142 0
-3.6287823 37.189114 2.0871074
-0.82291842 8.3294363 -0.93292868
-0.83249497 8.4263678 -0.47295615
-0.86251807 8.730257 0
-3.6714163 37.16143 2.0858011
-0.83246803 8.3232927 -0.9323526
-0.84138322 8.4124308 -0.47223058
-0.87513828 8.7499247 0
-3.713989 37.133701 2.0844951
-0.84278476 8.324852 -0.93264061
-0.85364115 8.4320898 -0.47339171
-0.88544732 8.7462645 0
-3.7572842 37.11367 2.0836239
-0.85205197 8.3161058 -0.93177551
-0.86250508 8.4181299 -0.47266614
-0.89654589 8.750371 0
-3.8002729 37.091015 2.0826085
-0.86263371 8.3202209 -0.9323526
-0.87347925 8.4248276 -0.47310114
-0.90362954 8.7156315 0
-3.8429437 37.06572 2.0814474
-0.86792827 8.3222685 -0.93264061
-0.87803042 8.4191341 -0.47281116
-0.90835452 8.7099018 0
-3.8629107 37.040134 2.0801411
-0.87798345 8.3212137 -0.93264061
-0.88874745 8.4232311 -0.47310114
-0.92379403 8.7553892 0
-3.9062996 37.022511 2.0794151
-0.88858587 8.325285 -0.93321669
-0.89920121 8.4247417 -0.47324669
-0.92774361 8.6921597 0
-3.9482741 36.991932 2.0779638
-0.89975512 8.3344917 -0.93436986
-0.90965885 8.4262304 -0.47339171
-0.93601108 8.6703329 0
-3.9921317 36.979382 2.0775285
-0.90926421 8.3282614 -0.93379378
-0.91842979 8.4122124 -0.47266614
-0.9462046 8.6666107 0
-4.0328636 36.938374 2.0754967
-0.92046189 8.3374395 -0.93494695
-0.93115962 8.4343386 -0.47397226
-0.95838875 8.6809769 0
-4.0763526 36.923141 2.0749161
-0.93082207 8.3388891 -0.93523502
-0.94077313 8.4280376 -0.47368172
-0.97089857 8.6979198 0
-4.1172171 36.884621 2.0730295
-0.93973714 8.3274775 -0.93408185
-0.9515394 8.4320631 -0.47397226
-0.98490959 8.7277737 0
-4.1614909 36.877037 2.0728846
-0.95009142 8.3289032 -0.93436986
-0.96143299 8.4283285 -0.47382727
-0.99722385 8.7420864 0
-4.2025123 36.841003 2.0711429
-0.96015459 8.3277493 -0.93436986
-0.97250825 8.4348974 -0.47426227
-1.0119588 8.7770653 0
-4.2458339 36.825573 2.0705624
-0 0 -0
-0.96961826 8.3214502 -0.93379378
-0.98149651 8.4233923 -0.47368172
-1.0264789 8.8094387 0
-4.2882218 36.802345 2.0695462
-0.9802767 8.3254051 -0.93436986
-0.99106669 8.4170437 -0.47339171
-1.0386451 8.8211231 0
-4.329041 36.766171 2.0678046
-0.99003035 8.3216486 -0.93408185
-1.0055333 8.4519587 -0.47542337
-1.0508399 8.8327799 0
-4.3740773 36.766079 2.068095
-1.0000848 8.320446 -0.93408185
-1.0138853 8.4352627 -0.47455281
-1.0643067 8.8547564 0
-4.4147778 36.729809 2.0663533
-1.0113847 8.3295021 -0.93523502
-1.0237639 8.4314547 -0.47440782
-1.0740638 8.8457108 0
-4.4563365 36.701233 2.0650473
-0 0 -0
-1.0217631 8.3308392 -0.93552303
-1.0336337 8.4276247 -0.47426227
-1.0857021 8.8521585 0
-4.4990983 36.68293 2.0643218
-1.0292847 8.309063 -0.93321669
-1.0441365 8.428956 -0.47440782
-1.0960778 8.8482599 0
-4.5405445 36.654259 2.0630155
-1.040929 8.3206434 -0.93465787
-1.0568997 8.4483051 -0.47556838
-1.1061217 8.8417597 0
-4.5816045 36.622959 2.061564
-1.051631 8.3245163 -0.93523502
-1.065479 8.4341345 -0.47484282
-1.1148479 8.8249302 0
-4.6222715 36.589046 2.0599678
-1.0629979 8.3335028 -0.93638813
-1.0769844 8.4431515 -0.47542337
-1.1251813 8.8209972 0
-4.6664786 36.583435 2.0599678
-1.0720751 8.3245134 -0.93552303
-1.0891775 8.4573116 -0.47629449
-1.1371686 8.8299561 0
-4.7083554 36.559727 2.0589516
-1.0841343 8.3386068 -0.9372533
-1.097385 8.4405241 -0.47542337
-1.1448163 8.8053408 0
-4.7488418 36.525661 2.0573549
-1.0938716 8.3347187 -0.93696421
-1.1113026 8.4675341 -0.47702006
-1.1503761 8.7652531 0
-4.7906065 36.501869 2.0563395
-1.1056397 8.3462086 -0.93840539
-1.1205091 8.4584551 -0.47658449
-1.1647248 8.7922287 0
-4.8336844 36.488327 2.0559039
-1.1096592 8.3378553 -0.93754131
-1.1297327 8.4886856 -0.47832617
-1.1734705 8.8173256 0
-4.8523006 36.459644 2.0544527
-1.1204211 8.34163 -0.93811738
-1.1396432 8.4847412 -0.47818118
-1.1841236 8.8159018 0
-4.894968 36.443455 2.0538721
-1.1304995 8.34027 -0.93811738
-1.1561762 8.5297012 -0.48079339
-1.1975715 8.8350954 0
-4.9355083 36.411758 2.0524206
-1.1412779 8.3440285 -0.93869448
-1.1671854 8.5334425 -0.48108339
-1.2054248 8.813014 0
-4.9777408 36.392899 2.0516949
-1.1527736 8.3528919 -0.93984765
-1.1810488 8.5577707 -0.48253506
-1.218919 8.8321762 0
-5.0195804 36.371418 2.0508244
-1.1653615 8.3694181 -0.94186491
-1.1917462 8.5589085 -0.48268008
-1.2321014 8.8487329 0
-5.0595822 36.337017 2.0492277
-1.1733153 8.3526411 -0.94013572
-1.2020872 8.5574627 -0.48268008
-1.2522058 8.9142494 0
-5.1027622 36.325733 2.0489378
-1.1834071 8.3512173 -0.94013572
-1.2120621 8.5534334 -0.48253506
-1.2695478 8.9591064 0
-5.1430049 36.293808 2.0474861
-1.1945953 8.3574648 -0.94100082
-1.2198223 8.5339546 -0.48151895
-1.282949 8.9755926 0
-5.1831789 36.261848 2.0460351
-1.2043226 8.3534479 -0.94071174
-1.2308753 8.5376225 -0.48180953
-5.7818751 40.104366 0
-5.2258778 36.247845 2.0455995
-1.2155322 8.3596678 -0.9415769
-1.243433 8.5515528 -0.48268008
-5.118485 35.201733 0
-5.2678032 36.228649 2.0448737
-1.2267585 8.3658724 -0.942442
-1.2564044 8.5680428 -0.48369619
-5.1561074 35.162048 0
-5.3078055 36.196552 2.0434227
-1.2387575 8.3771753 -0.94388324
-1.2690362 8.5819368 -0.48456675
-5.188693 35.08886 0
-5.349638 36.177261 2.0426972
-1.2481151 8.3705511 -0.94330609
-1.2797877 8.5829649 -0.48471174
-5.2214923 35.018219 0
-5.3902812 36.150211 2.0415361
-1.2593824 8.3767128 -0.94417125
-1.2897717 8.578845 -0.48456675
-5.2572236 34.968136 0
-5.4316392 36.12825 2.0406649
-0 0 -0
-1.2706664 8.3828592 -0.94503641
-1.2997475 8.5747137 -0.48442176
-5.2908921 34.905151 0
-5.4725642 36.103683 2.0396492
-1.2823573 8.3915443 -0.94618952
-1.3104995 8.5757027 -0.48456675
-5.3232365 34.834419 0
-5.5130444 36.076496 2.0384881
-1.294858 8.4053221 -0.94791877
-1.3192781 8.5638409 -0.4839862
-5.3526444 34.745663 0
-5.5550494 36.059536 2.0379076
-1.3050133 8.4037514 -0.94791877
-1.3288282 8.5571098 -0.48369619
-5.3834424 34.667164 0
-5.5966229 36.039959 2.0371821
-1.3159673 8.4072838 -0.94849586
-1.3395683 8.5580626 -0.48384118
-5.419693 34.624641 0
-5.6369514 36.012634 2.036021
-1.3289453 8.4235649 -0.95051312
-1.3535521 8.5795355 -0.4851473
-6.3922544 40.517521 0
-5.6776266 35.987827 2.0350049
-0 0 -0
-1.3411545 8.4347315 -0.95195538
-1.3647331 8.5830212 -0.4854373
-6.4452949 40.535477 0
-5.7166176 35.952709 2.0334082
-1.3486955 8.4492397 -0.95368463
-1.3764718 8.623251 -0.48775953
-6.4742947 40.559837 0
-5.7371101 35.941559 2.0329733
-1.3605469 8.457819 -0.9548378
-1.399684 8.7011137 -0.492259
-6.5278454 40.58025 0
-5.7764068 35.908939 2.0315216
-1.3736631 8.4740429 -0.95685607
-1.4259957 8.7968798 -0.49777403
-6.5827036 40.608292 0
-5.8185449 35.894249 2.0310864
-1.3839014 8.4723778 -0.95685607
-1.4366239 8.7951498 -0.49777403
-6.6405759 40.654243 0
-5.8581409 35.864105 2.0297799
-1.3979175 8.4936657 -0.95945042
-6.6880031 40.635921 0
-5.9006281 35.851875 2.0294898
-1.4124098 8.5174818 -0.96233284
-5.9729266 36.019497 0
-5.942668 35.837029 2.0290544
-6.0112987 35.981453 0
-5.9863954 35.83239 2.0291998
-6.0487242 35.938236 0
-6.0266681 35.80719 2.0281837
-6.087358 35.902676 0
-6.0712333 35.807571 2.0286193
-6.1298594 35.890167 0
-6.1166821 35.813015 2.0293448
-6.2139072 35.859859 0
-7.2927728 42.085888 2.3857889
-7.390553 42.345959 0
-7.3489809 42.107761 2.3875308
-7.4520774 42.395954 0
-7.406601 42.137234 2.3897073
-7.5110106 42.430481 0
-7.4670215 42.18198 2.3927553
-7.5695815 42.462368 0
-7.5234566 42.203625 2.3944969
-7.6245604 42.473675 0
-7.583168 42.243092 2.397254
-7.6823578 42.50029 0
-7.6429873 42.282482 2.4000118
-7.7267151 42.452568 0
-7.7033777 42.324345 2.4029145
-7.7737832 42.420162 0
-7.7596636 42.343113 2.4045107
-7.8292837 42.433769 0
-7.822608 42.397587 2.408139
-7.8895817 42.472897 0
-7.8814244 42.428982 2.4104614
-7.9200082 42.493702 0
-7.9151497 42.467636 2.4129286
-7.9799857 42.53014 0
-7.9765201 42.511669 2.4159763
-8.0410299 42.571609 0
-8.036561 42.547955 2.4185886
-8.1070461 42.638557 0
-8.0967016 42.584156 2.4212008
-8.1932926 42.810207 0
-8.1559658 42.615177 2.4235229
-8.2597818 42.876938 0
-8.2177734 42.658871 2.4265709
-8.3229761 42.925682 0
-8.2772264 42.689724 2.4288931
-8.3853054 42.969231 0
-8.3367653 42.720497 2.4312153
-8.435215 42.948864 0
-8.3998947 42.769032 2.4345531
-8.5047646 43.027992 0
-8.4606352 42.804729 2.4371653
-0 0 -0
-8.5740108 43.104465 0
-8.5214758 42.840351 2.4397781
-0 0 -0
-8.6388578 43.157867 0
-8.5803728 42.865692 2.4418099
-0 0 -0
-0 0 -0
-8.717206 43.277504 0
-8.6419106 42.903694 2.4445677
-0 0 -0
-8.7689753 43.264389 0
-8.7035513 42.941597 2.4473248
-0 0 -0
-8.8274841 43.284355 0
-8.7663345 42.984516 2.4503727
-0 0 -0
-8.8761187 43.255817 0
-8.8245344 43.004436 2.4521143
-8.9262733 43.234867 0
-8.8927765 43.072624 2.4566131
-8.971096 43.18837 0
-8.9574976 43.122906 2.4600966
-9.025938 43.190243 0
-9.0191641 43.157829 2.4627087
-9.0813303 43.194584 0
-9.0809269 43.192665 2.4653211
-9.1432076 43.229404 0
-9.1411762 43.219799 2.4674983
-9.1938124 43.210697 0
-9.2004213 43.24176 2.4693849
-9.2400255 43.171558 0
-9.2515774 43.225533 2.469095
-9.2540903 43.109993 0
-9.2662382 43.166588 2.466047
-9.2968359 43.055538 0
-9.3068733 43.102024 2.4629993
-9.3488531 43.044273 0
-9.3561878 43.078041 2.4622731
-9.4036341 43.045654 0
-9.4148874 43.097168 2.4640148
-0 0 -0
-9.4651337 43.077469 0
-9.4697428 43.09845 2.4647405
-9.5329018 43.137154 0
-9.5330257 43.137718 2.4676433
-0 0 -0
-9.5917912 43.156082 0
-9.5958548 43.174366 2.470401
-0 0 -0
-9.6581221 43.207954 0
-9.6616173 43.223591 2.4738839
-9.7240219 43.257191 0
-9.7223864 43.249916 2.4760611
-9.783742 43.278408 0
-9.7843781 43.281219 2.4785283
-9.8441048 43.302078 0
-9.8504925 43.330177 2.4820116
-9.8958397 43.287617 0
-9.9150019 43.371437 2.4850595
-9.9632959 43.341568 0
-9.9772959 43.402473 2.4875267
-10.030311 43.392887 0
-10.0467 43.463791 2.491735
-10.07979 43.368061 0
-10.106857 43.48452 2.4936216
-8.2815247 35.436836 0
-10.174767 43.538067 2.4973955
-8.3255262 35.431866 0
-10.234498 43.556087 2.4991367
-8.3689327 35.42432 0
-10.302654 43.609444 2.5029106
-0 0 -0
-0 0 -0
-8.4135323 35.421768 0
-10.366148 43.642464 2.5055227
-0 0 -0
-8.4557228 35.40905 0
-10.427925 43.667812 2.5076995
-8.4972878 35.393749 0
-10.484928 43.672867 2.5087156
-8.5412674 35.388512 0
-10.562077 43.761204 2.5145211
-8.5840216 35.378166 0
-10.614945 43.748409 2.5145211
-8.6066256 35.378036 0
-10.645672 43.759655 2.5155368
-8.6512194 35.375187 0
-8.6906452 35.5364 2.0434227
-8.6964426 35.374817 0
-8.7391605 35.54858 2.0447288
-8.7416773 35.37439 0
-8.7783661 35.522858 2.0438578
-8.7844133 35.3638 0
-8.8275471 35.537445 2.0453093
-8.8315516 35.370838 0
-8.8723679 35.534309 2.0457444
-8.9182749 35.354435 0
-0 0 0
-2.3836522 9.4015236 -0.54174864
-8.9603481 35.34111 0
-0 0 0
-2.3988616 9.4137487 -0.54261976
-9.0081854 35.350433 0
-0 0 0
-2.405077 9.3907061 -0.54145861
-9.0586414 35.369778 0
-0 0 0
-0 0 -0
-9.1033163 35.36636 0
-9.5552874 37.122265 2.1410964
-0 0 -0
-9.1447411 35.3503 0
-9.6066418 37.135841 2.1425476
-0 0 -0
-9.1933413 35.361893 0
-9.6554298 37.139301 2.1434186
-0 0 -0
-2.4221976 9.2708902 0
-9.6983271 37.120064 2.1429832
-2.4459298 9.3156862 -0.53797531
-2.4340582 9.2704716 0
-9.7444916 37.113338 2.1432731
-0 0 -0
-2.4551947 9.3051844 -0.53753972
-2.4412756 9.25243 0
-11.740202 44.495346 2.5703969
-0 0 -0
-2.4631073 9.2896547 -0.53681415
-2.445116 9.2217999 0
-9.9779921 37.632183 2.1746221
-0 0 -0
-2.4743302 9.2866716 -0.53681415
-0 0 0
-10.018772 37.60252 2.1736059
-0 0 -0
-2.4842069 9.2786598 -0.53652418
-0 0 0
-10.060167 37.575321 2.172735
-0 0 -0
-2.491365 9.2605915 -0.53565305
-0 0 0
-10.102187 37.550594 2.1720092
-2.5039101 9.2625961 -0.53594363
-2.4774349 9.1646576 0
-10.152977 37.558426 2.1731703
-0 0 -0
-2.5088267 9.2585754 -0.53579861
-2.4809287 9.1556206 0
-10.175667 37.552288 2.1731703
-0 0 -0
-2.5213761 9.2605476 -0.53608859
-0 0 0
-10.235369 37.592613 2.1762183
-2.5318787 9.2549896 -0.53594363
-2.5057938 9.1596394 0
-12.274583 44.86832 2.5982621
-0 0 -0
-2.5430598 9.2519236 -0.53594363
-2.5237586 9.1817045 0
-12.338429 44.888527 2.6002936
-0 0 -0
-2.5563102 9.2563515 -0.53637862
-2.5376222 9.1886826 0
-12.409261 44.933701 2.6037772
-0 0 -0
-2.5674927 9.2532558 -0.53637862
-2.5501134 9.1906204 0
-12.476743 44.966236 2.6065342
-0 0 -0
-0 0 -0
-2.5793715 9.2526569 -0.53652418
-2.5689046 9.2151108 0
-12.543628 44.996189 2.6091471
-2.5926499 9.2570324 -0.53695917
-2.58144 9.2170076 0
-12.604294 45.003517 2.6104531
-0 0 -0
-2.6045392 9.256402 -0.53710473
-2.5834119 9.1813164 0
-10.44247 37.112011 2.1534326
-0 0 -0
-2.6128945 9.2432461 -0.53652418
-10.459276 37.000217 0
-10.487304 37.099365 2.1534326
-0 0 -0
-2.6247704 9.2425795 -0.53666919
-10.504686 36.990051 0
-10.527866 37.071674 2.1525619
-2.6366487 9.2418976 -0.53681415
-10.555799 36.999855 0
-10.574789 37.066418 2.152997
-2.6513925 9.2511921 -0.53753972
-12.875456 44.924812 0
-10.626729 37.078594 2.1544487
-0 0 -0
-2.6661654 9.2604733 -0.53826582
-12.905969 44.826694 0
-10.681587 37.100681 2.1564803
-2.6780741 9.2597389 -0.53841084
-12.927588 44.69857 0
-10.721354 37.070271 2.1554642
-2.6892607 9.2564964 -0.53841084
-12.970698 44.645435 0
-13.440321 46.261887 2.6908562
-2.7018981 9.2582245 -0.53870082
-12.984536 44.492332 0
-13.488201 46.218174 2.6892595
-0 0 -0
-2.710892 9.2474794 -0.53826582
-13.012665 44.38921 0
-13.54623 46.209324 2.6896951
-0 0 -0
-0 0 -0
-13.054529 44.333508 0
-13.599119 46.182953 2.6891146
-0 0 -0
-2.7361796 9.2508678 -0.53884637
-13.094803 44.272785 0
-13.617328 46.039413 2.6817129
-0 0 -0
-2.7417681 9.2492132 -0.53884637
-13.107493 44.217457 0
-0 0 0
-0 0 -0
-2.7536826 9.2483816 -0.53899139
-13.151258 44.169163 0
-0 0 0
-0 0 -0
-2.767087 9.2525091 -0.53942639
-13.189705 44.103371 0
-0 0 0
-3.4143796 11.366858 -0.66293412
-13.236248 44.064972 0
-0 0 0
-3.4116013 11.307999 -0.65974128
-13.275953 44.004105 0
-14.162403 46.942307 2.7387497
-3.4116971 11.259101 -0.65712851
-13.280815 43.828636 0
-15.016316 49.556046 2.8922992
-3.4162207 11.22514 -0.65538687
-13.172376 43.282261 0
-15.058785 49.480698 2.8889616
-3.4115553 11.161374 -0.65190405
-3.7129865 12.147548 0
-15.136788 49.522095 2.8924444
-0 0 -0
-3.4105501 11.110044 -0.64914626
-3.7146788 12.10076 0
-15.204242 49.528614 2.8938959
-3.4109583 11.063705 -0.64667904
-3.7162638 12.053987 0
-15.247236 49.455582 2.8907032
-3.409724 11.012422 -0.64392179
-3.7077348 11.974911 0
-15.287769 49.375069 2.8870747
-3.4106829 10.968593 -0.6415996
-3.7067466 11.920719 0
-15.330442 49.301968 2.8838816
-3.4115412 10.924779 -0.63927734
-3.7002046 11.849166 0
-0 0 0
-0 0 -0
-3.402971 10.851235 -0.63521397
-3.6880431 11.76026 0
-13.756924 43.867435 2.5679297
-3.4028118 10.804984 -0.63274676
-3.6897423 11.716078 0
-13.819283 43.880512 2.5696709
-3.3962774 10.73893 -0.62911844
-3.6960473 11.686793 0
-13.862108 43.831577 2.5677841
-3.3966665 10.695193 -0.62679619
-3.7046537 11.664963 0
-15.570608 49.027676 2.873287
-0 0 -0
-3.3945854 10.644042 -0.6240384
-3.7116299 11.638165 0
-14.485887 45.42186 2.6629906
-0 0 -0
-3.391597 10.590449 -0.62113619
-0 0 0
-14.494799 45.260807 2.6545734
-0 0 -0
-3.392458 10.549235 -0.61895895
-0 0 0
-14.572545 45.314995 2.6587822
-3.3932271 10.508045 -0.61678225
-0 0 0
-14.592954 45.191025 2.6525412
-3.3890915 10.452033 -0.61373448
-0 0 0
-0 0 0
-0 0 -0
-3.3881764 10.427735 -0.61242777
-0 0 0
-0 0 0
-3.3862684 10.379172 -0.60981554
-0 0 0
-0 0 0
-3.3899112 10.347919 -0.60821944
-3.9560373 12.076055 0
-14.145723 43.180717 2.5380323
-3.3894215 10.304321 -0.60589719
-0 0 0
-14.197078 43.161125 2.5378873
-3.3937192 10.275539 -0.60444552
-4.0072465 12.133183 0
-14.214177 43.037842 2.5316463
-3.3963211 10.241844 -0.60270441
-4.0128922 12.101158 0
-11.76931 35.49118 2.0885584
-3.4062312 10.189243 -0.60009164
-0 0 0
-11.836098 35.40596 2.0852206
-0 0 -0
-3.4077926 10.153098 -0.59820497
-0 0 0
-11.867293 35.35714 2.0831883
-3.4067814 10.109574 -0.59588271
-0 0 0
-11.891753 35.288605 2.0799956
-3.4148314 10.093146 -0.59515715
-0 0 0
-11.899409 35.170837 2.0739
-3.4161606 10.057031 -0.59327048
-3.6443527 10.728818 0
-11.929364 35.119537 2.0717235
-3.4207625 10.030764 -0.59196436
-3.6531143 10.712093 0
-11.96508 35.085423 2.0705624
-3.4278316 10.011877 -0.59109384
-3.6660552 10.707671 0
-12.00494 35.06356 2.0701268
-3.4314785 9.9831495 -0.58964217
-3.6849134 10.720464 0
-12.059969 35.085892 2.072304
-3.4435387 9.9789963 -0.58964217
-3.6859775 10.681557 0
-12.112526 35.100769 2.0740457
-3.4513416 9.962554 -0.5889166
-0 0 0
-12.162584 35.108204 2.0753517
-0 0 -0
-4.1964746 12.066278 0
-12.202435 35.086117 2.0749161
-3.4651289 9.9247456 -0.58717489
-4.233357 12.125088 0
-16.532337 47.351555 2.8014467
-3.4754012 9.9156523 -0.58688492
-3.5998385 10.270684 0
-16.577509 47.297218 2.7994151
-3.4847915 9.9040899 -0.58644938
-3.6053357 10.246687 0
-16.624298 47.247742 2.7976735
-3.4967563 9.8998718 -0.58644938
-3.6220472 10.25459 0
-16.6658 47.183521 2.7950611
-3.5078483 9.8931923 -0.58630437
-3.6309564 10.240395 0
-16.706299 47.116817 2.7923033
-3.5163143 9.8791552 -0.58572382
-3.6337268 10.209027 0
-16.741436 47.035397 2.7886751
-3.5240262 9.8819189 -0.58601379
-3.6302807 10.179873 0
-16.760252 46.99836 2.7870789
-3.535089 9.8752098 -0.58586878
-0 0 0
-16.799513 46.929146 2.7841761
-3.5470188 9.8709307 -0.58586878
-3.6487095 10.153924 0
-16.846539 46.881912 2.7825794
-3.5589433 9.8666372 -0.58586878
-3.6547937 10.132369 0
-16.897005 46.844418 2.7815638
-3.5708625 9.8623304 -0.58586878
-3.6652637 10.123055 0
-16.967749 46.86306 2.7838862
-3.5845535 9.8628969 -0.58615935
-3.6792688 10.123507 0
-17.031458 46.862049 2.7850466
-3.5964682 9.8585587 -0.58615935
-0 0 0
-17.116566 46.919552 2.7896912
-3.6048038 9.8444462 -0.5855788
-0 0 0
-17.194691 46.957394 2.7931745
-3.6157973 9.8376369 -0.58543324
-0 0 0
-17.270241 46.987801 2.7962222
-3.6276815 9.8332605 -0.58543324
-0 0 0
-0 0 0
-3.638659 9.826436 -0.58528823
-0 0 0
-0 0 0
-3.6523418 9.8269081 -0.5855788
-0 0 0
-0 0 0
-3.6642132 9.8224878 -0.5855788
-0 0 0
-0 0 0
-3.676079 9.8180532 -0.5855788
-0 0 0
-17.832594 47.627205 2.8406324
-3.6915958 9.8233337 -0.58615935
-0 0 0
-17.880074 47.578861 2.8390357
-3.701627 9.8139992 -0.58586878
-0 0 0
-17.949471 47.588829 2.8409224
-3.7134826 9.8095188 -0.58586878
-4.5468855 12.011032 0
-6.9717526 18.416552 1.0999197
-3.7271802 9.8098879 -0.58615935
-4.5576978 11.995798 0
-6.9893866 18.395971 1.099194
-3.7408807 9.8102283 -0.58644938
-4.5777507 12.004868 0
-7.0254941 18.423923 1.1013708
-3.7508759 9.8008518 -0.58615935
-4.5931821 12.001756 0
-18.263783 47.722351 2.8541298
-3.7636466 9.7987356 -0.58630437
-4.5908856 11.952472 0
-18.392237 47.88459 2.8651597
-3.7676976 9.791605 -0.58601379
-4.6046491 11.966701 0
-18.43889 47.919537 2.8679171
-3.7832704 9.7967415 -0.58659434
-4.6209788 11.965979 0
-18.479931 47.853596 2.8653047
-3.7969849 9.7970133 -0.58688492
-4.6344943 11.957962 0
-18.551825 47.867577 2.8674819
-3.8135288 9.8045244 -0.58761048
-4.6621456 11.986305 0
-18.619066 47.869339 2.8689332
-3.8253729 9.7999096 -0.58761048
-4.6586475 11.934608 0
-18.706182 47.921837 2.8734319
-3.8324733 9.783185 -0.58688492
-4.6816072 11.950777 0
-18.792509 47.971786 2.8777864
-3.8490443 9.7906361 -0.58761048
-4.6798577 11.903938 0
-18.892286 48.055439 2.884172
-3.8599188 9.7835636 -0.58746547
-4.7171607 11.956377 0
-18.981808 48.112339 2.8889616
-3.8726931 9.7813063 -0.58761048
-4.7038221 11.880498 0
-19.067667 48.159431 2.8931704
-3.8864262 9.7814445 -0.58790046
-4.7258615 11.894155 0
-19.158464 48.218456 2.8981049
-3.9040184 9.7912283 -0.58877158
-4.7074594 11.806248 0
-19.232107 48.233879 2.9004266
-3.9274302 9.8154535 -0.59051329
-4.7381563 11.841625 0
-19.318369 48.280567 2.9046354
-3.9363816 9.8034649 -0.5900777
-4.7369456 11.79725 0
-19.403801 48.324707 2.9086993
-3.953079 9.81075 -0.59080327
-4.7443871 11.774618 0
-19.493252 48.378342 2.9133432
-3.9629843 9.8011522 -0.59051329
-4.7605643 11.773706 0
-19.572147 48.405338 2.9163911
-3.9758003 9.7987623 -0.59065825
-4.7650003 11.743826 0
-0 0 0
-3.9846966 9.7867289 -0.59022272
-4.7664299 11.706727 0
-17.367895 42.656918 2.5725737
-4.0024176 9.7963448 -0.59109384
-4.7638392 11.660006 0
-17.433182 42.669571 2.5746052
-4.0142517 9.791501 -0.59109384
-4.7976689 11.7024 0
-17.455158 42.576355 2.5702515
-4.0310221 9.7986565 -0.59181941
-4.8048739 11.679746 0
-17.518454 42.584068 2.5719931
-4.0448399 9.7985783 -0.59210938
-4.8229551 11.683554 0
-17.545109 42.502827 2.5683646
-4.0656247 9.8152866 -0.5934155
-4.8061976 11.603188 0
-17.623302 42.546413 2.5722835
-4.0665145 9.7839804 -0.59181941
-4.8182149 11.592561 0
-17.656746 42.481895 2.5696709
-4.0804148 9.8007126 -0.5929805
-4.826221 11.592057 0
-17.704382 42.523998 2.5728643
-4.0942554 9.8005657 -0.59327048
-4.8271837 11.555002 0
-17.75074 42.490582 2.5721381
-4.1138978 9.7810621 -0.59268993
-4.8692174 11.576883 0
-0 0 0
-4.130764 9.7880516 -0.5934155
-4.201221 9.9550028 0
-0 0 0
-4.1415758 9.7806625 -0.59327048
-4.2051325 9.9307566 0
-0 0 0
-4.1584702 9.7876062 -0.59399605
-4.2334075 9.9639835 0
-7.9706273 18.760113 1.1385248
-4.1692753 9.7801867 -0.59385103
-4.2454438 9.9588614 0
-7.9831018 18.72657 1.1370736
-4.1821108 9.7775288 -0.59399605
-4.2585006 9.9561234 0
-7.9842649 18.66674 1.1340259
-4.1990485 9.7844143 -0.59472215
-4.2653928 9.9390059 0
-7.9955406 18.630812 1.1324292
-4.2160053 9.7912645 -0.59544772
-4.2876935 9.9577532 0
-8.0057154 18.592497 1.1306875
-4.22577 9.7813873 -0.59515715
-4.2945628 9.9406214 0
-8.0240526 18.573269 1.1301069
-4.2427521 9.7881927 -0.59588271
-4.306571 9.9354248 0
-8.0340881 18.53495 1.1283653
-4.2514701 9.7759171 -0.59544772
-4.3071547 9.9039593 0
-8.0471525 18.503786 1.1270592
-4.2705507 9.7874374 -0.59646326
-4.8498945 11.115204 0
-8.0798979 18.51787 1.1285108
-4.2865419 9.7917919 -0.59704387
-4.8247066 11.021127 0
-8.0991402 18.50095 1.1280754
-4.299418 9.788991 -0.59718943
-4.8338337 11.005758 0
-8.1193972 18.486387 1.1277847
-4.3080988 9.7766533 -0.59675384
-4.8292894 10.959426 0
-7.8515067 17.817944 1.0875834
-4.3230615 9.7785721 -0.59718943
-4.8267426 10.917876 0
-7.8688278 17.798937 1.0870029
-4.3411932 9.7875891 -0.59805995
-4.8219938 10.871595 0
-7.8819003 17.770414 1.0858418
-4.3540716 9.784708 -0.59820497
-4.8192592 10.830102 0
-7.8748469 17.696785 1.0819235
-4.3701286 9.7889309 -0.59878552
-4.8270378 10.812391 0
-7.9163475 17.732332 1.0846807
-4.3739223 9.7815495 -0.59849554
-4.7995739 10.733447 0
-7.9355445 17.746523 1.0858418
-4.3910551 9.7881088 -0.59922105
-4.8253222 10.756134 0
-7.9591112 17.741669 1.0861324
-4.4028788 9.7827959 -0.59922105
-4.8020024 10.669611 0
-7.9837389 17.73914 1.0865674
-4.4168329 9.7822008 -0.59951109
-0 0 0
-8.0040989 17.727114 1.0864223
-4.4275784 9.7744923 -0.59936607
-0 0 0
-8.0373077 17.743469 1.088019
-4.4447598 9.780961 -0.60009164
-0 0 0
-8.0737896 17.766859 1.0900507
-4.4619675 9.7874117 -0.60081774
-0 0 0
-8.0812397 17.726357 1.0881641
-4.4737902 9.7820129 -0.60081774
-0 0 0
-8.1253471 17.766199 1.0912118
-4.4856067 9.7765999 -0.60081774
-0 0 0
-8.1684799 17.803604 1.0941147
-4.4995875 9.7758894 -0.60110778
-4.6222296 10.042344 0
-8.1878119 17.788996 1.093824
-4.5113964 9.7704458 -0.60110778
-4.6179986 10.001317 0
-8.1591949 17.670574 1.087148
-4.5253811 9.7696981 -0.60139775
-4.6650791 10.071287 0
-8.1805401 17.660704 1.087148
-4.5349946 9.7595148 -0.60110778
-4.6706667 10.051487 0
-8.2182999 17.686155 1.0893252
-4.5489774 9.7587337 -0.60139775
-4.6773119 10.034044 0
-8.2912588 17.786896 1.0961463
-4.5618691 9.7555904 -0.60154331
-4.7092733 10.070816 0
-8.3160477 17.78393 1.0965818
-4.576961 9.757122 -0.6019783
-4.7103844 10.041552 0
-8.334219 17.766808 1.0961463
-4.5953875 9.7656956 -0.60284942
-4.7380295 10.068825 0
-8.2948332 17.627419 1.0881641
-4.6060762 9.7577887 -0.60270441
-4.7468581 10.05603 0
-8.2917261 17.565691 1.0849712
-4.6211958 9.7592545 -0.6031394
-4.760118 10.052637 0
-8.2929258 17.513382 1.0823585
-4.6363306 9.7607069 -0.60357499
-4.7789631 10.060987 0
-8.2962475 17.465805 1.0800368
-4.6492376 9.7574415 -0.60372001
-0 0 0
-8.3072872 17.434658 1.0787307
-4.666626 9.7635365 -0.60444552
-4.8268299 10.098716 0
-8.3216219 17.410536 1.0778595
-4.6770115 9.7700901 -0.60502613
-4.8306808 10.091099 0
-8.3332596 17.407846 1.0780046
-4.6955643 9.778491 -0.60589719
-4.833858 10.066486 0
-8.3599148 17.409485 1.0787307
-4.7073765 9.77281 -0.60589719
-6.8449268 14.2105 0
-8.3572655 17.35021 1.0756829
-4.7248325 9.7788105 -0.60662276
-6.8462434 14.169416 0
-8.3838758 17.351795 1.0764084
-4.7377772 9.7754307 -0.60676777
-6.8713017 14.177521 0
-8.4127655 17.358015 1.077424
-4.7643538 9.8000765 -0.60865444
-6.8975306 14.187932 0
-8.4553204 17.392241 1.0801818
-4.771636 9.7849703 -0.60807389
-6.9123893 14.174913 0
-8.48316 17.396019 1.0810523
-4.7948756 9.8025436 -0.60952556
-6.931797 14.171222 0
-8.5327168 17.444109 1.0846807
-4.8055687 9.794404 -0.60938001
-6.9535003 14.172182 0
