# .PCD v0.7 - Point Cloud Data file format
VERSION 0.7
FIELDS x y z
SIZE 4 4 4
TYPE F F F
COUNT 1 1 1
WIDTH 1737
HEIGHT 1
VIEWPOINT 0 0 0 1 0 0 0
POINTS 1737
DATA ascii
-48.638935 62.548733 0
-18.557493 23.86458 1.6885747
-2.4433069 3.134223 -0.88037127
-2.465817 3.1630986 -0.66863537
-0 0 -0
-48.719273 62.496067 0
-18.602295 23.862637 1.6900264
-2.445529 3.1292684 -0.8798089
-2.4680519 3.1580882 -0.66820616
-0 0 -0
-48.801163 62.445358 0
-18.627911 23.836042 1.6897358
-2.4414747 3.1163123 -0.87699503
-2.4623702 3.1429832 -0.66563916
-0 0 -0
-0 0 0
-18.647087 23.801249 1.6888652
-2.4499424 3.119349 -0.87868208
-2.4614077 3.1339471 -0.66435486
-0 0 -0
-16.159323 20.574594 0
-18.680649 23.784832 1.6893008
-2.455286 3.1183887 -0.87924659
-2.466779 3.1329856 -0.6647824
-0 0 -0
-16.151972 20.51416 0
-18.686867 23.733656 1.6872686
-2.4543278 3.1094344 -0.8775574
-2.459434 3.1159036 -0.66178787
-0 0 -0
-16.171915 20.488504 0
-18.684948 23.672314 1.6845113
-2.4691215 3.1204162 -0.8814981
-2.4584169 3.1068883 -0.66050357
-0 0 -0
-16.178894 20.446499 0
-18.655491 23.576361 1.6792864
-2.4760451 3.121408 -0.88262278
-2.4557879 3.095871 -0.65879172
-2.5575981 3.2242172 -0.45871228
-0 0 -0
-16.198734 20.420816 0
-18.654902 23.517164 1.6766741
-2.5051186 3.1502337 -0.89162898
-2.4563344 3.0888867 -0.65793657
-2.6049535 3.2757778 -0.46649534
-0 0 -0
-16.212063 20.386974 0
-18.663897 23.4702 1.6749324
-2.4962521 3.13131 -0.88712591
-2.4440598 3.0658398 -0.65365607
-2.6524432 3.3272367 -0.47427952
-0 0 -0
-16.233438 20.363297 0
-18.672804 23.42325 1.6731907
-2.4968584 3.1243176 -0.88599902
-2.4413521 3.054863 -0.65194422
-2.7388086 3.4270701 -0.4889816
-0 0 -0
-16.249908 20.333504 0
-18.694605 23.39255 1.6726102
-2.4720385 3.0856085 -0.8758682
-2.4418347 3.0479078 -0.65108913
-2.7946911 3.4883447 -0.49820584
-0 0 -0
-16.280975 20.32198 0
-18.71961 23.365892 1.6723201
-2.4471288 3.0469637 -0.86573732
-2.4455156 3.044955 -0.65108913
-2.797286 3.4829507 -0.49791783
-0 0 -0
-16.28759 20.27997 0
-18.747829 23.343256 1.6723201
-2.4250836 3.0157809 -0.85729355
-2.4409201 3.035475 -0.64937723
-2.7912872 3.4711838 -0.49647665
-0 0 -0
-16.187317 20.130196 0
-18.750528 23.317749 1.6713041
-2.4239464 3.0069199 -0.8556065
-2.4461956 3.0345201 -0.64980477
-2.6234221 3.2543705 -0.46591932
-0 0 -0
-16.154467 20.039711 0
-18.77869 23.295076 1.6713041
-2.4100087 2.9822478 -0.84941423
-2.4401824 3.0195863 -0.64723784
-2.5298166 3.1305032 -0.44862288
-16.170492 20.010059 0
-18.793758 23.256201 1.6701429
-2.4104147 2.9753888 -0.84828955
-2.4405944 3.0126424 -0.64638108
-2.5335972 3.1274443 -0.44862288
-16.189743 19.984436 0
-9.4532518 11.668988 0.83882755
-2.4159892 2.9675791 -0.84772503
-2.4397657 2.9967837 -0.64424163
-2.5264461 3.1032543 -0.44602743
-16.229776 19.935165 0
-9.4748611 11.638049 0.83824694
-2.4308207 2.9784391 -0.85166579
-2.4401417 2.9898598 -0.64338654
-2.5138431 3.0801649 -0.44314504
-16.260433 19.923605 0
-8.7643995 10.738854 0.77424341
-2.4231536 2.9617319 -0.84772503
-2.4453766 2.9888942 -0.64381409
-2.5765247 3.1491919 -0.45352358
-16.282843 19.901922 0
-8.8004074 10.756415 0.77627563
-2.4267304 2.9588017 -0.84772503
-2.4424746 2.9779978 -0.64210218
-2.5196407 3.072083 -0.44285703
-23.035219 28.085791 0
-8.8232822 10.757825 0.77714616
-2.4270794 2.9519458 -0.84660035
-2.4460711 2.9750443 -0.64210218
-2.5233507 3.0690362 -0.44285703
-23.0774 28.067987 0
-8.826376 10.735117 0.77627563
-0 0 -0
-2.437109 2.9568539 -0.84885186
-2.4431331 2.9641628 -0.64039034
-2.4974492 3.0300624 -0.43766832
-23.079847 28.001923 0
-8.8195086 10.700382 0.77453393
-0 0 -0
-2.4342062 2.9460719 -0.84660035
-2.438539 2.9513159 -0.63825089
-2.5044005 3.0310266 -0.43824434
-23.097092 27.953957 0
-9.5805006 11.595092 0.84013367
-0 0 -0
-2.4329002 2.9372561 -0.84491116
-2.4502892 2.95825 -0.64039034
-2.4915652 3.0080829 -0.43536198
-23.105955 27.895969 0
-9.5911856 11.5795 0.83984309
-0 0 -0
-2.4445617 2.9440868 -0.84772503
-2.453862 2.9552872 -0.64039034
-2.495198 3.0050702 -0.43536198
-23.091433 27.809967 0
-9.5935555 11.553915 0.83882755
-0 0 -0
-2.4464934 2.9391799 -0.84716266
-2.4689286 2.9661331 -0.64338654
-2.5054462 3.0100048 -0.43651515
-0 0 -0
-23.1117 27.766043 0
-9.6224689 11.560287 0.84013367
-0 0 -0
-2.4484167 2.9342725 -0.84660035
-2.4889543 2.9828541 -0.64766538
-2.4825678 2.9752004 -0.43190247
-23.160236 27.756079 0
-9.6314335 11.542665 0.83969808
-2.447068 2.9254632 -0.84491116
-2.5040874 2.9936297 -0.65066153
-2.4927988 2.9801342 -0.43305564
-0 0 -0
-23.170383 27.70013 0
-9.6320362 11.515073 0.83853698
-2.4538696 2.9264019 -0.84603798
-2.5291438 3.0161715 -0.65622473
-2.4980583 2.9791 -0.43334365
-0 0 -0
-23.205507 27.674107 0
-9.5975266 11.445686 0.83432806
-2.4426906 2.9059315 -0.8409726
-2.5493011 3.0327599 -0.66050357
-2.5083132 2.983999 -0.43449682
-0 0 -0
-23.205439 27.606203 0
-9.5728989 11.388339 0.83099025
-2.4591694 2.9219496 -0.84603798
-2.5627053 3.0449696 -0.66349977
-2.5067878 2.978529 -0.4339208
-0 0 -0
-23.185247 27.548376 0
-9.5663919 11.366649 0.82982916
-2.4626982 2.9189761 -0.84603798
-2.5680366 3.0438309 -0.66392732
-2.507046 2.9715402 -0.43334365
-0 0 -0
-23.188313 27.484541 0
-9.5616865 11.333233 0.82823247
-2.4645779 2.9140525 -0.84547347
-2.5717125 3.0407257 -0.66392732
-2.5006163 2.9566634 -0.43161446
-23.268557 27.512135 0
-9.5149717 11.250255 0.823008
-2.4648139 2.9072001 -0.84434879
-2.5820251 3.0454483 -0.66563916
-2.4991674 2.9477193 -0.4307493
-23.385929 27.583248 0
-9.2664318 10.929576 0.80036736
-2.466681 2.9022853 -0.84378648
-2.5940137 3.0521045 -0.66777861
-2.5027275 2.9446974 -0.4307493
-23.399017 27.531174 0
-9.21737 10.845115 0.79499733
-2.4734786 2.9031672 -0.84491116
-2.5960364 3.0470159 -0.66735107
-2.4995739 2.9337959 -0.42959613
-23.327631 27.38007 0
-9.2203598 10.822105 0.79412681
-2.4687355 2.8905177 -0.84209728
-2.5980508 3.0419266 -0.66692346
-0 0 -0
-23.30154 27.282598 0
-9.2351151 10.812931 0.79427183
-2.4656162 2.8798122 -0.83984572
-2.6050603 3.0426815 -0.66777861
-0 0 -0
-23.276945 27.187212 0
-9.2498627 10.803736 0.79441679
-2.4806795 2.8903296 -0.84378648
-2.6070647 3.0375855 -0.66735107
-0 0 -0
-23.282658 27.127468 0
-9.2662973 10.796499 0.79470736
-2.4924545 2.8969588 -0.84660035
-2.6191027 3.0441611 -0.66949046
-0 0 -0
-23.305239 27.087482 0
-9.2810297 10.787262 0.79485238
-2.4959531 2.893945 -0.84660035
-2.6227791 3.0409942 -0.66949046
-0 0 -0
-23.302259 27.01792 0
-9.2906599 10.772101 0.7945618
-2.5027685 2.8947675 -0.84772503
-2.6264515 3.0378227 -0.66949046
-0 0 -0
-23.419991 27.088175 0
-9.2849798 10.739251 0.79296571
-2.5046017 2.8898232 -0.84716266
-2.6452503 3.052104 -0.67334175
-0 0 -0
-23.350441 26.941864 0
-9.2826338 10.710354 0.79165959
-2.5064268 2.8848784 -0.84660035
-2.6455722 3.0450335 -0.67248666
-0 0 -0
-23.452951 26.994169 0
-9.2921572 10.695203 0.79136902
-2.5015686 2.8722692 -0.84378648
-2.6576777 3.0515118 -0.67462605
-0 0 -0
-23.477007 26.956001 0
-9.3272572 10.709438 0.79325569
-2.5067067 2.8711567 -0.84434879
-2.6579831 3.0444272 -0.6737693
-0 0 -0
-23.518116 26.937414 0
-9.3692408 10.731434 0.7957229
-2.5118461 2.8700359 -0.84491116
-2.6599708 3.0392833 -0.67334175
-0 0 -0
-23.531799 26.887442 0
-9.4061623 10.747484 0.79775512
-2.5102897 2.8612742 -0.84322411
-2.6687217 3.041858 -0.67462605
-0 0 -0
-23.535095 26.825731 0
-9.4191418 10.736111 0.79775512
-2.5053105 2.8521211 -0.8409726
-2.6705589 3.0402451 -0.67462605
-0 0 -0
-23.513515 26.768496 0
-9.4153337 10.718701 0.79688406
-2.5053933 2.8452742 -0.83984572
-2.6810164 3.0447226 -0.67633796
-0 0 -0
-23.504564 26.693188 0
-9.4128256 10.689767 0.79557794
-2.5021036 2.8346252 -0.83759421
-2.671103 3.0260842 -0.67291421
-0 0 -0
-23.576408 26.709639 0
-9.4102612 10.660854 0.79427183
-2.5021625 2.8277977 -0.83646947
-2.6815619 3.0305445 -0.67462605
-0 0 -0
-34.526543 39.019878 0
-10.328814 11.67302 0.87061095
-2.5005176 2.8190677 -0.83478028
-2.6869237 3.0292208 -0.67505366
-0 0 -0
-34.590931 38.997597 0
-10.348084 11.666366 0.87104654
-2.4988554 2.8103459 -0.83309108
-2.6939969 3.0298126 -0.67591041
-0 0 -0
-34.643215 38.961609 0
-10.362174 11.653853 0.87104654
-2.5039382 2.8092196 -0.83365345
-2.6993623 3.0284696 -0.67633796
-0 0 -0
-27.997776 31.411278 0
-10.364143 11.627744 0.8700304
-2.5124114 2.811878 -0.83534265
-2.7081523 3.0309503 -0.67762226
-0 0 -0
-27.997559 31.334724 0
-10.350492 11.584217 0.86770874
-2.5141134 2.8069494 -0.83478028
-2.7066729 3.0219374 -0.67633796
-0 0 -0
-27.962484 31.219463 0
-10.333272 11.536859 0.86509597
-2.558244 2.8492851 -0.84828955
-2.7103224 3.0186648 -0.67633796
-0 0 -0
-23.76149 26.464739 0
-10.359358 11.5379 0.86611205
-2.6381683 2.9311697 -0.87361664
-2.71053 3.0115678 -0.6754812
-0 0 -0
-23.617617 26.240644 0
-10.388935 11.542755 0.86741817
-2.6672413 2.9562798 -0.88206047
-2.7296419 3.0254426 -0.67933249
-0 0 -0
-23.651047 26.21402 0
-10.369807 11.493543 0.86466098
-2.6111634 2.8871033 -0.86236113
-2.7264144 3.0145338 -0.67762226
-0 0 -0
-23.682705 26.185423 0
-10.348828 11.442461 0.86175817
-2.542974 2.8048878 -0.83872104
-2.7283256 3.00933 -0.67719305
-0 0 -0
-23.758026 26.204987 0
-0 0 0
-2.5190184 2.7717273 -0.82971489
-2.7336915 3.0079362 -0.67762226
-0 0 -0
-23.819426 26.209 0
-10.346742 11.38473 0.85929096
-2.515521 2.7611685 -0.82746333
-2.7304087 2.9970405 -0.67591041
-0 0 -0
-23.873861 26.205208 0
-10.358742 11.370301 0.85914594
-2.5188556 2.758127 -0.82746333
-2.7132547 2.9709926 -0.67077476
-0 0 -0
-26.055273 28.530319 0
-10.372474 11.357777 0.85914594
-2.5170374 2.7494571 -0.82577413
-2.6977735 2.946882 -0.66606671
-0 0 -0
-24.371159 26.621555 0
-10.393208 11.352901 0.85972649
-2.5169828 2.7460647 -0.82521182
-2.6718006 2.914973 -0.65921926
-0 0 -0
-24.394272 26.614502 0
-9.1500359 9.9828205 0.75639218
-2.5202992 2.7430212 -0.82521182
-2.631902 2.8644865 -0.64852047
-0 0 -0
-24.433455 26.592672 0
-9.1550589 9.9641037 0.75581163
-2.5201657 2.7362325 -0.82408494
-2.5675409 2.7876694 -0.63183099
-0 0 -0
-24.447935 26.543983 0
-9.1512499 9.9358339 0.75450552
-2.5234699 2.7331853 -0.82408494
-2.5238948 2.7336454 -0.62027711
-0 0 -0
-24.435856 26.466621 0
-9.163249 9.9247694 0.75450552
-2.53195 2.7357304 -0.82577413
-0 0 -0
-0 0 -0
-24.450144 26.41798 0
-9.2122974 9.9537363 0.75755334
-2.5231616 2.7196355 -0.82183558
-2.4851024 2.6786127 -0.60915077
-0 0 -0
-26.439613 28.498415 0
-9.2578983 9.9787922 0.76031113
-2.5264461 2.7165847 -0.82183558
-0 0 -0
-0 0 -0
-26.46871 28.460728 0
-9.2805624 9.9790115 0.76118165
-2.5418501 2.7265344 -0.82577413
-2.4653094 2.6444323 -0.60273087
-0 0 -0
-26.527922 28.455372 0
-9.2961607 9.9715958 0.76147223
-2.5156515 2.6919036 -0.81620562
-2.4650009 2.6377041 -0.60187572
-0 0 -0
-26.604931 28.468931 0
-10.489741 11.224675 0.8581298
-2.5136893 2.6832972 -0.81451643
-2.4646728 2.6309733 -0.60101897
-0 0 -0
-26.671333 28.470947 0
-10.506852 11.215789 0.85842037
-2.5064967 2.669148 -0.81114024
-2.4660943 2.6261237 -0.60059142
-0 0 -0
-26.69503 28.42732 0
-10.522174 11.204977 0.85856539
-2.4830451 2.63778 -0.99947095
-2.5114601 2.6679657 -0.81170255
-2.4710236 2.6250093 -0.60101897
-0 0 -0
-26.711517 28.376089 0
-10.535706 11.192255 0.85856539
-2.4862304 2.6347778 -0.99947095
-2.518173 2.6686287 -0.81282943
-2.4741936 2.6220217 -0.60101897
-0 0 -0
-26.701134 28.296474 0
-10.554566 11.185181 0.85900038
-2.5106282 2.6477852 -0.80832636
-2.4752221 2.6104448 -0.59973466
-0 0 -0
-8.0608492 8.5012178 -0.65437126
-26.744371 28.205431 0
-9.3050804 9.8134212 0.75537664
-2.4905782 2.6202912 -0.99739379
-2.5155745 2.6465895 -0.80888867
-2.473074 2.6018753 -0.59845203
-0 0 -0
-7.3550811 7.7381449 -0.5963183
-26.790985 28.1863 0
-9.3187199 9.8040524 0.75552166
-2.4972069 2.6209161 -0.99877948
-2.5152686 2.6398723 -0.80776399
-2.472671 2.5951645 -0.59759527
-0 0 -0
-7.3805561 7.7461815 -0.59762442
-24.688793 25.911852 0
-9.3287687 9.790906 0.75537664
-2.5166965 2.6349885 -0.80719948
-2.4722621 2.5884657 -0.59674013
-0 0 -0
-7.4096537 7.7579293 -0.59922105
-24.59786 25.754032 0
-9.3100834 9.7476845 0.75290942
-2.5052667 2.616684 -0.99947095
-2.5128496 2.6246042 -0.80494797
-2.4753881 2.5854766 -0.59674013
-0 0 -0
-7.4208179 7.7508454 -0.59936607
-24.519184 25.609631 0
-9.3146667 9.72892 0.75232887
-2.4981685 2.6061163 -0.99601084
-2.5074017 2.6157486 -0.80269641
-2.4716187 2.5784194 -0.59545583
-0 0 -0
-7.4201031 7.7407317 -0.59893054
-5.6205239 5.8633914 0
-9.3097506 9.7120323 0.75145775
-2.4978426 2.5994813 -0.99462783
-2.5070429 2.6090562 -0.80157173
-2.4693947 2.5698762 -0.59417152
-0 0 -0
-2.6694772 2.7781 -0.21520182
-5.6780868 5.9091325 0
-5.6830859 5.9143348 0.45814607
-2.5079367 2.6036818 -0.99739379
-2.5207665 2.6170015 -0.80494797
-2.4760635 2.5705919 -0.59502828
-0 0 -0
-2.672832 2.7748725 -0.21520182
-5.6870265 5.9041395 0
-5.688427 5.9055939 0.45800108
-2.5145695 2.6042626 -0.99877948
-2.5009844 2.590193 -0.79763097
-2.4738166 2.5620563 -0.59374398
-0 0 -0
-2.6689634 2.7641637 -0.21462126
-0 0 0
-5.7027783 5.9061933 0.45858163
-2.5159712 2.5994215 -0.99808794
-2.5023468 2.5853453 -0.79706866
-2.4733434 2.5553796 -0.59288883
-0 0 -0
-2.6849532 2.7740083 -0.21563739
-5.708518 5.8978591 0
-5.7117162 5.9011636 0.45872661
-2.5226009 2.5999773 -0.99947095
-2.500159 2.5768471 -0.79537946
-2.4764292 2.5523891 -0.59288883
-0 0 -0
-2.6810653 2.7633023 -0.21505682
-5.7192683 5.8946967 0
-5.7369399 5.9129105 0.46017829
-2.515249 2.5861399 -0.99531931
-2.5015011 2.5720046 -0.79481709
-2.4741402 2.5438726 -0.59160453
-0 0 -0
-2.6789656 2.7544708 -0.21462126
-5.7318316 5.8933802 0
-5.7495103 5.9115572 0.46061331
-2.527127 2.5920789 -0.99877948
-2.504607 2.56898 -0.79481709
-2.4772122 2.5408812 -0.59160453
-0 0 -0
-2.6695926 2.7382061 -0.21360515
-5.7607427 5.9088044 0
-5.7530246 5.900888 0.4603233
-2.5179811 2.5764623 -0.99393368
-2.4952829 2.5532367 -0.79087853
-2.478488 2.536052 -0.59117699
-0 0 -0
-0 0 -0
-5.7551503 5.8888159 0
-5.7728586 5.9069357 0.46133885
-2.526361 2.5787959 -0.99601084
-2.5054717 2.5574729 -0.79312789
-2.4815507 2.5330553 -0.59117699
-0 0 -0
-0 0 -0
-5.7567959 5.8762789 0
-5.7799916 5.8999557 0.46133885
-2.5154126 2.5614216 -0.99047351
-2.496103 2.5417588 -0.78918934
-2.4774148 2.5227287 -0.58946508
-0 0 -0
-2.6667616 2.7155387 -0.21258959
-0 0 0
-5.7925801 5.8985314 0.46177441
-2.5079491 2.5476568 -0.98632187
-2.5063024 2.5459838 -0.7914409
-2.478662 2.517906 -0.58903754
-2.5260477 2.5660415 -0.40134513
-2.6554577 2.6975005 -0.21142848
-5.7417684 5.8326755 0
-5.8142862 5.9063416 0.46293554
-2.5092585 2.5428336 -0.98562771
-2.5182989 2.5519948 -0.79425478
-2.4780929 2.511251 -0.58818078
-2.5236943 2.5574627 -0.40047997
-2.658715 2.6942899 -0.21142848
-5.7305355 5.8072128 0
-5.8159413 5.8937616 0.46249998
-2.5193863 2.5469341 -0.98839635
-2.5070853 2.5344987 -0.78975171
-2.4847395 2.5119085 -0.58903754
-2.5158725 2.5433819 -0.39875078
-2.6564848 2.6855316 -0.21099292
-5.730227 5.7928834 0
-5.830368 5.8941193 0.46308053
-2.5030363 2.5242972 -0.9807846
-2.5173023 2.5386846 -0.79200321
-2.4805429 2.5016129 -0.58732569
-0 0 -0
-2.6670463 2.6897004 -0.21157348
-5.7372227 5.785955 0
-5.8484669 5.8981442 0.46395165
-2.4990101 2.5141537 -0.97801596
-2.5132029 2.5284326 -0.78975171
-2.4853718 2.5004327 -0.58775324
-0 0 -0
-2.662967 2.6791041 -0.21099292
-5.7423768 5.7771745 0
-5.8555894 5.8910732 0.46395165
-2.5108981 2.5200164 -0.98147607
-2.5144646 2.5235958 -0.78918934
-2.4865811 2.4956112 -0.58732569
-0 0 -0
-2.6607053 2.6703677 -0.21055792
-5.7401705 5.7610159 0
-5.8700395 5.8913565 0.4645322
-2.4962158 2.4992337 -0.97455579
-2.5175118 2.5205557 -0.78918934
-2.4841506 2.4871542 -0.58604139
-0 0 -0
-2.6620884 2.665307 -0.21041237
-5.737926 5.7448635 0
-5.8844991 5.8916135 0.46511275
-2.5027804 2.499758 -0.9759388
-2.5133646 2.5103295 -0.78693777
-2.4889686 2.4859631 -0.58646894
-0 0 -0
-2.657953 2.6547434 -0.2098318
-5.733819 5.7268949 0
-5.8842597 5.8771539 0.4645322
-2.4847581 2.4787607 -0.96832699
-2.5040841 2.4980402 -0.78355938
-2.481385 2.4753957 -0.58432949
-0 0 -0
-2.6614013 2.6549776 -0.20997736
-5.729908 5.7160778 0
-5.9043636 5.8901124 0.46583831
-2.5001941 2.4881392 -0.97317016
-2.4908934 2.4788833 -0.778494
-2.486192 2.4742048 -0.58475703
-2.5266056 2.5144234 -0.3973096
-2.6553931 2.6425898 -0.20925124
-5.7257462 5.6981387 0
-5.904109 5.8756423 0.46525776
-2.4889555 2.4709761 -0.96763283
-2.4848726 2.4669225 -0.77568012
-2.4837127 2.4657712 -0.58347273
-2.5222998 2.5040793 -0.39615643
-2.6585841 2.6393795 -0.20925124
-5.7326269 5.6912165 0
-5.9019861 5.8593521 0.4645322
-2.5008502 2.4767921 -0.971093
-0 0 -0
-2.4866903 2.4627683 -0.58347273
-2.5253236 2.50103 -0.39615643
-2.6525419 2.6270244 -0.20852569
-5.7302485 5.6751232 0
-5.9201355 5.863184 0.46540275
-2.5074139 2.4772983 -0.97247863
-0 0 -0
-2.4914956 2.4615712 -0.58390194
-2.5228221 2.4925215 -0.39529127
-2.6520209 2.6201684 -0.2082357
-5.7315531 5.6627135 0
-5.9327631 5.8615065 0.46583831
-2.5104053 2.4742668 -0.97247863
-2.4937985 2.4578989 -0.77568012
-2.4853284 2.4495509 -0.58176249
-2.5221443 2.4858365 -0.39471415
-2.655185 2.6169622 -0.2082357
-5.7235627 5.6411691 0
-5.94169 5.8561559 0.46598333
-2.5008693 2.4589176 -0.96763283
-2.4985766 2.4566636 -0.77624243
-2.484622 2.4429429 -0.58090574
-2.5233035 2.4809756 -0.39442611
-2.6546359 2.6101048 -0.20794514
-5.7322288 5.6360717 0
-5.9821095 5.8817611 0.46859556
-2.5020492 2.454139 -0.96694136
-2.4870315 2.4394088 -0.77173936
-2.487572 2.439939 -0.58090574
-2.5226099 2.4743061 -0.39385009
-2.6540811 2.6032598 -0.20765513
-5.7241712 5.6145625 0
-5.9855056 5.870893 0.46830556
-2.5103939 2.4563794 -0.96901852
-2.4917986 2.4381843 -0.77230388
-2.4923513 2.438725 -0.58133334
-2.5274448 2.4730632 -0.3941381
-2.6535068 2.5964129 -0.20736457
-5.7272344 5.6040049 0
-6.0130196 5.8836412 0.46990165
-2.51336 2.4533443 -0.96901852
-2.4911029 2.4316185 -0.77117705
-2.4897907 2.4303377 -0.58005065
-2.5267258 2.4663908 -0.39356098
-2.6492043 2.5859447 -0.20678401
-5.720963 5.5843539 0
-6.0238466 5.8800049 0.47019222
-2.5127244 2.4468017 -0.96763283
-2.4940391 2.4286067 -0.77117705
-2.4890435 2.4237421 -0.57919389
-2.5204406 2.4543154 -0.39211977
-2.6523268 2.5827415 -0.20678401
-5.714653 5.5647259 0
-6.034667 5.8763442 0.47048223
-2.5120835 2.4402711 -0.96624988
-2.495151 2.4238226 -0.77061468
-2.4956565 2.4243135 -0.58005065
-2.5252647 2.4530756 -0.39240891
-2.6498594 2.5741086 -0.20634902
-5.7195077 5.5560055 0
-6.0492182 5.8762903 0.47106278
-2.4988174 2.4215226 -0.96002108
-2.494432 2.4172728 -0.76949
-2.485678 2.4087894 -0.57705444
-2.5356495 2.4572153 -0.39356098
-2.6510966 2.5690913 -0.20620346
-5.7168741 5.5400367 0
-6.0395217 5.8527036 0.46975666
-2.5053456 2.4219856 -0.96140409
-2.4955189 2.4124858 -0.76892549
-2.4959691 2.4129212 -0.57876635
-2.5311856 2.4469657 -0.39240891
-2.6560724 2.5676973 -0.20634902
-5.7198181 5.5295033 0
-6.0335102 5.8327579 0.46874055
-2.4920194 2.4032845 -0.95517528
-2.4984322 2.4094689 -0.76892549
-2.4933376 2.4045558 -0.57748204
-2.5304134 2.4403112 -0.39183176
-2.6516914 2.557271 -0.20576845
-5.7190022 5.5153618 0
-6.0629978 5.8471088 0.47048223
-2.4985409 2.4037538 -0.95656091
-2.4958537 2.4011683 -0.76723844
-2.4980896 2.4033194 -0.57790959
-2.53336 2.4372518 -0.39183176
-2.6472893 2.546859 -0.2051879
-5.7200413 5.5030398 0
-6.0700583 5.8397784 0.47048223
-2.4942036 2.3937843 -0.95379227
-2.5024161 2.4016664 -0.76836312
-2.5009916 2.4002991 -0.57790959
-2.5307031 2.4288144 -0.39096659
-2.6484919 2.5418608 -0.2050429
-5.7172999 5.4871159 0
-6.1277299 5.8810215 0.47440112
-0 0 -0
-2.4979749 2.3916121 -0.76611161
-2.4909158 2.3848536 -0.57491505
-2.5317695 2.4239678 -0.39067858
-2.6478038 2.5350614 -0.20475234
-5.7182846 5.4748025 0
-6.1535969 5.8915792 0.47585225
-2.5017934 2.3894808 -0.95448375
-2.4990273 2.3868387 -0.76554924
-2.4975047 2.3853848 -0.57577014
-2.5309594 2.4173374 -0.39010257
-2.6527424 2.5336533 -0.20489734
-5.7098398 5.4535089 0
-6.1607113 5.8841395 0.47585225
-2.5064936 2.3881853 -0.95517528
-2.5074298 2.3890774 -0.76723844
-2.4948151 2.377058 -0.57448751
-2.5338783 2.4142776 -0.39010257
-2.6463974 2.5214856 -0.20417178
-5.7201896 5.4501925 0
-6.1809874 5.8892403 0.47686836
-2.5006664 2.3797524 -0.95240664
-2.5015101 2.3805556 -0.76498693
-2.5055468 2.384397 -0.5766269
-2.5315857 2.4091766 -0.38952541
-2.6516886 2.5234723 -0.20446233
-5.7121735 5.4359746 0
-6.2033639 5.9034142 0.47831947
-2.4962623 2.3698201 -0.94963795
-2.5062258 2.3792789 -0.76554924
-2.5009792 2.3742981 -0.57491505
-2.53825 2.4096808 -0.39010257
-2.6490805 2.5148976 -0.20402679
-5.7074165 5.4183211 0
-6.2142649 5.8994961 0.47861004
-2.4991238 2.366802 -0.94963795
-2.5072558 2.3745034 -0.76498693
-2.5038462 2.3712742 -0.57491505
-2.5355241 2.4012749 -0.3892374
-2.6521173 2.5116949 -0.20402679
-5.7120643 5.409626 0
-6.2345901 5.9044852 0.47962558
-2.4983382 2.3603382 -0.948255
-2.4990377 2.3609991 -0.76160854
-2.502974 2.364718 -0.57405829
-2.5327816 2.392879 -0.38837224
-2.6513689 2.504916 -0.20373623
-5.7072496 5.3920002 0
-6.245501 5.9005198 0.47991616
-2.5103152 2.3659194 -0.95171511
-2.5074377 2.3632076 -0.76329774
-2.5077031 2.3634577 -0.57448751
-2.5432 2.3969128 -0.38952541
-2.6506155 2.4981496 -0.20344622
-5.7005019 5.3726034 0
-6.2507296 5.8911819 0.4797706
-2.5095129 2.3594441 -0.95032948
-2.5047359 2.3549531 -0.76160854
-2.5049443 2.3551488 -0.57320315
-2.5272541 2.3761244 -0.38664305
-2.6498423 2.4913819 -0.20315567
-5.7145734 5.3728423 0
-6.2540607 5.8800683 0.47948059
-2.5050426 2.3495452 -0.94756085
-2.5131414 2.3571413 -0.76329774
-2.5059178 2.3503659 -0.5727756
-2.5301232 2.373069 -0.38664305
-2.6528506 2.4881783 -0.20315567
-6.2297616 5.8430567 0
-6.2611613 5.8725071 0.47948059
-2.5023892 2.3413794 -0.94548631
-2.5104196 2.3488932 -0.76160854
-2.5031307 2.342073 -0.5714913
-2.5292079 2.3664725 -0.3860659
-2.6482728 2.4778764 -0.20257567
-6.2178102 5.8177409 0
-6.2891254 5.8844681 0.48107725
-2.501545 2.3349271 -0.94410068
-2.5151117 2.3475902 -0.76217085
-2.5059588 2.3390467 -0.5714913
-2.5282874 2.3598883 -0.38548988
-2.6531627 2.4764459 -0.20272067
-6.2742968 5.856391 0
-6.305727 5.8857279 0.48180282
-2.5098743 2.3370333 -0.94617784
-2.5179465 2.3445494 -0.76217085
-2.5087831 2.3360171 -0.5714913
-2.5349193 2.3603535 -0.3860659
-2.6504462 2.4679244 -0.20228511
-6.3042245 5.8700871 0
-6.3299479 5.8940392 0.48310894
-2.5035076 2.3254635 -0.94271767
-2.5133381 2.334595 -0.75992149
-2.5097249 2.3312385 -0.57106376
-2.5301893 2.3502476 -0.38491276
-2.6324821 2.4452655 -0.20068844
-5.6420608 5.2408094 0
-6.3465824 5.895227 0.48383451
-2.5044773 2.3207333 -0.9420262
-2.5180192 2.3332815 -0.76048386
-2.4993575 2.315989 -0.56806755
-2.5425186 2.3559837 -0.38635504
-2.6849937 2.4880059 -0.20446233
-5.6617537 5.2463722 0
-6.3708529 5.9034476 0.48514062
-2.5054319 2.3159976 -0.94133204
-2.5189726 2.3285143 -0.75992149
-2.5153513 2.3251667 -0.57106376
-2.5358615 2.3441262 -0.38491276
-0 0 -0
-5.6910214 5.260726 0
-5.6682048 5.2396345 0.43115151
-2.502701 2.3078713 -0.93925756
-2.5143125 2.318579 -0.75766993
-2.5030615 2.3082037 -0.56764001
-2.5367925 2.3393087 -0.38462472
-0 0 -0
-5.6935439 5.2503138 0
-5.6898136 5.2468739 0.43231264
-2.5128732 2.3116395 -0.9420262
-2.5189805 2.3172576 -0.7582323
-2.5134058 2.3121295 -0.56935185
-2.5358138 2.3327429 -0.3840487
-2.6461878 2.434278 -0.20083399
-5.6960568 5.2399101 0
-5.6961493 5.239995 0.43231264
-2.5119641 2.3052058 -0.94064051
-2.5142903 2.3073404 -0.75598073
-2.5199769 2.3125589 -0.570207
-2.5348155 2.3261762 -0.38347155
-2.6338112 2.4170237 -0.19967288
-5.6985455 5.2295008 0
-5.6967311 5.2278361 0.43187708
-2.5184522 2.3055601 -0.9420262
-2.5208211 2.3077288 -0.75710547
-2.5114121 2.2991152 -0.56764001
-2.5376244 2.3231118 -0.38347155
-2.646311 2.4226108 -0.20039843
-5.693346 5.2120709 0
-5.6972995 5.2156901 0.43144208
-2.5119684 2.2940516 -0.93856341
-2.5179844 2.2995458 -0.75541842
-2.516082 2.2978084 -0.56806755
-2.5385215 2.3183012 -0.38318354
-2.6358035 2.4071438 -0.19938232
-5.6612053 5.1700878 0
-5.6594653 5.1684985 0.42810372
-2.5147383 2.2910147 -0.93856341
-2.5188775 2.2947855 -0.7548539
-2.5112662 2.2878513 -0.56635571
-2.5527892 2.3256803 -0.38491276
-2.6694436 2.4319563 -0.20170455
-6.4581003 5.8835554 0
-6.4801044 5.9036016 0.48964009
-2.5058887 2.2746546 -0.93372023
-2.5230327 2.2902164 -0.7548539
-2.5116107 2.2798486 -0.56550056
-0 0 -0
-2.6199749 2.3782132 -0.19764064
-6.4726114 5.8753424 0
-6.4984822 5.8988261 0.49022007
-2.5160739 2.2783608 -0.93648887
-2.5220346 2.2837584 -0.75372922
-2.5162647 2.2785335 -0.56592816
-0 0 -0
-2.6555886 2.4046943 -0.20010787
-6.4989934 5.8849826 0
-6.5094609 5.8944612 0.49051064
-2.5188251 2.2753189 -0.93648887
-2.5229087 2.2790077 -0.75316685
-2.5113964 2.2686083 -0.56421626
-0 0 -0
-2.6122224 2.3596871 -0.19662508
-6.5138245 5.8841038 0
-6.5262179 5.895299 0.49123618
-2.5103867 2.2621939 -0.9323346
-2.5275462 2.2776568 -0.75372922
-2.5160408 2.2672889 -0.5646438
-0 0 -0
-2.5957646 2.3391309 -0.19517341
-6.5151277 5.8710003 0
-6.5429859 5.8961048 0.49196175
-2.5205812 2.2658677 -0.93510324
-2.5246258 2.2695036 -0.75204003
-2.5149641 2.2608182 -0.56378871
-0 0 -0
-2.5831373 2.3221021 -0.19401285
-6.5435085 5.8822637 0
-6.5559049 5.8934078 0.49239731
-2.5083752 2.2494209 -0.92956597
-2.5330431 2.2715421 -0.75372922
-2.5138681 2.2543466 -0.56293195
-0 0 -0
-2.576263 2.3103001 -0.19328675
-6.5544901 5.8778315 0
-6.5707593 5.8924212 0.49297786
-2.5297928 2.2631185 -0.93648887
-2.5225282 2.2566195 -0.74978846
-2.5165901 2.2513075 -0.56293195
-0 0 -0
-2.5287044 2.2621446 -0.1895134
-6.5635252 5.8716407 0
-6.5933671 5.8983369 0.49413899
-2.5119338 2.2416837 -0.92887443
-2.5290482 2.2569568 -0.75091535
-2.5212221 2.2499726 -0.5633595
-0 0 -0
-2.5760279 2.2988822 -0.19285174
-6.5764346 5.8688993 0
-6.6082439 5.8972864 0.49471954
-2.5165126 2.2403135 -0.92956597
-2.5317733 2.2538993 -0.75091535
-2.5181923 2.2418087 -0.56207687
-0 0 -0
-2.5593922 2.2784867 -0.19140007
-6.6107388 5.8851786 0
-6.6250672 5.8979344 0.4954451
-2.5117145 2.2306075 -0.92679727
-2.5287936 2.2457752 -0.74922615
-2.5151391 2.233649 -0.56079251
-0 0 -0
-2.5349467 2.2512398 -0.1893684
-6.6217327 5.8806396 0
-6.63413 5.8916492 0.49559009
-2.5181673 2.2309015 -0.92818296
-2.5219977 2.2342949 -0.74641228
-2.5178361 2.2306082 -0.56079251
-0 0 -0
-2.5396082 2.2498965 -0.1895134
-6.6366258 5.8795371 0
-6.6548605 5.8956919 0.4966062
-2.5095782 2.217886 -0.92402864
-2.5304091 2.2362955 -0.74810147
-2.5205295 2.2275643 -0.56079251
-0 0 -0
-2.51507 2.2227392 -0.18748172
-6.6437249 5.8715138 0
-6.6697679 5.8945293 0.49718678
-2.5160236 2.2181733 -0.92541432
-2.531198 2.2315512 -0.74753696
-2.5232193 2.2245171 -0.56079251
-0 0 -0
-2.5372415 2.2368791 -0.18893284
-6.6527653 5.8652015 0
-6.6885762 5.8967733 0.49805734
-2.5281196 2.2234139 -0.92887443
-2.5300801 2.2251382 -0.74641228
-2.5220463 2.2180729 -0.55993575
-0 0 -0
-2.528239 2.2235188 -0.18806228
-6.6715765 5.8674741 0
-6.6996026 5.8921223 0.49834788
-2.5157175 2.2071214 -0.92333716
-2.5365834 2.2254276 -0.74753696
-2.5227969 2.2133324 -0.5595082
-0 0 -0
-2.5270135 2.2170317 -0.18777172
-6.6884408 5.8679886 0
-6.7223434 5.8977323 0.49950901
-2.525934 2.2106891 -0.9261058
-2.5316224 2.2156675 -0.74528539
-2.5138826 2.2001419 -0.55694121
-0 0 -0
-2.494498 2.1831765 -0.18515949
-6.707273 5.870183 0
-6.7255502 5.8861794 0.49921843
-2.5286033 2.2076352 -0.9261058
-2.5362172 2.2142828 -0.74584991
-2.5223424 2.2021692 -0.55822557
-0 0 -0
-2.4677787 2.1545315 -0.18298282
-6.7163272 5.863791 0
-6.7463613 5.8900127 0.50023454
-2.5218115 2.1963415 -0.92264563
-2.5197265 2.1945257 -0.74022001
-2.5230601 2.1974292 -0.55779636
-0 0 -0
-2.4311907 2.1174166 -0.18008003
-6.7155576 5.8488345 0
-6.7652264 5.8920932 0.50110513
-2.5206721 2.1899989 -0.92126
-2.5242925 2.1931443 -0.74078232
-2.5237775 2.1926968 -0.55736881
-0 0 -0
-2.4219744 2.1042488 -0.1792089
-2.7327392 2.3742459 0
-6.7743006 5.8856168 0.50125015
-2.5214226 2.1853101 -0.92056853
-2.5307846 2.1934242 -0.74190921
-2.524487 2.1879661 -0.55694121
-0 0 -0
-2.4009597 2.0809052 -0.17746779
-2.682512 2.3249259 0
-6.7814074 5.8774271 0.50125015
-2.5221653 2.1806226 -0.91987699
-2.533433 2.1903646 -0.74190921
-2.5193613 2.1781983 -0.55522937
-0 0 -0
-2.3995373 2.0746005 -0.17717724
-2.6912272 2.3267908 0
-6.8140631 5.8913269 0.50313735
-2.5253792 2.1807365 -0.92056853
-2.5405271 2.1938171 -0.7435984
-2.5187359 2.1749997 -0.55480182
-0 0 -0
-2.4184885 2.0884333 -0.17848335
-2.7083905 2.3387718 0
-6.835319 5.902492 0.50444347
-2.5147123 2.1662266 -0.91572535
-2.533545 2.1824493 -0.74078232
-2.5271912 2.1769762 -0.55608445
-0 0 -0
-2.4032936 2.0702481 -0.17717724
-2.6954401 2.3219092 0
-6.8503213 5.9010119 0.50502402
-2.5192289 2.16482 -0.91641688
-2.53618 2.1793864 -0.74078232
-2.520087 2.1655571 -0.55394506
-0 0 -0
-2.4156451 2.0758085 -0.17790279
-0 0 0
-6.8594151 5.8944225 0.50516903
-2.5275588 2.1666744 -0.91849399
-2.5272405 2.1664014 -0.73740608
-2.5266035 2.1658552 -0.55480182
-0 0 -0
-2.4102604 2.0661237 -0.17732224
-2.7188244 2.330631 0
-6.8665323 5.8861299 0.50516903
-2.5206361 2.1554615 -0.91503119
-2.5337224 2.1666522 -0.73853296
-2.527262 2.1611276 -0.55437261
-0 0 -0
-2.4088092 2.0598357 -0.17703223
-2.6899917 2.300282 0
-6.8874578 5.8896451 0.50618458
-2.5346942 2.1621864 -0.91918552
-2.5324686 2.1602879 -0.73740608
-2.5376835 2.1647363 -0.55608445
-0 0 -0
-2.4053638 2.0518627 -0.17659667
-2.720485 2.3206728 0
-6.9084096 5.8931246 0.50720072
-2.5143774 2.139612 -0.91087955
-2.5389509 2.1605227 -0.73853296
-2.5227039 2.1466973 -0.55223316
-0 0 -0
-2.411803 2.052326 -0.17688723
-2.7371631 2.3291917 0
-6.921464 5.8898263 0.50763625
-2.5150502 2.1349502 -0.91018808
-2.5396171 2.1558044 -0.73796844
-2.527251 2.1453073 -0.55266076
-0 0 -0
-2.4063573 2.0426841 -0.17630668
-2.724103 2.3124089 0
-6.9305549 5.8831387 0.50778127
-2.5367699 2.148119 -0.91710836
-2.5383456 2.1494532 -0.73684376
-2.5220127 2.1356227 -0.55095053
-0 0 -0
-2.4088237 2.0397749 -0.17630668
-2.7169666 2.3007083 0
-6.9634352 5.8965883 0.50966793
-2.51828 2.1272426 -0.90949392
-2.546766 2.1513052 -0.73853296
-2.5206654 2.1292574 -0.55009377
-0 0 -0
-2.4132695 2.038538 -0.17645168
-2.7276971 2.3041413 0
-6.9685721 5.8864946 0.50952291
-2.5266058 2.1290495 -0.91157109
-2.5338192 2.1351278 -0.73402989
-2.5212753 2.1245577 -0.54966623
-0 0 -0
-2.4197013 2.0389662 -0.17674167
-2.7225187 2.2941358 0
-5.6901264 4.7947965 0.41562256
-2.5157318 2.1146934 -0.90672529
-2.5402834 2.1353314 -0.73515457
-2.5140171 2.1132522 -0.54752678
-0 0 -0
-2.420176 2.0343707 -0.17659667
-2.7252886 2.2908444 0
-5.6859722 4.7795591 0.41489702
-2.5202131 2.1132689 -0.90741944
-2.5389717 2.1289983 -0.73402989
-2.524437 2.1168108 -0.54923862
-0 0 -0
-2.4226325 2.0314448 -0.17659667
-2.7240624 2.2842021 0
-5.6917434 4.7726851 0.41489702
-2.528532 2.1150463 -0.90949392
-2.522049 2.1096232 -0.72839993
-2.526993 2.1137588 -0.54923862
-0 0 -0
-2.4131305 2.0185161 -0.17572612
-2.7208376 2.2759044 0
-5.691525 4.7608013 0.41446146
-2.5156832 2.0991373 -0.90395927
-2.5421526 2.1212239 -0.73346537
-2.5255992 2.1074114 -0.54838187
-0 0 -0
-2.4355152 2.0322433 -0.17717724
-2.7175889 2.2676115 0
-5.6952801 4.7522573 0.41431645
-2.5182178 2.096096 -0.90395927
-2.5427628 2.1165266 -0.732903
-2.5242016 2.1010768 -0.54752678
-0 0 -0
-2.4140034 2.0093508 -0.17543556
-2.7163303 2.2609994 0
-5.6970201 4.7420444 0.4140259
-2.5207486 2.0930517 -0.90395927
-2.5140407 2.0874817 -0.72389686
-2.5188386 2.0914657 -0.54581493
-0 0 -0
-2.4544148 2.0379729 -0.17819335
-2.7010343 2.2427483 0
-5.698751 4.7318406 0.4137359
-2.5232759 2.0900042 -0.90395927
-2.5263507 2.0925512 -0.72671294
-2.5292718 2.0949707 -0.54752678
-0 0 -0
-2.5249104 2.0913584 -0.18312782
-2.7097571 2.2444649 0
-7.1952343 5.9597411 0.52185911
-2.5238597 2.0853512 -0.90326512
-2.5171211 2.0797834 -0.72333455
-2.5219009 2.0837326 -0.54538572
-0 0 -0
-2.5594859 2.1147876 -0.18545005
-2.7144713 2.2428451 0
-7.1964188 5.9460759 0.52142352
-2.5166998 2.0743234 -0.89980501
-2.5176733 2.0751259 -0.72277218
-2.5323405 2.0872149 -0.54709756
-0 0 -0
-2.5439873 2.0968146 -0.18414338
-2.7452989 2.2627404 0
-7.1955776 5.9307652 0.52084297
-2.5230839 2.0744708 -0.90119064
-2.5142889 2.0672395 -0.72108299
-2.5348606 2.0841534 -0.54709756
-0 0 -0
-2.5786333 2.1201432 -0.18646561
-2.7218995 2.2379363 0
-7.1826711 5.9055672 0.51939183
-2.5262737 2.0745366 -0.90188211
-2.5174992 2.0673311 -0.72164536
-2.5202482 2.0695887 -0.54367387
-0 0 -0
-2.5759013 2.1152899 -0.1861756
-2.7152061 2.2296851 0
-7.1661601 5.8847394 0.51794076
-2.5268395 2.0698943 -0.90119064
-2.5219667 2.0659025 -0.72220981
-2.5306904 2.0730488 -0.54538572
-0 0 -0
-2.5663908 2.1022933 -0.18530449
-2.7340043 2.2395961 0
-7.1692414 5.8727798 0.51765019
-2.5487618 2.082711 -0.90811092
-2.5165908 2.0564227 -0.71995831
-2.5331936 2.0699894 -0.54538572
-0 0 -0
-2.5910642 2.1172783 -0.18690117
-2.7225997 2.224762 0
-7.1662736 5.8558931 0.51692462
-2.5201631 2.0542684 -0.89703631
-2.5190737 2.0533803 -0.71995831
-2.533705 2.0653067 -0.54495817
-0 0 -0
-2.6036892 2.1223531 -0.18762672
-2.7333548 2.2280478 0
-7.1592436 5.8357363 0.51590848
-2.5206988 2.0496404 -0.89634484
-2.5156369 2.0455244 -0.71826911
-2.5441656 2.0687218 -0.54667002
-0 0 -0
-2.6546376 2.1585493 -0.19111007
-2.7239258 2.2148893 0
-7.1602473 5.8221684 0.51547348
-2.519273 2.0434294 -0.89495921
-2.5200782 2.0440824 -0.71883142
-2.5227392 2.0462408 -0.54153442
-0 0 -0
-2.6410992 2.1422451 -0.18994895
-2.706392 2.195205 0
-7.1531487 5.8020525 0.5144574
-2.5236962 2.0419664 -0.89565337
-2.5185993 2.0378425 -0.71770674
-2.5351861 2.0512631 -0.54367387
-0 0 -0
-2.6558022 2.1488557 -0.19081952
-2.6706078 2.1608353 0
-7.1439939 5.7803292 0.51329631
-2.5242038 2.0373354 -0.89495921
-2.5269859 2.0395808 -0.71939379
-2.5336714 2.0449767 -0.54281873
-0 0 -0
-2.6583967 2.1456451 -0.19081952
-2.7521923 2.2213492 0
-7.1408648 5.7635345 0.51257074
-2.5129905 2.0232751 -0.89011604
-2.5215394 2.030158 -0.71714443
-2.5361404 2.0419137 -0.54281873
-0 0 -0
-2.671113 2.1505837 -0.19154562
-0 0 0
-0 0 0
-2.5232575 2.026521 -0.89288467
-2.5200248 2.0239246 -0.71601754
-2.5245936 2.0275941 -0.53982258
-0 0 -0
-2.6696539 2.1440973 -0.19125506
-0 0 0
-7.1466684 5.7397528 0.51199019
-2.5452797 2.0391536 -0.89980501
-2.5264382 2.0240586 -0.71714443
-2.5370646 2.032572 -0.54196364
-0 0 -0
-2.6722426 2.1408701 -0.19125506
-0 0 0
-7.1394014 5.719739 0.51097405
-2.5418606 2.0313764 -0.89772785
-2.5268912 2.0194135 -0.71657991
-2.5254793 2.018285 -0.53896743
-0 0 -0
-2.6707718 2.1343985 -0.19096507
-0 0 0
-7.1422515 5.7078667 0.51068407
-2.5246999 2.0126681 -0.89080757
-2.5293295 2.0163589 -0.71657991
-2.5379508 2.0232315 -0.54110688
-0 0 -0
-2.6774085 2.1344061 -0.19125506
-0 0 0
-7.1389856 5.6911354 0.50995851
-2.5369461 2.017422 -0.89426768
-2.5277905 2.0101414 -0.71545523
-2.5464232 2.0249584 -0.54239118
-0 0 -0
-2.6820173 2.1327851 -0.19140007
-0 0 0
-7.1255155 5.6663294 0.50850683
-2.5315199 2.0081186 -0.89149904
-2.5302174 2.0070856 -0.71545523
-2.5347879 2.010711 -0.53939497
-0 0 -0
-2.7049539 2.1456945 -0.19285174
-0 0 0
-7.1323571 5.6577153 0.50850683
-2.5457525 2.0144017 -0.89565337
-2.5306501 2.0024517 -0.71489286
-2.5291634 2.0012751 -0.53768313
-0 0 -0
-2.8359129 2.2439997 -0.2019951
-0 0 0
-7.1228867 5.6361942 0.50734568
-2.5324306 1.9988893 -0.89011604
-2.5350604 2.0009651 -0.71545523
-2.5255327 1.9934447 -0.53639883
-2.5665367 2.0258098 -0.36444592
-2.8671732 2.2631073 -0.20402679
-0 0 0
-7.1133742 5.6147041 0.50618458
-2.5663819 2.0206594 -0.90119064
-2.5334797 1.9947537 -0.71432835
-2.5420599 2.0015094 -0.53939497
-2.560854 2.0163069 -0.36329275
-2.8984838 2.2821424 -0.20605846
-0 0 0
-7.118114 5.6044989 0.50603956
-2.5273907 1.9850172 -0.88665593
-2.5278952 1.9854133 -0.71207684
-2.5444765 1.9984365 -0.53939497
-2.5673528 2.0164034 -0.36386877
-2.8991978 2.277035 -0.20591345
-0 0 0
-7.1105819 5.5846634 0.50502402
-2.5238609 1.9773188 -0.88457876
-2.5262959 1.9792264 -0.71095216
-2.5388064 1.9890277 -0.53768313
-0 0 -0
-2.9101288 2.2799404 -0.20649402
-0 0 0
-7.1009612 5.5632477 0.50386292
-2.5381048 1.9835336 -0.88873041
-0 0 -0
-2.5310965 1.9780567 -0.53554368
-2.5518422 1.9942695 -0.36098641
-2.9046919 2.2700222 -0.20591345
-0 0 0
-7.0523963 5.5114608 0.499944
-2.5298223 1.9696858 -0.88457876
-0 0 -0
-2.5387247 1.976617 -0.53639883
-2.5676937 1.999172 -0.3627156
-2.8923991 2.2519832 -0.20475234
-0 0 0
-6.9639683 5.4220519 0.49297786
-2.5222955 1.9589348 -0.8811186
-2.5306261 1.9654047 -0.70982528
-2.5330093 1.9672556 -0.53468859
-2.5619364 1.9897219 -0.36156243
-2.8951182 2.2484865 -0.20475234
-0 0 0
-6.9643559 5.4088507 0.4925423
-2.5226793 1.9543507 -0.88042712
-0 0 -0
-2.5394392 1.9673347 -0.53554368
-2.5602534 1.9834598 -0.36098641
-2.8978329 2.2449868 -0.20475234
-2.6786628 2.0751932 0
-6.9585657 5.3908863 0.49167174
-2.5230482 1.9497627 -0.87973297
-0 0 -0
-2.5316603 1.9564179 -0.53340429
-2.5667374 1.9835249 -0.36156243
-2.9005435 2.2414837 -0.20475234
-2.724411 2.105372 0
-6.9650741 5.3824744 0.49167174
-2.53335 1.9528393 -0.8825016
-0 0 -0
-2.5340223 1.9533576 -0.53340429
-2.5629847 1.9756832 -0.3606973
-2.9176576 2.2490838 -0.20576845
-2.6259646 2.0242314 0
-6.9653969 5.3692937 0.49123618
-2.5357077 1.9497768 -0.8825016
-0 0 -0
-2.5384138 1.9518574 -0.53383183
-2.5633216 1.9710099 -0.36040929
-2.9162493 2.2423856 -0.20547789
-2.6820455 2.0622997 0
-6.9656978 5.3561201 0.49080065
-2.5300992 1.940604 -0.87973297
-0 0 -0
-2.5346577 1.9441004 -0.53254753
-2.5595503 1.9631932 -0.35954523
-2.902462 2.2262089 -0.20431678
-3.496047 2.6814928 0
-6.9742322 5.3492856 0.4909462
-2.5463915 1.948218 -0.88457876
-0 0 -0
-2.5410864 1.944159 -0.53340429
-2.5639729 1.9616692 -0.35983324
-2.9175363 2.232177 -0.2051879
-3.5757589 2.7357764 0
-6.9662428 5.3298006 0.48993006
-2.5008798 1.9086112 -0.86796689
-0 0 -0
-2.5434337 1.9410872 -0.53340429
-2.5622251 1.9554284 -0.35925612
-2.9202313 2.2286501 -0.2051879
-3.568712 2.7235548 0
-6.9685507 5.3182297 0.48964009
-2.539119 1.9329439 -0.88042712
-0 0 -0
-2.5355666 1.9302394 -0.53126484
-2.572818 1.9585978 -0.36040929
-2.9229219 2.2251198 -0.2051879
-3.5885661 2.7318518 0
-6.9687667 5.3050823 0.48920453
-2.5274649 1.9192526 -0.87558132
-0 0 -0
-2.5501597 1.9364861 -0.53383183
-2.5690088 1.9507995 -0.35954523
-2.927676 2.2231565 -0.20533291
-3.5752833 2.7149227 0
-6.9627514 5.2872262 0.4883334
-2.533778 1.9192239 -0.87696433
-0 0 -0
-2.5340829 1.9194549 -0.52998054
-2.5754838 1.9508144 -0.36012125
-2.924144 2.2149088 -0.20489734
-3.5930851 2.721602 0
-6.9629269 5.274107 0.48789841
-2.5421019 1.9206995 -0.87904143
-0 0 -0
-2.5425467 1.9210355 -0.53126484
-2.5633914 1.9367849 -0.35810295
-3.0159607 2.2787261 -0.21113792
-3.6067512 2.7251012 0
-6.9755082 5.2703848 0.4883334
-2.5524349 1.9236662 -0.88181013
-0 0 -0
-2.5407619 1.914869 -0.53040808
-2.5657299 1.9336861 -0.35810295
-3.0809691 2.322001 -0.21549238
-3.5954988 2.7097812 0
-6.971498 5.2541342 0.48760784
-2.5427294 1.9115385 -0.87765849
-0 0 -0
-2.541024 1.9102565 -0.52998054
-2.5639336 1.927479 -0.3575269
-3.1315374 2.3541846 -0.21883017
-3.6216469 2.7226324 0
-6.9653835 5.236341 0.48673728
-2.5550709 1.9159887 -0.8811186
-0 0 -0
-2.555649 1.9164222 -0.53254753
-2.5641932 1.9228294 -0.35723889
-3.1343799 2.350399 -0.21883017
-3.6603281 2.7447958 0
-6.9675436 5.2248001 0.48644674
-2.5413125 1.9008787 -0.87558132
-0 0 -0
-2.5415177 1.9010321 -0.52912378
-2.5644376 1.9181761 -0.35694978
-3.1705096 2.3715124 -0.22115241
-3.6219618 2.7091944 0
-6.9572058 5.2039266 0.48528561
-2.5134442 1.8753014 -0.86519819
-0 0 -0
-2.5479319 1.9010329 -0.52998054
-2.5709035 1.9181724 -0.3575269
-3.1671228 2.3630166 -0.22071685
-3.6377521 2.7141569 0
-6.9593272 5.1924114 0.4849956
-2.5378485 1.8887404 -0.87281269
-0 0 -0
-2.5419896 1.8918223 -0.52826869
-2.5669928 1.9104304 -0.35666174
-3.1929076 2.3762543 -0.22231352
-3.6535516 2.719079 0
-6.9676785 5.1855483 0.48514062
-2.5481863 1.8916541 -0.87558132
-0 0 -0
-2.5422144 1.8872209 -0.52784109
-2.5692992 1.9073273 -0.35666174
-3.1811697 2.3615513 -0.2212974
-3.6380296 2.7007027 0
-6.9635091 5.169383 0.48441505
-2.5594032 1.8975837 -0.87904143
-0 0 -0
-2.5516026 1.8918002 -0.529553
-2.570451 1.9057747 -0.35666174
-3.1742465 2.3534386 -0.22071685
-3.6710215 2.7217557 0
-6.9603672 5.1605306 0.48397949
-2.5334587 1.8736084 -0.86935252
-0 0 -0
-2.5414989 1.8795544 -0.52698433
-2.5602784 1.8934427 -0.35493255
-3.1938016 2.3619618 -0.22187796
-3.6722088 2.715766 0
-6.9519792 5.1413059 0.48296395
-2.5498474 1.8809665 -0.87419564
-0 0 -0
-2.5479035 1.8795328 -0.52784109
-2.5646439 1.8918817 -0.35522056
-3.1966531 2.3581011 -0.22187796
-3.6733954 2.7097836 0
-6.9581861 5.1329017 0.48296395
-2.5541446 1.8793753 -0.87488979
-0 0 -0
-2.5584435 1.8825384 -0.529553
-2.5773425 1.8964446 -0.35666174
-3.2141526 2.3650184 -0.22289407
-3.6829574 2.7099717 0
-6.972755 5.1306505 0.4835445
-2.528095 1.8555032 -0.86519819
-0 0 -0
-2.5482953 1.8703293 -0.52698433
-2.5629508 1.8810859 -0.35435542
-3.1939633 2.3442192 -0.2212974
-3.711406 2.7239978 0
-6.9579973 5.1068439 0.48209283
-2.5384324 1.858375 -0.86796689
-0 0 -0
-2.5360601 1.8566383 -0.5239898
-2.5610521 1.8749348 -0.35377938
-3.2156613 2.3541713 -0.22260351
-3.7125967 2.7179756 0
-2.7941661 2.0455966 0.19342561
-2.5325718 1.8493884 -0.86519819
-0 0 -0
-2.5528078 1.8641657 -0.52698433
-2.571671 1.8779403 -0.35493255
-3.2122059 2.3456855 -0.22216797
-3.688549 2.6935308 0
-2.7819443 2.0314906 0.19240949
-2.5368381 1.8478082 -0.86589241
-0 0 -0
-2.5488393 1.8565499 -0.5257017
-2.5739381 1.8748316 -0.35493255
-3.2108412 2.3387456 -0.22187796
-3.7002156 2.6952009 0
-2.7822986 2.0265994 0.1922645
-2.5532706 1.8550597 -0.87073553
-0 0 -0
-2.5448484 1.8489406 -0.5244174
-2.5741112 1.8702012 -0.35464454
-3.2115648 2.3333383 -0.22173296
-3.7350535 2.7136753 0
-2.7847455 2.023236 0.1922645
-2.5230076 1.8284186 -0.85966092
-0 0 -0
-2.5387661 1.8398389 -0.5227055
-2.5700841 1.8625349 -0.35377938
-3.2164838 2.3309793 -0.22187796
-3.7277951 2.7015257 0
-2.77667 2.0122471 0.19153893
-2.5435195 1.8386003 -0.86589241
-0 0 -0
-2.5513875 1.8442878 -0.52484494
-2.5744269 1.8609418 -0.35406739
-3.2003469 2.3133924 -0.22057185
-3.7437077 2.7061644 0
-2.7854109 2.013453 0.19197394
-2.5355587 1.8281851 -0.86242956
-0 0 -0
-2.5494537 1.8382037 -0.5239898
-2.5724816 1.8548073 -0.35349137
-3.1947091 2.3034449 -0.2199913
-3.7322037 2.6909885 0
-2.7857361 2.0085676 0.19182894
-2.5479553 1.8324482 -0.86589241
-0 0 -0
-2.5433366 1.8291266 -0.52227795
-2.5726149 1.850183 -0.35320225
-3.2143664 2.3117204 -0.22115241
-3.7333338 2.6849532 0
-2.7902684 2.0067158 0.19197394
-2.5379326 1.8205914 -0.86173809
-0 0 -0
-2.5372014 1.8200668 -0.52056611
-2.5769565 1.8485851 -0.35349137
-3.1875939 2.2866273 -0.21912017
-3.7619512 2.6986437 0
-2.792691 2.0033429 0.19197394
-2.5401306 1.8175235 -0.86173809
-0 0 -0
-2.5414844 1.8184922 -0.52099365
-2.5749772 1.8424571 -0.35291421
-3.203038 2.2918494 -0.2199913
-5.6509166 4.043364 0
-2.7929986 1.9984565 0.19182894
-2.5361969 1.8100793 -0.85966092
-0 0 -0
-2.5394969 1.8124346 -0.52013689
-2.5687804 1.8333341 -0.35176104
-3.2142649 2.2940154 -0.22057185
-5.7151113 4.0788651 0
-2.7911851 1.9920641 0.19153893
-2.5302069 1.8011938 -0.85689229
-0 0 -0
-2.562602 1.824255 -0.5244174
-2.5730989 1.8317275 -0.35204908
-3.1725826 2.2584856 -0.21752405
-5.618268 3.9995108 0
-2.7957051 1.9901955 0.19168393
-2.5467024 1.8083038 -0.86173809
-0 0 -0
-2.5438695 1.8062923 -0.52013689
-2.5732033 1.827121 -0.35176104
-3.1647179 2.2471302 -0.2167985
-5.7652631 4.0936656 0
-2.7938664 1.9838043 0.19139338
-2.552984 1.8081281 -0.86312371
-0 0 -0
-2.5418644 1.8002527 -0.51928174
-2.5711918 1.8210236 -0.35118502
-3.1843946 2.2553191 -0.21795961
-0 0 0
-2.794143 1.9789267 0.19124837
-2.5346725 1.7905641 -0.85620081
-0 0 -0
-2.5524244 1.8031046 -0.52099365
-2.5691612 1.8149279 -0.35060787
-3.1828687 2.2484682 -0.21766905
-5.7985229 4.09624 0
-2.7965319 1.9755491 0.19124837
-2.525506 1.7818024 -0.85274065
-0 0 -0
-2.5493143 1.7985996 -0.52013689
-2.5681458 1.8118857 -0.35031986
-3.19697 2.2555356 -0.21854018
-5.7308235 4.0432272 0
-2.7892323 1.9678673 0.19066782
-2.5440705 1.7902999 -0.85827792
-0 0 -0
-2.5577857 1.7999514 -0.52142119
-2.5682199 1.8072942 -0.35003185
-3.1826928 2.2397079 -0.21737906
-5.7676234 4.0587616 0
-2.7873621 1.9615077 0.19037782
-2.5441804 1.7857847 -0.85758644
-0 0 -0
-2.5494549 1.7894869 -0.51928174
-2.5725169 1.8056743 -0.35031986
-3.1853969 2.2358606 -0.21737906
-5.781044 4.0577703 0
-2.7939796 1.9611211 0.19066782
-2.5381157 1.7769539 -0.85481781
-0 0 -0
-2.5495145 1.7849342 -0.5188542
-2.5768137 1.8040465 -0.35060787
-3.1774468 2.2245543 -0.21665294
-5.8093963 4.0672021 0
-2.7963471 1.9577436 0.19066782
-2.5361433 1.7710103 -0.85343212
-0 0 -0
-2.5453532 1.7774417 -0.5175699
-2.5747545 1.7979728 -0.35003185
-3.141789 2.1939378 -0.21404071
-5.8271046 4.0691166 0
-2.7987108 1.9543633 0.19066782
-2.5465159 1.7736801 -0.85620081
-0 0 -0
-2.5538206 1.7787678 -0.5188542
-2.5811658 1.7978141 -0.35060787
-3.0378306 2.1158869 -0.20678401
-5.8362923 4.0650506 0
-2.7946796 1.9465292 0.19023281
-2.5342405 1.7605863 -0.85135764
-0 0 -0
-2.555968 1.7756808 -0.5188542
-2.5769615 1.7902654 -0.34974274
-2.9336967 2.0380962 -0.19952787
-5.8561554 4.0683851 0
-2.7948895 1.9416641 0.19008726
-2.5446143 1.7632384 -0.85412627
-0 0 -0
-2.5496716 1.7667427 -0.51714236
-2.572751 1.7827352 -0.34887868
-2.9126613 2.0182688 -0.1979312
-5.87818 4.0731645 0
-2.7972336 1.9382856 0.19008726
-2.536418 1.7530264 -0.85066348
-0 0 -0
-2.5454671 1.7592806 -0.51585805
-2.5791547 1.7825636 -0.34945473
-2.9129622 2.013272 -0.1977862
-5.8852444 4.0675426 0
-2.8038528 1.9378619 0.19037782
-2.5529952 1.7599289 -0.85550928
-0 0 -0
-2.547591 1.7562037 -0.51585805
-2.5727887 1.7735738 -0.34830156
-2.9218047 2.0141711 -0.19822121
-5.8837247 4.0559959 0
-2.7954974 1.9271001 0.18965226
-2.5489161 1.7525773 -0.85343212
-0 0 -0
-2.5560591 1.7574887 -0.51714236
-2.5621462 1.761674 -0.34657234
-2.9092546 2.0003378 -0.19720565
-5.8864789 4.0474105 0
-2.799963 1.9251916 0.18979725
-2.5468979 1.7466611 -0.85204917
-0 0 -0
-2.5539427 1.7514925 -0.5162856
-2.5813375 1.7702798 -0.34887868
-2.9009566 1.9894745 -0.1964801
-5.923553 4.0623693 0
-2.7979972 1.918865 0.18950669
-2.526227 1.7280006 -0.84443468
-0 0 -0
-2.5497069 1.7440615 -0.51500291
-2.5813417 1.7657006 -0.34859067
-2.8926289 1.9786284 -0.19575398
-5.9155731 4.0463958 0
-2.8003137 1.9154826 0.18950669
-2.5366027 1.7306025 -0.84720337
-0 0 -0
-2.562413 1.7482117 -0.51714236
-2.5749271 1.7567494 -0.3474375
-2.9229195 1.994168 -0.19764064
-5.9570026 4.064178 0
-2.7983375 1.9091716 0.1892167
-2.5407641 1.7289463 -0.84789485
-0 0 -0
-2.5581546 1.7407804 -0.51585805
-2.5770478 1.7536368 -0.3474375
-2.9468136 2.0052562 -0.19909231
-5.9489956 4.0481896 0
-2.8070891 1.9101759 0.18965226
-2.5220971 1.7117889 -0.84097457
-0 0 -0
-2.5687523 1.7434546 -0.5175699
-2.579165 1.7505217 -0.3474375
-2.9556866 2.0060732 -0.19952787
-5.9581938 4.0439243 0
-2.8007951 1.9009457 0.1890717
-2.5470183 1.7242117 -0.848589
-0 0 -0
-2.5559745 1.7302747 -0.51457369
-2.5727108 1.7416042 -0.34628433
-2.9839213 2.0199745 -0.201269
-6.0061779 4.0659003 0
-2.8009319 1.8960992 0.18892615
-2.5386977 1.7141094 -0.84512621
-0 0 -0
-2.5601971 1.7286257 -0.51500291
-0 0 -0
-2.9626772 2.0003772 -0.19967288
-6.0089235 4.0571795 0
-2.8096836 1.897077 0.18936171
-2.5366092 1.7082407 -0.84374321
-0 0 -0
-2.5495043 1.7169245 -0.5124343
-0 0 -0
-2.9500031 1.9866344 -0.19865677
-6.0397248 4.0673604 0
-2.8011994 1.8864249 0.18863614
-2.5438881 1.7109095 -0.84582037
-0 0 -0
-2.5548053 1.7182521 -0.51329106
-0 0 -0
-2.9231746 1.9660014 -0.19677009
-6.0335431 4.0579009 0
-2.8044927 1.8861809 0.18878114
-2.543864 1.7064328 -0.84512621
-0 0 -0
-2.565407 1.720884 -0.51500291
-0 0 -0
-2.9147606 1.9552315 -0.19604453
-6.0514135 4.0593095 0
-2.8067696 1.8827908 0.18878114
-2.5417578 1.7005705 -0.84374321
-0 0 -0
-2.5610819 1.7134992 -0.51371861
-0 0 -0
-2.9041588 1.9430358 -0.19517341
-6.0433316 4.0433087 0
