# .PCD v0.7 - Point Cloud Data file format
VERSION 0.7
FIELDS x y z
SIZE 4 4 4
TYPE F F F
COUNT 1 1 1
WIDTH 1819
HEIGHT 1
VIEWPOINT 0 0 0 1 0 0 0
POINTS 1819
DATA ascii
0 0 0
2.1082153 5.5186472 -0.98488551
2.4977679 6.5383735 -0.78014201
2.566426 6.7180991 -0.40169644
2.5911069 6.7827053 0
0 0 0
2.1051984 5.530787 -0.98659736
2.4898658 6.5413866 -0.78014201
2.5472145 6.6920538 -0.39995477
0 0 0
0 0 0
2.0976045 5.5309286 -0.98616982
2.4801238 6.5395489 -0.77956486
2.5363615 6.6878352 -0.39951921
0 0 0
0 0 0
2.089107 5.5286613 -0.98531467
2.4767907 6.554636 -0.78100604
2.5200131 6.6690211 -0.39821309
0 0 0
0 0 0
2.0878503 5.5455914 -0.98788166
2.4670479 6.5527873 -0.78043002
2.4991372 6.6380205 -0.3961814
0 0 0
0 0 0
2.0793467 5.5433078 -0.98702657
2.4609435 6.5606027 -0.78100604
2.4792516 6.6094098 -0.39429474
0 0 0
0 0 0
2.070848 5.5410023 -0.98616982
2.4512053 6.5587301 -0.78043002
2.4621687 6.5880651 -0.39284363
0 0 0
0 0 0
2.0686293 5.5555267 -0.98830926
2.445987 6.5689611 -0.78129518
2.4487643 6.5764203 -0.39197251
0 0 0
0 0 0
2.0637026 5.5628405 -0.98916596
2.4371457 6.5694799 -0.78100604
2.4299707 6.5501394 -0.39023083
0 0 0
0 0 0
2.0587575 5.5701408 -0.99002111
2.4327927 6.5821242 -0.78215921
2.4265611 6.5652647 -0.39095694
0 0 0
19.301086 52.220707 3.1097069
2.0518379 5.5617504 -0.98830926
2.4306078 6.5884509 -0.78273636
2.4198954 6.5594134 -0.39052138
0 0 0
19.180502 51.991028 3.0953391
2.0530858 5.5859084 -0.99216056
2.4226451 6.591383 -0.78273636
2.4101732 6.5574503 -0.39023083
0 0 0
19.108706 51.98978 3.0938878
2.04722 5.5908027 -0.99258971
2.4173446 6.6015849 -0.78360039
2.405822 6.5701175 -0.39081138
17.510799 47.820667 0
19.049446 52.022591 3.0944684
2.040463 5.5932722 -0.99258971
2.4111407 6.609365 -0.78417754
2.4032264 6.5876708 -0.39168251
17.453005 47.841789 0
18.944721 51.930847 3.0876472
2.0345793 5.5981441 -0.99301726
2.4040353 6.6147022 -0.78446555
2.3926013 6.583241 -0.39124694
17.393406 47.857948 0
18.899706 52.002533 3.0905495
2.0313091 5.6102529 -0.99472916
2.3951614 6.6151724 -0.78417754
2.384645 6.5861273 -0.39124694
17.331137 47.866695 0
0 0 0
2.0245287 5.6127033 -0.99472916
2.3871665 6.618062 -0.78417754
2.3802118 6.5987811 -0.39182749
17.263575 47.86068 0
0 0 0
2.0151403 5.6078959 -0.99344486
2.3852916 6.6379824 -0.78619587
2.3713589 6.5992093 -0.39168251
17.21541 47.90844 0
0 0 0
2.0118237 5.6199942 -0.99515671
2.3790109 6.6457253 -0.78677189
2.3695111 6.6191878 -0.39269805
0 0 0
0 0 0
2.005893 5.6248364 -0.99558425
2.3675039 6.6388502 -0.78561872
2.3562763 6.6073656 -0.39182749
0 0 0
0 0 0
1.9965193 5.6200061 -0.99430162
2.3603456 6.6441412 -0.78590673
2.3552494 6.6297965 -0.39298862
0 0 0
0 0 0
1.9914384 5.6272497 -0.99515671
2.3652599 6.6835651 -0.79023141
2.3524365 6.6473303 -0.39385918
0 0 0
0 0 0
1.9812236 5.6199679 -0.99344486
2.3503027 6.6669035 -0.78792506
2.3435397 6.6477194 -0.39371419
0 0 0
0 0 0
1.9846383 5.6514225 -0.99858046
2.3456733 6.6795001 -0.78907824
2.3355057 6.6505466 -0.39371419
0 0 0
0 0 0
1.9778082 5.6538162 -0.99858046
2.3418703 6.6945343 -0.79051942
2.3291824 6.6582642 -0.39400417
17.820114 50.941063 0
0 0 0
1.9675964 5.6465054 -0.99686855
2.32442 6.6704988 -0.78734905
2.3271215 6.6782522 -0.39502031
17.74485 50.923244 0
0 0 0
1.9641393 5.6585793 -0.99858046
2.7539797 7.9340668 -0.93610013
2.3241646 6.6957927 -0.3958914
17.63381 50.802055 0
16.138906 46.495319 2.7490542
1.9581387 5.6633725 -0.999008
2.7435434 7.934937 -0.93581104
2.3177688 6.7035031 -0.3961814
0 0 0
16.052147 46.426376 2.7438293
2.7390087 7.9529243 -0.93754131
2.3105128 6.7087531 -0.39632642
17.330492 50.320431 0
15.999423 46.455566 2.7444098
1.9495413 5.671772 -0.99986476
2.3256135 6.765873 -0.79743844
2.3098378 6.7199769 -0.39690697
0 0 0
15.978954 46.487339 2.7457159
1.9426867 5.6741238 -0.99986476
2.3132484 6.7564454 -0.79599726
2.3042421 6.7301407 -0.39734253
15.774208 46.072693 0
15.91099 46.472198 2.7436843
1.9358293 5.6764669 -0.99986476
2.3100903 6.7739191 -0.79772645
2.305335 6.7599754 -0.39893919
15.69417 46.020298 0
15.848116 46.471714 2.7425232
2.2985761 6.7669091 -0.79657328
2.2913144 6.7455311 -0.39792308
15.599211 45.923405 0
15.787775 46.478531 2.7417977
2.2903979 6.7696819 -0.79657328
2.2848258 6.7532125 -0.39821309
15.439459 45.63409 0
15.714116 46.445889 2.7387497
2.2855203 6.7822485 -0.79772645
2.2824736 6.7732077 -0.3992292
15.380153 45.640385 0
15.664621 46.484539 2.7399108
2.2699428 6.7902026 -0.79801446
2.2726896 6.798419 -0.40039033
15.144401 45.302265 0
15.520937 46.428616 2.734396
2.2633722 6.7978535 -0.79859161
2.2652934 6.8036227 -0.40053532
15.055122 45.216827 0
15.461542 46.437477 2.7338154
2.6613784 8.0255737 -0.942442
2.2570708 6.806355 -0.40053532
14.943136 45.062077 0
15.398877 46.436394 2.7326543
2.6524897 8.0312366 -0.94273007
2.253736 6.8238864 -0.40140644
14.846239 44.951607 0
15.337869 46.440166 2.7317836
2.6435909 8.036891 -0.94301808
2.2463002 6.8290706 -0.40155143
14.765891 44.8904 0
15.077149 45.83667 2.6952102
2.6354899 8.0450001 -0.94359517
2.2453265 6.8540015 -0.40285754
14.693007 44.851334 0
15.012856 45.82769 2.6936135
2.6281717 8.0555477 -0.94445926
2.2338195 6.846828 -0.40227699
14.643644 44.883896 0
14.942965 45.801334 2.6910014
2.6176376 8.0562601 -0.94417125
2.2247424 6.8470535 -0.40213197
14.563668 44.822361 0
14.881188 45.799587 2.6898401
2.6110864 8.0692606 -0.94532442
2.2268665 6.8818731 -0.40401867
14.524719 44.886967 0
14.829038 45.827423 2.6904206
2.6068885 8.0896444 -0.94734269
2.2185495 6.8845592 -0.40401867
14.424976 44.763302 0
14.765685 45.820583 2.6889696
2.598691 8.0977097 -0.94791877
2.2110224 6.8897066 -0.40416366
14.316805 44.612202 0
14.728568 45.895287 2.6923075
2.5873313 8.0959206 -0.94734269
2.2050698 6.8998008 -0.40459922
14.230408 44.527832 0
14.666774 45.89325 2.6911464
2.5910821 8.1245813 -0.95051312
2.2001121 6.8986583 -0.40445423
14.187689 44.486832 0
14.641415 45.909531 2.691582
2.5804811 8.1252441 -0.95022511
2.1933463 6.90626 -0.40474421
14.144955 44.538673 0
14.574921 45.892525 2.6895502
2.5722227 8.1332932 -0.95080221
2.1920509 6.9312005 -0.40605032
14.089558 44.550766 0
14.537477 45.967075 2.692888
2.5662773 8.1487274 -0.95224339
2.1805522 6.9239302 -0.40546978
14.06464 44.659599 0
14.468656 45.942478 2.6904206
2.5525603 8.1394854 -0.95080221
2.1791816 6.9488721 -0.40677589
14.007552 44.66663 0
14.429461 46.01199 2.6934686
2.5473478 8.1573725 -0.95253146
2.1746554 6.9638996 -0.40750146
13.947366 44.663651 0
0 0 0
2.5374894 8.1604443 -0.95253146
2.1685548 6.973968 -0.40793702
13.880252 44.638226 0
0 0 0
2.5337472 8.1832705 -0.9548378
4.1905284 13.534194 -0.7913757
13.831694 44.672367 0
0 0 0
2.5230963 8.183857 -0.95454973
4.1642203 13.506969 -0.78948903
13.777706 44.689049 0
0 0 0
2.5139642 8.1893692 -0.9548378
4.1585712 13.546762 -0.79152071
13.728279 44.720585 0
0 0 0
2.506336 8.1998243 -0.9557029
4.1391616 13.541838 -0.79094017
13.704662 44.836697 0
15.865915 51.907532 3.0317709
2.4949186 8.1978931 -0.95512581
4.1326299 13.579144 -0.79282683
13.675477 44.935371 0
15.782759 51.859554 3.0278525
2.4887609 8.2132759 -0.95656699
4.1094379 13.561749 -0.79152071
13.652114 45.053978 0
0 0 0
2.4765959 8.2088556 -0.9557029
4.1035571 13.601537 -0.79355294
13.601423 45.082897 0
0 0 0
2.4741147 8.2366085 -0.95858532
4.0901098 13.616439 -0.79413348
13.572393 45.184036 0
0 0 0
2.464901 8.2420673 -0.95887333
4.079607 13.641278 -0.79529405
13.523752 45.220352 0
0 0 0
2.4519877 8.2351246 -0.95772016
4.0638652 13.648695 -0.7954396
0 0 0
0 0 0
2.4464476 8.252965 -0.95945042
4.0532784 13.673526 -0.7966007
0 0 0
0 0 0
2.4372051 8.2583933 -0.95973849
4.0455766 13.70831 -0.79834181
0 0 0
0 0 0
2.4322152 8.2598639 -0.95973849
4.0424323 13.728203 -0.79935795
14.003531 47.556339 0
0 0 0
2.4258704 8.2752047 -0.96117967
4.0265722 13.735568 -0.79950297
13.912382 47.458351 0
0 0 0
2.4158697 8.2781296 -0.96117967
4.0128841 13.750401 -0.80008352
13.791601 47.257793 0
0 0 0
2.408031 8.288497 -0.96204478
3.9977179 13.760235 -0.80037409
13.705446 47.174458 0
0 0 0
2.4008884 8.3013391 -0.96319795
3.9875851 13.787519 -0.80168021
13.620238 47.093487 0
0 0 0
2.3879938 8.2942915 -0.96204478
3.9723589 13.797316 -0.80197018
13.535246 47.012383 0
0 0 0
2.3836708 8.3170624 -0.96435112
3.9564028 13.80461 -0.80211574
13.469827 46.99868 0
0 0 0
2.3743284 8.3224211 -0.96463919
3.9539745 13.859346 -0.80501795
13.392323 46.942348 0
0 0 0
2.3670971 8.3352365 -0.96579236
3.935807 13.859119 -0.80472797
13.332748 46.948483 0
0 0 0
2.3570237 8.3380909 -0.96579236
3.9225914 13.876365 -0.80545354
13.29017 47.014645 0
0 0 0
2.3525517 8.3608503 -0.96809864
3.9114523 13.901105 -0.80661464
13.229121 47.015633 0
0 0 0
2.3417506 8.3611994 -0.96781063
3.9037621 13.938347 -0.8085013
13.201079 47.134331 0
0 0 0
2.3302555 8.3590345 -0.96723354
3.8952909 13.97309 -0.81024301
13.153201 47.182835 0
0 0 0
2.325686 8.3817825 -0.96953988
3.8797925 13.982789 -0.81053299
13.085745 47.161083 0
0 0 0
2.3162444 8.3870773 -0.96982789
3.8615119 13.982462 -0.81024301
13.050225 47.25462 0
0 0 0
2.3067935 8.3923616 -0.9701159
3.8604519 14.044738 -0.81358081
12.98967 47.257809 0
0 0 0
2.2986994 8.4026299 -0.97098106
3.8386812 14.031855 -0.81256521
12.936677 47.288528 0
0 0 0
2.2885447 8.4054012 -0.97098106
3.8278666 14.059045 -0.81387132
12.890468 47.344303 0
0 0 0
2.2831228 8.4256382 -0.97299933
3.816313 14.083724 -0.81503248
0 0 0
0 0 0
2.2763071 8.4408741 -0.97444057
3.8047054 14.108396 -0.81619358
0 0 0
0 0 0
2.2685192 8.4322577 -0.9732874
3.8022559 14.133272 -0.8174997
12.190985 45.314812 0
14.541122 54.050449 3.1263974
2.2610044 8.4449863 -0.97444057
3.7845018 14.135339 -0.81735414
12.12882 45.301865 0
0 0 0
2.2527971 8.4552126 -0.97530568
3.7747788 14.167523 -0.81895083
12.072731 45.311451 0
14.364972 53.914703 3.1165285
2.2412519 8.4529228 -0.97472858
3.7516644 14.149471 -0.81764472
12.012636 45.305882 0
0 0 0
2.2336762 8.4656286 -0.97588176
3.7385411 14.169065 -0.81851524
11.960541 45.330429 0
0 0 0
2.228044 8.485836 -0.97790003
3.7306573 14.208762 -0.82054746
11.916333 45.38512 0
14.030214 53.43615 3.0859056
2.218442 8.4910221 -0.9781881
3.7266207 14.263531 -0.82344973
11.86346 45.407043 0
13.936079 53.339931 3.0793746
2.2114341 8.5062103 -0.97962928
3.70873 14.265511 -0.82330471
11.811859 45.433937 0
13.829777 53.195793 3.070086
2.1992128 8.5013714 -0.97876519
3.6979966 14.295134 -0.82475585
11.760211 45.46077 0
13.72189 53.043922 3.0603621
2.1934505 8.5215483 -0.98078245
3.680074 14.297077 -0.82461083
11.715652 45.515274 0
13.606618 52.861675 3.0488966
2.1805854 8.5141706 -0.97962928
3.6705322 14.33172 -0.82635248
11.656774 45.514275 0
0 0 0
2.1792388 8.5518932 -0.98366588
3.6602712 14.363845 -0.82794917
11.604982 45.540932 0
13.41724 52.652695 3.0349643
2.159198 8.5596399 -0.98395389
3.6255488 14.372648 -0.82794917
11.515262 45.649586 0
13.21179 52.37508 3.0171132
2.1475933 8.5572205 -0.9833768
3.6132398 14.397181 -0.82911026
11.458829 45.658424 0
13.109281 52.234753 3.0081148
2.1391323 8.5673399 -0.98424196
3.6071701 14.44691 -0.8317225
11.407433 45.687382 0
12.992654 52.036278 2.9957786
2.1362612 8.6000414 -0.98770142
3.5884571 14.44621 -0.83143198
11.350966 45.696083 0
12.902206 51.940979 2.9893925
2.1252484 8.6001072 -0.98741341
3.5809731 14.490896 -0.83375418
11.313222 45.780499 0
12.822607 51.888428 2.9854741
2.1117661 8.5901031 -0.98597115
3.5609798 14.48512 -0.83317363
11.264112 45.819412 0
12.708415 51.694458 2.973428
2.1038427 8.6026983 -0.98712432
3.5502653 14.517179 -0.83477032
11.206884 45.825401 0
12.644094 51.702209 2.9729929
2.1004844 8.6115084 -0.98798949
3.5396464 14.511745 -0.83433473
11.188448 45.870094 0
12.558672 51.487698 2.9602213
2.0937381 8.6291265 -0.98971975
3.5319123 14.556415 -0.83665699
11.13915 45.908863 0
12.472556 51.404362 2.9545612
2.0887709 8.6542768 -0.9923141
3.517978 14.575822 -0.83752757
7.0368295 29.155266 0
12.375076 51.272896 2.9461434
2.0777068 8.6542721 -0.99202502
3.5046101 14.597752 -0.83854365
7.001596 29.163746 0
12.260342 51.068001 2.9335167
2.0684509 8.6618118 -0.99260211
3.4936085 14.629779 -0.84014034
6.9500332 29.103848 0
12.195007 51.067616 2.932646
2.0615685 8.6793995 -0.99433136
3.4759288 14.633989 -0.84014034
6.9052386 29.071711 0
12.084057 50.875023 2.9207456
2.0504856 8.679369 -0.99404335
3.4654107 14.668515 -0.84188145
6.8533545 29.009125 0
0 0 0
2.0435476 8.6969528 -0.99577361
3.4554105 14.705574 -0.84376812
6.8087726 28.976849 0
8.5507145 36.390224 2.0879779
2.0330377 8.6994152 -0.99577361
3.4317272 14.684441 -0.84231699
6.7749381 28.990118 0
0 0 0
2.0266218 8.7194939 -0.99779087
3.4163344 14.6987 -0.84289759
6.7393155 28.99575 0
0 0 0
2.0166664 8.7244539 -0.99807888
3.4091039 14.748383 -0.84550983
6.7077909 29.019081 0
0 0 0
2.0090222 8.7394953 -0.99952114
3.3965197 14.775281 -0.84681594
6.6738892 29.032244 0
0 0 0
1.9984608 8.7419167 -0.99952114
3.377507 14.774312 -0.84652591
6.6359053 29.027603 0
0 0 0
3.3688691 14.818924 -0.84884816
6.6065941 29.060972 0
0 0 0
3.356117 14.845792 -0.85015428
6.5789342 29.101931 0
0 0 0
3.3364661 14.842228 -0.84971869
6.5511851 29.142866 0
0 0 0
3.3344011 14.917253 -0.85378259
6.5210757 29.173616 0
0 0 0
3.3214474 14.944098 -0.85508871
6.503325 29.260233 0
8.8156366 39.663952 2.2695379
3.3017054 14.940486 -0.85465318
0 0 0
8.7514439 39.600998 2.2653291
3.2954738 14.955163 -0.85537875
0 0 0
8.7045937 39.502247 2.2593791
3.2918606 15.025133 -0.85915262
0 0 0
7.0242162 32.060829 1.8332714
3.2781255 15.049401 -0.86031318
6.3551521 29.175589 0
6.9727535 32.010906 1.8299335
3.2670879 15.086364 -0.86219984
6.3138371 29.155273 0
6.9274697 31.988832 1.8281919
3.2428422 15.062365 -0.86060375
6.2742219 29.142529 0
6.8773284 31.943838 1.8251441
3.2371466 15.124705 -0.86394155
6.2346473 29.129728 0
6.8338313 31.929258 1.823838
3.2296841 15.179438 -0.8668443
6.204319 29.160149 0
6.7817278 31.873957 1.8202096
3.215642 15.203667 -0.86800545
6.1615415 29.131983 0
6.7389078 31.86179 1.8190485
3.1919239 15.182117 -0.86655432
6.1225882 29.121576 0
6.7073536 31.902964 1.8209351
3.1794221 15.213934 -0.86815041
6.0847344 29.116217 0
6.6698642 31.916136 1.8212258
3.1620948 15.222857 -0.86844099
6.0490203 29.121002 0
6.6381645 31.957243 1.8231124
3.1599844 15.305548 -0.87293988
6.0096188 29.107901 0
6.6069002 32.000862 1.8251441
3.1420102 15.311898 -0.8730849
5.9744434 29.115141 0
6.5739746 32.036827 1.8267407
3.1370058 15.381876 -0.87685823
5.9439392 29.145287 0
6.5368156 32.052376 1.8271757
3.1148057 15.367836 -0.87584269
5.9087181 29.152447 0
6.5022116 32.080624 1.8283368
3.1029041 15.4047 -0.87772936
5.8847933 29.215689 0
6.4624181 32.083366 1.8280469
3.097038 15.472134 -0.88135773
6.4721279 32.333351 0
6.4261966 32.103889 1.8287724
3.076313 15.465671 -0.88077718
6.4335637 32.343708 0
6.3929753 32.13966 1.8303685
3.0656853 15.510162 -0.88309938
6.3894305 32.325924 0
6.356657 32.16011 1.8310946
3.0578196 15.519652 -0.88353437
6.3704023 32.332329 0
6.3357186 32.156296 1.8306592
3.0445571 15.551389 -0.88513106
6.3308311 32.337452 0
6.3108382 32.235329 1.834723
3.045608 15.657072 -0.89093608
6.2823129 32.296547 0
0 0 0
3.0257022 15.655643 -0.8906461
2.2686012 11.738238 0
7.1672339 37.084831 2.1097479
3.011682 15.684801 -0.89209718
2.2470546 11.702631 0
7.1150689 37.055187 2.1075706
3.011229 15.785416 -0.89761221
2.2265735 11.672107 0
7.038157 36.895309 2.0979924
2.9824769 15.737983 -0.89470941
0 0 0
6.9892154 36.880802 2.0966856
2.9730732 15.792646 -0.89761221
0 0 0
6.9186902 36.751343 2.0888491
2.9573326 15.81411 -0.89862835
0 0 0
6.8513513 36.637077 2.0818822
2.1794424 11.732843 -0.66656244
0 0 0
6.7838264 36.520157 2.0747712
2.1704488 11.76357 -0.66815859
0 0 0
6.726964 36.459332 2.0708523
2.1543596 11.75596 -0.66757798
2.125946 11.600911 0
6.6622982 36.354984 2.0644667
2.1373625 11.74322 -0.66670746
2.11286 11.608598 0
6.6104555 36.31955 2.0619993
2.1199355 11.727893 -0.66569132
2.0900357 11.562481 0
6.5360613 36.158752 2.0524206
2.1030092 11.715106 -0.66482079
2.0434182 11.383144 0
6.4730835 36.059212 2.046325
2.0874839 11.709961 -0.6643852
2.0077391 11.262624 0
6.4144616 35.982601 2.0415361
2.0688047 11.686893 -0.66293412
1.9941288 11.265042 0
6.3614678 35.936596 2.0384881
2.0501826 11.663788 -0.66148245
1.9760113 11.241817 0
6.3085947 35.890514 2.0354404
1.9707205 11.332138 -0.64247012
1.9538491 11.235123 0
6.233294 35.843006 2.0321021
1.9530479 11.311468 -0.641164
1.9398298 11.234914 0
6.1948438 35.878681 2.0336988
1.9428909 11.334309 -0.6423251
1.9262532 11.237249 0
6.1457806 35.852848 2.0318122
1.9649388 11.546696 -0.6542263
1.9113636 11.231869 0
6.1081214 35.893547 2.0336988
1.9613715 11.610543 -0.65770906
1.8990916 11.241872 0
6.0742679 35.957264 2.0368915
1.9421842 11.582153 -0.65596741
1.8859366 11.246722 0
6.0381207 36.008141 2.0393589
1.8172705 10.918102 -0.61823338
1.8710635 11.241288 0
5.9920487 36.000034 2.0384881
1.7977233 10.881832 -0.61605614
1.8583283 11.248682 0
5.9523568 36.030319 2.0397944
1.7837334 10.878873 -0.61576617
1.8422078 11.235504 0
5.9159636 36.081074 2.0422616
1.7710041 10.883582 -0.61591113
1.8277954 11.23259 0
5.8761182 36.111279 2.0435677
1.761166 10.906237 -0.61707228
1.8150506 11.239923 0
5.8357944 36.138874 2.0447288
1.7566202 10.962234 -0.62012005
1.8047624 11.262667 0
5.7995229 36.192074 2.0473411
1.7576532 11.054158 -0.6251995
1.792787 11.27512 0
5.7566047 36.204193 2.0476315
1.7548227 11.123003 -0.62897283
1.7791619 11.277278 0
5.709209 36.188015 2.046325
1.747008 11.161061 -0.63100511
1.7723756 11.323127 0
5.6642747 36.187195 2.0458899
1.7311276 11.147753 -0.63013399
1.759492 11.330409 0
5.6249299 36.222248 2.0474861
1.7172612 11.147271 -0.62998897
1.7509509 11.365962 0
5.5779934 36.208473 2.046325
1.7010425 11.131355 -0.62897283
1.7419323 11.398932 0
5.521287 36.130432 2.0415361
1.6915815 11.114406 -0.62795728
1.742877 11.451439 0
5.4795194 36.002758 2.0341344
1.6808647 11.134419 -0.62897283
1.7321467 11.474123 0
5.4236012 35.927135 2.0294898
1.7128098 11.439665 -0.64609849
1.7202077 11.489075 0
5.3697987 35.864285 2.0255716
1.7241747 11.611359 -0.65567738
1.7154982 11.552927 0
5.3218799 35.839901 2.0238299
1.7108998 11.61857 -0.65596741
1.7083614 11.601332 0
5.2634282 35.743477 2.0180242
1.7032421 11.664336 -0.65843463
1.7195352 11.775918 0
5.2179832 35.73439 2.0171537
1.6958495 11.712681 -0.6610474
1.736629 11.994331 0
5.1602812 35.640381 2.0114937
1.6816958 11.714721 -0.6610474
1.733598 12.076272 0
5.1094594 35.592579 2.008446
1.6675397 11.716744 -0.6610474
1.7201053 12.08609 0
5.0635204 35.578148 2.0072849
1.6497502 11.693016 -0.65959573
1.6964113 12.023738 0
4.9962063 35.411858 1.9975609
1.6309419 11.66155 -0.65770906
1.6786377 12.002584 0
4.9462161 35.366402 1.9946581
1.6107848 11.619759 -0.65524185
1.6641338 12.004604 0
4.8902779 35.277122 1.9892881
1.5932071 11.595959 -0.65379071
1.6439595 11.965353 0
4.8349175 35.190342 1.9840636
2.3349977 17.148624 -0.96669525
1.6302035 11.972493 0
4.782227 35.121494 1.9798547
2.3080215 17.105085 -0.96408302
1.6174755 11.987348 0
4.7352695 35.093773 1.977968
2.29286 17.149061 -0.96640474
1.6012659 11.976398 0
4.6825318 35.022209 1.9736141
2.2820327 17.226519 -0.9706136
3.2631021 24.632376 0
4.6367993 35.002087 1.972163
2.259526 17.216383 -0.96988803
3.2296107 24.607914 0
4.5799627 34.896877 1.9659219
2.2434111 17.255171 -0.97191972
3.2008815 24.619543 0
4.5284142 34.830246 1.9618585
2.2278705 17.299105 -0.97424197
3.1711311 24.623392 0
4.4786916 34.776417 1.9585202
2.202364 17.265703 -0.97221029
3.1410472 24.624626 0
4.4291067 34.722527 1.9551823
2.1965129 17.303114 -0.97424197
3.1258411 24.62393 0
4.3973298 34.640133 1.9503928
2.1875958 17.401144 -0.97961199
3.0990069 24.650927 0
4.3489885 34.593857 1.9474901
2.1633577 17.377985 -0.97816032
3.066648 24.634003 0
4.2959514 34.508846 1.9424106
2.148716 17.432165 -0.98106307
3.0371985 24.64027 0
4.2583833 34.547535 1.9442973
2.134891 17.494074 -0.98440146
3.0089993 24.656837 0
4.1936598 34.364376 1.9337028
2.1193602 17.543072 -0.9870137
2.9760833 24.634623 0
4.078588 33.760639 1.8994516
2.0932248 17.504337 -0.98469144
3.1826982 26.614927 0
4.0316215 33.713943 1.8965487
2.0766542 17.545563 -0.98686868
3.1508427 26.621336 0
3.9841633 33.662025 1.893356
2.0651248 17.630636 -0.9915126
3.1156454 26.59927 0
3.9359293 33.602295 1.8897277
2.0495048 17.682163 -0.99427038
3.0867994 26.631454 0
3.8839562 33.508949 1.8842126
2.0340579 17.736246 -0.99717259
3.0546184 26.635164 0
3.8366559 33.45425 1.8808749
2.0129194 17.741282 -0.99731815
3.0244868 26.65694 0
3.7924223 33.425301 1.8789881
2.9963381 26.696777 0
3.7439165 33.357555 1.8749243
2.964365 26.702963 0
3.6970146 33.302662 1.8715864
2.9329498 26.714289 0
3.6451457 33.201206 1.8656359
2.9031963 26.741096 0
3.6016603 33.174587 1.8638942
2.8736601 26.770456 0
3.5521438 33.09108 1.8589598
2.8415866 26.776505 0
3.5107863 33.082428 1.8582342
2.811945 26.805796 0
3.4629488 33.011703 1.8540254
2.7981789 26.830784 0
3.4357274 32.944019 1.850107
2.7665579 26.841913 0
3.3911226 32.901615 1.8474941
2.7378137 26.881479 0
3.3466265 32.859161 1.8448819
2.7066333 26.897713 0
3.2965147 32.759777 1.8390769
2.6777353 26.937225 0
3.2551291 32.745632 1.8380609
2.6148913 26.966928 0
3.1599367 32.587891 1.8287724
2.5803206 26.949343 0
3.1170917 32.555477 1.8267407
2.892581 30.600309 0
3.0733502 32.51265 1.8241279
2.8507686 30.551958 0
3.0275455 32.446491 1.8202096
2.8074074 30.485416 0
2.9847636 32.411312 1.8180324
2.7651525 30.429171 0
2.9387803 32.339863 1.8138241
2.7237358 30.380657 0
2.8955247 32.296799 1.8112112
2.6824396 30.332079 0
2.8514628 32.243336 1.8080184
2.6376467 30.241962 0
2.8084373 32.200165 1.8054062
2.5973125 30.20105 0
2.7646298 32.146587 1.8022134
2.5520248 30.100449 0
2.7213948 32.098118 1.7993107
2.5098016 30.033495 0
2.6750355 32.010761 1.7942312
2.487783 29.988316 0
2.6501098 31.94504 1.7904572
2.4462457 29.926456 0
2.6081221 31.90679 1.7881356
2.3994308 29.797098 0
2.5664384 31.871065 1.7859584
2.3527265 29.665079 0
2.524229 31.827522 1.7833462
2.3073575 29.545961 0
2.313818 29.628685 1.659984
2.2666686 29.48386 0
2.275028 29.592596 1.6578068
2.2269182 29.432083 0
2.2341726 29.52796 1.6540334
2.1884551 29.395821 0
2.193284 29.460682 1.6501151
2.1529346 29.398443 0
2.1550276 29.427025 1.6480829
2.1187193 29.419195 0
2.1149902 29.367414 1.6446
2.0822515 29.408756 0
2.0738146 29.289595 1.6401006
2.0463536 29.406054 0
2.035717 29.253204 1.637924
2.008513 29.374754 0
1.9964695 29.198616 1.6347312
1.9711 29.348604 0
1.9563117 29.128414 1.6306672
1.9303274 29.270458 0
1.9170105 29.068529 1.6271839
1.8917645 29.223433 0
1.8761786 28.982666 1.6222494
1.8521632 29.158173 0
1.8395104 28.958984 1.6207983
1.8162825 29.15 0
1.8011246 28.906727 1.6177505
1.5529839 25.169235 0
1.7798196 28.845566 1.6142671
1.5227282 25.173698 0
1.7401009 28.767298 1.6097683
1.4916936 25.165129 0
1.7038027 28.743444 1.6083171
1.4605306 25.153913 0
1.6666607 28.703978 1.6059949
1.4283639 25.124491 0
1.6299118 28.669655 1.6039633
1.3959805 25.089815 0
0 0 0
1.4286003 26.247831 0
1.5441018 28.369953 1.5869826
1.3978516 26.267723 0
1.5084406 28.345856 1.5855315
1.3655705 26.258997 0
1.4728394 28.321703 1.5840799
1.3355569 26.294415 0
1.4379581 28.31049 1.5833542
1.3049439 26.319399 0
1.4020767 28.278471 1.5814676
1.2738957 26.336559 0
1.3642662 28.20488 1.5772587
1.2397429 26.288683 0
1.3276148 28.152002 1.5742109
1.2553978 27.322214 0
1.2896619 28.06793 1.5694214
1.2230814 27.339315 0
1.2543527 28.038319 1.5676798
1.1899328 27.338165 0
1.2182136 27.987904 1.5647775
1.1590997 27.391586 0
1.1820879 27.934839 1.5617298
1.134766 27.606188 0
1.1460922 27.881727 1.558682
1.1052465 27.703741 0
1.1105371 27.836351 1.5560691
1.0871809 27.670601 0
1.0904553 27.753942 1.5514252
1.0515671 27.614685 0
1.0546451 27.695515 1.5480869
1.015898 27.553518 0
1.0188823 27.634459 1.5446041
0.98084229 27.505318 0
0.98373115 27.586329 1.5418463
0.94742739 27.501276 0
0.94896668 27.545956 1.5395247
0.91393763 27.494604 0
0.91447335 27.510719 1.5374924
0.8807984 27.498287 0
0.88123137 27.511805 1.5374924
0.84773159 27.504528 0
0.84750789 27.497271 1.5366219
0.81565273 27.544556 0
0.81482035 27.516449 1.5376375
0.78266543 27.555927 0
0.78208804 27.535597 1.5386535
0.75007623 27.582863 0
0.7490986 27.546911 1.539234
0.71742332 27.60977 0
0.71628553 27.565983 1.5402502
0.68367493 27.595001 0
0.68368465 27.595394 1.5418463
0.65131229 27.637436 0
0.65083027 27.616983 1.5430075
0.585347 27.677961 0
0.58485824 27.65485 1.5450397
0.55231804 27.699453 0
0.55175304 27.67112 1.5459102
0.51948184 27.733925 0
0.51875544 27.695145 1.5472163
0.50319797 27.76026 0
0.50239998 27.716238 1.5483775
0.47049105 27.81028 0
0.46917361 27.732409 1.549248
0.43766412 27.860273 0
0.43574578 27.738155 1.5495386
0.40505654 27.933634 0
0.40215388 27.733461 1.549248
0.37220329 28.001766 0
0.36853963 27.726139 1.548813
0.31629485 26.175468 0
0.33466098 27.695385 1.5470713
0.28429881 26.142004 0
0.30091363 27.669781 1.5456197
0.25243434 26.113701 0
0.26720369 27.64155 1.5440235
0.22057274 26.077557 0
0.23351839 27.608076 1.5421369
0.18866675 26.023155 0
0.19998972 27.584955 1.5408307
0.15698685 25.984325 0
0.16647017 27.553997 1.5390891
0.12533818 25.932447 0
0.13307595 27.53339 1.537928
0.093900055 25.903959 0
0.099703513 27.504946 1.5363313
0.062562361 25.888433 0
0.066450275 27.497259 1.5358963
0.03125605 25.867672 0
0.033193756 27.471329 1.5344447
-0 25.878099 0
-0 27.450562 1.5332835
-0.031265486 25.875481 0
-0.033137247 27.424562 1.5318325
-0.062537208 25.878025 0
-0.066255607 27.416704 1.5313969
-0.093730226 25.857111 0
-0.099307932 27.395817 1.5302358
-0.12465902 25.791929 0
-0.13233502 27.380091 1.5293652
-0.14001484 25.75021 0
-0.148792 27.36442 1.5284946
-0.1708694 25.710981 0
-0.18183912 27.361614 1.528349
-0.20167027 25.676928 0
-0.21473689 27.340588 1.5271879
-0.23229475 25.632427 0
-0.24779612 27.342915 1.5273335
-0.26273179 25.58008 0
-0.28070098 27.329596 1.5266074
-0.29322195 25.543318 0
-0.31369346 27.326641 1.5264624
-0.32355759 25.501307 0
-0.34658027 27.315849 1.5258819
-0.35379225 25.459272 0
-0.37933326 27.297232 1.5248662
-0.38372913 25.404182 0
-0.41231635 27.296753 1.5248662
-0.41387287 25.369864 0
-0.44525632 27.293629 1.5247207
-0.44388884 25.332922 0
-0.4784171 27.303463 1.5253012
-0.47342625 25.275127 0
-0.51106715 27.284687 1.5242857
-0.50329155 25.240713 0
-0.54398304 27.281445 1.5241401
-0.53285426 25.195856 0
-0.57689208 27.278172 1.5239952
-0.5621928 25.145756 0
-0.60985196 27.277454 1.5239952
-0.59177911 25.111238 0
-0.642811 27.276697 1.5239952
-0.62160504 25.089691 0
-0.67576909 27.275902 1.5239952
-0.65110964 25.057713 0
-0.70865875 27.272469 1.5238502
-0.67990094 25.002277 0
-0.7417528 27.276783 1.5241401
-0.69449967 24.983648 0
-0.75844872 27.284124 1.5245757
-0.72476244 24.98539 0
-0.79156655 27.288389 1.5248662
-0.75385159 24.948084 0
-0.82469547 27.292601 1.5251563
-0.78383225 24.941946 0
-0.85783601 27.296783 1.5254468
-0.81345999 24.925379 0
-0.89124191 27.30871 1.5261724
-0.84313673 24.911375 0
-0.9242385 27.307613 1.5261724
-0.87278086 24.897337 0
-0.95768881 27.31946 1.5268979
-0.90295804 24.898863 0
-0.99060428 27.315687 1.5267529
-0 0 0
-1.0241929 27.330046 1.5276235
-0.96332717 24.901804 0
-1.0574162 27.333986 1.527914
-0.99372679 24.908426 0
-1.0907537 27.340469 1.528349
-1.023823 24.907206 0
-1.1246423 27.359901 1.5295101
-1.054248 24.913754 0
-1.1575907 27.35593 1.5293652
-1.085369 24.93586 0
-1.1915482 27.375278 1.5305263
-1.116196 24.950125 0
-1.2253215 27.389389 1.5313969
-1.1476566 24.977358 0
-1.2592504 27.406061 1.532413
-1.1790618 25.001944 0
-1.292854 27.414902 1.5329936
-1.2100255 25.016102 0
-1.3268574 27.43149 1.5340097
-1.2412827 25.035418 0
-1.3605163 27.440237 1.5345896
-1.2575816 25.058052 0
-1.3783969 27.465368 1.5360413
-1.2882588 25.064304 0
-1.4121158 27.474062 1.5366219
-1.352742 25.133883 0
-1.4808797 27.514677 1.5390891
-1.3846835 25.160816 0
-1.5148385 27.525837 1.5398147
-1.415961 25.174711 0
-1.5491185 27.54215 1.5408307
-1.4475731 25.193768 0
-1.5829929 27.550634 1.5414113
-1.4798429 25.223177 0
-1.617803 27.574636 1.5428624
-1.5120298 25.249939 0
-1.652052 27.588221 1.543733
-1.5439671 25.271479 0
-1.6842771 27.568056 1.5427175
-1.5767671 25.305954 0
-1.7977313 28.852266 1.6147027
-1.6080033 25.314421 0
-1.8330866 28.857857 1.6151383
-1.6404384 25.341019 0
-1.8689612 28.871174 1.6160089
-1.6724269 25.359793 0
-1.9055552 28.894827 1.6174605
-1.7041148 25.373339 0
-1.943079 28.931385 1.6196371
-1.73708 25.405012 0
-1.9801625 28.960125 1.6213789
-1.7704853 25.441832 0
-2.016777 28.981039 1.622685
-1.8023286 25.455254 0
-2.0539958 29.009684 1.6244266
-1.820302 25.490498 0
-2.0739276 29.04213 1.6263133
-1.8522317 25.503849 0
-2.1107116 29.062923 1.6276194
-1.8851551 25.530144 0
-2.148123 29.09145 1.6293612
-1.9169756 25.540821 0
-2.1856067 29.119926 1.6311028
-1.9480331 25.541079 0
-2.2233596 29.150944 1.6329894
-1.9837184 25.600979 0
-2.2605882 29.174137 1.6344405
-2.0183258 25.64526 0
-2.2990997 29.212831 1.6367629
-2.0497265 25.647995 0
-2.3366733 29.238527 1.6383594
-2.0836618 25.68181 0
-2.3743114 29.264164 1.6399556
-2.115546 25.68965 0
-2.412869 29.300121 1.6421329
-2.1487532 25.713015 0
-2.4493523 29.310129 1.6428584
-2.1817992 25.733736 0
-2.4874003 29.338219 1.6446
-2.2182426 25.793301 0
-2.5235152 29.342951 1.645035
-2.2491815 25.788012 0
-1.9561818 22.428621 1.2575331
-2.2807984 25.790464 0
-1.9823654 22.415888 1.2569524
-1.987325 22.166702 0
-2.0057366 22.372066 1.2546302
-2.0126951 22.148739 0
-2.0306513 22.34634 1.2533242
-2.3876352 25.927143 0
-2.0540774 22.305065 1.2511474
-2.4221044 25.957924 0
-2.0798194 22.289623 1.2504213
-2.4542027 25.962753 0
-2.1038172 22.25606 1.2486802
-2.4725983 25.989758 0
-2.8190989 29.631865 1.6625962
-2.5059969 26.007475 0
-2.8576429 29.656889 1.6641929
-2.5407054 26.038097 0
-2.8965037 29.68445 1.6659346
-2.5734446 26.047955 0
-2.9349236 29.706781 1.6673857
-2.6082835 26.078489 0
-2.9734018 29.729065 1.6688368
-2.6429379 26.10639 0
-3.011939 29.751307 1.6702884
-2.6750114 26.10836 0
-3.0513284 29.781248 1.6721752
-2.4591169 23.718521 0
-3.089186 29.795624 1.6731907
-2.4850585 23.689644 0
-2.4767692 23.610622 1.3260355
-2.5101111 23.652983 0
-2.5039244 23.594687 1.3253094
-2.5370231 23.634413 0
-2.5293822 23.563231 1.3237133
-2.5638931 23.615801 0
-2.5561688 23.544653 1.3228421
-2.592711 23.61528 0
-2.5826318 23.523474 1.3218266
-2.6223922 23.622477 0
-2.6084733 23.497095 1.3205205
-2.9609265 26.381269 0
-2.6359932 23.486177 1.3200849
-2.9930942 26.380255 0
-2.6643698 23.482975 1.3200849
-3.0288219 26.410229 0
-2.6942225 23.492643 1.3208104
-3.0619299 26.416891 0
-2.7252991 23.5126 1.3221166
-3.0827084 26.456396 0
-3.516269 30.177296 1.6969925
-3.1180215 26.481087 0
-3.5542486 30.185925 1.697718
-3.1527832 26.500555 0
-3.5937901 30.207417 1.6991698
-3.1891491 26.532896 0
-3.6358683 30.249485 1.701782
-3.2240295 26.552273 0
-3.6768005 30.281178 1.7038137
-3.2573776 26.558689 0
-3.7168667 30.305086 1.7054102
-3.2888269 26.549574 0
-3.7579534 30.33667 1.7074419
-3.8090219 30.447336 0
-3.7987995 30.365623 1.7093287
-0 0 -0
-3.8582032 30.540823 0
-3.8406982 30.402258 1.7116508
-4.0995874 32.139217 0
-3.8820331 30.433676 1.7136825
-4.015523 30.885347 0
-3.9642777 30.491196 1.7174559
-4.0552096 30.898539 0
-4.0051751 30.5173 1.7191975
-4.0983515 30.937471 0
-4.048871 30.563957 1.7221004
-4.1364193 30.937651 0
-4.0871763 30.569345 1.7226809
-4.179019 30.971321 0
-4.1321011 30.623604 1.7260187
-4.2234612 31.017822 0
-4.1722569 30.641769 1.7273253
-4.2740421 31.10808 0
-4.213521 30.667587 1.7290665
-4.3130565 31.113205 0
-4.2580662 30.71652 1.7321143
-4.3419023 31.182768 0
-4.2819986 30.75255 1.7342916
-4.3784909 31.169764 0
-4.3224068 30.77051 1.7355976
-4.4198012 31.190212 0
-4.3657813 30.808998 1.7380649
-4.4604311 31.20546 0
-4.4110928 30.860287 1.7412577
-4.4955349 31.182024 0
-4.4513445 30.875509 1.7424188
-4.5309615 31.161112 0
-4.4935083 30.903534 1.7443055
-4.5667229 31.142742 0
-4.5387626 30.952068 1.7473532
-4.6028266 31.126904 0
-4.5803404 30.97484 1.7489499
-4.6350613 31.085287 0
-4.6242785 31.012972 1.7514172
-3.5328109 23.498297 0
-4.6663842 31.038197 1.7531588
-3.555352 23.455421 0
-4.7101135 31.073631 1.7554805
-0 0 -0
-3.5860488 23.466539 0
-4.7531524 31.103882 1.7575127
-3.6179669 23.485336 0
-4.7966652 31.136631 1.7596893
-3.6631136 23.588953 0
-4.8406639 31.171896 1.7620116
-3.7197852 23.764488 0
-4.8815403 31.186562 1.7631727
-3.7541745 23.795961 0
-4.9188151 31.178076 1.7630278
-4.9361405 31.044167 0
-4.9524031 31.146442 1.7615761
-4.9732366 31.035612 0
-4.9851017 31.109657 1.759835
-4.9886794 31.012047 0
-4.9989433 31.075855 1.7580932
-3.7935619 23.40225 0
-5.0306673 31.033876 1.7560611
-3.8256116 23.420763 0
-5.0656495 31.012394 1.7551905
-3.8513732 23.400721 0
-5.1069155 31.029324 1.7564965
-3.8800709 23.398615 0
-5.1495056 31.053892 1.7582383
-3.9096277 23.401613 0
-5.194303 31.091213 1.7607055
-3.9400606 23.409702 0
-5.2379041 31.120785 1.7627372
-3.9661689 23.392097 0
-5.2833233 31.160551 1.76535
-3.9896107 23.359066 0
-5.3297181 31.205362 1.7682523
-4.0182734 23.356791 0
-5.373147 31.232187 1.7701389
-4.0402727 23.316023 0
-5.4162049 31.256395 1.7718805
-4.0621791 23.275238 0
-5.4597754 31.283102 1.7737672
-4.0898495 23.267752 0
-5.5074668 31.332781 1.77696
-4.1206822 23.278164 0
-5.5525689 31.367043 1.7792822
-4.1451526 23.25267 0
-5.5977626 31.401239 1.7816045
-4.1691074 23.224594 0
-5.6421275 31.430254 1.7836361
-4.1953154 23.209295 0
-5.6893444 31.474554 1.786539
-4.2266188 23.222134 0
-5.7338843 31.503443 1.7885706
-4.2551436 23.219568 0
-5.7785044 31.532278 1.7906028
-4.2978792 23.373116 0
-5.8046012 31.567108 1.7927796
-4.3957562 23.744062 0
-5.8526726 31.613724 1.7958273
-4.4129987 23.677332 0
-5.8927717 31.616848 1.7964078
-4.4296088 23.608047 0
-5.9324083 31.617369 1.7968434
-4.4504032 23.561762 0
-5.9677129 31.594852 1.7959723
-4.4628282 23.471998 0
-6.0058846 31.587618 1.7959723
-4.4716182 23.364346 0
-6.0538163 31.63138 1.7988751
-4.486064 23.28738 0
-6.120049 31.769478 1.8071479
-4.512217 23.271723 0
-6.1668396 31.805424 1.8096151
-4.5408311 23.268806 0
-6.2142229 31.843849 1.8122274
-4.5639291 23.23777 0
-6.2491899 31.818468 1.8112112
-4.583426 23.188837 0
-6.2508526 31.624819 1.8006167
-4.771872 23.989822 0
-6.2530699 31.436306 1.7903123
-4.7758288 23.859009 0
-6.2803402 31.375223 1.7872645
-4.7923207 23.79199 0
-6.3090119 31.321766 1.7846522
-4.7900491 23.633154 0
-6.3329186 31.245367 1.7807339
-4.79 23.487106 0
-6.3483396 31.12821 1.7744927
-4.8068681 23.425219 0
-6.3828144 31.105249 1.7736223
-4.8450956 23.396082 0
-4.8431859 23.38686 1.3340178
-4.8855691 23.448801 0
-4.8730292 23.388615 1.3344527
-4.9213748 23.478546 0
-4.9012861 23.38271 1.3344527
-4.9481287 23.464941 0
-4.9306092 23.381859 1.3347433
-4.9748573 23.451303 0
-4.9620924 23.39113 1.3356138
-5.0243707 23.544531 0
-4.9887271 23.377502 1.3351789
-5.0823107 23.675842 0
-5.0196967 23.384157 1.3359045
-5.1180549 23.702753 0
-5.049592 23.385687 1.3363395
-5.1450357 23.688929 0
-5.0806046 23.392273 1.3370656
-0 0 -0
-5.1714339 23.672525 0
-5.1077557 23.381035 1.3367749
-0 0 -0
-5.1860714 23.602715 0
-5.1371198 23.379927 1.3370656
-5.1943703 23.504948 0
-5.1687293 23.38892 1.3379362
-5.2154274 23.465631 0
-5.1975493 23.385193 1.3380811
-5.2398052 23.44154 0
-5.2269368 23.383972 1.3383716
-5.2681255 23.435192 0
-5.2597475 23.397921 1.3395327
-5.2958632 23.426264 0
-5.2874408 23.389006 1.3393872
-5.3247442 23.422392 0
-5.3168511 23.387672 1.3396778
-5.3507214 23.405792 0
-5.3480015 23.393894 1.3404033
-5.3836613 23.419592 0
-5.379756 23.402605 1.3412739
-5.4095006 23.467054 0
-5.3944793 23.40189 1.3414195
-5.4501925 23.513741 0
-5.4239244 23.400412 1.3417095
-5.4768271 23.499531 0
-5.4539652 23.401436 1.342145
-5.4951243 23.449823 0
-5.4828296 23.397356 1.34229
-5.4989877 23.339319 0
-5.5128851 23.398304 1.3427255
-5.5181856 23.29467 0
-5.5429506 23.399214 1.3431611
-7.9351082 33.31802 0
-5.5736256 23.402599 1.3437412
-7.9802089 33.328655 0
-5.6031103 23.400908 1.3440317
-8.0223017 33.32658 0
-5.6338143 23.404224 1.3446122
-8.0595045 33.304218 0
-5.6645341 23.407503 1.3451928
-8.0917435 33.261585 0
-5.6946568 23.408218 1.3456284
-8.1257448 33.226498 0
-5.7241702 23.406364 1.3459184
-8.1596746 33.191387 0
-5.753068 23.401951 1.3460634
-8.1910343 33.146137 0
-5.778224 23.382372 1.3453377
-8.2241764 33.108429 0
-9.6286974 38.762672 2.230933
-8.2603941 33.083324 0
-9.6711235 38.733368 2.2299173
-8.2921257 33.040497 0
-9.7153883 38.711575 2.2293367
-8.3244066 33.000183 0
-6.4332724 25.503218 1.4691355
-8.3373232 32.967388 0
-6.4410338 25.469097 1.4673939
-8.3688173 32.924503 0
-6.4641223 25.431074 1.4656521
-8.4034405 32.894196 0
-6.4871278 25.393034 1.4639105
-8.4360609 32.856289 0
-6.5113449 25.360014 1.4624593
-6.4945149 25.168175 0
-6.5367889 25.331999 1.4612982
-6.5183864 25.135113 0
-6.5608711 25.298935 1.4598471
-6.5454717 25.11463 0
-6.5947113 25.303558 1.4605727
-0 0 -0
-6.5698791 25.084045 0
-6.6219897 25.283007 1.4598471
-6.59621 25.060993 0
-6.6565013 25.290058 1.4607177
-6.6244893 25.045454 0
-6.6877184 25.284506 1.4608626
-6.654747 25.037432 0
-6.717598 25.273899 1.4607177
-6.686337 25.034397 0
-6.750814 25.275805 1.4612982
-6.7165813 25.026299 0
-6.7847166 25.280176 1.4620239
-6.7474952 25.020685 0
-6.8166122 25.276981 1.4623144
-6.7818055 25.02758 0
-6.8532658 25.291296 1.4636204
-6.8188772 25.044474 0
-6.8872328 25.29553 1.4643461
-2.8191555 10.305097 -0.59675384
-6.8580632 25.068857 0
-6.9232774 25.307241 1.4655071
-0 0 -0
-6.9035225 25.115755 0
-10.390918 37.803272 2.1898606
-0 0 -0
-8.8942661 32.281963 0
-10.407544 37.774445 2.1885543
-0 0 -0
-8.9284048 32.253635 0
-10.450406 37.751823 2.1879737
-0 0 -0
-8.9631882 32.227783 0
-10.486268 37.704128 2.1859422
-2.860462 10.237063 -0.59370607
-8.9937181 32.186852 0
-10.514338 37.628864 2.1823137
-2.8594849 10.186065 -0.59094828
-9.0227537 32.140877 0
-9.5688992 34.086357 1.9775325
-2.8710861 10.180103 -0.59080327
-9.0580521 32.117428 0
-10.586199 37.535831 2.1783955
-2.8770103 10.154129 -0.58949715
-9.0869217 32.071411 0
-9.0314741 31.875713 1.8505419
-2.887856 10.145652 -0.58920717
-9.1199675 32.040382 0
-9.0749636 31.882273 1.8515581
-0 0 -0
-2.9023206 10.103674 -0.58717489
-9.1808462 31.960726 0
-9.1505499 31.855259 1.8512681
-0 0 -0
-2.9130874 10.095172 -0.58688492
-9.199254 31.879597 0
-9.1962376 31.869141 1.8527192
-2.9223895 10.081661 -0.58630437
-9.2268991 31.830961 0
-9.9480095 34.318649 1.9958192
-0 0 -0
-2.932389 10.070636 -0.58586878
-9.2493486 31.764822 0
-9.9996386 34.341526 1.9978509
-2.9416375 10.05711 -0.58528823
-9.2650766 31.676197 0
-10.05134 34.364338 1.9998831
-2.9515893 10.046066 -0.5848527
-9.2894049 31.617535 0
-10.105307 34.394547 2.0023503
-0 0 -0
-2.962991 10.040003 -0.58470768
-9.3202362 31.581331 0
-10.931585 37.041336 2.1572058
-0 0 -0
-2.9721663 10.02645 -0.58412713
-9.3539534 31.55508 0
-10.981504 37.04554 2.158222
-0 0 -0
-2.9820566 10.015388 -0.58369213
-9.3831625 31.513823 0
-11.023293 37.022282 2.1576414
-0 0 -0
-2.9866195 10.008599 -0.58340156
-9.3932695 31.478222 0
-11.038971 36.99321 2.1563354
-2.9949813 9.9925404 -0.58267599
-9.4268169 31.451897 0
-11.065013 36.917622 2.1527071
-3.0085499 9.993886 -0.58296603
-9.4648132 31.440483 0
-11.090138 36.839535 2.1489336
-3.0176151 9.9802942 -0.58238548
-9.5155993 31.471371 0
-11.121861 36.783829 2.1464665
-0 0 -0
-3.026655 9.9667053 -0.58180547
-9.5710106 31.517117 0
-11.164786 36.765385 2.1461759
-3.0394528 9.9655237 -0.58195043
-9.6250286 31.557802 0
-11.193284 36.699677 2.1431282
-0 0 -0
-3.0469244 9.9469318 -0.58107936
-9.6783981 31.595917 0
-11.23686 36.683643 2.1429832
-0 0 -0
-0 0 -0
-3.0581777 9.9407616 -0.58093435
-9.730341 31.628969 0
-11.272772 36.642715 2.1413865
-3.0717225 9.942029 -0.58122492
-9.7854519 31.671886 0
-11.313205 36.616657 2.1406608
-3.0821917 9.933342 -0.58093435
-9.8422232 31.719694 0
-11.345119 36.563255 2.1383386
-0 0 -0
-3.089555 9.914731 -0.58006376
-9.8929319 31.747534 0
-11.381561 36.524715 2.1368876
-3.1007545 9.9085035 -0.57991821
-9.9468269 31.785221 0
-11.41715 36.483654 2.1352909
-3.1127248 9.9047499 -0.57991821
-10.010974 31.855108 0
-11.449541 36.432655 2.1331141
-0 0 -0
-3.1223466 9.8935547 -0.57948321
-10.090969 31.974524 0
-11.486517 36.396496 2.131808
-0 0 -0
-3.1327271 9.8848162 -0.57919264
-10.155541 32.044174 0
-11.521066 36.352867 2.1300664
-3.1430943 9.8760757 -0.57890266
-10.213981 32.093868 0
-11.556314 36.31168 2.1284697
-3.1542351 9.8697977 -0.57875764
-10.264637 32.11869 0
-11.587528 36.258099 2.126148
-0 0 -0
-3.1661584 9.8659792 -0.57875764
-10.329681 32.188034 0
-11.623388 36.219322 2.1246963
-3.173708 9.8690071 -0.57904768
-10.363465 32.226379 0
-11.63652 36.185089 2.1231003
-3.180841 9.8503342 -0.57817709
-10.421591 32.273273 0
-11.671451 36.143803 2.1215036
-3.1935415 9.8489523 -0.57832211
-10.475828 32.307686 0
-11.708703 36.109898 2.1203425
-0 0 -0
-3.2022219 9.8352032 -0.57774156
-10.535805 32.359341 0
-11.741065 36.061138 2.1183107
-0 0 -0
-3.2149103 9.8337946 -0.57788652
-10.577324 32.354008 0
-11.77494 36.017288 2.116569
-3.22679 9.8299026 -0.57788652
-10.642384 32.42033 0
-11.807917 35.97094 2.1146824
-0 0 -0
-3.23704 9.8210659 -0.57759655
-10.70273 32.471706 0
-11.842423 35.929497 2.1130857
-3.2472701 9.8122091 -0.57730597
-10.745229 32.468636 0
-11.878482 35.892963 2.1117797
-3.2550278 9.7959509 -0.57658041
-10.7664 32.401299 0
-11.915288 35.858856 2.1106186
-0 0 -0
-3.2685051 9.796936 -0.57687044
-10.845897 32.50922 0
-11.948739 35.814854 2.1088769
-3.281168 9.7954502 -0.577016
-10.938896 32.656483 0
-11.980453 35.7659 2.1068451
-3.2905159 9.7840872 -0.57658041
-10.972542 32.62598 0
-12.015379 35.726776 2.1053941
-3.2998409 9.7727165 -0.57614487
-11.007794 32.600372 0
-12.0469 35.677757 2.1033618
-3.3133171 9.7736483 -0.57643545
-9.4797592 27.963467 0
-9.4772568 27.956087 1.648809
-3.3234482 9.7647133 -0.57614487
-9.5118618 27.94706 0
-9.5143785 27.954454 1.6493895
-3.336087 9.7631559 -0.57629043
-9.5330029 27.898613 0
-9.5615892 27.982269 1.6517112
-3.3478816 9.7591181 -0.57629043
-11.164383 32.544323 0
-9.5869627 27.946123 1.6502601
-3.3588223 9.7526016 -0.57614487
-11.197768 32.513592 0
-11.856103 34.425117 2.0336988
-3.3680592 9.7411757 -0.57570988
-11.81956 34.184795 0
-11.902783 34.425495 2.0345693
-3.3832355 9.7469187 -0.57629043
-11.844642 34.123772 0
-11.929036 34.366909 2.0319571
-3.3865619 9.7375078 -0.5758549
-11.859274 34.099411 0
-11.948091 34.35479 2.031667
-3.4008956 9.7407703 -0.57629043
-11.876448 34.016258 0
-11.993016 34.350132 2.0322471
-3.4083631 9.7243862 -0.57556432
-11.43895 32.636417 0
-12.044827 34.36504 2.0339887
-3.4192491 9.7178116 -0.57541931
-11.82128 33.597134 0
-11.554239 32.838181 1.9444423
-3.4292595 9.7087774 -0.57512933
-11.859269 33.575474 0
-11.568817 32.753155 1.9402339
-3.4444616 9.7144232 -0.57570988
-11.892003 33.539043 0
-11.604911 32.729359 1.9396534
-3.4570675 9.7126999 -0.5758549
-11.917686 33.482971 0
-11.650546 32.732441 1.9406689
-3.4644303 9.6962833 -0.57512933
-11.955506 33.461193 0
-11.7067 32.764832 1.9434267
-3.4770203 9.6945333 -0.57527435
-11.987141 33.422222 0
-12.31207 34.328178 2.0370367
-3.4904904 9.6952105 -0.57556432
-12.041621 33.446892 0
-13.099027 36.383945 2.1599636
-3.4995556 9.6836615 -0.57512933
-12.095296 33.469032 0
-13.13768 36.353424 2.1590927
-3.5139098 9.6867466 -0.57556432
-12.1517 33.498425 0
-13.190459 36.361958 2.1605442
-3.5202792 9.6678486 -0.57469374
-12.216208 33.549736 0
-12.064454 33.132973 1.9695503
-3.5328493 9.6660261 -0.57483876
-12.278178 33.593616 0
-12.106265 33.123257 1.9698408
-3.5445263 9.6617508 -0.57483876
-12.337583 33.630062 0
-12.140908 33.093964 1.9689696
-3.5597897 9.6672144 -0.57541931
-12.380908 33.622459 0
-12.192558 33.110966 1.9708563
-3.5786231 9.6464043 -0.57469374
-13.120166 35.366234 0
-12.127038 32.689198 1.9474901
-3.5853546 9.6466742 -0.57483876
-13.171449 35.438801 0
-12.105145 32.569828 1.940814
-3.5961008 9.6399021 -0.57469374
-13.23154 35.469181 0
-12.120879 32.491882 1.9370406
-3.6086564 9.6379814 -0.57483876
-13.295374 35.50922 0
-12.141911 32.428555 1.9341384
-3.6175563 9.6263142 -0.57440323
-13.360243 35.551594 0
-12.186568 32.428448 1.935009
-3.631937 9.6292324 -0.57483876
-13.417885 35.574387 0
-12.221159 32.401546 1.9342834
-3.6454113 9.6297016 -0.57512933
-13.14484 34.723354 0
-12.274097 32.423203 1.93646
-3.6570442 9.6252899 -0.57512933
-13.186788 34.707443 0
-12.334493 32.464218 1.9397985
-3.6658933 9.6135778 -0.57469374
-13.218514 34.664734 0
-12.380189 32.466278 1.940814
-3.6784346 9.6115665 -0.57483876
-13.733842 35.885845 0
-12.417553 32.446445 1.940524
-3.6863189 9.5974121 -0.57425821
-13.784655 35.888649 0
-12.445569 32.402309 1.9387823
-3.7016513 9.6026487 -0.57483876
-13.842986 35.91082 0
-12.501533 32.430885 1.9413946
-3.7160652 9.605442 -0.57527435
-13.928622 36.003288 0
-12.554774 32.45211 1.9435718
-3.7304909 9.6082134 -0.57570988
-13.990953 36.034954 0
-12.604323 32.463562 1.9451685
-3.7383244 9.5940142 -0.57512933
-14.048656 36.05439 0
-12.678441 32.53788 1.9505379
-3.7480197 9.5846462 -0.57483876
-14.148128 36.180382 0
-12.716803 32.520119 1.9503928
-3.7633951 9.5897856 -0.57541931
-14.229863 36.260166 0
-12.744697 32.475704 1.9486512
-3.7730772 9.5804005 -0.57512933
-14.293692 36.293797 0
-12.753462 32.382923 1.9440073
-3.787513 9.5830774 -0.57556432
-14.356663 36.324894 0
-12.777299 32.328823 1.9416851
-3.7981324 9.5760803 -0.57541931
-14.432207 36.387352 0
-12.824974 32.335098 1.9429913
-3.8029585 9.571372 -0.57527435
-14.472447 36.42458 0
-12.841628 32.320099 1.9425557
-3.8183706 9.5764236 -0.5758549
-0 0 0
-12.903769 32.362484 1.946039
-3.8299389 9.5718031 -0.5758549
-0 0 0
-12.96603 32.40477 1.9495224
-3.8434365 9.5719862 -0.57614487
-0 0 0
-13.000331 32.377014 1.9487963
-3.8530591 9.56252 -0.5758549
-0 0 0
-13.030704 32.339596 1.9474901
-3.8636377 9.5554504 -0.57570988
-0 0 0
-13.069771 32.323826 1.9474901
-3.8771327 9.5555859 -0.57599986
-0 0 0
-15.5882 38.418697 2.3158355
-3.8916163 9.5581169 -0.57643545
-13.68091 33.601395 0
-15.652246 38.44315 2.3184476
-3.9041445 9.5558109 -0.57658041
-0 0 0
-15.721286 38.479527 2.3217854
-3.9176574 9.5558901 -0.57687044
-0 0 0
-15.797338 38.532623 2.3261395
-3.9331553 9.5607615 -0.57745099
-14.019448 34.078644 0
-15.868599 38.573582 2.3297677
-3.9466896 9.5608101 -0.57774156
-14.090405 34.133842 0
-15.953865 38.648056 2.3354282
-3.9592326 9.5584326 -0.57788652
-14.134623 34.124001 0
-16.051262 38.751175 2.3428299
-3.973772 9.5608425 -0.57832211
-14.17984 34.116508 0
-16.108046 38.755741 2.3442812
-3.9863207 9.5584297 -0.57846713
-16.138288 38.69651 0
-16.164862 38.760227 2.3457322
-3.9888406 9.5320358 -0.57716101
-16.221197 38.763397 0
-16.219709 38.759846 2.3468933
-4.013432 9.5583525 -0.57904768
-16.311348 38.846954 0
-16.272568 38.754597 2.3477645
-4.0229626 9.5487108 -0.57875764
-16.426981 38.990295 0
-16.338549 38.780396 2.3505216
-4.0395551 9.5558081 -0.57948321
-16.489279 39.006367 0
-16.449135 38.911404 2.3596649
-4.0571847 9.5652685 -0.5803538
-13.698204 32.295055 0
-16.656448 39.269447 2.3825963
-4.074141 9.5891247 -0.58195043
-16.635256 39.153664 0
-16.740116 39.400471 2.3911591
-4.0918365 9.5985317 -0.58282101
-16.715206 39.210133 0
-16.815222 39.444748 2.3950775
-4.1003647 9.5864115 -0.58238548
-16.771786 39.211449 0
-16.927246 39.574905 2.4042208
-4.1385908 9.6435385 -0.58615935
-16.861229 39.2892 0
-17.023212 39.666645 2.411042
-4.1481829 9.6337528 -0.58586878
-16.952946 39.371574 0
-17.057772 39.615025 2.4091551
-4.1897044 9.6979065 -0.5900777
-17.026308 39.410786 0
-17.116959 39.620613 2.4107513
-4.2241526 9.7452831 -0.59327048
-17.091511 39.430775 0
-13.799182 31.835245 1.9380567
-4.2639055 9.804512 -0.59718943
-17.152634 39.441116 0
-13.844893 31.83523 1.9390728
-4.2965288 9.8469753 -0.60009164
-15.938911 36.529507 0
-13.869842 31.787519 1.9371862
-4.3396831 9.9131832 -0.60444552
-15.954859 36.445847 0
-13.930122 31.820723 1.9402339
-4.3924108 10.000719 -0.61010611
-16.003071 36.436073 0
-13.971693 31.810999 1.9406689
-4.4505906 10.100019 -0.61649168
-16.061779 36.450058 0
-14.008027 31.789343 1.940379
