# .PCD v0.7 - Point Cloud Data file format
VERSION 0.7
FIELDS x y z
SIZE 4 4 4
TYPE F F F
COUNT 1 1 1
WIDTH 1643
HEIGHT 1
VIEWPOINT 0 0 0 1 0 0 0
POINTS 1643
DATA ascii
3.2314789 1.9588325 0
4.0678768 2.4658337 0.26570144
2.3898599 1.4526181 -0.92215872
2.7269235 1.6574941 -0.88042712
3.2504735 1.9757212 -0.84265959
3.9141865 2.379143 -0.76363832
3.160938 1.9212993 -0.41229969
3.1657596 1.9242299 -0.20692958
3.2268879 1.9613853 0
4.0560126 2.4653485 0.26512089
2.3691022 1.4439242 -0.91482168
2.7227702 1.6594783 -0.87973297
3.2372377 1.9730368 -0.83984572
3.891583 2.3718481 -0.75978702
3.1519864 1.9210777 -0.41143453
3.1634321 1.9280536 -0.20692958
3.2334046 1.9707006 0
4.0574641 2.4729497 0.26541087
2.3652489 1.4454981 -0.91400748
2.7378883 1.673233 -0.88527024
3.2521958 1.9875468 -0.84434879
3.194391 1.9522201 -0.6241284
3.1496627 1.9248848 -0.41143453
3.1544464 1.9278083 -0.20649402
3.2443407 1.9827462 0
4.0677805 2.4859831 0.26628199
2.3698246 1.4522305 -0.91645318
2.7487032 1.6844075 -0.88942456
3.2454631 1.9888223 -0.84322411
3.2095401 1.9668087 -0.62755215
3.1473346 1.9286891 -0.41143453
3.1499014 1.9302621 -0.20634902
3.2241905 1.9757866 0
4.0758491 2.4976835 0.26700756
2.3849149 1.4654446 -0.92297292
2.738116 1.6824739 -0.88665593
3.2387238 1.9900794 -0.84209728
3.2071612 1.9706854 -0.62755215
3.1450019 1.9324907 -0.41143453
3.154202 1.9381438 -0.20678401
3.2262399 1.9824085 0
4.0883193 2.5121253 0.2680231
2.3536787 1.4501717 -0.91156185
2.7339389 1.6844614 -0.88596177
0 0 -0
3.1960356 1.9691728 -0.62584025
3.1338563 1.9308624 -0.41028136
3.160707 1.9474058 -0.20736457
3.2149794 1.9808446 0
4.0897098 2.5197921 0.26831368
2.3729558 1.4660075 -0.91971302
2.7553811 1.7022691 -0.8935762
3.2447112 2.0045762 -0.84491116
3.1958358 1.9743811 -0.62626785
3.1381245 1.9387271 -0.41114652
3.156143 1.949859 -0.20721957
3.1926506 1.9724134 0
4.1220317 2.5465832 0.2706359
2.3816862 1.4753803 -0.92378706
2.7490609 1.7029574 -0.8921932
3.2422867 2.0084953 -0.84491116
3.2021768 1.9836487 -0.6279797
3.1335828 1.9411569 -0.41085851
3.1537848 1.9536712 -0.20721957
3.2013333 1.9831262 0
4.2603159 2.639133 0.27992427
2.3819993 1.4795599 -0.92460126
2.7640419 1.7168627 -0.89772785
3.2441783 2.0150955 -0.84603798
3.1779754 1.9739741 -0.62370086
3.1312351 1.9449418 -0.41085851
3.1492167 1.9561108 -0.20707457
3.229881 2.0062149 0
4.3454075 2.6991153 0.28572929
2.3592341 1.469373 -0.91645318
2.7257657 1.6976553 -0.88596177
3.233114 2.0136409 -0.84378648
3.1864808 1.984597 -0.62584025
3.1332695 1.951456 -0.41143453
3.1468508 1.9599146 -0.20707457
3.2142043 2.0018635 0
4.3752298 2.7249711 0.28790653
2.3448746 1.4643649 -0.91156185
2.7683966 1.7288527 -0.90049648
3.2436054 2.0256188 -0.84716266
3.1623111 1.9748508 -0.62156141
3.122134 1.9497603 -0.41028136
3.1488841 1.9664656 -0.20736457
3.2139883 2.007123 0
4.4116015 2.7550278 0.29051876
2.3808141 1.4908106 -0.92623276
2.7216551 1.7042375 -0.88596177
3.2368526 2.0268421 -0.84603798
3.1490376 1.9718546 -0.61942035
3.1285443 1.9590222 -0.41143453
3.1465056 1.970269 -0.20736457
3.2358177 2.0261941 0
4.4148784 2.7644947 0.29095432
2.3290949 1.4662726 -0.90748775
2.7069154 1.704128 -0.8825016
3.2426944 2.0414257 -0.84885186
3.1399226 1.9767262 -0.61856526
3.1259878 1.9679536 -0.41172254
3.1241431 1.9667922 -0.20620346
3.2022827 2.0159845 0
4.4037828 2.7723844 0.29066375
2.3440418 1.4796402 -0.91400748
2.7324312 1.7248051 -0.89149904
3.2294841 2.0385621 -0.84603798
3.1245031 1.9722944 -0.6159966
3.1192374 1.9689707 -0.41114652
3.1239681 1.9719567 -0.20634902
3.2020514 2.0212457 0
4.3345146 2.7360957 0.28630984
2.3777537 1.5049413 -0.92786115
2.7345889 1.7307914 -0.89288467
3.2463396 2.0546916 -0.85110343
3.1221178 1.9760684 -0.6159966
3.1102974 1.968587 -0.41028136
3.121583 1.9757301 -0.20634902
3.2127967 2.0334616 0
0 0 0
2.3467216 1.4892749 -0.91645318
2.7388442 1.7381234 -0.89495921
3.2352731 2.0531666 -0.84885186
3.1197276 1.9798394 -0.6159966
3.1079166 1.9723438 -0.41028136
3.1191936 1.9795004 -0.20634902
3.2542846 2.0652318 0
4.2511082 2.6978354 0.28123039
2.3449206 1.4921094 -0.91645318
2.71558 1.7279658 -0.88803887
3.2134986 2.0447991 -0.84378648
3.1151695 1.9822308 -0.61556906
3.1077111 1.9774848 -0.4105694
3.1167994 1.9832679 -0.20634902
3.2034779 2.0384226 0
15.497941 9.8615808 1.0260477
2.3514504 1.5002593 -0.91971302
2.7409828 1.7487864 -0.89703631
3.2217336 2.0555124 -0.84660035
3.1214285 1.9915164 -0.6172809
3.1162281 1.9881984 -0.41201168
3.1034415 1.9800404 -0.2056229
3.2163725 2.0520918 0
15.490391 9.8830919 1.0263377
2.3496358 1.5030994 -0.91971302
2.7029431 1.7291155 -0.88527024
3.2171092 2.0580359 -0.84603798
3.1103702 1.9897531 -0.61556906
3.107285 1.9877795 -0.41114652
3.1054287 1.9865921 -0.20591345
3.2226596 2.0615866 0
15.445611 9.8808022 1.024161
2.3457396 1.5046042 -0.91889888
2.7071888 1.736445 -0.8873474
3.225312 2.0687795 -0.84885186
3.1058049 1.9921253 -0.61514151
3.0939975 1.9845518 -0.40970534
3.0920923 1.9833298 -0.2051879
3.1785512 2.0387862 0
15.446779 9.9078732 1.0250316
2.351063 1.5100243 -0.92134142
2.7145829 1.7435033 -0.89011604
3.2176456 2.066607 -0.84716266
3.1153984 2.0009363 -0.6172809
3.0971463 1.9892135 -0.41028136
3.0930777 1.9866003 -0.20533291
3.2123466 2.0632036 0
15.438606 9.9158001 1.0248866
2.3388488 1.5061743 -0.91726738
2.7166886 1.7494961 -0.89149904
3.2108779 2.0677445 -0.84603798
3.1151345 2.0060878 -0.6177085
3.0990937 1.9957578 -0.41085851
3.0884924 1.9889307 -0.2051879
3.2120454 2.0684965 0
15.417875 9.9288197 1.0243061
2.3349528 1.5076599 -0.91645318
2.7398639 1.7691077 -0.89980501
3.2169154 2.077136 -0.84828955
3.114871 2.0112467 -0.61813766
3.0966799 1.999501 -0.41085851
3.0904486 1.9954774 -0.20547789
3.1964216 2.0639033 0
15.410229 9.9502583 1.024596
2.335202 1.511822 -0.91726738
2.7040291 1.7506025 -0.88873041
3.2101333 2.0782571 -0.84716266
3.1016579 2.0080295 -0.6159966
3.0942616 2.0032413 -0.41085851
3.0836771 1.9963886 -0.2051879
3.2048464 2.0748343 0
15.40474 9.9731092 1.0250316
2.3520298 1.5267527 -0.92460126
2.7040222 1.7552384 -0.88942456
3.2182739 2.0890503 -0.8499766
3.0863142 2.0033925 -0.61342961
3.0918391 2.0069785 -0.41085851
3.0790851 1.9986998 -0.2050429
3.1936054 2.0730374 0
15.375242 9.9803972 1.0238705
2.3129003 1.5053282 -0.90993345
2.7355337 1.780395 -0.90049648
3.2114923 2.090168 -0.84885186
3.0924973 2.0127213 -0.61514151
3.0872376 2.0092981 -0.4105694
3.0897305 2.0109205 -0.20591345
3.2325432 2.1038687 0
15.369707 10.003222 1.0243061
2.3669603 1.5445874 -0.93193519
2.7123744 1.7699914 -0.8935762
3.2089643 2.0940468 -0.84885186
3.092211 2.017858 -0.61556906
3.0826435 2.0116148 -0.41028136
3.0851245 2.0132337 -0.20576845
3.2082081 2.0935533 0
15.3402 10.010426 1.0231448
2.3340745 1.5271518 -0.91971302
2.7186313 1.7787617 -0.89634484
3.2149367 2.1034875 -0.85110343
3.0919166 2.0229971 -0.6159966
3.0823729 2.0167527 -0.4105694
3.0870342 2.0198026 -0.20605846
3.1904297 2.0874527 0
15.330266 10.030375 1.0232899
2.3260257 1.5259025 -0.91726738
2.722775 1.786175 -0.898422
3.2123928 2.1073706 -0.85110343
3.0916226 2.0281436 -0.61642581
3.0777733 2.0190585 -0.41028136
3.0780714 2.019254 -0.2056229
3.2248957 2.1155727 0
15.311615 10.044614 1.0228543
2.3592827 1.5518004 -0.93112099
2.7038467 1.7784345 -0.89288467
3.2119648 2.1126454 -0.85166579
3.0848761 2.0290537 -0.61556906
3.0731726 2.0213559 -0.40999335
3.0778065 2.0244038 -0.20576845
3.1766784 2.0894361 0
15.290792 10.057402 1.0222744
2.3099556 1.5233575 -0.91237915
2.7163501 1.7913646 -0.89772785
3.2030442 2.1123271 -0.8499766
3.0631371 2.0200617 -0.61171776
3.0685706 2.0236452 -0.40970534
3.0688484 2.0238283 -0.20533291
3.1958733 2.1075978 0
15.280795 10.077299 1.0224193
2.3287261 1.5397769 -0.92052722
2.7162824 1.7960331 -0.898422
3.2026153 2.1176012 -0.85054106
3.0799637 2.0365028 -0.61556906
3.0682788 2.0287766 -0.40999335
3.0729053 2.0318358 -0.20576845
3.1846409 2.1057165 0
15.262102 10.091455 1.0219837
2.3289218 1.543954 -0.92134142
2.7245631 1.8062437 -0.90188211
3.1958144 2.1186588 -0.84941423
3.0710881 2.0359716 -0.61428636
3.0615094 2.0296214 -0.40941623
3.0661123 2.0326729 -0.20547789
3.2059567 2.1253824 0
15.243399 10.10558 1.0215483
2.3064747 1.5330877 -0.91319335
2.6868622 1.7859271 -0.89011604
3.1805596 2.1140821 -0.84603798
3.0750332 2.0439398 -0.61556906
3.0633669 2.0361855 -0.40999335
3.0636539 2.0363762 -0.20547789
3.2033861 2.1292546 0
15.22469 10.11968 1.0211133
2.3128476 1.5413562 -0.91645318
2.6888735 1.7919521 -0.89149904
3.2012551 2.1334198 -0.85222811
3.066159 2.0433872 -0.61428636
3.0565956 2.037014 -0.40941623
3.052542 2.0343125 -0.20489734
3.1769869 2.1172466 0
15.212452 10.138069 1.0211133
2.3212566 1.5510142 -0.92052722
2.6908822 1.7979901 -0.89288467
3.1986749 2.1372862 -0.85222811
3.06582 2.0485156 -0.61471397
3.054132 2.0407059 -0.40941623
3.0587239 2.0437739 -0.20547789
3.1938994 2.1340952 0
15.198025 10.154995 1.0209677
2.2988508 1.5400641 -0.91237915
2.7074642 1.8138057 -0.89911348
3.19609 2.1411498 -0.85222811
3.0676038 2.0550733 -0.61556906
3.0559659 2.0472765 -0.40999335
3.0519388 2.0445786 -0.2051879
3.1480837 2.1089888 0
15.174952 10.166121 1.0202421
2.3195515 1.557996 -0.92134142
2.6990209 1.8128779 -0.89703631
3.1808491 2.1365123 -0.84885186
3.0523367 2.0501931 -0.61300206
3.0513449 2.0495269 -0.40970534
3.0537758 2.0511596 -0.20547789
3.1541746 2.1185954 0
15.164811 10.185898 1.0203871
2.3627729 1.5911733 -0.93927222
2.6885049 1.8105325 -0.89426768
3.1909065 2.1488671 -0.85222811
3.0583742 2.0596154 -0.61471397
3.0488663 2.0532122 -0.40970534
3.0426741 2.0490422 -0.20489734
3.1796727 2.1413019 0
15.152493 10.204214 1.0203871
2.3116868 1.5608335 -0.91971302
2.6759212 1.8067617 -0.89080757
3.1904194 2.1541471 -0.85279262
3.0558834 2.0633092 -0.61471397
3.0528078 2.0612326 -0.4105694
3.0466588 2.0570807 -0.20533291
3.1878655 2.1524224 0
15.140152 10.222515 1.0203871
2.3036571 1.5594676 -0.91726738
2.6820462 1.8156192 -0.8935762
3.1793978 2.152303 -0.85054106
3.0597591 2.0713131 -0.6159966
3.0460353 2.0620227 -0.40999335
3.0463207 2.0622158 -0.20547789
3.1744888 2.1489797 0
15.114882 10.232065 1.0195166
2.2935908 1.5566978 -0.91400748
2.6570146 1.8033595 -0.88596177
3.1704857 2.151861 -0.84885186
3.0551322 2.0735686 -0.61556906
3.0414035 2.0642507 -0.40970534
3.0459745 2.067353 -0.2056229
3.1589656 2.144042 0
15.10896 10.2547 1.0199521
2.3100965 1.5719811 -0.92134142
2.6859472 1.8277409 -0.89634484
3.176286 2.1614082 -0.85110343
3.035646 2.0657051 -0.6121453
3.0410433 2.0693779 -0.40999335
3.0348895 2.0651903 -0.2050429
3.180042 2.163964 0
15.098704 10.274409 1.0200971
2.2979889 1.5678078 -0.91726738
2.6878774 1.8338101 -0.89772785
3.1757689 2.1666751 -0.85166579
3.0522308 2.082391 -0.6159966
3.0342634 2.0701325 -0.40941623
3.032392 2.0688558 -0.2050429
3.1752772 2.1663396 0
15.073403 10.283862 1.0192266
2.3072436 1.5761654 -0.92134142
2.6909161 1.8382667 -0.89911348
3.1786594 2.1714625 -0.85279262
3.0509722 2.0842345 -0.6159966
3.0351539 2.0734286 -0.40970534
3.0375721 2.0750804 -0.20547789
3.1696658 2.1653187 0
15.062893 10.290032 1.018936
2.2869868 1.5663837 -0.91400748
2.67627 1.8330082 -0.89495921
3.1613569 2.1652498 -0.84885186
3.0272763 2.0734165 -0.61171776
3.0262425 2.0727084 -0.40884018
3.0457797 2.0860896 -0.20620346
3.1756358 2.1750295 0
15.059024 10.314098 1.0195166
2.3136213 1.5887362 -0.92541856
2.686466 1.8447642 -0.89911348
3.1734025 2.1791379 -0.85279262
3.0438123 2.0901496 -0.61556906
3.025866 2.0778263 -0.40912819
2.9854279 2.0500576 -0.20228511
3.1794436 2.1832862 0
15.04441 10.330817 1.0193715
2.2893043 1.5761119 -0.91645318
2.6739049 1.8408971 -0.89565337
3.1749489 2.1858497 -0.8539173
3.0433969 2.0952804 -0.6159966
3.0233531 2.0814807 -0.40912819
3.0343149 2.0890276 -0.20576845
3.1939521 2.1989326 0
15.025494 10.344566 1.018936
2.3158715 1.5985307 -0.92786115
2.6654825 1.8398498 -0.8935762
3.1702163 2.1882424 -0.85335493
3.0324204 2.0931287 -0.61428636
3.0165827 2.0821967 -0.40855217
3.0232346 2.0867882 -0.2051879
3.1762979 2.1924403 0
15.00871 10.359765 1.018646
2.28142 1.5788239 -0.91482168
2.6859519 1.8587745 -0.90119064
3.1654828 2.1906269 -0.85279262
3.0319979 2.0982506 -0.61471397
3.0119398 2.0843697 -0.40826416
3.067714 2.1229675 -0.20838068
3.1736465 2.1962764 0
14.996181 10.377892 1.018646
2.309973 1.602715 -0.92704695
2.6692736 1.8520063 -0.89634484
3.1586542 2.1915505 -0.85166579
3.0336747 2.1048367 -0.61556906
2.9987874 2.080631 -0.40682185
3.056607 2.1207476 -0.20780014
3.1816795 2.207526 0
14.983631 10.396005 1.018646
2.2978919 1.5984493 -0.92297292
2.6629109 1.8523623 -0.89495921
3.1601796 2.1982701 -0.85279262
3.0374532 2.1128998 -0.61685336
2.9941499 2.0827775 -0.40653384
3.0199122 2.1006982 -0.20547789
3.1832869 2.214344 0
14.964657 10.409649 1.0182104
2.275682 1.5870836 -0.91482168
2.6647902 1.8584516 -0.89634484
3.1596031 2.2035391 -0.85335493
3.0370016 2.1180356 -0.6172809
2.9895117 2.0849156 -0.40624583
3.0237679 2.1088061 -0.20591345
3.1549933 2.2003241 0
14.956326 10.430693 1.0185004
2.2798412 1.5940824 -0.91726738
2.6687126 1.8659842 -0.898422
3.1652677 2.2131793 -0.8556065
3.0281267 2.1172893 -0.6159966
2.9954691 2.0944548 -0.407399
3.0212176 2.1124582 -0.20591345
3.169395 2.2160652 0
14.935194 10.442801 1.0179199
2.3001778 1.6124434 -0.92623276
2.6602912 1.8648859 -0.89634484
3.1563475 2.2126253 -0.8539173
3.0339742 2.1268408 -0.6177085
3.0077558 2.1084614 -0.40941623
3.0335591 2.1265497 -0.20692958
3.1922874 2.2378197 0
14.92044 10.45935 1.0177748
2.2860911 1.6066917 -0.92134142
2.6518762 1.8637699 -0.89426768
3.1557484 2.2178972 -0.85447967
3.0188048 2.1216514 -0.61514151
2.9925132 2.1031735 -0.40768701
3.0161037 2.1197534 -0.20591345
3.1917083 2.2431703 0
14.909914 10.478864 1.0179199
2.2962744 1.6179974 -0.92623276
2.6578257 1.8727529 -0.89703631
3.1509912 2.2202466 -0.8539173
3.0351231 2.1386037 -0.61899281
2.9984269 2.112747 -0.40884018
2.9965475 2.1114225 -0.20475234
3.1741016 2.2365305 0
14.890876 10.492386 1.0174849
2.286243 1.6150665 -0.92297292
2.659663 1.8788608 -0.898422
3.1462328 2.2225876 -0.85335493
3.0325367 2.1422696 -0.61899281
2.995872 2.1163683 -0.40884018
3.015213 2.1300313 -0.20620346
3.171397 2.2403643 0
14.871818 10.505872 1.0170493
2.280252 1.6149681 -0.92134142
2.6471484 1.874819 -0.89495921
3.1414735 2.2249205 -0.85279262
3.0299461 2.1459322 -0.61899281
3.0123069 2.1334395 -0.41143453
3.0550468 2.1637096 -0.20910625
3.1729393 2.2472057 0
14.865476 10.52834 1.0174849
2.2903943 1.6263105 -0.92623276
2.6592019 1.8881849 -0.89980501
3.1387827 2.2287147 -0.85279262
3.0189786 2.143647 -0.6172809
3.0118339 2.1385736 -0.41172254
3.0375974 2.1568673 -0.20809013
3.1829493 2.2600756 0
14.850619 10.544785 1.0173393
2.2602344 1.6090068 -0.91482168
2.6671355 1.8986698 -0.90326512
3.1402235 2.23545 -0.8539173
2.9578381 2.1056142 -0.60529947
3.0008192 2.1362114 -0.4105694
3.0222919 2.1514974 -0.20721957
3.1547744 2.2458084 0
14.844219 10.567245 1.0177748
2.2844477 1.6304064 -0.92541856
2.6403348 1.8844024 -0.89495921
3.1457927 2.245147 -0.85616887
3.7701492 2.6907489 -0.77219766
3.0150781 2.1518562 -0.41287571
3.0387232 2.1687317 -0.20852569
3.1478257 2.2465978 0
14.820867 10.577627 1.0170493
2.2804601 1.631723 -0.92460126
2.6462171 1.8934308 -0.89772785
3.1410134 2.2474692 -0.8556065
3.7919474 2.713228 -0.77733326
3.0208898 2.1615179 -0.41402888
3.0255365 2.1648428 -0.20780014
3.1980195 2.2882586 0
14.805964 10.594017 1.0169044
2.2845137 1.6388007 -0.92704695
2.6337366 1.8893167 -0.89426768
3.1382954 2.2512629 -0.8556065
3.7719791 2.7058372 -0.77390957
3.0287821 2.1727033 -0.41547009
3.0524738 2.1896987 -0.2098318
3.1867936 2.2860532 0
14.788925 10.608868 1.0166137
2.2745056 1.6357876 -0.92378706
2.6457109 1.9027525 -0.89911348
3.1417553 2.2594995 -0.85729355
3.7624528 2.7058952 -0.77262521
3.0261545 2.1763613 -0.41547009
3.0413876 2.1873167 -0.20925124
3.1713479 2.280782 0
14.782427 10.631282 1.0170493
2.2614865 1.6284983 -0.91889888
2.6506705 1.9087501 -0.90119064
3.1465776 2.2658532 -0.85898274
3.7670689 2.7126694 -0.77390957
3.0227423 2.1766791 -0.41518205
3.0463936 2.1937106 -0.2096868
3.1910925 2.2979085 0
14.771788 10.637177 1.0167593
2.2675331 1.6370167 -0.92215872
2.6483622 1.9119515 -0.90119064
3.1335387 2.2622185 -0.85616887
3.767947 2.7202215 -0.77476466
3.0243082 2.1833608 -0.41575921
3.0247815 2.1837027 -0.20838068
3.1608846 2.2819605 0
14.761029 10.656537 1.0169044
2.2715542 1.6440986 -0.92460126
2.6358826 1.9077913 -0.89772785
3.1308029 2.2660031 -0.85616887
3.7667348 2.7262759 -0.7751922
3.0216677 2.1870136 -0.41575921
3.0389802 2.199544 -0.2095418
3.1707704 2.2949307 0
14.741825 10.669793 1.0164688
2.2875681 1.6599048 -0.93193519
2.6416976 1.9168683 -0.90049648
3.1342342 2.2742627 -0.85785806
3.7551272 2.7247949 -0.77348036
3.0106492 2.184587 -0.41460603
3.0489349 2.2123678 -0.21041237
3.1932719 2.3171015 0
14.733132 10.690654 1.0167593
2.2555861 1.6408621 -0.91971302
2.6292379 1.9126811 -0.89703631
3.131484 2.278048 -0.85785806
3.7642913 2.738394 -0.77604896
3.0080075 2.1882231 -0.41460603
3.0273502 2.2022943 -0.20910625
3.1778464 2.3117752 0
14.713898 10.70386 1.0163238
2.2476089 1.6392158 -0.91726738
2.6471982 1.9306424 -0.90395927
3.1205175 2.2758412 -0.8556065
3.763052 2.7444515 -0.7764765
3.0137203 2.1979525 -0.41575921
3.0288899 2.2090158 -0.20939681
3.1813529 2.3202095 0
14.707254 10.726227 1.0167593
2.2715621 1.6608934 -0.92786115
2.6185305 1.9145857 -0.89495921
3.1198144 2.2811084 -0.85616887
3.7514441 2.7429359 -0.77476466
3.0319374 2.2168555 -0.41864157
3.0367043 2.220341 -0.21012236
3.1512382 2.3040845 0
14.694283 10.743989 1.0167593
2.2655704 1.6607174 -0.92623276
2.6344314 1.9311012 -0.90119064
3.1211505 2.287878 -0.85729355
3.7543402 2.7520211 -0.77604896
3.0271723 2.2189898 -0.41835356
3.0507848 2.2362983 -0.21128348
3.1358621 2.2986619 0
14.679188 10.760196 1.0166137
2.2396624 1.6458902 -0.91645318
2.6341157 1.9357673 -0.90188211
3.1122472 2.287138 -0.8556065
3.7654941 2.7671981 -0.77904516
3.0453269 2.2379594 -0.42123592
3.0313296 2.2276731 -0.21012236
3.1498592 2.3147783 0
14.668276 10.779469 1.0167593
2.26951 1.6720517 -0.92949265
2.6378362 1.9434143 -0.90395927
3.1217513 2.2999368 -0.85898274
3.7642126 2.773267 -0.77947271
3.0426207 2.2416375 -0.42123592
3.0516417 2.2482836 -0.21171848
3.1428654 2.3154924 0
14.66151 10.801804 1.0171943
2.2316971 1.6525285 -0.91563898
2.6230452 1.9423141 -0.90049648
3.1202722 2.3105011 -0.86010957
3.7533696 2.7792974 -0.77861595
3.0288801 2.2428269 -0.42008275
3.0837922 2.2834885 -0.21433127
3.1728144 2.3494077 0
14.631191 10.834113 1.0169044
2.2435849 1.6655322 -0.92134142
2.6287539 1.9514637 -0.90326512
3.1093173 2.3082116 -0.85785806
3.7520757 2.7853651 -0.77904516
3.0303254 2.2495716 -0.4206599
3.0434718 2.2593307 -0.21171848
3.2263956 2.3951249 0
14.613913 10.848684 1.0166137
2.2395899 1.6667677 -0.92052722
2.6082828 1.9411597 -0.89703631
3.1065261 2.3119669 -0.85785806
3.7548795 2.7944903 -0.7803278
3.0234511 2.25014 -0.42008275
3.0324016 2.2568011 -0.21113792
3.1796582 2.3663938 0
14.602884 10.867889 1.0167593
2.2415402 1.6724316 -0.92215872
2.6180038 1.9533143 -0.90119064
3.1057649 2.3172367 -0.85842037
3.755619 2.8020985 -0.78118455
3.0186591 2.2522464 -0.41979474
3.0650754 2.2868781 -0.21360515
3.168453 2.3640089 0
14.591823 10.887079 1.0169044
2.2276387 1.6662534 -0.91726738
2.6055913 1.9489585 -0.89772785
3.1029625 2.3209877 -0.85842037
3.7522306 2.8066344 -0.78118455
3.0180047 2.2574399 -0.42008275
3.0997677 2.318598 -0.21621794
3.1322501 2.3428946 0
14.570333 10.898477 1.0163238
2.2414429 1.6808064 -0.92378706
2.5972188 1.9475944 -0.89565337
3.1021867 2.3262582 -0.85898274
3.7488365 2.811166 -0.78118455
3.0173421 2.2626352 -0.42037079
3.0865715 2.3145487 -0.21549238
3.1856282 2.388829 0
14.56547 10.92231 1.0169044
2.2473128 1.6894542 -0.92704695
2.6088951 1.9612796 -0.90049648
3.1014028 2.3315303 -0.85954505
3.7474871 2.8172348 -0.78161216
3.0249491 2.274055 -0.42181307
3.1190794 2.3448191 -0.21795961
3.1494555 2.367655 0
14.550187 10.938341 1.0167593
2.255137 1.699605 -0.93112099
2.6165464 1.9719846 -0.90395927
3.0985832 2.3352761 -0.85954505
3.7420323 2.8202174 -0.78118455
3.0263262 2.2808189 -0.42238909
3.1203902 2.351711 -0.21824962
3.1673799 2.3871253 0
14.53696 10.955914 1.0167593
2.2451937 1.6963687 -0.92786115
2.6041477 1.9675785 -0.90049648
3.0876501 2.3328915 -0.85729355
3.7283828 2.8170006 -0.77904516
3.0318227 2.2907109 -0.42354226
3.1362033 2.3695762 -0.21955574
3.1707246 2.395659 0
14.52371 10.973472 1.0167593
2.2549672 1.7080374 -0.93275249
2.6017685 1.9707237 -0.90049648
3.0868602 2.3381591 -0.85785806
3.741339 2.8338976 -0.78246725
3.0290527 2.2943726 -0.42354226
3.1706176 2.4016018 -0.22216797
3.1864965 2.4136293 0
14.510441 10.991013 1.0167593
2.2233739 1.6883384 -0.92052722
2.609381 1.9814564 -0.90395927
3.0880761 2.3449576 -0.85898274
3.7297421 2.8322124 -0.78075701
3.028336 2.2995934 -0.42383027
0 0 -0
3.1960099 2.426918 0
14.499217 11.010108 1.0169044
2.2302234 1.695665 -0.92378706
2.6081834 1.9830325 -0.90395927
3.0886796 2.3483593 -0.85954505
3.7443705 2.8468888 -0.78417909
3.0269463 2.3014228 -0.42383027
0 0 -0
3.1945429 2.4288485 0
14.494629 11.020436 1.0170493
2.2262092 1.6968617 -0.92297292
2.5938101 1.9770547 -0.89980501
3.0818021 2.3490119 -0.85842037
3.7348089 2.8467472 -0.78289646
3.0303364 2.3097837 -0.42469543
0 0 -0
3.2040286 2.4421756 0
14.481302 11.037943 1.0170493
2.2300508 1.7040539 -0.92541856
2.5754721 1.9680015 -0.89426768
3.0850203 2.3573637 -0.86010957
3.7293208 2.8496947 -0.78246725
3.0357637 2.3197253 -0.4258486
0 0 -0
3.172121 2.4239202 0
14.467955 11.055432 1.0170493
2.2240622 1.7037382 -0.92378706
2.5870352 1.9817929 -0.89911348
3.0781314 2.3579962 -0.85898274
3.7340262 2.8604431 -0.78417909
3.0288482 2.3202429 -0.42527148
3.15133 2.4140699 -0.22173296
3.1567979 2.4182587 0
14.464898 11.080805 1.0177748
2.2200434 1.7049204 -0.92297292
2.6144788 2.0078337 -0.90949392
3.0793145 2.3648121 -0.86010957
3.7305672 2.8649528 -0.78417909
3.0363052 2.3317826 -0.42671376
3.1422265 2.4131265 -0.2212974
3.135299 2.4078064 0
14.449439 11.096694 1.0176299
2.227772 1.715139 -0.92704695
2.5901899 1.9941608 -0.90188211
3.0744355 2.3669767 -0.85954505
3.7271028 2.8694584 -0.78417909
3.0375805 2.3386023 -0.42728978
3.1454871 2.4216785 -0.22173296
3.1509447 2.4258802 0
14.433964 11.112561 1.0174849
2.2315698 1.7223616 -0.92949265
2.5937383 2.001889 -0.90395927
3.0756001 2.3737977 -0.86067194
3.7195723 2.8708258 -0.783324
3.0245166 2.3343706 -0.4258486
3.1425586 2.4254775 -0.22173296
3.1912739 2.4630766 0
14.422581 11.13158 1.0176299
2.2158017 1.7144676 -0.92378706
2.5893278 2.0034821 -0.90326512
3.0807679 2.3837318 -0.86292344
3.7140725 2.8737488 -0.78289646
3.0237374 2.3396049 -0.42613661
3.1396255 2.4292729 -0.22173296
3.204762 2.4796717 0
14.421447 11.158537 1.0185004
2.227401 1.7277493 -0.92949265
2.5829442 2.0035369 -0.90188211
3.0678487 2.3796675 -0.86010957
3.7166767 2.8829498 -0.78417909
3.0270414 2.3480141 -0.42700177
3.1387393 2.4346557 -0.22187796
3.1626902 2.453234 0
14.407953 11.175954 1.0185004
2.2331161 1.7365084 -0.93275249
2.5844786 2.0097334 -0.90326512
3.0549364 2.3755693 -0.85729355
3.7152228 2.889019 -0.7846083
3.0242021 2.35167 -0.42700177
0 0 -0
3.1597238 2.4570537 0
14.38829 11.188575 1.0180655
2.2076249 1.7209704 -0.92297292
2.5820482 2.0128548 -0.90326512
3.0660932 2.3901956 -0.86123425
3.7117293 2.8935061 -0.7846083
3.0152369 2.3505502 -0.42613661
3.1430912 2.4502201 -0.22260351
3.1485424 2.4544697 0
14.380903 11.21074 1.0185004
2.2016451 1.7205898 -0.92134142
2.5894959 2.0236959 -0.90672529
3.0592027 2.3907726 -0.86010957
3.7082303 2.8979888 -0.7846083
3.024626 2.3637509 -0.42786694
3.123749 2.4412158 -0.2214424
3.1086679 2.4294298 0
14.361211 11.223312 1.0180655
2.1878946 1.714106 -0.91645318
2.5732305 2.0159974 -0.90188211
3.0623062 2.3991637 -0.86179662
3.704726 2.9024675 -0.7846083
3.029912 2.3737843 -0.42902011
3.1146667 2.4401855 -0.22100741
0 0 0
14.353769 11.24546 1.0185004
2.1974807 1.7259053 -0.92134142
2.5865767 2.0315018 -0.90741944
3.0594051 2.4028621 -0.86179662
3.7092915 2.9132841 -0.78632021
3.0209372 2.3726494 -0.42815495
3.1055832 2.4391305 -0.22057185
0 0 0
14.329955 11.254772 1.0177748
2.2051089 1.7362086 -0.92541856
2.5722897 2.025311 -0.90326512
3.0525105 2.4034164 -0.86067194
3.7037461 2.9161713 -0.785891
3.0241666 2.3810995 -0.42902011
3.1373386 2.4702065 -0.22303908
3.2184331 2.5340567 0
14.334718 11.286545 1.019081
2.2049477 1.7404016 -0.92623276
2.5619636 2.0222001 -0.90049648
3.0496044 2.4071031 -0.86067194
3.6982067 2.9190555 -0.78546345
3.0375214 2.3975658 -0.43132535
3.1037552 2.4498453 -0.22086185
3.1602108 2.4944067 0
14.314957 11.299032 1.018646
2.2009068 1.7415324 -0.92541856
2.5673878 2.0315213 -0.90326512
3.0526731 2.4155176 -0.86236113
3.6966879 2.9251134 -0.785891
3.0224562 2.3916078 -0.42959613
3.104872 2.4568217 -0.22115241
0 0 0
14.29925 11.314703 1.0185004
2.2297752 1.7687608 -0.93845487
2.5767279 2.0439796 -0.90741944
3.047756 2.4176209 -0.86179662
3.6951678 2.9311779 -0.78632021
3.0276697 2.4016876 -0.4307493
3.0978258 2.4573386 -0.22086185
0 0 0
14.297787 11.341665 1.0193715
2.2237711 1.76838 -0.93682653
2.5585475 2.0345998 -0.90188211
3.0428455 2.4197218 -0.86123425
3.6896083 2.9340382 -0.785891
3.022743 2.4037359 -0.43046129
3.1009576 2.4659333 -0.2212974
0 0 0
14.28204 11.357317 1.0192266
2.198441 1.7525774 -0.92704695
2.5776603 2.0548875 -0.90949392
3.0379348 2.4218142 -0.86067194
3.6920841 2.9432964 -0.7871753
3.033988 2.418668 -0.43247849
3.1040733 2.4745393 -0.22173296
0 0 0
14.266269 11.372941 1.019081
2.1982508 1.7567741 -0.92786115
2.5536232 2.0407767 -0.90188211
3.0429459 2.4318285 -0.86292344
3.682507 2.942946 -0.785891
3.0270259 2.4191058 -0.43190247
3.1092005 2.484777 -0.22231352
0 0 0
14.254552 11.391798 1.0192266
2.1999879 1.7625227 -0.92949265
2.5511553 2.0438609 -0.90188211
3.0380242 2.4339163 -0.86236113
3.6829591 2.9506066 -0.78674775
3.0341916 2.430846 -0.43334365
3.0980842 2.4820335 -0.22173296
0 0 0
14.248888 11.415512 1.0198071
2.2124131 1.7746726 -0.93519503
2.5557928 2.0501125 -0.90395927
3.0325851 2.4325686 -0.86123425
3.6911862 2.960861 -0.78888714
3.0327225 2.4326787 -0.43334365
3.0783436 2.4692733 -0.22042684
0 0 0
14.241989 11.424119 1.0198071
2.1794567 1.752569 -0.92215872
2.5513532 2.0516226 -0.90326512
3.0375643 2.4426 -0.86348581
3.6776052 2.9572771 -0.78674775
3.0338161 2.4395862 -0.4339208
3.0814269 2.4778714 -0.22086185
0 0 0
14.242344 11.452713 1.0208226
2.1754076 1.7536455 -0.92134142
2.5664489 2.0688729 -0.90949392
3.0425234 2.4526472 -0.86573732
3.6820235 2.9681628 -0.7884596
3.0369012 2.4481151 -0.43478483
3.0905724 2.4913807 -0.22173296
3.1952062 2.5757284 0
14.222425 11.465019 1.0203871
2.2002039 1.7780248 -0.93275249
2.5483446 2.0593636 -0.90395927
3.0395575 2.4563217 -0.86573732
3.6764398 2.9709978 -0.78803205
3.039978 2.4566615 -0.43564999
3.093617 2.5000081 -0.22216797
0 0 0
14.20856 11.482196 1.0203871
2.2076545 1.7884595 -0.93682653
2.5555995 2.0703359 -0.90741944
3.0326424 2.4567969 -0.86461264
3.6668613 2.9705884 -0.78674775
3.0450466 2.4668455 -0.43680316
3.096653 2.5086529 -0.22260351
0 0 0
14.204777 11.507539 1.0211133
2.1939764 1.7817739 -0.93193519
2.5550416 2.0750024 -0.90811092
3.0355833 2.4652603 -0.86629969
3.6772125 2.9863405 -0.78974229
3.0380442 2.4672589 -0.43622604
3.0895894 2.5091197 -0.22231352
3.2747376 2.6594825 0
14.194893 11.527967 1.0214032
2.2090781 1.7984723 -0.93927222
2.5486376 2.0749173 -0.90672529
3.0247204 2.4625096 -0.86404812
3.6775866 2.9940262 -0.79059905
3.0290492 2.4660337 -0.43536198
3.080508 2.5079279 -0.22187796
0 0 0
14.182966 11.54675 1.0215483
2.1954105 1.7917606 -0.93438083
2.5383615 2.0716562 -0.90395927
3.0237169 2.4677737 -0.86461264
3.6660111 2.9919751 -0.78888714
3.0420978 2.4827752 -0.43766832
3.0774755 2.5116482 -0.22187796
0 0 0
14.181086 11.573739 1.0224193
2.1722071 1.7772006 -0.92541856
2.5339093 2.0731287 -0.90326512
3.0167959 2.4682045 -0.86348581
3.6643782 2.9980266 -0.78931475
3.0471032 2.4930005 -0.43882149
3.0724292 2.5137212 -0.22173296
0 0 0
14.167091 11.590866 1.0224193
2.1872559 1.793929 -0.93275249
2.5430448 2.0857377 -0.90741944
3.015774 2.4734576 -0.86404812
3.6607528 3.0024521 -0.78931475
3.0460865 2.4983191 -0.4391095
3.0794334 2.5256693 -0.22245853
0 0 0
14.145039 11.601384 1.0218388
2.1793573 1.79186 -0.93030679
2.5288918 2.079246 -0.90326512
3.0108225 2.4754877 -0.86348581
3.6591034 3.008502 -0.78974229
3.0510571 2.5085685 -0.44026268
3.0763793 2.5293884 -0.22245853
0 0 0
14.139039 11.625069 1.0224193
2.1829143 1.7992095 -0.93275249
2.5341215 2.0886829 -0.90603375
3.0078292 2.4791238 -0.86348581
3.6554654 3.0129211 -0.78974229
3.0360446 2.5023797 -0.43853235
3.0813413 2.5397143 -0.22303908
0 0 0
14.128988 11.645447 1.0227094
2.1959815 1.8144403 -0.93927222
2.5315957 2.0917432 -0.90603375
3.0146234 2.4908471 -0.86629969
3.6597381 3.0238762 -0.79145414
3.025043 2.4994564 -0.43737918
3.0662477 2.5335019 -0.22216797
0 0 0
14.120918 11.667477 1.0231448
2.1652339 1.7934417 -0.92704695
2.5271363 2.0932019 -0.90534228
3.0077016 2.4912493 -0.86517501
3.6541066 3.0266602 -0.79102659
3.0160506 2.4981649 -0.43651515
3.0531805 2.528919 -0.2214424
0 0 0
14.104811 11.682875 1.0229999
2.1706715 1.8023722 -0.93030679
2.5188129 2.0914445 -0.90326512
3.0027363 2.4932601 -0.86461264
3.6524198 3.0327115 -0.79145414
3.0209897 2.5084164 -0.43766832
3.046128 2.5292897 -0.22115241
0 0 0
14.096676 11.704885 1.0234349
2.1532948 1.7923441 -0.92378706
2.5182178 2.096096 -0.90395927
3.0094841 2.5050128 -0.86742651
3.6487527 3.0371227 -0.79145414
3.0179565 2.5120649 -0.43766832
0 0 -0
0 0 0
14.090511 11.728559 1.0240154
2.1492317 1.7933627 -0.92297292
2.5272369 2.108778 -0.90811092
3.0044985 2.5070148 -0.86686206
3.6549411 3.0497572 -0.79359519
3.0327904 2.530622 -0.44026268
0 0 -0
0 0 0
14.090297 11.757231 1.0250316
2.1830783 1.8260838 -0.93845487
2.5169899 2.1053915 -0.90534228
2.9975729 2.5073857 -0.86573732
3.6374683 3.0426404 -0.79059905
3.0575016 2.5575144 -0.44429821
0 0 -0
0 0 0
14.066116 11.765913 1.0243061
2.1922371 1.8382518 -0.94334626
2.5355921 2.1261644 -0.91295671
3.0023289 2.5175364 -0.86798888
3.6475604 3.0585809 -0.79359519
3.028646 2.5396039 -0.44055068
0 0 -0
0 0 0
14.059854 11.789578 1.0248866
2.1748786 1.8281764 -0.93682653
2.5118947 2.1114681 -0.90534228
2.9992847 2.5211623 -0.86798888
3.6458251 3.0646362 -0.7940228
3.0018163 2.5232902 -0.43709117
0 0 -0
0 0 0
14.045598 11.806559 1.0248866
2.1499875 1.8116912 -0.92704695
2.5150988 2.1193531 -0.90741944
3.0001185 2.5280559 -0.86911356
3.6303375 3.0591111 -0.79145414
3.0225 2.5469155 -0.44055068
0 0 -0
3.245898 2.7351625 0
14.037285 11.828547 1.0253221
2.1383579 1.8063145 -0.92297292
2.5221169 2.1304834 -0.91087955
2.9951224 2.530041 -0.86855125
3.6344826 3.0701215 -0.79316604
3.0213943 2.5522332 -0.44083869
0 0 -0
0 0 0
14.026949 11.848849 1.0256121
2.1531477 1.8232704 -0.93030679
2.5080497 2.1237988 -0.90672529
2.988189 2.5303774 -0.86742651
3.632735 3.0761745 -0.79359519
3.0262036 2.5625679 -0.44199187
0 0 -0
0 0 0
14.00667 11.86075 1.0251765
2.1735542 1.8450646 -0.94008636
2.5131321 2.133322 -0.90949392
2.9851291 2.5339861 -0.86742651
3.6270528 3.0788958 -0.79316604
3.025075 2.5678949 -0.44227988
0 0 -0
0 0 0
13.976481 11.864213 1.0240154
2.1630244 1.8383759 -0.93601233
2.509933 2.1332169 -0.90880245
2.9874663 2.539077 -0.86855125
3.6349778 3.0894036 -0.7953071
3.0412662 2.5848022 -0.44487536
0 0 -0
0 0 0
13.929719 11.839006 1.0211133
2.1570354 1.8377792 -0.93438083
2.5073535 2.1362479 -0.90880245
2.9824638 2.5410388 -0.86798888
3.6273303 3.0904605 -0.79445034
3.0519168 2.6002121 -0.44689256
0 0 -0
0 0 0
13.88771 11.832233 1.019081
2.151058 1.8371769 -0.93275249
2.5028646 2.1376483 -0.90811092
2.9871197 2.5512414 -0.87024045
3.6235936 3.0948412 -0.79445034
3.062542 2.615658 -0.44891089
0 0 -0
0 0 0
13.849692 11.828754 1.0173393
2.1619735 1.8510222 -0.93845487
2.4983759 2.1390409 -0.90741944
2.9763145 2.5482388 -0.86798888
3.6257033 3.1042275 -0.79573464
3.0711639 2.6294463 -0.45064008
0 0 -0
3.4417653 2.9467449 0
13.829473 11.840415 1.0169044
2.1372287 1.8343166 -0.92867529
2.5129213 2.1567619 -0.91364825
2.9790194 2.5567992 -0.86967808
3.6200037 3.106936 -0.7953071
3.069953 2.6348445 -0.45092922
0 0 -0
0 0 0
13.809239 11.852038 1.0164688
2.1499996 1.8497936 -0.93519503
2.5046065 2.1548865 -0.91157109
2.9720719 2.5570796 -0.86855125
3.6123512 3.1079562 -0.79445034
0 0 -0
3.1057358 2.6720796 -0.22884411
3.3951778 2.9211068 0
13.800819 11.873801 1.0169044
2.1417873 1.851754 -0.93356669
2.4936962 2.1560087 -0.90949392
2.967804 2.5659146 -0.86911356
3.6164851 3.1267536 -0.79701895
0 0 -0
0 0 -0
3.514106 3.0382383 0
13.787809 11.920713 1.0180655
2.1694319 1.8802408 -0.9466061
2.4891953 2.1573789 -0.90880245
2.9685454 2.5728302 -0.87024045
3.622402 3.1395259 -0.79915839
0 0 -0
0 0 -0
12.788605 11.083849 0
13.779281 11.942465 1.0185004
2.1447692 1.8634084 -0.93682653
2.4846947 2.1587412 -0.90811092
2.957762 2.5697494 -0.86798888
3.6050391 3.1321135 -0.79616219
0 0 -0
0 0 -0
12.749665 11.077106 0
13.774654 11.967632 1.0192266
2.1443779 1.8676203 -0.93764073
2.4764073 2.1567972 -0.90603375
2.9623191 2.5799966 -0.87024045
3.6070611 3.1415267 -0.79744649
0 0 -0
0 0 -0
12.759821 11.113014 0
13.768022 11.991094 1.0198071
2.1290851 1.8588299 -0.93193519
2.485142 2.1696908 -0.91018808
2.9649436 2.588589 -0.87192965
3.6109977 3.1526361 -0.79915839
0 0 -0
0 0 -0
12.746385 11.128424 0
13.755478 12.009428 1.0199521
2.1472981 1.8793081 -0.94090056
2.4787393 2.1693845 -0.90880245
2.9541655 2.5854759 -0.86967808
3.6052485 3.1553016 -0.79872918
0 0 -0
0 0 -0
12.744682 11.154104 0
13.758554 12.04144 1.0212582
2.1320183 1.8704897 -0.93519503
2.4761162 2.1723778 -0.90880245
2.9567637 2.5940659 -0.87136513
3.6033685 3.1613533 -0.79915839
0 0 -0
0 0 -0
12.723371 11.16263 0
13.751806 12.064911 1.0218388
2.1186247 1.863274 -0.93030679
2.4866784 2.1869674 -0.91364825
2.9517212 2.5959601 -0.87080276
3.5937612 3.1606174 -0.79787409
0 0 -0
0 0 -0
12.704008 11.172838 0
13.737218 12.081518 1.0218388
2.1386194 1.8854467 -0.94008636
2.4765065 2.1833341 -0.91087955
2.9504864 2.6012037 -0.87136513
3.5899396 3.1649575 -0.79787409
0 0 -0
0 0 -0
12.690499 11.18818 0
13.74015 12.113572 1.0231448
2.1363397 1.8880293 -0.94008636
2.4663472 2.1796796 -0.90811092
2.9473412 2.6047668 -0.87136513
3.5976503 3.1794894 -0.80044103
0 0 -0
0 0 -0
12.69452 11.219015 0
13.729394 12.133604 1.0234349
2.1303532 1.8873281 -0.93845487
2.4618356 2.1809962 -0.90741944
2.9537065 2.6167557 -0.87418115
3.5938058 3.1838341 -0.80044103
0 0 -0
0 0 -0
12.679008 11.232621 0
13.706943 12.143291 1.0228543
2.1206789 1.8833361 -0.93519503
2.4723239 2.1956255 -0.91226256
2.9486372 2.6186306 -0.87361664
3.591881 3.1898837 -0.80087024
0 0 -0
3.2615442 2.8965178 -0.24364749
12.663483 11.246207 0
13.69615 12.1633 1.0231448
2.1460943 1.9105504 -0.9474203
2.4640532 2.1936116 -0.91018808
2.9492702 2.6255739 -0.87474352
3.5861013 3.1925097 -0.80044103
0 0 -0
3.244462 2.8883669 -0.24263193
12.677094 11.285724 0
13.685321 12.183291 1.0234349
2.1161215 1.8884554 -0.93519503
2.4651408 2.1999249 -0.91157109
2.9404066 2.6240585 -0.87305433
3.584162 3.1985545 -0.80087024
0 0 -0
3.2971904 2.9424572 -0.24684083
12.649855 11.288901 0
13.684162 12.211931 1.024451
2.1230538 1.8992553 -0.93927222
2.4606128 2.201231 -0.91087955
2.9353418 2.625917 -0.87249196
3.5841172 3.2063029 -0.80172539
0 0 -0
3.2955673 2.9481699 -0.24698584
12.649784 11.316326 0
13.677143 12.235387 1.0250316
2.1152353 1.8968672 -0.93682653
2.4579513 2.2042024 -0.91087955
2.9264898 2.6243711 -0.87080276
3.5840664 3.2140622 -0.80258214
0 0 -0
3.3074789 2.9660285 -0.24814695
12.647723 11.342024 0
13.668154 12.257111 1.0254672
2.1111054 1.8977709 -0.93601233
2.4478233 2.2004621 -0.90811092
2.9327631 2.6363971 -0.87361664
3.5706294 3.2098048 -0.80044103
0 0 -0
3.3309429 2.9943392 -0.25017864
12.639817 11.362519 0
13.664925 12.284037 1.0263377
2.0959566 1.8887368 -0.93030679
2.4600723 2.2168536 -0.91364825
2.9258039 2.6365402 -0.87249196
3.5800991 3.2261477 -0.80343723
3.1802263 2.865809 -0.47716188
3.3041584 2.9774883 -0.24843696
12.647347 11.39695 0
13.653936 12.304021 1.0266283
2.1039886 1.8982795 -0.93438083
2.4643223 2.2233829 -0.91572535
2.9374108 2.6502171 -0.87643051
3.5800536 3.2300279 -0.80386478
3.1900132 2.8781221 -0.47889107
3.3255103 3.0003717 -0.25017864
12.621133 11.387152 0
13.656145 12.32097 1.0273538
2.1236906 1.9207151 -0.94416046
2.4616339 2.2263589 -0.91572535
2.9210203 2.6418388 -0.87249196
3.570442 3.2291906 -0.80258214
3.213393 2.9062672 -0.48292774
3.3064651 2.9904439 -0.24901751
12.634391 11.426837 0
13.647031 12.342691 1.0277894
2.1177025 1.9199563 -0.94252896
2.44593 2.2175345 -0.91087955
2.9215872 2.6487763 -0.87361664
3.5665374 3.2335024 -0.80258214
3.305685 2.9970078 -0.49734181
3.2913027 2.9839685 -0.24814695
12.620574 11.442095 0
13.643654 12.369641 1.0286599
2.1300137 1.9358124 -0.94904864
2.4581013 2.2339869 -0.91641688
2.9202704 2.6540184 -0.87418115
3.5721247 3.2464406 -0.80472153
3.3690491 3.0618801 -0.50743121
3.3280747 3.0246415 -0.25119475
12.608664 11.459085 0
13.636389 12.393108 1.0292405
2.1057553 1.9184167 -0.93927222
2.4387112 2.221751 -0.91018808
2.9114249 2.6524098 -0.87249196
3.5644004 3.2472935 -0.80386478
3.3997591 3.0972993 -0.51261991
3.360908 3.0619047 -0.25395197
12.608277 11.486582 0
13.631007 12.418324 1.029966
2.1016054 1.9192882 -0.93845487
2.4526954 2.2399206 -0.91641688
2.9138482 2.6610677 -0.87418115
3.5623751 3.253334 -0.80429399
3.4151092 3.1188438 -0.51550227
3.3974972 3.1027596 -0.25699976
12.600148 11.507068 0
13.623667 12.441794 1.0305465
2.1047556 1.9268346 -0.94090056
2.4444339 2.2377989 -0.91433972
2.9143753 2.6680148 -0.87530583
3.5527594 3.2524343 -0.80300969
3.4075263 3.1194782 -0.51492625
3.4052489 3.1173933 -0.25787088
12.584317 11.520529 0
13.610538 12.46 1.0306916
2.0805736 1.9093226 -0.93112099
2.449122 2.2475359 -0.91710836
2.9167676 2.6766899 -0.87699503
3.5469372 3.2549906 -0.80258214
3.4094734 3.1288414 -0.51579142
3.3957343 3.1162333 -0.25743532
12.572304 11.537483 0
13.60313 12.483464 1.0312722
2.0764477 1.9101635 -0.93030679
2.4334781 2.2386024 -0.91226256
2.9116557 2.6784871 -0.87643051
3.5505586 3.2662261 -0.80429399
3.3961744 3.1242049 -0.51435024
3.418736 3.1449597 -0.25946701
12.575589 11.568522 0
13.599515 12.51045 1.0321432
2.0686855 1.9076428 -0.92786115
2.4307716 2.2415411 -0.91226256
2.904685 2.6785617 -0.87530583
3.5466094 3.2705138 -0.80429399
3.3980958 3.1335614 -0.51521426
3.3690951 3.1068184 -0.25598422
12.571174 11.592535 0
13.59967 12.540966 1.0333043
2.1099379 1.9504066 -0.9474203
2.4317493 2.2478859 -0.91364825
2.9089096 2.6889684 -0.8775574
3.5445383 3.2765377 -0.80472153
3.3886144 3.1324031 -0.51435024
3.3691511 3.1144114 -0.25627419
12.582 11.630681 0
13.584507 12.557389 1.0333043
2.0876358 1.9344739 -0.93845487
2.4216707 2.2440019 -0.91087955
2.9056585 2.6924813 -0.8775574
3.5462201 3.2860475 -0.80600423
3.3962066 3.1470399 -0.51607943
6.929358 6.4209771 -0.5276708
12.546937 11.626415 0
13.58266 12.586152 1.03432
2.1052184 1.9554998 -0.9474203
2.4391785 2.2657094 -0.91849399
2.8949564 2.6890731 -0.87530583
3.5403681 3.2885845 -0.80557668
4.5710697 4.245985 -0.6953879
6.9273076 6.4346523 -0.52810633
12.55576 11.662822 0
13.57696 12.611395 1.0350455
2.0793405 1.9361478 -0.93682653
2.4290948 2.2618165 -0.91572535
2.8879895 2.6891096 -0.87418115
3.5439067 3.2998574 -0.80728853
4.5621538 4.2479835 -0.69481188
6.911921 6.435935 -0.52752578
12.553083 11.688622 0
13.565518 12.631336 1.035336
2.0769997 1.938659 -0.93682653
2.4355283 2.2733076 -0.91918552
2.8921609 2.6995256 -0.87643051
3.539917 3.304137 -0.80728853
4.5626845 4.2587824 -0.69567591
6.8927455 6.4336472 -0.52665526
0 0 0
13.557844 12.65481 1.0359166
2.0584142 1.9259708 -0.92949265
2.43644 2.2796736 -0.92056853
2.8870432 2.7012839 -0.8758682
3.5284238 3.3013964 -0.80557668
4.5556483 4.2625265 -0.6953879
6.8944521 6.4508462 -0.52738082
0 0 0
13.550133 12.678285 1.0364971
2.0723085 1.9436725 -0.93682653
2.4153888 2.2654564 -0.91364825
2.8967519 2.7169397 -0.8798089
3.5300512 3.3109276 -0.80686098
4.5542712 4.2715707 -0.69596505
6.8866525 6.4591718 -0.52738082
12.544803 11.766099 0
13.544278 12.703534 1.0372227
2.0645547 1.9410944 -0.93438083
2.4181347 2.2735305 -0.91572535
2.8953164 2.7221766 -0.88037127
3.5260479 3.3151906 -0.80686098
4.5491066 4.2770705 -0.69596505
6.8788428 6.4674883 -0.52738082
12.530577 11.781249 0
13.540274 12.730566 1.0380933
2.0855885 1.9656235 -0.9449746
2.4245126 2.2850523 -0.91918552
2.8938723 2.7274141 -0.88093358
3.5220397 3.3194487 -0.80686098
4.5439353 4.2825637 -0.69596505
6.8823652 6.486485 -0.52825135
12.5239 11.803514 0
13.524881 12.746918 1.0380933
2.0670443 1.9528675 -0.93764073
2.4235716 2.2897015 -0.91987699
2.8794963 2.7204425 -0.8775574
3.5217545 3.3272245 -0.80771607
4.5425138 4.2916002 -0.69654107
6.863193 6.4840932 -0.52738082
12.517196 11.825788 0
13.522693 12.775743 1.0391093
2.0413556 1.9332713 -0.92704695
2.4116971 2.2840044 -0.91641688
2.889123 2.7361517 -0.8814981
3.5177317 3.3314774 -0.80771607
4.5392013 4.2988629 -0.69682908
6.8629003 6.4995279 -0.52796137
12.50668 11.844485 0
13.516678 12.801006 1.039835
2.067698 1.9629637 -0.94008636
2.4071181 2.2851911 -0.91572535
2.8747547 2.7291408 -0.87811971
3.5174308 3.3392637 -0.80857283
4.5321293 4.3025651 -0.69654107
6.853159 6.5060287 -0.52781636
12.494246 11.861379 0
13.506855 12.822698 1.0402706
2.0844231 1.9812372 -0.9482345
2.3966396 2.2779982 -0.91226256
2.8878388 2.7448814 -0.88262278
3.5191305 3.3449218 -0.80942798
4.5295291 4.3053026 -0.69654107
6.8605237 6.5209055 -0.52868694
12.498399 11.879686 0
13.512292 12.843389 1.0412866
2.0784521 1.9803478 -0.9466061
2.3957069 2.2826278 -0.91295671
2.875324 2.7396066 -0.8798089
3.507652 3.3420882 -0.80771607
4.5318141 4.3179092 -0.69769424
6.8639235 6.5399413 -0.52955747
12.491571 11.90196 0
13.502401 12.865078 1.0417216
2.0671158 1.9743172 -0.94252896
2.4002039 2.2924521 -0.91572535
2.8683333 2.7395656 -0.87868208
3.5054729 3.3481023 -0.80814528
4.5209804 4.3180208 -0.69682908
6.8409839 6.5338726 -0.52839637
12.482822 11.922433 0
13.494363 12.888563 1.0423023
2.0486629 1.9614317 -0.93519503
2.3956149 2.2936106 -0.91503119
2.8631873 2.7412739 -0.87811971
3.5014248 3.3523357 -0.80814528
4.5157595 4.3234806 -0.69682908
6.8424735 6.5511241 -0.52912247
12.475926 11.944706 0
13.490045 12.915644 1.0431733
2.0730414 1.9895787 -0.9474203
2.3946571 2.2982457 -0.91572535
2.8653743 2.7500114 -0.8798089
3.5029225 3.3618915 -0.80942798
4.5198607 4.3378868 -0.69827026
6.8233008 6.5485878 -0.52825135
12.459608 11.957972 0
13.485674 12.942727 1.0440439
2.0706358 1.9920821 -0.9474203
2.3972969 2.3063505 -0.91779983
2.8620493 2.7534716 -0.8798089
3.5025613 3.3696845 -0.81028473
4.512754 4.3415537 -0.69798225
6.8359833 6.5766463 -0.52984804
12.460155 11.987453 0
13.477515 12.966218 1.0446244
2.0504401 1.9774286 -0.93927222
2.3963194 2.310992 -0.91849399
2.8623748 2.7604523 -0.88093358
3.4947879 3.3703468 -0.80942798
4.5075049 4.347003 -0.69798225
6.8336444 6.5903144 -0.53028357
12.451283 12.007921 0
13.473057 12.993313 1.045495
2.0515997 1.9833372 -0.94090056
2.3863103 2.306911 -0.91572535
2.855387 2.76038 -0.8798089
3.4944079 3.378139 -0.81028473
4.504107 4.3542423 -0.69827026
6.8238029 6.5967555 -0.53013802
12.444242 12.030186 0
13.461087 13.013199 1.0457855
2.031456 1.9686178 -0.93275249
2.4051337 2.3307366 -0.92402864
2.8648241 2.7762077 -0.88374966
3.4829495 3.3752129 -0.80857283
4.495131 4.3560848 -0.69769424
6.8139629 6.6031895 -0.52999306
12.440913 12.056084 0
13.458418 13.042114 1.0468017
2.0592124 2.0003462 -0.9466061
2.3951175 2.3266487 -0.92126
2.855998 2.7743542 -0.88206047
3.4880736 3.3883607 -0.81071228
4.5065598 4.3777313 -0.70028859
6.8115726 6.6168513 -0.53042859
12.428202 12.072919 0
13.451966 13.067417 1.0475272
2.0249166 1.971792 -0.93193519
2.3725386 2.3102937 -0.91364825
2.8544624 2.7795739 -0.88262278
3.4839768 3.3925729 -0.81071228
4.4901519 4.3723502 -0.6985594
6.807292 6.6286988 -0.53071856
12.422926 12.097004 0
13.439887 13.087284 1.0478172
2.0455239 1.9966793 -0.94252896
2.3984697 2.3411973 -0.92472279
2.8511016 2.783021 -0.88262278
3.4762046 3.3931973 -0.80985713
4.4941182 4.3868041 -0.70000058
6.7992773 6.6369195 -0.53071856
12.419477 12.122916 0
13.433359 13.112587 1.0485427
2.0289838 1.9853275 -0.93601233
2.3741212 2.3230386 -0.91641688
2.8495512 2.7882392 -0.88318515
3.4812744 3.4063702 -0.81199658
4.4888144 4.3922315 -0.70000058
6.7949715 6.6487684 -0.53100914
12.40482 12.137914 0
13.424934 13.136079 1.0491233
2.0689247 2.0293081 -0.95556837
2.380266 2.3346877 -0.91987699
2.8352997 2.7810085 -0.8798089
3.4716563 3.4051797 -0.81071228
4.4798074 4.3940263 -0.69942343
6.7869325 6.6569738 -0.53100914
12.388288 12.151073 0
13.423892 13.166846 1.0502845
2.0541394 2.0196817 -0.949866
2.3649189 2.325248 -0.91503119
2.8446219 2.7969041 -0.88374966
3.4657104 3.4075739 -0.81028473
4.4763441 4.4012547 -0.69971257
6.7844372 6.6706295 -0.53144413
12.368029 12.160558 0
13.407973 13.183057 1.0502845
2.0270498 1.9978693 -0.93845487
2.3656847 2.3316293 -0.91641688
2.8466642 2.8056848 -0.88543671
3.4689038 3.418967 -0.81199658
4.4728632 4.408474 -0.70000058
6.7819257 6.6842961 -0.53187972
12.375568 12.197415 0
13.397588 13.204722 1.05072
2.0228777 1.9985816 -0.93764073
2.3824916 2.3538764 -0.92402864
2.8342361 2.8001952 -0.88262278
3.4647701 3.423156 -0.81199658
4.46385 4.4102364 -0.69942343
6.7701507 6.6888371 -0.53158969
12.375631 12.226993 0
13.394564 13.233686 1.0517361
2.0362647 2.0166757 -0.9449746
2.3725157 2.3496921 -0.92126
2.8362684 2.8089833 -0.88431197
3.4606314 3.42734 -0.81199658
4.4658685 4.4229069 -0.7005766
6.7602119 6.695179 -0.53144413
12.344201 12.22545 0
13.393327 13.264482 1.0528967
2.0653954 2.0504756 -0.95964241
2.3714602 2.3543296 -0.92195415
2.840085 2.8195691 -0.88656354
3.4619477 3.4369397 -0.81327927
4.45502 4.4228382 -0.69971257
6.7521176 6.7033424 -0.53144413
12.373746 12.284362 0
13.390199 13.293472 1.0539128
2.0664234 2.0564599 -0.96127391
2.3686137 2.3571935 -0.92195415
2.8312712 2.81762 -0.88487434
3.4523387 3.435693 -0.81199658
4.4588375 4.4373388 -0.70115376
6.7532272 6.7206659 -0.53217024
12.345979 12.286452 0
13.377814 13.313312 1.0542034
2.0306892 2.0257878 -0.9457888
2.3835216 2.3777685 -0.92887443
2.8206692 2.8138609 -0.88262278
3.4481847 3.439862 -0.81199658
4.4479775 4.4372416 -0.70028859
6.7487774 6.7324877 -0.53246027
12.340342 12.310556 0
13.370914 13.33864 1.0549289
2.0247478 2.0247478 -0.94416046
2.3646827 2.3646827 -0.92264563
2.819062 2.819062 -0.88318515
3.4476528 3.4476528 -0.81285167
4.4462738 4.4462738 -0.70086575
6.7369661 6.7369661 -0.53217024
12.319936 12.319936 0
13.363972 13.363972 1.0556545
2.0484786 2.0534348 -0.95638257
2.3494194 2.3551037 -0.91779983
2.812068 2.818872 -0.88206047
3.439862 3.4481847 -0.81199658
4.4372416 4.4479775 -0.70028859
6.7324877 6.7487774 -0.53246027
12.314229 12.344024 0
13.355155 13.387468 1.0562351
2.0081713 2.0203404 -0.93927222
2.3769851 2.3913894 -0.93026012
2.819488 2.8365736 -0.88599902
3.4390306 3.4598706 -0.81327927
4.430994 4.4578452 -0.7005766
6.7202449 6.7609687 -0.53246027
12.30468 12.379245 0
13.349184 13.430078 1.0576861
2.0005062 2.0174987 -0.93682653
2.356426 2.3764417 -0.92333716
2.8142712 2.8381758 -0.88543671
3.4348474 3.4640234 -0.81327927
4.4310694 4.4687076 -0.70144176
6.7175612 6.774621 -0.5328958
12.311703 12.41628 0
13.340264 13.453578 1.0582668
2.0119722 2.0339718 -0.94334626
2.3323812 2.3578842 -0.91503119
2.8108397 2.8415742 -0.88543671
3.4342735 3.4718249 -0.81413603
4.4220324 4.4703841 -0.70086575
6.7130218 6.7864242 -0.53318584
12.298519 12.432995 0
13.334967 13.480775 1.0591378
2.0112474 2.0381589 -0.94416046
2.3401067 2.3714185 -0.91918552
2.8056211 2.8431616 -0.88487434
3.4336786 3.4796228 -0.81499112
4.4238944 4.483088 -0.70201892
6.7175946 6.8074789 -0.53420192
12.279828 12.444138 0
13.327792 13.506124 1.0598633
1.9914476 2.0229774 -0.93601233
