# .PCD v0.7 - Point Cloud Data file format
VERSION 0.7
FIELDS x y z
SIZE 4 4 4
TYPE F F F
COUNT 1 1 1
WIDTH 1723
HEIGHT 1
VIEWPOINT 0 0 0 1 0 0 0
POINTS 1723
DATA ascii
-6.9534521 -2.2500281 0.40822089
-2.4036114 -0.78098065 -0.83333141
-0 -0 -0
-2.535095 -0.82370234 -0.59050018
-2.6840427 -0.87209839 -0.47049597
-6.8558993 -2.2276168 -0.80349231
-6.9063544 -2.2440107 -0.40561476
-6.9227405 -2.2493348 0
-6.9507279 -2.2584286 0.40822089
-2.4073608 -0.78541613 -0.83495981
-0 -0 -0
-2.541347 -0.82912993 -0.59218937
-2.6634634 -0.86897111 -0.46707222
-6.8581157 -2.2375021 -0.80406833
-6.9036379 -2.2523539 -0.40561476
-6.9175458 -2.2568915 0
-6.9455261 -2.2660203 0.40807587
-2.3993704 -0.78601825 -0.83251721
-0 -0 -0
-2.5210261 -0.82587188 -0.5876863
-2.6526535 -0.86899209 -0.46536034
-6.8627834 -2.2482035 -0.80493349
-6.903388 -2.2615051 -0.40576035
-6.919755 -2.2668672 0
-6.9551272 -2.2784548 0.40880144
-2.3585076 -0.77578878 -0.8186636
-0 -0 -0
-2.5248585 -0.83050686 -0.58881319
-2.6564832 -0.87380242 -0.4662171
-6.8649712 -2.2581091 -0.80550951
-6.905582 -2.2714672 -0.40605032
-6.9268999 -2.2784793 0
-6.9573011 -2.2884793 0.40909144
-2.397464 -0.79181427 -0.83251721
-0 -0 -0
-2.5238531 -0.83355707 -0.58881319
-2.6481104 -0.8745957 -0.4649328
-6.8720617 -2.2696469 -0.80666268
-6.9052973 -2.2806237 -0.40619534
-6.9290891 -2.2884815 0
-6.9520659 -2.2960701 0.40894642
-2.4082332 -0.7985996 -0.8365913
-0 -0 -0
-2.546957 -0.84460217 -0.59444094
-2.6641102 -0.88345158 -0.46792898
-6.8668613 -2.2771354 -0.80637467
-6.8976088 -2.2873316 -0.40590534
-6.9189057 -2.294394 0
-6.9640799 -2.3093743 0.40981698
-2.367403 -0.78823626 -0.82273763
-0 -0 -0
-2.5170052 -0.83804691 -0.5876863
-2.6459892 -0.88099259 -0.4649328
-6.8493857 -2.2805302 -0.80464548
-6.9096274 -2.3005879 -0.40677589
-6.928472 -2.3068624 0
-6.963757 -2.3186107 0.40996253
-2.3500378 -0.78561008 -0.8170321
-0 -0 -0
-2.5304542 -0.84592265 -0.59106469
-2.635184 -0.88093352 -0.46322092
-6.8613386 -2.2937233 -0.80637467
-6.9093142 -2.3097615 -0.40692145
-6.9232135 -2.3144081 0
-6.9683366 -2.3294923 0.41039756
-2.4076633 -0.8081097 -0.83740544
-0 -0 -0
-2.5053372 -0.84089303 -0.58543479
-2.6341178 -0.88411701 -0.46322092
-3.5484681 -1.1910101 -0.41720039
-6.9139013 -2.3205864 -0.40735644
-6.9278164 -2.3252568 0
-6.972909 -2.3403919 0.41083312
-2.3954635 -0.80562556 -0.83333141
-0 -0 -0
-2.4879773 -0.83673912 -0.58149624
-2.6384447 -0.88734329 -0.46407604
-3.5330338 -1.1882052 -0.41547009
-6.907577 -2.323108 -0.40706646
-6.9264102 -2.3294418 0
-6.9690332 -2.3437765 0.4106881
-2.4132221 -0.81484503 -0.83985114
-0 -0 -0
-2.4845502 -0.83892953 -0.58093172
-2.6422396 -0.89217472 -0.4649328
-3.5266991 -1.19082 -0.41489404
-6.9121432 -2.3339441 -0.40750146
-6.933444 -2.3411365 0
-6.9711156 -2.3538566 0.41097811
-2.3349929 -0.7915746 -0.81295806
-0 -0 -0
-2.4715049 -0.8378529 -0.57811785
-2.6192815 -0.88794988 -0.4610815
-3.5154595 -1.1917589 -0.41374087
-6.9167032 -2.3447981 -0.40793702
-6.9404688 -2.3528547 0
-6.9805775 -2.3664517 0.41170421
-2.3316972 -0.79359984 -0.81214386
-0 -0 -0
-2.4873309 -0.84657019 -0.58205855
-2.6157789 -0.89028782 -0.46065396
-3.4748402 -1.1826718 -0.40912819
-6.9138651 -2.3531537 -0.40793702
-6.9400916 -2.3620801 0
-6.9727888 -2.3732085 0.41141367
-2.3494473 -0.80281013 -0.8186636
-0 -0 -0
-2.5007279 -0.85450298 -0.58543479
-2.6122651 -0.89261538 -0.46022475
-3.4783084 -1.1885439 -0.40970534
-6.9183955 -2.3640275 -0.40837258
-6.929842 -2.3679388 0
-6.9772949 -2.3841536 0.41184923
-2.3858724 -0.81847745 -0.83169991
-0 -0 -0
-2.458838 -0.84350842 -0.57586628
-2.6014719 -0.89243919 -0.45851287
-3.4475114 -1.1826744 -0.40624583
-6.920445 -2.3740699 -0.40866256
-6.9442101 -2.3822227 0
-6.9817758 -2.3951094 0.41228423
-2.3381529 -0.80526614 -0.81540376
-0 -0 -0
-2.4674265 -0.84978843 -0.57811785
-2.6028259 -0.89642024 -0.45894209
-3.4338546 -1.1826289 -0.40480465
-6.9175715 -2.3824303 -0.40866256
-6.9437847 -2.3914583 0
-6.9837947 -2.4052379 0.41257477
-2.3441792 -0.81051141 -0.8178463
-0 -0 -0
-2.4447877 -0.84529728 -0.57305241
-2.5993078 -0.89872336 -0.45851287
-3.4104252 -1.1791712 -0.4022103
-6.9171505 -2.3916385 -0.40880811
-6.9384327 -2.3989971 0
-6.9735136 -2.4111264 0.41213924
-2.3128459 -0.80280787 -0.80725253
-0 -0 -0
-2.4629676 -0.85491633 -0.57755548
-2.600652 -0.90270764 -0.45894209
-3.3821173 -1.1739607 -0.39903879
-6.9216127 -2.4025488 -0.40924314
-6.9478197 -2.4116452 0
-6.9828668 -2.4238105 0.41286477
-2.3375502 -0.81454897 -0.8162179
-0 -0 -0
-2.4451349 -0.8520382 -0.57361472
-2.5801663 -0.89909166 -0.45551834
-3.3440573 -1.1652792 -0.39471415
-6.9211655 -2.4117677 -0.40938869
-6.9449005 -2.4200385 0
-6.9799328 -2.432246 0.41286477
-2.3645599 -0.82716626 -0.82599753
-0 -0 -0
-2.4417074 -0.85415387 -0.57305241
-2.5790782 -0.90220863 -0.45551834
-3.3353298 -1.1667593 -0.39385009
-6.9231472 -2.4218433 -0.4096787
-6.9542518 -2.4327242 0
-6.9818993 -2.4423957 0.41315535
-2.3472326 -0.82428938 -0.820292
-0 -0 -0
-2.428689 -0.8528949 -0.57023853
-2.580406 -0.90617406 -0.45594591
-3.3265939 -1.1682167 -0.39298493
-6.9251146 -2.4319272 -0.40996867
-6.9439383 -2.4385376 0
-6.9838414 -2.4525506 0.41344532
-2.3345821 -0.823017 -0.8162179
-0 -0 -0
-2.4324448 -0.85751683 -0.57136321
-2.5720437 -0.90673 -0.45466158
-3.2934709 -1.1610569 -0.3892374
-6.9221706 -2.4402931 -0.40996867
-6.9532566 -2.4512517 0
-6.9906754 -2.464443 0.4140259
-2.3079536 -0.8167662 -0.80725253
-0 -0 -0
-2.4362023 -0.86215234 -0.57249004
-2.554013 -0.90384471 -0.45166704
-3.2628059 -1.1546807 -0.38577789
-6.9290156 -2.4521229 -0.41054925
-6.9552011 -2.4613898 0
-6.9925961 -2.4746237 0.41431645
-2.3465559 -0.83361906 -0.82110614
-0 -0 -0
-2.4519119 -0.87104702 -0.57642865
-2.5625949 -0.91036743 -0.45337892
-3.2516594 -1.155159 -0.38462472
-6.928503 -2.4613657 -0.41069481
-6.9448624 -2.4671774 0
-6.9920473 -2.4839399 0.41446146
-2.3292577 -0.83064485 -0.81540376
-0 -0 -0
-2.4269295 -0.86547595 -0.57080084
-2.5518215 -0.91001409 -0.45166704
-3.2380824 -1.1547441 -0.38318354
-6.9328594 -2.4723516 -0.4111298
-6.9492326 -2.4781904 0
-6.9963856 -2.4950058 0.41489702
-2.3259184 -0.83262324 -0.8145864
-0 -0 -0
-2.4115331 -0.86327124 -0.56742465
-2.55072 -0.91309679 -0.45166704
-3.2172036 -1.151682 -0.3808772
-6.927423 -2.479852 -0.41098478
-6.9535861 -2.4892178 0
-6.9933658 -2.5034578 0.41489702
-2.3127804 -0.83265221 -0.81051236
-0 -0 -0
-2.424304 -0.87280315 -0.57080084
-2.5418127 -0.91510886 -0.45038274
-3.1980736 -1.1513773 -0.37885889
-6.9375906 -2.4976864 -0.41185591
-6.9588575 -2.505343 0
-6.9888167 -2.516129 0.41489702
-2.3047969 -0.8329252 -0.80806673
-0 -0 -0
-2.3993559 -0.86709762 -0.56517309
-2.5310481 -0.91468954 -0.44867086
-3.1820896 -1.149968 -0.37712967
-6.9345675 -2.5060673 -0.41185591
-6.9582705 -2.5146332 0
-6.9979882 -2.5289867 0.41562256
-2.3154128 -0.83992612 -0.81214386
-0 -0 -0
-2.3959107 -0.86912715 -0.56460857
-2.5347626 -0.91949624 -0.44952598
-3.1758304 -1.1520463 -0.37655255
-6.9461861 -2.5197594 -0.41272646
-6.9601154 -2.5248122 0
-6.9949274 -2.5374405 0.41562256
-2.3422565 -0.85286784 -0.82192034
-0 -0 -0
-2.3829234 -0.86767554 -0.5617947
-2.53124 -0.92168087 -0.44909841
-3.1477087 -1.1461509 -0.37338215
-6.9406967 -2.5272624 -0.41258147
-6.9692845 -2.5376718 0
-6.9967346 -2.547667 0.41591257
-2.294805 -0.83873147 -0.80562413
-0 -0 -0
-2.3818734 -0.87055421 -0.5617947
-2.5277157 -0.92385834 -0.44867086
-3.1438947 -1.1490664 -0.37309414
-6.9400764 -2.5365381 -0.41272646
-6.9662132 -2.5460908 0
-7.0034132 -2.5596874 0.41649312
-2.3030715 -0.84490877 -0.80888402
-0 -0 -0
-2.3832028 -0.8743059 -0.56235707
-2.5145497 -0.92249209 -0.44653144
-3.135217 -1.1501911 -0.37222898
-6.9492016 -2.549396 -0.41345203
-6.9655819 -2.5554054 0
-7.0027618 -2.5690453 0.41663867
-2.2765338 -0.8382954 -0.79991859
-0 -0 -0
-2.35115 -0.86577159 -0.55504006
-2.5158401 -0.92641592 -0.44695899
-3.1119826 -1.1459355 -0.36963463
-6.946116 -2.5577908 -0.41345203
-6.9600396 -2.5629179 0
-7.0020885 -2.5784018 0.41678369
-2.2894247 -0.84618509 -0.80480683
-0 -0 -0
-2.4025397 -0.88799316 -0.56742465
-2.5074928 -0.9267844 -0.44567469
-3.1203001 -1.1532817 -0.3707878
-6.9503345 -2.5688853 -0.41388759
-6.9618249 -2.5731323 0
-6.9965329 -2.5859606 0.41663867
-2.2698712 -0.84207678 -0.79829025
-0 -0 -0
-2.363349 -0.87675518 -0.55841845
-2.5063713 -0.92981356 -0.44567469
-3.0825272 -1.1435559 -0.36646312
-6.9520931 -2.5790875 -0.4141776
-6.9684706 -2.5851631 0
-7.003139 -2.5980244 0.41721869
-2.275794 -0.84740376 -0.80073279
-0 -0 -0
-2.3932409 -0.89113575 -0.56573546
-2.4956231 -0.92925823 -0.44396281
-3.0908387 -1.1508899 -0.3676163
-6.9538465 -2.5893011 -0.41446814
-6.9629054 -2.592674 0
-7.0073023 -2.6092055 0.41765425
-2.2539339 -0.84236646 -0.79339892
-0 -0 -0
-2.3802643 -0.88958013 -0.56292152
-2.5137353 -0.93946248 -0.44738656
-3.0724931 -1.148288 -0.3655991
-6.9580173 -2.6004314 -0.4149037
-6.9719543 -2.6056399 0
-7.0138803 -2.6213093 0.4182348
-2.2529144 -0.84508926 -0.79339892
-0 -0 -0
-2.40535 -0.90226936 -0.56911165
-2.4981818 -0.93709135 -0.44481957
-3.0468817 -1.1429138 -0.3627156
-6.9597311 -2.6106603 -0.41519371
-6.9688005 -2.6140623 0
-7.0131383 -2.6306939 0.41837981
-2.2657747 -0.85303766 -0.79829025
-0 -0 -0
-2.3567083 -0.88727307 -0.55785614
-2.487438 -0.93649125 -0.44310769
-3.0575991 -1.1511503 -0.36415681
-6.9614305 -2.6208973 -0.41548371
-6.9778128 -2.6270649 0
-7.014823 -2.6409988 0.41867036
-2.2901683 -0.86538243 -0.80725253
-0 -0 -0
-2.3722656 -0.8964045 -0.5617947
-2.4814973 -0.93767965 -0.44225094
-3.0537889 -1.1539307 -0.36386877
-6.9606962 -2.630228 -0.41562927
-6.9794974 -2.6373324 0
-7.0164833 -2.6513081 0.41896036
-2.2798769 -0.86464328 -0.80399269
-0 -0 -0
-2.3379245 -0.88665777 -0.55391538
-2.4779644 -0.93976796 -0.44182339
-3.0354612 -1.1511985 -0.36185047
-6.9599404 -2.6395574 -0.41577426
-6.9714437 -2.6439199 0
-7.0254297 -2.6643941 0.41968647
-2.2187767 -0.84453899 -0.78280514
-0 -0 -0
-2.3463502 -0.89309758 -0.55616695
-2.4768271 -0.94276136 -0.44182339
-3.0050697 -1.1438278 -0.35839206
-6.9664598 -2.6516626 -0.41635481
-6.975543 -2.6551199 0
-7.0124912 -2.6691835 0.41910592
-2.2708609 -0.86750674 -0.80155009
-0 -0 -0
-0 -0 -0
-2.4613025 -0.94025868 -0.4392564
-3.010927 -1.1502244 -0.35925612
-6.9656758 -2.6610045 -0.41649982
-6.9771876 -2.6654022 0
-7.014111 -2.6795077 0.41939592
-2.2634091 -0.86622745 -0.79910445
-0 -0 -0
-0 -0 -0
-2.4583387 -0.94082886 -0.43882886
-3.0005691 -1.1483454 -0.35810295
-6.964067 -2.6652124 -0.41649982
-6.9852982 -2.6733377 0
-7.0221982 -2.6874597 0.41997647
-2.2346735 -0.85832721 -0.78932488
-0 -0 -0
-0 -0 -0
-2.4572001 -0.94379854 -0.43882886
-2.9871092 -1.147334 -0.35666174
-6.9656973 -2.6754904 -0.41679037
-6.9820628 -2.6817763 0
-7.021369 -2.6968734 0.42012146
-2.2451634 -0.86547083 -0.79339892
-0 -0 -0
-0 -0 -0
-2.4632368 -0.94953424 -0.44011152
-3.0050275 -1.158385 -0.35896808
-6.9624596 -2.6839051 -0.41679037
-6.9836788 -2.6920846 0
-7.0205274 -2.7062893 0.42026648
-2.2187665 -0.85837603 -0.78443664
-0 -0 -0
-0 -0 -0
-2.4596958 -0.95158458 -0.43968397
-2.9722688 -1.1498841 -0.35522056
-6.9664745 -2.6951258 -0.41722539
-6.9804206 -2.700521 0
-7.0293765 -2.7194607 0.42099258
-2.2038991 -0.8556872 -0.77954525
-0 -0 -0
-0 -0 -0
-2.4417908 -0.94805121 -0.43668777
-2.9829304 -1.1581545 -0.35666174
-6.9753313 -2.7082465 -0.41795149
-6.9844236 -2.7117767 0
-7.0285053 -2.7288918 0.4211376
-2.2143762 -0.86283547 -0.78361928
-0 -0 -0
-0 -0 -0
-2.4430423 -0.95193565 -0.43711698
-2.9502013 -1.149551 -0.35291421
-6.972054 -2.7166729 -0.41795149
-6.9859962 -2.7221055 0
-7.0276217 -2.7383249 0.42128259
-2.194917 -0.85830945 -0.77709961
-0 -0 -0
-0 -0 -0
-2.4371042 -0.95301527 -0.43626022
-2.9584455 -1.1568829 -0.35406739
-6.9760194 -2.7279315 -0.41838649
-6.9948187 -2.7352829 0
-7.03157 -2.7496543 0.42171815
-2.1731734 -0.8528356 -0.76976568
-0 -0 -0
-0 -0 -0
-2.438338 -0.95689625 -0.43668777
-2.9570456 -1.1604567 -0.35406739
-6.9751348 -2.7373071 -0.41853151
-7.0036192 -2.7484856 0
-7.0355015 -2.7609973 0.42215371
-2.1698439 -0.85455596 -0.76895148
-0 -0 -0
-0 -0 -0
-2.4300215 -0.95702249 -0.43540511
-2.9291666 -1.1536022 -0.35089591
-6.9766622 -2.7476394 -0.41882205
-6.9954548 -2.7550406 0
-7.0297356 -2.7685413 0.42200816
-2.2124851 -0.874439 -0.78443664
-0 -0 -0
-0 -0 -0
-2.4407978 -0.96467489 -0.43754452
-2.9470139 -1.1647463 -0.35320225
-6.9733372 -2.7560673 -0.41882205
-7.0114837 -2.7711439 0
-7.0360513 -2.7808537 0.42258871
-2.1769624 -0.86344212 -0.77221137
-0 -0 -0
-2.2982831 -0.91156119 -0.54772311
-2.4324696 -0.96478319 -0.43626022
-2.9239683 -1.1597248 -0.35060787
-6.972415 -2.7654483 -0.41896704
-7.0032868 -2.777693 0
-7.0326862 -2.7893534 0.42258871
-2.1988771 -0.8752104 -0.78035945
-0 -0 -0
-2.3821676 -0.94816488 -0.56798697
-2.4289193 -0.96677321 -0.43583268
-2.9129524 -1.1594311 -0.34945473
-6.9811373 -2.7786748 -0.41969261
-6.99751 -2.7851915 0
-7.0317225 -2.7988091 0.42273369
-2.1863437 -0.87328357 -0.77628541
-0 -0 -0
-2.4187744 -0.96612257 -0.57699311
-2.4277494 -0.96970737 -0.43583268
-2.8995419 -1.1581538 -0.34801352
-6.9777746 -2.7871079 -0.41969261
-7.0038071 -2.7975061 0
-7.0331664 -2.809233 0.42302427
-2.1348195 -0.85569596 -0.7583577
-0 -0 -0
-2.3775132 -0.95297444 -0.56742465
-2.4218056 -0.97072816 -0.43497592
-2.8981402 -1.1616565 -0.34801352
-6.9864683 -2.8003738 -0.42041874
-7.0052481 -2.8079014 0
-7.034586 -2.8196609 0.42331427
-2.2025714 -0.88594329 -0.78280514
-0 -0 -0
-2.3575013 -0.9482609 -0.56292152
-2.4182515 -0.97269666 -0.43454835
-2.887136 -1.1612966 -0.34686035
-6.9830794 -2.8088136 -0.42041874
-7.0090961 -2.8192782 0
-7.0456429 -2.8339787 0.4241854
-2.105242 -0.84975117 -0.74857813
-0 -0 -0
-2.4058316 -0.97107989 -0.5747416
-2.4337401 -0.98234475 -0.43754452
-2.8929284 -1.1676896 -0.34772551
-6.9844952 -2.8191926 -0.42070872
-7.0105066 -2.8296916 0
-7.0398064 -2.8415182 0.42404038
-2.1683569 -0.87827492 -0.77139717
-0 -0 -0
-2.3952363 -0.97017056 -0.57249004
-2.4254112 -0.98239267 -0.43626022
-2.8819261 -1.1673002 -0.34657234
-6.9883108 -2.8305573 -0.42114428
-7.0022626 -2.8362083 0
-7.0363679 -2.8500223 0.42404038
-0 -0 -0
-0 -0 -0
-2.4346735 -0.98785692 -0.58205855
-2.4200642 -0.98192936 -0.43540511
-2.8716335 -1.1651514 -0.34541917
-6.9914107 -2.836731 -0.42143428
-7.0005479 -2.8404381 0
-7.0394554 -2.8562248 0.42433038
-2.1713352 -0.88406581 -0.77302557
-0 -0 -0
-2.4193537 -0.98504722 -0.57868016
-2.4164917 -0.98388195 -0.43497592
-2.8582482 -1.1637444 -0.34397799
-6.9952002 -2.8481171 -0.42186984
-7.00916 -2.853801 0
-7.0408173 -2.8666902 0.42462093
-2.1405234 -0.87453735 -0.7624318
-0 -0 -0
-2.4322791 -0.9937377 -0.58205855
-2.4343121 -0.99456835 -0.43839964
-2.8568399 -1.1671972 -0.34397799
-6.9917536 -2.8565674 -0.42186984
-7.0105295 -2.8642385 0
-7.0421543 -2.8771591 0.42491093
-2.1188855 -0.86868602 -0.75509787
-0 -0 -0
-2.4498844 -1.0043867 -0.58656162
-2.4188619 -0.99166822 -0.43583268
-2.8554275 -1.1706483 -0.34397799
-6.995512 -2.8679714 -0.42230541
-7.0239129 -2.8796151 0
-7.0458879 -2.8886242 0.42534649
-2.1086915 -0.86748433 -0.75183803
-0 -0 -0
-2.4275229 -0.99864691 -0.58149624
-2.4176619 -0.99459022 -0.43583268
-2.8372648 -1.1672086 -0.34195966
-6.9992437 -2.879385 -0.4227404
-7.0132146 -2.8851323 0
-7.0495944 -2.9000986 0.42578149
-2.0985034 -0.86625934 -0.74857813
-0 -0 -0
-2.4357002 -1.0054537 -0.5837456
-2.4140878 -0.9965322 -0.43540511
-2.8358524 -1.1706361 -0.34195966
-6.9957595 -2.88784 -0.4227404
-7.0169334 -2.8965807 0
-7.0532932 -2.9115899 0.42621705
-0 -0 -0
-0 -0 -0
-2.4415281 -1.011314 -0.58543479
-2.4152513 -1.0004299 -0.43583268
-2.8224902 -1.1691136 -0.34051847
-7.0042658 -2.9012618 -0.42346597
-7.0206437 -2.9080458 0
-7.0545759 -2.922101 0.42650762
-2.0735848 -0.86184382 -0.74043006
-0 -0 -0
-0 -0 -0
-2.4045589 -0.99940652 -0.4341208
-2.8234615 -1.173515 -0.34080648
-7.0007548 -2.909723 -0.42346597
-7.0219359 -2.9185264 0
-7.0486336 -2.9296227 0.42636207
-0 -0 -0
-0 -0 -0
-0 -0 -0
-2.4128265 -1.0062636 -0.43583268
-2.8244264 -1.1779203 -0.34109452
-7.0020351 -2.9201822 -0.42375651
-7.0208039 -2.9280097 0
-7.0618782 -2.9451396 0.42737818
-2.1262078 -0.88974744 -0.7599861
-0 -0 -0
-2.4378462 -1.0201577 -0.58543479
-2.3855579 -0.99827677 -0.43112463
-2.8086896 -1.1753434 -0.3393653
-7.0032911 -2.930645 -0.42404652
-7.019659 -2.9374945 0
-7.0487266 -2.9496582 0.4267976
-2.113739 -0.88753247 -0.75591207
-0 -0 -0
-2.4272406 -1.0191679 -0.58318323
-2.4009204 -1.0081162 -0.4341208
-2.8048849 -1.1777359 -0.33907729
-7.0093279 -2.9431288 -0.42462707
-7.0233059 -2.9489977 0
-7.0595369 -2.9642107 0.42766872
-2.0944433 -0.88240892 -0.74939233
-0 -0 -0
-2.4119625 -1.0161828 -0.57980704
-2.392601 -1.0080255 -0.43283647
-2.7963068 -1.1781106 -0.33821213
-7.0081682 -2.9526079 -0.42477262
-7.0173321 -2.9564686 0
-7.051156 -2.9707191 0.42737818
-0 -0 -0
-0 -0 -0
-2.4154091 -1.0210732 -0.58093172
-2.4008393 -1.014914 -0.43454835
-2.7901211 -1.1794763 -0.33763611
-7.0141692 -2.9651208 -0.4253532
-7.0257473 -2.970015 0
-7.059526 -2.9842947 0.42810372
-0 -0 -0
-0 -0 -0
-2.3931234 -1.0150623 -0.57586628
-2.3901582 -1.0138046 -0.43283647
-2.7815483 -1.1798158 -0.33677095
-7.008182 -2.9725761 -0.42520764
-7.0365238 -2.9845977 0
-7.0726624 -2.9999261 0.42911986
-2.0434747 -0.86967087 -0.73227882
-0 -0 -0
-2.4059274 -1.0239252 -0.57924467
-2.3794832 -1.0126709 -0.43112463
-2.7848759 -1.1851996 -0.337347
-7.0045853 -2.9810421 -0.42520764
-7.0257263 -2.9900393 0
-7.0594687 -3.0043995 0.42853928
-2.1219811 -0.90611196 -0.7608034
-0 -0 -0
-2.407023 -1.0278283 -0.57980704
-2.3853426 -1.0185705 -0.43240893
-2.7810652 -1.187549 -0.33705896
-7.0224833 -2.9986866 -0.42651376
-7.0292907 -3.0015936 0
-7.0630045 -3.0159898 0.42897484
-0 -0 -0
-0 -0 -0
-2.4104459 -1.0327353 -0.58093172
-2.3793955 -1.0194321 -0.43155381
-2.7724936 -1.1878518 -0.33619383
-7.0116963 -3.0041025 -0.42607874
-7.0352278 -3.0141845 0
-7.066514 -3.0275888 0.42940983
-0 -0 -0
-0 -0 -0
-2.4144959 -1.0361975 -0.58205855
-2.3858492 -1.0239036 -0.43283647
-2.7765338 -1.1915686 -0.33677095
-7.0122657 -3.009362 -0.42622375
-7.0357947 -3.0194597 0
-7.0718493 -3.0349326 0.42984539
-2.1237702 -0.91447091 -0.7624318
-0 -0 -0
-2.4365752 -1.0491612 -0.5876863
-2.3798993 -1.0247571 -0.43198138
-2.7679629 -1.1918529 -0.33590579
-7.0157862 -3.0209167 -0.42665932
-7.0440903 -3.0331039 0
-7.0705614 -3.044502 0.42999041
-0 -0 -0
-0 -0 -0
-2.4446359 -1.0561353 -0.58993787
-2.3715875 -1.0245769 -0.43069705
-2.7475257 -1.1869903 -0.33359948
-7.0168972 -3.0314507 -0.42694929
-7.0380335 -3.0405822 0
-7.0740356 -3.0561359 0.43042597
-0 -0 -0
-0 -0 -0
-2.4153821 -1.0469621 -0.58318323
-2.3774159 -1.0305055 -0.43198138
-2.7437186 -1.1892816 -0.33331144
-7.0203838 -3.0430284 -0.42738485
-7.0391345 -3.051156 0
-7.0751014 -3.066746 0.43071595
-2.1295075 -0.92610621 -0.76569164
-0 -0 -0
-2.4141154 -1.0498799 -0.58318323
-2.376169 -1.0333774 -0.43198138
-2.7399099 -1.1915655 -0.33302343
-7.0167017 -3.0515089 -0.42738485
-7.037827 -3.0606961 0
-7.0761609 -3.0773673 0.43100652
-0 -0 -0
-0 -0 -0
-0 -0 -0
-2.3725681 -1.0352222 -0.43155381
-2.7195032 -1.1866002 -0.33071709
-7.0249152 -3.0651798 -0.42811042
-7.0460482 -3.0744007 0
-7.0795846 -3.0890336 0.43144208
-0 -0 -0
-0 -0 -0
-0 -0 -0
-2.380713 -1.042202 -0.43326405
-2.729912 -1.1950705 -0.33215827
-7.0307279 -3.0778339 -0.42869097
-7.0375648 -3.0808268 0
-7.0829811 -3.1007087 0.43187708
-0 -0 -0
-0 -0 -0
-0 -0 -0
-2.3653543 -1.0388861 -0.43069705
-2.7047892 -1.1879692 -0.32927591
-7.0198641 -3.0831912 -0.42825541
-7.0433679 -3.0935142 0
-7.083992 -3.1113567 0.43216762
-0 -0 -0
-0 -0 -0
-0 -0 -0
-2.3664441 -1.0427775 -0.43112463
-2.715184 -1.1964504 -0.33071709
-7.0280204 -3.096909 -0.42898098
-7.0443835 -3.1041193 0
-7.073092 -3.1167698 0.43173209
-0 -0 -0
-0 -0 -0
-0 -0 -0
-2.3745737 -1.0497881 -0.43283647
-2.7042737 -1.195547 -0.32956392
-7.0266566 -3.1064525 -0.42912653
-7.05967 -3.1210473 0
-7.0907073 -3.134769 0.4330382
-0 -0 -0
-0 -0 -0
-0 -0 -0
-2.3615727 -1.0474534 -0.43069705
-2.7004652 -1.1977659 -0.32927591
-7.0323992 -3.1191547 -0.42970708
-7.0511308 -3.1274629 0
-7.0940428 -3.1464961 0.43347374
-1.9522452 -0.86872452 -0.7045716
-0 -0 -0
-0 -0 -0
-2.37203 -1.0555234 -0.43283647
-2.682472 -1.1936662 -0.32725757
-7.0357404 -3.1308157 -0.4301421
-7.063993 -3.143388 0
-7.0831113 -3.1518953 0.4330382
-0 -0 -0
-0 -0 -0
-2.377054 -1.0646484 -0.57699311
-2.3460486 -1.0507615 -0.42855763
-2.6866634 -1.203318 -0.32812274
-7.0329013 -3.1499357 -0.43043265
-7.0635037 -3.1636422 0
-7.0920758 -3.176439 0.43405432
-0 -0 -0
-0 -0 -0
-2.3803968 -1.0696007 -0.57811785
-2.3564827 -1.0588552 -0.43069705
-2.6757705 -1.2023231 -0.32696956
-7.0385709 -3.1626911 -0.4310132
-7.0644193 -3.1743059 0
-7.088233 -3.1850061 0.43405432
-0 -0 -0
-0 -0 -0
-2.397634 -1.0808299 -0.58262092
-2.3505254 -1.0595938 -0.42984194
-2.6672397 -1.2023654 -0.3261044
-7.0371108 -3.1722605 -0.43115821
-7.0676985 -3.1860492 0
-7.0891123 -3.1957023 0.43434432
-0 -0 -0
-0 -0 -0
-2.3708575 -1.072208 -0.57642865
-2.3656096 -1.0698347 -0.43283647
-2.6634305 -1.2045226 -0.32581639
-7.0356379 -3.1818309 -0.4313032
-7.0567274 -3.1913686 0
-7.0899854 -3.2064092 0.43463486
-2.1079435 -0.95637625 -0.76324594
-0 -0 -0
-2.3741922 -1.0771736 -0.57755548
-2.3409426 -1.0620881 -0.42855763
-2.6666794 -1.2098752 -0.32639244
-3.7404442 -1.6970435 -0.22942466
-7.064714 -3.2052681 0
-7.095571 -3.2192681 0.43521541
-0 -0 -0
-0 -0 -0
-2.3821394 -1.084252 -0.57980704
-2.3490033 -1.0691698 -0.43026951
-2.6605117 -1.2109556 -0.32581639
-3.7336655 -1.699411 -0.22913466
-7.0632114 -3.2148833 0
-7.0987735 -3.2310698 0.43565097
-0 -0 -0
-0 -0 -0
-2.3930416 -1.0909599 -0.58262092
-2.353024 -1.0727164 -0.43112463
-2.6527171 -1.209343 -0.32495123
-3.7444575 -1.7070547 -0.22986022
-7.0707397 -3.2234683 0
-7.0991821 -3.2364349 0.43579599
-2.1162899 -0.96788234 -0.76732314
-0 -0 -0
-2.3940301 -1.0949064 -0.58318323
-2.3750756 -1.0862377 -0.43540511
-2.6347957 -1.2050202 -0.32293403
-3.7447529 -1.7126577 -0.23000522
-7.0763068 -3.2363393 0
-7.1023488 -3.2482495 0.43623099
-0 -0 -0
-0 -0 -0
-2.3811605 -1.0925014 -0.58036935
-2.3807542 -1.0923151 -0.43668777
-2.6403835 -1.2114356 -0.32379809
-3.7403214 -1.7160987 -0.22986022
-7.0629292 -3.240546 0
-7.1055059 -3.2600808 0.43666655
-0 -0 -0
-0 -0 -0
-2.3798387 -1.0953778 -0.58036935
-2.4074156 -1.1080707 -0.44182339
-2.6295195 -1.2102994 -0.32264492
-3.738245 -1.7206168 -0.22986022
-7.0684652 -3.2534304 0
-7.1086454 -3.2719243 0.43710211
-0 -0 -0
-0 -0 -0
-2.3831315 -1.100385 -0.58149624
-2.3827734 -1.1002196 -0.43754452
-2.635102 -1.2167296 -0.32351005
-3.7408769 -1.727309 -0.23015022
-7.0716105 -3.2652388 0
-7.1117663 -3.2837803 0.43753764
-0 -0 -0
-0 -0 -0
-2.4071548 -1.1150081 -0.5876863
-2.4117212 -1.1171232 -0.44310769
-2.6218977 -1.2144783 -0.32206887
-3.7482183 -1.7361964 -0.23073077
-7.0723872 -3.2759707 0
-7.1101489 -3.2934623 0.43768266
-2.096951 -0.97439897 -0.7624318
-0 -0 -0
-2.3942866 -1.1125633 -0.58487242
-2.4033833 -1.1167902 -0.44182339
-2.6157324 -1.2154634 -0.32149175
-3.7202034 -1.7286824 -0.22913466
-7.0802221 -3.2899964 0
-7.1155901 -3.3064311 0.43826321
-2.091296 -0.97484553 -0.7608034
-0 -0 -0
-2.4136653 -1.1251161 -0.58993787
-2.4346104 -1.1348796 -0.44781575
-2.6166129 -1.2197191 -0.32178086
-3.6780767 -1.7145141 -0.22666742
-7.0809546 -3.3007462 0
-7.1139421 -3.316123 0.43840823
-2.0766788 -0.97108805 -0.75591207
-0 -0 -0
-2.3915911 -1.118346 -0.58487242
-2.4518316 -1.1465154 -0.45123786
-2.6127875 -1.221781 -0.32149175
-3.6948328 -1.7277626 -0.22782855
-7.0840359 -3.3126078 0
-7.1193457 -3.3291192 0.43898878
-2.093405 -0.98199385 -0.7624318
-0 -0 -0
-2.3442304 -1.0996532 -0.57361472
-2.4504445 -1.1494771 -0.45123786
-2.6066306 -1.2227424 -0.3209157
-3.6456928 -1.7101554 -0.22492576
-7.0870986 -3.324482 0
-7.1176682 -3.3388216 0.43913376
-2.0586777 -0.96874022 -0.75020963
-0 -0 -0
-2.303818 -1.0840944 -0.56404626
-2.4444127 -1.1502533 -0.45038274
-2.5981281 -1.2225863 -0.32005054
-3.5542846 -1.6725194 -0.21941073
-7.0877819 -3.3352568 0
-7.123033 -3.351845 0.43971434
-2.1089067 -0.99549037 -0.76895148
-0 -0 -0
-2.2933152 -1.0825388 -0.5617947
-2.4244494 -1.1444396 -0.44695899
-2.5896297 -1.2224114 -0.31918541
-3.5522611 -1.6768129 -0.21941073
-7.0908093 -3.3471525 0
-7.118978 -3.3604493 0.43971434
-2.1166377 -1.0022689 -0.77221137
-0 -0 -0
-2.2782311 -1.0787866 -0.55841845
-2.4114666 -1.1418761 -0.44481957
-2.5788002 -1.2211118 -0.31803223
-3.5831065 -1.6966703 -0.2214424
-7.0820599 -3.3534925 0
-7.1196136 -3.3712749 0.44000489
-2.1221247 -1.0080081 -0.77465701
-0 -0 -0
-2.2700384 -1.078267 -0.55672926
-2.3868928 -1.1337729 -0.44053906
-2.5843339 -1.2275572 -0.3188974
-3.5505435 -1.6865062 -0.21955574
-7.0991573 -3.3720958 0
-7.1249232 -3.3843346 0.44058543
-2.0963593 -0.9988758 -0.76569164
-0 -0 -0
-2.2526751 -1.0733573 -0.55278856
-2.3808908 -1.1344497 -0.43968397
-2.5805161 -1.2295675 -0.31860936
-3.5508466 -1.6919117 -0.21970074
-7.1021194 -3.3840265 0
-7.1278596 -3.3962913 0.44102046
-2.0795388 -0.99394614 -0.7599861
-0 -0 -0
-2.2628455 -1.0815603 -0.55560458
-2.3748906 -1.1351138 -0.43882886
-2.5650313 -1.2259945 -0.31688017
-3.5441153 -1.6939621 -0.21941073
-7.0933337 -3.3903632 0
-7.1284437 -3.4071445 0.441311
-2.1273715 -1.0199682 -0.77791691
-0 -0 -0
-2.2271671 -1.0678152 -0.5471608
-2.3758297 -1.1390914 -0.4392564
-2.570538 -1.2324443 -0.31774423
-3.5490973 -1.7016144 -0.21984629
-7.0868874 -3.3978076 0
-7.136035 -3.4213712 0.44203657
-2.0659959 -0.99361354 -0.75591207
-0 -0 -0
-2.2235878 -1.0694052 -0.54659843
-2.3605666 -1.1352835 -0.43668777
-2.5620611 -1.2321895 -0.31688017
-3.5353234 -1.7002672 -0.21912017
-7.094501 -3.4120069 0
-7.1318955 -3.4299912 0.44203657
-2.0698531 -0.99700874 -0.75754356
-0 -0 -0
-2.2435417 -1.0806713 -0.55166388
-0 -0 -0
-2.5543232 -1.2303689 -0.31601501
-3.5132287 -1.6922553 -0.21781406
-7.1041594 -3.4219382 0
-7.1321607 -3.435426 0.44218156
-2.110924 -1.0199361 -0.77302557
-0 -0 -0
-2.2307973 -1.0778553 -0.54885
-0 -0 -0
-2.5691302 -1.2413278 -0.31803223
-3.5252237 -1.703284 -0.21868518
-7.1047106 -3.4327865 0
-7.1420469 -3.4508262 0.44305268
-2.0963492 -1.0160203 -0.76813734
-0 -0 -0
-2.2157698 -1.0738988 -0.54547161
-0 -0 -0
-2.5490172 -1.235411 -0.315727
-3.5348523 -1.7132076 -0.21941073
-7.105237 -3.4436364 0
-7.1425443 -3.4617178 0.44334269
-2.0573339 -1.0001826 -0.75428367
-0 -0 -0
-2.2167623 -1.0776895 -0.54603606
-0 -0 -0
-2.5405416 -1.2350965 -0.31486183
-3.5584879 -1.7299758 -0.22100741
-7.0987325 -3.4510825 0
-7.1406908 -3.4714806 0.44348767
-2.0738962 -1.0113344 -0.7608034
-0 -0 -0
-0 -0 -0
-0 -0 -0
-2.5343935 -1.2358958 -0.31428471
-3.5190263 -1.7160513 -0.21868518
-7.1062512 -3.4653597 0
-7.1434999 -3.4835241 0.44392323
-2.1015334 -1.0279567 -0.77139717
-0 -0 -0
-0 -0 -0
-0 -0 -0
-2.542192 -1.2435031 -0.31543788
-3.5472922 -1.7351439 -0.22057185
-7.10673 -3.4762287 0
-7.1416173 -3.4932938 0.44406822
-2.0714462 -1.0163432 -0.7608034
-0 -0 -0
-0 -0 -0
-0 -0 -0
-2.5313995 -1.2420167 -0.31428471
-3.5405231 -1.7371374 -0.22028129
-7.1048675 -3.4859629 0
-7.1420612 -3.5042119 0.4443588
-2.0768631 -1.0221164 -0.76324594
-0 -0 -0
-2.2001224 -1.0827779 -0.54322004
-2.3686075 -1.165697 -0.44011152
-2.5229416 -1.2416515 -0.31342065
-3.5127826 -1.7287962 -0.21868518
-7.1053157 -3.4968412 0
-7.1448097 -3.5162778 0.44479379
-2.1022217 -1.0377538 -0.77302557
-0 -0 -0
-2.1874225 -1.0798129 -0.54040617
-2.3464828 -1.1583323 -0.43626022
-2.5237565 -1.2458429 -0.31370866
-3.5689392 -1.7617935 -0.22231352
-7.1127515 -3.511183 0
-7.1452203 -3.527211 0.44508436
-2.1031876 -1.0413932 -0.77384287
-0 -0 -0
-2.1861162 -1.0824552 -0.54040617
-2.3634853 -1.1702795 -0.43968397
-2.5060217 -1.2408564 -0.31169036
-3.5528316 -1.7591842 -0.2214424
-7.1155028 -3.5232403 0
-7.1479411 -3.5393023 0.44551989
-2.0642898 -1.0252405 -0.7599861
-0 -0 -0
-2.1939094 -1.0896168 -0.54265767
-2.3712661 -1.177702 -0.44139582
-2.5137866 -1.2484856 -0.31284353
-3.5367446 -1.756543 -0.22057185
-7.1182351 -3.5353096 0
-7.1459842 -3.5490913 0.44566491
-2.065268 -1.0288393 -0.7608034
-2.1647444 -1.0783947 -0.66725194
-2.251719 -1.1217222 -0.55729163
-2.3652413 -1.1782749 -0.44053906
-2.5192237 -1.2549831 -0.31370866
-3.5392668 -1.7631303 -0.22086185
-7.1162853 -3.5450673 0
-7.1556411 -3.5646729 0.44653547
-2.0640235 -1.031334 -0.7608034
-2.1634398 -1.0810095 -0.66725194
-2.2412703 -1.1198993 -0.55504006
-2.3569336 -1.1776929 -0.4392564
-2.5107622 -1.2545568 -0.31284353
-3.4302144 -1.713981 -0.21418571
-7.1189833 -3.5571542 0
-7.1513286 -3.5733163 0.44653547
-2.0627759 -1.0338273 -0.7608034
-2.162132 -1.0836228 -0.66725194
-2.1899452 -1.0975624 -0.54265767
-2.3256764 -1.1655885 -0.43369323
-2.4999952 -1.252954 -0.31169036
-3.2980607 -1.6529305 -0.20605846
-7.1239862 -3.5704179 0
-7.1539774 -3.5854487 0.44697103
-2.0615251 -1.036319 -0.7608034
-2.1585732 -1.0851046 -0.66655779
-2.1976981 -1.1047726 -0.54490924
-2.349489 -1.1810771 -0.43839964
-2.4938619 -1.2536527 -0.31111431
-0 -0 -0
-7.1219897 -3.5801909 0
-7.1566067 -3.5975926 0.44740659
-2.0911644 -1.0543857 -0.77221137
-2.1550224 -1.0865836 -0.66586626
-2.1668694 -1.0925568 -0.53759229
-2.3411903 -1.1804513 -0.43711698
-2.5015833 -1.2613231 -0.31226748
-3.2174919 -1.6222912 -0.201269
-7.1199803 -3.5899644 0
-7.1592083 -3.6097436 0.44784158
-2.0883229 -1.0545359 -0.77139717
-2.1521282 -1.0867555 -0.66517478
-2.2024989 -1.1121911 -0.54659843
-2.3587997 -1.191118 -0.44053906
-2.489279 -1.2570059 -0.3108263
-3.1747649 -1.6031541 -0.19865677
-7.1294236 -3.6001296 0
-7.1663041 -3.6187532 0.44842213
-2.0738134 -1.0503557 -0.76650584
-2.146333 -1.087086 -0.66378909
-2.1898217 -1.1091123 -0.54378456
-2.3665192 -1.1986068 -0.44225094
-2.4831393 -1.2576731 -0.31024915
-3.2585921 -1.6504287 -0.20402679
-7.1343551 -3.613445 0
-7.1688828 -3.630933 0.44885769
-2.0879698 -1.0606978 -0.77221137
-2.1494956 -1.0919533 -0.66517478
-2.2156644 -1.1255672 -0.5505392
-2.3032813 -1.170077 -0.43069705
-2.4839215 -1.261843 -0.31053719
-3.2287955 -1.6402423 -0.20228511
-7.1276655 -3.6208854 0
-7.1714425 -3.6431243 0.44929326
-2.1087046 -1.0744387 -0.78035945
-2.1593492 -1.1002433 -0.66863489
-2.2052467 -1.1236293 -0.54828763
-2.3110149 -1.1775209 -0.43240893
-2.4754879 -1.261324 -0.30967313
-3.1967154 -1.6288079 -0.20039843
-7.1302443 -3.6330409 0
-7.1809225 -3.6588626 0.45016381
-2.0942039 -1.0702395 -0.77547121
-2.1535547 -1.1005706 -0.66725194
-2.2084084 -1.1286035 -0.54941231
-2.3347371 -1.1931636 -0.43711698
-2.4601386 -1.25725 -0.30794284
-3.1253352 -1.5971975 -0.19604453
-7.1351185 -3.6463909 0
-7.1788077 -3.6687181 0.4503088
-2.0665152 -1.0592403 -0.76569164
-2.1455233 -1.0997378 -0.66517478
-2.1731319 -1.1138892 -0.54097068
-2.2624736 -1.1596833 -0.42384958
-2.4678247 -1.2649409 -0.30909601
-3.0794656 -1.5784515 -0.19328675
-7.135335 -3.6573815 0
-7.1743693 -3.6773896 0.4503088
-2.1091964 -1.0843377 -0.78199095
-2.1441929 -1.1023294 -0.66517478
-2.1943779 -1.1281295 -0.54659843
-2.2313933 -1.1471591 -0.41828641
-2.4501901 -1.2596425 -0.30707768
-3.2300739 -1.6605808 -0.20286568
-7.1378565 -3.6695714 0
-7.176856 -3.689621 0.45074436
-2.0683472 -1.0664988 -0.76732314
-2.1473148 -1.1072167 -0.66655779
-2.1975255 -1.1331068 -0.54772311
-2.2436996 -1.1569155 -0.42085505
-2.4555652 -1.2661594 -0.30794284
-3.1610916 -1.6299491 -0.19865677
-7.1449804 -3.6841559 0
-7.1770158 -3.7006741 0.45103493
-2.0538802 -1.0621828 -0.7624318
-2.1415229 -1.1075078 -0.66517478
-2.1916451 -1.1334291 -0.54659843
-2.2673757 -1.1725938 -0.42556146
-2.437958 -1.260812 -0.30592561
-0 -0 -0
-7.1497703 -3.6975684 0
-7.1863832 -3.7165029 0.45190549
-2.114028 -1.0965283 -0.78525078
-2.1424079 -1.1112487 -0.66586626
-2.1947808 -1.138414 -0.54772311
-2.2591186 -1.1717856 -0.42427713
-2.4341302 -1.2625625 -0.3056365
-3.1064022 -1.6112643 -0.19546397
-7.1522303 -3.709801 0
-7.1841917 -3.7263789 0.45205048
-2.066658 -1.0751289 -0.76813734
-2.1410637 -1.1138365 -0.66586626
-2.1888998 -1.1387222 -0.54659843
-2.259985 -1.1757026 -0.42470634
-2.4303105 -1.2643102 -0.30534846
-3.0814056 -1.6030269 -0.19401285
-7.1338854 -3.7112315 0
-7.1842985 -3.7374575 0.45234105
-2.0938418 -1.0924873 -0.77873111
-2.1397161 -1.1164228 -0.66586626
-2.1897726 -1.1425405 -0.5471608
-2.2722139 -1.1855551 -0.42727333
-2.4402444 -1.273227 -0.30678967
-3.134747 -1.6355922 -0.19749564
-7.1478543 -3.7294796 0
-7.1820788 -3.7473366 0.45248604
-2.0881364 -1.0927224 -0.77709961
-2.1428156 -1.1213361 -0.66725194
-2.1951466 -1.1487209 -0.54885
-2.2685075 -1.1871107 -0.42684576
-2.4020374 -1.256987 -0.30217698
-3.091332 -1.6176951 -0.19488342
-7.1502628 -3.7417347 0
-7.1844549 -3.7596273 0.4529216
-2.0977633 -1.1009911 -0.78117675
-2.137012 -1.1215904 -0.66586626
-2.2005086 -1.154916 -0.5505392
-2.2648005 -1.188659 -0.42641822
-2.4119747 -1.2659019 -0.30361927
-0 -0 -0
-7.1480384 -3.75158 0
-7.1914086 -3.7743423 0.45364717
-2.0920529 -1.1012203 -0.77954525
-2.1378732 -1.1253392 -0.66655779
-2.2058504 -1.1611212 -0.55222619
-2.2747183 -1.1973722 -0.42855763
-2.4150164 -1.2712226 -0.30419531
-3.029932 -1.5949036 -0.19125506
-7.1504111 -3.7638521 0
-7.1937428 -3.7866611 0.45408273
-2.0666842 -1.0910578 -0.77058297
-2.1365118 -1.1279216 -0.66655779
-2.1977112 -1.1602304 -0.5505392
-2.2528408 -1.1893348 -0.42470634
-2.3974652 -1.2656859 -0.30217698
-3.1428928 -1.659217 -0.19851176
-7.1550641 -3.7773492 0
-7.1914577 -3.7965627 0.45422772
-2.0282331 -1.0738941 -0.75672936
-2.1329322 -1.1293296 -0.66586626
-2.1963077 -1.1628851 -0.5505392
-2.2514021 -1.1920561 -0.42470634
-2.4027939 -1.2722138 -0.30304214
-3.0168834 -1.5973575 -0.19067451
-7.1458902 -3.7835541 0
-7.1891594 -3.806464 0.4543727
-2.048759 -1.0879337 -0.76487744
-2.1293526 -1.1307304 -0.66517478
-2.1836741 -1.1595763 -0.54772311
-2.2794321 -1.2104257 -0.43026951
-0 -0 -0
-0 -0 -0
-7.1574054 -3.8007309 0
-7.1937346 -3.8200226 0.45495328
-2.0873771 -1.1100578 -0.77954525
-2.130882 -1.1331935 -0.66586626
-2.1852229 -1.1620917 -0.54828763
-2.26737 -1.2057772 -0.42813009
-2.434741 -1.2947844 -0.30736679
-3.0506907 -1.6223437 -0.19299674
-7.1620035 -3.8087215 0
-7.2028942 -3.8304672 0.45567882
-2.0533283 -1.0951356 -0.76732314
-2.1339426 -1.1381309 -0.66725194
-0 -0 -0
-2.2523167 -1.2012653 -0.42556146
-0 -0 -0
-7.1777339 -3.8282197 -0.45437941
-7.1573958 -3.8173726 0
-7.1936798 -3.8367243 0.45538884
-2.0607212 -1.1022789 -0.77058297
-2.1281371 -1.1383398 -0.66586626
-0 -0 -0
-2.2440705 -1.2003524 -0.42427713
-2.397392 -1.282364 -0.30304214
-7.1868463 -3.8442411 -0.45524997
-7.1573634 -3.8284707 0
-7.2050705 -3.8539894 0.45640439
-2.1007636 -1.1269643 -0.78606498
-2.1201258 -1.1373513 -0.66378909
-0 -0 -0
-2.2471471 -1.2054924 -0.42513388
-2.3912868 -1.2828168 -0.30246609
-7.1455684 -3.8332732 -0.4529283
-7.1596146 -3.8408082 0
-7.2027049 -3.8639243 0.45654994
-2.1015749 -1.1306717 -0.78687918
-2.1275873 -1.1446668 -0.66655779
-0 -0 -0
-2.2502058 -1.210637 -0.425989
-2.3760641 -1.2783502 -0.3007358
-7.14779 -3.8455942 -0.4533633
-7.1664257 -3.8556204 0
-7.1980309 -3.8726246 0.45654994
-2.0727513 -1.1216317 -0.77709961
-2.1270278 -1.1510024 -0.66725194
-0 -0 -0
-2.2540488 -1.2197376 -0.42727333
-2.3843396 -1.2902421 -0.30217698
-7.1476169 -3.8678029 -0.45394385
-7.1662426 -3.877882 0
-7.2115002 -3.9023721 0.45800108
-0 -0 -0
-2.1388609 -1.1607491 -0.67140359
-2.1797779 -1.1829545 -0.54941231
-2.2300155 -1.2102182 -0.42299446
-2.389601 -1.2968245 -0.30304214
-7.1520734 -3.8813944 -0.4545244
-7.166122 -3.8890183 0
-7.2113428 -3.9135594 0.45829105
-0 -0 -0
-2.1308441 -1.1597337 -0.66932642
-2.1783469 -1.1855875 -0.54941231
-2.2240376 -1.2104552 -0.42213771
-2.3812146 -1.2960004 -0.30217698
-7.1542273 -3.8937609 -0.45495996
-7.1659937 -3.9001651 0
-7.2157378 -3.9272387 0.45887163
-1.9840688 -1.0829592 -0.74531829
-2.1250415 -1.1599059 -0.66794342
-2.1769128 -1.1882187 -0.54941231
-0 -0 -0
-2.3819239 -1.3001194 -0.30246609
-7.1654763 -3.9111135 -0.45597553
-7.1658401 -3.9113123 0
-7.213275 -3.9372032 0.45901719
-0 -0 -0
-2.1324408 -1.1672912 -0.67071205
-2.182164 -1.1945095 -0.55110151
-2.2864056 -1.2515709 -0.43454835
-2.3803511 -1.3029965 -0.30246609
-7.153914 -3.9160295 -0.45554054
-7.165679 -3.9224696 0
-7.2199063 -3.9521534 0.45974272
-0 -0 -0
-2.1266263 -1.1674501 -0.66932642
-2.1740351 -1.193476 -0.54941231
-2.192632 -1.203685 -0.41700211
-2.3855703 -1.3096021 -0.30333015
-7.1605639 -3.9309216 -0.45626608
-7.1632137 -3.9323761 0
-7.219677 -3.9633729 0.46003273
-0 -0 -0
-2.1296136 -1.1724411 -0.67071205
-2.1903982 -1.2059054 -0.55391538
-2.294616 -1.2632817 -0.43668777
-2.3794589 -1.3099912 -0.3027541
-7.1626396 -3.9433317 -0.45670164
-3.7730863 -2.0772412 0
-7.2148829 -3.9720936 0.46003273
-0 -0 -0
-2.1216047 -1.1713746 -0.66863489
-2.180042 -1.2036388 -0.55166388
-0 -0 -0
-2.3756123 -1.3116165 -0.30246609
-7.1601424 -3.953238 -0.45684665
-3.7660124 -2.0792804 0
-7.2169046 -3.9845774 0.46046829
-0 -0 -0
-2.1245816 -1.17637 -0.67002058
-2.1830275 -1.2087313 -0.55278856
-2.23317 -1.236495 -0.42556146
-2.3853374 -1.3207493 -0.30390728
-7.1667247 -3.968179 -0.45757219
-3.7657807 -2.0850937 0
-7.2234488 -3.9995871 0.46119386
-0 -0 -0
-2.1165764 -1.1752814 -0.66794342
-2.1860125 -1.2138375 -0.55391538
-2.2294323 -1.2379475 -0.42513388
-2.3769538 -1.3198624 -0.30304214
-7.1641941 -3.978096 -0.45771721
-3.7678046 -2.0921667 0
-7.2208805 -4.0095725 0.46133885
-0 -0 -0
-2.1107669 -1.1753947 -0.66655779
-2.1867621 -1.217713 -0.55447775
-2.2772717 -1.268114 -0.43454835
-2.3730998 -1.3214763 -0.3027541
-7.1843567 -4.0006566 -0.45931387
-3.760731 -2.094188 0
-7.2205749 -4.0208254 0.46162942
-0 -0 -0
-2.1232073 -1.1840032 -0.67071205
-2.1793664 -1.2153202 -0.55278856
-2.2697771 -1.2657375 -0.43326405
-2.3700442 -1.3216513 -0.30246609
-7.16605 -3.9961364 -0.45829776
-3.7208266 -2.074913 0
-7.2294893 -4.0315132 0.46235496
-0 -0 -0
-2.1414797 -1.1975873 -0.67694086
-2.1801202 -1.2191964 -0.55335307
-2.2548072 -1.2609638 -0.43069705
-2.3752112 -1.3282979 -0.30333015
-7.1793594 -4.0149388 -0.45945889
-3.7001452 -2.0692453 0
-7.2291532 -4.0427847 0.46264553
-0 -0 -0
-2.1159594 -1.186674 -0.66932642
-2.1830738 -1.2243131 -0.55447775
-2.242089 -1.2574102 -0.42855763
-2.3736045 -1.3311669 -0.30333015
-7.1677017 -4.0197964 -0.45902333
-3.640897 -2.0418909 0
-7.2310553 -4.0553265 0.46308053
-0 -0 -0
-2.1189015 -1.1916919 -0.67071205
-2.1749465 -1.2232122 -0.55278856
-2.2763677 -1.2802525 -0.43540511
-0 -0 -0
-7.1696358 -4.0322766 -0.45945889
-3.5794539 -2.0131216 0
-7.2306843 -4.0666108 0.4633711
-0 -0 -0
-2.1065361 -1.1880902 -0.66725194
-2.1734669 -1.2258393 -0.55278856
-2.2815206 -1.2867818 -0.43668777
-0 -0 -0
-7.1828647 -4.0511489 -0.46061999
-3.6064854 -2.0340643 0
-7.2302876 -4.0778952 0.46366107
-0 -0 -0
-2.1160154 -1.1968089 -0.67071205
-2.1675651 -1.2259653 -0.55166388
-2.2643294 -1.2806947 -0.43369323
-0 -0 -0
-7.189271 -4.0662198 -0.46134555
-3.5473952 -2.006391 0
-7.2366614 -4.0930233 0.46438664
-0 -0 -0
-2.1363854 -1.2117397 -0.67763233
-2.1749227 -1.2335978 -0.55391538
-2.2449172 -1.2732979 -0.43026951
-0 -0 -0
-7.1911354 -4.0787506 -0.46178111
-3.5178037 -1.9952683 0
-7.2362351 -4.104331 0.46467721
-0 -0 -0
-2.1174743 -1.2043973 -0.67209506
-2.1712241 -1.2349697 -0.55335307
-2.2344515 -1.2709328 -0.42855763
-0 -0 -0
-7.1816802 -4.0848651 -0.46149054
-3.4678869 -1.9724981 0
-7.2403049 -4.1182103 0.46525776
-0 -0 -0
-2.1399906 -1.2206291 -0.67970949
-2.1851737 -1.2464011 -0.55729163
-2.273047 -1.2965231 -0.43626022
-0 -0 -0
-7.1880312 -4.0999804 -0.46221668
-3.5627007 -2.0321286 0
-7.2443523 -4.1321054 0.46583831
-0 -0 -0
-2.1058466 -1.2045285 -0.66932642
-2.1770556 -1.2452594 -0.55560458
-2.2848527 -1.3069185 -0.43882886
-0 -0 -0
-7.18081 -4.1073689 -0.46207109
-3.508291 -2.006716 0
-7.252883 -4.1485944 0.46670887
-0 -0 -0
-2.1152768 -1.2133169 -0.67278922
-2.1821554 -1.2516781 -0.55729163
-0 -0 -0
-0 -0 -0
-7.1893697 -4.1238022 -0.46294221
-3.4878039 -2.0005946 0
-7.2546291 -4.1612349 0.46714443
-0 -0 -0
-2.1072831 -1.212118 -0.67071205
-2.1696308 -1.2479806 -0.55447775
-0 -0 -0
-0 -0 -0
-7.1821313 -4.1311917 -0.46279722
-3.5192163 -2.0242679 0
-7.2608557 -4.1764746 0.46787
-0 -0 -0
-2.1166809 -1.2209297 -0.67417222
-2.1593173 -1.2455231 -0.55222619
-2.2067215 -1.2728665 -0.42470634
-0 -0 -0
-7.181632 -4.1424613 -0.46308723
-3.516768 -2.0285187 0
-7.2648072 -4.1904378 0.46845055
-0 -0 -0
-2.1065173 -1.218462 -0.67140359
-2.1666086 -1.2532201 -0.55447775
-0 -0 -0
-0 -0 -0
-7.1811242 -4.1537404 -0.46337777
-3.4760191 -2.0106158 0
-7.2664886 -4.2031174 0.46888611
-0 -0 -0
-2.1202366 -1.2298188 -0.67624938
-2.1650927 -1.2558372 -0.55447775
-0 -0 -0
-0 -0 -0
-7.1828365 -4.1663218 -0.46381277
-3.5478747 -2.057904 0
-7.2681413 -4.2158017 0.4693211
-0 -0 -0
-2.1534467 -1.2525619 -0.68732393
-2.1745534 -1.2648388 -0.55729163
-2.1954339 -1.276984 -0.42342204
-0 -0 -0
-7.1845374 -4.1789184 -0.46424833
-3.4621515 -2.0137761 0
-7.2675385 -4.2271962 0.46961167
-0 -0 -0
-2.1172583 -1.2349391 -0.67624938
-2.1708307 -1.2661864 -0.55672926
-0 -0 -0
-0 -0 -0
-7.1660199 -4.1797442 -0.46337777
-3.5316532 -2.059917 0
-7.2691612 -4.2399035 0.47004724
-0 -0 -0
-2.1273413 -1.2425433 -0.67970949
-2.1744578 -1.2700632 -0.55785614
-0 -0 -0
-0 -0 -0
-7.1500268 -4.1762071 -0.46250665
-3.4809728 -2.0331759 0
-7.2755733 -4.2495365 0.47062778
-0 -0 -0
-2.1150167 -1.2387744 -0.67624938
-2.1729217 -1.2726897 -0.55785614
-2.2070742 -1.292693 -0.42641822
-0 -0 -0
-7.1472154 -4.1861553 -0.46265167
-3.5503662 -2.0794649 0
-7.2749133 -4.2609487 0.47091779
-0 -0 -0
-2.102704 -1.2349777 -0.67278922
-2.1735711 -1.2765999 -0.55841845
-2.2099333 -1.2979565 -0.42727333
-0 -0 -0
-0 -0 -0
-3.5321488 -2.0745311 0
-7.2787218 -4.2749996 0.47149834
-0 -0 -0
-2.1314702 -1.2553391 -0.68247813
-2.1742141 -1.2805135 -0.55898082
-2.2061536 -1.2993243 -0.42684576
-0 -0 -0
-2.9929318 -1.762701 -0.19401285
-3.4960003 -2.0589855 0
-7.2757878 -4.2851086 0.47164333
-0 -0 -0
-2.1040297 -1.2426046 -0.67417222
-2.1748512 -1.2844305 -0.55954313
-2.204582 -1.3019891 -0.42684576
-0 -0 -0
-3.0780518 -1.8178456 -0.19967288
-3.5719342 -2.1095243 0
-7.2773194 -4.2978625 0.47207889
-0 -0 -0
-2.1176393 -1.2540958 -0.67901802
-2.1689291 -1.2844704 -0.55841845
-2.2030072 -1.304652 -0.42684576
-0 -0 -0
-3.0691435 -1.81759 -0.19923732
-3.4910145 -2.0674279 0
-7.2832975 -4.3132715 0.47280446
-0 -0 -0
-2.133379 -1.2669015 -0.68455529
-2.178297 -1.2935759 -0.56123233
-2.1970105 -1.3046888 -0.425989
-0 -0 -0
-3.0937552 -1.8372184 -0.20097899
-3.6026287 -2.1394114 0
-7.2780805 -4.3220687 0.47280446
-0 -0 -0
-2.1167557 -1.260492 -0.67970949
-2.1789134 -1.2975057 -0.5617947
-2.2351379 -1.3309865 -0.43369323
-0 -0 -0
-3.0848331 -1.8369656 -0.20054343
-3.6805396 -2.1916986 0
-7.2817831 -4.3361778 0.47338501
-0 -0 -0
-2.110919 -1.2604738 -0.67832386
-2.1751647 -1.2988362 -0.56123233
-2.2225101 -1.3271072 -0.43155381
-0 -0 -0
-3.0937641 -1.8473512 -0.201269
-3.56617 -2.1294346 0
-7.2854624 -4.3503017 0.47396559
-0 -0 -0
-2.1115532 -1.2643161 -0.67901802
-2.1714158 -1.3001595 -0.56067002
-2.1306067 -1.2757246 -0.41400757
-0 -0 -0
-3.0313432 -1.8150507 -0.19735065
-3.5948501 -2.1524568 0
-7.2824278 -4.3604355 0.47411057
-0 -0 -0
-2.1143215 -1.2694468 -0.68040103
-2.1741958 -1.3053956 -0.5617947
-2.2148905 -1.3298289 -0.43069705
-0 -0 -0
-3.0826139 -1.8508134 -0.20083399
-3.6301754 -2.1795714 0
-7.2927504 -4.3785958 0.47512668
-0 -0 -0
-2.1235306 -1.2784694 -0.68386114
-2.1682675 -1.3054031 -0.56067002
-2.2330732 -1.3444195 -0.43454835
-0 -0 -0
-3.0937278 -1.8625757 -0.20170455
-3.6609852 -2.2040925 0
-7.2941346 -4.3914261 0.47556224
-0 -0 -0
-2.1048024 -1.2706617 -0.67832386
-2.1710348 -1.3106459 -0.5617947
-2.2116704 -1.3351775 -0.43069705
-0 -0 -0
-2.9424388 -1.7763399 -0.19198063
-3.5981617 -2.1721973 0
-7.2932682 -4.4029198 0.47585225
-0 -0 -0
-2.1247313 -1.2861983 -0.68524683
-2.1759727 -1.317217 -0.56348389
-2.22543 -1.3471558 -0.43369323
-0 -0 -0
-0 -0 -0
-3.5554643 -2.1522872 0
-7.296834 -4.4171119 0.4764328
-0 -0 -0
-2.1188824 -1.2861586 -0.68386114
-2.1635213 -1.3132544 -0.56067002
-2.2106297 -1.3418491 -0.43112463
-0 -0 -0
-0 -0 -0
-3.5217192 -2.1376786 0
-7.2937107 -4.4272723 0.47657779
-0 -0 -0
-2.1537561 -1.3108908 -0.69562721
-2.1727831 -1.3224716 -0.56348389
-2.2506726 -1.3698792 -0.4392564
-0 -0 -0
-0 -0 -0
-0 -0 0
-7.2994518 -4.4428358 0.47730336
-0 -0 -0
-2.1885731 -1.3357091 -0.70739335
-2.1711836 -1.325096 -0.56348389
-2.2161453 -1.3525367 -0.43283647
-0 -0 -0
-0 -0 -0
-7.2772713 -4.4413948 0
-7.2963028 -4.4530101 0.47744891
-0 -0 -0
-2.2070379 -1.348809 -0.71362478
-2.1703825 -1.3264076 -0.56348389
-2.2131395 -1.352538 -0.43240893
-0 -0 -0
-0 -0 -0
-7.2168541 -4.4105082 0
-7.3002563 -4.4614782 0.47788391
-0 -0 -0
-2.1818745 -1.3370545 -0.70601034
-2.1731071 -1.3316817 -0.56460857
-2.2224455 -1.3619163 -0.43454835
-0 -0 -0
-0 -0 -0
-7.2381477 -4.4355426 0
-7.3059444 -4.4770885 0.47861004
-0 -0 -0
-2.2358282 -1.373836 -0.72400522
-2.1736674 -1.3356407 -0.56517309
-2.216428 -1.3619155 -0.43369323
-0 -0 -0
-0 -0 -0
-7.254952 -4.4579072 0
-7.3049526 -4.4886312 0.47890005
-0 -0 -0
-2.2277567 -1.3725873 -0.72192806
-2.1698825 -1.3369294 -0.56460857
-2.2169642 -1.3659378 -0.4341208
-0 -0 -0
-0 -0 -0
-7.2539959 -4.4694033 0
-7.3039441 -4.5001779 0.47919002
-0 -0 -0
-2.2175593 -1.3700038 -0.71915942
-2.17908 -1.3462315 -0.56742465
-2.2065766 -1.3632188 -0.43240893
-0 -0 -0
-0 -0 -0
-7.2530141 -4.4808979 0
-7.3095608 -4.5158324 0.47991616
-0 -0 -0
-2.2201719 -1.3753272 -0.72054505
-2.1688118 -1.3435112 -0.56517309
-2.215837 -1.3726419 -0.43454835
-0 -0 -0
-0 -0 -0
-7.2475944 -4.4896588 0
-7.3085122 -4.5273952 0.48020616
-0 -0 -0
-2.2121129 -1.3740364 -0.71846789
-2.1714995 -1.3488096 -0.56629777
-2.2076328 -1.3712536 -0.43326405
-0 -0 -0
-0 -0 -0
-7.2819533 -4.5231276 0
-7.3140707 -4.543077 0.4809317
-0 -0 -0
-2.1912875 -1.3647728 -0.71223915
-2.169868 -1.3514324 -0.56629777
-2.1972666 -1.3684968 -0.43155381
-0 -0 -0
-0 -0 -0
-7.2543964 -4.518167 0
-7.3129916 -4.5546613 0.48122227
-0 -0 -0
-2.2066603 -1.3780506 -0.71777642
-2.1660805 -1.3527087 -0.56573546
-2.1956115 -1.3711507 -0.43155381
-2.334589 -1.4579417 -0.30678967
-0 -0 -0
-7.2798314 -4.546226 0
-7.3140969 -4.5676246 0.48165783
-0 -0 -0
-2.2156229 -1.3873718 -0.72123653
-2.170907 -1.3593718 -0.56742465
-2.200474 -1.3778859 -0.43283647
-2.3306355 -1.45939 -0.30650163
-0 -0 -0
-7.2765446 -4.5564041 0
-7.319582 -4.583353 0.48238337
-0 -0 -0
-2.1778271 -1.3673711 -0.70947045
-2.1649549 -1.3592892 -0.56629777
-0 -0 -0
-2.3244936 -1.4594572 -0.30592561
-0 -0 -0
-7.2754378 -4.5679579 0
-7.316237 -4.593574 0.48252839
-0 -0 -0
-2.1506963 -1.3539625 -0.70116454
-2.163311 -1.361904 -0.56629777
-0 -0 -0
-2.3183465 -1.4595062 -0.30534846
-2.8492901 -1.7937596 -0.18806228
-7.2875323 -4.5878377 0
-7.3260765 -4.612103 0.4835445
-0 -0 -0
-2.1745164 -1.37263 -0.70947045
-2.172405 -1.3712971 -0.56911165
-0 -0 -0
-2.3231452 -1.4664495 -0.30621362
-0 -0 -0
-7.2775865 -4.5938644 0
-7.3226933 -4.6223373 0.48368949
-0 -0 -0
-2.1940506 -1.3886709 -0.71639073
-2.1535704 -1.36305 -0.56460857
-0 -0 -0
-2.3257382 -1.4720194 -0.30678967
-3.0535166 -1.932649 -0.20184955
-7.2764239 -4.6054354 0
-7.3192964 -4.6325703 0.48383451
-0 -0 -0
-2.1457744 -1.3617498 -0.70116454
-2.1562166 -1.3683767 -0.56573546
-0 -0 -0
-2.3283298 -1.477603 -0.30736679
-2.9305186 -1.8597636 -0.1938673
-7.2928233 -4.6281662 0
-7.3312449 -4.6525497 0.4849956
-0 -0 -0
-2.1843448 -1.3899325 -0.71431625
-2.1459868 -1.3655248 -0.56348389
-0 -0 -0
-2.3287227 -1.4818025 -0.3076548
-2.9304678 -1.8647022 -0.19401285
-7.2872257 -4.6369748 0
-7.3343868 -4.6669846 0.48557618
-0 -0 -0
-2.1509371 -1.3723288 -0.70393318
-2.1443353 -1.3681169 -0.56348389
-2.2082162 -1.4088737 -0.43668777
-2.3247521 -1.4832253 -0.30736679
-2.9369664 -1.8738269 -0.19459286
-7.2750421 -4.6415815 0
-7.3309307 -4.6772394 0.48572117
-0 -0 -0
-2.1987352 -1.4046944 -0.71985358
-2.1370826 -1.3653069 -0.5617947
-2.2138565 -1.4143549 -0.4379721
-0 -0 -0
-0 -0 -0
-7.2722363 -4.6459761 0
-7.3390503 -4.6886611 0.48644674
-0 -0 -0
-2.1889994 -1.4059353 -0.71777642
