# .PCD v0.7 - Point Cloud Data file format
VERSION 0.7
FIELDS x y z
SIZE 4 4 4
TYPE F F F
COUNT 1 1 1
WIDTH 1614
HEIGHT 1
VIEWPOINT 0 0 0 1 0 0 0
POINTS 1614
DATA ascii
-5.2456903 -1.0335525 -0.59593171
-6.5333638 -1.2872614 -0.37194464
-6.5723147 -1.2949358 0
-5.3350754 -1.0511639 0.30372602
-5.2182059 -1.0346888 -0.88688636
-5.2419033 -1.0393876 -0.5956437
-6.5292478 -1.2946478 -0.37179908
-6.5630846 -1.3013572 0
-5.3414402 -1.0591242 0.30416104
-5.2093973 -1.0394857 -0.885602
-5.2355752 -1.0447093 -0.59506768
-6.5251327 -1.3020283 -0.37165409
-6.5615072 -1.3092865 0
-5.3401566 -1.0655775 0.30416104
-5.2182045 -1.047801 -0.8873139
-5.2469859 -1.0535802 -0.59650886
-6.5311999 -1.3114468 -0.37208965
-6.5573711 -1.3167019 0
-5.3235846 -1.068961 0.30329049
-5.2068701 -1.0520718 -0.885602
-5.2457094 -1.0599194 -0.59650886
-6.5245118 -1.3183073 -0.37179908
-6.5608821 -1.3256561 0
-5.3324771 -1.0774512 0.30387104
-5.2156572 -1.0604082 -0.8873139
-5.2469568 -1.0667719 -0.59679687
-6.5254679 -1.3267092 -0.37194464
-6.5643716 -1.3346187 0
-5.331171 -1.0838937 0.30387104
-5.2168946 -1.0672256 -0.88774312
-5.2380595 -1.0715554 -0.59593171
-6.521307 -1.3340706 -0.37179908
-6.5627542 -1.3425494 0
-5.3222179 -1.0887717 0.30343547
-5.2036681 -1.0677956 -0.885602
-5.2424836 -1.0757606 -0.59650886
-6.5255952 -1.3390559 -0.37208965
-6.5644889 -1.3470368 0
-5.3291979 -1.0935544 0.30387104
-5.2099185 -1.0756401 -0.88688636
-5.2335782 -1.0805249 -0.5956437
-6.5214305 -1.3464149 -0.37194464
-6.5603099 -1.354442 0
-5.3278728 -1.0999929 0.30387104
-5.2010727 -1.0803678 -0.885602
-5.2398686 -1.0884265 -0.59650886
-6.5248823 -1.3553497 -0.37223464
-6.568861 -1.364485 0
-5.3265395 -1.1064298 0.30387104
-5.2022834 -1.0871781 -0.88603121
-5.2334809 -1.0936978 -0.59593171
-6.5232396 -1.3632327 -0.37223464
-6.5621176 -1.3713574 0
-5.3328218 -1.1144582 0.30430603
-5.2084951 -1.0950462 -0.8873139
-5.2270985 -1.0989574 -0.59535569
-6.524128 -1.371648 -0.37237966
-6.5528126 -1.3776786 0
-5.3314714 -1.120901 0.30430603
-5.2121959 -1.1024022 -0.88817066
-5.2282948 -1.1058072 -0.5956437
-6.5224662 -1.3795301 -0.37237966
-6.5485997 -1.3850574 0
-5.3275733 -1.1268051 0.30416104
-5.2083516 -1.1081656 -0.88774312
-5.2294822 -1.1126615 -0.59593171
-6.5284214 -1.389033 -0.37281522
-6.5621896 -1.3962177 0
-5.3262081 -1.1332417 0.30416104
-5.1919427 -1.1112335 -0.88517445
-5.2256069 -1.1184387 -0.5956437
-6.5242 -1.396377 -0.3726702
-6.5579553 -1.4036016 0
-5.3273735 -1.1402198 0.30430603
-5.1956201 -1.1185877 -0.88603121
-5.226778 -1.1252959 -0.59593171
-6.5225077 -1.4042592 -0.3726702
-6.5613379 -1.4126191 0
-5.3209162 -1.1455632 0.30401602
-5.2043004 -1.1270381 -0.88774312
-5.2203636 -1.1305168 -0.59535569
-6.5258803 -1.4132382 -0.37296021
-6.557085 -1.4199959 0
-5.3093696 -1.1497918 0.30343547
-5.2004194 -1.1327778 -0.8873139
-5.2215185 -1.1373737 -0.5956437
-6.5216317 -1.4205699 -0.37281522
-6.5477338 -1.4262556 0
-5.3257513 -1.1600782 0.30445158
-5.1915312 -1.1374141 -0.88603121
-5.2277226 -1.1453432 -0.59650886
-6.524982 -1.4295602 -0.3731052
-6.5587239 -1.4369526 0
-5.3167286 -1.1648436 0.30401602
-5.200181 -1.1458958 -0.88774312
-5.226335 -1.151659 -0.59650886
-6.5207148 -1.4368846 -0.37296021
-6.5569825 -1.4448766 0
-5.3178525 -1.1718255 0.30416104
-5.2038002 -1.1532882 -0.8885982
-5.2274623 -1.1585324 -0.59679687
-6.5240526 -1.4458882 -0.37325075
-5.2823281 -1.170692 0
-5.3138981 -1.1776886 0.30401602
-5.1973968 -1.1584593 -0.88774312
-5.2336345 -1.1665365 -0.59766203
-5.2542529 -1.1711321 -0.30068436
-5.2961555 -1.1804719 0
-5.3124714 -1.1841086 0.30401602
-5.193481 -1.1641754 -0.8873139
-5.224647 -1.1711617 -0.59679687
-5.2807274 -1.1837326 -0.30228105
-5.3023367 -1.1885766 0
-5.3110366 -1.1905268 0.30401602
-5.1977906 -1.16844 -0.88817066
-5.2289906 -1.1754535 -0.59737402
-5.2800112 -1.1869228 -0.30228105
-5.3016176 -1.1917797 0
-5.312849 -1.1943046 0.30416104
-5.1913624 -1.1735864 -0.8873139
-5.2300868 -1.1823407 -0.59766203
-5.283637 -1.1944466 -0.30257106
-5.3027096 -1.1987581 0
-5.3114023 -1.2007233 0.30416104
-5.1899405 -1.1798583 -0.8873139
-5.2210855 -1.1869388 -0.59679687
-5.2771273 -1.199679 -0.30228105
-5.2860355 -1.2017041 0
-5.3150201 -1.2082933 0.30445158
-5.2010307 -1.1889906 -0.88945496
-5.2246952 -1.1944004 -0.59737402
-5.263011 -1.2031597 -0.30155548
-5.2972627 -1.2109898 0
-5.308485 -1.2135553 0.30416104
-5.2045894 -1.1964233 -0.89031005
-5.2232485 -1.2007126 -0.59737402
-5.2691526 -1.2112651 -0.30199105
-5.2957954 -1.2173896 0
-5.3146143 -1.2217157 0.3045966
-5.1981425 -1.201556 -0.88945496
-5.2268291 -1.2081869 -0.59795004
-5.2626171 -1.2164594 -0.3017005
-5.2993965 -1.224961 0
-5.3055367 -1.2263803 0.30416104
-5.1991849 -1.2084166 -0.8898825
-5.2203317 -1.2133317 -0.59737402
-5.2687387 -1.2245827 -0.30213606
-6.5551701 -1.5235806 0
-5.3091178 -1.2339678 0.30445158
-5.1952233 -1.2141143 -0.88945496
-5.2238941 -1.2208146 -0.59795004
-5.2470131 -1.2262175 -0.30097494
-6.5457191 -1.5297228 0
-5.3101511 -1.2409726 0.3045966
-5.196249 -1.2209774 -0.8898825
-5.2198997 -1.2265346 -0.59766203
-6.5178289 -1.5315129 -0.37397632
-6.5514693 -1.5394174 0
-5.3137016 -1.2485757 0.30488658
-5.187273 -1.225484 -0.8885982
-5.215899 -1.2322469 -0.59737402
-6.5134473 -1.5387903 -0.37383133
-6.5445437 -1.5461369 0
-5.3121891 -1.2549953 0.30488658
-5.1882834 -1.2323436 -0.88902575
-5.2194343 -1.2397426 -0.59795004
-6.5166345 -1.5478593 -0.37412134
-6.5426707 -1.5540435 0
-5.303092 -1.2596134 0.30445158
-5.1867905 -1.2386117 -0.88902575
-5.2229691 -1.2472512 -0.59852719
-6.5021253 -1.5527152 -0.37339577
-6.545846 -1.5631558 0
-5.3091407 -1.2678291 0.30488658
-5.1852903 -1.2448781 -0.88902575
-5.2139106 -1.2517492 -0.59766203
-6.5078268 -1.5623909 -0.37383133
-6.5490184 -1.5722802 0
-5.3126631 -1.2754576 0.30517715
-5.186285 -1.2517465 -0.88945496
-5.2149062 -1.2586545 -0.59795004
-6.5084577 -1.5708623 -0.37397632
-6.5471139 -1.5801922 0
-5.3035378 -1.2800465 0.30474159
-5.1847687 -1.2580123 -0.88945496
-5.2108703 -1.2643455 -0.59766203
-6.4888759 -1.5744358 -0.37296021
-6.5451999 -1.588102 0
-5.2944098 -1.2846152 0.30430603
-5.1882277 -1.2654916 -0.89031005
-5.2143598 -1.2718655 -0.59823805
-6.519784 -1.5902795 -0.37484688
-6.5432758 -1.5960095 0
-5.2979074 -1.2922441 0.3045966
-5.1974368 -1.2710651 -0.89202195
-5.2211299 -1.2768594 -0.59910321
-6.5062041 -1.5911323 -0.37412134
-6.5347242 -1.598107 0
-5.3072219 -1.2979138 0.30517715
-5.1909161 -1.2761198 -0.89116681
-5.2095366 -1.2806973 -0.59795004
-6.516891 -1.6020936 -0.37484688
-6.5479469 -1.6097283 0
-5.2905049 -1.3006024 0.30430603
-5.1968393 -1.2842368 -0.8924495
-5.218029 -1.2894732 -0.59910321
-6.4972997 -1.605605 -0.37383133
-6.548521 -1.6182628 0
-5.2964997 -1.3088647 0.30474159
-5.1878171 -1.2886605 -0.89116681
-5.2089343 -1.293906 -0.59823805
-6.502913 -1.615332 -0.37426633
-6.5465612 -1.6261742 0
-5.3024821 -1.3171434 0.30517715
-5.1812701 -1.2936831 -0.89031005
-5.2098837 -1.3008274 -0.59852719
-6.5009565 -1.6231884 -0.37426633
-6.5294466 -1.6303018 0
-5.2933211 -1.3216604 0.30474159
-5.1871753 -1.3018179 -0.89159441
-5.2108145 -1.3077506 -0.5988152
-6.5040359 -1.6323085 -0.37455687
-6.5400906 -1.6413571 0
-5.3043194 -1.3312174 0.30546716
-5.1831117 -1.3074573 -0.89116681
-5.2042098 -1.3127793 -0.59823805
-6.491981 -1.637624 -0.37397632
-6.5431542 -1.6505326 0
-5.3027067 -1.3376256 0.30546716
-5.1840143 -1.3143494 -0.89159441
-5.2151628 -1.3222468 -0.59968036
-6.5076213 -1.6499355 -0.37499189
-6.5461955 -1.6597155 0
-5.2985706 -1.3433939 0.30532214
-5.189878 -1.3225123 -0.89287704
-5.2060394 -1.3266307 -0.5988152
-6.5081482 -1.6584409 -0.37513745
-6.541666 -1.6669821 0
-5.2944279 -1.3491542 0.30517715
-5.1882758 -1.3287822 -0.89287704
-5.2094393 -1.3342024 -0.59939122
-6.4960709 -1.6637248 -0.37455687
-6.5396466 -1.6748852 0
-5.2953086 -1.3561946 0.30532214
-5.1742387 -1.3318514 -0.89073765
-5.2053208 -1.3398519 -0.59910321
-6.5066352 -1.6748108 -0.37528244
-6.5300546 -1.6808389 0
-5.2936659 -1.362592 0.30532214
-5.175118 -1.3387471 -0.89116681
-5.2087111 -1.3474373 -0.59968036
-6.4995708 -1.6813688 -0.37499189
-6.5431414 -1.6926399 0
-5.2895026 -1.3683372 0.30517715
-5.1784611 -1.3462899 -0.89202195
-5.1995668 -1.351777 -0.5988152
-6.4950223 -1.6885679 -0.37484688
-6.5511665 -1.7031642 0
-5.29287 -1.3760339 0.30546716
-5.1842837 -1.3544935 -0.89330626
-5.2079396 -1.360674 -0.59996837
-6.4929771 -1.6964146 -0.37484688
-6.5390315 -1.7084472 0
-5.2912035 -1.3824283 0.30546716
-5.1834755 -1.3676722 -0.8937338
-5.1971312 -1.3712753 -0.59910321
-6.4863486 -1.7114383 -0.37470189
-6.5399117 -1.7255712 0
-5.2828274 -1.3938864 0.30517715
-5.1851273 -1.3714594 -0.89416134
-5.2013073 -1.375739 -0.59968036
-6.4953613 -1.7180145 -0.37528244
-6.5363545 -1.7288572 0
-5.2970519 -1.4010632 0.30604771
-5.1760211 -1.3757447 -0.89287704
-5.2071333 -1.384014 -0.60054439
-6.485745 -1.7238586 -0.37484688
-6.5418086 -1.73876 0
-5.2978735 -1.408132 0.30619326
-5.1793203 -1.3833239 -0.8937338
-5.1979675 -1.3883045 -0.59968036
-6.5037408 -1.7370582 -0.376008
-6.5547843 -1.7506912 0
-5.2886343 -1.4125203 0.3057577
-5.175168 -1.3889164 -0.89330626
-5.1937809 -1.3939118 -0.59939122
-6.4966226 -1.7435696 -0.375718
-6.5325561 -1.7532134 0
-5.2844167 -1.4182366 0.30561271
-5.1933141 -1.4005158 -0.89673001
-5.1920929 -1.4001864 -0.59939122
-6.4869823 -1.7493879 -0.37528244
-6.542994 -1.7644929 0
-5.2852054 -1.4252967 0.3057577
-5.1817074 -1.4041042 -0.8950181
-5.2053809 -1.4105191 -0.60112154
-6.4773374 -1.7551854 -0.37484688
-6.5333285 -1.7703575 0
-5.2910056 -1.4337212 0.30619326
-5.180007 -1.4103643 -0.8950181
-5.1961837 -1.4147687 -0.60025638
-6.4752116 -1.7630106 -0.37484688
-6.5311847 -1.7782505 0
-5.2817454 -1.4380648 0.3057577
-5.1708684 -1.4145895 -0.8937338
-5.1944704 -1.4210463 -0.60025638
-6.480598 -1.772891 -0.37528244
-6.5365548 -1.7881991 0
-5.2850118 -1.4458157 0.30604771
-5.1741009 -1.4221959 -0.89458895
-5.1927495 -1.4273217 -0.60025638
-6.4884734 -1.783475 -0.37586299
-6.539413 -1.7974768 0
-5.2882771 -1.4535792 0.30633825
-5.1773324 -1.4298148 -0.8954457
-5.2009935 -1.4363493 -0.60140955
-6.4737926 -1.7878559 -0.37513745
-6.5322142 -1.8039901 0
-5.2890191 -1.460659 0.30648327
-5.1805434 -1.4374409 -0.89630079
-5.199254 -1.4426326 -0.60140955
-6.4791322 -1.7977591 -0.37557244
-6.5124826 -1.8070129 0
-5.294764 -1.4691336 0.30691883
-5.173862 -1.4423221 -0.8954457
-5.1900306 -1.4468294 -0.60054439
-6.4719539 -1.8041924 -0.37528244
-6.4802117 -1.8064945 0
-5.2829733 -1.4727392 0.30633825
-5.1696458 -1.4478811 -0.8950181
-5.1907763 -1.4537991 -0.60083354
-6.4797778 -1.8148143 -0.37586299
-6.4529586 -1.807303 0
-5.2936983 -1.4826249 0.30706382
-5.1703615 -1.4548212 -0.8954457
-5.1865187 -1.4593675 -0.60054439
-6.4775801 -1.8226426 -0.37586299
-6.4683089 -1.8200339 0
-5.291903 -1.4890201 0.30706382
-5.1587186 -1.4582742 -0.8937338
-5.1847515 -1.4656333 -0.60054439
-6.4778709 -1.8311743 -0.376008
-6.4560876 -1.8250165 0
-5.2851038 -1.494001 0.30677381
-5.1652489 -1.4634907 -0.8950181
-5.1963058 -1.4722902 -0.60198557
-6.4767637 -1.8350875 -0.376008
-6.4574857 -1.8296254 0
-5.2766976 -1.495068 0.30633825
-5.1782861 -1.4739461 -0.89758509
-5.1920376 -1.4778605 -0.60169756
-6.4695482 -1.8414907 -0.375718
-6.4527693 -1.8367149 0
-5.279881 -1.5028641 0.30662826
-5.1740355 -1.479497 -0.89715755
-5.190248 -1.4841329 -0.60169756
-6.4847994 -1.8543053 -0.37673354
-6.4480457 -1.8437957 0
-5.2830625 -1.5106729 0.30691883
-5.1697788 -1.4850396 -0.89673001
-5.1884508 -1.4904032 -0.60169756
-6.4775639 -1.8607061 -0.37644356
-6.4583173 -1.8551774 0
-5.2887187 -1.5192055 0.30735382
-0 -0 -0
-5.1778464 -1.494132 -0.89844185
-5.1941037 -1.4988234 -0.60256273
-6.4578323 -1.863488 -0.37542745
-6.4560709 -1.8629797 0
-5.2868791 -1.5255947 0.30735382
-5.1637025 -1.4968119 -0.89630079
-5.1947708 -1.5058178 -0.60285074
-6.4805379 -1.8785254 -0.37687913
-6.4513183 -1.8700553 0
-5.2825384 -1.5312591 0.30720881
-5.1692867 -1.5052038 -0.89758509
-5.1830144 -1.509201 -0.60169756
-6.4757614 -1.8856258 -0.37673354
-6.461545 -1.8814863 0
-5.278192 -1.5369151 0.30706382
-5.1748581 -1.5136114 -0.8988694
-5.1836672 -1.516188 -0.60198557
-6.4635024 -1.8905313 -0.37615299
-6.4492755 -1.8863701 0
-5.2813139 -1.5447491 0.30735382
-5.1705647 -1.5191402 -0.89844185
-5.1818314 -1.5224503 -0.60198557
-6.4662042 -1.8998063 -0.37644356
-6.4420023 -1.8926955 0
-5.2794437 -1.5511295 0.30735382
-5.168725 -1.5253867 -0.89844185
-5.1874323 -1.5309075 -0.60285074
-6.4688835 -1.9090875 -0.37673354
-6.4521885 -1.9041605 0
-5.2750759 -1.5567727 0.30720881
-5.1594925 -1.5294415 -0.89715755
-5.1855788 -1.5371743 -0.60285074
-6.4715595 -1.918381 -0.37702411
-6.4573712 -1.914175 0
-5.2831559 -1.5660995 0.30778939
-5.1600986 -1.5364065 -0.89758509
-5.1886802 -1.5449166 -0.60342789
-6.4592752 -1.9232332 -0.37644356
-6.4525518 -1.9212313 0
-5.2787719 -1.5717412 0.30764437
-5.1582384 -1.5426403 -0.89758509
-5.1744123 -1.5474775 -0.60198557
-6.4644175 -1.9332707 -0.37687913
-6.4552174 -1.9305193 0
-5.2693982 -1.5758841 0.30720881
-5.1563706 -1.548872 -0.89758509
-5.1824474 -1.5567049 -0.60313874
-6.4695354 -1.9433208 -0.37731412
-6.4678302 -1.9428085 0
-5.2774444 -1.5852401 0.30778939
-5.1544952 -1.5551013 -0.89758509
-5.1780887 -1.5622194 -0.60285074
-6.4597268 -1.9488871 -0.37687913
-6.4829211 -1.9558848 0
-5.2755251 -1.5916158 0.30778939
-5.1624393 -1.5643061 -0.899297
-5.1885715 -1.5722246 -0.60429192
-6.4623361 -1.9581966 -0.3771691
-6.4880276 -1.9659816 0
-5.2735982 -1.5979891 0.30778939
-5.1590395 -1.5666795 -0.8988694
-5.1826758 -1.5738573 -0.6037159
-6.4636354 -1.9628547 -0.37731412
-6.4843411 -1.9691427 0
-5.2726316 -1.6011748 0.30778939
-5.1571426 -1.5729121 -0.8988694
-5.173346 -1.577854 -0.60285074
-6.4413757 -1.964599 -0.37615299
-6.4744964 -1.9747008 0
-5.2682099 -1.6067872 0.30764437
-5.1626043 -1.5813986 -0.90015376
-5.1813278 -1.587134 -0.60400391
-6.4265771 -1.9685762 -0.37542745
-6.4497032 -1.9756602 0
-5.2737207 -1.6154356 0.30807993
-5.1459637 -1.5831051 -0.89758509
-5.1818762 -1.5941533 -0.60429192
-6.4192314 -1.9748135 -0.37513745
-6.4448261 -1.9826875 0
-5.2767272 -1.6233333 0.30836993
-5.1538577 -1.592353 -0.899297
-5.1799459 -1.6004134 -0.60429192
-6.4118705 -1.9810328 -0.37484688
-5.2390146 -1.6186634 0
-5.2772422 -1.6304743 0.30851492
-5.1494803 -1.5978192 -0.8988694
-5.1780086 -1.6066712 -0.60429192
-6.4293261 -1.9949392 -0.376008
-6.3878212 -1.9820608 0
-5.2703094 -1.635311 0.30822495
-5.1475458 -1.6040401 -0.8988694
-5.1810069 -1.614467 -0.60486907
-6.4070644 -1.9965219 -0.37484688
-6.3282814 -1.9719722 0
-5.2732868 -1.6432226 0.30851492
-5.1504989 -1.6117907 -0.89972454
-5.1691785 -1.6176362 -0.6037159
-6.3575373 -1.9895196 -0.37208965
-6.3035426 -1.9726228 0
-5.2762618 -1.6511467 0.3088055
-5.1558971 -1.6203225 -0.90100884
-5.1672201 -1.623881 -0.6037159
-6.327858 -1.9886298 -0.37049296
-6.2663908 -1.9693128 0
-5.2693 -1.6559613 0.30851492
-5.1465888 -1.6242326 -0.89972454
-5.1825228 -1.6355731 -0.60573423
-6.2907639 -1.9853274 -0.36846131
-6.2367139 -1.9682696 0
-5.2672954 -1.6623269 0.30851492
-5.1470766 -1.631228 -0.90015376
-5.1657443 -1.6371441 -0.60400391
-6.2660694 -1.9858626 -0.36715519
-6.1822348 -1.9592935 0
-5.2727165 -1.671046 0.30895048
-5.1353173 -1.6343319 -0.89844185
-5.1662245 -1.6441683 -0.60429192
-5.1519656 -1.6396303 -0.30199105
-6.1277866 -1.9501886 0
-5.2682199 -1.6766286 0.3088055
-5.1528912 -1.6467844 -0.90186393
-5.1716275 -1.6527723 -0.60515708
-5.1771998 -1.6545531 -0.30358717
-6.0783224 -1.942538 0
-5.2661901 -1.6829931 0.3088055
-5.1362367 -1.6483046 -0.899297
-5.1745572 -1.6606022 -0.60573423
-6.1425509 -1.9712477 -0.36033404
-6.0561466 -1.9435191 0
-5.2641525 -1.6893549 0.3088055
-5.1440148 -1.6576589 -0.90100884
-5.1774659 -1.6684386 -0.60631025
-6.0956421 -1.9643209 -0.35772127
-5.9993033 -1.9332758 0
-5.2670493 -1.6973069 0.3090955
-5.1468878 -1.6654524 -0.90186393
-5.1656027 -1.6715082 -0.60515708
-6.0166316 -1.9468879 -0.35322237
-5.8508806 -1.8932533 0
-5.2724137 -1.7060705 0.30953106
-5.1361227 -1.6653975 -0.90015376
-5.1719751 -1.6770228 -0.60602224
-5.8943405 -1.9112511 -0.34611067
-5.8274574 -1.8895642 0
-5.2639642 -1.7068504 0.3090955
-5.1389837 -1.6731902 -0.90100884
-5.1699452 -1.6832708 -0.60602224
-5.6993198 -1.8556288 -0.33479062
-5.8301239 -1.8982171 0
-5.2594295 -1.7124059 0.30895048
-5.1393962 -1.6801953 -0.90143639
-5.1580739 -1.6863016 -0.60486907
-5.7859774 -1.8915788 -0.34001508
-5.8204031 -1.9028333 0
-5.254889 -1.717953 0.3088055
-5.1300521 -1.6840045 -0.90015376
-5.1658621 -1.6957597 -0.60602224
-5.8009715 -1.9042424 -0.34103119
-5.7983179 -1.9033713 0
-5.2577424 -1.7259206 0.3090955
-5.1304493 -1.6910048 -0.9005813
-5.1638093 -1.7020004 -0.60602224
-5.7986665 -1.9112504 -0.34103119
-5.6650162 -1.8671989 0
-5.2581282 -1.733088 0.30924106
-5.1332717 -1.6988142 -0.90143639
-5.159296 -1.7074268 -0.60573423
-5.7963529 -1.9182556 -0.34103119
-5.3786402 -1.7800169 0
-5.2535563 -1.7386214 0.3090955
-5.1263475 -1.7033981 -0.9005813
-5.1621337 -1.7152891 -0.60631025
-5.7348499 -1.905593 -0.33754784
-5.4925556 -1.8250827 0
-5.2613153 -1.7482455 0.30967605
-5.1315842 -1.712026 -0.90186393
-5.1698713 -1.7247995 -0.60746342
-5.5378332 -1.847561 -0.3260828
-5.4508557 -1.8185431 0
-5.2518115 -1.7521368 0.30924106
-5.146553 -1.7239336 -0.90486014
-5.1702337 -1.7318658 -0.60775143
-5.547914 -1.8583769 -0.32680836
-5.4412489 -1.8226475 0
-5.2546134 -1.7601304 0.30953106
-5.1274319 -1.724422 -0.90186393
-5.163239 -1.7364644 -0.60717541
-5.597383 -1.8824726 -0.32985616
-5.3749123 -1.807653 0
-5.2574039 -1.7681333 0.30982104
-5.1277838 -1.7314398 -0.90229315
-5.1660333 -1.7443552 -0.60775143
-5.5729494 -1.8817539 -0.32855004
-5.3234096 -1.7974946 0
-5.2503448 -1.7728236 0.30953106
-5.1281166 -1.7384579 -0.90272069
-5.149229 -1.7456151 -0.60602224
-5.4648604 -1.8526158 -0.32230946
-5.3902459 -1.8273212 0
-5.2555838 -1.7816699 0.30996662
-5.1333051 -1.747135 -0.90400505
-5.1593566 -1.7560018 -0.60746342
-5.3716049 -1.8282411 -0.31693944
-5.4200602 -1.844733 0
-5.2460451 -1.7855065 0.30953106
-5.126327 -1.7516747 -0.90314829
-5.1572309 -1.7622346 -0.60746342
-5.3718486 -1.8355697 -0.31708443
-5.4202876 -1.8521214 0
-5.2463403 -1.7926834 0.30967605
-5.1266327 -1.7586998 -0.90357584
-5.155098 -1.7684648 -0.60746342
-5.4679408 -1.8757859 -0.32289001
-5.3860459 -1.8476919 0
-5.2466259 -1.7998636 0.30982104
-5.1223679 -1.7710837 -0.90357584
-5.1483669 -1.780073 -0.60717541
-5.3921757 -1.8643711 -0.31868112
-5.3126955 -1.8368905 0
-5.2496305 -1.8150855 0.3102566
-5.1188736 -1.7733386 -0.90314829
-5.152174 -1.7848749 -0.60775143
-5.3247533 -1.8446617 -0.3147622
-5.3337145 -1.8477663 0
-5.2460804 -1.817407 0.31011161
-5.1240034 -1.782053 -0.90443259
-5.147573 -1.7902502 -0.60746342
-5.2857137 -1.8382934 -0.31258553
-5.3536077 -1.8619061 0
-5.236515 -1.821183 0.30967605
-5.1291194 -1.7907823 -0.9057169
-5.1625018 -1.8024375 -0.60948175
-5.2859392 -1.8455346 -0.31273052
-5.2850113 -1.8452106 0
-5.241673 -1.8300793 0.31011161
-5.1172614 -1.7935822 -0.90400505
-5.1529951 -1.8061067 -0.60861659
-5.2665377 -1.845903 -0.31171441
-5.2434816 -1.837822 0
-5.2370081 -1.8355529 0.30996662
-5.1199288 -1.8014665 -0.90486014
-5.1483717 -1.8114741 -0.60832858
-5.254499 -1.8488154 -0.31113386
-5.2265325 -1.8389753 0
-5.2445908 -1.8453293 0.31054717
-5.1177487 -1.8076516 -0.90486014
-5.1534882 -1.8202754 -0.60919261
-5.2351174 -1.8491079 -0.31011829
-5.2169423 -1.8426881 0
-5.2448049 -1.8525295 0.31069216
-5.1155605 -1.8138341 -0.90486014
-5.1512852 -1.826501 -0.60919261
-0 -0 -0
-5.2196226 -1.8507315 0
-5.276845 -1.871021 0.31272385
-5.1133652 -1.8200139 -0.90486014
-5.1515183 -1.8335938 -0.60948175
-0 -0 -0
-5.2149234 -1.8561618 0
-5.3945303 -1.9200897 0.31983554
-5.1160016 -1.8279202 -0.9057169
-5.144423 -1.8380749 -0.6089046
-5.1941185 -1.8558309 -0.30808607
-5.1955285 -1.8563347 0
-5.4802871 -1.9580774 0.32506001
-5.1162033 -1.8349664 -0.90614444
-5.1470718 -1.8460376 -0.60948175
-5.1967688 -1.8638617 -0.30837664
-6.5209517 -2.3387904 0
-5.4950409 -1.9708394 0.32607612
-5.1091471 -1.8394061 -0.90528768
-5.1472688 -1.8531308 -0.60976976
-5.1847334 -1.8666189 -0.30779606
-0 -0 0
-5.4730968 -1.9704361 0.32491499
-5.1069207 -1.8455782 -0.90528768
-5.1425958 -1.8584707 -0.60948175
-5.172699 -1.8693497 -0.30721551
-6.4981451 -2.3483496 0
-5.4609365 -1.9735152 0.32433444
-5.1095181 -1.8535001 -0.90614444
-5.1427755 -1.8655643 -0.60976976
-6.4869871 -2.353183 -0.38544193
-6.502645 -2.3588629 0
-5.4463372 -1.9756826 0.32360888
-5.1000361 -1.8570368 -0.90486014
-5.1380897 -1.870893 -0.60948175
-0 -0 -0
-6.4949036 -2.3649392 0
-5.4366188 -1.979594 0.32317331
-5.1122599 -1.8684869 -0.90742874
-5.1261082 -1.8735484 -0.60832858
-0 -0 -0
-6.4993672 -2.3754628 0
-5.4146981 -1.9790256 0.32201222
-5.1014876 -1.8680444 -0.9057169
-5.1201129 -1.8748646 -0.60775143
-6.4578819 -2.3647239 -0.38413525
-6.4954896 -2.378495 0
-5.3988662 -1.9769374 0.32114166
-5.1040411 -1.8759767 -0.90657198
-6.4214487 -2.3601863 -0.76255643
-6.4672217 -2.3770101 -0.38486138
-6.4926109 -2.3863418 0
-5.3769622 -1.9762881 0.31998053
-5.0873251 -1.8768132 -0.90400505
-6.413744 -2.3661549 -0.76198041
-6.4545932 -2.3812251 -0.3842808
-6.4921622 -2.3950851 0
-5.3891926 -1.9881781 0.32085109
-6.4108801 -2.373903 -0.76198041
-6.4492674 -2.3881176 -0.38413525
-6.5039115 -2.4083519 0
-5.3721704 -1.9892763 0.31998053
-6.4080071 -2.3816476 -0.76198041
-6.4463773 -2.3959086 -0.38413525
-6.4936757 -2.4134879 0
-5.3429685 -1.9858074 0.31838387
-6.4123878 -2.3920982 -0.76284444
-6.4532156 -2.4073288 -0.3847158
-6.4980721 -2.4240623 0
-5.3308268 -1.9886291 0.31780329
-6.4070725 -2.3989384 -0.76255643
-6.455174 -2.4169486 -0.38500637
-6.4926944 -2.4309969 0
-5.3186955 -1.9914279 0.31722331
-6.4114351 -2.4094088 -0.7634216
-6.454679 -2.4256599 -0.38515136
-6.4970632 -2.4415877 0
-5.3187156 -1.9987662 0.3173683
-6.4012566 -2.4144149 -0.76255643
-6.4517431 -2.4334571 -0.38515136
-6.4941082 -2.4494364 0
-5.3138676 -2.0042753 0.31722331
-6.4055939 -2.4248958 -0.7634216
-6.4585185 -2.444931 -0.38573194
-6.4911437 -2.4572814 0
-5.2847075 -2.0005741 0.31562662
-6.4074903 -2.4344695 -0.76399761
-6.4555597 -2.452733 -0.38573194
-6.4954705 -2.4678967 0
-6.5526094 -2.4896061 0.39153081
-6.4045439 -2.4422097 -0.76399761
-6.4501657 -2.4596066 -0.38558692
-6.4900546 -2.474817 0
-6.5398846 -2.4938185 0.39095026
-6.4040108 -2.4508739 -0.76428676
-6.4471893 -2.4673986 -0.38558692
-6.4967818 -2.486378 0
-6.5441399 -2.5045025 0.39138526
-6.4034572 -2.4595366 -0.76457477
-6.4490499 -2.4770484 -0.38587692
-6.4913363 -2.4932904 0
-0 -0 0
-6.4028916 -2.4682014 -0.76486278
-6.4533281 -2.487644 -0.38631248
-6.4931803 -2.5030062 0
-0 -0 0
-6.4086399 -2.4748657 -0.76572794
-6.4590983 -2.4943514 -0.38674805
-6.494092 -2.5078652 0
-6.5510931 -2.5298777 0.39225638
-6.4032354 -2.4816735 -0.76543993
-6.4463882 -2.4983981 -0.3861675
-6.4813509 -2.5119483 0
-6.5504518 -2.5387297 0.39240137
-6.3954062 -2.4875319 -0.76486278
-6.4506226 -2.5090084 -0.38660249
-6.4904361 -2.5244942 0
-6.5522275 -2.5485284 0.39269194
-6.3972197 -2.4971404 -0.76543993
-6.4475865 -2.5168011 -0.38660249
-6.4898119 -2.5332837 0
-6.5491433 -2.5564437 0.39269194
-6.4038305 -2.5086422 -0.7665931
-6.4542184 -2.5283809 -0.38718304
-6.4843163 -2.5401716 0
-6.5533009 -2.5671957 0.39312693
-6.3959761 -2.5144835 -0.76601595
-6.4463267 -2.5342782 -0.38689303
-6.4860911 -2.549911 0
-6.5187588 -2.5627539 0.39124024
-6.4049606 -2.5269554 -0.76745713
-6.4553432 -2.5468328 -0.3876186
-6.4878421 -2.5596547 0
-6.5180726 -2.5715814 0.39138526
-6.3970976 -2.5327902 -0.76688111
-6.4546747 -2.5555866 -0.38776359
-6.4847445 -2.567492 0
-6.5197968 -2.5813704 0.3916758
-6.3988352 -2.5424261 -0.76745713
-6.4467573 -2.5614667 -0.38747361
-6.4937282 -2.5801296 0
-6.5263324 -2.5930841 0.39225638
-6.3957586 -2.5501561 -0.76745713
-6.4557233 -2.5740654 -0.38819915
-6.4857759 -2.5860481 0
-6.528017 -2.602891 0.39254636
-6.3950715 -2.5588422 -0.76774514
-6.4526086 -2.5818641 -0.38819915
-6.4898973 -2.5967846 0
-6.5176368 -2.6078837 0.39211136
-6.3943825 -2.567534 -0.76803428
-6.4494839 -2.589659 -0.38819915
-6.4891677 -2.6055932 0
-6.5144811 -2.6157572 0.39211136
-6.393672 -2.5762243 -0.76832229
-6.4439425 -2.5964799 -0.38805416
-6.4860144 -2.6134322 0
-6.518539 -2.6265373 0.39254636
-6.3953457 -2.585885 -0.76889831
-6.4456134 -2.6062105 -0.38834417
-6.4900928 -2.6241949 0
-6.5129538 -2.6334388 0.39240137
-6.3946199 -2.5945861 -0.76918745
-6.4520912 -2.6179047 -0.38892472
-6.4844985 -2.6310537 0
-6.5145874 -2.6432621 0.39269194
-6.4010625 -2.6062121 -0.77034062
-6.4489231 -2.6256988 -0.38892472
-6.4885483 -2.6418321 0
-6.5258241 -2.6570091 0.3935625
-6.4042721 -2.6120307 -0.77091664
-6.4473357 -2.6295943 -0.38892472
-6.4893584 -2.6467338 0
-6.5145936 -2.6570261 0.39298192
-6.3963284 -2.6178095 -0.77034062
-6.4513702 -2.6403365 -0.38936028
-6.49579 -2.6585159 0
-6.5185947 -2.6678493 0.39341748
-6.4003315 -2.6284811 -0.77120465
-6.4505768 -2.649116 -0.38950527
-6.494987 -2.6673543 0
-6.5081534 -2.6727614 0.39298192
-6.4043274 -2.6391702 -0.77206981
-6.4449711 -2.6559191 -0.38936028
-6.4869423 -2.6732154 0
-6.5121288 -2.6835945 0.39341748
-6.4011335 -2.6469066 -0.77206981
-6.4513621 -2.6676764 -0.38994083
-6.4933276 -2.6850295 0
-6.5184865 -2.6954329 0.39399806
-6.4003172 -2.6556296 -0.77235782
-6.4409313 -2.6724813 -0.38950527
-6.4852757 -2.6908805 0
-6.5104198 -2.7013135 0.39370748
-6.4018841 -2.6653514 -0.77293497
-6.4496894 -2.6852546 -0.39023083
-6.4892201 -2.7017128 0
-6.5167465 -2.7131732 0.39428803
-6.4010429 -2.6740808 -0.77322298
-6.4464402 -2.6930459 -0.39023083
-6.4907584 -2.71156 0
-6.5086727 -2.719044 0.39399806
-6.4001904 -2.6828122 -0.77351099
-6.4455848 -2.7018406 -0.39037639
-6.4850702 -2.7183919 0
-6.5101709 -2.7289135 0.39428803
-6.404099 -2.693553 -0.77437615
-6.4447083 -2.7106333 -0.39052138
-6.4913764 -2.7302618 0
-6.5140567 -2.7398012 0.39472359
-6.405601 -2.7032986 -0.77495217
-6.4414282 -2.7184184 -0.39052138
-6.4856772 -2.7370925 0
-6.5155249 -2.7496889 0.3950136
-6.4023299 -2.7110364 -0.77495217
-6.44771 -2.7302525 -0.39110196
-6.4871631 -2.7469587 0
-6.5169878 -2.7595878 0.39530417
-6.3919148 -2.7157393 -0.77408814
-6.4420171 -2.7370262 -0.39095694
-6.483839 -2.7547951 0
-6.5112596 -2.7664452 0.39515916
-6.3957596 -2.7265005 -0.77495217
-6.4434814 -2.7468441 -0.39124694
-6.4805059 -2.7626276 0
-6.5198612 -2.7794046 0.39588472
-6.3972216 -2.7362628 -0.77552933
-6.4425445 -2.7556486 -0.39139193
-6.4867344 -2.77455 0
-6.5117154 -2.7852349 0.39559415
-6.3986597 -2.7460287 -0.77610534
-6.4368243 -2.7624075 -0.39124694
-6.4809785 -2.7813566 0
-6.5178967 -2.7972002 0.39617473
-6.4007993 -2.7606955 -0.77697051
-6.4508948 -2.7823021 -0.39240807
-6.4902697 -2.7992845 0
-6.5199761 -2.8120971 0.39661026
-6.4022017 -2.7704802 -0.77754653
-6.4427543 -2.7880287 -0.3921175
-6.4868822 -2.8071246 0
-6.5189562 -2.8210042 0.39675528
-6.4035993 -2.7802761 -0.77812368
-6.448915 -2.7999511 -0.39269805
-6.4834857 -2.8149607 0
-6.5131617 -2.8278451 0.39661026
-6.404973 -2.7900755 -0.7786997
-6.4407673 -2.8056676 -0.39240807
-6.494391 -2.8290269 0
-6.519269 -2.839864 0.39719084
-6.4063416 -2.7998862 -0.77927685
-6.449275 -2.81865 -0.39313361
-6.4909678 -2.8368719 0
-6.5182114 -2.8487787 0.39733583
-6.398212 -2.8055456 -0.7786997
-6.4458642 -2.8264408 -0.39313361
-6.4827728 -2.8426247 0
-6.5171418 -2.8576951 0.39748085
-6.4019217 -2.8164001 -0.77956486
-6.447206 -2.8363221 -0.39342418
-6.4840932 -2.8525498 0
-6.5113077 -2.8645225 0.39733583
-6.4056153 -2.8272676 -0.78043002
-6.448524 -2.8462064 -0.39371419
-6.4806418 -2.8603826 0
-6.5054669 -2.8713398 0.39719084
-6.39746 -2.8329091 -0.77985287
-6.4450803 -2.8539963 -0.39371419
-6.479558 -2.8692636 0
-6.5114965 -2.8834066 0.39777139
-6.394032 -2.8406372 -0.77985287
-6.4439993 -2.8628356 -0.39385918
-6.4808478 -2.8792062 0
-6.5056353 -2.8902185 0.3976264
-6.4024143 -2.8536289 -0.78129518
-6.4500289 -2.8748512 -0.39443973
-6.4868722 -2.8912728 0
-6.5140028 -2.9033654 0.39835194
-6.3989615 -2.8613629 -0.78129518
-6.444181 -2.8815832 -0.39429474
-6.4833741 -2.8991089 0
-6.5199785 -2.9154768 0.39893252
-6.4002147 -2.871208 -0.7818712
-6.4572921 -2.8968136 -0.39531085
-6.484611 -2.9090691 0
-6.5188193 -2.9244153 0.3990775
-6.4038186 -2.8821249 -0.78273636
-6.4466763 -2.9014134 -0.39487529
-6.4858422 -2.9190404 0
-6.5129137 -2.9312246 0.39893252
-6.3979764 -2.8887973 -0.78244835
-6.4431658 -2.9092009 -0.39487529
-6.4894285 -2.9300892 0
-6.5140991 -2.9412286 0.39922249
-6.400939 -2.8947916 -0.78302437
-6.4414072 -2.9130931 -0.39487529
-6.4852786 -2.9329338 0
-6.5075903 -2.9430242 0.39893252
-6.3950834 -2.9014561 -0.78273636
-6.4449835 -2.9240959 -0.39531085
-6.4864745 -2.9429204 0
-6.5158587 -2.9562521 0.39965805
-6.3939247 -2.9102516 -0.78302437
-6.4438086 -2.9329567 -0.39545584
-6.4805474 -2.9496789 0
-6.5193791 -2.9673533 0.40009362
-6.3974643 -2.9211993 -0.78388953
-6.4497147 -2.9450579 -0.39603642
-6.4840741 -2.960747 0
-6.515789 -2.9752285 0.40009362
-6.39393 -2.9289274 -0.78388953
-6.4367018 -2.9485204 -0.39545584
-6.4852285 -2.9707494 0
-6.5192695 -2.9863429 0.40052861
-6.395082 -2.9388089 -0.78446555
-6.4472966 -2.9628036 -0.39632642
-6.4910932 -2.9829302 0
-6.5038533 -2.9887938 0.39980307
-6.3985753 -2.9497836 -0.78533071
-6.4484358 -2.9727695 -0.39661697
-6.4851141 -2.9896784 0
-6.516758 -3.0042665 0.40081918
-6.3996973 -2.9596822 -0.78590673
-6.4471951 -2.9816487 -0.39676195
-6.4744172 -2.9942381 0
-6.5178356 -3.014318 0.40110919
-6.3961163 -2.9674129 -0.78590673
-6.4341593 -2.9850626 -0.3961814
-6.4849548 -3.0086286 0
-6.5165434 -3.0232837 0.40125418
-6.3995633 -2.9784143 -0.78677189
-6.4517479 -3.0027015 -0.39748752
-6.4860382 -3.0186605 0
-6.5176015 -3.0333505 0.40154475
-6.4006515 -2.9883351 -0.78734905
-6.4410491 -3.0071962 -0.39705196
-6.4823861 -3.0264955 0
-6.5209975 -3.0445223 0.40198028
-6.3970361 -2.996067 -0.78734905
-6.4491835 -3.0204904 -0.39777809
-6.4881516 -3.0387414 0
-6.517314 -3.0523994 0.40198028
-6.3980885 -3.0059919 -0.78792506
-6.445529 -3.0282807 -0.39777809
-6.4821129 -3.0454688 0
-6.5230284 -3.0646918 0.40256086
-6.3967891 -3.0148222 -0.78821307
-6.441865 -3.0360665 -0.39777809
-6.4831409 -3.0555201 0
-6.5216684 -3.0736783 0.40270585
-6.3978229 -3.0247624 -0.78879023
-6.4405389 -3.0449576 -0.39792308
-6.4841456 -3.0655742 0
-6.5202966 -3.0826657 0.40285087
-6.3871503 -3.0291646 -0.78792506
-6.4392004 -3.0538499 -0.39806807
-6.4827857 -3.0745208 0
-6.5165672 -3.0905418 0.40285087
-6.4063435 -3.0430095 -0.79051942
-6.4514413 -3.0644312 -0.39893919
-6.4856334 -3.0806723 0
-6.5170436 -3.0955923 0.40299585
-6.3979964 -3.0485251 -0.7899434
-6.4453816 -3.0711033 -0.39879364
-6.4913039 -3.0929844 0
-6.5156512 -3.1045854 0.40314141
-6.4013023 -3.0595965 -0.79080743
-6.4510436 -3.0833712 -0.39937419
-6.4875617 -3.1008255 0
-6.5165792 -3.1146951 0.40343142
-6.4045997 -3.0706849 -0.79167259
-6.4449725 -3.0900414 -0.3992292
-6.4884992 -3.1109104 0
-6.515152 -3.1236889 0.4035764
-6.4032135 -3.0795412 -0.7919606
-6.4388947 -3.0967016 -0.39908421
-6.4894309 -3.1210063 0
-6.5184002 -3.1349387 0.40401196
-6.3971605 -3.0861533 -0.79167259
-6.4515238 -3.1123796 -0.40009975
-6.4833131 -3.1277156 0
-6.5146074 -3.1428127 0.40401196
-6.3980875 -3.0961361 -0.79224974
-6.4477582 -3.1201727 -0.40009975
-6.49124 -3.1412141 0
-6.5131421 -3.1518128 0.40415698
-6.4082985 -3.1106393 -0.79397893
-6.4439836 -3.1279612 -0.40009975
-6.4874396 -3.1490552 0
-6.5210147 -3.1653528 0.40488252
-6.4045353 -3.1183803 -0.79397893
-6.4378653 -3.1346087 -0.39995477
-6.4976649 -3.1637254 0
-6.512517 -3.1709569 0.40459251
-6.4077373 -3.129523 -0.79484409
-6.4480867 -3.1492298 -0.40082586
-6.4915013 -3.170433 0
-6.5180202 -3.1833851 0.40517309
-6.4085922 -3.1395369 -0.79542011
-6.4442768 -3.1570187 -0.40082586
-6.494679 -3.1817105 0
-6.5211716 -3.194689 0.40560865
-6.4071131 -3.1484177 -0.79570812
-6.4474468 -3.1682377 -0.40126088
-6.4908299 -3.1895556 0
-6.5173068 -3.2025664 0.40560865
-6.4009862 -3.1550148 -0.79542011
-6.4389572 -3.1737304 -0.40097088
-6.4916353 -3.1996951 0
-6.5204177 -3.213882 0.40604365
-6.4064436 -3.1673319 -0.79657328
-6.4490891 -3.1884158 -0.40184143
-6.4877644 -3.2075367 0
-6.5165296 -3.2217584 0.40604365
-6.4095659 -3.178519 -0.79743844
-6.4429059 -3.1950526 -0.40169644
-6.490881 -3.2188435 0
-6.519618 -3.2330942 0.40647921
-6.4053302 -3.1812415 -0.79715043
-6.4479585 -3.2024131 -0.40213197
-6.4842687 -3.2204468 0
-6.5199885 -3.2381873 0.4066242
-6.4061074 -3.191283 -0.79772645
-6.4440842 -3.2102017 -0.40213197
-6.4966812 -3.2364037 0
-6.5253744 -3.2506976 0.40720475
-6.3999352 -3.1978662 -0.79743844
-6.4518209 -3.2237921 -0.40285754
-6.4950919 -3.2454135 0
-6.5214419 -3.2585797 0.40720475
-6.4053159 -3.2102325 -0.79859161
-6.4456 -3.2304223 -0.40271255
-6.4958234 -3.2555935 0
-6.5198207 -3.2676206 0.40734977
-6.4060497 -3.2202909 -0.79916763
-6.4579363 -3.2463744 -0.4037281
-6.4872298 -3.2611001 0
-6.5228348 -3.2789984 0.40778533
-6.4044609 -3.2291925 -0.79945564
-6.4516912 -3.2530065 -0.40358311
-6.4925799 -3.273623 0
-6.5235128 -3.2892194 0.40807587
-6.4005547 -3.2369287 -0.79945564
-6.4500723 -3.2619712 -0.4037281
-6.493269 -3.2838168 0
-6.5172081 -3.2959235 0.40793031
-6.4058652 -3.2493403 -0.80060881
-6.4484501 -3.2709413 -0.40387365
-6.4939342 -3.2940125 0
-6.520175 -3.3073235 0.40836588
-6.4019346 -3.2570782 -0.80060881
-6.4583845 -3.2857978 -0.40474421
-6.4969101 -3.3053985 0
-6.5208106 -3.3175581 0.40865642
-6.4003048 -3.2659903 -0.80089796
-6.4520974 -3.2924192 -0.40459922
-6.4929113 -3.3132463 0
-6.5121636 -3.3230703 0.40836588
-6.4055638 -3.2784352 -0.80205113
-6.4596777 -3.3061311 -0.40532479
-6.4912176 -3.3222737 0
-6.5243373 -3.3392248 0.40938199
-6.4038963 -3.2873526 -0.80233914
-6.455678 -3.3139341 -0.40532479
-6.4895115 -3.3313022 0
-6.5156703 -3.3447301 0.40909144
-6.4022169 -3.2962708 -0.80262715
-6.4516692 -3.321732 -0.40532479
-6.4970574 -3.3451009 0
-6.5185571 -3.3561702 0.409527
-6.4051261 -3.3075657 -0.80349231
-6.4545794 -3.3331032 -0.40576035
-6.4953208 -3.354142 0
-6.5191097 -3.3664262 0.40981698
-6.4034195 -3.3164911 -0.80378032
-6.4528522 -3.3420937 -0.40590534
-6.4935722 -3.3631835 0
-6.5288858 -3.3814733 0.4106881
-6.4083047 -3.3239331 -0.80464548
-6.4577541 -3.349582 -0.4063409
-6.503088 -3.3730962 0
-6.5314507 -3.3878078 0.41097811
-6.4065762 -3.3328664 -0.80493349
-6.453702 -3.3573825 -0.4063409
-6.5036297 -3.3833561 0
-6.5250497 -3.3944993 0.41083312
-0 -0 -0
-6.4122486 -3.3555319 -0.80666268
-6.4547787 -3.3777878 -0.40692145
-6.5000415 -3.4014738 0
-6.5283365 -3.4162805 0.41155866
-0 -0 -0
-6.4081898 -3.3632774 -0.80666268
-6.452991 -3.386791 -0.40706646
-6.498229 -3.4105337 0
-6.538013 -3.4314139 0.41242978
-0 -0 -0
-6.4064164 -3.3722262 -0.80695182
-6.4580917 -3.3994272 -0.40764701
-6.5010142 -3.4220209 0
-6.5315561 -3.4380975 0.41228423
-6.4023371 -3.3799646 -0.80695182
-6.456275 -3.4084399 -0.407792
-6.501482 -3.4323058 0
-6.5297017 -3.4472036 0.41242978
-0 -0 -0
-6.4005318 -3.3889072 -0.80723983
-6.4498577 -3.4150238 -0.40764701
-6.4973302 -3.4401591 0
-6.5278258 -3.4563057 0.41257477
-0 -0 -0
-6.4101343 -3.4039145 -0.80896902
-6.4594917 -3.4301245 -0.40851757
-6.5023627 -3.4528897 0
-6.5305319 -3.4678481 0.41301033
-0 -0 -0
-6.4060168 -3.4116576 -0.80896902
-6.4599338 -3.4403722 -0.40880811
-6.5004807 -3.461966 0
-6.5332108 -3.4793973 0.41344532
-0 -0 -0
-6.4064569 -3.4218349 -0.80954617
-6.4580622 -3.4493983 -0.40895313
-6.5008793 -3.4722681 0
-6.5335898 -3.4897394 0.4137359
-0 -0 -0
-6.4091511 -3.4332337 -0.8104102
-6.4538894 -3.4571991 -0.40895313
-6.498971 -3.4813483 0
-6.5316567 -3.4988573 0.41388088
-0 -0 -0
-6.4095592 -3.4434259 -0.81098735
-6.4565763 -3.4686852 -0.40938869
-6.4993496 -3.4916642 0
-6.5320067 -3.5092089 0.41417146
-0 -0 -0
-6.4122272 -3.45485 -0.81185251
-6.4569511 -3.4789469 -0.4096787
-6.4974146 -3.5007482 0
-6.5323324 -3.5195615 0.41446146
-0 -0 -0
-6.405766 -3.4613621 -0.81156337
-6.4550266 -3.4879804 -0.40982369
-6.500051 -3.5123091 0
-6.5326428 -3.5299203 0.41475144
-0 -0 -0
-6.4150538 -3.47139 -0.81300569
-6.4574933 -3.4943552 -0.41011423
-6.502501 -3.5187104 0
-6.5328012 -3.5351067 0.41489702
-0 -0 -0
-6.413126 -3.4803712 -0.8132937
-6.4624019 -3.507113 -0.41069481
-6.5028238 -3.5290499 0
-6.5376601 -3.5479553 0.41547757
-0 -0 -0
-6.4111857 -3.4893529 -0.81358171
-6.4535904 -3.5124321 -0.41040424
-6.4985547 -3.5369046 0
-6.5356483 -3.5570931 0.41562256
-0 -0 -0
-6.418314 -3.5032918 -0.81502289
-6.4539075 -3.5227199 -0.41069481
-6.5056963 -3.5509875 0
-6.5313454 -3.5649877 0.41562256
-0 -0 -0
-6.4140763 -3.5110445 -0.81502289
-6.4587636 -3.5355062 -0.41127536
-6.4968395 -3.5563488 0
-6.5338731 -3.5766211 0.41605812
-0 -0 -0
-6.4052987 -3.5163052 -0.81444687
-6.4635978 -3.5483096 -0.41185591
-6.4970956 -3.5666988 0
-6.5249867 -3.58201 0.41576758
-0 -0 -0
-6.4168997 -3.5327704 -0.81646407
-6.4593058 -3.5561171 -0.41185591
-6.4996228 -3.5783134 0
-6.5297589 -3.5949044 0.41634813
-0 -0 -0
-6.4126263 -3.5405216 -0.81646407
-6.4595494 -3.5664287 -0.41214591
-6.5021229 -3.5899341 0
-6.5322371 -3.6065607 0.41678369
-0 -0 -0
-6.4106126 -3.5495238 -0.81675321
-6.4552355 -3.5742311 -0.41214591
-6.5000639 -3.5990524 0
-6.5369673 -3.6194859 0.41736424
-0 -0 -0
-6.4153643 -3.5622897 -0.81790638
-6.4690857 -3.5921199 -0.41330704
-6.5070844 -3.6132197 0
-6.5280414 -3.6248565 0.4170737
-0 -0 -0
-6.420094 -3.5750723 -0.81905949
-6.4624724 -3.598671 -0.41316202
-6.5004425 -3.6198146 0
-6.5304694 -3.6365354 0.41750926
-0 -0 -0
-6.4112492 -3.5803025 -0.8184824
-6.4626527 -3.6090083 -0.41345203
-6.4937849 -3.626394 0
-6.528337 -3.6456892 0.41765425
-0 -0 -0
-6.4114361 -3.5905766 -0.81905949
-6.4673557 -3.6218932 -0.41403258
-6.4939442 -3.6367834 0
-6.5284657 -3.6561165 0.41794479
-0 -0 -0
-6.4183664 -3.6046524 -0.82050073
-6.4675102 -3.6322522 -0.41432315
-6.4940791 -3.6471739 0
-6.539896 -3.6729054 0.41896036
-0 -0 -0
-6.4072433 -3.6085961 -0.81963557
-6.4631166 -3.6400642 -0.41432315
-6.4942069 -3.6575747 0
-6.5399857 -3.6833577 0.41925091
-0 -0 -0
-6.4140735 -3.6175489 -0.82078874
-6.4631772 -3.6452436 -0.41446814
-6.5010633 -3.6666114 0
-6.5422816 -3.6898587 0.41954091
-0 -0 -0
-6.414196 -3.6278408 -0.82136476
-6.4678149 -3.6581674 -0.41504872
-6.4966283 -3.674464 0
-6.5355587 -3.6964831 0.41939592
-0 -0 -0
-6.4120641 -3.636868 -0.8216539
-6.467906 -3.6685414 -0.4153387
-6.5035 -3.6887298 0
-6.5356121 -3.7069438 0.41968647
-0 -0 -0
-6.4211497 -3.6522834 -0.82338309
-6.4679904 -3.6789258 -0.41562927
-6.4990382 -3.6965854 0
-6.5378976 -3.7186882 0.42012146
-0 -0 -0
-6.4122429 -3.6574788 -0.82280707
-6.4612765 -3.6854472 -0.41548371
-6.4968252 -3.7057238 0
-6.5356545 -3.7278717 0.42026648
-0 -0 -0
-6.4190426 -3.671644 -0.82424825
-6.4658408 -3.6984122 -0.41606426
-6.4968653 -3.7161579 0
-6.5401678 -3.7409265 0.42084703
-0 -0 -0
-6.4168429 -3.6806831 -0.82453626
-6.4613676 -3.7062223 -0.41606426
-6.4946256 -3.7252991 0
-6.5379033 -3.750123 0.42099258
-0 -0 -0
-6.4168792 -3.6910157 -0.82511336
-6.463644 -3.7179148 -0.41649982
-6.4991431 -3.7383342 0
-6.5446272 -3.7644968 0.42171815
-0 -0 -0
-6.4191298 -3.7026398 -0.82597744
-6.4659014 -3.7296185 -0.41693538
-6.4968739 -3.7474835 0
-6.5423222 -3.773699 0.42186314
-0 -0 -0
-6.42137 -3.7142797 -0.82684261
-6.4658847 -3.7400281 -0.41722539
-6.5171237 -3.769666 0
-6.5422606 -3.7842059 0.42215371
-0 -0 -0
-6.4123983 -3.7194381 -0.82626545
-6.4658604 -3.7504482 -0.41751593
-6.5080571 -3.7749238 0
-6.5421743 -3.7947133 0.42244372
-0 -0 -0
-6.4213185 -3.7349887 -0.82799578
-6.4658122 -3.7608685 -0.41780594
-6.5034909 -3.7827847 0
-6.5420723 -3.8052258 0.42273369
-0 -0 -0
-6.4212646 -3.7453487 -0.8285718
-6.4702411 -3.7739153 -0.41838649
-6.505662 -3.7945752 0
-6.5374699 -3.8131278 0.42273369
-0 -0 -0
-6.4167347 -3.7531047 -0.8285718
-6.4656763 -3.7817304 -0.41838649
-6.5010724 -3.8024333 0
-6.5328574 -3.8210242 0.42273369
-0 -0 -0
-6.4188905 -3.7647822 -0.82943696
-6.4655895 -3.792172 -0.41867706
-6.5009584 -3.8129165 0
-6.5372014 -3.8341737 0.42331427
-0 -0 -0
-6.4210272 -3.7764704 -0.83030212
-6.4654779 -3.8026137 -0.41896704
-6.5030785 -3.8247283 0
-6.5370474 -3.8447068 0.42360482
-0 -0 -0
-6.4187446 -3.780349 -0.83030212
-6.4676614 -3.809159 -0.41925761
-6.5074959 -3.8326197 0
-6.5347238 -3.8486555 0.42360482
-0 -0 -0
-6.4230804 -3.7933633 -0.83145529
-6.4652896 -3.8182912 -0.4194026
-6.5050993 -3.8418021 0
-6.5390182 -3.861834 0.4241854
-0 -0 -0
-6.4207153 -3.8024383 -0.8317433
-6.4629045 -3.8274233 -0.41954762
-6.5071721 -3.8536391 0
-6.5410566 -3.8737059 0.42462093
-0 -0 -0
-6.4161162 -3.8101935 -0.8317433
-6.4739165 -3.8445182 -0.42056373
-6.5114617 -3.8668144 0
-6.5430675 -3.8855832 0.42505595
-0 -0 -0
-6.4203968 -3.8232369 -0.83289647
-6.4692669 -3.8523378 -0.42056373
-6.5045424 -3.8733439 0
-6.5450673 -3.897476 0.42549148
-0 -0 -0
-6.4179912 -3.8323166 -0.83318448
-6.466836 -3.8614829 -0.42070872
-6.5110359 -3.8878758 0
-6.5381246 -3.9040508 0.42534649
-0 -0 -0
-6.4244494 -3.8467109 -0.83462566
-6.46662 -3.8719611 -0.42099872
-6.515265 -3.901088 0
-6.5423198 -3.9172873 0.42592704
-0 -0 -0
-6.4220204 -3.8558061 -0.83491474
-6.4730821 -3.8864636 -0.42172486
-6.5127754 -3.910296 0
-6.5398073 -3.9265258 0.42607206
-0 -0 -0
-6.4217844 -3.8662286 -0.83549082
-6.4683809 -3.8942821 -0.42172486
-6.5035825 -3.9154751 0
-6.541739 -3.938447 0.42650762
-0 -0 -0
-6.4237528 -3.8779967 -0.83635598
-6.4703379 -3.9061201 -0.42215985
-6.5099931 -3.9300597 0
-6.5369754 -3.9463487 0.42650762
-0 -0 -0
-6.4212732 -3.887094 -0.83664399
-6.4700637 -3.9166291 -0.42245039
-6.5007825 -3.9352248 0
-6.5344229 -3.9555888 0.42665261
-0 -0 -0
-6.4165716 -3.89485 -0.83664399
-6.4697647 -3.9271381 -0.4227404
-6.5004768 -3.9457803 0
-6.5363045 -3.9675276 0.42708817
-0 -0 -0
-6.4162755 -3.9052873 -0.83722001
-6.4694581 -3.9376574 -0.42303094
-6.5068173 -3.9603961 0
-6.5448194 -3.983526 0.42795873
-0 -0 -0
-6.4270086 -3.9224706 -0.83923835
-6.4691272 -3.9481761 -0.42332095
-6.5020275 -3.9682555 0
-6.5377851 -3.9900787 0.42781374
-0 -0 -0
-6.4222641 -3.9302335 -0.83923835
-6.4687891 -3.9587052 -0.42361152
-6.5061069 -3.9815428 0
-6.5351734 -3.9993305 0.42795873
-0 -0 -0
-6.422092 -3.935463 -0.83952636
-6.4774718 -3.9693999 -0.42433706
-6.519227 -3.9949875 0
-6.5438318 -4.0100651 0.42868429
-0 -0 -0
-6.4217434 -3.9459307 -0.84010351
-6.4770942 -3.9799418 -0.42462707
-6.5099645 -4.0001392 0
-6.5411935 -4.0193281 0.42882928
-0 -0 -0
-6.4235792 -3.9577589 -0.84096861
-6.4767094 -3.9904938 -0.42491764
-6.5095534 -4.0107303 0
-6.5451808 -4.032681 0.42940983
-0 -0 -0
-6.4187922 -3.9655175 -0.84096861
-6.4762998 -4.0010457 -0.42520764
-6.5135589 -4.0240641 0
-6.5491457 -4.0460496 0.42999041
-0 -0 -0
-6.4205861 -3.9773529 -0.8418327
-6.469254 -4.0075011 -0.42506263
-6.5109019 -4.0333009 0
-6.5464678 -4.0553322 0.43013597
-0 -0 -0
-6.4197378 -3.9983268 -0.84298587
-6.4749918 -4.0327401 -0.42607874
-6.5143948 -4.057281 0
-6.5454626 -4.0766306 0.43071595
-0 -0 -0
-6.423677 -4.0115609 -0.84413904
-6.4701147 -4.0405612 -0.42607874
-6.5161123 -4.0692863 0
-6.5493479 -4.0900416 0.43129653
-0 -0 -0
-6.423214 -4.022068 -0.84471613
-6.471828 -4.0525093 -0.42651376
-6.5111904 -4.077157 0
-6.5466094 -4.0993357 0.43144208
-0 -0 -0
-6.4271111 -4.0353274 -0.8458693
-6.4779363 -4.0672383 -0.42723987
-6.5150757 -4.0905566 0
-6.5526528 -4.11415 0.43216762
-0 -0 -0
-6.4244175 -4.044467 -0.84615737
-6.475214 -4.0764461 -0.42738485
-6.510128 -4.0984259 0
-6.5498738 -4.1234474 0.43231264
-0 -0 -0
-6.4238958 -4.0549855 -0.84673339
-6.4724789 -4.0856528 -0.42752987
-6.5117669 -4.1104527 0
-6.5470815 -4.1327443 0.43245763
-0 -0 -0
-6.421175 -4.0641265 -0.8470214
-6.4719329 -4.0962524 -0.42782041
-6.5133948 -4.1224947 0
-6.5486722 -4.1448226 0.43289319
-0 -0 -0
-6.4315486 -4.0815849 -0.84903973
-6.4735541 -4.1082425 -0.42825541
-6.5150032 -4.1345468 0
-6.5414672 -4.1513414 0.4327482
-0 -0 -0
-6.4309807 -4.092133 -0.84961683
-6.4729743 -4.118854 -0.42854598
-6.5143895 -4.1452074 0
-6.5430255 -4.1634288 0.43318376
-0 -0 -0
-6.4219613 -4.0918465 -0.84875172
-6.4726739 -4.1241589 -0.42869097
-6.5162783 -4.1519418 0
-6.5514641 -4.1743612 0.4339093
-0 -0 -0
-6.432272 -4.1093521 -0.85077
-6.4808202 -4.140368 -0.42956153
-6.5200291 -4.1654172 0
-6.544219 -4.180871 0.43376374
-0 -0 -0
-6.4316535 -4.1199088 -0.85134608
-6.4736266 -4.1467953 -0.42941654
-6.5193701 -4.1760969 0
-6.5501089 -4.1957874 0.43448988
-0 -0 -0
-6.4375501 -4.1346645 -0.85278726
-6.4686112 -4.1546144 -0.42941654
-6.5208907 -4.1881919 0
-6.5494032 -4.2065048 0.43477985
-0 -0 -0
-6.4260321 -4.1382432 -0.85192317
-6.4788814 -4.172277 -0.43043265
-6.5180111 -4.1974759 0
-6.5443153 -4.2144156 0.43477985
-0 -0 -0
-6.4318891 -4.1530185 -0.85336441
-6.476016 -4.1815104 -0.43057767
-6.517303 -4.2081695 0
-6.5457692 -4.2265496 0.43521541
-0 -0 -0
-6.4246888 -4.1593771 -0.85307527
-6.4687796 -4.1879215 -0.43043265
-6.5144043 -4.2174597 0
-6.5515618 -4.2415152 0.43594098
-0 -0 -0
-6.4326797 -4.1755896 -0.85480559
-6.4789648 -4.2056341 -0.43144822
-6.5136652 -4.228159 0
-6.546432 -4.2494283 0.43594098
-0 -0 -0
-6.4297953 -4.1847687 -0.8550936
-6.4717026 -4.2120438 -0.4313032
-6.5150976 -4.2402868 0
-6.5500035 -4.2630053 0.43652153
-0 -0 -0
-6.4225702 -4.1911225 -0.85480559
-6.4840174 -4.2312207 -0.43246433
-6.5208645 -4.2552657 0
-6.5491958 -4.2737536 0.43681154
-0 -0 -0
-6.4283209 -4.2059593 -0.85624677
-6.4789 -4.2390523 -0.43246433
-6.5200777 -4.2659941 0
-6.5505524 -4.2859335 0.4372471
-0 -0 -0
-6.425395 -4.2151408 -0.85653478
-6.4694319 -4.24403 -0.43217432
-6.5170922 -4.2752957 0
-6.5497184 -4.2966986 0.43753764
-0 -0 -0
-6.4289408 -4.2285872 -0.85768795
-6.4773207 -4.2604084 -0.43304488
-6.5162663 -4.2860246 0
-6.5532055 -4.3103213 0.43811822
-0 -0 -0
-6.4238267 -4.236352 -0.85768795
-6.4786777 -4.2725248 -0.43348044
-6.5132532 -4.2953267 0
-6.5501599 -4.3196654 0.43826321
-0 -0 -0
-6.4294887 -4.2512422 -0.85912913
-6.4800153 -4.2846508 -0.433916
-6.518919 -4.3103743 0
-6.5492663 -4.3304405 0.43855321
-0 -0 -0
-6.4290819 -4.2565579 -0.85941827
-6.4774256 -4.2885652 -0.433916
-6.5249934 -4.3200588 0
-6.5553155 -4.3401346 0.43913376
-0 -0 -0
-6.4282398 -4.2671814 -0.85999429
-6.4808898 -4.3021317 -0.43449599
-6.5241013 -4.3308158 0
-6.5479035 -4.3466163 0.43898878
-0 -0 -0
-6.4316916 -4.2806778 -0.86114746
-6.4778562 -4.3114033 -0.43464157
-6.5253654 -4.3430228 0
-6.5512996 -4.3602839 0.43956932
-0 -0 -0
-6.4308214 -4.2913198 -0.86172456
-6.4769607 -4.3221092 -0.43493155
-6.5222754 -4.3523479 0
-6.5525122 -4.3725247 0.44000489
-0 -0 -0
-6.4342303 -4.3048406 -0.86287773
-6.4803724 -4.335712 -0.43551213
-6.5299854 -4.3689055 0
-6.5536971 -4.3847699 0.44043988
-0 -0 -0
-6.4268699 -4.3111668 -0.86258864
-6.4859161 -4.3507752 -0.43623766
-6.5203834 -4.3738961 0
-6.5591898 -4.3999271 0.44116601
-0 -0 -0
-6.4259529 -4.3218188 -0.8631658
-6.4806542 -4.3586087 -0.43623766
-6.5237317 -4.3875809 0
-6.5538688 -4.4078498 0.44116601
-0 -0 -0
-6.4293041 -4.3353643 -0.86431897
-6.4796963 -4.3693447 -0.43652824
-6.5270567 -4.4012804 0
-6.557147 -4.4215708 0.441746
-0 -0 -0
-6.4347725 -4.3503718 -0.86576015
-6.4808636 -4.3815327 -0.43696323
-6.5260415 -4.4120765 0
-6.5539584 -4.4309502 0.44189155
-0 -0 -0
-6.4337893 -4.3610435 -0.86633617
-6.4777217 -4.3908224 -0.43710878
-6.5207057 -4.4199586 0
-6.5550466 -4.4432359 0.44232655
-0 -0 -0
-6.4306602 -4.3702722 -0.86662525
-6.4810081 -4.4044886 -0.43768933
-6.5261288 -4.4351525 0
-6.5539751 -4.4540768 0.44261712
-0 -0 -0
-6.4424667 -4.3896847 -0.86893052
-6.4799719 -4.4152398 -0.43797934
-6.5207653 -4.4430351 0
-6.550734 -4.4634547 0.44276211
-0 -0 -0
-6.4307566 -4.3930931 -0.86806649
-6.481071 -4.427465 -0.4384149
-6.5282812 -4.4597158 0
-6.5539184 -4.4772296 0.44334269
-0 -0 -0
-6.4318395 -4.405241 -0.86893052
-6.4821501 -4.4396992 -0.43885046
-6.525033 -4.46907 0
-6.5549369 -4.489552 0.44377825
-0 -0 -0
-0 -0 -0
-6.4350405 -4.4188657 -0.87008369
-6.4789209 -4.448998 -0.43899545
-6.5217714 -4.4784231 0
-6.5602155 -4.5048223 0.44450378
-0 -0 -0
