# .PCD v0.7 - Point Cloud Data file format
VERSION 0.7
FIELDS x y z
SIZE 4 4 4
TYPE F F F
COUNT 1 1 1
WIDTH 1751
HEIGHT 1
VIEWPOINT 0 0 0 1 0 0 0
POINTS 1751
DATA ascii
-7.5547824 -0.03194987 0
-7.6123662 -0.0321934 0.42520151
-0 -0 -0
-0 -0 -0
-0 -0 -0
-0 -0 -0
-0 -0 -0
-7.5266962 -0.040925849 -0.42041874
-7.5469284 -0.041035861 0
-7.60712 -0.041363146 0.42491093
-0 -0 -0
-0 -0 -0
-0 -0 -0
-0 -0 -0
-0 -0 -0
-7.5448227 -0.050141189 -0.42143428
-7.520854 -0.0499819 0
-7.6018724 -0.050520331 0.42462093
-0 -0 -0
-0 -0 -0
-0 -0 -0
-0 -0 -0
-0 -0 -0
-7.5421605 -0.059237208 -0.42128929
-0 -0 0
-7.6018057 -0.059705671 0.42462093
-0 -0 -0
-0 -0 -0
-0 -0 -0
-0 -0 -0
-0 -0 -0
-7.4563408 -0.067573346 -0.41649982
-7.5311208 -0.068251044 0
-7.5939307 -0.06882026 0.4241854
-0 -0 -0
-0 -0 -0
-0 -0 -0
-0 -0 -0
-0 -0 -0
-7.4302754 -0.076316006 -0.41504872
-7.5180235 -0.077217259 0
-7.5860448 -0.077915907 0.42374983
-0 -0 -0
-0 -0 -0
-0 -0 -0
-0 -0 -0
-0 -0 -0
-7.5211101 -0.086337835 -0.42012817
-7.5153151 -0.086271308 0
-7.5807533 -0.087022506 0.42345983
-0 -0 -0
-0 -0 -0
-0 -0 -0
-0 -0 -0
-0 -0 -0
-7.5080118 -0.095260769 -0.4194026
-7.4839878 -0.094955951 0
-7.5806427 -0.096182302 0.42345983
-0 -0 -0
-0 -0 -0
-0 -0 -0
-0 -0 -0
-0 -0 -0
-7.4819756 -0.099451438 -0.41795149
-7.4787192 -0.099408157 0
-7.5701904 -0.100624 0.42287928
-0 -0 -0
-0 -0 -0
-0 -0 -0
-0 -0 -0
-0 -0 -0
-7.4922328 -0.10864243 -0.41853151
-7.4994116 -0.10874653 0
-7.5648618 -0.1096956 0.42258871
-0 -0 -0
-0 -0 -0
-0 -0 -0
-0 -0 -0
-0 -0 -0
-7.4505358 -0.11704237 -0.41620982
-7.4810572 -0.11752184 0
-7.564724 -0.11883618 0.42258871
-0 -0 -0
-0 -0 -0
-0 -0 -0
-0 -0 -0
-0 -0 -0
-7.5101371 -0.12705562 -0.41954762
-7.4835191 -0.12660529 0
-7.5593834 -0.12788875 0.4222987
-0 -0 -0
-0 -0 -0
-0 -0 -0
-0 -0 -0
-0 -0 -0
-7.452827 -0.13509409 -0.41635481
-7.4781513 -0.13555315 0
-7.5436301 -0.13674004 0.42142758
-0 -0 -0
-0 -0 -0
-0 -0 -0
-0 -0 -0
-0 -0 -0
-7.4630499 -0.14430021 -0.41693538
-7.4701738 -0.14443795 0
-7.5382686 -0.14575459 0.4211376
-0 -0 -0
-0 -0 -0
-0 -0 -0
-0 -0 -0
-0 -0 -0
-7.4187083 -0.15241048 -0.41446814
-7.4361711 -0.15276924 0
-7.5354915 -0.15480968 0.42099258
-0 -0 -0
-0 -0 -0
-0 -0 -0
-0 -0 -0
-0 -0 -0
-7.475666 -0.16261755 -0.41766092
-7.43859 -0.16181104 0
-7.5326939 -0.16385807 0.42084703
-0 -0 -0
-0 -0 -0
-0 -0 -0
-0 -0 -0
-0 -0 -0
-7.4261141 -0.17051715 -0.4149037
-7.4435878 -0.17091838 0
-7.5272999 -0.17284055 0.42055702
-0 -0 -0
-0 -0 -0
-0 -0 -0
-0 -0 -0
-0 -0 -0
-7.4388885 -0.17980391 -0.41562927
-7.4381776 -0.17978673 0
-7.5244904 -0.18187296 0.42041203
-0 -0 -0
-0 -0 -0
-0 -0 -0
-0 -0 -0
-0 -0 -0
-7.4464512 -0.18898982 -0.41606426
-7.4509606 -0.18910426 0
-7.5164695 -0.19076687 0.41997647
-0 -0 -0
-0 -0 -0
-0 -0 -0
-0 -0 -0
-0 -0 -0
-7.4176521 -0.19722773 -0.41446814
-7.4481277 -0.19803804 0
-7.5188284 -0.19991791 0.42012146
-0 -0 -0
-0 -0 -0
-0 -0 -0
-0 -0 -0
-0 -0 -0
-7.4381881 -0.20676801 -0.41562927
-7.4322691 -0.20660347 0
-7.5055966 -0.20864184 0.41939592
-0 -0 -0
-0 -0 -0
-0 -0 -0
-0 -0 -0
-0 -0 -0
-7.4145589 -0.21507744 -0.41432315
-0 -0 0
-7.5027442 -0.21763547 0.41925091
-0 -0 -0
-0 -0 -0
-0 -0 -0
-0 -0 -0
-0 -0 -0
-7.4168882 -0.22411473 -0.41446814
-7.4213428 -0.22424933 0
-7.4894919 -0.22630858 0.41852537
-0 -0 -0
-0 -0 -0
-0 -0 -0
-0 -0 -0
-0 -0 -0
-7.3958349 -0.23242347 -0.41330704
-7.41326 -0.23297109 0
-7.484014 -0.23519461 0.4182348
-0 -0 -0
-0 -0 -0
-0 -0 -0
-7.2901893 -0.23792124 -0.81300569
-7.4007378 -0.24152908 -0.41359702
-7.4129734 -0.2419284 0
-7.4759307 -0.24398306 0.41779923
-0 -0 -0
-0 -0 -0
-0 -0 -0
-7.3364215 -0.2483045 -0.81819439
-7.4030452 -0.25055939 -0.4137426
-7.4152842 -0.25097364 0
-7.4782348 -0.25310424 0.41794479
-0 -0 -0
-0 -0 -0
-0 -0 -0
-7.3645425 -0.25816545 -0.82136476
-7.3897452 -0.25904891 -0.41301647
-7.4227705 -0.26020664 0
-7.467536 -0.26177588 0.41736424
-0 -0 -0
-0 -0 -0
-0 -0 -0
-7.4057426 -0.26408949 -0.82597744
-7.3921914 -0.26360628 -0.41316202
-0 -0 0
-7.4595838 -0.26600948 0.41692868
-0 -0 -0
-0 -0 -0
-0 -0 -0
-7.3278813 -0.27017891 -0.81732923
-7.3710942 -0.27177218 -0.41200092
-7.404089 -0.27298871 0
-7.4670491 -0.27531004 0.41736424
-0 -0 -0
-0 -0 -0
-0 -0 -0
-7.3249674 -0.27893472 -0.81704122
-7.3707604 -0.28067851 -0.41200092
-7.3985476 -0.28173664 0
-7.4563251 -0.2839368 0.41678369
-0 -0 -0
-0 -0 -0
-0 -0 -0
-7.1902413 -0.28250536 -0.80205113
-7.3574362 -0.28907445 -0.41127536
-7.390408 -0.29036993 0
-7.4507785 -0.29274189 0.41649312
-0 -0 -0
-0 -0 -0
-0 -0 -0
-7.1278701 -0.28868112 -0.7951321
-7.3726544 -0.29859498 -0.41214591
-7.3848457 -0.29908875 0
-7.453023 -0.30184993 0.41663867
-0 -0 -0
-0 -0 -0
-0 -0 -0
-7.1223426 -0.29707778 -0.79455495
-7.3748817 -0.30761135 -0.4122909
-7.3792834 -0.30779496 0
-7.4370708 -0.31020528 0.41576758
-0 -0 -0
-0 -0 -0
-0 -0 -0
-7.0909791 -0.304353 -0.79109657
-7.3537364 -0.31563082 -0.4111298
-7.3711033 -0.31637624 0
-7.4366908 -0.31919131 0.41576758
-0 -0 -0
-0 -0 -0
-0 -0 -0
-7.1086864 -0.31371874 -0.79311377
-7.3533497 -0.32451615 -0.4111298
-7.3629136 -0.32493821 0
-7.4285092 -0.32783309 0.41533202
-0 -0 -0
-0 -0 -0
-0 -0 -0
-7.1677327 -0.3250027 -0.79974478
-7.3451724 -0.33304822 -0.41069481
-7.3807168 -0.3346599 0
-7.4307108 -0.33692676 0.41547757
-0 -0 -0
-0 -0 -0
-0 -0 -0
-7.198339 -0.33510661 -0.8032043
-7.331779 -0.34131867 -0.40996867
-7.3543153 -0.34236783 0
-7.4199157 -0.34542173 0.41489702
-0 -0 -0
-0 -0 -0
-7.2754302 -0.34750596 -0.81185251
-7.315793 -0.34943387 -0.40909812
-7.3278956 -0.35001191 0
-7.4168901 -0.35426268 0.41475144
-0 -0 -0
-0 -0 -0
-7.3318343 -0.35907987 -0.81819439
-7.3361282 -0.35929018 -0.41025925
-7.3378649 -0.35937524 0
-7.4086781 -0.36284333 0.41431645
-0 -0 -0
-0 -0 -0
-0 -0 -0
-7.3262239 -0.36767918 -0.81761724
-7.3279009 -0.36776334 -0.40982369
-7.3530259 -0.36902428 0
-7.4004464 -0.37140414 0.41388088
-0 -0 -0
-0 -0 -0
-7.2921968 -0.37480539 -0.81386971
-7.3196735 -0.37621763 -0.40938869
-0 -0 0
-7.4025846 -0.38047913 0.4140259
-0 -0 -0
-0 -0 -0
-0 -0 -0
-7.29949 -0.38402411 -0.81473488
-7.324398 -0.38533452 -0.4096787
-7.3443131 -0.38638225 0
-7.3969345 -0.38915065 0.4137359
-0 -0 -0
-0 -0 -0
-0 -0 -0
-7.3083639 -0.39334673 -0.40880811
-7.3074536 -0.39329773 0
-7.3886724 -0.39766905 0.41330034
-0 -0 -0
-0 -0 -0
-0 -0 -0
-7.3026896 -0.40189132 -0.40851757
-7.306973 -0.40212706 0
-7.3855944 -0.40645385 0.41315535
-0 -0 -0
-0 -0 -0
-0 -0 -0
-7.2866373 -0.40983966 -0.40764701
-7.3350668 -0.41256359 0
-7.3825064 -0.41523182 0.41301033
-0 -0 -0
-0 -0 -0
-0 -0 -0
-7.301949 -0.41512647 -0.40851757
-7.3114338 -0.41566569 0
-7.379652 -0.41954401 0.41286477
-0 -0 -0
-0 -0 -0
-0 -0 -0
-7.2832808 -0.42289463 -0.40750146
-7.2979383 -0.42374569 0
-7.3713651 -0.42800912 0.41242978
-0 -0 -0
-0 -0 -0
-6.9069195 -0.40941605 -0.77120465
-7.2853661 -0.43184894 -0.40764701
-7.3052073 -0.43302506 0
-7.360467 -0.43630064 0.41184923
-0 -0 -0
-0 -0 -0
-0 -0 -0
-7.2744641 -0.44002402 -0.40706646
-7.2839065 -0.44059518 0
-7.3573432 -0.44503728 0.41170421
-0 -0 -0
-0 -0 -0
-6.957541 -0.42929193 -0.77697051
-7.2843013 -0.44945356 -0.40764701
-7.2703738 -0.44859421 0
-7.3541989 -0.45376638 0.41155866
-0 -0 -0
-0 -0 -0
-7.0267072 -0.44208294 -0.78475356
-7.2733793 -0.45760226 -0.40706646
-7.2880101 -0.45852274 0
-7.3458729 -0.46216315 0.41112366
-0 -0 -0
-0 -0 -0
-6.9797115 -0.4475939 -0.77956486
-7.2624488 -0.46572521 -0.40648589
-7.2640791 -0.46582976 0
-7.3478999 -0.471205 0.41126865
-0 -0 -0
-0 -0 -0
-7.0023918 -0.4575448 -0.78215921
-7.2411375 -0.47314471 -0.40532479
-7.2713041 -0.47511587 0
-7.3369536 -0.47940546 0.4106881
-0 -0 -0
-0 -0 -0
-6.9424839 -0.46205544 -0.77552933
-7.2535214 -0.4827565 -0.40605032
-7.2499509 -0.48251885 0
-7.3311782 -0.48792493 0.41039756
-0 -0 -0
-0 -0 -0
-7.0167542 -0.47551513 -0.78388953
-7.2581229 -0.49187234 -0.4063409
-7.2571445 -0.49180603 0
-7.3228135 -0.49625632 0.40996253
-0 -0 -0
-0 -0 -0
-7.0290737 -0.48488298 -0.78533071
-7.2264156 -0.49849612 -0.40459922
-7.2331805 -0.49896279 0
-7.3196087 -0.50492477 0.40981698
-0 -0 -0
-0 -0 -0
-7.0723424 -0.49645469 -0.79023141
-7.2413554 -0.50831884 -0.40546978
-7.2351761 -0.50788504 0
-7.3138142 -0.5134052 0.409527
-0 -0 -0
-0 -0 -0
-7.1362329 -0.50960559 -0.79743844
-7.2355576 -0.51669842 -0.40517977
-7.2397437 -0.5169974 0
-7.318367 -0.52261198 0.40981698
-0 -0 -0
-7.2723231 -0.52815664 -0.81271654
-7.2375169 -0.52562886 -0.40532479
-7.2235451 -0.5246141 0
-7.307364 -0.53070152 0.40923643
-0 -0 -0
-0 -0 -0
-7.3439045 -0.54227656 -0.82078874
-7.226511 -0.5336082 -0.40474421
-7.2280917 -0.5337249 0
-7.2989507 -0.53895712 0.40880144
-0 -0 -0
-0 -0 -0
-7.2084746 -0.54979461 -0.80579865
-7.2174249 -0.55047727 -0.40430868
-7.2060208 -0.54960746 0
-7.2898517 -0.55600125 0.40836588
-0 -0 -0
-7.0891876 -0.54931301 -0.79253775
-7.2089901 -0.55859601 -0.40387365
-7.2209249 -0.55952084 0
-7.2813997 -0.56420678 0.40793031
-0 -0 -0
-6.980226 -0.54935569 -0.78043002
-7.2057118 -0.56710184 -0.4037281
-7.2228355 -0.5684495 0
-7.2833109 -0.57320899 0.40807587
-0 -0 -0
-6.9721556 -0.55295908 -0.77956486
-7.2079659 -0.57166111 -0.40387365
-7.1939507 -0.57054955 0
-7.2726016 -0.57678735 0.40749532
-0 -0 -0
-6.9276562 -0.55785406 -0.77466416
-7.2020845 -0.5799526 -0.40358311
-7.1880727 -0.57882422 0
-7.274487 -0.58578283 0.40764031
-0 -0 -0
-6.8367586 -0.55884969 -0.76457477
-7.1832476 -0.58717239 -0.402567
-7.2133012 -0.58962905 0
-7.2685895 -0.5941484 0.40734977
-0 -0 -0
-6.8386536 -0.5673238 -0.76486278
-7.1928911 -0.5967108 -0.40314755
-7.1814604 -0.59576255 0
-7.2678661 -0.60293061 0.40734977
-0 -0 -0
-6.8070345 -0.57298321 -0.76140326
-7.174047 -0.60387653 -0.40213197
-7.170362 -0.60356635 0
-7.2541885 -0.61062241 0.4066242
-0 -0 -0
-6.7960291 -0.58032751 -0.76025009
-7.1810718 -0.6132071 -0.402567
-7.2085261 -0.61555153 0
-7.2482719 -0.61894548 0.40633419
-0 -0 -0
-6.8752069 -0.59545749 -0.76918745
-7.1777396 -0.62165958 -0.40242198
-7.1662922 -0.62066817 0
-7.2449327 -0.6274792 0.4061892
-0 -0 -0
-0 -0 -0
-6.8899369 -0.60512167 -0.77091664
-7.1692152 -0.62964982 -0.40198642
-7.1784973 -0.63046503 0
-7.2415733 -0.63600481 0.40604365
-0 -0 -0
-6.8943582 -0.61390567 -0.77149379
-7.1632776 -0.63785148 -0.40169644
-7.1440334 -0.6361379 0
-7.238214 -0.6445241 0.40589863
-0 -0 -0
-6.9039059 -0.62316483 -0.77264583
-7.1573305 -0.64603966 -0.40140644
-7.1717739 -0.64734334 0
-7.240015 -0.653503 0.40604365
-0 -0 -0
-6.8799686 -0.62938601 -0.77005148
-7.1591301 -0.65492392 -0.40155143
-7.1476636 -0.65387499 0
-7.2314649 -0.66154116 0.40560865
-0 -0 -0
-6.8534536 -0.63531166 -0.76716912
-7.150569 -0.66285408 -0.40111586
-7.1598229 -0.66371191 0
-7.2203107 -0.66931909 0.40502807
-0 -0 -0
-6.8398075 -0.64238322 -0.76572794
-7.1342454 -0.67003632 -0.40024531
-7.1538286 -0.67187554 0
-7.2194967 -0.67804295 0.40502807
-0 -0 -0
-6.8390265 -0.65064734 -0.76572794
-7.1360149 -0.67890203 -0.40039033
-7.150423 -0.68027282 0
-7.2109094 -0.68602729 0.40459251
-0 -0 -0
-6.8202109 -0.65717369 -0.7637096
-7.1274276 -0.6867761 -0.39995477
-7.1495962 -0.68891221 0
-7.2048974 -0.69424087 0.40430197
-0 -0 -0
-6.8116865 -0.66466033 -0.76284444
-7.1369371 -0.69639707 -0.40053532
-7.1409855 -0.69679213 0
-7.1988859 -0.70244181 0.40401196
-0 -0 -0
-6.818603 -0.67365354 -0.7637096
-7.1154037 -0.70297641 -0.39937419
-7.1297884 -0.70439756 0
-7.1876884 -0.71011788 0.40343142
-0 -0 -0
-6.8460965 -0.68472373 -0.76688111
-0 -0 -0
-7.121161 -0.71223474 0
-7.1868253 -0.71880227 0.40343142
-0 -0 -0
-0 -0 -0
-7.1188593 -0.72069341 -0.39966476
-7.1332388 -0.72214919 0
-7.1833687 -0.72722417 0.4032864
-0 -0 -0
-0 -0 -0
-7.1158299 -0.72473013 -0.39951921
-7.0913758 -0.72223949 0
-7.2061911 -0.73393315 0.40459251
-0 -0 -0
-0 -0 -0
-7.0994458 -0.73172975 -0.39864865
-7.1137943 -0.73320866 0
-7.2440629 -0.74663526 0.40676922
-0 -0 -0
-0 -0 -0
-7.0908003 -0.73949867 -0.39821309
-7.0663161 -0.73694515 0
-7.2819242 -0.75943094 0.40894642
-0 -0 -0
-7.1895027 -0.75857496 -0.80579865
-7.0821571 -0.74724877 -0.39777809
-7.096478 -0.74875981 0
-7.317174 -0.77204579 0.41097811
-0 -0 -0
-7.0034156 -0.74749821 -0.7850427
-7.0889926 -0.75663215 -0.39821309
-7.0748658 -0.75512433 0
-7.3394871 -0.78336829 0.41228423
-0 -0 -0
-6.8636489 -0.74096942 -0.76947546
-7.1009979 -0.76659256 -0.39893919
-7.0791278 -0.76423156 0
-7.3385353 -0.79223609 0.41228423
-0 -0 -0
-0 -0 -0
-0 -0 -0
-0 -0 0
-7.3375726 -0.8011027 0.41228423
-0 -0 -0
-6.789854 -0.74960691 -0.76140326
-0 -0 -0
-0 -0 0
-7.3340192 -0.80968326 0.41213924
-0 -0 -0
-6.7760935 -0.75637615 -0.75996208
-0 -0 -0
-0 -0 0
-7.3252954 -0.81768042 0.41170421
-0 -0 -0
-6.7854552 -0.76572335 -0.76111525
-0 -0 -0
-0 -0 0
-7.3191333 -0.8259477 0.41141367
-0 -0 -0
-6.7793903 -0.77333593 -0.76053923
-0 -0 -0
-0 -0 0
-7.3103824 -0.83390707 0.41097811
-0 -0 -0
-6.778451 -0.78152698 -0.76053923
-7.056531 -0.81358844 -0.39676195
-0 -0 0
-7.3171158 -0.84363276 0.41141367
-0 -0 -0
-6.7620821 -0.78792012 -0.75880891
-7.0503759 -0.82151222 -0.39647141
-7.0749931 -0.82438064 0
-7.3109341 -0.85187256 0.41112366
-0 -0 -0
-6.738009 -0.7933684 -0.75621456
-7.0493779 -0.83003062 -0.39647141
-7.0533152 -0.83049417 0
-7.3098993 -0.86070579 0.41112366
-0 -0 -0
-6.7447529 -0.80242634 -0.75707972
-7.0432143 -0.83793443 -0.3961814
-7.034214 -0.83686364 0
-7.3088541 -0.86953771 0.41112366
-0 -0 -0
-6.7514749 -0.81150061 -0.75794375
-7.0447741 -0.84675401 -0.39632642
-7.0383701 -0.84598428 0
-7.3052106 -0.87805742 0.41097811
-0 -0 -0
-6.7838664 -0.8237105 -0.76169127
-7.0308509 -0.85369986 -0.39560086
-7.027009 -0.85323334 0
-7.3041444 -0.88688374 0.41097811
-0 -0 -0
-6.914309 -0.84378833 -0.77639449
-7.0329108 -0.85826188 -0.39574584
-7.0213203 -0.85684747 0
-7.2907133 -0.88972282 0.41025254
-0 -0 -0
-7.0826955 -0.87302411 -0.79542011
-7.0215526 -0.86548764 -0.39516529
-7.030612 -0.86660427 0
-7.2767406 -0.8969425 0.409527
-0 -0 -0
-7.150938 -0.8902089 -0.8032043
-7.023088 -0.87429309 -0.39531085
-7.0011587 -0.8715632 0
-7.2627616 -0.90412968 0.40880144
-7.1575484 -0.89981574 -0.80406833
-6.9730387 -0.87661999 -0.39255306
-7.0104294 -0.88132054 0
-7.2204132 -0.90771878 0.40647921
-0 -0 -0
-7.1436291 -0.90683526 -0.80262715
-6.9668241 -0.88439107 -0.39226305
-7.0041909 -0.88913453 0
-7.1651807 -0.90957105 0.40343142
-0 -0 -0
-7.088655 -0.90856129 -0.79657328
-6.9657502 -0.89280844 -0.39226305
-6.9953647 -0.89660418 0
-7.0919099 -0.90897852 0.39936751
-0 -0 -0
-6.9952183 -0.90517795 -0.78619587
-6.9723897 -0.902224 -0.39269805
-6.9994431 -0.90572464 0
-7.0598927 -0.9135468 0.3976264
-0 -0 -0
-6.922308 -0.90424907 -0.77812368
-6.9584141 -0.90896553 -0.39197251
-6.9983435 -0.91418147 0
-7.0433197 -0.92005658 0.39675528
-0 -0 -0
-6.8622394 -0.90483689 -0.77149379
-6.9573112 -0.91737276 -0.39197251
-6.9972339 -0.92263693 0
-7.039629 -0.92822701 0.39661026
-0 -0 -0
-6.807302 -0.90596265 -0.76543993
-6.9561973 -0.92577863 -0.39197251
-6.9883723 -0.93006068 0
-7.0256262 -0.93501872 0.39588472
-0 -0 -0
-6.7985096 -0.91315401 -0.76457477
-6.9421997 -0.93245399 -0.39124694
-6.9795027 -0.93746442 0
-7.0270638 -0.94385266 0.39602971
-0 -0 -0
-6.7794576 -0.91893578 -0.76255643
-6.9410677 -0.94084156 -0.39124694
-6.9706359 -0.94484943 0
-7.0207634 -0.95164412 0.39573917
-0 -0 -0
-6.7629714 -0.92502433 -0.76082724
-6.9399257 -0.94922781 -0.39124694
-6.961751 -0.95221299 0
-7.0196085 -0.96012664 0.39573917
-0 -0 -0
-6.7772169 -0.93531638 -0.76255643
-6.9284778 -0.95619172 -0.3906664
-6.9580197 -0.9602688 0
-7.0184436 -0.96860778 0.39573917
-0 -0 -0
-6.7863288 -0.94493145 -0.7637096
-6.9195938 -0.96348733 -0.39023083
-6.951694 -0.96795696 0
-7.0121255 -0.97637147 0.39544916
-0 -0 -0
-6.7954273 -0.95456988 -0.76486278
-6.9184246 -0.97184759 -0.39023083
-6.9582534 -0.97744244 0
-7.0083699 -0.98448241 0.39530417
-0 -0 -0
-6.8070712 -0.96459424 -0.76630396
-6.9146752 -0.97984225 -0.39008582
-6.9416118 -0.98365927 0
-7.0020247 -0.9922201 0.3950136
-0 -0 -0
-0 -0 -0
-6.7931008 -0.97098899 -0.76486278
-6.9083462 -0.98746186 -0.38979584
-6.9429922 -0.99241406 0
-6.998251 -1.0003127 0.39486861
-0 -0 -0
-6.8047204 -0.98104143 -0.76630396
-6.9122868 -0.99654943 -0.39008582
-6.9289107 -0.99894613 0
-7.0021858 -1.0095102 0.39515916
-0 -0 -0
-6.8450828 -0.99108237 -0.77091664
-6.898828 -0.99886394 -0.38936028
-6.9283061 -1.003132 0
-6.9912882 -1.012251 0.39457861
-0 -0 -0
-6.8643551 -1.0023423 -0.77322298
-6.9027534 -1.0079494 -0.38965029
-6.9270892 -1.0115029 0
-6.9874816 -1.0203214 0.39443305
-0 -0 -0
-6.8784876 -1.0128959 -0.77495217
-6.9041085 -1.0166688 -0.38979584
-6.9258618 -1.0198721 0
-6.9991045 -1.0306575 0.39515916
-0 -0 -0
-6.8926139 -1.0234867 -0.7766825
-6.9080105 -1.0257729 -0.39008582
-6.9452186 -1.0312979 0
-7.0055575 -1.0402577 0.39559415
-0 -0 -0
-6.8913722 -1.0318143 -0.7766825
-6.9324594 -1.0379661 -0.39153695
-6.9516816 -1.0408441 0
-7.0145745 -1.0502608 0.39617473
-0 -0 -0
-6.8735113 -1.0461292 -0.77495217
-6.9633336 -1.0597999 -0.39342418
-6.9954524 -1.0646883 0
-7.0608268 -1.0746381 0.39893252
-0 -0 -0
-6.8287835 -1.0477657 -0.77005148
-6.9646134 -1.0686066 -0.39356917
-7.0070305 -1.0751148 0
-7.0877681 -1.0875027 0.40052861
-6.7636127 -1.0461328 -0.76284444
-7.0223722 -1.0861553 -0.39690697
-7.0725913 -1.0939227 0
-7.1249704 -1.1020242 0.40270585
-0 -0 -0
-6.7240167 -1.048329 -0.7585209
-7.0390291 -1.097442 -0.39792308
-7.0995426 -1.1068765 0
-7.1647124 -1.1170371 0.40502807
-6.6971989 -1.0524384 -0.75563854
-7.068501 -1.1107872 -0.39966476
-7.111062 -1.1174754 0
-7.173625 -1.1273069 0.40560865
-6.6857038 -1.0589114 -0.75448537
-7.0928135 -1.1233913 -0.40111586
-7.1225562 -1.1281021 0
-7.1696839 -1.1355664 0.4054631
-6.679306 -1.0661728 -0.75390822
-7.0760603 -1.129504 -0.40024531
-7.1237555 -1.1371174 0
-7.1631799 -1.1434103 0.40517309
-6.6780128 -1.0742427 -0.75390822
-7.0875149 -1.1401162 -0.40097088
-7.1120987 -1.1440709 0
-7.1617928 -1.1520648 0.40517309
-6.661396 -1.0798285 -0.75217903
-7.0784349 -1.1474316 -0.40053532
-7.1030016 -1.1514139 0
-7.1552606 -1.1598852 0.40488252
-6.667737 -1.0891265 -0.75304306
-7.0796051 -1.1564021 -0.4006803
-7.1067472 -1.1608355 0
-7.1435962 -1.1668545 0.40430197
-6.6485586 -1.0942432 -0.75102586
-7.0807743 -1.1653788 -0.40082586
-7.1156111 -1.1711124 0
-7.1473136 -1.1763301 0.40459251
-6.6472316 -1.1022758 -0.75102586
-7.0767899 -1.1735073 -0.4006803
-7.0987811 -1.1771541 0
-7.1433263 -1.1845407 0.40444753
-6.6618676 -1.1088388 -0.75275505
-7.0735192 -1.1773564 -0.40053532
-7.1083374 -1.1831517 0
-7.1451702 -1.1892824 0.40459251
-6.7191954 -1.1267263 -0.75938606
-7.0772214 -1.1867628 -0.40082586
-7.0915074 -1.1891583 0
-7.1437278 -1.1979151 0.40459251
-6.822381 -1.1525062 -0.77120465
-7.0629644 -1.193148 -0.40009975
-7.087502 -1.1972932 0
-7.137146 -1.2056795 0.40430197
-6.9586692 -1.1841793 -0.78677189
-7.0589581 -1.2012458 -0.39995477
-7.08605 -1.2058561 0
-7.1382527 -1.2147397 0.40444753
-6.9980221 -1.1995785 -0.79138458
-7.0575018 -1.2097743 -0.39995477
-7.0794525 -1.2135371 0
-7.1265354 -1.2216079 0.40386698
-7.0144114 -1.2111143 -0.79340291
-7.0534768 -1.2178594 -0.39980975
-7.0831151 -1.2229768 0
-7.1250544 -1.2302181 0.40386698
-7.0180345 -1.2204745 -0.79397893
-7.0571151 -1.2272707 -0.40009975
-7.0764995 -1.2306418 0
-7.1184378 -1.2379351 0.4035764
-7.0140095 -1.2285076 -0.79369092
-7.0453892 -1.2340038 -0.39951921
-7.0724463 -1.2387429 0
-7.1220603 -1.2474328 0.40386698
-7.0074205 -1.2360823 -0.79311377
-7.0387797 -1.241614 -0.3992292
-7.0760651 -1.248191 0
-7.1179819 -1.255585 0.40372142
-7.0110202 -1.2454542 -0.79369092
-7.0398302 -1.2505721 -0.39937419
-7.0643024 -1.2549194 0
-7.1113477 -1.2632766 0.40343142
-7.0018697 -1.2525579 -0.79282576
-7.0332036 -1.2581632 -0.39908421
-7.0653501 -1.2639139 0
-7.1098161 -1.2718683 0.40343142
-6.995265 -1.2601012 -0.79224974
-7.0342326 -1.2671207 -0.3992292
-7.0586901 -1.2715265 0
-7.1108289 -1.2809185 0.4035764
-6.9962797 -1.2690139 -0.79253775
-7.0250239 -1.2742276 -0.39879364
-7.052032 -1.2791265 0
-7.1041675 -1.2885829 0.4032864
-6.997283 -1.2779309 -0.79282576
-7.0311503 -1.284116 -0.3992292
-7.0453563 -1.2867105 0
-7.0974879 -1.2962314 0.40299585
-6.9881001 -1.284981 -0.7919606
-7.0295935 -1.2926109 -0.3992292
-7.0361252 -1.2938119 0
-7.0882568 -1.303398 0.40256086
-6.9840012 -1.2929534 -0.79167259
-7.0178065 -1.2992117 -0.39864865
-7.047349 -1.3046811 0
-7.0892296 -1.3124343 0.40270585
-6.9748034 -1.2999691 -0.79080743
-7.0111275 -1.3067392 -0.39835864
-7.0355339 -1.311288 0
-7.0876384 -1.3209994 0.40270585
-6.9791064 -1.3051345 -0.79138458
-7.0103364 -1.3109747 -0.39835864
-7.0245075 -1.3136247 0
-7.0842872 -1.3248039 0.40256086
-6.9749851 -1.3130884 -0.79109657
-7.0061865 -1.3189622 -0.39821309
-7.0305905 -1.3235564 0
-7.0801206 -1.3328809 0.40241531
-6.9708447 -1.3210324 -0.79080743
-7.0045877 -1.3274269 -0.39821309
-7.028986 -1.3320506 0
-7.0836158 -1.3424034 0.40270585
-6.9641671 -1.3284858 -0.79023141
-7.0004287 -1.3354032 -0.39806807
-7.0248075 -1.3400537 0
-7.0717788 -1.3490139 0.4021253
-6.9650946 -1.3373871 -0.79051942
-7.0013595 -1.3443503 -0.39821309
-7.0206299 -1.3480506 0
-7.0701437 -1.3575578 0.4021253
-6.9558525 -1.3443291 -0.78965425
-6.9920835 -1.3513314 -0.39777809
-7.0164433 -1.3560393 0
-7.0633907 -1.3651127 0.40183473
-6.9491501 -1.3517462 -0.78907824
-6.9980903 -1.361266 -0.39821309
-7.0122476 -1.3640199 0
-7.0668421 -1.3746396 0.4021253
-6.9449759 -1.3596454 -0.78879023
-6.9913449 -1.3687233 -0.39792308
-7.0080328 -1.3719903 0
-7.0575237 -1.3816793 0.40168974
-6.9433279 -1.368036 -0.78879023
-6.989686 -1.37717 -0.39792308
-7.003819 -1.3799546 0
-7.0558491 -1.390206 0.40168974
-6.9391255 -1.3759202 -0.78850108
-6.9829144 -1.3846029 -0.39763254
-7.0046968 -1.388922 0
-7.0541639 -1.3987306 0.40168974
-6.9400015 -1.3848114 -0.78879023
-6.9761448 -1.3920234 -0.39734253
-7.0004635 -1.396876 0
-7.0473771 -1.4062371 0.40139973
-6.938323 -1.393196 -0.78879023
-6.9770026 -1.4009627 -0.39748752
-7.0064278 -1.4068712 0
-7.0482183 -1.4152626 0.40154475
-6.9290266 -1.4000413 -0.78792506
-6.9753051 -1.4093921 -0.39748752
-6.9970675 -1.4137893 0
-7.0465031 -1.4237779 0.40154475
-6.929862 -1.4089276 -0.78821307
-6.9659553 -1.4162657 -0.39705196
-6.9902582 -1.4212068 0
-7.0371356 -1.4307376 0.40110919
-6.9332275 -1.4183376 -0.78879023
-6.9693351 -1.4257243 -0.39734253
-6.9936304 -1.4306943 0
-7.0354018 -1.4392396 0.40110919
-6.9213753 -1.4246283 -0.78763705
-6.9599695 -1.4325722 -0.39690697
-6.9893498 -1.4386196 0
-7.0336576 -1.4477395 0.40110919
-6.9196486 -1.4329903 -0.78763705
-6.9582338 -1.4409809 -0.39690697
-6.9748669 -1.4444255 0
-7.0293612 -1.4557108 0.40096417
-6.9153824 -1.4408233 -0.78734905
-6.9514046 -1.4483285 -0.39661697
-6.9782071 -1.4539129 0
-7.0250559 -1.4636738 0.40081918
-6.9094424 -1.4439417 -0.78677189
-6.9556108 -1.45359 -0.39690697
-6.9722376 -1.4570647 0
-7.0216293 -1.4673867 0.40067419
-6.9076924 -1.4522895 -0.78677189
-6.9538493 -1.4619935 -0.39690697
-6.9704719 -1.4654883 0
-7.0173011 -1.4753337 0.40052861
-6.9034047 -1.4601003 -0.78648388
-6.9495378 -1.4698576 -0.39676195
-6.9635987 -1.4728316 0
-7.0155129 -1.4838117 0.40052861
-6.9092274 -1.4700559 -0.78734905
-6.9452176 -1.4777135 -0.39661697
-6.9643669 -1.4817878 0
-7.0137153 -1.4922875 0.40052861
-6.9074459 -1.4784033 -0.78734905
-6.9459653 -1.4866476 -0.39676195
-6.9651136 -1.490746 0
-7.0119066 -1.5007612 0.40052861
-6.8955402 -1.484571 -0.78619587
-6.9441638 -1.4950393 -0.39676195
-6.9556723 -1.4975171 0
-7.0024748 -1.5075934 0.40009362
-6.8987923 -1.4939957 -0.78677189
-6.9448895 -1.5039784 -0.39690697
-6.9538579 -1.5059205 0
-6.9981012 -1.5155019 0.39994806
-6.8818235 -1.4990286 -0.7850427
-6.9329114 -1.5101568 -0.39632642
-6.9494929 -1.5137684 0
-6.9962649 -1.5239567 0.39994806
-6.8850555 -1.5084488 -0.78561872
-6.9336176 -1.5190883 -0.39647141
-6.9425693 -1.5210495 0
-6.9918828 -1.5318536 0.39980307
-6.8882847 -1.5178812 -0.78619587
-6.9343219 -1.5280259 -0.39661697
-6.9508924 -1.5316772 0
-6.9951067 -1.5414201 0.40009362
-6.8788676 -1.5245237 -0.78533071
-6.9197884 -1.5335928 -0.3958914
-6.9388733 -1.5378225 0
-6.9856257 -1.548184 0.39965805
-6.8845963 -1.534523 -0.78619587
-6.922998 -1.5430825 -0.3961814
-6.9395576 -1.5467734 0
-6.9837499 -1.5566236 0.39965805
-6.8776846 -1.541708 -0.78561872
-6.9236612 -1.5520142 -0.39632642
-6.9376836 -1.5551574 0
-6.9843974 -1.5656288 0.39980307
-6.8732958 -1.549449 -0.78533071
-6.9192486 -1.5598081 -0.3961814
-6.9332533 -1.5629652 0
-6.9799681 -1.5734961 0.39965805
-6.871419 -1.5577528 -0.78533071
-6.9148273 -1.5675936 -0.39603642
-6.9288239 -1.5707667 0
-6.9780617 -1.5819288 0.39965805
-6.8695316 -1.5660545 -0.78533071
-6.9154592 -1.5765246 -0.3961814
-6.9320006 -1.5802957 0
-6.9710732 -1.5892031 0.39936751
-6.8657269 -1.5826509 -0.78533071
-6.90657 -1.5920658 -0.3958914
-6.9154739 -1.5941184 0
-6.9672127 -1.6060448 0.39936751
-6.8546891 -1.5844685 -0.78417754
-6.9030676 -1.5956513 -0.39574584
-6.9246526 -1.6006405 0
-6.958653 -1.6084999 0.39893252
-6.8628473 -1.5950922 -0.78533071
-6.8960776 -1.6028156 -0.39545584
-6.9176483 -1.6078292 0
-6.9592328 -1.6174946 0.3990775
-6.8583984 -1.6027954 -0.7850427
-6.8916078 -1.6105564 -0.39531085
-6.9182324 -1.6167784 0
-6.9572735 -1.6259022 0.3990775
-6.8539319 -1.6104878 -0.78475356
-6.894711 -1.6200699 -0.39560086
-6.9137425 -1.6245418 0
-6.9527769 -1.6337137 0.39893252
-6.846951 -1.6175801 -0.78417754
-6.8952751 -1.6289965 -0.39574584
-6.9143047 -1.6334924 0
-6.945735 -1.6409177 0.39864194
-6.8449917 -1.6258521 -0.78417754
-6.8907757 -1.636727 -0.39560086
-6.9072671 -1.640644 0
-6.9386959 -1.6481092 0.39835194
-6.8455353 -1.634722 -0.78446555
-6.8812084 -1.6432407 -0.39516529
-6.902741 -1.6483827 0
-6.9442744 -1.6583009 0.39878696
-6.8360076 -1.6411803 -0.78360039
-6.8842764 -1.6527685 -0.39545584
-6.9083381 -1.6585453 0
-6.9346929 -1.6648724 0.39835194
-6.8440771 -1.6518664 -0.78475356
-6.8746939 -1.6592561 -0.39502031
-6.9012742 -1.6656715 0
-6.9377232 -1.6744686 0.39864194
-6.8395648 -1.6595256 -0.78446555
-6.8752069 -1.6681737 -0.39516529
-6.9017835 -1.6746221 0
-6.9331717 -1.6822381 0.39849696
-6.8300138 -1.6659493 -0.78360039
-6.8782401 -1.6777124 -0.39545584
-6.8921671 -1.6811097 0
-6.9286122 -1.6899991 0.39835194
-6.8254862 -1.6735855 -0.78331238
-6.8736863 -1.6854041 -0.39531085
-6.890131 -1.6894362 0
-6.9290862 -1.698988 0.39849696
-6.8259678 -1.6824499 -0.78360039
-6.8691149 -1.6930847 -0.39516529
-6.8906088 -1.6983826 0
-6.9245081 -1.7067379 0.39835194
-6.8239298 -1.6906966 -0.78360039
-6.8645439 -1.7007592 -0.39502031
-6.8860283 -1.706082 0
-6.9249606 -1.7157279 0.39849696
-6.8168674 -1.6976918 -0.78302437
-6.862484 -1.7090523 -0.39502031
-6.8839617 -1.7144012 0
-6.9228821 -1.7240942 0.39849696
-6.8123045 -1.7053 -0.78273636
-6.860414 -1.7173431 -0.39502031
-6.8818851 -1.7227179 0
-6.9107113 -1.7299339 0.39791638
-6.8177567 -1.7154216 -0.78360039
-6.8507719 -1.7237285 -0.39458475
-6.8772769 -1.7303976 0
-6.9161782 -1.7401855 0.39835194
-6.8081636 -1.7217577 -0.78273636
-6.8562436 -1.733917 -0.39502031
-6.8701301 -1.7374288 0
-6.9115539 -1.7479047 0.39820695
-6.806078 -1.7299827 -0.78273636
-6.8516278 -1.7415607 -0.39487529
-6.8755951 -1.7476528 0
-6.9069109 -1.7556126 0.39806139
-6.8100395 -1.7353705 -0.78331238
-6.8480587 -1.7450588 -0.3947303
-6.8644505 -1.7492357 0
-6.905849 -1.7597852 0.39806139
-6.8004279 -1.7416745 -0.78244835
-6.843421 -1.7526854 -0.39458475
-6.8648505 -1.7581739 0
-6.8986878 -1.7668401 0.39777139
-6.7958064 -1.7492436 -0.78215921
-6.8412981 -1.7609531 -0.39458475
-6.8602033 -1.7658193 0
-6.901576 -1.7764688 0.39806139
-6.7911863 -1.7568066 -0.7818712
-6.8316255 -1.7672678 -0.39414972
-6.8605819 -1.7747585 0
-6.8943982 -1.7835064 0.39777139
-6.7940702 -1.766314 -0.78244835
-6.8345098 -1.7768276 -0.39443973
-6.8584323 -1.7830468 0
-6.8922381 -1.7918355 0.39777139
-6.7944307 -1.7751752 -0.78273636
-6.8298464 -1.7844282 -0.39429474
-6.8562727 -1.7913326 0
-6.8900681 -1.8001622 0.39777139
-6.7822742 -1.7807562 -0.78158319
-6.8327069 -1.7939979 -0.39458475
-6.8541031 -1.7996157 0
-6.8903985 -1.8091455 0.39791638
-6.7926197 -1.7922487 -0.78302437
-6.8230042 -1.8002658 -0.39414972
-6.8519239 -1.8078963 0
-6.8831878 -1.8161453 0.3976264
-6.7804489 -1.7978034 -0.7818712
-6.8233333 -1.8091741 -0.39429474
-6.842195 -1.8141751 0
-6.8809881 -1.824461 0.3976264
-6.7782717 -1.805995 -0.7818712
-6.8186336 -1.816749 -0.39414972
-6.8450227 -1.8237799 0
-6.8863039 -1.8347789 0.39806139
-6.7785807 -1.8148521 -0.78215921
-6.8164334 -1.8249867 -0.39414972
-6.850358 -1.8340694 0
-6.8765588 -1.8410842 0.3976264
-6.7688966 -1.8210275 -0.78129518
-6.8167305 -1.833896 -0.39429474
-6.8405952 -1.8403164 0
-6.8592691 -1.8453403 0.39675528
-6.7716804 -1.8305537 -0.7818712
-6.8145094 -1.8421314 -0.39429474
-6.8408766 -1.849259 0
-6.8043599 -1.8393878 0.39370748
-6.7744603 -1.8400918 -0.78244835
-6.802248 -1.8476397 -0.39371419
-6.8336186 -1.8561605 0
-6.7018385 -1.8203661 0.38790247
-6.7672367 -1.8469129 -0.7818712
-6.8075333 -1.8579105 -0.39414972
-6.826345 -1.8630445 0
-6.6570215 -1.8168329 0.38543522
-6.757515 -1.8530357 -0.78100604
-6.8102908 -1.8675078 -0.39443973
-6.811542 -1.8678509 0
-6.6548214 -1.8248752 0.38543522
-6.7588954 -1.8578054 -0.78129518
-6.8066578 -1.8709339 -0.39429474
-6.7376409 -1.8519633 0
-6.6261544 -1.8213192 0.38383856
-6.7641177 -1.8680345 -0.78215921
-6.796876 -1.8770813 -0.39385918
-6.6676736 -1.8413997 0
-6.5813718 -1.8175658 0.38137132
-6.7543859 -1.8741336 -0.78129518
-6.7670679 -1.8776524 -0.39226305
-6.6002469 -1.8313648 0
-6.5441213 -1.8157917 0.37933967
-6.7546053 -1.8829875 -0.78158319
-6.7022209 -1.8683842 -0.38863471
-6.5604234 -1.828855 0
-6.5143871 -1.8160216 0.37774298
-6.7473392 -1.8897512 -0.78100604
-6.5723553 -1.8407428 -0.38123301
-6.5356565 -1.8304645 0
-6.4846716 -1.8161849 0.37614685
-6.7400761 -1.8965029 -0.78043002
-6.5601211 -1.8458676 -0.38065246
-6.5184135 -1.8341321 0
-6.432446 -1.8099428 0.37324408
-6.6904874 -1.8912768 -0.77495217
-6.5128727 -1.8410686 -0.37803966
-6.4886422 -1.834219 0
-6.4027467 -1.809938 0.37164739
-6.5911684 -1.8718048 -0.7637096
-6.4856524 -1.8418396 -0.37658855
-6.4689035 -1.8370832 0
-6.355567 -1.8048971 0.36903515
-6.5093198 -1.8570633 -0.75448537
-6.4659286 -1.844684 -0.37557244
-6.4491582 -1.8398997 0
-6.3209 -1.8033085 0.36714849
-6.449882 -1.8485367 -0.74785435
-6.4337296 -1.8439076 -0.37383133
-6.4119105 -1.8376541 0
-6.2937427 -1.8037872 0.36569738
-6.4302425 -1.851319 -0.74583602
-6.4215088 -1.8488045 -0.37325075
-6.3846712 -1.8381987 0
-6.2690778 -1.8049184 0.3643907
-6.4006767 -1.8511847 -0.74266565
-6.3918104 -1.8486203 -0.37165409
-6.35745 -1.8386828 0
-6.2269635 -1.8009439 0.36206904
-6.3959541 -1.8581964 -0.74237764
-6.3770981 -1.8527182 -0.37092853
-6.3252335 -1.8376503 0
-6.2098064 -1.8041157 0.36119792
-6.3713603 -1.8594025 -0.73978329
-6.347414 -1.8524141 -0.36933187
-6.2955251 -1.837271 0
-6.1851749 -1.8050667 0.3598918
-6.3393245 -1.8583685 -0.73632377
-6.3102665 -1.8498502 -0.36730018
-6.2608366 -1.8353598 0
-6.1455936 -1.8015765 0.35771513
-6.3172255 -1.8601822 -0.73401743
-6.2855954 -1.8508683 -0.36599407
-6.2286658 -1.8341048 0
-6.1010404 -1.7965238 0.35524788
-6.2951307 -1.861945 -0.73171109
-6.2385077 -1.8451974 -0.36338183
-6.2014842 -1.8342466 0
-6.0863991 -1.8002074 0.35452178
-6.2606468 -1.8599751 -0.72796357
-6.2063837 -1.843854 -0.36164016
-6.1842995 -1.837293 0
-6.0443754 -1.795723 0.35220009
-6.2322516 -1.8556374 -0.72479206
-6.1778717 -1.8394459 -0.3600435
-6.1482635 -1.8306302 0
-6.0283422 -1.7949239 0.351329
-6.1928411 -1.8520522 -0.72046852
-6.1457705 -1.8379751 -0.35830182
-6.1111445 -1.8276198 0
-5.9738917 -1.7865725 0.3482812
-6.1509647 -1.8476284 -0.71585584
-6.1161776 -1.8371791 -0.3567057
-6.0715518 -1.8237743 0
-5.9120021 -1.7758489 0.34479785
-6.1190128 -1.8460944 -0.71239632
-6.0766354 -1.8333092 -0.35452846
-5.9921026 -1.8078058 0
-5.8675637 -1.7702327 0.34233063
-6.0722265 -1.8399868 -0.70720762
-6.0445743 -1.8316078 -0.35278681
-5.9201846 -1.7939156 0
-5.8430419 -1.77054 0.34102452
-6.0477309 -1.8405458 -0.70461327
-6.0025926 -1.8268085 -0.35046512
-5.8931103 -1.7934891 0
-5.8110676 -1.7685204 0.33928284
-6.0059266 -1.8357551 -0.70000058
-5.9481988 -1.8181102 -0.34741732
-5.8511176 -1.7884368 0
-5.7840815 -1.7679466 0.33783171
-5.9863935 -1.8376968 -0.69798225
-5.9037714 -1.8123336 -0.34495011
-5.8365154 -1.7916874 0
-5.7620687 -1.7688339 0.33667061
-5.9495697 -1.834262 -0.69394672
-5.8543954 -1.8049196 -0.34219232
-5.8219137 -1.7949054 0
-5.7425528 -1.7704383 0.33565503
-5.8710294 -1.8255961 -0.6852985
-5.8103166 -1.8067174 -0.3398701
-5.7628908 -1.7919704 0
-5.6861534 -1.7681088 0.33260724
-5.8120322 -1.8149555 -0.67866749
-5.7808528 -1.8052189 -0.33827397
-5.7358842 -1.7911764 0
-5.659205 -1.7672312 0.33115557
-5.7925663 -1.8165613 -0.67665029
-5.719162 -1.7935417 -0.33479062
-5.7014265 -1.7879797 0
-5.6297994 -1.7655172 0.32955948
-5.7582979 -1.8134598 -0.67290276
-5.7244282 -1.8027931 -0.33522618
-5.6794128 -1.7886164 0
-5.6152625 -1.7684135 0.32883334
-5.7363739 -1.8141768 -0.67059642
-5.6925159 -1.8003063 -0.3334845
-5.6425037 -1.7844896 0
-5.5734911 -1.7626637 0.32651168
-5.6996608 -1.8101447 -0.66655976
-5.6556692 -1.7961735 -0.33145282
-5.618022 -1.7842171 0
-5.5490704 -1.762319 0.32520556
-5.6992521 -1.8175987 -0.99729615
-5.6826887 -1.8123164 -0.66483057
-5.6361632 -1.7974786 -0.33043671
-5.5960264 -1.7846781 0
-5.5320787 -1.764284 0.32433444
-5.6565862 -1.8077576 -0.99002111
-5.6544895 -1.8070875 -0.66165906
-5.6053748 -1.7913913 -0.32869503
-5.5528069 -1.7745913 0
-5.4889369 -1.7541795 0.3218672
-5.6519556 -1.8138075 -0.98959357
-5.6399903 -1.8099676 -0.66021788
-5.5611477 -1.7846657 -0.32622781
-5.5134954 -1.7693732 0
-5.4571233 -1.7512825 0.32012555
-5.6106668 -1.8080375 -0.98274606
-5.5934911 -1.8025029 -0.65502918
-5.5342598 -1.7834156 -0.32477668
-5.4841032 -1.7672526 0
-5.4080195 -1.7427346 0.3173683
-5.5620794 -1.7998018 -0.97461593
-5.5568619 -1.7981136 -0.65099365
-5.4974847 -1.7789 -0.32274446
-5.4522505 -1.764263 0
-5.3836622 -1.7420688 0.31606218
-5.5501351 -1.8033482 -0.97290409
-5.5300817 -1.7968324 -0.64811015
-5.440968 -1.7678777 -0.31955168
-5.3907213 -1.7515516 0
-5.3914385 -1.7517844 0.31664276
-5.5089045 -1.7973137 -0.96605659
-5.4983993 -1.7938863 -0.64465064
-5.3943672 -1.7599453 -0.31693944
-5.4009695 -1.7620991 0
-5.3868403 -1.7574894 0.31649718
-5.4701338 -1.7919805 -0.95963669
-5.4569101 -1.7876484 -0.64003909
-5.3650718 -1.7575629 -0.31534275
-5.3567948 -1.7548513 0
-5.3797789 -1.7623807 0.3162072
-5.4387116 -1.7889665 -0.9545027
-5.4178891 -1.7821174 -0.63571441
-5.3333244 -1.7543013 -0.31360108
-5.3620801 -1.76376 0
-5.3850527 -1.7713164 0.31664276
-5.3853593 -1.7786313 -0.94551581
-5.3494267 -1.7667638 -0.62793136
-5.3509393 -1.7672634 -0.3147622
-0 -0 0
-5.380434 -1.7770047 0.31649718
-5.3515329 -1.7746339 -0.93995261
-5.3251953 -1.7659 -0.625337
-5.3414083 -1.7712765 -0.31432721
-5.3750958 -1.7824477 0
-5.3708911 -1.7810533 0.31606218
-5.3128481 -1.7689339 -0.93353271
-5.3083286 -1.7674291 -0.62360668
-5.3392639 -1.7777292 -0.31432721
-5.3655281 -1.786474 0
-6.7492757 -2.2471981 0.39733583
-5.2839236 -1.7663987 -0.92882466
-5.2939262 -1.7697425 -0.6221655
-5.3444982 -1.7866485 -0.3147622
-5.355968 -1.7904829 0
-6.7490172 -2.2561748 0.39748085
-5.2842259 -1.7736011 -0.92925388
-5.3040419 -1.7802521 -0.62360668
-5.3497281 -1.7955862 -0.31519777
-6.7551146 -2.2672911 0
-0 -0 0
-5.2845097 -1.7808038 -0.92968142
-5.2945313 -1.784181 -0.62274152
-5.3327847 -1.7970718 -0.31432721
-0 -0 0
-0 -0 0
-5.2799244 -1.7863659 -0.92925388
-5.2997246 -1.7930647 -0.62360668
-6.71384 -2.2715049 -0.3958914
-6.712635 -2.2710972 0
-6.7531085 -2.2847908 0.39820695
-5.2777624 -1.7927443 -0.92925388
-5.3000007 -1.8002982 -0.62389469
-6.7110901 -2.2796154 -0.3958914
-6.7246757 -2.2842302 0
-6.7454176 -2.2912757 0.39791638
-5.2731557 -1.7982892 -0.92882466
-5.2929301 -1.8050328 -0.62331867
-6.7034073 -2.2860439 -0.39560086
-6.71945 -2.2915149 0
-6.745101 -2.3002625 0.39806139
-5.2806935 -1.8079854 -0.93053651
-5.2956347 -1.8131009 -0.62389469
-6.7104735 -2.2975087 -0.3961814
-6.7117472 -2.2979448 0
-6.7521501 -2.3117776 0.39864194
-5.2723227 -1.808679 -0.92925388
-5.2994361 -1.8179802 -0.62447184
-5.3868341 -1.8479623 -0.31810054
-6.700511 -2.2986212 0
-6.7482967 -2.3150141 0.39849696
-5.2749829 -1.8167185 -0.93010896
-5.2996788 -1.8252236 -0.62475985
-0 -0 -0
-6.6780434 -2.2999361 0
-6.7454944 -2.3231666 0.39849696
-5.2776408 -1.8247702 -0.93096572
-5.2999115 -1.8324703 -0.62504786
-5.3872595 -1.8626713 -0.31839055
-6.6506677 -2.2995009 0
-6.7353129 -2.3287673 0.39806139
-5.2778549 -1.8319868 -0.93139327
-5.3001437 -1.8397235 -0.625337
-5.3850045 -1.8691794 -0.31839055
-6.6134686 -2.2955894 0
-6.7324939 -2.3369038 0.39806139
-5.268363 -1.8358278 -0.93010896
-5.3003573 -1.8469766 -0.62562501
-5.380291 -1.8748305 -0.31824556
-6.5983953 -2.2992945 0
-6.7321262 -2.3458946 0.39820695
-5.2758331 -1.8455828 -0.93182087
-5.3005605 -1.8542329 -0.62591302
-5.3878326 -1.8847622 -0.31882611
-6.5980759 -2.3081274 0
-6.7317371 -2.3548846 0.39835194
-5.2832875 -1.8553586 -0.93353271
-5.2983165 -1.8606362 -0.62591302
-5.3880005 -1.8921311 -0.31897113
-6.605104 -2.3195474 0
-6.7239785 -2.3612933 0.39806139
-5.2737765 -1.8591797 -0.93224841
-5.3058214 -1.8704767 -0.6270662
-5.3857102 -1.89864 -0.31897113
-6.597383 -2.3257945 0
-6.7333713 -2.373735 0.39878696
-5.2787886 -1.8681208 -0.93353271
-5.2962403 -1.8742968 -0.62620103
-5.3809648 -1.9042802 -0.31882611
-6.5970187 -2.3346319 0
-6.7256036 -2.380137 0.39849696
-5.2837868 -1.8770766 -0.93481702
-5.293972 -1.880695 -0.62620103
-5.3909006 -1.9151291 -0.31955168
-6.5991025 -2.3443456 0
-6.7251692 -2.3891308 0.39864194
-5.286346 -1.8851825 -0.93567216
-5.2965727 -1.8888296 -0.62677819
-5.3934822 -1.9233887 -0.31984222
-6.5913577 -2.3505676 0
-6.7345123 -2.4016185 0.39936751
-5.2816496 -1.8907044 -0.93524456
-5.2869787 -1.892612 -0.62591302
-5.3911543 -1.9299043 -0.31984222
-6.5934181 -2.360286 0
-6.7242737 -2.4071293 0.39893252
-5.2769475 -1.8962176 -0.93481702
-5.2944245 -1.9024975 -0.6270662
-5.3839226 -1.9346579 -0.31955168
-6.6028047 -2.3726509 0
-6.723803 -2.4161303 0.3990775
-5.2794776 -1.9043326 -0.93567216
-5.289691 -1.9080167 -0.62677819
-5.3815813 -1.941162 -0.31955168
-6.597487 -2.379745 0
-6.7233205 -2.4251337 0.39922249
-5.2892389 -1.9150794 -0.93781155
-5.2971096 -1.9179291 -0.62793136
-5.3841228 -1.949434 -0.31984222
-6.5946069 -2.3877151 0
-6.7203856 -2.4332559 0.39922249
-5.2821002 -1.919717 -0.93695647
-5.2947884 -1.9243282 -0.62793136
-5.3939719 -1.9603753 -0.32056779
-6.5892735 -2.3947935 0
-6.7198801 -2.442261 0.39936751
-5.287014 -1.9287381 -0.93824077
-5.2997417 -1.9333812 -0.62879539
-5.3989248 -1.969564 -0.32100335
-6.6034822 -2.4089944 0
-6.7169242 -2.4503789 0.39936751
-5.2858477 -1.9319319 -0.93824077
-5.3010092 -1.9374732 -0.62908453
-5.3855243 -1.9683628 -0.32027721
-6.6044674 -2.4138761 0
-6.7154427 -2.4544365 0.39936751
-5.2762775 -1.9356642 -0.93695647
-5.2986641 -1.943877 -0.62908453
-5.3880253 -1.9766603 -0.32056779
-6.5942235 -2.419168 0
-6.7149186 -2.4634466 0.39951307
-5.278748 -1.9438105 -0.93781155
-5.2963114 -1.9502779 -0.62908453
-5.3880692 -1.9840662 -0.32071277
-6.6010642 -2.4307313 0
-6.7021837 -2.4679668 0.39893252
-5.2836213 -1.9528581 -0.93909585
-5.293951 -1.9566761 -0.62908453
-5.3856678 -1.9905752 -0.32071277
-6.595674 -2.4378009 0
-6.7186952 -2.4832699 0.40009362
-5.2836623 -1.960133 -0.93952346
-5.298851 -1.9657676 -0.62994856
-5.3881359 -1.9988906 -0.32100335
-6.5878482 -2.44396 0
-6.7035017 -2.486865 0.39936751
-5.2764831 -1.964726 -0.93866831
-5.2940502 -1.9712671 -0.62966055
-5.3857164 -2.0053997 -0.32100335
-6.5824537 -2.4510109 0
-6.7029338 -2.4958723 0.39951307
-5.2765074 -1.971998 -0.93909585
-5.294085 -1.9785671 -0.62994856
-5.3808484 -2.0109935 -0.32085779
-6.5941095 -2.4644277 0
-6.699913 -2.5039697 0.39951307
-5.2813339 -1.9810778 -0.94038022
-5.2916903 -1.9849626 -0.62994856
-5.3808546 -2.018409 -0.32100335
-6.5911269 -2.4723935 0
-6.7041745 -2.5147986 0.39994806
-5.2813363 -1.9883614 -0.94080776
-5.2941337 -1.9931796 -0.63052571
-5.3832707 -2.0267386 -0.32129335
-6.5857015 -2.4794397 0
-6.7011309 -2.5228975 0.39994806
-5.2837281 -1.9965545 -0.94166285
-5.2893043 -1.9986616 -0.6302377
-5.3808179 -2.0332417 -0.32129335
-6.5851331 -2.4883144 0
-6.688355 -2.5273187 0.39936751
-5.2861171 -2.0047598 -0.94251961
-5.2941337 -2.0078001 -0.63110173
-5.3759298 -2.0388212 -0.32114834
-6.594286 -2.5008829 0
-6.6925874 -2.5381634 0.39980307
-5.2764907 -2.008405 -0.9412353
-5.2917042 -2.0141957 -0.63110173
-5.378315 -2.0471625 -0.32143834
-6.5961289 -2.5107024 0
-6.6822276 -2.5434744 0.39936751
-5.278861 -2.016613 -0.94209206
-5.2941031 -2.0224359 -0.63167888
-5.3734121 -2.0527332 -0.32129335
-6.5857944 -2.5158834 0
-6.6791496 -2.5515468 0.39936751
-5.2860084 -2.0266662 -0.94380391
-5.2868209 -2.0269778 -0.63110173
-5.3830571 -2.0638747 -0.32201889
-6.5851774 -2.52477 0
-6.6590848 -2.5531063 0.39835194
-5.278759 -2.0312061 -0.94294715
-5.2916121 -2.0361516 -0.63196689
-5.3732815 -2.0675774 -0.32158333
-6.5821218 -2.5327251 0
-6.6608405 -2.5630152 0.39864194
-5.281095 -2.0394344 -0.94380391
-5.2891479 -2.0425441 -0.63196689
-5.3732104 -2.0750072 -0.32172891
-6.5912027 -2.545367 0
-6.6650133 -2.5738709 0.3990775
-5.2810183 -2.0467408 -0.94423151
-5.2939134 -2.0517385 -0.63283205
-5.3755403 -2.0833743 -0.32201889
-6.5978193 -2.5570877 0
-6.6618981 -2.5819223 0.3990775
-5.2797809 -2.049931 -0.94423151
-5.2806196 -2.0502567 -0.63139087
-5.3718605 -2.0856819 -0.3218739
-6.5914259 -2.5591912 0
-6.6724463 -2.5906482 0.39980307
-5.2820792 -2.0581713 -0.9450866
-5.2877784 -2.0603919 -0.63254404
-5.3693366 -2.0921712 -0.3218739
-6.5762067 -2.5624301 0
-6.6789956 -2.6024823 0.40038362
-5.2748113 -2.0626841 -0.94423151
-5.2876916 -2.0677209 -0.63283205
-5.38132 -2.1043336 -0.32274446
-6.5924959 -2.5779569 0
-6.6734285 -2.6096051 0.40023863
-5.2818737 -2.0728073 -0.94594336
-5.282784 -2.0731645 -0.63254404
-5.3811994 -2.1117864 -0.32289001
-6.6014867 -2.5906734 0
-6.6702704 -2.6176667 0.40023863
-5.2768493 -2.0855656 -0.94594336
-5.2849679 -2.0887742 -0.63340807
-5.3664141 -2.1209641 -0.32230946
-6.5879436 -2.6037483 0
-6.6711774 -2.6366448 0.40067419
-5.2838702 -2.0957258 -0.9476552
-5.2896552 -2.0980203 -0.63427323
-5.3710866 -2.1303182 -0.32274446
-6.5872092 -2.6126654 0
-6.6776385 -2.6485322 0.40125418
-5.2789512 -2.1011603 -0.94722766
-5.2871161 -2.1044102 -0.63427323
-5.3612728 -2.1339264 -0.32230946
-6.5840478 -2.6206229 0
-6.66961 -2.6546788 0.40096417
-5.2859354 -2.1113427 -0.94893789
-5.2893686 -2.1127141 -0.63484925
-5.3707533 -2.1452212 -0.32303503
-6.5808764 -2.6285765 0
-6.6639867 -2.6617727 0.40081918
-5.2809997 -2.1167738 -0.94851035
-5.2868123 -2.1191037 -0.63484925
-5.3681574 -2.1517091 -0.32303503
-6.5921941 -2.6423376 0
-6.6438799 -2.6630547 0.39980307
-5.2855854 -2.1260283 -0.94979465
-5.2818503 -2.124526 -0.63456124
-5.3655539 -2.1581941 -0.32303503
-6.5793386 -2.6464164 0
-6.6503 -2.6749592 0.40038362
-5.2782474 -2.1304898 -0.94893789
-5.2912698 -2.135746 -0.63600242
-5.3605347 -2.1637039 -0.32289001
-6.5809584 -2.6563106 0
-6.6446557 -2.6820214 0.40023863
-5.2756691 -2.1368659 -0.94893789
-5.2886853 -2.142138 -0.63600242
-5.3627286 -2.1721287 -0.32318002
-6.5753341 -2.6632843 0
-6.6558561 -2.6958992 0.40110919
-5.2730832 -2.143239 -0.94893789
-5.2765083 -2.1446311 -0.63484925
-5.3721337 -2.1834979 -0.32390559
-6.5793462 -2.6741681 0
-6.6598177 -2.7068758 0.40154475
-5.2871308 -2.1563962 -0.9519341
-5.2858949 -2.1558921 -0.63629156
-5.3622804 -2.1870465 -0.32347056
-6.5857491 -2.6860476 0
-6.6517253 -2.7129562 0.40125418
-5.2678885 -2.1559758 -0.94893789
-5.2832861 -2.1622775 -0.63629156
-5.3548193 -2.1915538 -0.32318002
-6.5728645 -2.6900601 0
-6.6388321 -2.7170584 0.40067419
-5.2771592 -2.1672182 -0.95107895
-5.2830596 -2.1696413 -0.63657957
-5.3617821 -2.2019711 -0.32376057
-6.5744195 -2.6999755 0
-6.6091018 -2.7142189 0.3990775
-5.2769079 -2.1745701 -0.9515065
-5.2852125 -2.1779923 -0.63715559
-5.3615179 -2.2094371 -0.32390559
-6.5711522 -2.7079175 0
-6.6034174 -2.7212136 0.39893252
-5.2827144 -2.1806972 -0.95279086
-5.2838955 -2.181185 -0.63715559
-5.3625813 -2.2136664 -0.32405058
-6.5743308 -2.7138751 0
-6.5969639 -2.7232177 0.39864194
-5.2776971 -2.1860936 -0.95236164
-5.2860398 -2.1895494 -0.63773274
-5.3575044 -2.219151 -0.32390559
-6.5782623 -2.7248056 0
-6.6104755 -2.7381485 0.39965805
-5.2774286 -2.1934571 -0.95279086
-5.2833905 -2.195935 -0.63773274
-5.3548193 -2.2256229 -0.32390559
-6.5629425 -2.7277551 0
-6.643147 -2.7610905 0.40183473
-5.2700315 -2.1978543 -0.9519341
-5.2807331 -2.2023175 -0.63773274
-5.3641148 -2.2370915 -0.32463112
-6.5572419 -2.7346823 0
-6.6637931 -2.779119 0.4032864
-5.2650061 -2.2032304 -0.9515065
-5.2876124 -2.2126904 -0.63888592
-5.3494248 -2.2385569 -0.32390559
-6.5683422 -2.7486331 0
-6.66043 -2.787169 0.4032864
-0 -0 -0
-5.2765369 -2.2155516 -0.95407349
-5.2825432 -2.2180736 -0.63859677
-5.3467164 -2.245019 -0.32390559
-6.5938015 -2.7686543 0
-6.654664 -2.7942097 0.40314141
-0 -0 -0
-5.2738562 -2.2219255 -0.95407349
-5.2822499 -2.225462 -0.63888592
-5.3511858 -2.2545054 -0.32434115
-6.5976486 -2.7796521 0
-6.6464891 -2.8002288 0.40285087
-0 -0 -0
-5.2759008 -2.2302973 -0.95493025
-5.2771678 -2.2308328 -0.63859677
-5.3460665 -2.2599587 -0.32419613
-6.5918903 -2.7866096 0
-6.6454916 -2.8092687 0.40299585
-0 -0 -0
-5.2755632 -2.2376721 -0.95535779
-5.2792349 -2.2392297 -0.63917392
-5.3481116 -2.2684441 -0.32448614
-6.5765414 -2.7894924 0
-6.6588397 -2.8243999 0.40401196
-0 -0 -0
-5.2752151 -2.2450492 -0.95578539
-5.2765255 -2.2456069 -0.63917392
-5.3501534 -2.2769418 -0.32477668
-6.5851369 -2.8025315 0
-6.6434698 -2.8273571 0.4032864
-0 -0 -0
-5.2748575 -2.2524288 -0.95621294
-5.2809467 -2.255029 -0.64003909
-5.3450017 -2.2823813 -0.32463112
-6.5937109 -2.8155954 0
-6.6496077 -2.8394639 0.40386698
-0 -0 -0
-5.267417 -2.2567809 -0.95535779
-5.2877278 -2.2654829 -0.64119226
-5.3470216 -2.2908866 -0.3249217
-6.5831251 -2.8204849 0
-6.6366177 -2.8434033 0.4032864
-0 -0 -0
-5.2717638 -2.2661862 -0.95664215
-5.2802296 -2.2698255 -0.64061511
-5.3394704 -2.2952914 -0.32463112
-6.5797119 -2.8284371 0
-6.6427259 -2.8555253 0.40386698
-5.269022 -2.2725544 -0.95664215
-5.2798557 -2.2772272 -0.64090312
-5.3319259 -2.2996852 -0.32434115
-6.5786862 -2.837419 0
-6.6440382 -2.8656058 0.40415698
-0 -0 -0
-5.2709794 -2.2809565 -0.95749724
-5.2889762 -2.2887442 -0.64234543
-6.6120639 -2.8612957 -0.40242198
-6.587193 -2.850533 0
-6.6477275 -2.8767285 0.40459251
-0 -0 -0
-5.2776384 -2.2914131 -0.95920908
-5.2790871 -2.292042 -0.64148027
-6.5990682 -2.8651435 -0.40184143
-6.5908985 -2.8615966 0
-6.6466279 -2.8857927 0.40473753
-0 -0 -0
-5.2701631 -2.2957401 -0.958354
-5.2834296 -2.3015189 -0.64234543
-6.5956011 -2.8731151 -0.40184143
-6.589829 -2.8706007 0
-6.6407561 -2.8927851 0.40459251
-0 -0 -0
-5.2664156 -2.297894 -0.95792478
-5.2749238 -2.3016064 -0.64148027
-6.5986319 -2.8791797 -0.40213197
-6.5857015 -2.8735375 0
-6.6413865 -2.8978348 0.40473753
-0 -0 -0
-5.2706923 -2.3073452 -0.95920908
-5.2768731 -2.310051 -0.64205629
-6.5951481 -2.8871508 -0.40213197
-6.586997 -2.8835824 0
-6.6378803 -2.9058576 0.40473753
-0 -0 -0
-5.2608471 -2.3106141 -0.95792478
-5.2788191 -2.3185077 -0.64263344
-6.5868921 -2.8930256 -0.40184143
-6.583508 -2.8915393 0
-6.6391268 -2.9159677 0.40502807
-0 -0 -0
-5.2721505 -2.3231821 -0.96049345
-5.2760139 -2.3248844 -0.64263344
-6.5857673 -2.9020293 -0.40198642
-6.5895357 -2.9036899 0
-6.633214 -2.9229369 0.40488252
-0 -0 -0
-5.266994 -2.3285136 -0.96006584
-5.2826633 -2.3354409 -0.64378661
-6.5822558 -2.9099848 -0.40198642
-6.5860219 -2.9116499 0
-6.6130486 -2.9235981 0.40386698
-0 -0 -0
-5.2782516 -2.3411191 -0.96263283
-5.275104 -2.3397229 -0.64320946
-6.5882359 -2.9221501 -0.402567
-6.5872526 -2.9217141 0
-6.6213851 -2.9368532 0.40459251
-0 -0 -0
-5.2707329 -2.3454099 -0.96177775
-5.2793646 -2.3492508 -0.64407462
-6.5823288 -2.9290533 -0.40242198
-6.576591 -2.9265003 0
