# .PCD v0.7 - Point Cloud Data file format
VERSION 0.7
FIELDS x y z
SIZE 4 4 4
TYPE F F F
COUNT 1 1 1
WIDTH 1799
HEIGHT 1
VIEWPOINT 0 0 0 1 0 0 0
POINTS 1799
DATA ascii
4.7376733 -4.0711703 -0.69625306
6.1658254 -5.2984076 -0.45408887
7.6543045 -6.5774856 0
7.6220598 -6.5497766 0.56133479
0 -0 -0
0 -0 -0
0 -0 -0
3.4406333 -2.9493799 -0.75550818
4.7366962 -4.0603909 -0.6953879
6.1524987 -5.2740455 -0.45263773
7.6563172 -6.563149 0
7.6240554 -6.5354939 0.56089979
0 -0 -0
0 -0 -0
0 -0 -0
3.450042 -2.9502208 -0.75679088
4.7415986 -4.0546646 -0.6953879
6.1667662 -5.2733626 -0.45321828
7.6583061 -6.5488172 0
7.6141748 -6.5110798 0.55959368
0 -0 -0
0 -0 -0
0 -0 -0
3.443841 -2.9377215 -0.75465143
4.7425628 -4.0455785 -0.69481188
6.1592932 -5.2541013 -0.45220217
7.6602716 -6.5344901 0
7.6121464 -6.4934378 0.55886757
0 -0 -0
0 -0 -0
0 -0 -0
3.4513018 -2.9368887 -0.75550818
4.7513833 -4.0431943 -0.6953879
6.1636605 -5.2449727 -0.45205718
7.6701493 -6.5269208 0
7.619987 -6.4842353 0.55886757
0 -0 -0
0 -0 -0
0 -0 -0
3.4548481 -2.9327164 -0.75550818
4.7562652 -4.0374503 -0.6953879
6.1501875 -5.2207088 -0.45060605
7.670094 -6.5109115 0
7.6218791 -6.4699836 0.55843258
0 -0 -0
0 -0 -0
0 -0 -0
3.4642606 -2.9335115 -0.75679088
4.7571964 -4.0283608 -0.69481188
6.1525216 -5.2099118 -0.45031551
7.6660352 -6.4915447 0
7.6237407 -6.45573 0.55799699
0 -0 -0
0 -0 -0
0 -0 -0
3.4599586 -2.9226973 -0.75507897
4.7640343 -4.0242772 -0.69509989
6.1568289 -5.200799 -0.45017052
7.6718874 -6.4805994 0
7.6275616 -6.4431567 0.55770648
0 -0 -0
0 -0 -0
0 -0 -0
3.4634874 -2.9185145 -0.75507897
4.7728457 -4.0218477 -0.69567591
6.1591382 -5.1900101 -0.44988051
7.6737399 -6.4662924 0
7.6254082 -6.4255652 0.55698091
0 -0 -0
0 -0 -0
0 -0 -0
3.468982 -2.9159842 -0.75550818
4.7697821 -4.0094209 -0.69452274
6.1673923 -5.1842346 -0.4500255
7.6735787 -6.4503169 0
7.6272049 -6.4113355 0.55654591
0 -0 -0
0 -0 -0
0 -0 -0
3.4725029 -2.9117904 -0.75550818
4.7726431 -4.0019941 -0.69423473
6.1537371 -5.16008 -0.44857383
7.673398 -6.4343576 0
7.6309605 -6.3987727 0.55625534
0 -0 -0
0 -0 -0
0 -0 -0
3.4701097 -2.9026496 -0.75422388
4.7834291 -4.0012045 -0.69509989
6.1599674 -5.1526403 -0.44857383
7.6671915 -6.4133911 0
7.6267314 -6.3795476 0.55538476
0 -0 -0
0 -0 -0
0 -0 -0
3.4812829 -2.9012876 -0.75550818
4.7906733 -3.9925282 -0.69509989
6.1613121 -5.1348133 -0.44799328
7.6688089 -6.3911552 0
7.6282954 -6.3573914 0.55465865
0 -0 -0
0 -0 -0
0 -0 -0
3.4808342 -2.8937936 -0.75465143
4.7935066 -3.9850848 -0.69481188
6.1575232 -5.1190605 -0.44726771
7.6705203 -6.3768916 0
7.6279864 -6.3415313 0.55407864
0 -0 -0
0 -0 -0
0 -0 -0
3.4902582 -2.8945034 -0.75593573
4.794333 -3.9759843 -0.69423473
6.161706 -5.1099596 -0.44712272
7.6682053 -6.3593135 0
7.6256371 -6.3240113 0.55335253
0 -0 -0
0 -0 -0
0 -0 -0
3.483865 -2.8821039 -0.75379634
4.8090963 -3.9784303 -0.69567591
6.1658754 -5.1008558 -0.4469777
7.6718693 -6.3467221 0
7.6312728 -6.3131375 0.55320752
0 -0 -0
0 -0 -0
0 -0 -0
3.4913011 -2.8811569 -0.75465143
4.8059201 -3.9660316 -0.69452274
6.1580033 -5.0818229 -0.44596159
7.6735168 -6.3324833 0
7.626874 -6.293992 0.55233699
0 -0 -0
0 -0 -0
0 -0 -0
3.506675 -2.8867285 -0.75722009
4.8167014 -3.9651546 -0.6953879
6.172164 -5.0809846 -0.44654214
7.6731253 -6.3165903 0
7.6364779 -6.2864218 0.55248201
0 -0 -0
0 -0 -0
0 -0 -0
3.5101607 -2.8824892 -0.75722009
4.8134937 -3.9527659 -0.69423473
6.1662536 -5.0636315 -0.44567159
7.6747165 -6.3023577 0
7.6320233 -6.2672987 0.55161142
0 -0 -0
0 -0 -0
0 -0 -0
3.503706 -2.8701074 -0.75507897
4.8282685 -3.9551406 -0.69567591
6.1582947 -5.0446496 -0.44465548
7.6682315 -6.2815337 0
7.6355662 -6.254776 0.55132085
0 -0 -0
0 -0 -0
2.7999022 -2.2879295 -0.80100936
3.5031996 -2.8626263 -0.75422388
4.8250327 -3.9427571 -0.69452274
6.1643858 -5.0372047 -0.44465548
7.6717892 -6.2689734 0
7.6370802 -6.2406111 0.55088532
0 -0 -0
0 -0 -0
0 -0 -0
3.5106318 -2.8616321 -0.75507897
4.8358097 -3.9418283 -0.6953879
6.1765122 -5.0346794 -0.44509104
7.6753201 -6.2564073 0
7.6345468 -6.2231717 0.55015975
0 -0 -0
0 -0 -0
2.8034534 -2.2795551 -0.80044705
3.5081174 -2.8525341 -0.75379634
4.840569 -3.9359825 -0.6953879
6.1704907 -5.0173736 -0.44421992
7.6747971 -6.240561 0
7.6360106 -6.2090225 0.54972422
0 -0 -0
0 -0 -0
2.8476446 -2.3097777 -0.81226707
3.5255117 -2.8596084 -0.75679088
4.8533564 -3.9366479 -0.69654107
6.1765485 -5.0099139 -0.44421992
7.6803126 -6.2296453 0
7.631403 -6.1899734 0.54885364
0 -0 -0
0 -0 -0
2.8109276 -2.2743702 -0.80100936
3.5229831 -2.8505068 -0.75550818
4.8520756 -3.9258986 -0.69567591
6.1704812 -4.9926438 -0.44334936
7.6797419 -6.2138124 0
7.6368585 -6.1791148 0.54870862
0 -0 -0
0 -0 -0
2.8057647 -2.2645888 -0.79875785
3.5344152 -2.8526971 -0.75722009
4.8568153 -3.9200327 -0.69567591
6.1643734 -4.975389 -0.44247824
7.683198 -6.2012625 0
7.6301632 -6.1584573 0.54769254
0 -0 -0
0 -0 -0
2.8065217 -2.2596049 -0.79819548
3.5358543 -2.8468099 -0.75679088
4.8635693 -3.9157882 -0.69596505
6.1703811 -4.967937 -0.44247824
7.6825767 -6.1854458 0
7.6335549 -6.145977 0.5474025
0 -0 -0
0 -0 -0
2.829057 -2.2721198 -0.80382323
3.5332928 -2.8377178 -0.75550818
4.8642597 -3.9066663 -0.6953879
6.1885386 -4.9702435 -0.44334936
7.6778665 -6.1663775 0
7.6348958 -6.131866 0.54696697
0 -0 -0
0 -0 -0
2.7822273 -2.2289844 -0.78975171
3.5387206 -2.8350499 -0.75593573
4.8770509 -3.9072547 -0.69654107
6.1823683 -4.953011 -0.44247824
7.6771874 -6.1505871 0
7.6382394 -6.1193838 0.5466764
0 -0 -0
0 -0 -0
2.7968242 -2.2351356 -0.79312789
3.5381291 -2.8275635 -0.75507897
4.8817687 -3.9013588 -0.69654107
6.1822648 -4.9406753 -0.44204324
7.6805515 -6.1380596 0
7.6354809 -6.1020408 0.54595083
0 -0 -0
0 -0 -0
2.8273423 -2.253932 -0.80100936
3.5395377 -2.8216877 -0.75465143
4.8783894 -3.889008 -0.6953879
6.1821327 -4.9283409 -0.44160768
7.6818557 -6.1239066 0
7.6408186 -6.0911918 0.54580587
0 -0 -0
0 -0 -0
2.8141537 -2.2378621 -0.79650629
3.5429444 -2.8174088 -0.75465143
4.8871374 -3.8863335 -0.69596505
6.1860514 -4.9192514 -0.4414627
7.6831446 -6.1097651 0
7.6441092 -6.0787234 0.54551584
0 -0 -0
0 -0 -0
2.8194809 -2.2393191 -0.79763097
3.5386136 -2.8104765 -0.75336713
4.895555 -3.8882015 -0.69682908
6.1646051 -4.8961205 -0.43972102
7.6847906 -6.1034989 0
7.6396413 -6.0676398 0.54493529
0 -0 -0
0 -0 -0
2.844094 -2.2532687 -0.80382323
3.5480452 -2.8109827 -0.75465143
4.8961987 -3.8790741 -0.69625306
6.1949573 -4.9080315 -0.4414627
7.6778865 -6.082901 0
7.64289 -6.0551744 0.54464471
0 -0 -0
0 -0 -0
2.8547888 -2.2561326 -0.8060748
3.5534513 -2.8082838 -0.75507897
4.9029093 -3.8747573 -0.69654107
6.1886473 -4.8908725 -0.44059157
7.6770635 -6.0671644 0
7.6481643 -6.0443254 0.54449975
0 -0 -0
0 -0 -0
2.8275797 -2.229084 -0.79763097
3.5548279 -2.8024004 -0.75465143
4.9035292 -3.8656309 -0.69596505
6.1925135 -4.881784 -0.44044659
7.6864309 -6.0594935 0
7.6452608 -6.0270376 0.54377419
0 -0 -0
0 -0 -0
2.8342695 -2.2288101 -0.79875785
3.5582113 -2.7981029 -0.75465143
4.9081964 -3.8597031 -0.69596505
6.1881971 -4.8662686 -0.43972102
7.6876078 -6.0453739 0
7.6484485 -6.0145798 0.54348361
0 -0 -0
0 -0 -0
2.8229642 -2.2144048 -0.79481709
3.5716867 -2.8017218 -0.75679088
4.916923 -3.8569593 -0.69654107
6.2022505 -4.8652029 -0.44030157
7.6785254 -6.0232306 0
7.6495829 -6.0005274 0.54304862
0 -0 -0
0 -0 -0
2.8376482 -2.2203901 -0.79819548
3.5750694 -2.7974041 -0.75679088
4.9154668 -3.8462319 -0.69567591
6.1978941 -4.8497 -0.43957603
7.6817026 -6.0107436 0
7.6425009 -5.9800692 0.54203248
0 -0 -0
0 -0 -0
2.8243051 -2.2044525 -0.79369241
3.5703526 -2.7867644 -0.75507897
4.9221554 -3.8418858 -0.69596505
6.2119431 -4.8486028 -0.44015658
7.6848526 -5.9982514 0
7.6456203 -5.9676299 0.54174197
0 -0 -0
0 -0 -0
2.8710701 -2.2353766 -0.8060748
3.5757484 -2.7840297 -0.75550818
4.9390349 -3.8454664 -0.69769424
6.2341995 -4.8538642 -0.44131771
7.6838808 -5.9825664 0
7.6425762 -5.950407 0.5410164
0 -0 -0
0 -0 -0
2.8416607 -2.206969 -0.79706866
3.5750511 -2.7765551 -0.75465143
4.9457188 -3.8410807 -0.69798225
6.2482686 -4.8527031 -0.44189826
7.6911039 -5.9732776 0
7.6374512 -5.9316082 0.54014581
0 -0 -0
0 -0 -0
2.8443255 -2.2035339 -0.79706866
3.5784035 -2.7722332 -0.75465143
4.9462709 -3.8319371 -0.69740623
6.2623363 -4.8515091 -0.44247824
7.6921496 -5.9592032 0
7.6425605 -5.9207859 0.5400008
0 -0 -0
0 -0 -0
2.8510108 -2.2032058 -0.79819548
3.5919049 -2.7757545 -0.75679088
4.9427109 -3.8196313 -0.69625306
6.2764182 -4.8502941 -0.44305882
7.6931648 -5.9451284 0
7.643539 -5.9067788 0.53956527
0 -0 -0
0 -0 -0
2.8375716 -2.1873493 -0.79369241
3.5952561 -2.7714121 -0.75679088
4.9493694 -3.8152337 -0.69654107
6.2658181 -4.8300219 -0.44189826
7.6900387 -5.9278855 0
7.6362624 -5.8864322 0.53854913
0 -0 -0
0 -0 -0
2.8563268 -2.1963096 -0.79819548
3.588429 -2.7592435 -0.75465143
4.9539757 -3.8092506 -0.69654107
6.2716498 -4.8224473 -0.44189826
7.6951346 -5.9170046 0
7.6495514 -5.8819542 0.53898472
0 -0 -0
0 -0 -0
2.8549423 -2.1897609 -0.79706866
3.5958381 -2.7580333 -0.75550818
4.9524159 -3.798538 -0.69567591
6.2754045 -4.8132796 -0.4417527
7.6960816 -5.9029493 0
7.6484056 -5.8663812 0.53840417
0 -0 -0
0 -0 -0
2.8495142 -2.1801338 -0.79481709
3.6012049 -2.7552447 -0.75593573
4.967279 -3.8004141 -0.69711822
6.2770925 -4.8025389 -0.4414627
7.6908031 -5.8841543 0
7.6554885 -5.8571353 0.53840417
0 -0 -0
0 -0 -0
2.8521464 -2.1766891 -0.79481709
3.5963688 -2.7446618 -0.75422388
4.9698052 -3.7928357 -0.69682908
6.280827 -4.7933755 -0.44131771
7.6917067 -5.8701248 0
7.6563611 -5.8431501 0.53796858
0 -0 -0
0 -0 -0
2.8628614 -2.1793978 -0.79706866
3.6037638 -2.7434213 -0.75507897
4.9702725 -3.7836974 -0.69625306
6.3052201 -4.7999468 -0.44262382
7.6925797 -5.8560963 0
7.6510148 -5.8244543 0.53709805
0 -0 -0
0 -0 -0
2.8472822 -2.1621087 -0.79200321
3.6029911 -2.7359629 -0.75422388
4.9768987 -3.7792518 -0.69654107
6.329638 -4.8064661 -0.44392994
7.6872182 -5.8373566 0
7.643559 -5.8042035 0.53608191
0 -0 -0
0 -0 -0
2.8688293 -2.1757393 -0.79763097
3.6066866 -2.7353354 -0.75465143
4.9771223 -3.7746828 -0.69625306
6.3428907 -4.8104906 -0.44465548
7.6803694 -5.8248434 0
7.6387825 -5.793304 0.53550136
0 -0 -0
0 -0 -0
2.8491719 -2.1554132 -0.7914409
3.6222765 -2.7402709 -0.75722009
4.9858012 -3.7717841 -0.69682908
6.3486986 -4.8028231 -0.44465548
7.6874018 -5.8155589 0
7.6457772 -5.7840695 0.53550136
0 -0 -0
0 -0 -0
2.8578529 -2.1565559 -0.79312789
3.6194358 -2.7312517 -0.75593573
4.9862299 -3.7626441 -0.69625306
6.3503528 -4.7920213 -0.44436547
7.681963 -5.7968636 0
7.6527605 -5.774827 0.53550136
0 -0 -0
0 -0 -0
2.8564005 -2.150048 -0.79200321
3.6042764 -2.7129836 -0.75208443
4.9949017 -3.7597244 -0.69682908
6.3561387 -4.7843442 -0.44436547
7.6868844 -5.7860131 0
7.6514287 -5.759325 0.53492081
0 -0 -0
0 -0 -0
2.8732216 -2.1572759 -0.79594398
3.6239746 -2.720957 -0.75550818
4.9953079 -3.7505832 -0.69625306
6.3577547 -4.7735376 -0.44407493
7.6855454 -5.7704706 0
7.6563058 -5.748517 0.53477579
0 -0 -0
0 -0 -0
2.9144616 -2.1827381 -0.80663717
3.6272597 -2.7165763 -0.75550818
5.0039725 -3.7476428 -0.69682908
6.3635182 -4.765852 -0.44407493
7.692512 -5.7611799 0
7.6611686 -5.7377057 0.53463078
0 -0 -0
0 -0 -0
2.8723178 -2.1457624 -0.79425478
3.6387658 -2.7183368 -0.75722009
5.0147157 -3.7462389 -0.69769424
6.3671923 -4.7566056 -0.44392994
7.686954 -5.7425327 0
7.6576891 -5.7206702 0.53390527
0 -0 -0
0 -0 -0
2.8708296 -2.139251 -0.79312789
3.6296933 -2.7047319 -0.75465143
5.0171666 -3.7386329 -0.69740623
6.3625193 -4.741147 -0.44320437
7.6918025 -5.7316866 0
7.6645961 -5.7114134 0.53390527
0 -0 -0
0 -0 -0
2.8754575 -2.1373007 -0.79369241
3.6350169 -2.7018743 -0.75507897
5.015451 -3.7279377 -0.69654107
6.35781 -4.7257009 -0.44247824
7.6924543 -5.7177296 0
7.6589746 -5.6928444 0.53303415
0 -0 -0
0 -0 -0
2.8841553 -2.1383603 -0.79537946
3.6485956 -2.7051289 -0.75722009
5.0282626 -3.7280366 -0.69769424
6.3301263 -4.6932597 -0.44015658
7.7035427 -5.7115331 0
7.6595922 -5.6789474 0.53259915
0 -0 -0
0 -0 -0
2.8785653 -2.1288304 -0.79312789
3.6353498 -2.6885071 -0.75379634
5.0286083 -3.7188852 -0.69711822
0 -0 -0
7.6978874 -5.6929393 0
7.6643529 -5.6681385 0.5324536
0 -0 -0
0 -0 -0
2.8852289 -2.1283703 -0.79425478
3.6468589 -2.6902082 -0.75550818
5.0310106 -3.7112665 -0.69682908
0 -0 -0
7.7005682 -5.6805406 0
7.6586537 -5.6496215 0.53158301
0 -0 -0
0 -0 -0
2.8877985 -2.1248825 -0.79425478
3.6501069 -2.6857996 -0.75550818
5.0313287 -3.702122 -0.69625306
6.2298937 -4.5840425 -0.43202877
7.6969476 -5.6635213 0
7.659194 -5.6357417 0.53114748
0 -0 -0
0 -0 -0
2.8821704 -2.1153779 -0.79200321
3.655417 -2.6829047 -0.75593573
5.0378814 -3.6975689 -0.69654107
6.2312427 -4.5734396 -0.43173876
7.7037849 -5.6542168 0
7.6534333 -5.6172614 0.53027689
0 -0 -0
0 -0 -0
2.9031742 -2.1254008 -0.79706866
3.6503708 -2.6724203 -0.75422388
5.0465236 -3.6945374 -0.69711822
6.2325668 -4.5628343 -0.43144822
7.7001138 -5.637219 0
7.6623096 -5.6095428 0.53042191
0 -0 -0
0 -0 -0
2.8975322 -2.1158977 -0.79481709
3.6660321 -2.677088 -0.75679088
5.0551577 -3.6914849 -0.69769424
6.2317858 -4.5507073 -0.4310132
7.7027121 -5.6248384 0
7.666986 -5.5987496 0.53027689
0 -0 -0
0 -0 -0
2.8980348 -2.1109004 -0.79425478
3.6630452 -2.6681266 -0.75550818
5.0617032 -3.6868954 -0.69798225
6.2330751 -4.5401115 -0.43072265
7.698987 -5.6078672 0
7.661139 -5.5802994 0.52940577
0 -0 -0
0 -0 -0
2.9108593 -2.1148632 -0.79706866
3.6662664 -2.6636984 -0.75550818
5.0619731 -3.6777389 -0.69740623
6.2028213 -4.5066137 -0.42825541
7.6952319 -5.5909133 0
7.6657763 -5.5695124 0.52926075
0 -0 -0
0 -0 -0
2.9031274 -2.1038909 -0.79425478
3.6715591 -2.6607716 -0.75593573
5.0538435 -3.6625104 -0.69567591
6.2082624 -4.4991155 -0.42825541
7.6977634 -5.5785537 0
7.664084 -5.5541463 0.52868021
0 -0 -0
0 -0 -0
2.9023418 -2.1006482 -0.79369241
3.6669252 -2.654036 -0.75465143
5.0518684 -3.6564262 -0.69509989
6.2088761 -4.4938416 -0.42811042
7.6926994 -5.5677986 0
7.6611214 -5.5449433 0.52824467
0 -0 -0
0 -0 -0
2.9110522 -2.1015973 -0.79537946
3.6701295 -2.6496034 -0.75465143
5.0541878 -3.6488068 -0.69481188
6.2058744 -4.4802523 -0.42752987
7.6952052 -5.5554557 0
7.6593885 -5.5295982 0.52766412
0 -0 -0
0 -0 -0
2.9053419 -2.092139 -0.79312789
3.6774986 -2.6481698 -0.75550818
5.0669889 -3.6487429 -0.69596505
6.2028489 -4.4666767 -0.42694929
7.7040219 -5.5476727 0
7.6597443 -5.5157886 0.52722913
0 -0 -0
0 -0 -0
2.9181921 -2.0960429 -0.79594398
3.6890357 -2.6497147 -0.75722009
5.0692873 -3.6411045 -0.69567591
6.2019081 -4.4546294 -0.42651376
7.7022648 -5.5322871 0
7.6706204 -5.5095577 0.52751911
0 -0 -0
0 -0 -0
2.9248497 -2.0954721 -0.79706866
3.6859722 -2.6407688 -0.75593573
5.0778923 -3.6379921 -0.69625306
6.2009554 -4.4425969 -0.42607874
7.7047167 -5.519948 0
7.6603737 -5.4881787 0.52635801
0 -0 -0
0 -0 -0
2.923696 -2.0839717 -0.79537946
3.6839817 -2.6258934 -0.75422388
5.0845647 -3.6242106 -0.69596505
6.2032094 -4.4215655 -0.42549819
7.6989627 -5.4877186 0
7.6672726 -5.4651303 0.52592301
0 -0 -0
0 -0 -0
2.9179285 -2.0745482 -0.79312789
3.6997008 -2.630362 -0.75679088
5.0868263 -3.6165612 -0.69567591
6.2021923 -4.4095488 -0.42506263
7.7034607 -5.4768996 0
7.669631 -5.452848 0.52563244
0 -0 -0
0 -0 -0
2.920433 -2.0710211 -0.79312789
3.7133443 -2.6333132 -0.75893027
5.0911922 -3.6104121 -0.69567591
6.2096334 -4.403553 -0.42520764
7.7037101 -5.4630756 0
7.6656179 -5.4360623 0.52490687
0 -0 -0
0 -0 -0
2.9104908 -2.0586898 -0.78975171
3.7060466 -2.6214137 -0.75679088
5.095551 -3.6042578 -0.69567591
6.210711 -4.3930483 -0.42491764
7.7060523 -5.4507546 0
7.6806664 -5.4327984 0.52548742
0 -0 -0
0 -0 -0
2.9316599 -2.0683532 -0.79481709
3.7092113 -2.6169338 -0.75679088
5.0935683 -3.5936291 -0.69481188
6.2075219 -4.379549 -0.42433706
7.7041268 -5.4354382 0
7.6766114 -5.4160252 0.52476186
0 -0 -0
0 -0 -0
2.9237692 -2.0574994 -0.79200321
3.7144761 -2.6139317 -0.75722009
5.0979066 -3.587472 -0.69481188
6.214932 -4.373539 -0.42448208
7.7021756 -5.4201341 0
7.6810269 -5.405252 0.5246169
0 -0 -0
0 -0 -0
2.9324942 -2.0583458 -0.79369241
3.7155247 -2.6079624 -0.75679088
5.1107059 -3.5872533 -0.69596505
6.2095799 -4.3585639 -0.42375651
7.7023349 -5.4063425 0
7.6684051 -5.3825269 0.52331018
0 -0 -0
0 -0 -0
2.9328918 -2.0533395 -0.79312789
3.7207823 -2.6049476 -0.75722009
5.110795 -3.5781059 -0.6953879
6.2127151 -4.3495688 -0.42361152
7.7067237 -5.395535 0
7.6685233 -5.3687906 0.52287519
0 -0 -0
0 -0 -0
2.9457929 -2.0570722 -0.79594398
3.7218163 -2.5989759 -0.75679088
5.1214786 -3.5763717 -0.69625306
6.2137012 -4.3390803 -0.42332095
7.700439 -5.3772817 0
7.675005 -5.3595209 0.52287519
0 -0 -0
0 -0 -0
2.9357624 -2.044795 -0.79256558
3.7207451 -2.5915453 -0.75593573
5.1236758 -3.5687039 -0.69596505
6.2104111 -4.3256288 -0.4227404
7.7069306 -5.3679733 0
7.6729465 -5.3443027 0.52229464
0 -0 -0
0 -0 -0
2.9424083 -2.0441484 -0.79369241
3.7302005 -2.5914428 -0.75722009
5.1258535 -3.5610304 -0.69567591
6.2177734 -4.3196082 -0.42288595
7.7112761 -5.3571734 0
7.6687303 -5.3276162 0.52156907
0 -0 -0
0 -0 -0
2.9427817 -2.0391402 -0.79312789
3.7312129 -2.5854676 -0.75679088
5.1237812 -3.5504191 -0.69481188
6.2165785 -4.307651 -0.42245039
7.7027674 -5.3374748 0
7.6708865 -5.3153834 0.5212785
0 -0 -0
0 -0 -0
2.9473398 -2.0370319 -0.79369241
3.7280049 -2.5765827 -0.75550818
5.1259332 -3.5427506 -0.69452274
6.2174997 -4.2971787 -0.42215985
7.7092109 -5.3281636 0
7.675168 -5.304635 0.52113354
0 -0 -0
0 -0 -0
2.9402053 -2.0294771 -0.7914409
3.7380116 -2.580163 -0.75722009
5.1302075 -3.5411267 -0.69481188
6.2179585 -4.2919469 -0.42201483
7.6974339 -5.3131552 0
7.6740899 -5.2970419 0.52084297
0 -0 -0
0 -0 -0
2.9405646 -2.0244837 -0.79087853
3.7411265 -2.5756445 -0.75722009
5.1451325 -3.5422573 -0.69625306
6.2124405 -4.2770643 -0.42128929
7.6974235 -5.299427 0
7.6655092 -5.2774553 0.51982743
0 -0 -0
0 -0 -0
2.9492865 -2.0252399 -0.79256558
3.7421136 -2.569665 -0.75679088
5.1387501 -3.5287185 -0.69481188
6.213316 -4.2666101 -0.42099872
7.6952395 -5.2842298 0
7.667592 -5.2652445 0.51953685
0 -0 -0
0 -0 -0
2.9559281 -2.0245492 -0.79369241
3.7452159 -2.5651414 -0.75679088
5.1536779 -3.5298133 -0.69625306
6.2184668 -4.2590995 -0.42099872
7.7037644 -5.2763968 0
7.6718068 -5.254509 0.51939183
0 -0 -0
0 -0 -0
2.9709566 -2.029573 -0.79706866
3.7419596 -2.5562742 -0.75550818
5.1493964 -3.5177474 -0.69509989
6.2085953 -4.2413263 -0.41998318
7.7058401 -5.2641511 0
7.6717114 -5.2408366 0.5189563
0 -0 -0
0 -0 -0
2.9692111 -2.0231228 -0.79594398
3.747165 -2.553195 -0.75593573
5.1557784 -3.5129778 -0.6953879
6.2115703 -4.2323599 -0.41983816
7.7100387 -5.2533669 0
7.680192 -5.2330303 0.51910186
0 -0 -0
0 -0 -0
2.9590404 -2.0109618 -0.79256558
3.756619 -2.5529957 -0.75722009
5.1514626 -3.5009303 -0.69423473
6.21668 -4.2248511 -0.41983816
7.6991606 -5.2323442 0
7.6757579 -5.2164397 0.51837575
0 -0 -0
0 -0 -0
2.976193 -2.0173659 -0.79650629
3.759701 -2.5484545 -0.75722009
5.1642528 -3.5005081 -0.6953879
6.2153254 -4.2129612 -0.4194026
7.7097902 -5.2259607 0
7.6670051 -5.1969595 0.51736021
0 -0 -0
0 -0 -0
2.9681053 -2.006654 -0.79369241
3.7627776 -2.5439098 -0.75722009
5.1706195 -3.4957128 -0.69567591
6.2139516 -4.2010808 -0.41896704
7.7160988 -5.2166409 0
7.6668191 -5.1833243 0.51692462
0 -0 -0
0 -0 -0
2.9768419 -2.0073237 -0.79537946
3.7637141 -2.5379221 -0.75679088
5.1684122 -3.4851286 -0.69481188
6.2104053 -4.1877584 -0.41838649
7.7223964 -5.207314 0
7.6666112 -5.1696973 0.51648909
0 -0 -0
2.5334733 -1.703905 -0.84235758
2.9771588 -2.0023086 -0.79481709
3.766778 -2.5333724 -0.75679088
5.176908 -3.4817653 -0.6953879
6.211153 -4.1773539 -0.41809648
7.7222023 -5.1936207 0
7.6706982 -5.1589808 0.51634407
0 -0 -0
2.4876173 -1.6687024 -0.8264398
2.9816842 -2.000124 -0.79537946
3.7698362 -2.5288193 -0.75679088
5.1832571 -3.4769468 -0.69567591
6.2183518 -4.1712918 -0.4182415
7.7284722 -5.1842861 0
7.6618185 -5.1395745 0.51532793
0 -0 -0
2.4833744 -1.6615088 -0.8243627
2.9883263 -1.9993484 -0.79650629
3.7728891 -2.5242622 -0.75679088
5.185307 -3.4692445 -0.6953879
6.2169065 -4.1594391 -0.41780594
7.7239175 -5.1677094 0
7.6745043 -5.1346493 0.51576352
0 -0 -0
2.5688524 -1.7142084 -0.85204917
2.9780548 -1.9872712 -0.79312789
3.7716699 -2.5168545 -0.75593573
5.1916442 -3.4644108 -0.69567591
6.2197685 -4.1504831 -0.41766092
7.7279935 -5.1569295 0
7.68503 -5.1282597 0.51605409
0 -0 -0
0 -0 -0
2.9868016 -1.9878961 -0.79481709
3.7725732 -2.5108745 -0.75550818
5.1958265 -3.4581351 -0.69567591
6.2204566 -4.1400881 -0.41737095
7.7298818 -5.1447015 0
7.6825681 -5.1132112 0.51547348
0 -0 -0
2.5458174 -1.6899594 -0.84305173
2.9934394 -1.9870989 -0.79594398
3.7820146 -2.5105693 -0.75679088
5.208621 -3.4575765 -0.69682908
6.2189579 -4.1282563 -0.41693538
7.7252531 -5.1281624 0
7.6714215 -5.0924277 0.51431239
0 -0 -0
2.5394902 -1.6813422 -0.84028304
2.9831223 -1.9750617 -0.79256558
3.7764835 -2.500329 -0.75507897
5.2084861 -3.4484274 -0.69625306
6.219604 -4.117867 -0.41664481
7.7422919 -5.1260061 0
7.6753964 -5.0817161 0.51416683
0 -0 -0
2.5498941 -1.6838022 -0.84305173
2.9961061 -1.9784549 -0.79537946
3.7837903 -2.498596 -0.75593573
5.2083278 -3.4392781 -0.69567591
6.2159019 -4.1046214 -0.41606426
7.7397933 -5.1109109 0
7.6793647 -5.0710077 0.51402181
0 -0 -0
2.4660263 -1.6241453 -0.81467372
2.9984946 -1.9748334 -0.79537946
3.7846649 -2.4926116 -0.75550818
5.2189622 -3.4372516 -0.69654107
6.2252011 -4.0999689 -0.41635481
7.7481427 -5.1029911 0
7.6941671 -5.0674419 0.51460242
0 -0 -0
2.5015364 -1.6432023 -0.82574832
3.0030084 -1.9726079 -0.79594398
3.7962561 -2.4936743 -0.75722009
5.218792 -3.4281058 -0.69596505
6.2127762 -4.0810313 -0.41519371
7.7434211 -5.0864768 0
7.6872578 -5.0495844 0.51373184
0 -0 -0
2.552865 -1.6747119 -0.84235758
2.9957016 -1.9652183 -0.79369241
3.7848794 -2.482929 -0.75465143
5.2208624 -3.424952 -0.69596505
6.2391419 -4.0929565 -0.41679037
7.7356143 -5.0746613 0
7.6881366 -5.0435152 0.51358682
0 -0 -0
2.5213053 -1.6496543 -0.8312856
2.9980738 -1.9615971 -0.79369241
3.7986152 -2.4853799 -0.75679088
5.224997 -3.4186413 -0.69596505
6.2440829 -4.0854149 -0.41679037
7.7417402 -5.065311 0
7.6833467 -5.0271044 0.51286072
0 -0 -0
2.5106866 -1.6383777 -0.82713133
3.015331 -1.9676893 -0.79763097
3.7973201 -2.4779851 -0.75593573
5.2356157 -3.4165618 -0.69682908
6.2511892 -4.0792856 -0.41693538
7.7369599 -5.0488429 0
7.6785369 -5.0107183 0.51213515
0 -0 -0
2.5399971 -1.653132 -0.83612877
3.0113239 -1.9598902 -0.79594398
3.798162 -2.4719961 -0.75550818
5.2440801 -3.4130576 -0.69740623
6.236515 -4.0589743 -0.41562927
7.7408757 -5.0380721 0
7.6758747 -4.9957671 0.5115546
0 -0 -0
2.4767652 -1.6077211 -0.81467372
3.0136898 -1.9562503 -0.79594398
3.8097589 -2.4729958 -0.75722009
5.2438569 -3.4038994 -0.69682908
6.2523108 -4.0585079 -0.41635481
7.7425876 -5.0258784 0
7.679728 -4.985075 0.51140958
0 -0 -0
2.5460966 -1.6483562 -0.83682293
3.0053806 -1.9456991 -0.79312789
3.7998109 -2.4600174 -0.75465143
5.2457972 -3.3961565 -0.69654107
6.2484851 -4.0453019 -0.41577426
7.7464719 -5.0151067 0
7.677021 -4.9701433 0.51082903
0 -0 -0
2.4996097 -1.6139776 -0.82090253
3.0098701 -1.9434485 -0.79369241
3.8200331 -2.4665642 -0.75807518
5.2607594 -3.3968291 -0.69798225
6.2599192 -4.0419788 -0.41620982
7.7394123 -4.9972754 0
7.6764698 -4.9566336 0.5103935
0 -0 -0
2.5226545 -1.6245418 -0.82782549
3.0122161 -1.9398103 -0.79369241
3.8100653 -2.4536099 -0.75550818
5.2496438 -3.3806715 -0.69596505
6.2495041 -4.0245624 -0.41519371
7.7323122 -4.9794631 0
7.6759057 -4.9431381 0.50995851
0 -0 -0
2.533051 -1.6269103 -0.83059144
3.0188296 -1.9389127 -0.79481709
3.8087032 -2.4462273 -0.75465143
5.2646041 -3.3813133 -0.69740623
6.2499938 -4.0142026 -0.4149037
7.744895 -4.9743371 0
7.6731277 -4.9282427 0.50937796
0 -0 -0
2.5350149 -1.6238484 -0.83059144
3.0233078 -1.9366329 -0.79537946
3.8138158 -2.4430068 -0.75507897
5.2708621 -3.3763433 -0.69769424
6.2526455 -4.0052419 -0.41475815
7.7443233 -4.9607625 0
7.6834488 -4.9217682 0.50966793
0 -0 -0
2.5454319 -1.6261867 -0.83336014
3.0256455 -1.9329784 -0.79537946
3.8210957 -2.4411635 -0.75593573
5.2705827 -3.3671896 -0.69711822
6.2574806 -3.997684 -0.41475815
7.7459297 -4.9486017 0
7.6850147 -4.9096856 0.50937796
0 -0 -0
2.5854831 -1.6473783 -0.84582037
3.030128 -1.9306904 -0.79594398
3.8283682 -2.4393008 -0.75679088
5.2681012 -3.356648 -0.69625306
6.264504 -3.9915204 -0.4149037
7.7409315 -4.9322476 0
7.6821756 -4.8948107 0.50879735
0 -0 -0
2.5493543 -1.6200308 -0.83336014
3.0281656 -1.9242995 -0.79481709
3.8269837 -2.4319222 -0.75593573
5.2787046 -3.3544431 -0.69711822
6.2517776 -3.9727991 -0.4137426
7.7446823 -4.9214907 0
7.6880846 -4.8855247 0.50879735
0 -0 -0
2.5491929 -1.6156075 -0.8326686
3.0326326 -1.921998 -0.79537946
3.8277533 -2.4259233 -0.75550818
5.2805629 -3.3466737 -0.69682908
6.2521796 -3.9624574 -0.41345203
7.7418308 -4.9065566 0
7.6939821 -4.8762317 0.50879735
0 -0 -0
2.5299406 -1.5991244 -0.82574832
3.0328069 -1.916976 -0.79481709
3.8328495 -2.4226668 -0.75593573
5.2846026 -3.3402908 -0.69682908
6.2350025 -3.9410193 -0.41200092
7.7389541 -4.8916364 0
7.6844912 -4.8572116 0.50778127
0 -0 -0
2.5700679 -1.6201452 -0.83820593
3.0329735 -1.9119563 -0.79425478
3.8314269 -2.4152932 -0.75507897
5.2886348 -3.3339028 -0.69682908
6.2441521 -3.9362512 -0.4122909
7.7492661 -4.8850603 0
7.6881585 -4.8465385 0.50763625
0 -0 -0
2.5614061 -1.6103634 -0.83474576
3.0460351 -1.9150509 -0.79706866
3.8430355 -2.4161272 -0.75679088
5.2970428 -3.330266 -0.69740623
6.2511096 -3.9300907 -0.41243649
7.7375374 -4.8646116 0
7.6940093 -4.8372455 0.50763625
0 -0 -0
2.5357208 -1.5899431 -0.82574832
3.0418866 -1.9073182 -0.79537946
3.8350797 -2.4046648 -0.75465143
5.2966762 -3.3211126 -0.69682908
6.2448401 -3.9156287 -0.41171035
7.7390041 -4.8524966 0
7.6932416 -4.8238029 0.50720072
0 -0 -0
2.558907 -1.600177 -0.8326686
3.0398843 -1.9009496 -0.79425478
3.8510458 -2.4081981 -0.75722009
5.3006854 -3.3147101 -0.69682908
6.2429638 -3.9039509 -0.41127536
7.747066 -4.8445206 0
7.6836405 -4.8048582 0.50618458
0 -0 -0
2.528914 -1.5771739 -0.82228816
3.0551107 -1.9053401 -0.79763097
3.8430557 -2.3967471 -0.75507897
5.3068876 -3.3096755 -0.69711822
6.2476764 -3.8964047 -0.41127536
7.7484937 -4.8323994 0
7.6894407 -4.7955704 0.50618458
0 -0 -0
2.5256033 -1.5729907 -0.82090253
3.0476341 -1.8981208 -0.79537946
3.853219 -2.3998532 -0.75679088
5.3198614 -3.3133044 -0.6985594
6.2456136 -3.8898795 -0.41098478
7.7425752 -4.8222136 0
7.6835227 -4.7854342 0.50560457
0 -0 -0
2.5275021 -1.5699378 -0.82090253
3.0607238 -1.9011441 -0.79819548
3.8561158 -2.3951957 -0.75679088
5.3238611 -3.306874 -0.6985594
6.239275 -3.8754759 -0.41025925
7.7395535 -4.8073621 0
7.6892991 -4.7761469 0.50560457
0 -0 -0
2.5571206 -1.5840564 -0.82989997
3.0608523 -1.8961025 -0.79763097
3.8546469 -2.3878334 -0.75593573
5.3212543 -3.2963512 -0.69769424
6.2329106 -3.8610938 -0.40953368
7.7387257 -4.7938991 0
7.6818066 -4.7586393 0.50473344
0 -0 -0
2.5248837 -1.5598682 -0.81882536
3.0501754 -1.8843925 -0.79425478
3.8640831 -2.387223 -0.75722009
5.3252335 -3.2899191 -0.69769424
6.2486224 -3.8603868 -0.41025925
7.7489362 -4.7872777 0
7.6963935 -4.754817 0.50531405
0 -0 -0
2.5160892 -1.5502375 -0.81536525
3.0524502 -1.8807056 -0.79425478
3.8604059 -2.3785114 -0.75593573
5.3402133 -3.2902646 -0.69913542
6.2532821 -3.8528337 -0.41025925
7.7458525 -4.7724509 0
7.693284 -4.7400618 0.50473344
0 -0 -0
2.5179605 -1.5471963 -0.81536525
3.0568833 -1.8783449 -0.79481709
3.8698409 -2.3778782 -0.75722009
5.3397818 -3.2811041 -0.6985594
6.2490773 -3.8398335 -0.4096787
7.7493982 -4.7617269 0
7.6901503 -4.7253208 0.50415289
0 -0 -0
2.5198281 -1.5441526 -0.81536525
3.0591507 -1.8746499 -0.79481709
3.863956 -2.3678353 -0.75550818
5.3459454 -3.2759998 -0.69884741
6.2426372 -3.8254929 -0.40895313
7.7573628 -4.7537179 0
7.6980677 -4.717382 0.50429791
0 -0 -0
2.5645053 -1.5672717 -0.82920849
3.0505753 -1.8643284 -0.79200321
3.8690026 -2.3645022 -0.75593573
5.343277 -3.2654901 -0.69798225
6.2516851 -3.8206544 -0.40924314
7.7497816 -4.7362013 0
7.6971169 -4.7040157 0.50386292
0 -0 -0
2.5771062 -1.5706989 -0.8326686
3.0593369 -1.8646095 -0.79369241
3.8784349 -2.3638346 -0.75722009
5.3516402 -3.2617261 -0.6985594
6.2540803 -3.8117468 -0.40909812
7.7554989 -4.7268338 0
7.702795 -4.6947117 0.50386292
0 -0 -0
2.5618517 -1.5571592 -0.82713133
3.0680952 -1.864867 -0.79537946
3.8725138 -2.3538132 -0.75550818
5.3577857 -3.2565997 -0.69884741
6.2564631 -3.8028388 -0.40895313
7.745635 -4.7079959 0
7.6906986 -4.6746039 0.50270182
0 -0 -0
2.5699053 -1.5535619 -0.82851696
3.0660758 -1.8535074 -0.79369241
3.8781908 -2.3444481 -0.75550818
5.3678513 -3.2449791 -0.69913542
6.2456236 -3.7756112 -0.40764701
7.75699 -4.6892638 0
7.6908565 -4.6492848 0.50197625
0 -0 -0
2.5309567 -1.525844 -0.81536525
3.0617828 -1.8458644 -0.79200321
3.8876097 -2.3437326 -0.75679088
5.373981 -3.239825 -0.69942343
6.2501812 -3.7680616 -0.40764701
7.7559614 -4.6758552 0
7.6897902 -4.6359625 0.50154066
0 -0 -0
2.5327985 -1.5227846 -0.81536525
3.0727215 -1.8474004 -0.79425478
3.8904388 -2.3390336 -0.75679088
5.3734627 -3.2306664 -0.69884741
6.2547293 -3.7605069 -0.40764701
7.754921 -4.6624613 0
7.6864786 -4.6213117 0.50096011
0 -0 -0
2.5798192 -1.5468137 -0.82989997
3.0749514 -1.8436863 -0.79425478
3.8888631 -2.3316934 -0.75593573
5.3795786 -3.2254999 -0.69913542
6.2592688 -3.7529464 -0.40764701
7.7516208 -4.6477342 0
7.6920571 -4.612021 0.50096011
0 -0 -0
2.545084 -1.5218093 -0.81813389
3.0924447 -1.8490986 -0.79819548
3.89608 -2.3296249 -0.75679088
5.3879161 -3.2216547 -0.69971257
6.2615623 -3.7440434 -0.40750146
7.7549996 -4.6370301 0
7.699852 -4.6040554 0.50110513
0 -0 -0
2.5684726 -1.5315844 -0.82505685
3.0772178 -1.83495 -0.79369241
3.8900728 -2.3196566 -0.75507897
5.396244 -3.2177889 -0.70028859
6.2504654 -3.7271628 -0.40648589
7.7605968 -4.6276565 0
7.6964827 -4.5894251 0.50052458
0 -0 -0
2.5573792 -1.5207835 -0.82090253
3.0728788 -1.827333 -0.79200321
3.8928728 -2.3149545 -0.75507897
5.3934565 -3.207299 -0.69942343
6.24156 -3.7116363 -0.40561476
7.7572351 -4.6129551 0
7.6975598 -4.5774684 0.50023454
0 -0 -0
2.546272 -1.5100168 -0.81675088
3.0838265 -1.8288029 -0.79425478
3.9000874 -2.3128705 -0.75593573
5.399559 -3.2021029 -0.69971257
6.2438073 -3.7027678 -0.40546978
7.7471318 -4.594285 0
7.6986108 -4.5655107 0.499944
0 -0 -0
2.5675273 -1.5184314 -0.82297969
3.0860341 -1.8250754 -0.79425478
3.9006717 -2.3068507 -0.75550818
5.4011917 -3.1942558 -0.69942343
6.2438078 -3.6925778 -0.40517977
7.7571535 -4.5875678 0
7.6951752 -4.5509138 0.49936345
0 -0 -0
2.5542314 -1.5064055 -0.81813389
3.088237 -1.8213452 -0.79425478
3.9034562 -2.3021359 -0.75550818
5.4095073 -3.1903574 -0.70000058
6.2505012 -3.6863494 -0.40532479
7.7559724 -4.5742292 0
7.7051492 -4.5442553 0.499654
0 -0 -0
2.5573008 -1.506134 -0.81882536
3.102469 -1.8272134 -0.79763097
3.9114759 -2.3036816 -0.75679088
5.4203486 -3.1923392 -0.70115376
6.2348151 -3.6720231 -0.40416366
7.7520051 -4.5655789 0
7.6989374 -4.5343246 0.49907345
0 -0 -0
2.5569575 -1.5017736 -0.81813389
3.0981081 -1.8196065 -0.79594398
3.9076223 -2.2950573 -0.75550818
0 -0 -0
6.252687 -3.6723802 -0.40503421
7.7530322 -4.5535755 0
7.7021723 -4.5237041 0.49892846
0 -0 -0
2.5479484 -1.4923445 -0.81467372
3.1046851 -1.8184277 -0.79706866
3.9170315 -2.2942224 -0.75679088
5.4168901 -3.1726964 -0.69971257
6.2414308 -3.6556332 -0.40401867
7.7540331 -4.5415711 0
7.7031441 -4.511765 0.49863788
0 -0 -0
2.5822465 -1.5082456 -0.82505685
3.0981038 -1.8095489 -0.79481709
3.9198008 -2.2894878 -0.75679088
5.4229512 -3.1674519 -0.70000058
6.2413516 -3.6454656 -0.4037281
7.7595148 -4.5321984 0
7.7153234 -4.5063868 0.49907345
0 -0 -0
2.5732217 -1.4988072 -0.821594
3.111264 -1.8121972 -0.79763097
3.9225643 -2.2847497 -0.75679088
5.4424214 -3.1700108 -0.70201892
6.2322841 -3.6300769 -0.40285754
7.7514968 -4.5149627 0
7.7185197 -4.4957547 0.49892846
0 -0 -0
2.5620189 -1.4881389 -0.81744236
3.0958743 -1.7982268 -0.79312789
3.9253221 -2.2800086 -0.75679088
5.4462481 -3.1634326 -0.70201892
6.256886 -3.6342885 -0.40416366
7.7591949 -4.5068989 0
7.7104602 -4.4785919 0.49805734
0 -0 -0
2.5790133 -1.4938455 -0.82228816
3.1046429 -1.7983067 -0.79481709
3.9258549 -2.2739785 -0.75636333
5.4478216 -3.1555493 -0.70172977
6.2387919 -3.6137042 -0.40271255
7.7578769 -4.4936056 0
7.7136202 -4.4679708 0.49791232
0 -0 -0
2.5829868 -1.4919817 -0.82297969
3.1178126 -1.8009073 -0.79763097
3.9308205 -2.2705159 -0.75679088
5.4516306 -3.1489644 -0.70172977
6.2521544 -3.611362 -0.4032931
7.7700634 -4.4881349 0
7.7010126 -4.4482498 0.49675122
0 -0 -0
2.5934832 -1.4938684 -0.82574832
3.1199863 -1.7971387 -0.79763097
3.9246633 -2.2606394 -0.75507897
0 -0 -0
6.2452488 -3.5973163 -0.402567
7.7642074 -4.4722495 0
7.7131386 -4.4428334 0.49718678
0 -0 -0
2.5974598 -1.491982 -0.8264398
3.1089401 -1.7857765 -0.79425478
3.9296243 -2.2571778 -0.75550818
5.4547434 -3.1332066 -0.70115376
6.238327 -3.5832975 -0.40184143
7.7605786 -4.4576797 0
7.7094889 -4.4283333 0.4966062
0 -0 -0
2.5796704 -1.4776211 -0.82021105
3.1221175 -1.7883319 -0.79706866
3.932349 -2.2524281 -0.75550818
5.4540319 -3.1240399 -0.7005766
0 -0 -0
7.7591825 -4.4444175 0
7.7080674 -4.4151392 0.49617067
0 -0 -0
2.6141243 -1.4931641 -0.83059144
3.117655 -1.7807763 -0.79537946
3.9350677 -2.2476749 -0.75550818
5.4600554 -3.1187339 -0.70086575
0 -0 -0
7.7690706 -4.4376225 0
7.7111425 -4.4045343 0.49602565
0 -0 -0
2.6137488 -1.4887638 -0.82989997
3.1153929 -1.7744951 -0.79425478
3.9467032 -2.2480006 -0.75722009
5.4660649 -3.1134131 -0.70115376
6.2783694 -3.5760934 -0.40358311
7.7631135 -4.4217882 0
7.7142029 -4.393929 0.49588066
0 -0 -0
2.5697374 -1.4595859 -0.81536525
3.1219494 -1.7732369 -0.79537946
3.9427178 -2.2394254 -0.75593573
5.467576 -3.10553 -0.70086575
6.2533154 -3.5518224 -0.40169644
7.7548776 -4.404695 0
7.7149835 -4.3820357 0.49559009
0 -0 -0
2.6064262 -1.4762622 -0.8264398
3.126307 -1.7707192 -0.79594398
3.945421 -2.2346599 -0.75593573
5.475821 -3.1014681 -0.70144176
6.2553439 -3.5429847 -0.40155143
7.7669897 -4.3991704 0
7.7112288 -4.367588 0.49500954
0 -0 -0
2.6038435 -1.4706466 -0.82505685
3.1284442 -1.7669404 -0.79594398
3.9481182 -2.2298908 -0.75593573
5.4818149 -3.0961201 -0.70172977
6.2596202 -3.5354238 -0.40155143
7.7632356 -4.3846631 0
7.718761 -4.3595438 0.49515453
0 -0 -0
2.5881312 -1.4576503 -0.81951952
3.1327887 -1.7644047 -0.79650629
3.9508097 -2.2251186 -0.75593573
5.4855518 -3.0894942 -0.70172977
6.2548313 -3.5227571 -0.40097088
7.7571921 -4.3688951 0
7.7127047 -4.3438396 0.49442899
0 -0 -0
2.5986402 -1.4594359 -0.82228816
3.1304832 -1.7581271 -0.79537946
3.9534955 -2.2203434 -0.75593573
5.4892807 -3.0828638 -0.70172977
6.2590833 -3.5151968 -0.40097088
7.773809 -4.3658895 0
7.7111573 -4.3307037 0.49399397
0 -0 -0
2.5960197 -1.4538409 -0.82090253
3.1259608 -1.7506223 -0.79369241
3.9628968 -2.2193289 -0.75722009
5.495265 -3.0774963 -0.70201892
6.2565227 -3.5038211 -0.40053532
7.7631817 -4.3475904 0
7.7141109 -4.3201098 0.49384841
0 -0 -0
2.5903265 -1.4485976 -0.81882536
3.1381042 -1.7549331 -0.79650629
3.9552748 -2.2119224 -0.75550818
5.5084085 -3.0804868 -0.7034601
6.2563729 -3.4987736 -0.40039033
7.7658067 -4.3428998 0
7.7121882 -4.3129144 0.49355844
0 -0 -0
2.5920751 -1.4454665 -0.81882536
3.1424396 -1.7523764 -0.79706866
3.9624245 -2.2096398 -0.75636333
5.509861 -3.0725653 -0.70317096
6.26513 -3.4937401 -0.4006803
7.7687778 -4.3322468 0
7.7128506 -4.3010588 0.49326786
0 -0 -0
2.5828588 -1.4362385 -0.81536525
3.1290078 -1.7399331 -0.79312789
3.9561174 -2.1998601 -0.75465143
5.5090528 -3.0633938 -0.70259494
6.2602634 -3.4811161 -0.40009975
7.7740068 -4.3228564 0
7.7112355 -4.2879515 0.49283287
0 -0 -0
2.5714324 -1.4258195 -0.81121361
3.1466651 -1.7447773 -0.79706866
3.9587724 -2.1950784 -0.75465143
5.5195389 -3.060499 -0.7034601
6.2553749 -3.468509 -0.39951921
7.7587423 -4.302103 0
7.7095914 -4.2748494 0.49239731
0 -0 -0
2.6016929 -1.4384912 -0.82021105
3.1443281 -1.7385173 -0.79594398
3.9659193 -2.19278 -0.75550818
5.5051246 -3.0438154 -0.70115376
6.2595615 -3.460948 -0.39951921
7.7662106 -4.293983 0
7.7102075 -4.2630186 0.4921073
0 -0 -0
2.5880482 -1.4268665 -0.81536525
3.1375258 -1.7298096 -0.79369241
3.9663115 -2.1867433 -0.75507897
5.5042639 -3.0346613 -0.7005766
6.2637386 -3.453382 -0.39951921
7.7691164 -4.2833405 0
7.7176266 -4.2549529 0.49225232
0 -0 -0
2.5897703 -1.4237384 -0.81536525
3.1485202 -1.7309136 -0.79594398
3.9712069 -2.1831894 -0.75550818
5.5033979 -3.0255187 -0.70000058
6.2610826 -3.4420593 -0.39908421
7.7742863 -4.2739501 0
7.7113791 -4.2393665 0.49152675
0 -0 -0
2.628885 -1.441108 -0.82713133
3.1394625 -1.7209975 -0.79312789
3.9760907 -2.1796222 -0.75593573
5.5206537 -3.026324 -0.70172977
6.2629604 -3.4332435 -0.39893919
7.7771559 -4.2632985 0
7.7142105 -4.2287931 0.4913812
0 -0 -0
2.6174204 -1.4307131 -0.82297969
3.1593761 -1.7269524 -0.79763097
3.9764712 -2.1735861 -0.75550818
5.5175042 -3.015933 -0.70086575
6.2693825 -3.4269185 -0.39908421
7.7754574 -4.2501569 0
7.7170367 -4.2182236 0.49123618
0 -0 -0
2.6015248 -1.4179443 -0.81744236
3.154774 -1.7194891 -0.79594398
3.9813464 -2.1700072 -0.75593573
5.5279508 -3.012974 -0.70172977
6.2621126 -3.4131241 -0.39835864
7.7782955 -4.2395096 0
7.7175694 -4.2064114 0.4909462
0 -0 -0
2.6142554 -1.4207885 -0.82090253
3.1590796 -1.7168881 -0.79650629
3.9839656 -2.165195 -0.75593573
5.5270467 -3.0038245 -0.70115376
6.2662325 -3.4055552 -0.39835864
7.7719817 -4.2238955 0
7.7135143 -4.1921201 0.49036562
0 -0 -0
2.6402352 -1.4307781 -0.82851696
3.152216 -1.7082273 -0.79425478
3.9865789 -2.1603794 -0.75593573
5.5306721 -2.997144 -0.70115376
6.2589135 -3.3917875 -0.39763254
7.7793746 -4.2157454 0
7.7231388 -4.1852703 0.49065563
0 -0 -0
2.6110578 -1.4108877 -0.81882536
3.1565111 -1.705624 -0.79481709
3.9959638 -2.1592231 -0.75722009
5.5479383 -2.9978342 -0.70288295
6.2652998 -3.3854611 -0.39777809
7.7684331 -4.197681 0
7.7167621 -4.1697602 0.48993006
0 -0 -0
2.6370573 -1.4208225 -0.8264398
3.1652825 -1.7054255 -0.79650629
3.99857 -2.1543932 -0.75722009
5.5447321 -2.9874513 -0.70201892
6.2693858 -3.3778882 -0.39777809
7.766624 -4.1845865 0
7.7195091 -4.1592016 0.48978508
0 -0 -0
2.6277242 -1.4116998 -0.82297969
3.1606236 -1.6979909 -0.79481709
3.9921246 -2.1447005 -0.75550818
5.5483379 -2.9807496 -0.70201892
6.2665935 -3.3666201 -0.39734253
7.7739649 -4.1764297 0
7.7222424 -4.1486425 0.48964009
0 -0 -0
2.6161549 -1.4014136 -0.81882536
3.1671569 -1.6965725 -0.79594398
4.0014954 -2.1435084 -0.75679088
5.554213 -2.9752634 -0.70230693
6.2614946 -3.3541377 -0.39676195
7.77213 -4.1633501 0
7.729538 -4.1405344 0.48978508
0 -0 -0
2.6045732 -1.391162 -0.81467372
3.1647177 -1.690348 -0.79481709
3.999558 -2.1362553 -0.75593573
5.564642 -2.9722023 -0.70317096
6.2701225 -3.3490155 -0.39705196
7.7725592 -4.1515012 0
7.7276573 -4.1275182 0.48934951
0 -0 -0
2.6306119 -1.4009871 -0.82228816
3.1757286 -1.6913004 -0.79706866
3.9998727 -2.1302154 -0.75550818
5.570519 -2.9666955 -0.7034601
6.2741647 -3.3414369 -0.39705196
7.7752752 -4.1408844 0
7.7211738 -4.1120715 0.48862395
0 -0 -0
2.63673 -1.4001584 -0.82367116
3.180012 -1.6886524 -0.79763097
4.0092387 -2.1289892 -0.75679088
5.5649619 -2.9551103 -0.70230693
6.273612 -3.3314183 -0.39676195
7.7687826 -4.1253848 0
7.7284293 -4.1039567 0.48876897
0 -0 -0
2.6162527 -1.3852345 -0.81675088
3.1730678 -1.6800529 -0.79537946
4.0050092 -2.120543 -0.75550818
5.5685287 -2.948384 -0.70230693
6.2707415 -3.3201866 -0.39632642
7.7737617 -4.1159949 0
7.7287941 -4.092186 0.48847896
0 -0 -0
2.613483 -1.3797275 -0.81536525
3.1863368 -1.6821523 -0.79819548
4.0030236 -2.1133029 -0.75465143
5.5743718 -2.9428599 -0.70259494
6.2655568 -3.3077548 -0.39574584
7.7764301 -4.1053848 0
7.7222371 -4.0767751 0.48775285
0 -0 -0
2.6365132 -1.3898495 -0.82228816
3.1671166 -1.6695595 -0.79312789
4.0065684 -2.1120801 -0.75507897
5.576149 -2.9394915 -0.70259494
6.2767487 -3.3088157 -0.39632642
7.7765999 -4.0994687 0
7.7246985 -4.0721087 0.48775285
0 -0 -0
2.6159794 -1.3749883 -0.81536525
3.1871247 -1.6751889 -0.79763097
4.0136666 -2.1096284 -0.75593573
5.5796967 -2.9327517 -0.70259494
6.2669463 -3.2939777 -0.39545584
7.7769446 -4.0876503 0
7.7250175 -4.0603566 0.48746285
0 -0 -0
2.6331959 -1.3799794 -0.82021105
3.1801443 -1.6666188 -0.79537946
4.0139408 -2.1035867 -0.75550818
5.585525 -2.927207 -0.70288295
6.266314 -3.2839882 -0.39516529
7.7818785 -4.0782504 0
7.7276187 -4.0498142 0.48731783
0 -0 -0
2.6170733 -1.3675019 -0.81467372
3.1911638 -1.6674819 -0.79763097
4.01648 -2.0987351 -0.75550818
5.6005177 -2.9264438 -0.70432413
6.265676 -3.2740097 -0.39487529
7.7706518 -4.0604062 0
7.7278962 -4.038065 0.48702729
0 -0 -0
2.6276233 -1.3689753 -0.81744236
3.1864226 -1.6601062 -0.79594398
4.0190129 -2.0938804 -0.75550818
5.6040497 -2.9196746 -0.70432413
6.2742319 -3.2688355 -0.39516529
7.7732468 -4.0498128 0
7.725863 -4.025126 0.48659229
0 -0 -0
2.6404049 -1.3715806 -0.82090253
3.1839123 -1.6539099 -0.79481709
4.0215402 -2.0890226 -0.75550818
5.6075735 -2.9129012 -0.70432413
6.2735696 -3.2588584 -0.39487529
7.7850652 -4.0440178 0
7.7261047 -4.0133901 0.48630172
0 -0 -0
2.6286983 -1.3614687 -0.81675088
3.2062123 -1.6605775 -0.79988253
4.0263386 -2.0853415 -0.75593573
5.6133924 -2.9073162 -0.70461327
6.275198 -3.250082 -0.3947303
7.7807021 -4.0298204 0
7.7286434 -4.0028577 0.48615673
0 -0 -0
2.641485 -1.3640457 -0.82021105
3.1698384 -1.6368841 -0.79031402
4.0197315 -2.0757635 -0.75422388
5.6191969 -2.9017172 -0.70490128
6.2606502 -3.2329593 -0.39356917
7.7809367 -4.0180254 0
7.7288523 -3.9911294 0.48586616
0 -0 -0
2.6163652 -1.3470722 -0.81190509
3.1989229 -1.6470101 -0.79706866
4.0290861 -2.0744314 -0.75550818
5.615798 -2.8913722 -0.70403612
6.2761006 -3.2313383 -0.39429474
7.7881064 -4.0098157 0
7.7313609 -3.9805994 0.48572117
0 -0 -0
2.6537011 -1.3622411 -0.82297969
3.1941268 -1.6396614 -0.79537946
4.0338712 -2.0707326 -0.75593573
5.6284919 -2.8893092 -0.70518929
6.275373 -3.2213769 -0.39400417
7.7836847 -3.9956481 0
7.729228 -3.9676936 0.48528561
0 -0 -0
2.6464121 -1.3544617 -0.82021105
3.1938462 -1.6346442 -0.79481709
4.0409365 -2.0681939 -0.75679088
5.6388884 -2.8860426 -0.70605445
6.2700171 -3.2090609 -0.39342418
7.788507 -3.9862401 0
7.7363362 -3.9595387 0.48543116
0 -0 -0
2.6547527 -1.3546849 -0.82228816
3.2071331 -1.6365573 -0.79763097
4.0365791 -2.0598125 -0.75550818
5.6538887 -2.8851039 -0.70749563
6.2831392 -3.2062023 -0.39400417
7.7886772 -3.9744582 0
7.7364817 -3.9478235 0.48514062
0 -0 -0
2.6452012 -1.3457849 -0.81882536
3.2068458 -1.6315298 -0.79706866
4.0321989 -2.0514405 -0.75422388
5.6573706 -2.8782704 -0.70749563
6.2754312 -3.1927178 -0.39327863
7.7841954 -3.9603238 0
7.7389321 -3.9372954 0.4849956
0 -0 -0
2.6618826 -1.346184 -0.82297969
3.2107792 -1.6237754 -0.79706866
4.0417218 -2.0440049 -0.75507897
5.673542 -2.8692594 -0.7086488
6.2784953 -3.1752002 -0.39298862
7.7867742 -3.9379764 0
7.7368331 -3.9127197 0.48427007
0 -0 -0
2.6455863 -1.3339307 -0.81744236
3.2104721 -1.6187518 -0.79650629
4.0487776 -2.0414336 -0.75593573
5.6816196 -2.8647287 -0.70922482
6.2823272 -3.1676114 -0.39298862
7.7892051 -3.9273939 0
7.7322741 -3.898689 0.48368949
0 -0 -0
2.6673672 -1.340873 -0.82367116
3.2260425 -1.6217165 -0.79988253
4.0512414 -2.03654 -0.75593573
5.6827679 -2.8567009 -0.70893681
6.2722163 -3.1530135 -0.3921175
7.782321 -3.9121361 0
7.720726 -3.8811727 0.48267338
0 -0 -0
2.6555328 -1.3309067 -0.81951952
3.2052884 -1.6064347 -0.79425478
4.0582848 -2.0339415 -0.75679088
5.6885257 -2.8509901 -0.70922482
6.2737007 -3.1442695 -0.39197251
7.7893667 -3.9038949 0
7.7277308 -3.873004 0.48281839
0 -0 -0
2.6504042 -1.3243319 -0.81744236
3.2140481 -1.6059688 -0.79594398
4.0538568 -2.0255973 -0.75550818
5.6827116 -2.8394899 -0.70807165
6.272851 -3.1343658 -0.39168251
7.7871003 -3.8909936 0
7.734736 -3.8648283 0.48296395
0 -0 -0
2.6452637 -1.3177714 -0.81536525
3.209161 -1.5986841 -0.79425478
4.0700836 -2.0275633 -0.75807518
5.6815128 -2.830317 -0.70749563
6.2743011 -3.125622 -0.39153695
7.7871327 -3.8792584 0
7.7347441 -3.8531601 0.48267338
0 -0 -0
2.6535969 -1.3179231 -0.81744236
3.208817 -1.5936761 -0.79369241
4.0518403 -2.0123682 -0.75422388
5.6849284 -2.8234501 -0.70749563
6.2780728 -3.1180387 -0.39153695
7.7941432 -3.8710029 0
7.7300854 -3.8391881 0.48209283
0 -0 -0
2.6529412 -1.3136036 -0.81675088
3.2152901 -1.5920506 -0.79481709
4.070375 -2.0154457 -0.75722009
5.6767488 -2.8108416 -0.70605445
6.2771831 -3.1081467 -0.39124694
7.7941546 -3.8592749 0
7.7300658 -3.8275414 0.48180282
0 -0 -0
2.6627302 -1.3164481 -0.81951952
3.2276378 -1.5957371 -0.79763097
4.0715919 -2.0129862 -0.75722009
5.6877198 -2.8119965 -0.70720762
6.2860503 -3.1078095 -0.39168251
7.7871532 -3.8499517 0
7.7323766 -3.8228705 0.48180282
0 -0 -0
2.6508129 -1.3065727 -0.81536525
3.2204471 -1.5873426 -0.79537946
4.0648108 -2.0035253 -0.75550818
5.6771894 -2.7982588 -0.7054773
6.2781496 -3.0944691 -0.39095694
7.7871261 -3.8382363 0
7.7299957 -3.810077 0.48136726
0 -0 -0
2.6501403 -1.3022634 -0.81467372
3.2200847 -1.5823306 -0.79481709
4.0695305 -1.9997433 -0.75593573
5.6805663 -2.7913969 -0.7054773
6.2748852 -3.0834417 -0.39052138
7.7917585 -3.8288243 0
7.732264 -3.7995892 0.48122227
0 -0 -0
2.6809978 -1.3134073 -0.82367116
3.2288418 -1.5817932 -0.79650629
4.07655 -1.9970812 -0.75679088
5.6885848 -2.786809 -0.70605445
6.2669415 -3.070143 -0.38979584
7.794044 -3.8182628 0
7.7345185 -3.7891014 0.48107725
0 -0 -0
2.6555316 -1.2969551 -0.81536525
3.2330315 -1.5790046 -0.79706866
4.0674291 -1.9865222 -0.75465143
5.6826515 -2.775393 -0.70490128
6.2799859 -3.0671296 -0.39037639
7.7916346 -3.8054152 0
7.7320843 -3.7763309 0.48064172
0 -0 -0
2.6503365 -1.2904539 -0.81329077
3.2257991 -1.5706477 -0.79481709
4.0698261 -1.9816061 -0.75465143
5.6860013 -2.7685246 -0.70490128
6.2836871 -3.0595393 -0.39037639
7.7915516 -3.7937212 0
7.7319646 -3.7647083 0.48035115
0 -0 -0
2.6699407 -1.2960106 -0.81882536
3.2322707 -1.5689701 -0.79594398
4.0722175 -1.9766871 -0.75465143
5.6939912 -2.7639091 -0.7054773
6.2873797 -3.0519445 -0.39037639
7.789104 -3.7808933 0
7.7435231 -3.7587681 0.48078671
0 -0 -0
2.6760256 -1.2949712 -0.82021105
3.2341642 -1.5650634 -0.79594398
4.0861545 -1.977355 -0.75679088
5.7066398 -2.7615335 -0.70663047
6.2887168 -3.04321 -0.39023083
7.7936668 -3.7714791 0
7.7457223 -3.7482779 0.48064172
0 -0 -0
2.6662927 -1.2862875 -0.81675088
3.2474933 -1.5666735 -0.79875785
4.0908594 -1.9735349 -0.75722009
5.7099724 -2.7546363 -0.70663047
6.2900515 -3.034481 -0.39008582
7.791193 -3.7586701 0
7.7385464 -3.7332721 0.47991616
0 -0 -0
2.7085364 -1.302635 -0.82920849
3.2425122 -1.5594436 -0.79706866
4.0909209 -1.9674747 -0.75679088
5.7063107 -2.744375 -0.70576644
6.2937136 -3.0268786 -0.39008582
7.7933764 -3.748122 0
7.7430515 -3.7239187 0.47991616
0 -0 -0
2.6807022 -1.2852623 -0.82021105
3.242105 -1.554427 -0.79650629
4.0863576 -1.9592038 -0.75550818
5.7236114 -2.744185 -0.70749563
6.2809625 -3.0114069 -0.38906971
7.7978997 -3.7387023 0
7.738173 -3.7100666 0.47933561
2.3426633 -1.1197103 -0.85614729
2.6664064 -1.2744482 -0.81536525
3.2439809 -1.5505084 -0.79650629
4.0910358 -1.9553709 -0.75593573
5.731586 -2.7394958 -0.70807165
6.28929 -3.0060587 -0.38936028
7.8071122 -3.7315242 0
7.737957 -3.6984704 0.47904503
0 -0 -0
2.6588852 -1.2669089 -0.81259662
3.2527356 -1.5498675 -0.79819548
4.0910807 -1.9493231 -0.75550818
5.718554 -2.7247837 -0.70605445
6.316371 -3.0096321 -0.39081138
7.795167 -3.7142508 0
7.7377334 -3.6868846 0.47875503
0 -0 -0
2.6694784 -1.2680008 -0.81536525
3.2385378 -1.5383037 -0.79425478
4.1073413 -1.9509847 -0.75807518
5.7311873 -2.7223108 -0.70720762
6.2941914 -2.9897373 -0.38921526
7.7996492 -3.7048292 0
7.7351389 -3.6741867 0.47831947
0 -0 -0
2.7050221 -1.2808803 -0.82574832
3.2564716 -1.5420024 -0.79819548
4.1096954 -1.9460204 -0.75807518
5.7368078 -2.7164896 -0.70749563
6.2930975 -2.9799037 -0.38892472
7.7970614 -3.6920598 0
7.7372265 -3.6637266 0.47817448
2.325701 -1.0978261 -0.84799922
2.7065678 -1.2776109 -0.82574832
3.2422459 -1.530473 -0.79425478
4.1074057 -1.9388638 -0.75722009
5.7400861 -2.7095559 -0.70749563
6.2825994 -2.9656444 -0.38805416
7.7968144 -3.6804161 0
7.7439952 -3.6554832 0.47831947
0 -0 -0
2.6717894 -1.2572488 -0.81467372
3.2532892 -1.5308816 -0.79650629
