# .PCD v0.7 - Point Cloud Data file format
VERSION 0.7
FIELDS x y z
SIZE 4 4 4
TYPE F F F
COUNT 1 1 1
WIDTH 1650
HEIGHT 1
VIEWPOINT 0 0 0 1 0 0 0
POINTS 1650
DATA ascii
-3.0590477 15.18697 -0.86532348
-5.1420145 25.528082 0
-4.8567977 24.112091 1.3738593
-3.0784271 15.188351 -0.86561352
-5.1733747 25.524408 0
-4.8895402 24.124025 1.3748748
-3.0962584 15.182076 -0.8654685
-2.496434 12.24092 0
-4.9181671 24.115555 1.3747299
-3.1093783 15.152875 -0.86401737
-2.5138381 12.250639 0
-4.9504375 24.124872 1.3756009
-2.5244291 12.227202 0
-4.9790573 24.116322 1.3754554
-2.5731552 12.387603 -0.70669401
-2.5407896 12.231791 0
-5.0108352 24.123005 1.376181
-2.5934377 12.409925 -0.70814568
-2.5539699 12.221066 0
-5.0415745 24.124567 1.3766166
-2.6025496 12.378808 -0.70654899
-2.5671301 12.210339 0
-5.0733933 24.131168 1.3773421
-2.6110528 12.345148 -0.70480734
-4.3077703 20.367289 0
-5.1030869 24.127571 1.3774877
-2.6205609 12.316573 -0.70335621
-4.3296676 20.349333 0
-5.1322365 24.121387 1.3774877
-2.6359844 12.315936 -0.70350122
-4.3537083 20.341543 0
-5.1630087 24.122784 1.3779227
-2.6459424 12.289883 -0.70219511
-2.65624 12.337712 0
-5.191606 24.113989 1.3777777
-2.6854661 12.40062 0
-5.2218404 24.112783 1.3780682
-2.6976769 12.384645 0
-5.253737 24.119148 1.3787937
-2.7126393 12.381376 0
-5.2839875 24.117853 1.3790838
-2.5068154 11.376159 -0.65067321
-4.4569225 20.225924 0
-2.5375423 11.515601 0.65864879
-2.5239317 11.388338 -0.6515438
-4.4785433 20.207823 0
-2.5542655 11.525208 0.65937436
-2.5514455 11.382205 -0.6515438
-4.5137024 20.135992 0
-2.5752895 11.488576 0.65763265
-2.5634842 11.371517 -0.6511088
-4.5242939 20.069593 0
-2.5737424 11.417023 0.6537143
-4.5214992 19.944828 0
-2.5771961 11.368295 0.65110207
-4.5236149 19.842934 0
-2.5851538 11.339832 0.64965039
-2.6337154 11.488772 -0.65836495
-4.5196776 19.715702 0
-2.5976939 11.33164 0.64936042
-2.6516817 11.503309 -0.65938103
-4.5154366 19.588499 0
-2.6078832 11.313306 0.64848989
-2.6644068 11.495039 -0.65909106
-4.5226502 19.512051 0
-9.8344746 42.428825 2.4327416
-2.6735761 11.471566 -0.6579299
-2.6749494 11.477458 0
-9.879837 42.391613 2.4312906
-2.6775501 11.457299 -0.65720439
-2.684252 11.485977 0
-2.6284451 11.247177 0.6451515
-0 0 0
-2.6461945 11.261703 0.64616764
-2.712599 11.481987 0
-2.6633835 11.273665 0.64703816
-2.7378962 11.526803 0
-0 0 0
-2.758472 11.551333 0
-0 0 0
-2.7699974 11.537869 0
-2.710299 11.289208 0.64848989
-2.7827141 11.529449 0
-2.7239377 11.285925 0.64848989
-4.2398872 17.47426 0
-2.735734 11.275047 0.6480543
-4.241271 17.388248 -0.99971569
-4.2616143 17.471651 0
-2.7444298 11.251538 0.6468932
-4.2400017 17.292257 -0.99449068
-4.2821035 17.463964 0
-2.7697785 11.296157 0.64965039
-4.23913 17.198826 -0.98941118
-4.3032022 17.458776 0
-2.7915092 11.325598 0.65153712
-4.2405381 17.115511 -0.98491228
-4.3224163 17.445984 0
-2.8089423 11.337354 0.65240818
-4.2430058 17.037254 -0.98070341
-4.3472652 17.455894 0
-2.8207548 11.326385 0.65197265
-4.2370887 16.926252 -0.97460783
-4.3670917 17.445585 0
-2.8369625 11.333051 0.6525532
-4.2378817 16.843 -0.97010833
-4.3843589 17.425158 0
-2.8576293 11.357336 0.65414989
-4.233386 16.739628 -0.96444833
-4.3888197 17.354242 0
-2.8681655 11.341282 0.65342432
-4.2382488 16.67407 -0.96096551
-4.4020944 17.318668 0
-2.8812251 11.335282 0.65327877
-4.2390971 16.593403 -0.9566111
-4.4210844 17.305771 0
-2.886559 11.299067 0.6513921
-4.2397585 16.51277 -0.95225716
-4.4361677 17.277731 0
-2.8801789 11.217556 0.6468932
-2.2724605 8.8064594 -0.50800824
-4.4511895 17.249681 0
-2.8839917 11.176325 0.64471596
-2.2876663 8.8213167 -0.50902438
-4.4583101 17.191391 0
-2.8981481 11.175355 0.64486152
-2.3107753 8.8663235 -0.51178217
-4.4593902 17.110445 0
-2.9129586 11.176868 0.6451515
-2.3392608 8.931386 -0.51570052
-4.4563236 17.014412 0
-2.9271193 11.175852 0.64529651
-2.3460813 8.9134712 -0.5148294
-2.3134871 8.7896357 0
-2.165499 8.2273846 0.47520196
-2.3462214 8.8704462 -0.51250768
-2.3227737 8.7817974 0
-2.1780963 8.2348099 0.47578254
-4.2001739 15.841034 -0.91539371
-2.3407524 8.8281908 0
-2.1804073 8.2234459 0.47520196
-4.2092786 15.798291 -0.91321701
-2.3681655 8.8882132 0
-2.1849902 8.2007189 0.47404087
-4.2075315 15.71538 -0.90871757
-2.3775585 8.8803225 0
-2.1895213 8.1779919 0.47287974
-4.206944 15.637528 -0.90450919
-2.3781445 8.8397436 0
-5.5562787 20.653109 1.1946214
-4.2075267 15.564705 -0.9005903
-4.5307322 16.760323 0
-5.5805502 20.643864 1.1944759
-4.2038546 15.476861 -0.89580083
-4.5803146 16.862831 0
-5.606173 20.639622 1.1946214
-2.3389201 8.5699911 -0.99015731
-4.2061353 15.411617 -0.89231807
-4.6013713 16.859793 0
-5.6352115 20.647867 1.1954919
-2.341749 8.5397177 -0.98698586
-4.2116971 15.358909 -0.88956028
-4.6272454 16.8743 0
-5.6594696 20.63854 1.195347
-2.3520658 8.5368824 -0.98698586
-4.2129979 15.291183 -0.88593191
-4.6455569 16.861168 0
-5.6878538 20.644209 1.1960725
-2.374109 8.5764084 -0.99188656
-2.3764868 8.5849981 -0.49755874
-4.6645398 16.850531 0
-5.7127938 20.637321 1.1960725
-2.3819866 8.5646038 -0.4965432
-2.4026206 8.6387939 0
-5.7412066 20.64292 1.1967981
-2.3888378 8.5492086 -0.49581763
-2.4074569 8.6158428 0
-5.7689424 20.645977 1.1973786
-2.4047818 8.5663204 -0.49697819
-2.4178658 8.6129274 0
-5.7931833 20.636492 1.1972337
-2.4257114 8.6009235 -0.49915543
-2.4289768 8.6125021 0
-5.8195233 20.634474 1.1975236
-2.4438946 8.6254892 -0.50075209
-2.4266129 8.5644941 0
-2.399946 8.470377 0.49174705
-2.4756546 8.6975012 -0.50510603
-2.4326832 8.5465326 0
-2.4165807 8.4899607 0.49305317
-2.5090196 8.7744398 -0.50974989
-2.4401462 8.5335789 0
-2.4261236 8.484539 0.49290815
-2.5138807 8.7514219 -0.50858879
-2.4454253 8.5131121 0
-2.4370904 8.4840965 0.49305317
-2.5143688 8.7134304 -0.50655711
-2.4629269 8.5351601 0
-2.4502218 8.4911318 0.49363372
-2.3357108 8.0577364 -0.9350965
-4.1850972 14.437751 -0.83963507
-2.4710636 8.5246773 0
-2.4648218 8.5031433 0.49450484
-2.3345981 8.0176554 -0.93077189
-4.196002 14.410233 -0.83832896
-2.478452 8.5116901 0
-6.0090971 20.636904 1.2005714
-0 0 -0
-4.1973639 14.350289 -0.83513618
-2.4755855 8.4637327 0
-6.0362177 20.637112 1.201007
-0 0 -0
-4.1971211 14.285374 -0.83165282
-2.4704051 8.4083014 0
-6.0611491 20.629803 1.201007
-0 0 -0
-2.3533978 7.9744153 -0.9267363
-4.1923156 14.205531 -0.82729888
-2.4739339 8.3828478 0
-6.0890136 20.632433 1.2015876
-2.3593569 7.9591689 -0.92529511
-4.1932316 14.145652 -0.8241061
-2.4811027 8.3698721 0
-2.4024234 8.1044521 0.4721542
-2.3634291 7.955265 -0.9250071
-4.1840167 14.083335 -0.82062274
-0 0 0
-2.40066 8.0805836 0.47084808
-2.3708203 7.9449658 -0.92414194
-4.182456 14.016023 -0.81699443
-2.4836183 8.3229685 0
-2.4029934 8.052783 0.46939695
-2.3893294 7.9718261 -0.92760146
-4.1792483 13.943762 -0.81307608
-2.4959154 8.3274431 0
-2.3709445 7.9104862 0.46126914
-0 0 -0
-2.3922505 7.9466457 -0.9250071
-4.1818614 13.891424 -0.81031829
-2.5127268 8.3468466 0
-2.335562 7.7583361 0.45256132
-0 0 -0
-2.39661 7.9264164 -0.92298877
-4.1790919 13.821698 -0.80654496
-2.5318491 8.3736982 0
-2.3336565 7.7182069 0.45038465
-2.4353752 7.98492 -0.93048382
-2.6320398 8.6297293 -0.50394487
-2.5422053 8.335187 0
-2.3523016 7.7125449 0.45038465
-2.4783504 8.0907764 -0.94316763
-2.6515977 8.6563559 -0.50568658
-2.5400822 8.292305 0
-2.3669441 7.7270813 0.45140022
-2.52615 8.2113781 -0.9575817
-2.6597624 8.6456928 -0.50525099
-2.5393851 8.2544003 0
-2.3885038 7.7639527 0.45372245
-2.5452321 8.2379751 -0.96104115
-2.6525643 8.5853691 -0.50191265
-2.5401411 8.2214975 0
-0 0 0
-0 0 -0
-2.5567186 8.2398386 -0.9616183
-2.575155 8.2992554 -0.4853676
-2.5531583 8.2283649 0
-0 0 0
-2.5705197 8.2490883 -0.96305948
-2.5619912 8.2217188 -0.48101369
-2.577034 8.2699928 0
-2.4375017 7.8222179 0.4576408
-2.5703731 8.2136621 -0.48072368
-2.6468694 8.4581079 0
-2.4516094 7.8341508 0.45851192
-2.5787363 8.2055874 -0.48043314
-2.6656711 8.4822159 0
-2.46263 7.8361359 0.45880193
-2.587868 8.1999903 -0.48028812
-2.6046445 8.253149 0
-2.4728811 7.83564 0.45894748
-2.5969899 8.1943827 -0.48014313
-2.5753038 8.1259556 0
-2.4713552 7.7979631 0.45691523
-2.6029499 8.1788607 -0.47941756
-2.5724926 8.0831594 0
-2.4563494 7.7182198 0.45241633
-4.1757874 13.066298 -0.7661981
-2.5735452 8.052783 0
-0 0 0
-4.1741056 13.006817 -0.76300532
-2.5848625 8.0546188 0
-2.4559381 7.6528811 0.44893298
-4.176271 12.959722 -0.7605381
-2.6384935 8.1877213 0
-2.4588072 7.6301227 0.44777188
-0 0 -0
-4.1751285 12.902751 -0.75749028
-2.6419752 8.1647186 0
-2.4672258 7.6246762 0.44762686
-4.1754589 12.85074 -0.75473249
-2.6494284 8.1541014 0
-2.4780445 7.6266365 0.44791743
-4.1740623 12.793821 -0.75168526
-2.6584694 8.1484137 0
-2.4880631 7.6261048 0.44806242
-4.1765752 12.749259 -0.74936306
-2.6723666 8.157568 0
-2.5029392 7.6403804 0.44907853
-4.1741161 12.689904 -0.74617028
-2.6846588 8.1617422 0
-2.7078314 8.2321911 0.48405534
-4.1755939 12.642909 -0.74370301
-2.7034972 8.1856785 0
-2.7259238 8.253582 0.48550645
-4.1753268 12.590991 -0.74094522
-4.3712716 13.181876 0
-2.7309859 8.2354794 0.48463535
-4.1749434 12.539102 -0.73818803
-4.3765092 13.144487 0
-2.7286243 8.1952 0.48245868
-4.172792 12.482298 -0.7351402
-4.3742342 13.084884 0
-2.7401707 8.1968212 0.48274866
-4.1663027 12.437891 -0.73267299
-4.3623033 13.023023 0
-2.7484236 8.205019 0.48332924
-4.1639347 12.381129 -0.72962523
-4.3639336 12.97581 0
-2.7558532 8.1943111 0.48289424
-4.1630969 12.32931 -0.72686744
-4.3654561 12.928612 0
-2.6269345 7.7798553 0.45865691
-4.1613064 12.275053 -0.72396463
-4.370213 12.891289 0
-2.5971255 7.6610212 0.45183578
-4.1627426 12.230667 -0.72164297
-4.373208 12.849041 0
-2.6005192 7.640656 0.45081967
-4.1565137 12.16416 -0.7180146
-4.3761101 12.806814 0
-2.6072311 7.6301384 0.45038465
-4.1602483 12.127179 -0.71612793
-4.3772259 12.759671 0
-2.6164489 7.6269827 0.45038465
-4.1579762 12.073007 -0.71322513
-4.1511259 12.053117 0
-2.626508 7.6262698 0.45052966
-4.1623716 12.038504 -0.71148348
-4.1537824 12.013661 0
-2.6348727 7.6206374 0.45038465
-4.1581707 11.979465 -0.7082907
-4.1580548 11.979131 0
-2.6466324 7.6248055 0.45081967
-4.1589622 11.935172 -0.70596844
-4.1553988 11.924947 0
-2.653281 7.6142478 0.45038465
-4.165659 11.908067 -0.70466232
-4.156055 11.880612 0
-2.6590474 7.6012254 0.4498041
-4.1688528 11.871155 -0.70277566
-4.1514382 11.821566 0
-2.6656463 7.5906496 0.44936854
-4.1685081 11.82445 -0.70030844
-4.1553364 11.787087 0
-2.6808646 7.6045799 0.45038465
-4.1706543 11.785107 -0.69827616
-4.1513433 11.730539 0
-7.3120532 20.661823 1.2242281
-4.1683669 11.733543 -0.69551897
-4.1550632 11.696095 0
-3.0254071 8.5162239 0.50480878
-4.1650853 11.679548 -0.69261616
-4.1552062 11.651846 0
-3.0252249 8.483202 0.50306761
-4.1616831 11.625588 -0.68971395
-4.1587567 11.617414 0
-7.4000363 20.671871 1.2264049
-4.1607862 11.578973 -0.68724614
-4.16223 11.58299 0
-7.4232531 20.65803 1.2261149
-4.158906 11.529944 -0.68463391
-4.1762228 11.577952 0
-7.4455628 20.641708 1.2256793
-4.1560292 11.478497 -0.68187666
-4.1964121 11.59003 0
-7.4740372 20.642471 1.2262598
-4.147707 11.412415 -0.67824835
-4.2130809 11.592291 0
-2.8421113 7.8200679 0.4647525
-4.1525869 11.382979 -0.67679667
-4.2252994 11.582297 0
-2.8453238 7.7995381 0.46373639
-4.153831 11.343798 -0.67476499
-4.2455564 11.594293 0
-2.8565345 7.8009791 0.46402693
-4.1540909 11.302194 -0.67258829
-4.2577653 11.584264 0
-2.8596826 7.780447 0.46301082
-4.147449 11.263103 -0.67041111
-4.2629662 11.57681 0
-2.860791 7.7689643 0.46243027
-4.1430387 11.209338 -0.6675083
-4.2769513 11.571651 0
-2.8674762 7.7581973 0.46199527
-4.1475439 11.179966 -0.66605717
-4.2873096 11.556714 0
-2.8732333 7.7449818 0.46141469
-4.1474476 11.138417 -0.66387993
-4.2885547 11.517376 0
-2.8807743 7.7366295 0.46112415
-4.1463523 11.094463 -0.66155827
-4.292449 11.485376 0
-7.726584 20.674149 1.2327909
-4.1387639 11.033485 -0.65821993
-4.2926121 11.443628 0
-7.7479086 20.655066 1.2322104
-4.1401911 10.996865 -0.65633327
-4.3027687 11.428691 0
-2.9957745 7.9571514 0.47491199
-4.1378622 10.950535 -0.65386599
-4.3138175 11.416187 0
-3.0081398 7.9608111 0.47534698
-4.1427989 10.923663 -0.65255988
-4.3294525 11.415829 0
-7.8448448 20.685156 1.2356938
-4.1467533 10.894369 -0.6511088
-4.3432431 11.410588 0
-7.8716798 20.680513 1.2359837
-4.1469302 10.855363 -0.64907658
-4.3579555 11.407762 0
-7.8948097 20.666138 1.2356938
-4.1442308 10.809101 -0.64660931
-4.3838472 11.434075 0
-7.919775 20.656582 1.2356938
-4.1423578 10.765284 -0.64428711
-4.3957925 11.423917 0
-7.9503255 20.661545 1.2365644
-4.1450686 10.733614 -0.64269096
-4.4170933 11.438019 0
-7.9846444 20.676157 1.2380154
-4.1430106 10.689832 -0.64036876
-4.4534817 11.490912 0
-8.0096216 20.666494 1.2380154
-4.1376519 10.599912 -0.63557929
-4.5134115 11.562539 0
-8.0652122 20.661606 1.2388866
-4.1409807 10.570715 -0.63412815
-4.5140877 11.523149 0
-8.0968037 20.668776 1.2399021
-4.1423421 10.536685 -0.63238651
-4.5203905 11.498309 0
-8.1227255 20.661402 1.2400477
-4.1474414 10.512335 -0.63122535
-4.545742 11.52189 0
-8.1524515 20.663654 1.2407732
-4.1410093 10.458996 -0.6283226
-4.5721145 11.547843 0
-8.1821957 20.665867 1.2414988
-4.135417 10.408111 -0.62556535
-4.5841441 11.537477 0
-8.20716 20.655966 1.2414988
-4.1345186 10.369319 -0.62353367
-4.5951891 11.524675 0
-8.2407732 20.667753 1.2428049
-4.1402864 10.347426 -0.62251759
-4.3384194 10.8426 0
-8.2638121 20.652962 1.242515
-4.1440735 10.320716 -0.62121147
-4.3437595 10.818029 0
-8.2916622 20.650188 1.24295
-4.1439171 10.284371 -0.6193248
-4.3461275 10.786218 0
-8.3214664 20.652212 1.2436761
-4.1388102 10.236 -0.61671257
-4.3503785 10.759246 0
-8.3551807 20.66382 1.2449821
-4.1365199 10.194872 -0.61453533
-4.3506565 10.722633 0
-8.4006577 20.704271 1.2480299
-4.1240916 10.146641 -0.61177808
-4.3453746 10.691072 0
-8.4004459 20.6679 1.2461432
-4.1255531 10.115182 -0.61018139
-4.3425679 10.647266 0
-8.43326 20.676975 1.2473038
-4.1279321 10.086146 -0.60873032
-4.3455701 10.617921 0
-8.4582376 20.666769 1.2473038
-4.1174116 10.025865 -0.60539192
-4.3465328 10.583774 0
-8.4871521 20.666149 1.2478844
-4.1245737 10.008872 -0.60466641
-4.3424621 10.537611 0
-8.5131092 20.658287 1.2480299
-4.1227651 9.9702682 -0.60263473
-4.3114386 10.426545 0
-8.5460081 20.667196 1.249191
-4.1318207 9.9580774 -0.60219914
-4.2981033 10.358834 0
-8.571969 20.659252 1.249336
-4.1288681 9.9170923 -0.6000219
-4.2966108 10.319992 0
-8.5959282 20.646484 1.249191
-4.1298327 9.8857288 -0.59842581
-4.2980452 10.288385 0
-8.6308832 20.660053 1.2506422
-4.1236916 9.8375912 -0.59581304
-4.2953815 10.247179 0
-8.6618662 20.663984 1.2515128
-4.1265097 9.8110466 -0.59450692
-4.3017077 10.227592 0
-8.6807852 20.639135 1.2506422
-4.1232095 9.7701502 -0.59233022
-4.3029313 10.196011 0
-8.7188501 20.659752 1.2525288
-4.1198125 9.7292671 -0.59015298
-4.3081474 10.174035 0
-8.7407665 20.642021 1.2520933
-4.1264858 9.712327 -0.58942741
-4.3000836 10.120916 0
-8.7707815 20.6434 1.2528188
-4.1168208 9.6571398 -0.58637965
-4.2918983 10.067833 0
-8.8110046 20.668644 1.2549961
-4.1203113 9.6330452 -0.58521855
-4.2979212 10.048287 0
-8.8410807 20.669926 1.2557217
-4.1196508 9.5994053 -0.58347684
-4.3038993 10.028732 0
-8.8629742 20.652061 1.2552861
-4.1189194 9.5657911 -0.58173573
-4.3005786 9.9876766 0
-8.896143 20.660431 1.2564472
-4.1211967 9.5393314 -0.58042908
-4.3085151 9.9729166 0
-8.9159489 20.637741 1.2557217
-4.1244569 9.5152817 -0.57926852
-4.3060737 9.9342785 0
-8.9522476 20.653181 1.2573183
-4.1152253 9.4626331 -0.57636571
-4.3035417 9.8956518 0
-8.976161 20.639969 1.2571733
-4.1183429 9.4386015 -0.57520461
-4.3040495 9.864212 0
-9.0146017 20.660067 1.25906
-4.1234903 9.4193316 -0.57433349
-4.3023987 9.8280144 0
-9.0614414 20.699144 1.2621077
-4.1202416 9.3810396 -0.57230181
-4.3069439 9.8061266 0
-9.0906248 20.697697 1.2626883
-4.1190004 9.3475199 -0.57056016
-9.1018314 20.655388 0
-9.1051474 20.662914 1.2612367
-4.12045 9.3355207 -0.56997961
-9.1206121 20.664167 0
-9.1218262 20.666918 1.2618172
-4.1233106 9.3115282 -0.56881845
-9.1466312 20.655518 0
-9.1457405 20.653507 1.2616723
-4.1092434 9.2495565 -0.56533569
-9.1726379 20.646826 0
-9.1706896 20.642441 1.2616723
-4.1151285 9.2327204 -0.56461012
-9.2028751 20.647612 0
-9.2114897 20.666939 1.2638489
-4.1146126 9.2016459 -0.56301343
-9.2267561 20.634104 0
-9.2417622 20.667662 1.264575
-4.1129651 9.1682177 -0.56127179
-9.2559423 20.632437 0
-9.2720451 20.668331 1.2653005
-4.1144433 9.1419172 -0.55996567
-9.2872725 20.635473 0
-9.3034077 20.671326 1.2661711
-4.109446 9.1014137 -0.55778843
-4.105432 9.0925236 0
-9.3305197 20.66481 1.2664617
-4.1150804 9.084609 -0.55706286
-4.1174884 9.0899248 0
-9.3608418 20.665352 1.2671872
-4.1131539 9.0512428 -0.55532122
-4.1080146 9.0399323 0
-9.386879 20.656391 1.2673322
-4.1208572 9.0391798 -0.55488622
-4.115695 9.0278559 0
-9.4172192 20.656853 1.2680578
-4.1198874 9.0081978 -0.55328953
-4.1190262 9.0063162 0
-9.4454155 20.65255 1.2684933
-4.1177659 8.9748726 -0.55154783
-4.1212234 8.9824085 0
-9.4811974 20.664734 1.2699444
-4.1177449 8.946291 -0.55009675
-4.1146641 8.9395971 0
-9.5105057 20.662704 1.270525
-4.1100349 8.901206 -0.54762948
-4.1167345 8.9157162 0
-9.5376453 20.655922 1.2708156
-4.1153274 8.8844471 -0.54690397
-4.1110959 8.8753119 0
-9.5713348 20.663244 1.2719767
-4.1140137 8.8535442 -0.54530728
-4.1141434 8.8538237 0
-9.5984831 20.656372 1.2722667
-4.1126356 8.8226671 -0.54371113
-4.1127424 8.822897 0
-9.6344118 20.668306 1.2737178
-4.1100845 8.7894459 -0.54196948
-4.1189904 8.8084908 0
-9.6648846 20.668427 1.274444
-4.1107712 8.7633028 -0.54066336
-4.1285267 8.8011532 0
-9.6887445 20.654373 1.2742984
-4.1091862 8.7324648 -0.53906667
-4.1092429 8.732585 0
-9.7214403 20.659111 1.2753145
-4.1108608 8.7086945 -0.53790557
-4.1131239 8.7134886 0
-9.7508326 20.65675 1.275895
-4.1158214 8.6919813 -0.53718001
-4.1169686 8.6944036 0
-9.7813435 20.656693 1.2766206
-4.1040235 8.6400595 -0.5342772
-4.127471 8.6894226 0
-9.8174477 20.668333 1.2780722
-4.1099892 8.6257105 -0.53369665
-0 0 0
-9.850234 20.672871 1.2790878
-4.1080861 8.5949564 -0.53210056
-4.1439691 8.6700306 0
-9.8785686 20.667988 1.2795234
-4.1022849 8.5429888 -0.52934277
-4.1608014 8.6648493 0
-9.9283867 20.675817 1.2811201
-4.1080942 8.5286617 -0.52876222
-4.18256 8.6832581 0
-9.9635096 20.684874 1.2824262
-4.1059647 8.497962 -0.52716607
-4.1783314 8.6477375 0
-9.989625 20.675158 1.2825712
-4.1026301 8.4649353 -0.52542442
-4.1967235 8.6590776 0
-10.028199 20.691132 1.2843128
-4.1026316 8.438942 -0.5241183
-4.195807 8.6306 0
-10.054328 20.681334 1.2844578
-4.1071277 8.4222946 -0.5233922
-0 0 0
-10.087284 20.68552 1.2854739
-4.1013188 8.3846512 -0.52136052
-4.242949 8.6741972 0
-10.114552 20.67798 1.285764
-4.1034341 8.3633575 -0.52034438
-4.2476964 8.6573849 0
-10.153265 20.693737 1.2875056
-4.1055083 8.3420801 -0.51932883
-4.2581544 8.6522455 0
-10.180554 20.686113 1.2877957
-4.112133 8.330121 -0.5188933
-4.2662992 8.6424227 0
-10.211296 20.685453 1.2885218
-4.1002913 8.2809095 -0.51613605
-4.2721243 8.6279411 0
-10.240895 20.682415 1.2891023
-4.1045117 8.2643061 -0.51540995
-4.2674937 8.5924654 0
-10.276279 20.690968 1.2904085
-4.1052299 8.2407427 -0.51424938
-4.2604694 8.5523672 0
-10.308223 20.692486 1.291279
-4.1082134 8.2218256 -0.51337826
-4.2731247 8.5518646 0
-10.350641 20.714884 1.2934562
-4.1111617 8.2029219 -0.51250768
-4.2671318 8.5141268 0
-10.374496 20.700033 1.2933106
-4.1047292 8.1654415 -0.51047546
-4.2879353 8.5298891 0
-10.406505 20.701416 1.2941818
-4.1005583 8.1326418 -0.50873435
-4.2912111 8.5107632 0
-10.442039 20.709707 1.2954879
-4.0986533 8.1044893 -0.50728267
-4.29562 8.4939623 0
-10.474089 20.710983 1.2963585
-4.0978646 8.0786762 -0.50597656
-4.2976379 8.472517 0
-10.501459 20.702951 1.296649
-4.0993743 8.0575056 -0.50496042
-4.3102303 8.4719524 0
-10.534716 20.706461 1.2976651
-4.0695119 7.9749522 -0.99794042
-4.0961189 8.0270929 -0.50336432
-4.3145504 8.4551497 0
-10.567992 20.709911 1.2986807
-4.0767908 7.9654288 -0.99736434
-4.0916085 7.994381 -0.50162268
-4.308166 8.4175005 0
-10.601296 20.713322 1.2996968
-4.0710578 7.9305859 -0.99361682
-4.101265 7.9894309 -0.50162268
-4.3064508 8.3891411 0
-10.631063 20.709743 1.3002774
-4.069983 7.9049668 -0.99102247
-4.1014004 7.9659877 -0.50046152
-4.3106241 8.3723555 0
-10.663214 20.710739 1.3011479
-4.0747843 7.890851 -0.9898693
-4.1014848 7.9425559 -0.49930042
-4.3135753 8.3532705 0
-10.695387 20.711697 1.302019
-4.0771766 7.8721366 -0.98813903
-4.1051044 7.9260597 -0.49857488
-4.3116989 8.3249474 0
-10.731159 20.719522 1.3033252
-4.0723825 7.8396702 -0.98468059
-4.1038995 7.9003429 -0.49726877
-4.3097553 8.2966328 0
-10.766966 20.727291 1.3046312
-4.0651789 7.8142581 -0.9817971
-4.0990782 7.8794208 -0.49610764
-4.3027587 8.2709436 0
-10.781882 20.725389 1.3049213
-4.0578699 7.7772412 -0.97776157
-4.0917702 7.8422141 -0.49407595
-4.3043208 8.2495852 0
-10.81293 20.723871 1.3056474
-4.0588684 7.7562885 -0.97574323
-4.0988312 7.8326554 -0.49378541
-4.2986007 8.2144041 0
-10.843987 20.7223 1.306373
-4.0706434 7.7559633 -0.97632039
-4.0925951 7.7977886 -0.49189875
-4.2988472 8.1907692 0
-10.884714 20.73909 1.3082596
-4.0595326 7.7121325 -0.97141969
-4.0947547 7.7790461 -0.49102816
-4.3087411 8.1855688 0
-10.909765 20.725924 1.3082596
-4.0603943 7.6912084 -0.96940136
-4.0895939 7.7465181 -0.48928651
-4.3040485 8.1527395 0
-10.949358 20.740301 1.3100013
-4.0672665 7.6817293 -0.96882534
-4.0940871 7.7323856 -0.48870593
-4.3041539 8.1291323 0
-10.97684 20.731644 1.3102913
-4.0583482 7.6425414 -0.96450067
-4.0948954 7.7113662 -0.48768982
-4.2968879 8.0917511 0
-11.005539 20.725252 1.3107269
-4.0675797 7.6376319 -0.96450067
-4.0919981 7.6834822 -0.48623872
-4.2981024 8.0704803 0
-11.034235 20.718813 1.3111619
-4.0719309 7.6235857 -0.96334749
-4.0902624 7.6579065 -0.4849326
-4.2992668 8.0492096 0
-11.071506 20.72839 1.3126135
-4.0591583 7.5776248 -0.95815879
-4.0847888 7.6254725 -0.48319092
-4.3040738 8.034833 0
-11.100225 20.72187 1.3130491
-4.0634151 7.563601 -0.95700562
-4.0890808 7.6113749 -0.48261037
-4.2989993 8.0021152 0
-11.120337 20.699286 1.3124685
-4.061511 7.5381947 -0.95441127
-4.0785546 7.569828 -0.48028812
-4.3012609 7.9831724 0
-11.153964 20.701841 1.3134841
-4.0607796 7.5150771 -0.95210493
-4.0951123 7.5786147 -0.48115924
-4.2997704 7.957365 0
-14.917944 27.607876 1.7527986
-4.0587673 7.4897008 -0.94951057
-4.0968361 7.5599494 -0.48028812
-4.30194 7.9384308 0
-14.968627 27.621819 1.7548307
-4.0505209 7.4529715 -0.94547397
-4.0861149 7.5184646 -0.47796589
-4.3003454 7.9126496 0
-15.005711 27.610556 1.7552658
-4.0545721 7.4389873 -0.9443208
-4.0802789 7.4861522 -0.47622478
-4.2986951 7.8868837 0
-0 0 0
-4.0598397 7.4272804 -0.94345671
-4.0868263 7.4766517 -0.47593424
-4.2982359 7.8634148 0
-0 0 0
-4.0563755 7.3996849 -0.94057328
-4.085865 7.4534798 -0.47477311
-4.2927217 7.8308306 0
-0 0 0
-4.0553451 7.3766456 -0.93826693
-4.0836029 7.4280462 -0.47346699
-0 0 0
-0 0 0
-4.0542698 7.3536286 -0.93596166
-4.0875573 7.4140043 -0.47288644
-4.3066072 7.8113174 0
-0 0 0
-4.0543904 7.3328772 -0.93394333
-4.0864539 7.3908682 -0.47172531
-4.3047104 7.7856121 0
-0 0 0
-4.0519609 7.3076172 -0.93134898
-4.0953813 7.3859248 -0.47172531
-4.301497 7.7576494 0
-0 0 0
-4.0545039 7.2914152 -0.9299078
-4.0916772 7.3582659 -0.47027421
-4.3032761 7.7387948 0
-0 0 0
-4.0488415 7.2708864 -0.92760146
-4.0898023 7.3444438 -0.46954864
-4.3028865 7.7270985 0
-0 0 0
-4.0525799 7.2569561 -0.92644829
-4.0834708 7.3122725 -0.46780697
-4.2982655 7.6969061 0
-0 0 0
-4.0487051 7.2294827 -0.92356485
-4.0884929 7.3005295 -0.4673714
-4.2948437 7.6689954 0
-18.569401 33.158051 2.12274
-4.0473099 7.206553 -0.92125958
-4.0795002 7.2638698 -0.46533975
-4.2951903 7.647923 0
-18.558561 33.044975 2.116935
-4.0509377 7.1926427 -0.92010641
-4.0793471 7.2430849 -0.46432364
-4.2967629 7.629118 0
-18.583176 32.995358 2.1151934
-4.0519915 7.1742258 -0.91837615
-4.0829844 7.2291002 -0.46374306
-4.2995801 7.6125922 0
-18.570639 32.880119 2.1092427
-4.0504594 7.15132 -0.91606981
-4.0814714 7.2060738 -0.46258196
-4.2959518 7.5847511 0
-18.607796 32.853138 2.1089528
-4.0463257 7.1239347 -0.91318738
-4.0773449 7.1785469 -0.46113083
-4.2922573 7.5569205 0
-4.5700603 8.0460186 0.51685494
-4.0510888 7.1122956 -0.91232228
-4.083446 7.1691036 -0.46084082
-4.2949462 7.5404239 0
-4.5579171 8.0021086 0.51438767
-4.049417 7.0894279 -0.91001594
-4.080503 7.1438508 -0.45953417
-4.2937279 7.5171504 0
-4.5714507 8.0033665 0.51482326
-4.0476956 7.0665751 -0.9077096
-4.0775094 7.1186247 -0.45822805
-4.3002234 7.5074444 0
-4.5733662 7.9843044 0.51395214
-4.0407767 7.0347738 -0.90425116
-4.069284 7.084403 -0.45634139
-4.2872562 7.463881 0
-4.5843034 7.9810238 0.51409709
-4.044826 7.0025868 -0.90136772
-4.0733981 7.0520525 -0.45489025
-4.2935672 7.433219 0
-4.5762897 7.9226813 0.51104987
-4.0416179 6.9775534 -0.89877337
-4.0740991 7.0336299 -0.45401913
-4.2960196 7.416759 0
-4.5780425 7.9036508 0.5101788
-4.0370574 6.9503036 -0.89589095
-4.0747671 7.0152249 -0.45314857
-4.2945261 7.393568 0
-4.5680165 7.8644161 0.5080021
-4.0428467 6.9409461 -0.89531386
-4.0806274 7.0058098 -0.4528586
-4.2929778 7.3703828 0
-4.5500526 7.8117409 0.50495434
-4.0421023 6.9204283 -0.8932966
-4.0759816 6.9784322 -0.4514069
-4.2900681 7.3449669 0
-4.5280352 7.7523875 0.50147098
-4.0465388 6.9088416 -0.89243144
-4.0739045 6.955565 -0.4502458
-4.2949929 7.3330388 0
-4.5058813 7.6930985 0.49798763
-4.0470219 6.8905611 -0.89070117
-4.078362 6.943922 -0.4498108
-4.2906675 7.3053989 0
-4.4967527 7.6562843 0.49595594
-4.0461607 6.8700719 -0.88868392
-4.0775175 6.9233141 -0.44879466
-4.2849674 7.2755485 0
-0 0 0
-4.0531445 6.8629532 -0.88839591
-4.0753093 6.9004827 -0.44763356
-4.2871399 7.2591634 0
-4.4703178 7.5693283 0.49102148
-4.0482521 6.8357911 -0.88551247
-4.0809984 6.8910861 -0.44734356
-4.2892785 7.2427835 0
-4.4675455 7.5438013 0.48971537
-4.0433044 6.80866 -0.88263005
-4.0853405 6.8794456 -0.446908
-4.287396 7.2196941 0
-4.4647179 7.518292 0.48840925
-4.042264 6.7882113 -0.88061178
-4.0803528 6.8521738 -0.44545633
-4.2894549 7.2033215 0
-4.4605017 7.4905615 0.48695758
-4.0478139 6.7788849 -0.8800357
-4.0779772 6.8293991 -0.44429576
-4.2914858 7.1869631 0
-4.457561 7.4650898 0.48565146
-0 0 -0
-4.0466995 6.7584529 -0.87801743
-4.0768809 6.8088593 -0.44327965
-4.2854643 7.1572175 0
-4.4692502 7.4641609 0.48594201
-4.0401416 6.7382607 -0.87571108
-4.0756488 6.7974806 -0.4426991
-4.281755 7.1412306 0
-4.4884534 7.4859672 0.48753813
-4.0402865 6.720078 -0.87398183
-4.0718102 6.7725105 -0.44139299
-4.2796531 7.1182084 0
-4.5202551 7.5183945 0.49000537
-4.0443959 6.7085438 -0.87311673
-4.0719385 6.7542295 -0.44052187
-4.2869081 7.1108055 0
-4.5481215 7.544086 0.49203759
-4.0444732 6.6903758 -0.87138748
-4.0760679 6.7426395 -0.44008687
-4.2793407 7.0788941 0
-4.5612626 7.5452495 0.49247259
-4.0431676 6.6699986 -0.86936915
-4.0734363 6.719933 -0.43892574
-4.282495 7.064816 0
-4.5622969 7.5264044 0.49160203
-4.0404763 6.6474266 -0.86706287
-4.070756 6.6972427 -0.43776464
-4.2802143 7.0418453 0
-4.5592422 7.5009046 0.49029592
-4.0431213 6.6337051 -0.8659097
-4.0639682 6.6679096 -0.43616796
-4.281949 7.0255589 0
-4.5561328 7.4754229 0.4889898
-4.0430436 6.6155777 -0.86418045
-4.069315 6.6585646 -0.43587795
-4.2822948 7.0070605 0
-4.559742 7.4610434 0.48840925
-4.046979 6.6040692 -0.86331534
-4.0692086 6.6403451 -0.43500686
-4.2744408 6.9752531 0
-4.5619612 7.4444442 0.48768315
-4.0414171 6.5771418 -0.86043292
-4.0717878 6.6265678 -0.43442628
-4.2828655 6.9700832 0
-4.5573521 7.4167919 0.48623201
-4.0398631 6.5568371 -0.85841465
-4.0620737 6.592886 -0.43253961
-4.2871876 6.9582539 0
-4.5526829 7.3891616 0.48478091
-4.040987 6.5409508 -0.85697341
-4.0659437 6.5813475 -0.43210462
-4.2819166 6.930932 0
-4.5452194 7.3571277 0.48303923
-4.0461607 6.5316615 -0.85639632
-4.0711536 6.5720072 -0.43181404
-4.2765856 6.9036336 0
-4.5404243 7.329545 0.48158813
-4.037673 6.5004025 -0.8529368
-4.0749769 6.5604596 -0.43137848
-4.2821751 6.8940353 0
-4.5383091 7.3063951 0.480427
-4.0441585 6.4933252 -0.85264879
-4.0691667 6.5334787 -0.42992738
-4.2822499 6.8756061 0
-4.5416393 7.2920837 0.47984645
-4.0396724 6.4686918 -0.85005444
-4.0564165 6.4955039 -0.42775071
-4.2809033 6.8549728 0
-4.5353055 7.2623448 0.47824976
-4.0351329 6.4440784 -0.84746009
-4.0628791 6.488389 -0.42760515
-4.2767539 6.8299456 0
-4.5289068 7.2326317 0.4766531
-0 0 -0
-4.0638089 6.4724736 -0.42687958
-4.286386 6.8269749 0
-4.5183015 7.1963496 0.47462142
-4.0534472 6.4386816 -0.84803611
-4.0647063 6.4565659 -0.42615405
-4.2793841 6.7975702 0
-4.5048437 7.1557012 0.47229919
-4.0474205 6.4119115 -0.84515375
-4.0627942 6.4362669 -0.42513791
-4.2820377 6.7835917 0
-4.5037818 7.1348777 0.47128361
-4.0510139 6.4004579 -0.84428859
-4.062233 6.4181833 -0.42426735
-4.2804871 6.7630172 0
-4.5110059 7.1272287 0.47113806
-4.0462728 6.375906 -0.84169424
-4.0602374 6.3979106 -0.42325124
-4.2761068 6.7380662 0
-4.5224018 7.1261649 0.47142863
-4.04842 6.3622832 -0.84054106
-4.0582042 6.3776603 -0.4222357
-4.2800527 6.726305 0
-4.5254292 7.1119261 0.47084808
-4.0449748 6.3399429 -0.83823472
-4.0547266 6.3552275 -0.42107457
-4.2769785 6.703577 0
-4.5340195 7.1064529 0.47084808
-4.040452 6.3244243 -0.83650553
-4.0445733 6.3308754 -0.4196229
-4.2740235 6.6900282 0
-4.5285177 7.0883822 0.46983194
-4.0397229 6.3064742 -0.83477628
-4.0522199 6.3259835 -0.4196229
-4.2694712 6.6651378 0
-4.5202661 7.0566573 0.46809083
-4.0459385 6.2994061 -0.8344872
-4.0458212 6.2992234 -0.41817179
-4.2747064 6.6555905 0
-4.5091271 7.0205774 0.46605861
-4.039546 6.2727709 -0.83160484
-4.0463967 6.2834091 -0.41744623
-4.2700648 6.6307302 0
-4.5077629 6.9998374 0.46504304
-4.0457206 6.2657146 -0.83131677
-4.0483479 6.2697835 -0.41686568
-4.2696061 6.612452 0
-4.5035281 6.9747329 0.46373639
-4.0448518 6.2477903 -0.82958651
-4.0545101 6.2627082 -0.41672066
-4.2577949 6.5767074 0
-4.517601 6.9780111 0.46431693
-4.0425444 6.2277179 -0.82756925
-4.0521693 6.2425456 -0.41570455
-4.2133112 6.4907918 0
-4.0535178 6.2446227 0.41584286
-4.0458326 6.2163234 -0.82670414
-4.0611253 6.2398205 -0.41584954
-4.1231985 6.3351946 0
-4.0667295 6.2484317 0.41642341
-4.0434451 6.1962657 -0.82468581
-4.0558829 6.2153263 -0.41454342
-4.0725451 6.240859 0
-4.0657592 6.2304606 0.41555285
-4.0466847 6.1848884 -0.82382172
-4.0548568 6.1973786 -0.41367286
-4.055861 6.1989136 0
-4.0647459 6.2124929 0.41468173
-4.04564 6.1670141 -0.82209146
-4.0523639 6.1772642 -0.41265675
-4.0490704 6.1722436 0
-4.0637007 6.1945453 0.41381118
-4.0488229 6.1556363 -0.8212263
-4.0555396 6.1658483 -0.41222119
-4.0565252 6.1673465 0
-4.0668974 6.1831155 0.41337562
-4.0434437 6.1313086 -0.81863195
-4.0558357 6.1500993 -0.41149566
-4.0568118 6.1515799 0
-4.0643559 6.1630187 0.41236007
-4.0422926 6.1134777 -0.81690276
-4.0546675 6.1321936 -0.4106251
-4.0570664 6.1358209 0
-4.0631976 6.1450939 0.41148895
-4.0425324 6.0978122 -0.81546152
-4.0563312 6.1186266 -0.41004452
-4.0572886 6.1200709 0
-4.064877 6.1315169 0.4109084
-4.0456004 6.0864587 -0.81459641
-4.0579677 6.1050649 -0.40946397
-4.0531554 6.0978251 0
-4.0607753 6.1092887 0.40974727
-4.0472145 6.072957 -0.81344324
-4.0538135 6.082859 -0.40830284
-4.0561895 6.0864239 0
-4.0652752 6.1000576 0.40945727
-4.0430536 6.0508575 -0.8111369
-4.0626025 6.0801148 -0.40844786
-4.0534239 6.0663772 0
-4.0625362 6.0800152 0.40844116
-4.046042 6.0395193 -0.81027174
-4.0612717 6.062253 -0.40757731
-4.053504 6.0506582 0
-4.0612049 6.0621533 0.4075706
-4.0432458 6.0196023 -0.80825448
-4.0627985 6.0487127 -0.40699673
-4.0579128 6.0414391 0
-4.0612841 6.0464587 0.40684503
-4.0389581 5.9975495 -0.8059482
-4.0686541 6.041646 -0.40685174
-4.0535803 6.0192623 0
-4.0613313 6.0307727 0.4061195
-4.0447559 5.9905233 -0.80566013
-0 0 -0
-4.0564799 6.0078874 0
-4.0584359 6.0107841 0.40510339
-4.0418406 5.9706368 -0.80364186
-4.0570202 5.9930601 -0.40423894
-4.0608215 5.9986753 0
-4.0598693 5.9972687 0.40452281
-4.0454469 5.9681935 -0.80364186
-4.0504389 5.9755583 -0.4032234
-4.0542216 5.9811392 0
-4.0562034 5.9840627 0.40379727
-4.0468402 5.9547443 -0.80248868
-4.0518136 5.9620628 -0.40264285
-4.0629072 5.9783864 0
-4.0546646 5.966258 0.40292615
-4.0466313 5.9235945 -0.79960626
-4.0515499 5.9307938 -0.40119117
-4.0611987 5.9449186 0
-4.0573454 5.9392772 0.40176502
-4.0493999 5.9122968 -0.79874116
-4.051373 5.9151769 -0.40046561
-4.0595527 5.9271197 0
-4.0527778 5.9172282 0.40060446
-4.0448279 5.8903418 -0.79643482
-4.0526338 5.9017091 -0.39988506
-4.0564032 5.9071989 0
-4.0496268 5.8973308 0.39958835
-4.0431447 5.8726721 -0.79470557
-4.0538678 5.888247 -0.39930448
-4.0546803 5.8894277 0
-4.0537996 5.8881483 0.3992978
-4.047296 5.8635206 -0.79412848
-4.049171 5.8662367 -0.39814338
-4.0529261 5.8716769 0
-4.0520577 5.870419 0.39842725
-4.0470204 5.8479939 -0.7926873
-4.0577388 5.8634825 -0.39828894
-4.0496497 5.8517933 0
-4.0517559 5.8548374 0.39770168
-4.0408149 5.823976 -0.79009295
-4.0544505 5.8436289 -0.39727283
-4.0507832 5.8383431 0
-4.0514226 5.8392649 0.39697611
-4.0389843 5.8063455 -0.78836262
-4.0526028 5.825923 -0.3964017
-4.0459456 5.8163528 0
-0 0 0
-4.0400848 5.7929831 -0.78721052
-4.0522089 5.8103671 -0.39567614
-4.0470157 5.8029213 0
-4.0610614 5.823061 0.39654055
-4.0441146 5.7838535 -0.78663343
-4.0517831 5.7948213 -0.39495057
-4.0510449 5.7937651 0
-4.0591578 5.8053684 0.39566946
-4.0481334 5.7747312 -0.78605735
-4.0558019 5.7856698 -0.39466059
-4.0550575 5.7846079 0
-4.0676651 5.8025932 0.39581501
-4.0625429 5.7804141 -0.78749853
-4.0627894 5.7807651 -0.39466059
-4.0575533 5.7733145 0
-4.0776591 5.8019218 0.39610499
-4.0725012 5.7797256 -0.78807461
-4.072762 5.7800956 -0.39495057
-4.0720201 5.7790427 0
-4.0846667 5.7969909 0.39610499
-4.0809731 5.7769113 -0.78836262
-4.0842423 5.7815394 -0.39538613
-4.0820003 5.7783651 0
-4.0916681 5.7920508 0.39610499
-4.0879502 5.771976 -0.78836262
-4.0942259 5.7808371 -0.39567614
-4.0844712 5.7670636 0
-4.0986638 5.7871027 0.39610499
-4.0994153 5.7733607 -0.78922778
-4.1027169 5.7780104 -0.39582169
-4.1004739 5.7748518 0
-4.110168 5.7885041 0.39654055
-4.1078868 5.7705083 -0.78951579
-4.1187339 5.7857461 -0.39669225
-4.0953741 5.7529316 0
-4.1186647 5.7856483 0.39668557
-4.1178646 5.7697554 -0.79009295
-4.1257219 5.7807651 -0.39669225
-4.0539494 5.6802006 0
-4.1286745 5.7849016 0.39697611
-4.1188126 5.7563615 -0.78893977
-4.1311932 5.7736645 -0.39654726
-0 0 0
-4.1432199 5.7904725 0.39770168
-4.1257648 5.7513804 -0.78893977
-4.1442251 5.7771139 -0.39712781
-3.9508655 5.5075679 0
-4.1487007 5.7833529 0.39755669
-4.113081 5.7190952 -0.78519225
-4.1436124 5.7615485 -0.3964017
-3.9514394 5.4943385 0
-4.1572013 5.7804432 0.39770168
-4.0046921 5.5612936 -0.76385915
-4.1121731 5.7105517 -0.3930639
-0 0 0
-4.1667666 5.786365 0.39828223
-3.9372318 5.4537029 -0.74973422
-4.0171695 5.5644298 -0.38333997
-3.9431109 5.4618468 0
-4.1767941 5.7855358 0.39857224
-3.9286506 5.4279852 -0.74685073
-3.9355288 5.4374881 -0.37492216
-3.943604 5.4486451 0
-4.1853037 5.7825875 0.39871722
-3.9321713 5.4190512 -0.74627471
-3.9207342 5.4032893 -0.3728905
-3.9440711 5.4354506 0
-4.1968675 5.7838378 0.39915279
-3.9387162 5.4142962 -0.74627471
-3.9211457 5.3901429 -0.37230995
-3.9460413 5.4243655 0
-4.2084403 5.785068 0.39958835
-3.9483008 5.4137082 -0.74685073
-3.9200017 5.3749061 -0.37158439
-3.9387925 5.4006715 0
-4.2184868 5.7841735 0.39987835
-3.9563704 5.4110274 -0.74713981
-3.9249611 5.3680701 -0.37143937
-3.9422462 5.3917103 0
-4.2270107 5.7811756 0.40002391
-3.965961 5.4104114 -0.74771589
-3.9252996 5.3549409 -0.37085882
-3.9410608 5.376442 0
-4.2309179 5.7718687 0.39973336
-3.9755616 5.4097877 -0.74829298
-3.9271495 5.3439102 -0.37042326
-3.9429352 5.3653908 0
-4.2301965 5.7562847 0.3990078
-3.9667509 5.3841524 -0.74540955
-3.9336038 5.3391614 -0.37042326
-3.9494154 5.3606229 0
-4.2309837 5.7428012 0.39842725
-3.9747889 5.381434 -0.74569756
-3.9307923 5.3218675 -0.3695527
-3.9527943 5.351656 0
-4.2070441 5.6958823 0.39552444
-3.9812884 5.3766274 -0.74569756
-3.9356751 5.3150277 -0.36940771
-3.9515157 5.3364201 0
-4.1520762 5.6072721 0.38971943
-3.9847016 5.3676634 -0.74512154
-3.9420943 5.3102684 -0.36940771
-3.9533057 5.3253708 0
-4.0612764 5.4708142 0.38057604
-3.9911845 5.3628445 -0.74512154
-3.9454021 5.3013282 -0.36911714
-3.9550805 5.314333 0
-4.0306511 5.415875 0.37709272
-4.0053935 5.3683815 -0.74656272
-3.9502525 5.2944765 -0.36897215
-3.9568286 5.3032904 0
-4.07759 5.4651451 0.38086605
-4.0118771 5.3635378 -0.74656272
-3.9535313 5.2855339 -0.36868158
-3.9585557 5.2922511 0
-4.2273726 5.6516366 0.39421833
-4.0199056 5.3607535 -0.74685073
-3.9630358 5.284915 -0.36897215
-3.9665074 5.2895446 0
-4.2918768 5.7234411 0.39958835
-4.0294914 5.3600311 -0.74742788
-3.9600472 5.2676563 -0.36810103
-3.9666405 5.2764268 0
-4.322206 5.7494001 0.40176502
-4.0390754 5.3592854 -0.7480039
-3.9664092 5.2628675 -0.36810103
-3.9745839 5.2737145 0
-4.3479166 5.7690749 0.4035067
-4.0439901 5.3523393 -0.74771589
-3.9664998 5.2497783 -0.36752048
-3.9793799 5.2668257 0
-4.3595853 5.7700386 0.40394226
-4.0457683 5.3412619 -0.74685073
-3.9744136 5.2470589 -0.36766604
-3.9920266 5.2703118 0
-4.3665543 5.7647667 0.40394226
-4.0459623 5.3281298 -0.74569756
-3.9807508 5.2422528 -0.36766604
-3.9952469 5.261343 0
-4.3766561 5.7636213 0.40423226
-3.9944372 5.2471008 -0.73503214
-3.9886544 5.2395048 -0.36781102
-3.9968708 5.2502975 0
-4.3899131 5.7665987 0.40481281
-3.974086 5.213829 -0.73070747
-3.9918191 5.2370939 -0.36781102
-4.000042 5.2478819 0
-4.3918223 5.7618809 0.40466782
-3.9788141 5.2069702 -0.73041946
-3.9965682 5.2302041 -0.36766604
-4.0111217 5.2492504 0
-4.4003577 5.7586327 0.40481281
-3.9819541 5.1980481 -0.72984231
-4.0044637 5.2274318 -0.36781102
-4.0158806 5.2423358 0
-4.4152179 5.7636313 0.40553895
-3.9803567 5.1829782 -0.72840112
-4.0076084 5.2184639 -0.36752048
-4.0253792 5.2416039 0
-4.4221787 5.7582922 0.40553895
-3.9881988 5.1802201 -0.72869021
-4.015501 5.2156825 -0.36766604
-4.0269451 5.2305474 0
-4.4354739 5.7611804 0.4061195
-3.9912915 5.1712985 -0.72811311
-4.0218 5.2108269 -0.36766604
-4.0284967 5.2195034 0
-4.4440184 5.7578716 0.40626448
-4.0007057 5.170567 -0.72869021
-4.0264988 5.2039022 -0.36752048
-4.0395737 5.2208009 0
-4.4541492 5.7566042 0.40655449
-4.008534 5.1677709 -0.72897828
-4.0359721 5.2031436 -0.36781102
-4.0458794 5.2159162 0
-4.4658813 5.7573795 0.40699005
-4.0147753 5.1629238 -0.72897828
-4.0422559 5.1982632 -0.36781102
-4.0505824 5.208971 0
-4.4744282 5.7540283 0.40713504
-4.0225997 5.1601067 -0.72926629
-4.0485339 5.1933751 -0.36781102
-4.052072 5.1979132 0
-4.4957542 5.7670598 0.40844116
-4.0304227 5.1572785 -0.7295543
-0 0 -0
-4.0567489 5.1909647 0
-4.5187225 5.7821012 0.40989283
-4.0350575 5.1503706 -0.72926629
-4.0610728 5.1835761 -0.36781102
-4.0646214 5.1881061 0
-4.5657673 5.8277712 0.41352117
-4.0476685 5.1536279 -0.73041946
-4.0721493 5.1847978 -0.36824659
-4.0692811 5.1811461 0
-4.6899619 5.9714174 0.42411566
-4.0538926 5.1487331 -0.73041946
-4.0800171 5.1819134 -0.3683916
-4.0739303 5.1741824 0
-0 0 0
-4.0681219 5.1539803 -0.73186064
-4.0878839 5.1790175 -0.36853659
-4.0850182 5.1753864 0
-0 0 0
-4.0743465 5.1490612 -0.73186064
-4.0989776 5.1801891 -0.36897215
-4.0993414 5.1806493 0
-4.8002529 6.0664444 0.43209791
-4.0853887 5.1502151 -0.7327258
-4.1036205 5.1731987 -0.36882716
-4.107214 5.1777291 0
-4.8140388 6.0687828 0.43267849
-4.1125355 5.1715908 -0.73647332
-4.1147156 5.1743321 -0.36926216
-4.1118493 5.1707277 0
-4.8278375 6.0710964 0.43325904
-4.152638 5.2090878 -0.74252719
-4.1290617 5.1795139 -0.3699877
-4.1164732 5.1637225 0
-4.8367882 6.0672884 0.43340403
-4.5096531 5.6289673 -0.80392987
-4.2000546 5.2425251 -0.37521273
-4.1273079 5.1517224 0
-4.8595581 6.0657196 0.4341296
-4.5375047 5.6497283 -0.80767739
-4.5594487 5.6770511 -0.40670618
-4.1351643 5.1487665 0
-4.870141 6.0638995 0.43442014
-4.5441623 5.651021 -0.80825448
-4.6035843 5.7249174 -0.41033453
-4.1529503 5.1645188 0
-4.878684 6.0670247 0.43485516
-4.5558581 5.6515689 -0.80911964
-4.6121278 5.7213717 -0.41047952
-4.1477528 5.1453118 0
-4.8957992 6.0732675 0.43572626
-4.5675564 5.6520896 -0.80998373
-4.6255703 5.7238789 -0.41106009
-4.1670532 5.1564898 0
-4.9063969 6.0713854 0.43601626
-4.5808949 5.6546054 -0.8111369
-4.6406665 5.7283864 -0.4117862
-4.1863866 5.1676283 0
-4.9120955 6.0634356 0.43587127
-4.5893531 5.651072 -0.81142491
-4.6492209 5.7247901 -0.41193122
-4.2041135 5.1767097 0
-4.9276071 6.0675793 0.43659684
-4.5978155 5.6475339 -0.81171399
-4.6594129 5.7231946 -0.41222119
-4.6359038 5.6943178 0
-4.936574 6.0636339 0.43674183
-4.6095376 5.6479802 -0.81257808
-4.6712556 5.7236018 -0.41265675
-4.6543012 5.7028279 0
-4.9537582 6.069747 0.43761295
-4.621274 5.6484137 -0.81344324
-4.6814556 5.7219715 -0.41294676
-4.671073 5.7092814 0
-4.956151 6.0577216 0.43717739
-4.6379337 5.6548209 -0.81517243
-4.6933112 5.7223401 -0.41338232
-4.6812658 5.707654 0
-4.9733572 6.0637875 0.43804851
-4.6480517 5.6532125 -0.81574959
-4.7035255 5.7206831 -0.41367286
-4.6947703 5.7100344 0
-4.9889302 6.0678072 0.43877405
-4.6614594 5.6555758 -0.81690276
-4.7137365 5.7190022 -0.41396287
-4.7082872 5.7123904 0
-4.9995604 6.0657811 0.43906406
-4.6699352 5.6519313 -0.81719077
-4.7272639 5.7213149 -0.41454342
-4.7135301 5.7046928 0
-5.0118527 6.0657473 0.43949962
-4.6817126 5.6522622 -0.81805587
-4.7341738 5.7155986 -0.41454342
-4.7220783 5.7009959 0
-5.0224905 6.0636854 0.43978962
-4.688539 5.6466012 -0.81805587
-4.7493744 5.7198677 -0.41526899
-4.7339525 5.7012944 0
-5.0331364 6.061614 0.44008017
-4.70363 5.6508694 -0.81949711
-4.761271 5.7201185 -0.41570455
-4.7441645 5.6995668 0
-5.0487671 6.0655122 0.44080573
-4.717083 5.6531258 -0.82065028
-4.7715054 5.7183475 -0.41599455
-4.7610555 5.7058234 0
-5.0527663 6.0554209 0.44051573
-4.7205944 5.6434579 -0.8200742
-4.7834148 5.7185593 -0.41643012
-4.7696142 5.7020612 0
-5.0684137 6.0592747 0.44124129
-4.7340512 5.6456699 -0.8212263
-4.7903209 5.7127752 -0.41643012
-4.7798481 5.7002859 0
-5.0807352 6.0591135 0.44167629
-4.7442012 5.643909 -0.82180345
-4.8072553 5.7189212 -0.41730124
-4.7967768 5.7064552 0
-5.0914001 6.056952 0.44196686
-4.7510176 5.6381726 -0.82180345
-4.815835 5.7150931 -0.41744623
-4.8053441 5.7026434 0
-5.1070852 6.060729 0.4426924
-4.7611613 5.6363759 -0.82237947
-4.8244119 5.7112532 -0.41759121
-4.8172708 5.7027993 0
-5.1194367 6.0605106 0.44312796
-4.7846861 5.6503611 -0.8252629
-4.8397036 5.715333 -0.41831678
-4.8258381 5.6989584 0
-5.1301112 6.0582824 0.44341797
-4.7897701 5.6494403 -0.82555097
-4.8414769 5.7104278 -0.41817179
-4.841063 5.7099395 0
-5.138813 6.06113 0.44385353
-4.7982659 5.6456175 -0.82583898
-4.8618355 5.7204132 -0.41933289
-4.8462749 5.7021046 0
-5.1511831 6.0608578 0.44428909
-4.8101182 5.6457243 -0.82670414
-4.8687439 5.7145343 -0.41933289
-4.8548474 5.6982236 0
-5.1635532 6.0605574 0.44472408
-4.8236556 5.6477752 -0.82785732
-4.8739595 5.7066736 -0.4191879
-4.8718672 5.7042232 0
-5.1691866 6.05234 0.44457909
-4.8355246 5.6478386 -0.82872242
-4.8791566 5.6988006 -0.41904235
-4.887217 5.7082152 0
-5.1731191 6.0421457 0.44428909
-4.8423452 5.6419916 -0.82872242
-4.8792696 5.6850138 -0.41846177
-4.9008908 5.7102051 0
-5.1330309 5.9806805 0.44022518
-4.8575916 5.6459379 -0.8301636
-4.8759704 5.6672993 -0.41759121
-4.9043956 5.7003374 0
-5.7994614 6.7406654 0.49668151
-4.8677855 5.6439781 -0.83073968
-4.8862119 5.6653423 -0.41788179
-4.9180784 5.7022905 0
-5.7957206 6.7198772 0.4956654
-4.8762918 5.6400466 -0.83102769
-4.9015493 5.6692605 -0.41860735
-4.9317737 5.7042184 0
-5.791945 6.6991153 0.49464983
-4.8966551 5.6497869 -0.83333403
-4.9186039 5.6751118 -0.41947791
-4.9352498 5.6943183 0
-5.7932277 6.6842575 0.49406928
-4.9034781 5.6438661 -0.83333403
-4.9254575 5.6691647 -0.41947791
-4.9472489 5.6942463 0
-5.7927809 6.6674471 0.49334371
-4.9204893 5.6496434 -0.83506429
-4.9459567 5.6788845 -0.42063901
-4.9626703 5.6980753 0
-5.7871804 6.6447668 0.49218258
-4.9358163 5.6534343 -0.83650553
-4.9579434 5.6787782 -0.42107457
-4.9918013 5.7175589 0
-5.7917838 6.6338506 0.49189204
-4.9358301 5.6396809 -0.83535236
-4.9767756 5.6864653 -0.42209014
-4.9884253 5.6997762 0
-5.7929502 6.6190262 0.49131149
-4.9477596 5.6395473 -0.83621746
-4.9973526 5.696074 -0.42325124
-4.9901581 5.6878738 0
-5.8043742 6.615932 0.49160203
-4.9562769 5.6355052 -0.83650553
-5.0008025 5.6861329 -0.42296124
-5.0159345 5.7033386 0
-5.8140783 6.6108632 0.49174705
-4.9699244 5.6372728 -0.8376587
-5.0162597 5.6898298 -0.4236868
-5.0228224 5.6972737 0
-5.8100319 6.5901875 0.49073091
-4.9784436 5.6331997 -0.83794671
-5.030014 5.6915526 -0.42426735
-5.0383182 5.7009487 0
-5.8162713 6.5812173 0.49058592
-4.9886804 5.6310558 -0.83852381
-5.0472226 5.6971369 -0.42513791
-5.0555544 5.7065411 0
-5.8138843 6.5625186 0.48971537
-5.0109363 5.6424274 -0.84111816
-5.0592809 5.6968646 -0.42557347
-5.0607195 5.6984844 0
-5.8131838 6.5457764 0.4889898
-5.0229049 5.6421585 -0.84198225
-5.0713458 5.6965714 -0.42600903
-5.0779872 5.7040319 0
-5.8124447 6.529038 0.4882637
-5.0211549 5.6333361 -0.84111816
-5.0765138 5.6954446 -0.42615405
-5.0762358 5.6951327 0
-5.8094726 6.517766 0.48768315
-5.0434661 5.6446218 -0.84371251
-5.0937762 5.7009287 -0.4270246
-5.0935144 5.7006354 0
-5.8104186 6.5029907 0.48710257
-5.0485592 5.6365991 -0.8434245
-5.1058636 5.7005782 -0.42746016
-5.1108203 5.7061119 0
-5.8182721 6.4959655 0.48710257
-5.0640044 5.6401157 -0.84486568
-5.1196918 5.7021384 -0.42804071
-5.1211853 5.7038016 0
-5.8070259 6.4676676 0.48550645
-5.0777369 5.6416826 -0.84601885
-5.1352682 5.7056031 -0.42876628
-5.1263342 5.6956768 0
-5.80093 6.4451952 0.48434535
-5.082819 5.6336246 -0.84573084
-5.1473818 5.705184 -0.42920181
-5.1454177 5.7030063 0
-5.8000121 6.4285369 0.48361978
-5.1034956 5.6428175 -0.84803611
-5.1525307 5.6970348 -0.42905682
-5.1557927 5.7006416 0
-5.7990623 6.41189 0.48289424
-5.112052 5.6385684 -0.84832519
-5.1628976 5.6946511 -0.42934683
-5.1661768 5.6982675 0
-5.7998242 6.3971782 0.48231366
-5.1292958 5.6438684 -0.85005444
-5.1785111 5.6980214 -0.4300724
-5.1800528 5.6997175 0
-5.7935691 6.3747816 0.48115256
-5.1395984 5.6414943 -0.85063154
-5.1941471 5.7013698 -0.4307985
-5.1939468 5.7011495 0
-5.7977643 6.3639312 0.48086199
-5.1586161 5.6486435 -0.85264879
-5.2027831 5.6970067 -0.43094349
-5.2043447 5.6987166 0
-5.7966895 6.3473296 0.48013642
-5.160203 5.6366887 -0.85178471
-5.2166815 5.6983824 -0.43152407
-5.2129827 5.6943417 0
-5.7938309 6.328825 0.47926587
-5.1792464 5.6437836 -0.85380197
-5.237618 5.7073903 -0.43268517
-5.2268977 5.6957088 0
-5.794446 6.3141618 0.47868532
-5.1948161 5.647037 -0.85524315
-5.2392311 5.6953187 -0.43224961
-5.2373033 5.693223 0
-5.7932768 6.2975955 0.47795975
-5.1928701 5.6312509 -0.85380197
-5.249629 5.692801 -0.43253961
-5.2529984 5.696455 0
-5.7973557 6.286767 0.47766921
-5.2119622 5.6382689 -0.85582024
-5.2653279 5.6959996 -0.43326572
-5.2598777 5.6901035 0
-5.7925992 6.2663989 0.4766531
-5.2240472 5.637661 -0.8566854
-5.2757354 5.6934414 -0.43355572
-5.2738247 5.6913795 0
-5.791338 6.249867 0.47592753
-5.2343726 5.6351309 -0.85726148
-5.2879181 5.6927762 -0.43399128
-5.2930908 5.6983452 0
-5.7935853 6.2371588 0.47549254
-5.2515016 5.6262431 -0.8578375
-5.310523 5.6894765 -0.43471685
-5.3086271 5.6874452 0
-5.7855864 6.1984401 0.4736053
-5.2653642 5.6274481 -0.85899067
-5.3227215 5.6887498 -0.43515241
-5.3208246 5.6867223 0
-5.7806497 6.1781683 0.47258973
-5.2880902 5.6380663 -0.86158609
-5.3278089 5.6804132 -0.43500686
-5.327692 5.6802888 0
-5.7845521 6.1673846 0.47229919
-4.1734638 4.43891 -0.67910618
-5.33289 5.6720805 -0.43486184
-5.3399014 5.6795373 0
-5.7973413 6.1660719 0.47273475
-4.1708245 4.4307361 -0.67824101
-5.3487849 5.6821036 -0.43587795
-5.3504672 5.6838903 0
-5.7921619 6.15311 0.47200918
-4.1744018 4.4238138 -0.677953
-4.20189 4.4529448 -0.3419776
-5.3626909 5.6831012 0
-5.801374 6.147995 0.4721542
-4.1601911 4.3980956 -0.6747815
-4.2072678 4.4478645 -0.3419776
-4.2053661 4.4458547 0
-5.8016562 6.1334295 0.47157362
-4.1222525 4.3474536 -0.99880242
-4.149487 4.3761754 -0.67218715
