# .PCD v0.7 - Point Cloud Data file format
VERSION 0.7
FIELDS x y z
SIZE 4 4 4
TYPE F F F
COUNT 1 1 1
WIDTH 1760
HEIGHT 1
VIEWPOINT 0 0 0 1 0 0 0
POINTS 1760
DATA ascii
8.0730019 -4.9136596 0.52788496
0 -0 -0
0 -0 -0
3.8565989 -2.3409503 -0.99942601
5.1038923 -3.0980556 -0.99537873
6.6454487 -4.0337782 -0.86648679
8.0968056 -4.9147496 -0.52905273
8.0677528 -4.8971148 0
8.0678291 -4.897161 0.52715939
0 -0 -0
3.0808399 -1.864975 -0.9936012
3.8550816 -2.3336594 -0.99830133
5.1142225 -3.0958757 -0.99666303
6.6503177 -4.0257454 -0.86648679
8.1005087 -4.9036131 -0.52890718
8.0714397 -4.8860164 0
8.0626278 -4.880682 0.52643383
0 -0 -0
0 -0 -0
3.8644264 -2.3329403 -0.99999052
5.1201549 -3.0910194 -0.99709058
6.6485324 -4.0136952 -0.86562163
8.1042061 -4.8924799 -0.52876222
8.0773382 -4.8762603 0
8.0573902 -4.8642178 0.52570772
0 -0 -0
0 -0 -0
3.865835 -2.3306053 -0.99999052
0 -0 -0
6.6487432 -4.0083437 -0.86533362
8.100482 -4.8835568 -0.52832663
8.0691404 -4.8646622 0
8.0647831 -4.8620348 0.52599829
0 -0 -0
0 -0 -0
3.8714559 -2.3212562 -0.99999052
5.1184626 -3.0689394 -0.99495113
6.6539693 -3.9896021 -0.86475652
8.0944395 -4.8532825 -0.52716607
8.0741749 -4.8411317 0
8.0609064 -4.8331766 0.52498215
0 -0 -0
0 -0 -0
3.8742578 -2.3165767 -0.99999052
5.1221671 -3.0627525 -0.99495113
6.6499057 -3.9762495 -0.86360335
8.1159029 -4.852829 -0.52818167
8.080018 -4.8313723 0
8.0689688 -4.8247652 0.52512717
0 -0 -0
3.8748655 -2.3105886 -0.99942601
5.1302695 -3.0591881 -0.99580628
6.654705 -3.9682117 -0.86360335
8.112834 -4.8376961 -0.52760106
8.0746765 -4.8149424 0
8.0591764 -4.8056998 0.52411163
0 -0 -0
3.095392 -1.8407209 -0.9936012
3.8798449 -2.3072073 -0.99999052
5.1361752 -3.0543027 -0.99623549
6.6528325 -3.9562056 -0.86273926
8.1008062 -4.8172646 -0.52643996
8.09167 -4.811832 0
8.0716801 -4.7999444 0.52454716
0 -0 -0
3.0911467 -1.8331439 -0.99152672
3.8826299 -2.3025177 -0.99999052
5.1420679 -3.0494027 -0.99666303
6.6576076 -3.948164 -0.86273926
8.1021547 -4.8048244 -0.52614999
8.0818071 -4.7927575 0
8.072999 -4.7875342 0.52425659
0 -0 -0
5.1501637 -3.0457983 -0.99751812
6.660141 -3.9387963 -0.86245018
8.1124239 -4.7976742 -0.52643996
8.0875921 -4.7829885 0
8.0743093 -4.7751331 0.52396661
0 -0 -0
5.1516309 -3.0382702 -0.99709058
6.6493063 -3.9215522 -0.86043292
8.1070261 -4.7812696 -0.5257144
8.0911264 -4.7718921 0
8.075593 -4.7627311 0.52367604
0 -0 -0
5.1597281 -3.0346487 -0.99794734
6.6562672 -3.914825 -0.86072093
8.1127977 -4.7714701 -0.5257144
8.0879135 -4.7568345 0
8.0768661 -4.7503376 0.52338606
0 -0 -0
5.1611705 -3.0271094 -0.99751812
6.6699171 -3.9120135 -0.8618741
8.105113 -4.7537789 -0.52484387
8.0824327 -4.7404766 0
8.0691481 -4.7326846 0.52251494
0 -0 -0
5.1670465 -3.0221705 -0.99794734
0 -0 -0
8.1108513 -4.7439818 -0.52484387
8.0836658 -4.7280817 0
8.0748606 -4.7229314 0.52251494
0 -0 -0
5.1729097 -3.0172172 -0.99837488
0 -0 -0
8.0963783 -4.7223969 -0.52353776
8.0848732 -4.7156858 0
8.0828037 -4.714479 0.52265996
0 -0 -0
5.1832108 -3.014838 -0.99965918
6.6751108 -3.8826082 -0.86072093
8.1020784 -4.7126107 -0.52353776
8.0883179 -4.7046061 0
8.0772657 -4.6981778 0.52193439
0 -0 -0
5.1868501 -3.0085728 -0.99965918
6.6842675 -3.8771327 -0.86129701
8.110013 -4.7041197 -0.52368271
8.1007519 -4.6987481 0
8.0806913 -4.6871123 0.52178937
0 -0 -0
5.1860328 -2.9997301 -0.99880242
6.6755185 -3.8612854 -0.85956776
8.102191 -4.6865082 -0.52281165
8.0861416 -4.6772251 0
8.0751047 -4.6708407 0.5210638
0 -0 -0
6.6644936 -3.8441689 -0.85754949
8.1101046 -4.6780171 -0.52295721
8.0940485 -4.6687555 0
8.0762367 -4.6584811 0.52077323
0 -0 -0
6.6691337 -3.8361135 -0.85754949
8.1112423 -4.6656203 -0.52266663
8.0906601 -4.6537814 0
8.0751085 -4.6448359 0.52033824
0 -0 -0
3.1413324 -1.8018595 -0.99913853
6.669281 -3.8254809 -0.85697341
8.1168737 -4.6558161 -0.52266663
8.0895023 -4.6401162 0
8.0716991 -4.6299038 0.51975769
0 -0 -0
6.669404 -3.8148487 -0.85639632
8.1224937 -4.6460052 -0.52266663
8.0996256 -4.632925 0
8.0817947 -4.6227255 0.52004772
0 -0 -0
6.6717076 -3.8108187 -0.85639632
8.123045 -4.6398096 -0.52252162
8.0933838 -4.6228676 0
8.0778141 -4.6139741 0.51961213
0 -0 -0
6.6763072 -3.8027544 -0.85639632
8.1196136 -4.6248469 -0.52194107
8.0876503 -4.6066408 0
8.0811281 -4.6029258 0.51946712
0 -0 -0
6.6696544 -3.7882988 -0.85495514
8.1297197 -4.6176014 -0.52223164
8.0886898 -4.5942969 0
8.0866842 -4.5931578 0.51946712
0 -0 -0
6.6719785 -3.7789636 -0.85466707
8.1307669 -4.6052113 -0.52194107
8.0942345 -4.5845199 0
8.0786667 -4.5757022 0.51859659
0 -0 -0
6.6765399 -3.7708991 -0.85466707
8.1363249 -4.5953836 -0.52194107
8.092968 -4.5708957 0
8.0887098 -4.5684905 0.51888657
0 -0 -0
6.6743283 -3.7590199 -0.85380197
8.1350775 -4.5817223 -0.52150553
8.09622 -4.5598373 0
8.0874386 -4.5548921 0.51845157
0 -0 -0
6.6743593 -3.7484219 -0.85322589
8.1315451 -4.5667996 -0.52092493
8.1085329 -4.5538759 0
8.0838737 -4.5400267 0.51787102
0 -0 -0
3.1552989 -1.7670524 -0.99775553
6.6833925 -3.7428799 -0.85380197
8.1325274 -4.5544343 -0.52063495
8.1026783 -4.5377178 0
8.08708 -4.5289826 0.51772547
0 -0 -0
6.6788774 -3.7297571 -0.85264879
8.1244173 -4.5370054 -0.51976442
8.0990667 -4.5228486 0
8.0880136 -4.5166759 0.51743549
0 -0 -0
6.685637 -3.7229414 -0.8529368
8.134429 -4.5297112 -0.5200544
8.1158924 -4.5193887 0
8.091197 -4.5056372 0.51729047
0 -0 -0
6.6765671 -3.707329 -0.85120761
8.123992 -4.5110478 -0.51903826
8.1190739 -4.5083165 0
8.0852795 -4.4895511 0.51656491
0 -0 -0
6.6878324 -3.7030189 -0.85207272
8.1339874 -4.5037479 -0.51932883
8.1085758 -4.4896774 0
8.0952396 -4.4822936 0.51685494
0 -0 -0
6.6877689 -3.6924326 -0.85149562
8.1348696 -4.4914021 -0.51903826
8.0980444 -4.4710698 0
8.0938234 -4.4687395 0.51641935
0 -0 -0
6.6899619 -3.6831028 -0.85120761
8.1311855 -4.4765568 -0.51845771
8.1034412 -4.4612818 0
8.0901117 -4.4539437 0.5158388
0 -0 -0
6.683073 -3.6687944 -0.84976637
8.1320381 -4.4642301 -0.51816773
8.1065464 -4.4502358 0
8.106884 -4.4504209 0.51656491
0 -0 -0
6.6897678 -3.6619573 -0.85005444
8.1419802 -4.4568934 -0.51845771
8.1050673 -4.4366875 0
8.1054153 -4.4368777 0.51612937
0 -0 -0
6.6919198 -3.6526334 -0.84976637
8.138236 -4.4420729 -0.51787716
8.114995 -4.4293871 0
8.1016474 -4.422101 0.51554883
0 -0 -0
6.6872411 -3.6395991 -0.8486132
8.1367569 -4.4285131 -0.51744217
8.1203413 -4.4195786 0
8.1206741 -4.4197593 0.51641935
0 -0 -0
6.689363 -3.6302836 -0.84832519
8.1512375 -4.423636 -0.51802272
8.1279602 -4.4110036 0
8.1282988 -4.4111867 0.51656491
0 -0 -0
6.6960168 -3.6234279 -0.8486132
8.1542845 -4.4125433 -0.51787716
8.1424398 -4.4061337 0
8.1221895 -4.3951755 0.5158388
0 -0 -0
6.6891026 -3.6144636 -0.84746009
8.1729536 -4.4162641 -0.5188933
8.1382294 -4.3975005 0
8.1179924 -4.3865652 0.51540381
0 -0 -0
6.6889067 -3.6039224 -0.84688294
8.1622686 -4.3977566 -0.51787716
8.1435366 -4.3876638 0
8.1118422 -4.3705869 0.5146777
0 -0 -0
6.6864276 -3.5921688 -0.84601885
8.1584291 -4.3829765 -0.51729715
8.1396627 -4.3728943 0
8.1033869 -4.353406 0.51380712
0 -0 -0
6.6907635 -3.5840869 -0.84601885
8.1430988 -4.3620691 -0.5159905
8.115119 -4.3470817 0
8.1178036 -4.3485193 0.51438767
0 -0 -0
6.6905217 -3.5735605 -0.84544176
8.1391954 -4.3473296 -0.51540995
8.1111832 -4.3323684 0
8.113884 -4.3338108 0.51380712
0 -0 -0
6.6948347 -3.5654736 -0.84544176
8.1513243 -4.3411574 -0.51584548
8.1233063 -4.3262353 0
8.1099405 -4.3191175 0.51322657
0 -0 -0
6.6991382 -3.5573816 -0.84544176
8.1542711 -4.3300877 -0.51570052
8.1170368 -4.3103151 0
8.1036816 -4.3032231 0.512501
0 -0 -0
6.6988645 -3.5468662 -0.84486568
8.1503115 -4.3153682 -0.51511991
8.1176348 -4.2980661 0
8.1111689 -4.2946429 0.51264602
0 -0 -0
6.7077155 -3.541182 -0.84544176
8.1509199 -4.3030882 -0.5148294
8.1205225 -4.2870407 0
8.1140566 -4.283627 0.512501
0 -0 -0
6.6959743 -3.5246446 -0.8434245
8.1492224 -4.289609 -0.5143944
8.1164856 -4.2723765 0
8.114624 -4.2713966 0.51221043
0 -0 -0
6.6979318 -3.5153458 -0.84313542
8.1521006 -4.2785525 -0.51424938
8.1170378 -4.26015 0
8.1105757 -4.2567582 0.51162988
0 -0 -0
6.6953058 -3.5036559 -0.84227133
8.1618643 -4.2711062 -0.51453936
8.131402 -4.2551656 0
8.1111126 -4.2445478 0.5113399
0 -0 -0
6.6972351 -3.4943633 -0.84198225
8.1578045 -4.2564335 -0.51395881
8.1203842 -4.2369089 0
8.1185369 -4.2359452 0.51148492
0 -0 -0
6.7014523 -3.4862685 -0.84198225
8.1468029 -4.2381773 -0.51294267
8.1254978 -4.2270942 0
8.1213465 -4.2249341 0.5113399
0 -0 -0
6.7033663 -3.4769788 -0.84169424
8.1519184 -4.2283306 -0.51294267
8.1306 -4.2172728 0
8.1218367 -4.2127275 0.51104987
0 -0 -0
6.705267 -3.4676895 -0.84140623
8.1547155 -4.2172852 -0.51279771
8.1195059 -4.1990757 0
8.1153746 -4.196939 0.51032376
0 -0 -0
6.7048588 -3.4572165 -0.84083015
8.1551905 -4.205049 -0.51250768
8.1315155 -4.1928411 0
8.1158247 -4.184751 0.51003379
0 -0 -0
6.7044263 -3.4467452 -0.84025306
8.1625748 -4.1963792 -0.5126527
8.1365757 -4.183013 0
8.1139402 -4.1713762 0.5095982
0 -0 -0
6.710886 -3.4398203 -0.84054106
8.1537695 -4.1794038 -0.51178217
8.1393099 -4.1719923 0
8.1236038 -4.1639419 0.50988877
0 -0 -0
6.7058249 -3.4270008 -0.83938789
8.1611252 -4.1707296 -0.51192713
8.1350756 -4.1574173 0
8.1263094 -4.1529369 0.50974321
0 -0 -0
6.7053556 -3.4165494 -0.83881181
8.1592102 -4.1573253 -0.5114916
8.1354513 -4.1452193 0
8.131321 -4.143115 0.50974321
0 -0 -0
6.6981978 -3.4078064 -0.8376587
8.1617212 -4.1523952 -0.5114916
8.1402798 -4.1414871 0
8.1222448 -4.1323113 0.50901765
0 -0 -0
6.7092328 -3.4032218 -0.83852381
8.1644173 -4.141356 -0.51134658
8.1267099 -4.1222296 0
8.1202784 -4.1189666 0.50858212
0 -0 -0
6.7133398 -3.3951125 -0.83852381
8.16014 -4.1267972 -0.51076603
8.1340055 -4.1135802 0
8.127574 -4.1103282 0.50872767
0 -0 -0
6.7105064 -3.3835037 -0.8376587
8.1697559 -4.1192718 -0.51105601
8.1412916 -4.1049194 0
8.130208 -4.0993314 0.50858212
0 -0 -0
6.7117243 -3.3637993 -0.83679354
8.1634331 -4.0913701 -0.51004046
8.1372328 -4.078239 0
8.1331282 -4.0761824 0.50814712
0 -0 -0
6.7134724 -3.354532 -0.83650553
8.1637173 -4.0791783 -0.50974989
8.1374941 -4.0660753 0
8.1217747 -4.0582209 0.50713098
0 -0 -0
6.7175207 -3.3464177 -0.83650553
8.1686401 -4.0693111 -0.50974989
8.1424007 -4.0562396 0
8.1266718 -4.0484042 0.50713098
0 -0 -0
6.7261882 -3.3405972 -0.83708155
8.1665764 -4.0559735 -0.50931489
8.1333151 -4.0394545 0
8.1269083 -4.0362725 0.506841
0 -0 -0
6.7209568 -3.3278811 -0.83592945
8.1714706 -4.046103 -0.50931489
8.1381903 -4.029624 0
8.1457462 -4.0333652 0.50771153
0 -0 -0
6.704093 -3.3094501 -0.83333403
8.171689 -4.0339236 -0.50902438
8.1547194 -4.0255466 0
8.1366386 -4.0166211 0.506841
0 -0 -0
6.7243338 -3.3093431 -0.83535236
8.1765575 -4.0240469 -0.50902438
8.1455717 -4.0087976 0
8.143815 -4.0079327 0.50698596
0 -0 -0
6.7236876 -3.2989392 -0.83477628
8.1744137 -4.0107293 -0.50858879
8.1363869 -3.9920719 0
8.1439819 -3.9957983 0.50669545
0 -0 -0
6.7276692 -3.2908125 -0.83477628
8.1909313 -4.0065613 -0.50931489
8.1482201 -3.9856694 0
8.1418085 -3.982533 0.50626045
0 -0 -0
6.7200098 -3.2770095 -0.83333403
8.1770821 -3.9875498 -0.5081538
8.1483469 -3.9735374 0
8.1419392 -3.9704123 0.50596988
0 -0 -0
6.7239647 -3.2688873 -0.83333403
8.1888981 -3.9810715 -0.50858879
8.1554899 -3.9648299 0
8.1373825 -3.956027 0.50538933
0 -0 -0
6.723259 -3.2585063 -0.83275801
8.1749964 -3.9621077 -0.50742769
8.1555862 -3.9527004 0
8.1374846 -3.9439273 0.5050993
0 -0 -0
6.7318444 -3.2526283 -0.83333403
8.1797771 -3.9522269 -0.50742769
8.1603565 -3.9428432 0
8.1399069 -3.9329624 0.50495434
0 -0 -0
6.7241206 -3.2388809 -0.83189285
8.1751833 -3.93783 -0.50684714
8.16043 -3.9307234 0
8.1376276 -3.9197402 0.50451875
0 -0 -0
6.7210321 -3.2273939 -0.83102769
8.1752548 -3.9257014 -0.50655711
8.1604767 -3.9186051 0
8.1446981 -3.9110284 0.50466377
0 -0 -0
6.715991 -3.2199812 -0.8301636
8.1729431 -3.9185171 -0.50626713
8.1581535 -3.9114261 0
8.1376867 -3.9016135 0.50408322
0 -0 -0
6.7245393 -3.2140925 -0.83073968
8.1846991 -3.9119971 -0.50670213
8.1628742 -3.9015656 0
8.1400537 -3.8906584 0.5039382
0 -0 -0
6.7190781 -3.2015147 -0.82958651
8.1870766 -3.9009881 -0.50655711
8.1581841 -3.8872218 0
8.1400528 -3.8785822 0.50364763
0 -0 -0
6.7322869 -3.1978326 -0.83073968
8.1870937 -3.8888652 -0.50626713
8.1534719 -3.8728948 0
8.1423883 -3.86763 0.50350267
0 -0 -0
6.736146 -3.1896956 -0.83073968
8.1847391 -3.8756325 -0.50583154
8.1581459 -3.8630402 0
8.1423635 -3.8555667 0.50321263
0 -0 -0
6.723629 -3.1738286 -0.82872242
8.1894159 -3.8657401 -0.50583154
8.1651592 -3.8542895 0
8.156415 -3.8501623 0.50379318
0 -0 -0
6.7344732 -3.1690025 -0.82958651
8.1917324 -3.8547366 -0.50568658
8.1580381 -3.8388815 0
8.1516571 -3.8358786 0.50321263
0 -0 -0
6.7336187 -3.1586683 -0.82901043
8.1916742 -3.8426266 -0.50539601
8.1556005 -3.8257043 0
8.1539354 -3.8249235 0.50306761
0 -0 -0
6.7374306 -3.1505296 -0.82901043
8.196312 -3.8327258 -0.50539601
8.1672916 -3.8191555 0
8.160903 -3.8161678 0.50321263
0 -0 -0
6.7529516 -3.1478493 -0.83045167
8.2009373 -3.8228192 -0.50539601
8.1695442 -3.8081856 0
8.1560869 -3.801913 0.50263208
0 -0 -0
6.742681 -3.1331499 -0.82872242
8.2079039 -3.8140013 -0.50554103
8.171772 -3.7972116 0
8.1536036 -3.788769 0.50219655
0 -0 -0
6.7488065 -3.1260865 -0.82901043
8.2077961 -3.8018987 -0.50525099
8.1716366 -3.7851493 0
8.1511002 -3.7756369 0.50176096
0 -0 -0
6.743186 -3.1135924 -0.82785732
8.2076607 -3.7897975 -0.50496042
8.171483 -3.7730927 0
8.1532993 -3.7646968 0.50161594
0 -0 -0
6.7422395 -3.1032774 -0.82728016
8.1980762 -3.773361 -0.50408989
8.1618471 -3.7566855 0
8.1531258 -3.7526717 0.50132596
0 -0 -0
6.7577453 -3.1005244 -0.82872242
8.193182 -3.7591181 -0.50350934
8.1711149 -3.7489934 0
8.1552858 -3.7417307 0.50118041
0 -0 -0
6.7450194 -3.0848255 -0.82670414
8.192997 -3.747056 -0.50321931
8.1709013 -3.7369506 0
8.1574402 -3.7307942 0.50103539
0 -0 -0
6.7416792 -3.0734534 -0.82583898
8.1927853 -3.7349958 -0.50292879
8.1706791 -3.7249179 0
8.1548471 -3.7177002 0.50059986
0 -0 -0
6.7524548 -3.0685165 -0.82670414
8.1972923 -3.7250938 -0.50292879
8.1680641 -3.7118113 0
8.1593332 -3.707844 0.50059986
0 -0 -0
6.7585111 -3.0614214 -0.82699215
8.1970587 -3.7130439 -0.50263876
8.1725426 -3.7019391 0
8.1567135 -3.6947689 0.50016487
0 -0 -0
6.7527761 -3.0489953 -0.82583898
8.2039051 -3.704205 -0.50278378
8.1698923 -3.6888475 0
8.1564312 -3.6827698 0.49987429
0 -0 -0
6.7446647 -3.035527 -0.8243978
8.206007 -3.693224 -0.50263876
8.1719723 -3.677906 0
8.1608744 -3.6729116 0.49987429
0 -0 -0
6.7441401 -3.0303926 -0.82410973
8.2011242 -3.6850696 -0.50220323
8.1813164 -3.6761694 0
8.1630926 -3.6679804 0.49987429
0 -0 -0
6.7430711 -3.0201249 -0.82353264
8.2079401 -3.6762187 -0.50234824
8.1643782 -3.656708 0
8.1627798 -3.655992 0.49958429
0 -0 -0
6.7656102 -3.0204103 -0.82583898
8.2052555 -3.6631193 -0.50191265
8.1664076 -3.6457763 0
8.1671915 -3.6461263 0.49958429
0 -0 -0
6.7574415 -3.0069764 -0.8243978
8.2001801 -3.6489766 -0.5013321
8.1755667 -3.6380243 0
8.1668386 -3.6341403 0.49929374
0 -0 -0
6.7421551 -2.9904196 -0.82209146
8.2140837 -3.6432798 -0.50191265
8.1751938 -3.6260307 0
8.1664782 -3.6221645 0.49900374
0 -0 -0
6.7623253 -2.9895928 -0.82410973
8.2137318 -3.6312528 -0.50162268
8.1748133 -3.6140473 0
8.166091 -3.6101909 0.49871317
0 -0 -0
6.7706618 -2.9835036 -0.82468581
8.2157373 -3.6202786 -0.50147766
8.1815538 -3.6052155 0
8.1704473 -3.6003213 0.49871317
0 -0 -0
6.7647891 -2.9711599 -0.82353264
8.2082129 -3.6051252 -0.50075209
8.1811428 -3.593236 0
8.158145 -3.5831349 0.49769762
0 -0 -0
6.7565298 -2.9577985 -0.82209146
8.207798 -3.5931184 -0.50046152
8.1854792 -3.583348 0
8.1743679 -3.5784838 0.49842319
0 -0 -0
6.7719498 -2.9548032 -0.82353264
8.209754 -3.5821602 -0.50031656
8.1802616 -3.5692916 0
8.1691589 -3.5644474 0.49784261
0 -0 -0
6.7541704 -2.937336 -0.82093829
8.204545 -3.5680926 -0.49973598
8.1893368 -3.5614786 0
8.1710796 -3.5535388 0.49769762
0 -0 -0
6.7648363 -2.9322596 -0.82180345
8.2136135 -3.5602412 -0.50002599
8.184083 -3.5474408 0
8.1682129 -3.5405617 0.49726206
0 -0 -0
6.7731185 -2.9261332 -0.82237947
8.2107601 -3.5472255 -0.49959099
8.1907501 -3.5385804 0
8.1772604 -3.5327525 0.4975526
0 -0 -0
6.7600269 -2.9107895 -0.82036221
8.2126474 -3.5362711 -0.49944544
8.1830702 -3.5235357 0
8.1695833 -3.5177281 0.4968265
0 -0 -0
6.7659135 -2.9036384 -0.82065028
8.2097578 -3.5232739 -0.49901041
8.1921091 -3.5157001 0
8.1905451 -3.5150285 0.49784261
0 -0 -0
6.7599049 -2.8913922 -0.81949711
8.1996698 -3.5072181 -0.49813932
8.196352 -3.5057991 0
8.1685038 -3.4938877 0.49624595
0 -0 -0
6.7729106 -2.8872793 -0.82065028
8.1584921 -3.4779501 -0.49538207
8.1910057 -3.4918106 0
8.1751165 -3.4850371 0.49639151
0 -0 -0
6.7763944 -2.8790934 -0.82065028
7.8828897 -3.349211 -0.47840145
8.1928253 -3.4808941 0
8.1864891 -3.4782019 0.4968265
0 -0 -0
6.7798686 -2.8709035 -0.82065028
7.7242312 -3.2707894 -0.46853253
8.19942 -3.4720058 0
8.1859055 -3.4662831 0.49653649
0 -0 -0
6.7857132 -2.8637137 -0.82093829
7.6826987 -3.2422607 -0.46577531
8.1796274 -3.4519751 0
8.1876955 -3.4553802 0.49639151
0 -0 -0
6.7826796 -2.8576071 -0.82036221
7.6750779 -3.2335832 -0.46519473
7.5653782 -3.1873658 0
8.192174 -3.4514408 0.49653649
0 -0 -0
0 -0 -0
7.6645999 -3.2182691 -0.46432364
7.576416 -3.1812418 0
8.1843615 -3.4365106 0.49581096
0 -0 -0
6.7680936 -2.8322227 -0.81776786
7.6445174 -3.1989768 -0.46287251
7.5946636 -3.1781147 0
8.1932974 -3.4286232 0.49610093
0 -0 -0
6.7715106 -2.8240426 -0.81776786
7.6435761 -3.1877353 -0.46258196
7.6008978 -3.1699364 0
8.1830492 -3.4127216 0.49523038
2.7731199 -1.1525915 -0.9902181
6.7701368 -2.8138711 -0.81719077
7.6450248 -3.177501 -0.46243694
7.6191368 -3.1667411 0
8.1919613 -3.404824 0.49552038
2.8019121 -1.1605899 -0.99999768
6.7687573 -2.8037112 -0.81661469
7.636858 -3.16329 -0.46171141
7.6277714 -3.1595263 0
8.1864672 -3.3909457 0.49493983
0 -0 -0
6.77214 -2.7955303 -0.81661469
7.6406746 -3.1540601 -0.46171141
7.6363897 -3.1522915 0
8.1953669 -3.3830364 0.49523038
0 -0 -0
6.7716942 -2.7762122 -0.81574959
7.6362553 -3.1306589 -0.46098584
7.6536174 -3.1377769 0
8.1890879 -3.3573055 0.49435928
6.7726517 -2.7670505 -0.81546152
7.6400328 -3.1214297 -0.46098584
7.6622262 -3.1304972 0
8.1979542 -3.3493755 0.49464983
6.77599 -2.7588651 -0.81546152
7.6365767 -3.1092556 -0.46055028
7.6684113 -3.1222172 0
8.1995907 -3.3384886 0.49450484
6.7769151 -2.7497003 -0.81517243
7.6306968 -3.096118 -0.45996973
7.6577134 -3.10708 0
8.1987991 -3.3266227 0.49421427
6.7778373 -2.7405412 -0.81488442
7.6296186 -3.0849495 -0.45967972
7.6638727 -3.0987995 0
8.1955833 -3.3137906 0.49377871
6.7835402 -2.7333152 -0.81517243
7.6285157 -3.0737841 -0.45938915
7.6676111 -3.0895369 0
8.1947651 -3.301945 0.4934887
6.7796445 -2.7222281 -0.81430835
7.6274061 -3.0626297 -0.45909917
7.6616783 -3.076391 0
8.205986 -3.2949464 0.49392426
6.7805295 -2.7130744 -0.81402034
7.6383319 -3.0563045 -0.45953417
7.6388092 -3.0564952 0
8.1761808 -3.2715125 0.49189204
6.7862029 -2.7058365 -0.81430835
7.6516738 -3.0509224 -0.46011472
7.6279969 -3.0414815 0
8.1511641 -3.2500823 0.49015036
6.7846556 -2.6957228 -0.81373125
7.6481171 -3.0387988 -0.45967972
7.6171498 -3.0264947 0
7.918447 -3.146208 0.47592753
6.7927222 -2.689429 -0.81430835
7.6807661 -3.0410304 -0.46142083
7.6159663 -3.0153744 0
7.6951551 -3.0467274 0.46228525
6.7815261 -2.6755221 -0.81257808
7.7086105 -3.0412855 -0.46287251
7.6050839 -3.0004411 0
7.6601567 -3.0221689 0.45996302
6.7943826 -2.6711113 -0.81373125
7.731626 -3.0395746 -0.46403363
7.6087036 -2.9912496 0
7.6396246 -3.0034056 0.45851192
6.7863646 -2.6632264 -0.81257808
7.7624874 -3.046294 -0.46577531
7.6008191 -2.9828494 0
7.6293459 -2.9940443 0.45778635
6.7919931 -2.6559691 -0.81286716
7.8073001 -3.052999 -0.46824253
7.6019869 -2.9727125 0
7.618433 -2.9791436 0.45691523
6.7831407 -2.6430624 -0.81142491
7.8182402 -3.0463908 -0.46867752
7.6031504 -2.9625807 0
7.6026583 -2.962389 0.45575413
6.7911563 -2.6367385 -0.81200206
7.8267646 -3.0388246 -0.46896809
7.6018772 -2.9515097 0
7.5941229 -2.948499 0.45502856
6.7943373 -2.6285307 -0.81200206
7.8134642 -3.0228014 -0.46795198
7.6005793 -2.9404423 0
7.6001015 -2.9402575 0.45517355
6.7902656 -2.6175275 -0.8111369
7.809835 -3.0105534 -0.46751642
7.6041265 -2.9312563 0
7.5769854 -2.920794 0.45357746
6.8030815 -2.6130304 -0.81229007
7.8110437 -3.0001838 -0.4673714
7.6100898 -2.9229982 0
7.5780859 -2.9107058 0.45343244
6.8014073 -2.6029611 -0.81171399
7.7928243 -2.9823854 -0.46606529
7.613616 -2.913801 0
7.5743146 -2.8987598 0.45299688
6.7997093 -2.5928962 -0.8111369
7.7745733 -2.9646356 -0.46475917
7.6219993 -2.9064555 0
7.5875235 -2.8933089 0.45357746
6.8028374 -2.5846782 -0.8111369
7.7611442 -2.9487784 -0.46374306
7.6279364 -2.8981671 0
7.5837245 -2.8813691 0.4531419
6.8083725 -2.5773711 -0.81142491
7.754981 -2.9357185 -0.46316251
7.6338639 -2.8898687 0
7.5993485 -2.8768024 0.45386744
6.7969656 -2.5636678 -0.80969572
7.751236 -2.9235976 -0.46272752
7.6349177 -2.879725 0
7.6101155 -2.8703699 0.454303
2.8389227 -1.0668634 -0.99999768
6.7976398 -2.554544 -0.80940765
7.7450333 -2.9105732 -0.46214694
7.6481361 -2.8741596 0
7.6111479 -2.8602593 0.45415801
6.8031416 -2.5472345 -0.80969572
7.7315078 -2.894834 -0.46113083
7.6613526 -2.8685665 0
7.6340661 -2.8583498 0.45531914
6.8110561 -2.5408187 -0.81027174
7.7252617 -2.8818569 -0.46055028
7.6745667 -2.8629456 0
7.6521173 -2.8545709 0.45618969
0 -0 -0
6.7995791 -2.5271823 -0.80854255
7.7214289 -2.8698039 -0.46011472
7.6926522 -2.8591084 0
7.675046 -2.8525648 0.45735079
2.8417304 -1.0522724 -0.99918354
6.7977815 -2.51717 -0.80796647
7.7322035 -2.8631797 -0.46055028
7.7009873 -2.8516204 0
7.7174754 -2.8577259 0.45967302
6.8250794 -2.5179048 -0.81084889
7.7575955 -2.8619282 -0.4618564
7.7117543 -2.8450165 0
7.7550478 -2.8609881 0.4617047
6.823257 -2.50787 -0.81027174
7.7708039 -2.8561382 -0.46243694
7.7249575 -2.8392875 0
7.9194636 -2.9107778 0.47128361
6.8141408 -2.4951775 -0.80883056
7.7791338 -2.8485353 -0.46272752
7.7479239 -2.8371067 0
8.1986752 -3.0021613 0.48768315
6.8195877 -2.4878311 -0.80911964
7.7874479 -2.8409131 -0.46301752
7.7855792 -2.8402314 0
8.214509 -2.9967079 0.48840925
0 -0 -0
6.813796 -2.481055 -0.80825448
7.7916021 -2.837096 -0.46316251
7.8044047 -2.8417578 0
8.2065516 -2.9881883 0.4878287
6.8192177 -2.4737012 -0.80854255
7.7901435 -2.8259087 -0.46287251
7.8225164 -2.8376522 0
8.2101564 -2.9782701 0.4878287
6.8076115 -2.460187 -0.8068133
7.791111 -2.8156114 -0.46272752
7.8406205 -2.8335035 0
8.2137489 -2.9683475 0.4878287
6.8057075 -2.4502053 -0.80623621
7.7896132 -2.8044333 -0.46243694
7.8489404 -2.8257923 0
8.2002134 -2.9522583 0.48681256
6.815969 -2.4446008 -0.80710137
7.8076763 -2.8002841 -0.46330807
7.8498921 -2.8154252 0
8.2160015 -2.9467332 0.48753813
6.8213515 -2.4372325 -0.80738938
7.8208323 -2.7943418 -0.46388808
7.8557463 -2.8068163 0
8.207324 -2.9324331 0.48681256
6.8194227 -2.4272556 -0.8068133
7.85848 -2.7970901 -0.4659203
7.8762875 -2.8034284 0
8.2157526 -2.9242549 0.48710257
6.8174701 -2.4172835 -0.80623621
7.9157286 -2.806695 -0.46911308
7.9017429 -2.8017361 0
8.2094927 -2.9108555 0.48652259
6.8179498 -2.4081836 -0.8059482
7.9779167 -2.817898 -0.47259644
7.9296665 -2.8008556 0
8.2227955 -2.9043922 0.48710257
6.8403735 -2.4068115 -0.80825448
8.020525 -2.822052 -0.4749181
7.9968691 -2.8137288 0
8.2165031 -2.8910079 0.48652259
6.8359513 -2.395977 -0.80738938
8.1072979 -2.8415797 -0.47985259
8.1623554 -2.8608768 0
8.2297897 -2.8845124 0.48710257
6.8266344 -2.3834534 -0.8059482
8.189229 -2.85919 -0.48449704
8.2198563 -2.8698833 0
8.2210054 -2.8702846 0.48637703
6.8417215 -2.3794501 -0.80738938
8.2393112 -2.8655112 -0.48725483
8.2331505 -2.8633687 0
8.2171116 -2.8577907 0.48594201
6.834816 -2.3677948 -0.80623621
8.2182102 -2.8470461 -0.48580316
8.2341385 -2.8525641 0
8.2254648 -2.8495593 0.48623201
6.8352294 -2.3586917 -0.8059482
8.246212 -2.8455918 -0.48725483
8.2425041 -2.8443122 0
8.2239943 -2.837925 0.48594201
6.8356304 -2.349591 -0.80566013
8.2619286 -2.839848 -0.4879804
8.2385492 -2.8318119 0
8.227417 -2.8279858 0.48594201
6.8409095 -2.3421667 -0.8059482
8.2284765 -2.8172371 -0.48580316
8.2419643 -2.8218551 0
8.233284 -2.8188832 0.48608702
6.8486257 -2.3355672 -0.80652422
8.2515488 -2.8140023 -0.48696426
8.2429075 -2.8110552 0
8.2391415 -2.8097708 0.48623201
6.8514428 -2.3272903 -0.80652422
8.2647848 -2.8073728 -0.48754483
8.2512217 -2.8027656 0
8.2203894 -2.7922926 0.4849259
6.8591547 -2.3206694 -0.80710137
8.2386341 -2.7873912 -0.48580316
8.2398157 -2.7877908 0
6.7666898 -2.2893858 0.3990078
6.8619537 -2.3123798 -0.80710137
8.2419968 -2.7774343 -0.48580316
8.2382507 -2.7761719 0
6.7546816 -2.2762306 0.39813724
6.8573842 -2.3016169 -0.80623621
8.2478075 -2.7682993 -0.48594815
8.2489929 -2.7686975 0
6.7229347 -2.2564902 0.39610499
6.8636832 -2.2991183 -0.8068133
8.2470169 -2.7624915 -0.48580316
8.2457342 -2.7620618 0
6.6651731 -2.2326236 0.3926222
6.8541818 -2.2867279 -0.80537105
8.2429514 -2.7500567 -0.4853676
8.2441235 -2.7504475 0
6.6161056 -2.2072997 0.38957444
6.8716717 -2.2833395 -0.80710137
8.2561321 -2.7433722 -0.48594815
8.2375612 -2.7372015 0
6.5990405 -2.1927488 0.38841331
6.8817945 -2.2774734 -0.80796647
8.2397156 -2.7268662 -0.48478758
8.2458086 -2.728883 0
6.589344 -2.1806893 0.38768721
6.8894496 -2.2707744 -0.80854255
8.2578068 -2.7217872 -0.48565814
8.2342653 -2.7140279 0
6.5796371 -2.1686594 0.38696164
6.8848133 -2.2600272 -0.80767739
8.2487478 -2.7077558 -0.4849326
8.2598 -2.7113838 0
8.2659178 -2.7133923 0.48594201
6.8801708 -2.2492976 -0.8068133
8.2520132 -2.6977868 -0.4849326
6.6849542 -2.1854765 0
8.2469549 -2.6961331 0.48463535
6.8782029 -2.2302704 -0.8059482
8.2733345 -2.6826444 -0.48580316
6.7124939 -2.1765389 0
8.2460384 -2.6737936 0.48420036
6.8759656 -2.2203667 -0.80537105
6.6718602 -2.1544576 -0.3916128
6.7151189 -2.1684265 0
6.6618552 -2.1512268 0.39102554
6.8761835 -2.2112658 -0.80508304
6.6868243 -2.1503711 -0.39233834
6.7177343 -2.160311 0
6.6520834 -2.139199 0.39029998
6.8911643 -2.2068992 -0.80652422
6.6943626 -2.1438732 -0.39262834
6.7203398 -2.1521924 0
6.6422925 -2.1271977 0.38957444
6.8913641 -2.1977856 -0.80623621
6.7291284 -2.1460457 -0.39451504
6.7254124 -2.1448607 0
6.6399021 -2.1175897 0.38928387
6.8249998 -2.1675391 -0.79816508
6.7564869 -2.1457801 -0.39596671
6.742877 -2.1414578 0
6.6300755 -2.1056335 0.3885583
6.7462354 -2.133554 -0.7886517
6.7838449 -2.1454484 -0.39741781
8.2739038 -2.6166921 0
6.622705 -2.0944865 0.38797775
6.7019324 -2.1106384 -0.78317392
6.7889085 -2.1380298 -0.3975628
6.6934261 -2.1079595 0
8.2683582 -2.6039526 0.48420036
6.6921401 -2.0986698 -0.78173274
6.7939734 -2.130605 -0.39770836
6.6785927 -2.0944211 0
8.2541409 -2.5885165 0.48318422
6.6897383 -2.0890417 -0.78115666
6.7965431 -2.1223941 -0.39770836
0 -0 0
8.2547846 -2.5777674 0.48303923
6.7046041 -2.084796 -0.78259784
6.7991023 -2.1141803 -0.39770836
6.6264744 -2.0605016 0
6.7444053 -2.0971723 0.3945089
6.729353 -2.0835776 -0.78519225
6.7991629 -2.1051927 -0.3975628
6.6165314 -2.0486453 0
6.7196279 -2.0805666 0.39291221
6.736804 -2.0769677 -0.78576827
6.7992206 -2.0962107 -0.39741781
6.6314344 -2.044482 0
6.722137 -2.0724456 0.39291221
6.7331181 -2.0713775 -0.78519225
6.748333 -2.0760584 -0.39437002
6.6650028 -2.0504227 0
6.7258687 -2.0691473 0.39305723
6.7380867 -2.0639973 -0.78548026
6.6738243 -2.0443125 -0.38987112
6.6898685 -2.049227 0
6.728364 -2.0610189 0.39305723
6.7603674 -2.0618906 -0.7877866
6.6688309 -2.0339723 -0.38943556
6.6973228 -2.0426621 0
6.7333326 -2.0536449 0.39320222
6.7801805 -2.0589821 -0.78980488
6.6787453 -2.0281785 -0.38987112
6.7022738 -2.0353236 0
6.7482481 -2.0492849 0.39392832
6.7876105 -2.0522838 -0.79038095
6.6961098 -2.0246179 -0.39074168
8.2765417 -2.5024731 0
6.7507191 -2.0411294 0.39392832
6.7900853 -2.0440807 -0.79038095
6.7284088 -2.0255139 -0.39248335
8.2546444 -2.4849703 0
6.7481995 -2.0314715 0.39363778
6.8024607 -2.0388451 -0.79153413
6.7258782 -2.0158918 -0.39219335
8.2576408 -2.4749942 0
6.7382064 -2.0195868 0.39291221
6.834661 -2.0394993 -0.79499364
0 -0 -0
8.2631168 -2.4657581 0
6.7356663 -2.009959 0.3926222
6.7800922 -2.014297 -0.78836262
6.6883879 -1.9870527 -0.38972613
8.2436399 -2.4491024 0
6.73809 -2.0018187 0.3926222
6.7056398 -1.9833636 -0.7794264
6.6882854 -1.9782305 -0.38958055
8.2465935 -2.4391396 0
6.7629275 -2.0003078 0.39392832
6.6807461 -1.9672252 -0.77625597
6.6881804 -1.9694142 -0.38943556
8.2645178 -2.4335856 0
6.7703199 -1.9936012 0.39421833
6.6781492 -1.9576948 -0.77567887
8.2688713 -2.4240139 -0.48130426
8.2624531 -2.4221323 0
6.8026462 -1.9941908 0.39596
6.6954026 -1.9539703 -0.77740806
8.2792797 -2.4162054 -0.48173982
8.2678699 -2.4128754 0
6.797565 -1.9837852 0.39552444
6.7052126 -1.9480443 -0.77827322
8.2747049 -2.4040241 -0.48130426
8.2607822 -2.3999791 0
6.8049526 -1.9770215 0.39581501
6.7224741 -1.9442539 -0.78000349
8.2776041 -2.3940239 -0.48130426
8.261179 -2.3892734 0
6.812324 -1.97024 0.39610499
6.7322679 -1.9382745 -0.78086758
8.2779961 -2.3833022 -0.48115924
8.2615614 -2.3785703 0
6.8271823 -1.9656011 0.39683056
6.7370987 -1.9308531 -0.78115666
8.2783651 -2.3725801 -0.48101369
8.2694283 -2.3700187 0
6.8470397 -1.9623623 0.39784667
6.779213 -1.934062 -0.78576827
8.2837315 -2.3632905 -0.48115924
8.2647848 -2.3578851 0
6.8618975 -1.9576513 0.39857224
6.8636498 -1.9491858 -0.79528165
8.2790794 -2.3511493 -0.48072368
8.2726297 -2.3493176 0
6.8842545 -1.9550374 0.39973336
6.9556022 -1.9662199 -0.80566013
8.286911 -2.3425562 -0.48101369
8.2654448 -2.3364882 0
8.299305 -2.3460598 0.48173311
0 -0 -0
6.9928255 -1.9676207 -0.80969572
8.2772312 -2.3290231 -0.48028812
8.2707653 -2.3272038 0
8.2746172 -2.3282874 0.48013642
7.0089493 -1.9675887 -0.81142491
8.2861443 -2.3261294 -0.48072368
8.2696667 -2.3215036 0
8.2710228 -2.3218846 0.47984645
7.0113215 -1.9591182 -0.81142491
8.2764387 -2.3126199 -0.47999814
8.267457 -2.3101103 0
8.2713127 -2.3111877 0.47970089
7.0062151 -1.9485679 -0.81056082
8.2892399 -2.3054028 -0.48057869
8.2677279 -2.2994196 0
8.2740993 -2.3011918 0.47970089
7.0035744 -1.9387194 -0.80998373
8.2870064 -2.2939973 -0.48028812
8.273016 -2.2901244 0
8.2843895 -2.2932727 0.48013642
7.0109038 -1.931631 -0.81056082
8.289772 -2.2839825 -0.48028812
8.2757769 -2.2801263 0
8.2696161 -2.278429 0.47912031
7.0132327 -1.9231582 -0.81056082
8.2850056 -2.2719021 -0.47985259
8.2760086 -2.2694349 0
8.2823868 -2.2711837 0.47970089
7.0005751 -1.9105954 -0.80883056
8.2827358 -2.2605226 -0.47956258
8.2762365 -2.2587488 0
8.2750978 -2.2584379 0.47912031
7.0103688 -1.9041698 -0.80969572
8.2829561 -2.2498324 -0.47941756
8.273942 -2.2473838 0
8.2753153 -2.247757 0.47897533
7.0101705 -1.8950235 -0.80940765
8.2806473 -2.2384648 -0.47912702
8.2867002 -2.2401013 0
8.2880592 -2.2404685 0.47955588
7.0174456 -1.8878943 -0.80998373
8.285862 -2.2291348 -0.47927257
8.2818594 -2.2280579 0
8.2857466 -2.2291036 0.47926587
0 -0 -0
7.0047355 -1.8754014 -0.80825448
8.296073 -2.2211354 -0.47970757
8.2820339 -2.2173767 0
8.2934494 -2.220433 0.47955588
7.0194902 -1.870265 -0.80969572
8.2887068 -2.2084336 -0.47912702
8.2721357 -2.2040184 0
8.2885914 -2.2084029 0.47912031
7.0117445 -1.8591304 -0.80854255
8.2863512 -2.1970861 -0.47883701
8.2823324 -2.1960206 0
8.2862349 -2.1970553 0.47883034
7.0139861 -1.8506567 -0.80854255
8.2889996 -2.187072 -0.47883701
8.2749138 -2.1833556 0
8.2913942 -2.1877038 0.47897533
7.0112185 -1.840868 -0.80796647
8.2966576 -2.1783733 -0.47912702
8.2876148 -2.1759992 0
8.2915201 -2.1770244 0.47883034
7.0084281 -1.831086 -0.80738938
8.291749 -2.1663783 -0.47869202
8.2776508 -2.1626947 0
8.2891216 -2.1656916 0.47854033
7.0081344 -1.8219662 -0.80710137
8.301898 -2.1583173 -0.47912702
8.2953653 -2.1566191 0
8.2866974 -2.1543655 0.47824976
7.0178452 -1.8154408 -0.80796647
8.2944374 -2.1456814 -0.47854647
8.2778187 -2.1413822 0
8.2993574 -2.1469541 0.47883034
7.0200338 -1.8069599 -0.80796647
8.291996 -2.1343634 -0.47825646
8.2929993 -2.1346216 0
8.2893658 -2.1336863 0.47810477
7.0272183 -1.7997583 -0.80854255
8.2995987 -2.1256306 -0.47854647
8.2804413 -2.1207242 0
8.2944527 -2.1243129 0.47824976
7.0268841 -1.790628 -0.80825448
8.3021603 -2.1156006 -0.47854647
8.2855263 -2.111362 0
8.2944975 -2.1136479 0.47810477
7.0404959 -1.7895676 -0.80969572
8.3009214 -2.1099451 -0.47840145
8.2918406 -2.1076369 0
8.3033304 -2.1105576 0.47854033
7.0351281 -1.7791562 -0.80883056
8.2984314 -2.0986404 -0.47811145
8.28934 -2.0963414 0
8.293272 -2.0973358 0.4778142
7.0372729 -1.7706543 -0.80883056
8.3059959 -2.0898788 -0.47840145
8.2994308 -2.088227 0
8.3058796 -2.0898495 0.47839478
7.0343938 -1.7608949 -0.80825448
8.2984324 -2.0773172 -0.4778209
8.2893276 -2.075038 0
8.3008442 -2.0779209 0.47795975
7.0490632 -1.7555186 -0.80969572
8.2984171 -2.0666614 -0.47767588
8.2918291 -2.0650203 0
8.2983007 -2.0666323 0.47766921
7.0486712 -1.7463784 -0.80940765
8.2983885 -2.0560083 -0.4775309
8.2993746 -2.0562527 0
8.3033123 -2.0572281 0.4778142
7.050776 -1.7378602 -0.80940765
8.3008671 -2.04598 -0.4775309
8.2967949 -2.0449762 0
8.308322 -2.0478175 0.47795975
7.0553803 -1.7299548 -0.80969572
8.2957592 -2.0340915 -0.47709534
8.2942095 -2.0337114 0
8.3006954 -2.0353017 0.4773792
7.0494862 -1.7104602 -0.80854255
8.3132744 -2.0171008 -0.4778209
8.2990999 -2.0136616 0
8.3081121 -2.0158484 0.47752422
7.051548 -1.701941 -0.80854255
8.3106585 -2.0058362 -0.4775309
8.3040543 -2.0042424 0
8.3054857 -2.0045877 0.47723365
7.0460515 -1.6916074 -0.80767739
8.3004456 -1.9927607 -0.47680533
8.3064699 -1.994207 0
8.3104353 -1.995159 0.4773792
7.0506134 -1.6836948 -0.80796647
8.2977877 -1.9815215 -0.47651479
8.306345 -1.983565 0
8.3077803 -1.9839078 0.47708866
7.047605 -1.6739777 -0.80738938
8.3128138 -1.9744956 -0.47724035
8.2960682 -1.970518 0
8.3025846 -1.9720659 0.4766531
7.0420685 -1.6636763 -0.80652422
8.3050785 -1.96206 -0.47665977
8.3035135 -1.9616903 0
8.3024349 -1.9614357 0.47650808
7.0541453 -1.6575326 -0.80767739
8.3099794 -1.9526197 -0.47680533
8.3008051 -1.9504639 0
8.3073263 -1.9519961 0.4766531
7.0536265 -1.6484199 -0.80738938
8.3275099 -1.946124 -0.47767588
8.3107615 -1.9422098 0
8.309679 -1.9419569 0.4766531
7.0530963 -1.6393107 -0.80710137
8.3096075 -1.9313543 -0.47651479
8.3029623 -1.9298098 0
8.3170862 -1.9330926 0.47694364
7.0500274 -1.629621 -0.80652422
8.3119354 -1.9213123 -0.47651479
8.3052883 -1.919776 0
8.309289 -1.9207008 0.47636309
0 -0 -0
7.051991 -1.6211013 -0.80652422
8.3117208 -1.910686 -0.4763698
8.3000002 -1.9079918 0
8.3192034 -1.9124062 0.47679865
7.0413399 -1.6096976 -0.80508304
8.3064213 -1.8989037 -0.47593424
8.3073683 -1.8991202 0
8.3113756 -1.9000363 0.4762181
7.0558882 -1.6040547 -0.80652422
8.3137827 -1.8900188 -0.47622478
8.3121929 -1.8896574 0
8.3136654 -1.8899922 0.4762181
7.0644259 -1.6015077 -0.80738938
8.3123808 -1.8844196 -0.47607923
8.3006449 -1.8817588 0
8.319869 -1.8861171 0.47650808
7.0890617 -1.5980891 -0.80998373
8.317194 -1.8749473 -0.47622478
8.3130674 -1.874017 0
8.3196096 -1.8754919 0.47636309
6.1193562 -1.3717204 -0.69899696
8.3067684 -1.8620528 -0.47549868
8.3102512 -1.8628335 0
8.3041191 -1.8614588 0.47534698
6.1462593 -1.3699534 -0.7018804
8.3166237 -1.8537108 -0.47593424
8.3201094 -1.8544878 0
8.3139725 -1.85312 0.47578254
0 -0 -0
6.1277084 -1.3580487 -0.69957411
8.3163233 -1.8430988 -0.47578922
8.3096428 -1.8416182 0
8.3263531 -1.8453218 0.47636309
0 -0 -0
6.1343918 -1.3517556 -0.70015013
8.3286943 -1.8352854 -0.4763698
8.3093224 -1.8310168 0
8.320962 -1.8335816 0.47592753
6.1385446 -1.3448955 -0.70043814
8.315671 -1.8218827 -0.47549868
8.3064394 -1.8198602 0
8.3181 -1.8224149 0.47563753
0 -0 -0
6.1300564 -1.3352753 -0.69928497
8.3204126 -1.8123882 -0.47564423
8.3264351 -1.8137 0
8.3126764 -1.810703 0.47520196
6.1342006 -1.3284163 -0.69957411
8.3276711 -1.8034322 -0.47593424
8.310813 -1.7997814 0
8.3224792 -1.802308 0.47563753
6.133265 -1.3204575 -0.69928497
8.3171453 -1.7906345 -0.47520867
8.3104401 -1.789191 0
8.3094053 -1.7889681 0.4747664
6.1475096 -1.3157538 -0.70072728
8.3193026 -1.7805836 -0.47520867
8.3125963 -1.7791481 0
8.3191853 -1.7805585 0.47520196
6.1490951 -1.3083248 -0.70072728
8.3189087 -1.7699897 -0.47506368
8.3096533 -1.7680205 0
8.3187923 -1.7699648 0.47505698
6.1557274 -1.3019633 -0.7013033
8.3312101 -1.7620875 -0.47564423
8.3245125 -1.7606708 0
8.3310938 -1.7620627 0.47563753
6.1547675 -1.2939926 -0.70101529
8.3307838 -1.7514833 -0.47549868
8.3139019 -1.7479342 0
8.3230448 -1.7498565 0.47505698
6.1588559 -1.2870835 -0.7013033
8.3278112 -1.7403539 -0.47520867
8.3210983 -1.7389508 0
8.3251534 -1.7397984 0.47505698
6.0920382 -1.2654393 -0.69352025
8.3349915 -1.731346 -0.47549868
8.3257389 -1.729424 0
8.324708 -1.7292098 0.47491199
7.0788717 -1.4615043 -0.80566013
8.3294506 -1.7196989 -0.47506368
8.3227301 -1.7183113 0
8.3242388 -1.7186228 0.4747664
7.0856953 -1.4539887 -0.80623621
8.32897 -1.7091093 -0.4749181
8.3247995 -1.7082536 0
8.3288622 -1.7090873 0.47491199
7.0697041 -1.4418075 -0.80421788
8.3233976 -1.6974878 -0.4744831
8.3192053 -1.6966329 0
8.3232803 -1.697464 0.47447643
7.0714412 -1.433264 -0.80421788
8.3279877 -1.6879451 -0.47462812
8.3289042 -1.6881309 0
8.3278694 -1.6879213 0.47462142
7.0757108 -1.4252307 -0.80450696
8.3376646 -1.6794209 -0.47506368
8.3258305 -1.677037 0
8.3273582 -1.6773449 0.47447643
7.0799613 -1.4171872 -0.80479503
8.3371325 -1.6688337 -0.4749181
8.3253012 -1.6664653 0
8.3268337 -1.6667721 0.47433141
7.0715213 -1.4066131 -0.80364186
8.3340511 -1.6577458 -0.47462812
8.3196487 -1.654881 0
8.3313875 -1.6572161 0.47447643
7.085053 -1.4048554 -0.80508304
8.329958 -1.6517007 -0.47433811
8.3283072 -1.6513734 0
8.3374796 -1.6531922 0.4747664
7.0842099 -1.3957939 -0.80479503
8.3395891 -1.6431398 -0.47477311
8.3200836 -1.6392967 0
8.3420286 -1.6436205 0.47491199
7.0833554 -1.3867366 -0.80450696
8.3441162 -1.6335607 -0.4749181
8.3220577 -1.6292423 0
8.3312502 -1.6310419 0.47418585
7.0799432 -1.3771881 -0.80392987
8.3409872 -1.6224859 -0.47462812
8.3189163 -1.6181926 0
8.3383217 -1.6219673 0.47447643
7.109539 -1.3740315 -0.80710137
8.3505983 -1.6138859 -0.47506368
8.3310862 -1.6101149 0
8.3351679 -1.6109039 0.47418585
6.1358514 -1.1781619 -0.69640261
8.3295774 -1.5993853 -0.47375757
8.3330259 -1.6000473 0
8.3269005 -1.5988712 0.4736053
6.1398091 -1.1712312 -0.69669062
8.334054 -1.5898058 -0.47390255
8.3221636 -1.5875376 0
8.3339367 -1.5897834 0.47389585
7.1500459 -1.3549924 -0.8111369
8.3436308 -1.5811865 -0.47433811
8.3215208 -1.5769966 0
8.3333006 -1.579229 0.47375086
7.1338925 -1.3430037 -0.80911964
8.3404226 -1.5701413 -0.47404754
8.3285408 -1.5679045 0
8.345417 -1.5710815 0.47433141
6.0575771 -1.1328031 -0.68688923
8.3346491 -1.558629 -0.47361198
8.3150749 -1.5549686 0
8.3421965 -1.5600405 0.47404087
0 -0 -0
6.0894575 -1.1311513 -0.69034874
8.3339739 -1.5480831 -0.47346699
8.3399744 -1.5491976 0
8.3415232 -1.5494852 0.47389585
6.1009936 -1.1256697 -0.69150192
8.3511753 -1.5408416 -0.47433811
8.3188086 -1.5348698 0
8.333168 -1.5375191 0.4733153
6.1277857 -1.1229584 -0.69438428
8.3479147 -1.5298121 -0.47404754
8.3232241 -1.5252875 0
8.3350191 -1.527449 0.4733153
6.1164174 -1.1132381 -0.6929431
8.3497572 -1.5197241 -0.47404754
8.3352928 -1.5170916 0
8.3368587 -1.5173767 0.4733153
6.1203008 -1.1063064 -0.69323111
8.3464775 -1.5087105 -0.47375757
8.3268862 -1.505169 0
8.336132 -1.5068403 0.47317031
0 -0 -0
6.124186 -1.0993687 -0.69352025
8.3457298 -1.4981638 -0.47361198
8.3184528 -1.4932672 0
8.3430567 -1.497684 0.47346032
0 -0 -0
6.1204123 -1.0910593 -0.6929431
8.3424225 -1.4871674 -0.473322
8.3202505 -1.4832149 0
8.3397493 -1.4866908 0.47317031
6.1293693 -1.0850161 -0.69380826
8.3416576 -1.4766337 -0.47317699
8.3297176 -1.4745201 0
8.3415394 -1.4766127 0.47317031
0 -0 -0
8.3459921 -1.4670026 -0.473322
8.3417463 -1.4662563 0
8.3228436 -1.4629338 0.47200918
0 -0 -0
6.1243272 -1.0688663 -0.6929431
8.3605547 -1.4591504 -0.47404754
8.3512049 -1.4575186 0
8.3501978 -1.4573429 0.47346032
6.1332622 -1.0627906 -0.69380826
8.3571959 -1.4481608 -0.47375757
8.3350077 -1.4443159 0
8.3596363 -1.4485836 0.47389585
0 -0 -0
6.1288009 -1.0582041 -0.69323111
8.3529434 -1.4422264 -0.47346699
8.341013 -1.4401665 0
8.3425837 -1.4404377 0.47287974
0 -0 -0
6.130075 -1.0507978 -0.69323111
8.3572388 -1.4325711 -0.47361198
8.3427467 -1.430087 0
8.3520031 -1.4316736 0.4733153
0 -0 -0
6.13134 -1.04339 -0.69323111
8.3538456 -1.4216009 -0.473322
8.3444691 -1.4200053 0
8.3588457 -1.4224519 0.4736053
0 -0 -0
6.1172991 -1.0333966 -0.69150192
8.347868 -1.410207 -0.47288644
8.3384781 -1.4086207 0
8.3528795 -1.4110535 0.47317031
0 -0 -0
6.0879331 -1.0208713 -0.6880424
8.3418751 -1.3988297 -0.47245088
8.3222046 -1.3955311 0
8.3596983 -1.4018184 0.47346032
0 -0 -0
6.0687509 -1.0101172 -0.68573606
8.3538122 -1.3904556 -0.47303143
8.3444223 -1.3888927 0
8.3639469 -1.3921424 0.4736053
0 -0 -0
6.050755 -0.99210042 -0.68342972
8.3571482 -1.3702637 -0.47303143
8.3297844 -1.365777 0
8.359601 -1.3706659 0.47317031
0 -0 -0
7.131772 -1.1604999 -0.80537105
8.3485384 -1.3584954 -0.47245088
8.3365612 -1.3565463 0
8.3561172 -1.3597286 0.47287974
0 -0 -0
6.0454822 -0.97623938 -0.68256569
8.352747 -1.3488222 -0.47259644
8.3536139 -1.3489622 0
8.3526287 -1.3488032 0.47258973
0 -0 -0
6.0747428 -0.97343439 -0.68573606
8.3543701 -1.3387285 -0.47259644
8.3346806 -1.3355733 0
8.3491163 -1.3378866 0.47229919
0 -0 -0
6.0733628 -0.96568781 -0.68544805
8.3611097 -1.3294482 -0.47288644
8.3439913 -1.3267263 0
8.3609915 -1.3294294 0.47287974
0 -0 -0
6.1051836 -0.96318549 -0.68890756
8.3421764 -1.316105 -0.47172531
8.3430195 -1.3162382 0
8.3625917 -1.3193258 0.47287974
6.1574502 -0.96380752 -0.69467342
8.3565941 -1.308033 -0.47245088
8.3420353 -1.3057542 0
8.3616152 -1.3088188 0.47273475
0 -0 -0
6.1611638 -0.95676327 -0.69496143
8.3633089 -1.2987329 -0.47274143
8.3358898 -1.2944751 0
8.3657551 -1.2991129 0.47287974
6.1290855 -0.94419891 -0.69121391
8.3725786 -1.2898139 -0.47317699
8.3528852 -1.2867801 0
8.3621874 -1.288213 0.47258973
0 -0 -0
6.0739775 -0.92819732 -0.68487203
8.368989 -1.2789104 -0.47288644
8.3595743 -1.2774718 0
8.3585958 -1.2773223 0.47229919
0 -0 -0
6.0776491 -0.92124468 -0.68516004
8.3576851 -1.2668505 -0.47216088
8.3508196 -1.2658099 0
8.3549995 -1.2664435 0.47200918
0 -0 -0
6.1094508 -0.91851485 -0.68861955
8.3514986 -1.2555916 -0.47172531
8.3549137 -1.2561052 0
8.3565245 -1.2563472 0.47200918
0 -0 -0
6.138689 -0.91532689 -0.69178993
8.3658571 -1.2474152 -0.47245088
8.3564262 -1.246009 0
8.3657484 -1.2473991 0.47244474
0 -0 -0
6.1653819 -0.91169316 -0.69467342
8.3493719 -1.2346462 -0.47143531
8.3527813 -1.2351502 0
8.3569679 -1.2357693 0.47186419
0 -0 -0
6.161356 -0.90349156 -0.69409627
8.3637104 -1.2264414 -0.47216088
8.3465405 -1.2239236 0
8.3764439 -1.2283086 0.47287974
0 -0 -0
6.1644578 -0.90014237 -0.69438428
8.3618813 -1.2210131 -0.47201589
8.3472776 -1.2188808 0
8.361762 -1.2209958 0.47200918
0 -0 -0
6.168108 -0.89306486 -0.69467342
8.3633499 -1.2109084 -0.47201589
8.3513184 -1.2091663 0
8.3632317 -1.2108912 0.47200918
0 -0 -0
6.156374 -0.88377255 -0.69323111
8.405961 -1.2067099 -0.47433811
8.3527727 -1.1990745 0
8.3698282 -1.2015228 0.47229919
0 -0 -0
6.1343937 -0.87305349 -0.69063675
8.4022627 -1.195819 -0.47404754
8.364522 -1.1904477 0
8.371274 -1.1914086 0.47229919
0 -0 -0
6.1405711 -0.86636406 -0.69121391
0 -0 -0
8.3504972 -1.1781592 0
8.364996 -1.1802047 0.47186419
0 -0 -0
6.1339264 -0.85786861 -0.69034874
6.1663799 -0.86240751 -0.34778261
8.3519144 -1.1680684 0
8.3741283 -1.1711751 0.47229919
0 -0 -0
0 -0 -0
6.1905799 -0.85816681 -0.34908873
8.3610563 -1.1590483 0
8.365242 -1.1596285 0.47171864
0 -0 -0
0 -0 -0
6.1684461 -0.84750324 -0.34778261
8.3572893 -1.1482356 0
8.374362 -1.1505814 0.4721542
0 -0 -0
6.2190065 -0.84679484 -0.69957411
6.1952176 -0.84355569 -0.34923428
8.3535175 -1.137435 0
8.3783188 -1.1408119 0.47229919
0 -0 -0
6.1405621 -0.82855767 -0.69063675
6.1910772 -0.83537376 -0.34894374
8.3574629 -1.1276883 0
8.371973 -1.1296462 0.47186419
0 -0 -0
6.1107945 -0.81702417 -0.68717724
6.1637588 -0.82410556 -0.34734762
8.3639736 -1.1182781 0
8.375905 -1.1198735 0.47200918
0 -0 -0
7.1296663 -0.94448173 -0.80162352
6.1621666 -0.81631505 -0.34720206
8.3575859 -1.1071469 0
8.3772516 -1.1097521 0.47200918
0 -0 -0
7.1256781 -0.93519378 -0.8010475
6.1631484 -0.80886865 -0.34720206
8.3537521 -1.0963695 0
8.3734293 -1.0989521 0.47171864
0 -0 -0
7.1345 -0.92758381 -0.80191261
0 -0 -0
8.3602371 -1.0869466 0
8.3721771 -1.088499 0.47157362
0 -0 -0
0 -0 -0
0 -0 -0
8.3667021 -1.0775083 0
8.3786449 -1.0790464 0.47186419
0 -0 -0
0 -0 -0
6.1144986 -0.77994806 -0.34429982
8.3499336 -1.0650938 0
8.3825178 -1.0692501 0.47200918
0 -0 -0
0 -0 -0
6.1077003 -0.77158195 -0.34386426
8.3589535 -1.0559814 0
8.3838034 -1.0591207 0.47200918
0 -0 -0
7.1363263 -0.8927685 -0.80162352
8.3800344 -1.0483589 -0.47172531
8.3602228 -1.0458804 0
8.3747635 -1.0476996 0.47142863
0 -0 -0
7.1271324 -0.88287312 -0.80047035
8.3967724 -1.0401498 -0.47259644
8.3743925 -1.0373774 0
8.3837624 -1.0385381 0.47186419
0 -0 -0
7.1204996 -0.87331706 -0.79960626
6.1826725 -0.75829417 -0.34792817
8.3704777 -1.0266248 0
8.3824244 -1.02809 0.47171864
0 -0 -0
7.1215496 -0.86471266 -0.79960626
6.1913152 -0.75176179 -0.34836319
8.3691311 -1.0161965 0
8.3785067 -1.0173349 0.47142863
0 -0 -0
7.1277204 -0.85672379 -0.80018234
6.1999612 -0.74521083 -0.34879875
8.3780975 -1.0070142 0
8.3797302 -1.0072104 0.47142863
0 -0 -0
7.123105 -0.85180378 -0.79960626
6.166872 -0.7374543 -0.34691206
8.3580418 -0.99948144 0
8.3854923 -1.002764 0.47171864
0 -0 -0
7.1215534 -0.84289134 -0.79931718
0 -0 -0
8.3592434 -0.98938161 0
8.38412 -0.99232596 0.47157362
0 -0 -0
7.1225662 -0.83428574 -0.79931718
0 -0 -0
8.3604326 -0.97928041 0
8.3904791 -0.98279983 0.47186419
0 -0 -0
7.1210027 -0.8253814 -0.79902917
0 -0 -0
8.3745327 -0.97067565 0
8.3839149 -0.97176301 0.47142863
0 -0 -0
7.1168604 -0.81618762 -0.79845309
6.1884375 -0.70971268 -0.34792817
8.3627748 -0.95907366 0
8.3876619 -0.96192777 0.47157362
0 -0 -0
7.1255441 -0.80846161 -0.79931718
6.2047768 -0.70399171 -0.34879875
8.3639269 -0.94896817 0
8.3862381 -0.95149958 0.47142863
0 -0 -0
7.1008172 -0.79696691 -0.79643482
6.2107825 -0.69707304 -0.34908873
8.3728189 -0.9397313 0
8.3925419 -0.94194484 0.47171864
0 -0 -0
7.1223402 -0.79066944 -0.79874116
6.2297006 -0.69157517 -0.35010487
8.381711 -0.93047541 0
8.3885136 -0.93123055 0.47142863
0 -0 -0
6.0023789 -0.65899849 -0.67305231
6.1995363 -0.68064433 -0.34836319
8.3776503 -0.91977847 0
8.3793011 -0.91995966 0.47084808
0 -0 -0
6.1008782 -0.6623531 -0.68400687
6.2003546 -0.67315292 -0.34836319
8.3684158 -0.90853256 0
8.3933201 -0.91123629 0.47157362
0 -0 -0
6.1068125 -0.65553248 -0.68458289
6.1804943 -0.66344184 -0.34720206
8.3772631 -0.89925277 0
8.3918343 -0.90081686 0.47142863
0 -0 -0
6.1127491 -0.64869952 -0.68516004
6.1657929 -0.65432864 -0.34633151
8.3679914 -0.8880313 0
8.3903351 -0.89040232 0.47128361
0 -0 -0
6.1469669 -0.64482069 -0.68890756
6.089056 -0.63874578 -0.3419776
8.3794117 -0.87900561 0
8.3862305 -0.87972093 0.47099307
0 -0 -0
6.1451712 -0.63712633 -0.68861955
6.1311769 -0.63567543 -0.34429982
8.3934088 -0.87022173 0
8.3924618 -0.87012362 0.47128361
0 -0 -0
6.127923 -0.627855 -0.68660122
6.1448627 -0.62959057 -0.34502539
8.3918676 -0.85981435 0
8.3857498 -0.85918754 0.47084808
0 -0 -0
0 -0 -0
6.0499673 -0.61248177 -0.33965537
8.3851299 -0.84888715 0
8.3945398 -0.84983975 0.47128361
0 -0 -0
6.12428 -0.61253005 -0.68602514
6.094655 -0.60956705 -0.34212261
8.3913336 -0.83927321 0
8.3903847 -0.83917832 0.47099307
0 -0 -0
7.1802716 -0.7093851 -0.80421788
6.0643568 -0.59913671 -0.34038094
8.3897543 -0.82887769 0
8.3810492 -0.82801765 0.47041252
0 -0 -0
7.1605392 -0.69870013 -0.80191261
6.0676599 -0.5920608 -0.34052593
8.4062862 -0.8202557 0
8.3820438 -0.81789017 0.47041252
0 -0 -0
7.1613784 -0.6900475 -0.80191261
6.0735488 -0.58522773 -0.3408165
8.4020948 -0.80959898 0
8.3907881 -0.80850947 0.47084808
0 -0 -0
7.1596246 -0.68114817 -0.80162352
6.0535574 -0.57591981 -0.33965537
8.3978806 -0.79895264 0
8.38659 -0.7978785 0.47055808
0 -0 -0
7.1552973 -0.67201346 -0.8010475
6.0594182 -0.56909031 -0.33994538
8.4014282 -0.78904802 0
8.3849535 -0.78750068 0.47041252
0 -0 -0
7.1689787 -0.66456068 -0.80248868
