# .PCD v0.7 - Point Cloud Data file format
VERSION 0.7
FIELDS x y z
SIZE 4 4 4
TYPE F F F
COUNT 1 1 1
WIDTH 1609
HEIGHT 1
VIEWPOINT 0 0 0 1 0 0 0
POINTS 1609
DATA ascii
2.382978 1.2988268 -0.89487422
2.781085 1.5158125 -0.87386322
3.3455579 1.8234748 -0.84407842
4.2597437 2.3217459 -0.80879486
5.8879423 3.2091851 -0.74742788
8.1272335 4.4296961 -0.51700658
9.8222752 5.3535676 0
9.7720528 5.3261943 0.62164032
2.405257 1.314742 -0.90383649
2.7836585 1.5215807 -0.87524885
3.3411248 1.8262984 -0.84351611
4.2501755 2.3231962 -0.80751055
5.8749824 3.2113349 -0.74627471
8.1378374 4.4482384 -0.51802272
9.8272152 5.3716722 0
9.7701664 5.3404884 0.6219303
2.392832 1.311708 -0.89976245
2.7708204 1.5189145 -0.87178874
3.3455935 1.8339947 -0.84520316
4.2586269 2.3345034 -0.80965161
5.8733635 3.2196734 -0.74656272
8.139286 4.4618115 -0.51845771
9.8161573 5.381043 0
9.7659826 5.3535376 0.62207532
2.4172361 1.3288867 -0.90954202
2.7931597 1.5355526 -0.87940049
3.3411505 1.8368131 -0.84464079
4.2558031 2.3396475 -0.80965161
5.8672047 3.225523 -0.74627471
8.1498308 4.4804072 -0.51947385
9.823328 5.4004202 0
9.7754478 5.3740978 0.62309146
2.4199533 1.3341908 -0.91117036
2.7891073 1.5377164 -0.87870902
3.3500521 1.8469815 -0.84745467
4.2439804 2.3398304 -0.80793971
5.8610401 3.2313623 -0.7459867
0 0 -0
9.8259115 5.4173117 0
9.7826052 5.3934355 0.62396252
2.4118567 1.3335296 -0.90872782
2.7630944 1.5277311 -0.87109458
3.3389235 1.8461102 -0.84520316
4.2546253 2.3524072 -0.8105067
5.8548613 3.2371869 -0.74569756
0 0 -0
9.8125324 5.4254065 0
9.7715282 5.4027348 0.62367201
2.388624 1.324455 -0.90057659
2.7700226 1.5359349 -0.87386322
3.3500276 1.8575386 -0.84858155
4.236062 2.3488312 -0.80751055
5.8532138 3.2455168 -0.7459867
0 0 -0
9.8241692 5.4473505 0
9.7854433 5.4258771 0.62497813
2.3848636 1.3261403 -0.89976245
2.7747447 1.5429397 -0.87594038
3.3344524 1.8541737 -0.84520316
4.2466865 2.3614357 -0.81007916
5.8447628 3.2500706 -0.74540955
0 0 -0
9.8289595 5.4655442 0
9.79251 5.4452763 0.62584925
2.3767815 1.3254085 -0.89731675
2.7685003 1.5438498 -0.87455738
3.334435 1.8594425 -0.84576762
4.2348619 2.3615642 -0.80836731
5.8430882 3.258389 -0.74569756
8.131691 4.5346246 -0.5200544
9.83144 5.4824867 0
9.7768459 5.4520426 0.62526864
2.416167 1.3512017 -0.91280186
2.7600617 1.5435191 -0.87248021
3.3299618 1.8622264 -0.84520316
4.2342439 2.3679311 -0.80879486
5.8346362 3.2629242 -0.74512154
8.1420832 4.5533261 -0.52107054
9.8361635 5.5007124 0
9.7747822 5.4663863 0.62555867
2.3908176 1.3408202 -0.90383649
2.7669475 1.5517616 -0.87524885
3.3254952 1.8650069 -0.84464079
4.2179499 2.365514 -0.80622786
5.8397131 3.2750325 -0.74627471
8.1411037 4.5657005 -0.52136052
9.8317776 5.513865 0
9.777236 5.4832773 0.62613922
2.3719614 1.3340154 -0.89731675
2.7694395 1.5575612 -0.87663186
3.3077428 1.8603085 -0.84070224
4.2285089 2.3781569 -0.80879486
5.8267341 3.2770147 -0.74512154
8.1401157 4.578084 -0.52165109
9.8432541 5.5359468 0
9.7909842 5.5065498 0.62744534
2.4198644 1.364808 -0.91606176
2.7675555 1.5609063 -0.87663186
3.3121259 1.868045 -0.84238923
4.2323427 2.387049 -0.81007916
5.8250208 3.2853222 -0.74540955
8.143631 4.5930223 -0.52223164
9.8388224 5.5491138 0
9.7888546 5.5209317 0.62773591
2.3923976 1.3531294 -0.90628219
2.7503879 1.5556072 -0.87178874
3.3231404 1.8795534 -0.84576762
4.2272229 2.3908985 -0.80965161
5.8210468 3.2923582 -0.74540955
8.1516409 4.6105323 -0.52310216
9.8434343 5.5674028 0
9.795742 5.5404286 0.62860644
2.3800135 1.3499234 -0.90220809
2.7594151 1.5651168 -0.87524885
3.3076019 1.8760436 -0.84238923
4.21316 2.3896685 -0.80751055
5.8125691 3.2968397 -0.74483353
8.1551056 4.6255064 -0.52368271
9.8367004 5.5792928 0
9.8026066 5.5599551 0.62947756
2.3942435 1.359907 -0.90791368
2.7802794 1.5791717 -0.88216913
3.3153052 1.8830612 -0.84464079
4.2228827 2.3985562 -0.80965161
5.8105764 3.3003509 -0.74483353
8.1545668 4.6317143 -0.52382773
9.8469095 5.5929489 0
9.7969799 5.564589 0.62933201
2.3904448 1.3615723 -0.90709633
2.7631159 1.5738417 -0.87732601
3.3240647 1.8933524 -0.84745467
4.2065935 2.3960314 -0.80708295
5.8020849 3.3048067 -0.74425638
8.1579952 4.6467085 -0.52440828
9.85145 5.6112823 0
9.8128319 5.5892859 0.63078368
2.3544672 1.3448503 -0.89406002
2.7394235 1.5647339 -0.87040305
3.2997155 1.8847675 -0.84182692
4.2215276 2.4112983 -0.8105067
5.7980876 3.311815 -0.74425638
8.1568918 4.6591425 -0.52469885
9.8582172 5.6309237 0
9.8083248 5.6024261 0.6309287
2.3850048 1.3661177 -0.90628219
2.7832444 1.5942272 -0.88493782
3.3084576 1.8950665 -0.84464079
4.2097011 2.4112937 -0.80879486
5.7940817 3.3188183 -0.74425638
8.1557617 4.6715755 -0.52498883
9.8581829 5.6467133 0
9.8060541 5.6168542 0.63121867
2.3619244 1.3566903 -0.89813405
2.7356341 1.5713494 -0.87040305
3.3017631 1.8965341 -0.84351611
4.2090082 2.4176559 -0.8092224
5.7900672 3.3258169 -0.74425638
8.1681366 4.6917806 -0.52614999
9.8536072 5.6599159 0
9.8150339 5.6377597 0.63223481
2.3881238 1.3755795 -0.90872782
2.744601 1.5809134 -0.87386322
3.2928617 1.8967162 -0.84182692
4.2016392 2.4201798 -0.80836731
5.7838054 3.331521 -0.74396837
8.164711 4.7029428 -0.52629495
9.8625488 5.680912 0
9.8194714 5.6560988 0.63296038
2.4057198 1.389589 -0.91606176
2.7405183 1.582975 -0.87317169
3.3015664 1.9070469 -0.84464079
4.1964912 2.4239721 -0.80793971
5.7820129 3.3397996 -0.74425638
8.1680222 4.7180033 -0.52687556
9.8646917 5.6980319 0
9.8126297 5.6679592 0.63296038
2.3676827 1.3714361 -0.90220809
2.7559707 1.5963448 -0.87870902
3.3014565 1.9123071 -0.84520316
4.1979976 2.431612 -0.80879486
5.7779737 3.3467836 -0.74425638
8.1690636 4.7317777 -0.52731109
9.8690577 5.7164679 0
9.8282633 5.6928382 0.63441205
2.3596101 1.3705705 -0.89976245
2.7453625 1.5946335 -0.87594038
3.279371 1.9048103 -0.84013772
4.188395 2.4328134 -0.80751055
5.7716908 3.3524649 -0.74396837
8.170083 4.7455616 -0.52774668
9.8711452 5.7336173 0
9.8281116 5.7086215 0.63484704
2.3579521 1.3734207 -0.89976245
2.7455995 1.599211 -0.87663186
3.2902448 1.9164469 -0.84351611
4.1898928 2.440459 -0.80836731
5.7676358 3.3594363 -0.74396837
8.1822968 4.7658877 -0.52890718
9.8844471 5.757328 0
9.8301878 5.7257237 0.63542759
2.3776374 1.3887368 -0.90791368
2.7480018 1.6050603 -0.87801749
3.2923107 1.9229817 -0.84464079
4.1825032 2.4429278 -0.80751055
5.7658038 3.3677063 -0.74425638
8.1742907 4.7744617 -0.52876222
9.8819818 5.7718949 0
9.8344784 5.7441487 0.63615316
2.3738186 1.3903559 -0.90709633
2.7655413 1.6197897 -0.88424629
3.2834136 1.9231097 -0.84295374
4.1884089 2.4531693 -0.8092224
5.7550411 3.3707528 -0.74339229
8.1730042 4.7869644 -0.52905273
9.8862267 5.7904062 0
9.8409882 5.7639098 0.63702428
2.3593538 1.3857154 -0.90220809
2.7333009 1.605345 -0.87455738
3.2854652 1.9296468 -0.84407842
4.1765876 2.4530282 -0.80751055
5.7487273 3.3763905 -0.74310321
8.1784153 4.8034148 -0.5297783
9.8769808 5.8010306 0
9.8272924 5.7718472 0.63658869
2.3704519 1.3960885 -0.90709633
2.746485 1.6175549 -0.87940049
3.2787566 1.9310387 -0.84295374
4.1802588 2.4619825 -0.80879486
5.7446437 3.3833342 -0.74310321
8.1770782 4.815928 -0.53006834
9.8766851 5.8169193 0
9.8382235 5.7942667 0.63774985
2.3581243 1.3926686 -0.90302229
2.7294135 1.6119456 -0.87455738
3.2786067 1.93629 -0.84351611
4.1684394 2.4618101 -0.80708295
5.740551 3.3902731 -0.74310321
8.1891527 4.8363757 -0.53122944
9.8808517 5.835465 0
9.8423996 5.8127556 0.63847536
2.3777022 1.4081088 -0.91117036
2.7555239 1.63186 -0.88355482
3.2653353 1.9337777 -0.84070224
4.1632547 2.4655383 -0.80665541
5.7431293 3.4011621 -0.74396837
8.1766024 4.842299 -0.53079444
9.8849964 5.8540344 0
9.8532553 5.8352365 0.63963652
2.3844998 1.4160289 -0.91443026
2.7255099 1.6185368 -0.87455738
3.2695441 1.9416102 -0.84238923
4.1668963 2.4745004 -0.80793971
5.7323413 3.4041357 -0.74310321
8.1863775 4.8614588 -0.53180999
9.889102 5.8726172 0
9.8439655 5.8458128 0.6394915
2.3785439 1.4163823 -0.91280186
2.7192371 1.6192594 -0.87317169
3.2584631 1.9403592 -0.84013772
4.1683106 2.4821577 -0.80879486
5.7304525 3.4123869 -0.74339229
8.1871977 4.8753366 -0.53224558
9.881999 5.884562 0
9.8413553 5.8603592 0.63978148
2.3725824 1.4167186 -0.91117036
2.7452784 1.639263 -0.88216913
3.2735689 1.9547163 -0.84464079
4.1631064 2.4858778 -0.80836731
5.7196612 3.4153292 -0.74252719
8.1857586 4.8878875 -0.53253555
9.894989 5.908505 0
9.8498859 5.8815727 0.64079762
2.4005606 1.4373626 -0.92258149
2.7024057 1.6180956 -0.86902004
3.2690268 1.9573663 -0.84407842
4.1623001 2.4922237 -0.80879486
5.7221894 3.4262252 -0.74339229
8.1932268 4.9057865 -0.53340667
9.8967743 5.9258046 0
9.8516893 5.8988094 0.64137816
2.3776278 1.4275371 -0.91443026
2.7499123 1.6510581 -0.88493782
3.264483 1.9600083 -0.84351611
4.1570868 2.4959311 -0.80836731
5.711391 3.4291413 -0.74252719
8.1962042 4.9210329 -0.53398722
9.9052277 5.9471374 0
9.8490057 5.9133816 0.64166814
2.3737857 1.4291353 -0.91361606
2.7436209 1.6517941 -0.88355482
3.2555797 1.9600184 -0.84182692
4.1474681 2.4969788 -0.80708295
5.7072434 3.4360399 -0.74252719
8.2013807 4.937633 -0.53471279
9.9203262 5.9725223 0
9.8485346 5.9292998 0.64210373
2.3614798 1.4256169 -0.90954202
2.698668 1.6291764 -0.86971158
3.2662563 1.9718273 -0.84520316
4.1422524 2.500663 -0.80665541
5.7008753 3.4415979 -0.74223912
8.2043066 4.9529109 -0.53529334
9.9131021 5.9845047 0
9.8569365 5.9505973 0.64311987
2.3576431 1.4271905 -0.90872782
2.7224517 1.6480261 -0.87801749
3.2573566 1.9718288 -0.84351611
4.1436157 2.5083225 -0.80751055
5.6967125 3.4484839 -0.74223912
8.2049866 4.9668589 -0.53572887
9.9125452 6.0005226 0
9.8475189 5.9611588 0.64297485
2.3833816 1.4467093 -0.9193216
2.7376151 1.6617286 -0.88355482
3.2441134 1.9691722 -0.84070224
4.1449747 2.5159938 -0.80836731
5.6947503 3.4567056 -0.74252719
8.2078562 4.9821572 -0.53630888
9.9119549 6.0165429 0
9.8602972 5.9851871 0.64428097
2.3478513 1.4290274 -0.90628219
2.71632 1.6532973 -0.87732601
3.2590871 1.9836541 -0.84520316
4.1287704 2.51299 -0.80579865
5.6927767 3.4649274 -0.7428152
8.1973953 4.9893718 -0.53601891
9.9202423 6.0379882 0
9.8663721 6.0051999 0.6451515
2.3165908 1.4138396 -0.89487422
2.7357309 1.6696452 -0.88424629
3.2501874 1.9836235 -0.84351611
4.1301179 2.5206542 -0.80665541
5.6863804 3.4704576 -0.74252719
8.1980162 5.0033355 -0.53645444
9.9218245 6.0553937 0
9.867981 6.022532 0.64573205
2.3317461 1.4269588 -0.90139395
2.737987 1.6755661 -0.8856293
3.2412844 1.983569 -0.84182692
4.1292562 2.5269814 -0.80708295
5.6755624 3.4732742 -0.74166203
8.1941795 5.0145926 -0.53659946
9.9278154 6.0755258 0
9.8584824 6.0330958 0.64558709
2.3342292 1.4323581 -0.90302229
2.7060285 1.660506 -0.87594038
3.2367218 1.9861563 -0.84126455
4.1240144 2.5306275 -0.80665541
5.6757746 3.4828377 -0.74223912
8.1969728 5.0299258 -0.53718001
9.9315643 6.094327 0
9.8711157 6.0572338 0.6468932
2.3228364 1.4272995 -0.89894825
2.7242603 1.67396 -0.88216913
3.2485061 1.9960903 -0.84464079
4.1268549 2.535804 -0.80751055
5.6714592 3.4849081 -0.74195004
8.2116442 5.0457602 -0.5383411
9.9367418 6.1057706 0
9.8696661 6.0645552 0.64703816
2.344259 1.4443679 -0.90791368
2.6944709 1.6601439 -0.87317169
3.2460918 2.0000141 -0.84464079
4.1237879 2.5407887 -0.80751055
5.6694527 3.493119 -0.74223912
8.2011127 5.0529499 -0.53805059
9.9404421 6.1246028 0
9.8888779 6.0928326 0.64877987
2.3530235 1.4536934 -0.91198772
2.7116697 1.6752644 -0.87940049
3.2393539 2.0012665 -0.84351611
4.1250868 2.5484705 -0.80836731
5.6608229 3.4972453 -0.74166203
8.2104769 5.0724168 -0.53906667
9.937458 6.1393423 0
9.8726664 6.0993142 0.64819932
2.3197465 1.4370105 -0.89976245
2.7117825 1.6798645 -0.88009465
3.2347753 2.0038424 -0.84295374
4.1154552 2.5493963 -0.80708295
5.6609945 3.5068097 -0.74223912
8.1999283 5.0795999 -0.5387767
9.9410925 6.1581964 0
9.8917971 6.1276593 0.64994097
2.3180084 1.4398124 -0.89976245
2.7054842 1.68049 -0.87870902
3.234508 2.009089 -0.84351611
4.1101933 2.5530138 -0.80665541
5.6545501 3.5122786 -0.74195004
8.1981955 5.0922437 -0.53906667
9.9402781 6.174325 0
9.8821802 6.1382375 0.64979601
2.3057792 1.4360802 -0.89568841
2.6800251 1.6691673 -0.87109458
3.2256057 2.0089645 -0.84182692
4.1136446 2.5620511 -0.80793971
5.6525035 3.5204797 -0.74223912
8.1942396 5.1035185 -0.53921169
9.9571123 6.201467 0
9.9012156 6.1666532 0.65153712
2.3333876 1.4571915 -0.90709633
2.6950295 1.6830353 -0.87663186
3.2188697 2.0101714 -0.84070224
4.1083622 2.5656559 -0.80751055
5.6438537 3.5245645 -0.74166203
8.1990852 5.120296 -0.53993726
9.9694767 6.2258987 0
9.915801 6.1923785 0.65298879
2.3295324 1.4586993 -0.90628219
2.6887455 1.6836301 -0.87524885
3.2250526 2.0194533 -0.84295374
4.1030855 2.5692573 -0.80708295
5.6374011 3.53001 -0.74137402
8.1951008 5.1315823 -0.54008281
9.9707699 6.2434654 0
9.9391394 6.2236595 0.65502042
2.3319588 1.4641441 -0.90791368
2.6973305 1.6935465 -0.87870902
3.2183022 2.0206439 -0.84182692
4.095634 2.5714858 -0.80622786
5.6353197 3.5381932 -0.74166203
8.2042923 5.1511488 -0.54109836
9.9676228 6.2582736 0
9.9184132 6.2273769 0.65414989
2.3469129 1.4774899 -0.91443026
2.6931612 1.6954691 -0.87801749
3.2244594 2.0299459 -0.84407842
4.0925241 2.5764327 -0.80622786
5.6310406 3.5449998 -0.74166203
8.2112608 5.1693673 -0.54196948
9.9600534 6.2703128 0
9.9174719 6.243506 0.65458488
2.3388617 1.4763705 -0.91198772
2.7080822 1.7094352 -0.88355482
3.2091165 2.0257053 -0.84070224
4.0828934 2.5772636 -0.80494356
5.624568 3.550422 -0.74137402
8.1984138 5.1751227 -0.54153395
9.9480724 6.2795672 0
9.9121237 6.2568755 0.65473044
2.3287225 1.4739082 -0.90872782
2.729327 1.7274611 -0.89116657
3.2173994 2.0363746 -0.84351611
4.0884528 2.5876868 -0.80665541
5.6180902 3.5558336 -0.74108601
8.2272854 5.2072597 -0.54385614
9.955864 6.301322 0
9.9089432 6.2716246 0.65502042
2.3206773 1.4727466 -0.90628219
2.6975865 1.7119405 -0.88147765
3.1977737 2.0293689 -0.83901304
4.083158 2.5912507 -0.80622786
5.6159716 3.5640039 -0.74137402
8.229763 5.2227664 -0.54443669
9.9526424 6.3161387 0
9.9013586 6.2835932 0.65502042
2.3212826 1.4810117 -0.90791368
2.7019017 1.723852 -0.88424629
3.1992884 2.0411921 -0.84070224
4.0703893 2.596967 -0.80494356
5.6029773 3.57478 -0.74079686
8.2258797 5.2482295 -0.54501724
9.9592848 6.354167 0
9.9058571 6.3200798 0.65632653
2.3174036 1.4824798 -0.90709633
2.695586 1.7244091 -0.88286066
3.1946731 2.0436831 -0.84013772
4.0780587 2.6087987 -0.80708295
5.6073689 3.5871227 -0.74195004
8.2501726 5.2777662 -0.54704893
9.9669485 6.3760147 0
9.9222937 6.3474483 0.65792322
2.3280971 1.4932879 -0.91198772
2.6660502 1.7100579 -0.87386322
3.2029014 2.0544047 -0.84295374
4.0727448 2.6123397 -0.80665541
5.5921469 3.5869148 -0.74050885
8.2350407 5.2821193 -0.54646838
9.9789495 6.4006977 0
9.9124317 6.3580313 0.6577782
2.3304446 1.4987712 -0.91361606
2.6829786 1.7254952 -0.88009465
3.1982734 2.056895 -0.84238923
4.0695853 2.617259 -0.80665541
5.5878086 3.5936692 -0.74050885
8.2352104 5.2962842 -0.54690397
9.9777775 6.4169755 0
9.9265928 6.384057 0.65922934
2.2953968 1.4801548 -0.90057659
2.6787772 1.7273724 -0.87940049
3.1979272 2.062139 -0.84295374
4.0599456 2.6179996 -0.80537111
5.5878139 3.6032243 -0.74108601
8.250639 5.3203101 -0.54835504
9.9787655 6.4346685 0
9.9276066 6.401679 0.65980989
2.3330445 1.5084257 -0.91606176
2.7082918 1.7510412 -0.88978362
3.1975648 2.0673797 -0.84351611
4.0589328 2.6242957 -0.80579865
5.5747681 3.6043563 -0.73993284
8.2420244 5.328866 -0.54821008
9.9797249 6.452373 0
9.9242239 6.4164891 0.66009992
2.3208525 1.5045227 -0.91198772
2.6767063 1.7352095 -0.88009465
3.1907964 2.068475 -0.84238923
4.0600715 2.6319938 -0.80665541
5.5747452 3.6139007 -0.74050885
8.2355795 5.3388209 -0.54821008
9.9850197 6.472918 0
9.9317284 6.4383717 0.661116
2.3107436 1.501938 -0.90872782
2.6682951 1.7343395 -0.87801749
3.1968162 2.0778677 -0.84464079
4.0590382 2.6382952 -0.80708295
5.5703745 3.6206341 -0.74050885
8.2421904 5.3572621 -0.54908061
9.977191 6.4849787 0
9.9348326 6.4574466 0.66184157
2.3275614 1.5168729 -0.91606176
2.7040265 1.7622154 -0.89047509
3.1794081 2.072022 -0.84070224
4.0493937 2.6389918 -0.80579865
5.5703335 3.6301892 -0.74108601
8.2400694 5.3700571 -0.54937118
9.9824257 6.5055523 0
9.9487972 6.4836359 0.66329324
2.2781365 1.4885875 -0.89731675
2.6955926 1.7613633 -0.88839793
3.1917856 2.0855873 -0.84464079
4.048357 2.6452909 -0.80622786
5.5572824 3.631258 -0.73993284
8.2335749 5.3800097 -0.54937118
9.9941721 6.5304255 0
9.9431286 6.4970727 0.66343826
2.2618701 1.4818617 -0.89161438
2.6661839 1.7467475 -0.87940049
3.1743915 2.0796993 -0.84070224
4.0408587 2.6473644 -0.80537111
5.5528908 3.6379702 -0.73993284
8.2422762 5.3999186 -0.55038673
9.9906235 6.5453463 0
9.948308 6.5176234 0.66430879
2.3023064 1.5103424 -0.90791368
2.665128 1.7483579 -0.87940049
3.175257 2.083009 -0.84126455
4.02424 2.6399527 -0.80237657
5.5485311 3.6399071 -0.73964477
8.2672634 5.42343 -0.55227399
9.9931974 6.555665 0
9.9487181 6.5264854 0.66459936
2.3046057 1.515837 -0.90954202
2.6546295 1.7460624 -0.87663186
3.1833501 2.0938244 -0.84407842
4.0360541 2.6546838 -0.80537111
5.539803 3.6437633 -0.73906767
8.2628727 5.4348421 -0.55241895
9.991786 6.5720215 0
9.9429932 6.5399284 0.66474438
2.2883272 1.5090942 -0.90383649
2.6860273 1.7713674 -0.88770646
3.1808178 2.0976694 -0.84407842
4.0307026 2.6581469 -0.80494356
5.5418758 3.6547277 -0.73993284
8.2606344 5.4476805 -0.55270898
9.9990482 6.5941205 0
9.9502707 6.5619531 0.66576046
2.2906294 1.5145872 -0.90546799
2.6880744 1.7773818 -0.88909209
3.1761634 2.100111 -0.84351611
4.0339136 2.6672642 -0.80622786
5.5417666 3.6642716 -0.74050885
8.2757244 5.471992 -0.55416065
10.006271 6.6162467 0
9.9618397 6.5868683 0.66706657
2.2949798 1.5214522 -0.90791368
2.6650107 1.7667636 -0.88216913
3.1630366 2.0969288 -0.84070224
4.0178461 2.6636231 -0.80365926
5.5287118 3.6652484 -0.73935568
8.2604437 5.4762444 -0.55358011
10.01128 6.6369576 0
9.9625368 6.6046433 0.66764718
2.3157759 1.5392702 -0.9168759
2.6795886 1.7810924 -0.88770646
3.1710789 2.1077805 -0.84351611
4.0146246 2.6684759 -0.80365926
5.5285916 3.6747923 -0.73993284
8.2689629 5.4962864 -0.55459565
9.9967489 6.6447263 0
9.9696913 6.6267409 0.66866273
2.2810068 1.5201366 -0.90383649
2.6690841 1.7787638 -0.88493782
0 0 -0
4.0135398 2.6747525 -0.80408841
5.5284476 3.6843359 -0.74050885
8.2796135 5.5178018 -0.55575675
10.010373 6.671236 0
9.9724941 6.6459918 0.66938883
2.3099964 1.5434902 -0.91606176
2.6627648 1.7792026 -0.88355482
3.1744268 2.1210842 -0.84576762
4.0145698 2.6824498 -0.80494356
5.5196948 3.6881421 -0.73993284
8.2880659 5.537909 -0.55677289
10.017447 6.6934433 0
9.9752569 6.6652536 0.6701144
2.2917025 1.5352752 -0.90954202
2.6460211 1.7726432 -0.87870902
3.1634176 2.1192615 -0.84351611
4.0006642 2.6801562 -0.80280411
5.5152345 3.694809 -0.73993284
8.2964745 5.5580387 -0.55778843
10.020168 6.7127895 0
9.9736662 6.6816363 0.67054939
2.2980525 1.5435556 -0.91280186
2.6584575 1.7856323 -0.88355482
3.1545248 2.1188307 -0.84182692
4.0059466 2.6907136 -0.80451602
5.5150561 3.7043519 -0.74050885
8.2919149 5.5695124 -0.55793399
10.029333 6.7365007 0
9.9785318 6.7023787 0.67142051
2.273633 1.5311434 -0.90383649
2.6687794 1.7972486 -0.88770646
3.158287 2.1269 -0.84351611
4.0048199 2.6969845 -0.80494356
5.5084324 3.7095697 -0.74022084
0 0 -0
10.027656 6.7529712 0
9.9833536 6.7231369 0.67229104
2.2963622 1.5504863 -0.91361606
2.6354237 1.7794181 -0.87732601
3.1493952 2.1264477 -0.84182692
4.0015583 2.7018216 -0.80494356
5.5082293 3.7191148 -0.74079686
8.2741203 5.5866237 -0.55764341
10.023807 6.7679982 0
9.9859886 6.7424636 0.67301661
2.2781131 1.5421755 -0.90709633
2.6540427 1.7966622 -0.88424629
3.1615543 2.1402237 -0.84576762
3.9961667 2.7052171 -0.80451602
5.4973121 3.721422 -0.73993284
8.2738218 5.6009884 -0.558079
10.030701 6.7903132 0
9.9842911 6.7588959 0.6734522
2.2803421 1.5477058 -0.90872782
2.6580994 1.8040957 -0.88632345
3.1589661 2.1440423 -0.84576762
3.9907732 2.7086036 -0.80408841
5.4970875 3.7309639 -0.74050885
8.2777958 5.6182766 -0.55880457
10.033262 6.8097401 0
9.986865 6.7782502 0.67417777
2.2641647 1.5407252 -0.90302229
2.6476212 1.8016607 -0.88355482
3.1605704 2.1507139 -0.84689236
3.985369 2.7119753 -0.80365926
5.4883027 3.7346959 -0.73993284
8.2753019 5.6312008 -0.55909508
10.037931 6.8306403 0
9.9958534 6.8020072 0.67533886
2.2868018 1.5601754 -0.91280186
2.6412935 1.8020281 -0.88216913
3.1495736 2.1488032 -0.84464079
3.984216 2.7182398 -0.80408841
5.4837861 3.7413247 -0.73993284
8.2813663 5.6499796 -0.55996567
10.044722 6.8530326 0
9.9962139 6.8199377 0.67591941
2.2951131 1.5699131 -0.9168759
2.6598248 1.8193849 -0.88909209
3.1469748 2.1526072 -0.84464079
3.9809284 2.7230518 -0.80408841
5.4728551 3.7435658 -0.73906767
8.2766762 5.6614475 -0.56011069
10.03858 6.8666325 0
9.9965448 6.8378797 0.67649996
2.2687545 1.5559106 -0.90709633
2.6514156 1.8183393 -0.88701493
3.1443715 2.1564083 -0.84464079
3.9691672 2.7220526 -0.80237657
5.4704585 3.7516375 -0.73935568
8.2934036 5.6876116 -0.56170732
10.036716 6.8831744 0
9.9947062 6.8543634 0.67693555
2.2729847 1.5628532 -0.90954202
2.6554203 1.8258073 -0.88909209
3.148047 2.1645262 -0.84632999
3.9722149 2.7312057 -0.80365926
5.4595337 3.7538526 -0.73849159
8.2886639 5.6990991 -0.56185234
10.032677 6.898243 0
10.001407 6.8767424 0.67795163
2.2955139 1.5824322 -0.9193216
2.6470137 1.8247415 -0.88701493
3.1370611 2.16256 -0.84407842
3.9710317 2.7374644 -0.80408841
5.4635119 3.7663188 -0.73964477
8.2946119 5.7179618 -0.56272346
10.056478 6.9325185 0
9.9995022 6.8932419 0.67838663
2.2753029 1.5725586 -0.91198772
2.6448069 1.8279386 -0.88701493
3.1344459 2.1663489 -0.84407842
3.9698308 2.7437189 -0.80451602
5.4525719 3.7685044 -0.73877966
8.2962389 5.7338839 -0.56330347
10.058796 6.9520617 0
9.9997158 6.9112291 0.67896718
2.2530818 1.561227 -0.90383649
2.6364081 1.8268449 -0.88493782
3.1380935 2.1744776 -0.84576762
3.9644046 2.7470529 -0.80408841
5.4522624 3.7780335 -0.73935568
8.2978487 5.749824 -0.56388402
10.058945 6.9701395 0
10.00631 6.9336677 0.67998332
2.2572854 1.5681801 -0.90628219
2.6383235 1.8328947 -0.88632345
3.1396332 2.1811645 -0.84689236
3.9610825 2.7518411 -0.80408841
5.4476933 3.7846186 -0.73935568
8.2972984 5.7642951 -0.56431955
10.04838 6.9808054 0
9.9979248 6.9457531 0.67998332
2.2574151 1.5723176 -0.90709633
2.6381636 1.8375138 -0.88701493
3.1328294 2.1820548 -0.84576762
3.9535375 2.7536881 -0.80323166
5.4367552 3.786768 -0.73849159
8.3052549 5.7847137 -0.56533569
10.05488 7.0033498 0
10.008713 6.9711933 0.68128943
2.2453833 1.5679702 -0.90302229
2.6338863 1.8392651 -0.88632345
3.1343532 2.1887453 -0.84689236
3.9544208 2.7614055 -0.80408841
5.4364128 3.7962933 -0.73906767
8.3046532 5.7992096 -0.56577122
10.048543 7.0169826 0
10.010933 6.9907188 0.682015
2.2637303 1.5848546 -0.91117036
2.6234415 1.836691 -0.88355482
3.131706 2.1925309 -0.84689236
3.9468713 2.7632341 -0.80323166
5.4297051 3.8013773 -0.73877966
8.3018923 5.8122172 -0.56606126
10.054982 7.0395684 0
10.028022 7.0206933 0.68375665
2.2557504 1.5833329 -0.90872782
2.6047928 1.8283291 -0.87801749
3.1207356 2.1904743 -0.84464079
3.947736 2.7709537 -0.80408841
5.4229927 3.8064506 -0.73849159
8.307621 5.8311987 -0.56693178
10.061382 7.0621805 0
10.015282 7.0298223 0.68346667
2.2487252 1.5804305 -0.90628219
2.6385791 1.8544245 -0.88978362
3.1235733 2.1952841 -0.84576762
3.9397583 2.7689085 -0.80280411
5.4228063 3.8112121 -0.73877966
8.3147316 5.8436913 -0.56765789
10.069885 7.0772338 0
10.034411 7.0523028 0.68506277
2.2629774 1.5945355 -0.91280186
2.6260846 1.8503876 -0.88632345
3.1229937 2.2005188 -0.84632999
3.9343133 2.7721899 -0.80237657
5.4160848 3.8162735 -0.73849159
8.3225279 5.8642063 -0.56867349
10.067711 7.0938945 0
10.03438 7.0704088 0.68564332
2.261049 1.5972687 -0.91280186
2.6381841 1.8636878 -0.89116657
3.1286337 2.210155 -0.84858155
3.9372449 2.7813809 -0.80365926
5.4135804 3.8243058 -0.73877966
8.319684 5.8772597 -0.568964
10.076137 7.1180668 0
10.027949 7.0840263 0.68578833
2.2671852 1.6057136 -0.91606176
2.6195519 1.8552742 -0.8856293
3.1238892 2.2124667 -0.84801918
3.9317884 2.7846539 -0.80323166
5.4047298 3.8278515 -0.73820251
8.3252954 5.8963161 -0.56983459
10.093014 7.1482868 0
10.032109 7.1051517 0.68665946
2.2591956 1.6041577 -0.91361606
2.6214032 1.8613458 -0.88701493
3.1129267 2.2103553 -0.84576762
3.930512 2.7908874 -0.80365926
5.4085364 3.8403692 -0.73935568
8.3266401 5.9123888 -0.57041514
10.084369 7.1604767 0
10.051058 7.1368237 0.68854612
2.2371244 1.5925553 -0.90546799
2.6293693 1.871785 -0.89047509
3.1081777 2.2126374 -0.84520316
3.9229581 2.79266 -0.80280411
5.4017873 3.845403 -0.73906767
8.3279572 5.9284735 -0.57099569
10.090545 7.1832175 0
10.038189 7.1459465 0.68825555
2.2412357 1.5995661 -0.90791368
2.6005611 1.856016 -0.88147765
3.1117084 2.2208209 -0.84689236
3.9153979 2.7944126 -0.80194736
5.3950334 3.850426 -0.73877966
8.3419342 5.9536238 -0.57244682
10.088215 7.1999416 0
10.052814 7.1746764 0.68985224
2.2232208 1.5907671 -0.90139395
2.6126006 1.8693774 -0.88632345
3.1110871 2.2260563 -0.84745467
3.9057615 2.7946646 -0.80066472
5.3987908 3.8629625 -0.73993284
8.3431864 5.9697471 -0.57302737
10.094325 7.2227283 0
10.063155 7.2004251 0.69115835
2.2594492 1.6208208 -0.9168759
2.6062589 1.8696054 -0.88493782
3.10427 2.2268546 -0.84632999
3.9169769 2.8098519 -0.80365926
5.3794055 3.8589282 -0.7379145
8.3359671 5.9798241 -0.57302737
10.087704 7.2364354 0
10.052338 7.2110662 0.69101334
2.2454536 1.6148939 -0.91198772
2.5999284 1.8698264 -0.88355482
3.1077673 2.2350559 -0.84801918
3.9094148 2.8115878 -0.80280411
5.3642421 3.8578758 -0.73647332
8.3392897 5.9974823 -0.57375348
10.100077 7.2638116 0
10.056271 7.232307 0.69188392
2.2334785 1.6103797 -0.90791368
2.5997002 1.8744324 -0.88424629
3.1050644 2.2388093 -0.84801918
3.9018462 2.8133039 -0.80194736
5.3826566 3.880996 -0.73964477
8.3383541 6.0121088 -0.57418847
10.101845 7.2836189 0
10.064386 7.2566104 0.69304502
2.2295222 1.6116252 -0.90709633
2.593363 1.87463 -0.88286066
3.1002917 2.2410669 -0.84745467
3.9046874 2.8225296 -0.80323166
5.3318434 3.8541589 -0.73330182
8.3310833 6.0221796 -0.57418847
10.11624 7.312592 0
10.059827 7.2718134 0.69333559
2.2295804 1.6157725 -0.90791368
2.5971923 1.8821801 -0.88493782
3.0914154 2.2403426 -0.84576762
3.8929596 2.8212202 -0.80151981
2.8580775 2.071243 -0.39342248
8.3322172 6.038341 -0.57476902
10.122149 7.3355017 0
10.063653 7.2931094 0.69420618
2.2616172 1.6431611 -0.92176729
2.5969439 1.8867902 -0.8856293
3.0928133 2.2470605 -0.84689236
3.8957803 2.8304501 -0.80280411
2.8367422 2.0610139 -0.39082813
8.337532 6.0575714 -0.57564014
10.111167 7.3461928 0
10.065342 7.3128991 0.69493169
2.2316568 1.6255171 -0.91035622
2.6027737 1.8958349 -0.88839793
3.0942075 2.2537906 -0.84801918
3.8882034 2.8321295 -0.80194736
2.8196211 2.0537846 -0.38881093
8.344903 6.0783458 -0.57665575
10.123323 7.3737307 0
10.079604 7.3418856 0.69652838
2.2157245 1.6180135 -0.90465379
2.57212 1.8782681 -0.87870902
3.0894241 2.2560251 -0.84745467
3.8868575 2.8383439 -0.80237657
2.8129559 2.0541365 -0.38823378
8.3480425 6.0960851 -0.57738125
10.122813 7.3920965 0
10.066525 7.3509917 0.6962378
2.2097754 1.6177667 -0.90302229
2.5759232 1.8858219 -0.88078618
3.0825994 2.2567573 -0.84632999
3.8813479 2.8415174 -0.80194736
2.7937758 2.045311 -0.38592744
8.3406706 6.1061678 -0.57738125
10.122273 7.4104719 0
10.074409 7.3754296 0.69739896
2.211808 1.6233633 -0.90465379
2.5736427 1.8889331 -0.88078618
3.0839632 2.2634842 -0.84745467
3.8820546 2.849246 -0.80280411
2.799643 2.0548067 -0.38708061
8.3416653 6.1223912 -0.57796186
10.125896 7.4319334 0
10.090627 7.4060469 0.69914061
2.2377114 1.6465394 -0.91606176
2.5774148 1.8964977 -0.88286066
3.0771368 2.2642002 -0.84632999
3.8724041 2.849369 -0.80151981
2.7992394 2.0597193 -0.38736862
8.3426332 6.1386261 -0.57854241
10.127388 7.4518738 0
10.081671 7.4182339 0.69914061
2.2277644 1.6433731 -0.91280186
2.5771461 1.9011042 -0.88355482
3.0784843 2.2709305 -0.84745467
3.8689582 2.8540459 -0.80151981
2.7821846 2.0523567 -0.38535142
2.9447374 2.1722684 -0.20439263
10.124661 7.4687414 0
10.101971 7.4520025 0.70117229
2.2039158 1.6298964 -0.90383649
2.5869455 1.9131644 -0.88770646
3.0798278 2.2776732 -0.84858155
3.8655069 2.8587186 -0.80151981
2.7755394 2.0526381 -0.38477427
2.946285 2.1789122 -0.20468263
10.121909 7.4856133 0
10.097141 7.4672966 0.70146286
2.2218029 1.6472813 -0.91198772
2.5866454 1.9177815 -0.88839793
3.0811517 2.2844164 -0.84970623
3.8558617 2.8587992 -0.80023551
2.7709816 2.0544512 -0.38448626
2.937386 2.1778264 -0.20424707
10.129581 7.5102382 0
10.100631 7.4887738 0.70233339
2.2118764 1.644067 -0.90872782
2.5823147 1.9194103 -0.88770646
3.0702322 2.2820747 -0.84745467
2.8243821 2.0993366 -0.5866909
2.7643495 2.0547152 -0.38391024
2.8972182 2.153475 -0.20163484
10.147651 7.5426536 0
10.091575 7.5009732 0.70233339
2.2237556 1.6570719 -0.91443026
2.5679274 1.9135379 -0.88355482
3.0735867 2.290339 -0.84914386
2.8362541 2.1134865 -0.58968711
2.7556407 2.0534158 -0.38304508
2.8800268 2.1461046 -0.20061873
10.148961 7.5626836 0
10.111678 7.5349011 0.70436561
2.2098751 1.6508852 -0.90954202
2.5656135 1.9166393 -0.88355482
3.0728507 2.2955704 -0.84970623
2.821363 2.1076968 -0.58712012
2.7531576 2.0567441 -0.38304508
0 0 -0
10.143982 7.578053 0
10.104646 7.548667 0.70451063
2.2216911 1.6680928 -0.91606176
2.5629785 1.9243387 -0.88424629
3.0612042 2.2984171 -0.84801918
2.7998385 2.1021781 -0.58369637
2.7564526 2.0696032 -0.38419825
0 0 -0
10.150613 7.6212959 0
10.11131 7.5917859 0.70625234
2.2088253 1.6605208 -0.91117036
2.5638187 1.9273928 -0.88493782
3.0618441 2.3017914 -0.84858155
2.8047178 2.1084926 -0.58497906
2.7407277 2.0603871 -0.38217992
0 0 -0
10.160571 7.6383758 0
10.112947 7.6025734 0.70668733
2.2107689 1.6661665 -0.91280186
2.5675004 1.9350206 -0.88701493
3.0631151 2.3085451 -0.84970623
2.7878237 2.1010692 -0.58198452
2.7361727 2.0621419 -0.38189191
0 0 -0
10.161723 7.6584773 0
10.116207 7.6241736 0.70755839
2.2048061 1.6658537 -0.91117036
2.5591536 1.9335829 -0.88493782
3.0562727 2.3091841 -0.84858155
2.7893753 2.1075282 -0.58283961
2.739872 2.0701258 -0.38275707
0 0 -0
10.160769 7.6770258 0
10.119423 7.6457872 0.70842898
2.2146168 1.6774735 -0.91606176
2.5548174 1.9351604 -0.88424629
3.0494254 2.309804 -0.84745467
2.782738 2.1078 -0.58198452
2.7270617 2.0656278 -0.38131589
0 0 -0
10.161856 7.6971531 0
10.124679 7.668993 0.70944512
2.1948745 1.6666971 -0.90872782
2.5544734 1.9397618 -0.88493782
3.0587778 2.3227098 -0.85083306
2.7883668 2.1173708 -0.58369637
2.7327955 2.0751722 -0.38246793
0 0 -0
10.160838 7.7157216 0
10.129892 7.6922226 0.7104612
2.1948237 1.6708437 -0.90954202
2.5601125 1.9489254 -0.88770646
3.0519216 2.3233228 -0.84970623
2.7755954 2.1129653 -0.58155698
2.7220619 2.072212 -0.38131589
0 0 -0
10.163928 7.7374487 0
10.132992 7.7138977 0.71133178
2.2026253 1.6809905 -0.91361606
2.5597479 1.9535379 -0.88839793
3.0470941 2.3254688 -0.84914386
2.7730403 2.1163175 -0.58155698
2.717494 2.0739257 -0.38102674
0 0 -0
10.164922 7.7576227 0
10.142252 7.7403221 0.7126379
2.2143352 1.6941651 -0.9193216
2.5593839 1.9581583 -0.88909209
3.0422659 2.3276064 -0.84858155
2.7765918 2.1243417 -0.58283961
2.7190983 2.0803542 -0.3816039
0 0 -0
10.15554 7.7698998 0
10.118444 7.7415175 0.71162176
2.2024827 1.6893197 -0.91524756
2.553031 1.9581927 -0.88770646
3.0394514 2.3312807 -0.84858155
2.7638402 2.119885 -0.58070022
2.7165828 2.0836382 -0.3816039
0 0 -0
10.162665 7.794836 0
10.094656 7.7426724 0.71060622
2.2023973 1.6934849 -0.91606176
2.5367393 1.95057 -0.88286066
3.0366323 2.3349516 -0.84858155
2.7694168 2.1294823 -0.58241206
2.7120147 2.0853441 -0.38131589
0 0 -0
2.8687832 2.2058878 0
3.0964277 2.3809299 0.21817321
2.1964307 1.6931241 -0.91443026
2.5383584 1.9567 -0.88424629
3.0398479 2.3432744 -0.85027075
2.7587092 2.1265581 -0.58070022
2.7115395 2.0901971 -0.3816039
0 0 -0
2.8640566 2.2077651 0
3.0853167 2.378324 0.21759266
2.1943831 1.6957768 -0.91443026
2.5558395 1.9751031 -0.89116657
3.0349979 2.3453875 -0.84970623
0 0 -0
2.7069674 2.0918918 -0.38131589
0 0 -0
2.8284385 2.1857624 0
3.0988891 2.3947613 0.21875377
2.1825652 1.69086 -0.91035622
2.531641 1.9612935 -0.88355482
3.0221205 2.3412738 -0.84689236
0 0 -0
2.7064803 2.0967436 -0.3816039
0 0 -0
2.8422542 2.2019293 0
0 0 0
2.1844282 1.6965311 -0.91198772
2.5411539 1.9735811 -0.88770646
3.0212941 2.3464808 -0.84745467
2.7732863 2.1538663 -0.58540827
2.7223277 2.1142895 -0.38419825
0 0 -0
2.8437064 2.2085576 0
0 0 0
2.1765242 1.6946126 -0.90954202
2.518976 1.9612408 -0.88078618
3.0084341 2.3423264 -0.84464079
2.7706816 2.1572156 -0.58540827
2.7381368 2.1318765 -0.3867926
0 0 -0
2.8533525 2.2215819 0
3.0860913 2.4027894 0.21846376
2.1803222 1.701805 -0.91198772
2.5363772 1.9797163 -0.88770646
2.9875767 2.3318908 -0.83957535
2.7741382 2.1652958 -0.5866909
2.7559443 2.1510949 -0.38967496
2.7555587 2.150794 -0.19524926
2.8752847 2.2442436 0
3.0749924 2.4001212 0.21788321
2.1549058 1.6861609 -0.90220809
2.524106 1.975051 -0.88424629
2.9507401 2.3088818 -0.83000684
2.7533264 2.1544104 -0.58283961
2.7635338 2.1623974 -0.39111727
2.7652326 2.1637266 -0.19611982
2.8869202 2.258944 0
3.0536742 2.389425 0.2165771
2.1723099 1.7040151 -0.91035622
2.5256617 1.9811933 -0.8856293
2.9099689 2.2826536 -0.8193137
2.7446675 2.152987 -0.58155698
2.7690592 2.1721203 -0.39227045
2.7626162 2.1670663 -0.19611982
2.8678071 2.2495809 0
2.9996746 2.3530209 0.21294875
2.1780207 1.71275 -0.91361606
2.5390425 1.9966499 -0.89116657
2.865267 2.253186 -0.80749363
2.7561834 2.1674049 -0.58455151
2.7643936 2.1738613 -0.3919813
2.7681658 2.1768277 -0.19670038
2.856904 2.2466094 0
2.9171679 2.2939997 0.20728818
2.1662467 1.7077311 -0.90954202
2.5307233 1.9950614 -0.88909209
2.8326094 2.2330492 -0.79904985
2.7616265 2.1770906 -0.58626336
2.7678604 2.1820054 -0.39284647
2.7247214 2.1479971 -0.19379759
2.8460121 2.2436152 0
2.8858292 2.2750044 0.20525649
2.181632 1.7241384 -0.9168759
2.5204375 1.9918956 -0.88632345
2.8219352 2.2301683 -0.79679829
2.7589939 2.1804261 -0.58626336
0 0 -0
2.7669785 2.1867361 -0.19699094
2.8249245 2.2325308 0
2.8749237 2.2720451 0.20467594
2.1659842 1.7160279 -0.91117036
2.5317881 2.0058405 -0.89116657
2.8252151 2.2383115 -0.79848748
2.7583673 2.1853507 -0.5866909
0 0 -0
2.7419283 2.1723268 -0.19539426
2.8263006 2.2391717 0
2.8619945 2.2674508 0.20395038
2.1697173 1.7232567 -0.91361606
2.5136464 1.9964159 -0.8856293
2.8065908 2.2290814 -0.79398441
2.7758305 2.2046506 -0.59097141
0 0 -0
2.7738905 2.2031097 -0.19786149
2.8378606 2.2539167 0
2.8572199 2.2692926 0.20380539
2.1734362 1.7304972 -0.91606176
2.5073106 1.9963293 -0.88424629
2.8019094 2.2308898 -0.79342204
2.7631252 2.2000098 -0.58883202
0 0 -0
2.765126 2.2016027 -0.19742593
2.8412449 2.2622089 0
2.8524449 2.2711265 0.20366038
2.1810002 1.7408299 -0.9201358
2.5068555 2.000921 -0.88493782
2.8031797 2.2374411 -0.79454672
2.7624693 2.2049468 -0.58925956
2.7505884 2.1954637 -0.39227045
2.7604349 2.2033229 -0.19728093
2.8466454 2.2721343 0
2.8496988 2.2745714 0.20366038
2.172225 1.7359751 -0.9168759
2.5154436 2.0102649 -0.88839793
2.7978616 2.2359645 -0.79342204
3.7517333 2.9982696 -0.80066472
2.7452166 2.1938922 -0.39169329
2.7773702 2.2195885 -0.19858705
2.822907 2.25598 0
2.8442605 2.2730451 0.20336983
2.1489134 1.7216042 -0.90791368
2.5130126 2.0133028 -0.88839793
2.8050709 2.2472854 -0.79623592
3.744097 2.9995873 -0.79980797
2.7425637 2.1972077 -0.39169329
2.7706342 2.2196965 -0.19829705
2.8181498 2.2577636 0
2.8374598 2.2732339 0.20307982
2.1468315 1.7241994 -0.90791368
2.502754 2.0100539 -0.8856293
2.8102777 2.2570374 -0.79848748
3.7404699 3.0041091 -0.79980797
2.7499878 2.2086165 -0.39313447
2.7578146 2.2149026 -0.19757093
2.819474 2.2644234 0
2.8347111 2.2766609 0.20307982
2.1851735 1.759341 -0.92502713
2.4944668 2.0083611 -0.88355482
2.8095257 2.2620234 -0.79904985
3.7348397 3.0070183 -0.79938036
2.7453043 2.2103174 -0.39284647
2.7531142 2.2166052 -0.19742593
0 0 0
2.8218324 2.2719319 0.2023537
2.1695809 1.7511122 -0.9193216
2.4978893 2.0160964 -0.8856293
2.8008568 2.2606275 -0.79736066
3.7491801 3.0260379 -0.80323166
2.7486718 2.2185078 -0.39371163
2.7544818 2.2231972 -0.19771649
0 0 0
2.8130248 2.2704484 0.20191871
2.1501727 1.739742 -0.91198772
2.5110538 2.0317373 -0.89116657
2.7981234 2.2640102 -0.79736066
2.8654921 2.3185194 -0.61450839
2.7580497 2.2315857 -0.39544082
2.7578478 2.2314227 -0.1981515
0 0 0
2.8062356 2.2705739 0.20162815
2.1480689 1.7423388 -0.91198772
2.4891167 2.0189691 -0.88424629
2.7914426 2.2641912 -0.79623592
2.8886044 2.3430011 -0.62007153
2.7493229 2.2300272 -0.39457566
2.7491012 2.2298474 -0.19771649
0 0 0
2.7954175 2.2674155 0.20104758
2.1574643 1.7542858 -0.9168759
2.5041919 2.0362184 -0.89047509
2.812362 2.2867987 -0.80299056
2.9056847 2.3626819 -0.62435043
2.758671 2.2431414 -0.39630598
2.7504332 2.236443 -0.1980065
2.8017075 2.2781353 0
2.7846115 2.2642343 0.20046704
2.1419308 1.7459587 -0.91117036
2.4920087 2.0313187 -0.88701493
2.805654 2.2869813 -0.80186373
2.9048157 2.3678114 -0.62477797
2.761975 2.2513771 -0.39717114
2.7437046 2.2364843 -0.19771649
2.8009682 2.2831616 0
2.7818737 2.2675972 0.20046704
2.1532185 1.7594944 -0.9168759
2.493434 2.0375001 -0.88839793
2.7851825 2.2759013 -0.79679829
2.8959949 2.3664513 -0.62349528
2.7652555 2.259618 -0.39803517
2.7389822 2.2381489 -0.19757093
2.7901464 2.2799575 0
2.7751114 2.2676718 0.20017703
2.1510911 1.7620949 -0.9168759
2.4890313 2.0389233 -0.88770646
2.7863655 2.2824883 -0.79792511
2.8832059 2.3618166 -0.62135589
2.7865334 2.2826259 -0.40149468
2.7202027 2.2282903 -0.19641037
2.7894006 2.2849748 0
2.7723694 2.2710233 0.20017703
2.1241307 1.7443032 -0.90628219
2.4865661 2.0419292 -0.88770646
2.7816362 2.2842364 -0.79736066
2.8585255 2.3473766 -0.61664784
2.827745 2.3221002 -0.40783656
2.7235267 2.2365179 -0.19684538
2.7886469 2.2899935 0
2.7656031 2.2710702 0.19988647
2.1315608 1.7547213 -0.91035622
2.4802268 2.0417464 -0.88632345
2.790648 2.2972882 -0.80073905
2.8398318 2.3377767 -0.61322409
2.86288 2.3567502 -0.4133144
2.7388756 2.2546687 -0.1981515
2.7838707 2.2917089 0
2.7588484 2.2711105 0.19959648
2.1542192 1.7777451 -0.92095
2.4661443 2.0351579 -0.88216913
2.791786 2.30389 -0.80186373
2.8191874 2.3265028 -0.60937279
2.9019213 2.394778 -0.41936827
2.7521825 2.2712076 -0.19931261
2.7730706 2.2884452 0
2.7561023 2.2744424 0.19959648
2.1463618 1.775625 -0.9185074
2.4772167 2.0493319 -0.88701493
2.7870443 2.3056436 -0.80130136
2.8242862 2.3364527 -0.61108464
2.9329033 2.4263086 -0.42426896
2.7374272 2.2645967 -0.19844206
2.7642932 2.2868223 0
2.7533519 2.277771 0.19959648
2.1499169 1.7829459 -0.92095
2.4921167 2.0667355 -0.89324373
2.7862103 2.3106298 -0.80186373
2.821461 2.3398635 -0.61108464
2.9538605 2.4496639 -0.42772847
2.720686 2.25629 -0.19742593
2.7475035 2.2785299 0
2.7425971 2.2744613 0.19901592
2.1439633 1.7823852 -0.9193216
2.4645402 2.048897 -0.88424629
2.7912316 2.3204923 -0.80411524
2.8067837 2.3334215 -0.60851604
2.9707839 2.469763 -0.43061084
2.7299504 2.2695458 -0.19829705
2.7147276 2.2568905 0
2.7438395 2.2810924 0.19930592
2.1076355 1.7564951 -0.90465379
2.4716971 2.0599027 -0.88770646
2.7903759 2.3254883 -0.80467761
2.7901638 2.3253117 -0.6055215
2.9757452 2.4799745 -0.43176401
2.727206 2.2728429 -0.19829705
2.7040017 2.2535043 0
2.7410812 2.2844062 0.19930592
2.1434398 1.7907274 -0.92095
2.4769075 2.0693216 -0.89047509
2.7973194 2.3370082 -0.80749363
2.7853839 2.3270369 -0.60509396
2.9588501 2.4719586 -0.42974567
2.7224579 2.2744656 -0.1981515
2.6912925 2.2484288 0
2.7223737 2.2743952 0.19814536
2.1299088 1.7837974 -0.91606176
2.4744053 2.0723131 -0.89047509
2.8003318 2.3452761 -0.80918068
2.764852 2.315562 -0.60124099
2.8745708 2.4074514 -0.41792709
2.7416227 2.2961073 -0.19974817
2.6845872 2.2483404 0
2.723604 2.2810166 0.19843535
2.1220713 1.7816005 -0.91361606
2.4776654 2.0801423 -0.89255226
2.7916634 2.3437614 -0.80749363
2.7423954 2.3023982 -0.59696215
2.8062916 2.3560426 -0.40841371
2.7288978 2.2910662 -0.19902261
2.6858511 2.254926 0
2.7168694 2.2809675 0.19814536
2.1180279 1.7825733 -0.91280186
2.46363 2.0734386 -0.88839793
2.7985477 2.3553121 -0.8103075
2.7317553 2.2990983 -0.59525025
2.7440794 2.3094704 -0.39976549
2.7380521 2.3043976 -0.19989316
2.6771569 2.2531471 0
2.7121174 2.2825706 0.19799981
2.1253161 1.7930987 -0.9168759
2.4630458 2.0780363 -0.88909209
2.7918119 2.3554118 -0.80918068
2.7348633 2.3073649 -0.59653461
2.7195392 2.2944362 -0.39659399
2.7392416 2.3110588 -0.20018372
2.678407 2.2597334 0
2.7034051 2.2808242 0.1975648
2.1420231 1.8116293 -0.92502713
2.4643605 2.0842481 -0.89047509
2.7928476 2.3620682 -0.8103075
2.7399135 2.3172987 -0.59824646
2.7049193 2.2877021 -0.3948648
2.7364471 2.3143668 -0.20018372
2.6697114 2.2579248 0
2.7046113 2.2874417 0.1978548
2.1040113 1.7838458 -0.90954202
2.4503624 2.077493 -0.88632345
2.793864 2.3687241 -0.81143218
2.7390678 2.3222661 -0.598674
2.6843994 2.2759166 -0.39227045
2.7395887 2.3227081 -0.20061873
2.6749213 2.2678809 0
2.6998653 2.2890294 0.1977098
2.1338687 1.813596 -0.92339563
2.4593165 2.0901973 -0.89047509
2.7948759 2.3753924 -0.81255907
2.746038 2.3338847 -0.60081345
2.6914997 2.2875321 -0.39371163
2.7209482 2.3125608 -0.19945817
2.670198 2.2694275 0
2.6931338 2.2889211 0.19741924
2.0884099 1.7793108 -0.90465379
2.4548812 2.091542 -0.88978362
2.8016722 2.3870056 -0.81537294
2.7490799 2.3421972 -0.60209775
2.71826 2.3159389 -0.39803517
2.7161684 2.3141568 -0.19931261
2.6654747 2.2709663 0
2.6923499 2.2938635 0.1975648
2.1088042 1.8010889 -0.91443026
2.4523523 2.0945067 -0.88978362
2.8007162 2.3920376 -0.81593531
2.7403898 2.3405142 -0.60081345
2.8000255 2.3914475 -0.41043091
2.7173257 2.3208156 -0.19960317
2.6745987 2.2843232 0
2.6856205 2.2937367 0.19727424
2.1208668 1.8136084 -0.9201358
2.4548962 2.0992458 -0.89116657
2.7992706 2.3937292 -0.81593531
2.7545834 2.3555162 -0.6042372
2.8084147 2.4015486 -0.41187322
2.7099967 2.3173888 -0.19916761
2.6791539 2.2910144 0
2.6842344 2.2953589 0.19727424
2.109293 1.8081284 -0.91606176
2.450455 2.1005793 -0.89047509
2.7983034 2.398762 -0.81649762
2.7439394 2.35216 -0.60252529
2.8074727 2.4066219 -0.41216123
2.6953616 2.310518 -0.19829705
2.6763837 2.2942498 0
2.6794879 2.296911 0.19712925
2.0996084 1.8042324 -0.91280186
2.4441133 2.1002717 -0.88909209
2.8069694 2.4120805 -0.81987602
2.7410951 2.3554738 -0.60252529
2.7986755 2.4049537 -0.41129607
2.6984744 2.3188488 -0.19873205
2.6755815 2.2991767 0
2.6747417 2.298455 0.19698425
2.1292596 1.8341893 -0.92665553
2.4510756 2.1114085 -0.89255226
2.80983 2.4204471 -0.82156521
2.7576928 2.375535 -0.60680413
2.7742171 2.3897696 -0.4081257
2.6917369 2.3187191 -0.19844206
2.6767488 2.3058083 0
2.6680214 2.2982903 0.19669369
2.1045938 1.8173763 -0.9168759
2.4618087 2.1258416 -0.89739537
2.8107457 2.4271586 -0.82268989
2.7548203 2.3788655 -0.60680413
2.7634971 2.386358 -0.40697253
2.6712351 2.3066871 -0.19713594
2.7035012 2.3345499 0
2.6613128 2.2981191 0.19640368
2.111738 1.8280046 -0.92095
2.445966 2.1173258 -0.89255226
2.8116496 2.4338758 -0.82381457
2.7519441 2.3821924 -0.60680413
2.7410522 2.3727639 -0.40408903
2.6802299 2.3201137 -0.1980065
2.7065833 2.3429263 0
2.6663926 2.3081357 0.19698425
2.1113999 1.8321794 -0.92176729
2.4396126 2.1169879 -0.89116657
2.8144658 2.4422688 -0.82550377
2.7490635 2.3855159 -0.60680413
2.7459972 2.3828549 -0.4052422
2.6774244 2.3233507 -0.1980065
0 0 0
2.6616335 2.3096478 0.19683869
2.0793476 1.8087749 -0.90872782
2.4351618 2.1182892 -0.89047509
2.8115127 2.445668 -0.82550377
2.7403743 2.3837862 -0.6055215
2.7450657 2.3878672 -0.40553021
2.6706979 2.3231766 -0.19771649
2.6753891 2.3272572 0
2.6549234 2.3094547 0.19654869
2.106966 1.8372765 -0.92176729
2.4269261 2.116282 -0.88839793
2.8104687 2.4507315 -0.82606614
2.7394247 2.3887813 -0.60594904
2.7441335 2.3928871 -0.40581936
2.671802 2.3298142 -0.1980065
2.672575 2.3304882 0
2.6501746 2.3109548 0.19640368
2.0987985 1.8391019 -0.9201358
2.4086022 2.1105719 -0.88355482
2.8121822 2.4642146 -0.8283177
2.7432957 2.4038517 -0.60808849
2.7363918 2.3978021 -0.40553021
2.6661639 2.3362639 -0.1980065
2.659106 2.3300793 0
2.6250353 2.3002243 0.19495201
2.109575 1.8530561 -0.92584133
2.4248953 2.1300342 -0.89047509
2.8111172 2.4692924 -0.82888216
2.7442503 2.4105563 -0.60894525
2.7373827 2.4045238 -0.40610737
2.6652894 2.341197 -0.1981515
2.6621563 2.3384447 0
2.606636 2.2896757 0.1937909
2.0999146 1.8490702 -0.92258149
2.4279702 2.137938 -0.89255226
2.8195696 2.482759 -0.8322584
2.7471099 2.4189551 -0.61022788
2.74224 2.4146669 -0.40726054
2.6644144 2.346138 -0.19829705
2.6554186 2.3382168 0
2.5687683 2.2619174 0.19117866
2.0698822 1.8270704 -0.91035622
2.4216199 2.1375465 -0.89116657
2.8203738 2.4895239 -0.83338308
2.744185 2.4222724 -0.61022788
2.7528887 2.4299552 -0.40927774
2.683001 2.3682659 -0.19989316
2.6564975 2.3448713 0
2.5504487 2.2512629 0.19001755
2.0695224 1.8312063 -0.91117036
2.4190352 2.140471 -0.89116657
2.8230741 2.497983 -0.83507228
2.7431841 2.4272926 -0.6106571
2.7441449 2.4281428 -0.40841371
2.6918173 2.3818409 -0.20076428
2.6517074 2.34635 0
2.5418942 2.2491822 0.18958254
2.0802531 1.8451878 -0.9168759
2.3976824 2.1267481 -0.88424629
2.8143494 2.4963324 -0.83338308
2.7383232 2.4288971 -0.61022788
2.7470083 2.4366007 -0.40927774
2.7044888 2.3988857 -0.2019254
2.6469254 2.347827 0
2.5352831 2.2488 0.18929198
2.0909531 1.859198 -0.92258149
2.426981 2.1579814 -0.89601237
2.8246245 2.5115514 -0.83732384
2.7411435 2.4373231 -0.61151218
2.7517939 2.4467928 -0.41043091
2.73265 2.4297709 -0.20424707
2.6499231 2.3562131 0
2.5306239 2.2501369 0.189147
2.0591841 1.8354101 -0.90954202
2.4093893 2.1475582 -0.89047509
2.8500416 2.5403242 -0.84576762
2.7477763 2.449172 -0.61365163
2.7584949 2.4587259 -0.41187322
2.7258365 2.4296165 -0.20395707
2.645133 2.3576834 0
2.5279033 2.2531931 0.189147
2.0864542 1.8642455 -0.92258149
2.4142759 2.1571541 -0.89324373
2.8526487 2.54884 -0.84745467
2.748647 2.4559145 -0.61450839
2.7883089 2.4913523 -0.41677392
2.7073975 2.4190581 -0.20279595
2.6383972 2.3574064 0
2.5135491 2.2458549 0.18827587
2.078675 1.8618166 -0.9201358
2.4135344 2.1617417 -0.89393526
2.8495669 2.552285 -0.84745467
2.7475879 2.4609449 -0.61493593
2.8161156 2.5223234 -0.42138547
2.688988 2.4084585 -0.20163484
2.6394279 2.3640687 0
2.5243845 2.2610273 0.18929198
2.0414865 1.8329582 -0.90465379
2.4071908 2.1613076 -0.89255226
2.8691688 2.5760965 -0.8542093
2.7541611 2.4728365 -0.61707538
2.8496344 2.5585577 -0.42686331
2.6725397 2.3995523 -0.20061873
2.638504 2.3689933 0
2.5216508 2.264076 0.18929198
2.0870311 1.8784103 -0.92584133
2.4064405 2.1658914 -0.89324373
2.8603935 2.5744669 -0.85252225
2.7645295 2.4881854 -0.62007153
0 0 -0
2.6735048 2.4062598 -0.20090929
2.631767 2.3686943 0
2.5073285 2.2566948 0.18842143
2.0627387 1.8610626 -0.91606176
2.3907809 2.1570318 -0.88839793
2.8629348 2.5830228 -0.8542093
2.7615209 2.491524 -0.62007153
2.8568876 2.5775666 -0.42888165
2.6551611 2.3955634 -0.19974817
2.6347017 2.3771043 0
2.5103822 2.2649395 0.18885644
2.0348287 1.8403463 -0.90465379
2.3918979 2.1632879 -0.88978362
2.8598118 2.5864801 -0.8542093
2.7680259 2.5034671 -0.62221098
2.8556874 2.5827501 -0.42916965
0 0 -0
2.6279709 2.3767979 0
2.5057185 2.2662299 0.18871143
2.067389 1.8743409 -0.9201358
2.3892822 2.1661766 -0.88978362
2.8529232 2.5865238 -0.85308462
2.763099 2.5050871 -0.62178344
2.8563933 2.5896699 -0.42974567
2.6994121 2.4473472 -0.20352152
2.6308758 2.3852108 0
2.4972012 2.2640183 0.18827587
2.0761006 1.8868147 -0.92502713
2.3829463 2.165684 -0.88839793
2.8573172 2.5968049 -0.85533613
2.7638659 2.5118737 -0.62263852
2.8456059 2.5861611 -0.4285925
0 0 -0
2.6260676 2.3866391 0
2.4963923 2.2687867 0.18842143
2.0592027 1.8760056 -0.9185074
2.3877459 2.1753199 -0.89116657
2.8504171 2.5968297 -0.8542093
2.7608287 2.5152116 -0.62263852
2.8310106 2.5791497 -0.42686331
0 0 -0
2.6308773 2.3968213 0
2.493649 2.2718015 0.18842143
2.0751815 1.8951566 -0.92665553
2.3869736 2.1799002 -0.89186072
2.845403 2.5985601 -0.85364693
2.7691646 2.5289357 -0.62520719
2.8107049 2.5668724 -0.42426896
0 0 -0
2.6260595 2.3982451 0
2.4966528 2.2800646 0.18885644
2.06674 1.8897386 -0.92339563
