# .PCD v0.7 - Point Cloud Data file format
VERSION 0.7
FIELDS x y z
SIZE 4 4 4
TYPE F F F
COUNT 1 1 1
WIDTH 1541
HEIGHT 1
VIEWPOINT 0 0 0 1 0 0 0
POINTS 1541
DATA ascii
-1.2871412 2.0228033 -0.7905618
-1.4310333 2.2489364 -0.73543882
-1.6472183 2.5886815 -0.67972475
-1.8782135 2.9517016 -0.58326721
-2.2295196 3.5037959 -0.46289736
-2.7442107 4.3126569 -0.28552127
-3.9573271 6.2191272 0
-4.9578452 7.7914891 0.5158388
-1.284272 2.0129201 -0.78730506
-1.4391471 2.2556655 -0.73820746
-1.650345 2.5866892 -0.67972475
-1.8831635 2.9516003 -0.58369637
-2.2295823 3.4945641 -0.46203333
-2.7536085 4.3159037 -0.28595626
-3.9634404 6.2121491 0
-4.9644637 7.7811155 0.51554883
-1.3000197 2.0321832 -0.79545313
-1.44863 2.2644897 -0.74166763
-1.6575783 2.5911167 -0.68141395
-1.8811951 2.9406729 -0.58198452
-2.2324107 3.4896908 -0.46174529
-2.7518215 4.301631 -0.28523073
-3.4731011 5.429131 0
-4.9542613 7.7444711 0.51351714
-1.2945827 2.0209932 -0.79137909
-1.4391721 2.2467139 -0.73613036
-1.6550306 2.583694 -0.67972475
-1.885738 2.9438548 -0.58283961
-2.2386999 3.4948692 -0.46260935
-2.7502191 4.2934098 -0.2847957
-3.4904211 5.4489503 0
-4.9771585 7.7699189 0.51540381
-1.3157207 2.048538 -0.80278707
-1.4364628 2.2365298 -0.73336166
-1.659523 2.5838282 -0.68028706
-1.8879077 2.9394164 -0.58241206
-2.2387319 3.4856391 -0.46174529
-2.7568078 4.2922678 -0.28494072
-3.5012176 5.451292 0
-4.9795179 7.7529616 0.5146777
-1.2860785 1.9970748 -0.78322786
-1.4418833 2.2390151 -0.73474735
-1.6626439 2.581821 -0.68028706
-1.8900696 2.9349768 -0.58198452
-2.247139 3.4894488 -0.46260935
-2.761992 4.2889338 -0.28494072
-3.516259 5.4601898 0
-4.993104 7.7534952 0.51511323
-1.2911745 1.9996761 -0.78485936
-1.4568341 2.2562375 -0.74097615
-1.6643853 2.5776775 -0.67972475
-1.8922234 2.9305365 -0.58155698
-2.2471488 3.4802186 -0.46174529
-2.7671723 4.285593 -0.28494072
-3.5129707 5.4406309 0
-5.005291 7.7518263 0.51540381
-1.3070194 2.0188582 -0.79300743
-1.4472899 2.2355239 -0.73474735
-1.6661192 2.5735338 -0.67916238
-1.895763 2.9282479 -0.58155698
-2.2541609 3.4818392 -0.46232134
-2.7652893 4.2713423 -0.28421515
-3.5167162 5.4320168 0
-5.0188861 7.7523103 0.5158388
-1.2933092 1.9923998 -0.78322786
-1.4595478 2.2484977 -0.73959047
-1.6706097 2.573648 -0.67972475
-1.9020926 2.9302573 -0.58241206
-2.2569594 3.4769454 -0.46203333
-2.7704484 4.2679977 -0.28421515
-3.5204403 5.4233937 0
-5.0282497 7.7462401 0.5158388
-1.3011085 1.9991217 -0.78648776
-1.4595292 2.2425311 -0.73820746
-1.6681741 2.5631092 -0.67747319
-1.8958284 2.9128942 -0.57941592
-2.2569249 3.4677103 -0.46116817
-2.7756033 4.264647 -0.28421515
-3.5227308 5.41259 0
-5.0432754 7.7488699 0.51641935
-1.3035231 1.997548 -0.78648776
-1.455384 2.230263 -0.73474735
-1.6740445 2.5653434 -0.67859787
-1.9035567 2.917053 -0.58070022
-2.2625256 3.4671447 -0.46145618
-2.7793303 4.2591081 -0.2840696
-3.5278473 5.4061522 0
-5.0625763 7.7580056 0.51743549
-1.3154097 2.0104513 -0.79219329
-1.4704386 2.2473948 -0.74097615
-1.6701885 2.5526896 -0.67578399
-1.9070799 2.9147508 -0.58070022
-2.2652984 3.4622462 -0.46116817
-2.7787838 4.2470489 -0.28348905
-3.5358005 5.4040613 0
-5.0847492 7.77145 0.51874161
-1.3029237 1.9861257 -0.78322786
-1.4607694 2.2267394 -0.73474735
-1.6802391 2.5612903 -0.67859787
-1.9063749 2.906003 -0.57941592
-2.2708976 3.4616671 -0.46145618
-2.7853429 4.2458673 -0.2836346
-3.5394754 5.3954372 0
-5.1112394 7.7913723 0.52048326
-1.3026088 1.9804239 -0.78159952
-1.4648362 2.2270668 -0.73543882
-1.6749575 2.546525 -0.67522168
-1.9070662 2.8994119 -0.57856077
-2.2665534 3.4459591 -0.45972699
-2.7819009 4.2294688 -0.28276348
-3.5445633 5.3889842 0
-5.1235032 7.7895284 0.52077323
-1.2941151 1.9623419 -0.77507979
-1.4702911 2.2294879 -0.73682451
-1.6794308 2.5466185 -0.67578399
-1.9105681 2.8971055 -0.57856077
-2.2664423 3.436738 -0.45886183
-2.7970245 4.241291 -0.28377959
-3.5439098 5.3738365 0
-5.1529417 7.8137054 0.52280551
-1.3169346 1.991704 -0.78730506
-1.4785135 2.2360723 -0.73959047
-1.6811066 2.54247 -0.67522168
-1.9154818 2.896934 -0.57898831
-2.2805805 3.4491017 -0.46088016
-2.7992783 4.2335691 -0.28348905
-3.546093 5.3630357 0
-5.1638112 7.8096385 0.52295047
-1.3015823 1.9633249 -0.77670813
-1.4881493 2.2447453 -0.74305326
-1.6883907 2.5467923 -0.67691088
-1.9218204 2.8989007 -0.57984507
-2.2790298 3.4377203 -0.45972699
-2.7986541 4.221529 -0.28290904
-3.5496917 5.3544044 0
-5.1919079 7.8315463 0.52483714
-1.3244777 1.9926285 -0.7889334
-1.4769704 2.2220483 -0.73613036
-1.6886511 2.540514 -0.67578399
-1.9167929 2.8837452 -0.57727647
-2.2860427 3.4392681 -0.46030301
-2.8023102 4.2159739 -0.28276348
-3.5604823 5.356616 0
-5.2215014 7.8555589 0.52686882
-1.3172884 1.9766276 -0.78322786
-1.4768744 2.2160907 -0.73474735
-1.6959481 2.544817 -0.67747319
-1.9202759 2.881427 -0.57727647
-2.2815933 3.4235935 -0.45857382
-2.8102872 4.2169132 -0.28305405
-3.5597372 5.3414836 0
-5.2583704 7.8903294 0.52962661
-1.3032033 1.9503815 -0.77345145
-1.4753683 2.2080445 -0.73267019
-1.6976116 2.5406551 -0.67691088
-1.9280361 2.88551 -0.57856077
-2.2828517 3.4165289 -0.45799667
-2.8110483 4.2070308 -0.28261849
-3.5661886 5.3371787 0
-5.2895503 7.9163718 0.53180331
-1.3000565 1.9405918 -0.77019155
-1.4836204 2.2145975 -0.73543882
-1.7035059 2.54282 -0.67803556
-1.9300939 2.8810475 -0.57813323
-2.2927365 3.4223633 -0.45914984
-2.8219144 4.2122664 -0.28319904
-3.5755291 5.3371859 0
-5.3236966 7.946672 0.53427052
-1.3092896 1.9492763 -0.77426559
-1.4751046 2.1961424 -0.72990155
-1.7009101 2.5323226 -0.67578399
-1.9278483 2.8701894 -0.57642138
-2.29687 3.4195905 -0.45914984
-2.8255546 4.2066989 -0.28305405
-3.5718219 5.3177447 0
-5.3419905 7.9531798 0.53514165
-1.3047423 1.9374444 -0.77019155
-1.4959733 2.2214081 -0.73889899
-1.7025508 2.5281601 -0.67522168
-1.9413482 2.8827565 -0.57941592
-2.2894423 3.3996499 -0.4568435
-2.8306355 4.2032814 -0.28305405
-3.5753345 5.309104 0
-5.3312736 7.9165411 0.53310943
-1.3142009 1.9489473 -0.77507979
-1.4917047 2.2121837 -0.73613036
-1.705497 2.5292358 -0.67578399
-1.934481 2.8688169 -0.57684892
-2.2987301 3.4089947 -0.45828581
-2.8331745 4.2015705 -0.28305405
-3.5785415 5.3069429 0
-5.3505855 7.9348669 0.5345611
-1.3276293 1.9637386 -0.78159952
-1.4733039 2.1792104 -0.72574991
-1.7071302 2.5250702 -0.67522168
-1.9379461 2.8664773 -0.57684892
-2.2970529 3.3976438 -0.45713264
-2.8295143 4.1852241 -0.28218293
-3.5834951 5.3004608 0
-5.3776336 7.9542279 0.53630275
-1.3091981 1.9314425 -0.76937425
-1.4900095 2.1981912 -0.73267019
-1.7059016 2.5166938 -0.67353249
-1.9370859 2.8577569 -0.57556462
-2.2997012 3.3927186 -0.4568435
-2.8404012 4.1904058 -0.28276348
-3.5840561 5.2875104 0
-5.3828654 7.9412694 0.53586721
-1.3222148 1.9405322 -0.77426559
-1.4854275 2.1800692 -0.72782439
-1.7177014 2.5209632 -0.67578399
-1.9439862 2.8530674 -0.57556462
-2.3049834 3.3828802 -0.45626748
-2.8417432 4.1706495 -0.28189293
-3.5938954 5.2745361 0
-5.3742394 7.8874359 0.53310943
-1.3301353 1.9470966 -0.77752548
-1.5064616 2.2052088 -0.73682451
-1.7064164 2.4979093 -0.67015624
-1.9488789 2.852834 -0.57599217
-2.3134477 3.3865018 -0.45713264
-2.8438463 4.1629171 -0.28160238
-3.598794 5.2680345 0
-5.3749747 7.8680673 0.53223884
-1.3031588 1.9026674 -0.76041198
-1.4935296 2.1806169 -0.72921002
-1.7137421 2.5021365 -0.67184544
-1.9537792 2.8526011 -0.57642138
-2.3189981 3.3858359 -0.45742065
-2.8532808 4.1659117 -0.28203791
-3.6066315 5.2658358 0
-5.3859444 7.8637085 0.53238386
-1.2984626 1.890906 -0.75633794
-1.5018439 2.187083 -0.73197871
-1.7196381 2.5042491 -0.67297012
-1.9586765 2.8523524 -0.57684892
-2.3230875 3.3830314 -0.45742065
-2.8524287 4.1538925 -0.28145736
-3.6070988 5.2528925 0
-5.3895588 7.8486266 0.53180331
-1.3245718 1.9239421 -0.77019155
-1.5002161 2.1790655 -0.72990155
-1.7212232 2.5000787 -0.67240781
-1.9562987 2.8415258 -0.57513702
-2.3242373 3.375957 -0.4568435
-2.8530238 4.1440201 -0.2810218
-3.6090145 5.2420974 0
-5.3931441 7.8335476 0.53122276
-1.3325118 1.9304765 -0.77345145
-1.5000005 2.1731257 -0.72851855
-1.7285744 2.5042725 -0.674097
-1.9597306 2.83916 -0.57513702
-2.3297882 3.3752811 -0.45713264
-2.8639333 4.1491237 -0.28160238
-3.6182997 5.242012 0
-5.4026055 7.8270254 0.53122276
-1.3165549 1.902438 -0.76285452
-1.5040514 2.1733727 -0.72921002
-1.7229208 2.4896417 -0.67071861
-1.9617004 2.834681 -0.57470948
-2.329448 3.3660808 -0.45626748
-2.8615527 4.1349788 -0.28087682
-3.6157482 5.2248001 0
-5.392838 7.792717 0.52933609
-1.3244885 1.9089687 -0.76611441
-1.520975 2.192162 -0.73613036
-1.7302746 2.4938228 -0.67240781
-1.96951 2.83863 -0.57599217
-2.3320405 3.3611407 -0.45597947
-2.8709922 4.1379251 -0.28131238
-3.6309571 5.233253 0
-5.4066949 7.7926016 0.52977163
-1.323974 1.9033128 -0.76448601
-1.4978383 2.1532557 -0.72367275
-1.7332865 2.4917305 -0.67240781
-1.9641458 2.8236082 -0.57342517
-2.3287165 3.3477058 -0.45453829
-2.8685722 4.1237893 -0.28058681
-3.6253943 5.2117786 0
-5.4250069 7.7988577 0.53064221
-1.3361712 1.9159045 -0.77019155
-1.5291411 2.1925995 -0.73751599
-1.7450142 2.502135 -0.67578399
-1.9675562 2.8212328 -0.57342517
-2.3386781 3.3533757 -0.45569143
-2.8720679 4.1181908 -0.28044182
-3.6331763 5.2095265 0
-5.440372 7.8008223 0.53122276
-1.3469802 1.9264382 -0.77507979
-1.5159744 2.1681321 -0.72990155
-1.733479 2.4792051 -0.67015624
-1.9739084 2.823065 -0.57428193
-2.344209 3.3526652 -0.45597947
-2.8815045 4.1210999 -0.28087682
-3.6394684 5.205133 0
-5.434907 7.7729516 0.52977163
-1.3294473 1.8964791 -0.76367182
-1.5200318 2.1683509 -0.73059303
-1.7350162 2.4750299 -0.66959387
-1.971424 2.8122697 -0.57257009
-2.3348975 3.330771 -0.45338511
-2.8641129 4.0857058 -0.27870014
-3.6412721 5.1943364 0
-5.4189401 7.7302098 0.52730441
-1.3544714 1.9272178 -0.77670813
-1.537079 2.1870422 -0.73751599
-1.7423844 2.4791622 -0.67128092
-1.9807249 2.8182864 -0.57428193
-2.3433778 3.3342896 -0.45424914
-2.8720331 4.0864897 -0.27899015
-3.6460507 5.1878057 0
-5.4223003 7.7151527 0.52672386
-1.3354487 1.8952793 -0.76448601
-1.5093762 2.1421185 -0.72298127
-1.7453787 2.4770551 -0.67128092
-1.9841288 2.8158913 -0.57428193
-2.3429399 3.3251185 -0.45338511
-2.8754735 4.0808945 -0.27884513
-3.6433196 5.1706276 0
-5.4376054 7.7170916 0.52730441
-1.3220497 1.8714566 -0.75552064
-1.5380158 2.1771722 -0.73543882
-1.7425064 2.4666433 -0.66902941
-1.9816053 2.805105 -0.57257009
-2.3424776 3.3159456 -0.45251995
-2.8774009 4.0731683 -0.27855459
-3.6510706 5.1683531 0
-5.45892 7.7274942 0.52846551
-1.3428793 1.8960766 -0.76611441
-1.5377482 2.1712215 -0.73405582
-1.7484255 2.4686871 -0.67015624
-1.9849932 2.8027086 -0.57257009
-2.3494694 3.3173301 -0.45309597
-2.8823204 4.0696883 -0.27855459
-3.6558044 5.161808 0
-5.4171939 7.6487999 0.52353108
-1.3394456 1.8863915 -0.76285452
-1.530202 2.155041 -0.72921002
-1.7499374 2.4645028 -0.66959387
-1.9868878 2.798209 -0.57214087
-2.3564737 3.3187108 -0.45367312
-2.8857329 4.064086 -0.27840957
-3.6575229 5.1510272 0
-5.3978477 7.6019921 0.52077323
-1.3148088 1.8493268 -0.74818671
-1.5242366 2.1438947 -0.72574991
-1.7587862 2.4737973 -0.67240781
-1.985606 2.7928276 -0.57128572
-2.3539808 3.3109603 -0.45280796
-2.885179 4.0581102 -0.27811956
-3.6576152 5.1445704 0
-5.3678136 7.5500269 0.51743549
-1.3385627 1.8779286 -0.76041198
-1.5326506 2.150223 -0.72851855
-1.7617741 2.4716704 -0.67240781
-1.9949391 2.7987881 -0.57299763
-2.3564799 3.3060095 -0.45251995
-2.8900805 4.0546212 -0.27811956
-3.6623197 5.1380296 0
-5.372406 7.5371857 0.5169999
-1.3164028 1.8421261 -0.74655837
-1.5367049 2.1504087 -0.72921002
-1.7573742 2.4592054 -0.66959387
-1.9908582 2.7859344 -0.57085818
-2.3544576 3.2947421 -0.45136678
-2.8874252 4.0405579 -0.27739403
-3.6685252 5.1336007 0
-4.1623783 5.8246803 0.39987835
-1.3502929 1.8847324 -0.76448601
-1.5422214 2.1526253 -0.73059303
-1.7618227 2.4591436 -0.67015624
-1.9957166 2.7856116 -0.57128572
-2.3629575 3.2982047 -0.45223194
-2.8998704 4.0476251 -0.27811956
-3.6716914 5.124929 0
-4.1800079 5.834435 0.40089446
-1.3597772 1.8931347 -0.76856005
-1.5316508 2.1324236 -0.72436422
-1.7618253 2.4528816 -0.66902941
-2.0035751 2.7894552 -0.57257009
-2.3639202 3.2911415 -0.45165479
-2.8971813 4.0335679 -0.27739403
-3.6702914 5.1099219 0
-4.1946325 5.8399301 0.40162003
-1.346175 1.8694257 -0.75959468
-1.5386257 2.1366808 -0.72644138
-1.770727 2.4589987 -0.67128092
-1.9994395 2.7766104 -0.57042897
-2.3694053 3.2903795 -0.4519428
-2.9081206 4.0384908 -0.27797401
-3.6734245 5.101264 0
-0 0 0
-1.3412006 1.8577799 -0.75552064
-1.5367996 2.128716 -0.72436422
-1.7677479 2.448617 -0.66902941
-2.0088034 2.7825177 -0.57214087
-2.3703542 3.283324 -0.45136678
-2.9084399 4.0286598 -0.27753901
-3.6795855 5.0968213 0
-0 0 0
-1.3637352 1.8841926 -0.76693171
-1.5379009 2.1248271 -0.72367275
-1.7692169 2.4444227 -0.66846704
-2.0091567 2.7759335 -0.57128572
-2.3712895 3.2762711 -0.45079073
-2.9117835 4.0230398 -0.27739403
-3.6872659 5.0944781 0
-0 0 0
-1.3616549 1.8765402 -0.76448601
-1.5625696 2.1534271 -0.73405582
-1.7721692 2.4422832 -0.66846704
-2.0110033 2.7714281 -0.57085818
-2.3752465 3.2734034 -0.45079073
-2.9120626 4.013207 -0.27695847
-3.688832 5.0836978 0
-4.2151804 5.8090749 0.40089446
-1.3610106 1.8708923 -0.76285452
-1.5489347 2.1292195 -0.72644138
-1.7721323 2.4360347 -0.66734236
-2.0022693 2.752389 -0.56743443
-2.3837605 3.2767999 -0.45165479
-2.9138496 4.0054789 -0.27666789
-3.6965075 5.0813475 0
-4.2023258 5.7766633 0.3990078
-1.3545345 1.8572686 -0.75796628
-1.5441163 2.1172135 -0.72298127
-1.778066 2.4379935 -0.66846704
-2.0176947 2.7665601 -0.57085818
-2.3831501 3.2676539 -0.45079073
-2.9186873 4.001955 -0.27666789
-3.6980424 5.0705671 0
-4.2292061 5.7988715 0.40089446
-1.3699056 1.8735852 -0.76530021
-1.5540757 2.1254702 -0.72644138
-1.7840129 2.4399493 -0.66959387
-2.0210361 2.7641201 -0.57085818
-2.388622 3.2668579 -0.45107877
-2.9235208 3.9984255 -0.27666789
-3.7010915 5.0618892 0
-5.4922252 7.5115776 0.51975769
-1.3692487 1.8679456 -0.76367182
-1.5492283 2.1134758 -0.72298127
-1.7824519 2.4316421 -0.66790468
-2.0228527 2.7595997 -0.57042897
-2.3879788 3.257709 -0.45021361
-2.92835 3.99489 -0.27666789
-3.7025938 5.0511227 0
-5.4905424 7.4902639 0.51874161
-1.3773594 1.8742564 -0.76693171
-1.5651501 2.1297946 -0.72921002
-1.7838855 2.4274411 -0.66734236
-2.0322661 2.7654278 -0.57214087
-2.39957 3.2652404 -0.45165479
-2.9347181 3.9934487 -0.27681348
-3.7102339 5.0487404 0
-5.4118886 7.3642845 0.51046932
-1.3678948 1.8566717 -0.76041198
-1.5483789 2.1016464 -0.72021258
-1.7898287 2.4293711 -0.66846704
-2.0310426 2.7567759 -0.57085818
-2.3958442 3.2519288 -0.45021361
-2.934916 3.9836218 -0.27637792
-3.7086148 5.0337791 0
-5.4901323 7.4518695 0.5169999
-1.35545 1.8351327 -0.75226074
-1.5643303 2.117934 -0.72644138
-1.7882324 2.4210732 -0.66677785
-2.0328426 2.752249 -0.57042897
-2.3936253 3.2407095 -0.44906044
-2.9397273 3.9800725 -0.27637792
-3.7208793 5.0376678 0
-5.4497371 7.3783545 0.51235598
-1.3723776 1.8533607 -0.76041198
-1.5609165 2.1079776 -0.72367275
-1.7881353 2.4148307 -0.66565317
-2.030056 2.7415385 -0.56871712
-2.4021583 3.2440529 -0.4499256
-2.938349 3.9681647 -0.27579734
-3.7192214 5.0227127 0
-5.4601932 7.3738503 0.512501
-1.3893455 1.8715427 -0.76856005
-1.5679501 2.1121352 -0.72574991
-1.7910519 2.4126682 -0.66565317
-2.0303099 2.7349651 -0.56786203
-2.4060762 3.241148 -0.4499256
-2.9462364 3.96878 -0.27608734
-3.723732 5.0161195 0
-5.4752946 7.3755927 0.51308155
-1.3753725 1.8480502 -0.75959468
-1.5600148 2.096149 -0.72090411
-1.7954813 2.4125388 -0.66621548
-2.0428059 2.7448618 -0.57042897
-2.408448 3.2361653 -0.44963759
-2.9448242 3.9568791 -0.27550679
-3.7251334 5.0053592 0
-5.464036 7.3418751 0.51119488
-1.3835167 1.854311 -0.76285452
-1.5565455 2.0862195 -0.71813548
-1.7938411 2.404264 -0.66452849
-2.0430536 2.7382805 -0.56957388
-2.4139018 3.2353239 -0.4499256
-2.9542663 3.9595678 -0.27594236
-3.7265081 4.9945946 0
-5.4433784 7.2956953 0.5084371
-1.3624526 1.8237791 -0.75063241
-1.5878348 2.1254759 -0.73197871
-1.8059338 2.417423 -0.66846704
-2.0385623 2.7288196 -0.56786203
-2.4174025 3.235935 -0.45021361
-2.9504373 3.9494555 -0.27536178
-3.7295251 4.9923425 0
-5.4680004 7.3194652 0.51032376
-1.3676157 1.8260844 -0.75226074
-1.5648372 2.0894208 -0.72021258
-1.8073318 2.4132073 -0.66790468
-2.0433953 2.7284071 -0.56828958
-2.4151089 3.2247307 -0.44906044
-2.9598818 3.9521291 -0.27579734
-3.7355547 4.9878321 0
-5.5188985 7.36901 0.51424271
-1.3757572 1.8323365 -0.75552064
-1.5763958 2.0995622 -0.72436422
-1.7980415 2.3947663 -0.6634016
-2.0451508 2.7238851 -0.56786203
-2.4252155 3.2300837 -0.45021361
-2.9662137 3.9506257 -0.27594236
-3.7337673 4.9729109 0
-5.4778733 7.2958422 0.5095982
-1.3868914 1.8425249 -0.76041198
-1.5744097 2.0916483 -0.72228974
-1.8177439 2.4149249 -0.66959387
-2.0468984 2.719363 -0.56743443
-2.4213407 3.2168205 -0.44877243
-2.9678628 3.9428906 -0.27565235
-3.7350764 4.9621558 0
-5.5210605 7.334887 0.51279104
-1.3727387 1.8191439 -0.7514466
-1.5890193 2.1057572 -0.72782439
-1.8084165 2.3965008 -0.6650908
-2.0517273 2.7189348 -0.56786203
-2.422107 3.2097592 -0.44819528
-2.9694915 3.9351494 -0.27536178
-3.7426357 4.9597149 0
-5.4923611 7.2784386 0.50930822
-1.3973047 1.8470525 -0.76367182
-1.5718875 2.0778279 -0.71882695
-1.8067105 2.3882329 -0.6634016
-2.0519106 2.7123554 -0.56700528
-2.4259834 3.2068303 -0.44819528
-2.9695456 3.9253476 -0.27492678
-3.7501943 4.9572625 0
-5.5356379 7.3173828 0.512501
-1.3920634 1.8355105 -0.75959468
-1.5971384 2.1059129 -0.72921002
-1.8203442 2.4002218 -0.66734236
-2.0536368 2.7078307 -0.56657767
-2.4329855 3.2080221 -0.44877243
-2.9742863 3.9217565 -0.27492678
-3.7561815 4.9527273 0
-5.4251471 7.1533484 0.50147098
-1.3853077 1.8220259 -0.75470644
-1.5799439 2.0780213 -0.72021258
-1.814013 2.3858807 -0.66396397
-2.0600176 2.7094381 -0.56743443
-2.4337261 3.2009583 -0.44819528
-2.9774456 3.9160855 -0.27478123
-3.7558627 4.9398985 0
-5.5076985 7.2440004 0.50829208
-1.3860114 1.8183869 -0.75389224
-1.5763704 2.0681298 -0.71744394
-1.8230557 2.3917701 -0.66621548
-2.0555105 2.6967409 -0.56529504
-2.4360256 3.19596 -0.44790727
-2.979028 3.9083557 -0.27449122
-3.7602527 4.9332886 0
-5.5148735 7.2352753 0.50814712
-1.4047105 1.8383079 -0.76285452
-1.5849611 2.0741971 -0.72021258
-1.8244032 2.3875487 -0.66565317
-2.0587676 2.6942554 -0.56529504
-2.4383166 3.1909611 -0.44761926
-2.9821723 3.9026906 -0.27434623
-3.7583117 4.9184041 0
-5.5283403 7.2347946 0.50858212
-1.4144503 1.8464252 -0.76693171
-1.6149248 2.108125 -0.73267019
-1.8303741 2.3893728 -0.66677785
-2.0573368 2.6856501 -0.56401074
-2.4453132 3.1921151 -0.44819528
-2.9837222 3.8949549 -0.27405566
-3.7690012 4.9200592 0
-5.5386629 7.2301779 0.50872767
-1.3925937 1.8133508 -0.75389224
-1.5991343 2.0822954 -0.72436422
-1.8255233 2.3770852 -0.66396397
-2.0652726 2.6892722 -0.56529504
-2.4475946 3.1871088 -0.44790727
-2.9915948 3.8954725 -0.27434623
-3.7733598 4.9134393 0
-5.4951687 7.1554742 0.5039382
-1.4098587 1.8312473 -0.76204032
-1.5817549 2.0545211 -0.71536678
-1.8283942 2.3748777 -0.66396397
-2.0732141 2.6928711 -0.56657767
-2.4482913 3.1800539 -0.44733125
-2.9978831 3.8939118 -0.27449122
-3.7697651 4.8964996 0
-5.5053945 7.1508861 0.50408322
-1.4166023 1.8354142 -0.76448601
-1.5995677 2.0724723 -0.72228974
-1.8467902 2.3927853 -0.66959387
-2.0717654 2.6842732 -0.56529504
-2.452132 3.1770935 -0.44733125
-2.993057 3.8779407 -0.27362013
-3.7852228 4.9043064 0
-5.4949789 7.1195445 0.50234151
-1.3961298 1.8043776 -0.75226074
-1.6143467 2.0864038 -0.72782439
-1.834128 2.3704522 -0.66396397
-2.0750074 2.6817679 -0.56529504
-2.4575503 3.1761718 -0.44761926
-3.0056958 3.8846025 -0.27434623
-3.7863665 4.8935523 0
-5.4892683 7.0944057 0.50103539
-1.4028552 1.80855 -0.75470644
-1.590728 2.0507543 -0.71605831
-1.835435 2.3662286 -0.6634016
-2.0845337 2.6873646 -0.56700528
-2.4550452 3.1650252 -0.44646609
-3.0024197 3.8706963 -0.27362013
-3.7874899 4.8828025 0
-5.4898748 7.0775042 0.50030982
-1.4217303 1.8283178 -0.76367182
-1.5978265 2.054774 -0.71813548
-1.8304955 2.353982 -0.66058773
-2.0767531 2.6706643 -0.56401074
-2.4556892 3.1579688 -0.44588894
-3.0150745 3.8773277 -0.27434623
-3.7949829 4.8802748 0
-5.4872556 7.0565047 0.49929374
-1.4300168 1.8343956 -0.76693171
-1.6080188 2.0627329 -0.72159559
-1.8364599 2.3557725 -0.66171241
-2.083132 2.6721983 -0.56486583
-2.4658639 3.1631589 -0.44704211
-3.011765 3.8634293 -0.27362013
-3.7944767 4.867476 0
-5.4925857 7.0457745 0.49900374
-1.414395 1.8120975 -0.75796628
-1.6092646 2.0617611 -0.72159559
-1.8378828 2.3546624 -0.66171241
-2.0863302 2.6729689 -0.56529504
-2.4645948 3.1575947 -0.44646609
-3.0125012 3.8595626 -0.27347511
-3.7942173 4.861083 0
-5.5384073 7.0957084 0.5027771
-1.3952628 1.7831395 -0.74655837
-1.6071211 2.0538933 -0.71952111
-1.8485602 2.3624513 -0.66452849
-2.0832305 2.662359 -0.56358314
-2.4747839 3.1627624 -0.44761926
-3.013963 3.8518307 -0.2731851
-3.7968776 4.8523922 0
-5.4733214 6.9948792 0.49610093
-1.3943626 1.7775592 -0.74492687
-1.6080488 2.0499704 -0.71882695
-1.8514134 2.3602159 -0.66452849
-2.0927835 2.6679192 -0.56529504
-2.4690225 3.1475554 -0.44588894
-3.0202172 3.8502288 -0.27333012
-3.7995286 4.843709 0
-5.5026164 7.0148373 0.49798763
-1.4209543 1.8069586 -0.75796628
-1.6198323 2.0598619 -0.72298127
-1.8526887 2.3559742 -0.66396397
-2.0960057 2.6653883 -0.56529504
-2.4776218 3.1506712 -0.4467541
-3.0168378 3.8363659 -0.27260455
-3.8005507 4.8329754 0
-5.4805751 6.9693809 0.49523038
-1.4261941 1.8091185 -0.75959468
-1.6285328 2.065784 -0.72574991
-1.8429496 2.3377705 -0.6594609
-2.097631 2.6608322 -0.56486583
-2.481427 3.147675 -0.4467541
-3.021471 3.8327177 -0.27260455
-3.8063877 4.8283796 0
-5.4922066 6.9668307 0.49552038
-1.4299159 1.8093387 -0.76041198
-1.6123611 2.040195 -0.71744394
-1.8568028 2.3494985 -0.6634016
-2.0944777 2.6502395 -0.56315398
-2.4804158 3.1385846 -0.44588894
-3.0180457 3.8188727 -0.27187899
-3.810607 4.8217373 0
-5.5022302 6.9622259 0.4956654
-1.44898 1.8289142 -0.76937425
-1.6210568 2.0461111 -0.72021258
-1.8564876 2.3432736 -0.66227692
-2.1040549 2.6557553 -0.56486583
-2.4842064 3.1355853 -0.44588894
-3.025882 3.8192928 -0.27216899
-3.8115804 4.8110075 0
-5.5187111 6.9657621 0.49639151
-1.3973918 1.7594274 -0.74085283
-1.6313279 2.0539715 -0.72367275
-1.8545754 2.3350577 -0.66058773
-2.1024773 2.647186 -0.56358314
-2.4928207 3.1386595 -0.4467541
-3.03373 3.8197072 -0.27245957
-3.8173907 4.8063984 0
-5.5255032 6.9570479 0.49624595
-1.4201418 1.7792259 -0.75063241
-1.6409835 2.0559075 -0.72574991
-1.8602128 2.3305693 -0.66058773
-2.1040626 2.6360767 -0.56229883
-2.4891083 3.1184814 -0.4447369
-3.041326 3.810328 -0.27231401
-3.8225007 4.7890234 0
-5.5358157 6.9355512 0.4956654
-1.4315528 1.7890841 -0.75552064
-1.6387626 2.0480447 -0.72367275
-1.8630276 2.3283198 -0.66058773
-2.1136615 2.6415498 -0.56401074
-2.4880252 3.109411 -0.44387174
-3.045928 3.8066504 -0.27231401
-3.8282845 4.7844009 0
-5.5344543 6.916688 0.49479482
-1.4259825 1.777715 -0.7514466
-1.628678 2.0304072 -0.71813548
-1.8610684 2.3201189 -0.65889853
-2.1152472 2.6369934 -0.56358314
-2.4901636 3.1043868 -0.44358373
-3.0489011 3.8009422 -0.27216899
-3.835696 4.7818079 0
-5.5590634 6.9302607 0.49624595
-1.4405202 1.7913995 -0.75796628
-1.6327007 2.030391 -0.71882695
-1.8670579 2.3218327 -0.66002542
-2.1184318 2.6344357 -0.56358314
-2.4971514 3.1054032 -0.44415975
-3.0518646 3.7952325 -0.27202401
-3.8398354 4.7751355 0
-5.5690665 6.9255695 0.49639151
-1.4333797 1.7781159 -0.75307804
-1.6257089 2.0167015 -0.71467531
-1.8666697 2.3156147 -0.65889853
-2.1103344 2.6178823 -0.56058699
-2.5009019 3.1023836 -0.44415975
-3.0499251 3.7834501 -0.27144346
-3.8390691 4.7623878 0
-5.5888414 6.9329906 0.49740705
-1.4432931 1.7859926 -0.75715214
-1.6439101 2.0342445 -0.72159559
-1.8678708 2.3113832 -0.65833622
-2.121562 2.6253116 -0.56272638
-2.5030246 3.0973496 -0.44387174
-3.0577579 3.7838004 -0.27173343
-3.8464613 4.7597756 0
-5.5384245 6.8534837 0.49218258
-1.4438957 1.7823287 -0.75633794
-1.6337332 2.0166619 -0.71605831
-1.8626666 2.2992549 -0.65552235
-2.1295819 2.628732 -0.56401074
-2.5083919 3.0963306 -0.44415975
-3.0541508 3.7700095 -0.2710079
-3.8472934 4.7490559 0
-5.5237994 6.8185158 0.49015036
-1.4413724 1.7748251 -0.75389224
-1.6314285 2.0088496 -0.71398383
-1.8766516 2.3108037 -0.6594609
-2.1279001 2.6201768 -0.56272638
-2.5170245 3.0993228 -0.44502491
-3.0603404 3.7683315 -0.27115288
-3.8546681 4.7464218 0
-4.8669991 5.9929495 0.43122682
-1.4341501 1.7615782 -0.74900091
-1.6322722 2.0049331 -0.7132923
-1.8842566 2.3144476 -0.6611501
-2.1326838 2.6195927 -0.56315398
-2.515867 3.0902598 -0.44415975
-3.0648916 3.764631 -0.27115288
-3.853828 4.7336879 0
-4.8972073 6.0152798 0.43325904
-1.4300265 1.7521846 -0.74574101
-1.6410326 2.0107265 -0.71605831
-1.874199 2.2964211 -0.65664703
-2.129355 2.6090586 -0.56144208
-2.5130577 3.0792024 -0.44300658
-3.069438 3.7609248 -0.27115288
-3.8644831 4.7350788 0
-4.9061136 6.0113692 0.43340403
-1.4227551 1.7389815 -0.74085283
-1.6323452 1.9951558 -0.7112152
-1.8818009 2.3000562 -0.65833622
-2.1373842 2.6124463 -0.56272638
-2.5200553 3.0801711 -0.44358373
-3.0723364 3.7552042 -0.2710079
-3.8619635 4.7203364 0
-4.905148 5.9953828 0.43267849
-1.4488653 1.7687136 -0.75389224
-1.6399095 2.0019321 -0.71398383
-1.8831902 2.298919 -0.65833622
-2.138962 2.6111546 -0.56272638
-2.5169969 3.0726435 -0.44271857
-3.0729594 3.7513392 -0.27086288
-3.8615129 4.7139721 0
-4.8824234 5.9602566 0.43035623
-1.4462942 1.7612294 -0.7514466
-1.6502863 2.0096414 -0.71744394
-1.8811275 2.2907491 -0.65664703
-2.1453769 2.6125395 -0.56358314
-2.5239875 3.0735939 -0.44329458
-3.0708938 3.7395909 -0.27028233
-3.8688624 4.7113199 0
-5.3496819 6.5145922 0.47084808
-1.4547046 1.7671134 -0.75470644
-1.6463355 1.9998984 -0.71467531
-1.8855073 2.2904341 -0.65720934
-2.1485322 2.6099455 -0.56358314
-2.5276995 3.0705419 -0.44329458
-3.0836658 3.7459064 -0.2710079
-3.8662772 4.6965895 0
-8.8766518 10.782979 0.78012425
-1.428525 1.7310445 -0.74003863
-1.6471555 1.9959745 -0.71398383
-1.8882735 2.2881541 -0.65720934
-2.1467807 2.6014059 -0.56229883
-2.5248227 3.0595059 -0.44214141
-3.0815742 3.7341609 -0.27042732
-3.8736107 4.6939273 0
-8.8483286 10.722144 0.77649593
-1.4447932 1.746455 -0.74737251
-1.6527613 1.9978452 -0.71536678
-1.8926612 2.2878344 -0.65777385
-2.1515572 2.600786 -0.56272638
-2.5285177 3.0564528 -0.44214141
-3.0877388 3.732435 -0.27057233
-3.869323 4.6772079 0
-8.8861237 10.741479 0.77867311
-1.4642593 1.7656373 -0.75633794
-1.6503743 1.990059 -0.7132923
-1.8970447 2.2874997 -0.65833622
-2.1514239 2.5942361 -0.56187129
-2.5305595 3.0514064 -0.4418534
-3.087275 3.7227066 -0.27013734
-3.8782976 4.6765394 0
-8.9223156 10.758732 0.7807048
-1.4569082 1.7524595 -0.7514466
-1.6559823 1.991918 -0.71467531
-1.8981845 2.2832539 -0.65777385
-2.1561966 2.5936067 -0.56229883
-2.5358965 3.0503335 -0.44214141
-3.0901051 3.7169697 -0.26999176
-3.8839452 4.6718502 0
-8.9270048 10.737954 0.77997923
-1.4511144 1.7412063 -0.74737251
-1.6535679 1.9841321 -0.71259815
-1.89281 2.2712009 -0.65495998
-2.151113 2.5811412 -0.56015944
-2.5412412 3.0492599 -0.44243056
-3.092932 3.7112391 -0.26984677
-3.8845875 4.6611543 0
-8.9299879 10.715179 0.77910817
-1.4722331 1.7622129 -0.75715214
-1.6575772 1.9840634 -0.7132923
-1.8939191 2.2669566 -0.65439546
-2.159163 2.5844448 -0.56144208
-2.5382905 3.0382473 -0.44127738
-3.1024137 3.7134833 -0.27028233
-3.8935506 4.6604476 0
-8.9545927 10.718342 0.78012425
-1.4346894 1.7130631 -0.7367788
-1.6567487 1.9782088 -0.71190667
-1.8966569 2.2646666 -0.65439546
-2.1573443 2.5759354 -0.56015944
-2.5419598 3.0351779 -0.44127738
-3.1052315 3.7077417 -0.27013734
-3.8975096 4.6537461 0
-0 0 0
-1.4637736 1.7435064 -0.75063241
-1.6655902 1.983891 -0.71467531
-1.9010304 2.2643247 -0.65495998
-2.1621044 2.5752909 -0.56058699
-2.5406344 3.0261598 -0.44041222
-3.1046953 3.6980147 -0.26970178
-3.8964365 4.6410608 0
-0 0 0
-1.4579232 1.7322832 -0.74655837
-1.6841375 2.0010679 -0.72159559
-1.903765 2.2620261 -0.65495998
-2.1652145 2.5726767 -0.56058699
-2.5492871 3.0290263 -0.44127738
-3.1024687 3.6863084 -0.2691212
-3.9020414 4.6363492 0
-9.0486002 10.751416 0.78491372
-1.4616075 1.7324076 -0.74737251
-1.6881765 2.0009544 -0.72228974
-1.9032167 2.2558362 -0.65383315
-2.171629 2.5739789 -0.56144208
-2.5496063 3.0219862 -0.44070023
-3.110275 3.686533 -0.26941177
-3.9026108 4.6256695 0
-9.0682869 10.748419 0.78549427
-1.447742 1.7117723 -0.73922443
-1.6695336 1.974013 -0.7132923
-1.9043019 2.2515967 -0.65327078
-2.1714253 2.5674367 -0.56058699
-2.5549247 3.0208762 -0.44098824
-3.1113679 3.6788003 -0.2691212
-3.9065118 4.6189575 0
-9.0728788 10.727535 0.7847687
-1.4689834 1.7326373 -0.74900091
-1.6686697 1.9681634 -0.71190667
-1.9119521 2.2551103 -0.65495998
-2.1712027 2.5608912 -0.55973023
-2.558573 3.017787 -0.44098824
-3.1141319 3.673058 -0.26897621
-3.9137778 4.6162248 0
-9.0858345 10.716565 0.7847687
-1.4598761 1.7176833 -0.74329847
-1.6742991 1.9699726 -0.7132923
-1.9047993 2.241178 -0.65158159
-2.1776235 2.5621817 -0.56058699
-2.5588706 3.0107553 -0.44041222
-3.120249 3.6712706 -0.2691212
-3.9159789 4.6075225 0
-9.1391573 10.75309 0.78825152
-1.4699634 1.7253231 -0.74737251
-1.6815547 1.9736716 -0.71536678
-1.9173963 2.2504833 -0.65495998
-2.1823809 2.5615008 -0.56101453
-2.5658584 3.011595 -0.44098824
-3.1263664 3.6694736 -0.26926622
-3.919857 4.6008081 0
-0 0 0
-1.4768642 1.7291858 -0.74981821
-1.677421 1.9640076 -0.71259815
-1.9201142 2.2481649 -0.65495998
-2.1804714 2.553004 -0.55973023
-2.5627825 3.000633 -0.43983617
-3.1274261 3.6617455 -0.26897621
-3.9186525 4.5881529 0
-5.567431 6.5186238 0.47883034
-1.4939687 1.7470741 -0.75796628
-1.6753494 1.9591841 -0.7112152
-1.9198159 2.2450676 -0.65439546
-2.1853533 2.5555918 -0.56058699
-2.5662744 3.0010478 -0.44012421
-3.1296377 3.6598554 -0.26897621
-3.919734 4.5838084 0
-5.4936886 6.4244194 0.4721542
-1.4767755 1.7227496 -0.74818671
-1.6728156 1.9514422 -0.70913804
-1.9208752 2.240819 -0.65383315
-2.1901088 2.5548966 -0.56101453
-2.568217 2.9959831 -0.43983617
-3.1256037 3.646209 -0.26825064
-3.9218791 4.5751133 0
-5.4828496 6.3960814 0.47055808
-1.4659693 1.7059674 -0.74166697
-1.6866194 1.9627407 -0.71398383
-1.9252357 2.2404218 -0.65439546
-2.1881733 2.5464056 -0.55973023
-2.5735192 2.9948375 -0.44012421
-3.1333909 3.6463673 -0.26854065
-3.9341891 4.5782666 0
-5.6057267 6.5234566 0.480427
-1.4970688 1.7379055 -0.75633794
-1.6840761 1.9549972 -0.71190667
-1.9196514 2.2284701 -0.65158159
-2.1946027 2.5476534 -0.56058699
-2.577136 2.9917257 -0.44012421
-3.1394887 3.6445456 -0.26868564
-3.9346209 4.5675921 0
-0 0 0
-1.5072429 1.7454469 -0.76041198
-1.707751 1.9776434 -0.72090411
-1.9240017 2.22807 -0.65214396
-2.1943207 2.5411103 -0.55973023
-2.5790603 2.9866538 -0.43983617
-3.1388004 3.634855 -0.26825064
-3.943542 4.5667777 0
-0 0 0
-1.4656731 1.6931673 -0.73840714
-1.693723 1.9566139 -0.71398383
-1.9316831 2.231509 -0.65383315
-2.1957109 2.5365179 -0.55930269
-2.5775871 2.9776669 -0.43897104
-3.1431899 3.6310596 -0.26825064
-3.9320276 4.5423365 0
-0 0 0
-1.4903995 1.7175333 -0.74981821
-1.6911516 1.9488797 -0.71190667
-1.9410392 2.2368495 -0.65608466
-2.1920445 2.5261075 -0.55759078
-2.5862703 2.9804125 -0.43983617
-3.1475751 3.627259 -0.26825064
-3.9460399 4.5474081 0
-0 0 0
-1.46814 1.6877574 -0.73759294
-1.6869191 1.9392635 -0.70913804
-1.9287336 2.2172506 -0.65101922
-2.2001512 2.5292695 -0.55887508
-2.5881672 2.9753282 -0.43954706
-3.1502454 3.6214871 -0.26810509
-3.9378672 4.5269284 0
-0 0 0
-1.471801 1.6878433 -0.73840714
-1.6892611 1.9372238 -0.70913804
-1.9314113 2.2149186 -0.65101922
-2.2048912 2.528542 -0.55930269
-2.5900621 2.9702513 -0.43925905
-3.1563315 3.619642 -0.26825064
-3.9364927 4.5143209 0
-0 0 0
-1.5177604 1.7363091 -0.76041198
-1.7114139 1.9578475 -0.71744394
-1.9407752 2.2202353 -0.65327078
-2.2062571 2.5239451 -0.55887508
-2.5919485 2.965174 -0.43897104
-3.1504388 3.6040835 -0.26737952
-3.9505067 4.5193567 0
-0 0 0
-1.5068262 1.7196026 -0.75389224
-1.7071648 1.9482306 -0.71467531
-1.9417835 2.2159796 -0.65270841
-2.2143822 2.5270715 -0.56015944
-2.5870082 2.9523153 -0.43752986
-3.1582196 3.6041865 -0.26767009
-3.9473906 4.5047951 0
-10.646469 12.149839 0.90232527
-1.4779097 1.682497 -0.73840714
-1.7095176 1.9461665 -0.71467531
-1.9394275 2.2079029 -0.65101922
-2.2106574 2.5166793 -0.55844754
-2.5939841 2.9530699 -0.43810588
-3.1608524 3.5984101 -0.26752454
-3.9545467 4.5019755 0
-10.671434 12.148684 0.90319639
-1.4881132 1.6899902 -0.74248433
-1.6986043 1.9290366 -0.70913804
-1.9420938 2.2055578 -0.65101922
-2.2136967 2.5140061 -0.55844754
-2.5975504 2.9499335 -0.43810588
-3.1686358 3.5984921 -0.26781508
-3.9634266 4.5011039 0
-5.81464 6.6034527 0.49145705
-1.5130497 1.7141292 -0.75389224
-1.6992754 1.9251037 -0.7084465
-1.9498035 2.2089262 -0.65270841
-2.2218244 2.5170977 -0.55973023
-2.5994029 2.9448555 -0.43781787
-3.1695392 3.5907609 -0.26752454
-3.9636939 4.4904566 0
-5.9171858 6.7035613 0.4994393
-1.5134835 1.7104505 -0.75307804
-1.704922 1.9268031 -0.70982951
-1.9541533 2.2084696 -0.65327078
-2.2197657 2.5086493 -0.55844754
-2.6012471 2.9397774 -0.43752986
-3.1738756 3.5869286 -0.26752454
-3.9570432 4.4720187 0
-5.9924312 6.7722955 0.5050993
-1.4843857 1.6734871 -0.73759294
-1.7105817 1.928499 -0.7112152
-1.9517605 2.2004025 -0.65158159
-2.2159815 2.4982834 -0.55673569
-2.6065121 2.9385653 -0.43781787
-3.1782074 3.583091 -0.26752454
-3.9676263 4.4730768 0
-0 0 0
-1.5061147 1.6938568 -0.74737251
-1.7262468 1.9414293 -0.71675247
-1.9510443 2.1942484 -0.65045691
-2.2207026 2.4975207 -0.55716324
-2.6100607 2.9354136 -0.43781787
-3.1825347 3.5792482 -0.26752454
-3.9678385 4.4624429 0
-0 0 0
-1.5229597 1.7086396 -0.75470644
-1.7068923 1.9149972 -0.70775503
-1.9570723 2.1956794 -0.65158159
-2.2288446 2.5005863 -0.55844754
-2.6187704 2.9380519 -0.43868303
-3.1799479 3.5676484 -0.26694453
-3.9818842 4.4673572 0
-0 0 0
-1.5069069 1.6865226 -0.74574101
-1.7359432 1.9428588 -0.71882695
-1.9546434 2.1876271 -0.64989239
-2.2215989 2.486402 -0.55587894
-2.617147 2.9290974 -0.43781787
-3.1807904 3.5599246 -0.26665398
-3.978611 4.4528413 0
-0 0 0
-1.5326457 1.7132448 -0.75796628
-1.7036695 1.9044213 -0.70498639
-1.9491884 2.1788707 -0.64764082
-2.238503 2.5022767 -0.55973023
-2.6171932 2.92559 -0.43752986
-3.186409 3.5618792 -0.26694453
-3.9795671 4.4484987 0
-6.0395575 6.7512283 0.50596988
-1.4885112 1.6598692 -0.7351473
-1.7126693 1.9098325 -0.70775503
-1.9569105 2.1821909 -0.64933002
-2.2346759 2.4919329 -0.55802
-2.6207263 2.9224255 -0.43752986
-3.1872375 3.5541537 -0.26665398
-3.9797249 4.4378729 0
-6.0494437 6.7458587 0.5061149
-1.497125 1.6654218 -0.73840714
-1.7183268 1.9114895 -0.70913804
-1.9612428 2.1817124 -0.64989239
-2.2325351 2.4835017 -0.55673569
-2.6225214 2.9173276 -0.43724072
-3.1915295 3.5502999 -0.26665398
-3.9816079 4.4291935 0
-6.0732298 6.7559414 0.50742155
-1.5024487 1.6672873 -0.74003863
-1.7357485 1.9261833 -0.71536678
-1.9638776 2.1793411 -0.64989239
-2.2389681 2.4846127 -0.55759078
-2.6260445 2.9141567 -0.43724072
-3.1905971 3.540648 -0.26621842
-3.9852164 4.4224477 0
-6.0970421 6.7659693 0.50872767
-1.4994901 1.6599666 -0.73759294
-1.7448015 1.9315313 -0.71813548
-1.9665095 2.1769667 -0.64989239
-2.2368112 2.4761963 -0.55630815
-2.6295638 2.9109814 -0.43724072
-3.1966197 3.5387242 -0.26636398
-3.9975286 4.4253469 0
-6.1156607 6.7701626 0.5095982
-1.5280389 1.687467 -0.75063241
-1.7403983 1.9219831 -0.71536678
-1.9725527 2.1783593 -0.65101922
-2.2432444 2.4772937 -0.55716324
-2.6313448 2.9058867 -0.43695271
-3.2008932 3.5348589 -0.26636398
-3.995892 4.4128041 0
-6.1482511 6.7897301 0.51162988
-1.5084826 1.6618301 -0.74003863
-1.7174314 1.8920201 -0.70498639
-1.9666461 2.1665692 -0.64820534
-2.2410583 2.4688773 -0.55587894
-2.6400709 2.9084523 -0.43781787
-3.2016659 3.527137 -0.26607344
-3.9924703 4.3983321 0
-6.1861391 6.8150024 0.51409709
-1.5088276 1.6581799 -0.73922443
-1.7399775 1.9122103 -0.7132923
-1.9692626 2.1641912 -0.64820534
-2.2492244 2.4718654 -0.55716324
-2.6366205 2.897608 -0.4366647
-3.2059252 3.5232658 -0.26607344
-4.0047879 4.4012046 0
-6.1908751 6.8036828 0.51380712
-1.5174927 1.6636598 -0.74248433
-1.7507385 1.9193723 -0.71675247
-1.9787254 2.1693194 -0.65045691
-2.2487531 2.4653563 -0.55630815
-2.6436024 2.8982382 -0.43724072
-3.2084308 3.5174716 -0.26592842
-4.0030875 4.3886709 0
-7.2444487 7.942245 0.60045081
-1.5345106 1.6782397 -0.74981821
-1.7310501 1.893188 -0.70775503
-1.9744868 2.159426 -0.64820534
-2.2517302 2.4626374 -0.55630815
-2.6471024 2.8950419 -0.43724072
-3.2126784 3.5135922 -0.26592842
-4.0154123 4.3915133 0
-7.2663155 7.9469109 0.60146689
-1.523177 1.661808 -0.74329847
-1.7401171 1.8984927 -0.71052366
-1.9770947 2.1570387 -0.64820534
-2.2529647 2.4580169 -0.55587894
-2.6453607 2.8861265 -0.43637669
-3.2134068 3.5058732 -0.26563787
-4.0172019 4.3828254 0
-7.2653747 7.9266286 0.60059577
-1.541903 1.6781631 -0.7514466
-1.7390118 1.8926904 -0.70913804
-1.9779755 2.1527717 -0.64764082
-2.255933 2.4552929 -0.55587894
-2.6505945 2.884831 -0.4366647
-3.2194037 3.5039067 -0.26578343
-4.0172105 4.3722167 0
-7.2696781 7.9121089 0.60016078
-1.5422568 1.6744825 -0.75063241
-1.732801 1.8813629 -0.70567787
-1.9823016 2.1522546 -0.64820534
-2.2623796 2.4563453 -0.55673569
-2.6523275 2.8797255 -0.43637669
-3.2165937 3.4923689 -0.26520285
-4.022491 4.3673596 0
-4.5648837 4.956255 0.37636715
-1.5124214 1.6381125 -0.7351473
-1.7486876 1.894014 -0.7112152
-1.9849007 2.1498578 -0.64820534
-2.2653461 2.4536099 -0.55673569
-2.6558053 2.8765185 -0.43637669
-3.2190435 3.4865651 -0.2650573
-4.0295286 4.3644066 0
-4.567347 4.9469209 0.37607715
-1.5194377 1.6417274 -0.73759294
-1.7373425 1.87717 -0.70567787
-1.9857661 2.1455877 -0.64764082
-2.2665672 2.4489887 -0.55630815
-2.6540067 2.8676107 -0.43551153
-3.2267873 3.4864907 -0.26534787
-4.0241961 4.3480778 0
-4.5644913 4.9318576 0.37535104
-1.5385479 1.654338 -0.74492687
-1.7487078 1.8803144 -0.7084465
-1.9926807 2.1426485 -0.64820534
-2.2672324 2.4378629 -0.55502379
-2.6644485 2.8649731 -0.43608755
-3.2245824 3.4672625 -0.26447675
-4.0293732 4.3326216 0
-4.564014 4.9074988 0.37433547
-1.552345 1.6651344 -0.75063241
-1.7458446 1.8726932 -0.7063694
-1.9987302 2.1439526 -0.64933002
-2.273674 2.4388733 -0.55587894
-2.6661463 2.8598614 -0.43579954
-3.2305467 3.4652698 -0.2646223
-4.0346055 4.3277493 0
-4.5610828 4.8924794 0.37360993
-1.535791 1.6433918 -0.74166697
-1.7446836 1.8669199 -0.70498639
-1.9943796 2.1341102 -0.64707851
-2.2731173 2.4323769 -0.55502379
-2.6660712 2.8528619 -0.43522352
-3.2311795 3.4575632 -0.26433176
-4.0451646 4.3285775 0
-4.561667 4.8812671 0.37317437
-1.5182132 1.6226163 -0.7327047
-1.7526673 1.8731933 -0.70775503
-1.999144 2.1366193 -0.64820534
-2.2780907 2.4347484 -0.55587894
-2.6695597 2.8531375 -0.43551153
-3.2332678 3.4556103 -0.26433176
-4.0371137 4.314734 0
-4.5557404 4.8690252 0.3724488
-1.538767 1.6406056 -0.74166697
-1.7635092 1.8802216 -0.7112152
-1.9912914 2.1230788 -0.64482695
-2.2722518 2.4226339 -0.55373949
-2.6712375 2.8480251 -0.43522352
-3.2374411 3.4517009 -0.26433176
-4.0369811 4.3041563 0
-4.5527267 4.8540354 0.3717227
-1.5322847 1.6297433 -0.73759294
-1.7503151 1.8616412 -0.70498639
-2.0060403 2.1336315 -0.64876771
-2.2822111 2.4273677 -0.55545139
-2.6729069 2.8429129 -0.43493548
-3.2433875 3.4496779 -0.26447675
-4.0475287 4.3049655 0
-4.5568104 4.8466392 0.37157768
-1.5478145 1.6422799 -0.74411267
-1.7473996 1.854046 -0.70290923
-2.001646 2.1238096 -0.64651614
-2.2780998 2.4171357 -0.55373949
-2.6763401 2.8396811 -0.43493548
-3.2475533 3.4457564 -0.26447675
-4.0545111 4.3019638 0
-4.5484061 4.8260021 0.37041658
-1.5430082 1.6332221 -0.74085283
-1.7668641 1.8701659 -0.70982951
-2.0181704 2.1361651 -0.65101922
-2.2898316 2.4237094 -0.55587894
-2.6726642 2.8289247 -0.43378234
-3.2517145 3.4418299 -0.26447675
-4.0579205 4.2951717 0
-4.557806 4.8242841 0.37070712
-1.5687708 1.6564767 -0.75226074
-1.7501515 1.847998 -0.70221776
-2.0172524 2.1300318 -0.64989239
-2.282171 2.4097612 -0.55331194
-2.6760805 2.8256934 -0.43378234
-3.2469389 3.428467 -0.26375118
-4.0559492 4.2827067 0
-4.5564852 4.8112264 0.37012658
-1.5588641 1.6420376 -0.74655837
-1.7506509 1.8440573 -0.7015236
-2.0180769 2.1257517 -0.64933002
-2.2815428 2.403275 -0.55245519
-2.6830509 2.8262057 -0.43435836
-3.2528734 3.4264309 -0.26389673
-4.062911 4.2796884 0
-4.5640826 4.8076 0.37027156
-1.5386984 1.6168789 -0.7359646
-1.75115 1.840125 -0.70083207
-2.0171442 2.1196342 -0.64820534
-2.2897558 2.4060969 -0.55373949
-2.6829011 2.8192179 -0.43378234
-3.2588007 3.4243786 -0.26404175
-4.0644875 4.2710023 0
-4.5645127 4.796433 0.369836
-1.5474751 1.622172 -0.73922443
-1.7499121 1.8343806 -0.69944906
-2.0232081 2.1208687 -0.64933002
-2.2944317 2.4051843 -0.55416703
-2.689873 2.8197136 -0.43435836
-3.2593455 3.4166746 -0.26375118
-4.0696454 4.266088 0
-4.5595469 4.7796369 0.36896545
-1.5596799 1.6310154 -0.74411267
-1.7434597 1.8232008 -0.69598895
-2.0187449 2.1110768 -0.64707851
-2.2920187 2.3968494 -0.5528844
-2.6932781 2.8164613 -0.43435836
-3.2652724 3.4146171 -0.26389673
-4.080195 4.2668118 0
-4.5778913 4.7872715 0.36998159
-1.534284 1.6005816 -0.7310732
-1.7526056 1.8283372 -0.69875759
-2.0283275 2.1159732 -0.64933002
-2.3020189 2.4014909 -0.55459625
-2.6931031 2.8094742 -0.43378234
-3.2622035 3.4031661 -0.26331618
-4.0763445 4.2524867 0
-4.5782766 4.7761073 0.36954603
-1.5738887 1.6379312 -0.74900091
-1.7339545 1.8045104 -0.69045162
-2.0273652 2.1098602 -0.64820534
-2.2960205 2.3894472 -0.55245519
-2.6946986 2.8043478 -0.4334932
-3.2663131 3.3992217 -0.26331618
-4.0760684 4.2419267 0
-4.5696411 4.7555828 0.3683849
-1.5570103 1.6164522 -0.74003863
-1.6613001 1.7247233 -0.66069067
-2.0246232 2.101917 -0.64651614
-2.3006921 2.3885252 -0.5528844
-2.6980851 2.8010895 -0.4334932
-3.2704182 3.3952725 -0.26331618
-4.0848055 4.2407508 0
-4.5681734 4.7425718 0.36780435
-1.5452279 1.6003454 -0.7335189
-1.6372418 1.6956414 -0.6503076
-2.0271614 2.0994692 -0.64651614
-2.3017881 2.3838916 -0.55245519
-2.7032695 2.7996936 -0.43378234
-3.270905 3.3875763 -0.26302564
-4.0845017 4.2301936 0
-4.545022 4.70714 0.36548212
-1.5780983 1.6304411 -0.74818671
-1.6253312 1.6792406 -0.64477032
-2.0420685 2.1098001 -0.65045691
-2.3118083 2.3884869 -0.55416703
-2.7066503 2.7964251 -0.43378234
-3.2804191 3.3892245 -0.2634612
-4.0932264 4.2289915 0
-4.5416722 4.6923113 0.36475655
-1.5628595 1.6107975 -0.74003863
-1.5906743 1.6394655 -0.63023555
-2.0286939 2.0909204 -0.64539146
-2.3057566 2.3764815 -0.55202764
-2.708221 2.791291 -0.4334932
-3.2808895 3.381525 -0.26317063
-4.0910845 4.2165713 0
-4.5401006 4.6793604 0.36417601
-1.5699761 1.614225 -0.74248433
-1.618893 1.6645206 -0.64061868
-2.0347586 2.0921071 -0.64651614
-2.3086264 2.3736937 -0.55202764
-2.7134004 2.789876 -0.43378234
-3.2867899 3.3794262 -0.26331618
-4.0943637 4.2097611 0
-4.529448 4.6571083 0.36286989
-1.5857219 1.6264778 -0.74900091
-1.5998873 1.6410073 -0.63231272
-2.0426078 2.0951066 -0.64820534
-2.3097024 2.3690662 -0.5516001
-2.7131548 2.7828879 -0.43320519
-3.2799838 3.3642855 -0.26244506
-4.1067142 4.2122645 0
-4.5187488 4.6348886 0.36156377
-1.5531423 1.5892147 -0.7327047
-1.6158968 1.6534266 -0.63784999
-2.0362599 2.0835528 -0.64539146
-2.3107708 2.3644395 -0.55117249
-2.7092841 2.7722082 -0.43205202
-3.2876823 3.3640401 -0.26273564
-4.1063423 4.201714 0
-4.5243459 4.6294255 0.36156377
-1.5644704 1.5988723 -0.73759294
-1.5958406 1.6309323 -0.62954408
-2.041069 2.0859511 -0.64651614
-2.3139925 2.364876 -0.5516001
-2.716387 2.7761188 -0.43291718
-3.2897141 3.3620534 -0.26273564
-4.1052432 4.1955156 0
-4.521688 4.6211176 0.36112821
-1.5664011 1.5969807 -0.73759294
-1.6171291 1.648699 -0.63715583
-2.0453656 2.0852954 -0.64707851
-2.3150525 2.3602474 -0.55117249
-2.7287934 2.7820654 -0.43435836
-3.2883139 3.352509 -0.26230007
-4.1121306 4.1924081 0
-4.523633 4.6119442 0.3608382
-1.5475355 1.573938 -0.72781336
-1.6103272 1.6378011 -0.63369572
-2.046104 2.0810125 -0.64651614
-2.3161047 2.3556197 -0.55074495
-2.7248995 2.7713888 -0.43320519
-3.3014693 3.3577957 -0.26302564
-4.1135473 4.1837287 0
-4.5346622 4.6120281 0.3612732
-1.5754625 1.5984733 -0.74003863
-1.601742 1.6251369 -0.62954408
-2.0468349 2.0767307 -0.64595383
-2.3243501 2.358299 -0.55202764
-2.7282462 2.7680943 -0.43320519
-3.3018796 3.3501062 -0.26273564
-4.1204247 4.1806068 0
-4.5365872 4.6028476 0.36098319
-1.5548121 1.5737134 -0.72944486
-1.5984132 1.6178446 -0.62746692
-2.0582702 2.0832918 -0.64876771
-2.3235929 2.35184 -0.55117249
-2.7279565 2.7611194 -0.43262917
-3.3004448 3.3405671 -0.26230007
-4.1181569 4.1682196 0
-4.5530996 4.6084499 0.36185375
-1.5862776 1.6016859 -0.74329847
-1.600367 1.615912 -0.62746692
-2.0518477 2.0717783 -0.64595383
-2.331847 2.3544972 -0.55245519
-2.7276473 2.7541423 -0.43205202
-3.3044786 3.3365767 -0.26230007
-4.1195312 4.1595459 0
-4.5586648 4.6029449 0.36185375
-1.6021426 1.6138 -0.74981821
-1.6093884 1.6210986 -0.63023555
-2.056138 2.071099 -0.64651614
-2.3310766 2.348038 -0.5516001
-2.7309732 2.7508445 -0.43205202
-3.306679 3.3307393 -0.26215509
-4.1263862 4.1564107 0
-4.5953431 4.6287804 0.36432099
-1.5605065 1.568067 -0.72944486
-1.6255033 1.6333789 -0.63577288
-2.0658083 2.0758171 -0.64876771
-2.3284779 2.3397591 -0.55031574
-2.7397702 2.7530444 -0.43291718
-3.3052006 3.321214 -0.26171952
-4.125896 4.1458855 0
-4.5972705 4.619544 0.36403099
-1.5903293 1.5941771 -0.74248433
-1.6079841 1.6118746 -0.62815839
-2.0575514 2.0625298 -0.64539146
-2.3313034 2.3369439 -0.55031574
-2.7412698 2.7479024 -0.43262917
-3.3183851 3.3264141 -0.26244506
-4.1327386 4.1427379 0
-4.5991755 4.6103029 0.36374044
-1.5817648 1.5817648 -0.73759294
-1.6063859 1.6063859 -0.62677544
-2.061837 2.061837 -0.64595383
-2.3377593 2.3377593 -0.55117249
-2.742754 2.742754 -0.43234003
-3.3168881 3.3168881 -0.2620095
-4.1377416 4.1377416 0
-4.6084208 4.6084208 0.36403099
-1.5836749 1.5798525 -0.73759294
-1.6083258 1.6044438 -0.62677544
-2.0607257 2.0557518 -0.64482695
-2.3423979 2.3367441 -0.5516001
-2.7442367 2.737613 -0.43205202
-3.3135424 3.3055444 -0.26142952
-4.1372161 4.1272302 0
-4.6158237 4.6046824 0.36417601
-1.5610594 1.5535326 -0.72618502
-1.6067034 1.5989566 -0.62538975
-2.0578103 2.0478885 -0.64313996
-2.3488553 2.3375301 -0.55245519
-2.7420406 2.7288198 -0.43118685
-3.317534 3.3015382 -0.26142952
-4.1551075 4.1350732 0
-4.6287513 4.6064334 0.36475655
-1.5892406 1.5777603 -0.73840714
-1.6264415 1.6146926 -0.63231272
-2.0638862 2.0489774 -0.64426464
-2.348038 2.3310766 -0.5516001
-2.7471769 2.7273321 -0.431476
-3.3215208 3.2975271 -0.26142952
-4.1508679 4.1208835 0
-4.6306295 4.5971794 0.36446655
-1.5964158 1.5810583 -0.74085283
-1.6105627 1.5950691 -0.62538975
-2.0753856 2.0554202 -0.64707851
-2.3472085 2.3246284 -0.55074495
-2.7541423 2.7276473 -0.43205202
-3.3218067 3.289851 -0.26113895
-4.1502953 4.1103692 0
-4.6380253 4.5934076 0.36461157
-1.564924 1.5461283 -0.72537082
-1.6249832 1.6054661 -0.63023555
-2.0724502 2.0475588 -0.64539146
-2.34636 2.3181787 -0.54988819
-2.757436 2.7243176 -0.43205202
-3.3257794 3.2858348 -0.26113895
-4.1552587 4.1053514 0
-4.6528125 4.5969296 0.3653371
-1.6090318 1.585869 -0.74492687
-1.6126276 1.5894129 -0.62469828
-2.0749228 2.0450532 -0.64539146
-2.3509858 2.317142 -0.55031574
-2.7551978 2.7155352 -0.43118685
-3.3334522 3.2854652 -0.26142952
-4.1583643 4.0985026 0
-4.6528101 4.5858302 0.36490154
-1.573938 1.5475355 -0.72781336
-1.6217026 1.5944989 -0.62746692
-2.0719552 2.0371985 -0.64370227
-2.3574483 2.3179028 -0.55117249
-2.7566342 2.7103922 -0.43089885
-3.3337104 3.2777882 -0.26113895
-4.1633134 4.0934749 0
-4.6583476 4.580205 0.36490154
-1.6110967 1.5802468 -0.74411267
-1.6200494 1.5890281 -0.62608391
-2.0744152 2.0346935 -0.64370227
-2.3565786 2.3114538 -0.55031574
-2.7672932 2.7143042 -0.43205202
-3.3302481 3.2664795 -0.2605584
-4.1533933 4.0738626 0
-4.671299 4.581851 0.36548212
-1.6183065 1.5834864 -0.74655837
-1.616587 1.581804 -0.62400675
-2.0714221 2.0268526 -0.64201307
-2.3557036 2.3050175 -0.54946065
-2.7668772 2.7073441 -0.431476
