# .PCD v0.7 - Point Cloud Data file format
VERSION 0.7
FIELDS x y z
SIZE 4 4 4
TYPE F F F
COUNT 1 1 1
WIDTH 1556
HEIGHT 1
VIEWPOINT 0 0 0 1 0 0 0
POINTS 1556
DATA ascii
-5.4642544 8.231555 0
-7.0446372 10.612302 0.71147674
-1.5612117 2.3457108 -0.92910117
-1.7952198 2.6973064 -0.89393526
-2.132221 3.2036488 -0.85252225
-2.5471687 3.8271053 -0.76642895
-3.6079125 5.4208665 -0.72580677
-3.5016401 5.2611923 -0.35300764
-5.4770832 8.2292833 0
-7.0502577 10.592968 0.71075124
-1.5709031 2.3541002 -0.93317521
-1.805439 2.7055674 -0.89739537
-2.1332669 3.1968389 -0.85139543
-2.5589144 3.8346992 -0.7685684
-3.6130257 5.4143534 -0.72551876
-3.5180867 5.2720809 -0.35402319
-5.4798012 8.2118378 0
-7.0659337 10.58876 0.71104121
-1.5806171 2.3624697 -0.9372493
-1.8198673 2.7200649 -0.9029327
-2.134305 3.1900394 -0.85027075
-2.5606883 3.8273332 -0.76771164
-3.6238816 5.4164352 -0.72638392
-3.514344 5.2527146 -0.35300764
-5.4853768 8.198719 0
-7.0267115 10.502476 0.70581675
-1.5724555 2.3441374 -0.93072957
-1.8133736 2.7032859 -0.89808953
-2.1353242 3.1832337 -0.84914386
-2.5624537 3.8199768 -0.76685649
-3.6260996 5.4056063 -0.72551876
-3.5337148 5.2678838 -0.35431376
-5.4938312 8.1899261 0
-5.3719196 8.0081873 0.53862447
-1.589083 2.3627486 -0.9388808
-1.8152345 2.6990051 -0.89739537
-2.1278248 3.1637843 -0.84464079
-2.5670674 3.8168778 -0.76685649
-3.6326287 5.4012213 -0.72551876
-3.5313737 5.250669 -0.35344264
-5.4979134 8.1746445 0
-5.4033456 8.0340347 0.54080164
-1.5905509 2.3587718 -0.93806344
-1.8213023 2.7009737 -0.89878106
-2.1288078 3.1570015 -0.84351611
-2.5688045 3.8095124 -0.76599973
-3.6362574 5.3925347 -0.72494161
-3.5493374 5.2636333 -0.35460377
-5.5063334 8.1658392 0
-5.4101467 8.0231953 0.54051167
-1.5975541 2.3629928 -0.94050914
-1.8189441 2.6904578 -0.89601237
-2.1269283 3.1460071 -0.84126455
-2.5734055 3.8064055 -0.76599973
-3.6456707 5.3924265 -0.72551876
-3.5353229 5.229208 -0.35257208
-5.5161958 8.1591797 0
-5.419837 8.0166531 0.54051167
-1.6059552 2.3692443 -0.94376898
-1.8250062 2.6924074 -0.89739537
-2.1392794 3.1560502 -0.84464079
-2.575125 3.7990477 -0.76514465
-3.6550834 5.3922954 -0.72609478
-3.5328939 5.2120314 -0.35170153
-5.5289683 8.1568127 0
-5.5111594 8.1305399 0.54863894
-1.579644 2.3243756 -0.92665553
-1.8310812 2.6943541 -0.89878106
-2.1373785 3.145057 -0.84238923
-2.5811551 3.7980545 -0.76557219
-3.6397932 5.355793 -0.72177124
-3.5260456 5.1884184 -0.35039541
-5.5549126 8.1738062 0
-5.531199 8.1389122 0.54965448
-1.590799 2.3347163 -0.93154377
-1.8244455 2.6776249 -0.89393526
-2.1483295 3.1529689 -0.84520316
-2.5900803 3.8012991 -0.76685649
-3.6346107 5.334291 -0.7194649
-3.5293832 5.1798553 -0.35010487
-5.5618515 8.1627817 0
-5.6010165 8.2202625 0.55560505
-1.6033795 2.3470805 -0.9372493
-1.8305126 2.6795654 -0.89532089
-2.14641 3.1419866 -0.84295374
-2.5932248 3.7960491 -0.76642895
-3.6162522 5.2935905 -0.7145642
-3.564954 5.2184987 -0.35300764
-5.5761161 8.1625051 0
-7.1777353 10.507009 0.71075124
-1.5964365 2.3308654 -0.93154377
-1.8280784 2.6690724 -0.89255226
-2.1487648 3.1372883 -0.84238923
-2.5891035 3.7802014 -0.76386034
-3.6197197 5.284945 -0.71398705
-3.6006236 5.2570639 -0.35591042
-5.5977397 8.1729383 0
-7.1845522 10.489753 0.71017063
-1.5978539 2.3268991 -0.93072957
-1.8398203 2.6792662 -0.8967039
-2.1511173 3.1325972 -0.84182692
-2.5936692 3.77707 -0.76386034
-3.6246402 5.2784376 -0.71369904
-3.6128509 5.2612691 -0.35649043
-0 0 0
-0 0 0
-1.5978639 2.320899 -0.92910117
-1.8302538 2.6584456 -0.89047509
-2.1520219 3.125814 -0.84070224
-2.5996909 3.7760539 -0.76428956
-3.6295502 5.2719254 -0.71341103
-3.5971074 5.224802 -0.35431376
-0 0 0
-7.7992539 11.328424 0.76822364
-1.586624 2.2986219 -0.92095
-1.8391653 2.6644909 -0.89324373
-2.1572392 3.1253004 -0.84126455
-2.6057086 3.7750206 -0.7647171
-3.6315084 5.261148 -0.71254587
-3.5960388 5.2097616 -0.35358819
-0 0 0
-7.8232646 11.333956 0.76923919
-1.5992366 2.3079355 -0.92584133
-1.8568501 2.6797099 -0.89947253
-2.1629002 3.1213856 -0.84126455
-2.6096194 3.7660675 -0.76386034
-4.2479458 6.1304154 -0.83131677
-3.5951142 5.188283 -0.35257208
-0 0 0
-7.8378744 11.311214 0.76865864
-1.5949746 2.2958541 -0.92176729
-1.8629521 2.6815891 -0.90085816
-2.1637678 3.1145923 -0.84013772
-2.6127048 3.7608054 -0.7634328
-4.2523956 6.1210256 -0.83073968
-3.5969315 5.1775308 -0.35213652
-0 0 0
-7.8530226 11.303876 0.76880419
-1.6118711 2.3142028 -0.92991537
-1.8704884 2.6855061 -0.9029327
-2.1704369 3.1161494 -0.84126455
-2.6172471 3.7576458 -0.7634328
-4.268661 6.1286211 -0.83246994
-3.5957608 5.1625218 -0.35141098
-4.3156996 6.1961551 0
-7.9082532 11.354073 0.77286756
-1.6104196 2.3061721 -0.92746967
-1.870862 2.6791341 -0.9015497
-2.1785662 3.1197765 -0.84295374
-2.6232538 3.7565832 -0.76386034
-4.2716193 6.117095 -0.83160484
-3.6466241 5.2220821 -0.35576487
-4.2546453 6.0927877 0
-7.0531993 10.100407 0.68811059
-1.6174589 2.3103008 -0.92991537
-1.8568319 2.6522098 -0.89324373
-2.173588 3.1046488 -0.83957535
-2.6248493 3.7492089 -0.7630052
-4.2834592 6.1182876 -0.83246994
-3.7497971 5.3560305 -0.36519879
-4.3366308 6.1942358 0
-7.0490041 10.06846 0.6865139
-1.6202493 2.3083446 -0.92991537
-1.8672404 2.6602292 -0.8967039
-2.1773376 3.1020203 -0.83957535
-2.6338034 3.7523401 -0.76428956
-4.284905 6.1046395 -0.83131677
-3.7846258 5.3918991 -0.36795604
-4.308228 6.1378679 0
-7.0716162 10.074824 0.68753004
-1.6273059 2.3124511 -0.93236107
-1.8718958 2.6600208 -0.89739537
-2.1781626 3.0952351 -0.83845067
-2.6383355 3.7491548 -0.76428956
-4.2937651 6.1015706 -0.83160484
-3.7941318 5.3915763 -0.36824659
-0 0 0
-7.1331315 10.136396 0.69231945
-1.6201235 2.2963443 -0.92665553
-1.863544 2.6413655 -0.89186072
-2.1862912 3.0988235 -0.84013772
-2.6384227 3.7396696 -0.7630052
-4.2981496 6.0921474 -0.83102769
-3.7961483 5.3806162 -0.36781102
-4.3185463 6.121057 0
-7.4329677 10.535401 0.72018456
-1.6314579 2.306488 -0.93154377
-1.8652812 2.6370578 -0.89116657
-2.1915054 3.0982599 -0.84070224
-2.6444204 3.7385726 -0.7634328
-4.3010311 6.0806203 -0.8301636
-3.7891436 5.356935 -0.36650491
-4.3499851 6.1498299 0
-7.4531989 10.537025 0.72091067
-1.6342437 2.3045151 -0.93154377
-1.8728213 2.6409433 -0.89324373
-2.1893682 3.0873191 -0.83845067
-2.6459687 3.7311907 -0.76257765
-4.3083754 6.0754189 -0.8301636
-3.7550285 5.2951217 -0.36258602
-4.3589168 6.1466899 0
-7.4659257 10.528012 0.72091067
-1.6484843 2.3186538 -0.93806344
-1.8716486 2.6325424 -0.89116657
-2.1901495 3.0805259 -0.83732384
-2.6474974 3.7238023 -0.7617209
-4.3217077 6.0786409 -0.83131677
-3.7448659 5.2672915 -0.3609899
-4.3995194 6.188086 0
-7.4771309 10.51686 0.72076511
-1.6268981 2.2824471 -0.92420983
-1.8748281 2.6302791 -0.89116657
-2.1982961 3.0840864 -0.83901304
-2.6490178 3.716424 -0.76086581
-4.3245444 6.0670938 -0.83045167
-3.7316222 5.2352576 -0.35910323
-4.4085026 6.1848826 0
-5.4885316 7.7001033 0.52817494
-1.6282191 2.2784705 -0.92339563
-1.8838394 2.6361763 -0.89393526
-2.1975875 3.0752242 -0.83732384
-2.6549976 3.715307 -0.76129335
-4.3378873 6.0702815 -0.83160484
-3.7470071 5.2434254 -0.35997379
-4.4386654 6.2113066 0
-5.5084085 7.7082667 0.52919108
-1.6540023 2.3086486 -0.9364351
-1.8841039 2.6298232 -0.89255226
-2.1983449 3.0684395 -0.83619916
-2.6609786 3.7141809 -0.7617209
-4.3406982 6.0587258 -0.83073968
-3.7442629 5.2262244 -0.35910323
-4.4204021 6.1699758 0
-5.5177183 7.7016053 0.52919108
-1.6654391 2.3186891 -0.94132334
-1.881426 2.6193943 -0.88978362
-2.2094612 3.0760975 -0.83901304
-2.6639683 3.7088799 -0.76129335
-4.3555589 6.0639782 -0.83218086
-3.7505751 5.2216964 -0.35910323
-4.4536624 6.200562 0
-5.5103445 7.6717153 0.52759439
-1.6436878 2.2825801 -0.92746967
-1.8904537 2.6252625 -0.89255226
-2.2087204 3.0672379 -0.83732384
-2.6654446 3.701488 -0.76043659
-4.3689289 6.0671067 -0.83333403
-3.7599156 5.2213736 -0.35939321
-4.4307413 6.152946 0
-2.8306212 3.9308677 0.2705662
-1.6319802 2.2605567 -0.9193216
-1.8906846 2.6189041 -0.89116657
-2.2168884 3.0707493 -0.83901304
-2.6729233 3.7024314 -0.76129335
-4.3732314 6.0576329 -0.83275801
-3.7707863 5.2231493 -0.35982877
-4.4518814 6.1665764 0
-2.8581791 3.9590404 0.27274287
-1.653548 2.2846098 -0.92991537
-1.9026761 2.6288154 -0.89532089
-2.2176147 3.0639477 -0.83788615
-2.6683614 3.6867177 -0.75872475
-4.3790326 6.0502515 -0.83246994
-3.7816668 5.224906 -0.36026433
-4.4684815 6.1738381 0
-2.8507724 3.9387443 0.27158174
-1.6389726 2.2615938 -0.92095
-1.9013169 2.6235988 -0.89393526
-2.2105222 3.0502667 -0.83450997
-2.6751089 3.6913428 -0.76000905
-4.3872361 6.0538816 -0.83333403
-3.7848227 5.2226205 -0.36026433
-4.4172387 6.0952821 0
-2.86535 3.9538536 0.27274287
-1.6344416 2.2496159 -0.9168759
-1.900066 2.6152165 -0.89186072
-2.2186882 3.0537622 -0.83619916
-2.6780598 3.686033 -0.75958151
-4.3960724 6.0506744 -0.83362311
-3.7957079 5.2243438 -0.36069933
-4.392478 6.0457273 0
-2.8838696 3.9693062 0.27404898
-1.6604416 2.2796044 -0.92991537
-1.9002676 2.6088591 -0.89047509
-2.2223763 3.0510793 -0.83619916
-2.6840217 3.6848674 -0.76000905
-4.3988104 6.0390844 -0.83275801
-3.8004894 5.2176552 -0.36055434
-4.3951817 6.0341024 0
-2.8886638 3.9658186 0.27404898
-1.6719377 2.2895689 -0.93480361
-1.9048966 2.6085851 -0.89116657
-2.2245586 3.0463338 -0.83563465
-2.6869597 3.6795504 -0.75958151
-4.4076281 6.0358515 -0.83304602
-3.8159826 5.2256465 -0.36142489
-4.3993969 6.02458 0
-2.8965213 3.9665265 0.27433953
-1.6571884 2.2636232 -0.92502713
-1.9080472 2.6062815 -0.89116657
-2.2282379 3.0436435 -0.83563465
-2.6929185 3.6783705 -0.76000905
-4.4179769 6.0346994 -0.83362311
-3.8284338 5.2294183 -0.36200544
-4.4020658 6.0129662 0
-2.8905659 3.9483452 0.27332342
-1.6643054 2.267591 -0.92746967
-1.9245532 2.6221745 -0.89739537
-2.2334218 3.0430033 -0.83619916
-2.6943264 3.6709788 -0.7591539
-4.4222016 6.0251827 -0.83304602
-3.8362918 5.2268891 -0.36215103
-4.4447408 6.0558915 0
-2.9045625 3.9574223 0.27419454
-1.6567945 2.2516487 -0.92176729
-1.9217728 2.6117644 -0.89462674
-2.2416103 3.0464363 -0.83788615
-2.6957142 3.6635814 -0.75829715
-4.427947 6.0177536 -0.83275801
-3.8503032 5.2327127 -0.36287656
-4.4782739 6.0861497 0
-2.9355206 3.9894876 0.27666178
-1.6668488 2.2595882 -0.92584133
-1.9383351 2.6276164 -0.90085816
-2.242276 3.0396399 -0.83676147
-2.7016616 3.6623852 -0.75872475
-4.436749 6.0144782 -0.83304602
-0 0 -0
-4.5458727 6.1624069 0
-2.9310808 3.9733872 0.27579066
-1.6681097 2.2555873 -0.92502713
-1.9161507 2.5909836 -0.88909209
-2.2474563 3.0389693 -0.83732384
-2.6984544 3.6488004 -0.7565853
-4.4455495 6.0111904 -0.83333403
-0 0 -0
-4.6012883 6.2217774 0
-2.945153 3.9823818 0.27666178
-1.6737751 2.2575371 -0.92665553
-1.9192799 2.5886664 -0.88909209
-2.249615 3.0342124 -0.83676147
-2.7074494 3.6517255 -0.7578696
-4.4466481 5.9975038 -0.83218086
-0 0 -0
-4.6165514 6.2266641 0
-2.9592454 3.9913404 0.27753234
-1.6632332 2.2376621 -0.9193216
-1.9253968 2.5903687 -0.89047509
-2.2441821 3.0192523 -0.83338308
-2.7087998 3.6443348 -0.75701451
-4.4616108 6.0025115 -0.83362311
-3.8894982 5.2328095 -0.36418268
-3.9503121 5.3146267 0
-2.964066 3.9877617 0.27753234
-1.6851331 2.2614131 -0.92991537
-1.9345214 2.596087 -0.89324373
-2.2508678 3.0206172 -0.83450997
-2.7177987 3.6472285 -0.75829715
-4.4642224 5.9908924 -0.83275801
-3.8989205 5.2322693 -0.36447269
-3.9676178 5.3244591 0
-2.9797521 3.9987645 0.27854845
-1.6819475 2.2514548 -0.92665553
-1.9316511 2.5857081 -0.89047509
-2.2605989 3.0260377 -0.83676147
-2.7237384 3.6459963 -0.75872475
-4.4776497 5.993782 -0.83391112
-3.9021325 5.2233949 -0.36418268
-3.9631441 5.3050647 0
-2.9768014 3.9847465 0.27782232
-1.6846668 2.2494209 -0.92665553
-1.9468051 2.5994365 -0.89601237
-2.2535901 3.0090656 -0.83282077
-2.7219925 3.6344917 -0.75701451
-4.487987 5.9925041 -0.8344872
-3.9131155 5.2249174 -0.36461824
-3.9742329 5.3065233 0
-2.9956374 3.9998713 0.279129
-1.6695755 2.2236657 -0.9168759
-1.9243387 2.5629785 -0.88424629
-2.2633266 3.0144682 -0.83507228
-2.7294617 3.6353018 -0.7578696
-3.9641333 5.2797298 -0.73589617
-3.9131854 5.2118735 -0.36403769
-3.9712694 5.2892342 0
-3.0098262 4.0087123 0.27999955
-1.6975282 2.2552149 -0.93072957
-1.939504 2.5766866 -0.88978362
-2.257802 2.9995546 -0.83169603
-2.7338524 3.6320012 -0.7578696
-3.9736238 5.2790728 -0.73647332
-3.9257307 5.2154455 -0.36461824
-3.9729607 5.278192 0
-3.0177901 4.0092206 0.28028956
-1.6883419 2.2373788 -0.92420983
-1.9395908 2.5703323 -0.88839793
-2.266012 3.0029032 -0.83338308
-2.7351494 3.6246009 -0.75701451
-3.9737678 5.2660093 -0.73532015
-3.969588 5.2604704 -0.36810103
-3.9777694 5.2713122 0
-3.0335901 4.0200925 0.28130567
-1.6970086 2.2432215 -0.92746967
-1.9472374 2.5739908 -0.89047509
-2.2665756 2.996114 -0.8322584
-2.7426214 3.6253839 -0.7578696
-3.9520423 5.2240787 -0.73013145
-4.0308118 5.3282018 -0.37318105
-3.9778552 5.2582002 0
-3.0415838 4.0205727 0.28159624
-1.6877697 2.225415 -0.92095
-1.9442821 2.5636406 -0.88770646
-2.2717283 2.9953959 -0.83282077
-2.7485497 3.6241107 -0.75829715
-3.9739783 5.2399044 -0.73301381
-4.0576577 5.3502402 -0.37506774
-3.974767 5.2409439 0
-3.0511456 4.0230994 0.28203124
-1.6921061 2.2283354 -0.92258149
-1.9458306 2.5624654 -0.88770646
-2.270467 2.9899795 -0.83169603
-2.744529 3.6142716 -0.7565853
-3.9818375 5.2436838 -0.73387897
-4.0828867 5.3767557 -0.37709939
-3.9826558 5.2447619 0
-3.0598614 4.0295334 0.28261179
-1.696293 2.2282541 -0.92339563
-1.9458891 2.556124 -0.88632345
-2.2879286 3.0054276 -0.83676147
-2.7442338 3.604831 -0.75530261
-3.9678051 5.2121167 -0.73013145
-4.1161356 5.4069643 -0.37956664
-4.0031762 5.2585802 0
-3.0631557 4.0237675 0.2824668
-1.7049822 2.234062 -0.92665553
-1.9474498 2.5517707 -0.8856293
-2.2823062 2.9905376 -0.83338308
-2.754817 3.6096754 -0.75701451
-4.5122981 5.9125271 -0.82901043
-4.1384273 5.4226389 -0.38101774
-3.9984734 5.2392554 0
-3.079052 4.0345244 0.28348291
-1.7151881 2.2418132 -0.93072957
-1.942911 2.5394552 -0.88216913
-2.2843757 2.9857616 -0.83282077
-2.7529373 3.5981889 -0.75530261
-4.5147223 5.9009056 -0.82814533
-4.1512923 5.4258895 -0.38159829
-4.0063872 5.2364931 0
-3.0918176 4.0411177 0.28420848
-1.7073704 2.2260165 -0.92502713
-1.9520854 2.5450683 -0.88493782
-2.2848918 2.978971 -0.83169603
-2.7588437 3.5968947 -0.75573021
-4.5265732 5.9016051 -0.82901043
-4.1720829 5.4394317 -0.38290498
-4.0063758 5.2233887 0
-3.1061838 4.049746 0.28507903
-1.7130692 2.2278669 -0.92665553
-1.9597484 2.548676 -0.88701493
-2.2900369 2.9782202 -0.8322584
-2.7631879 3.5935585 -0.75573021
-4.5258188 5.8858814 -0.82756925
-4.1818171 5.4385023 -0.38319498
-4.0174389 5.2247272 0
-3.115828 4.0521712 0.28551459
-1.6886015 2.1905637 -0.91198772
-1.9521035 2.5323956 -0.88216913
-2.2920842 2.9734406 -0.83169603
-2.7675281 3.5902171 -0.75573021
-4.5313439 5.8783541 -0.82728016
-4.191555 5.4375577 -0.38348499
-4.0110445 5.2033873 0
-3.1254828 4.0545797 0.28595015
-1.7048476 2.2061212 -0.9193216
-1.9536295 2.5280519 -0.88147765
-2.2956753 2.9706688 -0.83169603
-2.7687216 3.5828042 -0.75487345
-4.5289574 5.860599 -0.82555097
-0 0 -0
-4.0173287 5.1985369 0
-3.1256115 4.0446301 0.28551459
-1.7029696 2.1981962 -0.9168759
-1.9582176 2.5276709 -0.88216913
-2.3070421 2.9779341 -0.83450997
-2.7746253 3.5814912 -0.75530261
-4.4996071 5.8081007 -0.81892103
-0 0 -0
-4.045918 5.2224779 0
-3.1448171 4.0593357 0.28682071
-1.7253315 2.2215114 -0.92746967
-1.9766618 2.5451205 -0.88909209
-2.3059616 2.9691222 -0.83282077
-2.7773719 3.5761027 -0.75487345
-4.3781161 5.6371975 -0.79556966
-0 0 -0
-4.0490298 5.2134705 0
-3.1560953 4.0637417 0.28740126
-1.7006862 2.184325 -0.91280186
-1.9689455 2.5288715 -0.88424629
-2.3079882 2.9643307 -0.8322584
-2.7879989 3.5808465 -0.7565853
-4.286417 5.5053825 -0.77769715
-0 0 -0
-4.055326 5.2085743 0
-3.1689832 4.0701747 0.28812683
-1.720054 2.2037024 -0.92176729
-1.9627409 2.5146284 -0.88009465
-2.3084445 2.9575377 -0.83113372
-2.7844276 3.567359 -0.75444585
-4.2707829 5.4716506 -0.77366054
-4.2163367 5.4018955 -0.38275942
-4.0600171 5.2016211 0
-3.180294 4.0745358 0.28870738
-1.7318513 2.2132978 -0.92665553
-1.981235 2.5320094 -0.88701493
-2.3135808 2.9567454 -0.83169603
-2.7855754 3.5599523 -0.75359076
-4.272614 5.460381 -0.77279645
-4.2372708 5.4152126 -0.38406554
-0 0 0
-3.1916201 4.078876 0.28928792
-1.7146949 2.1859248 -0.91606176
-1.9796464 2.5236897 -0.88493782
-2.3124454 2.9479482 -0.83000684
-2.7946234 3.5626376 -0.75487345
-4.2808037 5.4572473 -0.77308452
-4.2550387 5.4244022 -0.38508165
-0 0 0
-3.2045636 4.085237 0.29001349
-1.7188612 2.1857922 -0.9168759
-1.9888974 2.5291841 -0.88770646
-2.3160057 2.9451518 -0.83000684
-2.7973409 3.5572422 -0.75444585
-4.3145728 5.4866323 -0.77798522
-4.2664104 5.4253864 -0.38551721
-0 0 0
-3.2191379 4.0936213 0.29088461
-1.7230297 2.1856527 -0.9176901
-1.9795268 2.5110178 -0.88216913
-2.3179913 2.9403577 -0.82944453
-2.7936921 3.5437818 -0.75230646
-4.4605055 5.6581244 -0.80306578
-5.5019298 6.9791646 -0.49639764
-4.0867195 5.183979 0
-3.235338 4.1040068 0.29190016
-1.7455904 2.2087762 -0.92828387
-1.9732291 2.4968181 -0.87801749
-2.3231163 2.9395463 -0.83000684
-2.8075192 3.5524838 -0.75487345
-4.5747781 5.7886782 -0.82237947
-5.5071392 6.9684381 -0.49610764
-4.0945988 5.1810851 0
-3.2419102 4.102139 0.29204571
-1.7329125 2.1872962 -0.9201358
-1.9949396 2.518029 -0.88632345
-2.3235137 2.9327579 -0.82888216
-2.8038406 3.5390303 -0.75273401
-4.6058636 5.8135581 -0.82670414
-4.3796291 5.5280032 -0.39393446
-4.1024709 5.1781716 0
-3.2500887 4.1022882 0.29233572
-1.7388432 2.1920598 -0.92258149
-1.9871029 2.5050266 -0.88216913
-2.3316014 2.939316 -0.83113372
-2.8107657 3.543371 -0.75401831
-4.6013393 5.8006444 -0.8252629
-4.3781281 5.5192547 -0.39349946
-4.1250067 5.2001591 0
-3.2638719 4.1145759 0.29335183
-1.7368741 2.1841519 -0.9201358
-1.9963741 2.510478 -0.88493782
-2.3351512 2.9364967 -0.83113372
-2.8134489 3.5379648 -0.75359076
-4.618001 5.8072233 -0.82699215
-4.4106708 5.5465012 -0.39582169
-4.1248078 5.1870232 0
-3.2801578 4.1248598 0.2943674
-1.7456747 2.1897821 -0.92339563
-2.0025368 2.5119913 -0.88632345
-2.3307738 2.923733 -0.8283177
-2.8145182 3.5305443 -0.75273401
-4.615344 5.7895079 -0.8252629
-4.3963075 5.5147481 -0.39393446
-4.1229625 5.1718626 0
-3.2916183 4.1290207 0.29494795
-1.7544914 2.1953943 -0.92665553
-2.0024352 2.5056462 -0.88493782
-2.3343048 2.9209146 -0.8283177
-2.8171811 3.5251377 -0.75230646
-4.6304083 5.7940278 -0.82670414
-4.4013472 5.5074039 -0.39378947
-4.096714 5.1262164 0
-3.3047209 4.1351957 0.29567406
-1.7525053 2.1874843 -0.92420983
-1.9944857 2.4895251 -0.88009465
-2.341013 2.9220617 -0.82944453
-2.8198349 3.5197294 -0.75187892
-4.6309371 5.780354 -0.82555097
-4.4096217 5.504108 -0.39393446
-4.0915127 5.1070428 0
-3.3015871 4.1210542 0.29494795
-1.753601 2.18344 -0.92339563
-2.0022006 2.4929757 -0.88216913
-2.344542 2.9192309 -0.82944453
-2.8272977 3.5203187 -0.75273401
-4.6395359 5.7767692 -0.82583898
-4.3463082 5.4116659 -0.38769388
-4.0944247 5.0980411 0
-3.319581 4.1332693 0.29610908
-1.7438378 2.1659179 -0.9168759
-2.0162263 2.5042355 -0.88701493
-2.3464756 2.9144187 -0.82888216
-2.8283327 3.5129049 -0.75187892
-4.6384039 5.7610874 -0.8243978
-4.3365517 5.3861742 -0.38624278
-4.1152687 5.1113324 0
-3.3359814 4.143425 0.29712519
-1.7449028 2.1618879 -0.91606176
-2.0223989 2.505698 -0.88839793
-2.3483949 2.9095984 -0.8283177
-2.8309584 3.5074813 -0.7514497
-4.6518598 5.7635298 -0.82555097
-4.3185749 5.3505983 -0.38406554
-4.1426897 5.1326814 0
-3.3573022 4.1596074 0.2985763
-1.7516776 2.1595824 -0.9168759
-2.006326 2.4735296 -0.87870902
-2.3522213 2.8999717 -0.82719296
-2.8345795 3.4946544 -0.75016701
-4.6608849 5.746243 -0.82468581
-4.3396816 5.3502426 -0.38479164
-4.1714721 5.1428633 0
-3.364074 4.14745 0.29828629
-1.7636446 2.1689739 -0.92176729
-2.0188067 2.4827785 -0.88286066
-2.3573251 2.899097 -0.82775533
-2.8355579 3.4872396 -0.74931026
-3.5191205 4.3279018 -0.62173903
-4.3346663 5.3308806 -0.38377553
-4.1908183 5.1539726 0
-3.3690829 4.1433821 0.29828629
-1.7725105 2.1745045 -0.92502713
-2.0297351 2.4900661 -0.88632345
-2.3576186 2.8923113 -0.82663065
-2.8430164 3.4877942 -0.75016701
-3.5276127 4.3276525 -0.62231505
-4.4034882 5.4021707 -0.38929057
-4.2151318 5.1710968 0
-3.4069221 4.1795897 0.30118909
-1.7594944 2.1532185 -0.9168759
-2.0279787 2.4817817 -0.88424629
-2.3594992 2.8874874 -0.82606614
-2.834234 3.4684539 -0.74674326
-3.5459321 4.3394094 -0.62462139
-4.4412475 5.4350705 -0.39204779
-4.2131448 5.1559253 0
-7.3298631 8.9700747 0.64703816
-1.7558299 2.1434431 -0.91361606
-2.0214403 2.4676888 -0.88009465
-2.3646014 2.8866055 -0.82663065
-2.846555 3.4749541 -0.74888271
-3.5462542 4.3291173 -0.62375623
-4.4511075 5.4337244 -0.39233834
-4.1946325 5.1206303 0
-7.3275232 8.9451313 0.64587706
-1.7443032 2.1241307 -0.90628219
-2.0323796 2.4749367 -0.88355482
-2.3713095 2.8876698 -0.82775533
-2.8507516 3.4715121 -0.74888271
-3.5531287 4.3268337 -0.62404537
-4.4560227 5.4263358 -0.39219335
-4.1975164 5.1115394 0
-7.34657 8.9463091 0.64660263
-1.7657188 2.1449201 -0.91606176
-2.0194209 2.4531064 -0.87663186
-2.3699508 2.8789153 -0.82606614
-2.8565743 3.4700451 -0.74931026
-3.5682142 4.3345151 -0.62577456
-4.4906492 5.45505 -0.39466059
-4.1987262 5.1004338 0
-7.3837981 8.9695244 0.64892489
-1.7856154 2.1637561 -0.92502713
-2.0255802 2.4545383 -0.87801749
-2.3734276 2.8760498 -0.82606614
-2.8591328 3.4646127 -0.74888271
-3.5685086 4.3242135 -0.6249094
-4.4658117 5.4115391 -0.3919028
-4.251267 5.1515603 0
-6.4420385 7.8062725 0.56532902
-1.7898026 2.1634996 -0.92584133
-2.0445328 2.4714158 -0.88493782
-2.3801434 2.877099 -0.82719296
-2.8485916 3.4433558 -0.74503142
-3.5770314 4.3238883 -0.62548655
-4.4557872 5.3861217 -0.39045167
-4.3138881 5.2145948 0
-6.4514661 7.7984829 0.56532902
-1.765595 2.1289947 -0.91198772
-2.0347056 2.4534945 -0.87940049
-2.3787506 2.8683517 -0.82550377
-2.8576679 3.4458413 -0.74631572
-3.5772986 4.3135881 -0.62462139
-4.4125333 5.3207335 -0.38609776
-4.3617105 5.2594504 0
-6.4509354 7.7786851 0.56445843
-1.7716131 2.1336269 -0.91443026
-2.0441992 2.4619138 -0.88286066
-2.3821046 2.8688669 -0.82606614
-2.8663087 3.452014 -0.74802762
-3.5832117 4.3154101 -0.62519854
-4.3559895 5.246098 -0.38087276
-4.3682156 5.2608223 0
-6.4556336 7.774786 0.56445843
-1.7552215 2.1086962 -0.90465379
-2.0327294 2.44209 -0.87663186
-2.3839452 2.8640356 -0.82550377
-2.8704777 3.4485481 -0.74802762
-3.5834577 4.3051114 -0.62433338
-0 0 -0
-4.3662457 5.2455411 0
-6.4666839 7.7689753 0.56460345
-1.7720181 2.1236515 -0.91198772
-2.0501428 2.4569664 -0.88286066
-2.3890305 2.863102 -0.82606614
-2.8746426 3.4450772 -0.74802762
-3.5886571 4.3007784 -0.62433338
-0 0 -0
-4.3542385 5.2182794 0
-6.4760666 7.7611561 0.56460345
-1.7840946 2.1328802 -0.9168759
-2.048286 2.4487202 -0.88078618
-2.389231 2.856319 -0.82494146
-2.8804486 3.4435685 -0.74845517
-3.590529 4.2924676 -0.62375623
-0 0 -0
-4.3455143 5.1950502 0
-6.4854398 7.7533255 0.56460345
-1.769206 2.1098955 -0.90791368
-2.0464058 2.4404745 -0.87870902
-2.3910494 2.851485 -0.82437909
-2.8796575 3.4341824 -0.74717087
-3.6007001 4.2940736 -0.62462139
-0 0 -0
-4.3467698 5.1838112 0
-6.4897928 7.7395082 0.56416786
-1.7892437 2.1285625 -0.9168759
-2.0461276 2.4341629 -0.87732601
-2.3928535 2.8466432 -0.82381457
-2.8805046 3.426774 -0.74631572
-3.5992289 4.2817998 -0.62346822
-0 0 -0
-4.3580556 5.1845336 0
-6.5074983 7.7416043 0.56489342
-1.7965938 2.132071 -0.9193216
-2.0426009 2.4240148 -0.87455738
-2.3962915 2.8437498 -0.82381457
-2.8896008 3.4291747 -0.74759841
-3.606065 4.2794237 -0.62375623
-4.4022784 5.2243133 -0.38159829
-4.3592844 5.1732917 0
-6.5135021 7.7297654 0.56460345
-1.792789 2.1223462 -0.91606176
-2.0503805 2.427289 -0.87663186
-2.3980877 2.838913 -0.82325226
-2.8887773 3.4198031 -0.74631572
-3.6145747 4.2790194 -0.62433338
-4.5125451 5.3420582 -0.39059669
-4.3655324 5.1680207 0
-6.5261874 7.7258554 0.56489342
-1.7809787 2.1032043 -0.90872782
-2.0435877 2.413326 -0.87248021
-2.4064438 2.8418324 -0.82494146
-2.8945646 3.4182673 -0.74674326
-3.6113868 4.264781 -0.6228922
-4.5257134 5.3445334 -0.39117724
-4.3616858 5.1508293 0
-6.5321627 7.7140021 0.56460345
-1.7947105 2.1142352 -0.91443026
-2.0676067 2.4357169 -0.88147765
-2.406584 2.8350446 -0.82381457
-2.8970332 3.412812 -0.74631572
-3.6165373 4.2604141 -0.6228922
-4.5372143 5.345006 -0.3916128
-4.3695893 5.1475372 0
-6.5482054 7.7140274 0.565184
-1.7876563 2.1007748 -0.90954202
-2.0526624 2.4121981 -0.87386322
-2.4133043 2.8360088 -0.82494146
-2.9028168 3.4112623 -0.74674326
-3.6250317 4.2599773 -0.62346822
-3.6865671 4.3322911 -0.31774029
-4.3690596 5.1343255 0
-6.5524678 7.700171 0.56474841
-1.7998146 2.1098919 -0.91443026
-2.0718601 2.4288063 -0.88078618
-2.4167292 2.8330905 -0.82494146
-2.9036014 3.4038424 -0.7458865
-3.623462 4.2477226 -0.62231505
-3.7052901 4.3436484 -0.31890139
-3.6574788 4.2876 0
-6.5449066 7.6724825 0.56329733
-1.7959374 2.1002018 -0.91117036
-2.0682716 2.4186745 -0.87801749
-2.4168448 2.8263025 -0.82381457
-2.9127188 3.4061863 -0.74717087
-3.6319571 4.2472768 -0.6228922
-0 0 -0
-3.6880226 4.3128409 0
-3.7087708 4.3371043 0.3187497
-1.8177768 2.1205485 -0.92095
-2.0793548 2.4256954 -0.88147765
-2.418606 2.8214529 -0.82325226
-2.9118187 3.3968155 -0.7458865
-3.6337166 4.2389541 -0.62231505
-0 0 -0
-0 0 0
-3.7156982 4.3345904 0.31889471
-1.7849021 2.0771136 -0.90302229
-2.0675702 2.4060581 -0.87524885
-2.4203591 2.8166032 -0.82268989
-2.9058857 3.3816166 -0.74331957
-3.6388359 4.23456 -0.62231505
-0 0 -0
-0 0 0
-0 0 0
-1.8003155 2.0899363 -0.90954202
-2.0737476 2.407356 -0.87663186
-2.4254174 2.8155997 -0.82325226
-2.9200189 3.3897691 -0.7458865
-3.6439497 4.2301602 -0.62231505
-3.7160685 4.3138809 -0.31803083
-0 0 0
-0 0 0
-1.8076872 2.0933733 -0.91198772
-2.0782993 2.4067528 -0.87732601
-2.4238405 2.8069034 -0.82156521
-2.9140494 3.3745844 -0.74331957
-3.6456807 4.2218428 -0.62173903
-3.7263682 4.3152819 -0.31846583
-0 0 0
-0 0 0
-1.8021287 2.0818458 -0.90791368
-2.0762784 2.3985476 -0.87524885
-2.4305532 2.807811 -0.82268989
-2.9248452 3.3788245 -0.74503142
-3.6575506 4.2252569 -0.6228922
-3.7315795 4.3107762 -0.31846583
-3.7242343 4.3022909 0
-0 0 0
-1.8017626 2.0788834 -0.90709633
-2.1007273 2.4238305 -0.88493782
-2.4289238 2.8025055 -0.82156521
-2.9151154 3.3634758 -0.74203521
-3.6516342 4.2132754 -0.62145102
-5.6707807 6.5429773 -0.48362648
-3.720015 4.2921734 0
-3.703475 4.2730894 0.31584692
-1.8237255 2.0990942 -0.9168759
-2.0822661 2.3966725 -0.87594038
-2.4323084 2.7995687 -0.82156521
-2.9275937 3.3696384 -0.74417466
-3.6533265 4.2049513 -0.62087387
-5.6974235 6.5576916 -0.48522261
-3.7030108 4.2621374 0
-6.6397257 7.6422739 0.56547397
-1.8295101 2.1006203 -0.9185074
-2.0901051 2.399832 -0.87801749
-2.442358 2.8042846 -0.82381457
-2.9316633 3.3660984 -0.74417466
-3.6635027 4.206387 -0.62173903
-5.7224121 6.5704012 -0.48667428
-4.5251317 5.1956987 0
-6.657486 7.6440411 0.56619954
-1.8271688 2.0928209 -0.91606176
-2.0847549 2.3878574 -0.87455738
-2.4373908 2.7917631 -0.8210007
-2.9374216 3.3644931 -0.74460387
-3.6617782 4.1941638 -0.62058586
-5.7354689 6.5693483 -0.48710927
-4.5091572 5.1647429 0
-6.6615958 7.6301246 0.56576455
-1.8134217 2.0720162 -0.90791368
-2.09094 2.3891087 -0.87594038
-2.4474561 2.796464 -0.82325226
-2.9364111 3.3551443 -0.74331957
-3.6719553 4.1955771 -0.62145102
-4.6910052 5.3599439 -0.39785337
-4.4999638 5.1416597 0
-6.6708102 7.6220698 0.56576455
-1.825701 2.0809674 -0.91280186
-2.0971375 2.3903558 -0.87732601
-2.4458108 2.78778 -0.82156521
-2.9370739 3.3477306 -0.74246281
-3.6667843 4.1794677 -0.6197207
-4.695766 5.3523202 -0.39770836
-4.5147595 5.1460056 0
-6.6731606 7.6061907 0.565184
-1.8102577 2.0583427 -0.90383649
-2.0983627 2.3859308 -0.87663186
-2.4508541 2.7867289 -0.82212758
-2.9478979 3.3518898 -0.74417466
-3.6769576 4.1808629 -0.62058586
-4.7005091 5.3446856 -0.3975628
-6.0642881 6.8953624 0
-6.6960745 7.6137319 0.5663451
-1.7996674 2.041322 -0.89731675
-2.0929503 2.373986 -0.87317169
-2.455898 2.7856696 -0.82268989
-2.9553444 3.3521802 -0.74503142
-3.6820066 4.1764169 -0.62058586
-4.7104034 5.3429041 -0.39785337
-6.0364747 6.8470364 0
-6.7104197 7.6114769 0.56678009
-1.8348675 2.0761859 -0.91361606
-2.0908315 2.3658142 -0.87109458
-2.4592624 2.7827001 -0.82268989
-2.9508946 3.3389912 -0.74289197
-3.6904726 4.175837 -0.62116188
-4.7116923 5.3313656 -0.39741781
-6.053359 6.8494859 0
-6.7264948 7.6111512 0.56736064
-1.8259066 2.0610225 -0.90791368
-2.0936887 2.363286 -0.87109458
-2.4609396 2.7778265 -0.82212758
-2.9566276 3.3373427 -0.74331957
-3.6886551 4.163631 -0.62000871
-4.7233014 5.3315053 -0.39785337
-6.0926981 6.8772345 0
-6.7408571 7.6088548 0.56779623
-1.8464442 2.079138 -0.9168759
-2.0998778 2.3645098 -0.87248021
-2.4575453 2.7672515 -0.81987602
-2.958955 3.3318503 -0.74289197
-3.6954057 4.1611104 -0.62029785
-4.7280164 5.3238535 -0.39770836
-6.0094142 6.766736 0
-6.7552242 7.606535 0.56823176
-1.8473133 2.0750611 -0.91606176
-2.109406 2.3694661 -0.87524885
-2.4608872 2.7642801 -0.81987602
-2.9629788 3.3282723 -0.74289197
-3.7004309 4.156642 -0.62029785
-4.7361717 5.3200755 -0.39785337
-0 0 0
-6.7764997 7.6119471 0.56924736
-1.8448807 2.0672934 -0.91361606
-2.1172802 2.3725326 -0.87732601
-2.4642255 2.7613046 -0.81987602
-2.9601612 3.3170285 -0.74118012
-3.6933939 4.1386576 -0.61827952
-4.7252922 5.2949581 -0.3964017
-0 0 0
-6.7960763 7.6153893 0.57011843
-1.8292551 2.0448053 -0.90465379
-2.1134548 2.3624935 -0.87455738
-2.4658678 2.756433 -0.8193137
-2.9692967 3.3191836 -0.74246281
-3.7001147 4.1361175 -0.61856753
-4.7438154 5.3028026 -0.39741781
-6.0686069 6.7837009 0
-6.8191328 7.6226649 0.57127959
-1.8366702 2.0481083 -0.90709633
-2.1129546 2.356199 -0.87317169
-2.4708912 2.7553413 -0.81987602
-2.9681685 3.3098655 -0.74118012
-3.7033846 4.1297197 -0.61827952
-4.7467532 5.2932014 -0.39712781
-0 0 0
-7.9333506 8.8466415 0.66372824
-1.8490608 2.0569198 -0.91198772
-2.1174757 2.3555081 -0.87386322
-2.4725218 2.7504659 -0.8193137
-2.9824593 3.3177273 -0.74374712
-3.7118268 4.1290855 -0.61885554
-4.7618299 5.2971225 -0.39785337
-6.1075993 6.7941742 0
-7.9249306 8.8157978 0.66213214
-1.8531978 2.0565183 -0.91280186
-2.1220047 2.3548169 -0.87455738
-2.4758434 2.7474763 -0.8193137
-2.9795921 3.3064933 -0.74203521
-3.7185497 4.1265244 -0.61914468
-4.7717023 5.2952218 -0.39814338
-6.0931573 6.7616582 0
-7.937315 8.8081446 0.66227716
-1.8457438 2.0432765 -0.90791368
-2.1198018 2.3466644 -0.87248021
-2.4791613 2.7444828 -0.8193137
-2.9801469 3.2990844 -0.74118012
-3.7183301 4.1162682 -0.61827952
-4.7746167 5.2855997 -0.39785337
-6.0873671 6.7388411 0
-7.9880085 8.8428907 0.6656149
-1.8552657 2.0513248 -0.91198772
-2.1262691 2.3509669 -0.87455738
-2.477407 2.739212 -0.81818682
-2.9821396 3.2972832 -0.74118012
-3.724283 4.1178541 -0.61885554
-4.7708373 5.2750053 -0.39727283
-6.1245999 6.7718296 0
-8.0264683 8.8746815 0.66837269
-1.8461207 2.0362623 -0.90628219
-2.125735 2.3446753 -0.87317169
-2.4858365 2.7418656 -0.81987602
-2.9861217 3.2936776 -0.74118012
-3.7240491 4.1076078 -0.61799151
-4.7946572 5.2884836 -0.39872393
-6.1013169 6.729723 0
-8.0528917 8.8823004 0.66967881
-1.8519076 2.0376916 -0.90791368
-2.1184459 2.3309691 -0.86902004
-2.4874403 2.7369814 -0.8193137
-2.9918239 3.2919648 -0.74160767
-3.7307475 4.1050177 -0.61827952
-4.7958059 5.2769232 -0.39828894
-6.1304483 6.7454572 0
-8.0706081 8.8802547 0.67025942
-1.8626895 2.0445862 -0.91198772
-2.1246367 2.3321133 -0.87040305
-2.4907458 2.7339737 -0.8193137
-2.9957995 3.2883475 -0.74160767
-3.7339647 4.0985966 -0.61799151
-5.7855935 6.3505721 -0.47985259
-6.1088004 6.7053413 0
-8.0673332 8.8551302 0.66909826
-1.870154 2.0478039 -0.91443026
-2.13253 2.3351035 -0.87248021
-2.4940474 2.7309623 -0.8193137
-2.9945757 3.2790368 -0.74032336
-3.7389143 4.0940814 -0.61799151
-5.784503 6.3339853 -0.47912702
-6.1414647 6.7248554 0
-8.0675163 8.8338671 0.66822773
-1.8659512 2.0382504 -0.91117036
-2.1438186 2.3417757 -0.87594038
-2.4939106 2.7241948 -0.81818682
-2.9985356 3.2754159 -0.74032336
-3.7421069 4.0876474 -0.61770236
-5.8026829 6.3384943 -0.47999814
-6.1284981 6.6943951 0
-8.0799379 8.8260279 0.66837269
-1.8567195 2.0232525 -0.90546799
-2.1483412 2.3410301 -0.87663186
-2.5006397 2.7249272 -0.8193137
-3.0059657 3.2755768 -0.74118012
-3.7487972 4.0850344 -0.61799151
-5.7997928 6.3199878 -0.47912702
-6.1823368 6.7368426 0
-8.0958691 8.8220034 0.66880828
-1.8775648 2.0410113 -0.91443026
-2.1392837 2.3255134 -0.87178874
-2.5039306 2.7219036 -0.8193137
-3.0064421 3.2681601 -0.74032336
-3.7432203 4.0690765 -0.61626118
-5.8091893 6.3148932 -0.47927257
-6.186945 6.7255335 0
-6.1908355 6.7297626 0.51075935
-1.8699796 2.0278428 -0.90954202
-2.142092 2.3229268 -0.87178874
-2.5054901 2.7170029 -0.81874919
-3.0051732 3.2588689 -0.73904067
-3.7568996 4.0740561 -0.61770236
-5.8115292 6.3021369 -0.47883701
-6.1950669 6.7180524 0
-6.2042489 6.7280097 0.51119488
-1.8640414 2.0165086 -0.90546799
-2.1431894 2.3184893 -0.87109458
-2.512224 2.7177086 -0.81987602
-3.0108495 3.2571187 -0.73946828
-3.7565575 4.0638208 -0.61683834
-5.8138466 6.2893839 -0.47840145
-6.2031798 6.7105622 0
-6.2070808 6.7147822 0.51075935
-1.8815943 2.0305696 -0.91280186
-2.1442857 2.3140595 -0.87040305
-2.5085979 2.707216 -0.81762451
-3.0130398 3.2515972 -0.73904067
-3.7597089 4.0573835 -0.61655033
-5.8196774 6.2804503 -0.47825646
-6.2059755 6.6973333 0
-6.2222543 6.714901 0.5113399
-1.8958229 2.0409725 -0.9185074
-2.1556156 2.3206558 -0.87386322
-2.5118673 2.7041829 -0.81762451
-3.0239549 3.2554774 -0.74075258
-3.7663672 4.0547309 -0.61683834
-5.816648 6.2619872 -0.47738534
-6.2388635 6.7165284 0
-6.2533512 6.7321258 0.51322657
-1.8932331 2.033252 -0.91606176
-2.1550021 2.3143809 -0.87248021
-2.5151329 2.7011459 -0.81762451
-3.0226364 3.2461832 -0.73946828
-3.7677352 4.0463877 -0.61626118
-5.8259859 6.2568612 -0.4775309
-6.2593837 6.7223125 0
-6.2738781 6.7378783 0.51424271
-1.8585892 1.9912162 -0.89813405
-2.1509497 2.3044393 -0.86971158
-2.5183949 2.6981049 -0.81762451
-3.0248067 3.2406538 -0.73904067
-3.7726219 4.041832 -0.61626118
-5.8353133 6.2517152 -0.47767588
-6.2852631 6.7337728 0
-6.3068337 6.7568827 0.51627433
-1.888006 2.0178387 -0.91117036
-2.1588764 2.3073361 -0.87178874
-2.5164435 2.689492 -0.81593531
-3.0269613 3.2351167 -0.73861152
-3.773972 4.0334969 -0.61568516
-5.8339877 6.2351742 -0.47695035
-6.3147321 6.7489781 0
-6.3167672 6.751153 0.51641935
-1.8836858 2.0083518 -0.90791368
-2.1633775 2.3065538 -0.87248021
-2.5179548 2.684598 -0.81537294
-3.0308681 3.2314568 -0.73861152
-3.7823784 4.0327034 -0.61626118
-5.8432937 6.2300138 -0.47709534
-6.3317828 6.7508321 0
-6.3391409 6.7586775 0.51758045
-1.8793391 1.9988714 -0.90465379
-2.1644461 2.3021121 -0.87178874
-2.5229356 2.6834028 -0.81593531
-3.0224667 3.2147059 -0.73561698
-3.7837083 4.0243649 -0.61568516
-5.8508172 6.222949 -0.47709534
-6.3595395 6.7640276 0
-6.3526444 6.7566943 0.51801604
-1.8977364 2.0086899 -0.91117036
-2.1682751 2.2950461 -0.87109458
-2.529413 2.6772981 -0.81593531
-3.0337489 3.2111208 -0.73647207
-3.7880921 4.0095673 -0.61482
-5.8569179 6.1993494 -0.4763698
-6.4473572 6.8243093 0
-6.3796573 6.7526517 0.51888657
-1.8904591 1.9985669 -0.90709633
-2.1593208 2.2828035 -0.86694294
-2.5275412 2.6720812 -0.81481057
-3.0356884 3.2092874 -0.73647207
-3.7816286 3.9978848 -0.61337882
-5.8535194 6.1882591 -0.47578922
-6.465786 6.8355384 0
-6.3819518 6.7469106 0.51874161
-1.897976 2.0016634 -0.90954202
-2.1620774 2.2801929 -0.86694294
-2.5377612 2.6764004 -0.81706214
-3.0466292 3.2130682 -0.73818392
-3.7953529 4.0026951 -0.61482
-5.8592062 6.1792979 -0.47564423
-6.4937329 6.8484888 0
-6.3865275 6.7354264 0.51845157
-1.8884722 1.9868267 -0.90383649
-2.170018 2.2830358 -0.86902004
-2.5392377 2.6714852 -0.81649762
-3.0469756 3.2056668 -0.73732883
-3.8001866 3.9981062 -0.61482
-5.8666687 6.1722136 -0.47564423
-6.5020032 6.8406377 0
-6.3892889 6.7220526 0.51801604
-1.8874649 1.980968 -0.90220809
-2.1848841 2.2931209 -0.87386322
-2.5459726 2.6720977 -0.81762451
-3.0508468 3.2019827 -0.73732883
-3.80145 3.9897699 -0.61424398
-5.8741221 6.1651206 -0.47564423
-6.5066772 6.8290114 0
-6.4009881 6.7180867 0.51830602
-1.898391 1.9876209 -0.90628219
-2.1703289 2.2723405 -0.86694294
-2.5421796 2.6616695 -0.81537294
-3.0547135 3.1982942 -0.73732883
-3.806268 3.9851737 -0.61424398
-5.8725886 6.1486173 -0.4749181
-6.5257053 6.8324327 0
-6.4019217 6.7028308 0.51772547
-1.9144654 1.9996079 -0.91280186
-2.1748061 2.2715268 -0.86763442
-2.5453939 2.6585958 -0.81537294
-3.055022 3.1908886 -0.73647207
-3.8092866 3.978698 -0.61395484
-5.8764229 6.1377668 -0.47462812
-6.5393577 6.830184 0
-6.4046307 6.6894655 0.51729047
-1.8929235 1.9723315 -0.90139395
-2.1810269 2.272521 -0.86902004
-2.5433245 2.650017 -0.81368375
-3.0624337 3.1909027 -0.73732883
-3.8123021 3.9722281 -0.61366683
-5.8856325 6.1325345 -0.47477311
-6.5403976 6.8147669 0
-6.3947129 6.6629705 0.5158388
-1.8901629 1.9646977 -0.89894825
-2.1768138 2.2626522 -0.86625141
-2.5465248 2.6469419 -0.81368375
-3.060946 3.1816485 -0.73604453
-3.8188906 3.969481 -0.61395484
-5.887639 6.1198063 -0.47433811
-6.5414095 6.7993574 0
-6.3577228 6.608427 0.51221043
-1.9148383 1.9855387 -0.90954202
-2.1865122 2.2672436 -0.86902004
-2.5497212 2.643863 -0.81368375
-3.0665686 3.1797936 -0.73647207
-3.8200965 3.9611437 -0.61337882
-5.8950291 6.1126876 -0.47433811
-6.5532303 6.7951913 0
-6.3945637 6.6306663 0.51453269
-1.9103645 1.9761156 -0.90628219
-2.1892502 2.2646 -0.86902004
-2.5529139 2.6407802 -0.81368375
-3.0650539 3.1705472 -0.73518777
-3.8266761 3.9583826 -0.61366683
-5.8969913 6.0999541 -0.47390255
-6.5650573 6.7910137 0
-6.4025707 6.6229348 0.51453269
-1.8886739 1.9489603 -0.89487422
-2.1850014 2.2547467 -0.86625141
-2.5614092 2.6431694 -0.81537294
-3.0670981 3.1649997 -0.73476022
-3.8260546 3.9481821 -0.61280167
-5.9025507 6.09096 -0.47375757
-6.5587692 6.7681251 0
-6.4340749 6.6394501 0.51641935
-1.9254642 1.9821268 -0.91117036
-2.1894708 2.2539027 -0.86694294
-2.5557506 2.6309614 -0.81255907
-3.069133 3.1594517 -0.73433262
-3.8362308 3.9491236 -0.61366683
-5.9062815 6.080092 -0.47346699
-6.559689 6.752728 0
-6.4439082 6.6335402 0.51656491
-1.929587 1.9815748 -0.91198772
-2.2061944 2.2656345 -0.87248021
-2.5713313 2.640609 -0.81649762
-3.0747375 3.1575785 -0.73476022
-3.8391969 3.9426341 -0.61337882
-5.9100018 6.0692315 -0.47317699
-6.5605812 6.737339 0
-6.4482899 6.6220222 0.51627433
-1.921618 1.9686263 -0.90709633
-2.1966617 2.2503984 -0.86763442
-2.5656476 2.6284106 -0.81368375
-3.0785508 3.1538608 -0.73476022
-3.8403411 3.9342871 -0.61280167
-5.9191442 6.0639434 -0.473322
-6.5705333 6.7312675 0
-6.4526601 6.6105103 0.51598436
-1.9326365 1.9751343 -0.91117036
-2.1993794 2.2477427 -0.86763442
-2.5705969 2.6271229 -0.81424612
-3.0787721 3.1464727 -0.73390508
-3.8432851 3.9277968 -0.61251366
-5.9228292 6.0530691 -0.47303143
-6.5750251 6.7196064 0
-6.4642739 6.60642 0.51627433
-1.9229116 1.9604511 -0.90546799
-2.2056105 2.2486689 -0.86902004
-2.5719919 2.6222029 -0.81368375
-3.0825717 3.1427503 -0.73390508
-3.8444095 3.9194608 -0.61193764
-5.9246855 6.0403481 -0.47259644
-6.58496 6.7135129 0
-6.468616 6.5948977 0.51598436
-1.9304793 1.9634151 -0.90791368
-2.2012904 2.2388465 -0.86625141
-2.5733786 2.6172831 -0.81312138
-3.0863669 3.1390233 -0.73390508
-3.8545773 3.9203403 -0.61280167
-5.9319797 6.033185 -0.47259644
-6.5730019 6.6851439 0
-6.4747529 6.5852184 0.5158388
-1.9328502 1.9610811 -0.90791368
-2.2004685 2.2326081 -0.86486578
-2.5747573 2.6123638 -0.81255907
-3.100966 3.1462581 -0.73647207
-3.8484213 3.9046307 -0.61107248
-5.9319692 6.0186105 -0.47201589
-6.5920324 6.6883144 0
-6.4808831 6.5755415 0.51569378
-1.9300054 1.9534678 -0.90546799
-2.2172704 2.2442248 -0.87040305
-2.5832644 2.6146681 -0.81424612
-3.0975485 3.1352043 -0.73476022
-3.8549526 3.9018159 -0.61136049
-5.9410615 6.0132847 -0.47216088
-6.5982819 6.6784949 0
-6.4851747 6.5640125 0.51540381
-1.9294488 1.950546 -0.90465379
-2.209806 2.2339687 -0.86694294
-2.5830584 2.6113021 -0.81368375
-3.095835 3.1296859 -0.73390508
-3.8591335 3.9013302 -0.61164963
-5.9428678 6.0078487 -0.47201589
-6.6041436 6.6763554 0
-6.4818296 6.5527039 0.51482326
-1.9283204 1.9446998 -0.90302229
-2.2107389 2.2295172 -0.86625141
-2.5790553 2.6009622 -0.81143218
-3.0978017 3.1241148 -0.73347586
-3.8638446 3.8966644 -0.61164963
-5.9464602 5.9969697 -0.47172531
-6.5938849 6.6498942 0
-6.4933982 6.5485539 0.51511323
-1.9132481 1.9248421 -0.89487422
-2.2063568 2.219727 -0.86348277
-2.5804067 2.5960436 -0.81086987
-3.0961504 3.1149125 -0.73219323
-3.8685501 3.8919928 -0.61164963
-5.9573689 5.9934697 -0.47201589
-6.6074142 6.6474543 0
-6.4921489 6.5314903 0.51438767
-1.9242934 1.9312814 -0.89894825
-2.2090373 2.2170594 -0.86348277
-2.5942988 2.6037199 -0.81424612
-3.0981016 3.1093526 -0.73176569
-3.8714192 3.8854783 -0.61136049
-5.9554381 5.9770656 -0.47129032
-6.6227889 6.6468396 0
-6.5018682 6.5254798 0.51453269
-1.9423436 1.9446919 -0.90628219
-2.2188063 2.2214887 -0.86625141
-2.5902674 2.593399 -0.8119967
-3.1091058 3.112865 -0.73347586
-3.874285 3.8789692 -0.61107248
-5.9571452 5.9643478 -0.47085476
-6.627141 6.6351533 0
-6.5060792 6.5139456 0.51424271
-1.9342028 1.9318671 -0.90139395
-2.2197154 2.2170351 -0.86555994
-2.5951953 2.5920613 -0.81255907
-3.1074214 3.1036689 -0.73219323
-3.877141 3.8724589 -0.61078447
-5.9643478 5.9571452 -0.47085476
-6.6185832 6.6105905 0
-6.5139456 6.5060792 0.51424271
-1.940034 1.9330143 -0.90302229
-2.2259436 2.2178893 -0.86694294
-2.5929236 2.5835416 -0.81086987
-3.118443 3.1071594 -0.73390508
-3.8818173 3.8677714 -0.61078447
-5.9604936 5.9389262 -0.46998364
-6.6155009 6.5915637 0
-6.5144391 6.4908676 0.5136621
-1.9318539 1.9202176 -0.89813405
-2.2392943 2.2258062 -0.87109458
-2.5978439 2.5821962 -0.81143218
-3.1149125 3.0961504 -0.73219323
-3.8846552 3.8612566 -0.61049646
-5.962142 5.92623 -0.46954864
-6.6271558 6.5872378 0
-6.5241184 6.4848213 0.51380712
-1.9394329 1.9230978 -0.90057659
-2.231297 2.2125037 -0.86694294
-2.6009622 2.5790553 -0.81143218
-3.129585 3.1032259 -0.73476022
-3.887476 3.8547335 -0.61020732
-5.9785223 5.9281678 -0.47027421
-6.6221724 6.5663967 0
-6.5282626 6.473278 0.51351714
-1.950546 1.9294488 -0.90465379
-2.2268343 2.2027488 -0.86417431
-2.6058881 2.5777028 -0.8119967
-3.1315091 3.0976386 -0.73433262
-3.8994863 3.8573091 -0.61136049
-5.9838352 5.9191136 -0.47012919
-6.6190038 6.5474124 0
-6.5323811 6.4617267 0.51322657
-1.9388018 1.9132023 -0.89813405
-2.2366371 2.2071052 -0.86694294
-2.607187 2.5727623 -0.81143218
-3.1352496 3.0938525 -0.73433262
-3.89678 3.8453276 -0.61020732
-5.9928308 5.9137025 -0.47027421
-6.6269102 6.5394101 0
-6.5420318 6.4556522 0.51337159
-1.9552031 1.9247295 -0.90465379
-2.2446675 2.2096825 -0.86902004
-2.608485 2.5678294 -0.81086987
-3.1408134 3.091861 -0.73476022
-3.9014235 3.8406165 -0.61020732
-5.9814577 5.8882318 -0.46882308
-6.6422257 6.5387011 0
-6.5442777 6.4422793 0.51293659
-1.9434196 1.9085114 -0.89813405
-2.2437525 2.2034497 -0.86763442
-2.6152151 2.5682397 -0.8119967
-3.1317313 3.0754783 -0.73176569
-3.902374 3.8322785 -0.6096313
-5.9978361 5.8901014 -0.46954864
-6.6371217 6.5179038 0
-6.5464935 6.4289036 0.512501
-1.9722024 1.9321015 -0.91035622
-2.2410424 2.1954751 -0.86555994
-2.6074226 2.5544057 -0.80861831
-3.133606 3.0698903 -0.73133647
-3.9143922 3.8348005 -0.61078447
-5.9993787 5.8773928 -0.46911308
-6.6301203 6.4953098 0
-6.5561113 6.4228053 0.51264602
-1.9869107 1.9418113 -0.91606176
-2.2490709 2.1980209 -0.86763442
-2.6214137 2.5619123 -0.8119967
-3.1409886 3.0696936 -0.73219323
-3.9134717 3.8246429 -0.60991931
-6.0046196 5.8683252 -0.46896809
-6.6379638 6.4872937 0
-6.560154 6.4112501 0.51235598
-1.9591719 1.9100794 -0.90220809
-2.2427452 2.1865468 -0.86417431
-2.6263249 2.5605149 -0.81255907
-3.1410155 3.0623085 -0.73133647
-3.9199405 3.8217151 -0.61020732
-5.0777593 4.9505215 -0.3961117
-6.6122589 6.4465704 0
-6.5697546 6.4051309 0.512501
-1.9419869 1.8887534 -0.89324272
-2.2507827 2.1890845 -0.86625141
-2.6221311 2.5502536 -0.8103075
-3.1410365 3.054935 -0.73048133
-3.922703 3.8151743 -0.60991931
-5.098639 4.9588757 -0.39727283
-5.108952 4.9689064 0
-6.5756283 6.3953781 0.51235598
-1.9424955 1.8846861 -0.89242852
-2.2444251 2.1776302 -0.8627913
-2.6270325 2.548851 -0.81086987
-3.1465662 3.0529232 -0.73090893
-3.9236009 3.806833 -0.60934329
-0 0 -0
-5.1130862 4.9609189 0
-6.5628352 6.3675227 0.51075935
-1.974961 1.911558 -0.90628219
-2.2560663 2.1836388 -0.86625141
-2.6282864 2.5439093 -0.8103075
-3.1576309 3.0562603 -0.73262078
-3.9300547 3.8038864 -0.6096313
-0 0 -0
-0 0 0
-5.1403956 4.9753714 0.39958835
-1.9707829 1.9052093 -0.90383649
-2.2519722 2.1770427 -0.86417431
-2.6316478 2.5440855 -0.81086987
-3.159477 3.054352 -0.73262078
-3.9286292 3.7979126 -0.60905415
-5.1154618 4.9452558 -0.39741781
-0 0 0
-0 0 0
-1.981984 1.9114101 -0.90791368
-2.2455738 2.1656141 -0.86071414
-2.6328928 2.5391417 -0.8103075
-3.1631651 3.0505323 -0.73262078
-3.9406624 3.8003447 -0.61020732
-5.1176963 4.9354668 -0.39712781
-0 0 0
-5.141923 4.9588313 0.3990078
-1.9807264 1.9055835 -0.90628219
-2.2608459 2.1750762 -0.86555994
-2.6341295 2.5341985 -0.80974519
-3.1650007 3.04493 -0.73219323
-3.9377959 3.7884073 -0.60905415
-5.1161656 4.9220734 -0.39654726
-0 0 0
-5.1348014 4.9400024 0.39799169
-1.9955117 1.9151703 -0.91198772
-2.2761376 2.1844978 -0.87040305
-2.6353512 2.5292492 -0.80918068
-3.1649699 3.037545 -0.73133647
-3.9386418 3.7800682 -0.60847813
-6.0575528 5.8136692 -0.46896809
-5.1230879 4.9168272 0
-5.1238961 4.9176025 0.39668557
-1.9871092 1.9024988 -0.90709633
-2.2624679 2.1661329 -0.86417431
-2.6439133 2.5313363 -0.81086987
-3.1667852 3.031945 -0.73090893
-3.9450729 3.7770932 -0.60876614
-6.0589404 5.8009529 -0.46853253
-5.1102233 4.892632 0
-6.6106391 6.3291607 0.51119488
-1.9590234 1.8710773 -0.89324272
-2.2668962 2.1651287 -0.86486578
-2.6488056 2.5298932 -0.81143218
-3.1741629 3.0316658 -0.73176569
-3.9477654 3.770539 -0.60847813
-6.0321255 5.7613263 -0.4659203
-6.6574154 6.3585453 0
-6.6201587 6.3229613 0.5113399
-1.9738103 1.880645 -0.89894825
-2.2640669 2.1572013 -0.8627913
-2.6518605 2.5266907 -0.81143218
-3.1722465 3.0225141 -0.73048133
-3.9560599 3.769331 -0.60905415
-6.0484867 5.7629938 -0.46664587
-6.6952405 6.37922 0
-6.6240354 6.3113761 0.51104987
-1.9760813 1.8782587 -0.89894825
-2.2666719 2.154464 -0.8627913
-2.6549115 2.5234847 -0.81143218
-3.1870565 3.0292866 -0.73304832
-3.9549928 3.7592075 -0.60819012
-6.038497 5.7395716 -0.46533975
-6.6878529 6.356782 0
-6.6222339 6.2944117 0.51032376
-1.9873153 1.8843712 -0.90302229
-2.2783742 2.1603529 -0.86625141
-2.6616499 2.5237749 -0.81255907
-3.1758122 3.0113032 -0.72962457
-3.9538996 3.7490852 -0.60732496
-6.0454278 5.7322712 -0.46533975
-6.7106371 6.3630219 0
-6.618525 6.2756815 0.50945324
-2.0057492 1.8972529 -0.91035622
-2.2718718 2.1489801 -0.8627913
-2.6443906 2.5013485 -0.8063668
-3.1831818 3.0109951 -0.73048133
-3.9621813 3.7478564 -0.60790098
-6.0599008 5.7321048 -0.4659203
-6.7202096 6.3566952 0
-6.6336541 6.2748218 0.51003379
-1.9990537 1.8863481 -0.90628219
-2.2744668 2.1462333 -0.8627913
-2.6566494 2.5068688 -0.80918068
-3.18308 3.0036197 -0.72962457
-3.9629481 3.7395194 -0.60732496
-6.0535913 5.7122931 -0.46490419
-6.7259941 6.3467865 0
-6.6412311 6.2668018 0.51003379
-1.9833382 1.8669935 -0.89813405
-2.2734013 2.1400411 -0.86140561
-2.6689327 2.5123701 -0.8119967
-3.1923163 3.0050516 -0.73090893
-3.961812 3.7294078 -0.6064598
-6.0529208 5.6978502 -0.46432364
-6.7336583 6.3386545 0
-6.6393399 6.2498693 0.50930822
-2.0162203 1.8933569 -0.91198772
-2.2704973 2.132139 -0.85932851
-2.6571484 2.4952285 -0.80749363
-3.1847208 2.9906518 -0.72834194
-3.9719737 3.7299314 -0.60732496
-6.0446477 5.676302 -0.46316251
-6.7318287 6.3216076 0
-6.6506715 6.2453961 0.5095982
-1.9986634 1.8723304 -0.90302229
-2.2712429 2.1276803 -0.85863698
-2.662014 2.4937515 -0.808056
-3.1939471 2.9920616 -0.72962457
-3.9783633 3.726896 -0.60761297
-5.543313 5.1929274 -0.42426735
-6.7337623 6.3081298 0
-6.6544242 6.2338061 0.50930822
-1.9955051 1.8648497 -0.90057659
-2.2903068 2.1403494 -0.86486578
