# .PCD v0.7 - Point Cloud Data file format
VERSION 0.7
FIELDS x y z
SIZE 4 4 4
TYPE F F F
COUNT 1 1 1
WIDTH 1590
HEIGHT 1
VIEWPOINT 0 0 0 1 0 0 0
POINTS 1590
DATA ascii
-3.7463388 7.1696014 -0.45184246
-3.5078468 6.7131848 0
-4.8954597 9.3687458 0.59043688
-1.3217357 2.5220587 -0.9388808
-1.5005277 2.8632193 -0.89186072
-1.761587 3.3613572 -0.84070224
-2.4342597 4.6449118 -0.87427014
-3.361232 6.4137063 -0.80710137
-3.7646487 7.1834822 -0.45300359
-3.5244133 6.7250795 0
-4.9091864 9.3674221 0.59072685
-1.3017836 2.4767039 -0.92258149
-1.5168225 2.8858254 -0.89947253
-1.7644616 3.3569705 -0.84013772
-2.4398704 4.6419668 -0.87427014
-3.3653681 6.4027696 -0.80623621
-3.7660697 7.165123 -0.45213246
-3.5361657 6.7277203 0
-4.9168782 9.3545895 0.59029186
-1.3289782 2.5210416 -0.93969494
-1.5238191 2.8906505 -0.9015497
-1.7697049 3.3570902 -0.84070224
-2.4430854 4.6344781 -0.87341505
-3.370692 6.3941269 -0.80566013
-3.7626095 7.1375856 -0.45068136
-3.5479343 6.7303514 0
-4.9039431 9.3026695 0.58738905
-1.3158481 2.4888396 -0.92828387
-1.520273 2.8754957 -0.89739537
-1.7761329 3.3594377 -0.84182692
-2.4426856 4.6201777 -0.8712756
-3.3772032 6.3877563 -0.80537105
-3.7773025 7.1445174 -0.4514069
-3.5682256 6.7490625 0
-4.9224648 9.3105154 0.58825964
-1.3176978 2.4850662 -0.92746967
-1.5131701 2.8537107 -0.89116657
-1.7766188 3.3505526 -0.84013772
-2.4530766 4.6262946 -0.87298745
-3.3873448 6.3882456 -0.8059482
-3.7859325 7.1399479 -0.4514069
-3.5702834 6.733252 0
-4.9361482 9.3091574 0.58855021
-1.3195401 2.481292 -0.92665553
-1.5154403 2.8496673 -0.89047509
-1.7842462 3.3551357 -0.84182692
-2.4610732 4.6278558 -0.8738426
-3.3902035 6.3750134 -0.80479503
-3.7872391 7.1216073 -0.45053634
-3.5881922 6.7473154 0
-4.9888721 9.3811846 0.59348464
-1.3434714 2.5189464 -0.94132334
-1.5224254 2.8544769 -0.89255226
-1.788299 3.3529773 -0.84182692
-2.463038 4.6180816 -0.8725583
-3.396688 6.3686323 -0.80450696
-3.7970631 7.1193166 -0.45068136
-3.5951188 6.7406807 0
-5.0209908 9.4141245 0.59595186
-1.3403352 2.509414 -0.93806344
-1.5217836 2.8491266 -0.89116657
-1.7903243 3.3518963 -0.84182692
-2.4622028 4.6098061 -0.8712756
-3.3980956 6.3620114 -0.80392987
-3.8331904 7.176609 -0.45445469
-3.613904 6.7660542 0
-5.0450368 9.4454622 0.59812856
-1.3270295 2.4772947 -0.92665553
-1.5193031 2.8362305 -0.88770646
-1.7943732 3.3497307 -0.84182692
-2.4762526 4.6226611 -0.87427014
-3.4082253 6.3624654 -0.80450696
-3.8308177 7.1513596 -0.45314857
-3.6196167 6.7570901 0
-5.0687184 9.4622688 0.59958023
-1.3276846 2.4713392 -0.92502713
-1.5393488 2.8653288 -0.89739537
-1.7887993 3.3296535 -0.83732384
-2.4745493 4.606102 -0.87170315
-3.4146831 6.3560576 -0.80421788
-3.8628175 7.1902103 -0.45590582
-3.6179254 6.7343707 0
-5.1170378 9.5248041 0.60393411
-1.3388728 2.4849579 -0.93072957
-1.5440034 2.8656816 -0.89808953
-1.7988461 3.3386717 -0.84013772
-2.4776754 4.5985842 -0.87084639
-3.4174581 6.3428278 -0.80306578
-3.8961527 7.2312889 -0.4588086
-3.6038425 6.6887589 0
-5.1174517 9.4980288 0.60262799
-1.3583218 2.5137765 -0.94213748
-1.5331532 2.8373282 -0.88978362
-1.7992587 3.3297961 -0.83845067
-2.4893355 4.6068859 -0.87298745
-3.4189682 6.3273096 -0.80162352
-3.9333 7.2791572 -0.46214694
-4.9653468 9.1891136 0
-5.1363335 9.5055504 0.60349858
-1.3272135 2.4491258 -0.9185074
-1.5401675 2.8420928 -0.89186072
-1.8081232 3.3365552 -0.84070224
-2.4863374 4.5880737 -0.8699913
-3.4266109 6.3231735 -0.80162352
-3.9507551 7.2903843 -0.46316251
-4.9851227 9.1991177 0
-5.1428633 9.4901991 0.60291803
-1.3466927 2.4779189 -0.92991537
-1.5388086 2.8314128 -0.88909209
-1.8085123 3.3276684 -0.83901304
-2.5004613 4.6008568 -0.87298745
-3.4379551 6.3258486 -0.80248868
-3.9707272 7.3061509 -0.46446863
-4.9925098 9.1862335 0
-5.1530871 9.4816971 0.60277301
-1.3532355 2.4828024 -0.93236107
-1.5434282 2.8317521 -0.88978362
-1.8076679 3.3165567 -0.83676147
-2.5047865 4.5955715 -0.8725583
-3.4493108 6.328505 -0.80335379
-3.9683616 7.2808156 -0.46316251
-4.9936419 9.1619139 0
-5.2006021 9.541626 0.60698193
-1.3479351 2.4659822 -0.92665553
-1.5600814 2.8540938 -0.89739537
-1.8165487 3.3232884 -0.83901304
-2.4980273 4.5700207 -0.8682794
-3.4507535 6.3129869 -0.80191261
-3.9808962 7.2828579 -0.46359807
-4.9922237 9.1330328 0
-5.2520041 9.6082888 0.61162585
-1.3592315 2.4795249 -0.93236107
-1.5418241 2.8126123 -0.88493782
-1.8144572 3.3099527 -0.83619916
-2.5097163 4.5782518 -0.87041885
-3.4509168 6.2952003 -0.80018234
-3.3776848 6.1616101 -0.39248335
-5.0195222 9.1566677 0
-5.2673588 9.6087732 0.61206138
-1.3479381 2.4518902 -0.92258149
-1.5597247 2.8371289 -0.89324373
-1.8270203 3.3233376 -0.84013772
-2.5102997 4.5662179 -0.868707
-3.4597657 6.2932901 -0.80047035
-3.3901348 6.1666322 -0.3930639
-5.0180426 9.1277857 0
-5.2889795 9.6206179 0.61322248
-1.3544807 2.4567552 -0.92502713
-1.5498266 2.8110731 -0.8856293
-1.8212204 3.3033266 -0.83563465
-2.5282116 4.5856662 -0.87298745
-3.4586294 6.2732563 -0.79845309
-3.3975835 6.1625314 -0.3930639
-5.0215316 9.1080456 0
-5.303112 9.6187754 0.61351305
-1.3598379 2.4594386 -0.92665553
-1.5629334 2.8267627 -0.89116657
-1.8239822 3.298902 -0.83507228
-2.5275364 4.5713687 -0.87084639
-3.4712129 6.2781267 -0.79960626
-3.3999979 6.1493258 -0.39248335
-3.3703816 6.0957608 0
-5.3222718 9.6260004 0.61438364
-1.3628086 2.4577935 -0.92665553
-1.566348 2.824872 -0.89116657
-1.8353622 3.3100331 -0.83845067
-2.5280788 4.5593314 -0.86913455
-3.4775383 6.2716594 -0.79931718
-3.4023855 6.1361232 -0.3919028
-3.3777447 6.0916839 0
-5.333899 9.6195631 0.61438364
-1.3645774 2.4539871 -0.92584133
-1.573419 2.8295572 -0.89324373
-1.834421 3.2989302 -0.83619916
-2.5398273 4.5674973 -0.8712756
-3.4800909 6.2584195 -0.79816508
-3.4148486 6.1410913 -0.39248335
-3.3787754 6.0762191 0
-5.9857273 10.764429 0.68796557
-1.3735592 2.4631276 -0.92991537
-1.5792781 2.832032 -0.89462674
-1.8371648 3.2944858 -0.83563465
-2.5540926 4.5801129 -0.87427014
-3.4889088 6.2564669 -0.79845309
-2.9894714 5.3608532 -0.34284815
-3.3734422 6.0494065 0
-5.9974651 10.754922 0.68782055
-1.3813599 2.4700949 -0.93317521
-1.5667814 2.8016586 -0.8856293
-1.846105 3.3011341 -0.83788615
-2.5521097 4.5635848 -0.87170315
-3.4926775 6.245472 -0.79758799
-3.00736 5.377646 -0.34415427
-3.3769372 6.0385098 0
-6.0269427 10.777147 0.68970722
-1.3662077 2.4360859 -0.92095
-1.5775309 2.8128965 -0.88978362
-1.8451209 3.2900364 -0.83563465
-2.5588765 4.5627346 -0.87213069
-3.5040181 6.2480173 -0.79845309
-0 0 -0
-3.3702316 6.0094624 0
-6.0564823 10.799318 0.69159395
-1.3800533 2.4538198 -0.92828387
-1.5698615 2.7913103 -0.88355482
-1.8540771 3.2966633 -0.83788615
-2.5543206 4.5417395 -0.868707
-3.5026886 6.2279959 -0.79643482
-0 0 -0
-3.3876965 6.0235329 0
-6.072072 10.796517 0.69188392
-1.3805913 2.447849 -0.92665553
-1.5769268 2.7959607 -0.8856293
-1.8518192 3.2833569 -0.83507228
-2.5610664 4.5408835 -0.86913455
-3.5127549 6.2282691 -0.79701191
-0 0 -0
-3.3630111 5.9627666 0
-6.0991554 10.814071 0.69348061
-1.3884151 2.4547844 -0.92991537
-1.5778363 2.78969 -0.88424629
-1.8545355 3.2789073 -0.83450997
-2.5640264 4.5333209 -0.8682794
-3.517729 6.2195129 -0.79643482
-0 0 -0
-2.9833 5.2746167 0
-6.1173348 10.815741 0.69406116
-1.3828434 2.4380538 -0.92420983
-1.5824425 2.7899616 -0.88493782
-1.8635103 3.2855046 -0.83676147
-2.5758333 4.5413818 -0.87041885
-3.0748172 5.4211273 -0.69467342
-0 0 -0
-2.962709 5.2234721 0
-6.1432161 10.830938 0.69551224
-1.3833467 2.4320884 -0.92258149
-1.5870516 2.7902262 -0.8856293
-1.8637089 3.2766225 -0.83507228
-2.5800507 4.536037 -0.8699913
-3.0800829 5.415153 -0.69438428
-3.0347066 5.3353763 -0.34284815
-2.9265585 5.1452394 0
-6.1614375 10.832542 0.69609284
-1.3985277 2.4518802 -0.93072957
-1.5966405 2.7992086 -0.88909209
-1.8651513 3.2699583 -0.8339476
-2.5868003 4.5351439 -0.87041885
-3.0891893 5.415925 -0.69496143
-3.0308518 5.3136492 -0.34168705
-2.9766166 5.2185645 0
-6.1873941 10.847656 0.69754392
-1.3806286 2.4137182 -0.9168759
-1.6025105 2.8016286 -0.89047509
-1.8716217 3.2721093 -0.83507228
-2.5871801 4.5231018 -0.868707
-3.0880234 5.3987136 -0.69323111
-3.02566 5.2896852 -0.34038094
-2.9389842 5.1381516 0
-6.2004967 10.840172 0.69754392
-1.3894598 2.425756 -0.92176729
-1.5904852 2.7767115 -0.88286066
-1.8735982 3.2709777 -0.83507228
-2.5975702 4.5349073 -0.8712756
-3.0900002 5.3946047 -0.6929431
-3.0288553 5.2878561 -0.34038094
-2.980896 5.2041278 0
-6.2109203 10.84319 0.69797951
-1.3923898 2.4240754 -0.92176729
-1.6050888 2.7943728 -0.88909209
-1.8750205 3.2643092 -0.8339476
-2.5992107 4.5250854 -0.8699913
-3.1003823 5.3975978 -0.69380826
-3.0430102 5.2977161 -0.34125203
-2.9806969 5.1892319 0
-6.2408414 10.864967 0.69986618
-1.4027174 2.4352374 -0.92665553
-1.5996976 2.7772119 -0.88424629
-1.8776915 3.2598331 -0.83338308
-2.5982714 4.5108213 -0.86785185
-3.1069019 5.3938475 -0.69380826
-3.0429208 5.2827706 -0.34052593
-2.9960592 5.2014151 0
-6.2695289 10.884439 0.70160782
-1.377229 2.3843217 -0.90791368
-1.6055593 2.7796175 -0.8856293
-1.8829036 3.2597685 -0.8339476
-2.6101387 4.5187907 -0.8699913
-3.1069498 5.3788929 -0.69236708
-3.046705 5.2745943 -0.34023592
-2.994534 5.1842737 0
-6.2969737 10.901608 0.70320451
-1.3887771 2.3976207 -0.91361606
-1.6164639 2.790705 -0.88978362
-1.8842915 3.2530894 -0.83282077
-2.604018 4.4956436 -0.86614001
-3.1238182 5.3930402 -0.69467342
-3.0634952 5.288897 -0.34139705
-3.0073171 5.1919093 0
-6.3205605 10.911979 0.70436561
-1.4078102 2.4237227 -0.92420983
-1.5984148 2.7518725 -0.87801749
-1.8971555 3.2661924 -0.83676147
-2.5965521 4.4702921 -0.8618595
-3.1368265 5.4004421 -0.6961146
-3.0594425 5.2672162 -0.34023592
-3.0305798 5.2175255 0
-6.3376527 10.911068 0.70480061
-1.4082522 2.4177527 -0.92258149
-1.6093124 2.7629421 -0.88216913
-1.8921474 3.2485263 -0.83282077
-2.5683615 4.409482 -0.85073316
-3.1420491 5.3944154 -0.69582659
-3.0762675 5.2814784 -0.34139705
-3.4389863 5.904211 0
-6.3704505 10.937084 0.70697784
-1.4273767 2.4437921 -0.93317521
-1.6113857 2.7588313 -0.88147765
-1.8960712 3.2462375 -0.83282077
-2.2785082 3.9010029 -0.75316155
-3.1655221 5.4196472 -0.69957411
-3.083956 5.2799988 -0.34154204
-3.4697468 5.9405065 0
-6.3980732 10.954054 0.708574
-1.412843 2.4122117 -0.92176729
-1.6210564 2.7677042 -0.88493782
-1.9064119 3.2549047 -0.83563465
-2.2767346 3.8871734 -0.75102216
-3.1786032 5.4269753 -0.70101529
-3.0995276 5.291966 -0.34255815
-3.4782364 5.9385529 0
-6.4139333 10.950804 0.70886451
-1.3994807 2.382791 -0.91117036
-1.6193173 2.7570903 -0.88216913
-1.8974777 3.2306933 -0.83000684
-0 0 -0
-3.1917064 5.4342799 -0.70245647
-3.1151276 5.3038945 -0.34357372
-3.477504 5.9208856 0
-6.4192624 10.929598 0.70799345
-1.4299556 2.4279556 -0.92910117
-1.6251962 2.7594593 -0.88355482
-1.9052497 3.2349687 -0.83169603
-0 0 -0
-3.196959 5.4281926 -0.70216846
-3.1268086 5.309083 -0.34415427
-3.4476755 5.8538899 0
-6.4351039 10.926315 0.70828396
-1.4203172 2.4049401 -0.92095
-1.62725 2.7553272 -0.88286066
-1.9065704 3.2282844 -0.83056921
-2.272537 3.847954 -0.74503142
-3.2179799 5.4488173 -0.70533884
-3.1451125 5.3254352 -0.34546039
-3.4759212 5.8855739 0
-6.4628377 10.943146 0.70988065
-1.4169261 2.392591 -0.9168759
-1.6267465 2.7468894 -0.88078618
-1.9117682 3.2281709 -0.83113372
-2.2732592 3.8385768 -0.74374712
-3.2245615 5.4449253 -0.70533884
-3.1449258 5.3104544 -0.34473485
-3.0918398 5.2208142 0
-6.5065055 10.986746 0.71321845
-1.4034113 2.3632524 -0.90628219
-1.6339037 2.7513866 -0.88286066
-1.9143664 3.2236674 -0.83056921
-2.2700338 3.8225882 -0.74118012
-3.2351015 5.4476986 -0.706204
-3.1593034 5.3200598 -0.34560594
-3.5273364 5.9398031 0
-6.5383482 11.01015 0.71525013
-1.422704 2.3891599 -0.9168759
-1.6359447 2.747257 -0.88216913
-1.9221615 3.2279034 -0.8322584
-2.2733388 3.8176389 -0.74075258
-3.2522683 5.4615641 -0.70851034
-3.1604114 5.3073082 -0.34502539
-3.1137695 5.228982 0
-6.5463295 10.993311 0.71466959
-1.4281265 2.3916872 -0.9185074
-1.6469826 2.7582064 -0.88632345
-1.9182469 3.2124932 -0.82888216
-2.2740006 3.808275 -0.73946828
-3.26019 5.4598494 -0.70879835
-3.1774793 5.3213334 -0.34618652
-3.1360912 5.2520208 0
-6.5622749 10.98986 0.7149601
-1.4373626 2.4005606 -0.92258149
-1.6374238 2.7346859 -0.87940049
-1.9312605 3.2254269 -0.83282077
-2.2706854 3.7923057 -0.73689961
-3.6202044 6.0461574 -0.78548026
-3.1812344 5.3130269 -0.34589595
-3.181205 5.3129778 0
-0 0 0
-1.433902 2.3882291 -0.9185074
-1.660099 2.7649703 -0.88978362
-1.928618 3.2122009 -0.83000684
-2.2713058 3.782963 -0.73561698
-3.6394887 6.0617337 -0.78807461
-3.1903296 5.3136392 -0.34618652
-3.1809256 5.297976 0
-6.6556888 11.085353 0.72221678
-1.4265882 2.369555 -0.91198772
-1.6388518 2.7221236 -0.87663186
-1.9403586 3.2229249 -0.83338308
-2.2771978 3.782413 -0.73604453
-3.6388085 6.0440407 -0.78634542
-3.2034476 5.320909 -0.34691206
-3.1792734 5.2807555 0
-0 0 0
-1.4537168 2.408026 -0.92746967
-1.6447353 2.7244411 -0.87801749
-1.9324341 3.2010031 -0.8283177
-2.2817664 3.7796586 -0.73604453
-2.30141 3.8121972 -0.49633819
-2.3141837 3.8333566 -0.25010893
-2.3302567 3.8599808 0
-6.6206861 10.966912 0.71554065
-1.4476694 2.3914731 -0.92176729
-1.6558187 2.7353246 -0.88216913
-1.9349859 3.1964941 -0.82775533
-0 0 -0
-2.2859218 3.7762218 -0.49201351
-2.3241963 3.8394492 -0.25068948
-2.3079698 3.8126438 0
-0 0 0
-1.4390119 2.3707006 -0.91443026
-1.657822 2.7311792 -0.88147765
-1.9441206 3.202842 -0.83000684
-0 0 -0
-2.307929 3.8021982 -0.49576104
-2.3247876 3.829972 -0.25025392
-2.2855668 3.7653577 0
-0 0 0
-1.4365964 2.3635006 -0.91198772
-1.65817 2.7280354 -0.88078618
-1.9473737 3.203836 -0.83056921
-0 0 -0
-0 0 -0
-0 0 -0
-0 0 0
-0 0 0
-1.4304457 2.3469875 -0.90628219
-1.6719103 2.7431679 -0.88632345
-1.9446329 3.1906345 -0.82775533
-2.288377 3.7546289 -0.73304832
-0 0 -0
-0 0 -0
-0 0 0
-0 0 0
-1.4500345 2.3726716 -0.9168759
-1.6660647 2.7261589 -0.88147765
-1.9511393 3.1926227 -0.82888216
-2.2955921 3.7562461 -0.73390508
-0 0 -0
-0 0 -0
-0 0 0
-0 0 0
-1.4606513 2.3835664 -0.92176729
-1.6811537 2.7433934 -0.88770646
-1.9549955 3.1902628 -0.82888216
-2.302809 3.757843 -0.73476022
-2.3131819 3.7747695 -0.4934558
-0 0 -0
-0 0 0
-0 0 0
-1.4622326 2.3796878 -0.92095
-1.681843 2.7370892 -0.88632345
-1.9575149 3.1857271 -0.8283177
-2.3154142 3.7681849 -0.73732883
-2.3109667 3.760947 -0.49201351
-0 0 -0
-0 0 0
-2.323755 3.7817588 0.24792555
-1.4664072 2.3800294 -0.92176729
-1.6733063 2.7158339 -0.88009465
-1.9586996 3.1790371 -0.82719296
-2.3240016 3.7719347 -0.73861152
-2.3345068 3.788985 -0.49605015
-2.3474655 3.8100176 -0.24996391
-0 0 0
-2.3242323 3.7723093 0.24748999
-1.4731753 2.384558 -0.92420983
-1.6792213 2.7180748 -0.88147765
-1.9665471 3.1831551 -0.82888216
-2.3299105 3.7713141 -0.73904067
-3.3830595 5.4759955 -0.71744657
-2.3411417 3.7894936 -0.2488028
-2.3164356 3.7495029 0
-2.3383501 3.7849746 0.24850611
-1.4698085 2.3663001 -0.9185074
-1.6871073 2.7161379 -0.88216913
-1.9661871 3.1654389 -0.82550377
-2.3417239 3.7700298 -0.73989582
-3.4099329 5.4897795 -0.72033006
-3.4018288 5.4767323 -0.36011878
-2.3296108 3.7505283 0
-2.3803899 3.8322794 0.25198889
-1.4687454 2.3582265 -0.91606176
-1.6917131 2.7162247 -0.88286066
-1.9726996 3.1673784 -0.82663065
-2.3462775 3.7671974 -0.73989582
-3.4138262 5.4812603 -0.71975291
-3.8864748 6.2401476 -0.4106251
-0 0 0
-2.3685341 3.8029327 0.25024721
-1.467665 2.3501589 -0.91361606
-1.6936663 2.7120528 -0.88216913
-1.97787 3.1671457 -0.82719296
-2.3453887 3.7556503 -0.73818392
-3.4204469 5.4771314 -0.71975291
-3.884376 6.220017 -0.40960896
-0 0 0
-2.3910244 3.8287261 0.25213444
-1.4823078 2.3672349 -0.92095
-1.6889559 2.6972506 -0.87801749
-1.9857422 3.1712162 -0.82888216
-2.3526523 3.757169 -0.73904067
-3.4325531 5.4817629 -0.72090608
-3.9056766 6.2373376 -0.41106009
-0 0 0
-2.3887496 3.8148162 0.25140834
-1.4641441 2.3319588 -0.90791368
-1.6975498 2.7037067 -0.88078618
-1.9774088 3.149441 -0.82381457
-2.3626506 3.76302 -0.74075258
-3.4446757 5.4863734 -0.72205925
-3.9063032 6.2216129 -0.41033453
-0 0 0
-2.3905966 3.8075302 0.25111833
-1.4906602 2.3678331 -0.92258149
-1.6968045 2.6952822 -0.87870902
-1.9852753 3.1535025 -0.82550377
-2.3603535 3.749294 -0.73861152
-3.4513023 5.4822073 -0.72205925
-3.9124348 6.2146912 -0.41018954
-0 0 0
-2.400733 3.8134346 0.25169891
-1.4697752 2.3284137 -0.90791368
-1.7147918 2.7165682 -0.88632345
-1.9890841 3.1511014 -0.82550377
-2.3662562 3.7486162 -0.73904067
-3.4579239 5.4780331 -0.72205925
-3.9116218 6.1967797 -0.40931898
-0 0 0
-2.4150496 3.8259141 0.25271502
-1.4739082 2.3287225 -0.90872782
-1.7006321 2.6869383 -0.87732601
-1.9888122 3.1422524 -0.82381457
-2.3666642 3.7392449 -0.73775637
-3.4617767 5.4694839 -0.72148317
-3.9343889 6.2161942 -0.41091508
-0 0 0
-2.4210589 3.8251867 0.25286001
-1.4846644 2.3394568 -0.91361606
-1.6998434 2.6785247 -0.87524885
-1.9966934 3.1462853 -0.82550377
-2.3753083 3.742887 -0.73904067
-3.4766958 5.4783959 -0.72321242
-3.9572139 6.2355714 -0.41251177
-3.3181396 5.2285514 0
-2.4382086 3.8420022 0.25416613
-1.4835082 2.3314035 -0.91117036
-1.7138532 2.6934016 -0.88078618
-2.0059497 3.1524451 -0.82775533
-2.3825827 3.7443416 -0.73989582
-3.4777586 5.4654622 -0.72205925
-3.9982195 6.283391 -0.41599455
-0 0 0
-2.4358757 3.828094 0.25344056
-1.5009488 2.3525312 -0.9201358
-1.6982125 2.661715 -0.87109458
-2.0070267 3.1457391 -0.82663065
-2.3760593 3.7241471 -0.73647207
-3.4871449 5.4656215 -0.72263634
-3.3741236 5.2884755 -0.35039541
-0 0 0
-2.4600635 3.8558116 0.25547224
-1.4904737 2.3298995 -0.91198772
-1.7054846 2.6660032 -0.87317169
-2.0080853 3.1390266 -0.82550377
-2.383327 3.7256024 -0.73732883
-3.5007143 5.4722958 -0.72407758
-0 0 -0
-0 0 0
-2.4479175 3.8265698 0.25373057
-1.4892833 2.3218536 -0.90954202
-1.7087047 2.6639407 -0.87317169
-2.0118766 3.1365981 -0.82550377
-2.3878269 3.7227199 -0.73732883
-3.505929 5.4658866 -0.72378951
-0 0 -0
-0 0 0
-2.4665711 3.8454852 0.25518224
-1.5041189 2.3387599 -0.9168759
-1.7200671 2.6745384 -0.87732601
-2.0115407 3.1277516 -0.82381457
-2.3950977 3.7241459 -0.73818392
-3.5293143 5.4877434 -0.72724795
-0 0 -0
-0 0 0
-2.4796464 3.8556108 0.25605279
-1.5149831 2.3494079 -0.92176729
-1.721934 2.6703436 -0.87663186
-2.0249586 3.1402688 -0.82775533
-2.3912516 3.7083089 -0.73561698
-3.540149 5.4899979 -0.72811311
-0 0 -0
-4.0441923 6.2716594 0
-2.5068343 3.8875525 0.25837502
-1.5043986 2.3268158 -0.91361606
-1.7278862 2.6724787 -0.87801749
-2.0080619 3.1058195 -0.8193137
-2.3929403 3.7011013 -0.73476022
-3.5706522 5.5226393 -0.73301381
-3.4201179 5.2898111 -0.35184652
-4.0362229 6.2427258 0
-2.4974189 3.8626957 0.25692335
-1.4990892 2.3155348 -0.90954202
-1.7145017 2.6482668 -0.87040305
-2.0140765 3.1109984 -0.8210007
-2.4007561 3.7082744 -0.73647207
-3.6358309 5.6160049 -0.74569756
-3.4557881 5.3379059 -0.35518432
-4.0216088 6.2118878 0
-2.4983413 3.8590069 0.25677836
-1.5086133 2.3240855 -0.91361606
-1.7299926 2.6651299 -0.87663186
-2.0109181 3.0979083 -0.81818682
-2.4066315 3.7075219 -0.73689961
-3.7918873 5.8415694 -0.77625597
-3.4820452 5.364244 -0.35721654
-4.0602827 6.255044 0
-2.4987566 3.8494446 0.2563428
-1.5087266 2.3181217 -0.91198772
-1.7222637 2.6462164 -0.87109458
-2.0132754 3.0933485 -0.81762451
-2.4181151 3.7153752 -0.73904067
-3.835623 5.8933415 -0.78375101
-3.4941938 5.3687439 -0.35779712
-4.0536442 6.2283258 0
-2.5133293 3.8616693 0.25735891
-1.5223323 2.3328562 -0.9185074
-1.7460266 2.6756504 -0.88147765
-2.0211787 3.0972993 -0.8193137
-2.4113796 3.6952519 -0.73561698
-3.8427413 5.8887029 -0.78375101
-3.4822192 5.3362308 -0.35591042
-4.0554776 6.214705 0
-2.5279353 3.8738644 0.25837502
-1.5359757 2.3475609 -0.92502713
-1.7368976 2.6546466 -0.87524885
-2.0179598 3.0842178 -0.81649762
-2.4186511 3.6966279 -0.73647207
-3.8512685 5.8862176 -0.78403908
-3.4744351 5.3102713 -0.35445875
-4.070107 6.2206869 0
-2.5340354 3.8729794 0.25852004
-1.5157601 2.310565 -0.91117036
-1.7442336 2.6588411 -0.87732601
-2.0286577 3.092406 -0.8193137
-2.423116 3.6937025 -0.73647207
-3.8597956 5.8837204 -0.78432709
-3.4694467 5.2886877 -0.35329765
-4.1190171 6.2788682 0
-2.5486917 3.8851254 0.25953615
-1.5226268 2.3149288 -0.91361606
-1.7364159 2.6399634 -0.87178874
-2.0282025 3.0835819 -0.81762451
-2.4219346 3.682193 -0.73476022
-3.8725874 5.8876963 -0.78548026
-3.4729812 5.2801542 -0.35300764
-4.0779791 6.1999636 0
-2.5448141 3.8690133 0.25866503
-1.5172611 2.3007112 -0.90872782
-1.7492688 2.6525178 -0.87663186
-2.0333245 3.0832481 -0.81818682
-2.427794 3.6814051 -0.73518777
-3.8768535 5.8786983 -0.78490418
-3.4836464 5.2824554 -0.35344264
-0 0 0
-2.5637953 3.8876319 0.2601167
-1.5145872 2.2906294 -0.90546799
-1.7580073 2.6587729 -0.87940049
-2.0370486 3.0807889 -0.81818682
-2.4251626 3.6677642 -0.73304832
-3.8882296 5.880476 -0.78576827
-3.4943273 5.2847466 -0.3538782
-0 0 0
-2.5756555 3.8953664 0.26084226
-1.543298 2.3279324 -0.92095
-1.7626089 2.6587439 -0.88009465
-2.0435803 3.0825648 -0.8193137
-2.4310095 3.6669688 -0.73347586
-3.8924766 5.8714662 -0.78519225
-3.5107622 5.2956829 -0.35489431
-0 0 0
-2.5875378 3.9030781 0.26156783
-1.5351644 2.3095989 -0.91443026
-1.7505425 2.6336274 -0.87248021
-2.0416772 3.071629 -0.81706214
-2.4368637 3.6661727 -0.73390508
-3.8952715 5.8602943 -0.78432709
-3.5718148 5.3736653 -0.36040935
-0 0 0
-2.5821819 3.8847985 0.26055172
-1.5228806 2.2851243 -0.90546799
-1.7551134 2.6335959 -0.87317169
-2.0467949 3.0712721 -0.81762451
-2.442714 3.6653597 -0.73433262
-3.9080873 5.8641925 -0.78548026
-3.5927126 5.390964 -0.36186045
-0 0 0
-2.604166 3.9076231 0.26229337
-1.5421183 2.3079433 -0.91524756
-1.7569019 2.6293895 -0.87248021
-2.0476785 3.0645673 -0.81649762
-2.4414363 3.6538677 -0.73262078
-3.9122989 5.8551688 -0.78490418
-3.5977817 5.3844609 -0.36171547
-0 0 0
-2.610328 3.9066319 0.26243839
-1.5339009 2.2896509 -0.90872782
-1.7572824 2.6230922 -0.87109458
-2.0542111 3.0663171 -0.81762451
-2.4458497 3.6509151 -0.73262078
-3.917927 5.8482823 -0.7846151
-3.6259799 5.4124932 -0.36389267
-0 0 0
-2.651201 3.9574425 0.26606673
-1.5669822 2.3329303 -0.92665553
-1.7674488 2.6313858 -0.87455738
-2.05933 3.0659399 -0.81818682
-2.4502592 3.6479571 -0.73262078
-3.9192221 5.8349557 -0.78346193
-3.6716316 5.466342 -0.36781102
-0 0 0
-2.6472905 3.9412982 0.26519617
-1.5394295 2.2859375 -0.90872782
-1.7678216 2.6250825 -0.87317169
-2.0658743 3.0676684 -0.8193137
-2.4518001 3.6407394 -0.73176569
-3.9306052 5.8366542 -0.78432709
-3.6840398 5.4705229 -0.3683916
-0 0 0
-2.6622124 3.9531856 0.26621228
-1.5518681 2.2984085 -0.91443026
-1.7794181 2.6354237 -0.87732601
-2.0596254 3.0504272 -0.81537294
-2.4561975 3.6377742 -0.73176569
-3.9275277 5.8169012 -0.78230983
-3.6906471 5.4660673 -0.3683916
-0 0 0
-2.6568074 3.9348893 0.26519617
-1.5380229 2.2719789 -0.90465379
-1.7699398 2.6145682 -0.87109458
-2.0633097 3.0479362 -0.81537294
-2.4605913 3.6348038 -0.73176569
-3.938899 5.8185706 -0.78317392
-3.6870513 5.4465394 -0.36737546
-0 0 0
-2.6717579 3.9467406 0.26621228
-1.5366017 2.2639816 -0.90220809
-1.7914172 2.6394191 -0.88009465
-2.0698421 3.0496416 -0.81649762
-2.4620955 3.6275756 -0.73090893
-3.9473779 5.8159451 -0.78346193
-3.6921718 5.4399323 -0.36723047
-0 0 0
-2.6823561 3.9521012 0.2667923
-1.562973 2.2968588 -0.91606176
-1.7875441 2.6268761 -0.87663186
-2.0706692 3.0429411 -0.81537294
-2.4722536 3.6330874 -0.73262078
-3.9485874 5.8026261 -0.78230983
-3.6914344 5.4247279 -0.36650491
-0 0 0
-2.6754405 3.9316795 0.26563174
-1.5462486 2.2663887 -0.90465379
-1.7907169 2.6247141 -0.87663186
-2.0772059 3.0446308 -0.81649762
-2.4751964 3.6279788 -0.73219323
-3.9570522 5.7999854 -0.78259784
-3.6877339 5.4052362 -0.3654888
-0 0 0
-2.6801891 3.9284439 0.26563174
-1.5741007 2.301235 -0.9193216
-1.7754751 2.5956316 -0.86763442
-2.0780168 3.0379283 -0.81537294
-2.4810262 3.6271021 -0.73262078
-3.9698987 5.8037391 -0.78375101
-3.6810606 5.3814759 -0.36418268
-0 0 0
-2.6834626 3.9230516 0.26548618
-1.5643176 2.2839704 -0.91280186
-1.7841299 2.6049056 -0.87109458
-2.0769775 3.0324757 -0.81424612
-2.4759655 3.615015 -0.73048133
-3.9675579 5.7928038 -0.78259784
-3.6696305 5.3578172 -0.36273158
-0 0 0
-2.7240059 3.9771647 0.26925951
-1.5558832 2.2657785 -0.90628219
-1.7858573 2.600682 -0.87040305
-2.0792031 3.0278711 -0.81368375
-2.4817834 3.6141348 -0.73090893
-3.9730918 5.7858753 -0.78230983
-3.6702182 5.344811 -0.36215103
-0 0 0
-2.7052805 3.939606 0.26693785
-1.5670266 2.2761078 -0.91117036
-1.7875772 2.5964577 -0.86971158
-2.0828602 3.0253568 -0.81368375
-2.4890628 3.6153662 -0.73176569
-3.9815452 5.7831988 -0.78259784
-3.6501477 5.3018436 -0.35953823
-0 0 0
-0 0 0
-1.5501219 2.2457392 -0.89976245
-1.7964138 2.6025546 -0.87248021
-2.0908458 3.0291131 -0.81537294
-2.4963431 3.6165774 -0.73262078
-3.9870625 5.776257 -0.78230983
-3.7141201 5.3808322 -0.36519879
-4.3116283 6.2464724 0
-0 0 0
-1.5640862 2.2601237 -0.90628219
-1.8052677 2.608634 -0.87524885
-2.0930598 3.024497 -0.81481057
-2.494868 3.6051149 -0.73090893
-3.99698 5.7756848 -0.78288591
-0 0 -0
-4.3191729 6.2412581 0
-5.7033443 8.2414026 0.55981398
-1.5710442 2.2643263 -0.90872782
-1.7984061 2.59202 -0.87040305
-2.090919 3.0136154 -0.81255907
-2.4977603 3.5999906 -0.73048133
-4.0024829 5.7687283 -0.78259784
-0 0 -0
-4.3385797 6.2531404 0
-5.7073736 8.2259655 0.55923343
-1.5610778 2.2441673 -0.90139395
-1.7986742 2.5857301 -0.86902004
-2.1018124 3.0215139 -0.81537294
-2.5050373 3.6011806 -0.73133647
-4.0109258 5.7660089 -0.78288591
-0 0 -0
-4.3387027 6.2372131 0
-5.6861496 8.1742697 0.5561856
-1.5736812 2.2564647 -0.90709633
-1.8017973 2.583555 -0.86902004
-2.1010997 3.012718 -0.81368375
-2.5035131 3.5897286 -0.72962457
-4.0164118 5.7590389 -0.78259784
-0 0 -0
-4.3417687 6.2255602 0
-5.6662946 8.1247673 0.55328286
-1.6004822 2.2889943 -0.92095
-1.8006035 2.5752058 -0.86694294
-2.1032839 3.0080965 -0.81312138
-2.5078487 3.5867012 -0.72962457
-4.0189199 5.7478204 -0.78173274
-0 0 -0
-4.3552527 6.2288408 0
-5.6582456 8.0923681 0.55154169
-1.5550123 2.2182515 -0.89324272
-1.8022752 2.570976 -0.86625141
-2.111294 3.0117967 -0.81481057
-2.5121806 3.5836682 -0.72962457
-4.0303173 5.7493157 -0.78259784
-0 0 -0
-4.3687515 6.2320981 0
-5.6471348 8.0557337 0.54950947
-1.5989046 2.2750111 -0.9168759
-1.8125918 2.5790572 -0.86971158
-2.1090877 3.0009282 -0.81255907
-2.5150344 3.578532 -0.72919703
-4.0298266 5.7338634 -0.78115666
-0 0 -0
-4.3852601 6.2395945 0
-5.6493955 8.0382767 0.5487839
-1.588841 2.2548954 -0.90954202
-1.8301543 2.5973692 -0.87663186
-2.1127121 2.9983776 -0.81255907
-2.5149193 3.5691929 -0.72791272
-4.0412169 5.7353268 -0.78202075
-0 0 -0
-4.4047885 6.2513103 0
-5.6411433 8.0059547 0.54704225
-1.602973 2.2691238 -0.91606176
-1.8159212 2.5705674 -0.86832589
-2.1192627 2.999969 -0.81368375
-2.523675 3.5724435 -0.72919703
-4.0466533 5.7283292 -0.78173274
-0 0 -0
-3.7892056 5.3638935 0
-5.632822 7.9736652 0.5453006
-1.5857173 2.2389514 -0.90465379
-1.82628 2.5786138 -0.87178874
-2.1170118 2.9891121 -0.81143218
-2.5279896 3.5693917 -0.72919703
-4.0565643 5.7276607 -0.78230983
-0 0 -0
-3.8062146 5.3741794 0
-5.6379514 7.9604979 0.54486555
-1.5927101 2.2430737 -0.90709633
-1.8192259 2.5620842 -0.86694294
-2.1265063 2.994839 -0.81368375
-2.5308158 3.5642433 -0.72876948
-4.0649781 5.7248621 -0.78259784
-3.8168991 5.3754826 -0.36824659
-3.8127053 5.3695765 0
-5.6475658 7.9536796 0.54486555
-1.5925553 2.2371244 -0.90546799
-1.8252274 2.5639679 -0.86832589
-2.122757 2.9819195 -0.81086987
-2.5380955 3.5653613 -0.72962457
-4.0763884 5.7262611 -0.78346193
-3.8309247 5.3814487 -0.36897215
-3.8176827 5.3628473 0
-5.6556611 7.9447269 0.54471999
-1.6067437 2.2512927 -0.91198772
-1.8356153 2.5719767 -0.87178874
-2.1322629 2.9876251 -0.81312138
-2.5304716 3.5455761 -0.72620088
-4.0757933 5.7108068 -0.78202075
-3.8510084 5.3958492 -0.37027827
-3.8347385 5.3730531 0
-5.6894083 7.9717278 0.54704225
-1.6080204 2.2473338 -0.91117036
-1.8212034 2.5452735 -0.86348277
-2.1329169 2.9809177 -0.8119967
-2.5407288 3.5508666 -0.72791272
-4.0841999 5.7079878 -0.78230983
-3.8575253 5.3911924 -0.37027827
-3.8472857 5.3768816 0
-5.7322989 8.0113344 0.55023503
-1.5992149 2.2293305 -0.90465379
-1.8155006 2.5308361 -0.85932851
-2.1305931 2.9700797 -0.80974519
-2.5465181 3.549886 -0.72834194
-4.0880756 5.6988411 -0.78173274
-3.868582 5.3928633 -0.37071383
-3.8370976 5.3489738 0
-5.76015 8.0297384 0.55197674
-1.6091216 2.2374275 -0.90872782
-1.8244165 2.5367875 -0.86209714
-2.1371446 2.9716249 -0.81086987
-2.5478051 3.5426342 -0.72748518
-4.0919414 5.6897016 -0.78115666
-3.8811641 5.3966231 -0.37129438
-3.8496361 5.3527846 0
-5.7683325 8.0206652 0.55183172
-1.6017039 2.2214458 -0.90302229
-1.8333493 2.542721 -0.86486578
-2.1377642 2.9649222 -0.80974519
-2.5535839 3.5416334 -0.72791272
-4.0972962 5.6826491 -0.78086758
-3.9135153 5.4277587 -0.37376162
-3.8637099 5.3586822 0
-5.7643437 7.9947219 0.55052561
-1.6145238 2.2335322 -0.90872782
-1.8320155 2.5344102 -0.8627913
-2.1487865 2.9726312 -0.81255907
-2.5563588 3.5364668 -0.72748518
-4.1041598 5.6776943 -0.78086758
-3.9535575 5.4693513 -0.37695441
-3.8625603 5.3434658 0
-5.777041 7.9919586 0.55081558
-1.6086286 2.2225473 -0.90465379
-1.8364854 2.5373638 -0.86417431
-2.1431346 2.9610429 -0.80974519
-2.5554876 3.5307667 -0.72663003
-4.103044 5.6689339 -0.78000349
-3.9858034 5.5069499 -0.37971163
-3.865788 5.3411312 0
-5.7696805 7.9716272 0.54965448
-1.6011505 2.2065969 -0.89894825
-1.8351284 2.5290494 -0.86209714
-2.1452143 2.9563887 -0.80918068
-2.5582399 3.5255926 -0.72620088
-4.1053324 5.65769 -0.77913839
-3.9970343 5.508441 -0.38014719
-3.8722389 5.3364563 0
-5.7594709 7.9373116 0.54776782
-1.6125368 2.2166491 -0.90383649
-1.8411374 2.5308914 -0.86348277
-2.1502841 2.9558551 -0.80974519
-2.557972 3.5162771 -0.72491819
-4.0878205 5.6192598 -0.7745257
-4.012856 5.516211 -0.38101774
-3.8740897 5.325458 0
-5.75072 7.9051394 0.54602671
-1.6178888 2.2127457 -0.90383649
-1.8428047 2.5203574 -0.86140561
-2.1604173 2.9547484 -0.81086987
-2.5694895 3.5142257 -0.72577327
-4.0143785 5.4903641 -0.75809437
-0 0 -0
-3.8700497 5.2929692 0
-5.7928076 7.9226766 0.54820335
-1.6044921 2.1888673 -0.89487422
-1.8577142 2.5343158 -0.86694294
-2.1594782 2.9459858 -0.80918068
-2.5722177 3.5090501 -0.72534573
-4.0332427 5.5021977 -0.76040071
-4.0343661 5.5037303 -0.3811633
-3.8841398 5.29879 0
-5.8115907 7.9282417 0.54907393
-1.5998191 2.1769707 -0.89080018
-1.8563167 2.5260026 -0.86486578
-2.1645451 2.9454277 -0.80974519
-2.5703752 3.4976652 -0.72363389
-4.1026783 5.5827632 -0.77221936
-4.0302405 5.4841924 -0.38014719
-3.8859146 5.2877994 0
-5.8165545 7.914938 0.54863894
-1.6200351 2.1989069 -0.90057659
-1.8578808 2.52174 -0.86417431
-2.1620741 2.9346275 -0.80749363
-2.5761206 3.4966216 -0.72406143
-4.1355004 5.6131997 -0.77712005
-4.0399437 5.4834986 -0.3804372
-3.8876686 5.2768126 0
-5.8214884 7.9016261 0.54820335
-1.6094763 2.1790569 -0.89324272
-1.8683777 2.5295813 -0.86763442
-2.1656184 2.932013 -0.80749363
-2.5803437 3.4935062 -0.72406143
-4.1515031 5.6206861 -0.77885032
-4.0465665 5.4786134 -0.3804372
-3.8986819 5.2783933 0
-5.8341222 7.8987703 0.54849392
-1.6253442 2.1949854 -0.90057659
-1.8535174 2.5031276 -0.85932851
-2.1691597 2.929394 -0.80749363
-2.584563 3.490386 -0.72406143
-4.1613669 5.6198187 -0.7794264
-4.0485487 5.4674611 -0.3800022
-3.905057 5.2736788 0
-5.8467522 7.8958879 0.5487839
-1.645674 2.2168345 -0.91035622
-1.8655158 2.5129762 -0.86348277
-2.1726975 2.9267709 -0.80749363
-2.5918419 3.4913869 -0.72491819
-4.1681542 5.6147866 -0.7794264
-4.0628948 5.4729953 -0.38072774
-3.9145257 5.2731318 0
-5.8438978 7.8721261 0.5476228
-1.6099879 2.1632965 -0.88916868
-1.8805333 2.5268209 -0.86902004
-2.1762323 2.9241436 -0.80749363
-2.5914593 3.4820726 -0.72363389
-4.1733928 5.6076732 -0.77913839
-4.0632997 5.459744 -0.38014719
-3.9177899 5.2642264 0
-5.8378944 7.8442183 0.54617167
-1.6421611 2.200969 -0.90546799
-1.873082 2.5104694 -0.86417431
-2.179764 2.9215119 -0.80749363
-2.603339 3.4892242 -0.72577327
-4.1801658 5.6026263 -0.77913839
-4.0698938 5.4548302 -0.38014719
-3.9365983 5.2761755 0
-5.8116279 7.7892556 0.54283333
-1.635934 2.1871042 -0.90057659
-1.8731116 2.5041904 -0.8627913
-2.1878541 2.924974 -0.80918068
-2.6029446 3.4799149 -0.72449064
-4.1884799 5.5996404 -0.7794264
-4.0718112 5.4436641 -0.37971163
-3.9273794 5.2505713 0
-5.7214322 7.6490669 0.53354496
-1.6400626 2.187109 -0.90139395
-1.8851638 2.5139642 -0.86694294
-2.1913867 2.9223282 -0.80918068
-2.605603 3.4747076 -0.72406143
-3.2316699 4.3096004 -0.60040593
-4.0783858 5.4387403 -0.37971163
-3.9540167 5.2728872 0
-5.6839061 7.5797853 0.52919108
-1.6263655 2.1633921 -0.89242852
-1.886694 2.5096812 -0.86625141
-2.19034 2.9135911 -0.80749363
-2.6036294 3.4633491 -0.72234958
-3.2430918 4.313962 -0.6015591
-0 0 -0
-3.9697711 5.2805915 0
-5.6384158 7.5002232 0.52411163
-1.6483155 2.187083 -0.90302229
-1.8821768 2.4973841 -0.8627913
-2.1969144 2.9149969 -0.80861831
-2.6109054 3.4643047 -0.72320634
-3.2498572 4.3121037 -0.60184711
-4.1102843 5.4537697 -0.38145331
-3.9792786 5.2799435 0
-4.2634678 5.657023 0.39566946
-1.6405258 2.1712837 -0.89731675
-1.885193 2.4951079 -0.8627913
-2.2019653 2.9143655 -0.80918068
-2.6104453 3.4550009 -0.72192198
-3.2597444 4.3143668 -0.60271227
-4.1309676 5.4674563 -0.38275942
-3.9809532 5.268908 0
-4.2515092 5.6269965 0.39392832
-1.6565835 2.1870375 -0.90465379
-1.8912331 2.496824 -0.86417431
-2.2070239 2.9137342 -0.80974519
-2.6161666 3.4538884 -0.72234958
-3.2680814 4.3145528 -0.60328943
-4.1407118 5.4666076 -0.38304999
-3.998312 5.2786098 0
-4.2786999 5.6487803 0.39581501
-1.6562326 2.1810937 -0.90302229
-1.8972859 2.4985371 -0.86555994
-2.2043962 2.9029708 -0.80749363
-2.6172361 3.4466398 -0.72149444
-3.2701609 4.3064771 -0.60271227
-4.1567397 5.4740129 -0.38392055
-3.9968193 5.2634134 0
-4.2729506 5.6270509 0.39465389
-1.6633596 2.1849926 -0.90546799
-1.8957433 2.4902523 -0.86348277
-2.2048213 2.8962579 -0.8063668
-2.6167326 3.4373453 -0.72021013
-3.2722318 4.2984104 -0.60213625
-4.1602058 5.4648552 -0.38363054
-4.0079069 5.2647948 0
-8.5999765 11.296947 0.79304099
-1.6525047 2.1652999 -0.89813405
-1.8957039 2.4839673 -0.86209714
-2.2083192 2.8935916 -0.8063668
-2.6302314 3.4464288 -0.72277874
-3.2789907 4.2965074 -0.60242426
-4.1699562 5.4639516 -0.38392055
-4.0142655 5.2599483 0
-8.6151962 11.288611 0.79318595
-1.6553117 2.1662631 -0.89894825
-1.9002537 2.4868121 -0.86348277
-2.210067 2.892257 -0.8063668
-2.632313 3.4448392 -0.72277874
-3.2815859 4.2945256 -0.60242426
-4.1827254 5.4738231 -0.38479164
-4.0253415 5.2678595 0
-8.6330595 11.297859 0.79420209
-1.6639402 2.1721098 -0.90220809
-1.8986787 2.4785376 -0.86140561
-2.2135601 2.8895843 -0.8063668
-2.634908 3.4396124 -0.72234958
-3.2852013 4.288506 -0.60213625
-4.2130346 5.4997005 -0.38696831
-4.0364532 5.2691917 0
-8.6372261 11.275047 0.7933315
-1.642477 2.1387336 -0.88916868
-1.8955599 2.4682827 -0.85863698
-2.2201483 2.8909419 -0.80749363
-2.6375 3.434392 -0.72192198
-3.2840791 4.2763281 -0.60098308
-4.2671537 5.5564275 -0.39132223
-4.0412335 5.2622485 0
-8.6381826 11.248116 0.79217041
-1.6767219 2.1778727 -0.90628219
-1.90007 2.4679766 -0.85932851
-2.2236397 2.888257 -0.80749363
-2.6432126 3.4332347 -0.72234958
-3.298708 4.2846494 -0.60271227
-4.2817888 5.5615602 -0.39204779
-4.0618763 5.275919 0
-7.1031518 9.2261925 0.65037656
-1.6582131 2.1484563 -0.89487422
-1.9030507 2.4656789 -0.85932851
-2.2193611 2.875505 -0.80467761
-2.645792 3.4280083 -0.72192198
-3.2959826 4.2704248 -0.60127109
-4.2408795 5.4946761 -0.38769388
-4.0682483 5.2710071 0
-7.0968289 9.1949739 0.64877987
-1.6789579 2.1699085 -0.90465379
-1.909102 2.4673498 -0.86071414
-2.2243934 2.8748367 -0.80524212
-2.6530769 3.4288733 -0.72277874
-3.3011401 4.266439 -0.60127109
-4.2125359 5.4443393 -0.3845011
-4.0793872 5.2722564 0
-7.1063452 9.1843386 0.64863485
-1.6830921 2.1698291 -0.90546799
-1.9090037 2.4610727 -0.85932851
-2.2278655 2.8721468 -0.80524212
-2.6524966 3.4195778 -0.72149444
-3.3047092 4.2604055 -0.60098308
-4.2254815 5.4474583 -0.38508165
-4.0889482 5.27144 0
-7.0887737 9.138792 0.64602262
-1.678128 2.1580403 -0.90139395
-1.9289179 2.4805512 -0.86694294
-2.2391315 2.8794799 -0.808056
-2.6534717 3.4123135 -0.72063768
-3.3082683 4.2543693 -0.60069507
-4.289484 5.5161934 -0.39030668
-4.0953145 5.2664957 0
-7.0934305 9.122015 0.64544207
-1.6609813 2.1306722 -0.89080018
-1.9288318 2.4742653 -0.86555994
-2.2363605 2.8687565 -0.80580443
-2.6591759 3.4111352 -0.72106689
-3.3181727 4.2564826 -0.6015591
-5.3632641 6.8798838 -0.48725483
-4.0984721 5.2574344 0
-7.1204205 9.1339264 0.6468932
-1.6665955 2.1325548 -0.89242852
-1.9179124 2.4541366 -0.85932851
-2.2351298 2.8600442 -0.80411524
-2.6664538 3.4119611 -0.72192198
-3.3217223 4.2504339 -0.60127109
-5.4227686 6.9389067 -0.49189875
-4.1000185 5.2463326 0
-7.1282487 9.1212177 0.64660263
-1.6828882 2.1480479 -0.89976245
-1.9239737 2.455771 -0.86071414
-2.2448521 2.8653421 -0.8063668
-2.6610787 3.396616 -0.71935505
-3.3252621 4.2443833 -0.60098308
-5.4375591 6.9405313 -0.49247929
-4.1256089 5.2659507 0
-7.1312537 9.1023722 0.64587706
-1.691589 2.1537881 -0.90302229
-1.9393363 2.4692283 -0.86625141
-2.2420349 2.8546345 -0.80411524
-2.668349 3.3974321 -0.72021013
-3.3224015 4.2301936 -0.5995419
-5.4379177 6.9237404 -0.49175373
-4.1432223 5.2752905 0
-7.1294069 9.0774012 0.64471596
-1.6819583 2.1362071 -0.89650255
-1.9252453 2.445199 -0.85863698
-2.2470529 2.8539178 -0.80467761
-2.6788044 3.4022732 -0.72192198
-3.3307076 4.2302365 -0.60011792
-5.4430618 6.9130774 -0.49146318
-4.1801844 5.3091331 0
-7.1371579 9.0647011 0.64442593
-1.6967889 2.149694 -0.90302229
-1.9437449 2.4625671 -0.86555994
-2.2536511 2.8551934 -0.80580443
-2.6813245 3.3970208 -0.72149444
-3.3374176 4.2282372 -0.60040593
-5.4481945 6.90242 -0.49117318
-4.2091675 5.3326735 0
-7.1513224 9.0601454 0.64471596
-1.690186 2.1360166 -0.89813405
-1.9389309 2.4503741 -0.86209714
-2.2586746 2.8544588 -0.8063668
-2.6870186 3.3957896 -0.72192198
-3.3345008 4.2140622 -0.59896475
-5.4549198 6.8937964 -0.49102816
-4.2430592 5.3622766 0
-6.5399199 8.2649937 0.58869517
-1.7019789 2.1455872 -0.90302229
-1.9356538 2.4401677 -0.85932851
-2.2510672 2.837791 -0.80242604
-2.6895261 3.3905311 -0.72149444
-3.3428082 4.2140865 -0.5995419
-5.4632454 6.8871999 -0.49102816
-4.2608585 5.3714199 0
-6.5725064 8.2855816 0.59072685
-1.68611 2.1203151 -0.89324272
-1.926115 2.4221258 -0.85379386
-2.2513344 2.8310952 -0.80130136
-2.6840312 3.3752196 -0.71892583
-3.3478978 4.2100444 -0.5995419
-5.4650941 6.8724585 -0.49044761
-4.2624846 5.3601546 0
-6.5873666 8.2837372 0.59116244
-1.6979178 2.1298757 -0.89813405
-1.9571866 2.4551036 -0.86625141
-2.2626715 2.8383052 -0.80411524
-2.6929095 3.3779979 -0.72021013
-3.3497546 4.2019472 -0.59896475
-5.4766307 6.8699098 -0.49073762
-4.2592216 5.3427863 0
-6.5892739 8.2656145 0.59043688
-1.7051147 2.1336093 -0.90057659
-1.9523221 2.4429398 -0.8627913
-2.2708597 2.8415258 -0.80580443
-2.6905787 3.3667202 -0.71849829
-3.3596752 4.2039599 -0.59982991
-5.4881749 6.8673511 -0.49102816
-4.2461834 5.3132477 0
-6.5943885 8.2515554 0.59000129
-1.6906971 2.1103349 -0.89161438
-1.947425 2.4307837 -0.85932851
-2.2663496 2.8288667 -0.80299056
-2.7010651 3.3714802 -0.72021013
-3.355046 4.1877823 -0.59809959
-5.496469 6.8607149 -0.49102816
-4.2526007 5.3081131 0
-6.6124759 8.2537184 0.59072685
-1.705889 2.1266632 -0.89894825
-1.9583149 2.4413524 -0.86348277
-2.2696466 2.8294771 -0.80355293
-2.6966765 3.3618381 -0.71849829
-3.3608155 4.1897936 -0.59867674
-5.4941092 6.8492851 -0.49044761
-4.2704606 5.3238115 0
-6.609333 8.2395897 0.59000129
-1.7131054 2.1303806 -0.90139395
-1.9518275 2.4272501 -0.85932851
-2.2698762 2.8227687 -0.80242604
-2.7023437 3.3605757 -0.71892583
-3.3626308 4.1816945 -0.59809959
-5.4974947 6.8365645 -0.49001205
-4.3013487 5.3490639 0
-6.6209111 8.2336206 0.5901463
-1.6924092 2.0994437 -0.88916868
-1.946888 2.4151261 -0.85586834
-2.2780709 2.8259604 -0.80411524
-2.7096276 3.3613091 -0.71978259
-3.3660593 4.1756163 -0.59781158
-4.4621086 5.5352721 -0.39712781
-4.3012757 5.3357577 0
-6.6292257 8.2235937 0.59000129
-1.7213527 2.1300755 -0.90302229
-1.9624196 2.4283819 -0.86140561
-2.2782929 2.819257 -0.80299056
-2.7120752 3.3560379 -0.71935505
-3.3759811 4.1775832 -0.59867674
-4.4802213 5.5440178 -0.39814338
-4.3028173 5.3244901 0
-6.6293612 8.203455 0.58913076
-1.7254795 2.1299126 -0.90383649
-1.9606133 2.4201591 -0.85932851
-2.2752998 2.8086047 -0.80073905
-2.7177427 3.3547511 -0.71978259
-3.3745139 4.165462 -0.59752357
-0 0 -0
-4.2912259 5.2970409 0
-6.635994 8.1913967 0.58884019
-1.7077975 2.1028862 -0.89324272
-1.9746085 2.4314222 -0.86417431
-2.2802923 2.8078239 -0.80130136
-2.7169378 3.3454847 -0.71849829
-3.3828025 4.1653934 -0.59809959
-0 0 -0
-4.2959838 5.2898335 0
-6.6360617 8.1712742 0.5879696
-1.718138 2.1104028 -0.89731675
-1.9664561 2.4154139 -0.85932851
-2.2820807 2.803098 -0.80073905
-2.7258418 3.3481736 -0.71978259
-3.3845701 4.1572952 -0.59752357
-0 0 -0
-4.3089452 5.2927117 0
-6.6393681 8.1551895 0.58738905
-1.6972498 2.0796082 -0.88509464
-1.9677885 2.4110944 -0.85863698
-2.285466 2.8003385 -0.80073905
-2.7250144 3.3389091 -0.71849829
-3.3879571 4.1512003 -0.59723556
-4.4658918 5.4719734 -0.39451504
-4.3087549 5.2794366 0
-6.6295013 8.123004 0.5856474
-1.7122819 2.0928595 -0.89161438
-1.9722874 2.4106548 -0.85932851
-2.2936702 2.8034689 -0.80242604
-2.727423 3.3336291 -0.71807069
-3.3929706 4.1471038 -0.59723556
-3.6235166 4.4288912 -0.31962696
-3.5702872 4.3638315 0
-3.6119275 4.4147267 0.31860471
-1.7195132 2.096524 -0.89406002
-1.9704305 2.402456 -0.85725397
-2.2857811 2.7869487 -0.79848748
-2.7281961 3.3263652 -0.7172156
-3.3979793 4.1430011 -0.59723556
-3.6354566 4.4325461 -0.32020751
-3.5838079 4.3695736 0
-3.6205516 4.4143734 0.31889471
-1.728318 2.1020741 -0.89731675
-1.9781073 2.4058814 -0.85932851
-2.3052809 2.8038077 -0.80411524
-2.7289498 3.3190968 -0.71635884
-3.3980532 4.1328964 -0.5963704
-0 0 -0
-0 0 0
-0 0 0
-1.7072811 2.0713809 -0.88509464
-1.9762306 2.3976872 -0.85725397
-2.3038173 2.7951362 -0.80242604
-2.7362268 3.3197625 -0.7172156
-3.4046879 4.1307817 -0.59665841
-3.6246743 4.3976831 -0.31832084
-0 0 0
-0 0 0
-1.7050582 2.0635984 -0.88264894
-1.9871147 2.4049659 -0.86071414
-2.3104331 2.7962718 -0.80355293
-2.7435031 3.3204081 -0.71807069
-3.4096768 4.1266646 -0.59665841
-3.631639 4.3953013 -0.31846583
-0 0 0
-0 0 0
-1.7122818 2.0672491 -0.88509464
-1.9772166 2.3871064 -0.85517687
-2.3024628 2.7797785 -0.79961216
-2.7442415 3.3131404 -0.7172156
-3.4146605 4.1225419 -0.59665841
-3.6435773 4.3989148 -0.31904641
-0 0 0
-0 0 0
-1.7226714 2.0746844 -0.88916868
-1.9849089 2.3905079 -0.85725397
-2.3123126 2.7848136 -0.80186373
-2.7515192 3.3137684 -0.71807069
-3.4146807 4.1124411 -0.59579325
-3.6638341 4.4125066 -0.32035306
-3.6201196 4.3598595 0
-3.6305587 4.3724318 0.31744358
-1.7283425 2.0764043 -0.89080018
-1.9861864 2.386174 -0.85655981
-2.312428 2.7781157 -0.80073905
-2.7505929 3.3045204 -0.71678638
-3.4179943 4.1063261 -0.59550524
-5.5425363 6.6587181 -0.48391649
-3.6037359 4.3294735 0
-3.6192191 4.3480744 0.31599247
-1.7371842 2.0819054 -0.89406002
-1.9906801 2.3857043 -0.85725397
-2.3141568 2.7733705 -0.80017668
-2.7512977 3.2972562 -0.7159313
-3.4229534 4.1021934 -0.59550524
-5.5572367 6.659997 -0.48449704
-4.3542385 5.2182794 0
-7.5031748 8.9920797 0.65414989
-1.7270122 2.0646381 -0.88754028
-1.9903389 2.3794448 -0.85586834
-2.3158712 2.7686176 -0.79961216
-2.7519825 3.2899876 -0.71507454
-3.4279077 4.0980544 -0.59550524
-5.5669456 6.6552682 -0.48464203
-4.357204 5.2090254 0
-7.5307031 9.0029345 0.65560102
-1.7358578 2.0701256 -0.89080018
-1.9819335 2.3635871 -0.85102522
-2.3224833 2.7697151 -0.80073905
-2.75266 3.2827296 -0.71421939
-3.427876 4.0879693 -0.59464121
-5.5766578 6.6505337 -0.48478758
-4.3568063 5.1957803 0
-6.7218537 8.0162563 0.58434129
-1.7510748 2.0831552 -0.89731675
-2.0041533 2.3842282 -0.85932851
-2.3225551 2.7630131 -0.79961216
-2.7632318 3.2872612 -0.7159313
-3.4344757 4.0858021 -0.59492922
-5.5830126 6.6417956 -0.48464203
-4.3714523 5.2004709 0
-6.7432404 8.0220537 0.58535743
-1.7504084 2.0772612 -0.89568841
-1.9924847 2.3645403 -0.8530997
-2.325892 2.7602048 -0.79961216
-2.7638903 3.2799902 -0.71507454
-3.4377449 4.0796733 -0.59464121
-5.5860157 6.6290894 -0.48420703
-4.4028831 5.2250314 0
-6.757947 8.0198555 0.58579242
-1.7516631 2.0762033 -0.89568841
-1.9987677 2.3690906 -0.85517687
-2.3275592 2.7587991 -0.79961216
-2.7691853 3.2822475 -0.7159313
-3.4418755 4.0795708 -0.59492922
-4.6467056 5.507627 -0.40249729
-4.407722 5.2243652 0
-6.7694931 8.023715 0.58637297
-1.7302277 2.0457761 -0.88346314
-2.0048659 2.370501 -0.85655981
-2.3325365 2.7579303 -0.80017668
-2.7698305 3.2749753 -0.71507454
-3.4434586 4.0714555 -0.59435207
-4.6567163 5.50598 -0.40278783
-4.4476371 5.25877 0
-6.7674422 8.001647 0.58535743
-1.7279079 2.0380337 -0.88102061
-2.0061078 2.3661652 -0.85586834
-2.3309362 2.7492936 -0.79848748
-2.7754505 3.2735898 -0.71550375
-3.4483755 4.0672917 -0.59435207
-4.6734452 5.5122371 -0.40365839
-4.4691401 5.2712636 0
-6.7821422 7.9994044 0.58579242
-1.7495768 2.0585439 -0.89080018
-2.0219631 2.3790324 -0.86140561
-2.3309622 2.7425992 -0.79736066
-2.7760758 3.2663181 -0.714647
-3.4516141 4.0611529 -0.59406406
-4.6666398 5.490747 -0.40249729
-4.4401145 5.2242179 0
-6.7867594 7.9852695 0.58535743
-1.7433087 2.0411522 -0.88509464
-2.0293341 2.376045 -0.86209714
-2.3392382 2.7388959 -0.79792511
-2.7906299 3.2674079 -0.71635884
-3.464781 4.0567374 -0.59464121
-5.6248822 6.5858912 -0.48377147
-5.9028335 6.9113297 0
-6.8026586 7.9648895 0.58506685
-1.7618451 2.0578156 -0.89324272
-2.0175207 2.3564415 -0.85586834
-2.3375866 2.7302752 -0.79623592
-2.7878978 3.2562335 -0.714647
-3.4730413 4.0564737 -0.59521723
-5.6277647 6.5731664 -0.48333591
-5.9433341 6.9417481 0
-6.8139658 7.9586363 0.58521181
-1.7434055 2.0313048 -0.88264894
-2.018734 2.3521001 -0.85517687
-2.3458502 2.7332349 -0.79792511
-2.7851427 3.2450707 -0.71293509
-3.4695191 4.0424623 -0.59377605
-5.6306243 6.5604444 -0.48290035
-0 0 0
-6.8151174 7.9405398 0.58448631
-1.7652024 2.0516798 -0.89242852
-2.0133951 2.3401523 -0.8517167
-2.3425224 2.7226939 -0.79567361
-2.7924135 3.2455986 -0.71379185
-3.4727159 4.0363083 -0.59348804
-5.6385469 6.5536361 -0.48290035
-5.9125662 6.8721261 0
-6.8230138 7.9303317 0.58434129
-1.7612232 2.0420589 -0.88916868
-2.0194952 2.3415136 -0.8530997
-2.3507841 2.7256284 -0.79736066
-2.801358 3.2480483 -0.71507454
-3.4742088 4.0281882 -0.59291089
-4.6961446 5.4449682 -0.40162671
-0 0 0
-6.8258028 7.9142108 0.58376074
-1.7572234 2.0324507 -0.88590878
-2.0403736 2.3599494 -0.86071414
-2.3507555 2.7189453 -0.79623592
-2.8036032 3.2427211 -0.714647
-3.4756935 4.0200782 -0.59233487
-4.6976204 5.4333906 -0.40119117
-5.9529891 6.8853836 0
-6.8302608 7.9000583 0.58332515
-1.7693936 2.0415359 -0.89080018
-2.0399342 2.353687 -0.85932851
-2.354039 2.7161028 -0.79623592
-2.8007944 3.2315717 -0.71293509
-3.4873245 4.0236936 -0.59348804
-4.7143965 5.439496 -0.40206227
-5.9561896 6.8722835 0
-6.8449082 7.8976922 0.58376074
-1.771859 2.0393965 -0.89080018
-2.0230381 2.3285017 -0.85102522
-2.358984 2.7151728 -0.79679829
-2.8063791 3.2301209 -0.71336263
-3.4921837 4.0194769 -0.59348804
-4.7158513 5.4279094 -0.40162671
-0 0 0
-6.8493319 7.8835292 0.58332515
-1.7613358 2.0223434 -0.88428044
-2.0456161 2.3487504 -0.85932851
-2.357255 2.7065704 -0.79510909
-2.8085954 3.2247937 -0.71293509
-3.4970379 4.0152545 -0.59348804
-4.7224064 5.4222069 -0.40162671
-5.9796166 6.8657198 0
-6.8588529 7.8752475 0.58332515
-1.7881563 2.0481362 -0.89650255
-2.0435076 2.3406129 -0.85725397
-2.3621995 2.7056396 -0.79567361
-2.81249 3.2213976 -0.71293509
-3.500181 4.0090718 -0.5931989
-4.7101545 5.3949637 -0.40003005
-5.9605222 6.8271222 0
-6.8683634 7.8669543 0.58332515
-1.7792401 2.0329602 -0.89080018
-2.0331161 2.3230391 -0.8517167
-2.3587735 2.6951354 -0.79342204
-2.8096178 3.2102702 -0.71122324
-3.506731 4.0067916 -0.59348804
-4.7183862 5.3912292 -0.4001756
-6.0081902 6.8649602 0
-6.8744445 7.8547425 0.58303517
-1.771912 2.0196579 -0.88590878
-2.0359216 2.320581 -0.8517167
-2.3704052 2.7018313 -0.79623592
