# .PCD v0.7 - Point Cloud Data file format
VERSION 0.7
FIELDS x y z
SIZE 4 4 4
TYPE F F F
COUNT 1 1 1
WIDTH 1531
HEIGHT 1
VIEWPOINT 0 0 0 1 0 0 0
POINTS 1531
DATA ascii
4.824141 -5.9401765 -0.8529368
6.0759344 -7.481565 -0.5383411
6.9865208 -8.6028099 0
6.9423695 -8.5484447 0.61510921
1.7836741 -2.1909013 -0.93154377
2.080492 -2.5554852 -0.90916145
2.5082593 -3.0809152 -0.88010091
3.2444496 -3.9851837 -0.85672551
4.8362155 -5.9403625 -0.85380197
6.0866089 -7.4762311 -0.53848612
6.9952688 -8.5923452 0
6.9477701 -8.5340023 0.61467361
1.814453 -2.2232153 -0.94621468
2.0883386 -2.5588024 -0.91123861
2.5135853 -3.079849 -0.88066328
3.2476346 -3.9792659 -0.85629636
4.8433895 -5.9345145 -0.85380197
6.098927 -7.4729009 -0.5387767
6.999064 -8.5758219 0
6.9597244 -8.5276203 0.61481917
1.7889634 -2.1865845 -0.93154377
2.1073182 -2.5756979 -0.91816157
2.5173049 -3.0768094 -0.88066328
3.2556946 -3.9793165 -0.85715312
4.8521929 -5.9306579 -0.85408998
6.0997205 -7.4554648 -0.53805059
7.0110674 -8.5693712 0
6.9617915 -8.5091429 0.61409307
1.7963079 -2.1901562 -0.93398941
2.0992906 -2.5595694 -0.91331577
2.5290821 -3.0835943 -0.8834793
3.2523625 -3.9654572 -0.85501367
4.8626394 -5.9287944 -0.85466707
6.1087246 -7.4480891 -0.53805059
7.0131664 -8.5508337 0
6.9621844 -8.4886742 0.61322248
1.8115106 -2.2032576 -0.94050914
2.1055653 -2.5609028 -0.91469878
2.5231209 -3.0687563 -0.88010091
3.2685592 -3.975399 -0.85800821
4.8714404 -5.9249105 -0.85495514
6.1160707 -7.4386973 -0.53790557
7.0201845 -8.5383291 0
6.9724364 -8.4802551 0.61322248
1.7968779 -2.1800854 -0.93154377
2.1102583 -2.5602984 -0.91539294
2.5316768 -3.0715895 -0.8817901
3.270098 -3.9674885 -0.85715312
4.883533 -5.9250093 -0.85582024
6.1300144 -7.4373193 -0.5383411
7.0255289 -8.5238132 0
6.9810266 -8.469821 0.61307752
1.8052973 -2.1795473 -0.93317521
2.1084332 -2.5455253 -0.91193014
2.5423307 -3.0693724 -0.88291478
3.2780404 -3.9575994 -0.85672551
4.8994856 -5.9151807 -0.85610831
6.1496253 -7.4244828 -0.53848612
7.0361495 -8.4947891 0
6.9898705 -8.4389162 0.61206138
1.8063521 -2.1754646 -0.93236107
2.1147161 -2.5468397 -0.91331577
2.5395448 -3.0584788 -0.88066328
3.2844582 -3.9556088 -0.85715312
4.9132385 -5.9172158 -0.85726148
6.1585917 -7.4170465 -0.53848612
7.0397587 -8.4782724 0
6.9950805 -8.4244642 0.61162585
1.8200433 -2.1865723 -0.93806344
2.1033485 -2.5269308 -0.90708697
2.5464928 -3.0593176 -0.8817901
3.2941639 -3.9575582 -0.85843742
4.9203844 -5.9112749 -0.85726148
6.1658888 -7.4076047 -0.5383411
7.0433378 -8.4617586 0
7.0052547 -8.4160061 0.61162585
1.8147681 -2.1748848 -0.93398941
2.1256878 -2.5475025 -0.91539294
2.5436759 -3.0484347 -0.87953854
3.2874291 -3.9397759 -0.85544121
4.9308348 -5.9092932 -0.8578375
6.183157 -7.4101229 -0.53906667
7.0502257 -8.4492493 0
7.0087662 -8.3995628 0.61104584
1.8126358 -2.167001 -0.93154377
2.1303728 -2.5468547 -0.91608441
2.5473576 -3.0453589 -0.87953854
3.2987754 -3.9436769 -0.85715312
4.9379711 -5.9033308 -0.8578375
6.1887751 -7.3986635 -0.5387767
7.063766 -8.4447126 0
7.013907 -8.385107 0.61061025
1.8091884 -2.1602266 -0.92910117
2.1238585 -2.5359523 -0.9126243
2.5508268 -3.0457654 -0.88010091
3.2978578 -3.9377434 -0.85629636
4.9465203 -5.9062972 -0.85870266
6.1899042 -7.3909354 -0.53848612
7.0588441 -8.4284763 0
7.0239787 -8.3868456 0.61104584
1.8022588 -2.1466777 -0.92420983
2.1349852 -2.5429893 -0.91608441
2.5626724 -3.0524092 -0.88291478
3.2993152 -3.9298275 -0.85544121
4.9503303 -5.896358 -0.85812658
6.1971607 -7.3814626 -0.5383411
7.0673447 -8.417942 0
7.0240793 -8.3664083 0.61017472
1.8159935 -2.1577373 -0.92991537
2.1332085 -2.5346475 -0.91400725
2.561455 -3.043484 -0.88122773
3.313976 -3.9376185 -0.85800821
4.9641132 -5.8982878 -0.85927975
6.2060752 -7.3739691 -0.5383411
7.074163 -8.4054184 0
7.0258188 -8.3479767 0.60944915
1.8265668 -2.1649852 -0.93398941
2.1346533 -2.5301526 -0.91331577
2.5684044 -3.0442672 -0.88235247
3.315424 -3.9296908 -0.85715312
4.9762354 -5.8982105 -0.86014384
6.2149806 -7.3664651 -0.5383411
7.0809608 -8.39289 0
7.0325465 -8.3355055 0.60915858
1.8419501 -2.1778736 -0.94050914
2.1312287 -2.5199091 -0.91054714
2.5589545 -3.025641 -0.87784934
3.321826 -3.9276402 -0.85758066
4.9867024 -5.8961468 -0.86072093
6.2255535 -7.3609319 -0.53848612
7.0860534 -8.3783646 0
7.042613 -8.3270016 0.60915858
1.8381869 -2.1681056 -0.9372493
2.1375136 -2.5211556 -0.91193014
2.5708227 -3.0322354 -0.88066328
3.3265693 -3.9236236 -0.85758066
4.9954944 -5.8920879 -0.861009
6.2310858 -7.3494439 -0.53819615
7.0944905 -8.3678131 0
7.045948 -8.3105583 0.60857803
1.8360019 -2.1602311 -0.93480361
2.1454341 -2.5243077 -0.91400725
2.5744848 -3.0291266 -0.88066328
3.3313076 -3.9196012 -0.85758066
5.0059633 -5.8899932 -0.86158609
6.2365928 -7.3379459 -0.53790557
7.0995383 -8.3532839 0
7.0526223 -8.2980824 0.60828805
1.8305978 -2.1486061 -0.93072957
2.1533651 -2.5274444 -0.91608441
2.5781429 -3.0260139 -0.88066328
3.3377047 -3.9175253 -0.85800821
5.0147524 -5.8859072 -0.8618741
6.2488284 -7.3343644 -0.53819615
7.1028752 -8.3367748 0
7.0609603 -8.2875786 0.60814303
1.855662 -2.1727011 -0.94213748
2.1564176 -2.5248406 -0.91608441
2.5801487 -3.0209661 -0.88010091
3.3424358 -3.9134893 -0.85800821
5.0235386 -5.8818083 -0.86216217
6.2543073 -7.3228531 -0.53790557
7.1146321 -8.330164 0
7.0625329 -8.2691631 0.60741746
1.8357847 -2.144176 -0.93072957
2.1643631 -2.527952 -0.91816157
2.5887563 -3.0236385 -0.8817901
3.345494 -3.9074998 -0.85758066
5.0356903 -5.8816299 -0.86302727
6.2597747 -7.311347 -0.5376156
7.1179218 -8.313653 0
7.0742073 -8.2625952 0.60756248
1.8094023 -2.1082003 -0.91606176
2.1494415 -2.5043919 -0.91054714
2.5874417 -3.0147221 -0.88010091
3.3552303 -3.9093003 -0.85886496
5.0444765 -5.877502 -0.86331534
6.2736764 -7.3096876 -0.53805059
7.1228819 -8.2991276 0
7.075726 -8.2441845 0.60683692
1.8167859 -2.111635 -0.9185074
2.1590109 -2.5094001 -0.91331577
2.5944002 -3.0154495 -0.88122773
3.3616242 -3.9071875 -0.85929251
5.054945 -5.87532 -0.86389136
6.2774248 -7.2961979 -0.5376156
7.1312022 -8.288537 0
7.0805964 -8.2297182 0.60640138
1.8467766 -2.1412544 -0.93236107
2.1636782 -2.5086875 -0.91400725
2.5930617 -3.0065382 -0.87953854
3.3646679 -3.9011807 -0.85886496
5.0687976 -5.8770423 -0.86504453
6.2947202 -7.2984443 -0.5383411
7.1344132 -8.2720308 0
7.0905356 -8.2211561 0.60640138
1.8542075 -2.1446249 -0.93480361
2.1535814 -2.4908888 -0.90846997
2.5950325 -3.0014825 -0.87897623
3.3710566 -3.8990524 -0.85929251
5.0708251 -5.8650494 -0.86418045
6.3001323 -7.2868981 -0.53805059
7.1410022 -8.2594709 0
7.0970616 -8.2086477 0.60611081
1.8681303 -2.1554589 -0.94050914
2.1664515 -2.4996634 -0.9126243
2.5953257 -2.9945009 -0.87784934
3.3791311 -3.8988597 -0.86014926
5.088069 -5.8706412 -0.8659097
6.3038316 -7.2733951 -0.5376156
7.1475649 -8.2468987 0
7.0933671 -8.1843653 0.60495025
1.8610104 -2.142009 -0.9356209
2.1661763 -2.4932525 -0.91123861
2.605608 -2.9990351 -0.88010091
3.3821511 -3.8928304 -0.85972005
5.0951586 -5.8644891 -0.8659097
6.3126154 -7.2657728 -0.5376156
7.1489916 -8.2284355 0
7.1049538 -8.1777477 0.60509527
1.8541888 -2.1315548 -0.93154377
2.1676822 -2.4919434 -0.91123861
2.6090853 -2.9993756 -0.88066328
3.37608 -3.881104 -0.85758066
5.1020989 -5.8653164 -0.86648679
6.3187079 -7.2639165 -0.53776056
7.1505489 -8.220192 0
7.1081891 -8.1714954 0.60495025
1.8372765 -2.106966 -0.92176729
2.167397 -2.4855442 -0.9098556
2.6077027 -2.9904811 -0.87897623
3.3942642 -3.8925002 -0.86100441
5.1108809 -5.861095 -0.8667748
6.3223553 -7.2503991 -0.53732502
7.1621847 -8.2135048 0
7.1163449 -8.1609364 0.60480469
1.8625909 -2.1307931 -0.93317521
2.1819518 -2.49614 -0.91469878
2.6062958 -2.9815872 -0.87728703
3.3972771 -3.8864651 -0.86057681
5.1230674 -5.8607593 -0.86763996
6.3328199 -7.2447085 -0.53747004
7.1686749 -8.200922 0
7.1262007 -8.1523314 0.60480469
1.8488784 -2.1099555 -0.92502713
2.1717393 -2.4784069 -0.90916145
2.6098964 -2.9784358 -0.87728703
3.4019706 -3.8823574 -0.86057681
5.1335511 -5.8584514 -0.86821604
6.3312974 -7.2253294 -0.53659946
7.1700048 -8.1824694 0
7.1291962 -8.1358976 0.60422415
1.8791543 -2.139286 -0.9388808
2.1763928 -2.4776714 -0.9098556
2.6101365 -2.9714584 -0.8761602
3.3981903 -3.8686025 -0.85843742
5.1457486 -5.8580761 -0.86908114
6.3383098 -7.2157235 -0.53645444
7.176455 -8.1698933 0
7.1338816 -8.1214266 0.60378915
1.9013321 -2.1592665 -0.94865721
2.1843541 -2.4806828 -0.91193014
2.6271584 -2.9835582 -0.88066328
3.4113429 -3.8741248 -0.86057681
5.1528234 -5.8518538 -0.86908114
6.3453021 -7.2061038 -0.53630888
7.1828785 -8.1573057 0
7.1385365 -8.1069489 0.60335356
1.8712337 -2.1199148 -0.93236107
2.2072723 -2.500612 -0.92023605
2.632448 -2.9822919 -0.88122773
3.4177186 -3.8719227 -0.86100441
5.1616006 -5.8475609 -0.86936915
6.3522863 -7.1964855 -0.53616393
7.1927295 -8.1486206 0
7.1414485 -8.0905247 0.60277301
1.8770664 -2.1213508 -0.93398941
2.1836925 -2.4678814 -0.90916145
2.6343608 -2.9772005 -0.88066328
3.4155903 -3.8601003 -0.85929251
5.1720867 -5.84519 -0.86994523
6.3523698 -7.1790767 -0.53543836
7.1939492 -8.1301804 0
7.1460519 -8.0760498 0.60233748
1.8861886 -2.1264772 -0.9372493
2.1966646 -2.4765058 -0.91331577
2.6430161 -2.9797196 -0.88235247
3.4253638 -3.8617337 -0.86057681
5.1825819 -5.8428102 -0.87052232
6.362762 -7.1733379 -0.53558332
7.2106752 -8.1292696 0
7.1540823 -8.0654669 0.60219246
1.8460593 -2.0761769 -0.91606176
2.1879847 -2.4607241 -0.90846997
2.6364877 -2.9651346 -0.87897623
3.4334357 -3.8614249 -0.86143196
5.1947956 -5.8423443 -0.87138748
6.3697 -7.1637044 -0.53543836
7.2083859 -8.1069355 0
7.1586413 -8.0509901 0.60175693
1.8979002 -2.129293 -0.94050914
2.2076523 -2.4768102 -0.91539294
2.6434467 -2.9657366 -0.88010091
3.4363925 -3.8553591 -0.86100441
5.2001252 -5.8341265 -0.8710984
6.3766241 -7.1540647 -0.53529334
7.2129865 -8.0923967 0
7.1631823 -8.03652 0.60132188
1.8971813 -2.1233156 -0.9388808
2.198941 -2.4610436 -0.91054714
2.6554914 -2.9720123 -0.88291478
3.4410486 -3.8512039 -0.86100441
5.2192359 -5.841342 -0.87311673
6.3852634 -7.1463547 -0.53529334
7.2210269 -8.0817366 0
7.1694217 -8.0239801 0.60103136
1.9063352 -2.1283789 -0.94213748
2.2102807 -2.4677269 -0.91400725
2.6522994 -2.9612308 -0.88066328
3.4439883 -3.8451331 -0.86057681
5.2262902 -5.8350315 -0.87311673
6.3886914 -7.1328254 -0.53485781
7.2220998 -8.0633068 0
7.1808438 -8.0172453 0.60117632
1.8973516 -2.1132057 -0.9364351
2.2015266 -2.4519854 -0.90916145
2.6558757 -2.9580238 -0.88066328
3.4451985 -3.8371449 -0.85972005
5.2333369 -5.828712 -0.87311673
6.3955712 -7.1231689 -0.53471279
7.2301006 -8.05264 0
7.1853228 -8.0027676 0.60074133
1.9048656 -2.1164246 -0.9388808
2.2044878 -2.4493234 -0.90916145
2.6526487 -2.9472582 -0.87841171
3.4549861 -3.8387053 -0.86100441
5.2421045 -5.8243051 -0.87340474
6.4006934 -7.1115699 -0.53442222
7.2276363 -8.0303555 0
7.1915073 -7.9902134 0.60045081
1.8974843 -2.1031072 -0.93398941
2.2225757 -2.4634275 -0.91539294
2.6630163 -2.951597 -0.88066328
3.4527435 -3.8269038 -0.85929251
5.2577996 -5.8275671 -0.87484592
6.4058037 -7.0999756 -0.53413224
7.2373343 -8.021616 0
7.1959395 -7.9757357 0.60001576
1.8933926 -2.0934806 -0.93072957
2.2188194 -2.4532976 -0.9126243
2.6716955 -2.9540324 -0.88235247
3.4642527 -3.8303447 -0.86100441
5.2683105 -5.8250499 -0.87542301
6.4108887 -7.0883722 -0.53384167
7.2435336 -8.0090084 0
7.2073131 -7.9689603 0.60016078
1.9341048 -2.1333082 -0.94947451
2.2200923 -2.448751 -0.91193014
2.6650264 -2.9395111 -0.87897623
3.4637041 -3.8204486 -0.85972005
5.2753448 -5.8186798 -0.87542301
6.4124742 -7.072928 -0.53326166
7.2532058 -8.0002508 0
7.2064614 -7.9486918 0.59928966
1.9204376 -2.1156633 -0.94213748
2.2182021 -2.4436975 -0.91054714
2.6702139 -2.9416597 -0.88010091
3.4694657 -3.8221607 -0.86057681
5.2840762 -5.821239 -0.87628818
6.4097605 -7.0613565 -0.53268111
7.2510409 -7.9881592 0
7.2165036 -7.9501104 0.59972525
1.9412917 -2.1334517 -0.95110291
2.2194664 -2.4391618 -0.9098556
2.6771898 -2.9421933 -0.88122773
3.4723554 -3.8160689 -0.86014926
5.2980695 -5.8225021 -0.87744135
6.421782 -7.0574465 -0.53297108
7.2641873 -7.9832377 0
7.2208562 -7.9356174 0.59928966
1.9205526 -2.1055431 -0.93969494
2.2241011 -2.4383299 -0.91054714
2.677315 -2.9351981 -0.88010091
3.476964 -3.8118703 -0.86014926
5.3016114 -5.8122706 -0.87686425
6.430305 -7.0496821 -0.53297108
7.2615566 -7.9610009 0
7.2251911 -7.921133 0.59885466
1.9047475 -2.0831547 -0.93072957
2.2287369 -2.4374905 -0.91123861
2.6722884 -2.9225869 -0.87728703
3.4902267 -3.817137 -0.86228871
5.3121247 -5.8096819 -0.87744135
6.4440804 -7.0476618 -0.53340667
7.2659006 -7.9464569 0
7.2312469 -7.9085579 0.59856409
1.9039264 -2.0772111 -0.92910117
2.221513 -2.4237025 -0.90708697
2.68097 -2.9249768 -0.87897623
3.4913642 -3.8091285 -0.86143196
5.3226323 -5.8070688 -0.87801743
6.4613686 -7.0494461 -0.53413224
7.279017 -7.9415126 0
7.2390437 -7.8979006 0.59841913
1.893057 -2.060349 -0.92258149
2.2329252 -2.4302516 -0.91054714
2.6896548 -2.9273431 -0.88066328
3.5046465 -3.8143568 -0.86357135
5.3313937 -5.802536 -0.87830544
6.4681253 -7.039722 -0.53398722
7.2886076 -7.9327116 0
7.2433057 -7.8834062 0.59798354
1.9290339 -2.09442 -0.9388808
2.2409604 -2.4330895 -0.9126243
2.6949162 -2.9259653 -0.88122773
3.5057781 -3.8063467 -0.86271626
5.3436594 -5.8017988 -0.87917054
6.4819026 -7.0376301 -0.53442222
7.2928963 -7.9181542 0
7.2493086 -7.8708291 0.59769356
1.9315631 -2.0920875 -0.9388808
2.242192 -2.4285314 -0.91193014
2.6898265 -2.9133673 -0.87841171
3.5103748 -3.8021078 -0.86271626
5.3524189 -5.7972364 -0.87945861
6.5009813 -7.0412512 -0.53529334
7.2971606 -7.9035978 0
7.2517629 -7.8544273 0.59711301
1.9441593 -2.1006322 -0.94376898
2.2297897 -2.4092512 -0.90570134
2.6968 -2.9138482 -0.87953854
3.5114756 -3.7940917 -0.8618595
5.366447 -5.798358 -0.88061178
6.5183077 -7.0429244 -0.53601891
7.3031731 -7.8909588 0
7.2594848 -7.8437543 0.596968
1.9349273 -2.0855963 -0.93806344
2.2378199 -2.4120746 -0.9077785
2.7020452 -2.9124484 -0.88010091
3.512569 -3.7860858 -0.86100441
5.3769712 -5.7956653 -0.88118887
6.5232816 -7.0312371 -0.53572887
7.3109274 -7.8802152 0
7.265419 -7.8311634 0.59667742
1.9525932 -2.099544 -0.94539738
2.2492735 -2.4185524 -0.91123861
2.7038338 -2.9073224 -0.87953854
3.5258806 -3.7912359 -0.8631438
5.3857298 -5.7910562 -0.88147688
6.542387 -7.0347629 -0.53659946
7.3239918 -7.8751907 0
7.2677979 -7.8147678 0.59609687
1.9079442 -2.0465705 -0.92258149
2.2419331 -2.4048262 -0.90708697
2.7125442 -2.9096308 -0.88122773
3.5269613 -3.7832212 -0.86228871
5.3927231 -5.7845445 -0.88147688
6.5561996 -7.0325561 -0.53703499
7.3228579 -7.8549175 0
7.273695 -7.8021827 0.5958069
1.9644116 -2.1020424 -0.94865721
2.2551117 -2.4131098 -0.91123861
2.7039123 -2.8933542 -0.87728703
3.5332811 -3.7808306 -0.86271626
5.4085369 -5.7874708 -0.88291812
6.5664649 -7.0265255 -0.53718001
7.3216782 -7.834651 0
7.2831168 -7.7933879 0.5958069
1.960191 -2.0924523 -0.94539738
2.2631729 -2.4158776 -0.91331577
2.7160902 -2.8993547 -0.88010091
3.5396004 -3.7784302 -0.8631438
5.4208326 -5.7865963 -0.88378322
6.5731754 -7.0166917 -0.53703499
7.3347015 -7.8296008 0
7.2907467 -7.7826805 0.59566134
1.91366 -2.0378411 -0.92176729
2.2506359 -2.3966837 -0.90708697
2.7213292 -2.8979213 -0.88066328
3.5388896 -3.7685347 -0.8618595
5.4278207 -5.7800422 -0.88378322
6.5869799 -7.0144215 -0.53747004
7.3352442 -7.8112416 0
7.2948141 -7.768188 0.59522635
1.9228975 -2.0427258 -0.92502713
2.2621262 -2.4030943 -0.91054714
2.723089 -2.8927827 -0.88010091
3.546963 -3.767998 -0.86271626
5.4418921 -5.7810125 -0.88493639
6.6061406 -7.0178127 -0.5383411
7.3375416 -7.7947927 0
7.3024092 -7.7574706 0.59508079
1.9287535 -2.0439928 -0.92665553
2.263308 -2.3985364 -0.9098556
2.7230978 -2.8857977 -0.87897623
3.5515134 -3.7637093 -0.86271626
5.4577475 -5.7838368 -0.88637757
6.6021304 -6.9965944 -0.53732502
7.3505306 -7.78971 0
7.3099957 -7.7467532 0.59493577
1.9520522 -2.0661812 -0.9372493
2.2544162 -2.3862233 -0.90570134
2.7283275 -2.8878424 -0.88010091
3.548496 -3.7559631 -0.86143196
5.4665713 -5.786181 -0.88724273
6.6206317 -7.0077152 -0.53848612
7.3498716 -7.7795911 0
7.3075366 -7.7347803 0.59435523
1.9596475 -2.0692065 -0.93969494
2.2590213 -2.3853173 -0.90639281
2.7300694 -2.8827004 -0.87953854
3.5600924 -3.7591283 -0.8631438
5.4771123 -5.7833238 -0.88781881
6.6237326 -6.9940486 -0.53805059
7.3574786 -7.7688165 0
7.311522 -7.7202907 0.59392023
1.9213055 -2.0238171 -0.9201358
2.2722688 -2.3935063 -0.91054714
2.7283006 -2.8738697 -0.87784934
3.5663979 -3.7566838 -0.86357135
0 -0 -0
6.6268167 -6.980392 -0.5376156
7.3668604 -7.7599206 0
7.32442 -7.7152157 0.59421021
1.9680468 -2.0680423 -0.94132334
2.2613235 -2.37622 -0.90500981
2.7387776 -2.8779335 -0.88010091
3.5709345 -3.7523718 -0.86357135
5.5088997 -5.7888036 -0.89070117
6.6352463 -6.9723797 -0.5376156
7.3780236 -7.7528973 0
7.3247819 -7.69695 0.59348464
1.9688398 -2.0638759 -0.94050914
2.2607329 -2.3698587 -0.90362686
2.7387488 -2.8709486 -0.87897623
3.5719254 -3.7443428 -0.86271626
5.5176806 -5.7840199 -0.89099026
6.6418676 -6.9624715 -0.53747004
7.3766112 -7.7326818 0
7.3286943 -7.6824517 0.59304911
1.981578 -2.0722101 -0.94539738
2.2791979 -2.3834424 -0.9098556
2.7527487 -2.8786521 -0.88235247
3.5799921 -3.7437313 -0.86357135
5.5282373 -5.7810836 -0.89156634
6.6448932 -6.9488125 -0.53703499
7.375154 -7.7124739 0
7.3361778 -7.6717143 0.59290409
1.9635628 -2.0484099 -0.9356209
2.2803352 -2.3788702 -0.90916145
2.7544684 -2.8734913 -0.8817901
3.5845129 -3.7394028 -0.86357135
5.528059 -5.7669311 -0.89041317
6.6442885 -6.9313936 -0.53630888
7.3826685 -7.7016797 0
7.3400459 -7.6572151 0.59246856
1.9530705 -2.0276327 -0.92828387
2.2947845 -2.3823922 -0.9126243
2.7737386 -2.8796313 -0.88572866
3.5988836 -3.7362778 -0.86485571
5.5437717 -5.7554159 -0.89070117
6.6700382 -6.9246798 -0.53703499
7.3994551 -7.6819434 0
7.3495173 -7.6300993 0.59174299
1.9847031 -2.0554962 -0.94213748
2.2924318 -2.3742018 -0.91054714
2.7560437 -2.8543501 -0.87897623
3.5998328 -3.7282367 -0.86400056
5.5561137 -5.7542973 -0.89156634
6.6856198 -6.9240923 -0.5376156
7.3996949 -7.6636381 0
7.3533154 -7.6156039 0.5913074
1.9579648 -2.022907 -0.92828387
2.291806 -2.3678212 -0.90916145
2.7683244 -2.8601449 -0.8817901
3.6061184 -3.7257271 -0.8644281
5.5648599 -5.7494364 -0.89185435
6.6921692 -6.9141364 -0.53747004
7.4071345 -7.6528158 0
7.3643241 -7.6085854 0.59145296
1.9345962 -1.9939365 -0.91606176
2.2876775 -2.3578479 -0.90639281
2.7664688 -2.8513253 -0.88010091
3.6141894 -3.7250483 -0.86528325
5.5718026 -5.7427077 -0.89185435
6.7077565 -6.9135051 -0.53805059
7.4181933 -7.6457334 0
7.3662744 -7.5922222 0.59087241
1.9800833 -2.0358908 -0.9364351
2.292279 -2.3568857 -0.90708697
2.768142 -2.8461607 -0.87953854
3.6151116 -3.7170017 -0.8644281
5.5787377 -5.7359715 -0.89185435
6.7034287 -6.8923612 -0.53703499
7.4237938 -7.6330295 0
7.3790627 -7.5870376 0.59116244
1.9687388 -2.0193391 -0.92991537
2.3196404 -2.3792593 -0.91677594
2.7786741 -2.8500912 -0.8817901
3.6267684 -3.7199831 -0.86614001
5.5892787 -5.732934 -0.89243144
6.7099328 -6.8823905 -0.53688943
7.4275665 -7.6184688 0
7.3846006 -7.5743985 0.59087241
1.9901817 -2.0364044 -0.9388808
2.3260238 -2.3800468 -0.91816157
2.7714567 -2.835825 -0.87841171
3.6312606 -3.7155981 -0.86614001
5.6034331 -5.7335753 -0.89358461
6.7164292 -6.8724213 -0.53674448
7.433125 -7.6057625 0
7.3882971 -7.5598931 0.59043688
1.9874502 -2.0286999 -0.9364351
2.3008075 -2.348561 -0.90708697
2.7855535 -2.8433678 -0.8817901
3.6285617 -3.7038727 -0.8644281
5.6157889 -5.7323451 -0.89444977
6.7301855 -6.8698711 -0.53718001
7.4368443 -7.5911965 0
7.393786 -7.5472445 0.5901463
1.9829729 -2.0192432 -0.93317521
2.3018808 -2.3439841 -0.90639281
2.7925444 -2.8436222 -0.88291478
3.6402292 -3.7068119 -0.86614001
5.6227112 -5.7255554 -0.89444977
6.7366624 -6.8598814 -0.53703499
7.4387174 -7.5747776 0
7.4010811 -7.5364528 0.59000129
1.9997864 -2.0339048 -0.94050914
2.3208888 -2.3604856 -0.91331577
2.7817969 -2.8292572 -0.87897623
3.638865 -3.7009475 -0.86528325
5.6334157 -5.7295275 -0.89560187
6.7316914 -6.8465409 -0.53630888
7.4396467 -7.5665741 0
7.4001656 -7.5264196 0.58956575
1.9866295 -2.0156457 -0.93317521
2.3343022 -2.3683965 -0.91746742
2.778079 -2.8186553 -0.87672466
3.6469417 -3.7002082 -0.86614001
5.6385207 -5.7208762 -0.89531386
6.7509069 -6.8495092 -0.53718001
7.4487839 -7.5575795 0
7.4037876 -7.5119262 0.58913076
2.0029602 -2.0273097 -0.93969494
2.3195336 -2.3477314 -0.91054714
2.7921941 -2.826138 -0.88010091
3.6514099 -3.6957989 -0.86614001
5.6581559 -5.7269402 -0.89733213
6.7463927 -6.8284063 -0.53616393
7.4542484 -7.544867 0
7.412859 -7.5029745 0.58913076
1.9671489 -1.9862567 -0.92176729
2.3276665 -2.3502762 -0.9126243
2.7991865 -2.8263762 -0.88122773
3.6504519 -3.6859105 -0.86485571
5.6632533 -5.7182631 -0.89704412
6.7546387 -6.8202496 -0.53616393
7.4651961 -7.5377092 0
7.4164324 -7.4884715 0.58869517
1.9712871 -1.9856306 -0.92258149
2.3375747 -2.3545835 -0.91539294
2.8061764 -2.8265948 -0.88235247
3.6567099 -3.6833169 -0.86528325
5.6756201 -5.7169175 -0.89790821
6.7720265 -6.8213015 -0.53688943
7.461462 -7.5157533 0
7.4181523 -7.4721289 0.58811462
2.0469069 -2.0568242 -0.95680845
2.3191819 -2.3304181 -0.90708697
2.8060086 -2.8196034 -0.88122773
3.6593487 -3.677078 -0.86485571
5.6898217 -5.7173886 -0.89906138
6.7729321 -6.8057466 -0.53630888
7.476047 -7.5122681 0
7.4326763 -7.4686871 0.58855021
1.9935323 -1.9983557 -0.93072957
2.3131387 -2.3187354 -0.90362686
2.8112061 -2.8180079 -0.8817901
3.6692297 -3.6781075 -0.86614001
5.6985579 -5.7123461 -0.89935046
6.7829909 -6.7994027 -0.53645444
7.4740868 -7.4921708 0
7.4361877 -7.4541802 0.58811462
1.9889547 -1.9889547 -0.92746967
2.3230278 -2.3230278 -0.90639281
2.8110123 -2.8110123 -0.88066328
3.6736712 -3.6736712 -0.86614001
5.7109375 -5.7109375 -0.90021455
6.7820168 -6.7820168 -0.53572887
7.4831343 -7.4831343 0
7.43784 -7.43784 0.58753407
1.9861121 -1.9813182 -0.92502713
2.3276143 -2.321996 -0.90708697
2.8054142 -2.7986429 -0.87784934
3.6835616 -3.6746705 -0.86742431
5.7105093 -5.6967258 -0.89906138
6.7902064 -6.7738171 -0.53572887
7.4921708 -7.4740868 0
7.4505043 -7.4325213 0.58782464
1.981497 -1.9719431 -0.92176729
2.3268583 -2.3156393 -0.90570134
2.8087938 -2.7952509 -0.87784934
3.687999 -3.670217 -0.86742431
5.7228904 -5.6952972 -0.89992648
6.8020663 -6.7692695 -0.53601891
7.4956675 -7.4595265 0
7.4484253 -7.4125123 0.58695352
1.9715986 -1.9573563 -0.91606176
2.3617051 -2.3446448 -0.91816157
2.8302047 -2.8097601 -0.8834793
3.6887839 -3.6621373 -0.86656755
5.7297678 -5.6883779 -0.89992648
6.8102407 -6.7610459 -0.53601891
7.5083656 -7.4541278 0
7.4610682 -7.4071717 0.58724409
1.9897655 -1.970624 -0.92339563
2.3556185 -2.3329575 -0.91469878
2.8354013 -2.8081245 -0.88404167
3.6932063 -3.6576774 -0.86656755
5.743988 -5.6887307 -0.90107965
6.8073311 -6.7418447 -0.53514832
7.5192142 -7.4468794 0
7.4607835 -7.3890104 0.58651853
2.036099 -2.0116441 -0.94376898
2.3405926 -2.3124807 -0.9077785
2.8279438 -2.7939782 -0.88066328
3.6957989 -3.6514099 -0.86614001
5.7434978 -5.6745148 -0.89992648
6.8136187 -6.7317829 -0.53500277
7.5171027 -7.4268174 0
7.4715528 -7.3818145 0.58666354
2.0543692 -2.0247955 -0.95110291
2.3451703 -2.3114102 -0.90846997
2.8331325 -2.7923479 -0.88122773
3.7075212 -3.6541495 -0.86785185
5.7613993 -5.6784611 -0.90165573
6.8217478 -6.7235451 -0.53500277
7.5186567 -7.4104218 0
7.4767618 -7.3691297 0.58637297
2.0515254 -2.0171115 -0.94865721
2.3640599 -2.3244033 -0.91469878
2.8365045 -2.7889228 -0.88122773
3.7155914 -3.6532631 -0.868707
0 -0 -0
6.8446898 -6.7298713 -0.53616393
7.5220366 -7.3958559 0
7.4819584 -7.3564501 0.58608294
2.0027993 -1.9644488 -0.92502713
2.3650773 -2.3197899 -0.91400725
2.838053 -2.7837088 -0.88066328
3.7145102 -3.6433833 -0.86742431
5.7843432 -5.6735821 -0.90309799
6.845396 -6.7143178 -0.53558332
7.5346866 -7.3904099 0
7.4889884 -7.3455863 0.58593798
2.021069 -1.9775829 -0.93236107
2.4055331 -2.3537748 -0.92854202
2.8377857 -2.776727 -0.87953854
3.7225759 -3.6424797 -0.8682794
5.8022828 -5.6774387 -0.90482718
6.8442197 -6.6969571 -0.53485781
7.5361705 -7.3740196 0
7.4922853 -7.3310785 0.58550239
2.0063562 -1.9608155 -0.92502713
2.3531318 -2.2997198 -0.9077785
2.8449161 -2.7803416 -0.88122773
3.7174323 -3.6330531 -0.86656755
5.7983127 -5.6667013 -0.90367407
6.8575544 -6.7019 -0.53558332
7.5406241 -7.3694654 0
7.4967127 -7.3265505 0.58550239
2.035265 -1.9842656 -0.9372493
2.359498 -2.3003743 -0.90916145
2.855551 -2.7839971 -0.8834793
3.7218194 -3.6285586 -0.86656755
5.8070059 -5.6614947 -0.90396208
6.8544874 -6.6827292 -0.53471279
7.543931 -7.3548965 0
7.4999766 -7.3120437 0.58506685
2.0784073 -2.0214343 -0.95599115
2.3676729 -2.3027706 -0.91123861
2.8498001 -2.7716818 -0.88066328
3.7262011 -3.624059 -0.86656755
5.8194065 -5.6598859 -0.90482718
6.8700085 -6.6816883 -0.53529334
7.5490847 -7.3421502 0
7.4957652 -7.2902923 0.58405071
2.011672 -1.9518038 -0.92420983
2.3668561 -2.2964175 -0.9098556
2.8567977 -2.7717783 -0.8817901
3.7361062 -3.6249182 -0.86785185
5.8243866 -5.6510506 -0.90453917
6.8724804 -6.6679525 -0.53485781
7.5560775 -7.3312058 0
7.5120287 -7.2884679 0.58463126
2.0424442 -1.9768748 -0.9372493
2.3678212 -2.291806 -0.90916145
2.858321 -2.7665591 -0.88122773
3.7349482 -3.6150436 -0.86656755
5.8386445 -5.6512041 -0.90569234
6.8823977 -6.661449 -0.53500277
7.5574503 -7.3148308 0
7.515234 -7.2739692 0.58419627
2.0377192 -1.9675384 -0.93398941
2.3832238 -2.3011434 -0.91400725
2.8634877 -2.7648666 -0.8817901
3.7503903 -3.6212232 -0.86913455
5.8454685 -5.644145 -0.90569234
6.8923163 -6.6549382 -0.53514832
7.5662832 -7.3056936 0
7.5258851 -7.2666864 0.58434129
2.0400951 -1.9650747 -0.93398941
2.3733528 -2.2860773 -0.90916145
2.8649981 -2.7596436 -0.88122773
3.7529159 -3.6149099 -0.868707
5.8560066 -5.6406631 -0.90626842
6.8909898 -6.6375871 -0.53442222
7.5676079 -7.2893238 0
7.527174 -7.2503772 0.58376074
2.0424681 -1.9626082 -0.93398941
2.3761132 -2.2832079 -0.90916145
2.8646629 -2.7526553 -0.88010091
3.7535825 -3.6068187 -0.86785185
5.8684144 -5.6389613 -0.90713352
6.8990049 -6.6292558 -0.53442222
7.5689111 -7.2729688 0
7.5340571 -7.2394776 0.58361572
2.0341361 -1.94988 -0.92910117
2.3680074 -2.269922 -0.90500981
2.8753238 -2.7562251 -0.88235247
3.7653506 -3.6093862 -0.86956376
5.8752241 -5.6318665 -0.90713352
6.8957586 -6.6101294 -0.53355169
7.5814471 -7.2674165 0
7.535296 -7.2231765 0.58303517
2.0525656 -1.9627929 -0.9364351
2.4160759 -2.3104043 -0.92231321
2.8841631 -2.7580187 -0.88404167
3.7678485 -3.6030545 -0.86913455
5.8857598 -5.628335 -0.9077096
6.9150052 -6.6125641 -0.53442222
7.5883441 -7.2564535 0
7.5402589 -7.2104712 0.5827446
2.0763965 -1.9807836 -0.94621468
2.3734858 -2.2641931 -0.90500981
2.8911669 -2.7580361 -0.88516635
3.7721994 -3.5984993 -0.86913455
5.8963027 -5.6247931 -0.90828669
6.9211116 -6.6024122 -0.5342772
7.5971065 -7.2472792 0
7.5452089 -7.1977715 0.58245462
2.0662534 -1.9663446 -0.94050914
2.3962128 -2.2803495 -0.9126243
2.8834572 -2.7440343 -0.8817901
3.7746868 -3.5921707 -0.868707
5.9030948 -5.6176643 -0.90828669
6.9234352 -6.5886688 -0.53384167
7.6058578 -7.2380943 0
7.5539007 -7.1886492 0.58245462
2.1062686 -1.9995806 -0.95762265
2.4226174 -2.2999055 -0.92162168
2.8849297 -2.7388005 -0.88122773
3.7790246 -3.5876069 -0.868707
5.9117527 -5.6123066 -0.90857476
6.9427023 -6.5910358 -0.53471279
7.6032701 -7.2181444 0
7.5512705 -7.1687789 0.5815835
2.0692065 -1.9596475 -0.93969494
2.4144619 -2.2866228 -0.91746742
2.8956163 -2.7423012 -0.8834793
3.78895 -3.5883355 -0.8699913
5.9204059 -5.6069365 -0.90886277
6.9449992 -6.5772805 -0.5342772
7.6100984 -7.2071643 0
7.5618191 -7.1614413 0.58172905
2.0715728 -1.9571459 -0.93969494
2.4154012 -2.2819824 -0.91677594
2.9081609 -2.7475235 -0.88629317
3.7858191 -3.5767028 -0.8682794
5.9309402 -5.6033344 -0.90943986
6.9529414 -6.5688839 -0.5342772
7.6131239 -7.1926003 0
7.5685725 -7.1505094 0.5815835
2.0775299 -1.9580286 -0.94132334
2.412678 -2.2738984 -0.91469878
2.8985333 -2.731807 -0.88235247
3.8013432 -3.5826864 -0.87084639
5.933938 -5.5926127 -0.90886277
6.9646592 -6.5640454 -0.53456777
7.6199174 -7.1816125 0
7.5772071 -7.1413593 0.5815835
2.0852983 -1.9605975 -0.94376898
2.4154236 -2.2709816 -0.91469878
2.898133 -2.7248249 -0.88122773
3.8019326 -3.5745773 -0.8699913
5.9425812 -5.5872154 -0.90915185
6.9725857 -6.5556254 -0.53456777
7.6248007 -7.1688385 0
7.5839391 -7.1304202 0.58143848
2.0882823 -1.9610276 -0.94458318
2.4277718 -2.2798295 -0.91885304
2.8979213 -2.7213292 -0.88066328
3.8040915 -3.5722797 -0.8699913
5.9459558 -5.5836239 -0.90915185
6.9841213 -6.5585265 -0.53514832
7.6291304 -7.1642303 0
7.5825686 -7.1205058 0.58100349
2.045558 -1.9162607 -0.92420983
2.4286954 -2.2751808 -0.91816157
2.9030671 -2.7195678 -0.88122773
3.8046546 -3.564167 -0.86913455
5.9508052 -5.5746622 -0.90886277
6.9939356 -6.5518579 -0.53529334
7.6339793 -7.1514449 0
7.5968504 -7.116663 0.58143848
2.1038535 -1.966104 -0.94947451
2.4222729 -2.2636747 -0.91469878
2.917486 -2.726464 -0.88460398
3.8145869 -3.5648272 -0.87041885
5.9669905 -5.5763025 -0.91030502
7.0018473 -6.5434022 -0.53529334
7.6388154 -7.1386652 0
7.5978498 -7.1003819 0.58085793
2.0483766 -1.909628 -0.92339563
2.4176662 -2.2539034 -0.91193014
2.90591 -2.7090757 -0.88010091
3.8188915 -3.5602155 -0.87041885
5.9775043 -5.5726128 -0.91088104
7.004045 -6.5296197 -0.53485781
7.6455264 -7.1276503 0
7.6064239 -7.0911961 0.58085793
2.1067836 -1.959326 -0.94865721
2.4148817 -2.2458599 -0.9098556
2.9129062 -2.7090266 -0.88122773
3.8194346 -3.5521054 -0.86956376
5.9899173 -5.570672 -0.9117462
7.0119295 -6.521152 -0.53485781
7.6484218 -7.1130948 0
7.6092839 -7.0766964 0.58042294
2.0964713 -1.9450167 -0.94295484
2.4157493 -2.2412291 -0.90916145
2.9161773 -2.7055049 -0.88122773
3.8331316 -3.5562158 -0.87170315
6.0004325 -5.5669451 -0.91232228
7.0102811 -6.50384 -0.53413224
7.6627293 -7.1091533 0
7.6102095 -7.0604277 0.57984239
2.09882 -1.9424821 -0.94295484
2.4221416 -2.24172 -0.91054714
2.9138482 -2.6968 -0.87953854
3.826118 -3.5411162 -0.86913455
6.0109549 -5.5632081 -0.91289937
7.021945 -6.4988909 -0.53442222
7.6598573 -7.0892859 0
7.6187348 -7.0512271 0.57984239
2.1120579 -1.9500012 -0.94784302
2.4488091 -2.2609138 -0.91954458
2.924572 -2.7001717 -0.8817901
3.8417144 -3.5469422 -0.87170315
6.0233684 -5.5611992 -0.91376346
7.0317073 -6.4921694 -0.53456777
7.6626792 -7.0747275 0
7.6176982 -7.0331979 0.57911628
2.0925965 -1.9273546 -0.93806344
2.422014 -2.2307596 -0.90846997
2.9334412 -2.7018018 -0.8834793
3.8422172 -3.5388162 -0.87084639
6.0376935 -5.5609264 -0.91491663
7.0338111 -6.4783854 -0.53413224
7.6788793 -7.072516 0
7.6281075 -7.0257535 0.57926184
2.1531644 -1.9783363 -0.96414232
2.4671993 -2.2668726 -0.92439038
2.9367037 -2.6982553 -0.8834793
3.8502746 -3.537648 -0.87170315
6.0406027 -5.5501304 -0.91434056
7.0320683 -6.4610929 -0.53340667
7.6778393 -7.05443 0
7.632761 -7.0130119 0.57897127
2.0990756 -1.9239668 -0.9388808
2.4181526 -2.2164259 -0.90500981
2.9249768 -2.68097 -0.87897623
3.8507578 -3.5295208 -0.87084639
6.0492096 -5.5445733 -0.91462857
7.0532737 -6.4648767 -0.53442222
7.6882744 -7.0469046 0
7.6431427 -7.005538 0.57911628
2.0904508 -1.9114189 -0.93398941
2.4411969 -2.232126 -0.9126243
2.935715 -2.6842923 -0.88122773
3.8625979 -3.5317943 -0.8725583
6.06354 -5.5442414 -0.91578174
7.0553327 -6.4510942 -0.53398722
7.6871819 -7.0288305 0
7.6477704 -6.992794 0.57882625
2.1073675 -1.9222167 -0.94050914
2.4513063 -2.2359374 -0.91539294
2.9295645 -2.6721764 -0.87841171
3.8630729 -3.5236678 -0.87170315
6.0759692 -5.5421414 -0.9166469
7.0708013 -6.4495692 -0.53456777
7.6956692 -7.019537 0
7.6466174 -6.9747944 0.57810068
2.1261394 -1.934638 -0.94784302
2.4224634 -2.204272 -0.90362686
2.9271586 -2.6635094 -0.87672466
3.8749225 -3.5259082 -0.87341505
6.0826612 -5.5347958 -0.9166469
7.0824294 -6.4445148 -0.53485781
7.7022223 -7.0084829 0
7.6531191 -6.9638028 0.57795572
2.0882173 -1.8955241 -0.92991537
2.451128 -2.2249467 -0.91331577
2.9416597 -2.6702139 -0.88010091
3.8772812 -3.5194998 -0.87298745
6.0855107 -5.523962 -0.91606981
7.0825152 -6.4289665 -0.5342772
7.7049022 -6.9939222 0
7.6595984 -6.9527988 0.57781017
2.1051629 -1.9062716 -0.9364351
2.4482338 -2.2169299 -0.91123861
2.9486544 -2.6700718 -0.88122773
3.8777215 -3.5113628 -0.87213069
6.1113567 -5.5339694 -0.91895324
7.0864296 -6.4169192 -0.53398722
7.7133474 -6.9846072 0
7.6699257 -6.9452877 0.57795572
2.1202979 -1.9153192 -0.94213748
2.447191 -2.2106102 -0.9098556
2.9537623 -2.6682088 -0.8817901
3.8819616 -3.5066748 -0.87213069
6.1180391 -5.5265808 -0.91895324
7.0961041 -6.4100919 -0.53413224
7.7159934 -6.9700532 0
7.6686654 -6.9273009 0.57722956
2.106781 -1.9007988 -0.9356209
2.478322 -2.2360139 -0.92092752
2.9497123 -2.6613159 -0.88010091
3.8821752 -3.5026109 -0.87170315
6.1367402 -5.5367446 -0.92125958
7.1096201 -6.414505 -0.53485781
7.7182651 -6.9636421 0
7.6767116 -6.9261513 0.57752013
2.1182599 -1.9065175 -0.93969494
2.4661114 -2.2195976 -0.91539294
2.9510391 -2.6560516 -0.87953854
3.8921306 -3.5030711 -0.87298745
6.1491876 -5.5345116 -0.92212367
7.1192951 -6.4076467 -0.53500277
7.7266736 -6.9543109 0
7.6812081 -6.9133906 0.57722956
2.1407866 -1.9221154 -0.94865721
2.4650545 -2.2132607 -0.91400725
2.954246 -2.6524839 -0.87953854
3.9020855 -3.5035059 -0.87427014
6.1616459 -5.5322628 -0.92298877
7.1231689 -6.3955712 -0.53471279
7.7292671 -6.9397588 0
7.6837611 -6.8989015 0.57679456
2.1177847 -1.8922393 -0.9364351
2.4516916 -2.1905849 -0.90708697
2.9568543 -2.6419477 -0.87841171
3.9086282 -3.492357 -0.8738426
6.1672826 -5.5104632 -0.9218356
7.1541052 -6.392189 -0.53587389
7.7460151 -6.9210601 0
7.6945958 -6.8751168 0.57635903
2.1274498 -1.8962573 -0.93969494
2.4730611 -2.2043107 -0.91400725
2.9600446 -2.6383729 -0.87841171
3.9128451 -3.4876316 -0.8738426
6.1855173 -5.51333 -0.92356485
7.1521268 -6.3748965 -0.53514832
7.7407708 -6.8995719 0
7.7028975 -6.8658147 0.57635903
2.1371276 -1.9002546 -0.94295484
2.4644775 -2.1913218 -0.9098556
2.9689286 -2.6398611 -0.88010091
3.9112995 -3.4777822 -0.8725583
6.1960444 -5.5092926 -0.92414194
7.1656442 -6.3714252 -0.53558332
7.7529879 -6.8936691 0
7.7150679 -6.859952 0.57664901
2.144964 -1.9025865 -0.94539738
2.4689984 -2.1900055 -0.91054714
2.9664118 -2.631212 -0.87841171
3.9193435 -3.4764638 -0.87341505
6.2162433 -5.5138178 -0.92616028
7.16362 -6.3541422 -0.53485781
7.757422 -6.8808455 0
7.7097492 -6.8385601 0.57563347
2.1731791 -1.9229264 -0.95680845
2.4566121 -2.1737208 -0.90500981
2.9752996 -2.6326787 -0.88010091
3.9216206 -3.470026 -0.87298745
6.2112751 -5.4960155 -0.92443001
7.1849165 -6.3575368 -0.53587389
7.7579341 -6.8645687 0
7.7218952 -6.8326797 0.57592344
2.1254685 -1.8761358 -0.93480361
2.500612 -2.2072723 -0.92023605
2.9784784 -2.6290817 -0.88010091
3.9219577 -3.4618843 -0.87213069
6.2392435 -5.5073361 -0.92760146
7.1809006 -6.3385301 -0.53500277
7.7642736 -6.8534694 0
7.722353 -6.8164663 0.57534289
2.1685467 -1.9095038 -0.95273441
2.4712703 -2.1760659 -0.90846997
2.981653 -2.6254809 -0.88010091
3.9319196 -3.4622338 -0.87341505
6.2361894 -5.4912481 -0.92616028
7.2041559 -6.3435864 -0.53616393
7.7686391 -6.8406396 0
7.7286353 -6.8054147 0.57519794
2.1504242 -1.8889381 -0.94376898
2.4852107 -2.1830153 -0.9126243
2.9905519 -2.6269085 -0.8817901
3.9341733 -3.4557879 -0.87298745
6.2486444 -5.4888248 -0.92702436
7.1942472 -6.3194451 -0.53485781
7.778852 -6.8329635 0
7.7368526 -6.7960711 0.57519794
2.128541 -1.8651643 -0.93317521
2.4878466 -2.180011 -0.9126243
2.9746101 -2.6065443 -0.8761602
3.9422038 -3.454412 -0.8738426
6.2649965 -5.4897919 -0.92846555
7.2136073 -6.3210258 -0.53572887
7.7792811 -6.8167052 0
7.7391939 -6.7815785 0.57476234
2.143821 -1.8739791 -0.9388808
2.4772551 -2.1654439 -0.9077785
2.9815872 -2.6062958 -0.87728703
3.942513 -3.4462702 -0.87298745
6.2813678 -5.4907341 -0.9299078
7.2271032 -6.3174305 -0.53616393
7.7894692 -6.8090115 0
7.7434735 -6.7688055 0.57447237
2.153528 -1.8778787 -0.94213748
2.4760845 -2.1591482 -0.90639281
2.9923944 -2.6093709 -0.87953854
3.9602122 -3.4533091 -0.87598199
6.2724023 -5.4695411 -0.92760146
7.2425652 -6.3155241 -0.53674448
7.7976913 -6.7995949 0
7.747726 -6.7560253 0.5741818
2.1800432 -1.8963677 -0.95273441
2.4938345 -2.169327 -0.91193014
2.9936299 -2.6040874 -0.87897623
3.9508297 -3.4367328 -0.87298745
6.2946181 -5.4755387 -0.9299078
7.2364731 -6.2948356 -0.53572887
7.7980471 -6.7833357 0
7.7519665 -6.7432508 0.57389182
2.1767311 -1.888871 -0.95028871
2.50214 -2.1712465 -0.91400725
2.9948497 -2.598798 -0.87841171
3.9588535 -3.4353182 -0.8738426
6.2973189 -5.4645352 -0.92933071
7.261735 -6.3014126 -0.53703499
7.8042741 -6.7722039 0
7.7542191 -6.7287688 0.57345623
2.1498539 -1.8632725 -0.93806344
2.5110347 -2.176307 -0.91677594
2.9945009 -2.5953257 -0.87784934
3.9609282 -3.4329257 -0.8738426
6.2967138 -5.457345 -0.92875463
7.2557173 -6.2885103 -0.53630888
7.8024621 -6.762373 0
7.748467 -6.7155752 0.57273066
2.1334105 -1.8445115 -0.92991537
2.4965839 -2.1585054 -0.91054714
3.0149317 -2.6066604 -0.88291478
3.9650733 -3.4281373 -0.8738426
6.2993865 -5.4463458 -0.92817754
7.2613463 -6.2780409 -0.53616393
7.808661 -6.7512398 0
7.754612 -6.7045097 0.5725857
2.1468639 -1.8516147 -0.93480361
2.5067894 -2.1620414 -0.91331577
3.0142345 -2.5996997 -0.8817901
3.9711549 -3.4250188 -0.87427014
6.3098836 -5.442112 -0.92875463
7.2728662 -6.2726598 -0.53645444
7.8207502 -6.7451959 0
7.7568026 -6.690042 0.57215011
2.1678391 -1.8651422 -0.94295484
2.4903789 -2.1426454 -0.90639281
3.0231538 -2.6010289 -0.8834793
3.977242 -3.4218969 -0.87469935
6.3203726 -5.4378543 -0.92933071
7.2725611 -6.2570882 -0.53587389
7.8249531 -6.7323494 0
7.7648802 -6.6806645 0.57215011
2.1757123 -1.8673459 -0.94539738
2.5101051 -2.1543448 -0.9126243
3.0185821 -2.5907547 -0.88122773
3.9813738 -3.4170887 -0.87469935
6.3328285 -5.4352689 -0.93019581
7.2820864 -6.2499871 -0.53601891
7.8251824 -6.7161098 0
7.7729468 -6.6712775 0.57215011
2.192987 -1.8775753 -0.95191711
2.5317597 -2.1676233 -0.91954458
3.0101259 -2.5771871 -0.87784934
3.9893961 -3.4156113 -0.87555444
6.3354583 -5.4242454 -0.92961872
7.2896328 -6.2411833 -0.53601891
7.8253841 -6.6998792 0
7.7750788 -6.6568093 0.57171458
2.2084119 -1.8861619 -0.95762265
2.5114849 -2.1450107 -0.91123861
3.0055091 -2.5669475 -0.87559783
3.99157 -3.4091229 -0.8751269
6.3400426 -5.4149079 -0.92933071
7.2892652 -6.2256207 -0.53543836
7.8354511 -6.6921077 0
7.7890463 -6.6524739 0.57215011
2.1730621 -1.851434 -0.94132334
2.5369906 -2.1614985 -0.91954458
3.010541 -2.5649602 -0.8761602
3.9878702 -3.3976381 -0.87341505
6.3347721 -5.397182 -0.92760146
7.2928305 -6.2134414 -0.53514832
7.8375869 -6.6775699 0
7.7970786 -6.6430573 0.57215011
2.1357501 -1.8151951 -0.92420983
2.5147514 -2.1373122 -0.91054714
3.0310683 -2.5761349 -0.88122773
3.993927 -3.3944778 -0.8738426
6.3531098 -5.3995709 -0.92933071
7.298347 -6.2029371 -0.53500277
7.8476381 -6.669785 0
7.803122 -6.6319504 0.57200515
2.1699891 -1.8397837 -0.93806344
2.5364642 -2.1504927 -0.91746742
3.0322354 -2.5708227 -0.88066328
4.01369 -3.4029303 -0.87726635
6.3477964 -5.3818579 -0.92760146
7.3058367 -6.1941142 -0.53500277
7.8497343 -6.6552472 0
7.8071618 -6.619153 0.57171458
2.202405 -1.8626976 -0.95110291
2.5007575 -2.115031 -0.90362686
3.0392232 -2.5704417 -0.8817901
4.0099587 -3.3914471 -0.87555444
6.3621941 -5.3808646 -0.92875463
7.3093514 -6.1819291 -0.53471279
7.8577704 -6.6457577 0
7.8111897 -6.6063619 0.57142454
2.1744287 -1.8345343 -0.93806344
2.5263138 -2.1314147 -0.91193014
3.0423269 -2.5667677 -0.8817901
4.0081654 -3.3816319 -0.87427014
6.3746161 -5.3781724 -0.92961872
7.3188 -6.1747665 -0.53485781
7.8638077 -6.6345816 0
7.8132067 -6.5918903 0.57098901
2.1634121 -1.8207695 -0.93236107
2.5308123 -2.1299808 -0.9126243
3.0259821 -2.5467253 -0.8761602
4.0142183 -3.378444 -0.87469935
6.3672633 -5.3588123 -0.92760146
7.3202896 -6.1608977 -0.53442222
7.8678322 -6.6217203 0
7.8271317 -6.5874658 0.57142454
2.1656106 -1.8181542 -0.93236107
2.5410697 -2.1333737 -0.91539294
3.0387928 -2.5512407 -0.87897623
4.0300899 -3.3834915 -0.87726635
6.3737335 -5.3511147 -0.92760146
7.3257403 -6.1503787 -0.5342772
7.879818 -6.6155586 0
7.8330979 -6.5763345 0.57127959
2.1962233 -1.8393357 -0.94458318
2.5301805 -2.1190245 -0.91054714
3.0516112 -2.5557225 -0.8817901
4.0243373 -3.3703799 -0.8751269
6.3881264 -5.3500524 -0.92875463
7.3212175 -6.1315155 -0.53340667
7.8738375 -6.5943341 0
7.8390403 -6.5651917 0.57113403
2.1662009 -1.8097432 -0.93072957
2.5327389 -2.1159658 -0.91054714
3.0468974 -2.5455172 -0.87953854
4.0323429 -3.3688035 -0.87598199
6.3925958 -5.3406663 -0.92846555
7.3345976 -6.1276579 -0.53384167
7.8837948 -6.586482 0
7.8509593 -6.5590501 0.57142454
2.2025588 -1.8356037 -0.94539738
2.5391445 -2.1161132 -0.91193014
3.0460632 -2.5385771 -0.87841171
4.0403585 -3.3672187 -0.87683874
6.4050069 -5.3379073 -0.92933071
7.3579655 -6.1320996 -0.53500277
7.88975 -6.5752869 0
7.856885 -6.5478969 0.57127959
2.1629655 -1.7981827 -0.92746967
2.5474889 -2.1178565 -0.91400725
3.0510879 -2.5365238 -0.87897623
4.0444241 -3.3623343 -0.87683874
6.4054832 -5.3252025 -0.92846555
7.3613772 -6.1198854 -0.53471279
7.893683 -6.562418 0
7.8647909 -6.5383987 0.57127959
2.1507463 -1.7858279 -0.92176729
2.5256064 -2.0970852 -0.90570134
3.0467534 -2.529809 -0.87728703
4.0444818 -3.3582518 -0.8764112
6.4186549 -5.3295979 -0.9299078
7.3790689 -6.127058 -0.53572887
7.8956461 -6.5559869 0
7.856741 -6.5236831 0.57040846
2.2080934 -1.8289419 -0.94539738
2.5571215 -2.1180384 -0.91608441
3.0458906 -2.5228808 -0.8761602
4.0406284 -3.3468125 -0.87469935
6.4171224 -5.3152385 -0.92875463
7.3744564 -6.1081891 -0.53485781
7.9115787 -6.5530825 0
7.8686242 -6.5175033 0.57069904
2.1702912 -1.7932136 -0.92828387
2.5364707 -2.0957713 -0.9077785
3.0665712 -2.5337694 -0.88122773
4.0486236 -3.3451948 -0.87555444
6.4374914 -5.3190084 -0.93077189
7.3878427 -6.1042409 -0.53529334
7.9134703 -6.5385432 0
7.8684812 -6.5013704 0.57011843
2.1934381 -1.8078835 -0.9372493
2.5622325 -2.1118526 -0.91608441
3.0559037 -2.518748 -0.87728703
4.0566282 -3.343569 -0.8764112
6.4359303 -5.304646 -0.92961872
7.3972163 -6.0969605 -0.53543836
7.9193587 -6.5273228 0
7.8883576 -6.501771 0.57098901
2.207072 -1.814647 -0.94213748
2.5609028 -2.1055653 -0.91469878
3.0648348 -2.5198965 -0.87897623
4.0606656 -3.338665 -0.8764112
6.4483309 -5.301795 -0.93048382
7.408596 -6.0913219 -0.53572887
7.9272404 -6.5177493 0
7.882164 -6.4806876 0.56997347
2.1806028 -1.7884724 -0.92991537
2.555686 -2.0961056 -0.91193014
3.0619817 -2.5113559 -0.87728703
4.062706 -3.3321233 -0.87598199
6.4527345 -5.2923608 -0.93019581
7.4179578 -6.0840116 -0.53587389
7.9310889 -6.504868 0
7.8879738 -6.4695063 0.56982791
2.2057176 -1.8046173 -0.93969494
2.5601642 -2.0946093 -0.9126243
3.0925422 -2.5301766 -0.88516635
4.0726914 -3.3320901 -0.87726635
6.4611244 -5.2861962 -0.93048382
7.4273133 -6.0766878 -0.53601891
7.9308863 -6.4886885 0
7.8877411 -6.4533892 0.56924736
2.2059836 -1.8003895 -0.9388808
2.5471442 -2.078824 -0.90708697
3.0739491 -2.5087702 -0.87897623
4.072741 -3.3239233 -0.8764112
6.4695086 -5.2800193 -0.93077189
7.4326391 -6.0660677 -0.53587389
7.9407349 -6.4807448 0
7.8935218 -6.4422121 0.56910235
2.2119873 -1.8008406 -0.94050914
2.5613236 -2.0852454 -0.91123861
3.0789468 -2.5066566 -0.87953854
4.0847096 -3.3254766 -0.87812144
6.4819031 -5.2770991 -0.93163699
7.4439898 -6.0603604 -0.53616393
7.9485598 -6.4711452 0
7.8932395 -6.4261074 0.5685218
2.2179949 -1.8012799 -0.94213748
2.5463164 -2.0679164 -0.90500981
3.0819733 -2.5029347 -0.87953854
4.0787635 -3.3124485 -0.87598199
6.4882751 -5.2692628 -0.93163699
7.4432387 -6.0448089 -0.53558332
7.9503107 -6.4566126 0
7.8969684 -6.4132924 0.56823176
2.2259331 -1.8032675 -0.94458318
2.5722055 -2.0837886 -0.91331577
3.0810428 -2.496007 -0.87841171
4.0887489 -3.312367 -0.87726635
6.496645 -5.2630458 -0.93192506
7.4626551 -6.0456281 -0.53645444
7.9621549 -6.4502811 0
7.9067287 -6.4053798 0.56837678
2.2223415 -1.7959145 -0.94213748
2.56301 -2.0712152 -0.90916145
3.0801079 -2.4890912 -0.87728703
4.0867562 -3.302582 -0.87598199
6.5251303 -5.2730765 -0.9350965
7.4679279 -6.0349684 -0.53630888
7.9658904 -6.4373808 0
7.9205279 -6.4007225 0.56881231
2.2418337 -1.807193 -0.94947451
2.6065257 -2.1011796 -0.92369622
3.0850894 -2.4869606 -0.87784934
4.0967417 -3.3024764 -0.87726635
6.5133758 -5.2505803 -0.93250215
7.4772434 -6.027576 -0.53645444
7.9675903 -6.4228559 0
7.9201641 -6.3846245 0.56823176
2.242084 -1.8029296 -0.94865721
2.5719218 -2.0681624 -0.91054714
3.08215 -2.4784529 -0.8761602
4.100729 -3.297524 -0.87726635
6.5297918 -5.2508092 -0.93394333
7.4824905 -6.0169039 -0.53630888
7.9773717 -6.4148531 0
7.9258418 -6.3734164 0.56808621
2.2269108 -1.786302 -0.94132334
2.5705011 -2.0619109 -0.90916145
3.0871303 -2.4763215 -0.87672466
4.1087112 -3.2957759 -0.87812144
6.5401626 -5.2461491 -0.93451941
7.4816551 -6.0013609 -0.53572887
7.9729323 -6.3954358 0
7.9294872 -6.3605866 0.56779623
2.2155643 -1.772805 -0.9356209
2.5788691 -2.0635071 -0.91123861
3.0980558 -2.4789393 -0.87897623
4.1106882 -3.2892067 -0.87769389
6.5404439 -5.2333994 -0.93365532
7.4990435 -6.000432 -0.53645444
7.9867525 -6.390677 0
7.9391942 -6.3526225 0.56794125
2.2408779 -1.788623 -0.94539738
2.5794017 -2.058826 -0.91054714
3.1109765 -2.4831181 -0.8817901
4.1146598 -3.2842374 -0.87769389
6.5447354 -5.2238746 -0.93336624
7.5083175 -5.9929857 -0.53659946
7.9802284 -6.3696556 0
7.9448352 -6.3414054 0.56779623
2.2140393 -1.7628256 -0.93317521
2.5779586 -2.0525794 -0.90916145
3.1000581 -2.4682767 -0.87784934
4.1186247 -3.2792633 -0.87769389
6.5631871 -5.2256322 -0.9350965
7.5114837 -5.980669 -0.53630888
7.9919949 -6.3632536 0
7.9565535 -6.3350348 0.56808621
2.2189691 -1.7645614 -0.93480361
2.569382 -2.0432155 -0.90570134
3.0995619 -2.4648235 -0.87728703
4.1246276 -3.279973 -0.87855065
6.5683656 -5.2232742 -0.93538451
7.5252705 -5.984221 -0.53703499
8.0019503 -6.3632851 0
7.9481807 -6.3205261 0.56721568
2.2443361 -1.7803111 -0.94458318
2.5895364 -2.0541401 -0.91193014
3.1065154 -2.4642317 -0.87841171
4.1165171 -3.2654116 -0.87598199
6.5787287 -5.2185516 -0.93596166
7.5182438 -5.9638186 -0.53601891
8.0035152 -6.3487582 0
7.9517441 -6.3076911 0.56692564
2.2348599 -1.7683989 -0.93969494
2.5900512 -2.0494542 -0.91123861
3.1114891 -2.4620574 -0.87897623
4.1325421 -3.2699957 -0.87855065
6.5809693 -5.207386 -0.93538451
7.5295157 -5.9579515 -0.53630888
8.0030165 -6.332623 0
7.9654675 -6.3029108 0.56736064
2.2234128 -1.7549765 -0.93398941
2.5984352 -2.0509877 -0.91331577
3.1084764 -2.4535718 -0.87728703
4.1284299 -3.2586381 -0.87683874
6.585228 -5.1978292 -0.9350965
7.5346713 -5.9472408 -0.53616393
8.0065813 -6.3197265 0
7.9669642 -6.2884564 0.56692564
2.2313592 -1.7568771 -0.9364351
2.5851426 -2.0354309 -0.9077785
3.1074421 -2.4466672 -0.8761602
4.1485 -3.2663517 -0.88026249
6.605731 -5.2010703 -0.93711483
7.5357332 -5.9333143 -0.53572887
8.0101175 -6.3068247 0
7.96843 -6.2740016 0.56649011
2.2334805 -1.7541796 -0.9364351
2.6093049 -2.0493526 -0.91539294
3.1243858 -2.4538982 -0.88010091
4.1362929 -3.2486517 -0.87683874
6.5977702 -5.1819005 -0.9350965
7.5428972 -5.9242048 -0.53572887
8.0136433 -6.2939296 0
7.9780469 -6.2659721 0.56663513
2.2336547 -1.7499567 -0.9356209
2.5939999 -2.032269 -0.90916145
3.1113474 -2.4375851 -0.87559783
4.1482983 -3.2499843 -0.87855065
6.5958824 -5.1675439 -0.93394333
7.5479984 -5.9134793 -0.53558332
8.0171413 -6.2810287 0
7.9856124 -6.2563276 0.56663513
2.231869 -1.7442098 -0.93398941
2.6043603 -2.0353124 -0.91193014
3.1222987 -2.4400823 -0.87784934
4.1562638 -3.2481277 -0.87940574
6.5960059 -5.1547909 -0.93307823
7.5633278 -5.9107547 -0.53616393
8.0288296 -6.2745452 0
7.993166 -6.2466741 0.56663513
2.2203281 -1.7308732 -0.92828387
2.604841 -2.0306232 -0.91123861
3.1372724 -2.445684 -0.88122773
4.1642385 -3.246263 -0.88026249
6.6042671 -5.1484056 -0.93336624
7.5622668 -5.8952212 -0.53558332
8.0281954 -6.2584391 0
7.9925108 -6.2306209 0.56605452
2.2243745 -1.7297107 -0.92910117
2.6152146 -2.0336344 -0.91400725
3.1342058 -2.4372106 -0.87953854
4.1600518 -3.2349255 -0.87855065
6.6166105 -5.1451864 -0.9342314
7.5755405 -5.8908663 -0.53601891
8.0398569 -6.2519264 0
