# .PCD v0.7 - Point Cloud Data file format
VERSION 0.7
FIELDS x y z
SIZE 4 4 4
TYPE F F F
COUNT 1 1 1
WIDTH 1585
HEIGHT 1
VIEWPOINT 0 0 0 1 0 0 0
POINTS 1585
DATA ascii
-1.7541771 3.5589259 -0.87897623
-2.4671361 5.0053983 -0.93033099
-3.4837773 7.0679893 -0.87830544
-3.5189474 7.1393433 -0.44458577
-3.3475628 6.7916331 0
-4.7089849 9.5537262 0.59493577
-1.2980926 2.6256032 -0.96577072
-1.5004729 3.0349503 -0.93407929
-1.7562217 3.5522439 -0.87784934
-2.4629443 4.9817052 -0.9264797
-3.5003402 7.0800071 -0.88032371
-3.5379345 7.1560478 -0.44589189
-3.3615324 6.7992458 0
-4.6963425 9.4991159 0.59188795
-1.3040655 2.6336782 -0.96903056
-1.495629 3.0205581 -0.92992765
-1.7594938 3.553457 -0.87841171
-2.4727902 4.9940233 -0.9290483
-3.5080614 7.084847 -0.88118887
-3.5480213 7.1655498 -0.44661745
-3.3841166 6.8345299 0
-4.7539654 9.6010628 0.59841913
-1.2929556 2.6033256 -0.95843679
-1.5137838 3.0479562 -0.93892509
-1.7694407 3.5627134 -0.88122773
-2.4833901 5.0002284 -0.93076015
-3.5028133 7.0528049 -0.87772936
-3.538188 7.1240311 -0.44429576
-3.3946855 6.835093 0
-0 0 0
-1.304917 2.6194599 -0.96495652
-1.4984496 3.0079527 -0.92715901
-1.771476 3.5560198 -0.88010091
-2.4871387 4.9926243 -0.92990339
-3.5136371 7.0531931 -0.87830544
-3.5363624 7.0988111 -0.44298911
-3.4087431 6.8426313 0
-0 0 0
-1.290405 2.5825057 -0.95191711
-1.5054438 3.012866 -0.92923349
-1.7689594 3.5402434 -0.87672466
-2.4954665 4.9942126 -0.93076015
-3.522157 7.0489426 -0.87830544
-3.5623603 7.1294017 -0.44516632
-3.4077024 6.8198829 0
-0 0 0
-1.3212091 2.6361833 -0.97229046
-1.5023409 2.997592 -0.92508185
-1.7743732 3.5403728 -0.87728703
-2.4968984 4.9820137 -0.9290483
-3.5329916 7.0493107 -0.87888253
-3.5814493 7.145997 -0.44647244
-3.41711 6.8180938 0
-0 0 0
-1.3021915 2.5904191 -0.95599115
-1.503706 2.9912872 -0.92369622
-1.7797898 3.5404942 -0.87784934
-2.5086801 4.990459 -0.93118775
-3.5356994 7.033484 -0.87744135
-3.6192567 7.1997027 -0.45010078
-3.4417078 6.846509 0
-0 0 0
-1.3142227 2.6064994 -0.96251088
-1.5073193 2.9894681 -0.92369622
-1.777205 3.5247326 -0.87447315
-2.5147083 4.9874239 -0.93118775
-3.5500169 7.0407524 -0.87888253
-3.6338017 7.206923 -0.45082635
-3.4452913 6.8330498 0
-0 0 0
-1.3129095 2.596087 -0.95925099
-1.5301768 3.0257013 -0.9354623
-1.7814626 3.5225825 -0.87447315
-2.5172563 4.9775071 -0.92990339
-3.5515156 7.0226045 -0.87715226
-3.6624415 7.2419443 -0.45329359
-3.4394512 6.801013 0
-0 0 0
-1.3194007 2.6011136 -0.96169668
-1.5043262 2.9656825 -0.91746742
-1.7903154 3.5294917 -0.87672466
-2.5244288 4.9767489 -0.93033099
-3.5635099 7.0252304 -0.87801743
-3.6641388 7.2236137 -0.45242304
-3.458261 6.817739 0
-0 0 0
-1.3270258 2.6083291 -0.96495652
-1.5192869 2.986227 -0.92439038
-1.78997 3.5182672 -0.87447315
-2.5269516 4.9668379 -0.9290483
-3.562613 7.0024772 -0.87571108
-3.685822 7.2446499 -0.45401913
-3.4653172 6.8112378 0
-0 0 0
-1.3223114 2.5913107 -0.95925099
-1.51605 2.9709771 -0.92023605
-1.7884464 3.5047877 -0.87165928
-2.5376184 4.9729271 -0.93076015
-3.5757742 7.0073829 -0.87686425
-3.687489 7.2263083 -0.45314857
-3.472363 6.8047299 0
-0 0 0
-1.3322002 2.6029165 -0.96414232
-1.5299246 2.9892402 -0.92646486
-1.7961496 3.5094032 -0.87334627
-2.5482993 4.9789891 -0.93247038
-3.5830612 7.0007567 -0.87657619
-3.6926651 7.2149057 -0.45271301
-3.4817672 6.8028436 0
-0 0 0
-1.3229271 2.5771158 -0.95517695
-1.5335355 2.9873893 -0.92646486
-1.803871 3.514014 -0.87503546
-2.5484531 4.9644899 -0.93033099
-3.5879729 6.9895172 -0.87571108
-3.7073123 7.2219949 -0.45343858
-3.4852307 6.7893705 0
-0 0 0
-1.3328307 2.5887043 -0.96006829
-1.5359967 2.9833059 -0.92577332
-1.8034632 3.5027955 -0.87278396
-2.545049 4.9431481 -0.92690724
-3.5940502 6.9805818 -0.875135
-3.7029555 7.1921043 -0.45184246
-3.4981968 6.7944098 0
-0 0 0
-1.3336873 2.5826957 -0.95843679
-1.5303916 2.9636149 -0.92023605
-1.8146871 3.5141554 -0.8761602
-2.5557313 4.949193 -0.92861909
-3.6012921 6.9739294 -0.87484592
-3.717603 7.1991663 -0.45256802
-3.5111804 6.7994275 0
-0 0 0
-1.3390826 2.5854759 -0.96006829
-1.5351241 2.963989 -0.92092752
-1.8189319 3.51196 -0.8761602
-2.5605302 4.9438243 -0.92819154
-3.6061509 6.9626889 -0.87398183
-3.7334671 7.208509 -0.45343858
-3.5289688 6.8136673 0
-0 0 0
-1.3444822 2.5882385 -0.96169668
-1.5421749 2.9688132 -0.92300469
-1.8196636 3.5030017 -0.87447315
-2.5676842 4.9430027 -0.92861909
-3.6181347 6.9652061 -0.87484592
-3.7553515 7.2293596 -0.45503527
-3.5335991 6.8024678 0
-0 0 0
-1.3327638 2.5581186 -0.95110291
-1.5515558 2.97807 -0.92646486
-1.8227222 3.4985492 -0.87391078
-2.5748446 4.9421797 -0.9290483
-3.6229665 6.9539542 -0.87398183
-3.7808902 7.2570744 -0.45706692
-3.5622568 6.8374276 0
-0 0 0
-1.3404323 2.5652688 -0.95436275
-1.5365678 2.9406254 -0.91539294
-1.8245925 3.4918358 -0.87278396
-2.5772467 4.9322371 -0.927764
-3.6277716 6.9426918 -0.87311673
-3.805299 7.2824373 -0.45895362
-3.5584657 6.8100567 0
-0 0 0
-1.3389418 2.5548904 -0.95110291
-1.5505996 2.9587634 -0.92162168
-1.8288103 3.4896288 -0.87278396
-2.5855854 4.9336624 -0.92861909
-3.6301558 6.9268508 -0.87167549
-3.8297794 7.3077607 -0.46084082
-4.8991017 9.3481798 0
-0 0 0
-1.3581249 2.5838957 -0.96251088
-1.5670097 2.9813089 -0.92923349
-1.8342066 3.4896634 -0.87334627
-2.5963221 4.9396238 -0.93033099
-3.645741 6.936192 -0.87340474
-3.8482735 7.3215199 -0.46200138
-4.9091797 9.3399429 0
-0 0 0
-1.361246 2.5822527 -0.96251088
-1.5612516 2.961659 -0.92369622
-1.837238 3.485199 -0.87278396
-2.6058812 4.9432979 -0.93161529
-3.6456797 6.9157724 -0.87138748
-3.8607538 7.3237624 -0.46243694
-4.9374542 9.3662395 0
-0 0 0
-1.3562819 2.5653174 -0.95680845
-1.5718669 2.9730818 -0.92785048
-1.8366975 3.4739914 -0.87053239
-2.5998564 4.9174557 -0.92733645
-3.6516135 6.9067845 -0.87081039
-3.8768897 7.3328795 -0.46330807
-4.9220095 9.3096552 0
-0 0 0
-1.3555162 2.5601246 -0.95517695
-1.5630985 2.9521794 -0.92162168
-1.8387959 3.4728811 -0.87053239
-2.6028266 4.915884 -0.92733645
-3.6509442 6.8954339 -0.86965722
-3.878885 7.3259387 -0.46301752
-4.9446797 9.3388748 0
-0 0 0
-1.3597667 2.5606656 -0.95599115
-1.5584272 2.9347763 -0.91677594
-1.8453765 3.4751494 -0.87165928
-2.6159861 4.9263344 -0.92990339
-3.6641257 6.9001551 -0.87081039
-3.2625923 6.1440015 -0.388565
-4.9498587 9.3214035 0
-0 0 0
-1.3628597 2.5590208 -0.95599115
-1.5761235 2.9594629 -0.92508185
-1.8531539 3.4796386 -0.87334627
-2.6086619 4.8982444 -0.9251954
-3.6651678 6.8820295 -0.86908114
-3.2663484 6.133172 -0.38812944
-4.9733496 9.3383818 0
-0 0 0
-1.3810921 2.5857198 -0.96658802
-1.5844262 2.9664078 -0.92785048
-1.8513727 3.466193 -0.87053239
-2.6218374 4.908679 -0.927764
-3.6612928 6.8547769 -0.86619771
-3.2908933 6.1613045 -0.39016113
-4.9809499 9.3254766 0
-0 0 0
-1.3713763 2.5600815 -0.95762265
-1.5761607 2.9423723 -0.92092752
-1.8543609 3.4617157 -0.86997008
-2.6265557 4.9032469 -0.92733645
-3.6536968 6.8207107 -0.86245018
-3.2971098 6.155035 -0.39001611
-4.9922142 9.3194513 0
-5.5214481 10.307424 0.65313375
-1.3768059 2.562773 -0.95925099
-1.5761564 2.9338419 -0.91885304
-1.8585423 3.4594724 -0.86997008
-2.6312599 4.8978014 -0.92690724
-3.4660921 6.4517498 -0.8163256
-3.2897875 6.1235785 -0.38827443
-5.0108638 9.3271723 0
-5.5375891 10.307613 0.65356934
-1.3740408 2.55023 -0.95517695
-1.5785114 2.929729 -0.91816157
-1.8615171 3.4549897 -0.86940771
-2.6286564 4.8788056 -0.9239127
-3.4027359 6.3155036 -0.79960626
-3.3058131 6.1356139 -0.38929057
-5.0122547 9.3027821 0
-4.798245 8.9055786 0.56503844
-1.3653738 2.5268276 -0.94702888
-1.5880122 2.938853 -0.92162168
-1.8656904 3.4527378 -0.86940771
-2.6369879 4.8801384 -0.92476779
-3.3992994 6.2909098 -0.79701191
-3.302108 6.1110425 -0.38798445
-5.0259633 9.3012934 0
-4.8324733 8.9432116 0.56779623
-1.3790233 2.5447311 -0.95436275
-1.5915622 2.9369321 -0.92162168
-1.8734894 3.4571764 -0.87109476
-2.6392169 4.8701844 -0.92348516
-3.3884122 6.2526851 -0.7926873
-3.3181524 6.1230335 -0.389
-5.0334826 9.2883558 0
-4.8247042 8.9030952 0.56561899
-1.3726553 2.5256901 -0.94784302
-1.5927114 2.9305942 -0.92023605
-1.8740288 3.4482191 -0.86940771
-2.6499982 4.8760052 -0.9251954
-3.394731 6.246316 -0.79239929
-3.3081799 6.0870614 -0.38696831
-5.052156 9.2959824 0
-5.901248 10.858315 0.69028783
-1.3792558 2.5305424 -0.95028871
-1.5878503 2.913254 -0.91539294
-1.8769745 3.4437146 -0.8688432
-2.648519 4.8592796 -0.9226284
-3.3997979 6.2376628 -0.79182214
-3.3329396 6.1149969 -0.389
-5.0434566 9.2533092 0
-5.9230652 10.867142 0.69130337
-1.3906074 2.544049 -0.95599115
-1.5985868 2.9245374 -0.91954458
-1.8799167 3.4392169 -0.86828089
-2.6642387 4.8740959 -0.92605215
-3.4247026 6.2653284 -0.79585874
-3.3365908 6.1041317 -0.388565
-3.3333883 6.0982733 0
-5.9424219 10.871374 0.69202894
-1.3741312 2.4995356 -0.94050914
-1.5971881 2.9052744 -0.91469878
-1.8918958 3.4413457 -0.86997008
-2.6673515 4.8518944 -0.92305595
-2.9925253 5.4433832 -0.69236708
-3.3738625 6.137033 -0.39117724
-3.3694286 6.1289678 0
-5.9937129 10.902523 0.69493169
-1.3819237 2.506531 -0.94376898
-1.5958524 2.8945544 -0.91193014
-1.887464 3.4234791 -0.86602932
-2.6719739 4.8464222 -0.9226284
-3.0078382 5.4556122 -0.69438428
-3.3812754 6.1329517 -0.39117724
-3.3554721 6.0861502 0
-6.0068822 10.895273 0.69493169
-1.393324 2.5200026 -0.94947451
-1.6042044 2.901406 -0.91469878
-1.8928275 3.4234176 -0.86659169
-2.6803145 4.8476872 -0.92348516
-2.9969091 5.4202886 -0.69034874
-3.0228238 5.4671583 -0.34894374
-3.3653445 6.0866504 0
-6.032618 10.910751 0.69638336
-1.4035569 2.5312822 -0.95436275
-1.6235232 2.9279861 -0.92369622
-1.9006603 3.4277966 -0.86828089
-2.6899011 4.8511739 -0.92476779
-3.0109794 5.4302311 -0.69207793
-3.0269098 5.4589615 -0.34865373
-3.3663828 6.0711932 0
-6.0508375 10.912544 0.69696397
-1.4150238 2.5447073 -0.96006829
-1.6038983 2.8843696 -0.91054714
-1.8961605 3.4099593 -0.86434227
-2.6895242 4.8367047 -0.9226284
-3.0137713 5.4198141 -0.69121391
-3.0196118 5.4303174 -0.34705707
-3.9782457 7.1542759 0
-6.0804338 10.934745 0.69885063
-1.3916123 2.4955013 -0.94213748
-1.6183779 2.9021473 -0.91677594
-1.9039884 3.4143167 -0.86602932
-2.6916146 4.8267231 -0.9213441
-3.0127571 5.4026103 -0.68948358
-3.0198445 5.4153199 -0.34633151
-3.9742146 7.1267385 0
-6.0961704 10.931925 0.69914061
-1.4127234 2.5261779 -0.95436275
-1.6133107 2.8848603 -0.91193014
-1.9105952 3.4164531 -0.86715621
-2.7024567 4.8324294 -0.92305595
-3.0218103 5.4034853 -0.69006073
-3.0200455 5.4003296 -0.34560594
-4.0082283 7.1673603 0
-6.1195216 10.942694 0.70030171
-1.4169827 2.5266228 -0.95517695
-1.6167953 2.8829088 -0.91193014
-1.9134755 3.4119196 -0.86659169
-2.6995075 4.8134937 -0.92006141
-3.0296011 5.4020839 -0.69034874
-3.0303779 5.4034691 -0.34604093
-4.0347052 7.1942859 0
-6.1352787 10.93982 0.70059174
-1.4030746 2.4947531 -0.94376898
-1.6227394 2.8853307 -0.91331577
-1.9138637 3.4029675 -0.86490464
-2.7090933 4.8169346 -0.9213441
-3.0386646 5.4029326 -0.69092584
-3.022897 5.374897 -0.34444484
-4.1148324 7.3164253 0
-6.1739683 10.977695 0.70349449
-1.4154963 2.5132847 -0.95110291
-1.6220177 2.8799736 -0.91193014
-1.9159192 3.4018104 -0.86490464
-2.712003 4.8152971 -0.9213441
-3.0457323 5.4078503 -0.69178993
-0 0 -0
-4.1831055 7.4273129 0
-6.1882524 10.987552 0.70436561
-1.4246085 2.5223308 -0.95517695
-1.6254964 2.8780117 -0.91193014
-1.9200282 3.399493 -0.86490464
-2.7115083 4.8008428 -0.91920465
-3.0573523 5.4131742 -0.6929431
-0 0 -0
-4.1959176 7.4290533 0
-6.2258 11.023048 0.70712286
-1.4276551 2.5206077 -0.95517695
-1.6302128 2.8782346 -0.9126243
-1.9228834 3.3949618 -0.86434227
-2.7223678 4.8064976 -0.9209165
-3.0728149 5.4252324 -0.69496143
-0 0 -0
-4.2305431 7.4692678 0
-4.9188833 8.6845722 0.55749172
-1.4026275 2.4694569 -0.9364351
-1.6324468 2.8740752 -0.91193014
-1.9257257 3.3904202 -0.86377782
-2.7332449 4.8121333 -0.9226284
-3.0729821 5.4102726 -0.69352025
-0 0 -0
-4.2279983 7.4437866 0
-4.9357886 8.6899176 0.55821729
-1.4153966 2.4849415 -0.94295484
-1.6321968 2.865567 -0.9098556
-1.9298209 3.3880908 -0.86377782
-2.7352445 4.8021331 -0.9213441
-3.6389067 6.3886476 -0.81949711
-3.0379295 5.3335419 -0.34284815
-4.24085 7.4454498 0
-6.2875786 11.03879 0.70959008
-1.4306545 2.5046871 -0.95110291
-1.6393875 2.8701217 -0.91193014
-1.9313953 3.3813481 -0.86265308
-2.739773 4.7965975 -0.9209165
-3.6248162 6.3460674 -0.81459641
-3.046952 5.3343844 -0.34313872
-4.2614594 7.4606566 0
-6.3112226 11.049234 0.71075124
-1.4263115 2.4900925 -0.94621468
-1.6453506 2.8724968 -0.91331577
-1.9354795 3.3790119 -0.86265308
-2.7493956 4.7999682 -0.92220086
-3.6376238 6.3506603 -0.81574959
-3.0443535 5.3149133 -0.34212261
-4.2627125 7.441957 0
-6.3400669 11.068658 0.71249288
-1.4293193 2.4883673 -0.94621468
-1.6513169 2.8748534 -0.91469878
-1.9408253 3.3788719 -0.86321545
-2.7513566 4.7899628 -0.9209165
-3.6504478 6.3552318 -0.81690276
-3.0494802 5.30898 -0.3419776
-4.2626262 7.4210014 0
-6.3586135 11.070002 0.71307343
-1.4458915 2.5101912 -0.95517695
-1.6535385 2.8706841 -0.91400725
-1.9423727 3.3721251 -0.86209077
-2.7571423 4.7866349 -0.9209165
-3.6529601 6.3418512 -0.81574959
-3.0545971 5.3030419 -0.34183261
-4.2443128 7.3684897 0
-6.383656 11.082573 0.71437955
-1.4353285 2.484906 -0.94621468
-1.6670444 2.8860633 -0.91954458
-1.9477154 3.3719738 -0.86265308
-2.7577879 4.7744083 -0.91920465
-3.6670876 6.348629 -0.81719077
-3.0635996 5.303843 -0.34212261
-4.2414989 7.3430762 0
-6.410037 11.097348 0.71583068
-1.4432852 2.4917247 -0.94947451
-1.6592146 2.864511 -0.91331577
-1.9543331 3.374011 -0.86377782
-2.7661307 4.7755194 -0.92006141
-3.6799417 6.3531461 -0.81834394
-3.0634952 5.288897 -0.34139705
-4.2451506 7.3289375 0
-6.4338603 11.107582 0.71699178
-1.437604 2.4750164 -0.94376898
-1.6727552 2.879859 -0.91885304
-1.9609634 3.3760457 -0.86490464
-2.7757633 4.7788267 -0.9213441
-3.6954126 6.3621187 -0.8200742
-3.0646632 5.2762041 -0.3408165
-4.2618484 7.3373098 0
-6.4577179 11.117776 0.71815288
-1.4443265 2.4796867 -0.94621468
-1.6585536 2.8474817 -0.90916145
-1.9637636 3.3714802 -0.86434227
-2.7673268 4.7510748 -0.91663766
-3.709605 6.3688216 -0.82151538
-3.0736492 5.2769833 -0.34110647
-4.2602324 7.3141642 0
-6.4829159 11.13017 0.719459
-1.4448262 2.4736671 -0.94458318
-1.6683233 2.8563135 -0.9126243
-1.9614247 3.3581283 -0.86152625
-2.2189541 3.7990408 -0.73347586
-3.723819 6.3754997 -0.82295662
-3.0931311 5.2957072 -0.34255815
-4.2703781 7.3112559 0
-6.5120864 11.149254 0.7212007
-1.4615558 2.4953816 -0.95354861
-1.6616299 2.8369772 -0.90708697
-1.9654808 3.3557558 -0.86152625
-2.2585735 3.8561664 -0.74503142
-3.7419775 6.3888502 -0.8252629
-3.0877097 5.2717886 -0.34125203
-4.2686868 7.2881255 0
-6.5294943 11.148106 0.72163624
-1.4608136 2.4872181 -0.95110291
-1.6714082 2.8457816 -0.91054714
-1.9695342 3.3533785 -0.86152625
-2.2593298 3.846792 -0.74374712
-3.7457635 6.3776312 -0.8243978
-3.1059196 5.2882171 -0.34255815
-4.2735348 7.276228 0
-6.5561171 11.16261 0.72308737
-1.4487664 2.4598949 -0.94132334
-1.668481 2.8329535 -0.90708697
-1.9748778 3.3531921 -0.86209077
-0 0 -0
-2.2676909 3.8503664 -0.49806738
-2.2736783 3.8605325 -0.25025392
-4.2625165 7.2374282 0
-6.5814667 11.174829 0.72439349
-1.46682 2.4836805 -0.95110291
-1.6846579 2.8525329 -0.91400725
-1.9815098 3.3551748 -0.86321545
-0 0 -0
-2.2605054 3.8275819 -0.49547303
-2.2928777 3.8823957 -0.25185058
-2.2769549 3.8554349 0
-6.6028953 11.180297 0.72526461
-1.4622657 2.4691505 -0.94621468
-1.6868263 2.8483386 -0.91331577
-1.976498 3.337472 -0.85927469
-0 0 -0
-0 0 -0
-2.3015406 3.886332 -0.25228614
-0 0 0
-6.6322832 11.199131 0.72700572
-1.4690306 2.4737511 -0.94865721
-1.6966704 2.8570817 -0.91677594
-1.9844226 3.3416376 -0.86096388
-0 0 -0
-0 0 -0
-0 0 -0
-0 0 0
-6.6537738 11.204518 0.72787684
-1.4694918 2.4677312 -0.94702888
-1.6988391 2.8528762 -0.91608441
-1.9845575 3.3326859 -0.85927469
-2.2825289 3.8330719 -0.74374712
-0 0 -0
-0 0 -0
-0 0 0
-6.6673074 11.19647 0.72787684
-1.4851414 2.4871705 -0.95517695
-1.7074298 2.8594372 -0.91885304
-1.9898894 3.3324733 -0.8598392
-2.3029518 3.8567595 -0.74888271
-0 0 -0
-0 0 -0
-0 0 0
-6.6768332 11.181711 0.72744125
-1.4805299 2.4726551 -0.95028871
-1.692838 2.827234 -0.90916145
-1.9991359 3.3387864 -0.86209077
-2.3511274 3.9266529 -0.7630052
-2.2822611 3.8116381 -0.49518502
-0 0 -0
-0 0 0
-6.6649809 11.131284 0.72468406
-1.4835165 2.4708643 -0.95028871
-1.7078792 2.8445504 -0.91539294
-1.9966252 3.3254702 -0.85927469
-2.3928645 3.9854245 -0.77498668
-2.3068321 3.8421338 -0.49950856
-2.3142774 3.8545344 -0.25112504
-0 0 0
-6.643652 11.065305 0.72091067
-1.4913754 2.4805567 -0.95436275
-1.7044266 2.8349178 -0.9126243
-1.9960179 3.3199122 -0.85815001
-2.3939502 3.9817801 -0.77455908
-2.3264823 3.8695629 -0.50325722
-2.3166058 3.8531353 -0.25112504
-2.2910783 3.8106766 0
-6.6302514 11.027883 0.71873349
-1.4879924 2.4681714 -0.95028871
-1.711733 2.8392956 -0.91469878
-2.0026491 3.3218458 -0.85927469
-2.4053855 3.9898748 -0.77669853
-3.2739067 5.4305134 -0.70678109
-2.3158934 3.8414321 -0.25054446
-2.295681 3.8079054 0
-6.6797905 11.079941 0.72265184
-1.4871365 2.4600241 -0.94784302
-1.6995878 2.8114617 -0.90639281
-2.0053482 3.3172512 -0.85871238
-2.4141901 3.9935582 -0.77798283
-3.2858133 5.4353991 -0.70793319
-3.1673834 5.2394924 -0.3419776
-5.1611691 8.5376167 0
-6.6851106 11.058523 0.72178125
-1.4901078 2.4582255 -0.94784302
-1.7068864 2.8158443 -0.90846997
-2.0093551 3.3148258 -0.85871238
-2.4216776 3.9950328 -0.77883959
-3.2950625 5.435853 -0.70851034
-3.1844878 5.253438 -0.34313872
-5.1701336 8.52915 0
-6.68365 11.025992 0.72018456
-1.4982121 2.4648714 -0.95110291
-1.7063771 2.8073463 -0.90639281
-2.0146775 3.3145647 -0.85927469
-2.4278352 3.9942954 -0.77926713
-3.30566 5.4385004 -0.7093755
-3.1854346 5.2407045 -0.34255815
-5.1925998 8.5429106 0
-6.6942711 11.013473 0.71989459
-1.4806082 2.4292912 -0.93806344
-1.7110775 2.8074307 -0.90708697
-2.0133915 3.3034492 -0.85702318
-2.4286504 3.9847806 -0.77798283
-3.320303 5.4477491 -0.71110469
-3.2255716 5.2923198 -0.34618652
-5.1975007 8.5277405 0
-6.7156849 11.018684 0.72076511
-1.5028766 2.4591367 -0.95028871
-1.7079284 2.7946601 -0.90362686
-2.0226815 3.3096862 -0.85927469
-2.4307888 3.9774666 -0.77712774
-3.3228354 5.4371104 -0.71023953
-3.2739654 5.3571448 -0.35068542
-5.1901598 8.492588 0
-6.7059603 10.972872 0.7182979
-1.5110126 2.4657485 -0.95354861
-1.7257193 2.816118 -0.91123861
-2.0173898 3.2920806 -0.85533613
-2.4302278 3.9657714 -0.77541584
-3.3321083 5.4375062 -0.71081668
-3.2967281 5.3797717 -0.3524271
-5.1908979 8.4707756 0
-6.7110705 10.951471 0.71742737
-1.5062246 2.4512818 -0.94865721
-1.7278086 2.8118954 -0.91054714
-2.0280159 3.300463 -0.85815001
-2.4377031 3.9672022 -0.77627099
-3.3535671 5.4577107 -0.71398705
-3.3113859 5.3890634 -0.35329765
-5.2011294 8.4644966 0
-6.7338219 10.958854 0.71844345
-1.5065949 2.4452555 -0.94702888
-1.7246263 2.7991281 -0.90708697
-2.0373337 3.306663 -0.86040157
-2.4451907 3.9686291 -0.77712774
-3.3778009 5.4822879 -0.71773565
-3.3206236 5.3894868 -0.35358819
-5.2004371 8.4404888 0
-6.7129841 10.895405 0.71481514
-1.5147446 2.4518442 -0.95028871
-1.7345989 2.8077116 -0.91054714
-2.0399935 3.3020394 -0.8598392
-2.4499843 3.9656715 -0.77712774
-3.3912187 5.4892025 -0.71917689
-3.3257637 5.3832536 -0.35344264
-5.2119985 8.4364109 0
-6.7056575 10.854125 0.7126379
-1.5059931 2.4311039 -0.94295484
-1.7247812 2.7842906 -0.90362686
-2.0453188 3.3017302 -0.86040157
-2.4507174 3.9561596 -0.77584344
-3.4278119 5.5334697 -0.72551876
-3.3363724 5.3858604 -0.3538782
-5.2167063 8.421258 0
-6.7324486 10.868099 0.71408898
-1.4997995 2.4145837 -0.9372493
-1.7268167 2.7800672 -0.9029327
-2.0318792 3.271199 -0.85308462
-2.4609139 3.9619179 -0.77755529
-3.4522357 5.5578842 -0.72926629
-3.3456225 5.3862438 -0.35416877
-5.2241292 8.4105225 0
-6.75106 10.868786 0.71466959
-1.5118637 2.4274576 -0.94295484
-1.7368047 2.7886243 -0.90639281
-2.0371723 3.2708962 -0.85364693
-2.4616265 3.9524024 -0.77627099
-3.4575827 5.5515156 -0.72897828
-3.3603678 5.3954268 -0.35503933
-5.2301641 8.397583 0
-6.7298465 10.805482 0.71104121
-1.4990854 2.4004722 -0.93317521
-1.7335299 2.7758861 -0.9029327
-2.045162 3.2748997 -0.85533613
-2.4623199 3.9428909 -0.77498668
-3.4683943 5.5539088 -0.72984231
-3.3641346 5.3869591 -0.35474932
-5.2361703 8.3846331 0
-6.7305117 10.777509 0.7097351
-1.5216569 2.4300752 -0.94539738
-1.7422086 2.7822948 -0.90570134
-2.0450709 3.2659636 -0.85364693
-2.4698098 3.9442685 -0.77584344
-0 0 -0
-3.3761575 5.3916993 -0.35532987
-5.2435327 8.3738842 0
-5.1397905 8.208209 0.54094666
-1.5167091 2.4156795 -0.94050914
-1.7482398 2.784441 -0.90708697
-2.0476658 3.2613404 -0.85308462
-2.4677501 3.930413 -0.77370399
-3.4721823 5.5301838 -0.72782511
-3.3895769 5.3986173 -0.35605544
-5.2508821 8.3631382 0
-5.1759582 8.2438068 0.54370445
-1.5117288 2.4012995 -0.9356209
-1.7516029 2.7823265 -0.90708697
-2.0488951 3.254559 -0.85195774
-2.4765964 3.9339395 -0.77498668
-3.4761033 5.5216022 -0.72724795
-3.4071724 5.4121094 -0.35721654
-5.2554374 8.3479786 0
-5.1845274 8.2353411 0.5435589
-1.5080287 2.3890147 -0.93154377
-1.7563014 2.7823274 -0.9077785
-2.0568962 3.2585289 -0.85364693
-2.4813478 3.930944 -0.77498668
-3.4855366 5.5217767 -0.72782511
-3.4095471 5.4013944 -0.35678101
-5.2627449 8.337225 0
-5.1847692 8.2136965 0.54254335
-1.5122399 2.3892853 -0.93236107
-1.7542952 2.771724 -0.90500981
-2.0621896 3.2581861 -0.8542093
-2.481981 3.9214418 -0.77370399
-3.490824 5.5153775 -0.72753704
-3.406342 5.3818994 -0.35576487
-5.2853398 8.3506489 0
-5.2447128 8.286459 0.54776782
-1.5111516 2.3811939 -0.92991537
-1.7603289 2.7738345 -0.90639281
-2.0620444 3.2492621 -0.85252225
-2.4880917 3.9206054 -0.77413154
-3.4947112 5.5067835 -0.72695994
-3.4100606 5.3733959 -0.35547489
-5.3051834 8.3596315 0
-5.2909245 8.337163 0.55154169
-1.5219864 2.3918736 -0.93480361
-1.7582972 2.7632473 -0.90362686
-2.065969 3.2467682 -0.85252225
-2.5010934 3.9305866 -0.77669853
-3.4860926 5.4785595 -0.72378951
-3.4151573 5.3670812 -0.35532987
-5.3236661 8.366394 0
-5.3107553 8.3461037 0.55255729
-1.503513 2.3596931 -0.92258149
-1.769399 2.7769887 -0.90846997
-2.0706582 3.2498012 -0.85364693
-2.4910541 3.9095924 -0.77284724
-3.474112 5.4524555 -0.72061807
-3.4337544 5.3891163 -0.35692599
-5.3455014 8.389514 0
-0 0 0
-1.5369642 2.4057739 -0.94132334
-1.7714039 2.7727368 -0.9077785
-2.0663784 3.2344534 -0.85027075
-2.4971569 3.9087408 -0.77327478
-3.4695578 5.4308167 -0.71831173
-3.4612489 5.4178114 -0.35910323
-5.3374214 8.3545399 0
-0 0 0
-1.53987 2.4039149 -0.94132334
-1.7652792 2.7558045 -0.9029327
-2.0730236 3.2362294 -0.85139543
-2.4963448 3.8970826 -0.77156454
-3.4649563 5.4091969 -0.71600538
-3.4775999 5.4289351 -0.36011878
-5.3559322 8.3612289 0
-7.4298053 11.598784 0.7693848
-1.5481162 2.4103711 -0.94458318
-1.7821679 2.7747824 -0.9098556
-2.0755606 3.2315862 -0.85083306
-2.5065956 3.9026947 -0.77327478
-3.4700933 5.402832 -0.71571738
-3.4855654 5.4269218 -0.36026433
-5.3646264 8.3525639 0
-7.4648738 11.622587 0.77156144
-1.5430009 2.3960347 -0.93969494
-1.7828002 2.7684045 -0.90846997
-2.0822127 3.2333443 -0.85195774
-2.5099208 3.897507 -0.77284724
-3.4822204 5.4073334 -0.71687055
-3.4710159 5.3899345 -0.35808709
-5.3916235 8.3723316 0
-7.4634352 11.589525 0.76996475
-1.5324854 2.3734007 -0.93154377
-1.7752571 2.7493875 -0.9029327
-2.0819871 3.2244284 -0.85027075
-2.5201983 3.9030976 -0.77455908
-3.502779 5.4248466 -0.71975291
-3.4592037 5.3573604 -0.35620043
-4.1609116 6.4441142 0
-7.4830713 11.589231 0.7705453
-1.5595324 2.4088969 -0.94621468
-1.7963009 2.774616 -0.91193014
-2.0844967 3.2197714 -0.84970623
-2.5193322 3.8914301 -0.77284724
-3.5163584 5.4314642 -0.72119409
-3.4501398 5.3291812 -0.35460377
-4.1446528 6.4019451 0
-7.4942479 11.575822 0.77025533
-1.5557095 2.3966391 -0.94213748
-1.7928237 2.7619238 -0.90846997
-2.0925374 3.2236462 -0.85139543
-2.5226359 3.8862321 -0.77241969
-3.5201046 5.4228764 -0.72061807
-3.4678946 5.3424444 -0.35576487
-4.1835561 6.4449525 0
-6.7414603 10.385517 0.69159395
-1.5587978 2.3887367 -0.94050914
-1.7940089 2.7491794 -0.90570134
-2.1031015 3.2228398 -0.85252225
-2.5306187 3.8779767 -0.77199215
-4.140975 6.3457232 -0.84457767
-3.4609172 5.303587 -0.35373321
-4.1792097 6.404315 0
-6.7594395 10.358316 0.69086838
-1.5508573 2.3703055 -0.93398941
-1.7973293 2.7470095 -0.90570134
-2.1014295 3.2117913 -0.85027075
-2.5296807 3.8663237 -0.77028024
-4.1387253 6.325562 -0.8425594
-3.5228031 5.3841963 -0.35939321
-4.1669941 6.3687673 0
-6.7762146 10.356659 0.69130337
-1.5537202 2.3684299 -0.93398941
-1.7951429 2.7364452 -0.9029327
-2.1067011 3.2113724 -0.85083306
-2.5315316 3.8589671 -0.76942348
-4.1506233 6.3270469 -0.8434245
-3.5920193 5.475533 -0.36577937
-4.1547041 6.3332672 0
-6.7872996 10.346292 0.69115835
-1.5552239 2.3644879 -0.93317521
-1.8025852 2.7405641 -0.90500981
-2.1063898 3.2024539 -0.84914386
-2.5446594 3.868778 -0.77199215
-4.1554198 6.3177009 -0.84284741
-3.6171944 5.4994087 -0.36766604
-4.1852355 6.3630319 0
-6.7869463 10.318547 0.68985224
-1.5716844 2.3832362 -0.94132334
-1.7907012 2.7153442 -0.89739537
-2.1130581 3.2041528 -0.85027075
-2.543679 3.8571284 -0.77028024
-4.1545095 6.2997241 -0.84111816
-3.6195436 5.4885244 -0.36723047
-4.2101145 6.3840413 0
-6.8065605 10.321183 0.69057781
-1.5813775 2.3916419 -0.94539738
-1.8050504 2.7299199 -0.9029327
-2.1183281 3.2037146 -0.85083306
-2.5469234 3.8519127 -0.7698527
-4.1678247 6.3033295 -0.84227133
-3.6046741 5.4516325 -0.36505324
-4.2379179 6.409337 0
-6.8634505 10.380137 0.6950767
-1.5815375 2.3856132 -0.94376898
-1.8014178 2.717284 -0.89947253
-2.1179845 3.1947973 -0.84914386
-2.55441 3.8531075 -0.77070779
-4.1754379 6.2982888 -0.84227133
-3.5782399 5.3974671 -0.36171547
-4.2442226 6.4020448 0
-7.1028333 10.714013 0.71800792
-1.5638949 2.3528228 -0.93154377
-1.813035 2.7276452 -0.90362686
-2.1218431 3.1922357 -0.84914386
-2.5562243 3.8457465 -0.7698527
-4.1801791 6.2889271 -0.84169424
-3.5991402 5.4147754 -0.36316657
-0 0 0
-7.151732 10.759521 0.72163624
-1.5612539 2.3427045 -0.92828387
-1.8107644 2.7171018 -0.90085816
-2.1242909 3.1875572 -0.84858155
-2.5608695 3.8426552 -0.7698527
-4.1863418 6.2817211 -0.84140623
-3.5855088 5.3801551 -0.36113489
-0 0 0
-5.2742171 7.9141083 0.53122276
-1.5613399 2.3367102 -0.92665553
-1.8196213 2.7232559 -0.90362686
-2.125315 3.1807587 -0.84745467
-2.5612307 3.8331525 -0.7685684
-4.1953645 6.2788067 -0.84169424
-3.5761259 5.3520508 -0.35953823
-4.2601681 6.375792 0
-5.2895503 7.9163718 0.53180331
-1.5861723 2.3676765 -0.93969494
-1.8284905 2.7293842 -0.90639281
-2.1291568 3.1781883 -0.84745467
-2.5672879 3.8321857 -0.76899594
-4.2087064 6.2823281 -0.84284741
-3.5985003 5.3714743 -0.36113489
-4.2606277 6.3598313 0
-5.3063474 7.9207749 0.53252941
-1.5890321 2.3657582 -0.93969494
-1.8247943 2.7167621 -0.9029327
-2.1301646 3.1713989 -0.84632999
-2.5633311 3.816299 -0.76642895
-4.2134128 6.2729483 -0.84227133
-3.6035404 5.3649673 -0.3609899
-4.2668595 6.35252 0
-5.3028703 7.8949375 0.53122276
-1.5656353 2.3278852 -0.92502713
-1.8152345 2.6990051 -0.89739537
-2.1377525 3.178545 -0.84858155
-2.5713668 3.8232701 -0.76814085
-4.2172017 6.2704015 -0.84227133
-3.6082299 5.3649435 -0.36113489
-4.2866745 6.3736978 0
-5.3134398 7.9003572 0.53180331
-1.5905509 2.3587718 -0.93806344
-1.8184944 2.6968098 -0.89739537
-2.1415915 3.1759596 -0.84858155
-2.5774183 3.8222866 -0.7685684
-4.2189913 6.2567234 -0.84111816
-0 0 -0
-4.3031001 6.3814559 0
-0 0 0
-1.5920169 2.3548026 -0.9372493
-1.8259684 2.7008476 -0.89947253
-2.1425786 3.1691556 -0.84745467
-2.5791566 3.8149123 -0.76771164
-4.2352371 6.2644734 -0.84284741
-3.6313732 5.3712788 -0.36215103
-4.3224688 6.3934999 0
-5.6104779 8.2986355 0.55952394
-1.6017936 2.3631046 -0.94132334
-1.8278242 2.6965647 -0.89878106
-2.1407037 3.1581514 -0.84520316
-2.5866477 3.816047 -0.7685684
-4.2399039 6.2550735 -0.84227133
-3.645149 5.3776393 -0.36287656
-4.3301907 6.3882728 0
-5.6292458 8.3047514 0.56039453
-1.5977029 2.3509483 -0.9372493
-1.843771 2.7130265 -0.90500981
-2.1502309 3.1639686 -0.84745467
-2.5854852 3.804426 -0.76685649
-4.2430959 6.243526 -0.84140623
-0 0 -0
-4.3276653 6.3679662 0
-5.5910797 8.2270241 0.55560505
-1.6061093 2.3571863 -0.94050914
-1.8300961 2.6859179 -0.8967039
-2.1497643 3.1550748 -0.84576762
-2.5929685 3.8055379 -0.76771164
-4.2564626 6.2469444 -0.8425594
-3.6595957 5.3709602 -0.36302158
-4.304584 6.3175697 0
-5.6010165 8.2202625 0.55560505
-1.5991956 2.340956 -0.93480361
-1.834754 2.6857741 -0.89739537
-2.1550069 3.1545711 -0.84632999
-2.5917726 3.7939234 -0.76599973
-4.2742219 6.2567487 -0.84457767
-3.6631541 5.3622475 -0.36273158
-4.2520328 6.224268 0
-5.5948262 8.1898937 0.55400896
-1.5950412 2.3288281 -0.93072957
-1.8450902 2.6939104 -0.90085816
-2.1573825 3.1498704 -0.84576762
-2.6007082 3.7971447 -0.7672841
-4.2817788 6.2515798 -0.84457767
-3.6710975 5.3599586 -0.36287656
-4.2389593 6.1890612 0
-5.5988445 8.174552 0.55342841
-1.6104445 2.3452344 -0.93806344
-1.8398203 2.6792662 -0.8967039
-2.1698143 3.1598251 -0.84914386
-2.6111069 3.8024642 -0.76899594
-4.295186 6.25493 -0.84573084
-3.6849244 5.3662271 -0.36360213
-4.2685337 6.2161174 0
-5.5778303 8.1227999 0.55038059
-1.6132772 2.3432868 -0.93806344
-1.8501682 2.6873713 -0.90016401
-2.1693068 3.1509204 -0.84745467
-2.6098769 3.7908487 -0.7672841
-4.30127 6.2475991 -0.84544176
-3.6943557 5.3660555 -0.36389267
-4.2775159 6.2130966 0
-5.586163 8.1139078 0.55023503
-1.5978563 2.3148944 -0.92746967
-1.8363178 2.6603656 -0.89186072
-2.1687863 3.1420295 -0.84576762
-2.6144555 3.7876925 -0.7672841
-4.3073478 6.2402706 -0.84515375
-3.7052608 5.3679972 -0.3643277
-4.2850204 6.2079239 0
-5.5516834 8.0430021 0.54588115
-1.5894003 2.2967031 -0.92095
-1.8523782 2.6767094 -0.89808953
-2.1740258 3.141494 -0.84632999
-2.6146462 3.7781959 -0.76599973
-4.3163552 6.2371864 -0.84544176
-3.7147045 5.3677936 -0.36461824
-4.3339853 6.2626624 0
-5.5613976 8.0362883 0.54588115
-1.6133099 2.3252432 -0.93317521
-1.8484565 2.6641572 -0.89462674
-2.1749206 3.1346855 -0.84520316
-2.6162856 3.7708197 -0.76514465
-4.3209424 6.2277203 -0.84486568
-3.7182224 5.3590274 -0.3643277
-4.3519301 6.2723823 0
-5.5681443 8.0252962 0.54559112
-1.6387006 2.355756 -0.94621468
-1.8516742 2.6619217 -0.89462674
-2.1816113 3.1362309 -0.84632999
-2.6252391 3.7739799 -0.76642895
-4.3240318 6.2161226 -0.84400058
-3.7291479 5.3609319 -0.36476323
-3.791831 5.4510436 0
-5.5748668 8.0142927 0.5453006
-1.6316476 2.3395813 -0.94050914
-1.8477151 2.6493955 -0.89116657
-2.1839471 3.1315105 -0.84576762
-2.6209838 3.7581675 -0.76386034
-4.3330178 6.2130127 -0.84428859
-3.7430534 5.3670764 -0.3654888
-3.7984147 5.4464579 0
-5.5830612 8.0054207 0.54515558
-1.6288081 2.3295057 -0.9372493
-1.8581016 2.6574392 -0.89462674
-2.1789906 3.1163712 -0.84238923
-2.6269982 3.7571075 -0.76428956
-4.3331127 6.197176 -0.84284741
-3.7525165 5.3668132 -0.36577937
-3.8079727 5.446126 0
-2.8963284 4.1423011 0.28232178
-1.6075044 2.2931323 -0.92339563
-1.8641942 2.6593046 -0.89601237
-2.1856742 3.1179013 -0.84351611
-2.6330082 3.7560306 -0.7647171
-3.7942626 5.41258 -0.73676133
-3.7604887 5.3644009 -0.36592436
-3.7951314 5.4138193 0
-2.8923793 4.1260281 0.28145069
-1.614539 2.2972567 -0.92584133
-1.8616358 2.64884 -0.89324373
-2.1879804 3.1131814 -0.84295374
-2.6375446 3.7528465 -0.7647171
-3.8141837 5.4270344 -0.73935568
-3.7804134 5.378984 -0.36723047
-3.8016703 5.4092298 0
-2.9227614 4.158669 0.2839179
-1.6201581 2.299341 -0.92746967
-1.8821756 2.6711981 -0.9015497
-2.1946647 3.1146853 -0.84407842
-2.6406002 3.7475603 -0.76428956
-3.8043549 5.3991704 -0.73618531
-3.7824185 5.3680382 -0.36679491
-3.8141994 5.4131417 0
-2.9367673 4.1678829 0.28478903
-1.6229352 2.2973816 -0.92746967
-1.8723756 2.6504824 -0.89532089
-2.2042909 3.1203325 -0.84632999
-2.6406815 3.7380748 -0.7630052
-3.7959497 5.3734403 -0.73330182
-3.796397 5.374073 -0.36752048
-3.8342505 5.4276576 0
-2.925308 4.1409841 0.28319234
-1.6428521 2.3196228 -0.9372493
-1.8654255 2.6338849 -0.89047509
-2.196311 3.1010785 -0.84182692
-2.643714 3.7327886 -0.76257765
-3.8069258 5.3751841 -0.73416698
-3.8179088 5.3906913 -0.36897215
-3.8362978 5.4166555 0
-2.9378171 4.148047 0.2839179
-1.6456537 2.317636 -0.9372493
-1.8686067 2.631629 -0.89047509
-2.1927028 3.0880656 -0.83901304
-2.6526768 3.7358646 -0.76386034
-3.8283896 5.391665 -0.73704934
-3.8514955 5.4242063 -0.37158439
-3.84284 5.4120159 0
-2.9518561 4.1572099 0.28478903
-1.6355963 2.3005264 -0.93072957
-1.8876406 2.6550357 -0.89878106
-2.1960387 3.0888093 -0.83957535
-2.6579111 3.7384496 -0.7647171
-3.8316462 5.3893514 -0.73704934
-3.9526324 5.5595226 -0.38101774
-3.8310258 5.3884788 0
-2.9588797 4.1617732 0.28522402
-1.6441132 2.3065989 -0.93398941
-1.8690034 2.6221073 -0.88839793
-2.2027218 3.0902956 -0.84070224
-2.6564665 3.7268739 -0.7630052
-4.3996048 6.1724 -0.84486568
-3.9699061 5.5695562 -0.38203385
-3.8571699 5.4113936 0
-2.9759722 4.1751223 0.28638515
-1.6497759 2.3086364 -0.9356209
-1.8955084 2.6525056 -0.89947253
-2.1975875 3.0752242 -0.83732384
-2.6609676 3.7236612 -0.7630052
-4.3890142 6.1418266 -0.84140623
-3.9690804 5.5541868 -0.38130832
-0 0 0
-2.9749715 4.1630669 0.28580457
-1.6280949 2.2724872 -0.92176729
-1.8767998 2.6196282 -0.88909209
-2.2042642 3.0767014 -0.83845067
-2.6639714 3.7183585 -0.76257765
-4.394927 6.1344185 -0.84111816
-3.9878955 5.5662851 -0.38246942
-0 0 0
-2.9875708 4.1700368 0.2865307
-1.6452556 2.2905886 -0.92991537
-1.885818 2.625509 -0.89186072
-2.2168713 3.0864141 -0.84182692
-2.6684623 3.715137 -0.76257765
-4.394793 6.1186018 -0.83967698
-3.9946182 5.5614624 -0.38246942
-0 0 0
-3.0047343 4.1833076 0.2876918
-1.650908 2.2926066 -0.93154377
-1.8977824 2.6354396 -0.89601237
-2.2146597 3.0754855 -0.83957535
-2.674448 3.7139912 -0.7630052
-4.3855557 6.0901971 -0.83650553
-4.0013351 5.556632 -0.38246942
-3.8543885 5.3525677 0
-3.0037131 4.1712394 0.28711125
-1.6276386 2.2545428 -0.9168759
-1.9038996 2.6372089 -0.89739537
-2.2154026 3.068691 -0.83845067
-2.6789339 3.7107568 -0.7630052
-4.3762565 6.0618234 -0.83333403
-4.0247726 5.5749617 -0.38406554
-3.8593314 5.3457985 0
-3.0269969 4.1928806 0.28885236
-1.6434026 2.2705925 -0.92420983
-1.887964 2.6084886 -0.88839793
-2.2131498 3.0577786 -0.83619916
-2.6804025 3.7033541 -0.76214844
-4.2592335 5.8847318 -0.80969572
-4.0467443 5.5911479 -0.38551721
-3.8764648 5.3558831 0
-3.0396829 4.1997509 0.2895785
-1.6476007 2.2706113 -0.92502713
-1.8911145 2.6062055 -0.88839793
-2.2198246 3.0592113 -0.83732384
-2.6833692 3.6980369 -0.7617209
-4.1493826 5.7183971 -0.78749853
-0 0 -0
-3.8859932 5.355412 0
-3.0508595 4.2044873 0.29015905
-1.6532482 2.2726123 -0.92665553
-1.9075433 2.6221752 -0.89462674
-2.2324908 3.0688591 -0.84070224
-2.684818 3.690644 -0.76086581
-4.1106453 5.6506357 -0.77885032
-0 0 -0
-3.9215457 5.3906927 0
-3.0574646 4.2028971 0.29030403
-1.6720147 2.2925813 -0.9356209
-1.9033203 2.6097355 -0.89116657
-2.2287066 3.0558889 -0.83788615
-2.6877584 3.6853173 -0.76043659
-4.1007037 5.6226754 -0.77567887
-0 0 -0
-3.9203904 5.3754392 0
-3.0824442 4.22649 0.29219073
-1.666028 2.2785845 -0.93072957
-1.9123952 2.6155345 -0.89393526
-2.2339015 3.0552506 -0.83845067
-2.6937292 3.6841452 -0.76086581
-4.1029134 5.6114507 -0.77481371
-4.0599184 5.5526481 -0.38421109
-3.9222729 5.3643937 0
-3.0844784 4.2185631 0.29190016
-1.6658604 2.2725868 -0.92910117
-1.9111089 2.6071575 -0.89186072
-2.2345843 3.0484467 -0.83732384
-2.6951404 3.6767428 -0.76000905
-4.1005187 5.5939765 -0.77308452
-4.8746252 6.6500225 -0.46055028
-0 0 0
-3.0957184 4.2232161 0.29248071
-1.655434 2.2526493 -0.92176729
-1.927627 2.6230388 -0.89808953
-2.2337508 3.0395999 -0.83563465
-2.7010999 3.6755502 -0.76043659
-4.1164618 5.6015191 -0.77481371
-4.8795824 6.6399436 -0.46026027
-0 0 0
-3.1100545 4.2320395 0.29335183
-1.6493556 2.2387044 -0.9168759
-1.9174038 2.6025317 -0.89186072
-2.2479732 3.0512204 -0.83957535
-2.6979272 3.661952 -0.75829715
-4.1247659 5.5986295 -0.77510279
-4.8860564 6.6319447 -0.46011472
-3.9370661 5.3438606 0
-3.1213307 4.2366467 0.29393238
-1.6520594 2.2367098 -0.9168759
-1.914585 2.5921409 -0.88909209
-2.2426038 3.0362427 -0.83619916
-2.7069268 3.6648862 -0.75958151
-4.1730137 5.6498089 -0.78288591
-5.2707343 7.1360035 -0.49552709
-3.9450648 5.3411908 0
-3.1233571 4.2286878 0.29364184
-1.6621137 2.2446418 -0.92095
-1.9221902 2.5958683 -0.89116657
-2.2432437 3.0294428 -0.83507228
-2.7082951 3.6574826 -0.75872475
-4.4414859 5.9981122 -0.83189285
-5.2855382 7.1379828 -0.49610764
-3.9344783 5.3134117 0
-3.1331048 4.2311773 0.2940774
-1.667774 2.2466047 -0.92258149
-1.931307 2.6016014 -0.89393526
-2.2514477 3.0328526 -0.83676147
-2.7173042 3.660393 -0.76000905
-4.468771 6.0197377 -0.83564037
-5.3173933 7.162889 -0.49828488
-3.9595106 5.3337293 0
-3.1521533 4.2461638 0.29538351
-1.6896691 2.2703619 -0.93317521
-1.9299599 2.5932341 -0.89186072
-2.2566261 3.0321665 -0.83732384
-2.7217252 3.6571071 -0.76000905
-4.4899378 6.0330057 -0.83823472
-4.168786 5.6014829 -0.39001611
-3.9783828 5.3456435 0
-3.163487 4.2506905 0.29596406
-1.6983232 2.2762425 -0.9364351
-1.915089 2.566771 -0.88355482
-2.2526925 3.0192568 -0.83450997
-2.7276757 3.6558712 -0.76043659
-4.4925885 6.0213628 -0.83737063
-4.1724467 5.5922804 -0.38972613
-3.9817295 5.3366647 0
-3.1686208 4.2468648 0.29596406
-1.6921871 2.2623098 -0.93154377
-1.9407248 2.5945835 -0.89393526
-2.2609062 3.0226388 -0.83619916
-2.7305551 3.6505191 -0.76000905
-4.4983072 6.0138531 -0.83708155
-4.1807556 5.5893135 -0.38987112
-3.9757042 5.3151774 0
-3.1846461 4.2576003 0.29698017
-1.6786127 2.2385178 -0.92258149
-1.9288104 2.5721691 -0.88701493
-2.2599821 3.0138042 -0.83450997
-2.7288036 3.6390018 -0.75829715
-4.5071268 6.0104885 -0.83737063
-4.1859488 5.582181 -0.38972613
-3.9540167 5.2728872 0
-3.1944606 4.2599797 0.29741517
-1.6799649 2.2375031 -0.92258149
-1.9198183 2.556958 -0.88216913
-2.2633266 3.0144682 -0.83507228
-2.7310016 3.6373527 -0.75829715
-4.510757 6.0077643 -0.83737063
-4.2002373 5.5941906 -0.39074168
-3.9525182 5.2642603 0
-3.2126384 4.2788324 0.29886687
-1.6886128 2.2433705 -0.92584133
-1.945539 2.5847042 -0.89255226
-2.2654409 3.0097032 -0.83450997
-2.7400274 3.6402051 -0.75958151
-4.5117912 5.9940438 -0.83621746
-4.1819906 5.5558944 -0.38841945
-3.9463553 5.242846 0
-3.2209284 4.2790956 0.29915684
-1.6898348 2.2393575 -0.92502713
-1.9531898 2.5883536 -0.89462674
-2.2675469 3.0049372 -0.8339476
-2.7397838 3.6307423 -0.75829715
-4.5112419 5.9782667 -0.83477628
-4.1871371 5.5487652 -0.38827443
-3.9809015 5.2754631 0
-3.2339208 4.2855697 0.29988241
-1.6865748 2.2294295 -0.92176729
-1.9623702 2.5939946 -0.89739537
-2.2727075 3.0042195 -0.83450997
-2.7457161 3.6294744 -0.75872475
-4.5168977 5.9707427 -0.8344872
-4.1860018 5.5333424 -0.38754889
-3.9919848 5.2768774 0
-3.2516384 4.2982368 0.30104354
-1.6832933 2.2195127 -0.9185074
-1.9397327 2.5576417 -0.8856293
-2.276336 3.0014713 -0.83450997
-2.7423449 3.6159291 -0.7565853
-4.5334892 5.9776497 -0.83621746
-4.1801233 5.5117173 -0.38638777
-4.0015001 5.2761936 0
-3.2631102 4.3025866 0.30162409
-1.6979412 2.2332172 -0.92502713
-1.9686332 2.5892448 -0.89739537
-2.2738094 2.990628 -0.8322584
-2.7482703 3.6146624 -0.75701451
-4.5313134 5.9598098 -0.8344872
-4.1836376 5.5025296 -0.38609776
-4.006299 5.2692847 0
-3.2683067 4.2986403 0.30162409
-1.7126189 2.246882 -0.93154377
-1.9519911 2.5609279 -0.88839793
-2.2743437 2.9838405 -0.83113372
-2.7526357 3.6113389 -0.75701451
-4.5385113 5.95433 -0.8344872
-4.1824093 5.4871397 -0.38537222
-4.0252843 5.2809987 0
-3.2876735 4.3132854 0.30293021
-1.6849799 2.1995749 -0.91361606
-1.9597042 2.5582004 -0.88909209
-2.2846353 2.9823658 -0.8322584
-2.7597895 3.6026328 -0.7565853
-3.4314733 4.4794497 -0.62894607
-4.303103 5.6172762 -0.39524114
-4.0459461 5.2815833 0
-3.3154709 4.3280201 0.30452687
-1.6996796 2.2132194 -0.9201358
-1.9475105 2.5359297 -0.88216913
-2.2866912 2.9775898 -0.83169603
-2.7578862 3.5911515 -0.75487345
-3.4337294 4.4711933 -0.62836891
-4.3098874 5.6120725 -0.39524114
-4.0554981 5.2808228 0
-3.3254476 4.3301954 0.30496243
-1.7174275 2.2307446 -0.92828387
-1.9521022 2.5355606 -0.88286066
-2.2902873 2.9748247 -0.83169603
-2.7637939 3.5898564 -0.75530261
-3.445441 4.4752388 -0.62952209
-4.2833786 5.5636253 -0.39219335
-4.0761633 5.294476 0
-3.3275039 4.322052 0.30467188
-1.718613 2.2267129 -0.92746967
-1.9674273 2.5490882 -0.88839793
-2.2938802 2.9720552 -0.83169603
-2.7634227 3.5804157 -0.75401831
-3.4555883 4.4772172 -0.63038725
-4.3139081 5.5892949 -0.39437002
-4.1048164 5.3183861 0
-3.3517756 4.3427129 0.30641356
-1.7061801 2.2050908 -0.9193216
-1.9612974 2.5348077 -0.88424629
-2.3005764 2.9732966 -0.83282077
-2.7708857 3.5811307 -0.75487345
-3.4673269 4.4812212 -0.63154042
-4.3238416 5.5881925 -0.39466059
-4.1351299 5.3442988 0
-3.3649695 4.3489332 0.3071391
-1.7179296 2.2147415 -0.92420983
-1.9597443 2.5264874 -0.88216913
-2.2995 2.9644973 -0.83113372
-2.7783606 3.5818408 -0.75573021
-3.4695654 4.4729366 -0.63096327
-4.2780361 5.5152111 -0.38987112
-4.1814604 5.3907061 0
-3.3670399 4.3407617 0.30684912
-1.711504 2.2009611 -0.9193216
-1.9720389 2.5360041 -0.88632345
-2.3015161 2.9597051 -0.83056921
-2.7732284 3.5663183 -0.75316155
-3.4765599 4.470789 -0.63125241
-4.2336545 5.4443979 -0.38522667
-4.2119298 5.4164605 0
-3.3930168 4.3633542 0.30873579
-1.7126441 2.196944 -0.9185074
-1.9735548 2.531635 -0.8856293
-2.3035297 2.9549201 -0.83000684
-2.7822721 3.5690405 -0.75444585
-3.4851367 4.4706607 -0.63182843
-0 0 -0
-4.2120714 5.4031572 0
-3.4062729 4.3694959 0.30946133
-1.7122506 2.1909745 -0.9168759
-1.9874276 2.5430875 -0.89047509
-2.3117938 2.9581425 -0.83169603
-2.7850032 3.5636554 -0.75401831
-3.4873538 4.4623742 -0.63125241
-0 0 -0
-4.2201977 5.4001126 0
-3.4083531 4.3612862 0.30917135
-1.7133739 2.1869602 -0.91606176
-1.9827645 2.5308118 -0.88701493
-2.3106639 2.9493446 -0.83000684
-2.7861378 3.5562422 -0.75316155
-3.4863627 4.4500132 -0.63009924
-0 0 -0
-4.2251163 5.3929625 0
-7.1440735 9.1187363 0.64703816
-1.7175404 2.1868303 -0.9168759
-1.9827188 2.5244644 -0.8856293
-2.3126581 2.9445541 -0.82944453
-2.795191 3.5589316 -0.75444585
-3.490135 4.4437575 -0.62981009
-0 0 -0
-4.2251997 5.3796663 0
-7.1743464 9.1346197 0.64877987
-1.7308857 2.1983485 -0.92258149
-1.9919755 2.5299513 -0.88839793
-2.3130677 2.9377611 -0.8283177
-2.7947237 3.5494988 -0.75316155
-3.4987049 4.4436054 -0.63038725
-0 0 -0
-4.2139921 5.3520708 0
-7.1821666 9.1218653 0.64848989
-1.7153804 2.1759496 -0.91361606
-1.9997164 2.536628 -0.89116657
-2.3274264 2.9523263 -0.83282077
-2.8000493 3.5518456 -0.75401831
-3.501389 4.4414907 -0.63038725
-4.2311401 5.3671756 -0.38174388
-4.2220535 5.3556495 0
-7.1892834 9.1195631 0.64863485
-1.7241384 2.181632 -0.9168759
-1.9981178 2.5283108 -0.88909209
-2.3262701 2.9435372 -0.83113372
-2.8027487 3.5464475 -0.75359076
-3.5083554 4.4392838 -0.63067526
-4.3310595 5.4802895 -0.39016113
-4.2301402 5.3525915 0
-7.2002974 9.1108694 0.64863485
-1.7252399 2.1776116 -0.91606176
-1.9887079 2.5101633 -0.88355482
-2.3266664 2.9367371 -0.83000684
-2.8086245 3.5450685 -0.75401831
-3.5024719 4.4208484 -0.62865692
-4.3667264 5.5117173 -0.3927739
-4.2269049 5.3352332 0
-7.2096891 9.1001272 0.64848989
-1.7340186 2.1832671 -0.9193216
-1.9995395 2.5175793 -0.88701493
-2.3302133 2.9339237 -0.83000684
-2.8065197 3.5336316 -0.75230646
-3.5094244 4.4186444 -0.62894607
-4.3652978 5.4962573 -0.39204779
-4.2382054 5.3362379 0
-7.2174439 9.0873365 0.64819932
-1.7351173 2.1792386 -0.9185074
-2.0025799 2.5151613 -0.88701493
-2.336925 2.9350853 -0.83113372
-2.8059888 3.5242112 -0.75102216
-3.5195894 4.420465 -0.62981009
-3.5708063 4.4847913 -0.32020751
-4.2365465 5.3209348 0
-7.2284193 9.0786085 0.64819932
-1.7377492 2.1771405 -0.9185074
-1.9899703 2.4931359 -0.88009465
-2.3357129 2.9263 -0.82944453
-2.8150508 3.526839 -0.75230646
-3.5217042 4.4121699 -0.62923408
-3.5794678 4.484539 -0.32049808
-4.2462168 5.3198762 0
-3.5939803 4.5027213 0.32179749
-1.7357445 2.1692479 -0.91606176
-1.997679 2.4966006 -0.88216913
-2.3392472 2.9234755 -0.82944453
-2.8193104 3.5234349 -0.75230646
-3.5221834 4.4018512 -0.62836891
-3.5929995 4.4903531 -0.32122365
-3.5730219 4.4653864 0
-3.5880527 4.4841709 0.32078138
-1.7445505 2.174861 -0.9193216
-2.0022624 2.49614 -0.88286066
-2.3411896 2.9186668 -0.82888216
-2.8235657 3.5200257 -0.75230646
-3.5307395 4.4016309 -0.62894607
-0 0 -0
-0 0 0
-0 0 0
-1.7409817 2.1650469 -0.91606176
-1.9989946 2.4859061 -0.88009465
-2.3415267 2.9118717 -0.82775533
-2.8294239 3.51861 -0.75273401
-3.5360556 4.3973618 -0.62894607
-0 0 -0
-0 0 0
-0 0 0
-1.7529005 2.1744833 -0.92095
-2.0051429 2.4873915 -0.88147765
-2.3434505 2.907064 -0.82719296
-2.8304543 3.5111954 -0.75187892
-3.536495 4.3870425 -0.6280809
-3.597836 4.4631367 -0.32020751
-0 0 0
-0 0 0
-1.7586366 2.1762121 -0.92258149
-2.0207617 2.500577 -0.88701493
-2.3453658 2.902256 -0.82663065
-2.8298528 3.501781 -0.75059456
-3.5369146 4.3767295 -0.62721574
-3.6032262 4.458786 -0.32020751
-0 0 0
-0 0 0
-1.7503726 2.1606405 -0.9168759
-2.0253594 2.5000811 -0.88770646
-2.3504689 2.9013925 -0.82719296
-2.8389313 3.5043449 -0.75187892
-3.5438333 4.3744678 -0.62750489
-3.606977 4.4524121 -0.32006252
-3.5999343 4.4437184 0
-3.5938163 4.4361663 0.31889471
-1.7607713 2.1681149 -0.92095
-2.0125661 2.4781611 -0.88078618
-2.3523726 2.8965797 -0.82663065
-2.8431635 3.5009122 -0.75187892
-3.5507452 4.3721886 -0.62779289
-3.61727 4.4541035 -0.32049808
-3.6102245 4.4454279 0
-3.5959008 4.4277906 0.31860471
-1.7555889 2.156404 -0.9168759
-2.0203063 2.4815586 -0.88286066
-2.3558707 2.8937352 -0.82663065
-2.836045 3.483537 -0.74888271
-3.5543942 4.365891 -0.62750489
-4.4970107 5.5237145 -0.39785337
-4.3680902 5.3653603 0
-7.4169421 9.1102905 0.65618157
-1.7456911 2.1389625 -0.91035622
-2.024894 2.4810648 -0.88355482
-2.3625758 2.8948197 -0.82775533
-2.8467448 3.4880629 -0.75059456
-3.5531254 4.3535776 -0.62635171
-4.5086122 5.5243182 -0.39828894
-4.3548236 5.3358836 0
-7.4279447 9.1013212 0.65618157
-1.7686189 2.1617181 -0.92095
-2.0247102 2.4747291 -0.88216913
-2.3644643 2.8899982 -0.82719296
-2.8509572 3.4846206 -0.75059456
-3.563292 4.3552814 -0.62721574
-4.5152841 5.5188661 -0.39828894
-4.357975 5.3265929 0
-8.3076649 10.154155 0.73281127
-1.7571245 2.1423819 -0.91361606
-2.0340629 2.4800401 -0.88493782
-2.3695645 2.8891017 -0.82775533
-2.8502803 3.4752166 -0.74931026
-3.5652745 4.3469768 -0.62663972
-4.5202966 5.5113916 -0.39814338
-4.3611102 5.3173027 0
-8.3133373 10.136073 0.73223072
-1.7722696 2.1555305 -0.9201358
-2.0354662 2.4756444 -0.88424629
-2.3698294 2.8823149 -0.82663065
-2.8593698 3.4777207 -0.75059456
-3.5688832 4.3406696 -0.62635171
-4.5302563 5.5099435 -0.39843392
-4.3741369 5.3200626 0
-8.3305311 10.132044 0.73266631
-1.7544383 2.1285949 -0.90954202
-2.0416443 2.4770513 -0.8856293
-2.3781538 2.8853259 -0.8283177
-2.8537767 3.4623816 -0.74802762
-3.5741255 4.3363543 -0.62635171
-4.5352597 5.5024624 -0.39828894
-5.8586364 7.1080666 0
-8.3378077 10.115953 0.73223072
-1.7696035 2.1417162 -0.91606176
-2.0286591 2.4552462 -0.87870902
-2.3816385 2.8824503 -0.8283177
-2.8661323 3.4688237 -0.75016701
-3.5760643 4.3280406 -0.62577456
-4.5352845 5.488966 -0.39770836
-5.8639026 7.0969658 0
-8.3748531 10.135921 0.73440796
-1.7441157 2.1082737 -0.90220809
-2.0301421 2.4540203 -0.87870902
-2.3736649 2.8692679 -0.82494146
-2.8665864 3.4651077 -0.7497378
-3.5786786 4.3258791 -0.62577456
-4.5452251 5.4942336 -0.39828894
-5.8416467 7.0613379 0
-8.4058151 10.160885 0.73658466
-1.7782171 2.1442149 -0.9185074
-2.0459177 2.4670143 -0.88424629
-2.3819976 2.872267 -0.82663065
-2.8658597 3.4557192 -0.74845517
-3.5855525 4.3235412 -0.62606257
-4.5435619 5.4787312 -0.3975628
-5.8202739 7.0182195 0
-8.4197435 10.152719 0.73672962
-1.7808067 2.1420646 -0.9185074
-2.0408795 2.4548962 -0.88078618
-2.3870893 2.8713388 -0.82719296
-2.8733122 3.456198 -0.74931026
-3.5874703 4.3152313 -0.62548655
-4.5568233 5.4812293 -0.39814338
-5.8320808 7.0151877 0
-7.6081204 9.1515188 0.66474438
-1.789723 2.147506 -0.92176729
-2.035815 2.4427943 -0.87732601
-2.3856752 2.8625948 -0.82550377
