# .PCD v0.7 - Point Cloud Data file format
VERSION 0.7
FIELDS x y z
SIZE 4 4 4
TYPE F F F
COUNT 1 1 1
WIDTH 1566
HEIGHT 1
VIEWPOINT 0 0 0 1 0 0 0
POINTS 1566
DATA ascii
3.8291187 18.212881 0
1.5124991 7.1940746 0.41061839
1.7251523 8.2550697 -0.9399972
1.9253209 9.2129011 -0.5257144
3.807641 18.220039 0
1.5032743 7.193356 0.41047341
1.7125466 8.2444878 -0.93855602
1.9147154 9.2177629 -0.52585942
3.7861516 18.227173 0
1.4966953 7.2053437 0.41105396
1.703106 8.2490826 -0.93884403
1.9035761 9.2200699 -0.52585942
3.7646527 18.234291 0
1.4890378 7.2122316 0.41134396
1.6936568 8.253665 -0.93913209
1.8919122 9.21982 -0.5257144
3.74314 18.241373 0
1.4829332 7.2267499 0.4120695
1.6826499 8.2506418 -0.93855602
1.8807706 9.2220993 -0.5257144
3.7236958 18.258629 0
1.4752395 7.2336335 0.41236007
1.6721641 8.2501268 -0.93826693
1.8675613 9.2141781 -0.52513385
3.7021477 18.265663 0
1.4675293 7.2404995 0.41265008
1.6632166 8.2572174 -0.93884403
1.8579663 9.2240725 -0.52556944
3.6805899 18.272682 0
1.4623716 7.2601008 0.41366619
1.6507003 8.246542 -0.93740284
1.8458004 9.22122 -0.5252794
3.6595287 18.282215 0
1.4561477 7.2745996 0.41439176
1.6372021 8.2307711 -0.93538451
1.8351634 9.2259893 -0.52542442
3.6379428 18.289173 0
1.445329 7.2661595 0.41381118
1.6262536 8.2276735 -0.93480849
1.8230056 9.2230968 -0.52513385
3.6158414 18.293556 0
1.4385636 7.2780972 0.41439176
1.614815 8.2220163 -0.93394333
1.8128625 9.2303972 -0.52542442
3.5957408 18.308126 0
3.5974989 18.31708 1.042668
1.6028975 8.2138071 -0.93279016
1.8007116 9.2274752 -0.52513385
3.5746143 18.317572 0
3.5708849 18.298462 1.0413619
1.5924797 8.2132006 -0.93250215
1.7890667 9.2270966 -0.52498883
3.5544598 18.332098 0
3.5512447 18.315516 1.0420874
1.5825545 8.2151194 -0.93250215
1.7789001 9.2343588 -0.5252794
3.5318129 18.333817 0
3.5325525 18.337656 1.0431036
1.1242459 5.8742199 -0.99709058
1.5701965 8.2043257 -0.93106097
1.7672511 9.233942 -0.52513385
3.5116143 18.348295 0
3.5094147 18.336802 1.0428131
1.1123531 5.8503599 -0.99281174
1.556417 8.1858892 -0.92875463
1.7560924 9.2360706 -0.52513385
3.4894414 18.352524 0
3.4843445 18.325718 1.0419425
1.1014717 5.8315201 -0.98938799
1.5450842 8.1801367 -0.92788947
1.7439675 9.2330847 -0.52484387
3.4691954 18.366957 0
3.4626808 18.332466 1.0420874
1.0887438 5.8025703 -0.98425239
1.5332911 8.1718292 -0.9267363
1.7332885 9.2377367 -0.52498883
3.4474814 18.373699 0
3.4419651 18.344299 1.042523
1.0784389 5.7862139 -0.98125619
1.5205734 8.1584244 -0.9250071
1.7221253 9.2398243 -0.52498883
3.4247997 18.375286 0
3.4197969 18.348446 1.042523
1.0695791 5.7774258 -0.97954595
1.5022384 8.1144724 -0.91981733
1.7109596 9.2418985 -0.52498883
3.4002259 18.366619 0
3.397624 18.352564 1.042523
1.0612042 5.7711372 -0.97826165
1.4914979 8.1111994 -0.91924125
1.6979115 9.233736 -0.52440828
3.3723829 18.339998 0
3.3754461 18.356657 1.042523
1.0519246 5.7597909 -0.97612226
1.4812318 8.1104536 -0.91895324
1.6867532 9.2357807 -0.52440828
3.5830569 19.618952 0
3.3439264 18.309597 1.0396203
1.0449643 5.7610579 -0.97612226
1.4728143 8.1198645 -0.91981733
1.6765207 9.2429314 -0.52469885
3.5612066 19.633511 0
3.5323315 19.474318 1.10551
1.0366367 5.7547345 -0.9748379
1.465296 8.1343737 -0.92125958
1.6644289 9.23983 -0.52440828
3.5351741 19.624996 0
3.5111008 19.491356 1.1062355
1.0308924 5.7427287 -0.97269851
1.4622076 8.1454306 -0.92241168
1.6565512 9.2280493 -0.52368271
3.5256159 19.639933 0
3.50208 19.508823 1.1071066
1.0230507 5.7389112 -0.97184175
1.4478259 8.1217327 -0.91952932
1.6485924 9.2479534 -0.52469885
3.5046217 19.659546 0
3.4798734 19.520718 1.1075422
1.0138787 5.7275066 -0.9697023
1.4384618 8.1260204 -0.91981733
1.3833336 7.8145957 -0.44327965
3.4799581 19.658646 0
3.4571888 19.53002 1.1078322
1.0056237 5.7211399 -0.968418
1.4246125 8.1048288 -0.91722298
1.3734407 7.813705 -0.44313467
3.4557519 19.660276 0
3.4331386 19.531626 1.1076872
0.99694473 5.7122355 -0.96670616
1.4134839 8.0988979 -0.91635782
1.3662318 7.828155 -0.4438602
3.4355733 19.684948 0
3.414449 19.563911 1.1092833
0.98916608 5.7083821 -0.96585101
1.4019321 8.090415 -0.91520572
1.3527795 7.8067598 -0.44255409
3.4126732 19.694208 0
3.3881462 19.552666 1.1084127
0.98052698 5.6994538 -0.96413916
1.3912776 8.0870008 -0.91462857
1.3473102 7.8314338 -0.4438602
3.3906391 19.708576 0
3.3676026 19.574673 1.1094289
0.97536832 5.7107558 -0.96585101
1.3841169 8.1039677 -0.91635782
1.3360965 7.8228106 -0.44327965
3.3646324 19.699835 0
3.3426352 19.571041 1.1089933
0.96932471 5.7169871 -0.96670616
1.3743237 8.1056347 -0.91635782
1.3292487 7.8397856 -0.44415021
3.3403919 19.701323 0
3.3202884 19.582754 1.1094289
0.96156478 5.7130961 -0.96585101
1.361096 8.086894 -0.91405255
1.3193439 7.8388262 -0.44400522
3.3204713 19.728439 0
3.29878 19.599562 1.1101544
0.9529689 5.7041264 -0.96413916
1.3504704 8.0834255 -0.91347545
1.3107285 7.8455453 -0.44429576
1.8532064 11.092621 0
3.2759509 19.608654 1.1104444
0.94313586 5.6875434 -0.96114296
1.3411249 8.0876007 -0.91376346
1.3008214 7.8445525 -0.44415021
1.8321375 11.048634 0
3.2531064 19.617729 1.1107349
0.93584639 5.6861486 -0.96071541
1.3296714 8.0790071 -0.91261029
1.2909203 7.8435574 -0.44400522
2.5338616 15.395597 0
2.5529933 15.511839 0.87808853
0.92897511 5.6872749 -0.96071541
1.3186589 8.072957 -0.9117462
1.2789295 7.8297296 -0.44313467
2.5144174 15.393506 0
2.5271277 15.471319 0.87562132
0.91963863 5.6731944 -0.95814842
1.3055924 8.0541191 -0.90943986
1.261152 7.7799697 -0.44023186
2.485821 15.334878 0
2.4967897 15.402542 0.87155735
0.91359764 5.6793656 -0.95900357
1.2970923 8.0633545 -0.91030502
0 0 -0
2.4627447 15.309613 0
2.4695108 15.351676 0.86850959
0.90673459 5.6804652 -0.95900357
1.2869395 8.0623541 -0.91001594
0 0 -0
2.443013 15.304866 0
2.4452262 15.318729 0.86647791
0.9006741 5.6866326 -0.95986032
1.2747699 8.0485802 -0.90828669
0 0 -0
2.4241116 15.305239 0
2.4242749 15.30627 0.86560678
0.89260632 5.6801066 -0.95857596
1.26665 8.0603352 -0.90943986
0 0 -0
2.4023843 15.287588 0
2.4053755 15.306623 0.86546183
0.88534731 5.678647 -0.95814842
1.2549179 8.0490847 -0.90799868
0 0 -0
2.3839104 15.290481 0
2.3884799 15.319788 0.86604238
0.87652206 5.6670208 -0.95600736
1.248354 8.071043 -0.91030502
0 0 -0
1.9469687 12.587831 0
2.3711591 15.330369 0.86647791
0.86889607 5.6630058 -0.95515227
1.0675815 6.9579329 -0.7846151
0 0 -0
1.9226805 12.531016 0
2.3526335 15.333223 0.86647791
0.86166692 5.6615162 -0.95472467
1.0696815 7.0282602 -0.79239929
1.035763 6.8054013 -0.3845011
1.9020549 12.497305 0
2.3341045 15.336055 0.86647791
0.85405833 5.6574717 -0.95386791
1.06196 7.0346575 -0.79297531
1.0228848 6.7758155 -0.38275942
1.8896726 12.51761 0
2.3175113 15.351707 0.86720347
0.84684205 5.6559629 -0.95344037
1.0538433 7.0385008 -0.79326439
1.0146968 6.7770467 -0.38275942
1.1770716 7.8615294 0
2.3008835 15.367344 0.86792904
0.8396306 5.6544452 -0.95301282
1.0476165 7.0551147 -0.79499364
1.0011649 6.7422891 -0.38072774
1.1660426 7.8526492 0
2.2819321 15.367544 0.86778402
0.83354491 5.6605301 -0.95386791
1.0383366 7.0512528 -0.79441649
0.98582453 6.6946473 -0.37796995
1.1565534 7.8540521 0
2.2637401 15.372859 0.86792904
0.82670468 5.6615334 -0.95386791
1.0275743 7.0371513 -0.7926873
0.98223996 6.7266879 -0.37971163
1.1278858 7.7241168 0
2.2451632 15.375583 0.86792904
0.81912822 5.6574516 -0.95301282
1.0142527 7.0051131 -0.78893977
0.97783548 6.7535911 -0.3811633
1.1207888 7.7409229 0
2.2280726 15.388571 0.86850959
0.81229174 5.6584373 -0.95301282
1.1439728 7.9689331 -0.89733213
0.97004324 6.7573371 -0.38130832
1.1032995 7.6856022 0
2.2109537 15.401541 0.86909014
0.80472988 5.6543269 -0.95215607
1.1372585 7.9907951 -0.89963847
0.96224338 6.7610745 -0.38145331
1.096213 7.702394 0
2.1923425 15.404201 0.86909014
0.79789716 5.6552954 -0.95215607
1.1257961 7.9793606 -0.89819729
0.95407325 6.7622323 -0.38145331
1.0850863 7.6908207 0
2.1748173 15.41456 0.86952573
0.79448038 5.6557765 -0.95215607
0.99181455 7.0605664 -0.79470557
0.94781959 6.7473731 -0.38058275
1.0804398 7.6914749 0
2.1655042 15.415871 0.86952573
0.77800262 5.6373358 -0.94873232
0.97227347 7.0450048 -0.7926873
0 0 -0
1.0625616 7.6992245 0
1.2945337 9.3800726 0.5289011
0.77188689 5.6433635 -0.94958907
0.96586263 7.0615454 -0.79441649
0 0 -0
1.0504364 7.6798749 0
1.2803818 9.3610344 0.52773994
0.7650674 5.6442924 -0.94958907
0.95350891 7.0345211 -0.79124612
0.9141497 6.7441483 -0.38014719
1.040107 7.673399 0
1.2676737 9.3522749 0.52715939
0.75653851 5.632494 -0.94744968
0.94328707 7.0228529 -0.78980488
0.9039253 6.7298012 -0.37927663
1.031528 7.6798139 0
1.2539507 9.3357706 0.52614325
0.75040883 5.6384883 -0.94830477
0.93070602 6.9932213 -0.78634542
0.89544916 6.7283053 -0.37913108
1.0260233 7.7094245 0
1.2409557 9.3244028 0.52541775
0.74191767 5.626668 -0.94616532
0.91786021 6.9610076 -0.78259784
0.88765937 6.7319655 -0.37927663
1.0112652 7.6693859 0
1.2283293 9.3155909 0.52483714
0.73478621 5.6250172 -0.94573778
0.90408814 6.9210763 -0.77798522
0.87716812 6.7149949 -0.37826052
1.0030078 7.6783366 0
1.2150536 9.3016138 0.52396661
0.72864717 5.6309881 -0.94659293
0.88908631 6.8708615 -0.77221936
0.86638606 6.6954341 -0.37709939
0.99940652 7.7234173 0
1.2021452 9.2901831 0.52324051
0.71988523 5.6165915 -0.94402593
0.87519389 6.82832 -0.76731867
0.85763526 6.6913266 -0.37680939
0.98808903 7.7091355 0
1.1899289 9.2839041 0.52280551
0.71439123 5.6276441 -0.94573778
0.86140555 6.7857547 -0.76241797
0.85020328 6.6975083 -0.37709939
0.97910076 7.7129035 0
1.1777283 9.2775993 0.52236992
0.70727092 5.6259584 -0.94531024
0.8515929 6.773962 -0.76097679
0.84146243 6.6933794 -0.37680939
0.96685928 7.6908436 0
1.166841 9.2815914 0.52251494
0.69952089 5.6191645 -0.94402593
0.83925378 6.7416215 -0.75722927
0.83369488 6.6969676 -0.37695441
0.95081449 7.6377749 0
1.1553046 9.2804184 0.52236992
0.69335818 5.6250963 -0.94488102
0.83047378 6.7374916 -0.75665212
0.82560229 6.6979699 -0.37695441
0.94508749 7.6673331 0
1.1428186 9.2714911 0.52178937
0.68469566 5.6106458 -0.94231403
0.8226465 6.741065 -0.7569412
0.8165639 6.6912222 -0.37651885
0.93172431 7.6348886 0
1.1316149 9.2728653 0.52178937
0.67976248 5.6267552 -0.94488102
0.81201887 6.7215118 -0.75463492
0.80847824 6.692204 -0.37651885
0.92343384 7.6437526 0
1.1194744 9.2664843 0.52135384
0.67204964 5.6199331 -0.94359839
0.80358982 6.7199221 -0.75434685
0.80069965 6.6957536 -0.37666383
0.91018033 7.6112719 0
1.1082768 9.2678308 0.52135384
0.66405165 5.6105437 -0.94188648
0.79729301 6.7362947 -0.7560761
0.79291487 6.6993041 -0.37680939
0.90281886 7.6278782 0
1.0964675 9.2640066 0.5210638
0.658167 5.6189837 -0.94316918
0.79035658 6.747529 -0.75722927
0.78421432 6.6950908 -0.37651885
0.89057314 7.6031098 0
1.084971 9.2627468 0.52091885
0.64989954 5.6070275 -0.94102973
0.78369164 6.761323 -0.75867045
0.77582514 6.6934547 -0.37637386
0.88258421 7.6145215 0
1.073179 9.2588835 0.52062827
0.64312404 5.6078086 -0.94102973
0.77670008 6.7725434 -0.75982362
0.76773685 6.694387 -0.37637386
0.8727904 7.6104159 0
0 0 0
0.63634765 5.6085815 -0.94102973
0.77434802 6.8248768 -0.76558948
0.75964743 6.6953101 -0.37637386
0.86418033 7.616632 0
1.0499216 9.2537022 0.52019268
0.62899822 5.604249 -0.94017464
0.77071673 6.8669329 -0.7702021
0.75097674 6.6910534 -0.37608328
0.85758865 7.6409445 0
1.0393198 9.2601328 0.52048326
0.6216591 5.5998974 -0.93931788
0.76841152 6.9218411 -0.77625597
0.74174452 6.6816258 -0.37550274
0.84979087 7.6549058 0
0 0 0
0.61405259 5.5929966 -0.93803519
0.76371652 6.9561858 -0.78000349
0.73650688 6.7083511 -0.37695441
0.8411094 7.6611056 0
0 0 0
0.60812449 5.6013832 -0.93931788
0.75810188 6.9828124 -0.78288591
0.72896099 6.7143979 -0.37724441
1.0189174 9.3851614 0
0 0 0
0.60053474 5.5944643 -0.93803519
0.75214821 7.006866 -0.78548026
0.72057033 6.7126927 -0.37709939
1.0089662 9.399332 0
0.99066943 9.2288828 0.51845157
0.59269089 5.5849748 -0.93632334
0.74149764 6.9871936 -0.78317392
0.71300781 6.7187314 -0.37738997
0.99431247 9.3694887 0
0.98143607 9.2481527 0.51946712
0.58850825 5.5776706 -0.93503904
0.73239154 6.9413452 -0.77798522
0.7119469 6.7475786 -0.37898609
0.98865169 9.3700876 0
0.97693926 9.2590809 0.52004772
0.58123523 5.5732665 -0.93418229
0.82514328 7.9120173 -0.88666564
0.70352399 6.745852 -0.37884107
0.97759873 9.3738613 0
0.96521217 9.2550907 0.51975769
0.57529044 5.5816278 -0.93546659
0.81399196 7.8975763 -0.88493639
0.6969704 6.7622008 -0.37971163
0.96627152 9.3750353 0
0.95429468 9.258832 0.51990271
0.56776512 5.5746546 -0.93418229
0.80418587 7.8959737 -0.88464731
0.69011527 6.7759609 -0.3804372
0.95652461 9.3917255 0
0.94336951 9.2625618 0.52004772
0.56128657 5.577898 -0.93461144
0.79360968 7.8866558 -0.88349521
0.68244815 6.7819653 -0.38072774
0.94439489 9.3851137 0
0.93269765 9.2688704 0.52033824
0.55353063 5.5683546 -0.93289959
0.78484643 7.8953228 -0.8843593
0.67630923 6.8034706 -0.38188887
0.93459827 9.401782 0
0.92149734 9.26999 0.52033824
0.54755378 5.5766764 -0.93418229
0.77429497 7.8859687 -0.88320613
0.66986573 6.8223877 -0.38290498
0.92298329 9.4003162 0
0.91004103 9.2685032 0.52019268
0.53982407 5.5671134 -0.93247038
0.76551485 7.8946242 -0.88407123
0.66387856 6.8464665 -0.38421109
0.91338265 9.4195595 0
0.9003464 9.2851191 0.5210638
0.53309685 5.5677614 -0.93247038
0.75523537 7.8878169 -0.88320613
0.65783417 6.8705406 -0.38551721
0.90100813 9.4102936 0
0.88937396 9.288785 0.52120882
0.52709395 5.5760713 -0.93375468
0.74643439 7.8964515 -0.88407123
0.64977628 6.8739147 -0.38566223
0.89037097 9.4191408 0
0.87814963 9.2898521 0.52120882
0.51940197 5.5664802 -0.93204284
0.73593134 7.8870463 -0.88291812
0.64243567 6.8850441 -0.38624278
0.88019878 9.4331741 0
0.86740726 9.2960863 0.5214994
0.51220524 5.561996 -0.93118775
0.72592694 7.8827834 -0.88234204
0.63244772 6.8677001 -0.38522667
0.86665142 9.4108992 0
0.85617417 9.2971277 0.5214994
0.50525218 5.5600567 -0.93076015
0.71640164 7.8836551 -0.88234204
0.62250358 6.8503523 -0.38421109
0.85622162 9.422307 0
0.84517467 9.3007402 0.52164435
0.49876258 5.5632176 -0.93118775
0.70548904 7.8690529 -0.88061178
0.61492121 6.8588562 -0.38464609
0.84553337 9.4311132 0
0.83370411 9.2991695 0.5214994
0.4911356 5.5535879 -0.92947584
0.69575268 7.8673258 -0.88032371
0.60594714 6.8518367 -0.38421109
0.83665919 9.4606466 0
0.82361162 9.3131094 0.52222496
0.48487046 5.5592871 -0.93033099
0.68534708 7.8578539 -0.87917054
0.81891471 9.3892746 -0.52643996
0.82409596 9.4486799 0
0.8123579 9.3140974 0.52222496
0.47859314 5.5649891 -0.93118775
0.67452264 7.8432193 -0.87744135
0.8057887 9.3695564 -0.5252794
0.81379408 9.4626408 0
0.80154794 9.3202448 0.52251494
0.47035033 5.5476556 -0.92819154
0.66570002 7.8517528 -0.87830544
0.79424667 9.3679266 -0.52513385
0.80148029 9.4532442 0
0.79072511 9.3263903 0.52280551
0.46364671 5.5482197 -0.92819154
0.65470511 7.8345165 -0.87628818
0.78487408 9.3921814 -0.52643996
0.79135722 9.4697618 0
0.77902222 9.322155 0.52251494
0.4575747 5.5564537 -0.92947584
0.64566231 7.8404522 -0.87686425
0.77117962 9.3646441 -0.52484387
0.77927333 9.4629278 0
0.7690376 9.3386326 0.52338606
0.45044488 5.5518804 -0.92861909
0.63639712 7.8438025 -0.87715226
0 0 -0
0.76741815 9.4586792 0
0.75796306 9.3421421 0.52353108
0.44332758 5.5473075 -0.927764
0.62588888 7.831677 -0.87571108
0 0 -0
0.75723219 9.4751596 0
0.74667436 9.3430519 0.52353108
0.43702686 5.5529528 -0.92861909
0.6160199 7.8272753 -0.875135
0 0 -0
0.74557877 9.4734764 0
0.73456907 9.3335848 0.52295047
0.43051577 5.5560436 -0.9290483
0.60696101 7.8331666 -0.87571108
0.72550756 9.3630753 -0.5245533
0.73513645 9.4873409 0
0.7246961 9.352603 0.52396661
0.42321619 5.5488782 -0.927764
0.59769219 7.8364706 -0.87599909
0.71458918 9.369132 -0.52484387
0.72228742 9.4700651 0
0.71319664 9.3508739 0.52382106
0.41555068 5.5365887 -0.92562455
0.58822292 7.8371873 -0.87599909
0.70268428 9.3622122 -0.52440828
0.71318161 9.5020733 0
0.70228672 9.3569155 0.52411163
0.40923819 5.542202 -0.9264797
0.57818192 7.8301611 -0.875135
0.69118017 9.360466 -0.52426332
0.70112455 9.4951391 0
0.69212794 9.3733006 0.52498215
0.40347078 5.5554914 -0.92861909
0.56797087 7.8205352 -0.87398183
0.67986941 9.3612938 -0.52426332
0.68965101 9.4959793 0
0.68080163 9.3741302 0.52498215
0.39584368 5.5431747 -0.9264797
0.55852091 7.8212161 -0.87398183
0.66855758 9.3621092 -0.52426332
0.67928839 9.5123768 0
0.66984487 9.3801346 0.52527273
0.39267582 5.5459709 -0.92690724
0.55288237 7.8086543 -0.87254065
0.66363543 9.372879 -0.52484387
0.67299044 9.5050049 0
0.66381031 9.375349 0.52498215
0.38615304 5.5490098 -0.92733645
0.5430873 7.8041511 -0.87196356
0.65122694 9.3581161 -0.52397275
0.66294968 9.5265703 0
0.65320307 9.3865128 0.5255627
0.37927222 5.5469041 -0.92690724
0.53312761 7.7970576 -0.8710984
0.6390329 9.3459368 -0.52324718
0.65037334 9.5117912 0
0.64221573 9.3924847 0.52585328
0.37308583 5.5550447 -0.92819154
0.52370602 7.7976961 -0.8710984
0.62843621 9.3570719 -0.52382773
0.64079821 9.5411358 0
0.63051766 9.3880644 0.5255627
0.36603585 5.5503731 -0.92733645
0.5149644 7.8086472 -0.87225157
0.53642637 8.1340847 -0.45532581
0.62875521 9.5341101 0
0.61934441 9.3914089 0.52570772
0.35883138 5.5431237 -0.92605215
0.50502807 7.8015275 -0.87138748
0.52391183 8.0932388 -0.45300359
0.61706668 9.5322685 0
0.60866767 9.402523 0.52628827
0.35376039 5.5691676 -0.93033099
0.49543664 7.7995434 -0.8710984
0.51166129 8.054965 -0.45082635
0.60505325 9.5252123 0
0.59780049 9.4110336 0.52672386
0.33998808 5.5648866 -0.92947584
0.476114 7.7929802 -0.87023431
0.48775792 7.9835663 -0.44676301
0.58250904 9.5344419 0
0.57537317 9.4176426 0.52701437
0.33295655 5.5601635 -0.92861909
0.46685183 7.7961292 -0.87052232
0.47780004 7.9789577 -0.44647244
0.57176578 9.5481262 0
0.56399339 9.4183311 0.52701437
0.32683936 5.5708122 -0.93033099
0.45773408 7.801847 -0.8710984
0.46770197 7.9717445 -0.44603688
0.56114262 9.564393 0
0.55337358 9.4319735 0.52773994
0.32010788 5.5712032 -0.93033099
0.44845554 7.8049841 -0.87138748
0.45941126 7.9956589 -0.44734356
0.54958546 9.5650644 0
0.54167807 9.4274416 0.52744937
0.31352049 5.5741563 -0.93076015
0.43916953 7.8081002 -0.87167549
0.45004129 8.0013914 -0.44763356
0.53817362 9.5683174 0
0.53072435 9.4358749 0.52788496
0.30650261 5.5693998 -0.92990339
0.42959264 7.8060451 -0.87138748
0.4395164 7.9863677 -0.44676301
0.52646887 9.5663643 0
0.51975101 9.4442959 0.52832049
0.30004904 5.5748978 -0.93076015
0.41918707 7.7884765 -0.86936915
0.42777124 7.9479699 -0.44458577
0.51588863 9.585187 0
0.50847858 9.4475088 0.52846551
0.29331264 5.5752559 -0.93076015
0.40964016 7.786397 -0.86908114
0.41775766 7.9406939 -0.44415021
0.50512654 9.6013918 0
0.49747241 9.4559031 0.5289011
0.28657582 5.5756063 -0.93076015
0.39996573 7.7817154 -0.86850405
0.40616229 7.9022751 -0.44197354
0.49218914 9.5760098 0
0.48631296 9.4616823 0.52919108
0.28022423 5.5836325 -0.93204284
0.39043325 7.7796121 -0.86821604
0.39478996 7.8664227 -0.43994132
0.48113984 9.5869942 0
0.47501013 9.4648561 0.52933609
0.27284956 5.5711498 -0.92990339
0.38115922 7.7826591 -0.86850405
0.38464922 7.8539195 -0.43921575
0.47044674 9.6057663 0
0.46433622 9.4809999 0.53020722
0.26672995 5.5842934 -0.93204284
0.37126151 7.7727799 -0.86735088
0.37367135 7.8232327 -0.43747407
0.45809448 9.5907259 0
0.45250791 9.4737654 0.52977163
0.26057902 5.5974307 -0.93418229
0.36186936 7.7732224 -0.86735088
0.36385608 7.8158989 -0.43703908
0.44735289 9.6094732 0
0.44142303 9.4820948 0.53020722
0.25346693 5.5900555 -0.93289959
0.35247666 7.7736545 -0.86735088
0.35299945 7.7851834 -0.4352974
0.43456236 9.5840034 0
0.43031821 9.4904013 0.53064221
0.2463726 5.5826616 -0.93161529
0.34228554 7.7559943 -0.86533362
0.34279025 7.7674303 -0.43428129
0.42309672 9.5871286 0
0.41850722 9.4831333 0.53020722
0.23918654 5.5726962 -0.92990339
0.3330245 7.7589836 -0.86562163
0.33295888 7.7574549 -0.43370074
0.3620761 8.4358435 0
0.40738237 9.4914131 0.53064221
0.23266701 5.5781159 -0.93076015
0.32364905 7.7593803 -0.86562163
0.32315212 7.7474666 -0.43312016
0.3507984 8.4102774 0
0.39623854 9.4996891 0.53107774
0.22613436 5.583518 -0.93161529
0.31291255 7.7261715 -0.8618741
0.31452674 7.7660284 -0.4341363
0.34263664 8.4600945 0
0.38528538 9.5131407 0.53180331
0.21928692 5.5812244 -0.93118775
0.30398291 7.7368822 -0.86302727
0.30422476 7.7430372 -0.43283018
0.33108589 8.4266987 0
0.37399456 9.5187969 0.53209388
0.21264052 5.5840483 -0.93161529
0.29414219 7.7243233 -0.86158609
0.29397878 7.7200322 -0.43152407
0.32030961 8.4114933 0
0.36209717 9.5088558 0.53151327
0.20627147 5.5945625 -0.93332714
0.28461784 7.7194986 -0.861009
0.28532031 7.7385511 -0.43253961
0.35760832 9.6991701 0
0.35166016 9.5378418 0.53310943
0.20242639 5.5818615 -0.93118775
0.27986038 7.7170868 -0.86072093
0.27621925 7.616683 -0.42571849
0.35005057 9.652565 0
0.34552148 9.5276756 0.53252941
0.19550161 5.5769663 -0.93033099
0.27017313 7.7070794 -0.85956776
0.26428494 7.5391102 -0.42136458
0.33902538 9.6711893 0
0.33428171 9.5358696 0.53296441
0.18911013 5.5874605 -0.93204284
0.26086044 7.7074003 -0.85956776
0.2462104 7.274549 -0.4065612
0.28165287 8.3217354 0
0.32275924 9.5362663 0.53296441
0.18227498 5.5851221 -0.93161529
0.25154737 7.7077098 -0.85956776
0.23818308 7.2982125 -0.40786731
0.26905096 8.2440405 0
0.31157532 9.5470381 0.53354496
0.17520379 5.5750747 -0.92990339
0.24223392 7.7080083 -0.85956776
0.22862995 7.2751226 -0.4065612
0.25696421 8.176733 0
0.30012089 9.5500021 0.53368998
0.16838981 5.5727191 -0.92947584
0.23307621 7.7134609 -0.86014384
0.21881904 7.241632 -0.4046745
0.24708402 8.1770382 0
0.2890524 9.5659466 0.5345611
0.16165614 5.5729184 -0.92947584
0.22360599 7.7085714 -0.85956776
0.20991823 7.236701 -0.40438449
0.23576997 8.1279116 0
0.27749363 9.5662889 0.5345611
0.1549935 5.5756731 -0.92990339
0.21328545 7.6726441 -0.85553223
0.20095727 7.2291546 -0.40394896
0.22457471 8.0787592 0
0.26607871 9.5718069 0.53485107
0.14832444 5.5784202 -0.93033099
0.20002718 7.5229383 -0.83881181
0.19097905 7.1826415 -0.40133673
0.21349885 8.0296021 0
0.25458211 9.5747261 0.53499663
0.14145377 5.5734677 -0.92947584
0.18594991 7.3266749 -0.81690276
0.1832888 7.2218237 -0.4035134
0.20353237 8.0194473 0
0.2430786 9.5776224 0.53514165
0.1347812 5.5761986 -0.92990339
0.17572205 7.2700129 -0.81056082
0.1745625 7.2220402 -0.4035134
0.19321331 7.9936652 0
0.23150574 9.5779085 0.53514165
0.12827906 5.5866227 -0.93161529
0.16604686 7.2314305 -0.80623621
0.16440436 7.1598992 -0.40003005
0.1834947 7.9912934 0
0.22011133 9.5859671 0.53557664
0.12119377 5.5713801 -0.9290483
0.15685897 7.2109389 -0.80392987
0.15541396 7.1445107 -0.39915949
0.17259359 7.9342732 0
0.20892403 9.604414 0.53659278
0.11461978 5.5792146 -0.93033099
0.14782718 7.1956124 -0.80220068
0.14646097 7.1291108 -0.39828894
0.16338047 7.952682 0
0.19699869 9.589077 0.5357222
0.10797766 5.584487 -0.93118775
0.13893259 7.185442 -0.8010475
0.1376458 7.1188908 -0.39770836
0.15377109 7.9528737 0
0.18636629 9.6386614 0.53847945
0.10095058 5.5692086 -0.92861909
0.12992209 7.1674995 -0.79902917
0.12918505 7.1268387 -0.39814338
0.14383146 7.9348464 0
0.17462562 9.6336889 0.53818941
0.09391737 5.5513668 -0.92562455
0.12108647 7.1573071 -0.797876
0.12074938 7.1373816 -0.39872393
0.13428763 7.937614 0
0.1643475 9.7144251 0.54268837
0.08720956 5.5514765 -0.92562455
0.11207258 7.1341753 -0.79528165
0.11183958 7.1193428 -0.39770836
0.12465563 7.9351711 0
0.15252785 9.7094259 0.54239833
0.080575995 5.5567064 -0.9264797
0.10315222 7.1136155 -0.79297531
0.10338786 7.1298656 -0.39828894
0.11480325 7.9170976 0
0.14102177 9.7251873 0.54326892
0.073759347 5.5490966 -0.9251954
0.094384886 7.1008062 -0.79153413
0.094738103 7.1273799 -0.39814338
0.10520235 7.9146309 0
0.12951246 9.7435398 0.544285
0.067209475 5.5620236 -0.92733645
0.085617431 7.0854025 -0.78980488
0.086471379 7.1560721 -0.39974004
0.09585914 7.932971 0
0.11739381 9.715106 0.54268837
0.060321257 5.5466943 -0.92476779
0.076859124 7.0673938 -0.7877866
0.078841738 7.2497001 -0.40496451
0.08666978 7.9695086 0
0.10576795 9.7256346 0.54326892
0.053693585 5.5544662 -0.92605215
0.068269551 7.0623136 -0.78721052
0.070835404 7.327745 -0.40931898
0.076864004 7.9513884 0
0.094091721 9.733552 0.54370445
0.047090597 5.5673599 -0.92819154
0.059670426 7.0546293 -0.78634542
0.062354807 7.371995 -0.4117862
0.067410357 7.9696951 0
0.082264602 9.7258615 0.54326892
0.032725606 4.5139041 -0.99999052
0.040307648 5.5597091 -0.92690724
0.051089969 7.0469346 -0.78548026
0.053805016 7.4214268 -0.41454342
0.057818186 7.9749703 0
0.070644625 9.7441444 0.544285
0.027271412 4.5139403 -0.99999052
0.033605348 5.5623283 -0.92733645
0.042496972 7.0340614 -0.78403908
0.044696365 7.3981032 -0.41323733
0.048181951 7.9750342 0
0.058964837 9.7598085 0.54515558
0.021768056 4.5038066 -0.99773896
0.026847105 5.5546613 -0.92605215
0.033960138 7.0263457 -0.78317392
0.035845093 7.4163432 -0.41425344
0.038520511 7.9698868 0
0.047184519 9.7624683 0.5453006
0.01632607 4.5038295 -0.99773896
0.020172585 5.5649576 -0.927764
0.025498282 7.0341439 -0.78403908
0.026865009 7.4111791 -0.41396287
0.028918745 7.9777374 0
0.035416719 9.7703161 0.54573613
0.01088406 4.5038462 -0.99773896
0.01339258 5.5418768 -0.9239127
0.01699263 7.0315852 -0.78375101
0.017916301 7.4138021 -0.41410789
0.019197408 7.9439268 0
0.0236049 9.7677565 0.54559112
0.0054420335 4.5038557 -0.99773896
0.0067118006 5.5547218 -0.92605215
0.0084681977 7.0083251 -0.78115666
0.0089455983 7.4034247 -0.41352731
0.0095987115 7.943944 0
0.011808733 9.7729692 0.54588115
0.0027179441 4.4987717 -0.99661213
0.0033574505 5.5572896 -0.9264797
0.0042434721 7.0238428 -0.78288591
0.0044633839 7.3878431 -0.41265675
0.004810364 7.9621687 0
0.0059137894 9.7885704 0.54675227
-0.0027256182 4.5114737 -0.99942601
-0.0033621045 5.5649934 -0.927764
-0.0042340993 7.0083289 -0.78115666
-0.0044712317 7.4008327 -0.41338232
-0.004827661 7.9907985 0
-0.0059075099 9.7781763 0.54617167
-0.0081492281 4.4962268 -0.99604976
-0.010058383 5.5495777 -0.9251954
-0.012721044 7.0186644 -0.78230983
-0.013390145 7.3878322 -0.41265675
-0.014539579 8.0220165 0
-0.017746065 9.791152 0.54689723
-0.013582033 4.4962134 -0.99604976
-0.016825993 5.5700979 -0.92861909
-0.021248583 7.0341578 -0.78403908
-0.022269806 7.3722248 -0.4117862
-0.024185423 8.0063734 0
-0.029576745 9.7911234 0.54689723
-0.018993307 4.491107 -0.99492294
-0.023523819 5.5623798 -0.92733645
-0.029737044 7.0315433 -0.78375101
-0.031144705 7.3643947 -0.41135064
-0.033804525 7.9933286 0
-0.041495293 9.8118677 0.54805839
-0.024447575 4.4961677 -0.99604976
-0.030272739 5.5674767 -0.92819154
-0.038233269 7.0315018 -0.78375101
-0.040000714 7.356554 -0.41091508
-0.051118005 9.4011412 0
-0.053350989 9.8118105 0.54805839
-0.029745212 4.4758081 -0.99154669
-0.036931686 5.557168 -0.9264797
-0.055151518 8.2987347 -0.9250071
-0.048768748 7.3383093 -0.40989897
-0.062166128 9.3542337 0
-0.06531018 9.8273239 0.54892892
-0.035253089 4.4884706 -0.99436057
-0.04368677 5.5622582 -0.92733645
-0.065585077 8.3503799 -0.93077189
-0.057431586 7.3122663 -0.40844786
-0.073673204 9.3801708 0
-0.077143759 9.8220463 0.54863894
-0.040722597 4.4935112 -0.99548745
-0.050430883 5.5647659 -0.927764
-0.076096788 8.3968544 -0.93596166
-0.06598442 7.2810111 -0.40670618
-0.084865794 9.3644657 0
-0.08903525 9.824542 0.5487839
-0.046021543 4.4807472 -0.99267137
-0.057339355 5.5826716 -0.93076015
-0 0 -0
-0.074301727 7.2341619 -0.40409395
-0.096528307 9.3981838 0
-0.10095955 9.8296185 0.54907393
-0.051348202 4.4730735 -0.99098432
-0.063849151 5.5620632 -0.92733645
-0.096536882 8.4095755 -0.93740284
-0.082356818 7.1743135 -0.40075615
-0.1078841 9.3980608 0
-0.11280685 9.8268938 0.54892892
-0.056624059 4.4628458 -0.98873281
-0.070700042 5.5722494 -0.9290483
-0.10669814 8.4094524 -0.93740284
-0.090563923 7.1378284 -0.39872393
-0.11947078 9.416132 0
-0.12481251 9.8371439 0.54950947
-0.067562342 4.472858 -0.99098432
-0.08412689 5.569488 -0.92861909
-0.12651238 8.3755522 -0.93365532
-0.10749903 7.1168036 -0.3975628
-0.14234348 9.423625 0
-0.14870244 9.8446102 0.54994506
-0.072883897 4.4676871 -0.98985749
-0.090730973 5.5616899 -0.92733645
-0.13675894 8.3831444 -0.93451941
-0.11575914 7.0958838 -0.3964017
-0.15343279 9.4052286 0
-0.16085184 9.8600063 0.55081558
-0.07828217 4.4675961 -0.98985749
-0.097361088 5.5564375 -0.9264797
-0.14702423 8.3907337 -0.93538451
-0.1243787 7.0983443 -0.39654726
-0.16493388 9.4128447 0
-0.17276561 9.8598051 0.55081558
-0.083727866 4.470036 -0.99041986
-0.10426719 5.5665827 -0.92819154
-0.15692052 8.3776217 -0.93394333
-0.13305281 7.1033797 -0.39683726
-0.17689221 9.4438639 0
-0.18482517 9.8673859 0.55125117
-0.088875748 4.457232 -0.98760593
-0.11078853 5.5561862 -0.9264797
-0.16683687 8.3670826 -0.93279016
-0.14142855 7.0928221 -0.39625669
-0.18939263 9.4982824 0
-0.1969033 9.8749514 0.5516867
-0.09415403 4.4520454 -0.98648125
-0.11728491 5.5457821 -0.92476779
-0.17650923 8.3461876 -0.93048382
-0.1502185 7.1030374 -0.39683726
-0.20207979 9.5552835 0
-0.20905487 9.8850975 0.55226725
-0.099249475 4.43923 -0.98366737
-0.12421533 5.555902 -0.9264797
-0.18670958 8.3511448 -0.93106097
-0.1575814 7.0482993 -0.39378947
-0.21345076 9.547224 0
-0.22099893 9.8848381 0.55226725
-0.10461335 4.4391065 -0.98366737
-0.13098888 5.5583119 -0.92690724
-0.19643444 8.3353939 -0.92933071
-0.1645062 6.9805679 -0.39001611
-0.22486405 9.5417604 0
-0.23288126 9.881959 0.5521217
-0.10972533 4.4288163 -0.98141587
-0.13738708 5.5453205 -0.92476779
-0.20682622 8.3480759 -0.93077189
-0.17229728 6.9543924 -0.388565
-0.23607102 9.5284758 0
-0.2448215 9.88167 0.5521217
-0.11560462 4.4490008 -0.98591894
-0.1440208 5.5425868 -0.92434025
-0.21671173 8.3400707 -0.9299078
-0.18056506 6.9489794 -0.38827443
-0.24866576 9.5698099 0
-0.2571665 9.8969574 0.55299282
-0.120704 4.4386983 -0.98366737
-0.15099695 5.5526733 -0.92605215
-0.22671841 8.3372097 -0.92961872
-0.18882027 6.9435658 -0.38798445
-0.26157278 9.6189241 0
-0.26884231 9.8862495 0.55241227
-0.1259228 4.4334645 -0.98254055
-0.15785179 5.5576138 -0.92690724
-0.23657204 8.3291807 -0.92875463
-0.19743119 6.9511175 -0.38841945
-0.27363837 9.6342049 0
-0.57313681 20.178886 1.12757
-0.13150539 4.4409308 -0.98422974
-0.16411121 5.5420284 -0.92434025
-0.24625304 8.3159542 -0.92731237
-0.20583011 6.9508739 -0.38841945
-0.28412399 9.5948544 0
-0.59767264 20.183378 1.1278605
-0.13632326 4.4229884 -0.98028898
-0.17088656 5.5443892 -0.92476779
-0.2552653 8.2820454 -0.92356485
-0.21454893 6.961009 -0.389
-0.29483527 9.5658875 0
-0.62238008 20.193029 1.1284411
-0.14215572 4.4380631 -0.98366737
-0.17824322 5.5647049 -0.92819154
-0.26419595 8.248126 -0.91981733
-0.22287668 6.9581499 -0.38885501
-0.30697685 9.5837345 0
-0.6471948 20.205246 1.1291667
-0.1478558 4.4480462 -0.98591894
-0.18445539 5.5490966 -0.92562455
-0.27149847 8.1676712 -0.91088104
-0.23197469 6.9786515 -0.39001611
-0.31864309 9.5859556 0
-0.67178088 20.209639 1.1294568
-0.15279262 4.4351597 -0.98310286
-0.19142516 5.5565586 -0.92690724
-0.27896315 8.0975513 -0.90309799
-0.24049625 6.9809608 -0.39016113
-0.32915038 9.5543518 0
-0.69655764 20.2192 1.1300373
-0.15573925 4.442687 -0.98479205
-0.19460244 5.5513163 -0.92605215
-0.28340191 8.0844498 -0.90165573
-0.24507789 6.9912014 -0.39074168
-0.33291692 9.4969368 0
-0.70941031 20.236956 1.1310533
-0.16027857 4.4196453 -0.97972667
-0.20130998 5.5510769 -0.92605215
-0.29279524 8.0737619 -0.90050256
-0.45607653 12.576207 -0.70292068
-0.34269431 9.4497185 0
-0.73405039 20.241272 1.1313434
-0.16580886 4.4245214 -0.98085135
-0.20772873 5.5431314 -0.92476779
-0.30012953 8.0087976 -0.8932966
-0.47107768 12.570458 -0.70263064
-0.35391709 9.4440908 0
-0.75860506 20.242975 1.1314889
-0.17095865 4.4192448 -0.97972667
-0.21422809 5.5377507 -0.9239127
-0.30640715 7.9205599 -0.88349521
-0.48656732 12.577662 -0.70306563
-0.36532819 9.443656 0
-0.78376704 20.260212 1.1325045
-0.17710863 4.4393463 -0.98422974
-0.220817 5.5349255 -0.92348516
-0.31412125 7.8736591 -0.87830544
-0 0 -0
-0.37705007 9.4510117 0
-0.80876476 20.272228 1.1332301
-0.18215941 4.43151 -0.98254055
-0.22834776 5.5551639 -0.92690724
-0.32331643 7.8655286 -0.87744135
-0.51728141 12.584241 -0.70350122
-0.38857627 9.4531469 0
-0.83293933 20.263456 1.1327951
-0.18772894 4.4363689 -0.98366737
-0.23386639 5.526679 -0.92220086
-0 0 -0
-0.53215694 12.575816 -0.70306563
-0.4004384 9.4630709 0
-0.85599512 20.228687 1.1309084
-0.19253652 4.423439 -0.98085135
-0.24054414 5.5263925 -0.92220086
-0.34288564 7.8776417 -0.87888253
-0.66632879 15.3086 -0.85588956
-0.41221198 9.4703836 0
-0.93421912 21.463261 1.1999909
-0.19788124 4.423203 -0.98085135
-0.24756582 5.5337934 -0.92348516
-0.35275042 7.8849659 -0.87974662
-0.68436122 15.2974 -0.85530901
-0.4234224 9.4646835 0
-0.95992059 21.45693 1.1997008
-0.20334263 4.4255066 -0.98141587
-0.25366268 5.5206614 -0.9213441
-0.36192182 7.87679 -0.87888253
-0.70379877 15.317328 -0.85647011
-0.76238209 16.592325 0
-0.98596555 21.458347 1.1998459
-0.208929 4.4303288 -0.98254055
-0.25997069 5.5126653 -0.92006141
-0.37180427 7.8840904 -0.87974662
-0.72193938 15.308688 -0.85603511
-0.78132689 16.567997 0
-1.0112811 21.444164 1.1991203
-0.21293204 4.402163 -0.97635043
-0.26737538 5.5277267 -0.9226284
-0.38120553 7.8810544 -0.87945861
-0.74118942 15.323372 -0.8569057
-0 0 0
-1.0388234 21.476665 1.201007
-0.21888004 4.4145889 -0.9791643
-0.27367288 5.5197053 -0.9213441
-0.39072797 7.8805881 -0.87945861
-0.75957561 15.319872 -0.85676068
-0.81775445 16.49328 0
-1.0655447 21.490961 1.2018776
-0.22382724 4.4067059 -0.97747511
-0.28099364 5.532197 -0.92348516
-0.3999877 7.874949 -0.87888253
-0.77795446 15.316351 -0.85661566
-0.83570284 16.4533 0
-1.0920389 21.500038 1.2024581
-0.22915173 4.4064326 -0.97747511
-0.28727794 5.5241599 -0.92220086
-0.40977111 7.879621 -0.87945861
-0.79713529 15.328372 -0.85734123
-0.85369039 16.415888 0
-1.1196361 21.529842 1.2041998
-0.23447588 4.4061522 -0.97747511
-0.29367951 5.5186772 -0.9213441
-0.41819224 7.8584576 -0.87715226
-0.81565607 15.327397 -0.85734123
-0.87283379 16.401852 0
-1.1453739 21.523289 1.2039098
-0.23938528 4.398252 -0.97578591
-0.30104551 5.5311422 -0.92348516
-0.42698464 7.8450356 -0.87571108
-0.83431673 15.328993 -0.85748625
-0.89321733 16.41118 0
-1.171662 21.527073 1.2041998
-0.2441349 4.3878117 -0.97353441
-0.30801353 5.5358953 -0.92434025
-0.43517047 7.8212738 -0.87311673
-0.8529824 15.330565 -0.85763127
-0.9136247 16.420483 0
-1.1976724 21.525642 1.2041998
-0.24885966 4.3773661 -0.97128284
-0.3135367 5.5150156 -0.9209165
-0.44418007 7.812993 -0.87225157
-0.87283301 15.352869 -0.85893738
-0.93479431 16.442749 0
-1.2244183 21.537148 1.2049253
-0.25385436 4.371994 -0.97015816
-0.32109341 5.5300145 -0.92348516
-0.45302048 7.8021221 -0.8710984
-0.89063036 15.338836 -0.85821182
-0.95526487 16.452 0
-0.62072259 10.690363 0.59812856
-0.25868571 4.3640723 -0.96846896
-0.32625583 5.5039916 -0.91920465
-0.46229461 7.7989893 -0.87081039
-0.90993232 15.350716 -0.85893738
-0.97560537 16.45863 0
-0.63302493 10.679239 0.59754854
-0.26334497 4.3536115 -0.9662174
-0.3339912 5.5215325 -0.92220086
-0.47124916 7.7906775 -0.86994523
-0.92800981 15.341831 -0.85850239
-0.99502015 16.449644 0
-0.64451575 10.655116 0.59624189
-0.2687622 4.3558335 -0.96678191
-0.34034616 5.515996 -0.9213441
-0.47954777 7.7720389 -0.86792797
-0.94638622 15.338098 -0.85835677
-1.0160177 16.466616 0
-0.65755039 10.65693 0.59638745
-0.2735464 4.3478951 -0.96509272
-0.34701091 5.5155807 -0.9213441
-0.48991254 7.7869368 -0.86965722
-0.96638691 15.36028 -0.85966289
-1.036404 16.473169 0
-0 0 0
-0.27847424 4.3424854 -0.96396589
-0.35400406 5.5202856 -0.92220086
-0.49799699 7.7656898 -0.86735088
-0.9822861 15.317621 -0.85734123
-1.0558081 16.464111 0
-0.68080759 10.616411 0.59421021
-0.28355557 4.3396125 -0.96340352
-0.35983723 5.5070481 -0.92006141
-0.50670534 7.7547584 -0.86619771
-0.84543937 12.938837 -0.7242552
-1.0757009 16.462824 0
-0.69346565 10.61299 0.59406519
-0.28896752 4.3417997 -0.96396589
-0.36580926 5.4963641 -0.91834956
-0.51676214 7.7644639 -0.86735088
-0.86055493 12.930025 -0.72381961
-1.0954195 16.458918 0
-0.7061165 10.609554 0.59392023
-0.2942135 4.3414474 -0.96396589
-0.37470651 5.529211 -0.9239127
-0.52579421 7.7586775 -0.8667748
-0.87547499 12.918606 -0.72323906
-1.1153061 16.457582 0
-0.71840835 10.600913 0.59348464
-0.29649004 4.3362036 -0.96284121
-0.37524506 5.4880061 -0.9170652
-0.53206933 7.78158 -0.86936915
-0.88239348 12.905115 -0.7225135
-1.124716 16.449114 0
-0.72534472 10.608257 0.59392023
-0.30190548 4.3383746 -0.96340352
-0.38347971 5.5105944 -0.9209165
-0.54272848 7.7989955 -0.87138748
-0.89582151 12.872933 -0.72077185
-1.1444103 16.445148 0
-0.73906392 10.620331 0.59464574
-0.30642954 4.3278685 -0.96115202
-0.38868746 5.4896417 -0.91749281
-0.5543431 7.8292847 -0.87484592
-0.9099071 12.851106 -0.71961069
-1.1646475 16.44894 0
-0.75373083 10.645345 0.59609687
-0.31056392 4.312294 -0.95777577
-0.39568949 5.4942937 -0.91834956
-0.56621867 7.862154 -0.87859452
-0.92431492 12.834452 -0.71874017
-1.1862043 16.470881 0
-0.76715326 10.652205 0.59653246
-0.31633046 4.3195105 -0.95946282
-0.40195262 5.4886861 -0.91749281
-0.57515121 7.8537226 -0.87772936
-0.93811435 12.810004 -0.71743405
-1.2066756 16.477224 0
-0.78059334 10.659046 0.596968
-0.32022956 4.3013954 -0.95552421
-0.40896589 5.4933214 -0.91834956
-0.582528 7.8246469 -0.87455791
-0.95224142 12.79072 -0.71641791
-1.2260045 16.467966 0
-0.79559368 10.686592 0.59856409
-0.32715189 4.3238058 -0.96058965
-0.4163779 5.5030622 -0.92006141
-0.59003109 7.798151 -0.87167549
-0.96651995 12.774019 -0.71554738
-1.2460988 16.469076 0
-0.80968237 10.701174 0.59943521
-0.33198622 4.3183355 -0.95946282
-0.4222399 5.4923172 -0.91834956
-0.59786713 7.7768016 -0.86936915
-0.97996199 12.746929 -0.71409571
-1.2642016 16.444197 0
-1.6730522 21.762352 1.2191488
-0.33700621 4.3154006 -0.95890045
-0.42927533 5.4969163 -0.91920465
-0.60665911 7.7683349 -0.86850405
-0.99475712 12.737971 -0.71366072
-1.2828549 16.427095 0
-1.6999528 21.76808 1.2195837
-0.34161818 4.3073988 -0.9572134
-0.43652603 5.5040731 -0.92048895
-0.61563659 7.7624445 -0.86792797
-1.008093 12.710852 -0.71220905
-1.3006457 16.399593 0
-1.7262541 21.766008 1.2195837
-0.34661806 4.3044429 -0.95664889
-0.44235212 5.4933066 -0.91877711
-0.62543035 7.7668462 -0.86850405
-1.0226165 12.699265 -0.71162844
-1.3185806 16.374666 0
-1.7531787 21.771679 1.2200192
-0.35244012 4.3116207 -0.95833808
-0.44898936 5.4927683 -0.91877711
-0.63481462 7.7660847 -0.86850405
-1.0345732 12.656582 -0.70930624
-1.3379408 16.367868 0
-1.7811779 21.790264 1.2211804
-0.35701919 4.3035927 -0.95664889
-0.45541397 5.489666 -0.91834956
-0.64462602 7.7704725 -0.86908114
-1.0502956 12.660507 -0.70959681
-1.3566417 16.353273 0
-1.8090098 21.806225 1.2221965
-0.36030105 4.2803731 -0.9515835
-0.4620468 5.4891114 -0.91834956
-0.65401465 7.7696877 -0.86908114
-1.0638489 12.638515 -0.70843565
-1.3757453 16.34384 0
-1.836228 21.814371 1.2227765
-0.36741826 4.3027172 -0.95664889
-0.46889719 5.4911046 -0.91877711
-0.66296178 7.7637329 -0.86850405
-1.0766872 12.608738 -0.70683903
-1.3961571 16.349947 0
-1.8641329 21.830261 1.2237927
-0.37064397 4.2794895 -0.9515835
-0.4761965 5.498209 -0.92006141
-0.67122656 7.7500443 -0.86706287
-1.0914736 12.602255 -0.70654899
-1.4159118 16.348249 0
-1.890958 21.833176 1.2240832
-0.37648174 4.2866344 -0.9532727
-0.48261443 5.4950647 -0.9196322
-0.67787498 7.7183089 -0.86360335
-0.80071855 9.1170092 -0.51120156
-1.4349811 16.338747 0
-1.9182471 21.841228 1.2246637
-0.38188618 4.2887049 -0.95383501
-0.48879886 5.4893689 -0.91877711
-0.68651301 7.7097626 -0.86273926
-0.80989033 9.0953293 -0.51004046
-1.4561076 16.352558 0
-1.9457886 21.851833 1.2253892
-0.39155453 4.2801762 -0.95214581
-0.50253034 5.4932795 -0.9196322
-0.70396364 7.6951952 -0.86129701
-0.8280803 9.0519438 -0.50771827
-0.83583552 9.1367178 0
-2.0019038 21.883289 1.2274209
-0.39485064 4.2594695 -0.94764495
-0.5094052 5.4952316 -0.92006141
-0.71302277 7.6917658 -0.861009
-0.83829743 9.0431719 -0.50728267
-0.84591401 9.1253357 0
-2.0302629 21.901554 1.2285821
-0.40023443 4.2615166 -0.94820726
-0.51556414 5.4894958 -0.91920465
-0.72231627 7.6908989 -0.861009
-0.84800911 9.0292196 -0.50655711
-0.85474962 9.1009893 0
-2.0574543 21.906849 1.2290176
-0.40514293 4.2585025 -0.94764495
-0.52219677 5.4888687 -0.91920465
-0.73087353 7.6822934 -0.86014384
-0.85694975 9.007494 -0.50539601
-0.86426735 9.0844107 0
-2.085645 21.922447 1.2300332
-0.40980035 4.2529469 -0.94651806
-0.52882862 5.4882336 -0.91920465
-0.74040437 7.6839867 -0.86043292
-0.86633801 8.9909382 -0.50452542
-0.87374532 9.067812 0
-2.1123824 21.922504 1.2301787
-0.4154329 4.2575111 -0.94764495
-0.53570879 5.4901433 -0.9196322
-0.74968839 7.6830864 -0.86043292
-0.8772012 8.9898844 -0.50452542
-0.88318539 9.0512133 0
-2.139374 21.925102 1.2304688
-0.42232496 4.2746987 -0.9515835
-0.54057616 5.4716167 -0.91663766
-0.75820822 7.6744504 -0.85956776
-0.88729638 8.9810581 -0.50408989
-0.89232999 9.0320072 0
-2.167397 21.938013 1.2313393
-0.42293859 4.2286811 -0.94145262
-0.54871947 5.4862804 -0.91920465
-0.7672236 7.6709576 -0.85927975
-0.89530277 8.9515362 -0.5024932
-0.90246654 9.0231619 0
-2.1951971 21.948313 1.2320654
-0.42855918 4.2332182 -0.94257736
-0.55353898 5.4677429 -0.91621011
-0.77701241 7.6751666 -0.85985583
-0.90664226 8.9556236 -0.50278378
-0.91205716 9.0091105 0
-2.2230239 21.958569 1.2327909
-0.43160203 4.2124758 -0.93807423
-0.56145328 5.479836 -0.91834956
-0.78734028 7.684514 -0.861009
-0.91693252 8.9493465 -0.5024932
-0.9234733 9.0131845 0
-2.2506144 21.966206 1.2333715
-0.43878794 4.2321701 -0.94257736
-0.56675076 5.4663892 -0.91621011
-0.79582447 7.6758366 -0.86014384
-0.92720997 8.9430676 -0.50220323
-0.93248433 8.9939394 0
-2.2801015 21.991894 1.2349677
-0.44187236 4.2369637 -0.94370419
-0.56952012 5.4609346 -0.91535336
-0.80046171 7.6753545 -0.86014384
-0.93207318 8.9373322 -0.50191265
-0.93683803 8.9830208 0
-2.2939272 21.995686 1.2352582
-0.44592515 4.2263188 -0.94145262
-0.57665741 5.465353 -0.91621011
-0.81109309 7.6872501 -0.86158609
-0.94259912 8.9336176 -0.50176764
-0.94796544 8.984478 0
-2.322684 22.013571 1.2364193
-0.38434315 3.6009648 -0.99913853
-0.45022222 4.218195 -0.93976343
-0.58135343 5.4467816 -0.91321391
-0.81900769 7.6733975 -0.86014384
-0.95256537 8.9247179 -0.5013321
-0.9579919 8.9755602 0
-2.3523142 22.039162 1.2380154
-0.45695561 4.23281 -0.94314182
-0.58986336 5.4639435 -0.91621011
-0.82855731 7.6749816 -0.86043292
-0.96362817 8.9261513 -0.50147766
-0.96715987 8.9588661 0
-2.3800583 22.046637 1.238596
-0.46289632 4.2398252 -0.94482887
-0.59423614 5.4428115 -0.91278636
-0.83614558 7.6585426 -0.85870266
-0.97497648 8.9301424 -0.50176764
-0.97826749 8.9602852 0
-2.4072602 22.048916 1.2388866
-0.39766884 3.6020391 -0.99983001
-0.46718332 4.2316937 -0.94314182
-0.60193908 5.4522958 -0.91449827
-0.84653413 7.66781 -0.85985583
-0.98234439 8.8979645 -0.50002599
-0.98937881 8.9616814 0
-2.4356105 22.061483 1.2397572
-0.4020209 3.6015561 -0.99983001
-0.46834934 4.1957679 -0.93526036
-0.60795653 5.4464569 -0.91364151
-0.8546508 7.6564994 -0.85870266
-0.99280715 8.8941908 -0.49988097
-0.99934012 8.9527178 0
-2.4622657 22.058523 1.2397572
-0.47712255 4.2280202 -0.94257736
-0.61396194 5.4406219 -0.91278636
-0.86303121 7.6477485 -0.8578375
-1.0029712 8.887826 -0.49959099
-1.0104486 8.9540873 0
-2.4915395 22.07877 1.2410632
-0.40958592 3.5906036 -0.99706137
-0.48107901 4.2173424 -0.9403258
-0.62082607 5.4424238 -0.91321391
-0.87109989 7.6364303 -0.8566854
-1.0128258 8.8788595 -0.49915543
-1.0206777 8.9476929 0
-2.5202773 22.093817 1.2420794
-0.41335005 3.5851264 -0.99567837
-0.48471966 4.2041397 -0.93751192
-0.62563699 5.4263639 -0.91064531
-0.88091832 7.6405063 -0.85726148
-1.0235535 8.8776293 -0.49915543
-1.0297006 8.9309464 0
-2.5505428 22.121731 1.243821
-0.48950538 4.2010293 -0.93694955
-0.63308483 5.4332557 -0.91192961
-0.88775492 7.6188836 -0.85495514
-1.03458 8.8789644 -0.49930042
-1.041997 8.9426174 0
-2.5775712 22.121212 1.243966
-0.42377231 3.5990615 -0.99983001
-0.49368948 4.192862 -0.93526036
-0.63844866 5.4222889 -0.91021776
-0.8969602 7.6178055 -0.85495514
-1.0447006 8.8725519 -0.49901041
-1.0512801 8.9284315 0
-2.6042986 22.118082 1.243966
-0.42693526 3.588582 -0.99706137
-0.49905643 4.1947927 -0.93582487
-0.64499998 5.4215136 -0.91021776
-0.90769172 7.6295552 -0.85639632
-1.0554206 8.8712835 -0.49901041
-1.0629891 8.9349003 0
-2.6328633 22.130396 1.2448366
-0.43127105 3.5880635 -0.99706137
-0.50291175 4.1840959 -0.93357337
-0.65369505 5.4385738 -0.91321391
-0.91536683 7.6156154 -0.85495514
-1.0658281 8.8674145 -0.49886486
-1.0734742 8.9310274 0
-2.5132468 20.909563 1.1763346
-0.435002 3.5825636 -0.99567837
-0.51041603 4.2036543 -0.93807423
-0.65902835 5.4275866 -0.91150206
-0.92269814 7.599103 -0.85322589
-1.0777947 8.8764381 -0.49944544
-1.0830101 8.9193897 0
-2.5385101 20.906511 1.1763346
-0.43994072 3.5870109 -0.99706137
-0.51240236 4.1778193 -0.93244648
-0.66464823 5.4191399 -0.91021776
-0.93187952 7.5979824 -0.85322589
-1.087254 8.8648129 -0.49886486
-1.0972719 8.9464922 0
-2.5637696 20.903429 1.1763346
-0.44520015 3.5939484 -0.99913853
-0.51776212 4.1797161 -0.93300885
-0.67056513 5.4132428 -0.90936261
-0.94264907 7.609683 -0.85466707
-1.098285 8.8660784 -0.49901041
-1.1080811 8.9451599 0
-2.5832748 20.853893 1.1737219
-0.44829673 3.5834503 -0.99636984
-0.5250203 4.1967387 -0.93694955
-0.67774218 5.4175181 -0.91021776
-0.94991612 7.5931344 -0.8529368
-1.1086736 8.8621588 -0.49886486
-1.1224415 8.9722128 0
-2.6023433 20.801775 1.1709646
-0.52658755 4.1683693 -0.93075728
-0.68364489 5.4116063 -0.90936261
-0.95844257 7.586854 -0.85236079
-1.119381 8.8608131 -0.49886486
-1.1316513 8.957943 0
-2.6232429 20.765104 1.169078
-0.45695519 3.5823565 -0.99636984
-0.53323227 4.1803398 -0.93357337
-0.68888396 5.4005904 -0.90765077
-0.96728212 7.583127 -0.85207272
-1.1314019 8.8697643 -0.49944544
-1.1451088 8.9772215 0
-2.6450443 20.736149 1.1676269
-0.45904124 3.5643914 -0.99152672
-0.53763324 4.1746473 -0.93244648
-0.69573659 5.402298 -0.90807831
-0.97677422 7.5845156 -0.85236079
-1.1417868 8.8658161 -0.49930042
-1.1562873 8.9784098 0
-2.6657822 20.699427 1.1657397
-0.54562515 4.1966696 -0.93751192
-0.70259434 5.4039965 -0.90850586
-0.984604 7.57307 -0.85120761
-1.1524986 8.8644295 -0.49930042
-1.1674703 8.9795847 0
-2.6844273 20.64724 1.1629823
-0.47124374 3.5906262 -0.99913853
-0.54970461 4.1884565 -0.93582487
-0.70945728 5.4056864 -0.90893346
-0.99409008 7.5744371 -0.85149562
-1.1635466 8.8656044 -0.49944544
-1.1783196 8.9781675 0
-2.7046402 20.607918 1.1609507
-0.47492367 3.5850849 -0.99775553
-0.5571 4.2054143 -0.93976343
-0.71531487 5.3997402 -0.90807831
-1.0022236 7.5655456 -0.85063154
-1.1746002 8.8667755 -0.49959099
-1.1878012 8.9664268 0
-2.7094066 20.452662 1.1523879
-0.47825748 3.5770462 -0.99567837
-0.56083411 4.194664 -0.93751192
-0.72013819 5.3861523 -0.90593892
-1.0110205 7.561758 -0.85034245
-1.1860012 8.8704958 -0.49988097
-1.1975995 8.9572439 0
-2.7162113 20.315445 1.1448406
-0.48190898 3.5714979 -0.99429536
-0.56692177 4.20154 -0.93920112
-0.7273317 5.3903613 -0.90679401
-1.0208491 7.5656624 -0.85091954
-1.1977613 8.8767843 -0.50031656
-1.2101614 8.9686832 0
-2.7285962 20.222027 1.1397612
-0.48859245 3.5883067 -0.99913853
-0.57096934 4.1932964 -0.93751192
-0.73384434 5.3894787 -0.90679401
-1.0282456 7.5516114 -0.84947836
-1.2077845 8.8701763 -0.50002599
-1.2206467 8.9646387 0
-2.7481213 20.182674 1.1377295
-0.57499909 4.1850591 -0.93582487
-0.73965782 5.3835068 -0.90593892
-1.0366646 7.5452337 -0.84890127
-1.220271 8.8815889 -0.50075209
-1.2304147 8.9554195 0
-2.7679086 20.145876 1.1358428
-0.49347422 3.5597875 -0.99152672
-0.58319527 4.2070103 -0.94089031
-0.74510437 5.3749781 -0.90465456
-1.0457808 7.5439758 -0.84890127
-1.2313582 8.8826799 -0.50089711
-1.2412348 8.9539261 0
-2.7915347 20.137363 1.1355523
-0.49977526 3.5892968 -0.99983001
-0.58293349 4.1865244 -0.93638724
-0.74693543 5.364357 -0.90294272
-1.0485551 7.5305362 -0.84746009
-1.2374405 8.8870764 -0.50118709
-1.2473626 8.9583349 0
-2.8001173 20.109943 1.1341012
