# .PCD v0.7 - Point Cloud Data file format
VERSION 0.7
FIELDS x y z
SIZE 4 4 4
TYPE F F F
COUNT 1 1 1
WIDTH 1620
HEIGHT 1
VIEWPOINT 0 0 0 1 0 0 0
POINTS 1620
DATA ascii
3.0815995 1.7899355 -0.98322076
3.7627187 2.1855609 -0.96396589
4.803246 2.7899475 -0.92605215
6.9234648 4.0214682 -0.89243144
11.600942 6.7383633 -0.74936306
15.03108 8.7307463 0
19.684818 11.433852 1.2715411
2.6078224 1.5189608 -0.99510944
3.0772688 1.7923962 -0.98252928
3.7512927 2.1849904 -0.96171433
4.7976556 2.7944584 -0.92562455
6.9208331 4.0311317 -0.89271951
11.619736 6.7680697 -0.75110471
15.03851 8.7593803 0
19.65752 11.449784 1.2706705
2.5995803 1.5183699 -0.9926638
3.0491049 1.7809294 -0.97422332
3.7618182 2.1972129 -0.96509272
4.7942753 2.8002534 -0.92562455
6.9070239 4.0342731 -0.89156634
11.622766 6.7886562 -0.75183028
15.068362 8.8011694 0
19.634695 11.468287 1.27009
2.5870821 1.5152653 -0.98858976
3.0447798 1.7833408 -0.97352916
3.7416205 2.1914835 -0.96058965
4.7931013 2.8073404 -0.92605215
6.9110713 4.0478449 -0.89271951
11.632492 6.8132014 -0.75299138
15.08242 8.8338394 0
19.616335 11.489373 1.2697995
3.0750737 1.8060778 -0.98391229
3.7455449 2.1998646 -0.96227884
4.7852745 2.8105273 -0.9251954
6.8994823 4.0522614 -0.89185435
11.635451 6.8338304 -0.75371695
15.107641 8.8731451 0
19.604677 11.514382 1.2699444
2.5940592 1.5277832 -0.9926638
3.0383017 1.7894218 -0.97283769
3.7494459 2.2082534 -0.96396589
4.7907228 2.8215182 -0.92690724
6.8923545 4.0592837 -0.89156634
11.642852 6.8571115 -0.75473249
15.126059 8.9085617 0
19.606424 11.547294 1.2709606
2.6092367 1.5409714 -0.99918354
3.046936 1.7994692 -0.97629786
3.7533405 2.2166598 -0.96565509
4.7828937 2.8246965 -0.92605215
6.8896694 4.068923 -0.89185435
11.647987 6.8791051 -0.75560361
15.135449 8.9387417 0
19.64839 11.604009 1.2745889
3.0339684 1.7967589 -0.97283769
3.7419143 2.2160144 -0.96340352
4.7750549 2.8278549 -0.9251954
6.8713994 4.0693398 -0.8901251
11.646376 6.8971481 -0.7560392
15.138068 8.9649773 0
19.670128 11.648927 1.2769111
2.5863812 1.5359155 -0.9918496
3.0576801 1.8157953 -0.98114365
3.739234 2.2205341 -0.96340352
4.7826772 2.8401802 -0.92733645
6.8686991 4.0789585 -0.89041317
11.653666 6.9204988 -0.75705475
15.133941 8.9872503 0
19.694017 11.69524 1.2793784
2.5908961 1.5428345 -0.9942953
3.0339327 1.8066552 -0.97422332
3.7299967 2.2211494 -0.96171433
4.779242 2.845957 -0.92733645
6.8615451 4.0859332 -0.8901251
11.658696 6.9425545 -0.75792587
15.140959 9.0161829 0
19.715584 11.740294 1.2817
2.5699253 1.534556 -0.98695827
3.0489795 1.8206093 -0.97976065
3.7360363 2.2308652 -0.96396589
4.7647729 2.8451455 -0.9251954
6.8588219 4.0955458 -0.89041317
11.659223 6.9619651 -0.75850642
15.138991 9.0398073 0
19.732622 11.782761 1.2837323
2.5617137 1.5338547 -0.98451573
3.0618382 1.8333099 -0.98460376
3.7442443 2.2419083 -0.96678191
4.7635407 2.8522232 -0.92562455
6.8627443 4.1091452 -0.89156634
11.653029 6.9773817 -0.75865144
19.760971 11.832104 0
19.751804 11.826614 1.2859089
2.5768106 1.5471271 -0.9910354
3.0510173 1.8318427 -0.98183513
3.7306342 2.2398872 -0.96396589
4.7688942 2.8632627 -0.92733645
6.8533435 4.1147742 -0.89099026
11.644589 6.991457 -0.75865144
19.780123 11.876062 0
19.77537 11.873209 1.2883762
2.58764 1.557886 -0.99592364
3.02946 1.8238832 -0.97560632
3.7344577 2.2483263 -0.96565509
4.7632256 2.8676949 -0.92690724
6.8395033 4.1177158 -0.88983709
11.640581 7.0082002 -0.75894141
19.821497 11.933512 0
19.785498 11.911839 1.2899729
2.5899916 1.5635687 -0.99755514
3.0229626 1.8249516 -0.97422332
3.7317383 2.2528372 -0.96565509
4.7641563 2.8761041 -0.927764
6.8389468 4.1286478 -0.89041317
11.638781 7.0262904 -0.759377
19.829346 11.970906 0
19.817804 11.963938 1.2930207
3.0411799 1.8384573 -0.98045212
3.7216787 2.2498331 -0.96340352
4.7668076 2.8816354 -0.92861909
6.8275976 4.1274266 -0.88925999
11.643428 7.0386977 -0.75995755
19.86442 12.008461 0
19.857267 12.004137 1.2960684
2.5786991 1.5631355 -0.9942953
3.036813 1.8408315 -0.97976065
3.727649 2.2595971 -0.96565509
4.7611289 2.8860638 -0.92819154
6.8270335 4.1383576 -0.88983709
11.641583 7.0568037 -0.76039308
19.878826 12.049991 0
19.867193 12.042939 1.2976651
3.0474453 1.8523154 -0.98391229
3.724916 2.2640996 -0.96565509
4.7554464 2.8904824 -0.927764
6.8242359 4.1479459 -0.8901251
11.626385 7.0668149 -0.75995755
19.904285 12.098336 0
19.877047 12.081779 1.2992612
2.5643554 1.5629274 -0.9902181
3.0559139 1.8625233 -0.9873724
3.726521 2.271246 -0.96678191
4.7607188 2.9015703 -0.92947584
6.814806 4.1534986 -0.88954908
11.633371 7.0903254 -0.76097363
19.929649 12.146754 0
19.904593 12.131483 1.302019
2.5877724 1.5814911 -0.99999768
3.0301201 1.8518275 -0.97976065
3.7194338 2.2730947 -0.96565509
4.7484474 2.9019661 -0.927764
6.8053641 4.15903 -0.88897198
11.629226 7.1070843 -0.76126367
19.970472 12.204754 0
19.943123 12.18804 1.3055018
3.0449848 1.8659691 -0.9852953
3.7166843 2.2775872 -0.96565509
4.7515063 2.9117267 -0.9290483
6.7893095 4.1604943 -0.88753074
11.627278 7.125205 -0.7616992
19.975679 12.241112 0
19.961617 12.232494 1.3076791
3.0277717 1.8604569 -0.98045212
3.7269146 2.2900553 -0.96903127
4.7392359 2.9120901 -0.92733645
6.7952938 4.1754637 -0.88897198
11.623084 7.1419673 -0.76198924
20.002996 12.291123 0
19.984457 12.279731 1.3101463
3.0383327 1.8720075 -0.98460376
3.7263143 2.2958934 -0.96959579
4.7444558 2.9232006 -0.9290483
6.7880435 4.1823163 -0.88868392
11.621084 7.1600966 -0.76242477
20.028017 12.339859 0
20.00942 12.328401 1.3127586
3.0275314 1.8704031 -0.98183513
3.7235374 2.3003943 -0.96959579
4.7583828 2.9397199 -0.93247038
6.7829852 4.190515 -0.88868392
11.621266 7.1795964 -0.76300532
20.035229 12.377726 0
20.023245 12.370322 1.3146452
2.567667 1.5905896 -0.99592364
3.0231385 1.8727399 -0.98114365
3.712115 2.2995396 -0.96734428
4.7417378 2.9373589 -0.92990339
6.78231 4.2014294 -0.88925999
11.61479 7.1950002 -0.76315033
20.044598 12.417003 0
20.07897 12.438295 1.3192897
3.0230024 1.8777139 -0.98183513
3.7136464 2.3067019 -0.96846896
4.7425508 2.9457977 -0.93076015
6.7794318 4.21099 -0.88954908
11.603883 7.2076592 -0.76300532
20.056099 12.457686 0
20.050678 12.454319 1.3184185
2.9994404 1.8681048 -0.97491485
3.7130113 2.3125296 -0.96903127
4.7411647 2.9528818 -0.93118775
6.7699437 4.2164412 -0.88897198
11.601784 7.2257977 -0.76344091
12.777961 7.9583411 0
21.989716 13.695586 1.4470057
2.5597901 1.5985788 -0.99510944
3.0312276 1.8929896 -0.98598945
3.7059081 2.3143251 -0.96790659
4.7419438 2.9613254 -0.93204284
6.7626524 4.2232494 -0.88868392
11.597448 7.2425609 -0.76373088
12.737428 7.954473 0
21.977554 13.724896 1.4472957
2.5578566 1.6016706 -0.99510944
3.0353107 1.9006413 -0.98806393
3.7095718 2.3228481 -0.96959579
4.7274857 2.9602423 -0.92990339
6.7575445 4.2314181 -0.88868392
11.595298 7.2607074 -0.76416641
12.730019 7.9712434 0
21.945545 13.741793 1.4462801
3.0308893 1.9029748 -0.9873724
3.7067623 2.3273287 -0.96959579
4.7260776 2.9673159 -0.93033099
6.7611885 4.2450814 -0.88983709
11.577714 7.269186 -0.76358587
12.707149 7.9783134 0
21.920122 13.762773 1.4456996
3.0200953 1.9012893 -0.98460376
3.7103922 2.3358629 -0.97128284
4.7290077 2.9771285 -0.93161529
6.7472987 4.247736 -0.88868392
11.56452 7.2803984 -0.76329535
12.684289 7.9853454 0
21.881483 13.775402 1.444248
2.558306 1.6148913 -0.99755514
3.0114377 1.9009236 -0.98252928
3.7054205 2.3389895 -0.97072047
4.736259 2.9896905 -0.93375468
6.7421613 4.2558856 -0.88868392
11.568902 7.3026915 -0.76416641
12.661423 7.9923282 0
21.860432 13.799061 1.4439579
2.5375509 1.606081 -0.9902181
3.0282152 1.916635 -0.98875809
3.7004466 2.3421075 -0.97015816
4.7239666 2.9899197 -0.93204284
6.7370143 4.264029 -0.88868392
11.555675 7.3138828 -0.7638759
12.638566 7.9992728 0
21.821789 13.81157 1.4425068
3.0152998 1.9135674 -0.9852953
3.697614 2.3465772 -0.97015816
4.7311854 3.0025017 -0.93418229
6.7318568 4.2721663 -0.88868392
11.540253 7.3236675 -0.76344091
12.628891 8.0145378 0
21.789726 13.82818 1.4414907
3.0214517 1.9225967 -0.98806393
3.6947758 2.3510432 -0.97015816
4.7253904 3.0068393 -0.93375468
6.73105 4.283072 -0.88925999
11.531396 7.337606 -0.76344091
12.603827 8.0200109 0
21.766422 13.850312 1.4410552
2.5504711 1.6272372 -0.99755514
3.0170135 1.924898 -0.9873724
3.6833642 2.3500392 -0.96790659
4.7195916 3.0111675 -0.93332714
6.7302351 4.2939868 -0.88983709
11.515947 7.3473401 -0.76300532
12.578775 8.0254393 0
21.747482 13.875207 1.4409101
3.0273695 1.9366564 -0.99152672
3.6826601 2.3558562 -0.96846896
4.71595 3.0168679 -0.93332714
6.7163267 4.2965407 -0.88868392
11.507061 7.3612494 -0.76300532
12.5603 8.0350227 0
12.673573 8.1074858 0.84035391
2.5423663 1.6307245 -0.99592364
3.0102434 1.9308302 -0.98668092
3.6840925 2.3630505 -0.96959579
4.7101426 3.0211794 -0.93289959
6.7024217 4.299067 -0.88753074
11.495973 7.3737464 -0.7628603
12.546196 8.0473804 0
12.6419 8.1087675 0.83890283
3.0121243 1.9371775 -0.98806393
3.6876397 2.3716195 -0.97128284
4.7064886 3.0268686 -0.93289959
6.7037506 4.3113608 -0.88839591
11.487055 7.3876319 -0.7628603
12.505823 8.0428286 0
12.623351 8.1184139 0.83832228
3.0203295 1.9476175 -0.99152672
3.6933131 2.3815815 -0.97353441
4.7114573 3.0381179 -0.93461144
6.6985364 4.319458 -0.88839591
11.47812 7.4015064 -0.7628603
12.482968 8.049469 0
12.596062 8.1223955 0.83716112
3.0128274 1.945358 -0.98944956
3.6854758 2.3796816 -0.97184736
4.709621 3.0409639 -0.93461144
6.6937461 4.3220973 -0.88810682
11.473646 7.4084396 -0.7628603
12.456244 8.0428944 0
12.567138 8.1144981 0.83556449
3.0041547 1.9449055 -0.9873724
3.6825979 2.3841331 -0.97184736
4.7059431 3.0466523 -0.93461144
6.6863499 4.3287778 -0.88781881
11.464686 7.4222975 -0.7628603
12.442151 8.0551138 0
12.544241 8.1212072 0.83469391
2.5396833 1.6485627 -0.99836934
3.0165348 1.958097 -0.9922182
3.677577 2.3871937 -0.97128284
4.7087121 3.0565252 -0.93589413
6.6963029 4.3467131 -0.88983709
11.475323 7.4488769 -0.76416641
12.43677 8.0729733 0
12.51916 8.1264534 0.83367777
3.0057559 1.9562665 -0.98944956
3.685344 2.3985696 -0.97409886
4.7050152 3.0622127 -0.93589413
6.682375 4.3491573 -0.88868392
11.470666 7.465569 -0.76445645
12.433553 8.0922546 0
12.502805 8.1373262 0.83324277
3.001291 1.9585272 -0.98875809
3.6824429 2.4030209 -0.97409886
4.6927123 3.062284 -0.93418229
6.6814427 4.3600531 -0.88925999
11.468167 7.483685 -0.76489198
12.415048 8.1015835 0
12.486432 8.1481667 0.83280724
3.0136116 1.9717633 -0.9936012
3.6667752 2.3991189 -0.97072047
4.6997557 3.0749834 -0.93632334
6.6740074 4.3667083 -0.88897198
11.454771 7.4946942 -0.76460201
12.41396 8.1222782 0
12.463528 8.1547089 0.83193612
3.0259128 1.9850372 -0.998447
3.6681268 2.406338 -0.97184736
4.7046223 3.0862923 -0.93803519
6.6795373 4.3818617 -0.89041317
11.443528 7.5071001 -0.76445645
12.408485 8.1401243 0
12.440633 8.1612139 0.83106554
2.9941719 1.9693937 -0.98875809
3.6715791 2.4149532 -0.97353441
4.6880174 3.0835078 -0.93546659
6.6612763 4.3814039 -0.88868392
11.430111 7.5180688 -0.76416641
12.413863 8.1651239 0
12.422079 8.1705284 0.83048499
2.9917901 1.9730102 -0.98875809
3.6644201 2.4165928 -0.97240967
4.6907191 3.0934112 -0.93675089
6.6646142 4.3951454 -0.88983709
11.418852 7.5304451 -0.76402146
12.401817 8.1786861 0
12.405687 8.1812391 0.83004946
2.9977746 1.9821585 -0.99152672
3.6657324 2.4238191 -0.97353441
4.6848388 3.0976624 -0.93632334
6.6506686 4.3974886 -0.88868392
11.41191 7.5456691 -0.76416641
12.41363 8.2080164 0
12.391462 8.1933594 0.82975942
2.9953773 1.9857793 -0.99152672
3.6543298 2.4226305 -0.97128284
4.6853676 3.1061549 -0.93717843
6.6496577 4.4083772 -0.88925999
11.398448 7.5565782 -0.7638759
12.414547 8.2301989 0
12.37939 8.2068911 0.82961446
3.0034204 1.9963396 -0.99498689
3.6598642 2.4326706 -0.97353441
4.6837468 3.1132338 -0.93760598
6.6314063 4.4078212 -0.88753074
11.402297 7.5789785 -0.76474702
12.419767 8.2552795 0
12.367294 8.2204008 0.82946891
2.5216336 1.680498 -0.99918354
3.0030916 2.0013571 -0.99567837
3.6590426 2.4385042 -0.97409886
4.6863923 3.123163 -0.93889034
6.6346846 4.4215679 -0.88868392
11.408261 7.6028333 -0.76576257
12.416283 8.2746115 0
12.353032 8.2324591 0.82917887
2.5031607 1.6725584 -0.9926638
2.9818995 1.9924415 -0.98944956
3.6603148 2.4457443 -0.9752236
4.6847472 3.1302481 -0.93931788
6.6228833 4.4252691 -0.88781881
11.40555 7.620945 -0.7661981
12.443059 8.3141861 0
12.347392 8.2502642 0.82946891
2.5052485 1.6783358 -0.9942953
2.9878268 2.0016284 -0.9922182
3.657357 2.4501653 -0.9752236
4.6703 3.1287639 -0.93717843
6.636869 4.4462233 -0.89041317
11.404968 7.6405053 -0.76677865
12.437325 8.3321095 0
12.328788 8.2593975 0.82888889
2.5134819 1.6926659 -0.99918354
2.9892256 2.0130484 -0.99429536
3.6493196 2.4575784 -0.97466123
4.6755052 3.1486473 -0.9397471
6.6196747 4.4579186 -0.88954908
11.399406 7.6767559 -0.76764977
12.479751 8.4042969 0
12.310946 8.2906179 0.82903391
2.9867911 2.0166588 -0.99429536
3.652667 2.466253 -0.97635043
4.6653128 3.1499836 -0.93846273
6.616425 4.46736 -0.88983709
11.394425 7.6934295 -0.76793981
12.458804 8.4120903 0
12.309533 8.3113031 0.82961446
2.495055 1.6890349 -0.993478
2.9822688 2.0188558 -0.9936012
3.645472 2.4678133 -0.9752236
4.6721301 3.1628125 -0.94060218
6.6067343 4.4724488 -0.88925999
11.391579 7.7115631 -0.76837534
12.450784 8.4285955 0
12.310238 8.3334522 0.83034003
2.9736056 2.0182352 -0.99152672
3.6466963 2.4750729 -0.97635043
4.6576867 3.1612487 -0.93846273
6.5949116 4.4760752 -0.88839591
11.397296 7.7355328 -0.76939088
15.943929 10.821407 0
12.298012 8.3468628 0.83019501
2.9856777 2.0317025 -0.99636984
3.6499989 2.4837618 -0.97803748
4.6623526 3.1726511 -0.94017464
6.5916343 4.4854941 -0.88868392
11.387941 7.7492986 -0.76939088
15.960959 10.861159 0
12.287917 8.3617172 0.83019501
2.4827969 1.6938933 -0.9910354
2.9832206 2.0353086 -0.99636984
3.6365025 2.4810116 -0.9752236
4.6563973 3.176837 -0.9397471
6.5776634 4.4876246 -0.88753074
11.372136 7.7586637 -0.76895589
15.984369 10.90537 0
12.290679 8.3853416 0.83106554
2.968339 2.030416 -0.9922182
3.6397958 2.4897087 -0.97691274
4.6589055 3.1868048 -0.94102973
6.585041 4.5043283 -0.88925999
11.367038 7.7753305 -0.76924592
16.007694 10.949653 0
12.286975 8.4045897 0.83150113
2.5011117 1.715261 -0.99999768
2.9886363 2.0496049 -0.99983001
3.6388781 2.4955406 -0.97747511
4.6508217 3.1895308 -0.94017464
6.5710616 4.5064301 -0.88810682
11.357635 7.7890596 -0.76924592
16.018064 10.985179 0
12.287523 8.4267759 0.83222669
2.9820268 2.0503745 -0.998447
3.6295769 2.4956155 -0.97578591
4.6490774 3.1966012 -0.94060218
6.567749 4.5158362 -0.88839591
11.365344 7.8145552 -0.77040702
16.045519 11.032537 0
12.285896 8.447506 0.83280724
2.9745865 2.0479066 -0.99636984
3.6301675 2.4992528 -0.97635043
4.6408 3.1950407 -0.93931788
6.5756693 4.5271358 -0.88983709
11.369182 7.8273139 -0.77098757
16.060289 11.05699 0
12.287213 8.4593487 0.83324277
2.9721098 2.0514994 -0.99636984
3.6313231 2.5065215 -0.97747511
4.6474977 3.2079358 -0.94145727
6.5616798 4.5292006 -0.88868392
11.372542 7.8498993 -0.77185816
16.098314 11.111863 0
12.287673 8.4815683 0.83396834
2.9778805 2.0607996 -0.99913853
3.6262045 2.5094628 -0.97691274
4.6457348 3.2150142 -0.94188648
6.5583272 4.5385962 -0.88897198
11.38442 7.8784246 -0.77330983
16.153357 11.178699 0
12.28382 8.5008411 0.83440334
2.479568 1.7203841 -0.99510944
2.9630249 2.0558181 -0.99498689
3.621084 2.5123954 -0.97635043
4.6397314 3.2191577 -0.94145727
6.5507154 4.5450444 -0.88868392
11.368485 7.8877296 -0.77287424
16.184738 11.229362 0
12.279946 8.5201225 0.83483893
2.9564157 2.056529 -0.9936012
3.626389 2.5225728 -0.97860193
4.6421623 3.2291605 -0.94274163
6.5409684 4.5499997 -0.88810682
11.376012 7.913331 -0.77403539
16.198929 11.268228 0
20.697157 14.397265 1.4082556
3.6191661 2.5240431 -0.97747511
4.6361537 3.2333004 -0.94231403
6.5397129 4.5608616 -0.88868392
11.383492 7.9389625 -0.77519649
16.210918 11.305657 0
20.658428 14.407396 1.4068038
3.6202824 2.5313292 -0.97860193
4.6280317 3.235955 -0.94145727
6.5384326 4.5717216 -0.88925999
11.393055 7.9661107 -0.77650261
16.216438 11.338657 0
20.632486 14.426392 1.4062233
2.9551065 2.0715537 -0.99567837
3.6213784 2.5386159 -0.97972667
4.6325264 3.2474389 -0.94316918
6.5286717 4.5766525 -0.88868392
11.396183 7.9888177 -0.77737314
16.245348 11.388121 0
20.608664 14.446841 1.4057883
2.9526012 2.0751228 -0.99567837
3.6245468 2.5473742 -0.98141587
4.6201982 3.2471297 -0.94145727
6.5231371 4.5845375 -0.88868392
11.392901 8.0070658 -0.77780873
16.276287 11.439166 0
20.552921 14.444835 1.4031756
2.9439373 2.0743525 -0.9936012
3.6193831 2.5502841 -0.98085135
4.6162715 3.2527101 -0.94145727
6.5218177 4.5953927 -0.88925999
11.412952 8.0417767 -0.77984041
16.287973 11.476807 0
20.533331 14.468163 1.4030305
2.947578 2.082252 -0.99567837
3.6100791 2.5502617 -0.9791643
4.6102433 3.2568059 -0.94102973
6.5162601 4.6032701 -0.88925999
11.409595 8.0600605 -0.78027594
16.312359 11.523511 0
20.498856 14.480969 1.4018694
2.9512036 2.0901635 -0.99775553
3.6132095 2.5590234 -0.98085135
4.6146841 3.2683086 -0.94274163
6.5085845 4.6096468 -0.88897198
11.404094 8.0768471 -0.78056651
16.326031 11.562765 0
17.714251 12.545959 1.2124726
2.9466245 2.0922713 -0.99706137
3.6080451 2.5619175 -0.98028898
4.6044502 3.2694223 -0.94145727
6.5072317 4.6205053 -0.88954908
11.428217 8.1146851 -0.78288817
16.318407 11.587 0
17.660938 12.540273 1.2098598
2.9400105 2.0929232 -0.99567837
3.6111588 2.5706975 -0.98197818
4.6025939 3.2764764 -0.94188648
6.5079594 4.6328607 -0.89041317
11.420527 8.1299992 -0.78303373
16.338318 11.630857 0
17.650011 12.56462 1.2101504
2.4645307 1.7589313 -0.99836934
2.9497278 2.1052155 -0.99983001
3.6039095 2.572104 -0.98085135
4.600719 3.2835252 -0.94231403
6.5002532 4.6392198 -0.8901251
11.444527 8.1679392 -0.78535539
16.375092 11.686875 0
17.609436 12.567823 1.2084087
2.9329059 2.0985634 -0.99498689
3.6007991 2.5764568 -0.98085135
4.5967484 3.2890818 -0.94231403
6.4925413 4.6455669 -0.88983709
11.453674 8.1953745 -0.7866621
16.409632 11.74148 0
17.598467 12.592119 1.2086992
2.9385221 2.107955 -0.99775553
3.5976832 2.5808058 -0.98085135
4.59903 3.299124 -0.94359839
6.4722099 4.6428537 -0.88781881
11.466982 8.2258644 -0.78825819
16.418695 11.777987 0
17.579012 12.610342 1.2084087
2.4481075 1.7606393 -0.9942953
3.6007528 2.5896029 -0.98254055
4.5908685 3.3016782 -0.94274163
6.4728966 4.6552024 -0.88868392
11.463366 8.2442665 -0.78869379
16.453043 11.832762 0
17.542671 12.616405 1.2069576
2.4539976 1.7693782 -0.99755514
2.9374855 2.1179819 -0.99913853
3.597621 2.5939519 -0.98254055
4.5847955 3.305723 -0.94231403
6.4651713 4.661509 -0.88839591
11.470257 8.2702694 -0.78985488
16.476734 11.880033 0
17.512657 12.626953 1.2059414
3.5986066 2.6012771 -0.98366737
4.5849547 3.3142653 -0.94316918
6.4658165 4.6738591 -0.88925999
11.462359 8.2856436 -0.7899999
16.49822 11.925851 0
17.488964 12.642015 1.2053609
2.9323585 2.1250744 -0.99913853
3.5933974 2.6041281 -0.98310286
4.5809464 3.319803 -0.94316918
6.4580717 4.6801519 -0.88897198
11.46707 8.3101625 -0.79101598
16.511192 11.965629 0
17.47999 12.667714 1.2057965
3.5881946 2.606976 -0.98254055
4.5831642 3.3298638 -0.94445348
6.4586916 4.6925139 -0.88983709
11.478038 8.339283 -0.79246712
16.538824 12.016158 0
17.443645 12.67355 1.2043447
3.597369 2.6202886 -0.98591894
4.5749917 3.3323793 -0.94359839
6.4509282 4.6987934 -0.88954908
11.486855 8.3669128 -0.79377323
16.528503 12.039201 0
17.409418 12.680851 1.2030387
3.588042 2.6201365 -0.98422974
4.5688825 3.3363867 -0.94316918
6.4494195 4.7096324 -0.8901251
11.495621 8.394577 -0.79507935
16.545465 12.082181 0
17.391987 12.700346 1.2028936
3.5803032 2.6178031 -0.98254055
4.5710144 3.3421795 -0.94402593
6.4444871 4.7120028 -0.88983709
11.490547 8.4015198 -0.79507935
16.542368 12.09525 0
17.363338 12.695518 1.2014425
2.9227817 2.1424689 -0.99983001
3.5894372 2.6311433 -0.98591894
4.5752544 3.353771 -0.94573778
6.4346128 4.7167253 -0.88925999
11.501348 8.4307632 -0.79653102
16.584408 12.156768 0
17.347986 12.716489 1.2014425
3.5842021 2.6339695 -0.98535442
4.5711985 3.3592968 -0.94573778
6.4309993 4.7260327 -0.88954908
11.50162 8.4523468 -0.79725659
16.607458 12.204541 0
17.32214 12.729749 1.200717
3.5789731 2.6367927 -0.98479205
4.5629988 3.3617694 -0.94488102
6.4294448 4.7368655 -0.8901251
11.497668 8.4708567 -0.79769158
16.615742 12.241575 0
17.287912 12.736794 1.1994103
3.5798759 2.6441374 -0.98591894
4.5568705 3.3657568 -0.94445348
6.421638 4.7430954 -0.88983709
11.499969 8.494009 -0.79856271
16.684673 12.323491 0
17.241163 12.734521 1.1972337
3.5766785 2.6484611 -0.98591894
4.5569305 3.3743186 -0.94531024
6.422132 4.7554646 -0.89070117
11.510576 8.5233583 -0.80001378
16.730423 12.388554 0
17.202791 12.738334 1.195637
3.5734756 2.6527808 -0.98591894
4.5569682 3.3828797 -0.94616532
6.4059992 4.7555137 -0.88925999
11.510699 8.5450039 -0.80073935
16.763496 12.444434 0
17.141491 12.725039 1.1924442
3.5702677 2.6570969 -0.98591894
4.5466976 3.3837841 -0.94488102
6.4106212 4.7709703 -0.89070117
11.504539 8.5620117 -0.80102992
16.79229 12.497309 0
17.111509 12.73488 1.1914281
3.5731583 2.6659627 -0.98760593
4.54878 3.3938823 -0.94616532
6.4027805 4.7771673 -0.89041317
11.485854 8.5696907 -0.80044937
16.820978 12.55027 0
17.089867 12.750891 1.1909931
3.5638361 2.6657169 -0.98591894
4.5426221 3.39784 -0.94573778
6.4011502 4.788002 -0.89099026
11.500461 8.6022396 -0.80219102
16.862062 12.61267 0
17.059879 12.760634 1.1899769
3.5565429 2.6669695 -0.98479205
4.5385132 3.4033263 -0.94573778
6.3891501 4.7910762 -0.8901251
11.504604 8.627037 -0.80320656
16.896782 12.670507 0
17.03821 12.776561 1.1895413
2.4162548 1.8164592 -0.99673784
3.5634708 2.6788976 -0.98760593
4.5323477 3.4072666 -0.94531024
6.3936915 4.8065624 -0.89156634
11.510787 8.6534233 -0.80436772
16.9189 12.719061 0
17.016535 12.792459 1.1891063
3.5561769 2.6801457 -0.98648125
4.5343714 3.4173713 -0.94659293
6.3940778 4.8189564 -0.89243144
11.514851 8.6782742 -0.8053838
16.940933 12.767692 0
16.984465 12.800499 1.1879452
3.5569866 2.6875014 -0.98760593
4.528193 3.4213016 -0.94616532
6.3903122 4.8282366 -0.89271951
11.51265 8.6984472 -0.80596441
16.964941 12.817957 0
16.956541 12.81161 1.1870742
2.4096546 1.825206 -0.99673784
3.5517132 2.6902645 -0.98704362
4.5342851 3.4345191 -0.94830477
6.3947802 4.8437614 -0.89416069
11.510416 8.718627 -0.80654496
16.976408 12.858872 0
16.93898 12.830523 1.1869291
3.5585759 2.7022359 -0.98985749
4.517869 3.4306836 -0.94573778
6.3765674 4.8421025 -0.89243144
11.506083 8.7372446 -0.80698049
16.971218 12.887244 0
16.906908 12.838409 1.185768
3.5512686 2.7034585 -0.98873281
4.5096316 3.4330273 -0.94488102
6.3768883 4.8545055 -0.8932966
11.512057 8.7637329 -0.80814159
16.945282 12.89986 0
16.891384 12.858829 1.185768
3.5459814 2.7062075 -0.98817044
4.5156894 3.4462652 -0.94702208
6.3710179 4.8622069 -0.8932966
11.509714 8.7839365 -0.8087216
0 0 0
16.861372 12.868193 1.1847519
3.546741 2.7135751 -0.98929513
4.5176325 3.456394 -0.94830477
6.3733549 4.8761883 -0.89444977
11.515602 8.8104687 -0.8098827
16.878923 12.913891 0
16.835495 12.880664 1.1840264
3.5414455 2.7163138 -0.98873281
4.5093827 3.4587286 -0.94744968
6.3695087 4.885458 -0.89473778
11.509075 8.8275423 -0.81017327
16.855047 12.92794 0
16.807552 12.891511 1.1831558
3.5401731 2.7221382 -0.98929513
4.5092664 3.4673014 -0.94830477
6.3512945 4.8836884 -0.89300752
11.51488 8.8541136 -0.81133443
16.82704 12.938782 0
16.781666 12.903893 1.1824303
3.5368814 2.726414 -0.98929513
4.5071049 3.474313 -0.94873232
6.3515363 4.8960977 -0.89387268
11.50211 8.8664293 -0.81118882
16.809326 12.957511 0
16.761942 12.920984 1.1821396
3.5315759 2.7291334 -0.98873281
4.5029035 3.4797566 -0.94873232
6.3640332 4.9180012 -0.89646703
11.505782 8.8914452 -0.81220496
16.806017 12.987364 0
16.748371 12.942816 1.1822847
3.526269 2.7318439 -0.98817044
4.4986954 3.4851949 -0.94873232
6.3458219 4.9161863 -0.89473778
11.495029 8.9053411 -0.81220496
16.829395 13.03794 0
16.75943 12.983736 1.1841719
3.5249703 2.7376597 -0.98873281
4.4944811 3.490628 -0.94873232
6.3480482 4.9301963 -0.89589095
11.49452 8.9271917 -0.81293052
16.867073 13.099772 0
16.778614 13.031071 1.1866392
3.5313389 2.7460279 -0.99098432
4.4862976 3.4886198 -0.94744968
6.3511877 4.9387894 -0.89675504
11.501436 8.9437084 -0.81380165
16.90435 13.145104 0
16.81996 13.079481 1.1901219
3.5340245 2.7549748 -0.99267137
4.4881473 3.4987683 -0.94873232
6.3594966 4.957593 -0.89877337
11.478321 8.9480104 -0.81293052
16.915136 13.186319 0
16.841036 13.128554 1.1927347
3.5186846 2.7498584 -0.98929513
4.4940352 3.5120971 -0.95087337
6.3412781 4.9557204 -0.89704412
11.496168 8.9842768 -0.81496274
16.936096 13.235591 0
16.85791 13.174489 1.1950564
3.52336 2.7603762 -0.99154669
4.4897885 3.5175247 -0.95087337
6.3474975 4.9729466 -0.89877337
11.485304 8.9981613 -0.81496274
16.961065 13.288145 0
16.874706 13.220489 1.1973786
3.5260186 2.7693412 -0.99323589
4.4814935 3.5197728 -0.95001662
6.33742 4.9774208 -0.89819729
11.490771 9.0248718 -0.81612384
16.994108 13.347203 0
19.278122 15.14107 1.3692149
3.5093379 2.7699783 -0.99041986
4.4709611 3.5290036 -0.94958907
6.3416071 5.0055351 -0.90050256
11.4832 9.063879 -0.81713945
17.037386 13.447891 0
19.219036 15.169903 1.3676182
3.5119679 2.7789483 -0.99210906
4.4727349 3.5391836 -0.95087337
6.3233881 5.0035677 -0.89877337
11.498728 9.0987072 -0.81902611
17.072145 13.508838 0
19.188471 15.183443 1.3667476
3.5066187 2.7816122 -0.99154669
4.4684553 3.5445855 -0.95087337
6.3274674 5.0192399 -0.90021455
11.487725 9.1125946 -0.81902611
17.098625 13.563419 0
19.164001 15.201772 1.366312
3.5052421 2.7874272 -0.99210906
4.4581394 3.5451872 -0.94958907
6.3375936 5.0397606 -0.9025209
11.478738 9.1280842 -0.81917107
17.110737 13.606745 0
19.137484 15.218448 1.3657315
3.4998865 2.7900782 -0.99154669
4.4618821 3.5569723 -0.95130098
6.3173404 5.0361271 -0.90050256
11.490052 9.1597662 -0.82076776
17.128876 13.654986 0
19.104864 15.230227 1.3647159
3.4984958 2.7958899 -0.99210906
4.4575806 3.562361 -0.95130098
6.3132768 5.0453758 -0.90079165
11.491158 9.1833792 -0.82163888
17.142862 13.700047 0
19.078329 15.246811 1.3641354
3.4970961 2.8017023 -0.99267137
4.4512715 3.5661409 -0.95087337
6.3192835 5.0627007 -0.9025209
11.488158 9.2037497 -0.82221889
17.181129 13.76468 0
19.053806 15.264977 1.3636998
3.4956949 2.8075213 -0.99323589
4.4509583 3.5747287 -0.95172852
6.3091321 5.0670962 -0.90194482
11.47298 9.2143736 -0.82192886
17.203039 13.816395 0
19.025219 15.279855 1.3629743
3.4942772 2.8133352 -0.99379826
4.4466357 3.5801041 -0.95172852
6.3070302 5.0779572 -0.9025209
11.473978 9.2380037 -0.82279944
17.234983 13.876341 0
18.994602 15.293057 1.3621037
3.4829664 2.8111718 -0.99154669
4.4443026 3.5870852 -0.95215607
6.3109517 5.0936952 -0.90396208
11.470896 9.2583895 -0.82337999
17.262753 13.933113 0
18.970043 15.3111 1.3616681
3.4874682 2.8217711 -0.99379826
4.4399648 3.5924528 -0.95215607
6.3027835 5.0996914 -0.90367407
11.469807 9.2804193 -0.8241061
17.282318 13.983424 0
18.935368 15.320935 1.360507
3.4860277 2.8275821 -0.99436057
4.4396119 3.6010523 -0.95301282
6.3046517 5.113821 -0.90482718
11.468673 9.3024549 -0.82483166
17.324022 14.051838 0
18.914825 15.342168 1.3603621
3.4786694 2.8285892 -0.99323589
4.4412346 3.6112742 -0.95429713
6.3004732 5.1230655 -0.90511525
11.467503 9.3245001 -0.82555723
17.325203 14.087536 0
18.886187 15.356811 1.3596359
3.4713063 2.8295767 -0.99210906
4.4328847 3.6133909 -0.95344037
6.296289 5.1323133 -0.90540433
11.454215 9.33671 -0.82541221
17.368681 14.157786 0
18.853525 15.368132 1.3586204
3.4718237 2.8369877 -0.99323589
4.430501 3.6203673 -0.95386791
6.2940845 5.1431875 -0.90598035
11.436887 9.3456087 -0.82497668
17.387833 14.208401 0
18.816835 15.376105 1.3573142
3.4762557 2.8476212 -0.99548745
4.4241395 3.6240928 -0.95344037
6.2858667 5.1491513 -0.90569234
11.433627 9.3660078 -0.82555723
17.406893 14.259089 0
18.822363 15.41859 1.3590559
3.4747741 2.8534305 -0.99604976
4.4217391 3.6310635 -0.95386791
6.2956314 5.1698747 -0.90799868
11.440372 9.3946562 -0.82686335
17.437914 14.319744 0
18.825804 15.459456 1.3606521
3.4634769 2.8511674 -0.99379826
4.4272561 3.6445596 -0.95600736
6.2913752 5.1791201 -0.90828669
11.431017 9.4101229 -0.82700837
17.458776 14.372232 0
18.859264 15.525127 1.3644254
3.4678683 2.8618193 -0.99604976
4.4208713 3.6482742 -0.95557982
6.2851124 5.186718 -0.90828669
11.415634 9.4206238 -0.82671833
17.495588 14.438037 0
18.896608 15.594213 1.3684893
3.4602606 2.8590569 -0.99436057
4.4226279 3.6542177 -0.95643657
6.2839699 5.1921601 -0.90857476
11.417953 9.4341393 -0.82729888
17.518963 14.475127 0
18.943272 15.65197 1.3725532
3.4587584 2.8648553 -0.99492294
4.4103017 3.6530089 -0.95472467
6.2776914 5.1997495 -0.90857476
11.402539 9.4446096 -0.82700837
17.539534 14.527822 0
18.978371 15.719596 1.3764715
3.4494352 2.8641675 -0.99323589
4.4137845 3.6648948 -0.95643657
6.2733917 5.208982 -0.90886277
11.385127 9.4534063 -0.82657337
17.568022 14.587244 0
19.005337 15.78069 1.3798094
3.4615951 2.8813376 -0.99773896
4.415266 3.6751475 -0.95771921
6.2690868 5.2182174 -0.90915185
11.405643 9.4937468 -0.82889503
17.604383 14.65341 0
19.03219 15.841878 1.3831477
3.4483507 2.8773739 -0.99492294
4.4108224 3.6804798 -0.95771921
6.270721 5.2324171 -0.91030502
11.368229 9.4858809 -0.82700837
17.618637 14.701348 0
19.072886 15.914804 1.3875016
3.4507203 2.886431 -0.99661213
4.4004703 3.6808703 -0.95643657
6.2723222 5.2466221 -0.91145712
11.370712 9.511282 -0.82802445
17.630804 14.747675 0
19.101475 15.97785 1.3909849
3.4491751 2.8922293 -0.99717444
4.4078178 3.6960781 -0.95900357
6.2560701 5.2458892 -0.91001594
11.389071 9.5500536 -0.83020115
17.656841 14.805752 0
19.129934 16.040981 1.3944677
3.4534581 2.9029348 -0.99942601
4.4013858 3.6997511 -0.95857596
6.2616105 5.2634335 -0.9117462
11.341724 9.5337152 -0.82758892
17.666824 14.850517 0
19.176174 16.119259 1.3992572
3.4441245 2.9021983 -0.99773896
4.392982 3.7017553 -0.95771921
6.2611737 5.2759905 -0.91261029
11.360004 9.5725307 -0.82976615
19.266769 16.235182 0
19.178543 16.160837 1.4008539
3.4367292 2.9030752 -0.99661213
4.4022355 3.718658 -0.96071541
6.2626977 5.2902284 -0.91376346
11.350412 9.587925 -0.82991111
19.211355 16.228224 0
19.170908 16.194057 1.4017245
3.4429126 2.9154341 -0.99942601
4.3938246 3.7206597 -0.95986032
6.2484055 5.2911062 -0.91261029
11.33882 9.6016331 -0.82991111
19.205639 16.263199 0
20.991455 17.775417 1.5364071
3.4374521 2.9179494 -0.99886364
4.3912807 3.7276258 -0.96028787
6.2479253 5.3036752 -0.91347545
11.325231 9.6136465 -0.82976615
21.005257 17.830729 0
20.993727 17.820942 1.5381483
3.4319904 2.9204557 -0.99830133
4.3828597 3.7295988 -0.95943111
6.2454557 5.3145766 -0.91405255
11.323499 9.6357422 -0.83049172
21.057022 17.918493 0
21.021648 17.888393 1.5417767
3.4284592 2.9246004 -0.99830133
4.3959327 3.7498906 -0.96328402
6.2390294 5.3221192 -0.91405255
11.301965 9.6409874 -0.82976615
21.080896 17.982771 0
21.051414 17.957623 1.54555
3.4287813 2.9320405 -0.99942601
4.3855438 3.7501929 -0.96199971
6.2404571 5.3363776 -0.91520572
11.304126 9.6664524 -0.8307817
21.171885 18.104631 0
21.09487 18.038773 1.5503395
3.425236 2.9361813 -0.99942601
4.3790622 3.7538199 -0.96157217
6.2340045 5.343914 -0.91520572
11.290466 9.6784143 -0.83063668
21.144072 18.125124 0
21.138159 18.120054 1.5551289
3.4216857 2.9403179 -0.99942601
4.3725705 3.7574306 -0.96114296
6.2373495 5.35987 -0.9166469
11.245262 9.6632614 -0.82816947
21.195179 18.213408 0
21.19508 18.213324 1.5609344
3.414284 2.9411366 -0.99830133
4.364141 3.7593637 -0.96028787
6.2289033 5.3657098 -0.91635782
11.245394 9.6870213 -0.82904059
21.190907 18.254297 0
21.222265 18.281309 1.5645623
3.4088063 2.9436009 -0.99773896
4.3673673 3.7713451 -0.96199971
6.2302461 5.3799939 -0.91751099
11.253344 9.7175817 -0.83049172
21.310648 18.402349 0
21.249325 18.349394 1.5681906
4.3666849 3.7799766 -0.96285486
6.2198334 5.3841357 -0.91693491
11.219981 9.7124634 -0.82889503
21.323812 18.458742 0
21.307686 18.444782 1.5741411
3.4016829 2.9518301 -0.99773896
4.3718071 3.7936606 -0.96499425
6.2094121 5.3882537 -0.91635782
11.247489 9.7600737 -0.83179784
21.423349 18.590237 0
21.340336 18.5182 1.5782051
3.4038594 2.9609363 -0.99942601
4.3652849 3.7972572 -0.96456671
6.2126603 5.4042449 -0.91780007
11.212161 9.7531919 -0.83005613
21.467636 18.674185 0
21.378714 18.596834 1.5827039
3.4002793 2.9650469 -0.99942601
4.3606935 3.8025291 -0.96456671
6.2139235 5.4185476 -0.91895324
11.198412 9.7650261 -0.82991111
21.488205 18.737738 0
21.4091 18.668756 1.5866224
4.3541646 3.8061075 -0.96413916
6.2171063 5.4345613 -0.92039442
11.20421 9.7939396 -0.83121723
21.502771 18.796227 0
21.464781 18.763018 1.592428
4.3572855 3.8181331 -0.96585101
6.202754 5.4352512 -0.91924125
11.19628 9.8108988 -0.8315078
21.519192 18.856497 0
21.479221 18.821472 1.5951852
3.3914235 2.9790349 -0.99999052
4.3488078 3.8200037 -0.96499425
6.1942406 5.4410367 -0.91895324
11.192226 9.8312798 -0.83208835
21.527676 18.909966 0
21.501366 18.886854 1.5985235
3.3896229 2.9810834 -0.99999052
4.3484321 3.8243306 -0.96542346
6.2045422 5.4567299 -0.9209705
11.16482 9.8191624 -0.83049172
22.540218 19.823523 0
22.547447 19.82988 1.6771849
3.3860185 2.9851768 -0.99999052
4.3476558 3.832974 -0.96627855
6.2057052 5.471065 -0.92212367
11.164638 9.8429527 -0.83136225
22.498682 19.835257 0
22.480593 19.819309 1.6739922
3.3824089 2.9892659 -0.99999052
4.3410993 3.8365262 -0.96585101
6.201026 5.4802704 -0.92241168
11.162477 9.8650446 -0.83208835
22.466898 19.855534 0
22.444942 19.83613 1.673121
4.3499126 3.8536863 -0.96884722
6.1943998 5.4877591 -0.92241168
11.144712 9.873354 -0.83165282
22.423407 19.865404 0
22.411234 19.854622 1.6723955
4.343328 3.8572299 -0.968418
6.185832 5.4935241 -0.92212367
11.121113 9.8764563 -0.8307817
22.391602 19.885572 0
22.371685 19.867884 1.6712344
3.3696477 2.9998128 -0.99942601
4.3367486 3.86077 -0.96799046
6.1830573 5.5044374 -0.92270076
11.130522 9.9088945 -0.83237839
22.365616 19.910885 0
22.337959 19.886263 1.6705087
4.3320804 3.8660073 -0.96799046
6.1764016 5.5119042 -0.92270076
11.116604 9.9206076 -0.83223337
22.335714 19.932693 0
22.310041 19.909782 1.6702188
4.3293176 3.8729489 -0.968418
6.1812997 5.529707 -0.92443001
11.096863 9.927103 -0.83165282
22.2864 19.937113 0
22.264664 19.917667 1.6686221
4.3284607 3.8816082 -0.96927476
6.1746135 5.5371718 -0.92443001
11.092597 9.947443 -0.83223337
22.260359 19.96229 0
22.238647 19.942822 1.6684771
4.3256745 3.88855 -0.9697023
6.1736908 5.5498176 -0.92529511
11.074771 9.9556265 -0.83179784
22.226545 19.980476 0
22.210667 19.9662 1.6681865
4.313345 3.8868999 -0.96799046
6.1708198 5.5607328 -0.92587119
11.064662 9.9707384 -0.8319428
22.18499 19.99164 0
22.171082 19.979107 1.6670254
4.3238845 3.9058752 -0.97141421
6.1564188 5.5612497 -0.92471802
11.060319 9.9910679 -0.83252335
22.145367 20.004475 0
22.135359 19.995434 1.6661549
4.3134518 3.905926 -0.97012985
6.1669478 5.5843081 -0.92731237
11.061723 10.016636 -0.83353949
22.13275 20.041697 0
22.095774 20.008213 1.6649938
4.3087287 3.9111352 -0.97012985
6.1563692 5.5882821 -0.9267363
11.032298 10.014277 -0.83223337
22.093102 20.054432 0
22.077356 20.040138 1.6654294
4.3096976 3.9215231 -0.97141421
6.1553535 5.6009407 -0.92760146
11.033637 10.039837 -0.83324891
22.065008 20.077612 0
22.055044 20.068546 1.6655743
4.3144374 3.9353759 -0.9735536
6.1504903 5.6101155 -0.92788947
11.017662 10.049663 -0.83295894
22.059956 20.121794 0
22.034622 20.098686 1.6658648
4.3021011 3.9336572 -0.97184175
6.1437073 5.6175427 -0.92788947
10.995924 10.054203 -0.83223337
22.058674 20.169508 0
22.040997 20.153345 1.6681865
4.2954545 3.9371197 -0.97141421
6.1426368 5.6302071 -0.92875463
11.004833 10.08679 -0.83382946
22.03237 20.194389 0
22.028126 20.1905 1.6690576
4.2915936 3.9527075 -0.97269851
6.1328144 5.6485362 -0.92933071
10.984252 10.116879 -0.83412004
22.002644 20.265203 0
21.983088 20.247192 1.6693476
4.2924676 3.9631095 -0.97398114
6.1335859 5.6629605 -0.93048382
10.979656 10.137195 -0.83470058
21.995348 20.307661 0
21.968151 20.282551 1.6700733
4.2895651 3.9700418 -0.97441036
6.126739 5.6703677 -0.93048382
10.967399 10.150455 -0.83470058
22.018543 20.378414 0
21.960796 20.32497 1.6713799
4.2847648 3.9752221 -0.97441036
6.1179886 5.6760087 -0.93019581
10.955126 10.163699 -0.83470058
22.003441 20.413853 0
23.764832 22.047997 1.8107065
4.2799587 3.9803965 -0.97441036
6.1149101 5.6869168 -0.93077189
10.950448 10.184007 -0.83528113
17.647264 16.412102 0
23.72295 22.062538 1.8095454
4.2807736 3.9908113 -0.97569305
6.1118217 5.6978321 -0.93134898
10.936236 10.19546 -0.83513618
17.621708 16.428087 0
23.707676 22.101814 1.810416
4.2778292 3.9977388 -0.97612226
6.1162672 5.7158055 -0.93307823
10.925806 10.21044 -0.83528113
17.59234 16.440483 0
22.765932 21.275335 1.7404624
4.2847838 4.0090904 -0.97826165
6.1109262 5.7177343 -0.93279016
10.948091 10.243664 -0.83745784
17.576702 16.445774 0
22.834658 21.365419 1.7467029
4.2743177 4.0089946 -0.97697735
6.1058974 5.7268815 -0.93307823
10.911069 10.233778 -0.83557117
17.562513 16.472342 0
22.930115 21.506756 1.7559913
4.2750831 4.019433 -0.97826165
6.1046286 5.739572 -0.93394333
10.927094 10.273654 -0.83774841
17.548286 16.498901 0
22.959009 21.586061 1.7602003
4.2608843 4.0157943 -0.97612226
6.0976887 5.746944 -0.93394333
10.912783 10.285069 -0.83760339
17.543489 16.534372 0
22.959387 21.638742 1.7622324
4.2634926 4.0279913 -0.97783411
6.0907402 5.7543077 -0.93394333
10.917345 10.314306 -0.83890951
17.531057 16.5627 0
22.944553 21.677172 1.763103
4.2548914 4.0296063 -0.97697735
6.0875349 5.7652168 -0.93451941
10.874688 10.298903 -0.83658725
17.509146 16.582083 0
22.918344 21.70488 1.763103
4.2611933 4.0453525 -0.97954595
6.095571 5.7868142 -0.93682575
10.869774 10.319191 -0.83716786
17.485325 16.599648 0
22.882681 21.723612 1.7623775
4.2507215 4.045188 -0.97826165
6.0923252 5.7977452 -0.93740284
10.872355 10.346648 -0.83832896
17.452055 16.608202 0
22.858295 21.753035 1.7625225
4.2514048 4.0556383 -0.97954595
6.0778294 5.7979608 -0.93624967
10.852324 10.352603 -0.83774841
17.439508 16.636463 0
22.835758 21.784229 1.762813
4.2427869 4.0572209 -0.97868919
6.0726867 5.8070865 -0.93653768
10.84356 10.369297 -0.83803838
15.756748 15.067596 0
22.786884 21.790257 1.7610713
4.234179 4.058795 -0.97783411
6.0749998 5.8233671 -0.93797892
10.808514 10.360814 -0.83629674
15.729138 15.077621 0
15.685313 15.035612 1.2136337
4.2329698 4.067462 -0.97868919
6.0716925 5.834291 -0.93855602
10.816598 10.393672 -0.83789337
15.699645 15.085793 0
15.678372 15.065352 1.2145042
4.2317533 4.076139 -0.97954595
6.0609093 5.8380313 -0.93797892
10.811518 10.413945 -0.83847398
15.645798 15.070455 0
15.660157 15.084286 1.2145042
4.2286701 4.0830307 -0.97997355
6.0575757 5.848947 -0.93855602
10.802661 10.430608 -0.83876395
22.539391 21.763113 0
15.61762 15.079735 1.2126176
4.234797 4.098846 -0.98254049
6.0597944 5.8652544 -0.9399972
10.793788 10.44727 -0.83905452
22.552347 21.828341 0
22.591345 21.866085 1.7561369
4.2298412 4.1039596 -0.98254049
6.0471325 5.8671675 -0.93913209
10.760641 10.4404 -0.83745784
22.540897 21.870071 0
22.559311 21.887936 1.7557013
4.2230411 4.1072798 -0.98211294
6.054872 5.8888965 -0.94143838
10.738706 10.444338 -0.83673227
22.525646 21.908176 0
22.529118 21.911552 1.7554108
4.216239 4.110589 -0.9816854
6.049602 5.8980122 -0.94172645
10.767006 10.497209 -0.83992505
22.501026 21.937199 0
22.485882 21.922434 1.7541046
4.2167711 4.121058 -0.98296809
6.0424709 5.9053178 -0.94172645
10.748745 10.504767 -0.83949006
22.455887 21.946178 0
22.459377 21.949589 1.7541046
4.2136278 4.1279516 -0.98339725
6.0427217 5.9198546 -0.94287962
10.754602 10.535928 -0.84094119
22.382879 21.927767 0
22.416136 21.960346 1.7527986
4.2031403 4.1276426 -0.98211294
6.0337205 5.9253411 -0.94259155
10.704784 10.512502 -0.83803838
22.224543 21.82534 0
22.382168 21.980133 1.752218
4.2018051 4.1363163 -0.98296809
6.0247149 5.9308147 -0.94230354
10.697632 10.5309 -0.83847398
22.238955 21.89234 0
22.348186 21.99987 1.7516375
4.2022877 4.1468015 -0.98425239
6.0249085 5.9453568 -0.94345671
10.712637 10.57119 -0.84065062
22.292135 21.997793 0
22.316044 22.021387 1.7512025
4.1954508 4.1500726 -0.98382485
6.0269127 5.9617257 -0.94489789
10.688775 10.573165 -0.83978009
22.274788 22.033863 0
22.278332 22.037369 1.7503313
4.1965871 4.1562157 -0.98467994
6.0177951 5.9599037 -0.94403279
10.702696 10.599736 -0.84137672
22.263319 22.049145 0
22.255783 22.041683 1.7496058
4.1933889 4.1630974 -0.98510915
6.0142636 5.9708185 -0.94460988
10.682505 10.605337 -0.84079617
22.269909 22.109037 0
22.221758 22.061235 1.7490252
4.1883554 4.1681609 -0.98510915
6.0162096 5.9872022 -0.94605106
10.678889 10.6274 -0.84152174
22.318802 22.211189 0
22.147202 22.040417 1.7452519
4.1814933 4.1714005 -0.98467994
6.0108004 5.9962921 -0.94633907
10.651324 10.625615 -0.84036064
22.341696 22.287769 0
22.030415 21.977242 1.7381401
4.1764503 4.1764503 -0.98467994
6.0072122 6.0072122 -0.94691622
10.671546 10.671546 -0.84297287
22.342346 22.342346 0
21.97261 21.97261 1.735673
4.182282 4.1924014 -0.98724854
5.999949 6.0144663 -0.94691622
10.632956 10.658682 -0.84094119
17.049683 17.090935 0
21.971741 22.024902 1.7377051
4.1754045 4.1956339 -0.986821
5.9981456 6.0272064 -0.94778031
10.642064 10.693624 -0.84268284
16.994137 17.076473 0
22.08807 22.195086 1.7490252
4.1739454 4.2043161 -0.98767614
5.9908586 6.0344496 -0.94778031
10.61266 10.68988 -0.84137672
16.997326 17.121002 0
22.152767 22.313957 1.7562819
4.1652532 4.2057118 -0.986821
5.9890246 6.0471988 -0.94864541
10.625331 10.72854 -0.84340841
16.963812 17.12859 0
22.204409 22.42009 1.7625225
4.1655755 4.2162151 -0.98810369
5.9871688 6.0599527 -0.94951057
10.628795 10.758005 -0.84471452
16.950413 17.156473 0
22.264956 22.535622 1.7694886
4.1586776 4.2194185 -0.98767614
5.98347 6.0708632 -0.95008659
10.632202 10.787494 -0.84602064
16.922369 17.169535 0
22.305195 22.630981 1.7748586
4.1553745 4.2262692 -0.98810369
5.9779415 6.0799313 -0.95037466
10.6137 10.79478 -0.84558564
16.885185 17.173262 0
22.374386 22.756115 1.7825509
4.1610537 4.2422867 -0.99067229
5.9778357 6.0945358 -0.95152783
10.58245 10.789042 -0.84413397
15.076768 15.371099 0
22.417831 22.855476 1.7882109
4.1595116 4.2509775 -0.99152744
5.9650455 6.0962138 -0.95066375
10.583944 10.81668 -0.84529507
15.080026 15.411628 0
22.422905 22.915974 1.7908231
4.1543722 4.256 -0.99152744
5.9630899 6.108964 -0.95152783
10.592647 10.851773 -0.84703678
15.061393 15.429838 0
31.43185 32.200764 2.5134354
4.1510158 4.2628541 -0.99195498
5.9557042 6.1161652 -0.95152783
10.583149 10.868284 -0.84732676
15.022771 15.427521 0
31.449112 32.296425 2.5179343
4.140501 4.2623482 -0.99067229
5.9519172 6.1270709 -0.95210493
10.566392 10.87734 -0.84703678
15.000489 15.441924 0
31.527748 32.455551 2.5273681
4.1424937 4.2747221 -0.9923842
5.9463081 6.1361136 -0.95239294
10.569513 10.906892 -0.8483429
14.940169 15.417059 0
31.5536 32.560791 2.5325925
4.1373258 4.2797241 -0.9923842
5.944284 6.1488748 -0.9532581
10.545494 10.90845 -0.84747231
14.908866 15.422 0
31.539516 32.625046 2.5346243
4.1357117 4.2884121 -0.99323928
5.9350562 6.1541929 -0.95297009
10.528695 10.917439 -0.84718174
15.041967 15.597353 0
27.448994 28.462477 2.208658
4.1287489 4.2915583 -0.99281174
5.9419546 6.1762638 -0.95527536
10.533507 10.948875 -0.84863287
15.275702 15.878069 0
27.400171 28.480642 2.2074969
4.1217847 4.2946935 -0.9923842
5.9291201 6.1778464 -0.95441127
10.516675 10.95785 -0.8483429
15.296147 15.937819 0
27.380131 28.528727 2.208658
4.1183662 4.3015232 -0.99281174
5.9305925 6.1943455 -0.95585245
10.501632 10.968674 -0.84819788
15.280481 15.960053 0
27.354624 28.571173 2.2093837
4.1184864 4.312067 -0.99409604
5.9195275 6.1977625 -0.95527536
10.491957 10.985109 -0.84848785
15.277361 15.995442 0
27.366739 28.653057 2.2131569
4.1114969 4.3151765 -0.99366683
5.9102516 6.2030396 -0.95498735
10.478676 10.997779 -0.84848785
15.23648 15.99128 0
27.319555 28.672939 2.2121415
4.1098204 4.3238664 -0.99452358
5.9116602 6.2195487 -0.95642853
10.483284 11.02927 -0.84993953
15.186667 15.977612 0
27.322483 28.74548 2.2151892
4.1142774 4.3337955 -0.99623549
5.9114666 6.2268739 -0.95700562
10.480194 11.039367 -0.85022956
15.135805 15.943379 0
27.280062 28.735594 2.2131569
4.105504 4.335032 -0.99537873
5.9039383 6.2340126 -0.95700562
10.468632 11.053906 -0.85037458
15.064635 15.90686 0
27.272123 28.796837 2.2153342
4.109076 4.349318 -0.99751812
5.9035063 6.248662 -0.95815879
10.476682 11.089213 -0.85211623
15.031105 15.909917 0
24.732035 26.178022 2.011569
4.095016 4.3449411 -0.99537873
5.8888559 6.2482619 -0.95700562
10.461494 11.099976 -0.85197121
15.03864 15.95647 0
24.687908 26.194649 2.0105529
4.0932832 4.3536301 -0.99623549
5.8883886 6.2629104 -0.95815879
10.444511 11.108818 -0.85168064
15.101349 16.061846 0
24.647341 26.214996 2.0098274
4.0897741 4.3604431 -0.99666303
5.8825846 6.2719054 -0.9584468
10.427529 11.117643 -0.85139066
15.106858 16.106659 0
27.001083 28.788067 2.2045941
4.0809746 4.3721886 -0.99709058
5.8797665 6.2993402 -0.96046513
10.411266 11.154203 -0.85226125
15.076768 16.15263 0
26.856977 28.773464 2.1984992
4.0809383 4.3827543 -0.99837488
5.8721504 6.3064404 -0.96046513
10.403095 11.172482 -0.85269678
15.071428 16.186073 0
26.310471 28.256329 2.1565557
4.0756397 4.3876824 -0.99837488
5.8715672 6.3211112 -0.9616183
10.384281 11.179331 -0.85226125
15.042998 16.194733 0
26.293997 28.30714 2.1580074
4.0720782 4.394485 -0.99880242
5.8656816 6.3300967 -0.96190631
10.38313 11.205214 -0.85327733
15.030495 16.220533 0
26.24741 28.325548 2.1569912
4.0597954 4.3918619 -0.99709058
5.8597827 6.339077 -0.96219432
10.387218 11.236829 -0.85472846
15.023252 16.252062 0
26.186705 28.328619 2.154814
4.0631852 4.406198 -0.99923003
5.8503671 6.3442535 -0.96190631
10.377159 11.253196 -0.85501903
15.014186 16.281679 0
26.138365 28.344957 2.1536529
4.0596013 4.4129992 -0.99965918
5.8497014 6.358932 -0.96305948
10.344201 11.244689 -0.85342234
14.990981 16.295982 0
26.07947 28.349751 2.1516211
5.8455081 6.369803 -0.96363556
10.328852 11.255267 -0.85327733
16.23288 17.688839 0
26.087362 28.427189 2.1551046
4.0471864 4.420898 -0.99923003
5.8395586 6.3787751 -0.96392465
10.348583 11.304156 -0.85603511
16.241365 17.74107 0
26.051241 28.456776 2.1549594
5.8370743 6.3915505 -0.96478873
10.319141 11.299378 -0.85472846
16.221672 17.762602 0
26.078161 28.555382 2.1600389
5.8258667 6.3947783 -0.96421266
10.310732 11.317603 -0.85516399
16.187927 17.768721 0
21.880722 24.017433 1.8147699
5.8198733 6.4037256 -0.96450067
10.295303 11.328132 -0.85501903
16.164696 17.786345 0
21.858677 24.051546 1.8153504
5.8103962 6.4088387 -0.96421266
10.283352 11.342486 -0.85516399
16.123962 17.784653 0
21.808655 24.05484 1.8136088
5.809588 6.4235277 -0.96536583
10.297526 11.385738 -0.85748625
16.093735 17.794474 0
25.713266 28.430569 2.1411717
5.8070149 6.4362984 -0.96622992
10.271576 11.384666 -0.85647011
16.077454 17.819704 0
25.658007 28.438465 2.13943
5.7940478 6.4375486 -0.96536583
10.259555 11.399006 -0.85661566
16.05765 17.841051 0
25.623627 28.469448 2.13943
5.7966294 6.4560885 -0.96709502
10.231886 11.395926 -0.85545456
16.044773 17.870121 0
0 0 0
5.7905483 6.4650126 -0.96738309
10.235442 11.427633 -0.8569057
16.026644 17.893375 0
0 0 0
5.7866416 6.4685097 -0.96738309
10.231997 11.437685 -0.85719568
16.043594 17.93409 0
0 0 0
5.7805486 6.4774327 -0.96767217
10.233747 11.467494 -0.85850239
16.065224 18.001995 0
0 0 0
5.7744355 6.4863424 -0.96796018
10.19569 11.452676 -0.85647011
16.11095 18.097204 0
0 0 0
5.7648783 6.4913831 -0.96767217
10.204274 11.490243 -0.85835677
16.113262 18.143898 0
0 0 0
5.7673178 6.5099564 -0.96940136
10.197275 11.510344 -0.85893738
16.103411 18.176992 0
0 0 0
5.7611589 6.5188565 -0.96968943
10.179921 11.518766 -0.85864735
16.091772 18.208134 0
0 0 0
5.7498603 6.5219364 -0.96911335
10.167712 11.533006 -0.85879236
16.083529 18.243181 0
0 0 0
5.7522211 6.5405288 -0.97084254
10.143476 11.53358 -0.85792178
16.070065 18.272371 0
0 0 0
5.74261 6.5455317 -0.97055453
10.155233 11.575121 -0.86009848
16.051411 18.295692 0
0 0 0
5.7432122 6.5621958 -0.97199571
10.129266 11.573702 -0.85908294
