# .PCD v0.7 - Point Cloud Data file format
VERSION 0.7
FIELDS x y z
SIZE 4 4 4
TYPE F F F
COUNT 1 1 1
WIDTH 1581
HEIGHT 1
VIEWPOINT 0 0 0 1 0 0 0
POINTS 1581
DATA ascii
6.9069915 -3.8900573 -0.88356501
6.9312139 -3.9036996 -0.4443309
6.9426279 -3.9101279 0
7.4631405 -4.2032833 0.47843045
6.9162016 -3.8842442 -0.88414216
6.9381895 -3.8965929 -0.44447592
6.9405379 -3.897912 0
7.4659505 -4.1929917 0.47828546
6.9231443 -3.8771472 -0.88443017
6.9451661 -3.8894799 -0.44462147
6.9384375 -3.8857117 0
7.4574041 -4.1763468 0.47741434
6.9210472 -3.8649945 -0.88356501
6.9453192 -3.8785489 -0.4443309
6.9499373 -3.8811281 0
7.4601784 -4.1660676 0.47726935
6.912158 -3.8490813 -0.88183582
6.954545 -3.8726847 -0.44462147
6.9659972 -3.8790619 0
7.4583941 -4.1532564 0.47683379
6.9213223 -3.8432355 -0.88241184
6.9728456 -3.871845 -0.44549203
6.9843264 -3.8782201 0
7.4247899 -4.1227984 0.47436655
6.9191704 -3.8311098 -0.88154668
6.9866118 -3.8684516 -0.44607258
7.0026727 -3.8773444 0
7.4252238 -4.1113091 0.47407654
6.9215326 -3.8214974 -0.88125867
7.0140243 -3.8725638 -0.44752368
7.023294 -3.8776817 0
7.4256325 -4.0998197 0.473786
6.9284086 -3.8143775 -0.88154668
7.0300865 -3.8703554 -0.44824982
7.0416574 -3.8767259 0
7.4374118 -4.094605 0.47422156
6.9262171 -3.8022728 -0.88068265
7.0506959 -3.8706076 -0.44926536
7.0577412 -3.8744752 0
7.4378028 -4.083117 0.47393155
6.9353395 -3.7963824 -0.88125867
7.0462503 -3.8570945 -0.44868481
7.0829611 -3.8771901 0
7.438168 -4.071629 0.47364101
6.9285722 -3.7818048 -0.87981749
7.0509057 -3.8485777 -0.44868481
7.1013427 -3.8761077 0
10.257457 -5.5988016 0.65273392
6.9285975 -3.7709599 -0.87924147
7.0669603 -3.8462651 -0.44941038
7.1265917 -3.87872 0
10.268775 -5.5888853 0.6530239
6.9172349 -3.7593603 -0.87751114
7.0555887 -3.8345523 -0.44853982
7.1472268 -3.8843555 0
10.260736 -5.5764775 0.65229833
6.9240441 -3.7522306 -0.87779915
7.0602169 -3.8260243 -0.44853982
7.1679339 -3.8843975 0
10.251482 -5.5554128 0.65128279
6.9171977 -3.7377148 -0.87635797
7.0511227 -3.8100812 -0.44766927
7.1955142 -3.8881032 0
16.334198 -8.8262005 1.0370432
0 -0 -0
6.9194341 -3.7281282 -0.87606996
7.0580068 -3.8027899 -0.44781426
7.2162466 -3.8880484 0
16.354002 -8.811388 1.0376238
6.9216571 -3.7185419 -0.87578195
7.0511532 -3.7881114 -0.44708869
7.23699 -3.8879488 0
16.348619 -8.7830162 1.0366081
6.9307008 -3.712616 -0.87635797
7.0465631 -3.7746809 -0.44650814
7.2577343 -3.8878002 0
16.317987 -8.741168 1.0339954
6.9397492 -3.7066784 -0.87693512
7.0556989 -3.7686098 -0.44679815
7.2716088 -3.8839324 0
16.291864 -8.7018566 1.0316732
6.9419332 -3.6970711 -0.87664598
7.0556645 -3.7576411 -0.44650814
7.3015666 -3.8886011 0
13.825546 -7.3630819 0.87493086
6.9418311 -3.6862566 -0.87606996
7.0601997 -3.7491128 -0.44650814
7.3246479 -3.8895402 0
13.834433 -7.3463712 0.87493086
6.9302769 -3.6693928 -0.87405163
7.0509419 -3.7332816 -0.44563702
7.3454356 -3.8892081 0
13.836408 -7.3260007 0.87449533
0 -0 -0
7.0554476 -3.7247591 -0.44563702
7.3041091 -3.8560343 0
13.852146 -7.3129177 0.87493086
6.9070859 -3.6357698 -0.8700161
7.0576463 -3.7150221 -0.44549203
7.2304678 -3.8059924 0
13.856378 -7.293756 0.87464088
6.9091859 -3.6262205 -0.86972809
7.0506282 -3.700455 -0.44476646
7.202795 -3.7803185 0
7.7246222 -4.0541945 0.48728326
6.9273081 -3.6250627 -0.87145728
7.0689034 -3.6991594 -0.44563702
7.1843038 -3.7595484 0
7.7134061 -4.036428 0.48626772
6.9385648 -3.6202803 -0.87232244
7.0549378 -3.6809993 -0.44447592
7.1888409 -3.7508647 0
7.6745048 -4.0042658 0.48350993
0 -0 -0
6.9521127 -3.6166685 -0.87347561
7.0709133 -3.6784716 -0.44520202
7.2280016 -3.7601931 0
7.6355462 -3.9722083 0.48075268
6.940403 -3.5999279 -0.87145728
7.0592041 -3.6615491 -0.44418591
7.687624 -3.987505 0
7.614965 -3.9498174 0.47915602
6.9540582 -3.6016808 -0.87289846
7.0637202 -3.6584773 -0.4443309
7.7408676 -4.0091891 0
7.5988913 -3.9356558 0.47799489
6.9515171 -3.5897186 -0.87203443
7.0681357 -3.6499395 -0.4443309
7.7503357 -4.0022235 0
7.5967126 -3.9228933 0.47755933
6.9604445 -3.5836821 -0.87261045
7.0494428 -3.6295042 -0.4428798
7.7551661 -3.9928555 0
7.594523 -3.9101465 0.47712433
6.9647694 -3.5752692 -0.87261045
7.0584421 -3.6233547 -0.4431698
7.7553501 -3.9811029 0
7.5946145 -3.8985915 0.47683379
6.9552741 -3.5597827 -0.87088126
7.0697565 -3.618376 -0.44360536
7.7485733 -3.9658017 0
7.6062608 -3.8929646 0.47726935
6.9687858 -3.5560787 -0.87203443
7.0648656 -3.6051068 -0.44302478
7.7324986 -3.945791 0
7.6063347 -3.8814113 0.47697935
6.9684625 -3.5453076 -0.87145728
7.055325 -3.5895002 -0.44215423
7.407897 -3.7688763 0
7.6133327 -3.8733947 0.47712433
6.9727411 -3.536885 -0.87145728
7.0642872 -3.5833213 -0.44244424
7.2035704 -3.6539719 0
7.6180077 -3.8641927 0.47712433
6.9816303 -3.5307941 -0.87203443
7.0639787 -3.5724397 -0.44215423
7.1754713 -3.6288242 0
7.6203547 -3.8538136 0.47697935
6.9858918 -3.5223556 -0.87203443
7.0682902 -3.5639017 -0.44215423
7.1868243 -3.6236677 0
7.6319594 -3.8481092 0.47741434
6.9855165 -3.5115862 -0.87145728
7.0679436 -3.5530221 -0.44186369
7.2074676 -3.6231601 0
7.634284 -3.8377187 0.47726935
6.9897542 -3.5031431 -0.87145728
7.0792031 -3.5479732 -0.44229925
7.3747005 -3.6960716 0
7.6296234 -3.8238344 0.47668877
6.9939823 -3.4946947 -0.87145728
7.0648894 -3.5301251 -0.44113812
7.7353334 -3.8651268 0
7.5552125 -3.7751255 0.47175431
6.9889393 -3.4816282 -0.87030411
7.0644937 -3.5192666 -0.44084755
7.7609606 -3.8662205 0
7.4853415 -3.7289174 0.46710986
6.9931412 -3.4731808 -0.87030411
7.0594406 -3.506109 -0.44026756
7.7702928 -3.8591576 0
7.5201025 -3.734899 0.46899709
7.0019727 -3.467026 -0.87088126
7.0636721 -3.4975765 -0.44026756
7.7073169 -3.8162773 0
7.6037788 -3.7650101 0.47393155
7.0061569 -3.4585631 -0.87088126
7.0609007 -3.4855871 -0.439832
7.6115737 -3.7574246 0
7.6619062 -3.7822711 0.47726935
7.0080032 -3.4489496 -0.87059212
7.0697656 -3.4793456 -0.44012201
7.5670834 -3.7240977 0
7.6827927 -3.7810433 0.47828546
7.0098457 -3.4393411 -0.87030411
7.080965 -3.4742353 -0.44055757
7.517838 -3.6885843 0
7.6920166 -3.7740443 0.47857547
7.0258632 -3.4419348 -0.87203443
7.0784006 -3.4676726 -0.44026756
7.3331046 -3.5924509 0
7.698967 -3.7716849 0.47886601
7.0300169 -3.4334431 -0.87203443
7.0662389 -3.4511337 -0.43925145
7.2088294 -3.5207746 0
7.7035189 -3.7623796 0.47886601
7.0318284 -3.4238105 -0.87174529
7.0750718 -3.4448659 -0.43954143
7.1849999 -3.49839 0
7.719738 -3.7587552 0.47959158
7.042943 -3.4187009 -0.87261045
7.0792289 -3.4363146 -0.43954143
7.1822047 -3.4862998 0
7.703238 -3.7392135 0.47828546
7.0470686 -3.4101884 -0.87261045
7.0787024 -3.4254966 -0.43925145
7.1887522 -3.4787514 0
7.6796827 -3.7163205 0.47654378
7.0395384 -3.3960528 -0.87116927
7.0641136 -3.4079084 -0.43809032
7.1999846 -3.4734561 0
7.6794825 -3.704778 0.47625321
7.0482941 -3.3897843 -0.87174529
7.0588593 -3.3948655 -0.43750978
7.2088628 -3.4670076 0
7.6582012 -3.6831112 0.47465712
7.0523849 -3.3812654 -0.87174529
7.0723286 -3.3908274 -0.43809032
9.9655991 -4.7780056 0
7.6532736 -3.6693614 0.47407654
7.0488629 -3.3586509 -0.87030411
7.0711193 -3.3692555 -0.43750978
9.9747696 -4.7527905 0
7.6316261 -3.6363266 0.47218987
7.0552502 -3.3512399 -0.87059212
7.0728402 -3.3595953 -0.43736476
10.036923 -4.7675333 0
7.6454029 -3.631562 0.47277042
7.0546236 -3.3405008 -0.8700161
7.0792408 -3.3521576 -0.43750978
10.134403 -4.7988362 0
7.6356897 -3.6156471 0.47189933
7.0563178 -3.3308713 -0.86972809
7.0856338 -3.3447094 -0.43765476
10.191966 -4.8110256 0
7.6259589 -3.5997651 0.47102877
7.0603375 -3.3223426 -0.86972809
7.0779161 -3.3306146 -0.43692923
7.7795038 -3.6607566 0
7.627954 -3.5894427 0.47088376
7.0666862 -3.3149066 -0.8700161
7.0701756 -3.3165433 -0.43620366
7.8734508 -3.6933513 0
7.6322856 -3.5802231 0.47088376
7.0660052 -3.3041763 -0.86944008
7.0741777 -3.3079979 -0.43620366
7.9085526 -3.6981649 0
7.6318936 -3.568795 0.47059321
7.0840535 -3.3021905 -0.87116927
7.0805225 -3.3005445 -0.43634865
7.2360787 -3.3730564 0
7.6385531 -3.5606675 0.4707382
7.0763125 -3.2881799 -0.86972809
7.0774336 -3.2887008 -0.43591309
7.2189012 -3.3544371 0
7.6381416 -3.5492473 0.4704482
7.0829859 -3.2860789 -0.87030411
7.0770645 -3.2833319 -0.4357681
7.2303696 -3.3544562 0
7.6379294 -3.5435395 0.47030321
7.0892968 -3.2786028 -0.87059212
7.0810266 -3.2747781 -0.4357681
7.213161 -3.3358867 0
7.6445618 -3.5353975 0.4704482
7.0932531 -3.2700346 -0.87059212
7.0826206 -3.2651329 -0.43562311
7.2171865 -3.3271685 0
7.644104 -3.5239804 0.47015765
7.097199 -3.2614613 -0.87059212
7.0818343 -3.2544005 -0.43533254
7.2141137 -3.3151884 0
7.6554422 -3.5179973 0.47059321
7.0917377 -3.2485788 -0.86944008
7.0881305 -3.2469263 -0.43547809
7.2181144 -3.3064692 0
7.6596875 -3.5087447 0.47059321
7.100359 -3.2421539 -0.8700161
7.0849552 -3.2351203 -0.43504253
7.184226 -3.2804494 0
7.6781082 -3.5059648 0.47146431
7.0948548 -3.2292862 -0.86886293
7.0770364 -3.2211759 -0.43431699
7.9863915 -3.6350772 0
7.6728787 -3.492379 0.47088376
7.0987515 -3.2207112 -0.86886293
7.073822 -3.2094007 -0.43388143
7.9836659 -3.6221976 0
7.6723557 -3.4809561 0.47059321
7.0955658 -3.2089329 -0.86799777
7.0871654 -3.2051339 -0.43446198
10.02249 -4.532619 0
7.6623554 -3.4652605 0.46972266
7.0994382 -3.200357 -0.86799777
7.0886664 -3.1955013 -0.43431699
10.011349 -4.5130181 0
7.6617947 -3.4538617 0.46943209
7.0938625 -3.187536 -0.86684459
7.0901546 -3.1858697 -0.43417197
7.9540186 -3.5740359 0
7.6493778 -3.4371495 0.46841654
7.1000762 -3.1800225 -0.86713374
7.0963678 -3.1783614 -0.43431699
10.005598 -4.4813638 0
7.6606331 -3.4310875 0.46885154
7.0968261 -3.1682768 -0.86626858
7.0883417 -3.1644893 -0.43359143
9.9896193 -4.4597235 0
7.664773 -3.4218287 0.46885154
7.1077404 -3.1628549 -0.86713374
7.0897794 -3.1548624 -0.43344587
7.2060895 -3.206619 0
7.6831508 -3.4189053 0.46972266
7.1091857 -3.1532128 -0.86684459
7.08884 -3.1441886 -0.43315586
7.209959 -3.1979096 0
7.6801481 -3.4064577 0.4692871
7.1011648 -3.1393921 -0.86540341
7.083128 -3.1314182 -0.43257532
7.2138176 -3.1891954 0
7.6747522 -3.3929725 0.46870652
7.0978594 -3.1276836 -0.86453938
7.0821462 -3.1207597 -0.43228474
7.2176657 -3.1804767 0
7.6859822 -3.3868411 0.46914208
7.0950079 -3.1213098 -0.86396223
7.079278 -3.1143897 -0.43199474
7.2124372 -3.1729705 0
7.6975408 -3.3863823 0.46972266
7.0987744 -3.1127346 -0.86396223
7.0782809 -3.1037486 -0.43170476
7.2377143 -3.1736584 0
7.7016268 -3.3770788 0.46972266
7.1025305 -3.1041548 -0.86396223
7.0891623 -3.0983124 -0.43213975
10.050571 -4.3925939 0
7.7033143 -3.3667269 0.46957707
7.0944219 -3.0904069 -0.86252105
7.0833721 -3.0855932 -0.43155921
10.048712 -4.3773274 0
7.6978569 -3.3532696 0.46899709
7.0957804 -3.0808032 -0.86223304
7.0870953 -3.0770321 -0.43155921
10.061157 -4.3682928 0
7.6875973 -3.3377547 0.46812597
7.0971174 -3.071197 -0.8619439
7.0836606 -3.0653737 -0.43112418
10.073596 -4.3592343 0
7.6940074 -3.3294942 0.46827099
7.1008229 -3.0626192 -0.8619439
7.0945106 -3.0598965 -0.43155921
10.088415 -4.351182 0
7.7171125 -3.3284278 0.46943209
7.1021447 -3.0530164 -0.86165589
7.0982022 -3.051322 -0.43155921
10.098442 -4.3410425 0
7.7378416 -3.3262851 0.4704482
7.1058283 -3.0444326 -0.86165589
7.0923305 -3.0386496 -0.43097863
10.096501 -4.3257613 0
7.7514091 -3.3210263 0.47102877
7.099987 -3.0317817 -0.86050272
7.0792756 -3.0229375 -0.42996308
7.2225857 -3.0841327 0
10.140212 -4.3299947 0.61587042
7.1012673 -3.0221884 -0.86021471
7.0877004 -3.0164146 -0.43025309
7.2286992 -3.0764215 0
10.126308 -4.3095989 0.61470932
7.0977683 -3.0105748 -0.85934955
7.0841613 -3.0048034 -0.42981753
7.2252212 -3.0646353 0
10.114761 -4.2902565 0.61369318
7.1037807 -3.0030026 -0.85963756
7.0830045 -2.9942198 -0.42952752
7.2265244 -3.0548904 0
10.115156 -4.27601 0.6134032
7.1050229 -2.9934137 -0.85934955
7.0770392 -2.9816236 -0.42894697
7.2110238 -3.0380726 0
10.103551 -4.256722 0.61238706
7.1014872 -2.9818254 -0.85848552
7.0590763 -2.9640176 -0.42764086
7.1451044 -3.0001395 0
10.101506 -4.2414956 0.61195207
7.112236 -2.9762349 -0.85934955
7.0123172 -2.9344223 -0.42459306
7.0358949 -2.9442887 0
10.097035 -4.2252746 0.61137152
7.1134424 -2.9666443 -0.85906154
6.97509 -2.9089448 -0.42212582
7.0034246 -2.9207618 0
10.104529 -4.2140703 0.61151654
3.8736157 -1.6099905 -0.69934541
7.1146355 -2.9570551 -0.85877353
6.9809971 -2.901511 -0.42227083
6.9925251 -2.9063025 0
10.124006 -4.2078395 0.61238706
3.8651035 -1.6037147 -0.6976335
7.1092515 -2.9497817 -0.85790837
6.9851465 -2.8982878 -0.42241582
6.9990916 -2.904074 0
10.121751 -4.1997328 0.61209708
3.8456905 -1.5902158 -0.69378221
7.1032495 -2.9372358 -0.8567552
6.9838452 -2.8878615 -0.42212582
7.0025954 -2.8956149 0
10.134015 -4.1904755 0.61253208
3.8428667 -1.5836136 -0.69292712
7.1067934 -2.9286509 -0.8567552
6.9801202 -2.8764498 -0.42169026
6.9988685 -2.8841758 0
10.139071 -4.1782274 0.61253208
3.8281529 -1.5721416 -0.68993092
7.103147 -2.9171128 -0.85589004
6.9811893 -2.8670273 -0.42154527
6.9999433 -2.8747292 0
10.122481 -4.1570897 0.61122596
3.8324232 -1.5684863 -0.69035852
7.1090674 -2.9095104 -0.85617918
6.9918652 -2.8615434 -0.42198083
7.008224 -2.8682387 0
10.129909 -4.145843 0.61137152
3.8248076 -1.5599767 -0.68864661
7.1053905 -2.8979871 -0.85531402
6.9832902 -2.8481874 -0.42125526
7.0020456 -2.8558371 0
10.146939 -4.1385055 0.61209708
3.8314507 -1.557289 -0.68950337
7.106493 -2.8884265 -0.85502601
6.9891315 -2.8407249 -0.42140028
6.9958472 -2.8434546 0
10.142303 -4.1223283 0.61151654
3.8261893 -1.5497662 -0.68821907
7.1099782 -2.8798375 -0.85502601
6.9949646 -2.8332524 -0.42154527
7.004107 -2.8369553 0
10.15691 -4.1139722 0.61209708
3.8094928 -1.5376478 -0.91006953
3.8304374 -1.5461018 -0.68864661
7.1110473 -2.8702736 -0.85473686
7.0031977 -2.8267417 -0.42183527
6.9978766 -2.8245938 0
10.18115 -4.1094775 0.61325818
3.8419912 -1.5453694 -0.91738647
3.8418293 -1.5453042 -0.69035852
7.112113 -2.8607149 -0.85444885
6.9993825 -2.8153713 -0.42140028
7.0061088 -2.8180766 0
10.200568 -4.1029887 0.61412877
3.8580112 -1.5464 -0.92076486
3.8294015 -1.5349323 -0.68779153
3.8266351 -1.5338235 -0.45950875
5.5122976 -2.2094846 -0.33170882
7.0095086 -2.8096092 0
10.210347 -4.0925956 0.61441934
3.8622344 -1.5426787 -0.92132723
3.8336351 -1.5312554 -0.68821907
3.8549097 -1.5397531 -0.46268025
5.5125432 -2.2018559 -0.33156326
7.0128984 -2.8011374 0
15.038768 -6.0068827 0.90453762
0 -0 -0
3.8330996 -1.5256736 -0.68779153
3.8399432 -1.5283976 -0.46066192
5.5200329 -2.1971171 -0.33185381
7.0090308 -2.7897773 0
7.1011672 -2.8264499 0.42690858
3.8470559 -1.5258464 -0.91682416
3.8277793 -1.5182008 -0.68650723
3.8345721 -1.5208949 -0.45979676
5.5275097 -2.1923597 -0.33214381
7.0148134 -2.7822647 0
7.116652 -2.8226566 0.42763415
3.8441751 -1.5193307 -0.91569942
3.8200614 -1.5098003 -0.68479532
3.8388193 -1.5172139 -0.4600859
5.5253263 -2.1837709 -0.33185381
7.0060711 -2.7690046 0
7.1152291 -2.8121471 0.42734414
3.8460083 -1.5146847 -0.91569942
3.8266647 -1.5070665 -0.68565208
3.8382361 -1.5116239 -0.45979676
5.5327916 -2.1789956 -0.33214381
7.0021448 -2.7576752 0
7.1113663 -2.8006902 0.42690858
3.8501985 -1.5109638 -0.91626179
3.8260863 -1.5015012 -0.68522286
3.8159873 -1.497538 -0.4569144
5.5257449 -2.1685116 -0.33156326
6.9957814 -2.7454095 0
7.1486044 -2.8053832 0.42894027
3.8567498 -1.5081594 -0.91738647
3.8207324 -1.4940749 -0.68394023
3.8129809 -1.4910439 -0.45633838
5.5307884 -2.1627824 -0.33170882
6.9942508 -2.7350607 0
7.2487893 -2.8345966 0.43474585
3.8481925 -1.5021334 -0.91513497
3.8264124 -1.4936315 -0.68479532
3.8066504 -1.4859176 -0.45547321
5.532094 -2.1594405 -0.33170882
6.9959016 -2.7308347 0
7.296484 -2.8481665 0.43750307
3.8518112 -1.4928293 -0.91513497
3.8300107 -1.4843802 -0.68479532
3.7957554 -1.4711041 -0.45374289
3.9867475 -1.5451261 -0.23882401
7.0049052 -2.71486 0
7.3154578 -2.8352194 0.43822864
3.8488762 -1.4863452 -0.91401029
3.8318014 -1.4797513 -0.68479532
3.8023605 -1.4683819 -0.45432004
0 -0 -0
7.0033202 -2.7045171 0
7.3431225 -2.8357408 0.43968031
3.8554075 -1.4835167 -0.91513497
3.8335867 -1.4751203 -0.68479532
3.7992995 -1.4619269 -0.45374289
3.9443998 -1.5177599 -0.23606677
7.0162983 -2.6997914 0
7.3295655 -2.820333 0.4386642
3.8429668 -1.4734011 -0.91175872
3.8353662 -1.470487 -0.68479532
3.805898 -1.4591888 -0.45432004
3.9389498 -1.5102012 -0.23563121
7.0025525 -2.6847925 0
7.3232632 -2.8077536 0.43808365
3.8518674 -1.4714777 -0.91344792
3.8419409 -1.4676856 -0.68565208
3.7955797 -1.4499749 -0.45287886
3.9359217 -1.5035878 -0.23534122
7.0009241 -2.6744702 0
21.474995 -8.2038069 1.284058
3.8488886 -1.4650129 -0.91232109
3.8437116 -1.4630424 -0.68565208
3.8021588 -1.447226 -0.45345488
3.9304478 -1.4960569 -0.23490566
6.9992909 -2.6641591 0
7.2911716 -2.7752583 0.43576139
0 -0 -0
3.8696623 -1.4675694 -0.91682416
3.8550775 -1.462038 -0.68736398
3.8039048 -1.4426308 -0.45345488
3.9249613 -1.4885415 -0.2344701
7.0000644 -2.6547744 0
7.2750826 -2.7590749 0.43460029
3.8666835 -1.461098 -0.91569942
3.8568413 -1.4573789 -0.68736398
3.8080623 -1.4389468 -0.45374289
3.93648 -1.4874718 -0.23505066
4.0333447 -1.524074 0
7.3100171 -2.7622254 0.43648753
3.8779581 -1.4600059 -0.91795099
3.8778098 -1.4599501 -0.69078606
3.8049617 -1.4325236 -0.45316687
3.9236882 -1.4772228 -0.23418011
0 -0 0
7.3011837 -2.7488103 0.43576139
3.8820961 -1.4562106 -0.91851336
3.8891852 -1.4588698 -0.69249791
3.801851 -1.4261099 -0.45259085
3.9181693 -1.4697419 -0.23374455
3.9712224 -1.4896427 0
7.289907 -2.7345123 0.43489084
3.881475 -1.4506301 -0.91795099
3.8789244 -1.4496769 -0.69035852
3.8059919 -1.4224197 -0.45287886
3.90047 -1.4577292 -0.23258343
3.9462106 -1.4748238 0
7.2566929 -2.7120559 0.43271363
3.8927495 -1.4494855 -0.92020255
5.4707699 -2.0370698 -0.97323132
3.8028555 -1.416013 -0.45230171
3.9022286 -1.4530152 -0.23258343
3.9357977 -1.4655148 0
22.025745 -8.2014008 1.3127942
3.9040182 -1.4483126 -0.92245191
5.4636002 -2.0268865 -0.97151941
3.8094182 -1.4132179 -0.45287886
3.8844919 -1.4410688 -0.23142231
3.9253678 -1.4562329 0
22.040506 -8.1765871 1.3130842
3.9057653 -1.4435943 -0.92245191
5.4636307 -2.0193906 -0.97109026
3.8062663 -1.4068189 -0.45230171
3.8935444 -1.4390774 -0.23185787
3.9197989 -1.4487813 0
22.162481 -8.1913862 1.3197603
3.9051247 -1.4379967 -0.92188954
5.4660668 -2.0127876 -0.97109026
3.8103974 -1.403115 -0.45259085
3.883091 -1.4298832 -0.23113231
3.9117777 -1.4404466 0
3.9926941 -1.4702427 0.23765621
3.9092424 -1.4341514 -0.92245191
5.4709115 -2.0070679 -0.97151941
3.8048031 -1.3958366 -0.45172569
3.8848157 -1.4251902 -0.23113231
3.8890874 -1.4267573 0
3.9944677 -1.4654173 0.23765621
3.9053407 -1.4300437 -0.92132723
5.4721231 -2.0037625 -0.97151941
3.8104985 -1.3953147 -0.45230171
3.8710313 -1.4174803 -0.23026119
3.8874979 -1.42351 0
3.9977994 -1.4638997 0.23780176
3.895133 -1.4209706 -0.91851336
5.4648938 -1.9936298 -0.96980757
3.8097541 -1.3898238 -0.4520137
3.8556607 -1.4065708 -0.22924563
3.8794355 -1.415244 0
0 -0 0
3.8872948 -1.4127914 -0.91626179
5.4769497 -1.9905325 -0.97151941
3.8138595 -1.3861021 -0.45230171
3.8500288 -1.3992474 -0.22881009
3.8860393 -1.412335 0
0 -0 0
5.4721074 -1.9812906 -0.97023511
3.810672 -1.3797333 -0.45172569
3.8395028 -1.3901721 -0.22808452
3.877955 -1.4040945 0
4.0323982 -1.460014 0.23954344
5.4841561 -1.9781613 -0.97194701
3.8099058 -1.3742511 -0.45143768
3.8240674 -1.3793592 -0.22706841
3.8723021 -1.3967577 0
4.0194893 -1.4498489 0.23867232
5.4768791 -1.968061 -0.97023511
3.8066907 -1.3678956 -0.45086053
3.8135066 -1.3703449 -0.22634284
3.8617432 -1.3876783 0
3.9870076 -1.4326907 0.23664065
5.4671712 -1.9571166 -0.96809572
3.8205142 -1.3676528 -0.45230171
3.8127155 -1.3648611 -0.22619785
3.8560641 -1.3803788 0
0 -0 0
5.4719477 -1.9513706 -0.96852326
3.8270409 -1.3647747 -0.45287886
3.814362 -1.3602532 -0.22619785
3.8724418 -1.3809652 0
0 -0 0
5.4718847 -1.9438989 -0.96809572
3.823808 -1.3584161 -0.45230171
3.8160028 -1.3556433 -0.22619785
3.8593888 -1.3710562 0
0 -0 0
5.4742298 -1.9372858 -0.96809572
3.8278921 -1.3546602 -0.45259085
3.805383 -1.3466945 -0.22547174
3.8536894 -1.3637897 0
3.9497979 -1.3978016 0.23402841
5.4765663 -1.9306699 -0.96809572
3.8343999 -1.3517522 -0.45316687
3.8168101 -1.3455511 -0.22605228
3.8528731 -1.3582644 0
3.9269729 -1.3843871 0.23257674
5.4692068 -1.9206488 -0.96638381
3.8262689 -1.34369 -0.4520137
3.8012784 -1.334914 -0.22503674
3.847152 -1.3510236 0
3.9188361 -1.3761973 0.23199618
5.4763651 -1.9157326 -0.96723896
3.8303289 -1.339919 -0.45230171
3.7979786 -1.3286022 -0.22474618
3.8561442 -1.3489497 0
3.8837125 -1.3585936 0.22981951
5.4762545 -1.9082701 -0.96681136
3.8392749 -1.3378439 -0.45316687
3.7848635 -1.3188835 -0.22387561
3.8405755 -1.3382971 0
3.8657215 -1.3470596 0.22865839
5.4834018 -1.9033338 -0.96766651
3.8408885 -1.3332039 -0.45316687
3.7913592 -1.3160119 -0.22416562
3.8323553 -1.3302419 0
3.8599796 -1.3398306 0.22822283
5.4808497 -1.8950306 -0.96681136
3.8424966 -1.328562 -0.45316687
3.7929463 -1.3114297 -0.22416562
3.8118255 -1.3179573 0
3.8394959 -1.3275244 0.22691672
5.4782858 -1.8867365 -0.96595627
3.8392129 -1.3222352 -0.45259085
3.7994466 -1.3085397 -0.22445618
3.7863457 -1.3040277 0
3.8386426 -1.3220389 0.22677171
5.4757009 -1.8784481 -0.96509951
3.845696 -1.3192723 -0.45316687
3.7985694 -1.3031055 -0.22431117
3.755919 -1.2884742 0
3.8402371 -1.3173996 0.22677171
5.4828296 -1.8734921 -0.96595627
3.8521776 -1.3162956 -0.45374289
3.8050542 -1.3001935 -0.22460118
3.7476225 -1.280569 0
3.8442826 -1.3135979 0.22691672
5.4742417 -1.8668649 -0.96424443
3.8529723 -1.3139681 -0.45374289
3.8058391 -1.2978945 -0.22460118
3.7459345 -1.2774653 0
3.8426187 -1.3104372 0.22677171
5.4764934 -1.860249 -0.96424443
3.8570132 -1.3101459 -0.45403203
3.8000212 -1.2907869 -0.22416562
3.7326853 -1.2679143 0
3.8466573 -1.3066281 0.22691672
5.4860253 -1.8560961 -0.96552706
3.8610411 -1.3063126 -0.45432004
3.7745097 -1.2770363 -0.2225695
3.7416127 -1.2659062 0
3.8408468 -1.2994802 0.22648115
5.4785333 -1.846187 -0.96381521
3.8626168 -1.3016464 -0.45432004
3.7194126 -1.2533886 -0.21923116
3.7456033 -1.2622145 0
3.8448837 -1.2956705 0.22662671
5.4904947 -1.8428332 -0.96552706
3.8641868 -1.2969781 -0.45432004
3.6913636 -1.2389717 -0.21748948
3.7421961 -1.2560332 0
3.8489072 -1.2918497 0.22677171
5.4805465 -1.832129 -0.96338767
3.8633003 -1.2914889 -0.45403203
3.6805384 -1.2303921 -0.21676393
3.7511086 -1.2539835 0
3.8578515 -1.2896674 0.22720672
5.4754472 -1.8230718 -0.96210331
3.8697615 -1.2884524 -0.45460805
3.6894209 -1.2284074 -0.21719947
3.7575643 -1.251096 0
3.8594069 -1.285005 0.22720672
5.4800897 -1.8172649 -0.96253252
3.87623 -1.2854054 -0.4551852
3.6810369 -1.220677 -0.21661893
3.7664864 -1.2490131 0
3.8683584 -1.2827951 0.22764227
5.4774017 -1.8090303 -0.96167576
3.8532157 -1.2726078 -0.45230171
3.6874392 -1.2178565 -0.21690892
3.7729304 -1.2460918 0
3.8699057 -1.27812 0.22764227
5.4869013 -1.8048177 -0.96296006
3.8031564 -1.25098 -0.44624785
3.6938496 -1.2150255 -0.21719947
3.749716 -1.2334018 0
3.8714471 -1.273443 0.22764227
5.47932 -1.7949898 -0.96124822
3.7309313 -1.222229 -0.43759963
3.6854377 -1.2073256 -0.21661893
3.7586162 -1.2312983 0
3.872983 -1.2687643 0.22764227
3.9806693 -1.2987176 -0.69806111
3.6881495 -1.2032813 -0.43241093
3.6918297 -1.204482 -0.21690892
3.7650542 -1.2283719 0
3.8720453 -1.2632784 0.22749728
4.0017672 -1.3002529 -0.7014848
3.6699216 -1.1924298 -0.43010458
3.6908135 -1.199218 -0.21676393
3.7640629 -1.2230182 0
3.880985 -1.2610085 0.22793283
3.9960153 -1.293048 -0.70020217
3.6664429 -1.1864035 -0.42952856
3.6947296 -1.1955566 -0.21690892
3.7680118 -1.2192696 0
3.8775568 -1.2547166 0.22764227
3.9780281 -1.2819197 -0.69677842
3.6678736 -1.1819725 -0.42952856
3.6986518 -1.1918907 -0.21705449
3.7719569 -1.2155132 0
3.8914337 -1.2540147 0.22836784
3.9746807 -1.2755418 -0.69592166
3.6594481 -1.1743783 -0.42837539
3.697608 -1.1866245 -0.21690892
3.7635107 -1.2077738 0
3.8954272 -1.250108 0.22851339
3.9688904 -1.2683961 -0.69463897
3.6559322 -1.1683795 -0.42779824
3.6990392 -1.1821557 -0.21690892
3.7649674 -1.2032254 0
3.9068356 -1.2485642 0.22909394
3.9728639 -1.2643772 -0.69506657
3.6647377 -1.1663151 -0.4286634
3.6880867 -1.173746 -0.21618336
3.7763381 -1.2018323 0
3.905858 -1.2430525 0.22894838
4.036479 -1.2819378 -0.93821269
3.9711828 -1.2612005 -0.69463897
3.6703672 -1.1656651 -0.42923942
3.6912789 -1.1723064 -0.21632892
3.7820292 -1.2011276 0
3.9140403 -1.2430528 0.22938395
4.052556 -1.2816552 -0.94158888
3.9751492 -1.2571746 -0.69506657
3.6668456 -1.1596709 -0.4286634
3.7025933 -1.1709765 -0.21690892
3.8082867 -1.2044029 0
3.9229743 -1.2406739 0.22981951
4.0395651 -1.2721795 -0.93821269
3.9766653 -1.2523705 -0.69506657
3.6633053 -1.1536841 -0.42808625
3.7139192 -1.169624 -0.21748948
3.8246284 -1.2044895 0
3.9343843 -1.239055 0.23040006
4.0120053 -1.2581737 -0.93145806
3.9781756 -1.2475646 -0.69506657
3.6795092 -1.1539022 -0.42981657
3.7178164 -1.1659153 -0.21763504
3.843466 -1.2053193 0
3.9532273 -1.2397407 0.23141561
3.9941196 -1.2472659 -0.92695498
3.977232 -1.2419924 -0.69463897
3.6759584 -1.1479119 -0.42923942
3.7688193 -1.1769102 -0.22053728
3.8573382 -1.2045524 0
3.9646437 -1.2380613 0.23199618
3.9931998 -1.2416852 -0.92639261
3.9713736 -1.2348983 -0.69335467
3.6773427 -1.1434693 -0.42923942
3.8273101 -1.1901017 -0.22387561
3.8712142 -1.2037537 0
3.993433 -1.2417576 0.23359285
0 -0 -0
3.9777627 -1.2316158 -0.69420981
3.6787217 -1.1390252 -0.42923942
3.8883178 -1.2039214 -0.22735897
3.8726656 -1.1990752 0
4.0172677 -1.2438476 0.23489897
3.9719124 -1.224547 -0.92076486
3.981708 -1.2275671 -0.69463897
3.7072861 -1.1429623 -0.43241093
3.9195576 -1.208406 -0.22910008
3.886554 -1.1982309 0
4.0262198 -1.2412901 0.23533453
3.9588103 -1.2152715 -0.91738647
3.970911 -1.2189862 -0.69249791
3.7828376 -1.1612515 -0.44105914
3.9334424 -1.207484 -0.2298262
3.8879988 -1.1935339 0
4.0525522 -1.2440482 0.23678564
3.9578483 -1.2097452 -0.91682416
3.9748433 -1.2149397 -0.69292712
3.9202745 -1.1982604 -0.4569144
3.9448287 -1.2057656 -0.23040619
3.8919246 -1.1895951 0
5.4107695 -1.653841 0.31602761
3.9510334 -1.1972296 -0.9145726
3.9753036 -1.204584 -0.69249791
4.0172167 -1.2172843 -0.46786895
3.9800665 -1.2060272 -0.23229343
3.9097273 -1.1847132 0
5.4072971 -1.6385021 0.31559262
3.9476166 -1.1909883 -0.91344792
3.986587 -1.2027456 -0.69420981
4.0285897 -1.2154177 -0.46902213
4.0039077 -1.2079712 -0.23359954
3.9385657 -1.1882577 0
5.4142437 -1.6334668 0.31588262
3.9466121 -1.1854844 -0.9128834
3.9929593 -1.1994061 -0.69506657
4.0325298 -1.2112924 -0.46931013
4.0128231 -1.2053728 -0.23403454
3.9624286 -1.1902354 0
5.4137273 -1.6261768 0.31573761
3.9529152 -1.1821723 -0.91401029
4.0017862 -1.1967878 -0.69635087
4.0488639 -1.210867 -0.47104046
4.0242348 -1.2035013 -0.2346151
3.9738374 -1.1884294 0
5.4206624 -1.6211218 0.31602761
3.9616487 -1.179571 -0.91569942
4.000762 -1.1912169 -0.69592166
7.1413937 -2.126332 -0.83052254
4.0281835 -1.1993816 -0.23476066
3.9777622 -1.1843688 0
5.4276028 -1.6160553 0.31631818
3.960628 -1.1740592 -0.91513497
4.012043 -1.1893003 -0.6976335
7.1191545 -2.1103492 -0.82763904
4.0370965 -1.1967268 -0.23519567
4.00664 -1.1876985 0
5.4370184 -1.6117092 0.31675318
3.9644878 -1.1699939 -0.91569942
4.0060983 -1.1822739 -0.69635087
7.1216993 -2.1017456 -0.82763904
4.0435286 -1.1933203 -0.23548622
4.0105658 -1.1835923 0
5.4638882 -1.6124948 0.31820485
3.9561472 -1.1623377 -0.91344792
4.012445 -1.1788783 -0.69720596
7.1292014 -2.0945985 -0.8282162
4.0399766 -1.1869673 -0.23519567
7.0281668 -2.0649137 0
5.4782958 -1.6095532 0.31893039
3.9690378 -1.1635206 -0.91626179
4.0279322 -1.1807854 -0.69977295
7.1230173 -2.0881073 -0.82735103
7.0178022 -2.0572636 -0.40848354
6.999444 -2.051882 0
5.4767761 -1.605513 0.3187854
3.9655578 -1.1572989 -0.91513497
4.0244322 -1.1744807 -0.69891787
7.1280155 -2.0802231 -0.82763904
7.0277586 -2.0509644 -0.40891856
7.0044141 -2.0441515 0
5.4762101 -1.5981641 0.31863984
3.9767132 -1.155342 -0.91738647
4.0258484 -1.1696171 -0.69891787
7.1255612 -2.0701668 -0.82706302
7.0227532 -2.0402985 -0.40848354
7.0018854 -2.0342357 0
5.4781375 -1.5915461 0.31863984
3.9854312 -1.1526545 -0.91907567
4.0494504 -1.17117 -0.70276916
7.1355042 -2.0637093 -0.82792705
7.0252132 -2.0318112 -0.40848354
7.0218315 -2.0308332 0
5.4775629 -1.5842044 0.31849486
3.9868212 -1.1478381 -0.91907567
5.503768 -1.5845793 -0.95482832
7.1379924 -2.0550859 -0.82792705
7.0201697 -2.0211637 -0.408048
7.0117779 -2.0187476 0
5.4719892 -1.57543 0.31805983
3.9906454 -1.1437193 -0.91963804
5.5747747 -1.597731 -0.96681136
7.1429639 -2.0471742 -0.8282162
7.015111 -2.0105314 -0.40761244
7.0142121 -2.0102739 0
5.4688883 -1.5673839 0.31776929
3.9675951 -1.1319271 -0.91401029
5.6013823 -1.5980351 -0.97109026
7.1305041 -2.0342829 -0.82648587
7.020041 -2.0027685 -0.407758
7.0166359 -2.001797 0
5.4582868 -1.5572109 0.31704372
5.5959077 -1.5891639 -0.96980757
7.1279855 -2.0242538 -0.82590985
7.0349517 -1.9978334 -0.40848354
7.0165486 -1.9926071 0
5.4451618 -1.5463541 0.3161726
5.6077051 -1.5851943 -0.97151941
7.1329131 -2.0163424 -0.82619786
7.0148587 -1.9829707 -0.40717742
7.0314703 -1.9876665 0
5.4445281 -1.5390673 0.31602761
5.5997319 -1.5756361 -0.96980757
7.135344 -2.0077221 -0.82619786
7.0322528 -1.9787147 -0.408048
7.0188408 -1.9749408 0
5.4538903 -1.5345997 0.31646317
5.596683 -1.5674828 -0.96895081
7.1327882 -1.9977053 -0.82562184
7.02213 -1.9667128 -0.40732244
7.0212216 -1.9664584 0
5.4557405 -1.5280086 0.31646317
5.6208253 -1.5669225 -0.9728021
7.1401753 -1.990473 -0.82619786
7.0270019 -1.9589236 -0.40746742
7.0110607 -1.9544797 0
5.4500713 -1.5193213 0.31602761
5.6128201 -1.5573844 -0.97109026
7.1400852 -1.9811532 -0.82590985
7.0443821 -1.9545985 -0.40833798
7.0209332 -1.9480922 0
5.4519033 -1.5127349 0.31602761
5.6097536 -1.5492358 -0.97023511
7.1424737 -1.9725244 -0.82590985
7.0317154 -1.9419364 -0.40746742
5.2498002 -1.449828 0
5.4562292 -1.5068372 0.3161726
5.5942926 -1.5376931 -0.96723896
7.1448517 -1.9638926 -0.82590985
7.0415754 -1.9355053 -0.40790299
5.2465339 -1.4421054 0
5.455543 -1.4995553 0.31602761
5.6085243 -1.5343187 -0.96937835
7.134748 -1.9518461 -0.82446867
7.0338836 -1.9242529 -0.40732244
5.2608213 -1.4391979 0
5.4398136 -1.4881647 0.31501207
5.6029506 -1.5255195 -0.96809572
7.1321054 -1.9418635 -0.82389152
7.0286798 -1.9137038 -0.40688688
5.2525125 -1.4301054 0
5.4140263 -1.4740809 0.31341538
5.607265 -1.5194191 -0.96852326
7.1344461 -1.9332443 -0.82389152
7.0184493 -1.9018122 -0.40616131
7.0476508 -1.9097251 0
5.3832021 -1.4587039 0.31152871
5.588357 -1.510672 -0.96509951
7.1256256 -1.9262339 -0.82273835
7.0246091 -1.8989266 -0.40645131
7.038754 -1.9027503 0
5.3840823 -1.4554514 0.31152871
5.6000943 -1.5065861 -0.96681136
7.1279478 -1.9176226 -0.82273835
7.0394516 -1.8938146 -0.40717742
7.0385275 -1.8935659 0
5.3933673 -1.4509705 0.31196427
5.6019106 -1.4998183 -0.96681136
7.1352615 -1.9103476 -0.8233155
7.0216546 -1.8799312 -0.40601632
7.0282431 -1.8816952 0
5.4177046 -1.4505002 0.31327039
5.5913181 -1.4897445 -0.96467197
7.1400614 -1.9023899 -0.82360351
7.0289378 -1.8727822 -0.40630633
7.0305114 -1.8732015 0
5.4395399 -1.4493048 0.31443149
5.6129651 -1.4882507 -0.96809572
7.1348524 -1.8917718 -0.82273835
7.038733 -1.8662863 -0.40674189
7.0252304 -1.8627061 0
5.4563522 -1.4467256 0.31530204
5.6097903 -1.4801563 -0.96723896
7.1496348 -1.886448 -0.82417953
7.0384727 -1.8571177 -0.40659687
7.0325036 -1.8555427 0
5.4982958 -1.4507383 0.31762427
5.6041331 -1.471423 -0.96595627
7.1419024 -1.8751804 -0.82302636
7.0281382 -1.8453103 -0.40587077
7.0372553 -1.8477042 0
5.5477896 -1.4566295 0.32038152
5.6108694 -1.465947 -0.96681136
7.1441627 -1.8665494 -0.82302636
7.0404191 -1.8394443 -0.40645131
7.0294108 -1.8365682 0
5.5520668 -1.4505838 0.32052708
5.6051807 -1.4572281 -0.96552706
7.1364098 -1.855315 -0.82187432
7.0174928 -1.8243991 -0.40500021
7.0416999 -1.8306925 0
5.5714121 -1.4484489 0.32154262
5.6143956 -1.4523835 -0.96681136
7.1411476 -1.8473378 -0.82216233
7.0297546 -1.8185216 -0.40558076
5.1795292 -1.3398882 0
5.5882568 -1.4456217 0.32241374
5.6186299 -1.4462379 -0.96723896
7.1358576 -1.8367729 -0.82129717
7.0294328 -1.8093791 -0.40543577
5.1937437 -1.3368719 0
5.5849619 -1.4375716 0.3221232
5.6054573 -1.4356276 -0.96467197
7.138072 -1.8281493 -0.82129717
7.0316138 -1.800884 -0.40543577
5.1852708 -1.3280125 0
5.5992785 -1.4340451 0.32284874
5.6121583 -1.43012 -0.96552706
7.1352677 -1.8182468 -0.82072115
7.038816 -1.7936685 -0.40572575
5.1767936 -1.319178 0
5.6085634 -1.429204 0.3232843
5.603929 -1.4208143 -0.96381521
7.1349454 -1.8089864 -0.82043201
7.0384617 -1.7845242 -0.40558076
5.2136965 -1.3218751 0
5.6203613 -1.4249805 0.32386488
5.6155982 -1.4165535 -0.96552706
7.1421466 -1.8016304 -0.82100916
7.0355787 -1.7747483 -0.40529075
5.2455711 -1.323213 0
5.6145182 -1.4162811 0.32342932
5.6173058 -1.409767 -0.96552706
7.1443181 -1.7929993 -0.82100916
7.0503168 -1.7694079 -0.40601632
5.2572632 -1.3194077 0
5.618753 -1.4101303 0.32357487
5.6090426 -1.4004911 -0.96381521
7.1439724 -1.7837394 -0.82072115
7.0700898 -1.7652922 -0.40703186
5.2815762 -1.3187279 0
5.6204529 -1.4033401 0.32357487
5.6132293 -1.3943334 -0.96424443
7.1486301 -1.7757289 -0.82100916
7.1150861 -1.7673966 -0.40949911
5.280642 -1.3117183 0
5.6246638 -1.3971736 0.32371986
5.5999522 -1.3838536 -0.96167576
7.140727 -1.7646079 -0.81985599
7.1373968 -1.7637851 -0.41066021
5.2822232 -1.3053367 0
5.6288676 -1.3909992 0.32386488
5.5982971 -1.3798563 -0.96124822
7.1417918 -1.7602936 -0.81985599
7.1990118 -1.7743971 -0.41414356
5.4017668 -1.3314159 0
5.6372786 -1.3894644 0.32430041
5.6074424 -1.3749255 -0.96253252
7.1338654 -1.749199 -0.81870282
7.2415299 -1.775598 -0.41646579
5.4716101 -1.3416198 0
5.6439958 -1.3838882 0.32459041
5.599124 -1.3657157 -0.96082067
7.138484 -1.7411902 -0.81899083
7.2790074 -1.7754661 -0.41849747
5.4808149 -1.3368583 0
5.6406198 -1.3758372 0.32430041
5.6082468 -1.3607634 -0.96210331
7.1330395 -1.7307332 -0.81812567
7.2988257 -1.770959 -0.41951358
5.4748363 -1.3283932 0
5.6473236 -1.3702449 0.32459041
5.6073942 -1.3533843 -0.96167576
7.1451826 -1.7245405 -0.81927884
7.3464222 -1.773111 -0.42212582
5.4612632 -1.3181145 0
5.6388717 -1.3609816 0.32400987
5.6140223 -1.3478075 -0.96253252
7.1522961 -1.7171143 -0.81985599
7.3839278 -1.7727242 -0.4241575
7.4416733 -1.7865877 0
5.640512 -1.3541671 0.32400987
5.6106482 -1.3398294 -0.96167576
7.1543655 -1.7084709 -0.81985599
7.4163928 -1.7710433 -0.42589918
7.471664 -1.7842422 0
22.536839 -5.3818235 1.2942169
5.6047678 -1.3312688 -0.96039146
7.1488729 -1.6980313 -0.81899083
7.4185271 -1.7620808 -0.42589918
7.4966006 -1.7806251 0
22.54586 -5.3551908 1.2943624
5.6163659 -1.3268565 -0.96210331
7.1509194 -1.6893921 -0.81899083
7.420651 -1.7531157 -0.42589918
7.5114079 -1.7745569 0
22.559895 -5.3297353 1.2947974
5.620471 -1.3206581 -0.96253252
7.1504402 -1.6801593 -0.81870282
7.4025273 -1.739393 -0.42473805
22.556692 -5.3002105 0
22.5562 -5.3000946 1.2942169
5.619556 -1.31328 -0.96210331
7.1474228 -1.6703398 -0.81812567
7.4020958 -1.7298565 -0.42459306
22.565613 -5.2735429 0
22.565125 -5.2734289 1.2943624
5.6186404 -1.3059083 -0.96167576
7.1393585 -1.6593602 -0.81697249
7.3864613 -1.7167928 -0.42357695
22.564371 -5.2445068 0
22.568941 -5.2455697 1.2942169
5.6177158 -1.2985407 -0.96124822
7.1464033 -1.6518985 -0.81754965
7.3784037 -1.7055256 -0.42299637
22.570692 -5.2172384 0
22.570206 -5.2171264 1.293927
5.6142721 -1.2906005 -0.96039146
7.1483941 -1.6432623 -0.81754965
7.3323507 -1.68555 -0.42023915
7.263299 -1.6696764 0
22.576492 -5.1898508 1.293927
5.6158276 -1.2838159 -0.96039146
7.1478553 -1.6340477 -0.81726164
7.2811894 -1.6645288 -0.41719136
7.2627769 -1.6603196 0
22.567553 -5.1590943 1.2930564
5.6173744 -1.2770293 -0.96039146
7.1447754 -1.624262 -0.81668448
7.2781229 -1.6545765 -0.41690081
5.2981272 -1.204453 0
22.566166 -5.1300936 1.2926208
5.6114092 -1.2685444 -0.95910877
7.1492534 -1.6161975 -0.81697249
5.4731226 -1.2372826 -0.31342208
5.2919607 -1.1963283 0
22.569817 -5.1022506 1.2924758
5.6229563 -1.2640152 -0.96082067
7.1486797 -1.6069911 -0.81668448
5.492353 -1.2346562 -0.31443763
7.2687473 -1.6339817 0
22.575966 -5.0749755 1.2924758
5.6252379 -1.2538218 -0.96082067
7.1465368 -1.5929074 -0.81610847
5.4971251 -1.2252665 -0.31458318
7.2539134 -1.616841 0
22.58766 -5.0346141 1.2926208
5.6267486 -1.2470238 -0.96082067
7.1434007 -1.5831507 -0.81553131
5.4909883 -1.2169361 -0.31414762
13.132548 -2.910491 0
22.581045 -5.0045071 1.2918953
5.6232328 -1.2391182 -0.95996392
7.1377382 -1.57285 -0.81466728
5.5178256 -1.2158911 -0.31559876
13.128428 -2.89294 0
22.581995 -4.976099 1.2916046
5.6197152 -1.231225 -0.95910877
7.1497397 -1.5664384 -0.81582046
5.4913774 -1.2031075 -0.31400263
13.098868 -2.8698347 0
22.58292 -4.9476986 1.2913147
5.6136718 -1.2227942 -0.95782447
7.1490927 -1.5572462 -0.81553131
5.4877443 -1.1953641 -0.31371206
18.022524 -3.9257438 0
22.568571 -4.9159832 1.2901536
5.6251807 -1.2181836 -0.95953637
5.5205727 -1.1955297 -0.62959296
5.4790263 -1.1865325 -0.31313151
18.083218 -3.9160836 0
4.9710221 -1.0765197 0.2840986
5.6266489 -1.2113857 -0.95953637
5.5169511 -1.1877685 -0.6290158
5.4525208 -1.173897 -0.31153539
5.8102384 -1.2509116 0
4.9774051 -1.0716072 0.28438917
5.6230831 -1.2035106 -0.95867962
5.5209188 -1.1816443 -0.62930495
5.4336081 -1.1629572 -0.31037429
5.8499207 -1.2520608 0
5.0218887 -1.0748369 0.28685638
5.62956 -1.1977849 -0.95953637
5.5122232 -1.1728195 -0.62815177
5.4019713 -1.1493615 -0.30848759
5.8412471 -1.242825 0
5.0663881 -1.0779605 0.28932363
5.6310029 -1.1909817 -0.95953637
5.4554324 -1.1538478 -0.62152076
5.3855586 -1.1390692 -0.30747148
5.8427448 -1.2357661 0
0 -0 0
5.6424866 -1.1862895 -0.96124822
5.3125591 -1.1169249 -0.60508949
5.3716784 -1.1293542 -0.30660093
0 -0 0
5.0969424 -1.071593 0.29091975
5.6464262 -1.1799954 -0.96167576
5.1949182 -1.0856389 -0.59154058
5.365406 -1.1212677 -0.30616537
0 -0 0
5.1007843 -1.0659667 0.29106531
5.640305 -1.1716052 -0.96039146
5.1607676 -1.0719955 -0.58750391
5.3591223 -1.1131979 -0.30572981
0 -0 0
5.1020684 -1.0598027 0.29106531
5.651773 -1.1668653 -0.96210331
5.1595283 -1.0652366 -0.5872159
5.3553786 -1.1056719 -0.30543983
7.2733221 -1.5016506 0
5.1033454 -1.053637 0.29106531
5.6557007 -1.160553 -0.96253252
5.1506767 -1.0569218 -0.58606273
5.3643398 -1.1007656 -0.30587482
5.8832436 -1.2072449 0
5.0969763 -1.0459024 0.29062974
5.6596117 -1.1542308 -0.96296006
5.1570234 -1.0517322 -0.58663988
5.3733063 -1.0958412 -0.30631039
5.8846979 -1.2001352 0
22.61409 -4.6119561 1.2891375
5.6710658 -1.1494311 -0.96467197
5.1582909 -1.0455002 -0.58663988
5.36444 -1.0872831 -0.30572981
5.8682866 -1.1894046 0
22.624744 -4.5856614 1.289428
5.6774788 -1.1435907 -0.96552706
5.136723 -1.0346686 -0.58404446
5.350471 -1.0777229 -0.30485925
5.8493094 -1.1782019 0
22.612436 -4.554728 1.2884119
5.6781688 -1.1401604 -0.96552706
7.1608653 -1.4378818 -0.81409013
5.3332853 -1.0709089 -0.30384314
5.8755412 -1.1797923 0
22.622829 -4.5426011 1.2888474
5.6820669 -1.1338024 -0.96595627
7.1651316 -1.429734 -0.81437814
5.3116441 -1.0598881 -0.30253702
5.8718529 -1.1716725 0
22.628302 -4.5152626 1.2888474
5.6909795 -1.1284324 -0.96723896
7.154171 -1.4185604 -0.81293696
5.2823348 -1.0474045 -0.30079535
5.8758149 -1.1650823 0
22.631184 -4.4874105 1.2887019
5.6873064 -1.1205636 -0.96638381
7.1533446 -1.4094155 -0.81264895
5.2351646 -1.0314786 -0.29803813
5.9180727 -1.1660312 0
22.641693 -4.4610677 1.2889924
5.6962066 -1.1151689 -0.96766651
7.149961 -1.3997762 -0.8120718
5.2185545 -1.0216571 -0.29702201
5.9118228 -1.1573809 0
22.641962 -4.4327068 1.2887019
5.7000771 -1.1087769 -0.96809572
5.2018824 -1.0118684 -0.59067541
5.2452869 -1.0203114 -0.29847312
5.9132171 -1.1502368 0
22.639658 -4.4038582 1.2882669
5.7014127 -1.1018888 -0.96809572
5.2031012 -1.0055821 -0.59067541
5.2745819 -1.0193969 -0.30006981
5.9094872 -1.1421024 0
22.642403 -4.3760047 1.2881213
5.7002115 -1.0945134 -0.96766651
5.2119355 -1.0007582 -0.59154058
5.2809181 -1.0140038 -0.30036035
5.9083095 -1.1344708 0
22.634918 -4.3461933 1.2873958
5.7116165 -1.0895491 -0.96937835
5.2258415 -0.99688262 -0.59298176
5.2923398 -1.0095677 -0.30094036
5.8943324 -1.1244041 0
22.637604 -4.3183537 1.2872508
5.7154584 -1.0831263 -0.96980757
5.2397461 -0.99297494 -0.59442294
5.2935557 -1.0031723 -0.30094036
5.8829045 -1.1148587 0
22.640253 -4.290514 1.2871058
5.716763 -1.0762194 -0.96980757
5.2358537 -0.98568505 -0.59384584
5.307539 -0.99918038 -0.30166647
0 -0 0
5.2282577 -0.98425508 0.29716033
5.7205801 -1.0697825 -0.97023511
5.1836529 -0.96937394 -0.58779198
5.2908611 -0.9894225 -0.30065036
5.9239559 -1.1078151 0
5.2294431 -0.97793704 0.29716033
5.7269115 -1.0638063 -0.97109026
5.1237984 -0.95177466 -0.58087403
5.2562909 -0.97638595 -0.29861867
5.9662299 -1.1082611 0
5.1463265 -0.95595938 0.29237142
5.7332463 -1.0578182 -0.97194701
5.1071372 -0.94229728 -0.57885569
5.1935863 -0.95824766 -0.29499033
5.941967 -1.0963283 0
5.0631547 -0.93418223 0.28758195
5.731998 -1.0504276 -0.97151941
5.0980959 -0.93426073 -0.57770252
5.1052823 -0.93557769 -0.28991032
5.9381723 -1.0882105 0
5.0515027 -0.92572224 0.28685638
5.735786 -1.0439601 -0.97194701
5.0915842 -0.92671007 -0.57683742
5.0680695 -0.92243016 -0.28773364
5.814024 -1.0582 0
5.0935111 -0.92706078 0.28917807
5.7218814 -1.034288 -0.96937835
5.0927005 -0.9205572 -0.57683742
5.0487242 -0.91260809 -0.28657252
5.4234881 -0.98035043 0
5.1866798 -0.937545 0.29440308
5.6827097 -1.0201181 -0.96253252
5.0963621 -0.91486132 -0.5771265
5.0523782 -0.90696567 -0.28671753
5.3734374 -0.96459985 0
0 -0 0
5.5575819 -0.99072593 -0.94113499
5.0923662 -0.907794 -0.57654941
5.0534706 -0.90086019 -0.28671753
5.3720393 -0.95765013 0
5.3449636 -0.9528234 0.30325589
5.4545541 -0.96895993 -0.92358875
5.095458 -0.90516919 -0.57683742
5.0437803 -0.89598906 -0.28613696
5.3726172 -0.95440441 0
5.3762388 -0.95504779 0.30499756
5.4253845 -0.95701718 -0.91845316
5.1092911 -0.90125954 -0.57827967
5.0525384 -0.89124858 -0.28657252
5.3712058 -0.94746029 0
5.40554 -0.95351666 0.30659425
5.4214845 -0.94957608 -0.91759801
5.1791568 -0.90713221 -0.58606273
5.0536118 -0.88514292 -0.28657252
5.3672152 -0.94007069 0
5.708693 -0.99988073 0.32371986
0 -0 -0
5.2261128 -0.90884948 -0.59125149
5.0649176 -0.88081676 -0.2871531
5.363224 -0.93269384 0
5.9863601 -1.0410606 0.33939382
5.4060535 -0.93341386 -0.91460186
5.237402 -0.90429437 -0.5924046
5.1095052 -0.88221163 -0.28962031
5.3386965 -0.92178392 0
6.0029817 -1.0364801 0.34026492
5.4097052 -0.92731434 -0.91502941
5.2410378 -0.89840192 -0.59269267
5.1848369 -0.88876814 -0.29382923
5.2628584 -0.90214235 0
6.0016613 -1.0287856 0.34011936
5.4082937 -0.92034686 -0.91460186
5.239572 -0.891635 -0.5924046
5.1910253 -0.88337362 -0.29411921
5.1638932 -0.87875646 0
5.9977818 -1.020662 0.33982936
0 -0 -0
5.3942194 -0.91124654 -0.91203487
5.2559528 -0.88788915 -0.59413493
5.1920891 -0.87710065 -0.29411921
5.1162019 -0.864281 0
5.9938912 -1.0125493 0.33953938
5.4130311 -0.90769857 -0.91502941
5.2570214 -0.88153768 -0.59413493
5.2033958 -0.8725453 -0.29469979
5.1044016 -0.85594523 0
6.0027909 -1.0065941 0.33997437
5.414124 -0.90115732 -0.91502941
5.2504263 -0.87391055 -0.59326977
5.2070169 -0.86668521 -0.29484534
5.1028676 -0.84935004 0
6.0168161 -1.0014728 0.34069994
5.4202795 -0.89545238 -0.91588616
5.2259645 -0.86335081 -0.5903874
5.215744 -0.86166233 -0.29528034
5.1090302 -0.84403282 0
6.0359702 -0.99716711 0.34171605
5.4213572 -0.88890237 -0.91588616
5.1938252 -0.85159552 -0.58663988
5.2116575 -0.85451943 -0.29499033
5.1023393 -0.83659524 0
5.0679536 -0.83095723 0.28685638
5.4376249 -0.8848241 -0.91845316
5.1488929 -0.83784091 -0.5814501
5.210124 -0.84780455 -0.29484534
5.108479 -0.83126462 0
5.0766406 -0.82608378 0.28729138
5.4386902 -0.87825316 -0.91845316
5.1039453 -0.82419771 -0.57626134
5.2496157 -0.84772092 -0.29702201
5.0915027 -0.82218844 0
5.0750723 -0.81953526 0.28714639
0 -0 -0
5.4397473 -0.87168092 -0.91845316
5.0666265 -0.8118909 -0.57193673
5.2634621 -0.84343243 -0.29774755
5.1027713 -0.81768286 0
5.029881 -0.80600268 0.28453416
5.4433393 -0.86551166 -0.91888231
5.0548344 -0.80373788 -0.57049555
5.2798796 -0.83952099 -0.29861867
5.0960426 -0.81029016 0
4.9615707 -0.78890866 0.28061581
0 -0 -0
5.4646568 -0.86213267 -0.92230445
5.0609164 -0.79843646 -0.57107264
5.2911572 -0.83476043 -0.29919925
5.1304345 -0.80940402 0
4.918879 -0.77602792 0.27814803
5.4834504 -0.85830832 -0.9253006
5.0644302 -0.79272032 -0.57136065
5.2844577 -0.8271606 -0.29876369
5.1776853 -0.81044781 0
4.9018502 -0.76727211 0.27713245
5.4210691 -0.84183443 -0.91460186
5.0628309 -0.78620386 -0.57107264
5.2982893 -0.82276803 -0.29948923
5.2326636 -0.81257701 0
4.9027739 -0.76134866 0.27713245
5.2871332 -0.81776464 -0.89192164
5.0658588 -0.78353995 -0.57136065
5.3193288 -0.82274437 -0.30065036
5.2331533 -0.80941558 0
4.9057984 -0.75878328 0.27727747
5.2145357 -0.80008566 -0.879511
5.066802 -0.77741832 -0.57136065
5.3100452 -0.81474006 -0.30006981
5.2547069 -0.80624926 0
4.9015799 -0.75206763 0.27698746
5.2078829 -0.79262525 -0.8782267
5.0677376 -0.77129549 -0.57136065
5.3135924 -0.80871391 -0.3002148
5.2916927 -0.80538082 0
4.8819337 -0.74301672 0.27582633
5.208837 -0.78633195 -0.8782267
5.0609908 -0.76401293 -0.57049555
5.3171425 -0.80268186 -0.30036035
5.3055358 -0.80092973 0
4.8905287 -0.73827976 0.27626136
5.2072468 -0.77965772 -0.87779909
5.0542436 -0.75674927 -0.56963146
5.3206758 -0.79664093 -0.30050537
5.332233 -0.79837137 0
4.8991289 -0.73352468 0.27669689
5.210722 -0.7737419 -0.8782267
5.067944 -0.75254083 -0.57107264
5.3550453 -0.79517257 -0.30239204
5.3486342 -0.79422063 0
4.9385681 -0.73332977 0.27887413
0 -0 -0
5.2167373 -0.7681939 -0.87908345
5.1021128 -0.75131482 -0.57482016
7.3173609 -1.0775225 -0.41312745
5.359889 -0.78927386 0
5.0499845 -0.74363863 0.28511471
5.2160306 -0.75521594 -0.87865424
5.2088623 -0.75417811 -0.58663988
5.5918941 -0.80963629 -0.31559876
5.3695102 -0.77743793 0
5.1777649 -0.74967557 0.29222587
5.2118621 -0.74818403 -0.87779909
5.2148857 -0.74861801 -0.5872159
5.5825801 -0.80140209 -0.31501818
5.3549943 -0.76873118 0
5.0500774 -0.72495914 0.28496972
5.222928 -0.74333274 -0.879511
5.2285872 -0.74413818 -0.58865708
5.5321035 -0.78733492 -0.31211597
5.343039 -0.76042706 0
4.9326186 -0.70201558 0.27829358
5.2034874 -0.73415226 -0.87608725
5.2192383 -0.7363745 -0.58750391
5.3966861 -0.76141042 -0.30442369
5.3542519 -0.75542343 0
4.9308829 -0.69569087 0.27814803
5.2170796 -0.7296418 -0.8782267
5.2073188 -0.72827667 -0.58606273
5.3281279 -0.74517256 -0.30050537
5.3551607 -0.74895328 0
4.926578 -0.68901324 0.27785802
5.2764335 -0.73144364 -0.88806868
5.2107544 -0.72233891 -0.5863508
5.3213005 -0.73766327 -0.30006981
5.3921566 -0.7474857 0
4.9274068 -0.68305993 0.27785802
5.3917542 -0.74079096 -0.90732682
5.2398124 -0.71991515 -0.58952224
5.3247595 -0.73158634 -0.3002148
5.4162579 -0.74415761 0
4.933372 -0.67781234 0.27814803
5.4842148 -0.74674386 -0.9227336
5.3073072 -0.72265571 -0.59701729
5.3256397 -0.7251519 -0.3002148
5.4197292 -0.73796332 0
4.9341874 -0.6718508 0.27814803
5.4978309 -0.74183273 -0.92487305
5.272296 -0.71140087 -0.59298176
5.3368125 -0.72010618 -0.30079535
5.503149 -0.74255031 0
4.9298506 -0.66519403 0.27785802
5.4860034 -0.7334885 -0.9227336
5.1936755 -0.69440371 -0.58404446
5.3351054 -0.71331316 -0.30065036
5.8161449 -0.77762902 0
4.9564009 -0.66267967 0.27930912
5.486886 -0.72685921 -0.9227336
5.1816926 -0.68642962 -0.58260322
5.3205128 -0.70481944 -0.2997798
5.8609371 -0.77641058 0
4.9984131 -0.6621502 0.28163138
5.4771438 -0.72220182 -0.92102176
5.1795449 -0.68296117 -0.58231521
5.3260851 -0.70228362 -0.30006981
5.8588276 -0.77252966 0
5.0194216 -0.66184777 0.28279248
5.4958234 -0.71790981 -0.9240163
5.177804 -0.67636752 -0.5820272
5.3501163 -0.69887638 -0.30137593
5.8391123 -0.76275307 0
5.0047631 -0.65376353 0.28192192
5.5017834 -0.71192819 -0.92487305
5.1734824 -0.66944617 -0.5814501
5.3947625 -0.69807976 -0.30384314
5.7987337 -0.75035346 0
4.9488511 -0.64037901 0.27872857
5.5484667 -0.71115357 -0.93257564
5.1537633 -0.66056395 -0.57914376
5.3956022 -0.69156075 -0.30384314
5.7428508 -0.73606801 0
