# .PCD v0.7 - Point Cloud Data file format
VERSION 0.7
FIELDS x y z
SIZE 4 4 4
TYPE F F F
COUNT 1 1 1
WIDTH 1537
HEIGHT 1
VIEWPOINT 0 0 0 1 0 0 0
POINTS 1537
DATA ascii
-0.67305666 5.6573429 -0.9498111
-1.0202917 8.5760088 -0.96263301
-1.0568078 8.8829422 -0.49966627
-1.0705276 8.9982634 0
-2.5010314 21.022289 1.1825055
-0.53429902 4.4452295 -0.99183869
-0.67927986 5.651433 -0.94895595
-1.0303438 8.5721941 -0.96234387
-1.0675403 8.8816595 -0.49966627
-1.0817096 8.9995441 0
-2.5199192 20.965076 1.1794578
-0.54150802 4.4597201 -0.99521708
-0.68827313 5.6684389 -0.95195049
-1.0410135 8.5735178 -0.96263301
-1.0785842 8.8829393 -0.49981126
-1.0928977 9.0008221 0
-2.5449367 20.95944 1.1793127
-0.54565907 4.4489746 -0.99296552
-0.69605964 5.6752496 -0.95323485
-1.0504273 8.5645494 -0.96176785
-1.0890007 8.8790531 -0.49966627
-1.1037725 8.9994946 0
-2.5708923 20.961502 1.1796027
-0.5497849 4.4382253 -0.99071401
-0.70575649 5.6973305 -0.95708615
-1.0604575 8.56071 -0.96147984
-1.0994093 8.8751545 -0.49952129
-1.1152852 9.003315 0
-2.5978153 20.971272 1.1803282
-0.55546236 4.4400764 -0.99127632
-0.71009082 5.676096 -0.9536624
-1.0701579 8.5542841 -0.96090269
-1.1107769 8.8789721 -0.49981126
-1.1255176 8.9968014 0
-1.3542804 10.825412 0.60937947
-0.56369275 4.4620876 -0.99634176
-0.71534038 5.6625018 -0.95152295
-1.0808171 8.5555487 -0.9611907
-1.1224819 8.8853598 -0.50024682
-1.1370394 9.0005932 0
-1.3673598 10.823768 0.60937947
-0.57069111 4.4740033 -0.99915564
-0.72413141 5.6769171 -0.95409161
-1.0891911 8.538847 -0.95946151
-1.130587 8.8633757 -0.49908572
-1.147256 8.9940548 0
-1.379122 10.811797 0.60879886
-0.57609665 4.4733105 -0.99915564
-0.73131788 5.6785817 -0.95451915
-1.1004992 8.5452232 -0.96032667
-1.1439511 8.8826208 -0.50024682
-1.1577893 8.9900732 0
-1.3925166 10.812697 0.60894388
-0.58150136 4.472611 -0.99915564
-0.7371856 5.6700544 -0.95323485
-1.1101561 8.5387526 -0.95974952
-1.1546831 8.8812323 -0.50024682
-1.1673092 8.9783449 0
-1.4065859 10.81874 0.60937947
-0.58624458 4.4668713 -0.99803096
-0.7440362 5.6691594 -0.95323485
-1.1194626 8.5297089 -0.95888442
-1.1654135 8.8798304 -0.50024682
-1.1825603 9.0104799 0
-1.4206719 10.824764 0.609815
-0.59097344 4.4611168 -0.99690408
-0.74953723 5.6580768 -0.95152295
-1.1304482 8.5334826 -0.95946151
-1.1764832 8.8809891 -0.50039184
-1.1927627 9.0038795 0
-1.4344324 10.828186 0.61010498
-0.59804803 4.4729996 -0.99972016
-0.75841516 5.6724386 -0.95409161
-1.1387025 8.5167341 -0.95773232
-1.1872132 8.8795614 -0.50039184
-1.2036413 9.0024319 0
-1.4478592 10.829019 0.61025
-0.60209328 4.4622011 -0.99746859
-0.76492441 5.6689668 -0.9536624
-1.1486456 8.5127811 -0.95744318
-1.1993314 8.8884211 -0.50097239
-1.2169545 9.0190277 0
-1.4609429 10.827261 0.61025
-0.60782701 4.4639854 -0.99803096
-0.77073568 5.6604147 -0.9523797
-1.157885 8.503706 -0.95657915
-1.2114727 8.8972635 -0.50155294
-1.2278513 9.0175505 0
-1.4747262 10.830642 0.61054057
-0.61391145 4.4682775 -0.99915564
-0.77722418 5.656929 -0.95195049
-1.1678061 8.4997311 -0.95629001
-1.2215145 8.8906403 -0.50126237
-1.2401633 9.0263729 0
-1.4895799 10.841721 0.61126614
-0.61965996 4.4700565 -0.99972016
-0.78476459 5.6610761 -0.95280725
-1.1763 8.4855061 -0.95484883
-1.2336833 8.8994532 -0.50184298
-1.2532125 9.0403299 0
-1.5030354 10.842484 0.61141109
-0.62200898 4.4671574 -0.99915564
-0.78818458 5.6606007 -0.95280725
-1.1807137 8.4796753 -0.95427281
-1.2383437 8.8935633 -0.50155294
-1.2604681 9.0524569 0
-1.5113771 10.854441 0.61213666
-0.79538047 5.6621842 -0.95323485
-1.1895196 8.4679966 -0.95311964
-1.2534266 8.9229393 -0.50329465
-1.2714053 9.0509272 0
-1.525215 10.857758 0.61242723
-0.80114067 5.6535912 -0.95195049
-1.1997508 8.4665537 -0.95311964
-1.2638429 8.918848 -0.50314963
-1.2870872 9.08288 0
-1.5401559 10.868768 0.6131528
-0.63855851 4.4673963 -0.99972016
-0.80833566 5.6551676 -0.9523797
-1.2077835 8.4497299 -0.95138931
-1.2760894 8.9276037 -0.50373018
-1.2999034 9.0942068 0
-1.5543909 10.874619 0.61358833
-0.81626612 5.6618018 -0.9536624
-1.2179924 8.4482641 -0.95138931
-1.2883575 8.9363327 -0.50431019
-1.315346 9.1235304 0
-1.5682706 10.877871 0.61387837
-0.82162917 5.65065 -0.95195049
-1.2289447 8.45191 -0.95196646
-1.3013985 8.9502029 -0.50518131
-2.8556535 19.639393 0
-1.5799176 10.865683 0.61329782
-0.65253562 4.4499631 -0.99634176
-0.82882982 5.6522007 -0.9523797
-1.2387813 8.4478626 -0.95167845
-1.3125887 8.9511919 -0.50532627
-2.8748507 19.60503 0
-1.5949302 10.876617 0.61402333
-0.65754068 4.44666 -0.9957794
-0.83678424 5.6588058 -0.9536624
-1.2486086 8.4437933 -0.95138931
-1.3256849 8.9650278 -0.50619739
-2.8962541 19.5861 0
-1.6080712 10.874682 0.61402333
-0.84475732 5.66541 -0.9549467
-1.2580482 8.4371672 -0.95081329
-1.3372821 8.9685545 -0.50648743
-2.9126265 19.533686 0
-1.6219772 10.877876 0.6143139
-0.84969431 5.6516953 -0.95280725
-1.2682419 8.4356413 -0.95081329
-1.3519803 8.9926224 -0.5079385
-2.9339049 19.514706 0
-1.637051 10.888754 0.61503947
-0.67632103 4.4618354 -0.99972016
-0.85767722 5.6582808 -0.95409161
-1.2753328 8.4136448 -0.94850695
-1.3671292 9.0192451 -0.50953519
-2.9535828 19.48542 0
-1.6505958 10.889335 0.61518449
-0.67979157 4.4484491 -0.99690408
-0.86218607 5.6420097 -0.95152295
-1.2874513 8.4248791 -0.94994813
-1.385483 9.0663834 -0.51229244
-2.9720147 19.448395 0
-1.6649301 10.895041 0.61562002
-0.68284565 4.4325614 -0.99352789
-0.87134856 5.6561918 -0.95409161
-1.2976302 8.423317 -0.94994813
-1.42057 9.2213573 -0.52114582
-2.9919462 19.421644 0
-1.6796759 10.903294 0.61620057
-0.69249034 4.4593544 -0.99972016
-0.8754245 5.6373758 -0.9510954
-1.3066161 8.414073 -0.94908297
-1.4568303 9.3813906 -0.53028917
-3.007823 19.36915 0
-1.6932476 10.903822 0.61634558
-0.69748402 4.455997 -0.99915564
-0.88183892 5.63378 -0.95066786
-1.3159827 8.407382 -0.94850695
-1.470575 9.3950214 -0.5311597
-3.0280051 19.344933 0
-1.7072259 10.906907 0.61663616
-0.88784474 5.627634 -0.9498111
-1.3237227 8.3904619 -0.94677776
-1.4811169 9.3881092 -0.53086972
-3.0473225 19.315557 0
-1.7220234 10.915103 0.61721671
-0.70665437 4.4442606 -0.99690408
-0.8958537 5.6341653 -0.9510954
-1.3326411 8.3811903 -0.9459126
-1.4900104 9.3709106 -0.5299986
-1.7503037 11.007936 0
-1.736843 10.923279 0.61779726
-0.71403521 4.4559555 -0.99972016
-0.90144193 5.6254721 -0.9498111
-1.3374474 8.3463755 -0.94216508
-1.5009215 9.36654 -0.52985358
-1.7598978 10.982688 0
-1.7508619 10.926299 0.61808723
-0.71617836 4.4350224 -0.99521708
-0.90946668 5.6319838 -0.9510954
-1.3409342 8.3038988 -0.93755239
-1.509338 9.3467607 -0.5288375
-1.7723364 10.97541 0
-1.7648921 10.929311 0.6183778
-0.72439218 4.4517016 -0.99915564
-0.91709495 5.6359434 -0.95195049
-1.3430752 8.2537746 -0.93207568
-1.5189613 9.334671 -0.52825695
-1.7851791 10.970695 0
-1.7797661 10.937429 0.61895835
-0.92473572 5.6399026 -0.95280725
-1.3526275 8.2495861 -0.93178654
-1.5298193 9.330267 -0.52811193
-1.7988545 10.971095 0
-1.7929806 10.93527 0.61895835
-0.92736483 5.6134486 -0.9485268
-1.3596447 8.2300901 -0.92976934
-1.5406688 9.3258505 -0.52796692
-1.8125334 10.971478 0
-1.8066155 10.935658 0.61910337
-0.93453676 5.6356874 -0.9523797
-1.3654621 8.2343655 -0.93034536
-1.5429021 9.3044109 -0.52680582
-1.8166078 10.954982 0
-1.814496 10.942247 0.61953837
-0.74237555 4.4435911 -0.99803096
-0.93880683 5.6193571 -0.9498111
-1.3749849 8.2301607 -0.93005735
-1.5541435 9.3025398 -0.52680582
-3.1510537 18.861063 0
-1.8315711 10.96312 0.62084502
-0.74900985 4.4502101 -0.99972016
-0.94730031 5.6283445 -0.95152295
-1.3849285 8.2284937 -0.93005735
-1.5653827 9.3006544 -0.52680582
-3.1703856 18.836712 0
-1.8452474 10.963459 0.62099004
-0.95324296 5.622139 -0.95066786
-1.3970314 8.239562 -0.93149853
-1.5748821 9.2885094 -0.52622527
-3.1905327 18.817467 0
-1.8580593 10.958662 0.62084502
-0.95787334 5.6083236 -0.9485268
-1.4069862 8.2378683 -0.93149853
-1.5869801 9.2917271 -0.52651584
-3.2123921 18.808472 0
-1.8717364 10.958968 0.62099004
-0.96769631 5.6248736 -0.95152295
-1.4182551 8.2438116 -0.93236369
-1.5973241 9.2846756 -0.52622527
-3.230262 18.776361 0
-1.8880595 10.974617 0.62200558
-0.97273898 5.6135826 -0.9498111
-1.4273311 8.23699 -0.93178654
-1.6107596 9.2955379 -0.52695084
-3.2467272 18.736549 0
-1.9035383 10.985136 0.62273175
-0.77413464 4.4355912 -0.99746859
-0.98172754 5.6250453 -0.95195049
-1.4372828 8.2352591 -0.93178654
-1.6215439 9.291028 -0.52680582
-3.2662318 18.714664 0
-1.9168104 10.982828 0.62273175
-0.77905244 4.4321432 -0.99690408
-0.9849683 5.6036282 -0.9485268
-1.4463378 8.228426 -0.93121052
-1.6359185 9.3069792 -0.52782196
-3.2865901 18.697889 0
-1.9327778 10.995854 0.62360227
-0.78617889 4.4412065 -0.99915564
-0.99129146 5.5999088 -0.9480992
-1.4549261 8.2190294 -0.93034536
-1.6453512 9.2947607 -0.52724135
-3.3041899 18.665712 0
-1.9451576 10.988399 0.62331229
-1.0007612 5.6138749 -0.95066786
-1.4634939 8.2096243 -0.9294802
-1.6593162 9.3081093 -0.52811193
-3.3212624 18.630972 0
-1.9611689 11.001384 0.62418282
-1.0061824 5.6050792 -0.94938356
-1.4734126 8.2078495 -0.9294802
-1.6733176 9.3214483 -0.52898306
-3.3405526 18.609013 0
-1.9740018 10.996451 0.62403786
-0.80136961 4.4333315 -0.99803096
-1.0156933 5.6190114 -0.95195049
-1.4847099 8.2137022 -0.93034536
-1.6850413 9.3219738 -0.52912807
-3.3593321 18.584475 0
-1.9905216 11.01195 0.62505341
-0.80627126 4.4298625 -0.99746859
-1.0215635 5.6127338 -0.9510954
-1.493708 8.2068176 -0.92976934
-1.6995614 9.3378286 -0.53014416
-3.3799212 18.57016 0
-2.0038259 11.009537 0.62505341
-0.80979127 4.4188881 -0.99521708
-1.0223297 5.5786724 -0.94553226
-1.5017583 8.1948299 -0.92861617
-1.7122469 9.3434286 -0.53057915
-3.4014199 18.560947 0
-2.0194705 11.019894 0.62577951
-0.81605124 4.4228988 -0.99634176
-1.0323287 5.5950971 -0.9485268
-1.5125967 8.1980915 -0.92919219
-1.7258922 9.3541269 -0.53130472
-3.4210105 18.541462 0
-2.0341976 11.025105 0.6262145
-0.82418001 4.4369035 -0.99972016
-1.0423708 5.611515 -0.95152295
-1.521084 8.1886263 -0.92832708
-1.7438383 9.3878059 -0.53333694
-3.4353321 18.49382 0
-2.0494158 11.032857 0.62679505
-0.8276723 4.4259138 -0.99746859
-1.0458469 5.592586 -0.9485268
-1.5281254 8.1715336 -0.92659783
-1.7570909 9.3959093 -0.53391749
-3.4500215 18.448725 0
-2.0637016 11.035486 0.62708563
-1.0535544 5.5963683 -0.94938356
-1.536562 8.1620531 -0.92573267
-1.7727689 9.4167585 -0.5352236
-3.4674966 18.418972 0
-2.0779951 11.038087 0.6273756
-0.83741844 4.4189034 -0.99634176
-1.0627052 5.6076999 -0.95152295
-1.5449797 8.1525736 -0.92486864
-1.7860812 9.4248219 -0.53580421
-3.5013797 18.476137 0
-2.093266 11.04578 0.62795621
-0.84513736 4.4303651 -0.99915564
-1.0656321 5.5862389 -0.9480992
-1.5562819 8.1583157 -0.92573267
-1.8008748 9.4405165 -0.53681976
-3.5324788 18.517902 0
-2.1080723 11.050902 0.62839174
-0.84665692 4.4093781 -0.99465257
-1.0728648 5.5874658 -0.9485268
-1.5656513 8.1538916 -0.92544466
-1.8181604 9.468956 -0.5385614
-3.5465093 18.470175 0
-2.1214237 11.048347 0.62839174
-0.85632485 4.4308119 -0.99972016
-1.0810771 5.593729 -0.9498111
-1.5745219 8.1469202 -0.92486864
-2.3167267 11.987249 -0.681952
-2.5179956 13.028659 0
-2.1382239 11.063637 0.62940788
-0.86435413 4.4292526 -0.99972016
-1.089247 5.5816822 -0.9480992
-1.5882934 8.1389704 -0.92429149
-2.3409371 11.99578 -0.68267751
-2.5371196 13.001088 0
-2.1602616 11.069935 0.62998784
-0.86823583 4.4207225 -0.99803096
-1.0950022 5.5753293 -0.94724411
-1.5971307 8.1319742 -0.92371547
-2.3574331 12.003141 -0.68325812
-2.551322 12.990349 0
-2.1771417 11.085167 0.63100398
-0.87456125 4.4246507 -0.99915564
-1.1027325 5.5790339 -0.9480992
-1.6039453 8.114809 -0.92198515
-2.364882 11.964602 -0.68122643
-2.5629792 12.966832 0
-2.1900311 11.079982 0.63085896
-0.8794117 4.4211011 -0.99859327
-1.109473 5.5776973 -0.9480992
-1.6137493 8.1128654 -0.92198515
-2.5679061 12.909736 -0.73521549
-2.5750909 12.945856 0
-2.2064581 11.092613 0.63172954
-1.1167151 5.5788674 -0.9485268
-1.6199987 8.0931635 -0.91996795
-2.5809536 12.893887 -0.73448998
-2.585114 12.914672 0
-2.2188406 11.084848 0.63143951
-0.89059442 4.4214516 -0.99915564
-1.121936 5.5699716 -0.94724411
-1.6328399 8.1064091 -0.92169714
-2.5939646 12.878016 -0.73376381
-2.5971193 12.893677 0
-2.2337728 11.089804 0.6318751
-0.89341307 4.4079232 -0.99634176
-1.1286654 5.5686121 -0.94724411
-1.6426338 8.1044302 -0.92169714
-2.613137 12.8927 -0.73477995
-2.609596 12.875231 0
-2.2487178 11.094729 0.63231009
-1.1369306 5.5747828 -0.9485268
-1.6513925 8.0973759 -0.92112112
-2.6276758 12.884446 -0.73448998
-2.6287901 12.889911 0
-2.2673154 11.117469 0.63376176
-0.90508515 4.4107342 -0.99746859
-1.1452143 5.5809512 -0.9498111
-1.6616948 8.0979052 -0.92140913
-2.6474187 12.901615 -0.73565054
-2.6443632 12.886725 0
-2.6458292 12.893869 0.73520881
-0.90989876 4.4071417 -0.99690408
-1.1457283 5.5493951 -0.94467551
-1.6704314 8.0908203 -0.92083198
-2.6672091 12.918765 -0.73681164
-2.6625631 12.896262 0
-2.6640334 12.903384 0.73593438
-0.73423386 3.5347254 -0.99603742
-0.91419071 4.4010682 -0.9957794
-1.1571312 5.5706248 -0.9485268
-1.6775767 8.0761366 -0.9193908
-2.6844029 12.923168 -0.73724717
-2.6823781 12.91342 0
-2.6790948 12.897614 0.73578936
-0.9200272 4.4024453 -0.99634176
-1.1622875 5.5616913 -0.94724411
-1.691038 8.0918283 -0.92140913
-2.7021422 12.930089 -0.73782772
-2.7006428 12.922915 0
-2.6994605 12.917256 0.73709548
-0.92848366 4.4162545 -0.99972016
-1.1700622 5.5653024 -0.9480992
-1.7013458 8.092308 -0.92169714
-2.7182977 12.929355 -0.73797274
-2.7173254 12.92473 0
-2.7177391 12.926698 0.73782104
-0.92750978 4.3852983 -0.99296552
-1.1757245 5.5588665 -0.94724411
-1.7095164 8.082653 -0.92083198
-2.73822 12.946399 -0.73913383
-2.7324026 12.918894 0
-2.7344329 12.928493 0.73811162
-0.75130928 3.5311356 -0.99603742
-0.93650788 4.4015641 -0.99690408
-1.1824405 5.5574417 -0.94724411
-1.7192814 8.0805807 -0.92083198
-2.7549436 12.948169 -0.73942441
-2.7523432 12.935946 0
-2.7522154 12.935346 0.73869216
-0.94448608 4.4128599 -0.99972016
-1.1945263 5.5811062 -0.95152295
-1.7306684 8.0860882 -0.92169714
-2.7727623 12.954994 -0.74000496
-2.7723293 12.952971 0
-2.7732806 12.957416 0.7401433
-1.1969467 5.5595822 -0.9480992
-1.7398938 8.0814648 -0.92140913
-2.7900531 12.959248 -0.74043995
-2.7879784 12.949612 0
-2.7894814 12.956593 0.74028826
-0.76675886 3.5406463 -0.99949753
-0.95460814 4.4080739 -0.99915564
-1.2009474 5.5455899 -0.94595981
-1.7463717 8.0641842 -0.91967881
-2.8079095 12.966025 -0.74102056
-2.8085804 12.969123 0
-2.8045855 12.950676 0.7401433
-0.77103645 3.5397172 -0.99949753
-0.95885319 4.4019566 -0.99803096
-1.212564 5.5667067 -0.9498111
-1.7577665 8.0696526 -0.92054397
-2.8279986 12.982934 -0.74218166
-2.8248024 12.96826 0
-2.824656 12.967588 0.7413044
-0.7726289 3.5265322 -0.99603742
-1.2187406 5.5627322 -0.94938356
-1.7675158 8.067522 -0.92054397
-2.8453529 12.987124 -0.74261719
-2.8432541 12.977546 0
-2.8408785 12.966702 0.74144942
-0.77797025 3.5305007 -0.99742305
-0.97112906 4.407073 -0.99972016
-1.2238034 5.5537324 -0.9480992
-1.7783768 8.0704374 -0.92112112
-2.8655167 13.003978 -0.74377835
-2.8634133 12.994433 0
-2.8621347 12.98863 0.74290049
-0.77952194 3.5173137 -0.99396294
-0.97315365 4.3910074 -0.99634176
-1.2327348 5.5622745 -0.9498111
-1.7870066 8.0632277 -0.92054397
-2.8823507 13.005575 -0.74406832
-2.8808024 12.998589 0
-2.8806396 12.997854 0.74362665
-0.97580636 4.3904185 -0.99634176
-1.2377665 5.5690489 -0.9510954
-1.7885118 8.0470018 -0.91881478
-2.8930256 13.016512 -0.74479389
-2.8914776 13.009546 0
-2.893002 13.016404 0.74478775
-0.98388147 4.4016328 -0.99915564
-1.2439352 5.5650463 -0.95066786
-1.7999247 8.0524006 -0.91967881
-2.9110188 13.023149 -0.74537444
-2.9106002 13.021276 0
-2.9092939 13.015432 0.74493277
-0.79124278 3.5198336 -0.99534589
-0.98808575 4.3954873 -0.99803096
-1.2529107 5.5735574 -0.9523797
-1.8113556 8.0577927 -0.92054397
-2.9318812 13.042438 -0.74668056
-2.9291852 13.030443 0
-2.9267285 13.019516 0.7453683
-0.79604787 3.5213196 -0.99603742
-1.2647382 5.5945721 -0.956231
-1.819379 8.048027 -0.91967881
-2.9482129 13.041427 -0.74682611
-2.9460766 13.031977 0
-2.9476142 13.038778 0.74667442
-0.7986353 3.5130231 -0.99396294
-1.2749104 5.6080542 -0.95879799
-1.8313956 8.0559111 -0.92083198
-2.9645443 13.040386 -0.74697113
-2.964705 13.041094 0
-2.9639423 13.037738 0.74681944
-0.8012017 3.5047162 -0.99188578
-1.0051439 4.3968258 -0.99915564
-1.2822573 5.6090097 -0.95922554
-1.8376709 8.0385685 -0.91910279
-2.9785612 13.029193 -0.74653554
-2.9804604 13.037501 0
-2.9814315 13.041749 0.74725497
-1.0110267 4.3980918 -0.99972016
-1.2890338 5.6074562 -0.95922554
-1.8491215 8.0439072 -0.91996795
-2.9873164 12.995195 -0.74479389
-2.9962115 13.033891 0
-2.9931121 13.020408 0.74623889
-1.014623 4.3894377 -0.99803096
-1.2946532 5.6008973 -0.95837045
-1.8565096 8.0315866 -0.91881478
-3.0006754 12.98145 -0.74421334
-3.0096138 13.020119 0
-3.0076709 13.011713 0.74594831
-0.81333327 3.4993477 -0.99119425
-1.0193514 4.385736 -0.99746859
-1.3031639 5.6068325 -0.95965475
-1.8638706 8.0192604 -0.91766161
-3.014008 12.9677 -0.74363333
-3.0206304 12.996193 0
-3.0204501 12.995418 0.74522275
-0.82269859 3.5203464 -0.99742305
-1.3105212 5.6077514 -0.96008229
-1.8776774 8.034626 -0.91967881
-3.0243514 12.941269 -0.74232662
-3.0315938 12.97226 0
-3.0266893 12.951274 0.74290049
-1.0287834 4.3783078 -0.99634176
-1.3143607 5.5936708 -0.9579429
-1.8879777 8.0348759 -0.91996795
-3.0376086 12.927487 -0.74174607
-3.0431006 12.95086 0
-3.0405548 12.940025 0.7424655
-1.0334893 4.3745909 -0.9957794
-1.3217083 5.5945745 -0.95837045
-1.8964944 8.0275497 -0.9193908
-3.0532267 12.923807 -0.74174607
-3.0545578 12.929441 0
-3.0532014 12.9237 0.74173993
-0.83603334 3.5197797 -0.99811459
-1.3249067 5.5779834 -0.95580178
-1.9061928 8.0252523 -0.9193908
-2.0270479 8.5340643 -0.48994234
-3.0665708 12.910554 0
-3.0622089 12.89219 0.7401433
-0.83504182 3.4968078 -0.99188578
-1.0452373 4.3770189 -0.99690408
-1.3346287 5.5888696 -0.9579429
-1.9128851 8.0103674 -0.91794962
-2.0319269 8.5088644 -0.48863623
-3.0767288 12.88406 0
-3.0741644 12.873322 0.73927271
-0.84277928 3.5104284 -0.99603742
-1.3389837 5.5772686 -0.956231
-1.9255811 8.0206223 -0.9193908
-2.045845 8.5215578 -0.48950678
-3.0898643 12.870211 0
-3.0891087 12.867064 0.73912716
-1.0558118 4.3744802 -0.99690408
-1.3475269 5.5831256 -0.95751369
-1.9328437 8.0082331 -0.91823763
-2.0549221 8.5140324 -0.48921677
-3.1005282 12.846229 0
-3.0967288 12.830487 0.73724049
-1.062296 4.3781443 -0.99803096
-1.3566931 5.5914721 -0.95922554
-1.9455675 8.0184565 -0.91967881
-2.0633695 8.5039654 -0.48878124
-3.1111388 12.82224 0
-3.1073282 12.806535 0.73607939
-1.0669839 4.3743916 -0.99746859
-1.3640585 5.5923295 -0.95965475
-1.9540302 8.0110788 -0.91910279
-2.0711803 8.4913683 -0.48820066
-3.1204615 12.793183 0
-3.1197219 12.790151 0.73535383
-0.86272269 3.5184946 -0.99949753
-1.3708147 5.5906773 -0.95965475
-1.9643239 8.0112219 -0.9193908
-2.0789638 8.4787645 -0.48762012
-3.1315808 12.771717 0
-3.1314623 12.771235 0.73448324
-0.86517406 3.510149 -0.99742305
-1.0793744 4.3791943 -0.99915564
-1.3769529 5.5865173 -0.95922554
-1.9746208 8.0113516 -0.91967881
-2.0898285 8.4787674 -0.4877651
-3.1426501 12.750234 0
-3.141917 12.747258 0.73332214
-1.0828336 4.3704948 -0.99746859
-1.384938 5.5898376 -0.96008229
-1.9830567 8.0039434 -0.91910279
-2.0994475 8.4737158 -0.48762012
-3.1561759 12.738846 0
-3.1529422 12.725795 0.732306
-0.87486553 3.512912 -0.99880606
-1.0850418 4.3568482 -0.99465257
-1.3879678 5.5732098 -0.95751369
-1.9971024 8.0191126 -0.92112112
-2.1103122 8.4736919 -0.4877651
-3.1677938 12.719875 0
-3.1639228 12.704332 0.73129046
-0.87577337 3.5075195 -0.99742305
-1.092598 4.3759136 -0.99915564
-1.3919582 5.5748677 -0.9579429
-1.9994406 8.0078669 -0.91996795
-2.1135447 8.46486 -0.48733011
-3.1679125 12.687659 0
-3.1678195 12.687287 0.73041934
-0.87817824 3.4991565 -0.99534589
-1.0892267 4.3400927 -0.99127632
-1.4018172 5.5856285 -0.96008229
-2.0116334 8.01548 -0.92112112
-2.1307271 8.490016 -0.48892623
-3.1788056 12.666151 0
-3.1774554 12.66077 0.72911322
-0.88363177 3.5029533 -0.9967289
-1.103793 4.3757315 -0.99972016
-1.4123313 5.5988607 -0.96264929
-2.0194185 8.005517 -0.92025596
-2.1473408 8.5126352 -0.4903779
-3.1890178 12.642122 0
-3.189574 12.644327 0.72838765
-0.889714 3.5091808 -0.99880606
-1.1053314 4.359612 -0.99634176
-1.4159416 5.5847106 -0.96050984
-2.0278177 7.9980521 -0.91967881
-2.1761439 8.5830755 -0.4945868
-3.1851044 12.562584 0
-3.1984625 12.615272 0.72693598
-1.1080886 4.3484244 -0.9940902
-1.4264933 5.5979261 -0.9630785
-2.0362041 7.9905882 -0.91910279
-2.1935697 8.6081305 -0.49618292
-3.1038883 12.180455 0
-3.2117801 12.60385 0.72650099
-0.89134669 3.480294 -0.99119425
-1.1152339 4.3544688 -0.9957794
-1.4326174 5.5937042 -0.96264929
-2.0452166 7.9856186 -0.91881478
-2.196233 8.5752668 -0.49444124
-3.0895481 12.063248 0
-3.2212055 12.577308 0.72519487
-0.89992714 3.4962144 -0.99603742
-1.116693 4.3383493 -0.992401
-1.4380968 5.5870018 -0.9617942
-2.0509944 7.9681077 -0.91708446
-2.2027078 8.5575132 -0.49357069
-3.098284 12.036825 0
-3.2299218 12.548238 0.7237432
-0.90163773 3.4854093 -0.99326879
-1.1206628 4.3320818 -0.99127632
-1.4403455 5.5678611 -0.95879799
-2.0612681 7.9681253 -0.91737252
-2.2091429 8.5397568 -0.49270013
-3.1121747 12.030555 0
-3.2405281 12.526724 0.72272766
-0.90395659 3.4770401 -0.99119425
-1.1297312 4.3454747 -0.99465257
-1.4477174 5.5685987 -0.95922554
-2.0748005 7.9806533 -0.91910279
-2.2168446 8.5270214 -0.49211958
-3.1299825 12.039377 0
-3.2504313 12.50268 0.72156656
-0.75196648 2.8781295 -0.98086441
-0.90688771 3.471086 -0.98980862
-1.1324118 4.3342729 -0.992401
-1.4550956 5.5693359 -0.95965475
-2.0792115 7.9581208 -0.91679645
-2.2284586 8.5293598 -0.49240959
-3.1484759 12.050699 0
-3.2642212 12.493711 0.72127599
-0.90853274 3.4602816 -0.98703998
-1.1421657 4.3501072 -0.99634176
-1.460519 5.562603 -0.95879799
-2.0907969 7.96311 -0.91766161
-2.2407434 8.5342035 -0.49284515
-3.1617115 12.041847 0
-3.2746978 12.472172 0.72026044
-0.91655463 3.4737403 -0.99119425
-1.1422352 4.3290691 -0.99183869
-1.4678936 5.563314 -0.95922554
-2.1023951 7.9680734 -0.91852564
-2.2523782 8.5365095 -0.49313512
-3.178252 12.045569 0
-3.2831349 12.443076 0.71880877
-0.7750634 2.9231658 -0.99716371
-0.91560751 3.4532306 -0.98565698
-1.1435592 4.3129544 -0.98846245
-1.4746146 5.5615363 -0.95922554
-2.1100345 7.958034 -0.91766161
-2.2626913 8.533782 -0.49313512
-3.191469 12.036684 0
-3.2948384 12.426544 0.7180832
-0.77795672 2.919832 -0.99634641
-0.91913164 3.4496906 -0.98496282
-1.146153 4.3017488 -0.98621088
-1.4767091 5.5423942 -0.956231
-2.1149867 7.9379811 -0.91564327
-2.2750087 8.5385771 -0.49357069
-0 0 0
-3.3038309 12.399959 0.71677709
-0.92654526 3.4607015 -0.98842561
-1.1552916 4.3150826 -0.98958713
-1.4887162 5.5604434 -0.95965475
-2.1239083 7.9329238 -0.91535527
-2.290029 8.5533943 -0.4945868
-3.2245874 12.044025 0
-3.3154519 12.38341 0.71605152
-0.92681438 3.445039 -0.98427135
-1.1684259 4.3431273 -0.99634176
-1.494765 5.5561547 -0.95922554
-2.1348348 7.9353423 -0.91593128
-2.2983367 8.5430908 -0.49415126
-3.2391379 12.04012 0
-3.3270378 12.366851 0.71532595
-0.78144276 2.8907542 -0.98738414
-0.92181206 3.4100156 -0.97458237
-1.1663785 4.3147287 -0.9901495
-1.4994696 5.546917 -0.9579429
-2.1457727 7.9377556 -0.91650844
-2.3296764 8.6180611 -0.49865016
-3.2536836 12.036198 0
-3.3379085 12.347767 0.71445483
-0.78946829 2.9064972 -0.99308652
-0.9325065 3.433105 -0.98150265
-1.1682616 4.3010583 -0.98733562
-1.5014601 5.5277576 -0.9549467
-2.1540053 7.93016 -0.91593128
-2.3850403 8.780736 -0.50822908
-3.2668591 12.027229 0
-3.3466964 12.321158 0.71314871
-0.92939013 3.40536 -0.9738909
-1.1781414 4.3168044 -0.99127632
-1.5121922 5.5407934 -0.95751369
-2.1608617 7.9175706 -0.91477811
-2.398385 8.7878752 -0.50880963
-3.2889271 12.050893 0
-3.3561087 12.297051 0.71198761
-0.79999888 2.9036164 -0.99308652
-0.94028234 3.4127786 -0.97665954
-1.1831706 4.2943478 -0.98677325
-1.5248965 5.5346508 -0.95708615
-2.1772408 7.9023514 -0.91362494
-2.3899381 8.6743412 -0.50256908
-3.3201144 12.05044 0
-3.3796048 12.266361 0.7106815
-0.79955173 2.88836 -0.98819834
-0.94708252 3.4213114 -0.97942817
-1.1937816 4.3125057 -0.99127632
-1.5295277 5.5253797 -0.95580178
-2.1860983 7.8972244 -0.91333693
-2.3934839 8.6463995 -0.50111741
-3.3339763 12.043903 0
-3.3930387 12.257265 0.71039152
-0.80988669 2.9188354 -0.99879205
-0.94914937 3.4207385 -0.97942817
-1.1929907 4.2995439 -0.98846245
-1.5328655 5.5244546 -0.95580178
-2.187412 7.8834429 -0.91189575
-2.4007921 8.6524658 -0.50155294
-3.3419497 12.044402 0
-3.4018314 12.260216 0.7106815
-0.94991159 3.4074991 -0.97596538
-1.1988666 4.3005443 -0.98902482
-1.536785 5.5127168 -0.95409161
-2.198324 7.8857727 -0.91247183
-2.4238038 8.6946077 -0.50416517
-3.3551016 12.035336 0
-3.4201312 12.268609 0.71140707
-0.809605 2.890687 -0.98982668
-0.95335227 3.4039354 -0.97527391
-1.2040621 4.2990928 -0.98902482
-1.5427506 5.5083766 -0.9536624
-2.2092471 7.8880963 -0.91304892
-2.4595361 8.7817507 -0.50939018
-3.3759577 12.053826 0
-3.4377561 12.274476 0.71198761
-0.9513495 3.3810484 -0.9690451
-1.2120088 4.3074183 -0.99127632
-1.5535785 5.5213399 -0.956231
-2.214572 7.8704777 -0.91131866
-2.4778852 8.8062801 -0.51098633
-3.3884072 12.04223 0
-3.4546971 12.27782 0.71242315
-0.95816392 3.3895531 -0.97181374
-1.2179031 4.3083935 -0.99183869
-1.5588509 5.5145135 -0.95537424
-2.2268946 7.8777518 -0.91247183
-2.4906454 8.8107834 -0.51142186
-3.4064946 12.050646 0
-3.4751844 12.29364 0.7135843
-0.82683146 2.9115138 -0.99797791
-0.95609128 3.3666751 -0.96558493
-1.2203315 4.2971416 -0.98958713
-1.5613066 5.4978142 -0.95280725
-2.2342939 7.8675985 -0.91160774
-2.5076776 8.8302612 -0.51272798
-3.4196296 12.04151 0
-3.4914548 12.294427 0.71387428
-0.95465237 3.3462174 -0.96004766
-1.2199461 4.2761168 -0.98508406
-1.5700619 5.5033317 -0.95409161
-2.2437987 7.864893 -0.91160774
-2.5190578 8.8297215 -0.51287299
-3.4334636 12.034868 0
-3.5120106 12.310189 0.71503538
-0.96215016 3.3571174 -0.96350783
-1.2293137 4.2893 -0.98846245
-1.5724657 5.4866195 -0.95152295
-2.2533004 7.8621759 -0.91160774
-2.5304427 8.8291759 -0.51301855
-3.4501545 12.038218 0
-3.5283158 12.310937 0.71532595
-0.83532786 2.9013698 -0.99553221
-0.95995969 3.3342571 -0.95727903
-1.232386 4.2804837 -0.98677325
-1.5798036 5.4871798 -0.95195049
-2.2620809 7.8569551 -0.91131866
-2.53967 8.8211136 -0.51272798
-3.4762185 12.074056 0
-3.5460641 12.316652 0.7159065
-0.83677232 2.8932333 -0.99308652
-0.96747214 3.3451424 -0.96073914
-1.2368519 4.2765532 -0.98621088
-1.5864326 5.4852672 -0.95195049
-2.2708549 7.8517337 -0.91103059
-2.551048 8.8205318 -0.51287299
-3.4915273 12.072344 0
-3.5667164 12.332318 0.71706706
-0.97501236 3.3560145 -0.9641993
-1.2469785 4.2921286 -0.9901495
-1.5930593 5.483346 -0.95195049
-2.2803407 7.8489838 -0.91103059
-2.5559072 8.7974901 -0.51171243
-3.5242631 12.130593 0
-3.5859661 12.342977 0.71793818
-0.84791756 2.905443 -0.99797791
-0.98047376 3.3596551 -0.96558493
-1.2514527 4.2881818 -0.98958713
-1.6032816 5.4937458 -0.95409161
-2.2869246 7.8362913 -0.90987742
-2.5432408 8.7145748 -0.50706798
-3.5855772 12.286206 0
-3.6016049 12.341126 0.7180832
-0.84655988 2.8878114 -0.99227238
-0.97676867 3.3319836 -0.9579705
-1.2509149 4.2671599 -0.98508406
-1.6113615 5.4967265 -0.9549467
-2.2934811 7.8235941 -0.90872425
-2.5362253 8.6516514 -0.50358462
-3.6179907 12.341803 0
-3.6201682 12.349231 0.71880877
-0.98079401 3.330801 -0.9579705
-1.2596608 4.2778397 -0.98790008
-1.614377 5.4824653 -0.95280725
-2.3065877 7.83323 -0.91016656
-2.551816 8.6660309 -0.50460076
-3.6402507 12.362383 0
-3.6387565 12.357308 0.71953434
-0.85003167 2.873909 -0.98819834
-0.98481786 3.3296134 -0.9579705
-1.2605034 4.2616906 -0.98452169
-1.6188154 5.4731231 -0.95152295
-2.310915 7.8130732 -0.90814823
-2.5519688 8.6280622 -0.50256908
-3.6566603 12.362962 0
-3.6558969 12.36038 0.71996987
-0.85491002 2.8776138 -0.98982668
-0.98955417 3.3308237 -0.95866203
-1.2685463 4.269907 -0.98677325
-1.6283517 5.4810061 -0.95323485
-2.319618 7.8077979 -0.90786022
-3.5287907 11.877854 -0.69211143
-3.6767848 12.375999 0
-3.6745286 12.368405 0.72069544
-0.99644756 3.3392415 -0.96143067
-1.2686181 4.2513251 -0.98283249
-1.6349733 5.4790349 -0.95323485
-2.3283088 7.8025041 -0.90757114
-2.5482931 8.5397034 -0.49777961
-3.6939692 12.379032 0
-3.6924429 12.373917 0.72127599
-0.86966795 2.9015846 -0.99879205
-1.0004816 3.3380351 -0.96143067
-1.2795901 4.2692604 -0.98733562
-1.6415924 5.4770551 -0.95323485
-2.3377349 7.799685 -0.90757114
-2.55861 8.5366182 -0.49777961
-3.7119129 12.384531 0
-3.7133598 12.389359 0.72243708
-0.99873161 3.3176148 -0.95589602
-1.2774248 4.2433858 -0.98170781
-1.6474699 5.4726119 -0.95280725
-2.344923 7.7894316 -0.90670705
-2.5674233 8.5285397 -0.49748904
-3.7298753 12.390005 0
-3.7343194 12.404767 0.72359824
-1.0056411 3.3260021 -0.95866203
-1.2832859 4.2442689 -0.98227018
-1.6548235 5.4730721 -0.95323485
-2.355829 7.7915392 -0.90728307
-2.5807347 8.5353794 -0.49806958
-3.7486088 12.397943 0
-3.7500567 12.402731 0.7237432
-1.0082027 3.319988 -0.95727903
-1.2913665 4.25244 -0.98452169
-1.6629287 5.475986 -0.95409161
-2.3592293 7.768888 -0.90497673
-2.598598 8.5571232 -0.49952129
-3.7696364 12.413325 0
-3.7688148 12.41062 0.72446877
-0.87863374 2.8807967 -0.99308652
-1.0070896 3.3019676 -0.95243323
-1.2890927 4.2265778 -0.97889394
-1.6672968 5.4666038 -0.95280725
-2.3716331 7.7759275 -0.9061299
-2.6180294 8.5837927 -0.50126237
-3.7869081 12.416223 0
-3.78684 12.415998 0.72504932
-0.86763883 2.8324776 -0.97679037
-1.0191619 3.327137 -0.96004766
-1.2956856 4.2298713 -0.98001862
-1.6723957 5.4596715 -0.95195049
-2.3779969 7.763164 -0.90497673
-2.6299229 8.585597 -0.50155294
-3.8041954 12.419105 0
-3.8048837 12.421352 0.72562987
-1.0121155 3.2899327 -0.94966459
-1.3007957 4.2283025 -0.98001862
-1.6789914 5.4576468 -0.95195049
-2.3873754 7.7602849 -0.90497673
-2.6441145 8.5948286 -0.50227851
-3.8245561 12.431913 0
-3.8244755 12.431652 0.72650099
-0.8844192 2.8686817 -0.98982668
-1.0178007 3.3013148 -0.95312738
-1.3011063 4.2202387 -0.97833163
-1.6785076 5.4443684 -0.9498111
-2.3951113 7.7687278 -0.9061299
-2.6523688 8.6031618 -0.50285906
-3.8343642 12.437055 0
-3.8365772 12.444233 0.72737157
-0.88203937 2.8487318 -0.9833101
-1.0240129 3.3072653 -0.95520186
-1.3084571 4.2259378 -0.98001862
-1.6896418 5.4570541 -0.9523797
-2.4014366 7.7559452 -0.90497673
-2.6681426 8.6173286 -0.5038752
-3.8540092 12.447333 0
-3.8523786 12.442068 0.72751659
-0.89575386 2.8807013 -0.99471802
-1.0272641 3.303632 -0.95451039
-1.3045089 4.1952381 -0.97326404
-1.6924211 5.4427452 -0.95023865
-2.4108064 7.7530379 -0.90497673
-2.6816392 8.6240234 -0.50445575
-3.8729093 12.455091 0
-3.8728113 12.454775 0.72853267
-0.88228834 2.825352 -0.97597307
-1.0320022 3.304781 -0.95520186
-1.3141229 4.2082157 -0.97664243
-1.6959356 5.4308944 -0.9485268
-2.4163187 7.7377772 -0.90353554
-2.6858613 8.600934 -0.50329465
-3.8910592 12.460339 0
-3.8925033 12.464964 0.72940326
-0.89383769 2.8502281 -0.98493844
-1.046506 3.3370495 -0.96489346
-1.3184471 4.2042027 -0.97608006
-1.7040343 5.4337449 -0.94938356
-2.4272158 7.7397923 -0.9041127
-2.6884751 8.5728836 -0.50184298
-3.9092271 12.465561 0
-3.9106722 12.470169 0.72998381
-0.89059979 2.8279309 -0.97760457
-1.033204 3.2807434 -0.94897306
-1.3250512 4.207449 -0.97720474
-1.7121394 5.4365745 -0.95023865
-2.44045 7.749187 -0.90555388
-2.7035165 8.5845041 -0.50271404
-3.9266326 12.468278 0
-3.9280794 12.472872 0.73041934
-0.89848644 2.8409877 -0.98249274
-1.0560788 3.3392901 -0.96627647
-1.3331988 4.2155356 -0.97945631
-1.7218034 5.4442921 -0.95195049
-2.4474711 7.7388315 -0.90468872
-2.7060504 8.5564518 -0.50126237
-3.9487572 12.485854 0
-3.9478502 12.482986 0.73129046
-0.91538632 2.8823063 -0.99716371
-1.0449253 3.29019 -0.95243323
-1.3367548 4.2090826 -0.97833163
-1.7213881 5.4201899 -0.9480992
-2.4544706 7.7284708 -0.90382355
-2.7376242 8.6200447 -0.50518131
-3.9685659 12.495952 0
-3.9652879 12.48563 0.73172545
-0.91661471 2.8741317 -0.99471802
-1.0450895 3.2769766 -0.94897306
-1.3472416 4.2244029 -0.98227018
-1.7318352 5.4303322 -0.95023865
-2.4590936 7.7107191 -0.90209436
-2.7488265 8.6192045 -0.50532627
-3.984452 12.493625 0
-3.9835296 12.490732 0.732306
-0.90877885 2.837712 -0.98249274
-1.0536407 3.2900515 -0.95312738
-1.3469225 4.2058401 -0.97833163
-1.7344816 5.4160142 -0.9480992
-2.4739313 7.724987 -0.9041127
-2.7592392 8.6158762 -0.50532627
-4.0027204 12.498714 0
-4.0041676 12.503234 0.73332214
-0.91826028 2.8554354 -0.98901248
-1.0606875 3.2983291 -0.95589602
-1.3605579 4.2308106 -0.98452169
-1.7394542 5.4090314 -0.94724411
-2.4832637 7.7219925 -0.9041127
-2.7799885 8.6446915 -0.507213
-3.7270269 11.589616 0
-3.7464316 11.649958 0.68354195
-0.92930639 2.8778484 -0.99716371
-1.0646721 3.2970452 -0.95589602
-1.3516161 4.1856446 -0.97439086
-1.7522994 5.4264688 -0.95066786
-2.4846427 7.6943679 -0.9012292
-2.7864401 8.6289654 -0.50648743
-3.7434278 11.592536 0
-3.7716827 11.680036 0.68557364
-0.91524827 2.8226459 -0.97841871
-1.0702014 3.3005245 -0.95727903
-1.3613735 4.1985059 -0.97776711
-1.7525206 5.4048123 -0.94724411
-2.4979262 7.7036595 -0.90267044
-2.8048778 8.6503048 -0.5079385
-3.7566304 11.585531 0
-3.7809858 11.660644 0.68470305
-0.93778723 2.88029 -0.99879205
-1.0633163 3.2658365 -0.94759005
-1.3625132 4.1847801 -0.97495323
-1.7662019 5.4246569 -0.9510954
-2.5080359 7.7031026 -0.90295953
-2.8225703 8.6691532 -0.50924522
-3.7665956 11.568604 0
-3.7974837 11.663472 0.68513805
-0.94049948 2.8768079 -0.99797791
-1.0672617 3.2645493 -0.94759005
-1.3699381 4.1903782 -0.97664243
-1.7703614 5.4151964 -0.9498111
-2.5181446 7.7025223 -0.90324754
-2.8298135 8.6558571 -0.50866467
-3.7603545 11.502205 0
-3.7986581 11.619368 0.68281639
-0.93472451 2.8474896 -0.98819834
-1.0735506 3.2704012 -0.94966459
-1.3797537 4.2032003 -0.98001862
-1.7785062 5.4179363 -0.95066786
-2.5250289 7.6920991 -0.90238237
-2.8435121 8.6623068 -0.50924522
-4.1265063 12.570745 0
-4.1271219 12.57262 0.73912716
-0.93042892 2.8228886 -0.98005021
-1.0900669 3.3072248 -0.96073914
-1.3760843 4.1749916 -0.97382855
-1.7834426 5.4109025 -0.9498111
-2.5375602 7.6988688 -0.90353554
-2.8539767 8.658865 -0.50924522
-4.1392479 12.558332 0
-4.1423101 12.567624 0.73912716
-0.92219031 2.7865634 -0.96782494
-1.0751481 3.2487528 -0.94412994
-1.3843212 4.1829748 -0.97608006
-1.791594 5.4136224 -0.95066786
-2.5427985 7.6835217 -0.90209436
-2.8472936 8.6036081 -0.50619739
-4.1585097 12.565682 0
-4.1615772 12.574951 0.73985326
-0.94504023 2.8440826 -0.98819834
-1.0853984 3.2664883 -0.94966459
-1.3845657 4.1668267 -0.97270167
-1.7940843 5.3992662 -0.9485268
-2.5553432 7.6902618 -0.90324754
-2.8068879 8.4472818 -0.49719903
-4.1769724 12.570527 0
-4.179224 12.577305 0.74028826
-0.93517929 2.8030832 -0.97434467
-1.098079 3.2913547 -0.95727903
-1.3984457 4.1916666 -0.97889394
-1.8038566 5.4068351 -0.95023865
-2.5621769 7.6798053 -0.90238237
-2.7825558 8.3403635 -0.49110347
-4.1954498 12.575336 0
-4.1960645 12.57718 0.74057883
-0.9581908 2.8605394 -0.99471802
-1.0924931 3.2614791 -0.94897306
-1.3986657 4.1755133 -0.97551554
-1.8063123 5.3924828 -0.9480992
-2.5747406 7.6865144 -0.90353554
-2.773648 8.280323 -0.4877651
-4.214777 12.582603 0
-4.2186856 12.594274 0.74188495
-0.93958616 2.7937849 -0.97189903
-1.1052308 3.2863159 -0.95658749
-1.4004701 4.1641865 -0.97326404
-1.8136443 5.3927274 -0.9485268
-2.5832028 7.6809483 -0.90324754
-2.7679157 8.2301779 -0.48500788
-4.237443 12.5997 0
-4.2363863 12.596558 0.74232054
-0.9603551 2.8441608 -0.98982668
-1.1035819 3.2683372 -0.9517417
-1.4046886 4.1600862 -0.97270167
-1.8201591 5.390532 -0.9485268
-2.5899987 7.6704674 -0.90238237
-2.7637274 8.1849775 -0.48254064
-4.2476673 12.579772 0
-4.2590842 12.613585 0.74362665
-0.94068843 2.7803733 -0.96782494
-1.0999273 3.2510326 -0.9468959
-1.4120892 4.1736827 -0.97608006
-1.8250624 5.394299 -0.94938356
-2.5946324 7.668901 -0.90238237
-2.7561796 8.1463833 -0.48036343
-4.2636089 12.60186 0
-4.2683678 12.615927 0.74391663
-0.96630567 2.8447623 -0.99064398
-1.1111192 3.2710872 -0.95312738
-1.4122263 4.1575336 -0.97270167
-1.8315791 5.3920903 -0.94938356
-2.5997381 7.6535177 -0.90094119
-0 0 -0
-4.2721362 12.576985 0
-4.2902946 12.630444 0.74507773
-0.97133631 2.8482668 -0.99227238
-1.1166888 3.2744865 -0.95451039
-1.4188907 4.1606388 -0.97382855
-1.8339509 5.377727 -0.94724411
-2.608984 7.6503706 -0.90094119
-0 0 -0
-4.29741 12.601373 0
-4.308908 12.635088 0.74565828
-0.96677274 2.8237121 -0.98412424
-1.1149553 3.2565181 -0.94966459
-1.4288536 4.1733398 -0.97720474
-1.8387828 5.370645 -0.94638735
-2.6199002 7.652102 -0.90151727
-0 0 -0
-2.9622247 8.6519508 0
-4.3292203 12.644617 0.74652886
-0.95813185 2.7874789 -0.97189903
-1.1245987 3.2717786 -0.95451039
-1.4239839 4.1427755 -0.97045016
-1.8494424 5.3805552 -0.9485268
-2.6232615 7.6318159 -0.89950001
-2.76596 8.0469675 -0.47528395
-2.9955156 8.7148094 0
-4.3461866 12.644297 0.74681944
-0.98649365 2.8587501 -0.99716371
-1.1342806 3.2870202 -0.95935619
-1.431476 4.1482596 -0.97213936
-1.852596 5.3686194 -0.94681656
-2.6409166 7.6530857 -0.90238237
-2.764663 8.0116892 -0.47339728
-2.9992521 8.6915026 0
-4.3690891 12.66114 0.74812555
-0.96810156 2.794497 -0.97515887
-1.1242913 3.2453504 -0.94759005
-1.4389833 4.1537323 -0.97382855
-1.8616 5.3736472 -0.9480992
-2.6433885 7.6303372 -0.90007603
-2.7768941 8.0157108 -0.47383285
-3.0225313 8.724761 0
-4.3877869 12.665673 0.7487061
-0.9901517 2.8470199 -0.99390388
-1.1455171 3.2937479 -0.96212482
-1.4481736 4.1639876 -0.97664243
-1.8638763 5.359273 -0.94595981
-2.6492078 7.6173658 -0.89892286
-2.7831633 8.002533 -0.4732523
-3.0296516 8.7112703 0
-4.4047933 12.665266 0.74899608
-0.96426153 2.7618165 -0.9645651
-1.1271673 3.2284079 -0.94343579
-1.4465036 4.1430435 -0.97213936
-1.8745806 5.3691325 -0.9480992
-2.6618204 7.6239271 -0.90007603
-2.7859786 7.9795384 -0.47209117
-3.0401754 8.7076035 0
-4.4243784 12.672207 0.74972218
-0.97986162 2.795639 -0.97679037
-1.138535 3.2483494 -0.94966459
-1.4540308 4.1484885 -0.97382855
-1.8810668 5.3668637 -0.9480992
-2.6650443 7.6036258 -0.89805883
-2.790463 7.9614577 -0.47122061
-3.042948 8.6818218 0
-4.4457011 12.684011 0.75073779
-0.96765155 2.7501523 -0.96130526
-1.1524514 3.2753699 -0.9579705
-1.4581965 4.1443253 -0.97326404
-1.8858478 5.3597484 -0.94724411
-2.667362 7.5808811 -0.89575249
-2.799216 7.9556222 -0.47107506
-3.0586171 8.6928635 0
-4.467062 12.695789 0.75175387
-0.98990738 2.8025849 -0.98005021
-1.1689421 3.3094604 -0.96835363
-1.4674367 4.1545463 -0.97608006
-1.8914685 5.3550477 -0.94681656
-2.446533 6.9265227 -0.81878257
-2.8045006 7.9399858 -0.47034949
-3.0569856 8.6548109 0
-4.4849963 12.697736 0.75218946
-0.96107912 2.7105336 -0.94826579
-1.1444361 3.2276561 -0.94482142
-1.4733039 4.1551623 -0.97664243
-1.8945062 5.34308 -0.94510466
-2.458358 6.9333129 -0.81993574
-2.8158307 7.941494 -0.47064006
-3.0726578 8.6658239 0
-4.5046763 12.70455 0.75291502
-1.0057915 2.8257914 -0.98901248
-1.1474949 3.2239096 -0.94412994
-1.4698017 4.129437 -0.97101247
-1.9026808 5.3456192 -0.94595981
-2.4667337 6.930337 -0.81993574
-2.8184538 7.9185019 -0.46947894
-3.0805109 8.6547565 0
-4.5235095 12.70889 0.75349557
-1.0009372 2.790786 -0.97760457
-1.1806897 3.2919669 -0.96489346
-1.4823508 4.1330504 -0.97270167
-1.9121269 5.3313403 -0.9442479
-2.472996 6.8951402 -0.81647623
-2.8402107 7.9189982 -0.46991393
-3.1005359 8.6448298 0
-4.5647354 12.727272 0.75523722
-1.0093304 2.8035231 -0.98249274
-1.1668212 3.2409706 -0.95035875
-1.4933695 4.1479931 -0.97664243
-1.9211769 5.3362741 -0.94553226
-2.4778211 6.8824129 -0.81532305
-2.8515394 7.920455 -0.4702045
-3.117151 8.6582203 0
-4.5853901 12.736411 0.75610781
-1.0101994 2.7953346 -0.98005021
-1.1698813 3.2371922 -0.94966459
-1.4949261 4.1366272 -0.97439086
-1.9223868 5.319459 -0.9429636
-2.4843755 6.8745441 -0.81474596
-2.8584573 7.9096699 -0.46976894
-3.1338031 8.6715822 0
-4.6078415 12.750411 0.75726891
-1.0236872 2.8219845 -0.98982668
-1.1686605 3.2216303 -0.94551295
-1.4981886 4.1300359 -0.97326404
-1.93144 5.3243742 -0.9442479
-2.4873898 6.8569531 -0.81301671
-2.8609235 7.8866687 -0.46860781
-3.126529 8.6188593 0
-4.6259036 12.752165 0.75770444
-1.0127211 2.7812662 -0.97597307
-1.1725523 3.220216 -0.94551295
-1.5110047 4.1497178 -0.97833163
-1.9369946 5.3196263 -0.94382036
-2.4912493 6.8417931 -0.81157553
-2.8713427 7.8856549 -0.46875337
-3.1396132 8.6224146 0
-4.6457529 12.758772 0.75843
-1.0262624 2.8078976 -0.98575264
-1.2022773 3.2894819 -0.96627647
-1.5142715 4.1431112 -0.97720474
-1.9390156 5.3052292 -0.94168097
-2.5012887 6.8436317 -0.81215155
-2.8915694 7.9114571 -0.47049448
-3.1455598 8.6063852 0
-4.6656256 12.765349 0.75915557
-1.0109284 2.7556114 -0.96782494
-1.1699623 3.1891098 -0.93720698
-1.5166503 4.13412 -0.97551554
-1.9445379 5.3004656 -0.94125175
-2.5042126 6.8260398 -0.81042236
-2.8966529 7.895762 -0.46976894
-3.1523714 8.5928049 0
-4.6882062 12.779219 0.76031667
-1.0151105 2.756705 -0.96863914
-1.2093571 3.2842147 -0.96558493
-1.5163782 4.1179824 -0.97213936
-1.9518306 5.3005276 -0.94168097
-2.5097766 6.8157253 -0.8095572
-2.9088857 7.8995738 -0.4702045
-3.1771405 8.6280651 0
-4.7045407 12.77598 0.76046169
-1.044145 2.8250217 -0.99308652
-1.2115834 3.2780402 -0.9641993
-1.5345635 4.1518903 -0.98058099
-1.9582338 5.2981653 -0.94168097
-2.5117326 6.7957029 -0.80753893
-2.9292388 7.9253011 -0.47194618
-3.1839545 8.6144552 0
-4.723578 12.780036 0.76104224
-1.0183307 2.7449746 -0.9653793
-1.1937294 3.217773 -0.9468959
-1.5219072 4.102397 -0.96932542
-1.9628468 5.2909775 -0.94082421
-2.519942 6.7926631 -0.80753893
-2.9523671 7.958292 -0.47412285
-3.191648 8.6032887 0
-4.7462468 12.793808 0.76220334
-1.0087959 2.7142432 -0.95478553
-1.1965498 3.2194097 -0.94759005
-1.5305793 4.1181421 -0.97326404
-1.9687268 5.2970114 -0.94210851
-2.5222449 6.7862949 -0.80696285
-2.9680376 7.9857345 -0.4758645
-3.1941242 8.594038 0
-4.7612176 12.810424 0.76336449
-1.0509479 2.8172276 -0.99145818
-1.1969315 3.2085593 -0.94482142
-1.5426589 4.135335 -0.97776711
-1.9787147 5.3042493 -0.94382036
-2.5259237 6.7711282 -0.80552167
-2.974052 7.9724045 -0.47528395
-3.2136006 8.6145515 0
-4.7794185 12.811968 0.76380002
-1.0474179 2.7974384 -0.98493844
-1.19113 3.1812642 -0.93720698
-1.5405269 4.1144314 -0.97326404
-1.982421 5.2946401 -0.94253606
-2.5313818 6.7608018 -0.80465651
-2.9791279 7.9566398 -0.47455841
-3.2212722 8.6033573 0
-4.8030953 12.828082 0.76510614
-1.0438416 2.7776616 -0.97841871
-1.2355679 3.2878451 -0.9690451
-1.5508618 4.1268425 -0.97664243
-1.9888172 5.2922411 -0.94253606
-2.533179 6.7407875 -0.80263823
-2.9750278 7.9165463 -0.47238117
-3.2316654 8.5994587 0
-4.8149357 12.81254 0.76452559
-1.2032404 3.1901109 -0.94066715
-1.5513645 4.1130805 -0.97382855
-1.9970239 5.2946424 -0.94339281
-2.5404103 6.7353044 -0.80235016
-2.992847 7.9348345 -0.47368783
-3.2475626 8.6101532 0
-4.8331618 12.813999 0.76496059
-1.0365503 2.7381465 -0.9653793
-1.2088723 3.1933517 -0.94205278
-1.5491366 4.0921926 -0.96932542
-2.0006926 5.2850208 -0.94210851
-2.547632 6.7298131 -0.80206215
-3.0015099 7.9287753 -0.47354227
-3.2736266 8.6475973 0
-4.8422046 12.791146 0.76394504
-1.0679489 2.810827 -0.99145818
-1.2243125 3.222374 -0.95105022
-1.5739323 4.1425681 -0.98170781
-2.0052519 5.2777953 -0.94125175
-2.5520871 6.7170587 -0.80090898
-3.009244 7.920289 -0.4732523
-3.306257 8.7020235 0
-4.8604226 12.792566 0.76438004
-1.0642995 2.7910593 -0.98493844
-1.2425072 3.2583983 -0.96212482
-1.5599258 4.0908089 -0.96988779
-2.0107138 5.2729726 -0.94082421
-2.557436 6.7067175 -0.80004388
-3.0401032 7.9724827 -0.47659007
-3.3241875 8.7174759 0
-4.8777299 12.791544 0.76467061
-1.0535364 2.7528379 -0.97189903
-1.2303011 3.2147155 -0.94966459
-1.5685004 4.098413 -0.97213936
-2.0143337 5.2633533 -0.93954152
-2.5655379 6.7036223 -0.80004388
-3.0738802 8.0318956 -0.48036343
-3.3505311 8.7547703 0
-4.8959694 12.792924 0.76510614
-1.0869913 2.8300054 -0.99960625
-1.2224915 3.1827834 -0.94066715
-1.5743616 4.0988846 -0.97270167
-2.0188494 5.2561183 -0.93868476
-2.5652902 6.6787891 -0.79744947
-3.0621567 7.9723916 -0.47702563
-3.3816345 8.8041592 0
-4.9244657 12.820953 0.76713783
-1.0770776 2.7941039 -0.98738414
-1.2624309 3.2749386 -0.96835363
-1.5765704 4.0898643 -0.97101247
-2.0298147 5.2656493 -0.94082421
-2.5742879 6.6780958 -0.79773754
-3.0624433 7.9444451 -0.47557452
-3.4035029 8.8292065 0
-4.9427581 12.822269 0.76757336
-1.0822349 2.7974062 -0.98901248
-1.2663871 3.2734108 -0.96835363
-1.5879295 4.104547 -0.97495323
-2.0324707 5.2536159 -0.93911231
-2.5795581 6.6677504 -0.79687345
-3.0617263 7.9140792 -0.47397783
-3.4244952 8.8517799 0
-4.9638715 12.830824 0.76844394
-1.0838268 2.7914927 -0.98738414
-1.2349313 3.1806765 -0.94136131
-1.5827708 4.0765681 -0.96876097
-2.0397491 5.2535563 -0.93954152
-2.579185 6.6429219 -0.79427803
-3.0647025 7.8934155 -0.47296172
-3.4361293 8.8500586 0
-5.211659 13.423095 0.80429184
-1.084506 2.7832701 -0.98493844
-1.2415036 3.186188 -0.94343579
-1.5978439 4.1006975 -0.97495323
-2.0460954 5.2510877 -0.93954152
-2.5890896 6.6446252 -0.79485512
-3.0666907 7.8703375 -0.4718006
-3.4373736 8.8216562 0
-5.2391915 13.445831 0.80603296
-1.0851669 2.7750497 -0.98249274
-1.2563165 3.2127233 -0.9517417
-1.5972472 4.0845699 -0.97157699
-2.0496333 5.241437 -0.93825722
-2.5933485 6.6318564 -0.79370195
-3.0752528 7.8642087 -0.47165561
-3.439501 8.7956848 0
-5.2516489 13.429811 0.80545241
-1.0803939 2.7530317 -0.97515887
-1.2812778 3.2649186 -0.9676621
-1.6003232 4.0779018 -0.97045016
-2.06159 5.2532897 -0.94082421
-2.5975804 6.6190872 -0.79254878
-3.0866532 7.8653293 -0.47194618
-3.4396675 8.7648706 0
-5.2640758 13.41378 0.80487186
-1.0954928 2.7816181 -0.98575264
-1.2512082 3.1770027 -0.94205278
-1.6052494 4.0759654 -0.97045016
-2.0669963 5.2484088 -0.94039661
-2.5979941 6.5966911 -0.79024249
-3.0961547 7.8615942 -0.47194618
-3.4502556 8.7607088 0
-5.2593336 13.354225 0.80167907
-1.0788684 2.7297277 -0.96782494
-1.2716427 3.2174807 -0.95451039
-1.6092402 4.0716619 -0.96988779
-2.0686195 5.233973 -0.93825722
-2.6116691 6.6079841 -0.79197276
-3.0970566 7.8361006 -0.47064006
-3.4646649 8.7662144 0
-5.2544556 13.294701 0.79848629
-1.0994805 2.7720766 -0.9833101
-1.2931043 3.2602527 -0.9676621
-1.6197778 4.0838814 -0.97326404
-2.0768332 5.2362375 -0.93911231
-2.6101139 6.5807762 -0.78908932
-3.1093941 7.839592 -0.47107506
-3.4848516 8.7862177 0
-5.2475233 13.230372 0.79500294
-1.0936873 2.7477779 -0.97515887
-1.2924013 3.2470264 -0.9641993
-1.6162553 4.0606766 -0.9681986
-2.0822103 5.2313414 -0.93868476
-2.619019 6.5800185 -0.78937733
-3.1159844 7.8285933 -0.47064006
-3.5070109 8.8110075 0
-5.2279563 13.134707 0.78963345
-1.1125913 2.7854719 -0.98901248
-1.2972569 3.2477992 -0.96489346
-1.6258721 4.0705166 -0.97101247
-2.0875785 5.22644 -0.93825722
-2.6221716 6.5648417 -0.78793615
-3.1292968 7.834475 -0.47122061
-3.5292389 8.8357658 0
-5.2216539 13.072878 0.78629512
-1.0957274 2.7336581 -0.97108483
-1.3030454 3.2508821 -0.96627647
-1.6307894 4.0685492 -0.97101247
-2.0948465 5.226294 -0.93868476
-2.6368392 6.5784764 -0.78995442
-3.1435938 7.8427453 -0.47194618
-5.7096906 14.244731 0
-4.0928593 10.211005 0.61445892
-1.0999511 2.734623 -0.97189903
-1.3004181 3.2330103 -0.96143067
-1.639497 4.076005 -0.97326404
-2.1002028 5.2213798 -0.93825722
-2.6496112 6.5872812 -0.7913956
-3.1588843 7.8534007 -0.47281674
-5.7336974 14.254725 0
-4.1032567 10.201235 0.61416888
-1.1134317 2.7585056 -0.98086441
-1.2893029 3.1942229 -0.95035875
-1.6463249 4.0787377 -0.97439086
-2.1084301 5.2235947 -0.93911231
-2.6546636 6.5768771 -0.7905305
-3.1586471 7.8254871 -0.4713656
-4.3385401 10.748649 0
-4.1107183 10.184224 0.61344337
-1.1104665 2.7463777 -0.97679037
-1.2752461 3.1539066 -0.93859261
-1.6440272 4.0659666 -0.97157699
-2.106775 5.210423 -0.93697292
-2.6596088 6.5776772 -0.79081959
-3.1701899 7.8404336 -0.47238117
-0 0 0
-4.1119971 10.169687 0.61271721
-1.1072785 2.7289999 -0.97108483
-1.2771678 3.1477094 -0.93720698
