# .PCD v0.7 - Point Cloud Data file format
VERSION 0.7
FIELDS x y z
SIZE 4 4 4
TYPE F F F
COUNT 1 1 1
WIDTH 1884
HEIGHT 1
VIEWPOINT 0 0 0 1 0 0 0
POINTS 1884
DATA ascii
19.619324 21.640018 1.6315439
5.0836258 5.6140265 -0.42303655
5.1479192 5.6850281 0
19.580084 21.622974 1.6293666
5.0716114 5.6143789 -0.42260098
5.1375537 5.6873779 0
19.545235 21.636978 1.6286411
5.063086 5.6185741 -0.42245597
5.1219687 5.683917 0
19.531254 21.674093 1.6296573
5.0649776 5.6343479 -0.42318153
5.1168351 5.6920352 0
19.505051 21.697678 1.6296573
5.04776 5.6288605 -0.42231098
5.1047463 5.6924067 0
21.645481 24.13732 1.8109268
5.0444169 5.6388254 -0.42260098
5.1013312 5.7024465 0
21.618031 24.16539 1.8110719
5.0272222 5.6332879 -0.42173043
5.0840435 5.6969595 0
21.592279 24.195375 1.8113624
5.0273228 5.6471214 -0.42231098
5.0788851 5.7050405 0
21.545748 24.202036 1.8099108
5.0222197 5.6551328 -0.42245597
5.0719881 5.7111731 0
21.592407 24.31354 1.8162968
5.0050478 5.6495309 -0.42158541
5.0547252 5.7056055 0
19.369633 21.863796 1.6315439
5.0154219 5.6750412 -0.42303655
5.0495558 5.7136645 0
19.362123 21.908596 1.6331401
5.0016875 5.6733007 -0.42245597
5.0426483 5.7197618 0
19.559019 22.185352 1.6520073
4.9999785 5.6851954 -0.42289153
5.0305758 5.7199864 0
19.593975 22.279211 1.6572324
4.9896746 5.6873226 -0.42260098
5.021946 5.7241058 0
19.572176 22.308725 1.6576674
4.9759159 5.6993642 -0.42260098
5.0080986 5.7362256 0
19.4396 22.265921 1.6509912
4.9587898 5.6936193 -0.42173043
5.0011635 5.7422724 0
19.25569 22.109138 1.6376395
0 0 -0
4.9993372 5.7541995 0
19.240885 22.146112 1.6386551
4.9569306 5.7193332 -0.42274654
4.9804544 5.7464752 0
19.217518 22.173277 1.6389456
4.9466138 5.7213836 -0.42245597
4.9803157 5.7603636 0
19.228098 22.239721 1.6421384
4.9329085 5.7194853 -0.42187542
4.9682508 5.7604628 0
19.238544 22.306225 1.6453311
4.9226079 5.7215061 -0.42158541
4.956193 5.7605414 0
19.330204 22.467333 1.6554906
4.9123034 5.7235026 -0.42129487
4.9475355 5.7645531 0
19.311502 22.50053 1.6562163
4.9037695 5.7205486 -0.42085931
4.9440522 5.7675409 0
19.030722 22.200508 1.6332856
4.9019217 5.7323966 -0.42129487
4.9337001 5.7695584 0
18.907625 22.110922 1.6250128
4.8949914 5.7383151 -0.42129487
4.9334812 5.7834358 0
18.853912 22.102121 1.6226906
4.8830009 5.738287 -0.42085931
4.928174 5.7913728 0
18.788465 22.079376 1.6193528
4.8727036 5.7402248 -0.4205693
4.9161186 5.791369 0
18.724783 22.058485 1.6161599
4.8657641 5.7461085 -0.4205693
4.9074373 5.795321 0
18.661171 22.037464 1.6129667
4.8588176 5.7519836 -0.4205693
4.897069 5.7972665 0
18.612732 22.034193 1.6110799
4.8518639 5.7578502 -0.4205693
4.8867097 5.7992029 0
18.56768 22.034815 1.6094838
4.8415623 5.7597342 -0.42027929
4.8847246 5.8110814 0
18.547731 22.065191 1.6100644
4.8312569 5.7615938 -0.41998875
4.8760223 5.8149796 0
18.517714 22.083599 1.6097739
4.8176231 5.7594552 -0.41940817
4.8606453 5.8108878 0
18.59104 22.225538 1.6184816
4.8106604 5.7652721 -0.41940817
4.858624 5.8227534 0
18.689024 22.397614 1.6293666
4.8020296 5.7690854 -0.41926318
4.8499212 5.8266215 0
18.678574 22.440153 1.6308184
4.7933969 5.7728863 -0.4191182
4.8445387 5.8344779 0
18.664719 22.478691 1.6319789
4.788074 5.780673 -0.41926318
4.8358269 5.838325 0
18.617661 22.477222 1.6302378
4.7761188 5.7804432 -0.41882762
4.8221378 5.8361387 0
18.573933 22.479666 1.6287861
4.7740908 5.7922273 -0.41926318
4.8217034 5.8499942 0
18.498831 22.443947 1.6245773
4.762136 5.7919683 -0.41882762
4.8146315 5.8558159 0
18.389194 22.365936 1.6173211
4.7600789 5.8037472 -0.41926318
4.8025994 5.8555908 0
18.317663 22.333891 1.6134021
4.7481251 5.8034596 -0.41882762
4.7922215 5.857357 0
18.284082 22.347963 1.6128216
4.7394681 5.8071814 -0.41868263
4.7900786 5.869194 0
18.243921 22.353935 1.6116605
0 0 -0
4.7797008 5.870945 0
5.3278575 6.5442505 0.47135893
0 0 -0
4.7693186 5.8726716 0
5.3379669 6.5728731 0.47295558
0 0 -0
4.7605824 5.87641 0
5.3267465 6.5752764 0.47266504
0 0 -0
4.7570314 5.8792849 0
18.34371 22.671261 1.6289312
0 0 -0
4.7564621 5.8931293 0
18.303253 22.67724 1.6277705
0 0 -0
4.7477074 5.8968468 0
18.31657 22.749929 1.6313983
0 0 -0
4.7422071 5.9046063 0
18.323236 22.814589 1.6344461
0 0 -0
4.7318115 5.9062662 0
18.285912 22.824549 1.6335756
0 0 -0
4.7344232 5.9241815 0
18.315092 22.917665 1.6386551
0 0 -0
4.7353711 5.9400706 0
18.447737 23.140924 1.6530235
0 0 -0
4.7362876 5.9559708 0
18.439171 23.187603 1.6547651
0 0 -0
4.7484961 5.9861565 0
18.453123 23.262793 1.6585385
0 0 -0
4.7444925 5.9959755 0
18.423384 23.283028 1.6583929
0 0 -0
4.758204 6.0282583 0
18.39846 23.309357 1.6586834
0 0 -0
4.7621813 6.0483108 0
17.952362 22.800783 1.6209489
0 0 -0
4.7629056 6.064292 0
17.911966 22.806118 1.6197883
4.6147447 5.8902864 -0.41795707
4.7491546 6.0618482 0
17.876379 22.817511 1.6190622
4.6028223 5.8897142 -0.41752151
4.7594562 6.0901403 0
17.8312 22.81658 1.6174661
4.5925102 5.8911767 -0.4172315
4.7440953 6.0856261 0
19.383528 24.864784 1.7610016
4.5774088 5.8864594 -0.4165054
4.773478 6.1386003 0
19.36463 24.90254 1.7620173
4.5687017 5.8899345 -0.41636041
4.7501092 6.1238041 0
19.372749 24.975197 1.7655005
4.56317 5.8975039 -0.4165054
4.7602267 6.1521826 0
19.352095 25.010914 1.7663711
4.5623913 5.9112415 -0.41708595
4.7655044 6.1744037 0
19.34409 25.063082 1.7684033
4.5552454 5.91675 -0.41708595
4.743753 6.1616001 0
21.713593 28.203505 1.9881331
4.5496802 5.9243164 -0.4172315
4.7616668 6.2003527 0
21.693739 28.248266 1.9894391
4.5425186 5.9298096 -0.4172315
4.7652512 6.2205653 0
21.656427 28.27033 1.9891486
4.5306153 5.9290981 -0.41679597
4.7419271 6.205636 0
23.144642 30.288786 2.1292014
4.5254579 5.9297705 -0.41665095
4.7460761 6.2188497 0
23.159441 30.34614 2.1322491
4.5308809 5.9517746 -0.41781208
4.7401333 6.2266488 0
23.12118 30.372028 2.1321037
4.5158243 5.9468918 -0.41708595
4.7609329 6.2696753 0
21.37483 28.148525 1.9742002
4.5133438 5.95856 -0.41752151
4.7282119 6.2422304 0
21.336094 28.168118 1.9737647
4.50144 5.957787 -0.41708595
4.7410598 6.274931 0
21.322405 28.220827 1.9756514
4.4989309 5.9694495 -0.41752151
4.720943 6.2640281 0
21.283604 28.240351 1.9752164
4.491715 5.9748812 -0.41752151
4.7133708 6.2697282 0
21.252584 28.270197 1.9755063
4.9638605 6.6362581 -0.92371547
4.4788175 5.9877973 -0.41766652
4.699769 6.2831903 0
21.26202 28.425508 1.9827631
4.9496512 6.6339588 -0.9225623
4.47469 5.9973736 -0.41795707
4.6906128 6.2867723 0
21.233873 28.459509 1.9833436
0 0 -0
4.4674401 6.0027761 -0.41795707
4.6783562 6.2861781 0
21.204126 28.4914 1.9837792
0 0 -0
4.461731 6.0102544 -0.41810206
4.6878166 6.3148065 0
23.413834 31.540022 2.1940749
4.8901687 6.6040463 -0.91593128
4.459106 6.0219078 -0.41853762
4.6786356 6.3183765 0
23.403543 31.605883 2.1966877
4.8668213 6.5891495 -0.91304892
4.4502783 6.0251951 -0.41839206
4.6679082 6.3198428 0
0 0 0
4.8435173 6.5742059 -0.91016656
4.4537849 6.0452142 -0.41940817
4.6695275 6.3380456 0
0 0 0
4.8248472 6.5654616 -0.90814823
4.4541698 6.0610585 -0.42013374
4.6618657 6.3436832 0
23.342672 31.76379 2.2017672
4.8092661 6.5608587 -0.90670705
4.4468427 6.0664358 -0.42013374
4.6572776 6.3535137 0
23.304276 31.791971 2.2017672
4.7921729 6.5541334 -0.90497673
4.4364448 6.0676136 -0.41984373
4.646522 6.3549309 0
23.331787 31.910295 2.2080078
4.7492003 6.5118608 -0.89834684
4.4306397 6.075067 -0.41998875
4.6235075 6.3395176 0
21.145136 28.993132 2.0043876
4.6987247 6.4590302 -0.89027464
4.4263563 6.0846229 -0.42027929
4.6311512 6.3661408 0
21.143721 29.064892 2.007581
4.6271205 6.3767829 -0.87816691
4.4281545 6.1025815 -0.42114985
4.611228 6.3548813 0
20.322704 28.00737 1.9328378
4.5936327 6.3467517 -0.87326622
4.4207773 6.1079273 -0.42114985
4.5959182 6.3499088 0
20.304081 28.052952 1.934289
4.57688 6.3397193 -0.87153703
4.4255614 6.1301188 -0.42231098
4.5958571 6.3660059 0
20.308193 28.130133 1.9379174
4.5677061 6.3431478 -0.87124902
4.4302988 6.1523309 -0.42347211
4.5881619 6.3715544 0
20.295443 28.184168 1.939949
4.5668907 6.3501019 -0.87182504
4.4265809 6.1550064 -0.42347211
4.5964675 6.3912282 0
20.275381 28.192209 1.939659
0 0 -0
4.4236803 6.1666789 -0.4239071
4.5841894 6.3904314 0
25.463375 35.496342 2.4400737
4.5500278 6.3590183 -0.87153703
4.4192529 6.17625 -0.42419764
4.5870667 6.4107833 0
21.032726 29.394875 2.0189009
4.5348296 6.3539872 -0.87009585
4.4253707 6.2006183 -0.42550376
4.5883856 6.4290271 0
20.927759 29.322979 2.0122249
4.5286474 6.361567 -0.87038386
4.4269137 6.218658 -0.42637432
4.5851431 6.4409289 0
20.868202 29.314375 2.0099025
4.5179596 6.3628125 -0.86980677
4.4239111 6.2303605 -0.42680988
4.5803738 6.4507127 0
20.834276 29.341694 2.0100482
4.5072808 6.3640494 -0.86923069
4.4374022 6.2653842 -0.42884156
4.6011505 6.4965882 0
20.806314 29.377447 2.0107737
4.5010791 6.3716016 -0.8695187
4.4478197 6.2962093 -0.43058324
4.5963035 6.5063987 0
20.823271 29.476841 2.0158532
4.4963593 6.381268 -0.87009585
4.4447002 6.3079534 -0.4310188
4.6139202 6.5481119 0
20.890903 29.648533 2.025867
4.4841824 6.3803463 -0.86923069
4.4579897 6.3430781 -0.43305045
4.6045041 6.5515466 0
20.941721 29.797054 2.0342848
4.4749866 6.3836436 -0.86894268
4.4592743 6.3612304 -0.43392158
4.6175017 6.5869441 0
20.883326 29.790419 2.0321076
4.4731984 6.3975253 -0.87009585
4.4664717 6.3879051 -0.43537268
4.6214695 6.6095815 0
20.513807 29.33865 1.9995986
4.4743395 6.4156504 -0.87182504
4.4632106 6.3996935 -0.43580824
4.6328316 6.642909 0
20.508064 29.406033 2.002501
4.4710164 6.427424 -0.8726902
4.4703102 6.4264088 -0.43725938
4.6500649 6.6848197 0
20.476971 29.437193 2.0029364
4.4765153 6.4519453 -0.87528455
4.4847622 6.4638309 -0.43943658
4.641984 6.6904335 0
20.475451 29.511011 2.0062742
4.4922657 6.4913793 -0.87989724
4.4902549 6.4884734 -0.4407427
4.6679549 6.7452517 0
20.479704 29.593422 2.0101931
4.5182085 6.5457549 -0.88652712
4.4853611 6.4981675 -0.44103271
4.6849322 6.7872963 0
20.458689 29.639526 2.0116444
4.5484276 6.606596 -0.89402217
4.4951882 6.5292654 -0.44277439
4.7047691 6.8336825 0
20.489166 29.760536 2.0181754
4.563868 6.6462021 -0.89863485
4.4975934 6.5496888 -0.4437905
4.7333374 6.8929949 0
20.510553 29.868805 2.0238354
4.5967579 6.7114625 -0.90670705
4.4940825 6.561552 -0.44422606
4.7764726 6.9738536 0
20.487661 29.912859 2.0251415
4.6251183 6.7704024 -0.91391408
4.5066681 6.5970116 -0.44625774
4.7665758 6.9774728 0
20.476418 29.974064 2.0276089
4.6606236 6.840106 -0.9225623
4.5089369 6.6174855 -0.44727385
4.7610693 6.9875245 0
20.446037 30.007374 2.0281894
4.6596227 6.8564267 -0.92400348
4.5082393 6.6336727 -0.44799942
4.7306848 6.9609914 0
23.786371 35.000584 2.3637345
4.6583819 6.8635163 -0.9245795
4.520278 6.6600389 -0.44959551
4.8667731 7.1705542 0
23.746254 34.987 2.3618479
4.6631331 6.8884149 -0.92717391
4.5267968 6.6870179 -0.45104721
4.9091692 7.2518611 0
23.708332 35.022125 2.3622835
4.6663852 6.9111934 -0.9294802
4.5550632 6.7463188 -0.45467556
4.8989425 7.2556243 0
24.29266 35.97887 2.4248352
4.6652589 6.9275599 -0.93092251
4.5657759 6.7798343 -0.45656222
0 0 0
24.243362 35.999573 2.4242547
4.5720658 6.8069124 -0.45801333
4.9481421 7.366816 0
24.175217 35.992172 2.4217875
4.6086669 6.8793483 -0.46251225
4.9826884 7.4376502 0
24.136045 36.027828 2.4222226
4.6003509 6.8849115 -0.46251225
5.0156269 7.5064163 0
31.129784 46.589012 3.1297407
4.6453447 6.9704676 -0.46788228
5.0079951 7.5146346 0
31.060499 46.607136 3.1284347
4.6829472 7.0453238 -0.47252673
5.0320477 7.5705323 0
31.041557 46.700893 3.1322081
4.6773 7.0553045 -0.47281674
5.0228963 7.5766072 0
31.227739 47.104359 3.1567354
4.7246609 7.1454763 -0.47847673
4.9922056 7.5501056 0
31.162205 47.129055 3.1558647
4.7346191 7.179378 -0.48036343
5.0117345 7.5995841 0
31.088068 47.140644 3.1541231
4.7459345 7.2154908 -0.48239565
4.991107 7.5882397 0
30.855461 46.911163 3.136272
4.7500386 7.2407718 -0.48370177
5.017621 7.648664 0
30.701841 46.800678 3.1264031
4.7882328 7.3182588 -0.48849124
5.0625186 7.7374725 0
30.676565 46.885574 3.1295958
4.8049445 7.363205 -0.49110347
0 0 0
0 0 0
4.8158851 7.3994904 -0.49313512
5.1644664 7.9350767 0
0 0 0
4.8394818 7.4554353 -0.49647349
5.2469716 8.0831909 0
34.186054 52.665123 3.5070839
4.8530588 7.4961691 -0.49879515
5.2980189 8.183466 0
37.827667 58.429661 3.8879104
4.8735962 7.5478673 -0.50184298
5.2556562 8.1395741 0
37.785233 58.518986 3.8908131
4.9320021 7.6586132 -0.50880963
0 0 0
0 0 0
4.9452124 7.6995482 -0.51113188
5.3316016 8.3011456 0
0 0 0
4.9541245 7.7339606 -0.51301855
5.3257804 8.3141584 0
38.682854 60.388401 4.0057573
4.95085 7.7391391 -0.51316357
5.3530083 8.3677912 0
0 0 0
4.9474735 7.7751889 -0.51475966
5.3271828 8.3719196 0
0 0 0
5.0104756 7.8952465 -0.52230692
17.939325 28.267855 0
0 0 0
5.0398378 7.9627638 -0.52637029
17.913509 28.302708 0
0 0 0
5.0815306 8.0501461 -0.53174031
17.879299 28.324333 0
0 0 0
5.0953326 8.0936604 -0.53420752
17.838131 28.334906 0
0 0 0
5.1408172 8.1878376 -0.54001307
17.801109 28.352026 0
0 0 0
5.1309199 8.1940432 -0.54001307
17.762699 28.366903 0
42.284374 67.527847 4.4502964
5.1843262 8.3016157 -0.54668921
17.725651 28.383926 0
0 0 0
5.1907706 8.3343325 -0.54843032
17.685837 28.396488 0
38.475422 61.776367 4.0651164
5.2094874 8.3869505 -0.55147815
17.651514 28.417837 0
38.400749 61.822815 4.0651164
5.2869205 8.5346031 -0.56076652
17.607569 28.423656 0
38.284969 61.802902 4.0607629
5.3052826 8.5874062 -0.56381428
17.574583 28.44713 0
38.222557 61.869011 4.0620689
5.3194399 8.6336346 -0.56642711
17.541561 28.470558 0
38.083714 61.81118 4.0552478
5.3593307 8.7219601 -0.57179654
17.505785 28.489519 0
37.979069 61.808441 4.0520544
5.3800163 8.7793884 -0.57513487
17.469986 28.508425 0
37.866348 61.792263 4.0479908
5.4330854 8.8900843 -0.58195603
17.432814 28.525076 0
37.809269 61.866791 4.0498776
5.4899535 9.0075788 -0.58921272
17.401041 28.55056 0
37.742599 61.925739 4.0507483
5.5978293 9.2095966 -0.60198444
17.361122 28.562668 0
17.750702 29.203608 1.9088911
5.6149821 9.2630157 -0.60503221
17.323902 28.579178 0
17.722136 29.236143 1.9096167
5.629323 9.3120375 -0.60778946
17.292048 28.60454 0
17.680077 29.24642 1.9088911
5.6180668 9.3188324 -0.60778946
0 0 0
17.638018 29.256636 1.9081656
5.5960917 9.3077984 -0.60662836
0 0 0
17.5973 29.269018 1.907585
5.5877948 9.3067265 -0.60633832
0 0 0
17.584963 29.288557 1.9081656
5.573873 9.3090086 -0.60604781
0 0 0
17.554895 29.318691 1.9087455
5.5453038 9.2867355 -0.60416114
17.124252 28.678032 0
17.515463 29.333195 1.9083105
17.09758 28.712124 0
17.473362 29.343178 1.907585
17.061546 28.730526 0
17.44187 29.370966 1.90802
17.029469 28.755594 0
17.43285 29.436735 1.9109228
16.998682 28.782875 0
17.35763 29.390659 1.9065689
16.96653 28.807875 0
0 0 0
16.933025 28.830597 0
0 0 0
16.90081 28.855532 0
0 0 0
16.861994 28.869188 0
0 0 0
16.825788 28.887295 0
0 0 0
11.158672 19.211061 0
0 0 0
11.134149 19.222281 0
0 0 0
11.107008 19.228958 0
0 0 0
11.049994 19.183735 0
0 0 0
11.008657 19.165474 0
0 0 0
10.981613 19.171993 0
0 0 0
10.953277 19.17621 0
0 0 0
10.924946 19.180386 0
0 0 0
10.900478 19.191311 0
0 0 0
10.882411 19.213526 0
0 0 0
10.848948 19.208532 0
0 0 0
10.82445 19.219353 0
0 0 0
10.811563 19.223623 0
0 0 0
10.770507 19.204899 0
0 0 0
0 0 -0
10.751105 19.224716 0
0 0 0
10.732939 19.246784 0
0 0 0
10.708406 19.257458 0
0 0 0
10.687656 19.274939 0
0 0 0
10.661838 19.283279 0
0 0 0
10.627222 19.275639 0
0 0 0
10.598908 19.279343 0
0 0 0
10.580609 19.301264 0
0 0 0
10.567266 19.332304 0
0 0 0
10.526464 19.31307 0
0 0 0
10.50312 19.325775 0
0 0 0
10.476041 19.331585 0
48.629646 89.736977 5.7010441
10.442777 19.325912 0
48.484127 89.727089 5.6966901
10.429293 19.356846 0
0 0 0
10.407127 19.371723 0
0 0 0
10.365187 19.406 0
0 0 0
10.336838 19.409321 0
0 0 0
10.304837 19.405714 0
0 0 0
10.309387 19.471045 0
0 0 0
0 0 0
0 0 0
10.779897 20.479204 0
0 0 0
10.718863 20.423088 0
0 0 0
10.692972 20.433722 0
0 0 0
10.689059 20.456316 0
0 0 0
10.664333 20.469217 0
0 0 0
10.647992 20.498257 0
0 0 0
10.59449 20.455645 0
0 0 0
10.588872 20.50543 0
0 0 0
10.555747 20.50201 0
0 0 0
0 0 0
0 0 0
10.056812 19.649483 0
0 0 0
10.060266 19.71493 0
0 0 0
10.035258 19.724754 0
0 0 0
10.004355 19.722944 0
0 0 0
10.014572 19.802357 0
0 0 0
10.339787 20.506908 0
0 0 0
10.366426 20.621689 0
0 0 0
10.356659 20.664444 0
0 0 0
10.363092 20.739803 0
0 0 0
10.584026 21.246128 0
0 0 0
0 0 0
0 0 0
0 0 0
0 0 0
0 0 0
0 0 0
0 0 0
0 0 0
0 0 0
0 0 0
0 0 0
0 0 0
0 0 0
0 0 0
0 0 0
0 0 0
0 0 0
0 0 0
0 0 0
0 0 0
0 0 -0
0 0 0
0 0 0
0 0 0
0 0 0
1.725827 3.5995982 -0.88433361
0 0 0
0 0 0
1.7346251 3.6291907 -0.89108825
0 0 -0
0 0 0
0 0 0
0 0 -0
1.7302387 3.631284 -0.89108825
0 0 0
0 0 0
1.7258497 3.6333721 -0.89108825
0 0 0
0 0 0
1.7268943 3.6469347 -0.89390212
0 0 0
0 0 0
1.7181479 3.6398277 -0.89165062
0 0 -0
0 0 0
0 0 0
1.7159144 3.6465037 -0.89277744
0 0 -0
0 0 0
0 0 0
1.7190576 3.6646705 -0.896716
0 0 -0
0 0 0
0 0 0
1.7124777 3.6621459 -0.89559132
1.8033067 3.8563845 -0.70973337
0 0 -0
0 0 0
0 0 0
1.7123455 3.6734242 -0.89784288
1.8225086 3.9097526 -0.71914947
0 0 -0
0 0 0
0 0 0
1.7175412 3.6962271 -0.90290827
1.8285986 3.9352274 -0.72342831
0 0 -0
0 0 0
0 0 0
1.7184126 3.7098253 -0.90572214
1.8216865 3.93278 -0.72257322
0 0 -0
0 0 0
0 0 0
1.7235142 3.7326584 -0.91078758
1.8104743 3.92099 -0.72000456
0 0 0
0 0 0
1.7115651 3.7185791 -0.90684688
1.8035907 3.9185154 -0.71914947
0 0 -0
0 0 0
0 0 0
1.71661 3.7414358 -0.91191447
1.8009936 3.9253538 -0.72000456
0 0 -0
0 0 0
0 0 0
1.7247654 3.7712269 -0.9186669
1.7983866 3.9322007 -0.72086132
0 0 0
11.277724 24.658922 1.5145674
1.7233704 3.7802463 -0.92035609
1.7787238 3.9016652 -0.71486896
0 0 0
11.26409 24.707998 1.5167446
1.7156469 3.7753839 -0.9186669
1.7463973 3.8430519 -0.70374262
0 0 0
11.238526 24.731052 1.5173252
1.7205225 3.7982914 -0.92373449
1.5966494 3.5248246 -0.64511484
0 0 0
11.202201 24.730408 1.516454
1.7108973 3.7831221 -0.91979373
1.5564388 3.4415846 -0.62970799
0 0 0
11.187258 24.737171 1.516454
1.6937944 3.7573895 -0.91303915
1.5459514 3.4294255 -0.62714106
0 0 0
0 0 0
1.601778 3.5647576 -0.86575896
0 0 -0
1.5892791 3.5369413 -0.43220156
0 0 0
0 0 0
1.5268476 3.4090121 -0.82748497
0 0 -0
1.6019202 3.5766277 -0.43681425
0 0 0
0 0 0
1.5082279 3.3783762 -0.81960565
0 0 -0
1.601815 3.5880079 -0.43796742
22.23172 49.798252 0
0 0 0
1.5000128 3.3709104 -0.81735414
0 0 -0
1.5859145 3.5639536 -0.43479702
22.19375 49.875008 0
0 0 0
1.4918177 3.3634298 -0.81510258
0 0 -0
1.5711181 3.5422194 -0.43191355
22.130304 49.89465 0
0 0 0
1.4806105 3.3600473 -0.81341338
0 0 -0
1.5385681 3.4915743 -0.42528364
21.963491 49.843204 0
0 0 0
1.4745079 3.3571856 -0.8122887
0 0 -0
1.5385085 3.5029035 -0.42643681
21.888601 49.836353 0
0 0 0
1.4745262 3.3682754 -0.81454027
0 0 -0
1.5301259 3.4952822 -0.42528364
21.8148 49.831776 0
10.875044 24.841974 1.5147123
1.4724855 3.3747077 -0.81566495
0 0 -0
1.5331391 3.5137162 -0.42730087
21.704615 49.743603 0
10.838786 24.840811 1.5138417
1.4673945 3.3741567 -0.81510258
0 0 -0
1.5258007 3.5084574 -0.42643681
21.622698 49.719673 0
10.785966 24.801472 1.510649
1.4623067 3.3735983 -0.81454027
0 0 -0
1.5215603 3.5102985 -0.42643681
21.055471 48.575787 0
10.706388 24.700048 1.5036824
1.4531919 3.3637023 -0.81172633
0 0 -0
1.5203921 3.5192506 -0.42730087
20.999861 48.608364 0
10.671383 24.701042 1.5029567
1.4571617 3.3841166 -0.81622726
0 0 -0
1.5140948 3.5163386 -0.42672485
20.935966 48.621754 0
10.633307 24.694826 1.5017956
1.4410506 3.3578644 -0.80947483
0 0 -0
1.5057647 3.5086579 -0.42557168
20.86694 48.623104 0
10.60346 24.707657 1.5017956
1.4469827 3.3829603 -0.81510258
0 0 -0
1.4984716 3.5033383 -0.42470652
20.806124 48.64349 0
10.586882 24.751507 1.5036824
1.4448849 3.3893766 -0.81622726
0 0 -0
1.4830831 3.478981 -0.42153612
20.723862 48.613541 0
10.540667 24.726044 1.5013607
1.4378105 3.3841109 -0.81454027
0 0 -0
1.4667413 3.452204 -0.41807663
10.351437 24.363718 0
10.49351 24.698109 1.4988934
1.43669 3.3928583 -0.81622726
0 0 -0
1.4514741 3.4277723 -0.41490513
10.323004 24.378601 0
10.188079 24.059963 1.4594171
1.4306153 3.3899145 -0.81510258
1.4596369 3.4586828 -0.6258567
1.4463265 3.4271429 -0.41461712
10.277349 24.352694 0
10.145866 24.041138 1.4575305
1.4235619 3.3846118 -0.81341338
1.4554567 3.4604437 -0.6258567
1.4421844 3.4288881 -0.41461712
10.197469 24.245152 0
10.106737 24.02943 1.4560794
1.4194713 3.3863294 -0.81341338
1.4542526 3.4693048 -0.62714106
1.4340405 3.4210865 -0.41346395
10.09875 24.091856 0
0 0 0
1.4222356 3.4044561 -0.81735414
1.4520367 3.4757922 -0.62799615
1.4269139 3.4156547 -0.41259879
10.038537 24.029604 0
0 0 0
1.4162663 3.3959343 -0.81510258
1.4499365 3.4766688 -0.62799615
1.4477491 3.4714241 -0.41922978
10.018004 24.021248 0
0 0 0
1.4053347 3.3812165 -0.81116188
1.4467226 3.4807956 -0.62842536
1.4475243 3.4827244 -0.42038295
10.735067 25.82843 0
10.700097 25.744291 1.5572364
1.4158344 3.4181268 -0.81960565
0 0 -0
0 0 -0
10.685925 25.798107 0
9.6965227 23.409475 1.415297
1.4049157 3.4033921 -0.81566495
0 0 -0
0 0 -0
11.727159 28.408907 0
9.6702147 23.425983 1.4155875
1.3988708 3.4003921 -0.81454027
0 0 -0
1.3886439 3.3755324 -0.40683404
11.686885 28.408621 0
9.6339931 23.418427 1.4144264
1.4130714 3.4467421 -0.82523346
0 0 -0
1.4071275 3.4322438 -0.41346395
11.655509 28.429937 0
9.6017466 23.420433 1.4138459
1.4415779 3.5284157 -0.84437042
0 0 -0
1.3971117 3.41958 -0.41173473
11.615244 28.42955 0
9.6078348 23.516201 1.4189253
1.4689318 3.6078122 -0.86294508
0 0 -0
1.395902 3.4284453 -0.41259879
11.571069 28.419456 0
9.6274252 23.645716 1.4260371
1.4903622 3.6731484 -0.87814134
0 0 -0
1.3800889 3.4013689 -0.40913928
11.544548 28.452709 0
9.6095905 23.683809 1.4276332
1.4916394 3.6890848 -0.88151973
0 0 -0
1.3856754 3.4270175 -0.41202277
11.522841 28.498001 0
9.5751238 23.680954 1.4267626
1.4814812 3.6767392 -0.87814134
0 0 -0
1.3863659 3.4406824 -0.41346395
0 0 0
9.5455332 23.6901 1.4266176
1.4808246 3.6879585 -0.88039291
0 0 -0
1.3706424 3.4135523 -0.41000444
0 0 0
9.5033445 23.667852 1.4245853
1.4810897 3.7015471 -0.88320893
0 0 -0
1.3761272 3.4392245 -0.4128879
0 0 0
9.4853582 23.705858 1.426182
1.4756722 3.7009671 -0.88264441
0 0 -0
1.3547256 3.3976343 -0.40769809
23.994879 60.178848 0
9.495203 23.813848 1.4319876
1.4702619 3.7003882 -0.8820821
0 0 -0
0 0 -0
21.388206 53.830318 0
0 0 0
1.4629827 3.6950724 -0.88039291
0 0 -0
0 0 -0
21.30303 53.805309 0
31.447729 79.427895 4.7716188
1.455722 3.6897535 -0.87870586
0 0 -0
0 0 -0
1.7782831 4.5073347 -0.27064818
21.249462 53.860062 0
31.383202 79.545601 4.7764082
0 0 -0
0 0 -0
0 0 -0
1.7728356 4.5094805 -0.27064818
21.170084 53.849365 0
31.315582 79.656006 4.7807622
1.4440198 3.6861608 -0.87701666
0 0 -0
0 0 -0
1.7607501 4.4946809 -0.26963207
21.109751 53.887028 0
0 0 0
1.4349459 3.6760705 -0.87420279
0 0 -0
0 0 -0
1.7609853 4.5113239 -0.27050263
20.414392 52.297962 0
9.3412027 23.930462 1.4348898
1.4323435 3.6825333 -0.87532747
1.3682964 3.5178692 -0.62928045
1.3250031 3.4065628 -0.40741009
1.7545918 4.5110288 -0.27035761
20.336092 52.283783 0
9.3103991 23.936893 1.4345999
1.429731 3.6890042 -0.87645435
1.3631179 3.5171287 -0.6288529
1.3227571 3.4129894 -0.40798721
1.753834 4.5252576 -0.27108318
19.312727 49.830864 0
9.2814684 23.948126 1.4345999
1.4316773 3.7073143 -0.88039291
1.3634902 3.5307446 -0.63099235
1.3298099 3.4435296 -0.41144562
1.7539831 4.5419221 -0.2719543
18.416256 47.688713 0
9.2534609 23.961744 1.4347448
1.4308467 3.7185271 -0.88264441
1.359223 3.5323894 -0.63099235
1.3154334 3.4185877 -0.40827522
1.7550232 4.561007 -0.27296984
18.346472 47.679359 0
9.2123709 23.941383 1.4328581
1.4272647 3.7226326 -0.88320893
1.352196 3.5268359 -0.62970799
1.2872291 3.3573875 -0.40078017
1.7439313 4.5485716 -0.27209929
18.278597 47.674759 0
30.647242 79.935013 4.7817783
1.4331882 3.7448492 -0.88827437
1.3546518 3.5396376 -0.63184744
1.3036865 3.4064677 -0.40654492
1.7318972 4.5253611 -0.27064818
16.495514 43.101955 0
30.597084 79.948654 4.7814875
1.4304712 3.751322 -0.88939905
1.3467152 3.5316772 -0.6301356
1.3014144 3.4128788 -0.40712208
1.7393876 4.5614362 -0.27267984
16.429516 43.085388 0
12.42096 32.5732 1.9472057
0 0 -0
1.4295472 3.7625487 -0.89165062
1.3460939 3.5429008 -0.63184744
1.2816737 3.3733475 -0.40222138
1.7283392 4.5489655 -0.27180928
16.380215 43.112499 0
12.395437 32.624622 1.9493829
1.4249998 3.7642732 -0.89165062
1.3454474 3.5541279 -0.63355929
1.2949927 3.4208469 -0.40769809
1.7136401 4.5267439 -0.27035761
16.322582 43.117661 0
12.373485 32.685741 1.9521401
1.4222455 3.7707517 -0.89277744
1.3366231 3.5437438 -0.6314199
1.3045511 3.4587126 -0.41202277
1.7173411 4.5531287 -0.27180928
16.267715 43.130047 0
12.349569 32.741997 1.9546074
1.4221566 3.7843575 -0.89559132
1.3422745 3.5717914 -0.63612795
1.2748946 3.3924937 -0.40395057
1.7063521 4.5406017 -0.27093816
14.658398 39.005985 0
12.293547 32.713116 1.9519951
1.418473 3.7884505 -0.89615369
1.3280554 3.5469637 -0.6314199
1.2807719 3.4206789 -0.40712208
1.7063329 4.5572653 -0.27180928
14.610345 39.021233 0
12.295011 32.837452 1.9585263
1.418334 3.8020627 -0.89896756
1.3255647 3.5533807 -0.63227665
1.2730216 3.4125304 -0.4059689
1.6971923 4.5495858 -0.27122873
14.551356 39.007153 0
12.291648 32.949657 1.9643313
1.4128546 3.8013942 -0.89840519
1.3123252 3.5309126 -0.62799615
1.267997 3.411644 -0.40568087
1.6998403 4.5735517 -0.27253485
14.504213 39.024708 0
12.254542 32.971794 1.9647669
1.4073788 3.8007181 -0.89784288
1.3160799 3.5541594 -0.63184744
1.2755491 3.4447033 -0.40942839
1.685288 4.55123 -0.27108318
14.465185 39.064178 0
12.199355 32.945156 1.9622996
1.4054211 3.8095605 -0.89952987
1.2984593 3.5196278 -0.62542915
1.2713858 3.4462421 -0.40942839
1.6851853 4.5678949 -0.2719543
14.414371 39.071861 0
12.178424 33.011063 1.9653474
1.4087086 3.8327272 -0.90459746
1.297748 3.5308323 -0.62714106
1.2698951 3.4550519 -0.41029245
1.6751835 4.5577354 -0.27122873
14.363558 39.079479 0
12.103567 32.930634 1.9596869
1.4075679 3.8439612 -0.90684688
1.2961296 3.5396316 -0.62842536
1.2648309 3.4541574 -0.41000444
1.6571648 4.5255914 -0.26919651
14.323486 39.116356 0
12.06109 32.937923 1.9592519
1.4290478 3.9172742 -0.92373449
1.2874503 3.5291302 -0.6262843
1.2597708 3.4532557 -0.40971643
1.6454642 4.51051 -0.26818094
14.269076 39.114075 0
12.029296 32.974438 1.9605579
1.4451402 3.9763029 -0.93724155
1.2831851 3.5306833 -0.6262843
1.2529459 3.4474802 -0.40885127
1.6337991 4.4953976 -0.26716483
14.216469 39.116608 0
22.820843 62.791538 3.7317481
1.4801244 4.0879407 -0.96313316
1.2719265 3.5129213 -0.62286055
1.24702 3.4441323 -0.40827522
1.6239438 4.4851542 -0.26643926
0 0 0
8.6545238 23.902845 1.4199414
1.5096695 4.1853328 -0.98564857
1.2720385 3.5265365 -0.62500161
1.2472447 3.4577994 -0.40971643
1.6149964 4.4773359 -0.26585871
0 0 0
8.6177015 23.891289 1.4186354
1.5226548 4.2373667 -0.99746859
1.2651713 3.5208211 -0.62371731
1.2465644 3.4690404 -0.4108696
1.6060704 4.4695029 -0.26527816
0 0 0
8.5800381 23.877226 1.4171836
1.5141082 4.2296348 -0.99521708
1.2652413 3.5344293 -0.6258567
1.2484748 3.4875925 -0.4128879
1.5962908 4.4592104 -0.26455259
0 0 0
8.547678 23.87779 1.4166031
1.5158242 4.2506075 -0.99972016
1.2601082 3.53354 -0.62542915
1.2477316 3.4988339 -0.41403997
1.5865383 4.4489007 -0.26382703
0 0 0
8.5153294 23.878311 1.4160225
1.510687 4.2524357 -0.99972016
1.2618539 3.551995 -0.62842536
1.2391746 3.4881551 -0.41259879
1.5811615 4.4508147 -0.26382703
9.810194 27.614735 0
8.4812536 23.873896 1.415152
1.264361 3.5865052 -0.6339885
1.2290233 3.4862654 -0.41202277
1.5686716 4.4497166 -0.26353648
9.62749 27.309481 0
8.4503136 23.970285 1.4196509
1.2634288 3.5977185 -0.6357004
1.2470902 3.5511932 -0.41951782
1.5624336 4.4491596 -0.26339146
1.624596 4.6261721 0
8.4187641 23.973129 1.4192159
1.2667087 3.621048 -0.6395517
1.2581697 3.5966382 -0.42470652
1.5519069 4.4363232 -0.26252037
9.0983076 26.008669 0
8.3760633 23.94404 1.4168936
1.2628268 3.6169608 -0.63869494
1.273048 3.6462362 -0.43047237
1.5535115 4.4495335 -0.26324648
9.0088224 25.80287 0
8.3607397 23.946646 1.4167486
1.2533977 3.603941 -0.63612795
1.2754383 3.6673155 -0.43277872
1.5472779 4.448946 -0.26310092
8.9280558 25.671171 0
8.3386269 23.976366 1.4179097
1.2482026 3.6030295 -0.6357004
1.2726979 3.673737 -0.43335474
1.5410514 4.448359 -0.26295593
8.7624369 25.293425 0
8.3173046 24.008518 1.4192159
1.2555699 3.6385036 -0.64169109
1.2758507 3.6972749 -0.43594909
1.536522 4.452672 -0.26310092
8.6384859 25.033382 0
8.2857456 24.011179 1.4187803
1.2511725 3.640018 -0.64169109
1.2671793 3.6865861 -0.43450791
1.5319879 4.4569898 -0.26324648
8.5304089 24.817394 0
8.2457466 23.989231 1.4168936
1.2767049 3.7289498 -0.65709627
1.2618868 3.6856699 -0.4342199
1.5215496 4.4440827 -0.26237535
8.4447794 24.665184 0
8.4212713 24.596521 1.4521605
1.2763436 3.742645 -0.65923733
1.2707901 3.7263606 -0.43883255
1.5170166 4.4483752 -0.26252037
3.1180842 9.1432142 0
8.3621931 24.520609 1.447081
1.2742949 3.7514696 -0.66052002
1.2804279 3.7695248 -0.44373325
1.5158216 4.4625139 -0.26324648
3.1011741 9.1297235 0
3.1219897 9.1910038 0.5421831
1.2689391 3.7505772 -0.66009247
1.265925 3.7416687 -0.44027376
1.5112604 4.4668012 -0.26339146
3.0909736 9.1359262 0
3.0908988 9.1357059 0.53870028
1.2734246 3.7788694 -0.66480052
1.2820516 3.8044696 -0.4474808
1.5025429 4.4587746 -0.26281092
3.0766079 9.1297903 0
3.0765388 9.1295843 0.53811973
1.2737571 3.7950025 -0.66736746
1.2889742 3.8403399 -0.45151633
1.4930209 4.4482722 -0.26208535
3.0680592 9.1409044 0
3.0721197 9.1530018 0.53928083
1.2756817 3.8160157 -0.67079121
1.2867938 3.849256 -0.45238149
1.4892911 4.4549971 -0.26237535
3.0545359 9.1371984 0
3.0643532 9.1665649 0.53986138
1.2621487 3.7907603 -0.66608316
1.5738229 4.7268481 -0.55529606
1.4781634 4.4395423 -0.26135981
3.0385618 9.1260719 0
3.0417812 9.1357412 0.53782916
1.560784 4.7066536 -0.55270171
1.4711607 4.436388 -0.26106924
3.0291693 9.1346722 0
3.0250175 9.1221523 0.53681362
1.553475 4.7036285 -0.55212569
1.4641708 4.4332323 -0.26077923
3.0230281 9.1531582 0
3.0091021 9.1109915 0.53594249
1.5445578 4.6956744 -0.55097252
1.4579988 4.4325228 -0.26063368
3.0135911 9.1617432 0
7.1037474 21.596397 1.2698748
1.53405 4.6827846 -0.5492422
1.4566889 4.4466348 -0.26135981
0 0 0
7.0687509 21.57781 1.2682786
0 0 -0
1.5315996 4.6944709 -0.55039537
1.4456725 4.4310975 -0.2603437
0 0 0
7.0507312 21.611032 1.2697297
0 0 -0
1.5235307 4.6889453 -0.54953134
1.4379077 4.4254246 -0.25990814
0 0 0
7.0214014 21.609652 1.2691492
1.5130847 4.676013 -0.54780102
1.4317602 4.4246888 -0.25976312
0 0 0
6.9928846 21.610701 1.2687136
1.5050558 4.6704593 -0.54693699
1.424021 4.4189939 -0.25932756
0 0 0
6.9667673 21.619135 1.2687136
1.5041519 4.6870465 -0.54866618
1.4155045 4.4108148 -0.25874701
2.9383459 9.1560993 0
6.9334946 21.605272 1.2674075
0 0 -0
1.4961245 4.6814671 -0.54780102
1.4085933 4.4075761 -0.25845701
2.9272804 9.1596432 0
6.8994751 21.588888 1.2659564
1.4865456 4.6709504 -0.54635984
1.4001145 4.3993707 -0.25787646
2.9248903 9.1904459 0
6.8426533 21.500648 1.2602963
1.4813739 4.6644497 -0.54549468
1.4006025 4.4101219 -0.25845701
2.9169731 9.1847677 0
6.7266331 21.180367 1.2412841
1.4710587 4.6514444 -0.54376549
1.397624 4.4192462 -0.25889257
2.9058731 9.1882849 0
6.5404186 20.680613 1.2115318
1.4662135 4.655683 -0.54405349
1.3875985 4.4060559 -0.25802144
2.8869526 9.1669712 0
6.4319134 20.423323 1.1960028
1.4613601 4.6599169 -0.5443415
1.3822736 4.4077296 -0.25802144
2.8735371 9.1630011 0
6.3893499 20.374062 1.192665
1.4603559 4.6764975 -0.54607183
1.3777205 4.4118743 -0.25816646
2.8764284 9.2111864 0
6.3352957 20.287518 1.18715
2.4415262 7.8518314 -0.91650844
1.3723886 4.4135361 -0.25816646
5.8440928 18.794321 0
6.2914896 20.23313 1.1835216
1.3701289 4.4251199 -0.25874701
5.8152242 18.78149 0
5.8036251 18.74403 1.0960069
0 0 -0
1.3632513 4.4218106 -0.25845701
5.7718234 18.721352 0
5.7763805 18.736134 1.0951363
0 0 -0
1.3579075 4.4234548 -0.25845701
5.7400331 18.698458 0
5.7407718 18.700865 1.0926685
1.3525616 4.4250922 -0.25845701
5.7075467 18.673027 0
5.7082982 18.675486 1.0907818
2.3155396 7.6084828 -0.44422606
5.6811919 18.667463 0
5.6789203 18.659998 1.0894758
0 0 -0
2.3063445 7.6112752 -0.44422606
5.6556129 18.664352 0
5.6548634 18.661879 1.0891857
0 0 -0
2.2963934 7.6115618 -0.4440805
5.6330566 18.671171 0
5.6338096 18.673668 1.0894758
2.5783093 8.5834846 -0.99895507
0 0 -0
5.6112399 18.680454 0
5.608252 18.670507 1.0888952
2.5671957 8.5841179 -0.99866706
0 0 -0
5.590157 18.692213 0
5.5871787 18.682253 1.0891857
2.5582991 8.5921764 -0.99924421
0 0 -0
5.5653386 18.691469 0
5.5646005 18.688992 1.0891857
0 0 -0
5.5427494 18.698179 0
5.5405364 18.690714 1.0888952
2.2415404 7.5953903 -0.44233882
5.5260453 18.724833 0
5.5076528 18.66251 1.0868635
2.5271366 8.6013937 -0.99924421
2.2323613 7.598093 -0.44233882
5.5078163 18.746473 0
5.4836349 18.664169 1.0865735
2.2239106 7.6032863 -0.44248438
5.4873533 18.760611 0
5.4574294 18.658304 1.0858474
2.2132676 7.6009731 -0.44219384
5.4668641 18.774725 0
5.4334292 18.659901 1.0855573
2.2033589 7.6011486 -0.44204882
5.4405527 18.768822 0
5.4116011 18.668945 1.0857024
2.1963346 7.6112976 -0.44248438
5.4250841 18.800381 0
5.3955226 18.697937 1.0870085
0 0 -0
2.1871364 7.613946 -0.44248438
5.4037991 18.81192 0
5.3729258 18.704443 1.0870085
2.1765046 7.6115818 -0.44219384
5.3832121 18.825945 0
5.3517513 18.715923 1.0872991
2.1673059 7.6142058 -0.44219384
5.3583226 18.824924 0
5.3298435 18.724873 1.0874441
2.1634145 7.618011 -0.44233882
5.3476615 18.830669 0
5.3171086 18.723085 1.0871536
2.154917 7.6231275 -0.44248438
5.3213654 18.824598 0
5.2937756 18.726997 1.0870085
2.1457043 7.6257257 -0.44248438
5.2880411 18.793432 0
5.2711439 18.733381 1.0870085
2.1385889 7.6358118 -0.44291937
5.2639265 18.794802 0
5.2492046 18.742235 1.0871536
2.1307578 7.6434011 -0.44320995
5.2461028 18.818689 0
5.2300453 18.761087 1.0878797
2.1229088 7.6509733 -0.44349995
5.2268391 18.837551 0
5.2094545 18.774897 1.0883147
2.1122806 7.6485281 -0.44320995
5.2089238 18.861416 0
5.1874585 18.783689 1.0884602
2.105104 7.6585937 -0.44364551
2.0506334 7.4604239 0
5.1668224 18.797453 1.0888952
2.099961 7.6761651 -0.44451606
2.0388706 7.4528556 0
5.1434207 18.80118 1.0887501
2.0913665 7.6812019 -0.44466105
0 0 0
5.1200175 18.804876 1.0886052
2.0782104 7.7063041 -0.44582218
2.0064201 7.4400954 0
5.0745583 18.817194 1.0886052
2.4716544 9.2095013 -0.53261137
1.9933826 7.4274378 0
5.0558577 18.838364 1.0894758
2.312655 8.6588402 -0.99895507
2.4591825 9.2074547 -0.53232086
1.9770188 7.4021807 0
5.0357738 18.854502 1.0900563
0 0 -0
1.9680734 7.4045639 0
5.0136547 18.863081 1.0902013
2.2910626 8.6619053 -0.99866706
2.4382546 9.2184 -0.53261137
1.9571278 7.3993864 0
4.9921889 18.874155 1.0904919
2.2779613 8.6546621 -0.99751389
2.4264507 9.2188196 -0.53246582
1.9448742 7.389164 0
4.9700403 18.882683 1.0906368
2.2694688 8.664917 -0.99837905
2.4133368 9.2142105 -0.53203082
1.9352857 7.3889937 0
4.9478784 18.891186 1.0907818
2.2576914 8.6626425 -0.9978019
2.4015441 9.2145987 -0.53188527
1.9243864 7.383769 0
4.9250484 18.89715 1.0907818
2.2478738 8.6678753 -0.99809104
2.3930175 9.2275543 -0.53246582
1.9161159 7.3886056 0
4.900908 18.898062 1.0904919
2.2354593 8.6630688 -0.99722588
2.3792691 9.2203751 -0.53188527
1.9052378 7.3833628 0
4.8800182 18.911522 1.0909274
2.2249901 8.6657639 -0.99722588
2.3700657 9.2307959 -0.53232086
1.895666 7.3831315 0
4.8558702 18.912365 1.0906368
2.2113171 8.6559181 -0.9957847
2.3563375 9.2235823 -0.53174031
1.8873895 7.3879457 0
4.8349447 18.925774 1.0910724
2.1995809 8.6535654 -0.99520755
2.3445513 9.2239075 -0.53159529
1.8758968 7.3801317 0
4.8178334 18.954266 1.0923785
2.1815133 8.6261263 -0.99174803
2.3353162 9.234293 -0.53203082
1.8701677 7.3950057 0
4.794291 18.957556 1.0922335
2.1704583 8.6262503 -0.99146003
2.3228874 9.2320633 -0.53174031
1.8593253 7.3896861 0
4.7732816 18.970888 1.0926685
2.1702831 8.6476297 -0.99376637
2.3154113 9.2259016 -0.53130472
1.8542275 7.3882861 0
4.7599235 18.966215 1.0922335
2.1585808 8.6452312 -0.99319035
2.3048933 9.2312212 -0.53145027
1.8465586 7.3955665 0
4.7388897 18.979507 1.0926685
2.1450136 8.6352749 -0.99174803
2.2918575 9.2264318 -0.53101474
1.8382504 7.4003253 0
4.7128215 18.972614 1.0919429
2.134578 8.6378613 -0.99174803
2.2813303 9.2317142 -0.5311597
1.8293072 7.4025412 0
4.6917644 18.985865 1.0923785
2.1173489 8.612812 -0.98857766
2.2707937 9.2369852 -0.53130472
1.8216027 7.4097958 0
4.6706815 18.999092 1.0928141
2.1100121 8.627924 -0.99001884
2.2590141 9.2372007 -0.5311597
1.8126481 7.4119916 0
4.6508074 19.01734 1.0935396
2.095305 8.6128731 -0.98800051
2.246624 9.2348785 -0.53086972
1.8104584 7.4419947 0
4.6278253 19.022945 1.0935396
2.082463 8.6053429 -0.98684734
2.2348533 9.2350636 -0.5307247
1.8069735 7.4669399 0
4.6054468 19.031046 1.0936847
2.0702493 8.600316 -0.98598331
2.2249079 9.2428045 -0.53101474
1.8022115 7.4868221 0
4.5824485 19.036596 1.0936847
2.0580485 8.5952625 -0.98511815
2.2125292 9.2404366 -0.5307247
1.7925584 7.4864659 0
4.5618634 19.052229 1.0942652
2.0446658 8.585165 -0.98367697
2.2013621 9.243104 -0.5307247
1.7835112 7.4886265 0
4.5346241 19.04003 1.0932491
2.0319059 8.5775623 -0.9825238
2.1925857 9.2558613 -0.53130472
1.7756623 7.4958453 0
1.7271913 7.2912288 0.41853094
2.0209477 8.5774956 -0.98223579
2.1831884 9.2660933 -0.53174031
1.7666037 7.4979854 0
1.7154012 7.2806668 0.41780537
2.0052714 8.5572691 -0.97964144
2.1755488 9.2839088 -0.53261137
1.756354 7.4950423 0
0 0 0
1.9955167 8.5622025 -0.97992945
2.1684563 9.3042383 -0.53362697
1.7478865 7.499691 0
0 0 0
1.9840002 8.5595636 -0.9793523
2.1572123 9.3068514 -0.53362697
4.4606681 19.244638 0
0 0 0
1.9753997 8.5695181 -0.98021746
2.1436305 9.2993231 -0.53304642
4.4403338 19.262693 0
1.6656009 7.2255735 0.41417703
1.9581084 8.541646 -0.97675794
2.1242652 9.2664528 -0.53101474
4.4188004 19.275656 0
1.6533842 7.2123795 0.41330591
1.9449122 8.5313988 -0.97531676
2.1072924 9.2436829 -0.52956361
4.3955064 19.280981 0
1.6435142 7.2093101 0.4130159
1.934031 8.5312223 -0.97502875
2.0961218 9.2462225 -0.52956361
4.375082 19.298967 0
1.6336519 7.2062178 0.41272536
1.9231529 8.5310326 -0.97474074
2.0826623 9.2386093 -0.52898306
4.3500423 19.296619 0
0 0 0
1.9105805 8.5232544 -0.97358757
2.0703599 9.236043 -0.52869248
4.3295708 19.314568 0
1.6133913 7.1974692 0.41199979
1.8974653 8.5129271 -0.97214526
2.0569372 9.2283936 -0.52811193
4.3050961 19.314699 0
1.6018673 7.1867347 0.41127425
1.8855003 8.5076456 -0.97128123
2.045785 9.2308722 -0.52811193
4.2873855 19.345291 0
1.5909334 7.1785173 0.41069368
1.8780016 8.5225439 -0.97272241
2.0346298 9.2333374 -0.52811193
4.2623286 19.34284 0
1.5811412 7.1753645 0.41040367
1.8689663 8.505991 -0.97070408
2.0273798 9.2269583 -0.52767694
4.2517576 19.350491 0
1.5768059 7.1763182 0.41040367
1.8575841 8.5031948 -0.97012806
2.0162292 9.2294016 -0.52767694
4.2289281 19.358154 0
1.5664693 7.1705999 0.40996814
1.8423682 8.482687 -0.96753371
2.0045228 9.2292843 -0.52753139
4.2082982 19.375973 0
1.5578039 7.1724877 0.40996814
1.8337533 8.4924841 -0.96839774
1.9933696 9.231699 -0.52753139
3.9201388 18.154961 0
1.5496842 7.1769023 0.41011313
1.8218635 8.4871149 -0.96753371
1.9811237 9.2290249 -0.52724135
3.9042063 18.187666 0
1.5399214 7.1736932 0.40982312
1.8078281 8.4716005 -0.96551538
1.9705125 9.2339506 -0.52738637
3.877882 18.172009 0
1.5328777 7.1831651 0.41025811
1.7970543 8.4712515 -0.96522737
1.9577355 9.2286968 -0.52695084
3.8575425 18.18432 0
1.5209627 7.1697655 0.40938756
1.7846824 8.4632931 -0.96407419
1.9471207 9.2336054 -0.52709639
3.835031 18.186424 0
1.514443 7.1817684 0.40996814
1.7744548 8.4654436 -0.96407419
1.9364948 9.238492 -0.52724135
3.8141203 18.196135 0
1.5041643 7.175961 0.40953258
1.7594771 8.4447947 -0.96147984
1.9253305 9.2408257 -0.52724135
3.7916007 18.198185 0
1.494963 7.1752319 0.40938756
1.7466478 8.4342432 -0.96003753
1.9120556 9.2329674 -0.5266608
3.7711928 18.210402 0
1.4883997 7.1872106 0.40996814
1.7395852 8.4515533 -0.96176785
1.9019446 9.2403564 -0.52695084
3.7512851 18.225142 0
1.4807611 7.1940894 0.41025811
1.7247069 8.4308453 -0.9591735
1.8913004 9.2452011 -0.52709639
3.7313471 18.239859 0
1.47311 7.2009697 0.41054869
1.7134869 8.4278488 -0.95859635
1.8785744 9.2398376 -0.5266608
3.709305 18.244354 0
1.4649251 7.2052884 0.41069368
1.7022787 8.4248476 -0.95802033
1.869467 9.2522888 -0.52724135
3.6872575 18.248823 0
1.4593066 7.2223396 0.4115648
1.6905696 8.4192886 -0.95715517
1.8562399 9.2443504 -0.5266608
3.6662285 18.258364 0
1.452112 7.2317333 0.41199979
1.6793841 8.4162569 -0.95657915
1.8455765 9.2491322 -0.52680582
3.6456923 18.270439 0
1.4428648 7.230937 0.4118548
1.6631767 8.3878345 -0.95311964
1.8333895 9.2462626 -0.52651584
3.624625 18.279932 0
1.4376647 7.2505193 0.41287091
1.6530404 8.3898382 -0.95311964
1.8222159 9.2484713 -0.52651584
3.603039 18.286858 0
1.4299065 7.2573452 0.41316092
1.6429017 8.3918295 -0.95311964
1.8110397 9.2506666 -0.52651584
3.5819395 18.296301 0
3.5846939 18.310371 1.0421628
1.6307851 8.3836527 -0.95196646
1.7983718 9.2451935 -0.52608025
3.5628099 18.315939 0
3.5615754 18.309593 1.0418727
1.6182004 8.3729219 -0.95052528
1.7901568 9.2626629 -0.52695084
3.5396893 18.315125 0
3.5424068 18.329185 1.0427433
1.609544 8.3824844 -0.95138931
1.7765141 9.2520618 -0.52622527
3.5195196 18.329613 0
3.5197675 18.330904 1.0425984
1.5904834 8.3650599 -0.94908297
1.7621685 9.2680283 -0.52695084
3.4887223 18.348742 0
3.4875076 18.342354 1.0428883
1.5798951 8.3644371 -0.94879496
1.7485577 9.2573862 -0.52622527
3.4665487 18.352943 0
3.466789 18.354216 1.0433239
1.5669262 8.3510914 -0.94706577
1.7373706 9.2594919 -0.52622527
3.4453311 18.36224 0
3.4417348 18.343073 1.0424533
1.5554123 8.3453484 -0.94620061
1.7271342 9.2666988 -0.52651584
3.4221869 18.361267 0
3.4219484 18.359989 1.0431789
1.544857 8.3446808 -0.9459126
1.7135695 9.2559958 -0.52578968
3.3981032 18.355154 0
3.3969223 18.348774 1.0423077
1.5361767 8.3541756 -0.94677776
1.703325 9.263176 -0.52608025
3.6107695 19.636414 0
3.5880864 19.513056 1.108198
1.522828 8.338212 -0.94475943
1.6911964 9.2601099 -0.52578968
3.5842354 19.625406 0
3.5617039 19.502035 1.1073269
1.0658165 5.8760195 -0.9956007
1.5122906 8.3375034 -0.94447142
1.6818612 9.2723742 -0.52637029
3.5623775 19.639965 0
3.5386021 19.508888 1.1074724
1.0559859 5.8621492 -0.99303371
1.5031314 8.3444109 -0.94504744
1.6697357 9.26929 -0.52608025
3.5400264 19.651932 0
3.5164075 19.520815 1.1079074
1.044834 5.8406811 -0.98918241
1.4912258 8.3360367 -0.94389427
1.6567039 9.2610693 -0.5254997
3.5176537 19.663883 0
3.4951069 19.537846 1.1086336
1.0382245 5.8444643 -0.98961002
1.4829619 8.3480196 -0.94504744
1.3896542 7.8227634 -0.4437905
3.4961667 19.680929 0
3.4719508 19.544611 1.1087786
1.0284871 5.8305511 -0.98704302
1.4665843 8.3141499 -0.94101191
1.3792973 7.819314 -0.44349995
3.4710286 19.677458 0
3.4469779 19.541113 1.108343
1.0205545 5.8267274 -0.98618627
1.4574289 8.3210058 -0.94158792
1.3725388 7.8363366 -0.44437107
3.4499428 19.697012 0
3.4265022 19.563181 1.1093591
1.0113146 5.8153133 -0.98404682
1.4442728 8.3049307 -0.93957072
1.3599522 7.8200669 -0.44335493
3.4256947 19.698605 0
3.4033062 19.569866 1.1095041
1.0034145 5.8114767 -0.98319173
1.4298352 8.2811775 -0.93668723
1.3553659 7.8498731 -0.44495162
3.402775 19.707855 0
3.3787723 19.568838 1.1092136
0.99639177 5.812685 -0.98319173
1.4158955 8.2599573 -0.93409288
1.3436852 7.8387017 -0.44422606
3.3798399 19.717087 0
3.3542476 19.567789 1.1089236
0.9880752 5.8062901 -0.98190743
1.4002734 8.2285175 -0.93034536
1.3376983 7.8608031 -0.44538662
3.3538306 19.70833 0
3.3349595 19.597439 1.1103747
0.98063153 5.8049507 -0.98147982
1.3722358 8.1230936 -0.91823763
1.3273343 7.8572941 -0.44509661
3.3313136 19.72006 0
3.3125763 19.609142 1.1108103
0.97234261 5.7985339 -0.98019552
1.3512989 8.0584278 -0.91074258
1.3156911 7.8460813 -0.44437107
3.3104966 19.742039 0
3.2901697 19.620821 1.1112459
0.96702147 5.8098335 -0.98190743
1.3381636 8.0396433 -0.90843624
1.3053555 7.8425341 -0.4440805
2.5760834 15.477026 0
3.2643266 19.611969 1.1105202
0.958745 5.8033972 -0.98062307
1.3271831 8.033597 -0.90757114
1.2958785 7.8441057 -0.4440805
2.5582283 15.485257 0
2.5553844 15.468043 0.8756966
0.95214701 5.8070822 -0.98105067
1.3195689 8.0479641 -0.90901339
1.2880812 7.8559227 -0.44466105
2.5294092 15.426701 0
2.5383739 15.481377 0.87627715
0.94389391 5.8006344 -0.97976798
1.3110886 8.0572033 -0.90987742
1.2785879 7.8574734 -0.44466105
2.4978108 15.350122 0
2.5063112 15.402362 0.8716327
0.93606502 5.7966971 -0.97891122
1.3034133 8.0715466 -0.91131866
1.1295029 6.9945855 -0.39575198
2.4746971 15.324865 0
2.4827278 15.374596 0.86989099
0.92743546 5.7876854 -0.97719938
1.2948875 8.08078 -0.91218376
1.1231059 7.0087714 -0.39647755
2.4545329 15.317575 0
2.4563384 15.328843 0.8671338
0.91802359 5.7735953 -0.97463238
1.2899965 8.1129913 -0.91564327
0 0 -0
2.4360228 15.320531 0
2.437407 15.329237 0.86698878
0.91064703 5.7721667 -0.97420484
1.2834171 8.1349831 -0.91794962
1.0875388 6.8934016 -0.38980141
2.4146698 15.305466 0
2.4180722 15.327032 0.86669821
0.90516585 5.7600288 -0.97206372
1.2809105 8.151083 -0.91967881
1.0607859 6.7503181 -0.38167414
2.4042099 15.299206 0
2.4088118 15.32849 0.86669821
0.89583337 5.7459049 -0.96949679
1.2738501 8.170516 -0.92169714
1.0758429 6.9004912 -0.39009142
1.9559722 12.54567 0
2.3922896 15.344224 0.86742377
0.88928193 5.7495174 -0.96992433
1.2659531 8.1848278 -0.92313832
1.0631363 6.8735466 -0.3884953
1.939618 12.540305 0
2.3737473 15.347104 0.86742377
0.88194519 5.7480531 -0.96949679
1.2572396 8.1940231 -0.92400348
1.0410371 6.7849298 -0.38341528
1.9189391 12.506632 0
2.3575668 15.365376 0.86829489
0.87499917 5.7491145 -0.96949679
1.0780557 7.083282 -0.79860264
1.0297117 6.7656417 -0.38225472
1.9049995 12.516652 0
2.3393898 15.37078 0.86843991
0.86690187 5.7425499 -0.96821243
1.0691104 7.0820241 -0.79831463
1.021147 6.7643042 -0.38210917
1.8925939 12.536961 0
2.321203 15.376163 0.86858487
0.85844207 5.7334385 -0.96650058
1.0594031 7.0756345 -0.79744947
1.0079714 6.7321281 -0.38022247
1.8724346 12.505781 0
2.3033924 15.3841 0.86887544
0.85189182 5.7370181 -0.96692979
1.0504732 7.0743537 -0.79716146
1.0036535 6.7590489 -0.38167414
1.8588514 12.518332 0
2.2855647 15.392008 0.86916542
0.84346318 5.7278843 -0.96521789
1.0419245 7.0756178 -0.79716146
0.98867112 6.7139783 -0.37906137
1.8357625 12.466501 0
2.2677226 15.399904 0.86945599
0.83654153 5.7288995 -0.96521789
1.0322528 7.069191 -0.79629636
0.98205966 6.7254529 -0.37964192
1.129585 7.7357531 0
2.2498634 15.407771 0.86974597
0.82814729 5.7197437 -0.96350604
1.0248225 7.078115 -0.79716146
0.97802866 6.7549253 -0.38123861
1.1142703 7.6959023 0
2.2323618 15.418196 0.87018156
0.82232881 5.7283559 -0.96478873
1.0170035 7.0844636 -0.79773754
0.97060364 6.761241 -0.38152859
1.1012732 7.6714869 0
2.2140992 15.423451 0.87032658
0.81359839 5.7166405 -0.96264929
1.0091722 7.0908136 -0.79831463
0.95950431 6.7418289 -0.38036749
1.0975037 7.7114625 0
2.1950955 15.423545 0.87018156
0.80633211 5.7150798 -0.96222174
1.0016866 7.0997038 -0.79917872
0.95462561 6.7661471 -0.38167414
1.0816399 7.6663923 0
2.1764576 15.426187 0.87018156
0.79871553 5.7109704 -0.96136659
0.99454027 7.111155 -0.80033189
0.94788897 6.7775893 -0.38225472
1.0759811 7.6934729 0
2.1549373 15.408217 0.86902046
0.79075652 5.7043004 -0.96008229
0.98239625 7.0867367 -0.79744947
0.93898463 6.7735772 -0.38196415
1.0641825 7.6767201 0
1.3000292 9.3780527 0.52883136
0.78421247 5.7077923 -0.96050984
0.96960789 7.0571694 -0.79399002
0 0 -0
1.053135 7.6651115 0
1.2869272 9.3667383 0.52810526
0.77592981 5.6985617 -0.95879799
0.95863825 7.0404038 -0.79197276
0 0 -0
1.0456277 7.6792693 0
1.274206 9.3579874 0.52752471
0.77110392 5.7147636 -0.96136659
0.94736367 7.0210509 -0.78966641
0 0 -0
1.0360004 7.6779504 0
1.2611609 9.3466473 0.52679914
0.7618165 5.6978779 -0.95837045
0.93305272 6.9786105 -0.78476572
0.90554756 6.7728906 -0.38167414
1.0270669 7.6817737 0
0 0 0
0.75459439 5.6962519 -0.9579429
0.92020434 6.9464021 -0.7810182
0.8939501 6.7482152 -0.38022247
1.0153915 7.664947 0
1.2324283 9.3033056 0.52418691
0.74737597 5.6946068 -0.95751369
0.90676141 6.909039 -0.77669352
0.88444304 6.7389851 -0.37964192
