# .PCD v0.7 - Point Cloud Data file format
VERSION 0.7
FIELDS x y z
SIZE 4 4 4
TYPE F F F
COUNT 1 1 1
WIDTH 1523
HEIGHT 1
VIEWPOINT 0 0 0 1 0 0 0
POINTS 1523
DATA ascii
-2.6303947 20.721033 1.1666861
-0.53532743 4.1967654 -0.93724155
-0.69165099 5.4222832 -0.91129649
-0.97301519 7.6280723 -0.85712296
-1.1315737 8.8711109 -0.49952129
-1.1452796 8.9785604 0
-2.6402826 20.69882 1.165525
-0.54591507 4.2389545 -0.94681007
-0.70016897 5.4367146 -0.91386348
-0.98355299 7.6371522 -0.85827613
-1.1426234 8.8723125 -0.49966627
-1.1564597 8.9797487 0
-2.6616414 20.667274 1.1639287
-0.46674946 3.589998 -0.99880606
-0.55005479 4.2307396 -0.94512302
-0.70442188 5.4180527 -0.91086894
-0.9921127 7.6308236 -0.85769904
-1.1540124 8.8760738 -0.49995628
-1.1673092 8.9783449 0
-2.681586 20.625389 1.1617515
-0.47010726 3.5819669 -0.9967289
-0.5538438 4.219995 -0.94287151
-0.7096318 5.4070163 -0.9091571
-1.0020062 7.6347532 -0.85827613
-1.1654135 8.8798304 -0.50024682
-1.1784965 8.979516 0
-2.6980531 20.557728 1.1581233
-0.47410586 3.5789115 -0.99603742
-0.55727309 4.2067208 -0.94005543
-0.71683824 5.4112396 -0.91001219
-1.0085132 7.6130242 -0.85596979
-1.1764832 8.8809891 -0.50039184
-1.1886615 8.9729204 0
-2.7068536 20.43339 1.1513021
-0.47876209 3.5808203 -0.9967289
-0.5640403 4.2186441 -0.94287151
-0.72133559 5.3951082 -0.90744519
-1.0177113 7.6118002 -0.85596979
-1.1879026 8.884717 -0.50068241
-1.1988134 8.9663229 0
-2.7112257 20.278154 1.1427393
-0.48409519 3.5877004 -0.99880606
-0.57253432 4.2431355 -0.94849926
-0.72648096 5.3840566 -0.90573335
-1.0262169 7.605443 -0.85539377
-1.1979415 8.8781204 -0.50039184
-1.2110387 8.9751844 0
-2.7280824 20.218218 1.1395465
-0.48741412 3.5796528 -0.9967289
-0.57423341 4.2172689 -0.94287151
-0.73298597 5.3831749 -0.90573335
-1.0354058 7.6041975 -0.85539377
-1.2111225 8.8946915 -0.50140792
-1.2208289 8.9659758 0
-2.7469008 20.17371 1.1372242
-0.49003199 3.5666366 -0.99326879
-0.58001983 4.2216015 -0.94399619
-0.73704374 5.3644805 -0.90273714
-1.0424802 7.5875616 -0.85366344
-1.2218691 8.8932219 -0.50140792
-1.2323694 8.9696465 0
-2.7680919 20.147211 1.1359181
-0.49571916 3.5759819 -0.99603742
-0.58791155 4.2410321 -0.94849926
-0.74246728 5.3559551 -0.90145284
-1.0527133 7.5939846 -0.85452861
-1.2336833 8.8994532 -0.50184298
-1.2421355 8.9604244 0
-2.7902939 20.128414 1.1350476
-0.50177675 3.5878007 -0.99949753
-0.59197938 4.2327671 -0.94681007
-0.74822795 5.3499746 -0.90059775
-1.0604554 7.5824609 -0.85337543
-1.2440761 8.8953848 -0.50169796
-1.2551236 8.9743767 0
-2.8077745 20.07613 1.1322898
-0.50225723 3.5598733 -0.99188578
-0.59389901 4.2094073 -0.94174463
-0.75505006 5.3516059 -0.9010253
-1.0696166 7.5811744 -0.85337543
-1.2559129 8.9015961 -0.50213349
-1.2674208 8.983161 0
-2.8284011 20.046999 1.1308386
-0.51009244 3.5840964 -0.99880606
-0.59898484 4.2086868 -0.94174463
-0.76115453 5.3481507 -0.90059775
-1.0780466 7.5747499 -0.85279834
-1.2670337 8.9026423 -0.50227851
-1.2793747 8.9893551 0
-2.8478625 20.010126 1.128952
-0.51442277 3.5834775 -0.99880606
-0.60443044 4.2104726 -0.942307
-0.76579267 5.3345242 -0.8984583
-1.0894042 7.5888081 -0.85452861
-1.2800059 8.9165421 -0.50314963
-1.2906052 8.9903765 0
-2.8679769 19.978374 1.1273553
-0.51300049 3.5431273 -0.98773146
-0.61352295 4.2374029 -0.94849926
-0.77187037 5.3310571 -0.89803076
-1.0974609 7.5798044 -0.85366344
-1.2926402 8.927845 -0.5038752
-1.3040781 9.0068426 0
-2.8865294 19.936317 1.1251781
-0.52054477 3.5648539 -0.99396294
-0.61644047 4.2215781 -0.94512302
-0.77905244 5.335196 -0.89888585
-1.1062454 7.5759158 -0.85337543
-1.304177 8.9314137 -0.50416517
-1.3183441 9.0284348 0
-2.9053609 19.896824 1.1231464
-0.52338982 3.5542943 -0.99119425
-0.62191081 4.2233415 -0.94568539
-0.78288019 5.3164706 -0.8958897
-1.1153986 7.574574 -0.85337543
-1.3161039 8.9375467 -0.50460076
-1.3315264 9.0422783 0
-2.9259934 19.870165 1.1218404
-0.52805227 3.5561385 -0.99188578
-0.62514776 4.2100224 -0.94287151
-0.79005837 5.3206038 -0.89674646
-1.1234101 7.5655427 -0.85251027
-1.3299556 8.9565115 -0.50576186
-1.3481854 9.0792799 0
-2.9442754 19.828058 1.1196631
-0.52974802 3.5381277 -0.98703998
-0.6313619 4.2167954 -0.9445585
-0.79648668 5.3196454 -0.89674646
-1.1306362 7.5513926 -0.85106909
-1.3415456 8.9600325 -0.50605184
-1.3969185 9.3298626 0
-2.9624612 19.785946 1.1174864
-0.53514659 3.5449293 -0.98911715
-0.63949084 4.2361293 -0.94906157
-0.80291384 5.3186789 -0.89674646
-1.1420755 7.565361 -0.85279834
-1.354699 8.9738264 -0.50692296
-1.4217863 9.4182272 0
-2.9817119 19.75152 1.1157447
-0.45503068 2.9897439 -0.99716371
-0.54169369 3.5591567 -0.99326879
-0.64346308 4.2278247 -0.94737458
-0.81011164 5.3227758 -0.89760154
-1.1473249 7.5384097 -0.84991592
-1.3698407 9.000433 -0.50851911
-1.4374732 9.4448061 0
-3.0012746 19.719643 1.114148
-0.54180968 3.5312295 -0.98565698
-0.64895612 4.2295532 -0.94793689
-0.81459635 5.3091087 -0.8954621
-1.1587871 7.5523624 -0.85164624
-1.3901728 9.0604124 -0.51200241
-1.4469112 9.4302034 0
-3.018007 19.669775 1.1115358
-0.54377455 3.5156918 -0.98150265
-0.65134716 4.2111864 -0.94399619
-0.82218832 5.3157334 -0.89674646
-1.165934 7.5381689 -0.85020399
-1.418594 9.1717043 -0.51838803
-1.4579058 9.425869 0
-3.0366089 19.632734 1.1096492
-0.55072778 3.5323861 -0.98634845
-0.66074103 4.2380147 -0.95018846
-0.82940084 5.3198042 -0.89760154
-1.1742454 7.5316482 -0.84962791
-1.4528909 9.3188896 -0.52680582
-1.4692941 9.4240999 0
-3.0551257 19.595676 1.1077625
-0.55382681 3.5242808 -0.98427135
-0.66625547 4.2397208 -0.95075077
-0.83463383 5.3111978 -0.89631885
-1.181739 7.5200033 -0.84847474
-1.4730237 9.3735952 -0.5299986
-1.4802766 9.4197493 0
-3.0707333 19.540632 1.1048597
-0.5571292 3.5313821 -0.98634845
-0.66762847 4.2317858 -0.94906157
-0.84344232 5.3461876 -0.9023096
-1.1874915 7.5269551 -0.8493399
-1.4807123 9.3855448 -0.5307247
-1.4855621 9.4162855 0
-3.0756547 19.495142 1.1023924
-0.56139576 3.5307064 -0.98634845
-0.6771307 4.2585816 -0.95525384
-0.84546691 5.3172746 -0.89760154
-1.1969913 7.5280666 -0.84962791
-1.4904196 9.3734837 -0.53014416
-1.4957123 9.4067707 0
-1.7503062 11.007952 0.62258619
-0.56764591 3.5424089 -0.98980862
-0.6806677 4.2477245 -0.95300233
-0.85270429 5.3213234 -0.8984583
-1.2048585 7.5189509 -0.84876275
-1.499277 9.3562775 -0.52927303
-1.5062547 9.3998213 0
-1.7619613 10.995566 0.62200558
-0.57152623 3.5392461 -0.98911715
-0.68255925 4.2268319 -0.94849926
-0.85954231 5.3228211 -0.89888585
-1.2131189 7.5123878 -0.84818673
-1.5097535 9.3493328 -0.52898306
-1.5180259 9.4005613 0
-1.776903 11.00369 0.62258619
-0.57701147 3.545984 -0.99119425
-0.69133854 4.2485728 -0.95356464
-0.86762244 5.3319135 -0.90059775
-1.218872 7.4904928 -0.84588039
-1.5210491 9.3475018 -0.52898306
-1.528966 9.3961544 0
-1.7901975 11.001534 0.62258619
-0.5849486 3.5675633 -0.99742305
-0.69277185 4.2251701 -0.94849926
-0.87447935 5.3333921 -0.9010253
-1.230014 7.5017743 -0.84732157
-1.5302393 9.3328285 -0.52825695
-1.5411596 9.3994312 0
-1.8034894 10.999364 0.62258619
-0.58067203 3.5148766 -0.98288834
-0.69911951 4.231853 -0.95018846
-0.88259673 5.3424625 -0.90273714
-1.2344397 7.4722095 -0.84415013
-1.5398226 9.3207283 -0.52767694
-1.5516683 9.3924322 0
-1.8155093 10.989492 0.62215114
-0.58285952 3.5018013 -0.97942817
-0.70423234 4.2310052 -0.95018846
-0.88778657 5.3337932 -0.90145284
-1.2443177 7.4758201 -0.84472722
-1.5498034 9.3111687 -0.52724135
-1.561307 9.3802814 0
-1.8300654 10.994973 0.62258619
-0.59414321 3.5431538 -0.99119425
-0.70850295 4.2251344 -0.94906157
-0.89635473 5.3453822 -0.9035939
-1.2537771 7.4768596 -0.84501523
-1.5593342 9.2990389 -0.5266608
-1.5752215 9.3937826 0
-1.8446388 11.000444 0.62302172
-0.59842396 3.5424333 -0.99119425
-0.71318483 4.2217722 -0.94849926
-0.90324008 5.3468242 -0.90402144
-1.2615176 7.4676857 -0.84415013
-1.5710014 9.2997074 -0.52680582
-1.5861379 9.3893089 0
-1.869616 11.067388 0.62694061
-0.60017782 3.5268636 -0.98703998
-0.71871138 4.2234101 -0.94906157
-0.90970004 5.3457289 -0.90402144
-1.2727108 7.4789124 -0.84559238
-1.580929 9.2901154 -0.52637029
-1.5961716 9.3796864 0
-1.8829875 11.065121 0.62694061
-0.60016209 3.4759591 -0.97319674
-0.72761989 4.2141566 -0.94737458
-0.92436296 5.3536334 -0.90573335
-1.2876997 7.4579711 -0.84357405
-1.60426 9.2913933 -0.5266608
-1.6206052 9.3860598 0
-3.2700195 18.938972 1.0735112
-0.60866088 3.4999528 -0.98011971
-0.73183984 4.2082629 -0.9462477
-0.93170995 5.3575659 -0.90658844
-1.2958231 7.4513083 -0.84299695
-1.6137049 9.2792082 -0.52608025
-1.635067 9.4020452 0
-3.2844436 18.886375 1.0707541
-0.5230211 2.9861228 -0.99960625
-0.61418831 3.5066307 -0.98219681
-0.73692417 4.2073755 -0.9462477
-0.93818283 5.3564363 -0.90658844
-1.3048257 7.4497371 -0.84299695
-1.6249158 9.2772512 -0.52608025
-1.6468749 9.4026241 0
-3.3014343 18.849121 1.0688673
-0.52491146 2.9757526 -0.99634641
-0.61886036 3.5083542 -0.98288834
-0.74465489 4.2214909 -0.94962394
-0.94510156 5.3578343 -0.90701765
-1.3138262 7.4481549 -0.84299695
-1.6379299 9.2855167 -0.5266608
-1.6604949 9.4134398 0
-3.3192415 18.816969 1.0672706
-0.61871028 3.4828982 -0.97596538
-0.74708956 4.2055821 -0.9462477
-0.95157474 5.356688 -0.90701765
-1.3223729 7.4440179 -0.84270889
-1.6514204 9.2963209 -0.52738637
-1.671868 9.4114265 0
-3.3360679 18.779688 1.065384
-0.62821954 3.5117829 -0.98427135
-0.75038093 4.1946716 -0.94399619
-0.95985305 5.3656325 -0.90872788
-1.3290898 7.4296865 -0.8412677
-1.663568 9.2994394 -0.52767694
-1.6846139 9.4170866 0
-3.3541822 18.750069 1.0639329
-0.63068336 3.5011451 -0.98150265
-0.75950253 4.2162657 -0.94906157
-0.96815604 5.3745747 -0.91043973
-1.3389823 7.4331613 -0.84184378
-1.6761841 9.3050871 -0.52811193
-1.6996825 9.4355345 0
-3.3731503 18.725544 1.0627718
-0.63446605 3.4979143 -0.98081118
-0.76278257 4.2053442 -0.94681007
-0.97144371 5.3557272 -0.90744519
-1.3456552 7.4188156 -0.8404026
-1.6888179 9.3107271 -0.52854747
-1.7101524 9.4283476 0
-3.3878908 18.677992 1.0603045
-0.64139563 3.5119481 -0.98496282
-0.76649517 4.196928 -0.94512302
-0.98252547 5.3797975 -0.91172403
-1.3555487 7.4222779 -0.8409797
-1.7033352 9.3265753 -0.52956361
-1.7248168 9.4441986 0
-3.4067223 18.653437 1.0591434
-0.64700019 3.5185752 -0.98703998
-0.77156579 4.1959987 -0.94512302
-0.98670441 5.3659854 -0.90958464
-1.3635796 7.4155421 -0.8404026
-1.7174219 9.339839 -0.53043419
-1.7376395 9.4497881 0
-3.4222095 18.61097 1.0569662
-0.64211744 3.4684539 -0.97319674
-0.77940959 4.2100492 -0.94849926
-0.99318743 5.364789 -0.90958464
-1.3711277 7.4062667 -0.83953851
-1.7310706 9.3505297 -0.5311597
-1.7533197 9.4707108 0
-3.4385459 18.573608 1.0550795
-0.64860761 3.4800138 -0.97665954
-0.78589314 4.2166004 -0.95018846
-0.99919909 5.361064 -0.9091571
-1.3814961 7.4122252 -0.8404026
-1.7437965 9.3560972 -0.53159529
-1.7700077 9.4967308 0
-3.4486082 18.503029 1.0513061
-0.65789986 3.5063438 -0.98427135
-0.79051763 4.2131433 -0.94962394
-1.0061491 5.3623734 -0.90958464
-1.3880669 7.3978424 -0.83896136
-1.7589337 9.3744144 -0.53275639
-3.457329 18.426184 0
-3.4599431 18.440115 1.0479684
-0.65584129 3.4837589 -0.97804254
-0.79447353 4.2201586 -0.95131314
-1.0112883 5.3718553 -0.91129649
-1.393494 7.402091 -0.83953851
-1.7679607 9.3912182 -0.53377193
-3.4824212 18.498249 0
-3.4633913 18.397165 1.0456461
-0.65864849 3.4755669 -0.97596538
-0.79578739 4.1992235 -0.94681007
-1.0187335 5.375669 -0.91215163
-1.4029181 7.4029408 -0.83982652
-1.784146 9.4146099 -0.5352236
-3.5163999 18.555395 0
-3.4798124 18.362329 1.0439044
-0.56296843 2.951184 -0.99064398
-0.66942978 3.5092738 -0.98565698
-0.80609852 4.2257161 -0.95300233
-1.0261911 5.3794823 -0.91300839
-1.4104077 7.3936157 -0.83896136
-1.7984408 9.4277573 -0.53609419
-3.5412557 18.563913 0
-3.500536 18.350452 1.0434688
-0.66799265 3.4788971 -0.97735101
-0.80880868 4.212265 -0.95018846
-1.033174 5.3807569 -0.91343594
-1.4198276 7.394444 -0.83924943
-1.8181604 9.468956 -0.5385614
-3.5460191 18.467621 0
-3.5178075 18.320696 1.0420178
-0.66838735 3.4583821 -0.97181374
-0.81245089 4.2037983 -0.94849926
-1.0387015 5.3744688 -0.91258079
-1.4287614 7.3927226 -0.83924943
-1.8271356 9.4539976 -0.53783584
-2.5219464 13.049101 0
-3.53649 18.298571 1.0410017
-0.67543888 3.4723427 -0.97596538
-0.82238042 4.2277498 -0.95412701
-1.0471554 5.3832889 -0.91429269
-1.4367062 7.3859181 -0.83867335
-2.1575654 11.091761 -0.63115567
-2.5332382 13.023046 0
-2.5350931 13.032581 0.74159437
-0.68059897 3.4764528 -0.97735101
-0.82456011 4.2117968 -0.95075077
-1.0521792 5.3744597 -0.91300839
-1.4456295 7.3841767 -0.83867335
-2.1644764 11.055998 -0.629269
-2.5459731 13.004656 0
-2.5488417 13.019308 0.74101382
-0.68237466 3.4633231 -0.9738909
-0.8271932 4.1983347 -0.94793689
-1.0566875 5.3631096 -0.91129649
-1.4550503 7.3849597 -0.83896136
-2.1753228 11.040629 -0.62854344
-2.5581625 12.983693 0
-2.5630655 13.008578 0.74057883
-0.68851072 3.4723396 -0.97665954
-0.82979494 4.1848726 -0.94512302
-1.0641646 5.3668604 -0.91215163
-1.4639726 7.3831964 -0.83896136
-2.5631375 12.926573 -0.73608607
-2.5692937 12.957621 0
-2.574234 12.982534 0.73927271
-0.68877846 3.451823 -0.97112226
-0.8368398 4.1938343 -0.94737458
-1.0686393 5.3555007 -0.91043973
-1.4718814 7.3763537 -0.83838534
-2.5782471 12.920921 -0.73594105
-2.5803657 12.93154 0
-2.5843253 12.951382 0.73767602
-0.59536177 2.9649901 -0.99716371
-0.6919601 3.446064 -0.96973658
-0.83990568 4.1828551 -0.94512302
-1.0756164 5.3567295 -0.91086894
-1.4782457 7.3618836 -0.83694309
-2.5923223 12.910151 -0.73550552
-2.5898409 12.897793 0
-2.5969043 12.932969 0.7368055
-0.69661987 3.4476821 -0.97042811
-0.84697217 4.1917996 -0.94737458
-1.0810704 5.350389 -0.91001219
-1.4861165 7.3550262 -0.83636701
-2.6058614 12.896821 -0.73492497
-2.6033618 12.884451 0
-2.6089265 12.911991 0.73578936
-0.59907776 2.9465859 -0.99145818
-0.70278454 3.456672 -0.97319674
-0.85203654 4.190773 -0.94737458
-1.0839558 5.3314767 -0.90701765
-1.4960321 7.3582897 -0.83694309
-2.6229963 12.901305 -0.7353605
-2.6194482 12.883853 0
-2.6193502 12.88337 0.73433828
-0.70444721 3.4435332 -0.96973658
-0.85455191 4.1772866 -0.9445585
-1.0919391 5.3377008 -0.90830034
-1.5049222 7.3564763 -0.83694309
-2.6422291 12.915949 -0.73637664
-2.6334486 12.873027 0
-2.6359558 12.885283 0.73462826
-0.61117864 2.9693336 -0.99960625
-0.70810223 3.4402246 -0.9690451
-0.85754973 4.166296 -0.942307
-1.0968367 5.3288417 -0.90701765
-1.512768 7.3495908 -0.83636701
-2.6588802 12.917831 -0.73666662
-2.6516242 12.882579 0
-2.6530952 12.889726 0.73506379
-0.61125898 2.9516582 -0.99390388
-0.71785527 3.4663918 -0.97665954
-0.86619055 4.1826758 -0.9462477
-1.1043149 5.3325353 -0.90787274
-1.5226954 7.3528185 -0.83694309
-2.6776497 12.929881 -0.73753774
-2.6735213 12.909946 0
-2.6702473 12.894136 0.73549885
-0.60978276 2.9267163 -0.98575264
-0.71846068 3.4483275 -0.97181374
-0.87383473 4.1940613 -0.94906157
-1.1055224 5.3060708 -0.9035939
-1.5305247 7.3459139 -0.83636701
-2.6980405 12.949529 -0.73884386
-2.6880558 12.901606 0
-2.688477 12.903627 0.73622495
-0.73034751 3.4842904 -0.98219681
-0.87525439 4.1756015 -0.94512302
-1.1150918 5.3198009 -0.90616089
-1.5425824 7.3592429 -0.83809626
-2.7094209 12.925914 -0.73768276
-2.7073808 12.916181 0
-2.7067313 12.913083 0.73695052
-0.6219545 2.9494231 -0.99390388
-0.72420412 3.4343095 -0.96835363
-0.87924957 4.1695638 -0.94399619
-1.1241667 5.3310065 -0.90830034
-1.5498739 7.3497887 -0.83723217
-2.7314711 12.95314 -0.73942441
-2.7240605 12.917998 0
-2.7250125 12.922513 0.73767602
-0.62705505 2.9559157 -0.99634641
-0.72887337 3.4358838 -0.9690451
-0.88481385 4.1709814 -0.9445585
-1.1290108 5.3221178 -0.90701765
-1.5566067 7.3377895 -0.836079
-2.7508936 12.967617 -0.74043995
-2.741286 12.922327 0
-2.7417023 12.92429 0.73796606
-0.72988397 3.4202843 -0.96489346
-0.88720208 4.1574869 -0.94174463
-1.1349034 5.3182321 -0.90658844
-1.5681703 7.3485484 -0.83752018
-2.7660186 12.961744 -0.74029499
-2.7590706 12.929187 0
-2.7600298 12.933681 0.73869216
-0.63264179 2.947149 -0.99390388
-0.73348814 3.4169397 -0.9641993
-0.89649123 4.1762867 -0.9462477
-1.1402521 5.311842 -0.90573335
-1.574877 7.3365331 -0.83636701
-2.7876778 12.986341 -0.74189162
-2.7774217 12.938563 0
-2.7794716 12.948113 0.73970771
-0.63776588 2.9536233 -0.99634641
-0.74238133 3.4381189 -0.97042811
-0.89885587 4.1627841 -0.94343382
-1.1450437 5.3029299 -0.90444905
-1.5853789 7.3422117 -0.83723217
-2.8055611 12.993123 -0.74247223
-2.7974477 12.955549 0
-2.7973087 12.954906 0.74028826
-0.75292474 3.4666388 -0.97873402
-0.90981573 4.1890011 -0.94962394
-1.1541741 5.3140831 -0.90658844
-1.5953462 7.3453412 -0.83780819
-2.8245666 13.004954 -0.74334276
-2.8158612 12.964873 0
-2.8146152 12.959136 0.74072385
-0.64648473 2.9593198 -0.99879205
-0.74854809 3.4265203 -0.9676621
-0.91054046 4.1680493 -0.94512302
-1.1589522 5.3051682 -0.9053058
-1.6009094 7.3282514 -0.836079
-2.8375061 12.988842 -0.74261719
-2.8326366 12.966551 0
-2.8330441 12.968416 0.74144942
-0.64509976 2.9444473 -0.99390388
-0.74471158 3.3991082 -0.96004766
-0.92175692 4.2072015 -0.95412701
-1.1638037 5.3119826 -0.90658844
-1.6081036 7.3399134 -0.83752018
-2.8509128 13.012503 -0.74406832
-2.8443692 12.982635 0
-2.8464384 12.99208 0.74290049
-0.76663345 3.4790533 -0.98288834
-0.92520106 4.1986475 -0.95243996
-1.1663561 5.2930312 -0.9035939
-1.6141889 7.3253379 -0.836079
-2.8716657 13.031884 -0.74537444
-2.8606136 12.981728 0
-2.8632541 12.993711 0.74319106
-0.75238138 3.3948514 -0.95935619
-0.92642462 4.1801596 -0.94849926
-1.1744155 5.2991295 -0.90487659
-1.6247163 7.3309503 -0.83694309
-2.8862867 13.023335 -0.74508446
-2.8813648 13.001127 0
-2.8806396 12.997854 0.74362665
-0.65576887 2.9420896 -0.99390388
-0.76576078 3.4355652 -0.97112226
-0.9320271 4.1815147 -0.94906157
-1.1824936 5.3052258 -0.90616089
-1.635824 7.3390799 -0.83809626
-2.9065433 13.040129 -0.74624556
-2.8953731 12.990013 0
-2.8974724 12.999432 0.74391663
-0.76003289 3.3905683 -0.95866203
-0.93541324 4.1729546 -0.94737458
-1.182165 5.2737341 -0.9010253
-1.6458231 7.3421507 -0.83867335
-2.9279802 13.061957 -0.74769664
-2.9144833 13.001747 0
-2.9188623 13.021281 0.7453683
-0.66668004 2.9573669 -0.99960625
-0.763578 3.3872025 -0.9579705
-0.94157124 4.1767735 -0.94849926
-1.1941829 5.297349 -0.9053058
-1.6546935 7.3401566 -0.83867335
-2.9431901 13.055878 -0.74755168
-2.9359133 13.023599 0
-2.9374504 13.030417 0.74609387
-0.66861516 2.9493349 -0.99716371
-0.77709895 3.4278686 -0.96973658
-0.9488644 4.185545 -0.95075077
-1.2011498 5.2984033 -0.90573335
-1.6675649 7.3558116 -0.84069169
-2.9635592 13.072585 -0.74871278
-2.9533744 13.027658 0
-2.9560649 13.039526 0.74681944
-0.78068322 3.4244835 -0.9690451
-0.94770819 4.1571422 -0.9445585
-1.207551 5.296948 -0.90573335
-1.6793257 7.3663979 -0.84213287
-2.9793527 13.068995 -0.74871278
-2.9720054 13.036765 0
-2.976439 13.056212 0.74798054
-0.66469514 2.899528 -0.98086441
-0.77585125 3.3844123 -0.9579705
-0.95840925 4.1807656 -0.95018846
-1.2093616 5.2754679 -0.9023096
-1.6882253 7.3643632 -0.84213287
-2.7031081 11.791477 -0.67571139
-2.9883366 13.035699 0
-2.9922125 13.052607 0.74798054
-0.67430359 2.9252088 -0.98982668
-0.78275722 3.3956933 -0.96143067
-0.96346021 4.1796045 -0.95018846
-1.2163112 5.2765017 -0.90273714
-1.694218 7.3497186 -0.84069169
-2.7231894 11.813518 -0.67716253
-3.0029175 13.027011 0
-3.0056472 13.038854 0.74739999
-0.78119594 3.3703101 -0.95451039
-0.96277124 4.1536798 -0.9445585
-1.2238463 5.2800345 -0.9035939
-1.7048479 7.3552179 -0.84155577
-2.7333562 11.792506 -0.67614692
-3.0186558 13.023374 0
-3.0196393 13.027616 0.7469644
-0.68361473 2.9331992 -0.99308652
-0.79950303 3.4304435 -0.97181374
-0.96259946 4.1302443 -0.93949312
-1.225564 5.2585516 -0.90017015
-1.7131475 7.350636 -0.8412677
-3.0342247 13.019009 -0.74668056
-3.0278914 12.991834 0
-3.0283008 12.99359 0.74522275
-0.6815204 2.9083114 -0.98493844
-0.79391748 3.387953 -0.96004766
-0.9670102 4.1266069 -0.93893075
-1.231917 5.2570667 -0.90017015
-1.7220281 7.3485608 -0.8412677
-3.0404701 12.974863 -0.7443589
-3.042994 12.985634 0
-3.0386639 12.967155 0.74391663
-0.68843383 2.9219155 -0.98982668
-0.79283303 3.3650165 -0.95381886
-0.98190111 4.1674771 -0.94849926
-1.2394445 5.2605667 -0.9010253
-1.7338713 7.3590598 -0.84270889
-3.0513783 12.950947 -0.74319774
-3.0497293 12.943948 0
-3.0513508 12.95083 0.74319106
-0.69709307 2.942734 -0.99716371
-0.80152476 3.3835857 -0.95935619
-0.97815001 4.1291981 -0.94005543
-1.2458 5.2590652 -0.9010253
-1.7421665 7.354445 -0.84242088
-3.0664265 12.944724 -0.74305278
-3.0617692 12.925064 0
-3.0610087 12.921854 0.74173993
-0.69549298 2.9202435 -0.98982668
-0.80619323 3.3850529 -0.96004766
-0.98725998 4.145318 -0.94399619
-1.2473956 5.2375784 -0.89760154
-1.7510517 7.3523345 -0.84242088
-2.7961214 11.740384 -0.6741147
-3.073163 12.903631 0
-3.0736082 12.905499 0.74101382
-0.69556892 2.9049835 -0.98493844
-0.80852973 3.3767548 -0.9579705
-0.99463475 4.154006 -0.9462477
-1.2585055 5.2560396 -0.9010253
-1.7593325 7.3477006 -0.84213287
-2.8121209 11.74458 -0.67455029
-3.0857229 12.887256 0
-3.0819411 12.871462 0.73927271
-0.69965637 2.9065416 -0.98575264
-0.81260926 3.3757753 -0.9579705
-0.9990592 4.1503334 -0.94568539
-1.259449 5.2320552 -0.897174
-1.7663929 7.3380227 -0.8412677
-2.8275249 11.746222 -0.67484027
-3.0952029 12.85822 0
-3.0938418 12.852566 0.73840159
-0.70316786 2.905694 -0.98575264
-0.82199782 3.396734 -0.9641993
-1.0010858 4.1367774 -0.94287151
-1.2687883 5.2430024 -0.89931339
-1.7776916 7.3459387 -0.84242088
-2.8398843 11.735228 -0.67440528
-3.1095119 12.849407 0
-3.1075351 12.841239 0.73796606
-0.71193594 2.9264541 -0.99308652
-0.82135731 3.3762369 -0.95866203
-1.0054811 4.1330886 -0.942307
-1.2751225 5.2414656 -0.89931339
-1.7865665 7.3437858 -0.84242088
-2.8546755 11.73431 -0.67455029
-3.1182704 12.817832 0
-3.1181376 12.817286 0.7368055
-0.71194971 2.9111912 -0.98819834
-0.82782006 3.3849897 -0.96143067
-1.0147003 4.1491504 -0.9462477
-1.2808456 5.2374301 -0.89888585
-1.7972826 7.3491611 -0.84328604
-2.8663828 11.720756 -0.67396975
-3.12819 12.791295 0
-3.1274486 12.788263 0.73535383
-0.71192765 2.8959327 -0.9833101
-0.83370692 3.3912981 -0.96350783
-1.0172867 4.1380515 -0.94399619
-1.2859486 5.2308974 -0.89803076
-1.8043083 7.3394465 -0.84242088
-2.880543 11.717283 -0.67396975
-3.1374316 12.762239 0
-3.1391776 12.769341 0.73448324
-0.71898288 2.9094622 -0.98819834
-0.82877785 3.3537626 -0.95312738
-1.0222859 4.1368194 -0.94399619
-1.2947316 5.2393084 -0.8997426
-1.8137952 7.3397698 -0.84270889
-2.8959446 11.718835 -0.67425972
-3.1478553 12.738226 0
-3.1483696 12.740308 0.73303157
-0.72785985 2.9301775 -0.99553221
-0.84311068 3.3941476 -0.96489346
-1.0260597 4.1306539 -0.94287151
-1.2998224 5.2327523 -0.89888585
-1.8220396 7.3350649 -0.84242088
-2.9101024 11.715327 -0.67425972
-3.1607351 12.72431 0
-3.1600041 12.721368 0.73216105
-0.72421497 2.9005198 -0.98575264
-0.84478027 3.3833904 -0.96212482
-1.0292029 4.1220131 -0.94118232
-1.305523 5.2286897 -0.8984583
-1.828395 7.3228202 -0.8412677
-2.9167047 11.68156 -0.67251861
-3.172956 12.707859 0
-3.1690798 12.692334 0.73070991
-0.72705853 2.8896151 -0.98249274
-0.84295368 3.3502278 -0.95312738
-1.0372916 4.1226025 -0.94174463
-1.3156234 5.2288022 -0.89888585
-1.8391398 7.3094611 -0.84011453
-2.1542423 8.5618019 -0.49313512
-3.185823 12.661706 0
-3.1851039 12.658849 0.72911322
-0.74266917 2.9366577 -0.99879205
-0.84576982 3.3443377 -0.9517417
-1.0428946 4.1238074 -0.942307
-1.3219404 5.2272086 -0.89888585
-1.8460674 7.2997084 -0.83924943
-2.1690462 8.576829 -0.49415126
-3.1979299 12.645235 0
-3.1953006 12.634837 0.72795212
-0.74438977 2.9285696 -0.99634641
-0.84548336 3.3262908 -0.9468959
-1.0434968 4.1053128 -0.93836838
-1.3257259 5.2156558 -0.897174
-1.856162 7.3024907 -0.83982652
-2.1736474 8.5515385 -0.49284515
-3.211283 12.633792 0
-3.2067254 12.615862 0.72708154
-0.74670547 2.9228833 -0.99471802
-0.85198581 3.3349895 -0.94966459
-1.0497131 4.1089683 -0.93949312
-1.3332992 5.2190294 -0.89803076
-1.8669055 7.3077631 -0.84069169
-2.1826913 8.5438662 -0.49255458
-3.2143087 12.582001 0
-3.215534 12.586798 0.72562987
-0.74163252 2.888468 -0.9833101
-0.85975951 3.3485422 -0.95381886
-1.0565735 4.1150823 -0.94118232
-1.342158 5.2273602 -0.8997426
-1.8738039 7.2979841 -0.83982652
-2.1949525 8.5487757 -0.49299014
-3.2308025 12.583145 0
-3.223634 12.555225 0.72403377
-0.73524123 2.8492785 -0.97027063
-0.85816395 3.3256404 -0.94759005
-1.0596398 4.1064196 -0.93949312
-1.3471892 5.2207584 -0.89888585
-1.8819749 7.2932124 -0.83953851
-2.2046318 8.5436039 -0.49284515
-2.1796317 8.4467201 0
-3.2355566 12.538743 0.72330821
-0.74985039 2.8914478 -0.98493844
-0.86532998 3.336741 -0.95105022
-1.0671523 4.114974 -0.94174463
-1.3483411 5.1992478 -0.8954621
-1.8914347 7.2934346 -0.83982652
-2.215605 8.5434465 -0.49299014
-2.1963706 8.4692774 0
-3.2480955 12.524763 0.72272766
-0.76269424 2.9264176 -0.99716371
-0.87125987 3.3429782 -0.95312738
-1.07661 4.1308956 -0.94568539
-1.3565654 5.2050695 -0.89674646
-1.9008977 7.293644 -0.84011453
-2.2252719 8.5382509 -0.49284515
-2.2039771 8.4565439 0
-3.2579844 12.500714 0.72156656
-0.75746131 2.8920159 -0.98575264
-0.8714835 3.3273571 -0.94897306
-1.0758071 4.1074719 -0.94061995
-1.3674072 5.2208123 -0.8997426
-1.9103639 7.2938418 -0.8404026
-2.239536 8.5506325 -0.4937157
-2.211556 8.4438038 0
-3.2678196 12.476659 0.7204054
-0.75466526 2.8672011 -0.97760457
-0.86911881 3.3020449 -0.94205278
-1.0749493 4.0840564 -0.9355545
-1.3717536 5.2117062 -0.8984583
-1.9165423 7.2815228 -0.83924943
-2.249866 8.5479202 -0.4937157
-2.2263947 8.458746 0
-3.2802472 12.46265 0.71982485
-0.75876051 2.8686743 -0.97841871
-0.87567407 3.3106937 -0.94482142
-1.0824796 4.0925708 -0.93780392
-1.3793615 5.2150035 -0.89931339
-1.9240177 7.2742057 -0.83867335
-3.0820606 11.652462 -0.67324418
-2.2352815 8.4510126 0
-3.2919819 12.446119 0.71909928
-0.76222622 2.8677554 -0.97841871
-0.87516212 3.2926588 -0.93997562
-1.0913413 4.1059985 -0.94118232
-1.3836855 5.2058973 -0.89803076
-1.9347996 7.279377 -0.83953851
-3.0821218 11.595995 -0.67019635
-2.2421494 8.4357319 0
-3.3016787 12.422043 0.71793818
-0.77398127 2.8978727 -0.98901248
-0.87978673 3.2940204 -0.94066715
-1.0917115 4.0874906 -0.93724155
-1.3899747 5.2042217 -0.89803076
-1.9442607 7.2795305 -0.83982652
-3.0833907 11.544561 -0.66743857
-2.2483101 8.4179258 0
-3.3079698 12.38541 0.71605152
-0.76082629 2.8348746 -0.96782494
-0.88766927 3.3074977 -0.94482142
-1.0966496 4.0861688 -0.93724155
-1.400918 5.2198863 -0.9010253
-1.9530551 7.2771759 -0.83982652
-3.0872369 11.50319 -0.66526192
-2.2605042 8.4227457 0
-3.3222599 12.378898 0.7159065
-0.76360816 2.8315692 -0.9670108
-0.88643932 3.2870448 -0.93928415
-1.1075399 4.1069174 -0.942307
-1.4018769 5.1983619 -0.89760154
-1.9652134 7.2872944 -0.8412677
-3.0997794 11.494429 -0.66497135
-2.2557735 8.3647327 0
-3.3324783 12.357309 0.71489042
-0.77930927 2.8759634 -0.98249274
-0.89631516 3.3077619 -0.94551295
-1.1085154 4.0908661 -0.93893075
-1.410172 5.2040997 -0.89888585
-1.9719871 7.2774229 -0.8404026
-3.1157055 11.498201 -0.66540688
-2.2590737 8.3368874 0
-3.3426495 12.335715 0.71387428
-0.77304596 2.8392546 -0.97027063
-0.89701653 3.2945757 -0.94205278
-1.1147914 4.0944223 -0.94005543
-1.4124141 5.1875353 -0.89631885
-1.9780611 7.2650523 -0.83924943
-3.1343756 11.511981 -0.66642302
-2.2711947 8.3416777 0
-3.3534577 12.316629 0.71300375
-0.78691113 2.8764627 -0.9833101
-0.8970235 3.2789657 -0.93789846
-1.1130344 4.0685687 -0.93442768
-1.4200345 5.1907721 -0.897174
-1.9888862 7.2701435 -0.84011453
-2.3577564 8.6185064 -0.49908572
-2.2750924 8.3163366 0
-3.3655949 12.302543 0.71242315
-0.79431534 2.8898044 -0.98819834
-0.90032053 3.2754626 -0.93720698
-1.1226643 4.0843735 -0.93836838
-1.4229044 5.1766787 -0.89503455
-1.9935576 7.2527761 -0.83838534
-2.3550828 8.5680437 -0.49632794
-2.3003128 8.3687849 0
-3.3756361 12.280927 0.71140707
-0.77346307 2.8006952 -0.95804536
-0.90895319 3.2913024 -0.94205278
-1.1228633 4.0658669 -0.93442768
-1.4325745 5.1873255 -0.897174
-2.0023196 7.2503619 -0.83838534
-2.361285 8.550168 -0.49545738
-2.3159654 8.3860674 0
-3.3904729 12.276838 0.71140707
-0.79799306 2.8759706 -0.98412424
-0.91091645 3.2829471 -0.93997562
-1.1291353 4.0694089 -0.9355545
-1.436096 5.1756964 -0.8954621
-2.0083127 7.237968 -0.83723217
-2.3653624 8.5247765 -0.49415126
-2.3302729 8.3983145 0
-3.3983583 12.247699 0.70995593
-0.80345672 2.8821399 -0.98656684
-0.91016614 3.2649252 -0.93512982
-1.142921 4.0998573 -0.94287151
-1.4395913 5.1640658 -0.89375025
-2.0170569 7.2355361 -0.83723217
-2.3637998 8.4793634 -0.49168402
-2.3397181 8.3929787 0
-3.4152489 12.251096 0.71039152
-0.80054373 2.8649979 -0.98086441
-0.9155162 3.2764628 -0.93859261
-1.1358234 4.0649014 -0.93498999
-1.4475474 5.1805043 -0.89674646
-2.0186436 7.2243519 -0.836079
-2.3654265 8.4654236 -0.49095845
-2.3440888 8.3890591 0
-3.4247456 12.256531 0.71082652
-0.81469327 2.9021025 -0.99390388
-0.91811705 3.2705188 -0.93720698
-1.1421089 4.0684233 -0.93611687
-1.4558882 5.1861682 -0.89803076
-2.0294666 7.2293711 -0.83694309
-2.3707368 8.4450445 -0.48994234
-2.3584452 8.4012594 0
-3.4430635 12.26489 0.71155208
-0.79740095 2.8273704 -0.96863914
-0.91866392 3.2573366 -0.93374681
-1.1490911 4.0743699 -0.93780392
-1.4586675 5.1720448 -0.8958897
-2.0367975 7.2219396 -0.83636701
-2.3774133 8.4296713 -0.48921677
-2.3777776 8.4309635 0
-3.4592927 12.265727 0.7118426
-0.79542655 2.8073809 -0.9621194
-0.92670119 3.2707019 -0.93789846
-1.1519374 4.0656514 -0.93611687
-1.469116 5.1851025 -0.8984583
-2.0412931 7.2045469 -0.83463782
-2.3982203 8.4642859 -0.49139348
-2.3808672 8.4030399 0
-3.4762366 12.269041 0.71227819
-0.80626184 2.8325691 -0.97108483
-0.92928016 3.2647586 -0.93651551
-1.1512842 4.0447059 -0.9316138
-1.4718668 5.1709809 -0.89631885
-2.0535369 7.2145109 -0.836079
-2.4148502 8.483882 -0.49270013
-2.4002805 8.4326944 0
-3.4981711 12.289818 0.71372926
-0.81104153 2.8363409 -0.97271317
-0.93874216 3.2829301 -0.94205278
-1.1603607 4.0579653 -0.93498999
-1.478819 5.1716642 -0.89674646
-2.062963 7.2145085 -0.83636701
-2.4250996 8.480958 -0.49270013
-2.415477 8.4473066 0
-3.5158761 12.295576 0.71430987
-0.81446815 2.8353589 -0.97271317
-0.94062966 3.2745574 -0.93997562
-1.1631606 4.0492406 -0.933303
-1.4871937 5.177278 -0.89803076
-2.0688224 7.2020669 -0.83521384
-2.4382124 8.4880018 -0.49328014
-2.4184983 8.4193726 0
-3.5321636 12.296309 0.71459985
-0.81652433 2.8296278 -0.97108483
-0.94736785 3.2830601 -0.94274426
-1.1652346 4.0380673 -0.93105143
-1.4913125 5.1680756 -0.89674646
-2.0746548 7.1896214 -0.83406067
-2.4513483 8.4950361 -0.49386069
-2.4301114 8.4214401 0
-3.5513427 12.307016 0.71547097
-0.83508015 2.8808601 -0.98901248
-0.94365031 3.2554054 -0.93512982
-1.1708196 4.0390944 -0.9316138
-1.496842 5.1638064 -0.89631885
-2.086221 7.1970463 -0.83521384
-2.464505 8.5020504 -0.49444124
-2.4591227 8.4834833 0
-3.5698273 12.315192 0.71619654
-0.82750463 2.8418801 -0.97597307
-0.94197476 3.235002 -0.92959517
-1.1742772 4.0327926 -0.93048692
-1.5016437 5.1570601 -0.8954621
-2.0941932 7.1920395 -0.83492583
-2.4718704 8.4890871 -0.49386069
-2.4555495 8.4330368 0
-3.5861566 12.315854 0.71648651
-0.82400066 2.8171606 -0.96782494
-0.95292449 3.2579358 -0.93651551
-1.1805772 4.036253 -0.9316138
-1.5100366 5.1626358 -0.89674646
-2.1014283 7.1845341 -0.83434874
-2.4879618 8.5060453 -0.49502182
-2.4759643 8.4650288 0
-3.6061423 12.328973 0.71750265
-0.82252634 2.799561 -0.9621194
-0.9519093 3.2399304 -0.93166971
-1.1861689 4.0372591 -0.93217611
-1.5141019 5.1534162 -0.8954621
-2.1115675 7.1869574 -0.83492583
-2.4982378 8.5030336 -0.49502182
-2.479589 8.4395599 0
-3.622503 12.329597 0.71779317
-0.83850235 2.8412392 -0.97679037
-0.95298302 3.2291532 -0.92890102
-1.1881695 4.0260749 -0.92992461
-1.5174212 5.1417346 -0.89375025
-2.118053 7.1769567 -0.83406067
-2.5085101 8.5000086 -0.49502182
-2.5000963 8.4714985 0
-3.6440172 12.347638 0.71909928
-0.96258825 3.247242 -0.93443835
-1.1959219 4.0343809 -0.93217611
-1.5265512 5.1497421 -0.8954621
-2.128195 7.1793561 -0.83463782
-2.5195196 8.4994698 -0.49516737
-2.5029356 8.4435244 0
-3.6611476 12.350693 0.71953434
-0.83408105 2.8013031 -0.9637509
-0.96508074 3.2412722 -0.93305534
-1.1978954 4.0231919 -0.92992461
-1.5313089 5.1429777 -0.89460701
-2.1361279 7.1742935 -0.83434874
-2.5253372 8.481472 -0.49429625
-2.52279 8.4729176 0
-3.6805189 12.361207 0.7204054
-0.83746529 2.8002932 -0.9637509
-0.96180683 3.2160633 -0.92613238
-1.2020284 4.0193095 -0.92936224
-1.5338423 5.1288195 -0.89246595
-2.1433144 7.1667557 -0.83377266
-2.5281398 8.4535246 -0.49284515
-2.5300434 8.4598894 0
-3.6969397 12.361725 0.72069544
-0.8451131 2.8134775 -0.96863914
-0.95631033 3.1836658 -0.91713494
-1.2068841 4.0178542 -0.92936224
-1.5400383 5.1269622 -0.89246595
-2.1504829 7.1592016 -0.83319557
-2.533119 8.4330406 -0.49182901
-2.5582323 8.5166454 0
-3.7171073 12.374672 0.72171152
-0.85993439 2.8503144 -0.98167861
-0.97392517 3.2281451 -0.93028671
-1.2073359 4.001802 -0.92598605
-1.5477165 5.1300178 -0.89332271
-2.1613739 7.1640291 -0.83406067
-2.5433068 8.4299736 -0.49182901
-2.5752857 8.5359697 0
-3.735059 12.380122 0.72229213
-0.85907865 2.8350854 -0.97679037
-0.97273159 3.2101569 -0.92544091
-1.2188014 4.0222235 -0.93105143
-1.5546577 5.1305985 -0.89375025
-2.16853 7.1564665 -0.83348465
-2.5693145 8.4791145 -0.4948768
-3.7583632 12.40315 0
-3.7537823 12.388032 0.72301763
-0.8632226 2.8364077 -0.97760457
-0.98975611 3.252176 -0.93789846
-1.2184814 4.0037298 -0.92711073
-1.5645922 5.1409931 -0.8958897
-2.1764202 7.1513596 -0.83319557
-2.5886364 8.5058346 -0.49661848
-3.7763753 12.408548 0
-3.7717741 12.393431 0.72359824
-0.86737096 2.837724 -0.97841871
-0.98488784 3.2221966 -0.92959517
-1.2196053 3.9901071 -0.92429686
-1.5663022 5.1243739 -0.89332271
-2.1835489 7.1437821 -0.83261949
-2.6087856 8.5350027 -0.49850515
-3.7921288 12.406473 0
-3.7913022 12.403769 0.72446877
-0.84831619 2.7634344 -0.95315713
-0.98657113 3.2138071 -0.92751807
-1.2303909 4.0080628 -0.92879993
-1.5732454 5.1249294 -0.89375025
-2.1952155 7.1510291 -0.83377266
-2.629009 8.5641346 -0.50039184
-3.8086426 12.406853 0
-3.8093371 12.409115 0.72504932
-0.87932408 2.8521552 -0.98412424
-0.99562544 3.2293875 -0.93236119
-1.2367288 4.0114245 -0.92992461
-1.5794368 5.1230245 -0.89375025
-2.208425 7.1631966 -0.83550191
-2.6385903 8.5584707 -0.50024682
-3.828999 12.419653 0
-3.8304529 12.424368 0.72621047
-0.88130623 2.846364 -0.98249274
-0.98320371 3.1754634 -0.91713494
-1.2385688 4.0002184 -0.92767304
-1.5833473 5.1137533 -0.89246595
-2.2147861 7.1531177 -0.83463782
-2.6412427 8.5304489 -0.49879515
-3.8501611 12.434906 0
-3.8477688 12.427179 0.72664601
-0.85958982 2.7703016 -0.95641702
-0.98883861 3.1868467 -0.92059511
-1.2342091 3.9776311 -0.92260766
-1.5871994 5.1152544 -0.89289516
-2.2168069 7.1443653 -0.83377266
-2.6564088 8.5611219 -0.50068241
-3.8615284 12.445003 0
-3.8614364 12.444707 0.7278071
-0.8732295 2.8022921 -0.96782494
-0.99418277 3.1904447 -0.92198074
-1.2397696 3.9785604 -0.92316997
-1.594905 5.1182299 -0.89375025
-2.2238975 7.1367378 -0.83319557
-2.7015347 8.6695299 -0.507213
-3.8765631 12.440328 0
-3.8803351 12.452434 0.72853267
-0.87735236 2.8035915 -0.96863914
-0.98679745 3.1533246 -0.91159767
-1.2498887 3.9940364 -0.92711073
-1.6049209 5.1285462 -0.8958897
-2.2332938 7.1365209 -0.83348465
-2.7050245 8.6439428 -0.50590688
-3.8939242 12.443089 0
-3.8992581 12.460133 0.72925824
-0.87777525 2.7930975 -0.9653793
-1.0056499 3.1999972 -0.92544091
-1.2516667 3.9828272 -0.92485917
-1.6018839 5.0972252 -0.89075571
-2.2388136 7.1239471 -0.83233148
-2.7224777 8.6629753 -0.507213
-3.9105155 12.443335 0
-3.9150891 12.457889 0.72940326
-0.88635725 2.8085363 -0.97108483
-1.0238624 3.2442386 -0.93859261
-1.2564782 3.9813118 -0.92485917
-1.6157662 5.1197615 -0.89503455
-2.246639 7.1187634 -0.8320424
-2.7243431 8.6324291 -0.50561684
-3.931814 12.458455 0
-3.9356141 12.470497 0.73041934
-0.88975018 2.8074632 -0.97108483
-1.0073167 3.1784253 -0.91990358
-1.2597541 3.974951 -0.92373449
-1.6165216 5.1006732 -0.8920384
-2.2583647 7.125906 -0.83319557
-2.7339842 8.626647 -0.50547129
-3.9515808 12.468576 0
-3.9530354 12.473166 0.73085493
-0.88864595 2.7922595 -0.9661966
-1.0149598 3.1891568 -0.92336375
-1.2560792 3.94679 -0.91754222
-1.6203504 5.0913849 -0.89075571
-2.2614849 7.1059265 -0.83117831
-2.7310104 8.5812464 -0.50300407
-3.9682238 12.468757 0
-3.9704688 12.475811 0.73129046
-0.87020034 2.7229111 -0.94256335
-1.0043043 3.1425307 -0.91021466
-1.2724503 3.9815762 -0.92598605
-1.6280625 5.0943089 -0.8916108
-2.2700694 7.1031885 -0.83117831
-2.7263503 8.53092 -0.50024682
-3.9856644 12.471393 0
-3.9926586 12.493278 0.73259658
-0.9036966 2.8159842 -0.97515887
-1.0234326 3.1890903 -0.9240579
-1.2819173 3.9945474 -0.92936224
-1.6326494 5.0874543 -0.89075571
-2.2762787 7.09305 -0.83031315
-2.727128 8.4979296 -0.49850515
-4.0031142 12.473994 0
-4.0085449 12.490916 0.73274159
-0.91164851 2.8290095 -0.98005021
-1.0103551 3.1353142 -0.90882903
-1.2844043 3.985738 -0.92767304
-1.6435181 5.1001329 -0.89332271
-2.2824669 7.0829062 -0.82944804
-2.7310183 8.4748421 -0.49734405
-4.0293603 12.503832 0
-3.7343416 11.588335 0.6800586
-0.9104991 2.8137922 -0.97515887
-1.0249574 3.1675124 -0.91852063
-1.2806166 3.9575977 -0.92148292
-1.6473078 5.0908141 -0.8920384
-2.2981894 7.1022887 -0.8320424
-2.7396581 8.4665966 -0.49705404
-3.747226 11.580368 0
-3.765939 11.638199 0.68325138
-0.91848242 2.8267982 -0.98005021
-1.030333 3.1710391 -0.91990358
-1.2877511 3.9632902 -0.92316997
-1.6494923 5.0766149 -0.88989896
-2.2979798 7.0724549 -0.82887197
-2.775578 8.5423508 -0.50169796
-0 0 0
-3.7840128 11.645994 0.68397695
-0.90426469 2.7716408 -0.96130526
-1.0302739 3.1578689 -0.91644347
-1.2917516 3.9593179 -0.92260766
-1.6564206 5.0770564 -0.8903265
-2.3065238 7.0696731 -0.82887197
-2.8068509 8.6032143 -0.50547129
-0 0 0
-3.7988904 11.64389 0.6841225
-0.90992206 2.7775948 -0.9637509
-1.0395567 3.1733127 -0.92128927
-1.3028629 3.9770713 -0.92711073
-1.6681489 5.0921302 -0.89332271
-2.3223107 7.0890002 -0.83146632
-2.837467 8.6615467 -0.50909966
-0 0 0
-3.8113375 11.634349 0.68383193
-0.92485964 2.8117042 -0.97597307
-1.0355499 3.1482182 -0.9143663
-1.2965539 3.9417074 -0.91923141
-1.6678836 5.0706024 -0.88989896
-2.3284492 7.0788155 -0.83060122
-2.8633578 8.7050133 -0.51185745
-0 0 0
-3.8237703 11.624803 0.68354195
-0.91120517 2.7589569 -0.95804536
-1.0432892 3.1588824 -0.9178291
-1.3084866 3.9618499 -0.92429686
-1.673205 5.0661483 -0.88947141
-2.3378112 7.0784507 -0.83088923
-2.8787618 8.7163467 -0.51272798
-0 0 0
-3.8272207 11.5881 0.68165529
-0.92231923 2.7813182 -0.9661966
-1.049472 3.1647565 -0.91990358
-1.3100737 3.950619 -0.92204529
-1.6793252 5.0641227 -0.88947141
-2.338223 7.051075 -0.8280068
-2.8917463 8.7202635 -0.51316357
-0 0 0
-4.1765337 12.59463 0.74115938
-0.93530387 2.7978251 -0.97271317
-1.0634801 3.1812458 -0.92544091
-1.3212266 3.9522564 -0.92316997
-1.6899289 5.0551758 -0.88861465
-2.360997 7.0625777 -0.83002514
-2.9062204 8.6935339 -0.51200241
-2.6386962 7.8932748 0
-4.199544 12.562323 0.73985326
-0.92767495 2.7638934 -0.96130526
-1.0625352 3.1656928 -0.92128927
-1.3284274 3.957886 -0.92485917
-1.6952199 5.0506988 -0.88818711
-2.3703511 7.0621696 -0.83031315
-2.9150708 8.6850939 -0.51171243
-2.6664486 7.944355 0
-4.2213316 12.576937 0.74101382
-0.94127387 2.7932167 -0.97189903
-1.0743695 3.1881762 -0.92820954
-1.3307738 3.9490521 -0.92316997
-1.7054194 5.0608077 -0.8903265
-2.376404 7.0519447 -0.82944804
-2.9114573 8.6397076 -0.50924522
-2.6502845 7.8646812 0
-4.2398443 12.581676 0.74159437
-0.93118304 2.7522786 -0.95804536
-1.072592 3.1702383 -0.92336375
-1.3306601 3.9330046 -0.91979373
-1.7115332 5.0587435 -0.8903265
-2.3799512 7.0343723 -0.82771879
-2.8702645 8.4835815 -0.50024682
-2.6572826 7.854075 0
-4.2608738 12.593777 0.74261051
-0.9209947 2.7113688 -0.94419175
-1.1014364 3.2425816 -0.94482142
-1.334595 3.9289904 -0.91923141
-1.7168196 5.0542431 -0.88989896
-2.3934388 7.0461812 -0.82944804
-2.7401154 8.066782 -0.4758645
-2.6600745 7.8311448 0
-4.2836089 12.610761 0.74391663
-0.9330464 2.7359886 -0.95315713
-1.0818713 3.1723905 -0.92474937
-1.34508 3.9442022 -0.92316997
-1.7220976 5.0497379 -0.88947141
-2.4019511 7.0432839 -0.82944804
-2.7431507 8.0437899 -0.4747034
-2.6695349 7.8279247 0
-4.2971673 12.600661 0.74362665
-0.92994684 2.7161524 -0.94663745
-1.069451 3.1236107 -0.9109062
-1.3523147 3.9497881 -0.92485917
-1.724872 5.0379386 -0.88775951
-2.4121368 7.0452752 -0.83002514
-2.744453 8.0158911 -0.4732523
-2.6789913 7.8246937 0
-4.3233309 12.627416 0.74551332
-0.94045812 2.7360611 -0.95397133
-1.074857 3.1270659 -0.91229182
-1.3521322 3.9337385 -0.92148292
-1.7351295 5.047987 -0.88989896
-2.4198079 7.0399117 -0.82973713
-2.7490671 7.9978204 -0.47238117
-2.7002892 7.8559117 0
-4.3444953 12.639377 0.74652886
-0.97591239 2.8336375 -0.98819834
-1.1020687 3.1999421 -0.93374681
-1.3594713 3.9473307 -0.92485917
-1.7356703 5.0396538 -0.88861465
-2.4164782 7.0164323 -0.8271417
-2.7522078 7.9912491 -0.47209117
-2.705035 7.854279 0
-4.3538246 12.641668 0.74681944
-0.97852874 2.8301225 -0.98738414
-1.0862592 3.1417031 -0.91713494
-1.3634104 3.9432859 -0.92429686
-1.7400825 5.0327053 -0.88775951
-2.4274907 7.020843 -0.8280068
-2.7584653 7.9780946 -0.47151062
-2.7187746 7.8633008 0
-4.3733411 12.648675 0.747545
-0.94952852 2.7355404 -0.95478553
-1.1097984 3.1972694 -0.93374681
-1.3606761 3.9200344 -0.91923141
-1.7419541 5.0184755 -0.88562012
-2.4410629 7.0325704 -0.82973713
-2.7646949 7.9649367 -0.47093004
-2.7351012 7.8796787 0
-4.3937325 12.658106 0.74841553
-0.96178025 2.760067 -0.9637509
-1.0955009 3.1438115 -0.91852063
-1.3746064 3.9447739 -0.92542154
-1.7488606 5.0187888 -0.88604766
-2.4453006 7.0173965 -0.82829487
-2.774317 7.9615903 -0.47093004
-2.7403359 7.8640733 0
-4.4081697 12.650336 0.74827051
-0.97327417 2.782228 -0.97189903
-1.1026124 3.1519578 -0.92128927
-1.3785337 3.9407139 -0.92485917
-1.7600077 5.0312061 -0.88861465
-2.453778 7.0144362 -0.82829487
-2.7813601 7.9508715 -0.47049448
-2.7515564 7.865674 0
-4.4328909 12.671983 0.7498672
-0.96844745 2.7577345 -0.9637509
-1.0848092 3.0890844 -0.90329438
-1.3816121 3.9342551 -0.92373449
-1.7643862 5.0242362 -0.88775951
-2.4511116 6.979744 -0.82454735
-2.7892449 7.9426064 -0.4702045
-2.7662306 7.8770719 0
-4.4490595 12.669066 0.75001222
-0.95863086 2.7192664 -0.95071149
-1.0977137 3.113791 -0.9109062
-1.3846736 3.9277856 -0.92260766
-1.7661891 5.0099978 -0.88562012
-2.4612651 6.9816604 -0.82512444
-2.7971103 7.9343243 -0.46991393
-2.7809398 7.8884549 0
-4.4721389 12.685735 0.75131834
-0.98005486 2.7693617 -0.96863914
-1.1265827 3.183409 -0.93166971
-1.3945063 3.9404862 -0.92598605
-1.7713825 5.0054331 -0.8851909
-2.4636581 6.9616108 -0.82310611
-2.8075647 7.9333954 -0.47005948
-2.789602 7.882638 0
-4.4900651 12.687673 0.75175387
-0.98092055 2.7611952 -0.9661966
-1.1270692 3.1725893 -0.92890102
-1.391609 3.9172428 -0.92091846
-1.7782911 5.0057149 -0.88562012
-2.4686046 6.9488802 -0.82195294
-2.8249764 7.9520316 -0.4713656
-2.8113198 7.9135895 0
-4.5106096 12.696924 0.75262445
-0.97927344 2.7460353 -0.96130526
-1.1081519 3.1074307 -0.91021466
-1.400611 3.9275317 -0.92373449
-1.7800277 4.9914756 -0.88348067
-2.4735241 6.9361472 -0.82079983
-2.8450565 7.9779825 -0.47310728
-2.8173831 7.9003816 0
-4.5311871 12.706155 0.75349557
-0.99425131 2.7774236 -0.97271317
-1.1406523 3.1863925 -0.93374681
-1.4079223 3.9330063 -0.92542154
-1.7877864 4.9941502 -0.88433582
-2.4784164 6.9234128 -0.81964666
-2.8617005 7.9941101 -0.47426841
-2.8313119 7.9092207 0
-4.549161 12.708002 0.75393057
-0.99008495 2.7552886 -0.9653793
-1.1258388 3.1330752 -0.91852063
-1.4135352 3.9337003 -0.92598605
-1.7920851 4.9871593 -0.88348067
-0 0 -0
-2.8766282 8.0053139 -0.47513896
-2.8567064 7.9498739 0
-4.5715427 12.722059 0.75509167
-1.0009604 2.775013 -0.97271317
-1.1279196 3.1269882 -0.91713494
-1.4096643 3.9080832 -0.92035609
-1.7998501 4.9898152 -0.88433582
-2.4889996 6.9003787 -0.8176294
-2.8827724 7.9920549 -0.47455841
-2.8274598 7.8387089 0
-4.5922031 12.731196 0.75596279
-1.0076785 2.7830973 -0.97597307
-1.1274273 3.1138308 -0.91367483
-1.4187096 3.9183204 -0.92316997
-1.8015091 4.9755702 -0.88219637
-2.489408 6.8754716 -0.81503397
-2.8933108 7.9910069 -0.4747034
-2.8519905 7.8768845 0
-4.6111217 12.735412 0.75654334
-0.9831844 2.7052314 -0.94908309
-1.1551834 3.1784866 -0.93305534
-1.4225761 3.9142175 -0.92260766
-1.8031363 4.961329 -0.88005692
-2.4950659 6.8651729 -0.81416988
-2.905628 7.9948339 -0.47513896
-2.8348389 7.8000584 0
-4.6309433 12.742039 0.75726891
-0.98984069 2.7133293 -0.95234299
-1.1598821 3.1794431 -0.93374681
-1.434271 3.931592 -0.92711073
-1.8126489 4.9687929 -0.88176882
-2.5024738 6.8597255 -0.81388187
-2.9206274 8.0059586 -0.47600952
-2.8505061 7.8137436 0
-4.6507883 12.748637 0.75799447
-0.98292017 2.6842804 -0.94256335
-1.141296 3.1167932 -0.91575199
-1.4346529 3.9179285 -0.92429686
-1.8221822 4.9762411 -0.88348067
-2.5072031 6.8469815 -0.8127287
-2.9419131 8.0341415 -0.47789618
-2.8635213 7.8200598 0
-4.6715517 12.757653 0.75886559
-1.0049198 2.7341235 -0.96049106
-1.1623709 3.1625068 -0.92959517
-1.4393859 3.9161921 -0.92429686
-1.8343903 4.9908953 -0.88647521
-2.5110104 6.8318019 -0.81128645
-2.9632714 8.0622854 -0.47978285
-2.8693805 7.8068323 0
-4.6923399 12.766628 0.75973612
-1.01079 2.739866 -0.96293676
-1.1514306 3.1210892 -0.9178291
-1.4414777 3.9072962 -0.92260766
-1.8350902 4.9742293 -0.88390821
-2.5183692 6.8263383 -0.81099844
-2.9784088 8.0733299 -0.48065397
-2.9031296 7.869277 0
-4.7122583 12.773136 0.76046169
-1.0140998 2.7386427 -0.96293676
-1.1482316 3.1008744 -0.91229182
-1.4541379 3.9269943 -0.92767304
-1.8330773 4.9503446 -0.88005692
-2.5239203 6.8160114 -0.81013328
-2.9881618 8.069726 -0.48065397
-2.9180565 7.8804021 0
-4.731298 12.77718 0.76104224
-1.0165446 2.7350919 -0.9621194
-1.1589698 3.1182976 -0.9178291
-1.4500315 3.9014218 -0.92204529
-1.846212 4.9673762 -0.88348067
-2.5276496 6.800837 -0.8086921
-2.9933848 8.0539331 -0.47992843
-2.9448037 7.9232221 0
-4.7530713 12.788506 0.76205838
-1.0336705 2.7709131 -0.97515887
-1.1609813 3.1121893 -0.91644347
-1.4636236 3.9234688 -0.92767304
-1.8504167 4.9603267 -0.88262391
-2.534059 6.7929358 -0.80811602
-2.9931231 8.0235281 -0.47833174
-2.9189029 7.8245692 0
-4.7730603 12.794924 0.76278394
-1.0118855 2.7025387 -0.95152563
-1.1638621 3.1084371 -0.91575199
-1.4728173 3.933593 -0.93048692
-1.8510097 4.9436674 -0.88005692
-2.5377314 6.77776 -0.80667484
-2.9855068 7.9736767 -0.47557452
-2.9593806 7.9038987 0
-4.7985368 12.815907 0.76438004
-1.0099351 2.6874368 -0.94663745
-1.172029 3.1187682 -0.9192121
-1.4650573 3.8985162 -0.92260766
-1.8642062 4.9606514 -0.88348067
-2.5395491 6.7577381 -0.80465651
-2.9933093 7.9651937 -0.47528395
-2.9396327 7.82236 0
-4.8185916 12.822269 0.76510614
-1.0141721 2.6937678 -0.94908309
-1.1703771 3.1086681 -0.91644347
-1.470099 3.9047666 -0.92429686
-1.8581562 4.9354949 -0.87920016
-2.5454524 6.7610393 -0.80523258
-3.0026979 7.9755406 -0.47600952
-2.9626975 7.8692946 0
-4.8299999 12.829082 0.76568669
-1.0130554 2.6809733 -0.94500595
-1.2016203 3.179996 -0.93789846
-1.474816 3.9029872 -0.92429686
-1.8722841 4.9548559 -0.88305146
-2.5490494 6.7458634 -0.8037914
-3.0031495 7.9476042 -0.47455841
-2.9768026 7.8778791 0
-4.8491716 12.83296 0.7662673
-1.0346986 2.728276 -0.9621194
-1.1956786 3.1527455 -0.93028671
-1.4786308 3.898829 -0.92373449
-1.8709873 4.9333882 -0.87962776
-2.5544496 6.7355304 -0.80292732
-3.0044584 7.9221058 -0.4732523
-2.9798584 7.8572407 0
-4.8711214 12.844091 0.76728284
-1.0221698 2.6854494 -0.94745159
-1.2057319 3.1677043 -0.93512982
-1.4887623 3.911283 -0.92711073
-1.876947 4.9311237 -0.87962776
-2.5589061 6.7227697 -0.80177414
-3.0020127 7.8869019 -0.4713656
-3.0069411 7.8998499 0
-4.8921852 12.852772 0.76815397
-1.05452 2.7604027 -0.97434467
-1.1853883 3.1029751 -0.91644347
-1.4934871 3.9094813 -0.92711073
-1.8865683 4.9384446 -0.88133961
-2.5633352 6.7100081 -0.80062097
-3.0004129 7.8541403 -0.46962392
