# .PCD v0.7 - Point Cloud Data file format
VERSION 0.7
FIELDS x y z
SIZE 4 4 4
TYPE F F F
COUNT 1 1 1
WIDTH 1552
HEIGHT 1
VIEWPOINT 0 0 0 1 0 0 0
POINTS 1552
DATA ascii
-4.044116 5.5240273 -0.38239971
-3.9370735 5.3778133 0
-3.0847559 4.2135973 0.29168546
-1.660681 2.2626526 -0.92544991
-1.9179026 2.6131132 -0.89429426
-2.2522426 3.0686464 -0.84324574
-2.7027073 3.6823978 -0.76151538
-4.0985699 5.5842395 -0.7720809
-4.8779039 6.64607 -0.46048057
-3.9404917 5.3688602 0
-3.1098306 4.2370973 0.29357213
-1.6809916 2.2845335 -0.93522948
-1.9136258 2.6006925 -0.89083415
-2.2499254 3.0577366 -0.84099418
-2.719326 3.6956706 -0.76493907
-4.1206465 5.6001196 -0.77496433
-4.8751493 6.6255188 -0.45946446
-3.9392655 5.3536162 0
-3.1195695 4.2396173 0.29400769
-1.6734788 2.2685759 -0.92952394
-1.9137911 2.5943444 -0.88945115
-2.2596517 3.0631948 -0.84324574
-2.7207446 3.6882546 -0.76408398
-4.175004 5.6596551 -0.78390056
-0 0 -0
-3.9426386 5.3446598 0
-3.1370301 4.252573 0.29516879
-1.6791552 2.2705228 -0.93115228
-1.9273623 2.606144 -0.89429426
-2.2588174 3.0543315 -0.84155655
-2.7221437 3.6808324 -0.76322722
-4.5094013 6.0975299 -0.8453033
-4.8787856 6.5970044 -0.45830333
-3.9413579 5.3294315 0
-3.1406229 4.2466922 0.2950238
-1.6686506 2.2506251 -0.92381841
-1.9305099 2.6038132 -0.89429426
-2.2625062 3.0515997 -0.84155655
-2.7281165 3.6796007 -0.76365477
-4.5213885 6.0983119 -0.8461684
-4.9099684 6.6224165 -0.46048057
-3.9291947 5.2995787 0
-3.151942 4.2512436 0.29560435
-1.6831642 2.2644765 -0.93033814
-1.9231828 2.5873899 -0.88945115
-2.266192 3.0488639 -0.84155655
-2.7279708 3.6701267 -0.76237214
-4.5302954 6.0949178 -0.84645647
-4.1398549 5.5696316 -0.38762417
-3.9418054 5.3031816 0
-3.1617224 4.2536826 0.29603934
-1.6918066 2.2703686 -0.93359798
-1.9487889 2.6152337 -0.89983159
-2.2683575 3.0440879 -0.84099418
-2.7354684 3.6709406 -0.76322722
-4.5376568 6.0894394 -0.84645647
-4.1667643 5.5917101 -0.38951084
-3.9746447 5.333889 0
-3.1839402 4.2727804 0.29763603
-1.6694032 2.2346632 -0.91974437
-1.9369358 2.5927823 -0.89291131
-2.2735531 3.0433784 -0.84155655
-2.7337565 3.6594064 -0.76151538
-4.54811 6.0881004 -0.84703356
-4.1564159 5.5637784 -0.38791475
-3.9935472 5.3457623 0
-3.1797669 4.2564359 0.29676491
-1.6884013 2.2544076 -0.92870975
-1.9460827 2.5984721 -0.89567995
-2.2787507 3.042661 -0.84211892
-2.7458689 3.6663723 -0.76365477
-4.5461574 6.0701752 -0.8453033
-4.1724787 5.5712271 -0.3887853
-3.9781654 5.3117738 0
-3.2020433 4.2754707 0.2983616
-1.7015078 2.2661958 -0.93441218
-1.9492211 2.5961187 -0.89567995
-2.2793772 3.0358453 -0.84099418
-2.7456775 3.656899 -0.76237214
-4.5597005 6.0729508 -0.84645647
-4.1667261 5.5495577 -0.38762417
-3.97208 5.2903137 0
-3.207207 4.2715988 0.2983616
-1.6893839 2.2443948 -0.92626411
-1.9372721 2.5737214 -0.88875967
-2.2799847 3.0290248 -0.83986735
-2.7500942 3.6535788 -0.76237214
-4.5623732 6.0612435 -0.84559238
-4.1640553 5.5320668 -0.38675362
-3.9581246 5.258482 0
-3.2264285 4.2864027 0.29966772
-1.7231303 2.2777512 -0.94174606
-1.9646733 2.597039 -0.89844859
-2.284235 3.0194573 -0.83874267
-2.7527204 3.6387331 -0.76066023
-4.5723248 6.0440102 -0.84472722
-4.1758461 5.5199175 -0.38660863
-3.9833817 5.2655053 0
-3.2477529 4.2931013 0.30068383
-1.6960163 2.2362888 -0.92544991
-1.958711 2.5826657 -0.89429426
-2.2909496 3.0207403 -0.83986735
-2.7555594 3.6333532 -0.76023102
-4.5702434 6.0261121 -0.84299695
-4.1825128 5.5148678 -0.38660863
-3.9944544 5.2669029 0
-3.2576501 4.2953868 0.30111939
-1.7017062 2.238169 -0.92707825
-1.9542396 2.5703137 -0.89083415
-2.2992129 3.0240397 -0.84155655
-2.7677205 3.6402442 -0.76237214
-4.5540442 5.989707 -0.83867335
-0 0 -0
-4.0008154 5.2620726 0
-3.2738421 4.3059206 0.30213493
-1.7029124 2.2341473 -0.92626411
-1.9649465 2.5779247 -0.89429426
-2.2967041 3.0131762 -0.83930498
-2.7721169 3.6368976 -0.76237214
-4.5408969 5.9574599 -0.83492583
-4.1832261 5.4882116 -0.3854475
-4.0103292 5.2613783 0
-3.2900703 4.3164301 0.30315104
-1.707258 2.2370441 -0.92789245
-1.9710712 2.5827222 -0.89637142
-2.296984 3.0097702 -0.83874267
-2.7618546 3.6188965 -0.75894839
-4.506835 5.9053688 -0.8280068
-4.2101831 5.5166616 -0.38762417
-4.0182452 5.2651629 0
-3.2911026 4.3123779 0.30300605
-1.7129663 2.2389092 -0.92952394
-1.9787652 2.586318 -0.89844859
-2.3083372 3.0170805 -0.84155655
-2.7740231 3.6257489 -0.76108778
-4.4778237 5.8526783 -0.82137692
-4.2357931 5.536335 -0.38936585
-4.0467405 5.289237 0
-3.3073587 4.3228378 0.3040216
-1.7231901 2.2466416 -0.93359798
-1.9773068 2.5779512 -0.89637142
-2.3088913 3.0102608 -0.84043187
-2.7752745 3.6183167 -0.76023102
-4.4644299 5.8205853 -0.8176294
-4.269362 5.5662618 -0.39183307
-4.1085601 5.3566132 0
-3.3125796 4.3188386 0.3040216
-1.7243983 2.2426004 -0.93278378
-1.9712478 2.5636313 -0.89221978
-2.3047783 2.9973917 -0.83761579
-2.7765179 3.6108944 -0.75937593
-3.4624739 4.5029883 -0.63313115
-4.2935095 5.5837598 -0.39342976
-4.1642027 5.4155951 0
-3.3320494 4.3333697 0.30532771
-1.7150351 2.2248552 -0.92626411
-1.9804707 2.5691953 -0.89498842
-2.3115039 2.9986331 -0.83874267
-2.7793131 3.6055057 -0.75894839
-3.4679122 4.4988012 -0.63313115
-4.3113532 5.5929675 -0.3944453
-4.1945782 5.4414792 0
-3.3356981 4.3272843 0.30518273
-1.7237675 2.2306039 -0.92952394
-1.965165 2.5429792 -0.88668251
-2.3151255 2.9958379 -0.83874267
-2.7836676 3.6021447 -0.75894839
-3.4828382 4.5068913 -0.63486141
-4.308578 5.5754218 -0.39357474
-4.2106953 5.4487586 0
-3.3631659 4.3520317 0.30721441
-1.7234312 2.2246079 -0.92789245
-1.9835978 2.5604315 -0.89360279
-2.3156285 2.9890172 -0.83761579
-2.7880182 3.5987787 -0.75894839
-3.4835277 4.4965434 -0.63399631
-4.3312221 5.5907493 -0.39502588
-4.2204666 5.4477854 0
-3.3700178 4.3500247 0.30735996
-1.7139955 2.2069151 -0.92137587
-1.9974635 2.5719044 -0.89844859
-2.3192384 2.9862173 -0.83761579
-2.7939377 3.5974329 -0.75937593
-3.4921281 4.4964128 -0.63457233
-4.312479 5.5526838 -0.39270419
-4.2222557 5.4365139 0
-3.3800485 4.3521004 0.30779496
-1.7363986 2.2301934 -0.93196964
-1.9867001 2.5516751 -0.89221978
-2.3259699 2.9874263 -0.83874267
-2.7998579 3.5960777 -0.75980347
-0 0 -0
-4.3080091 5.5331154 -0.39168808
-4.2192316 5.4190912 0
-3.3980753 4.3644156 0.30895606
-1.7254066 2.2105601 -0.92463571
-1.9897817 2.5492728 -0.89221978
-2.3342698 2.9906244 -0.84043187
-2.797883 3.5845976 -0.75809163
-3.50776 4.4940791 -0.63543749
-4.2907081 5.4971786 -0.38951084
-4.2145658 5.3996263 0
-3.4049497 4.3623605 0.30910164
-1.7448263 2.2298799 -0.93359798
-1.9866766 2.5389636 -0.88945115
-2.3394458 2.9898009 -0.84099418
-2.8069596 3.5872815 -0.75937593
-3.51478 4.4918723 -0.6357255
-4.2765322 5.4653883 -0.38762417
-4.2275023 5.4027281 0
-3.4230225 4.3746066 0.31026217
-1.7383696 2.2161057 -0.92870975
-1.9943897 2.5424848 -0.89152831
-2.34149 2.9849746 -0.84043187
-2.8049545 3.5758078 -0.75766408
-3.51861 4.485589 -0.63543749
-4.2366257 5.400929 -0.38341528
-4.2308178 5.3935246 0
-3.4315164 4.3745604 0.31055275
-1.7181274 2.184859 -0.91648448
-1.9928064 2.5341551 -0.88945115
-2.3372374 2.972151 -0.83761579
-2.8108585 3.5744319 -0.75809163
-3.5304227 4.4894671 -0.63659066
-4.2463641 5.3998947 -0.38370582
-4.2325039 5.3822694 0
-3.4432244 4.378581 0.3111333
-1.7406566 2.2080123 -0.92707825
-2.0145049 2.5553875 -0.89775711
-2.3424044 2.9713259 -0.8381803
-2.8088183 3.5629692 -0.75637972
-3.534245 4.4831686 -0.63630265
-4.2882738 5.4396496 -0.38689861
-4.2357788 5.3730597 0
-3.4726384 4.4050207 0.31330997
-1.7433233 2.2059076 -0.92707825
-2.0051467 2.537205 -0.89221978
-2.3507149 2.9744682 -0.83986735
-2.8147178 3.5615926 -0.75680894
-3.536449 4.4748325 -0.6357255
-4.3496194 5.5037742 -0.39183307
-4.2471108 5.3740654 0
-3.4860187 4.4110208 0.3140361
-1.7291086 2.1824949 -0.91811597
-2.0222309 2.5524762 -0.89844859
-2.3495781 2.9656565 -0.8381803
-2.8174205 3.5561709 -0.75637972
-3.5434642 4.472589 -0.63601458
-4.3643332 5.5086966 -0.39255863
-4.2422867 5.3546486 0
-3.5010247 4.4190216 0.31490666
-1.753262 2.2074964 -0.92952394
-1.99099 2.506815 -0.88322234
-2.3563173 2.9667909 -0.83930498
-2.8265066 3.5587966 -0.75766408
-3.5472527 4.4662733 -0.6357255
-4.3822999 5.517664 -0.39357474
-4.2519937 5.3535981 0
-3.5144403 4.4249601 0.31563219
-1.7513081 2.1995738 -0.92707825
-2.0065191 2.5201085 -0.88875967
-2.3488202 2.9500253 -0.83536428
-2.8339994 3.5593913 -0.75851917
-3.5494275 4.4579406 -0.63514948
-3.5684118 4.4817843 -0.31999281
-4.2406263 5.3260589 0
-3.539207 4.4451036 0.31737387
-1.7510974 2.1965845 -0.92626411
-2.0189836 2.5326221 -0.89360279
-2.3569374 2.956553 -0.83761579
-2.82815 3.5476439 -0.75637972
-3.5521202 4.4557953 -0.63514948
-3.5905559 4.5040097 -0.32173449
-4.2503324 5.331636 0
-3.556468 4.4612494 0.31867999
-1.7660944 2.2099133 -0.93278378
-2.0110834 2.5164676 -0.88875967
-2.3541632 2.9457633 -0.83536428
-2.8340418 3.5462353 -0.75680894
-3.5558884 4.4494815 -0.63486141
-0 0 -0
-3.5857935 4.4869018 0
-3.5797019 4.4792795 0.32027668
-1.7579445 2.1942735 -0.92707825
-2.023531 2.5257795 -0.89291131
-2.3577209 2.9429166 -0.83536428
-2.8383245 3.5428083 -0.75680894
-3.5644934 4.4492149 -0.63543749
-0 0 -0
-0 0 0
-3.5932333 4.4850883 0.32100222
-1.7466669 2.1748061 -0.91974437
-2.0155833 2.5096385 -0.88806552
-2.3628707 2.9420524 -0.8359288
-2.8377795 3.5333698 -0.75552464
-3.5731091 4.4489417 -0.63601458
-0 0 -0
-0 0 0
-0 0 0
-1.7461964 2.1688473 -0.91811597
-2.0170424 2.505249 -0.88737398
-2.3648257 2.9372103 -0.83536428
-2.8517029 3.5419316 -0.75809163
-3.5736146 4.4385753 -0.63514948
-0 0 -0
-0 0 0
-0 0 0
-1.7643361 2.1859651 -0.92626411
-2.0247965 2.5086687 -0.88945115
-2.3683732 2.9343507 -0.83536428
-2.8495314 3.530493 -0.75637972
-3.5822208 4.4382758 -0.6357255
-0 0 -0
-0 0 0
-3.6176262 4.482142 0.32172778
-1.7607576 2.176146 -0.92300421
-2.038868 2.5198667 -0.89429426
-2.37831 2.939388 -0.83761579
-2.8537953 3.5270474 -0.75637972
-3.582705 4.4279175 -0.63486141
-3.6116719 4.4637184 -0.32071838
-3.5964627 4.444921 0
-3.606698 4.457571 0.32027668
-1.7509298 2.1586604 -0.91648448
-2.046654 2.5232484 -0.89637142
-2.3786616 2.9325693 -0.83649111
-2.8548238 3.519613 -0.75552464
-3.5913081 4.427599 -0.63543749
-3.6203399 4.4633908 -0.32100892
-3.572324 4.4041944 0
-6.6532507 8.2025614 0.58993161
-1.7738062 2.1814711 -0.92707825
-2.0417891 2.5110431 -0.89291131
-2.3757913 2.9218073 -0.8342396
-2.8623104 3.5201404 -0.75637972
-3.5950253 4.4212513 -0.63514948
-3.5995011 4.4267559 -0.31868669
-4.3410759 5.3387632 0
-6.6565995 8.1864519 0.58935106
-1.7842474 2.1889031 -0.93115228
-2.0495784 2.5144098 -0.89498842
-2.3857415 2.9268124 -0.83649111
-2.8665617 3.5166793 -0.75637972
-3.6019974 4.4189072 -0.63543749
-4.4503088 5.4596105 -0.39342976
-4.3442383 5.3294835 0
-6.6763401 8.1904907 0.59022218
-1.7587433 2.1522994 -0.91648448
-2.0446794 2.5022199 -0.89152831
-2.3844514 2.9180231 -0.83480191
-2.8675632 3.5092413 -0.75552464
-3.6056993 4.4125509 -0.63514948
-4.4733415 5.4743462 -0.39488086
-4.3506746 5.3242307 0
-6.6763639 8.1703415 0.58935106
-1.7660428 2.1559105 -0.91893017
-2.0461071 2.4978011 -0.89083415
-2.3928075 2.9210384 -0.83649111
-2.8734267 3.5077579 -0.75595218
-3.6061096 4.4021864 -0.63428432
-4.5211167 5.5191884 -0.3985092
-4.3538032 5.314939 0
-6.682941 8.1582518 0.58906102
-1.7749207 2.1614153 -0.92219001
-2.0523109 2.4992085 -0.89221978
-2.3898852 2.9102905 -0.8342396
-2.8727739 3.4983296 -0.75466788
-3.6065001 4.3918271 -0.63341916
-4.5112948 5.4936438 -0.3970581
-4.3470092 5.2935843 0
-6.6894927 8.1461515 0.58877045
-1.7712477 2.1516364 -0.91893017
-2.0441666 2.4831667 -0.88737398
-2.3998597 2.9152474 -0.83649111
-2.880265 3.4988236 -0.75552464
-3.6167374 4.3934588 -0.63428432
-4.5212293 5.492197 -0.39734811
-5.8502355 7.1066175 0
-6.6910748 8.1280336 0.58804494
-1.7738463 2.1494946 -0.91893017
-2.0535526 2.4884346 -0.89014262
-2.4049962 2.9143033 -0.83705348
-2.8926587 3.5052385 -0.75766408
-3.6154583 4.3811059 -0.63313115
-4.5014 5.4546638 -0.39502588
-5.8505373 7.089509 0
-6.7042022 8.1239548 0.58833545
-1.7748682 2.1454473 -0.91811597
-2.0565579 2.4859514 -0.89014262
-2.4020371 2.9035642 -0.83480191
-2.8870773 3.489877 -0.75509709
-3.6223965 4.3787251 -0.63341916
-4.547739 5.497272 -0.3985092
-5.8010426 7.0122561 0
-6.7123523 8.1138401 0.5881899
-1.7806118 2.1471024 -0.91974437
-2.0659661 2.4911892 -0.89291131
-2.4055438 2.9006596 -0.83480191
-2.8978467 3.4942899 -0.75680894
-3.6276846 4.3743448 -0.63341916
-4.5494003 5.4857707 -0.39807367
-5.8360925 7.0372934 0
-6.7221513 8.1057234 0.5881899
-1.8037441 2.1696551 -0.93033814
-2.0609572 2.4790471 -0.88945115
-2.4058013 2.8938468 -0.83367723
-2.8955026 3.4828897 -0.75509709
-3.6313157 4.3679714 -0.63313115
-4.5327725 5.4522996 -0.39604199
-5.8911695 7.0862641 0
-6.7319407 8.0975952 0.5881899
-1.7826337 2.1389992 -0.91811597
-2.055922 2.4669206 -0.88599098
-2.4092963 2.8909378 -0.83367723
-2.8980606 3.4774108 -0.75466788
-3.6382451 4.3655658 -0.63341916
-4.5443497 5.4528093 -0.39647755
-0 0 0
-6.7400584 8.0874615 0.58804494
-1.8060915 2.1644864 -0.92952394
-2.0525885 2.4598975 -0.88391387
-2.414295 2.8933799 -0.83480191
-2.9067395 3.4835434 -0.75637972
-3.6392264 4.3613825 -0.63313115
-4.5493064 5.4520559 -0.39662254
-0 0 0
-6.7416167 8.079401 0.58775491
-1.7817487 2.1300757 -0.91567034
-2.0684364 2.47281 -0.88945115
-2.4177892 2.8904605 -0.83480191
-2.909301 3.4780614 -0.75595218
-3.6494737 4.362936 -0.63399631
-4.5675626 5.4605083 -0.39763865
-0 0 0
-6.749702 8.0692501 0.58760935
-1.7954392 2.1411803 -0.92137587
-2.0681958 2.4664605 -0.88806552
-2.4229112 2.889482 -0.83536428
-2.905256 3.4647105 -0.75381279
-3.646435 4.3486152 -0.63255513
-4.5808353 5.4629498 -0.39821923
-5.8374791 6.9615808 0
-6.7577796 8.0591002 0.58746433
-1.7884798 2.1276538 -0.91648448
-2.0631046 2.4543595 -0.88460535
-2.4231341 2.8826661 -0.8342396
-2.9160476 3.4690576 -0.75552464
-3.6566749 4.3501401 -0.63341916
-4.5573339 5.4216037 -0.39560643
-0 0 0
-6.7708597 8.0549107 0.58775491
-1.8006084 2.1368351 -0.92137587
-2.082238 2.4710531 -0.89152831
-2.4249797 2.877795 -0.83367723
-2.9235423 3.4694538 -0.75637972
-3.6569333 4.3397908 -0.63255513
-4.5873265 5.4439158 -0.39763865
-0 0 0
-6.7755628 8.04076 0.58731937
-1.8143489 2.1478693 -0.92707825
-2.0755055 2.4570327 -0.88737398
-2.4235346 2.8690376 -0.83198804
-2.9227674 3.4600413 -0.75509709
-3.655498 4.3274651 -0.63140196
-4.6123409 5.4601984 -0.39923477
-0 0 0
-6.7886238 8.0365334 0.58760935
-1.8025695 2.1287014 -0.91974437
-2.0703683 2.444952 -0.88391387
-2.4302802 2.8699815 -0.83311272
-2.9203105 3.4486711 -0.75338519
-3.6640639 4.3269892 -0.63197798
-4.6155801 5.4506593 -0.39894477
-5.8946061 6.9610949 0
-6.8016911 8.0322952 0.58789992
-1.8083423 2.1302941 -0.92137587
-2.0846875 2.4558387 -0.88875967
-2.4353955 2.8689857 -0.83367723
-2.9277947 3.4490502 -0.75424033
-3.6709683 4.3245363 -0.63226706
-4.6053433 5.4252648 -0.39749309
-5.9147978 6.9678497 0
-6.8181176 8.0319939 0.58848047
-1.8093086 2.1262197 -0.92055851
-2.0778949 2.4418504 -0.88460535
-2.4405053 2.867974 -0.8342396
-2.9402766 3.4552834 -0.75637972
-3.6778655 4.3220654 -0.63255513
-5.5902376 6.5694003 -0.4818151
-5.9350204 6.9745741 0
-6.8311825 8.0277042 0.58877045
-1.7974416 2.1071103 -0.91322464
-2.0938692 2.4546072 -0.89014262
-2.4357255 2.8553596 -0.83142573
-2.9361212 3.4419649 -0.75424033
-3.6780479 4.3117127 -0.63168997
-5.6082864 6.5744987 -0.48268566
-5.8640656 6.8743443 0
-6.8442535 8.0234013 0.58906102
-1.8112321 2.1180878 -0.91893017
-2.087054 2.440639 -0.88599098
-2.4457793 2.8601387 -0.83367723
-2.9452846 3.4442694 -0.75552464
-3.683255 4.3072653 -0.63168997
-5.5993419 6.5479722 -0.48123452
-5.9332509 6.9384518 0
-6.8539433 8.0151262 0.58906102
-1.7993144 2.0990109 -0.91159624
-2.1046948 2.455256 -0.89221978
-2.4475749 2.8552468 -0.83311272
-2.9427614 3.4329121 -0.75381279
-3.6867752 4.3008499 -0.63140196
-0 0 -0
-5.9636478 6.9569621 0
-6.8686914 8.0127516 0.58949602
-1.8115113 2.108079 -0.91648448
-2.0978465 2.4412911 -0.88806552
-2.4510231 2.8522873 -0.83311272
-2.9519281 3.4351966 -0.75509709
-3.6919692 4.296392 -0.63140196
-0 0 -0
-5.9432163 6.9161978 0
-6.8817587 8.0083914 0.58978659
-1.8301914 2.1246185 -0.92463571
-2.1040726 2.4425595 -0.88945115
-2.4478407 2.8416305 -0.83086336
-2.9560766 3.4316273 -0.75509709
-3.6920919 4.286047 -0.63053679
-0 0 -0
-5.9804425 6.9425302 0
-5.997735 6.9626045 0.51330185
-1.8343711 2.1242743 -0.92544991
-2.0955431 2.426722 -0.88460535
-2.4529316 2.8405919 -0.83142573
-2.9568622 3.4241636 -0.75424033
-3.7023411 4.2874575 -0.63140196
-5.6258278 6.5149312 -0.48079899
-5.9905329 6.937274 0
-6.0112405 6.9612541 0.51373744
-1.8223794 2.1052396 -0.91811597
-2.0951931 2.4203982 -0.88322234
-2.4613464 2.8433838 -0.83311272
-2.962676 3.4225273 -0.75466788
-3.7092102 4.2849345 -0.63168997
-5.6302977 6.5042033 -0.48050898
-5.995501 6.9260917 0
-6.0213461 6.9559484 0.5138824
-1.8249218 2.1030362 -0.91811597
-2.1178472 2.4406028 -0.89152831
-2.4647801 2.8404076 -0.83311272
-2.9651284 3.4170079 -0.75424033
-3.7194722 4.2863121 -0.63255513
-5.6313405 6.4895453 -0.47992843
-6.0072799 6.9227772 0
-6.0331559 6.9525967 0.51417297
-1.8307028 2.1045556 -0.91974437
-2.1076224 2.4228992 -0.88599098
-2.4665444 2.8355122 -0.83255041
-2.969255 3.4134226 -0.75424033
-3.7144601 4.270102 -0.6308248
-5.6408815 6.4846945 -0.48007342
-6.0190535 6.9194369 0
-6.0517817 6.9570608 0.51504356
-1.8238591 2.0941319 -0.91567034
-2.1107318 2.4235156 -0.88668251
-2.4665899 2.8321071 -0.83198804
-2.9696324 3.4096942 -0.75381279
-3.7204399 4.2717619 -0.63140196
-5.6430931 6.4793282 -0.47992843
-6.0369062 6.9314995 0
-6.0730529 6.973002 0.51649523
-1.82151 2.0863392 -0.91322464
-2.1169555 2.4247394 -0.88806552
-2.4666712 2.8253002 -0.83086336
-2.9788167 3.4119067 -0.75509709
-3.7204938 4.2614164 -0.63053679
-5.642375 6.4627194 -0.47920287
-6.0675268 6.9496841 0
-6.1002674 6.9871845 0.51809132
-1.8337994 2.0952997 -0.91811597
-2.1066658 2.4070768 -0.88252819
-2.468405 2.8204002 -0.83029884
-2.9761746 3.4005778 -0.75338519
-3.7239385 4.2549729 -0.63024879
-5.6484637 6.4539361 -0.47905731
-6.0862069 6.9541016 0
-0 0 0
-1.8444782 2.1023703 -0.92219001
-2.1178501 2.4139643 -0.88599098
-2.4734917 2.8193312 -0.83086336
-2.9785836 3.3950441 -0.75295603
-3.7341959 4.2563052 -0.63111389
-5.6579766 6.4490652 -0.47920287
-6.1151943 6.9702106 0
-6.1239896 6.9802356 0.51867187
-1.8495535 2.0979066 -0.92219001
-2.1236775 2.4088392 -0.88599098
-2.4769337 2.8095298 -0.82973653
-2.9901779 3.391691 -0.75381279
-3.7427554 4.2453227 -0.6308248
-5.6632309 6.4236746 -0.47833174
-6.1767654 7.006165 0
-6.1288095 6.9517698 0.51765573
-1.84554 2.0882623 -0.91893017
-2.1249204 2.4043863 -0.88529682
-2.4803267 2.8065348 -0.82973653
-2.9925754 3.3861537 -0.75338519
-3.7478824 4.2407975 -0.6308248
-5.6709886 6.4168272 -0.47833174
-6.2196946 7.0376983 0
-6.1337667 6.9404693 0.51736575
-1.8349502 2.0712306 -0.91241044
-2.1278241 2.4018168 -0.88529682
-2.4870892 2.8073432 -0.83086336
-2.9915564 3.3767691 -0.75210088
-3.7512903 4.2343316 -0.63053679
-5.6770167 6.4080272 -0.47818676
-6.2368212 7.0399156 0
-6.1421485 6.9330525 0.51736575
-1.8555064 2.0893421 -0.92137587
-2.1157334 2.3823636 -0.87906808
-2.4871018 2.8005326 -0.82973653
-2.9922218 3.3693094 -0.75124413
-3.7546883 4.2278638 -0.63024879
-5.6830316 6.3992219 -0.47804174
-6.2626076 7.0518374 0
-6.1453433 6.9197955 0.51693022
-1.8383083 2.0649459 -0.91159624
-2.1386282 2.4022911 -0.88737398
-2.4921718 2.7994215 -0.83029884
-3.0014131 3.3714452 -0.75252843
-3.756351 4.2194562 -0.62967163
-5.6890268 6.3904037 -0.47789618
-6.2815032 7.0559244 0
-6.1536999 6.912365 0.51693022
-1.8440902 2.0664077 -0.91322464
-2.1448734 2.4034524 -0.88875967
-2.4972491 2.7983093 -0.83086336
-3.0071924 3.3697298 -0.75295603
-3.7648942 4.2187777 -0.63024879
-5.6880951 6.3738337 -0.47717062
-6.2969556 7.0560961 0
-6.1516705 6.8932958 0.51605964
-1.8416405 2.05865 -0.91077894
-2.1377366 2.3896368 -0.88460535
-2.4938521 2.787715 -0.82861185
-3.0129783 3.3680124 -0.75338519
-3.7682662 4.2122998 -0.62996072
-5.6923308 6.3630862 -0.47688064
-6.317625 7.0620618 0
-6.1599951 6.8858576 0.51605964
-1.8457814 2.0582685 -0.91159624
-2.1473222 2.3945229 -0.88737398
-2.5023029 2.7903693 -0.83029884
-3.0101902 3.3567247 -0.75167334
-3.7698963 4.2038884 -0.62938362
-5.7017484 6.3581362 -0.47702563
-6.3157248 7.0427942 0
-6.1370873 6.8435917 0.5134474
-1.858178 2.0670619 -0.91648448
-2.1401541 2.3807359 -0.88322234
-2.5107703 2.7930143 -0.83198804
-3.0142441 3.353085 -0.75167334
-3.7784348 4.2031808 -0.62996072
-5.7094269 6.3512421 -0.47702563
-6.3311896 7.0428991 0
-6.0793438 6.762743 0.50793236
-1.8656396 2.0703251 -0.91893017
-2.1413448 2.3762791 -0.88252819
-2.5039408 2.7786567 -0.82861185
-3.0182934 3.3494403 -0.75167334
-3.7835107 4.1986122 -0.62996072
-5.7118769 6.3385463 -0.47659007
-6.332726 7.0275106 0
-6.0927243 6.7611775 0.50836742
-1.8615127 2.0607331 -0.91567034
-2.1374943 2.3662503 -0.87976223
-2.5124013 2.7812803 -0.83029884
-3.0171742 3.3400743 -0.75038904
-3.7903132 4.1959553 -0.63024879
-5.7177916 6.3297133 -0.47644508
-6.3429627 7.0217905 0
-6.079988 6.7306724 0.50662571
-1.8689799 2.0639803 -0.91811597
-2.1470811 2.3710973 -0.88252819
-2.5106485 2.7725976 -0.82861185
-3.0246508 3.3402283 -0.75124413
-3.7849605 4.1798649 -0.62851846
-5.7167168 6.3131714 -0.47571951
-6.3357158 6.9967537 0
-6.1439285 6.7849565 0.51127017
-1.8681469 2.0580568 -0.91648448
-2.1566894 2.3759315 -0.88529682
-2.512284 2.7676752 -0.82804734
-3.0338624 3.3422751 -0.75252843
-3.7865348 4.1714621 -0.62794244
-5.7295818 6.3120332 -0.47615507
-6.3406701 6.9852428 0
-6.192286 6.8217745 0.51460797
-1.8706323 2.0557981 -0.91648448
-2.1528049 2.3659017 -0.88252819
-2.5139182 2.7627599 -0.82748497
-3.0275359 3.3272185 -0.7499615
-3.7967963 4.1726246 -0.62880754
-5.7284555 6.2954903 -0.47542897
-6.3420997 6.9698768 0
-6.2022781 6.8162146 0.51475352
-1.870211 2.0528421 -0.91567034
-2.1643744 2.3757315 -0.88668251
-2.5172963 2.7631171 -0.82804734
-3.0295455 3.3253889 -0.7499615
-3.7975695 4.1684127 -0.62851846
-5.7287612 6.2881904 -0.47513896
-6.3357968 6.9545045 0
-6.2028918 6.8086209 0.51446295
-1.8810222 2.0597045 -0.91974437
-2.1570895 2.3619959 -0.88252819
-2.5240633 2.7638295 -0.82917416
-3.0335615 3.3217258 -0.7499615
-3.8026035 4.1638207 -0.62851846
-5.7346044 6.2793469 -0.47499394
-6.3441954 6.9468436 0
-6.207613 6.7972875 0.51417297
-1.8601476 2.0319109 -0.9083364
-2.1531723 2.3519931 -0.87976223
-2.5222523 2.7551534 -0.82748497
-3.0375729 3.3180578 -0.7499615
-3.8093834 4.1611366 -0.62880754
-5.7386751 6.2685761 -0.4747034
-6.350822 6.9372478 0
-6.2158217 6.7897816 0.51417297
-1.8676101 2.0351198 -0.91077894
-2.1644924 2.3586299 -0.88322234
-2.530735 2.7577217 -0.82917416
-3.038105 3.3105989 -0.74910474
-3.8144085 4.1565304 -0.62880754
-5.7427349 6.257812 -0.47441339
-6.3539262 6.9238224 0
-6.218749 6.7765207 0.51373744
-1.8868043 2.0510552 -0.91893017
-2.1724312 2.3615465 -0.88529682
-2.535784 2.75653 -0.82973653
-3.0438395 3.3088129 -0.74953228
-3.8211775 4.15382 -0.62909561
-5.7450128 6.2451296 -0.47397783
-6.3675685 6.9218802 0
-6.2251749 6.7670913 0.51359242
-1.8624727 2.019702 -0.9058907
-2.163383 2.3460152 -0.88045371
-2.5373921 2.7515979 -0.82917416
-3.0513191 3.3089106 -0.75038904
-3.8191803 4.1415944 -0.62794244
-5.7560811 6.2420077 -0.47426841
-6.3724022 6.9103584 0
-6.2298207 6.7557402 0.51330185
-1.8951076 2.0501158 -0.92055851
-2.1679175 2.3452399 -0.88114518
-2.540715 2.7485299 -0.82917416
-3.0500858 3.2995641 -0.74910474
-3.8276899 4.1407714 -0.62851846
-5.7618499 6.2331343 -0.47412285
-6.3772106 6.898828 0
-6.236217 6.7463017 0.51315683
-1.8824657 2.0315099 -0.91322464
-2.1690462 2.3407803 -0.88045371
-2.5440342 2.7454579 -0.82917416
-3.0593064 3.301527 -0.75038904
-3.8326902 4.1361437 -0.62851846
-5.7640839 6.2204552 -0.47368783
-6.3837748 6.8892102 0
-6.2355351 6.7292333 0.51243132
-1.9000564 2.0455301 -0.92055851
-2.1735785 2.339994 -0.88114518
-2.5438879 2.7386551 -0.82804734
-3.0597961 3.2940626 -0.74953228
-3.8394506 4.13341 -0.62880754
-5.7680559 6.2096748 -0.47339728
-6.3814707 6.8700542 0
-6.2471948 6.7254977 0.5127213
-1.8974786 2.0378115 -0.91811597
-2.1695659 2.3300216 -0.87837654
-2.5454652 2.7337215 -0.82748497
-3.0637741 3.2903631 -0.74953228
-3.8373919 4.1211958 -0.62765443
-5.7737856 6.2008009 -0.4732523
-6.3933105 6.8661442 0
-6.2517786 6.7141447 0.51243132
-1.9049941 2.0409324 -0.92055851
-2.1877847 2.3439026 -0.88460535
-2.5522373 2.7343624 -0.82861185
-3.0554912 3.2735279 -0.74653774
-3.8353093 4.1089931 -0.62650126
-5.7795029 6.1919217 -0.47310728
-6.4016023 6.8584142 0
-6.2563372 6.7027831 0.51214075
-1.8990171 2.0296071 -0.91648448
-2.1786218 2.3284392 -0.87976223
-2.5503297 2.7257085 -0.82692266
-3.0682123 3.2792041 -0.74867713
-3.8402715 4.1043558 -0.62650126
-5.7851996 6.1830311 -0.47296172
-6.3921075 6.8316741 0
-6.2608848 6.6914272 0.51185071
-1.8997788 2.0255098 -0.91567034
-2.1848629 2.3294613 -0.88114518
-2.5484049 2.7170634 -0.82523346
-3.0704176 3.2736239 -0.74824959
-3.8469956 4.1015973 -0.62678927
-5.7802281 6.162775 -0.47194618
-6.4074788 6.8315382 0
-6.270741 6.685751 0.51199573
-1.9039164 2.0250118 -0.91648448
-2.1928332 2.3323047 -0.88322234
-2.5621324 2.7250926 -0.82861185
-3.0761278 3.27178 -0.74867713
-3.846632 4.091291 -0.62592411
-5.7876706 6.155786 -0.47194618
-6.4103789 6.8181009 0
-6.269917 6.6687055 0.51127017
-1.9216169 2.0388961 -0.92381841
-2.187048 2.3205266 -0.87976223
-2.5601935 2.7164459 -0.82692266
-3.0783198 3.2661943 -0.74824959
-3.8604476 4.0960569 -0.62736636
-5.7951045 6.1487885 -0.47194618
-6.418613 6.8103504 0
-6.2815313 6.6649027 0.5115602
-1.9155939 2.0275915 -0.91974437
-2.1864011 2.3142316 -0.87837654
-2.5704536 2.7207384 -0.82917416
-3.0910771 3.2718005 -0.75038904
-3.8636129 4.0895038 -0.62707728
-5.7989573 6.1380005 -0.47165561
-6.4232659 6.79881 0
-6.2824492 6.6497598 0.51098019
-1.9197403 2.0270681 -0.92055851
-2.199543 2.3225138 -0.88252819
-2.5650051 2.7084079 -0.82636029
-3.0914943 3.2643321 -0.74953228
-3.8667746 4.0829558 -0.62678927
-5.8081546 6.132874 -0.4718006
-6.4350519 6.7948194 0
-6.2851171 6.6365023 0.5105446
-1.9051745 2.0068254 -0.91241044
-2.1902616 2.3071234 -0.87768507
-2.5647736 2.7016175 -0.82523346
-3.0883734 3.2531543 -0.74782205
-3.8681471 4.074533 -0.62621319
-5.7994614 6.1088929 -0.47049448
-6.4432573 6.7870388 0
-6.294919 6.6307859 0.51068962
-1.9093002 2.0063107 -0.91322464
-2.2189851 2.3317304 -0.88806552
-2.5750427 2.7058792 -0.82748497
-3.0993741 3.2568514 -0.74953228
-3.8712792 4.067977 -0.62592411
-5.8158002 6.1112981 -0.47122061
-6.4299245 6.7566252 0
-6.2993474 6.6194139 0.51039964
-1.9031945 1.995062 -0.9091506
-2.2044873 2.3108983 -0.88114518
-2.5712948 2.6954117 -0.82523346
-3.0979962 3.2475371 -0.74824959
-3.8726246 4.059557 -0.62534809
-5.8124156 6.0929818 -0.47034949
-6.4255142 6.7356749 0
-6.305542 6.6099119 0.51025409
-1.9351242 2.0260806 -0.92381841
-2.2076142 2.3113785 -0.88183671
-2.5711696 2.6920221 -0.82467109
-3.1017292 3.2475195 -0.74867713
-3.8768613 4.0590849 -0.6256361
-5.8160954 6.089469 -0.47034949
-6.4187942 6.7204962 0
-6.3041553 6.6004691 0.50981909
-1.9221891 2.0076752 -0.91648448
-2.2190785 2.3177683 -0.88529682
-2.5814493 2.6962547 -0.82692266
-3.1021037 3.2400644 -0.74782205
-3.879976 4.0525312 -0.62534809
-5.8288417 6.0880694 -0.47078505
-6.4359069 6.7221327 0
-6.3121262 6.5928469 0.50981909
-1.9092125 1.9893038 -0.9091506
-2.2079871 2.300612 -0.87976223
-2.5829475 2.6913021 -0.82636029
-3.1095681 3.2400143 -0.74867713
-3.8866591 4.0497046 -0.6256361
-5.8361936 6.0810218 -0.47078505
-6.4205995 6.6899433 0
-6.3146882 6.5795894 0.5093835
-1.9321777 2.0083692 -0.91893017
-2.2107654 2.2979424 -0.87976223
-2.5861976 2.688179 -0.82636029
-3.1152587 3.2381029 -0.74910474
-3.8951395 4.0487366 -0.62621319
-4.9356203 5.1302466 -0.39763865
-4.9618387 5.1574993 0
-6.3208342 6.5700836 0.50923848
-1.9328889 2.0042558 -0.91811597
-2.21702 2.2988777 -0.88114518
-2.5894437 2.6850522 -0.82636029
-3.1138282 3.2287982 -0.74782205
-3.8946404 4.0384402 -0.62534809
-0 0 -0
-4.9680672 5.1515002 0
-6.3161397 6.5493469 0.5082224
-1.9249986 1.9912534 -0.91322464
-2.2180541 2.2943952 -0.88045371
-2.5944505 2.6837466 -0.82692266
-3.1070185 3.2139561 -0.74525344
-3.8995173 4.033731 -0.62534809
-0 0 -0
-0 0 0
-4.9876499 5.1593151 0.40082476
-1.9411635 2.0031254 -0.91974437
-2.2190804 2.2899134 -0.87976223
-2.5976915 2.6806097 -0.82692266
-3.114476 3.2138901 -0.7461102
-3.9061868 4.0308719 -0.6256361
-0 0 -0
-0 0 0
-0 0 0
-1.9349732 1.9919158 -0.91567034
-2.2200928 2.2854259 -0.87906808
-2.5991597 2.675648 -0.82636029
-3.1183572 3.2101245 -0.7461102
-3.9074535 4.0224423 -0.62506002
-4.9784603 5.1249666 -0.39908978
-0 0 0
-0 0 0
-1.9511732 2.0037425 -0.92219001
-2.2368546 2.2971208 -0.88460535
-2.602391 2.6725056 -0.82636029
-3.1222336 3.2063541 -0.7461102
-3.9123108 4.0177178 -0.62506002
-4.9864602 5.1208072 -0.39923477
-0 0 0
-5.0099411 5.1449213 0.40111476
-1.9207888 1.9677768 -0.9067049
-2.2273667 2.2818544 -0.87976223
-2.600292 2.6639025 -0.82467109
-3.1350696 3.2117624 -0.74824959
-3.9279993 4.0240893 -0.62678927
-4.9708633 5.0924649 -0.39749309
-4.9736524 5.0953221 0
-4.9925604 5.1146927 0.3992281
-1.9611971 2.0043228 -0.92463571
-2.223104 2.2719889 -0.87699354
-2.6070595 2.6643875 -0.82579577
-3.1317666 3.2006326 -0.74653774
-3.9292445 4.0156465 -0.62621319
-5.8928866 6.0224681 -0.47064006
-4.9925413 5.1023245 0
-6.3779936 6.5182424 0.5093835
-1.9341904 1.9719501 -0.91077894
-2.2328746 2.2764652 -0.87976223
-2.6102769 2.6612353 -0.82579577
-3.1320331 3.1931772 -0.74568099
-3.9250326 4.001658 -0.62477094
-5.8910561 6.0060625 -0.46991393
-6.4875078 6.6141586 0
-6.3822222 6.5068173 0.50909293
-1.9487033 1.98195 -0.91648448
-2.2356236 2.2737656 -0.87976223
-2.611711 2.6562693 -0.82523346
-3.132293 3.1857331 -0.74482584
-3.9262419 3.9932272 -0.62419492
-5.8782749 5.9785638 -0.46831781
-6.4973183 6.6081686 0
-6.3864398 6.4953985 0.50880295
-1.9510967 1.979594 -0.91648448
-2.241888 2.2746327 -0.88114518
-2.6095662 2.647681 -0.82354426
-3.1415479 3.1874328 -0.7461102
-3.9365125 3.9940085 -0.62506002
-5.8891392 5.9751544 -0.46860781
-6.4906831 6.585485 0
-6.3906322 6.4839725 0.50851238
-1.9534872 1.9772351 -0.91648448
-2.2411118 2.2683563 -0.87976223
-2.6252658 2.6571801 -0.82748497
-3.1381803 3.1763299 -0.7443983
-3.9431517 3.9910872 -0.62534809
-5.8835759 5.9551005 -0.46759227
-6.5077796 6.5868921 0
-6.3984618 6.4762459 0.50851238
-1.9506556 1.9696032 -0.91403884
-2.2367897 2.2585166 -0.87699354
-2.6177499 2.6431775 -0.82410872
-3.151046 3.1816537 -0.74653774
-3.9370475 3.9752898 -0.62361777
-5.8889337 5.9461355 -0.46744671
-6.5139041 6.5771766 0
-6.3989758 6.461132 0.50793236
-1.9669647 1.9812769 -0.92055851
-2.2448144 2.2611482 -0.87906808
-2.6209419 2.6400125 -0.82410872
-3.1476538 3.1705568 -0.74482584
-3.9436755 3.9723706 -0.62390685
-5.901608 5.9445496 -0.46788228
-6.5145121 6.5619135 0
-6.4031129 6.4497037 0.50764185
-1.9658737 1.9753982 -0.91893017
-2.2422409 2.2531044 -0.87699354
-2.6259205 2.638643 -0.82467109
-3.1514826 3.1667511 -0.74482584
-3.9539406 3.9730973 -0.62477094
-5.9087863 5.9374142 -0.46788228
-6.5132589 6.5448155 0
-6.4145708 6.4456491 0.50793236
-1.9775306 1.984712 -0.92381841
-2.2294359 2.2375321 -0.87145627
-2.6275141 2.6370561 -0.82467109
-3.1479576 3.1593895 -0.74354154
-3.9545164 3.9688773 -0.62448293
-5.905036 5.9264803 -0.4673017
-6.5172119 6.5408792 0
-6.4092884 6.4325638 0.50720626
-1.9729407 1.9753261 -0.92055851
-2.2374513 2.2401567 -0.87353075
-2.627104 2.6302803 -0.82354426
-3.1590292 3.1628487 -0.74525344
-3.955657 3.9604397 -0.62390685
-5.9103584 5.9175043 -0.46715671
-6.523273 6.5311599 0
-6.4188976 6.4266586 0.50735182
-1.9700849 1.9677058 -0.91811597
-2.2525835 2.2498634 -0.87837654
-2.6284842 2.6253102 -0.82298189
-3.1664848 3.1626608 -0.7461102
-3.9604397 3.955657 -0.62390685
-5.9101501 5.9030132 -0.46657616
-6.5422049 6.5343046 0
-6.4284954 6.4207325 0.50749683
-1.9672067 1.9600887 -0.91567034
-2.2588582 2.2506847 -0.87976223
-2.6406524 2.6310976 -0.82579577
-3.1648467 3.1533952 -0.74482584
-3.9652164 3.9508688 -0.62390685
-5.9191175 5.8976998 -0.46672115
-6.5242887 6.5006814 0
-6.4270468 6.4037914 0.50677127
-1.9643131 1.9524814 -0.91322464
-2.2544587 2.2408793 -0.87699354
-2.6366212 2.6207399 -0.82354426
-3.1741183 3.1549995 -0.7461102
-3.9718199 3.9478962 -0.62419492
-5.9299288 5.8942108 -0.46701169
-6.5413661 6.501965 0
-6.4329319 6.3941841 0.50662571
-1.9736912 1.9570676 -0.91648448
-2.2642906 2.2452195 -0.87976223
-2.643398 2.6211338 -0.82467109
-3.1779282 3.1511619 -0.7461102
-3.9674058 3.9339902 -0.62275374
-5.9278154 5.8778882 -0.46628559
-6.5141034 6.4592381 0
-6.4443469 6.390069 0.50691628
-1.9760544 1.9546814 -0.91648448
-2.2509444 2.226598 -0.87353075
-2.6465633 2.6179378 -0.82467109
-3.1762567 3.1419022 -0.74482584
-3.9758306 3.9328279 -0.62332976
-5.9275312 5.8634186 -0.46570557
-6.5367055 6.4660044 0
-6.4502177 6.3804522 0.50677127
-2.0012836 1.9748591 -0.92707825
-2.258992 2.2291648 -0.87560791
-2.6424901 2.6075993 -0.82241952
-3.1800506 3.138062 -0.74482584
-3.9676979 3.9153092 -0.6213125
-5.9346118 5.8562522 -0.46570557
-6.5389614 6.4526224 0
-6.4523721 6.3671765 0.50633574
-1.9719672 1.9412324 -0.91241044
-2.2545326 2.2193937 -0.87283927
-2.6492569 2.6079659 -0.82354426
-3.18384 3.1342173 -0.74482584
-3.9761088 3.9141376 -0.62188858
-5.9472332 5.8545403 -0.4661406
-6.5523119 6.4501886 0
-6.4563541 6.3557262 0.50604516
-1.9884191 1.9527025 -0.91893017
-2.2590008 2.2184241 -0.87353075
-2.6524062 2.604763 -0.82354426
-3.1857951 3.1285708 -0.7443983
-3.9863734 3.9147689 -0.62275374
-5.946887 5.8400674 -0.46556002
-6.5489635 6.4313293 0
-6.4640288 6.3479204 0.50604516
-1.9784166 1.9381893 -0.91322464
-2.2670577 2.2209616 -0.87560791
-2.6609986 2.6068923 -0.82523346
-3.189573 3.1247191 -0.7443983
-3.9892478 3.908134 -0.6224646
-5.9483762 5.8274279 -0.46512502
-6.5716023 6.4379816 0
-6.4754105 6.3437452 0.50633574
-1.9901735 1.940304 -0.91648448
-2.2742128 2.217226 -0.87629938
-2.6527359 2.5862641 -0.82073033
-3.1952715 3.115205 -0.74396908
-3.9986806 3.8984823 -0.6224646
-5.9605756 5.8112164 -0.46497947
-6.5647798 6.4002805 0
-6.4776959 6.3153791 0.5053196
-1.9925165 1.9378979 -0.91648448
-2.2643063 2.2022376 -0.87145627
-2.6649647 2.591913 -0.82354426
-3.2082398 3.120296 -0.7461102
-4.0052476 3.8954563 -0.62275374
-5.9657321 5.8022003 -0.46483448
-6.5669098 6.3868985 0
-6.4797397 6.3021178 0.5048846
-1.9948566 1.9354889 -0.91648448
-2.2795644 2.2117238 -0.87629938
-2.6699233 2.5904655 -0.82410872
-3.2009499 3.1056883 -0.74354154
-4.0043807 3.8852088 -0.62188858
-5.9708753 5.79318 -0.46468946
-6.5708904 6.3753381 0
-6.4836164 6.2906613 0.50459403
-1.9971938 1.9330771 -0.91648448
-2.2732236 2.2002454 -0.87283927
-2.6675725 2.5819345 -0.82241952
-3.2028573 3.1000347 -0.74311399
-4.0109291 3.8821647 -0.62217659
-5.9760056 5.7841554 -0.46454448
-6.5636287 6.3529139 0
-6.4949503 6.2864404 0.5048846
-2.0137525 1.944397 -0.92300421
-2.2885156 2.209697 -0.87768507
-2.6706903 2.5787091 -0.82241952
-3.2121427 3.1015134 -0.7443983
-4.0193419 3.8809121 -0.62275374
-5.9811158 5.7751203 -0.46439892
-6.5675521 6.3413596 0
-6.4950643 6.271368 0.50430405
-2.0018594 1.9282451 -0.91648448
-2.2839565 2.1999683 -0.87491643
-2.6738043 2.5754802 -0.82241952
-3.2140336 3.095844 -0.74396908
-4.0147157 3.8670826 -0.6213125
-5.9843502 5.7642875 -0.46410891
-6.5827069 6.340641 0
-6.5101233 6.2707262 0.5048846
-1.9863695 1.9087031 -0.9083364
-2.2902274 2.2006803 -0.87629938
-2.6805751 2.5757654 -0.82354426
-3.2159228 3.0901811 -0.74354154
-4.0231118 3.8658094 -0.62188858
-5.9950542 5.7606497 -0.46439892
-6.5884891 6.3308811 0
-6.5120726 6.2574525 0.50444907
-1.9958113 1.9131429 -0.91159624
-2.287457 2.1927083 -0.8742249
-2.6818528 2.5707679 -0.82298189
-3.2196543 3.0862932 -0.74354154
-4.0333834 3.8663168 -0.62275374
-6.0020108 5.7534013 -0.46439892
-6.5942569 6.3211164 0
-6.519629 6.2495794 0.50444907
-1.9987504 1.9136444 -0.91241044
-2.292402 2.1947925 -0.87560791
-2.6834056 2.5691471 -0.82298189
-3.219666 3.0825739 -0.74311399
-4.0263791 3.8549376 -0.6213125
-6.009243 5.7533717 -0.46468946
-6.586792 6.3063288 0
-6.508388 6.2312636 0.50328791
-1.9903406 1.9009886 -0.9075222
-2.3059411 2.2024209 -0.87976223
-2.6883435 2.5676563 -0.82354426
-3.2215335 3.0769098 -0.74268645
-4.031034 3.8500695 -0.6213125
-6.0199447 5.7496924 -0.46497947
-6.5906467 6.2947741 0
-6.5234289 6.2305737 0.50386846
-2.0158968 1.9207449 -0.91811597
-2.2904341 2.1823239 -0.87283927
-2.6896062 2.562655 -0.82298189
-3.2215285 3.0694699 -0.74182969
-4.0412955 3.8505435 -0.62217659
-6.043817 5.7585449 -0.46628559
-6.5549102 6.2455134 0
-6.5271864 6.2190986 0.50357795
-2.0038843 1.9046854 -0.91159624
-2.3057997 2.1916552 -0.87768507
-2.6945407 2.561152 -0.82354426
-3.2308187 3.0708826 -0.74311399
-4.0384464 3.8385298 -0.62102342
-6.0545416 5.7548213 -0.46657616
-6.4624848 6.1425705 0
-6.5177474 6.1950974 0.50227183
-1.9918361 1.8886578 -0.90507656
-2.3120837 2.1923165 -0.87906808
-2.6902652 2.5509079 -0.82129484
-3.2289369 3.061676 -0.74182969
-4.0468388 3.8372102 -0.62160057
-6.0803428 5.765377 -0.46802726
-6.4359126 6.1025281 0
-6.4950662 6.158618 0.49995014
-2.0246398 1.9151217 -0.91893017
-2.3165588 2.1912501 -0.87976223
-2.698878 2.5528886 -0.82298189
-3.2475533 3.0718846 -0.74525344
-4.0458336 3.8269837 -0.62073541
-6.0948553 5.7651687 -0.46860781
-6.4432817 6.0947471 0
-6.4760714 6.1257634 0.49791792
-2.0215578 1.9075835 -0.91648448
-2.3027778 2.1729484 -0.87353075
-2.7019608 2.5496256 -0.82298189
-3.2381916 3.055624 -0.74225724
-4.0466962 3.8185453 -0.62015933
-6.1339431 5.7881145 -0.47107506
-6.4392805 6.0762372 0
-6.4721327 6.1072373 0.49704733
-2.0076659 1.889894 -0.9091506
-2.3035767 2.1684463 -0.87283927
-2.6994944 2.5411391 -0.82129484
-3.2437558 3.0534737 -0.74268645
-4.0475368 3.8101039 -0.61958224
-6.157959 5.7967267 -0.47238117
-6.4409385 6.0631061 0
-6.4813976 6.101192 0.49719235
-2.0243618 1.9010023 -0.91567034
-2.3080223 2.1673772 -0.87353075
-2.7044134 2.5396132 -0.82185721
-3.2455664 3.0477896 -0.74225724
-4.061563 3.8140616 -0.62102342
-6.1782198 5.8017349 -0.47339728
-6.4672275 6.0731306 0
-6.5380101 6.1396003 0.50096571
-2.0140293 1.8867249 -0.9099648
-2.3069811 2.1611598 -0.87214774
-2.7111852 2.5398145 -0.82298189
-3.247375 3.0421124 -0.74182969
-4.062397 3.805618 -0.6204474
-6.1985021 5.8067021 -0.47441339
-6.4745607 6.0653119 0
-6.5568056 6.1423583 0.50183684
-2.0289497 1.8961046 -0.91567034
-2.3169227 2.1652224 -0.87491643
-2.7105427 2.5330703 -0.82185721
-3.2548032 3.0416954 -0.74268645
-4.0669923 3.8007066 -0.6204474
-6.2187977 5.8116226 -0.47542897
-6.4761786 6.0521517 0
-6.3421092 5.9268608 0.48485619
-2.0330455 1.8953354 -0.91648448
-2.3066902 2.1504445 -0.87007064
-2.717315 2.5332551 -0.82298189
-3.256593 3.0360048 -0.74225724
-4.0753622 3.7993138 -0.62102342
-6.2410202 5.8182793 -0.47659007
-6.4930029 6.0531936 0
-6.320755 5.8926129 0.48267895
-2.0407655 1.8979287 -0.91893017
-2.320313 2.1579101 -0.8742249
-2.7147975 2.5247838 -0.82129484
-3.2621441 3.0338209 -0.74268645
-4.0780578 3.7926269 -0.62073541
-6.229022 5.7930412 -0.47513896
-6.4564862 6.0045848 0
-6.3982711 5.9504442 0.48804897
-2.0484948 1.9005061 -0.92137587
-2.3210742 2.1533937 -0.87353075
-2.719707 2.5232282 -0.82185721
-3.2563999 3.0211489 -0.740547
-4.0788484 3.7841816 -0.62015933
-6.220778 5.7713723 -0.47397783
-6.3759785 5.9153609 0
-6.4968843 6.0275321 0.49501511
-2.0217667 1.8711684 -0.9083364
-2.3199956 2.1471827 -0.87214774
-2.7190206 2.516485 -0.82073033
-3.2581587 3.0154634 -0.74011779
-4.0777216 3.7739782 -0.61929423
-6.2067676 5.7444348 -0.47238117
-6.2303281 5.7662406 0
-6.4412394 5.9614415 0.49022621
-2.0240262 1.8687241 -0.9083364
-2.3299615 2.1511853 -0.87491643
-2.7239316 2.5149264 -0.82129484
-3.2693443 3.0184898 -0.74182969
-4.0822787 3.7690482 -0.61929423
-5.6619868 5.2275462 -0.43043822
-0 0 0
-6.204072 5.7280383 0.4716489
-2.0426428 1.8813454 -0.91567034
-2.3344026 2.1500664 -0.87560791
-2.7269685 2.5116332 -0.82129484
-3.2692163 3.0110624 -0.74097455
-4.0982413 3.7746232 -0.62102342
-5.6778536 5.2295012 -0.43116379
-0 0 0
-6.1880608 5.69942 0.46990779
-2.0394528 1.8738575 -0.91322464
-2.3517778 2.1608231 -0.88114518
-2.7281249 2.5066123 -0.82073033
-3.2766292 3.0105803 -0.74182969
-4.0951805 3.7626686 -0.61987025
-5.6765146 5.2156048 -0.43058324
-0 0 0
-5.703218 5.24014 0.43260875
-2.0344274 1.8647118 -0.9099648
-2.321101 2.1274705 -0.86868763
-2.7349014 2.5067511 -0.82185721
-3.2726948 2.9996808 -0.74011779
-4.0978193 3.7559717 -0.61958224
-5.6828127 5.2087421 -0.43058324
-6.189065 5.6727619 0
-5.7172074 5.2402678 0.43318933
-2.0464954 1.8734992 -0.91485614
-2.3242345 2.1277602 -0.8693791
-2.7364154 2.5050983 -0.82185721
-3.2858708 3.0081067 -0.74268645
-4.0962758 3.7500057 -0.61900616
-5.6878805 5.2070675 -0.43072879
-5.6703849 5.1910505 0
-5.708869 5.2262821 0.43231821
-2.050581 1.8726901 -0.91567034
-2.3305051 2.1283307 -0.87076211
-2.737566 2.5000782 -0.82129484
-3.2857084 3.0006685 -0.74182969
-4.1027117 3.7467959 -0.61929423
-5.6980019 5.203692 -0.4310188
-5.628612 5.1403222 0
-5.7362876 5.2386565 0.43391487
-2.0656335 1.8818643 -0.92137587
-2.3460588 2.1373415 -0.87560791
-2.7330716 2.4899237 -0.81904334
-3.2855401 2.993242 -0.74097455
-4.1072364 3.7418358 -0.61929423
-5.7062044 5.1985517 -0.43116379
-0 0 0
-5.7695017 5.2562175 0.43594655
-2.075222 1.8860162 -0.92463571
-2.3375037 2.1243846 -0.87145627
-2.7379568 2.4883268 -0.81960565
-3.2948482 2.9944444 -0.74225724
-4.1098423 3.7351325 -0.61900616
-5.7182522 5.1968975 -0.43159935
-0 0 0
-5.7758484 5.2492423 0.43594655
-2.042707 1.8519638 -0.9091506
-2.3419256 2.1232421 -0.87214774
-2.748491 2.4918435 -0.82185721
-3.2927639 2.9852934 -0.74097455
-4.1200953 3.7353704 -0.61987025
-5.7841988 5.2440839 -0.43609825
-12.425923 11.265619 0
-5.764863 5.2265534 0.43464044
-2.059608 1.8627573 -0.91567034
-2.3463485 2.122092 -0.87283927
-2.7496173 2.4868178 -0.82129484
-3.3020749 2.9864733 -0.74225724
-4.1150165 3.7217164 -0.61842906
-5.7886057 5.2353497 -0.43595326
-12.418293 11.231393 0
-5.769249 5.2178426 0.43449545
-2.0380027 1.8387451 -0.90507656
-2.3619514 2.131021 -0.87768507
-2.7563896 2.4868946 -0.82241952
-3.2999687 2.9773273 -0.74097455
-4.1252732 3.721941 -0.61929423
-6.0572939 5.465066 -0.4556911
-12.424126 11.209406 0
-12.450484 11.233188 0.93665183
-2.0475714 1.8428952 -0.9083364
-2.3514698 2.1164157 -0.87283927
-2.7537248 2.478461 -0.82073033
-3.3035638 2.9733379 -0.74097455
-4.1278467 3.715225 -0.61900616
-6.29565 5.6663337 -0.47310728
-12.439601 11.196132 0
-12.435083 11.192066 0.93447512
-2.0442777 1.8354644 -0.9058907
-2.3465583 2.1068685 -0.87007064
-2.749155 2.4683418 -0.81847882
-3.3167028 2.9779174 -0.74311399
-4.130403 3.7085016 -0.61871707
-6.3508272 5.7021203 -0.47673562
-12.456989 11.184566 0
-12.454392 11.182236 0.93491012
-2.0741122 1.8577297 -0.91811597
-2.3584445 2.1123991 -0.87353075
-2.7616045 2.4734993 -0.82129484
-3.3050013 2.960206 -0.73969024
-4.1368132 3.7052388 -0.61900616
-6.3190012 5.6597695 -0.47383285
-12.462741 11.162561 0
-12.47177 11.17065 0.93520069
-2.0652933 1.8453383 -0.91322464
-2.3647404 2.1128941 -0.87491643
-2.7645912 2.4701607 -0.82129484
-3.3085756 2.9562104 -0.73969024
-4.1374259 3.6967876 -0.61842906
-6.3335857 5.6590552 -0.47441339
-12.483982 11.15443 0
-12.471693 11.143451 0.93418455
-2.0804386 1.854355 -0.91893017
-2.3691626 2.1117029 -0.87560791
-2.7694688 2.4685075 -0.82185721
-3.3198104 2.9590428 -0.74140215
-4.1438189 3.693505 -0.61871707
-6.3481784 5.6583142 -0.47499394
-12.499392 11.141068 0
-12.485148 11.128373 0.93418455
-2.0752897 1.8452705 -0.91567034
-2.3848381 2.1205094 -0.88045371
-2.7781405 2.4702196 -0.82354426
-3.3157098 2.9482062 -0.73969024
-4.1405468 3.6816206 -0.6175639
-6.3414159 5.6385517 -0.47397783
-12.542019 11.151898 0
-12.494706 11.109829 0.93389457
-2.0645728 1.8312793 -0.9099648
-2.3761339 2.1076345 -0.87629938
-2.7773252 2.4634919 -0.82241952
-3.3211884 2.9458995 -0.74011779
-4.1430593 3.6749003 -0.61727589
-6.3579421 5.6395044 -0.4747034
-12.549643 11.131553 0
-12.519781 11.105065 0.93476516
-2.0945508 1.8533528 -0.92219001
-2.3617711 2.0898011 -0.87007064
-2.7802999 2.4601343 -0.82241952
-3.3266735 2.9435904 -0.740547
-4.1494317 3.6716039 -0.6175639
-6.3569674 5.6249304 -0.47412285
-12.537747 11.093963 0
-12.523461 11.081322 0.93403959
-2.0893769 1.8442781 -0.91893017
-2.3981462 2.1168265 -0.88252819
-2.7794642 2.4534132 -0.82129484
-3.3302279 2.9395685 -0.740547
-4.1558099 3.668304 -0.61785305
-6.3676596 5.620688 -0.47441339
-12.537491 11.066754 0
-12.536842 11.066181 0.93403959
-2.0619245 1.815618 -0.9058907
-2.3686955 2.0857439 -0.87076211
-2.7767038 2.445014 -0.81960565
-3.3357022 2.9372373 -0.74097455
-4.1641178 3.6666951 -0.61842906
-6.3627415 5.6026831 -0.47354227
-12.521554 11.025797 0
-12.546308 11.047594 0.93374956
-2.097538 1.8424827 -0.92055851
-2.3674479 2.0795722 -0.8693791
-2.7796562 2.4416571 -0.81960565
-3.3392489 2.9332047 -0.74097455
-4.162714 3.6565385 -0.6175639
-6.3948836 5.6172824 -0.47542897
-12.540735 11.015814 0
-12.553789 11.02728 0.93331403
-2.0755987 1.8187728 -0.9099648
-2.373729 2.0800138 -0.87076211
-2.7806952 2.4366236 -0.81904334
-3.3427906 2.9291677 -0.74097455
-4.1690798 3.6532154 -0.61785305
-6.4055791 5.6129794 -0.47571951
-12.573606 11.017801 0
-12.563191 11.008675 0.93302345
-2.0759358 1.8146385 -0.9091506
-2.383796 2.0837483 -0.87353075
-2.7855487 2.4349327 -0.81960565
-3.3405273 2.9200563 -0.73969024
-4.1715379 3.6464682 -0.6175639
-6.4240909 5.6154928 -0.47659007
-12.56732 10.985476 0
-12.58431 11.000327 0.933604
-2.0613632 1.7975107 -0.90181667
-2.3900974 2.0841672 -0.87491643
-2.7884886 2.431565 -0.81960565
-3.3459861 2.9177034 -0.74011779
-4.1739936 3.6397266 -0.61727589
-6.4484954 5.6230946 -0.47789618
-12.606082 10.992517 0
-12.595635 10.983407 0.93345904
-2.1194739 1.8436799 -0.92626411
-2.3755801 2.0664606 -0.86868763
-2.7914248 2.4281938 -0.81960565
-3.3437042 2.9086087 -0.73883516
-4.1803379 3.6363764 -0.6175639
-6.4572515 5.6170092 -0.47804174
-12.638987 10.994353 0
-12.597138 10.957951 0.93258846
-2.1056612 1.8294309 -0.91974437
-2.3957629 2.0814757 -0.87560791
-2.7986474 2.4315081 -0.82129484
-3.3609562 2.9200506 -0.74225724
-4.1786327 3.6304607 -0.61698788
-0 0 -0
-12.64956 10.990132 0
-12.613563 10.958858 0.93331403
-2.0910623 1.812318 -0.91241044
-2.3793216 2.0621514 -0.86868763
-2.7996576 2.4264557 -0.82073033
-3.3509085 2.9042232 -0.7392627
-4.179111 3.6220243 -0.61641181
-6.4733067 5.6103973 -0.47847673
-12.631363 10.947568 0
-12.611086 10.929994 0.93215293
-2.0913827 1.8081751 -0.91159624
-2.4178643 2.0904458 -0.88183671
-2.7987471 2.4197507 -0.81960565
-3.3524752 2.898495 -0.73883516
-4.1854396 3.6186621 -0.61669987
-6.4899149 5.6110735 -0.47920287
-12.609149 10.901663 0
-12.608559 10.901153 0.93099177
-2.0692365 1.7846631 -0.90100253
-2.4013944 2.0711408 -0.87491643
-2.7958946 2.411387 -0.81791645
-3.3559752 2.8944421 -0.73883516
-4.1917653 3.6152897 -0.61698788
-6.4888191 5.5964394 -0.47862232
-12.580928 10.850726 0
-12.604013 10.870637 0.92968565
-2.1182294 1.8224596 -0.92137587
-2.3829739 2.0502377 -0.86730194
-2.8026621 2.4113245 -0.81904334
-3.373086 2.9020996 -0.74182969
-4.1961308 3.6102221 -0.61698788
-6.5014801 5.5936742 -0.47905731
-12.572328 10.816844 0
-12.628955 10.865564 0.93055624
-2.0941689 1.7973596 -0.9099648
-2.3911624 2.0522602 -0.8693791
-2.8171387 2.4178622 -0.82241952
-3.3707519 2.8930111 -0.740547
-4.1985292 3.6034665 -0.61669987
-6.5062642 5.5841236 -0.47891229
-12.577489 10.794866 0
-12.584894 10.801221 0.92634732
-2.1019733 1.7996519 -0.91241044
-2.4241319 2.0754752 -0.88045371
-2.8104095 2.4061954 -0.81960565
-3.3644896 2.8805835 -0.73840594
-4.204843 3.6000712 -0.61698788
-6.5189304 5.5813293 -0.47934785
-12.608314 10.794891 0
-12.625573 10.809669 0.92837954
-2.1323395 1.8211899 -0.92463571
-2.4075575 2.0562484 -0.87353075
-2.8075166 2.3978457 -0.81791645
-3.3660176 2.8748505 -0.7379784
-4.2111549 3.5966661 -0.61727589
