# .PCD v0.7 - Point Cloud Data file format
VERSION 0.7
FIELDS x y z
SIZE 4 4 4
TYPE F F F
COUNT 1 1 1
WIDTH 1539
HEIGHT 1
VIEWPOINT 0 0 0 1 0 0 0
POINTS 1539
DATA ascii
0.84325081 6.7076054 -0.37761024
0.98325801 7.8212867 0
1.1676581 9.2880898 0.52288079
0.68922061 5.5364237 -0.93012542
0.8391003 6.7403889 -0.75709075
0.83482468 6.7060432 -0.37746525
0.96802044 7.7759881 0
1.1538664 9.2688656 0.52171969
0.6822167 5.5347071 -0.92969787
0.83032185 6.7362585 -0.75651366
0.82608473 6.7018843 -0.37717471
0.95098287 7.7151613 0
1.1429834 9.2728291 0.52186465
0.67552859 5.5355272 -0.92969787
0.82218176 6.737257 -0.75651366
0.81924528 6.7131948 -0.37775525
0.93787682 7.6853046 0
1.1308348 9.2664728 0.52142966
0.66791552 5.5286918 -0.92841357
0.8121798 6.7228436 -0.75478446
0.81019908 6.7064481 -0.37732026
0.92609286 7.6657624 0
1.1196373 9.2678328 0.52142966
0.66062564 5.5244017 -0.92755842
0.80436277 6.7263861 -0.75507247
0.80332798 6.7177324 -0.37790024
0.91034061 7.6126127 0
1.1084381 9.2691784 0.52142966
0.65485549 5.532846 -0.92884272
0.79866678 6.7479014 -0.75737882
0.79337841 6.7032204 -0.37702969
0.90267193 7.6266365 0
1.096931 9.2679234 0.5212841
0.65121162 5.530684 -0.92841357
0.79549748 6.7560911 -0.75824392
0.79024041 6.7114429 -0.37746525
0.89988953 7.6426835 0
1.0907245 9.2634277 0.52099413
0.64452839 5.531467 -0.92841357
0.80080408 6.8726544 -0.77121681
0.78213036 6.7123928 -0.37746525
0.88944936 7.6334252 0
1.0786281 9.2569942 0.52055854
0.63549203 5.5118399 -0.92498982
0.79605305 6.9044409 -0.77467525
0.7746138 6.7184906 -0.37775525
0.87933064 7.6267357 0
0 0 0
0.6282503 5.5075078 -0.92413467
0.79269296 6.9490819 -0.77957594
0.76649529 6.7194219 -0.37775525
0.86864007 7.6148667 0
1.055666 9.2544155 0.52026856
0.62217021 5.5133595 -0.92498982
0.79386675 7.0348482 -0.78908932
0.76041555 6.73842 -0.37877136
0.85797948 7.6029825 0
1.0447742 9.2582636 0.52041358
0.61579359 5.5166659 -0.92541903
0.78536594 7.0358019 -0.78908932
0.74967885 6.7160945 -0.37746525
0.84619403 7.5807385 0
0 0 0
0.60997158 5.5250535 -0.92670166
0.7825405 7.0881634 -0.79485512
0.74099237 6.7118254 -0.37717471
0.83960354 7.6050339 0
0 0 0
0.60301685 5.5232368 -0.92627412
0.77734393 7.1199579 -0.79831463
0.73400998 6.7230482 -0.37775525
1.0264291 9.4014139 0
0 0 0
0.59551579 5.5163026 -0.92498982
0.82509261 7.6428876 -0.85683495
0.72505009 6.716187 -0.37732026
1.0136722 9.3897123 0
0.99750513 9.2399569 0.51910746
0.58993977 5.5272284 -0.92670166
0.81503332 7.6361613 -0.85596979
0.71969157 6.7428913 -0.37877136
1.0001161 9.3702278 0
0.98826939 9.2592344 0.520123
0.58191425 5.5151749 -0.92456228
0.80472034 7.6268516 -0.85481662
0.71018058 6.7308378 -0.3780458
0.98988563 9.3817825 0
0.97599006 9.2500849 0.51954246
0.57604885 5.5235362 -0.92584658
0.79765046 7.6483984 -0.85712296
0.70096904 6.7213531 -0.37746525
0.9788186 9.3855572 0
0.96508271 9.253849 0.51968801
0.56990021 5.5293303 -0.92670166
0.7876125 7.6416359 -0.85625786
0.69391274 6.7325344 -0.3780458
0.96614337 9.3737917 0
0.95363337 9.2524166 0.51954246
0.56191838 5.5172482 -0.92456228
0.77864134 7.6451626 -0.85654694
0.68998879 6.7747192 -0.38036749
0.95692587 9.3956652 0
0.94377011 9.2664948 0.52026856
0.55525148 5.5179229 -0.92456228
0.7694031 7.6460977 -0.85654694
0.67894137 6.7471161 -0.37877136
0.94661456 9.4071722 0
0.93153203 9.257287 0.51968801
0.54909211 5.5237041 -0.92541903
0.76093054 7.6547356 -0.85741103
0.67284459 6.7686172 -0.37993249
0.93550438 9.4108963 0
0.92111611 9.2661552 0.520123
0.54216582 5.521801 -0.92498982
0.75193322 7.6582212 -0.85769904
0.66847348 6.808208 -0.38210917
0.92362434 9.4068451 0
0.91093475 9.277606 0.52070355
0.5359894 5.5275674 -0.92584658
0.74442685 7.6771474 -0.85971731
0.65899289 6.7960815 -0.3813836
0.91250825 9.4105425 0
0.89997542 9.2812929 0.52084911
0.52906555 5.5256581 -0.92541903
0.73786193 7.7063656 -0.86288881
0.65152389 6.804635 -0.38181916
0.90237677 9.4245882 0
0.88925499 9.2875423 0.52113909
0.52190489 5.5211768 -0.92456228
0.73049706 7.7278519 -0.86519516
0.64794683 6.8545613 -0.38457638
0.8892737 9.4075327 0
0.87901032 9.2989578 0.52171969
0.51594895 5.5294738 -0.92584658
0.72332138 7.751904 -0.86778951
0.63700914 6.8268876 -0.38298026
0.87814838 9.4111996 0
0.86729133 9.2948437 0.52142966
0.50856084 5.5224218 -0.92456228
0.71253061 7.7373137 -0.86605924
0.63114208 6.8535223 -0.38443139
0.86773074 9.4226198 0
0.85653579 9.301055 0.52171969
0.50142354 5.5179243 -0.92370713
0.7048198 7.7562027 -0.86807752
0.62027442 6.8258219 -0.38283527
0.8586995 9.4495745 0
0.84529668 9.302083 0.52171969
0.49785921 5.5156722 -0.92327958
0.6982736 7.7360191 -0.86577117
0.84786248 9.393281 -0.52680582
0.85158706 9.4345446 0
0.83967662 9.3025923 0.52171969
0.49119422 5.5162697 -0.92327958
0.69007242 7.7497358 -0.86721241
0.83720356 9.4020662 -0.52724135
0.84018666 9.4355669 0
0.82889616 9.3087711 0.52200967
0.4843033 5.5142946 -0.92285037
0.68070787 7.7505641 -0.86721241
0.82425082 9.3849487 -0.52622527
0.83060563 9.457305 0
0.81810284 9.3149481 0.52230024
0.47808343 5.5199957 -0.92370713
0.67044961 7.7410736 -0.86605924
0.8122375 9.3781691 -0.52578968
0.8178308 9.44275 0
0.80729491 9.3211021 0.52259022
0.47119504 5.518014 -0.92327958
0.65999544 7.7289948 -0.864618
0.79979998 9.3662014 -0.52506417
0.8066417 9.4463224 0
0.79691595 9.332427 0.52317077
0.46452725 5.518579 -0.92327958
0.65065598 7.7297869 -0.864618
0.78804672 9.3619871 -0.52477413
0.79544514 9.4498806 0
0.78520346 9.3282089 0.52288079
0.45828286 5.5242481 -0.92413467
0.64088833 7.7254171 -0.86404198
0.77630395 9.357748 -0.52448356
0.7848869 9.4612093 0
0.77436078 9.3343258 0.52317077
0.45077097 5.5145636 -0.92242283
0.63049978 7.7132988 -0.8626008
0 0 -0
0.77430242 9.4725266 0
0.76350534 9.3404388 0.52346134
0.43744314 5.5156369 -0.92242283
0.60960835 7.6864352 -0.8594293
0 0 -0
0.75120318 9.4717779 0
0.74051964 9.3370714 0.52317077
0.43157768 5.5263987 -0.92413467
0.59870934 7.6665373 -0.85712296
0 0 -0
0.74036592 9.4804649 0
0.73004633 9.348321 0.52375132
0.4235222 5.508997 -0.92113853
0.58865237 7.6569395 -0.85596979
0.71776366 9.3363647 -0.52303249
0.73010665 9.4969168 0
0.71934789 9.3569717 0.52418691
0.41686535 5.5095048 -0.92113853
0.57861942 7.6473289 -0.85481662
0.70648193 9.337225 -0.52303249
0.71725702 9.4796343 0
0.70843375 9.3630209 0.52447748
0.41116136 5.5228114 -0.92327958
0.56861061 7.6377048 -0.85366344
0.69500649 9.3354826 -0.52288747
0.70715415 9.4986534 0
0.69731259 9.3664589 0.52462244
0.40467516 5.5258622 -0.92370713
0.55919278 7.6358094 -0.85337543
0.68315637 9.3285389 -0.52245194
0.69529659 9.4943151 0
0.68637377 9.3724728 0.52491248
0.39836636 5.5314631 -0.92456228
0.54978037 7.6339021 -0.85308743
0.67169768 9.3267679 -0.52230692
0.68513215 9.5133104 0
0.67542213 9.3784838 0.52520299
0.39204535 5.5370665 -0.92541903
0.5398252 7.6242409 -0.85193425
0.65932614 9.3120165 -0.5214358
0.67363667 9.5141315 0
0.6639055 9.3766937 0.52505744
0.38464177 5.5272927 -0.92370713
0.530433 7.6223097 -0.85164624
0.64861524 9.3205853 -0.52187133
0.66250187 9.5201359 0
0.65383804 9.3956366 0.52607358
0.37866327 5.5379977 -0.92541903
0.52139884 7.6255231 -0.85193425
0.5559966 8.1315193 -0.4552561
0.65028805 9.5105438 0
0.64213055 9.3912401 0.5257836
0.37145519 5.5307651 -0.92413467
0.51235765 7.6287255 -0.85222226
0.54947865 8.1814375 -0.45801333
0.6393193 9.5191154 0
0.63113052 9.3971891 0.52607358
0.36527902 5.5388966 -0.92541903
0.50279939 7.6241822 -0.85164624
0.54078972 8.2002478 -0.45902944
0.62935799 9.5432501 0
0.61960459 9.3953543 0.52592856
0.35858607 5.5393343 -0.92541903
0.49408746 7.6325202 -0.85251027
0.52920198 8.1749601 -0.45757776
0.61816227 9.5491924 0
0.60858709 9.4012775 0.52621859
0.35254353 5.5500112 -0.92713088
0.48470086 7.6305327 -0.85222226
0.51668882 8.1341114 -0.4552561
0.60678899 9.552537 0
0.59722704 9.4020061 0.52621859
0.34567708 5.5478635 -0.92670166
0.47580189 7.636271 -0.85279834
0.50346667 8.0802708 -0.45220831
0.59314173 9.5194893 0
0.58667451 9.4156952 0.5269447
0.34185144 5.5403919 -0.92541903
0.47071093 7.6288199 -0.85193425
0.49618435 8.0416679 -0.45003107
0.58931369 9.5510168 0
0.5809859 9.416048 0.5269447
0.33515671 5.540801 -0.92541903
0.46227333 7.6422892 -0.85337543
0.48317266 7.9877963 -0.44698328
0.57808727 9.556922 0
0.57007825 9.4245167 0.52737969
0.3284615 5.5412021 -0.92541903
0.45303878 7.6428423 -0.85337543
0.47444287 8.003933 -0.44785386
0.56592321 9.5472221 0
0.55915153 9.4329834 0.52781522
0.32236102 5.551846 -0.92713088
0.44335365 7.6356354 -0.85251027
0.46341589 7.9811559 -0.44654775
0.55499029 9.5582914 0
0.54790372 9.4362431 0.52796024
0.31565246 5.5522313 -0.92713088
0.43456772 7.6439147 -0.85337543
0.45362452 7.9791183 -0.44640273
0.54432654 9.5745392 0
0.53679669 9.4420919 0.52825081
0.30922839 5.5577297 -0.92798597
0.42504355 7.6392641 -0.85279834
0.44225076 7.9485273 -0.44466105
0.5323233 9.5673923 0
0.52524263 9.4401321 0.52810526
0.30265209 5.5606604 -0.92841357
0.41510999 7.6268616 -0.85135716
0.43222293 7.9412794 -0.44422606
0.5206213 9.5654325 0
0.51425946 9.4485455 0.52854079
0.29593292 5.5610218 -0.92841357
0.40658122 7.6402693 -0.85279834
0.42179838 7.9262223 -0.44335493
0.51044619 9.5920477 0
0.50325674 9.4569473 0.52897638
0.28868002 5.5511212 -0.92670166
0.39761806 7.645926 -0.85337543
0.40965718 7.87743 -0.44059771
0.49926081 9.6004467 0
0.49169472 9.4549561 0.52883136
0.28184226 5.5489044 -0.92627412
0.3887729 7.6541524 -0.8542406
0.39882016 7.851963 -0.43914604
0.48752829 9.5984468 0
0.48066494 9.4633207 0.52926636
0.27551877 5.5569353 -0.92755842
0.37901175 7.6442838 -0.85308743
0.3885605 7.8368726 -0.43827549
0.47502783 9.5808306 0
0.46910146 9.4613018 0.52912134
0.26892802 5.5598259 -0.92798597
0.37002453 7.6498981 -0.85366344
0.378212 7.8191662 -0.43725938
0.46407998 9.5944033 0
0.45817113 9.4722433 0.52970189
0.26172614 5.5498896 -0.92627412
0.36041522 7.6425862 -0.85279834
0.36766228 7.7962599 -0.43595326
0.45297703 9.6053553 0
0.44758239 9.490962 0.53071803
0.2553736 5.5578976 -0.92755842
0.35118037 7.6430159 -0.85279834
0.35669139 7.7629566 -0.43406656
0.44148985 9.6084929 0
0.43575618 9.4837065 0.5302825
0.24934593 5.5735841 -0.93012542
0.34182954 7.6408534 -0.85251027
0.34765962 7.771172 -0.43450212
0.43022859 9.6168213 0
0.42476118 9.4946089 0.53086305
0.24205312 5.5610604 -0.92798597
0.33248445 7.638679 -0.85222226
0.33713925 7.7456212 -0.43305045
0.41792899 9.6017284 0
0.41374046 9.5054989 0.5314436
0.23489937 5.5510898 -0.92627412
0.32325435 7.6390753 -0.85222226
0.32789013 7.7486267 -0.43319601
0.35538647 8.3984137 0
0.4020347 9.5007954 0.53115302
0.22829711 5.5539322 -0.92670166
0.31381154 7.6342969 -0.85164624
0.31788665 7.7334347 -0.43232492
0.34609303 8.4196301 0
0.39055455 9.5012741 0.53115302
0.22179097 5.559339 -0.92755842
0.30448335 7.6320786 -0.85135716
0.30740297 7.7052603 -0.43072879
0.33612701 8.4252481 0
0.37948817 9.5121241 0.53173357
0.21427958 5.5390816 -0.92413467
0.2949616 7.6246948 -0.85049307
0.29387391 7.5965781 -0.4246332
0.3261475 8.4308443 0
0.36839613 9.5229616 0.53231412
0.20845163 5.5624213 -0.92798597
0.28545776 7.6172891 -0.84962791
0.28274852 7.5449948 -0.42173043
0.31440124 8.3896313 0
0.35688922 9.5234003 0.53231412
0.20154448 5.5575433 -0.92713088
0.27662849 7.6279674 -0.85078108
0.26666319 7.3531771 -0.41099039
0.30294317 8.3535891 0
0.345947 9.5394096 0.53318524
0.19464909 5.5526471 -0.92627412
0.26704893 7.6179566 -0.84962791
0.25686797 7.3275304 -0.40953925
0.28947622 8.2577276 0
0.33414704 9.5320282 0.53274971
0.18759233 5.5426159 -0.92456228
0.25766876 7.6130986 -0.84905082
0.24731073 7.3070598 -0.40837815
0.27632898 8.1644354 0
0.32271701 9.5350189 0.53289473
0.18458484 5.5529904 -0.92627412
0.25315541 7.6158457 -0.8493399
0.24194677 7.2786479 -0.40678203
0.270013 8.1229839 0
0.31738791 9.5481949 0.53362024
0.17779291 5.5506463 -0.92584658
0.24395297 7.6161461 -0.8493399
0.23331799 7.2841244 -0.40707204
0.25878143 8.0790863 0
0.30585054 9.5485716 0.53362024
0.17124391 5.555984 -0.92670166
0.23443145 7.6060939 -0.84818673
0.22395594 7.2662182 -0.40605593
0.24773645 8.0377731 0
0.29463294 9.5593233 0.53420085
0.16475849 5.5638871 -0.92798597
0.22493456 7.5960302 -0.84703356
0.21402252 7.227531 -0.40387923
0.23679198 7.9964547 0
0.28315929 9.5622768 0.5343464
0.15774398 5.5538177 -0.92627412
0.21582945 7.5988793 -0.84732157
0.20558439 7.238174 -0.4044598
0.22668618 7.9811215 0
0.27197373 9.5755968 0.53507191
0.15096344 5.5514407 -0.92584658
0.20559281 7.5603495 -0.84299695
0.19606127 7.2098422 -0.40286312
0.21675941 7.9709835 0
0.26054445 9.5811081 0.53536195
0.14405538 5.5439181 -0.92456228
0.19370317 7.4545946 -0.83117831
0.18701203 7.1970887 -0.40213758
0.20692527 7.9634418 0
0.24896735 9.5814161 0.53536195
0.13716598 5.5363965 -0.92327958
0.18040369 7.2815895 -0.81186354
0.17812249 7.1895137 -0.40170202
0.19717382 7.958478 0
0.23745419 9.5843048 0.53550696
0.13041557 5.5339847 -0.92285037
0.17020357 7.2223272 -0.80523258
0.16974127 7.2027097 -0.40242755
0.18663786 7.9196911 0
0.22587326 9.5845852 0.53550696
0.12395825 5.544404 -0.92456228
0.16078316 7.1915073 -0.80177414
0.16034134 7.1717463 -0.40068644
0.1767773 7.9068942 0
0.214292 9.5848503 0.53550696
0.11731306 5.5471134 -0.92498982
0.15160115 7.168416 -0.79917872
0.15206 7.1901121 -0.40170202
0.16738838 7.9149103 0
0.20336971 9.6162767 0.53724861
0.11045699 5.5395589 -0.92370713
0.14268164 7.1556664 -0.79773754
0.14269866 7.1565199 -0.39981532
0.15772097 7.9099078 0
0.19195738 9.6269073 0.53782916
0.10342687 5.5217195 -0.92071098
0.1336478 7.1351457 -0.7954312
0.13395408 7.1514964 -0.39952534
0.14826065 7.9152918 0
0.18095757 9.6609039 0.53971583
0.096754871 5.5218406 -0.92071098
0.12479975 7.1223736 -0.79399002
0.12567697 7.1724372 -0.40068644
0.13837726 7.8972478 0
0.17024007 9.7156725 0.54276365
0.073568523 4.509654 -0.99915564
0.089999072 5.5168247 -0.91985583
0.11606722 7.1147685 -0.79312593
0.11713743 7.1803708 -0.40112144
0.12896228 7.9052181 0
0.15871234 9.7288589 0.54348922
0.068119437 4.5097399 -0.99915564
0.083410464 5.522058 -0.92071098
0.10723586 7.0993814 -0.7913956
0.10924616 7.23247 -0.40402424
0.11921377 7.8923597 0
0.14676061 9.7160549 0.54276365
0.06252902 4.4996562 -0.99690408
0.076595396 5.5118876 -0.91899908
0.098513819 7.0891609 -0.79024249
0.10108475 7.274168 -0.40634647
0.10960506 7.8872986 0
0.13502055 9.7162256 0.54276365
0.056995407 4.4921136 -0.99521708
0.06983757 5.5042729 -0.91771477
0.089685366 7.0685844 -0.78793615
0.093185261 7.34443 -0.41026482
0.099876553 7.8718066 0
0.12337923 9.7241783 0.54319918
0.051654939 4.499794 -0.99690408
0.063334092 5.5171952 -0.91985583
0.081084974 7.06352 -0.78736007
0.084310882 7.3445373 -0.41026482
0.090484433 7.8823309 0
0.11180827 9.7399054 0.54406977
0.046191707 4.4973149 -0.99634176
0.056483019 5.4992971 -0.91685969
0.072443776 7.0532675 -0.7862069
0.076183625 7.4173865 -0.41432872
0.081147231 7.9006534 0
0.10014617 9.7504263 0.54465032
0.040826648 4.504992 -0.99803096
0.049791668 5.4942322 -0.91600454
0.063757129 7.0352426 -0.78418863
0.067221105 7.4174728 -0.41432872
0.071742237 7.9163551 0
0.088223368 9.7349558 0.54377973
0.035423089 4.5101151 -0.99915564
0.04319321 5.4994173 -0.91685969
0.055337623 7.04566 -0.7853418
0.05836051 7.4305382 -0.41505429
0.062544696 7.9632745 0
0.07660339 9.7532463 0.54479587
0.029889056 4.4974527 -0.99634176
0.036633492 5.5122981 -0.91899908
0.046703942 7.0276146 -0.78332347
0.049399365 7.4331989 -0.41519928
0.052784227 7.9425244 0
0.064801127 9.7507257 0.54465032
0.02439948 4.4873223 -0.9940902
0.029958984 5.5097737 -0.91857153
0.038226515 7.0302596 -0.78361255
0.040431876 7.4358492 -0.41534427
0.043229666 7.9503922 0
0.0530334 9.7534027 0.54479587
0.016257163 4.4848204 -0.99352789
0.019963415 5.5072546 -0.91814399
0.025400039 7.0070419 -0.7810182
0.026869895 7.4125271 -0.41403815
0.028876478 7.9660778 0
0.035402782 9.7664719 0.54552144
0.010844256 4.4873753 -0.9940902
0.013352366 5.5252366 -0.92113853
0.016952114 7.0148191 -0.78188229
0.017919583 7.4151602 -0.41418374
0.019232135 7.9582968 0
0.023627002 9.7769022 0.54610199
0.0054129185 4.4797602 -0.992401
0.0066637811 5.5149803 -0.91942662
0.0084760627 7.0148344 -0.78188229
0.0089472393 7.4047823 -0.41360316
0.009641231 7.9791341 0
0.011816646 9.7795191 0.54624701
-0 4.4619842 -0.98846245
-0 5.5226884 -0.92071098
-0 7.0122557 -0.78159422
-0 7.3943939 -0.41302261
-0 7.9999599 0
-0 9.8003139 0.5474081
-0.0054129185 4.4797602 -0.992401
-0.0066730892 5.5226841 -0.92071098
-0.0085198227 7.0510502 -0.78591889
-0.0089472393 7.4047823 -0.41360316
-0.0096789664 8.0103645 0
-0.011829205 9.7899132 0.54682755
-0.01081356 4.4746733 -0.99127632
-0.013315157 5.5098391 -0.91857153
-0.017002117 7.035511 -0.78418863
-0.017875621 7.3969684 -0.4131676
-0.019420799 8.0363665 0
-0.023708628 9.8106794 0.54798865
-0.016211119 4.4721184 -0.99071401
-0.020056451 5.5329199 -0.92242283
-0.025634388 7.071691 -0.78822416
-0.026775721 7.3865476 -0.41258705
-0.029017957 8.0051079 0
-0.035534631 9.802845 0.54755312
-0.021627057 4.4746342 -0.99127632
-0.02669226 5.5226235 -0.92071098
-0.037129216 7.6820278 -0.85625786
-0.035713449 7.3891058 -0.41273203
-0.045444798 9.4025202 0
-0.047391977 9.8053913 0.54769808
-0.026941687 4.4593644 -0.98790008
-0.033380747 5.5251517 -0.92113853
-0.046708331 7.731122 -0.86173564
-0.044626031 7.3864613 -0.41258705
-0.056774456 9.3972588 0
-0.059318379 9.818326 0.54842418
-0.032385148 4.4669437 -0.98958713
-0.040038195 5.522543 -0.92071098
-0.05616232 7.7465734 -0.86346483
-0.053287394 7.3500299 -0.41055536
-0.068148017 9.3997831 0
-0.071276039 9.8312368 0.54914975
-0.037739612 4.4618249 -0.98846245
-0.046776239 5.5301938 -0.92199528
-0.065631859 7.7594295 -0.86490607
-0.061794829 7.3057904 -0.40808815
-0.079571821 9.4075031 0
-0.08315511 9.8311434 0.54914975
-0.043130826 4.4617758 -0.98846245
-0.053334314 5.5173011 -0.91985583
-0.075207584 7.7800355 -0.86721241
-0.069969401 7.2381587 -0.40431479
-0.090838268 9.3969908 0
-0.094933599 9.8206425 0.5485692
-0.048439059 4.4540958 -0.98677325
-0.060056634 5.5223618 -0.92071098
-0.084636383 7.7825327 -0.8675015
-0.078008853 7.1731143 -0.40068644
-0.10253224 9.4281025 0
-0.10685632 9.8257122 0.54885924
-0.053728797 4.4464097 -0.98508406
-0.066667311 5.5171561 -0.91985583
-0.094227441 7.7979374 -0.86923069
-0.086362079 7.147027 -0.39923477
-0.1139556 9.4305716 0
-0.1189485 9.8437662 0.54987532
-0.059000161 4.4387264 -0.98339701
-0.073401839 5.5222006 -0.92071098
-0.10389033 7.8159242 -0.87124902
-0.09458337 7.1157389 -0.39749309
-0.12528127 9.4252176 0
-0.13108446 9.8618059 0.55089146
-0.064510815 4.4488144 -0.98564857
-0.080111474 5.524672 -0.92113853
-0.11355921 7.8313055 -0.87297821
-0.10303058 7.1052265 -0.39691254
-0.13651878 9.41465 0
-0.14284973 9.8512468 0.55031091
-0.069766521 4.4411092 -0.98395938
-0.086867623 5.5297093 -0.92199528
-0.12322482 7.8440905 -0.87441939
-0.11149345 7.0973101 -0.39647755
-0.14785361 9.4118786 0
-0.15520178 9.8796396 0.551907
-0.074874714 4.4257736 -0.98058099
-0.093549132 5.5296006 -0.92199528
-0.13279037 7.8491135 -0.87499654
-0.12015691 7.1023612 -0.39676756
-0.15949014 9.4273109 0
-0.16656792 9.8456717 0.55002034
-0.080314532 4.4307656 -0.98170781
-0.10027698 5.5320477 -0.92242283
-0.1424619 7.8592916 -0.87614971
-0.12855026 7.0918188 -0.39618698
-0.17106956 9.4375095 0
-0.17841733 9.8428679 0.54987532
-0.085471705 4.4205036 -0.97945631
-0.10696131 5.5319223 -0.92242283
-0.15210807 7.8668642 -0.8770138
-0.13691832 7.0812664 -0.39560643
-0.1826238 9.4451046 0
-0.19106372 9.8816071 0.55205202
-0.090917237 4.4254732 -0.98058099
-0.11348724 5.524087 -0.92113853
-0.16171989 7.8718514 -0.87759089
-0.14574136 7.0940828 -0.396332
-0.19633463 9.5567532 0
-0.20311041 9.88657 0.55234253
-0.096154079 4.4202843 -0.97945631
-0.12010617 5.5213819 -0.92071098
-0.17156875 7.8871603 -0.87932009
-0.15420015 7.0887108 -0.39604199
-0.20714623 9.522687 0
-0.2148302 9.875926 0.55176198
-0.10137852 4.4150891 -0.97833163
-0.12665984 5.5161052 -0.91985583
-0.1815144 7.9050503 -0.88133842
-0.16240758 7.072938 -0.39517143
-0.21901096 9.5380459 0
-0.22712095 9.8912411 0.55263257
-0.1042253 4.4226403 -0.98001862
-0.13005282 5.5185914 -0.92028338
-0.18671684 7.9230423 -0.88335675
-0.16600721 7.044261 -0.39357474
-0.22575414 9.5795307 0
-0.23291326 9.883316 0.55219758
-0.10950625 4.4199739 -0.97945631
-0.13659358 5.5132928 -0.91942662
-0.19654615 7.9331436 -0.88450885
-0.17303866 6.9843168 -0.39023697
-0.23604006 9.5272264 0
-0.24485514 9.8830271 0.55219758
-0.11445096 4.4046025 -0.97608006
-0.14312197 5.5079961 -0.91857153
-0.20619904 7.9354935 -0.88479793
-0.18087006 6.9607167 -0.38893029
-0.24910632 9.5867643 0
-0.25733665 9.9035053 0.55335867
-0.1195657 4.3968391 -0.97439086
-0.14991663 5.5129466 -0.91942662
-0.21501391 7.906795 -0.88162643
-0.18892749 6.9475083 -0.38820472
-0.26245841 9.6514921 0
-0.54829657 20.162737 1.1266297
-0.12523897 4.4093881 -0.97720474
-0.15679656 5.520462 -0.92071098
-0.22309889 7.8548207 -0.87586063
-0.19791223 6.9680543 -0.38936585
-0.27234685 9.5887327 0
-0.57361788 20.195822 1.1285164
-0.13019079 4.3965373 -0.97439086
-0.16377078 5.5305324 -0.92242283
-0.2319008 7.8312798 -0.87326622
-0.20548582 6.9392471 -0.38776973
-0.28285447 9.5519829 0
-0.59832782 20.205503 1.129097
-0.13612926 4.4166942 -0.97889394
-0.16989957 5.5123668 -0.91942662
-0.24112439 7.8232455 -0.87240219
-0.21403034 6.9441829 -0.38805974
-0.29543817 9.5854483 0
-0.62258154 20.199568 1.1288065
-0.14105922 4.403831 -0.97608006
-0.17664248 5.5147305 -0.91985583
-0.25024584 7.8126078 -0.87124902
-0.22291984 6.959497 -0.38893029
-0.30735335 9.5954885 0
-0.64732105 20.209188 1.129387
-0.14671795 4.413815 -0.97833163
-0.18381737 5.529902 -0.92242283
-0.25977153 7.8148823 -0.87153703
-0.23176076 6.9722152 -0.38965639
-0.31825572 9.5743017 0
-0.67225754 20.223978 1.1302581
-0.15196334 4.411088 -0.97776711
-0.19023381 5.5219769 -0.92113853
-0.26912513 7.8119802 -0.87124902
-0.24027452 6.9745245 -0.38980141
-0.32749462 9.5062904 0
-0.69696194 20.230934 1.1306931
-0.15711224 4.4058275 -0.97664243
-0.19663171 5.5140543 -0.91985583
-0.27847174 7.8090572 -0.87095994
-0.44861943 12.580432 -0.70314151
-0.33749694 9.4642744 0
-0.72159195 20.235277 1.1309837
-0.16290371 4.4183278 -0.97945631
-0.20348321 5.5189381 -0.92071098
-0.28790724 7.8087149 -0.87095994
-0.46410704 12.587663 -0.70357651
-0.3481653 9.4430542 0
-0.74632907 20.242182 1.1314192
-0.16785553 4.4079714 -0.97720474
-0.20985848 5.5109901 -0.91942662
-0.29724401 7.8057795 -0.87067187
-0.47931641 12.587093 -0.70357651
-0.36007059 9.455637 0
-0.77157831 20.262039 1.1325804
-0.17377992 4.4229941 -0.98058099
-0.21732354 5.5312533 -0.92285037
-0.30698031 7.8131704 -0.87153703
-0 0 -0
-0.37108693 9.4447927 0
-0.79646808 20.271467 1.1331604
-0.17891867 4.4177084 -0.97945631
-0.22359128 5.5207267 -0.92113853
-0.316944 7.8257132 -0.87297821
-0 0 -0
-0.38281447 9.4521313 0
-0.82085657 20.267897 1.1330154
-0.18457425 4.4251075 -0.9811455
-0.23026185 5.5204525 -0.92113853
-0.32693845 7.838243 -0.87441939
-0.52548164 12.598251 -0.70430207
-0.39499456 9.4698658 0
-0.84480441 20.25391 1.1322898
-0.18970287 4.4197993 -0.98001862
-0.23649174 5.5099115 -0.91942662
-0.33707491 7.8533521 -0.87614971
-0.54070377 12.597607 -0.70430207
-0.40643674 9.4693813 0
-0.92119837 21.462574 1.1999211
-0.19448318 4.406877 -0.97720474
-0.24360193 5.5198803 -0.92113853
-0.34656391 7.8529387 -0.87614971
-0.66853458 15.148609 -0.84696704
-0.41787836 9.4688835 0
-0.94644386 21.445875 1.1990505
-0.19957791 4.401567 -0.97608006
-0.24969018 5.506762 -0.91899908
-0.35652101 7.8628497 -0.87730289
-0.68683821 15.147791 -0.84696704
-0.42908379 9.4631767 0
-0.97270954 21.452505 1.1994861
-0.20430507 4.3886247 -0.97326404
-0.25682133 5.5167136 -0.92071098
-0.36529955 7.8469062 -0.87557256
-0.70526159 15.149543 -0.84711206
-0.77150083 16.572412 0
-0.99887145 21.456501 1.1997762
-0.2099715 4.3959908 -0.97495323
-0.26287478 5.503581 -0.91857153
-0.37379354 7.8257909 -0.87326622
-0.72356635 15.14868 -0.84711206
-0 0 0
-1.0256646 21.47345 1.2007923
-0.21528305 4.3957343 -0.97495323
-0.26927319 5.498126 -0.91771477
-0.38299641 7.8201714 -0.8726902
-0.74263293 15.163371 -0.84798318
-0.80671024 16.471727 0
-1.0527542 21.49555 1.2020984
-0.2203398 4.3904004 -0.97382855
-0.27591643 5.497797 -0.91771477
-0.39179718 7.8067894 -0.87124902
-0.76134467 15.170241 -0.84841818
-0 0 0
-1.0793777 21.507235 1.202824
-0.22512288 4.3799806 -0.97157699
-0.28255922 5.4974594 -0.91771477
-0.40122986 7.8063102 -0.87124902
-0.77940792 15.164125 -0.84812814
-0 0 0
-1.1058977 21.516296 1.2034045
-0.22856052 4.3950639 -0.97495323
-0.28614736 5.5024199 -0.91857153
-0.40567708 7.8008952 -0.87067187
-0.78829908 15.158457 -0.84783763
-0.8529498 16.401646 0
-1.1195712 21.528595 1.2041301
-0.23292562 4.3770208 -0.97101247
-0.29211381 5.4892554 -0.91643208
-0.41482803 7.795239 -0.87009585
-0.80716681 15.167872 -0.84841818
-0.87276739 16.400604 0
-1.1457214 21.529819 1.204275
-0.23752391 4.3640528 -0.9681986
-0.29916441 5.4965811 -0.91771477
-0.42354351 7.7818112 -0.8686536
-0.82563472 15.169477 -0.84856319
-0.89371514 16.420326 0
-1.1720179 21.533613 1.2045656
-0.24180916 4.3460112 -0.96426004
-0.30680415 5.5141597 -0.92071098
-0.43280244 7.7787137 -0.86836553
-0.8439635 15.168469 -0.84856319
-0.91427803 16.432224 0
-1.1977472 21.526987 1.204275
-0.24763717 4.3558631 -0.96651155
-0.31288388 5.5035329 -0.91899908
-0.44176117 7.7704458 -0.8675015
-0.86347091 15.188192 -0.84972429
-0.93560994 16.457096 0
-0.60773408 10.689859 0.59805882
-0.25216335 4.3428702 -0.96369553
-0.31953362 5.5031509 -0.91899908
-0.45114991 7.769906 -0.8675015
-0.88106924 15.17417 -0.84899873
-0 0 0
-0.62019885 10.681342 0.59762383
-0.25786188 4.350174 -0.96538472
-0.32648695 5.5078912 -0.91985583
-0.45961943 7.7538586 -0.86577117
-0.90094149 15.199039 -0.8504504
-0.97506928 16.449587 0
-0.63248968 10.670209 0.59704328
-0.26342514 4.3549366 -0.96651155
-0.33298647 5.5049229 -0.91942662
-0.46851945 7.7455497 -0.86490607
-0.92056042 15.218678 -0.85161096
-0.99525923 16.453596 0
-0.64459777 10.656471 0.59631771
-0.2685301 4.3520718 -0.96594703
-0.33884755 5.4917078 -0.91728723
-0.47771895 7.7423992 -0.864618
-0.93910903 15.220156 -0.85175651
-1.0161008 16.467962 0
-0 0 0
-0.27315035 4.3416009 -0.96369553
-0.34596667 5.4989829 -0.91857153
-0.48609966 7.7263327 -0.86288881
-0.95782495 15.224192 -0.85204649
-1.0358351 16.464128 0
-0.66822749 10.621172 0.59443104
-0.27774569 4.3311248 -0.96144396
-0.35228199 5.493432 -0.91771477
-0.49560043 7.7283187 -0.86317682
-0.83055609 12.951567 -0.72491103
-1.0552282 16.45507 0
-0.68072772 10.615166 0.59414047
-0.28297883 4.3307858 -0.96144396
-0.35891947 5.4930024 -0.91771477
-0.50544435 7.7354593 -0.86404198
-0.84586644 12.945373 -0.724621
-1.0759585 16.466764 0
-0.69304514 10.606554 0.59370494
-0.28770581 4.3228421 -0.95975697
-0.36538613 5.490006 -0.91728723
-0.51444691 7.7296767 -0.86346483
-0.86047208 12.928781 -0.72374994
-1.0948179 16.449877 0
-0.7055158 10.600528 0.59341496
-0.29310054 4.3250241 -0.96031928
-0.37340799 5.5100498 -0.92071098
-0.52378631 7.7290492 -0.86346483
-0.87503952 12.912181 -0.72287935
-1.114342 16.443354 0
-0.71885115 10.607448 0.59385049
-0.29920042 4.3373389 -0.96313316
-0.37935889 5.499351 -0.91899908
-0.53312498 7.7284107 -0.86346483
-0.89010412 12.903335 -0.72244382
-1.1343887 16.44459 0
-0.73274028 10.622121 0.59472108
-0.30444103 4.3369741 -0.96313316
-0.38618308 5.5014467 -0.91942662
-0.54246289 7.7277608 -0.86346483
-0.90332937 12.868555 -0.72055709
-1.1546221 16.448395 0
-0.74703014 10.641964 0.59588218
-0.31344849 4.3159518 -0.95863008
-0.39891949 5.4928241 -0.91814399
-0.56301016 7.7522292 -0.86634833
-0.93179029 12.830057 -0.71852547
-1.1964418 16.474112 0
-0.77406311 10.658272 0.59689832
-0.31847632 4.3130383 -0.95806777
-0.40631238 5.5025783 -0.91985583
-0.57256705 7.7541203 -0.86663634
-0.94614375 12.813369 -0.71765435
-1.2167296 16.477839 0
-0.78827989 10.675461 0.59791386
-0.32311684 4.3050466 -0.95637858
-0.41219234 5.4918437 -0.91814399
-0.58135504 7.7456827 -0.86577117
-0.95870888 12.773356 -0.71547765
-1.2362498 16.471172 0
-0.80215073 10.687453 0.59863943
-0.32870525 4.3097253 -0.9575054
-0.41863206 5.4887748 -0.91771477
-0.58953393 7.7295055 -0.86404198
-0.97433972 12.774776 -0.71562266
-1.2545677 16.448906 0
-0.81624991 10.702027 0.59951049
-0.33351952 4.3042536 -0.95637858
-0.42566088 5.4933887 -0.91857153
-0.59847307 7.7236252 -0.86346483
-0.98756647 12.74509 -0.71402597
-1.2736379 16.436998 0
-1.685902 21.757494 1.2189335
-0.33513093 4.2913876 -0.95356464
-0.42758042 5.4752131 -0.91557533
-0.60334039 7.7258382 -0.8637529
-0.99506414 12.741903 -0.71388096
-1.2825552 16.423256 0
-1.7002608 21.77202 1.2198045
-0.34132025 4.3036418 -0.95637858
-0.43500766 5.4849286 -0.91728723
-0.61288017 7.7276897 -0.86404198
-1.008816 12.719969 -0.71271986
-1.3007525 16.40094 0
-1.7265667 21.769951 1.2198045
-0.34570432 4.2930956 -0.95412701
-0.44225314 5.4920778 -0.91857153
-0.62221718 7.7269435 -0.86404198
-1.0225164 12.69802 -0.71155876
-1.3188977 16.378603 0
-1.754747 21.791157 1.2211107
-0.35213387 4.3078742 -0.9575054
-0.44930679 5.4966516 -0.91942662
-0.6317637 7.7287612 -0.86432999
-1.0355307 12.668295 -0.70996261
-1.3369908 16.356247 0
-1.7821344 21.801968 1.2218362
-0.35481802 4.2770591 -0.95075077
-0.45594808 5.4961047 -0.91942662
-0.64174366 7.7357278 -0.86519516
-1.0491184 12.646318 -0.70880151
-1.3558925 16.344246 0
-1.8104098 21.823101 1.2231424
-0.36147785 4.2943535 -0.95469153
-0.46151233 5.4827619 -0.91728723
-0.65152383 7.7400966 -0.86577117
-1.0637442 12.637271 -0.70836598
-1.3752042 16.337414 0
-1.8372138 21.82608 1.2234329
-0.36623368 4.2888451 -0.95356464
-0.46879229 5.4898763 -0.91857153
-0.65867549 7.7135372 -0.86288881
-1.0754758 12.594552 -0.70604372
-1.3951651 16.338329 0
-1.8642476 21.831604 1.2238679
-0.37185457 4.293467 -0.95469153
-0.47542539 5.4893055 -0.91857153
-0.66732556 7.7050028 -0.86202365
-0.79049098 9.1270819 -0.51171243
-1.4158039 16.347004 0
-1.8917471 21.842287 1.224594
-0.37592995 4.2803516 -0.95187551
-0.48183343 5.4861722 -0.91814399
-0.67572993 7.6938848 -0.86087048
-0.79947197 9.1028166 -0.51040578
-1.4350992 16.340092 0
-1.9188192 21.847744 1.225029
-0.38087651 4.2773657 -0.95131314
-0.48777875 5.4779129 -0.91685969
-0.68410838 7.6827574 -0.85971731
-0.80977964 9.0940866 -0.50997078
-1.454842 16.338345 0
-1.9463687 21.858349 1.2257546
-0.38535911 4.2693081 -0.94962394
-0.49670467 5.5028815 -0.92113853
-0.69269317 7.6741948 -0.85885221
-0.81819773 9.0646315 -0.50837409
-1.4736468 16.326208 0
-1.9758161 21.889631 1.2276418
-0.39005494 4.2637839 -0.94849926
-0.50148261 5.4818258 -0.91771477
-0.70196545 7.6733522 -0.85885221
-0.82701969 9.04035 -0.50706798
-0.8347733 9.1251068 0
-2.0029736 21.894983 1.2280768
-0.39637905 4.2759571 -0.95131314
-0.50810593 5.481216 -0.91771477
-0.71171463 7.6776543 -0.8594293
-0.83746243 9.0341644 -0.50677741
-0.84387779 9.1033697 0
-2.030627 21.905481 1.2288023
-0.40083241 4.2678833 -0.94962394
-0.51640904 5.4984913 -0.92071098
-0.72123265 7.6793613 -0.85971731
-0.84667772 9.0150442 -0.50576186
-0.8534162 9.086792 0
-2.058795 21.921124 1.2298185
-0.4033426 4.2395787 -0.94343382
-0.52086461 5.4748659 -0.91685969
-0.73051113 7.678484 -0.85971731
-0.85757005 9.0140142 -0.50576186
-0.86266959 9.0676165 0
-2.0857735 21.923798 1.2301091
-0.40992674 4.2542586 -0.94681007
-0.52895635 5.4895592 -0.91942662
-0.73978853 7.6775961 -0.85971731
-0.86547041 8.9819336 -0.50402015
-0.87337601 9.0639791 0
-2.1132586 21.931599 1.230689
-0.41457385 4.2487073 -0.94568539
-0.53558904 5.4889159 -0.91942662
-0.74856299 7.6715527 -0.85914129
-0.87657481 8.9834652 -0.50416517
-0.88205302 9.039608 0
-2.1402624 21.934206 1.2309796
-0.4209561 4.2608438 -0.94849926
-0.54045492 5.4703898 -0.91643208
-0.75783205 7.6706429 -0.85914129
-0.88615179 8.9694729 -0.50343961
-0.89220709 9.0307636 0
-2.1685524 21.949707 1.2319957
-0.42509273 4.2502189 -0.9462477
-0.5478301 5.4773884 -0.91771477
-0.76735711 7.6722927 -0.8594293
-0.89595461 8.9580536 -0.50285906
-0.90208238 9.0193205 0
-2.1961071 21.957413 1.2325763
-0.42843625 4.2320042 -0.942307
-0.55418974 5.4741707 -0.91728723
-0.77766907 7.681653 -0.86058247
-0.90677804 8.9569645 -0.50285906
-0.9132427 9.0208206 0
-2.2234213 21.962492 1.2330112
-0.43380922 4.2340183 -0.94287151
-0.5605424 5.4709458 -0.91685969
-0.78563243 7.6678452 -0.85914129
-0.91733551 8.9532795 -0.50271404
-0.92228484 9.001586 0
-2.2518113 21.977886 1.2340274
-0.3733395 3.6009109 -0.99880606
-0.43866208 4.2309561 -0.942307
-0.56847596 5.4830289 -0.91899908
-0.79569638 7.6746011 -0.86000538
-0.92708123 8.9418259 -0.50213349
-0.9323554 8.9926958 0
-2.280777 21.998407 1.2353336
-0.4453651 4.2455902 -0.94568539
-0.57402945 5.472126 -0.91728723
-0.80550927 7.6787839 -0.86058247
-0.9376142 8.938118 -0.50198853
-0.94267815 8.9863911 0
-2.3097956 22.018892 1.2366396
-0.44942218 4.234942 -0.94343382
-0.58009976 5.4663277 -0.91643208
-0.81505966 7.6803741 -0.86087048
-0.94759059 8.929224 -0.50155294
-0.95298594 8.9800653 0
-2.3377702 22.029001 1.2373652
-0.45562372 4.2445016 -0.94568539
-0.58615583 5.4605131 -0.91557533
-0.82489192 7.6845322 -0.86144763
-0.95948845 8.9384069 -0.50213349
-0.96411449 8.9815016 0
-2.3654957 22.036495 1.2379458
-0.39019802 3.5940809 -0.99742305
-0.45800903 4.2186823 -0.94005543
-0.59330803 5.46491 -0.91643208
-0.83389664 7.6809511 -0.86115855
-0.9700079 8.93466 -0.50198853
-0.97384256 8.9699812 0
-2.3932426 22.043955 1.2385263
-0.46083426 4.2209382 -0.94061995
-0.59633124 5.4620008 -0.91600454
-0.83713359 7.6675925 -0.85971731
-0.97371292 8.9185686 -0.50111741
-0.97897834 8.9667969 0
-2.4085345 22.060589 1.2395424
-0.46621266 4.2229013 -0.94118232
-0.60236663 5.4561687 -0.91514778
-0.84554607 7.6588602 -0.85885221
-0.98220748 8.8967237 -0.49995628
-0.98895633 8.9578543 0
-2.4371848 22.075745 1.2405585
-0.40188724 3.6003585 -0.99949753
-0.46990576 4.2097116 -0.93836838
-0.60810429 5.4477806 -0.91386348
-0.8553741 7.6629791 -0.8594293
-0.99353379 8.9007006 -0.50024682
-0.9994899 8.9540586 0
-2.4655862 22.088272 1.2414291
-0.47670105 4.2242846 -0.94174463
-0.61670172 5.4649005 -0.91685969
-0.86434293 7.6593719 -0.85914129
-1.0031223 8.8891649 -0.49966627
-1.0091422 8.9425106 0
-2.4937305 22.098185 1.2421546
-0.48036531 4.2110853 -0.93893075
-0.6198132 5.4335446 -0.91172403
-0.87301028 7.6531777 -0.85856414
-1.0135682 8.8853674 -0.49952129
-1.0202414 8.9438677 0
-2.5221975 22.110651 1.2430258
-0.4851625 4.2079802 -0.93836838
-0.62755424 5.4429927 -0.91343594
-0.88136798 7.6444063 -0.85769904
-1.0237079 8.8789682 -0.49923071
-1.0313454 8.9452114 0
-2.5498042 22.115324 1.2434608
-0.48936415 4.1998172 -0.93667918
-0.63413054 5.4422302 -0.91343594
-0.88940787 7.633069 -0.85654694
-1.0338347 8.8725681 -0.49894071
-1.0418522 8.9413757 0
-2.5777273 22.122551 1.2440413
-0.4212856 3.5779419 -0.99396294
-0.49384475 4.1941805 -0.9355545
-0.63950521 5.4312625 -0.91172403
-0.89893246 7.6345553 -0.85683495
-1.0451618 8.8764687 -0.49923071
-1.0526553 8.9401112 0
-2.6056716 22.129742 1.2446219
-0.42560852 3.5774302 -0.99396294
-0.49951202 4.1986222 -0.93667918
-0.64546144 5.4253926 -0.91086894
-0.90846193 7.6360292 -0.85712296
-1.0561932 8.8777771 -0.4993757
-1.063457 8.9388323 0
-2.6345582 22.144642 1.245638
-0.50458485 4.1980157 -0.93667918
-0.65385395 5.4398961 -0.91343594
-0.91707116 7.6297951 -0.85654694
-1.0659901 8.868762 -0.49894071
-1.0748776 8.9427032 0
-2.514648 20.921221 1.1769905
-0.43606633 3.5913293 -0.99811459
-0.50843191 4.1873136 -0.93442768
-0.66104597 5.4442034 -0.91429269
-0.92504257 7.6184106 -0.85539377
-1.0773313 8.8726215 -0.49923071
-1.0866237 8.949151 0
-2.5371068 20.894955 1.1756845
-0.51349109 4.1866961 -0.93442768
-0.66699815 5.4383001 -0.91343594
-0.9355067 7.6275563 -0.85654694
-1.0874193 8.8661604 -0.49894071
-1.0964855 8.9400797 0
-2.5591886 20.866077 1.1742327
-0.52104843 4.2062454 -0.93893075
-0.67262173 5.4298449 -0.91215163
-0.9437682 7.6187177 -0.85568178
-1.0978112 8.8622541 -0.49879515
-1.1114459 8.9723215 0
-2.5802469 20.829449 1.172346
-0.44690144 3.5722971 -0.99326879
-0.52203041 4.1728392 -0.9316138
-0.67790753 5.4188395 -0.91043973
-0.95265251 7.6150074 -0.85539377
-1.1085187 8.8609209 -0.49879515
-1.1235787 8.9813023 0
-2.59993 20.782486 1.1698788
-0.45153287 3.5742507 -0.99396294
-0.52802777 4.17977 -0.933303
-0.68477732 5.4205704 -0.91086894
-0.96088022 7.6061502 -0.85452861
-1.1192245 8.8595753 -0.49879515
-1.1331252 8.9696102 0
-2.6214583 20.750978 1.1682827
-0.45553297 3.5712068 -0.99326879
-0.53886431 4.224493 -0.94343382
-0.69100076 5.4171853 -0.91043973
-0.970397 7.6075468 -0.85481662
-1.1319022 8.8736868 -0.49966627
-1.1449506 8.9759817 0
-2.6419263 20.711706 1.1662505
-0.46016911 3.5731492 -0.99396294
-0.54104775 4.2011604 -0.93836838
-0.69721824 5.4138026 -0.91001219
-0.97958857 7.6063685 -0.85481662
-1.1412959 8.8620033 -0.49908572
-1.1541338 8.961688 0
-2.6639636 20.685307 1.1649444
-0.46642631 3.5875127 -0.99811459
-0.5467782 4.2055383 -0.93949312
-0.70408994 5.4154997 -0.91043973
-0.98877865 7.6051793 -0.85481662
-1.1523377 8.8631926 -0.49923071
-1.1676457 8.9809332 0
-2.6829262 20.635696 1.1623322
-0.55318189 4.2149515 -0.94174463
-0.7126379 5.4299212 -0.91300839
-0.9979673 7.6039791 -0.85481662
-1.1643988 8.8720989 -0.49981126
-1.1774802 8.9717722 0
-2.7027862 20.59379 1.1601549
-0.47311842 3.5714576 -0.99396294
-0.55860782 4.2167964 -0.942307
-0.71616465 5.4061551 -0.9091571
-1.0061351 7.5950732 -0.85395151
-1.1754591 8.8732586 -0.49995628
-1.1900285 8.9832401 0
-2.7095838 20.453997 1.1524632
-0.47975981 3.5882826 -0.99880606
-0.56336617 4.2136025 -0.94174463
-0.72269636 5.4052858 -0.9091571
-1.0146267 7.5887294 -0.85337543
-1.1861799 8.8718319 -0.49995628
-1.1974339 8.9560051 0
-2.7153578 20.309061 1.1444809
-0.48174784 3.5703037 -0.99396294
-0.56845707 4.2129188 -0.94174463
-0.72888285 5.4018574 -0.90872788
-1.0224121 7.5772448 -0.85222226
-1.1975944 8.8755474 -0.50024682
-1.2096466 8.9648685 0
-2.7284296 20.220789 1.1396915
-0.48673782 3.5746861 -0.99534589
-0.57388961 4.2147441 -0.942307
-0.73263997 5.3806334 -0.9053058
-1.0315669 7.576004 -0.85222226
-1.2083179 8.874094 -0.50024682
-1.2197751 8.9582376 0
-2.7493553 20.191736 1.1382403
-0.57609189 4.2118812 -0.94174463
-0.7355417 5.3776393 -0.90487659
-1.0371956 7.5830698 -0.85308743
-1.213679 8.8733625 -0.50024682
-1.2262454 8.9652367 0
-2.7576799 20.161749 1.1366436
-0.49355862 3.5762808 -0.99603742
-0.5818761 4.2162213 -0.94287151
-0.74028456 5.3640342 -0.90273714
-1.0438819 7.5638733 -0.85106909
-1.2261757 8.884757 -0.50097239
-1.2363664 8.9585972 0
-2.7802634 20.145535 1.1359181
-0.49891779 3.5831385 -0.99811459
-0.58626866 4.2104769 -0.94174463
-0.74641168 5.3605957 -0.9023096
-1.0540911 7.5702939 -0.85193425
-1.2383437 8.8935633 -0.50155294
-1.25042 8.9802933 0
-2.7999451 20.108706 1.1340314
-0.49836183 3.5477567 -0.98842561
-0.59100264 4.2072515 -0.94118232
-0.75038838 5.3418927 -0.89931339
-1.0621578 7.5613284 -0.85106909
-1.2498112 8.8972025 -0.50184298
-1.2609069 8.9761915 0
-2.8180962 20.061567 1.1315643
-0.50335151 3.552115 -0.98980862
-0.59608585 4.2065344 -0.94118232
-0.75540179 5.3308153 -0.89760154
-1.0709308 7.5574808 -0.85078108
-1.2616549 8.9034061 -0.50227851
-1.2739435 8.9901266 0
-2.8368657 20.019554 1.129387
-0.51083773 3.5738535 -0.99603742
-0.60188657 4.2108369 -0.942307
-0.76220679 5.3324471 -0.89803076
-1.0804274 7.5587397 -0.85106909
-1.2735153 8.9095945 -0.50271404
-1.2848054 8.9885807 0
-2.8570099 19.987823 1.1277909
-0.51265079 3.5558591 -0.99119425
-0.60842443 4.2201662 -0.9445585
-0.76938134 5.3365989 -0.89888585
-1.0891912 7.5548711 -0.85078108
-1.2850208 8.913188 -0.50300407
-1.2971509 8.9973249 0
-2.8774505 19.958633 1.1263392
-0.51802891 3.5626779 -0.99326879
-0.61096495 4.2018342 -0.94061995
-0.77546 5.3331275 -0.8984583
-1.1005514 7.568902 -0.85251027
-1.2976602 8.9244938 -0.50373018
-1.3125151 9.0266562 0
-2.8948352 19.908861 1.123727
-0.52196968 3.5595696 -0.99257725
-0.61972743 4.2262282 -0.9462477
-0.78302115 5.3398089 -0.8997426
-1.109696 7.5675664 -0.85251027
-1.3103274 8.935771 -0.50445575
-1.3234212 9.0250635 0
-2.9162498 19.88735 1.1227108
-0.52909029 3.5483725 -0.98980862
-0.62993878 4.2247181 -0.9462477
-0.79402912 5.3251987 -0.89760154
-1.1253116 7.5469627 -0.85049307
-1.3338336 8.945426 -0.50518131
-1.3820702 9.2689276 0
-2.9551053 19.818573 1.1192281
-0.53449672 3.5551755 -0.99188578
-0.63466567 4.2214437 -0.94568539
-0.80046296 5.3242354 -0.89760154
-1.1367363 7.5609388 -0.85222226
-1.3477319 8.964365 -0.50634241
-1.416096 9.4190845 0
-2.9736409 19.779009 1.1171958
-0.53578424 3.5346837 -0.98634845
-0.63862324 4.2131348 -0.94399619
-0.80843455 5.3334165 -0.89931339
-1.1431576 7.5416565 -0.85020399
-1.3620671 8.9858494 -0.50764853
-1.4298171 9.4328098 0
-2.9924757 19.742006 1.1153091
-0.54081202 3.5389888 -0.98773146
-0.64793605 4.2399912 -0.95018846
-0.81681693 5.3451214 -0.90145284
-1.1514887 7.535161 -0.84962791
-1.376456 9.0073118 -0.50895464
-1.4427862 9.4413662 0
-3.0104411 19.699854 1.1131325
-0.54508781 3.5383327 -0.98773146
-0.65035033 4.2216239 -0.9462477
-0.82014954 5.3238435 -0.89803076
-1.1617744 7.5414357 -0.85049307
-1.397229 9.0698433 -0.51258302
-1.4557782 9.4499044 0
-3.0294948 19.665382 1.1113908
-0.54782289 3.5277553 -0.98496282
-0.65662092 4.2283702 -0.94793689
-0.82736886 5.3279171 -0.89888585
-1.1692984 7.5298028 -0.8493399
-1.4372927 9.2555771 -0.52317744
-1.4647987 9.432704 0
-3.0480711 19.62833 1.1095041
-0.55441368 3.5419672 -0.98911715
-0.66290724 4.2350974 -0.94962394
-0.83658528 5.3446689 -0.90188205
-1.1783959 7.5283847 -0.8493399
-1.4645486 9.3565207 -0.52898306
-1.473379 9.4129362 0
-3.0637493 19.57329 1.1066014
-0.55751979 3.5338578 -0.98703998
-0.66564906 4.2192388 -0.9462477
-0.83904141 5.3182921 -0.89760154
-1.1882969 7.5320601 -0.84991592
-1.4794971 9.3778419 -0.53028917
-1.4851569 9.4137173 0
-3.0809186 19.528507 1.1042792
-0.56651682 3.5629134 -0.99534589
-0.67234266 4.2284689 -0.94849926
-0.84788632 5.3324909 -0.90017015
-1.1982101 7.5357323 -0.85049307
-1.4900104 9.3709106 -0.5299986
-1.4957123 9.4067707 0
-3.1016576 19.506813 1.1032636
-0.56328058 3.5151672 -0.98219681
-0.6806677 4.2477245 -0.95300233
-0.85189116 5.3162494 -0.89760154
-1.2073147 7.5342793 -0.85049307
-1.5005108 9.3639765 -0.52970862
-1.5070775 9.4049559 0
-1.7631952 11.003265 0.62244117
-0.57152623 3.5392461 -0.98911715
-0.68296391 4.2293377 -0.94906157
-0.86036158 5.3278942 -0.8997426
-1.2143548 7.5200405 -0.84905082
-1.5097535 9.3493328 -0.52898306
-1.5180259 9.4005613 0
-1.7764891 11.001127 0.62244117
-0.57741404 3.5484579 -0.99188578
-0.68807375 4.2285094 -0.94906157
-0.87050891 5.3496523 -0.9035939
-1.2230253 7.5160174 -0.84876275
-1.5189613 9.334671 -0.52825695
-1.5281292 9.3910122 0
-1.7885282 10.991276 0.62200558
-0.57804829 3.5254786 -0.98565698
-0.69482708 4.2377048 -0.95131314
-0.87738729 5.3511271 -0.90402144
-1.231688 7.5119839 -0.84847474
-1.5298193 9.330267 -0.52811193
-1.5411596 9.3994312 0
-1.8013877 10.986545 0.62186062
-0.58221483 3.5375037 -0.98911715
-0.69697493 4.2347794 -0.95075077
-0.87895244 5.3404641 -0.9023096
-1.2353852 7.5061293 -0.84789765
-1.5337679 9.3190851 -0.52753139
-1.5459936 9.3933678 0
-1.8088697 10.990587 0.62215114
-0.58895046 3.5516427 -0.99326879
-0.69751859 4.2063584 -0.9445585
-0.88876432 5.3596582 -0.90573335
-1.2436086 7.4995327 -0.84732157
-1.5433267 9.3069715 -0.52695084
-1.5573425 9.3914928 0
-1.821722 10.985823 0.62200558
-0.58828068 3.5212348 -0.98496282
-0.70720667 4.2330828 -0.95075077
-0.89523977 5.3585806 -0.90573335
-1.2548001 7.510778 -0.84876275
-1.5537158 9.2999792 -0.5266608
-1.5674021 9.3819008 0
-1.8362799 10.991305 0.62244117
-0.59420055 3.5304172 -0.98773146
-0.71232104 4.2322249 -0.95075077
-0.90086097 5.352427 -0.90487659
-1.2655916 7.5194583 -0.84991592
-1.5636576 9.2904053 -0.52622527
-1.5817612 9.3979673 0
-1.8560289 11.027517 0.62461841
-0.59678841 3.5198028 -0.98496282
-0.71531099 4.2188382 -0.94793689
-0.90732765 5.3513346 -0.90487659
-1.2725151 7.5051756 -0.84847474
-1.5753161 9.2910681 -0.52637029
-1.5931157 9.3960495 0
-1.880211 11.089311 0.62824672
-0.603154 3.531451 -0.98842561
-0.72468507 4.243012 -0.95356464
-0.91465825 5.3552999 -0.90573335
-1.2811476 7.5010858 -0.84818673
-1.5852302 9.2814817 -0.52593529
-1.6035907 9.3889818 0
-1.8927332 11.081903 0.62795621
-0.61039692 3.5480196 -0.99326879
-0.72938097 4.2396317 -0.95300233
-0.91938746 5.3440714 -0.90402144
-1.2906483 7.5020785 -0.84847474
-1.596884 9.2821178 -0.52608025
-1.6162585 9.3947344 0
-1.9021574 11.056563 0.62665009
-0.61468357 3.5472796 -0.99326879
-0.73233449 4.2262316 -0.95018846
-0.92803508 5.3556008 -0.90616089
-1.2983869 7.492866 -0.84760958
-1.6089849 9.2852974 -0.52637029
-1.6302742 9.4081554 0
-3.2779117 18.916512 1.0723501
-0.61293149 3.5119393 -0.98357981
-0.74006081 4.2403574 -0.95356464
-0.93891829 5.3797593 -0.91043973
-1.3074397 7.4912915 -0.84760958
-1.6202033 9.2833462 -0.52637029
-1.6425366 9.4113111 0
-3.2931719 18.869024 1.0698829
-0.61674064 3.5087276 -0.98288834
-0.74342442 4.2294497 -0.95131314
-0.94408607 5.3710432 -0.9091571
-1.3169378 7.4922514 -0.84789765
-1.6327691 9.2890615 -0.52680582
-1.6539072 9.4093189 0
-3.3096721 18.829206 1.0678512
-0.62141669 3.5104477 -0.98357981
-0.75030595 4.2385564 -0.95356464
-0.95281214 5.382535 -0.91129649
-1.323736 7.4779224 -0.84645647
-1.6435394 9.2845259 -0.5266608
-1.6643672 9.4021835 0
-3.3260808 18.789377 1.0658195
-0.53203905 2.9845295 -0.99960625
-0.62785894 3.5220411 -0.98703998
-0.75587237 4.2401457 -0.95412701
-0.9638195 5.4066472 -0.91557533
-1.3336793 7.4814153 -0.84703356
-1.6570365 9.2953215 -0.52738637
-1.6780117 9.4129839 0
-3.343765 18.757204 1.0642228
-0.62945539 3.5064688 -0.98288834
-0.76368976 4.2542396 -0.9575054
-0.96445566 5.3726344 -0.91001219
-1.3418033 7.4747019 -0.84645647
-1.6710206 9.3086529 -0.52825695
-1.6949004 9.441678 0
-3.3618367 18.727579 1.0627718
-0.63547683 3.5155807 -0.98565698
-0.76340598 4.2233095 -0.95075077
-0.97414356 5.3891501 -0.91300839
-1.3494551 7.4654465 -0.84559238
-1.6808819 9.2989635 -0.52782196
-1.702606 9.4191456 0
-3.3789165 18.692818 1.06103
-0.63388461 3.4827259 -0.97665954
-0.77351379 4.2498846 -0.95694304
-0.98065454 5.3879695 -0.91300839
-1.36079 7.4765315 -0.84703356
-1.6967686 9.322485 -0.52927303
-1.7177123 9.4375544 0
-3.3959169 18.658045 1.0592884
-0.64442253 3.5165 -0.98634845
-0.77818906 4.2464399 -0.95637858
-0.98762643 5.3893032 -0.91343594
-1.3707545 7.4799652 -0.84760958
-1.7094375 9.3280983 -0.52970862
-1.7333379 9.458519 0
-3.4142442 18.630928 1.0579823
-0.6477598 3.5107799 -0.98496282
-0.77778709 4.2155123 -0.94962394
-0.99553543 5.3956814 -0.91472024
-1.3788539 7.4732213 -0.84703356
-1.7230643 9.3388004 -0.53043419
-1.7480694 9.4743252 0
-3.4315667 18.598677 1.0563856
-0.64833772 3.4902716 -0.97942817
-0.78752154 4.2395558 -0.95525384
-1.0039296 5.4045701 -0.91643208
-1.3888266 7.4766307 -0.84760958
-1.7376695 9.3545971 -0.53145027
-1.7647448 9.5003548 0
-3.4492924 18.568975 1.0549345
-0.65578139 3.5067406 -0.98427135
-0.78937376 4.2211156 -0.95131314
-1.0095146 5.3983016 -0.91557533
-1.3978597 7.474947 -0.84760958
-1.750882 9.3627071 -0.53203082
-3.4505012 18.45129 0
-3.458832 18.495838 1.0510161
-0.55994987 2.9743938 -0.99797791
-0.6590907 3.5010195 -0.98288834
-0.79588425 4.2276521 -0.95300233
-1.0188872 5.4122195 -0.91814399
-1.4068906 7.4732528 -0.84760958
-1.7670001 9.386116 -0.53348196
-3.4756815 18.462448 0
-3.4696405 18.430359 1.0475328
-0.66051692 3.4854264 -0.97873402
-0.80477679 4.2466588 -0.9575054
-1.0211247 5.3882871 -0.91429269
-1.4159195 7.4715471 -0.84760958
-1.7812421 9.3992872 -0.53435254
-3.5115552 18.529831 0
-3.4836829 18.382755 1.0450655
-0.56759888 2.9754574 -0.99879205
-0.66096711 3.464911 -0.97319674
-0.81085873 4.2506704 -0.95863008
-1.0324439 5.4122605 -0.91857153
-1.4239781 7.4647546 -0.84703356
-1.7969815 9.4201069 -0.53565919
-3.5456443 18.586918 0
