# .PCD v0.7 - Point Cloud Data file format
VERSION 0.7
FIELDS x y z
SIZE 4 4 4
TYPE F F F
COUNT 1 1 1
WIDTH 1558
HEIGHT 1
VIEWPOINT 0 0 0 1 0 0 0
POINTS 1558
DATA ascii
-2.320806 2.0585587 -0.85589492
-2.7003846 2.3952456 -0.79963595
-3.233855 2.8684344 -0.7206558
-4.0182991 3.5642376 -0.59868783
-5.4667387 4.8490057 -0.40816343
-12.739497 11.299954 0
-12.53829 11.121484 0.93614709
-2.0584908 1.8214452 -0.90631348
-2.3477221 2.0773699 -0.86489505
-2.7070792 2.3953452 -0.80076063
-3.2373185 2.8645248 -0.7206558
-4.0167899 3.5542362 -0.59782267
-5.4939942 4.8613329 -0.40975955
-12.698576 11.236271 0
-12.5342 11.090823 0.93484044
-2.0329008 1.794427 -0.89409137
-2.322016 2.0496271 -0.85451192
-2.7118745 2.3937523 -0.801323
-3.2369246 2.8572104 -0.71979904
-4.0191441 3.5476701 -0.59753466
-5.4920793 4.8478193 -0.40917954
-12.757014 11.260526 0
-12.582661 11.106626 0.93745321
-2.040627 1.7968647 -0.89653391
-2.3357842 2.0567641 -0.85866356
-2.7090495 2.3854411 -0.79963595
-3.2403746 2.853297 -0.71979904
-4.0273142 3.5462329 -0.59811175
-5.5076818 4.8497643 -0.40990511
-12.788188 11.26058 0
-12.594116 11.089691 0.93730766
-2.0390863 1.7911386 -0.89490551
-2.3363848 2.0522864 -0.85797209
-2.7100153 2.3804843 -0.79907143
-3.2418931 2.847687 -0.7193715
-4.0296474 3.5396523 -0.59782267
-5.5154881 4.8448191 -0.41005009
-12.79201 11.236534 0
-12.57432 11.045315 0.93484044
-2.0263779 1.7756423 -0.88838583
-2.3256602 2.0378928 -0.85312897
-2.7148063 2.3788874 -0.79963595
-3.2530544 2.8505352 -0.72108334
-4.035872 3.5364902 -0.59811175
-5.5311079 4.8467116 -0.41077566
-12.793838 11.210782 0
-12.585705 11.028402 0.93469542
-2.0620141 1.802469 -0.90305364
-2.3337822 2.0400298 -0.85520345
-2.727242 2.383965 -0.80244982
-3.2584271 2.8482902 -0.72151089
-4.0401425 3.531611 -0.59811175
-5.5291348 4.8331842 -0.41019511
-12.809332 11.197026 0
-12.587287 11.00293 0.9338249
-2.0492878 1.786981 -0.89653391
-2.324904 2.0273185 -0.85105181
-2.7301207 2.3806679 -0.80244982
-3.2541273 2.8376024 -0.71979904
-4.0463543 3.528425 -0.59839976
-5.5447607 4.8350372 -0.41092065
-12.815006 11.174699 0
-12.571194 10.962094 0.93164766
-2.07196 1.8023487 -0.90549928
-2.3462765 2.0409701 -0.85797209
-2.7368257 2.3806994 -0.80357456
-3.2575536 2.8336682 -0.71979904
-4.0467081 3.5201349 -0.59782267
-5.5545239 4.831748 -0.41121122
-12.855986 11.183115 0
-12.61384 10.972479 0.9338249
-2.0200021 1.7528685 -0.8818661
-2.3676929 2.0545793 -0.86489505
-2.7358658 2.3740635 -0.80244982
-3.2706676 2.8381407 -0.72193843
-4.0548692 3.5186362 -0.59839976
-5.5721297 4.8352475 -0.41208178
-12.236592 10.618374 0
-5.8271608 5.0565524 0.43094239
-2.0520182 1.7763087 -0.89490551
-2.3379297 2.0238051 -0.85312897
-2.7425709 2.3740788 -0.80357456
-3.2643919 2.8257878 -0.71979904
-4.0591178 3.5137341 -0.59839976
-5.5740423 4.8251133 -0.41179177
-12.231707 10.588253 0
-5.8352289 5.0512071 0.43108737
-2.0878313 1.8029015 -0.90957332
-2.3631516 2.0406485 -0.86143225
-2.7396665 2.3657796 -0.80188537
-3.2678039 2.8218412 -0.71979904
-4.0633607 3.508827 -0.59839976
-5.5897002 4.8268642 -0.41251734
-12.242523 10.571766 0
-0 0 0
-2.0357041 1.7535987 -0.88594013
-2.3561137 2.0296063 -0.85797209
-2.7367532 2.3574972 -0.80019832
-3.2770479 2.8229187 -0.72108334
-4.0675974 3.5039146 -0.59839976
-5.613245 4.8353682 -0.41382346
-12.265145 10.565456 0
-0 0 0
-2.043447 1.7559718 -0.88838583
-2.3737862 2.0398383 -0.86350936
-2.7434502 2.3574975 -0.801323
-3.2824016 2.8206284 -0.72151089
-4.0718279 3.4989972 -0.59839976
-5.6230288 4.8319726 -0.414114
-12.277903 10.550629 0
-0 0 0
-2.062454 1.7679771 -0.89571971
-2.3552954 2.0190067 -0.85589492
-2.7520859 2.3591435 -0.80301219
-3.2741172 2.8066392 -0.71894389
-4.0721216 3.4907048 -0.59782267
-5.6308341 4.8268642 -0.41425902
-12.274836 10.522236 0
-0 0 0
-2.0804174 1.7811962 -0.90305364
-2.3508031 2.0126932 -0.85382044
-2.7419338 2.3475685 -0.79963595
-3.2699604 2.7996502 -0.71765959
-4.0742297 3.4882438 -0.59782267
-5.6238818 4.8150134 -0.41353345
-5.7596946 4.9312925 0
-5.8606362 5.0177159 0.43094239
-2.0562599 1.7562118 -0.89164567
-2.3646758 2.019624 -0.85797209
-2.7447684 2.3442535 -0.79963595
-3.2909071 2.8107002 -0.72151089
-4.0843439 3.4883595 -0.59868783
-5.645503 4.8217149 -0.41469458
-5.724093 4.8888369 0
-5.8686686 5.0123167 0.43108737
-2.0753107 1.7681506 -0.89897954
-2.3900301 2.0362895 -0.86627805
-2.7553279 2.3475206 -0.80188537
-3.296253 2.8083849 -0.72193843
-4.0885563 3.4834218 -0.59868783
-5.6473651 4.8115163 -0.414404
-0 0 0
-5.8668094 4.9984813 0.43050683
-2.0604978 1.7512374 -0.89164567
-2.3580835 2.0041585 -0.85382044
-2.7697828 2.3540657 -0.80526376
-3.2976899 2.8027391 -0.72151089
-4.0868478 3.4734523 -0.59782267
-5.6492186 4.8013268 -0.414114
-0 0 0
-5.849093 4.9712019 0.42876571
-2.0494139 1.7375565 -0.88594013
-2.3624153 2.0029285 -0.85451192
-2.7648728 2.3441446 -0.80301219
-3.2834535 2.7838132 -0.71765959
-4.0949912 3.4718599 -0.59839976
-5.6609564 4.7995338 -0.41454902
-0 0 0
-5.8392396 4.9506874 0.42760459
-2.042078 1.7271 -0.8818661
-2.4031444 2.032474 -0.86835515
-2.7580047 2.3325994 -0.80019832
-3.2907312 2.7831562 -0.71851474
-4.0972104 3.465241 -0.59811175
-5.6608052 4.7876606 -0.414114
-0 0 0
-5.8491812 4.946981 0.42789459
-2.047945 1.7278219 -0.8834976
-2.3691642 1.99883 -0.85520345
-2.7627614 2.3309021 -0.80076063
-3.3137159 2.7957346 -0.72279519
-4.0974369 3.4569488 -0.59753466
-5.6725383 4.7858391 -0.41454902
-0 0 0
-5.8492022 4.9348879 0.4274596
-2.0935192 1.7619463 -0.90223944
-2.3792555 2.0024276 -0.85797209
-2.7694602 2.3308313 -0.80188537
-3.3170915 2.7917285 -0.72279519
-4.1075497 3.4569933 -0.59839976
-5.6803107 4.7806597 -0.41469458
-0 0 0
-0 0 0
-2.0918643 1.75624 -0.90061104
-2.4028106 2.017297 -0.86558652
-2.764498 2.3209546 -0.79963595
-3.3145623 2.7827649 -0.72151089
-4.1057792 3.4470367 -0.59753466
-5.694036 4.7804694 -0.41527456
-5.7871571 4.8586502 0
-5.8690634 4.9274149 0.42803958
-2.0712466 1.7346679 -0.89083147
-2.418704 2.0256631 -0.87042964
-2.7595084 2.3110867 -0.79738444
-3.308084 2.7705183 -0.7193715
-4.1158919 3.4470568 -0.59839976
-5.7037959 4.7769256 -0.41556513
-5.7830496 4.8433008 0
-5.8730226 4.918653 0.42789459
-2.0828233 1.7400856 -0.89490551
-2.4115255 2.0146985 -0.86696953
-2.7661951 2.3110056 -0.79850912
-3.3232458 2.7763913 -0.72193843
-4.1180706 3.4404244 -0.59811175
-5.7235246 4.7816935 -0.41658124
-5.7909007 4.8379827 0
-5.8729849 4.9065599 0.4274596
-2.0963128 1.7470587 -0.89979374
-2.3792715 1.9828756 -0.85451192
-2.7865508 2.3223004 -0.80357456
-3.3226578 2.7690899 -0.72108334
-4.1202321 3.4337852 -0.59782267
-5.7312922 4.7764363 -0.41672623
-5.7947373 4.8293109 0
-5.8809037 4.9011221 0.42760459
-2.0661139 1.7176651 -0.88594013
-2.4241037 2.01528 -0.86973816
-2.7874029 2.3173089 -0.80301219
-3.3319252 2.7699978 -0.72236764
-4.1204042 3.4255004 -0.59724659
-5.7430558 4.7744927 -0.41716179
-5.8085732 4.8289609 0
-5.8568473 4.8690934 0.42542735
-2.068188 1.7151673 -0.88594013
-2.3859856 1.9787199 -0.85520345
-2.7921548 2.3155596 -0.80357456
-3.3451476 2.7741618 -0.72450709
-4.1285181 3.4238183 -0.59782267
-5.76682 4.7824769 -0.41846791
-5.8244181 4.8302436 0
-5.8607283 4.8603559 0.42528236
-2.0664537 1.7095191 -0.88431174
-2.3825812 1.9710426 -0.85312897
-2.8008258 2.3170447 -0.80526376
-3.3425615 2.7652073 -0.72322279
-4.1326523 3.4188273 -0.59782267
-5.7745948 4.7771602 -0.41861293
-5.8342648 4.8265233 0
-5.8665967 4.853271 0.42528236
-2.079952 1.7164569 -0.88919997
-2.4159133 1.9937052 -0.86420089
-2.7938266 2.3055739 -0.80244982
-3.3399584 2.7562633 -0.72193843
-4.1407738 3.4171269 -0.59839976
-5.7883792 4.7767949 -0.41919348
-7.058434 5.824893 0
-5.8704548 4.8445263 0.42513737
-2.1106493 1.7375067 -0.90142524
-2.4008904 1.9764359 -0.85797209
-2.8005302 2.3054233 -0.80357456
-3.3452742 2.7538617 -0.72236764
-4.138907 3.4071879 -0.59753466
-5.7901306 4.7664909 -0.4189029
-8.343297 6.8682818 0
-5.8763041 4.8374295 0.42513737
-2.0649965 1.695743 -0.8810519
-2.411032 1.9799019 -0.86074072
-2.8072448 2.3052657 -0.80470139
-3.3446276 2.7465563 -0.72151089
-4.1410241 3.4005446 -0.59724659
-5.8159709 4.7759848 -0.4203546
-8.343545 6.8515892 0
-5.8781247 4.8270245 0.4248468
-2.1167521 1.7339658 -0.90223944
-2.4211855 1.9833463 -0.86350936
-2.8001945 2.2938168 -0.80188537
-3.3499279 2.744138 -0.72193843
-4.1511345 3.4004571 -0.59811175
-5.8257542 4.772244 -0.42064458
-8.3618822 6.8497472 0
-5.8859687 4.8215699 0.42499235
-2.0920551 1.7095149 -0.89083147
-2.4158096 1.9740696 -0.86074072
-2.7970672 2.2856128 -0.80019832
-3.3512552 2.7384655 -0.72151089
-4.1532316 3.3937976 -0.59782267
-5.8415747 4.7734208 -0.42137015
-8.4507618 6.9055085 0
-5.8897724 4.8128052 0.4248468
-2.0941191 1.7069858 -0.89083147
-2.4006937 1.9568849 -0.85451192
-2.8077047 2.2886531 -0.80244982
-3.3545616 2.7344141 -0.72151089
-4.1613426 3.3920481 -0.59839976
-5.8473382 4.7663589 -0.42137015
-8.7878876 7.1632981 0
-5.8955836 4.805685 0.4248468
-2.1181507 1.7244458 -0.90061104
-2.4213271 1.9712702 -0.86143225
-2.8071108 2.2853475 -0.80188537
-3.358202 2.7340062 -0.72193843
-4.1593761 3.3862643 -0.59782267
-5.8582768 4.7693872 -0.4219507
-8.8386354 7.1957803 0
-5.8944597 4.7988443 0.42455679
-2.1183088 1.7203225 -0.89979374
-2.4022911 1.9509504 -0.85382044
-2.8197379 2.2899678 -0.80470139
-3.3754537 2.7412763 -0.72493464
-4.1594529 3.3779781 -0.59724659
-5.8620205 4.7606688 -0.42180571
-8.8897457 7.2195477 0
-5.904284 4.794992 0.4248468
-2.0666196 1.6742047 -0.87697786
-2.4104891 1.9527794 -0.85589492
-2.8205228 2.2849548 -0.80413687
-3.3787637 2.7371957 -0.72493464
-4.1655393 3.3745763 -0.59753466
-5.8677688 4.753582 -0.42180571
-10.912457 8.840373 0
-5.9040222 4.7829518 0.4244118
-2.0686409 1.6717064 -0.87697786
-2.4538217 1.9829777 -0.87042964
-2.8153765 2.275157 -0.80188537
-3.3561144 2.7121372 -0.7193715
-4.1655941 3.3662925 -0.59695858
-5.8937144 4.7628179 -0.42325681
-10.917057 8.8222723 0
-5.913835 4.779078 0.42470181
-2.1572411 1.739001 -0.91364735
-2.4093471 1.9422295 -0.85382044
-2.8181236 2.2717535 -0.80188537
-3.3613858 2.7096894 -0.71979904
-4.175694 3.3661218 -0.59782267
-5.2116866 4.2012591 -0.37391219
-10.919604 8.8025417 0
-5.9216266 4.7735577 0.4248468
-2.1131213 1.6992267 -0.89409137
-2.4253721 1.9503173 -0.85866356
-2.8248305 2.2715342 -0.80301219
-3.358654 2.7007983 -0.71851474
-4.1797581 3.3610737 -0.59782267
-5.2370048 4.2112389 -0.37536332
-10.938345 8.7958641 0
-5.9233441 4.7631454 0.42455679
-2.1209514 1.7013073 -0.89653391
-2.4140337 1.9364014 -0.85382044
-2.8374815 2.2760673 -0.80582607
-3.3819432 2.7128038 -0.72279519
-4.1838164 3.3560209 -0.59782267
-0 0 -0
-10.936789 8.7728739 0
-5.9250374 4.7527299 0.42426625
-2.1114302 1.6894811 -0.89164567
-2.4242072 1.9397527 -0.85658908
-2.8442013 2.275815 -0.80695289
-3.3792036 2.7039022 -0.72151089
-4.1858506 3.3493488 -0.59753466
-5.2532549 4.2034426 -0.37579885
-10.955509 8.7661562 0
-5.9328103 4.7471952 0.4244118
-2.1463072 1.7131387 -0.90549928
-2.4108632 1.9243019 -0.85105181
-2.8350301 2.2628632 -0.80357456
-3.3904936 2.7062228 -0.72322279
-4.1919141 3.3459005 -0.59782267
-5.2258368 4.1711564 -0.37347662
-10.968125 8.7545338 0
-5.9365053 4.7383976 0.42426625
-2.1097043 1.6797537 -0.88919997
-2.4249587 1.9307604 -0.85520345
-2.8298111 2.2531052 -0.801323
-3.3797014 2.6909297 -0.72022659
-4.1919112 3.3376138 -0.59724659
-5.2288418 4.1632218 -0.37333164
-6.112967 4.8671651 0
-5.9442654 4.7328444 0.4244118
-2.1388321 1.6987268 -0.90061104
-2.4371107 1.9356289 -0.85866356
-2.8564079 2.2686477 -0.80807763
-3.390991 2.6932302 -0.72193843
-4.1999879 3.3357606 -0.59782267
-0 0 -0
-6.1045756 4.8484435 0
-5.9520125 4.727273 0.42455679
-2.1409862 1.6920162 -0.89979374
-2.4398148 1.9281796 -0.85797209
-2.8279941 2.2349567 -0.79850912
-3.3914533 2.6802573 -0.7206558
-4.2060094 3.3239989 -0.59753466
-5.225553 4.1297417 -0.37202552
-6.112195 4.8304529 0
-5.9613824 4.711266 0.4244118
-2.0945063 1.6511756 -0.8794204
-2.4263813 1.9128048 -0.85243481
-2.8426611 2.2409735 -0.80188537
-3.4047673 2.6841021 -0.72279519
-4.2120519 3.320514 -0.59782267
-5.2223768 4.1169896 -0.37144497
-6.1078105 4.8150096 0
-5.960947 4.6992316 0.42397624
-2.1450691 1.6868373 -0.89979374
-2.4464374 1.9238272 -0.85866356
-2.8333869 2.228116 -0.79850912
-3.4080081 2.6799862 -0.72279519
-4.2119985 3.3122275 -0.59724659
-5.2212176 4.1058564 -0.37100941
-6.1156678 4.8092327 0
-5.9727502 4.6968455 0.4244118
-2.149056 1.6857741 -0.90061104
-2.4665313 1.9348098 -0.86489505
-2.854068 2.2388034 -0.80357456
-3.4031646 2.6695287 -0.72108334
-4.2200642 3.3103254 -0.59782267
-5.1852932 4.0674758 -0.36810717
-6.1214743 4.8018398 0
-5.9804635 4.6912274 0.42455679
-2.1433053 1.6770837 -0.89735121
-2.4491055 1.916365 -0.85797209
-2.8427691 2.2243969 -0.79963595
-3.4124548 2.6701622 -0.72236764
-4.2261038 3.3068223 -0.59811175
-5.184063 4.0564022 -0.36767161
-6.1313672 4.7976441 0
-5.9861279 4.6839981 0.42455679
-2.1375365 1.6684097 -0.89409137
-2.4415329 1.9056877 -0.85451192
-2.8514581 2.2256463 -0.801323
-3.4096057 2.6612968 -0.72108334
-4.2239776 3.2969377 -0.59724659
-5.1828136 4.0453372 -0.36723605
-6.131011 4.7854328 0
-5.9958758 4.679956 0.4248468
-2.1707542 1.6901201 -0.90713078
-2.4913423 1.9397258 -0.87112385
-2.8501394 2.2190802 -0.80019832
-3.4188976 2.6619077 -0.72236764
-4.2279582 3.2918315 -0.59724659
-5.1897459 4.0406666 -0.36738107
-6.1408916 4.7812157 0
-6.007679 4.6774983 0.42528236
-2.1415622 1.6632392 -0.89409137
-2.4817922 1.9274781 -0.86696953
-2.8648553 2.224983 -0.80357456
-3.4119685 2.6498971 -0.72022659
-4.2380629 3.2914815 -0.59811175
-5.1884737 4.0296159 -0.36694604
-6.1507792 4.776988 0
-6.019485 4.6750188 0.42571792
-2.1357548 1.6545956 -0.89083147
-2.4960227 1.9336995 -0.87112385
-2.8635283 2.2184105 -0.80244982
-3.4212577 2.6504905 -0.72151089
-4.2399864 3.2847695 -0.59782267
-5.1912789 4.0217476 -0.36680049
-6.1606574 4.772737 0
-6.0333462 4.6741076 0.42629847
-2.1475291 1.6595689 -0.89490551
-2.472553 1.910741 -0.86212641
-2.8621817 2.2118385 -0.801323
-3.4264872 2.6479228 -0.72193843
-4.2398629 3.2764838 -0.59724659
-5.1755781 3.9995863 -0.36534938
-11.06722 8.5525331 0
-6.0410438 4.6684012 0.42644349
-2.1485314 1.6582712 -0.89490551
-2.461787 1.9000468 -0.85797209
-2.8695538 2.2147679 -0.80301219
-3.4402833 2.655266 -0.72450709
-4.2418418 3.2739217 -0.59724659
-5.1656551 3.9869361 -0.36447883
-11.072385 8.545845 0
-6.0603189 4.6774521 0.42760459
-2.1427 1.6496428 -0.89164567
-2.495887 1.921558 -0.86904669
-2.8641744 2.2050986 -0.80076063
-3.4231446 2.6354442 -0.72022659
-4.2396441 3.2640588 -0.59638149
-5.1642904 3.9759345 -0.36404327
-11.074454 8.5261097 0
-11.054513 8.5107574 0.77925926
-2.1740973 1.6696352 -0.90387094
-2.504178 1.9231263 -0.87112385
-2.8769109 2.209373 -0.80357456
-3.4304023 2.6344361 -0.72108334
-4.2517905 3.2652352 -0.59753466
-5.1732082 3.9728539 -0.36433327
-11.082686 8.511138 0
-11.066848 8.4989748 0.77940428
-2.1564887 1.6519736 -0.89571971
-2.4706478 1.8926347 -0.85866356
-2.8916848 2.2151692 -0.80695289
-3.4437702 2.6380932 -0.72322279
-4.2536817 3.2585239 -0.59724659
-5.1656322 3.9571221 -0.36346272
-11.076434 8.4850798 0
-11.070919 8.480854 0.77896869
-2.176156 1.6628714 -0.90305364
-2.4589849 1.8789898 -0.85382044
-2.8983932 2.214756 -0.80807763
-3.4387965 2.6276956 -0.72151089
-4.2576156 3.2533817 -0.59724659
-5.1662846 3.9477253 -0.36317271
-11.080473 8.4669476 0
-11.079095 8.4658947 0.77882373
-2.1761999 1.6587437 -0.90223944
-2.4632468 1.8775367 -0.85451192
-2.8889463 2.2020135 -0.80470139
-3.4460561 2.6266539 -0.72236764
-4.2615438 3.248235 -0.59724659
-5.1565828 3.9304521 -0.3621566
-11.088628 8.4519768 0
-11.087252 8.4509287 0.77867872
-2.1683671 1.6486349 -0.8981654
-2.5094457 1.907961 -0.86973816
-2.8875556 2.1954424 -0.80357456
-3.4471781 2.62093 -0.72193843
-4.2695794 3.2462113 -0.59782267
-5.1592617 3.9226472 -0.36201158
-11.096763 8.4369984 0
-11.097455 8.4375257 0.77867872
-2.129004 1.6146508 -0.8810519
-2.5197449 1.9109914 -0.8725068
-2.9023573 2.2011671 -0.80695289
-3.4442122 2.6121135 -0.7206558
-4.2734985 3.24105 -0.59782267
-5.1557164 3.9101298 -0.36143103
-11.106949 8.423584 0
-11.101429 8.4193983 0.77824318
-2.1624911 1.6359357 -0.89409137
-2.4920466 1.885246 -0.86212641
-2.888804 2.185395 -0.80244982
-3.4494112 2.6094973 -0.72108334
-4.275351 3.2343249 -0.59753466
-5.1479998 3.8944881 -0.36055991
-11.104662 8.4007339 0
-11.105375 8.4012737 0.77780759
-2.1368418 1.6124758 -0.88268024
-2.4783022 1.8701442 -0.85658908
-2.8975213 2.1864898 -0.80413687
-3.4628053 2.6130574 -0.72322279
-4.2813187 3.2307131 -0.59782267
-5.1506295 3.8867011 -0.36041492
-11.11688 8.388876 0
-5.8640141 4.4250264 0.41033396
-2.1427417 1.6128683 -0.88431174
-2.4925826 1.8761979 -0.86074072
-2.9062531 2.187573 -0.80582607
-3.4516013 2.5980632 -0.72022659
-4.2852192 3.2255375 -0.59782267
-5.1511736 3.8773525 -0.36012492
-11.120776 8.3707466 0
-5.8257618 4.3851233 0.4072862
-2.1881683 1.6429232 -0.90223944
-2.5209267 1.8927654 -0.86973816
-2.9007666 2.1779573 -0.80357456
-3.4629495 2.6000559 -0.72193843
-4.2870469 3.2188058 -0.59753466
-5.1537709 3.8695607 -0.35997936
-11.132962 8.3588638 0
-5.82482 4.3733988 0.40685064
-2.1941123 1.6432441 -0.90387094
-2.4890773 1.8641533 -0.85797209
-2.9237378 2.1896851 -0.80920446
-3.461983 2.5927951 -0.72108334
-4.2888651 3.2120745 -0.59724659
-5.1605287 3.8648927 -0.36012492
-11.140973 8.3438473 0
-5.8301001 4.3663573 0.40685064
-2.1941104 1.6391083 -0.90305364
-2.4973593 1.8656502 -0.86004925
-2.9121301 2.1755044 -0.80526376
-3.4692225 2.5916798 -0.72193843
-4.2968831 3.2099829 -0.59782267
-5.1714339 3.8633153 -0.36055991
-11.211508 8.3755474 0
-5.7854109 4.3219862 0.40336728
-2.1604195 1.6098759 -0.88838583
-2.4955847 1.8596303 -0.85866356
-2.9147568 2.171984 -0.80526376
-3.4764724 2.5905566 -0.72279519
-4.2966146 3.2017007 -0.59724659
-5.1886039 3.8663826 -0.36143103
-11.190315 8.3386679 0
-11.276419 8.4028282 0.78549987
-2.1901305 1.6279035 -0.89979374
-2.4797103 1.8431455 -0.85243481
-2.9255362 2.1745236 -0.80751526
-3.4775417 2.5848243 -0.72236764
-4.2984061 3.1949651 -0.59695858
-5.2016139 3.8663108 -0.36201158
-11.171145 8.3034077 0
-11.342865 8.4310455 0.78941822
-2.2099705 1.6385086 -0.90713078
-2.5141802 1.8640547 -0.86350936
-2.917958 2.1634221 -0.80470139
-3.472414 2.5745049 -0.7206558
-4.3064151 3.192847 -0.59753466
-5.2041883 3.8584709 -0.36186603
-11.185348 8.2930002 0
-11.363486 8.4250755 0.79014432
-2.2039998 1.6299585 -0.90387094
-2.5325675 1.8729492 -0.86904669
-2.9123981 2.1538513 -0.80244982
-3.492034 2.5825183 -0.72407955
-4.3081923 3.1861048 -0.59724659
-5.2067595 3.8506362 -0.36172104
-11.18699 8.2732897 0
-5.8981571 4.3619561 0.40975341
-2.1801128 1.6082215 -0.89327717
-2.492434 1.838614 -0.85451192
-2.9252203 2.157871 -0.80526376
-3.482753 2.5691507 -0.72151089
-4.3120389 3.1808968 -0.59724659
-5.2176838 3.8489711 -0.3621566
-11.194886 8.2582226 0
-11.417262 8.4222651 0.79246598
-2.2138989 1.6290177 -0.90631348
-2.5229394 1.8564141 -0.86420089
-2.9175947 2.146807 -0.80244982
-3.4982648 2.5740721 -0.72407955
-4.3179607 3.1772156 -0.59753466
-5.2286115 3.8472853 -0.36259216
-11.202762 8.2431488 0
-11.416968 8.4007645 0.79174042
-2.1760228 1.5970987 -0.89001727
-2.5029392 1.8370401 -0.85658908
-2.9324729 2.1522977 -0.80582607
-3.4848166 2.5576921 -0.7206558
-4.3301368 3.1781175 -0.59868783
-5.2374415 3.8440366 -0.36288214
-11.198026 8.2188263 0
-11.368464 8.3439198 0.78767711
-2.1849608 1.6016287 -0.89327717
-2.5343935 1.8577712 -0.86696953
-2.9235282 2.1430161 -0.80301219
-3.4925663 2.5601346 -0.72193843
-4.3257961 3.170912 -0.59782267
-5.2565289 3.8531613 -0.36404327
-11.207191 8.2151394 0
-11.281292 8.2694569 0.78129095
-2.1829004 1.596067 -0.89164567
-2.5103111 1.8354592 -0.85797209
-2.9363692 2.1469791 -0.80582607
-3.493587 2.554399 -0.72151089
-4.3254523 3.1626325 -0.59724659
-5.2548862 3.8422046 -0.3636077
-11.219208 8.203126 0
-11.234648 8.2144146 0.7773726
-2.2367439 1.6312916 -0.91283321
-2.5388756 1.8516411 -0.86696953
-2.9245887 2.1329474 -0.80188537
-3.4945989 2.5486646 -0.72108334
-4.3292708 3.1574037 -0.59724659
-5.2574272 3.8343227 -0.36346272
-11.216492 8.1803598 0
-11.229867 8.190115 0.77635646
-2.1847544 1.5893345 -0.89083147
-2.5025709 1.8205352 -0.85382044
-2.9353828 2.1353912 -0.80413687
-3.4997499 2.545949 -0.72151089
-4.3330827 3.1521704 -0.59724659
-5.2767673 3.8386688 -0.36447883
-11.226368 8.1668005 0
-11.235557 8.1734858 0.77606648
-2.1966734 1.5939499 -0.89490551
-2.5270987 1.8337131 -0.86143225
-2.9523585 2.1422901 -0.80807763
-3.506983 2.5447366 -0.72236764
-4.3389797 3.1484499 -0.59753466
-5.2877054 3.836864 -0.36491382
-11.234123 8.1517029 0
-11.243315 8.1583729 0.77592093
-2.2066066 1.5970911 -0.8981654
-2.5272822 1.8291887 -0.86074072
-2.9446552 2.1312737 -0.80526376
-3.5017371 2.5344768 -0.7206558
-4.3448744 3.1447198 -0.59782267
-5.3007574 3.836566 -0.36549437
-5.8935418 4.2656097 0
-11.255276 8.1463099 0.77606648
-2.2005191 1.5886368 -0.89490551
-2.5274584 1.8246666 -0.86004925
-2.9451702 2.1262281 -0.80470139
-3.5089557 2.533246 -0.72151089
-4.348671 3.1394677 -0.59782267
-5.3138161 3.8362422 -0.36607495
-5.8818111 4.2462988 0
-11.260893 8.1296587 0.77577591
-2.2104597 1.591754 -0.8981654
-2.5418725 1.8304046 -0.86420089
-2.9456692 2.1211789 -0.80413687
-3.5078516 2.5260069 -0.7206558
-4.3503642 3.1327009 -0.59753466
-5.3121281 3.8252678 -0.36563993
-11.261489 8.1094074 0
-11.260167 8.1084557 0.77505034
-2.2304466 1.6020573 -0.90549928
-2.5338962 1.8200155 -0.86074072
-2.9626782 2.1279957 -0.80807763
-3.5109012 2.5217667 -0.7206558
-4.3457432 3.1214066 -0.59638149
-5.3251882 3.8249099 -0.3662205
-11.2586 8.086688 0
-11.272064 8.0963583 0.77519536
-2.2223368 1.5921652 -0.90142524
-2.5442512 1.8227968 -0.86350936
-2.9569852 2.118495 -0.80582607
-3.5243778 2.5249963 -0.72279519
-4.3579221 3.1221786 -0.59753466
-5.3340263 3.8214962 -0.36651048
-11.266242 8.071558 0
-11.27339 8.0766792 0.77461481
-2.1961098 1.5693632 -0.89001727
-2.5668595 1.8343048 -0.87042964
-2.9554121 2.1119688 -0.80470139
-3.527426 2.520736 -0.72279519
-4.3637938 3.118413 -0.59782267
-5.342864 3.8180671 -0.36680049
-11.271756 8.0549154 0
-11.278916 8.0600328 0.77432483
-2.2281885 1.5882233 -0.90223944
-2.5547793 1.821013 -0.86558652
-2.9703724 2.1172423 -0.80807763
-3.5262845 2.513489 -0.72193843
-4.3654542 3.1116381 -0.59753466
-5.3453598 3.8101017 -0.3666555
-11.277238 8.0382662 0
-11.282298 8.041873 0.77388924
-2.1958632 1.5611845 -0.88838583
-2.548799 1.8121099 -0.86281788
-2.9605074 2.1048205 -0.80470139
-3.529319 2.5092263 -0.72193843
-4.3734312 3.1093614 -0.59811175
-5.3436122 3.7991276 -0.3662205
-11.284823 8.0231276 0
-11.292006 8.0282345 0.77388924
-2.1816192 1.5470923 -0.8818661
-2.5428011 1.803224 -0.86004925
-2.9671898 2.1041787 -0.80582607
-3.5218804 2.4975367 -0.71979904
-4.3750691 3.1025741 -0.59782267
-5.3269992 3.7776341 -0.36476883
-11.29451 8.0094862 0
-11.297463 8.0115805 0.77359927
-2.2420025 1.5858451 -0.90549928
-2.5285926 1.7885602 -0.85451192
-2.9697301 2.1005919 -0.80582607
-3.5290914 2.4962471 -0.7206558
-4.3788147 3.0972855 -0.59782267
-6.2797775 4.4419017 -0.42964295
-11.29568 7.9898214 0
-11.307136 7.9979243 0.77359927
-2.2479601 1.5859873 -0.90713078
-2.557399 1.8043038 -0.86350936
-2.9909499 2.1101837 -0.81089151
-3.5383916 2.4964163 -0.72193843
-4.3825541 3.0919924 -0.59782267
-6.2808895 4.4313116 -0.4293524
-11.298953 7.9716702 0
-11.312541 7.981257 0.77330869
-2.2498746 1.58327 -0.90713078
-2.573941 1.8113202 -0.86835515
-2.9747977 2.0934091 -0.80582607
-3.5393081 2.4906633 -0.72151089
-4.3862867 3.0866945 -0.59782267
-6.2904935 4.426713 -0.42964295
-11.297929 7.9505191 0
-11.305177 7.9556193 0.7721476
-2.2234602 1.560668 -0.89571971
-2.5617518 1.7981182 -0.86350936
-2.9877217 2.0971105 -0.80863994
-3.5465212 2.4893372 -0.72236764
-4.3878984 3.0799079 -0.59753466
-6.2979627 4.4206004 -0.42978796
-11.279838 7.9174261 0
-11.282885 7.9195647 0.76997089
-2.2071238 1.545224 -0.88838583
-2.5700903 1.7993394 -0.86558652
-2.9756892 2.0833023 -0.80470139
-3.5537283 2.4879918 -0.72322279
-4.3937335 3.0760856 -0.59782267
-6.3203287 4.4249096 -0.43094906
-11.278738 7.8963294 0
-11.292446 7.9059262 0.76997089
-2.2262852 1.5566355 -0.89571971
-2.5567827 1.7877219 -0.86074072
-2.9790275 2.0829587 -0.80526376
-3.5510273 2.4829054 -0.72236764
-4.3977165 3.0749171 -0.59811175
-6.3485551 4.4389577 -0.43269074
-11.283506 7.889514 0
-11.303602 7.9035649 0.77040589
-2.2423575 1.5638427 -0.90142524
-2.5712914 1.7932446 -0.86489505
-2.97737 2.0764477 -0.80413687
-3.551913 2.4771399 -0.72193843
-4.397182 3.0666389 -0.59753466
-6.3709645 4.4431748 -0.43385187
-11.293032 7.875874 0
-11.334461 7.904768 0.77185756
-2.2198975 1.5441953 -0.89164567
-2.5528574 1.7758074 -0.85797209
-3.0007396 2.0873611 -0.80976683
-3.5527983 2.4713819 -0.72151089
-4.4051347 3.0642805 -0.59811175
-6.406188 4.4562445 -0.43588355
-11.317497 7.8726273 0
-11.425059 7.9474492 0.7773726
-2.2075448 1.5316479 -0.88594013
-2.579736 1.789883 -0.86627805
-2.9886441 2.0735934 -0.80582607
-3.5494525 2.4626958 -0.72022659
-4.4045801 3.0560038 -0.59753466
-6.456399 4.4796052 -0.43893132
-11.581437 8.0354805 0
-11.460273 7.9514136 0.77911425
-2.2398818 1.550078 -0.8981654
-2.5633321 1.7739172 -0.86004925
-2.9932349 2.0714252 -0.80638844
-3.5566514 2.4613297 -0.72108334
-4.4103942 3.05215 -0.59782267
-6.4746232 4.48067 -0.43980187
-11.447762 7.9222593 0
-11.399363 7.8887653 0.77432483
-2.2580259 1.5586028 -0.90468514
-2.5592778 1.7665418 -0.85797209
-2.9999218 2.0706966 -0.80751526
-3.5617335 2.458487 -0.72151089
-4.4162135 3.0482922 -0.59811175
-5.5477033 3.8293033 -0.37652442
-11.375941 7.8522453 0
-11.381088 7.8557982 0.77243811
-2.2517643 1.550267 -0.90142524
-2.5696759 1.7691388 -0.86074072
-2.9982319 2.0641856 -0.80638844
-3.5625892 2.4527273 -0.72108334
-4.4198937 3.0429537 -0.59811175
-5.5673103 3.8329129 -0.37754053
-11.368272 7.8266878 0
-11.37345 7.8302526 0.77127701
-2.2597504 1.5517436 -0.90387094
-2.5697455 1.7646137 -0.86004925
-2.994446 2.0562506 -0.80470139
-3.5740149 2.4542334 -0.72279519
-4.4214287 3.0361426 -0.59782267
-5.5847855 3.835006 -0.37841108
-0 0 0
-11.393611 7.8238573 0.77200258
-2.2575414 1.5462161 -0.90223944
-2.584291 1.7700106 -0.86420089
-3.0157936 2.0655518 -0.80976683
-3.5727377 2.4470093 -0.72193843
-4.4272342 3.0322638 -0.59811175
-5.5851321 3.8253212 -0.37812111
-11.389298 7.8006616 0
-11.428782 7.8277044 0.77374423
-2.2226765 1.5183945 -0.88757163
-2.580219 1.7626454 -0.86212641
-3.0077987 2.0547411 -0.80695289
-3.5820529 2.447036 -0.72322279
-4.4308949 3.026912 -0.59811175
-5.5897498 3.8185699 -0.37812111
-11.392275 7.7824941 0
-11.609872 7.9311428 0.78535485
-2.2612715 1.540756 -0.90223944
-2.5906401 1.7651769 -0.86489505
-3.0144749 2.0539641 -0.80807763
-3.5786409 2.4383681 -0.72193843
-4.4366846 3.023011 -0.59839976
-5.6029491 3.8176653 -0.37870166
-11.40167 7.768723 0
-11.743989 8.0019684 0.79377264
-2.238601 1.5213516 -0.89245987
-2.5740905 1.7493501 -0.85866356
-3.0085485 2.0446074 -0.80582607
-3.5709708 2.4268291 -0.71979904
-4.4360514 3.0147374 -0.59782267
-5.6118522 3.8138108 -0.37899166
-11.40889 7.7534738 0
-11.770834 7.9994507 0.7949332
-2.2363496 1.5158746 -0.89083147
-2.5886662 1.754687 -0.86281788
-3.0110166 2.0409706 -0.80582607
-3.584523 2.429713 -0.72193843
-4.4482551 3.0151801 -0.59897584
-5.6100101 3.8026576 -0.37855664
-11.411794 7.7353063 0
-11.771888 7.9793901 0.79435265
-2.2748415 1.5339556 -0.90468514
-2.5991414 1.7526352 -0.86489505
-3.0222623 2.0379512 -0.80751526
-3.5882578 2.4196095 -0.72151089
-4.444808 2.9971926 -0.59753466
-5.7484393 3.8762486 -0.38726446
-11.423978 7.7033391 0
-11.767444 7.9349427 0.79275656
-2.2561803 1.5174097 -0.89653391
-2.5929301 1.743893 -0.86212641
-3.0247226 2.0342979 -0.80751526
-3.593307 2.4167035 -0.72193843
-4.4505706 2.9932621 -0.59782267
-5.8048668 3.9041033 -0.39074782
-11.416001 7.6779108 0
-11.710189 7.8757682 0.78825766
-2.2600706 1.5160632 -0.89735121
-2.6116948 1.7519339 -0.867661
-3.0335107 2.0348895 -0.80920446
-3.5855672 2.405211 -0.71979904
-4.4520383 2.9864426 -0.59753466
-5.8031039 3.8927424 -0.39031225
-11.429597 7.6670136 0
-6.0274191 4.0432134 0.4053995
-2.2310853 1.492714 -0.88512594
-2.5929625 1.7348291 -0.86074072
-3.0232923 2.0227423 -0.80582607
-3.5970051 2.4065866 -0.72151089
-4.4556432 2.981061 -0.59753466
-0 0 -0
-11.436684 7.6517463 0
-6.0387726 4.0402584 0.4058345
-2.2698896 1.5147089 -0.89979374
-2.5887945 1.7275157 -0.85866356
-3.0362997 2.0261383 -0.80863994
-3.5999103 2.4022386 -0.72151089
-4.4613914 2.9771094 -0.59782267
-0 0 -0
-11.441596 7.635035 0
-6.0544553 4.0401688 0.40656006
-2.2646399 1.5092292 -0.89735121
-2.5898376 1.7259514 -0.85866356
-3.0311863 2.0200803 -0.80695289
-3.599227 2.3986411 -0.72108334
-4.4610391 2.9729805 -0.59753466
-0 0 -0
-11.446206 7.6281214 0
-11.620143 7.7440386 0.77998483
-2.2685182 1.5078585 -0.8981654
-2.6086359 1.7339308 -0.86420089
-3.037853 2.0192268 -0.80807763
-3.6063943 2.3971295 -0.72193843
-4.4689403 2.9704542 -0.59811175
-5.7719107 3.8365238 -0.38711947
-11.451077 7.6114011 0
-11.635986 7.7343087 0.78042036
-2.2497423 1.4914621 -0.89001727
-2.591912 1.7183028 -0.85797209
-3.0360591 2.0127492 -0.80695289
-3.6071506 2.3913531 -0.72151089
-4.4703641 2.963619 -0.59782267
-5.7852049 3.83529 -0.38770002
-11.48196 7.6119423 0
-11.638824 7.7159348 0.77998483
-2.2639089 1.4969193 -0.89490551
-2.596077 1.7165521 -0.85866356
-3.0448413 2.0132794 -0.80863994
-3.6121767 2.3884075 -0.72193843
-4.4739418 2.9582152 -0.59782267
-5.7876611 3.8268595 -0.38755447
-11.515022 7.6138482 0
-11.654643 7.7061667 0.78042036
-2.2698386 1.4969015 -0.89653391
-2.5960569 1.7120342 -0.85797209
-3.0472717 2.009599 -0.80863994
-3.6172092 2.3854585 -0.72236764
-4.4775133 2.9528072 -0.59782267
-5.7922812 3.8198636 -0.38755447
-11.611117 7.6572399 0
-11.644424 7.6792049 0.77911425
-2.253063 1.481935 -0.88919997
-2.6065078 1.7144107 -0.86074072
-3.0412064 2.0003302 -0.80638844
-3.6157951 2.3782618 -0.72151089
-4.4875627 2.9516604 -0.59868783
-5.7860398 3.8057237 -0.3868289
-11.668193 7.674665 0
-7.0146298 4.6138196 0.46896696
-2.2817159 1.4968346 -0.89979374
-2.6169682 1.7167643 -0.86350936
-3.0414987 1.9952618 -0.80582607
-3.6336932 2.383749 -0.72450709
-4.4889655 2.9448185 -0.59839976
-5.7841139 3.7944524 -0.38639334
-11.705744 7.6791172 0
-7.0115089 4.5996389 0.46838641
-2.2566376 1.476486 -0.88919997
-2.6022458 1.7026125 -0.85797209
-3.0460315 1.9929751 -0.80638844
-3.6279786 2.3737347 -0.72279519
-4.4925203 2.9393923 -0.59839976
-5.7147698 3.7390926 -0.38145888
-11.778168 7.7062879 0
-7.0148892 4.5897422 0.46824142
-2.2708433 1.4818652 -0.89409137
-2.6001034 1.6967275 -0.85658908
-3.0484374 1.9892931 -0.80638844
-3.6308441 2.3693492 -0.72279519
-4.4939046 2.9325497 -0.59811175
-5.6126647 3.6626096 -0.37434775
-11.870287 7.7460933 0
-7.0617695 4.6082397 0.47099864
-2.2892044 1.489906 -0.90061104
-2.6084535 1.6976861 -0.85866356
-3.0274196 1.970366 -0.80019832
-3.6293972 2.3621571 -0.72193843
-4.4996104 2.9285269 -0.59839976
-5.5604672 3.6189749 -0.37057441
-0 0 0
-7.0825796 4.6096268 0.47201476
-2.2827103 1.4817559 -0.89735121
-2.5705271 1.668584 -0.84551448
-2.9999564 1.9473356 -0.79231685
-3.6365592 2.360568 -0.72279519
-4.5053134 2.9244947 -0.59868783
-5.5430365 3.598103 -0.36912271
-0 0 0
-15.315438 9.941577 1.0198879
-2.2948709 1.4857113 -0.90142524
-2.5219984 1.632755 -0.8289026
-2.9468553 1.9078095 -0.7776829
-3.6394088 2.3561723 -0.72279519
-4.5045056 2.9162405 -0.59811175
-5.5015764 3.5617492 -0.36607495
-2.5004661 1.6188148 0
-15.296906 9.9032974 1.0178564
-2.2862844 1.4762352 -0.89735121
-2.5281887 1.6324308 -0.83028829
-0 0 -0
-3.6444077 2.3531642 -0.72322279
-4.5058465 2.9093883 -0.59782267
-2.4455564 1.5790757 -0.16260026
-2.4958675 1.6115613 0
-15.304491 9.8819847 1.0175657
-2.2859826 1.4721295 -0.89653391
-2.5174999 1.6212223 -0.82613397
-2.9044635 1.8704195 -0.76530051
-3.6407714 2.344588 -0.72193843
-4.5115395 2.9053462 -0.59811175
-2.4562011 1.5817471 -0.16318083
-2.4518661 1.5789554 0
-15.314238 9.8620796 1.0174208
-2.2711308 1.458686 -0.89001727
-2.5236828 1.6208934 -0.8275196
-2.8981698 1.8614162 -0.76304901
-3.6522415 2.3457363 -0.72365034
-4.5106902 2.8970945 -0.59753466
-2.4515495 1.5745641 -0.16274527
-2.4647188 1.5830224 0
-15.299907 9.8267174 1.0156791
-2.2687252 1.4532717 -0.88838583
-2.4981787 1.6002524 -0.81852221
-2.8747418 1.8414664 -0.75629437
-3.6507542 2.3385549 -0.72279519
-4.5185475 2.8944352 -0.59811175
-2.4622023 1.5772071 -0.16332583
-2.4732063 1.5842557 0
-15.333646 9.8222361 1.0171301
-2.2725604 1.4518588 -0.88919997
-2.4937661 1.5931793 -0.81644505
-2.6949706 1.7217219 -0.70845187
-3.6514161 2.332761 -0.72236764
-2.4972556 1.5954087 -0.3303017
-0 0 -0
-2.5847631 1.6513141 0
-15.319235 9.7869196 1.0153891
-2.2722306 1.4477849 -0.88838583
-2.5168431 1.6036434 -0.82336533
-2.4977715 1.5914916 -0.65610629
-3.6520607 2.3269639 -0.72193843
-2.4708264 1.5743232 -0.32655415
-2.430944 1.5489116 -0.16100359
-2.6196811 1.6691681 0
-15.342004 9.775382 1.0161146
-2.2718942 1.443714 -0.88757163
-2.508194 1.5938747 -0.81990516
-2.4632378 1.5653064 -0.64653778
-2.3571386 1.497884 -0.46560043
-2.4377987 1.5491409 -0.32194149
-2.4306228 1.5445808 -0.1608586
-2.6085212 1.6576294 0
-15.349414 9.7540474 1.0158241
-2.2498088 1.427772 -0.8786062
-2.5091565 1.5923591 -0.81990516
-0 0 -0
-2.3753827 1.5074637 -0.46902418
-0 0 -0
-2.3942606 1.519444 -0.15839136
-2.6117175 1.6574463 0
-15.370664 9.7545195 1.0168402
-2.2577996 1.4290192 -0.8810519
-2.519558 1.5946928 -0.8226738
-2.4746587 1.5662749 -0.64878935
-2.3359873 1.4785063 -0.46089238
-2.4231186 1.5336539 -0.31963515
-2.3807232 1.5068209 -0.15737525
-2.5917234 1.6403682 0
-15.386826 9.7387171 1.0171301
-2.282517 1.4408038 -0.89001727
-2.5342159 1.5996847 -0.82682812
-2.4958851 1.575489 -0.65385473
-2.3290889 1.4702016 -0.45918053
-2.3877897 1.5072556 -0.31473446
-2.3759482 1.4997808 -0.15693969
-2.5981092 1.6400166 0
-15.418365 9.732605 1.0184369
-2.2800691 1.4354086 -0.88838583
-2.5234044 1.5885994 -0.8226738
-2.4977868 1.5724721 -0.65385473
-2.3243444 1.463282 -0.4578962
-2.3896093 1.5043693 -0.31473446
-2.3601754 1.4858392 -0.15577914
-2.6022894 1.6382612 0
-15.498275 9.7568789 1.0229357
-2.2692466 1.4247695 -0.8834976
-2.5359435 1.592218 -0.82613397
-2.5061429 1.5735074 -0.65554392
-2.3043742 1.4468249 -0.45361736
-2.347615 1.4739741 -0.3089686
-2.3289571 1.4622595 -0.1536019
-2.626312 1.6489568 0
-15.560661 9.7699203 1.0262736
-2.2730591 1.4233371 -0.88431174
-2.4889667 1.5585333 -0.81021625
-2.5123453 1.5731725 -0.65666866
-2.2604327 1.4154307 -0.44463044
-2.263906 1.4176055 -0.29772604
-2.2778668 1.4263475 -0.15011856
-2.6128602 1.6361126 0
-15.607692 9.7731752 1.0285958
-2.2726829 1.4192815 -0.8834976
-2.4376521 1.5223042 -0.79291284
-0 0 -0
-2.2316625 1.3936645 -0.43863973
-2.2151654 1.3833621 -0.29109612
-2.2972205 1.4346051 -0.15127967
-2.6060054 1.6274402 0
-15.593041 9.737793 1.0268542
-2.2890761 1.4256772 -0.88919997
-2.3841264 1.4848764 -0.77491796
-2.5075207 1.5617285 -0.65441924
-2.1875877 1.3624686 -0.42965284
-2.1377978 1.3314586 -0.28071761
-2.2923415 1.4277111 -0.15084466
-2.6852815 1.672441 0
-15.633468 9.7368021 1.0287408
-2.3054957 1.4320403 -0.89490551
-2.315594 1.4383128 -0.75207734
-2.5115623 1.5600369 -0.65498161
-2.1521635 1.3367993 -0.42237779
-2.0910723 1.298853 -0.27437574
-2.3050995 1.4317942 -0.15157023
-2.7138293 1.6856734 0
-15.607699 9.6945982 1.0262736
-2.2904155 1.4188409 -0.88838583
-2.289607 1.4183401 -0.7430799
-2.5199194 1.5610114 -0.65666866
-2.1668668 1.3423064 -0.42494479
-2.1410093 1.3262885 -0.28071761
-2.2736914 1.4084809 -0.14939299
-2.731353 1.6919879 0
-3.5834382 2.2198281 0.23544997
-2.2921283 1.4160724 -0.88838583
-2.3062613 1.4248039 -0.7479257
-0 0 -0
-2.2143471 1.3680193 -0.43393168
-2.1580155 1.3332177 -0.28273594
-2.2621322 1.3975409 -0.14852244
-2.7112505 1.6750054 0
-3.6281128 2.241441 0.23820721
-2.2980502 1.4158973 -0.89001727
-2.271673 1.3996454 -0.73615956
-2.510709 1.5469227 -0.65329242
-0 0 -0
-2.2388906 1.3794473 -0.29311335
-2.2394822 1.3798118 -0.14692576
-2.6490278 1.632145 0
-3.6684248 2.260226 0.24067444
-2.2765932 1.3988847 -0.8810519
-2.2690835 1.3942702 -0.73477393
-2.5082507 1.54123 -0.65216774
-0 0 -0
-2.2515807 1.3835155 -0.29455563
-2.234504 1.3730224 -0.1464902
-2.6088662 1.6030545 0
-3.6932878 2.2693927 0.24212554
-2.2909222 1.4038788 -0.88594013
-2.287879 1.4020141 -0.74031121
-2.5122755 1.5395244 -0.65273005
-0 0 -0
-2.2400146 1.3726827 -0.29282534
-2.233948 1.368965 -0.1463452
-2.5686467 1.5740688 0
-3.7115383 2.2744336 0.24314167
-2.2926166 1.4011097 -0.88594013
-2.3002727 1.4057885 -0.74377137
-2.5076277 1.5325115 -0.65104085
-2.2231214 1.3586384 -0.43435925
-2.2681551 1.3861603 -0.29628485
-2.2489078 1.3743974 -0.14721632
-2.5683198 1.5696028 0
-3.727591 2.2780797 0.24401277
-2.3090835 1.407344 -0.89164567
-2.3169675 1.412149 -0.74861717
-2.5138211 1.5321276 -0.65216774
-2.2094238 1.346603 -0.43136472
-2.7291915 1.6633919 -0.35624635
-2.2749674 1.3865508 -0.14881244
-2.6413271 1.6098404 0
-0 0 0
-2.3044441 1.4007003 -0.88919997
-2.2950881 1.3950133 -0.74100274
-2.5048079 1.5224864 -0.64935166
-2.2351727 1.3585954 -0.4360711
-2.7577219 1.6762142 -0.35970587
-2.2988498 1.3973 -0.15026411
-0 0 0
-0 0 0
-2.2596397 1.3697306 -0.87127233
-2.2903337 1.3883365 -0.73892558
-2.5131664 1.5234115 -0.65104085
-0 0 -0
-2.7575357 1.6715413 -0.35941783
-2.3027565 1.3958669 -0.15040912
-2.5806713 1.5643311 0
-3.8113708 2.3103468 0.24894725
-2.2401457 1.3542153 -0.86312425
-2.2791319 1.3777833 -0.73477393
-2.5084798 1.5164289 -0.64935166
-2.2142904 1.3385853 -0.43136472
-2.7617648 1.6695449 -0.35970587
-2.3244526 1.4051807 -0.15171523
-0 0 0
-3.8074863 2.3017058 0.24851169
-2.2155721 1.337533 -0.85334462
-2.2907004 1.3828877 -0.7382341
-2.5072224 1.5136012 -0.64878935
-2.2238894 1.3425541 -0.43307656
-2.7671971 1.670547 -0.36028188
-2.338644 1.4118311 -0.15258579
-0 0 0
-3.8311172 2.3128319 0.24996281
-2.164252 1.3029857 -0.83297127
-2.2730281 1.3684742 -0.7320053
-2.5155821 1.5145036 -0.65047854
-2.2211072 1.3372153 -0.4322198
-2.7381954 1.6485277 -0.35624635
-2.3247716 1.3996264 -0.15157023
-0 0 0
-3.8250043 2.30284 0.24938224
-2.1107347 1.2672933 -0.81178373
-2.3047881 1.3838037 -0.74169421
-2.5217628 1.5140762 -0.65160322
-2.2227213 1.3345306 -0.4322198
-2.7424009 1.6465482 -0.35653436
-2.308639 1.3861159 -0.15040912
-2.6452715 1.5882313 0
-3.823333 2.2955439 0.24909224
-2.1122644 1.264742 -0.81178373
-2.315068 1.386173 -0.74446285
-2.5344965 1.5175582 -0.65441924
-2.2155225 1.326569 -0.43050796
-2.7732346 1.6605053 -0.36028188
-2.303622 1.3793195 -0.14997356
-0 0 0
-3.828331 2.2922561 0.24923724
-2.0628614 1.2317775 -0.79222459
-2.3124375 1.3808048 -0.7430799
-2.5341406 1.5131884 -0.65385473
-2.2017019 1.3146821 -0.42751342
-2.7974503 1.670416 -0.36316535
-2.3164399 1.3831946 -0.15069911
-0 0 0
-3.8288691 2.2862978 0.24909224
-2.0558538 1.2242259 -0.78896475
-2.3507462 1.3998293 -0.75484598
-2.5425186 1.5140265 -0.65554392
-2.2054923 1.313333 -0.42794096
-2.7861285 1.6590919 -0.36143506
-2.3181095 1.3803946 -0.15069911
-2.7561002 1.6412106 0
-3.8360898 2.2843261 0.24938224
-2.048831 1.2166928 -0.78570485
-2.3179226 1.3764921 -0.74377137
-2.5465288 1.5122494 -0.65610629
-2.2137012 1.3146007 -0.42922527
-2.7681181 1.6438396 -0.3588407
-2.3376491 1.3882068 -0.15186022
-2.7446594 1.6299087 0
-3.8366151 2.2783637 0.24923724
-2.0588062 1.2192541 -0.78896475
-2.3433311 1.3877537 -0.75138581
-2.5439858 1.5065843 -0.65498161
-2.2285366 1.3197708 -0.43179226
-2.2649462 1.341333 -0.29340246
-2.3348577 1.3827356 -0.15157023
-0 0 0
-3.8393652 2.2737262 0.24923724
-2.0326138 1.2004275 -0.77837098
-2.3644457 1.3964019 -0.75761461
-2.5436187 1.5022185 -0.65441924
-2.21908 1.3105514 -0.42965284
-2.259882 1.3346483 -0.29253733
-0 0 -0
-2.7172222 1.6047457 0
-3.8510594 2.2743709 0.2498178
-2.0723932 1.2205454 -0.79303879
-2.3618038 1.3909951 -0.75622898
-2.5454321 1.4991438 -0.65441924
-2.2317195 1.3143815 -0.43179226
-2.791888 1.6442953 -0.36114705
-2.3426659 1.3797239 -0.15186022
-2.7796998 1.6371169 0
-3.851568 2.2683985 0.2496728
-2.0525584 1.2055258 -0.78489071
-2.3310401 1.369086 -0.74584854
-2.5516193 1.4986383 -0.65554392
-2.2310948 1.3103851 -0.43136472
-2.7671096 1.6252019 -0.35768753
-2.3577793 1.3847905 -0.15273134
-2.7928941 1.6403458 0
-3.8498206 2.2611086 0.24938224
-2.0454826 1.1980481 -0.78163081
-2.3651583 1.3852836 -0.75622898
-2.5512378 1.4942712 -0.65498161
-2.2238162 1.3024988 -0.42965284
-0 0 -0
-0 0 -0
-2.767926 1.6211864 0
-3.8458297 2.2525194 0.24894725
-2.0768039 1.2130252 -0.79303879
-2.3646662 1.3811606 -0.75553745
-2.5398729 1.4834958 -0.65160322
-2.207655 1.2894531 -0.42622909
-2.7866652 1.627643 -0.35970587
-2.3700938 1.3843307 -0.15331189
-2.7429159 1.6020898 0
-3.8552735 2.2517986 0.24938224
-2.0740006 1.2080294 -0.79141039
-2.3316479 1.3580993 -0.74446285
-2.5526478 1.4868238 -0.65441924
-2.2047708 1.284198 -0.42537233
-2.768517 1.6125597 -0.35711148
-2.369513 1.3801544 -0.15316634
-2.7965751 1.6289024 0
-3.8602433 2.2484503 0.2495278
-2.0177598 1.1720082 -0.7694087
-2.3441403 1.361585 -0.7479257
-2.5632226 1.4888382 -0.65666866
-2.2107646 1.2841142 -0.42622909
-2.7548053 1.6001183 -0.35509318
-2.3824198 1.3838196 -0.15389246
-2.7827861 1.6163708 0
-3.8652022 2.2450881 0.2496728
-2.0598042 1.1931032 -0.78489071
-2.3609736 1.3675501 -0.75276881
-2.5628233 1.4844676 -0.65610629
-2.2278662 1.29045 -0.42922527
-2.3248048 1.3465999 -0.29945633
-2.3863366 1.382241 -0.15403746
-2.7509639 1.5934446 0
-3.8679121 2.240416 0.2496728
-2.0805042 1.2017384 -0.79222459
-2.3582838 1.3621891 -0.75138581
-2.553616 1.4750167 -0.65329242
-2.2316446 1.2890399 -0.42965284
-2.7116327 1.56629 -0.34903932
-2.4015012 1.3871522 -0.15490802
-2.7709157 1.600533 0
-3.8773601 2.2396362 0.2501078
-2.0305617 1.1696209 -0.77266854
-2.3360128 1.3455632 -0.74377137
-2.5664032 1.4782701 -0.65610629
-2.2243028 1.2812172 -0.42794096
-2.809891 1.6185211 -0.36143506
-2.4031754 1.3842494 -0.15490802
-2.7751007 1.5984815 0
-3.8710654 2.2297666 0.2495278
-2.0769706 1.1930127 -0.78977889
-2.3593955 1.3552377 -0.75069433
-2.5681875 1.475168 -0.65610629
-2.2302969 1.2810835 -0.42879608
-2.7714782 1.5919381 -0.35624635
-2.3935823 1.3748747 -0.15418246
-2.806365 1.6119772 0
-3.8805101 2.2289665 0.24996281
-2.0691235 1.1868434 -0.78652221
-2.3406217 1.3425741 -0.74446285
-2.5690782 1.4736161 -0.65610629
-2.2243965 1.2759076 -0.42751342
-0 0 -0
-2.3944128 1.3734283 -0.15418246
-2.8118491 1.6128688 0
-3.8773522 2.2240384 0.2496728
-2.0848629 1.1891848 -0.79141039
-2.3634784 1.3481044 -0.75069433
-2.5792553 1.4711813 -0.65779549
-2.2163179 1.2641654 -0.42537233
-2.7762744 1.5835589 -0.35624635
-2.3841865 1.359916 -0.15331189
-2.7818358 1.5867312 0
-3.8849704 2.2159481 0.2498178
-2.0755584 1.1805561 -0.78733635
-2.3672843 1.3464867 -0.75138581
-2.5832376 1.4693187 -0.65835786
-2.22454 1.2652953 -0.42665666
-2.193676 1.2477401 -0.28129473
-2.3948624 1.362173 -0.15389246
-2.7882712 1.5859396 0
-3.8944232 2.2151074 0.25025335
-2.0576365 1.167074 -0.78000247
-2.3667295 1.3423887 -0.75069433
-2.5894356 1.4687059 -0.65948468
-2.2216058 1.2600758 -0.42580155
-2.2176757 1.2578468 -0.28417712
-2.3784251 1.3490225 -0.15273134
-2.7924469 1.5838522 0
-3.8993549 2.2116809 0.25039837
-2.0418346 1.1548525 -0.77348274
-2.3705313 1.340762 -0.75138581
-2.5889904 1.4643215 -0.65892017
-2.2320642 1.2624457 -0.42751342
-2.2079394 1.2488008 -0.28273594
-2.3416059 1.3244019 -0.15026411
-2.7581229 1.5599821 0
-3.9042842 2.2082458 0.25054336
-2.0518396 1.1572413 -0.77674258
-2.3765159 1.3403592 -0.75276881
-2.5907578 1.4611921 -0.65892017
-2.2291119 1.2572231 -0.42665666
-2.249994 1.2690008 -0.28792465
-2.3296204 1.3139101 -0.14939299
-2.780405 1.5681535 0
-3.9092107 2.2048018 0.25068834
-2.0575409 1.1571821 -0.77837098
-2.3912578 1.3448678 -0.75692314
-2.5969551 1.4605541 -0.66004699
-2.2306294 1.2545288 -0.42665666
-2.228986 1.2536045 -0.28504226
-2.3425281 1.3174618 -0.15011856
-2.8208578 1.5864793 0
-3.9299905 2.2102668 0.25184947
-2.0503147 1.1498592 -0.77511108
-0 0 -0
-2.596504 1.4561734 -0.65948468
-2.2321436 1.2518326 -0.42665666
-2.2981727 1.2888632 -0.2936905
-2.3713148 1.3298827 -0.15186022
-2.8431997 1.5945256 0
-3.9349313 2.2067914 0.25199503
-2.0603313 1.1522064 -0.77837098
-2.3835464 1.3329591 -0.75346029
-2.5849512 1.4455914 -0.65610629
-2.2202158 1.2416191 -0.42408967
-2.2229793 1.2431645 -0.28388911
-2.3797259 1.3308226 -0.15229578
-2.829222 1.5821959 0
-3.9489322 2.2083755 0.25272059
-2.0833127 1.161756 -0.78652221
-2.3588703 1.3154204 -0.745157
-2.5933557 1.4461807 -0.65779549
-2.217226 1.2364327 -0.42323291
-2.2380292 1.2480335 -0.28561831
-2.3767889 1.3254126 -0.15200523
-2.8220398 1.573706 0
-3.9561322 2.206131 0.2530106
-2.0544693 1.1424193 -0.77511108
-2.371419 1.3186641 -0.74861717
-2.6017654 1.4467518 -0.65948468
-2.2232099 1.2362502 -0.42408967
-2.2463193 1.2491006 -0.28648347
-2.3761199 1.3212782 -0.15186022
-2.794373 1.5538542 0
-3.9860466 2.2165027 0.25475225
-2.0817869 1.1543187 -0.78489071
-2.3620424 1.309716 -0.745157
-2.6012831 1.4423712 -0.65892017
-2.238168 1.2410296 -0.42665666
-2.7612817 1.5310881 -0.35192278
-2.3686247 1.3133659 -0.15127967
-2.7825966 1.5429069 0
-3.9955416 2.215466 0.25518781
-2.0810192 1.1506077 -0.78407651
-2.3636231 1.306861 -0.745157
-2.6074755 1.4416884 -0.66004699
-2.2508965 1.2445338 -0.42879608
-2.8083918 1.5527761 -0.35768753
-2.3338258 1.290386 -0.14895743
-2.7184122 1.5030259 0
-3.9982154 2.2106366 0.25518781
-2.0694172 1.1409301 -0.77918518
-2.380573 1.3124795 -0.75000018
-2.6047611 1.4360808 -0.65892017
-2.2523985 1.2418131 -0.42879608
-2.8102658 1.5493816 -0.35768753
-2.3513143 1.2963481 -0.14997356
-2.8045497 1.5462301 0
-4.0145326 2.2133288 0.25605837
-2.0643029 1.13486 -0.77674258
-2.384362 1.3108141 -0.75069433
-2.6087275 1.43416 -0.65948468
-2.2494025 1.2366196 -0.42794096
-2.7758799 1.5260528 -0.35307595
-2.3187299 1.2747325 -0.14779688
-2.8634284 1.5741831 0
-4.0149293 2.207226 0.25591338
-2.0873415 1.1442435 -0.78489071
-2.3903399 1.3103417 -0.75207734
-2.5970857 1.4236761 -0.65610629
-2.255393 1.2363663 -0.42879608
-2.7958574 1.5326393 -0.35538119
-3.0903788 1.6940907 -0.19685151
-2.8676083 1.5719719 0
-4.03126 2.2098651 0.25678393
-2.0561976 1.1239419 -0.77266854
-2.3831158 1.3026394 -0.74930865
-2.5943491 1.4181019 -0.65498161
-2.2568853 1.2336402 -0.42879608
-2.7977073 1.5292599 -0.35538119
-3.1083775 1.6990759 -0.19786707
-2.8809216 1.5747459 0
-4.0476122 2.2124727 0.25765505
-2.0901008 1.1391959 -0.78489071
-2.3868887 1.3009583 -0.75000018
-2.5960608 1.4149661 -0.65498161
-2.2290742 1.2149425 -0.42323291
-2.3430996 1.2770913 -0.29743803
-3.1264012 1.7040248 -0.19888319
-2.8462603 1.5513358 0
-4.0343094 2.1988742 0.25663894
-2.1045012 1.1437486 -0.78977889
-2.3708248 1.2884896 -0.74446285
-2.6044595 1.4154648 -0.65666866
-2.2282872 1.2110236 -0.42280537
-2.2810097 1.239677 -0.28936583
-3.1193256 1.6952828 -0.19830263
-2.8115556 1.5280167 0
-4.0392442 2.1952376 0.25678393
-2.1117108 1.1460149 -0.79222459
-2.3649943 1.2834705 -0.74238837
-2.6030831 1.4126801 -0.65610629
-2.2357893 1.2133516 -0.42408967
-2.2363009 1.2136294 -0.28360108
-2.3119195 1.254667 -0.14692576
-2.7598665 1.4977657 0
-4.0519953 2.1989975 0.25751007
-2.0935323 1.132877 -0.78489071
-2.3687477 1.2818048 -0.7430799
-2.6114945 1.4131628 -0.65779549
-2.241765 1.2130903 -0.42494479
-2.2559555 1.2207693 -0.28590631
-2.3294332 1.2605305 -0.14794187
-2.7273479 1.4758548 0
-4.0614986 2.1978064 0.25794506
-2.1014273 1.1338687 -0.78733635
-2.3658748 1.2765567 -0.74169421
-2.6176682 1.4124171 -0.65892017
-2.2658253 1.2225729 -0.42922527
-2.2756388 1.2278681 -0.28821266
-2.3332391 1.2589475 -0.14808688
-2.8092852 1.5158081 0
-4.0732985 2.1978326 0.25852561
-2.0527322 1.1043938 -0.7685914
-2.3939273 1.2879608 -0.75000018
-2.6238523 1.4116632 -0.66004699
-2.2605166 1.2161844 -0.42794096
-2.2680099 1.2202158 -0.28705949
-2.298146 1.2364293 -0.14576465
-2.8294497 1.5222769 0
