# .PCD v0.7 - Point Cloud Data file format
VERSION 0.7
FIELDS x y z
SIZE 4 4 4
TYPE F F F
COUNT 1 1 1
WIDTH 1537
HEIGHT 1
VIEWPOINT 0 0 0 1 0 0 0
POINTS 1537
DATA ascii
0.11929521 5.6408386 -0.94061863
0.15348902 7.2576828 -0.80913073
0.15044037 7.1135287 -0.39742339
0.17066333 8.0697651 0
0.20339842 9.6176348 0.53732449
0.11247927 5.6409788 -0.94061863
0.14492567 7.2682071 -0.8102839
0.14117157 7.0799346 -0.39553672
0.16049741 8.0491505 0
0.19188075 9.623064 0.53761446
0.10585546 5.6513772 -0.94233048
0.13585263 7.2528558 -0.80855358
0.13281141 7.0904922 -0.39611727
0.15047914 8.0337305 0
0.18078835 9.6518698 0.53921115
0.099161766 5.6592035 -0.94361484
0.12695307 7.2452636 -0.80768955
0.12428932 7.0932431 -0.39626229
0.14054391 8.0208988 0
0.1693534 9.6650686 0.53993666
0.092532977 5.6721501 -0.94575423
0.11832493 7.2531629 -0.80855358
0.11563374 7.0881968 -0.39597228
0.13076712 8.0158539 0
0.1587345 9.730216 0.54356503
0.085717961 5.6748223 -0.94618177
0.10956081 7.2533007 -0.80855358
0.10687277 7.0753431 -0.39524671
0.12100291 8.0108061 0
0.14693795 9.7277956 0.54341948
0.078896753 5.677496 -0.94661099
0.10072473 7.24826 -0.80797756
0.09843187 7.0832639 -0.39568228
0.11143184 8.0187559 0
0.13529207 9.7357626 0.54385501
0.075603016 5.6877999 -0.94832122
0.10882382 8.1870832 -0.91262245
0.094186984 7.0859179 -0.39582726
0.10724437 8.0682573 0
0.12961744 9.7514372 0.54472613
0.068916529 5.7032933 -0.95088983
0.099399939 8.2259951 -0.91694599
0.085687704 7.091218 -0.39611727
0 0 0
0.11774042 9.7437897 0.5442906
0.062080938 5.7085013 -0.95174497
0.089713469 8.2493839 -0.91954035
0.077175856 7.096518 -0.39640784
0 0 0
0.10605166 9.7517223 0.54472613
0.055406585 5.7316723 -0.95559627
0.067870483 7.0210314 -0.78260893
0.068475485 7.0836172 -0.39568228
0 0 0
0.09424334 9.7492371 0.54458058
0.048654638 5.7522712 -0.95902002
0.05938689 7.0211082 -0.78260893
0.060070049 7.1018758 -0.39669782
0 0 0
0.082485266 9.7519503 0.54472613
0.041797217 5.7651682 -0.96116108
0.050903209 7.0211749 -0.78260893
0.051677193 7.1279316 -0.39814952
0.058781173 8.1077967 0
0.070682988 9.7494364 0.54458058
0.034738023 5.7498074 -0.95859241
0.042372562 7.0134692 -0.78174376
0.04340978 7.1851487 -0.4013423
0.049377501 8.1729212 0
0.059028234 9.7703018 0.54574174
0.027753245 5.7421412 -0.95730811
0.033848118 7.0031695 -0.78059059
0.035192564 7.2813349 -0.40671232
0.039854236 8.2458334 0
0.047210146 9.7677708 0.54559672
0.020880116 5.7601423 -0.96030432
0.025358032 6.9954534 -0.77972656
0.026658168 7.3541183 -0.41077566
0.029739786 8.204236 0
0.03541708 9.7704163 0.54574174
0.01389528 5.7498951 -0.95859241
0.016905377 6.9954791 -0.77972656
0.017803526 7.367135 -0.41150123
0.019876862 8.2250862 0
0.023642806 9.7834415 0.54646724
0.006947645 5.749908 -0.95859241
0.00844956 6.9929004 -0.77943748
0.0088860737 7.3541613 -0.41077566
0.0099038566 8.1964836 0
0.011830834 9.7912607 0.54690284
-0 5.7576156 -0.95987678
-0 6.9903216 -0.77914941
-0 7.3515706 -0.41063067
-0 8.1600504 0
-0 9.7860756 0.5466128
-0.0069445465 5.7473435 -0.95816487
-0.0084276916 6.9748025 -0.77742022
-0.0088703781 7.3411717 -0.41005009
-0.0098629789 8.1626539 0
-0.011846529 9.8042507 0.5476284
-0.013907699 5.7550344 -0.95944917
-0.016836613 6.9670253 -0.77655506
-0.017671663 7.3125701 -0.40845343
-0.019625317 8.1209965 0
-0.023674222 9.7964411 0.54719341
-0.020861523 5.7550135 -0.95944917
-0.02525489 6.967 -0.77655506
-0.026450966 7.296958 -0.40758288
-0.029419053 8.115757 0
-0.035577197 9.8145866 0.54820895
-0.027778083 5.7472806 -0.95816487
-0.033698108 6.9721322 -0.77713114
-0.035179969 7.278729 -0.40656677
-0.03922534 8.115715 0
-0.04747387 9.8223343 0.54864448
-0.03480006 5.7600751 -0.96030432
-0.042153824 6.9772644 -0.77770823
-0.043943498 7.2734895 -0.40627676
-0.048921552 8.0974522 0
-0.059248045 9.8066845 0.54777396
-0.041536629 5.7292252 -0.95516872
-0.050584454 6.9772081 -0.77770823
-0.052581351 7.2526441 -0.40511563
-0.068101183 9.3933229 0
-0.071172819 9.8169994 0.54835451
-0.048654638 5.7522712 -0.95902002
-0.059102517 6.9874878 -0.7788614
-0.061080985 7.221395 -0.40337396
-0.079275116 9.3724251 0
-0.083056644 9.8195019 0.54849952
-0.062555477 5.7521367 -0.95902002
-0.091204166 8.3864565 -0.93481958
-0.078249566 7.1952481 -0.40192285
-0.1018677 9.3669958 0
-0.10704057 9.8426552 0.54980564
-0.069443792 5.7469277 -0.95816487
-0.10118126 8.3734112 -0.9333784
-0.086943559 7.1951485 -0.40192285
-0.11312298 9.3616667 0
-0.11896478 9.8451138 0.5499506
-0.076558337 5.7596717 -0.96030432
-0 0 -0
-0.095395647 7.1768484 -0.40090674
-0.124573 9.371932 0
-0.13089509 9.847559 0.55009562
-0.083480537 5.7570105 -0.95987678
-0.12182863 8.4015837 -0.93654877
-0.10399211 7.1715364 -0.40061674
-0.13582152 9.3665657 0
-0.14268093 9.8396063 0.54966062
-0.090275414 5.7466383 -0.95816487
-0.13206154 8.4066076 -0.93712592
-0.11249418 7.1610131 -0.40003619
-0.14709824 9.3637943 0
-0.15493736 9.8628073 0.55096674
-0.093705408 5.7440186 -0.95773733
-0.13709824 8.4039421 -0.93683791
-0.1168205 7.1609435 -0.40003619
-0.15296759 9.3767128 0
-0.16085362 9.860117 0.55082172
-0.10078066 5.7515941 -0.95902002
-0.1473432 8.4089375 -0.93741393
-0.12497222 7.132216 -0.3984395
-0.16452533 9.3895283 0
-0.17290397 9.8677015 0.55125672
-0.1078265 5.7566061 -0.95987678
-0.15755205 8.4113369 -0.93770194
-0.13320071 7.1112761 -0.3972784
-0.17577323 9.3841238 0
-0.18526496 9.8908653 0.55256283
-0.1146797 5.7513337 -0.95902002
-0.16766387 8.4085569 -0.93741393
-0.14034295 7.0383778 -0.39321503
-0.18721566 9.3891039 0
-0.19685353 9.8724556 0.55154729
-0.12146631 5.7434988 -0.95773733
-0.17782386 8.4083481 -0.93741393
-0.14785831 6.9914365 -0.39060226
-0.19883549 9.4018774 0
-0.20900209 9.8826027 0.55212784
-0.12823392 5.7356458 -0.95645303
-0.18827258 8.4210539 -0.93885511
-0.15642226 6.9964533 -0.3908928
-0.21019568 9.4016304 0
-0.22117545 9.8927336 0.55270839
-0.135527 5.7508798 -0.95902002
-0.1986305 8.4285803 -0.93972027
-0.16481483 6.9936638 -0.39074782
-0.22143304 9.3961716 0
-0.2333736 9.9028502 0.55328894
-0.14266652 5.7584133 -0.96030432
-0.20887865 8.4309177 -0.94000828
-0.17320064 6.9908543 -0.39060226
-0.23310855 9.4089031 0
-0.24514596 9.8947659 0.55285341
-0.14962433 5.7582369 -0.96030432
-0.21920012 8.4358349 -0.94058543
-0.1813776 6.9802499 -0.39002168
-0.24481514 9.4216194 0
-0.25689912 9.8866673 0.55241787
-0.15637252 5.750351 -0.95902002
-0.22946325 8.4381466 -0.94087344
-0.19016512 6.9930205 -0.39074782
-0.25584549 9.4083118 0
-0.30896381 11.361653 0.63485318
-0.16339366 5.7527313 -0.95944917
-0.2397323 8.4404469 -0.94116145
-0.19920458 7.013555 -0.39190838
-0.26780453 9.4288073 0
-0.32188034 11.332698 0.63325649
-0.1702684 5.7499561 -0.95902002
-0.25031346 8.4530754 -0.94260263
-0.20737129 7.0029197 -0.3913278
-0.27904329 9.4232798 0
-0.33534265 11.324506 0.63282096
-0.17784864 5.7702732 -0.96244371
-0.2606867 8.457942 -0.94317979
-0.21607304 7.0104585 -0.39176336
-0.29050937 9.4255342 0
-0.3485457 11.308515 0.63195038
-0.18432781 5.7546644 -0.95987678
-0.27132022 8.4705439 -0.94462097
-0.22529227 7.0335636 -0.39306948
-0.30223134 9.4355812 0
-0.36229268 11.310679 0.6320954
-0.19128107 5.7544374 -0.95987678
-0.28172672 8.4753752 -0.94519699
-0.23422234 7.0462689 -0.39379504
-0.31397802 9.4456129 0
-0.37544137 11.294657 0.63122481
-0.19814573 5.7516389 -0.95944917
-0.29232356 8.4853687 -0.94635016
-0.24300468 7.0537739 -0.3942306
-0.32521158 9.4400196 0
-0.38890937 11.288996 0.63093424
-0.20463765 5.7385607 -0.95730811
-0.30294496 8.495348 -0.94750333
-0.25199053 7.0664568 -0.39495617
-0.33698875 9.4500237 0
-0.4019942 11.272942 0.63006371
-0.21242295 5.761405 -0.96116108
-0.3134957 8.5027323 -0.94836849
-0.26024184 7.0583644 -0.39452115
-0.3473525 9.4210091 0
-0.74733597 20.269491 1.1329457
-0.21928635 5.7585711 -0.96073186
-0.32426137 8.5152683 -0.94980967
-0.26946217 7.0762134 -0.39553672
-0.35972583 9.4465837 0
-0.77232146 20.281553 1.1336712
-0.22594225 5.7506142 -0.95944917
-0.33424544 8.5071144 -0.94894451
-0 0 -0
-0.37113991 9.4461422 0
-0.7970314 20.285803 1.1339618
-0.23309815 5.7554622 -0.96030432
-0.34483847 8.5144596 -0.94980967
-0 0 -0
-0.38329077 9.463891 0
-0.82154226 20.284826 1.1339618
-0.23951752 5.7423544 -0.95816487
-0.35491091 8.508873 -0.94923365
-0 0 -0
-0.39472577 9.4634218 0
-0.84377795 20.229301 1.130914
-0.24623549 5.7369266 -0.95730811
-0.36519197 8.5084381 -0.94923365
-0.30365977 7.0748281 -0.39553672
-0.40593675 9.4577322 0
-0.92237067 21.489887 1.2014481
-0.19891037 4.507195 -0.99944979
-0.25316727 5.7366247 -0.95730811
-0.37490243 8.4950733 -0.94779247
-0.31209365 7.0718627 -0.3953917
-0.41713503 9.4520397 0
-0.94741982 21.467989 1.200287
-0.20163338 4.5070739 -0.99944979
-0.25720698 5.7493005 -0.95944917
-0.37968776 8.4870911 -0.94692731
-0.69876546 15.619376 -0.87331134
-0.74617565 16.679127 0
-0.96085411 21.477797 1.2008675
-0.20661265 4.4966741 -0.99719822
-0.2636824 5.738728 -0.95773733
-0.39053595 8.4995422 -0.94836849
-0.71751875 15.615928 -0.87316632
-0 0 0
-0.98692429 21.479212 1.2010126
-0.21240458 4.5040283 -0.99888527
-0.27122083 5.751224 -0.95987678
-0.40117136 8.5068178 -0.94923365
-0.73626429 15.612446 -0.87302077
-0 0 0
-1.0142236 21.506557 1.2026092
-0.27804598 5.7483306 -0.95944917
-0.41144988 8.5063267 -0.94923365
-0.75450075 15.598571 -0.8722952
-0 0 0
-1.0409622 21.520884 1.2034798
-0.2225337 4.4882798 -0.99550903
-0.2849915 5.7479906 -0.95944917
-0.42070314 8.485157 -0.94692731
-0.77386272 15.608028 -0.87287575
-0.8208524 16.555763 0
-1.0683808 21.548161 1.2050765
-0.22834356 4.4956231 -0.99719822
-0.29180601 5.7450709 -0.95902002
-0.4309555 8.484642 -0.94692731
-0.79219419 15.596702 -0.8722952
-0.83980006 16.533966 0
-1.0940212 21.539066 1.2046409
-0.23324764 4.4851937 -0.99494672
-0.29901451 5.749846 -0.95987678
-0.44040099 8.4686127 -0.94519699
-0.81130928 15.600928 -0.87258577
-0.85761553 16.491365 0
-1.1207209 21.550701 1.2053665
-0.23772165 4.4671454 -0.99100596
-0.3065075 5.7597342 -0.96158862
-0.45063335 8.4680748 -0.94519699
-0.83236873 15.641453 -0.87490803
-0.8764351 16.469526 0
-1.1471741 21.557117 1.205802
-0.24408591 4.4846172 -0.99494672
-0.3133274 5.7567987 -0.96116108
-0.46030274 8.4571934 -0.94404382
-0.85225588 15.65859 -0.87592357
-0.89506185 16.44507 0
-1.173362 21.558308 1.205947
-0.24851629 4.4665575 -0.99100596
-0.32014012 5.7538457 -0.96073186
-0.47095248 8.4643803 -0.94490898
-0.87377363 15.704244 -0.87853581
-0.91493189 16.443977 0
-1.2008539 21.582825 1.2073987
-0.25362435 4.4611754 -0.98987913
-0.32723841 5.7560248 -0.96116108
-0.48088637 8.4586458 -0.94433296
-0.89437103 15.731716 -0.88013244
-0.93480057 16.44286 0
-1.2273737 21.589132 1.2078336
-0.25960377 4.4710126 -0.99213064
-0.33374667 5.7479348 -0.95987678
-0.49080649 8.4528894 -0.94375581
-0.9142825 15.746183 -0.88100302
-0.95542198 16.454706 0
-0.62102991 10.695656 0.59842467
-0.26515672 4.4732394 -0.99269515
-0.34099519 5.7526474 -0.96073186
-0.50086689 8.4497108 -0.9434678
-0.93515313 15.776194 -0.88274467
-0.97638112 16.471718 0
-0.6347217 10.707865 0.59915024
-0.27040771 4.4703722 -0.99213064
-0.34655106 5.7291722 -0.95688057
-0.5107637 8.4439306 -0.94289064
-0.87922513 14.535324 -0.81337166
-0.99754035 16.491308 0
-0.64703202 10.696714 0.59856969
-0.27659193 4.4827299 -0.99494672
-0.35426372 5.7415576 -0.95902002
-0.52096617 8.4433069 -0.94289064
-0.89742768 14.544625 -0.81395221
-1.0179471 16.497885 0
-0.65755653 10.65703 0.59639299
-0.28089124 4.4646387 -0.99100596
-0.36152369 5.7462544 -0.95987678
-0.53133076 8.445261 -0.94317979
-0.91679627 14.57206 -0.8155489
-1.0373905 16.48885 0
-0 0 0
-0.28677368 4.4719057 -0.99269515
-0.36797366 5.7381253 -0.95859241
-0.5410381 8.4368668 -0.94231462
-0.93606567 14.596868 -0.81699997
-1.0579795 16.497972 0
-0.68014878 10.606138 0.5936352
-0.29151419 4.4614139 -0.99044365
-0.37641302 5.7607288 -0.96244371
-0.55156893 8.4413633 -0.94289064
-0.95556629 14.62425 -0.81859666
-1.0765557 16.475906 0
-0.69313365 10.607909 0.59378082
-0.29639837 4.4534497 -0.98875445
-0.38200969 5.7397785 -0.95902002
-0.56090963 8.4277897 -0.94144946
-0.97427118 14.638637 -0.81946725
-1.0976728 16.492773 0
-0.70646793 10.614834 0.59421581
-0.30212253 4.4581537 -0.98987913
-0.38790372 5.7239504 -0.95645303
-0.57144266 8.432272 -0.94202662
-0.99353945 14.660778 -0.82077336
-1.1183041 16.50182 0
-0.71911782 10.611382 0.59407079
-0.30698505 4.4501882 -0.98819208
-0.39534986 5.731163 -0.95773733
-0.58074117 8.4186754 -0.94058543
-1.0103594 14.646608 -0.8200478
-1.1400332 16.526415 0
-0.73319101 10.628654 0.59508693
-0.31253976 4.4523463 -0.98875445
-0.40173513 5.7229962 -0.95645303
-0.59073144 8.4153805 -0.94029629
-1.0269649 14.629829 -0.81917721
-1.1605482 16.532816 0
-0.74712449 10.643309 0.59595746
-0.31361467 4.429348 -0.98368901
-0.40537375 5.7253108 -0.95688057
-0.5959987 8.4176092 -0.94058543
-1.0350692 14.618838 -0.81859666
-1.17072 16.534706 0
-0.75392193 10.648044 0.59624803
-0.31951416 4.4365711 -0.98537821
-0.41192293 5.7197008 -0.95602548
-0.60672617 8.4246149 -0.94144946
-1.0510528 14.594254 -0.81729054
-1.1901377 16.525499 0
-0.76716042 10.652304 0.59653801
-0.32561699 4.4463186 -0.98762977
-0.42033371 5.7396808 -0.95944917
-0.61558336 8.4058266 -0.93943226
-1.0671681 14.572241 -0.81612945
-1.2085841 16.503284 0
-1.5937821 21.763186 1.2188637
-0.32872555 4.4155149 -0.98087513
-0.42669675 5.7314863 -0.95816487
-0.62727594 8.4257107 -0.94173861
-1.0855467 14.581306 -0.81671
-1.2277514 16.491432 0
-1.6198847 21.758656 1.2187188
-0.33578575 4.4379153 -0.98594058
-0.43439654 5.7412052 -0.95987678
-0.63667572 8.4146309 -0.94058543
-1.1023804 14.56962 -0.81612945
-1.2466956 16.476963 0
-1.6479388 21.779999 1.2200248
-0.33958974 4.4172387 -0.98143744
-0.4409394 5.7355523 -0.95902002
-0.64743692 8.4215841 -0.94144946
-0.98136407 12.765166 -0.71511739
-1.2664038 16.472843 0
-1.6736568 21.770216 1.2195894
-0.34611344 4.4320197 -0.98481369
-0.44706991 5.7247782 -0.95730811
-0.65761226 8.4207954 -0.94144946
-0.99719256 12.769157 -0.71540797
-1.2854966 16.460922 0
-1.7007699 21.778542 1.2201699
-0.35026348 4.4164052 -0.98143744
-0.4541904 5.7268004 -0.95773733
-0.66758239 8.4174194 -0.94116145
-1.0113878 12.752397 -0.71453685
-1.3066204 16.474928 0
-1.7281115 21.789429 1.220896
-0.35641536 4.4261098 -0.98368901
-0.45987311 5.7108898 -0.95516872
-0.6779601 8.4191818 -0.94144946
-1.1688224 14.514908 -0.81337166
-1.3290329 16.504465 0
-1.7556895 21.80286 1.2217665
-0.36114198 4.418076 -0.98199981
-0.46781877 5.7231202 -0.95730811
-0.68771154 8.4132061 -0.94087344
-1.1855133 14.503125 -0.81279111
-1.3510942 16.528782 0
-1.7841493 21.826616 1.2232176
-0.36711049 4.4252353 -0.98368901
-0.47452167 5.719995 -0.95688057
-0.69787675 8.4123688 -0.94087344
-1.2041105 14.514627 -0.81351668
-1.3719256 16.537512 0
-1.8113805 21.834803 1.2237982
-0.37267017 4.4273181 -0.98425138
-0.48250923 5.7322049 -0.95902002
-0.70760661 8.4063597 -0.94029629
-1.2199049 14.492458 -0.81235611
-1.3934352 16.553997 0
-1.8392881 21.850725 1.2248143
-0.38073725 4.3960276 -0.97749674
-0.49503171 5.715682 -0.95645303
-0.7283662 8.4097834 -0.94087344
-0.7899344 9.120656 -0.51135218
-1.4370278 16.592056 0
-1.8929843 21.856571 1.2253948
-0.38582662 4.3930354 -0.97693437
-0.50238639 5.7201891 -0.95730811
-0.73807424 8.403739 -0.94029629
-0.79868144 9.0938148 -0.50990105
-1.4566201 16.585127 0
-1.9207559 21.869795 1.2262654
-0.39158562 4.3976326 -0.97806126
-0.50770462 5.7016869 -0.95431358
-0.74868721 8.407999 -0.94087344
-0.80736387 9.0669565 -0.50844938
-1.4773515 16.591135 0
-1.9490236 21.888163 1.2274265
-0.39484257 4.3743734 -0.97299367
-0.51528531 5.7087317 -0.95559627
-0.75791603 8.3967838 -0.93972027
-0.81715113 9.0530367 -0.50772381
-1.4971631 16.586739 0
-1.9759374 21.890974 1.2277172
-0.40082252 4.3814869 -0.97468287
-0.52241731 5.7106686 -0.95602548
-0.76900387 8.4061651 -0.94087344
-0.8261956 9.0313416 -0.50656271
-1.5183899 16.597883 0
-2.0052276 21.919621 1.2294588
-0.40728885 4.3936472 -0.97749674
-0.52860612 5.7023625 -0.95474112
-0.77844405 8.397501 -0.94000828
-0.83590865 9.0174026 -0.50583714
-0.84616411 9.1280346 0
-2.0321908 21.922352 1.2297487
-0.4121227 4.3880973 -0.97637206
-0.53549594 5.7017198 -0.95474112
-0.78834862 8.3939819 -0.93972027
-0.84583187 9.0060377 -0.50525659
-0.85694987 9.1244164 0
-2.060622 21.940577 1.2309099
-0.41838714 4.3977137 -0.97862357
-0.54311454 5.7087374 -0.95602548
-0.79873526 8.3955956 -0.94000828
-0.85695916 9.0075932 -0.50540161
-0.86674118 9.1104136 0
-2.0871315 21.938072 1.2309099
-0.4222379 4.3820252 -0.97524518
-0.55050397 5.7131829 -0.95688057
-0.80739111 8.3791819 -0.93827909
-0.86634761 8.9910374 -0.50453103
-0.87625152 9.0938215 0
-2.1141357 21.940701 1.2311999
-0.42605233 4.366343 -0.97186899
-0.55840409 5.722733 -0.95859241
-0.81575656 8.360178 -0.93626076
-0.87569726 8.974472 -0.50366044
-0.8854695 9.0746222 0
-2.1421599 21.953653 1.232071
-0.4343257 4.3961682 -0.97862357
-0.56304723 5.6990647 -0.95474112
-0.82331514 8.3334513 -0.9333784
-0.88602906 8.9682312 -0.50336993
-0.89592254 9.0683708 0
-2.1714945 21.979485 1.2336671
-0.44140664 4.413331 -0.98256218
-0.56967777 5.6958284 -0.95431358
-0.83286858 8.3272982 -0.93280125
-0.89583039 8.9568119 -0.50278938
-0.90636075 9.0620975 0
-2.1988268 21.984604 1.2341027
-0.44203869 4.392848 -0.97806126
-0.5726043 5.6903701 -0.95345682
-0.83815813 8.3293648 -0.93308926
-0.90046078 8.9485102 -0.50235379
-0.91131485 9.0563745 0
-2.2131491 21.993614 1.2346833
-0.44966307 4.4150586 -0.98312664
-0.57947958 5.6896739 -0.95345682
-0.84769827 8.323204 -0.93251324
-0.91074657 8.9422503 -0.50206381
-0.92093879 9.0423231 0
-2.2405126 21.998682 1.2351187
-0.45447597 4.4094524 -0.98199981
-0.58582813 5.6838675 -0.95260173
-0.85589808 8.3041611 -0.9304949
-0.92235035 8.9489002 -0.50249934
-0.93186402 9.0412035 0
-2.2694895 22.019218 1.2364249
-0.45769513 4.3886824 -0.97749674
-0.59083134 5.6652803 -0.94960552
-0.86539537 8.2979813 -0.92991889
-0.93289238 8.9451866 -0.50235379
-0.94197774 9.0323038 0
-2.2977104 22.031961 1.2372955
-0.46379775 4.3957095 -0.97918594
-0.59686798 5.6569014 -0.94832122
-0.87542123 8.2969294 -0.92991889
-0.94233721 8.9311352 -0.50162822
-0.952618 9.028573 0
-2.3259664 22.04468 1.2381666
-0.46856996 4.3900976 -0.97806126
-0.60261405 5.6459756 -0.94661099
-0.88572001 8.2984352 -0.93020689
-0.95230049 8.9222364 -0.50119269
-0.96297365 9.0222349 0
-2.3548076 22.062523 1.2393277
-0.47441909 4.3945756 -0.97918594
-0.60943568 5.6452432 -0.94661099
-0.89824468 8.3205004 -0.93280125
-0.96196604 8.9107552 -0.50061268
-0.97443372 9.0262442 0
-2.3823001 22.067404 1.2397627
-0.48083183 4.4041028 -0.98143744
-0.61542034 5.6368446 -0.94532669
-0.91082394 8.3425474 -0.9353956
-0.97216767 8.9044151 -0.5003221
-0.98449183 9.0172968 0
-2.4103734 22.077433 1.2404888
-0.48559478 4.3984628 -0.98031062
-0.62194949 5.6335478 -0.94489914
-0.9231742 8.3620071 -0.93770194
-0.98292619 8.9032345 -0.5003221
-0.9936738 9.0005846 0
-2.439328 22.095156 1.2416494
-0.49090913 4.3978724 -0.98031062
-0.62875605 5.632792 -0.94489914
-0.93442512 8.3711681 -0.93885511
-0.99368328 8.9020395 -0.5003221
-1.0036821 8.9916162 0
-2.4674659 22.105112 1.2423755
-0.49394441 4.3770871 -0.97580969
-0.63498545 5.6269217 -0.94404238
-0.94569951 8.3803129 -0.94000828
-1.004439 8.9008331 -0.5003221
-1.0160049 9.0033245 0
-2.4965048 22.12277 1.2435366
-0.50355172 4.4143476 -0.98425138
-0.64323843 5.6389003 -0.94618177
-0.95699733 8.3894434 -0.94116145
-1.0148989 8.8970337 -0.50017715
-1.0271776 9.004673 0
-2.524411 22.130054 1.2441167
-0.50713962 4.3985958 -0.98087513
-0.64887542 5.6279182 -0.94446993
-0.96713364 8.3882809 -0.94116145
-1.0256485 8.8958006 -0.50017715
-1.0380572 9.0034256 0
-2.55353 22.147638 1.2452778
-0.51186538 4.3929272 -0.97974825
-0.65686357 5.6373296 -0.94618177
-0.97637022 8.3793964 -0.94029629
-1.0351937 8.8842306 -0.49959657
-1.0483335 8.9969997 0
-2.5808911 22.149704 1.2455683
-0.51746982 4.3948264 -0.98031062
-0.66427565 5.6416354 -0.94703853
-0.98800749 8.3910618 -0.94173861
-1.0462313 8.8855515 -0.49974155
-1.0579865 8.9853878 0
-2.6088684 22.156893 1.2461488
-0.52277976 4.3941979 -0.98031062
-0.66927183 5.6255293 -0.94446993
-0.99539483 8.3667393 -0.93914312
-1.0572736 8.8868589 -0.49988657
-1.0703799 8.9970217 0
-2.491982 20.946224 1.1782269
-0.53051472 4.4137449 -0.98481369
-0.67606866 5.6247168 -0.94446993
-1.0045786 8.3578339 -0.93827909
-1.0680109 8.8855743 -0.49988657
-1.0812502 8.9957218 0
-2.5185299 20.953518 1.1788075
-0.53646058 4.4181504 -0.98594058
-0.68193716 5.6162577 -0.94318724
-1.0131181 8.3437786 -0.93683791
-1.0778079 8.8765469 -0.49945155
-1.0918056 8.991828 0
-2.5425935 20.940142 1.1782269
-0.53808683 4.3872352 -0.97918594
-0.689035 5.6179752 -0.94361484
-1.0228834 8.3399734 -0.93654877
-1.0888487 8.8778143 -0.49959657
-1.1033027 8.9956636 0
-2.5647311 20.911268 1.1767758
-0.54432493 4.3941488 -0.98087513
-0.69298279 5.5942125 -0.93976355
-1.0345495 8.3515635 -0.93798995
-1.1002133 8.8816452 -0.49988657
-1.1141714 8.9943237 0
-2.5871217 20.884947 1.1754696
-0.55152589 4.4086108 -0.98425138
-0.70069689 5.6010056 -0.94104618
-1.0427141 8.3349133 -0.93626076
-1.1109443 8.8803091 -0.49988657
-1.1253624 8.9955606 0
-1.3509005 10.798395 0.6078586
-0.55748999 4.4129877 -0.98537821
-0.70585567 5.5874233 -0.93890679
-1.0527844 8.3336468 -0.93626076
-1.1223255 8.8841209 -0.50017715
-1.1359038 8.9916048 0
-1.3649234 10.804482 0.60829359
-0.56346422 4.417347 -0.98650289
-0.71260649 5.586566 -0.93890679
-1.0631802 8.3349323 -0.93654877
-1.1317443 8.872448 -0.49959657
-1.1477559 8.9979734 0
-1.3779775 10.802824 0.60829359
-0.56620491 4.396502 -0.98199981
-0.72099537 5.5984287 -0.94104618
-1.0699475 8.3079929 -0.93366641
-1.14346 8.878808 -0.50003213
-1.1579632 8.9914227 0
-1.3900348 10.793427 0.6078586
-0.57407808 4.4364777 -0.99100596
-0.72240162 5.5827222 -0.93847919
-1.0749665 8.3073454 -0.93366641
-1.1494902 8.8832645 -0.5003221
-1.164396 8.998457 0
-1.3965554 10.792585 0.6078586
-0.57943827 4.4357805 -0.99100596
-0.73346901 5.6149335 -0.94404238
-1.086009 8.3137369 -0.93453157
-1.1608969 8.8870277 -0.50061268
-1.1759429 9.0022097 0
-1.4112777 10.80377 0.60858417
-0.58214039 4.4149246 -0.98650289
-0.73824012 5.5987778 -0.94147539
-1.095039 8.3047237 -0.93366641
-1.170615 8.8778877 -0.50017715
-1.1871594 9.0033598 0
-1.4239902 10.799474 0.60843861
-0.59082592 4.4393997 -0.99213064
-0.74432665 5.5927873 -0.94061863
-1.104049 8.2957001 -0.93280125
-1.1830549 8.8893423 -0.50090265
-1.1970069 8.9941769 0
-1.4373821 10.800328 0.60858417
-0.59483665 4.4286098 -0.98987913
-0.75108391 5.5918841 -0.94061863
-1.1147611 8.2994919 -0.9333784
-1.1937951 8.887907 -0.50090265
-1.2102993 9.0107813 0
-1.4521602 10.811458 0.60930973
-0.60155249 4.4379592 -0.99213064
-0.76059854 5.6113229 -0.94404238
-1.1254828 8.3032598 -0.93395442
-1.2055809 8.8941851 -0.50133824
-1.2218846 9.0144653 0
-1.4641753 10.801968 0.6088742
-0.60347176 4.4120593 -0.98650289
-0.76563907 5.5976853 -0.94190294
-1.1330622 8.2839632 -0.93193722
-1.2177354 8.9030199 -0.50191879
-1.233482 9.0181446 0
-1.4803952 10.823359 0.61018032
-0.61123443 4.4289484 -0.99044365
-0.77310348 5.6018372 -0.94275808
-1.144484 8.2928267 -0.93308926
-1.228847 8.9041128 -0.50206381
-1.2465118 9.0321112 0
-1.4941832 10.826715 0.61047083
-0.61658549 4.4282069 -0.99044365
-0.77987164 5.6008987 -0.94275808
-1.1552175 8.296566 -0.93366641
-1.2396051 8.9026222 -0.50206381
-1.2574245 9.0305977 0
-1.5065467 10.81975 0.61018032
-0.62334949 4.4375234 -0.99269515
-0.78878188 5.6152101 -0.94532669
-1.1659604 8.3002825 -0.93424243
-1.2521682 8.9139814 -0.50278938
-1.26906 9.0342312 0
-1.5221497 10.835936 0.6111964
-0.62728488 4.4267039 -0.99044365
-0.79520637 5.6117134 -0.94489914
-1.1730871 8.2783899 -0.93193722
-1.2636679 8.9176121 -0.50307989
-1.2832611 9.0558796 0
-1.5367 10.844379 0.61177695
-0.6337108 4.4334812 -0.99213064
-0.79944348 5.5929575 -0.94190294
-1.1823564 8.271841 -0.93136007
-1.2759129 8.9263678 -0.50366044
-1.2949382 9.0594702 0
-1.5494349 10.839945 0.61163199
-0.6379807 4.4251752 -0.99044365
-0.80803204 5.6046891 -0.94404238
-1.1919817 8.267848 -0.93107206
-1.2881794 8.9350967 -0.50424045
-1.3092272 9.081089 0
-1.5651262 10.856061 0.61264753
-0.64296049 4.4218793 -0.98987913
-0.81554312 5.6087942 -0.94489914
-1.2019709 8.2664022 -0.93107206
-1.2989748 8.9335346 -0.50424045
-1.3228192 9.0975208 0
-1.5774953 10.849024 0.6123575
-0.65088391 4.4386997 -0.99381983
-0.82157403 5.6027198 -0.94404238
-1.2145841 8.2828503 -0.93308926
-1.3127843 8.9525261 -0.50540161
-2.87165 19.583202 0
-1.5921111 10.857393 0.61293811
-0.65476 4.4278555 -0.99156833
-0.82834321 5.6017232 -0.94404238
-1.2208086 8.2557945 -0.93020689
-1.3258821 8.966361 -0.50627267
-2.8911223 19.551397 0
-1.6063697 10.863176 0.61337364
-0.66085988 4.4320922 -0.99269515
-0.83624732 5.6083374 -0.94532669
-1.2307832 8.2543135 -0.93020689
-1.338248 8.9750328 -0.50685328
-2.913209 19.537592 0
-1.6198775 10.863794 0.61351866
-0.66432482 4.4187198 -0.98987913
-0.84340459 5.609859 -0.94575423
-1.2399877 8.2477102 -0.92963088
-1.3514088 8.988821 -0.50772381
-2.9329457 19.508327 0
-1.6345483 10.872108 0.6140992
-0.67156857 4.4304824 -0.99269515
-0.85095257 5.6139169 -0.94661099
-1.2507271 8.2513151 -0.93020689
-1.3642159 9.0000248 -0.50844938
-2.9514458 19.471321 0
-1.6492416 10.880401 0.61467975
-0.67653656 4.4271488 -0.99213064
-0.85618412 5.6027341 -0.94489914
-1.2571802 8.2267895 -0.92761254
-1.3852946 9.0651493 -0.51222271
-2.9698603 19.434299 0
-1.6639574 10.888675 0.6152603
-0.68111241 4.4213104 -0.99100596
-0.86490721 5.6143789 -0.94703853
-1.2698767 8.2431612 -0.92963088
-1.4255228 9.2535076 -0.52296275
-2.9901707 19.41012 0
-1.6779034 10.891788 0.61555034
-0.68684369 4.4229922 -0.99156833
-0.87050831 5.6057172 -0.94575423
-1.2826132 8.2595043 -0.93164808
-1.4574354 9.3852873 -0.53050947
-3.0080302 19.370483 0
-1.6938543 10.907728 0.61656642
-0.6925801 4.4246674 -0.99213064
-0.87807584 5.6097383 -0.94661099
-1.2913935 8.2502899 -0.93078405
-1.470382 9.3937883 -0.53109002
-3.0270076 19.33856 0
-1.7050241 10.89284 0.61584085
-0.69485909 4.4217401 -0.99156833
-0.88106513 5.6066637 -0.94618177
-1.2955738 8.2443924 -0.93020689
-1.4772675 9.4006014 -0.53152555
-3.0334387 19.303307 0
-1.7152349 10.914908 0.61714697
-0.69900852 4.4133663 -0.98987913
-0.88623273 5.5954533 -0.94446993
-1.3067489 8.2504873 -0.93107206
-1.4849672 9.3757143 -0.53021944
-1.7410139 10.99233 0
-1.7288282 10.915392 0.61729199
-0.70554262 4.4200482 -0.99156833
-0.89501745 5.6070604 -0.94661099
-1.3163097 8.2463512 -0.93078405
-1.4954749 9.3687763 -0.52992892
-1.7518342 10.974803 0
-1.7428344 10.918422 0.61758196
-0.71209395 4.4267206 -0.99325752
-0.90097564 5.6009011 -0.94575423
-1.3258609 8.2421932 -0.9304949
-1.5055573 9.359273 -0.52949393
-1.7638534 10.964967 0
-1.7576767 10.92657 0.61816257
-0.72074181 4.4124513 -0.99044365
-0.91409475 5.5961766 -0.94532669
-1.3445255 8.2313147 -0.92963088
-1.5252379 9.3376541 -0.52847779
-1.7920244 10.970946 0
-1.7857524 10.932549 0.61874312
-0.72772348 4.4216056 -0.99269515
-0.92002141 5.5899968 -0.94446993
-1.3527902 8.2194757 -0.9284777
-1.5339885 9.320425 -0.5276072
-1.8044349 10.963642 0
-1.7985394 10.927821 0.6185981
-0.73264873 4.4182091 -0.99213064
-0.9263556 5.5863509 -0.94404238
-1.360604 8.2050695 -0.92703539
-1.5435489 9.3083115 -0.52702665
-1.8168287 10.956314 0
-1.8147181 10.943586 0.61961424
-0.74301106 4.4473948 -0.99888527
-0.93479699 5.5953555 -0.94575423
-1.3713706 8.2085266 -0.92761254
-1.5543656 9.3038692 -0.5268811
-3.1529915 18.872663 0
-1.8275106 10.938815 0.61946869
-0.74248099 4.4114194 -0.99100596
-0.93985295 5.5840964 -0.94404238
-1.3817168 8.2094116 -0.92790055
-1.566039 9.304554 -0.52702665
-3.1723375 18.848309 0
-1.8424518 10.946849 0.62004924
-0.74823517 4.4130216 -0.99156833
-0.94831604 5.5930805 -0.94575423
-1.3899058 8.1975355 -0.92674738
-1.5768449 9.3000851 -0.5268811
-3.1911945 18.821371 0
-1.8569812 10.952303 0.62048477
-0.75698912 4.4321513 -0.9960714
-0.95161599 5.5716867 -0.94233048
-1.3976331 8.1831045 -0.9253062
-1.5863312 9.2879276 -0.52630055
-3.2095518 18.791843 0
-1.8715262 10.957738 0.62092036
-0.76191354 4.4287319 -0.99550903
-0.96444017 5.605947 -0.94832122
-1.4088358 8.1890602 -0.92617136
-1.5979946 9.2885723 -0.5264461
-3.2309334 18.780264 0
-1.8856455 10.960585 0.62121034
-0.76769763 4.4303093 -0.9960714
-0.96683103 5.5794883 -0.94404238
-1.4174043 8.1797037 -0.9253062
-1.60966 9.2891932 -0.52659112
-3.2491789 18.750698 0
-1.899776 10.963424 0.62150091
-0.77305025 4.429378 -0.9960714
-0.97489649 5.5859051 -0.94532669
-1.4281771 8.1830854 -0.92588335
-1.6226701 9.2974806 -0.52717167
-3.2682536 18.726248 0
-1.9165958 10.981599 0.62266201
-0.7775228 4.4234405 -0.99494672
-0.98164529 5.584723 -0.94532669
-1.438511 8.1838989 -0.92617136
-1.6348019 9.3006258 -0.52746165
-3.2868237 18.699219 0
-1.9307623 10.984388 0.62295198
-0.78330958 4.4249973 -0.99550903
-0.98794556 5.5810075 -0.94489914
-1.4461448 8.1694231 -0.92473018
-1.6469454 9.3037663 -0.52775222
-3.3044269 18.667053 0
-1.9458451 10.992282 0.62353259
-0.78999394 4.4315548 -0.99719822
-0.99784076 5.5974932 -0.94789368
-1.4582841 8.1803989 -0.92617136
-1.6595527 9.3094368 -0.52818722
-3.3228698 18.63999 0
-1.9609498 11.000155 0.62411314
-0.79489779 4.4280887 -0.99663377
-0.99961549 5.5684972 -0.94318724
-1.4626834 8.1480818 -0.92271185
-1.6740144 9.3253298 -0.52920336
-3.340791 18.61034 0
-1.9756178 11.005453 0.62454867
-0.80024773 4.427125 -0.99663377
-1.0090821 5.582437 -0.94575423
-1.473447 8.1513939 -0.92328787
-1.6862063 9.3284197 -0.52949393
-3.3595722 18.585802 0
-1.9889143 11.003057 0.62454867
-0.80332196 4.4136581 -0.99381983
-1.0158266 5.581214 -0.94575423
-1.4856124 8.1623383 -0.92473018
-1.6998028 9.3391552 -0.53021944
-3.3796973 18.56893 0
-2.0040691 11.010872 0.62512922
-0.81323534 4.4376817 -0.99944979
-1.023496 5.5850372 -0.94661099
-1.4931414 8.147809 -0.92328787
-1.7138954 9.3524246 -0.53109002
-3.3983788 18.544353 0
-2.0183079 11.01355 0.62541926
-0.81315827 4.4221907 -0.9960714
-1.0254768 5.5768409 -0.94532669
-1.4980637 8.1469059 -0.92328787
-1.7209556 9.3590565 -0.53152555
-3.4091117 18.53974 0
-2.0282514 11.03022 0.62643534
-0.81942695 4.4262066 -0.99719822
-1.0340838 5.5856948 -0.94703853
-1.5064954 8.1374674 -0.92242384
-1.7355745 9.3748579 -0.53254169
-3.4229841 18.48955 0
-2.0415778 11.027761 0.62643534
-0.82337749 4.4177175 -0.99550903
-1.0389509 5.5743465 -0.94532669
-1.5172737 8.1407213 -0.92299986
-1.7511854 9.3957415 -0.53384781
-3.4372168 18.44191 0
-2.05633 11.032952 0.62687093
-0.82777679 4.4117198 -0.9943822
-1.0513664 5.6033635 -0.95046228
-1.527109 8.1388817 -0.92299986
-1.76589 9.4114885 -0.53486335
-3.4561377 18.419834 0
-2.0730126 11.048329 0.62788647
-0.83687961 4.4306903 -0.99888527
-1.0528948 5.5743399 -0.94575423
-1.5359831 8.1319523 -0.92242384
-1.7811189 9.4297743 -0.53602445
-3.4909496 18.48213 0
-2.0849135 11.038154 0.62745094
-0.83606315 4.3972282 -0.99156833
-1.0605896 5.5781121 -0.94661099
-1.5429081 8.1148405 -0.92069352
-1.7968793 9.4505873 -0.53733057
-3.5317507 18.575048 0
-2.1016474 11.053498 0.62846702
-1.0653986 5.566741 -0.94489914
-1.5551426 8.1256695 -0.9221347
-1.8112288 9.463727 -0.53820169
-3.5468557 18.532433 0
-2.1169555 11.061159 0.62904757
-0.85053223 4.4151549 -0.9960714
-1.0726093 5.5679679 -0.94532669
-1.5615364 8.1060133 -0.9201175
-2.3097391 11.98997 -0.68202728
-2.5148094 13.054501 0
-2.1303194 11.058593 0.62904757
-0.854415 4.4066381 -0.9943822
-1.0812908 5.5767484 -0.94703853
-1.5728073 8.1117401 -0.92098266
-2.3232367 11.982074 -0.68173724
-2.528105 13.038681 0
-2.14467 11.061118 0.62933815
-0.86071324 4.4105954 -0.99550903
-1.0875373 5.5729208 -0.94661099
-1.5840924 8.1174421 -0.92184669
-2.3411953 11.997103 -0.68275285
-2.5393722 13.01263 0
-2.161516 11.076364 0.63035369
-0.8689791 4.4245067 -0.99888527
-1.0977319 5.5892282 -0.94960552
-1.5914077 8.1028347 -0.92040551
-2.3556898 11.994266 -0.68275285
-2.5510812 12.989122 0
-2.1718946 11.05845 0.62948316
-0.86989081 4.401022 -0.99381983
-1.1029907 5.5803399 -0.94832122
-1.6001951 8.0958366 -0.91982949
-2.3671587 11.97612 -0.68188226
-2.5622327 12.963055 0
-2.1887803 11.073654 0.63049871
-0.87669557 4.4074464 -0.99550903
-1.1072292 5.5664172 -0.94618177
-1.6074517 8.0812054 -0.91838717
-2.5701969 12.921252 -0.73587137
-2.5753562 12.947189 0
-2.2052016 11.086297 0.63136983
-1.1109321 5.5499768 -0.94361484
-1.6182314 8.0843344 -0.91896433
-2.5807087 12.892663 -0.73442024
-2.5853791 12.915996 0
-2.2221663 11.101462 0.63238591
-0.88533717 4.3953514 -0.99325752
-1.1211861 5.5662489 -0.94661099
-1.6346375 8.1153336 -0.92271185
-2.5973103 12.894625 -0.73471022
-2.5958457 12.887354 0
-2.2360911 11.101315 0.63253093
-0.89418107 4.4117126 -0.99719822
-1.124341 5.547276 -0.94361484
-1.6408451 8.0956049 -0.92069352
-2.6128891 12.891478 -0.73471022
-2.6108973 12.88165 0
-2.2500191 11.101149 0.63267595
-0.72318047 3.5460157 -0.99847358
-0.8995111 4.4106288 -0.99719822
-1.1366842 5.5735745 -0.94832122
-1.6485585 8.0834789 -0.91954035
-2.6295035 12.893408 -0.73500079
-2.628021 12.886139 0
-2.2623935 11.093334 0.63238591
-0.72595125 3.5377643 -0.99639648
-0.89973134 4.3846436 -0.99156833
-1.1413559 5.5621481 -0.94661099
-1.6583246 8.081481 -0.91954035
-2.6482136 12.905489 -0.73587137
-2.6430666 12.880406 0
-2.2804964 11.113499 0.63369203
-0.90965199 4.4059467 -0.99663377
-1.1485944 5.5632763 -0.94703853
-1.6680882 8.0794716 -0.91954035
-2.6659069 12.912458 -0.73645192
-2.6633637 12.90014 0
-2.6648331 12.907256 0.73615521
-0.91445881 4.402359 -0.9960714
-1.1568805 5.5694175 -0.94832122
-1.685215 8.1129093 -0.92357701
-2.6852069 12.927039 -0.737468
-2.6826546 12.914752 0
-2.6788409 12.896392 0.73571968
-0.73671973 3.5252962 -0.99363047
-0.92289716 4.4161787 -0.99944979
-1.1672856 5.5856075 -0.95131743
-1.6902553 8.0880833 -0.92098266
-2.7013559 12.926327 -0.73761302
-2.6993213 12.916591 0
-2.698143 12.910953 0.73673576
-0.74407482 3.5391293 -0.99778211
-0.92457265 4.3976521 -0.99550903
-1.1703361 5.5666056 -0.94832122
-1.7021534 8.0961494 -0.9221347
-2.7180409 12.928134 -0.73790306
-2.7197452 12.936238 0
-2.7180164 12.928017 0.73789632
-0.74990851 3.5455935 -0.99985927
-0.93146348 4.4039917 -0.99719822
-1.1749387 5.555151 -0.94661099
-1.7114002 8.0915594 -0.92184669
-2.7401125 12.955346 -0.73964471
-2.733758 12.925302 0
-2.7325611 12.919643 0.73760635
-0.75419211 3.5446846 -0.99985927
-0.93889934 4.4128041 -0.99944979
-1.1869915 5.5788312 -0.95088983
-1.7206383 8.0869579 -0.92155868
-2.7541416 12.944399 -0.73920918
-2.7520831 12.934724 0
-2.7530363 12.939203 0.73891246
-0.93785262 4.3948388 -0.99550903
-1.1871462 5.563045 -0.94832122
-1.7276828 8.096035 -0.92271185
-2.765758 12.960524 -0.74022526
-2.7636976 12.950869 0
-2.765733 12.960406 0.74021858
-0.94529539 4.4036398 -0.99776059
-1.1960223 5.5716457 -0.95003307
-1.7369218 8.0914154 -0.92242384
-2.7825081 12.962258 -0.74051583
-2.7837138 12.967875 0
-2.7813911 12.957055 0.74021858
-0.94632536 4.3826251 -0.99325752
-1.2027537 5.5701966 -0.95003307
-1.7483336 8.0968876 -0.92328787
-2.8003602 12.969037 -0.74109584
-2.8015783 12.974678 0
-2.8008847 12.971467 0.74123466
-1.2100297 5.5712552 -0.95046228
-1.7586663 8.0973043 -0.92357701
-2.8220956 12.993578 -0.74269247
-2.81615 12.966202 0
-2.8171072 12.97061 0.74137968
-0.77024102 3.525821 -0.99570495
-0.96016639 4.3952146 -0.99663377
-1.2156638 5.5647683 -0.94960552
-1.7701035 8.102747 -0.92444104
-2.8389039 12.99524 -0.74298304
-2.8368132 12.98567 0
-2.834996 12.977351 0.74196023
-0.7696557 3.5028372 -0.98947614
-0.96329528 4.3841248 -0.9943822
-1.2256933 5.5783439 -0.95217419
-1.7815585 8.1081829 -0.9253062
-2.858506 13.009559 -0.74399859
-2.8525019 12.982233 0
-2.8540192 12.989139 0.74283081
-0.97078508 4.3928814 -0.99663377
-1.2313238 5.5718408 -0.95131743
-1.7891219 8.0959225 -0.92415303
-2.875906 13.013709 -0.74443418
-2.87324 13.001645 0
-2.8713946 12.993295 0.74326634
-0.78628367 3.5377045 -0.99985927
-0.97829741 4.4016271 -0.99888527
-1.2397268 5.5778689 -0.95260173
-1.7989029 8.0937548 -0.92415303
-2.89501 13.025439 -0.7453047
-2.8912065 13.008326 0
-2.888221 12.994894 0.74355692
-1.2447852 5.5688486 -0.95131743
-1.8047312 8.0739031 -0.9221347
-2.9147151 13.039685 -0.74632084
-2.9091933 13.014982 0
-2.9101541 13.019281 0.74515301
-0.78657663 3.4990764 -0.98947614
-1.2565798 5.5898795 -0.95516872
-1.8190238 8.0919046 -0.92444104
-2.9304688 13.036154 -0.74632084
-2.9254873 13.013994 0
-2.9264548 13.018298 0.74529856
-0.79412419 3.5128102 -0.99363047
-1.2667304 5.603385 -0.95773733
-1.8293719 8.0922308 -0.92473018
-2.9485102 13.042742 -0.74690139
-2.9463742 13.033294 0
-2.9467642 13.035019 0.74645913
-0.99618143 4.3819857 -0.99550903
-1.2723609 5.5968394 -0.95688057
-1.841442 8.1001034 -0.92588335
-2.9642675 13.039169 -0.74690139
-2.9661593 13.04749 0
-2.9653943 13.044125 0.74718529
-0.79925531 3.4962022 -0.98947614
-1.2854162 5.6228275 -0.96158862
-1.844311 8.0676155 -0.92242384
-2.9805992 13.038109 -0.74704641
-2.9825017 13.046432 0
-2.9811532 13.040532 0.74718529
-0.80460441 3.5001285 -0.99086183
-1.0101825 4.3944187 -0.99888527
-1.288183 5.6037555 -0.95859241
-1.8592724 8.0880651 -0.92501819
-2.9905307 13.009178 -0.74559528
-2.9959316 13.032673 0
-2.9928324 13.019192 0.74616915
-0.81448197 3.5235922 -0.99778211
-1.0154916 4.3931952 -0.99888527
-1.2978432 5.6146979 -0.96073186
-1.8667139 8.0757322 -0.92386502
-3.0009813 12.982773 -0.74428916
-3.0087469 13.016367 0
-3.0068052 13.007968 0.74573362
-1.0196497 4.3870196 -0.99776059
-1.3023019 5.6031241 -0.95902002
-1.8805699 8.0911083 -0.92588335
-3.0149009 12.971541 -0.74385363
-3.0191703 12.98991 0
-3.0201676 12.994202 0.74515301
-1.0237923 4.3808312 -0.99663377
-1.3090712 5.6015463 -0.95902002
-1.8879906 8.0787563 -0.92473018
-3.0264325 12.950175 -0.74283749
-3.0319033 12.973584 0
-3.0299542 12.965245 0.74370193
-0.82839596 3.5254965 -0.99916512
-1.0290849 4.379591 -0.99663377
-1.3134899 5.5899644 -0.95730811
-1.9001174 8.0865402 -0.92588335
-3.037919 12.928809 -0.74182194
-3.0445988 12.957236 0
-3.0420506 12.946392 0.74283081
-0.82631195 3.497643 -0.99155331
-1.0355456 4.3832946 -0.99776059
-1.3196536 5.5858774 -0.95688057
-1.9075084 8.0741701 -0.92473018
-3.05055 12.912477 -0.74109584
-3.056066 12.935826 0
-3.0529144 12.922486 0.74167025
-1.0390791 4.3746214 -0.9960714
-1.3281823 5.591774 -0.95816487
-1.920251 8.0844393 -0.92617136
-2.0243576 8.5227375 -0.48929209
-3.0632732 12.89667 0
-3.0625205 12.893502 0.74021858
-0.84058797 3.5200326 -0.99847358
-1.0479064 4.388196 -0.99944979
-1.3355336 5.5926595 -0.95859241
-1.9282153 8.074563 -0.9253062
-2.0334482 8.5152349 -0.48900208
-3.0776463 12.887902 0
-3.0762887 12.882217 0.73978359
-0.84308308 3.5116937 -0.99639648
-1.3398932 5.5810571 -0.95688057
-1.9367639 8.0672026 -0.92473018
-2.0455537 8.5203447 -0.48943707
-3.0895724 12.868995 0
-3.0851789 12.850695 0.7381869
-1.0581673 4.3726554 -0.99663377
-1.3524216 5.5885997 -0.95859241
-1.9519899 8.0661898 -0.92501819
-2.0591614 8.5090532 -0.48900208
-3.1030977 12.822903 0
-3.1023545 12.819832 0.73673576
-1.3597796 5.5894532 -0.95902002
-1.9654021 8.0789003 -0.92674738
-2.0688252 8.5040274 -0.48885652
-3.1130533 12.796388 0
-3.1135423 12.798397 0.73571968
-0.85792667 3.5080969 -0.99639648
-1.071751 4.3824334 -0.99944979
-1.3677531 5.5927982 -0.95987678
-1.9770063 8.0840588 -0.92761254
-2.0797184 8.5040522 -0.48900208
-3.1241848 12.774918 0
-3.1246829 12.776955 0.73470354
-1.0764372 4.3786607 -0.99888527
-1.3738978 5.5886507 -0.95944917
-1.9867729 8.0816641 -0.92761254
-2.0881307 8.4939613 -0.48856652
-3.1346481 12.750916 0
-3.1339171 12.747942 0.73325241
-1.0786799 4.3650255 -0.9960714
-1.3837281 5.5994449 -0.96158862
-1.9977764 8.0842752 -0.92818856
-2.094651 8.4762917 -0.4876954
-3.1463079 12.731964 0
-3.1455767 12.729006 0.73238134
-1.0876299 4.3785195 -0.99944979
-1.3917295 5.602747 -0.96244371
-2.0094144 8.0893879 -0.92905372
-2.1055198 8.4762831 -0.48784095
-3.1579242 12.712995 0
-3.1578236 12.712588 0.73165578
-1.0929197 4.377202 -0.99944979
-1.3997433 5.6060472 -0.96330047
-2.0216937 8.0969915 -0.93020689
-2.1126134 8.4611301 -0.48711541
-3.1701314 12.696547 0
-3.1681461 12.688596 0.73049462
-0.88216031 3.5150232 -0.99985927
-1.0975876 4.3734069 -0.99888527
-1.4052651 5.5993671 -0.96244371
-2.0321047 8.0970497 -0.9304949
-2.1253631 8.4686432 -0.4876954
-3.1797695 12.669991 0
-3.1777835 12.662078 0.7291885
-0.73637211 2.9191768 -0.99269509
-1.1028712 4.3720775 -0.99888527
-1.4095182 5.5877085 -0.96073186
-2.0380924 8.079545 -0.92876571
-2.1362317 8.4685955 -0.48784095
-3.1918943 12.653525 0
-3.1905386 12.64815 0.72860795
-1.1087794 4.3732114 -0.99944979
-1.414378 5.5785437 -0.95944917
-2.0491235 8.0820866 -0.92934173
-2.1515715 8.4861584 -0.48900208
-3.1815972 12.548752 0
-3.2013507 12.626662 0.72759241
-0.89489615 3.5118024 -0.99985927
-1.1140628 4.3718686 -0.99944979
-1.4287219 5.6066718 -0.96458316
-2.0588877 8.0796041 -0.92934173
-2.1772208 8.5439739 -0.49248487
-3.0894427 12.123767 0
-3.2108309 12.600125 0.72628629
-1.116823 4.3606734 -0.99719822
-1.4374068 5.6124043 -0.96586746
-2.0680077 8.0746078 -0.92905372
-2.1965699 8.5765829 -0.49451709
-3.0898857 12.064565 0
-3.2183173 12.566031 0.72454464
-0.90338022 3.5096295 -0.99985927
-1.115756 4.3347092 -0.99156833
-1.4409883 5.5982356 -0.96372807
-2.0738957 8.0570784 -0.92732453
-2.2069314 8.5739222 -0.49451709
-3.1005673 12.045695 0
-3.2309074 12.552067 0.72396404
-0.90322149 3.4915314 -0.99501348
-1.1299031 4.3678017 -0.99944979
-1.4528949 5.6163726 -0.96715176
-2.0849237 8.0595703 -0.92790055
-2.2075274 8.5335121 -0.49233988
-0 0 0
-3.242166 12.533055 0.72309297
-1.1332613 4.3590531 -0.99776059
-1.4622638 5.6245508 -0.96886367
-2.0940106 8.0545444 -0.92761254
-2.2224143 8.5484447 -0.49335599
-3.1303222 12.040684 0
-3.2520769 12.509009 0.72193182
-0.91229004 3.4917634 -0.99570495
-1.1398109 4.3625927 -0.99888527
-1.4664632 5.6128449 -0.96715176
-2.1050477 8.0570087 -0.92818856
-2.2274871 8.5256414 -0.49219486
-3.14816 12.04949 0
-3.2639055 12.492503 0.72120625
-0.91587204 3.4882343 -0.99501348
-1.1457286 4.363677 -0.99944979
-1.4693314 5.5961666 -0.96458316
-2.1121542 8.0444517 -0.92703539
-2.2397673 8.5304852 -0.49263042
-3.1646979 12.053222 0
-3.2724004 12.463422 0.71975517
-0.92008621 3.4871252 -0.99501348
-1.480023 5.6092849 -0.96715176
-2.125174 8.0544062 -0.9284777
-2.250073 8.5277729 -0.49263042
-3.1785963 12.046875 0
-3.2841437 12.446899 0.71902961
-0.92044246 3.4714656 -0.99086183
-1.1491066 4.3338766 -0.99325752
-1.4861424 5.6050134 -0.96672422
-2.1329153 8.0443296 -0.92761254
-2.2597077 8.5225286 -0.49248487
-3.1944857 12.048061 0
-3.2965171 12.432876 0.71844906
-0.92980111 3.4897351 -0.99639648
-1.492251 5.6007257 -0.966295
-2.1406355 8.0342464 -0.92674738
-2.2720115 8.5273275 -0.49292043
-3.2070303 12.036646 0
-3.3061855 12.408796 0.7172879
-0.93077356 3.4764946 -0.99293631
-1.4930428 5.5766034 -0.96244371
-2.1503417 8.0316534 -0.92674738
-2.2870181 8.5421486 -0.49393654
-3.2242641 12.042818 0
-3.3164718 12.387219 0.71627182
-0.93171537 3.4632564 -0.98947614
-1.5031137 5.5871878 -0.96458316
-2.1627326 8.0390406 -0.92790055
-2.2919376 8.5193052 -0.49277541
-3.240164 12.043935 0
-3.3267136 12.365645 0.71525627
-0.93459123 3.457289 -0.9880932
-1.1733544 4.3405342 -0.9960714
-1.5118741 5.592804 -0.96586746
-2.168396 8.0214443 -0.92617136
-2.3090093 8.5416088 -0.49422655
-3.2506409 12.024941 0
-3.3389401 12.351583 0.71467566
-0.94258451 3.4785144 -0.99432194
-1.1773069 4.3447342 -0.99719822
-1.5125672 5.5819788 -0.96415561
-2.1752694 8.0276155 -0.92703539
-2.3243642 8.5778351 -0.49640378
-3.2585852 12.025485 0
-3.340965 12.3295 0.71351457
-0.93953651 3.4507434 -0.98670751
-1.1812195 4.3384004 -0.9960714
-1.5199845 5.5826216 -0.96458316
-2.1822522 8.015008 -0.92588335
-2.3613477 8.6727924 -0.50206381
-3.2683268 12.003959 0
-3.3510814 12.307901 0.71249849
-0.94171876 3.442344 -0.98463035
-1.1898124 4.3492217 -0.99888527
-1.5253754 5.5758333 -0.96372807
-2.1926169 8.0148582 -0.92617136
-2.3635974 8.6398573 -0.5003221
-3.2986243 12.057739 0
-3.3611503 12.286296 0.71148235
-0.80186158 2.9172583 -0.99758649
-0.94720858 3.4460464 -0.98601604
-1.1957421 4.3502383 -0.99944979
-1.5321116 5.5739861 -0.96372807
-2.2016149 8.0097113 -0.92588335
-2.3705926 8.6244698 -0.49959657
-3.3090513 12.038684 0
-3.3739293 12.274716 0.71104735
-0.94870037 3.4352262 -0.9832474
-1.1976138 4.3365369 -0.99663377
-1.5367948 5.5647054 -0.96244371
-2.2099133 8.0020542 -0.9253062
-2.376169 8.604064 -0.49858046
-3.3256743 12.042205 0
-3.3866827 12.263114 0.71061176
-0.80362248 2.8962591 -0.99106675
-0.95687377 3.4485774 -0.98739904
-1.1980993 4.317955 -0.99269515
-1.546263 5.5727386 -0.96415561
-2.2223465 8.009347 -0.92645937
-2.3969855 8.6387463 -0.50075769
-3.3402226 12.038177 0
-3.4049709 12.27153 0.71133733
-0.96036696 3.4450045 -0.98670751
-1.2080899 4.3336301 -0.99663377
-1.5529954 5.5708661 -0.96415561
-2.2299385 7.9991794 -0.92559421
-2.4220743 8.688405 -0.50380546
-3.3575613 12.04416 0
-3.4225872 12.277419 0.71191788
-0.96385294 3.4414279 -0.98601604
-1.2098998 4.3199358 -0.99381983
-1.5583422 5.5640464 -0.96330047
-2.2423925 8.0064411 -0.92674738
-2.4507899 8.7505236 -0.50757879
-3.373517 12.045112 0
-3.4416256 12.288292 0.712789
-0.96665019 3.4354262 -0.98463035
-1.219937 4.3355947 -0.99776059
-1.5664535 5.5670972 -0.96415561
-2.2499654 7.996264 -0.92588335
-2.4676952 8.7700653 -0.50888491
-3.3866575 12.036011 0
-3.456471 12.284124 0.712789
-0.96738899 3.4221871 -0.98117024
-1.2154969 4.2998815 -0.98987913
-1.5780678 5.5824943 -0.96715176
-2.2624373 8.0034857 -0.92703539
-2.4881847 8.8020782 -0.51091659
-0 0 0
-3.4755511 12.294937 0.71365958
-0.97015393 3.4161937 -0.97978723
-1.2269408 4.320415 -0.99494672
-1.5785011 5.5583611 -0.96330047
-2.2699885 7.993289 -0.92617136
-2.5009487 8.8065672 -0.51135218
-3.4256861 12.062836 0
-3.4939532 12.303225 0.71438515
-0.83137804 2.91412 -0.99921483
-0.96739697 3.3908892 -0.97286427
-1.2328566 4.3213701 -0.99550903
-1.5880333 5.5663242 -0.96501237
-2.2810631 7.9955101 -0.92674738
-2.513015 8.8085403 -0.51164269
-3.4409752 12.061197 0
-3.5123804 12.311485 0.71511072
-0.96458292 3.3656058 -0.96594399
-1.2380773 4.3198776 -0.99550903
-1.591929 5.5545301 -0.96330047
-2.2878721 7.9828024 -0.92559421
-2.5279505 8.8204803 -0.51251328
-3.4548273 12.054523 0
-3.5251083 12.299746 0.71467566
-0.97628468 3.3909593 -0.97355843
-1.2411865 4.3110509 -0.99381983
-1.5972174 5.5476642 -0.96244371
-2.2968011 7.9775491 -0.9253062
-2.5371673 8.8124208 -0.51222271
-3.4765918 12.075353 0
-3.5507491 12.332926 0.71685237
-0.9768942 3.3777204 -0.97009563
-1.2485131 4.3168731 -0.99550903
-1.6060599 5.5531306 -0.96372807
-2.3093131 7.9847069 -0.92645937
-2.5521464 8.8243303 -0.51309383
-3.5078082 12.128637 0
-3.5678151 12.336117 0.7172879
-0.83304214 2.8673499 -0.98454702
-0.97467619 3.3548574 -0.96386683
-1.2530202 4.3129234 -0.99494672
-1.6106193 5.5437884 -0.96244371
-2.3175175 7.9769478 -0.92588335
-2.5555592 8.7962923 -0.51164269
-3.5725591 12.296829 0
-3.5863421 12.344271 0.71801347
-0.97662264 3.3464592 -0.96179235
-1.2553831 4.3016496 -0.99269515
-1.6187565 5.5467715 -0.96330047
-2.3257039 7.969171 -0.9253062
-2.5574503 8.7632647 -0.50990105
-3.6056387 12.354949 0
-3.6048944 12.352398 0.71873903
-0.98631144 3.3645363 -0.96732968
-1.2627223 4.3074374 -0.9943822
-1.626179 5.5472722 -0.96372807
-2.3331478 7.9589067 -0.92444104
-2.5387983 8.660428 -0.50409549
-3.6271558 12.373067 0
-3.6205473 12.350524 0.71888405
-0.85599601 2.9069839 -0.99921483
-0.99604261 3.3825858 -0.97286427
-1.2643381 4.2937241 -0.99156833
-1.6299801 5.5354533 -0.96201617
-2.3405731 7.9486451 -0.92357701
-2.5455916 8.6448927 -0.50336993
-3.642838 12.371169 0
-3.6398733 12.361101 0.71975517
-0.99372572 3.3597302 -0.96663553
-1.271688 4.2995052 -0.99325752
-1.63594 5.5310206 -0.96158862
-2.3516417 7.950767 -0.92415303
-3.5155547 11.885891 -0.69233173
-3.6592584 12.371745 0
-3.6599662 12.374139 0.72077125
