# .PCD v0.7 - Point Cloud Data file format
VERSION 0.7
FIELDS x y z
SIZE 4 4 4
TYPE F F F
COUNT 1 1 1
WIDTH 1789
HEIGHT 1
VIEWPOINT 0 0 0 1 0 0 0
POINTS 1789
DATA ascii
0 0 0
0 0 0
0 0 0
0 0 0
0 0 0
0 0 0
0 0 0
0 0 0
0 0 0
0 0 0
0 0 0
0 0 0
0.3582817 32.944923 0
0.64306694 59.131657 3.3030639
0.31870034 32.96875 0
0 0 0
0.27862164 32.940483 0
0 0 0
0.23868723 32.922573 0
0 0 0
0.19873364 32.894218 0
0 0 0
0.1588992 32.876217 0
0 0 0
0.11901424 32.832146 0
0 0 0
0.079330355 32.827065 0
0 0 0
0.039674632 32.834934 0
0 0 0
-0 32.824551 0
-0 0 0
-0.039674632 32.834934 0
-0 0 0
-0.059544954 32.853127 0
-0 0 0
-0.099257231 32.858238 0
-0 0 0
-0.13892689 32.850285 0
-0 0 0
-0.17853501 32.834476 0
-0.32567775 59.89558 3.345588
-0.21815708 32.826435 0
-0.39813596 59.908134 3.3463135
-0.46153393 58.763119 0
-0.47033927 59.884228 3.3450072
-0.53237224 58.744297 0
-0.54288572 59.9044 3.3461685
-0.60343307 58.751423 0
-0.61454749 59.833546 3.3422494
-0.67469108 58.774067 0
-0 0 0
-0.4744164 37.3913 0
-0.75501937 59.507126 3.3241084
-0.51804125 37.278812 0
-0.82854617 59.623077 3.3306389
-0.56296712 37.270348 0
-0.8994503 59.546688 3.3264301
-0.60698181 37.207188 0
-0.9697473 59.444241 3.32077
-0.65098155 37.151787 0
-1.0419376 59.46381 3.3219311
-0.69553071 37.132767 0
-1.1138846 59.467709 3.3222218
-0.73993081 37.108475 0
-1.1858424 59.471508 3.3225117
-0.78449351 37.094547 0
-0.80072582 37.862083 2.1153042
-0.82861644 37.062347 0
-0.84670645 37.871479 2.1158848
-0.87352115 37.066528 0
-0.89093572 37.805489 2.1122565
-0.91785693 37.04723 0
-0.93455613 37.72126 2.1076119
-0.96248549 37.040897 0
-0.97851431 37.657761 2.1041286
-1.0077364 37.057911 0
-1.0210491 37.547462 2.098033
-1.0531042 37.077477 0
-1.0647205 37.486465 2.0946953
-1.0976734 37.068382 0
-1.1061695 37.355293 2.0874386
-1.1888326 37.115036 0
-1.1926962 37.235653 2.0809081
-1.2354074 37.165592 0
-1.2356155 37.171856 2.0774248
-1.2590051 37.19865 0
-1.2564908 37.124363 2.0748124
-1.305866 37.251717 0
-1.3013474 37.122818 2.0748124
-2.2777832 62.809353 0
-1.3455428 37.103039 2.0737963
-2.3546491 62.832565 0
-1.3896924 37.083206 2.0727801
-2.4285562 62.777664 0
-1.4348006 37.089291 2.0732157
-2.5038903 62.761684 0
-1.4805468 37.110897 2.0745218
-2.5812199 62.79501 0
-1.5258139 37.119465 2.0751023
-0 0 0
-1.5725319 37.161724 2.0775697
-1.3147855 30.2066 0
-1.6199191 37.216904 2.0807624
-1.3491899 30.158195 0
-1.6654679 37.227898 2.0814879
-1.3846736 30.135746 0
-1.3984622 30.435837 1.7018232
-1.4187564 30.084656 0
-1.4362161 30.454889 1.7029843
-1.4636568 30.259682 0
-1.4723858 30.440147 1.7022582
-0 0 0
-1.5090371 30.435753 1.7021133
-2.8496199 56.103256 0
-1.5414621 30.348272 1.6973238
-2.9153802 56.060787 0
-0 0 0
-2.9815958 56.028641 0
-3.308845 62.178143 3.4779477
-3.0167639 55.427334 0
-3.3721108 61.956165 3.4657567
-3.0788195 55.335304 0
-3.4481251 61.972801 3.4669178
-3.1416912 55.261398 0
-3.5259545 62.020473 3.4698205
-3.2084615 55.257561 0
-3.603904 62.06805 3.4727232
-3.2749188 55.248444 0
-3.6812043 62.102551 3.4749
-3.3430874 55.267822 0
-3.7755368 62.417065 3.4927511
-3.4098654 55.263744 0
-3.8531935 62.448772 3.4947834
-3.4748411 55.231018 0
-0 0 0
-3.5100229 55.257473 0
-0 0 0
-0 0 0
-2.9615405 45.749023 2.5607142
-2.5009768 37.923481 0
-3.0152776 45.722069 2.5594077
-2.5478446 37.936016 0
-3.0713928 45.731361 2.5601337
-2.5945687 37.945892 0
-3.1239889 45.688728 2.5579565
-2.6411395 37.953114 0
-3.1781106 45.669373 2.557086
-2.686445 37.942104 0
-0 0 0
-2.7335975 37.957005 0
-0 0 0
-2.779649 37.956264 0
-0 0 0
-2.8255098 37.952877 0
-0 0 0
-2.8721516 37.959816 0
-0 0 0
-2.9180167 37.956318 0
-0 0 0
-2.7969251 35.814926 0
-0 0 0
-2.8397872 35.806335 0
-0 0 0
-2.882632 35.797684 0
-0 0 0
-2.9271569 35.809742 0
-0 0 0
-2.9708538 35.811363 0
-0 0 0
-3.0141225 35.807747 0
-0 0 0
-3.0556157 35.783333 0
-0 0 0
-2.9510982 34.073654 0
-0 0 0
-2.9827046 33.961182 0
-0 0 0
-3.0188909 33.903118 0
-0 0 0
-3.0556421 33.852783 0
-0 0 0
-2.5854068 28.261698 0
-0 0 0
-0 0 0
-0 0 0
-0 0 0
-0 0 0
-0 0 0
-3.7510962 39.428192 2.2122524
-0 0 0
-0 0 0
-2.6963394 27.806889 0
-0 0 0
-2.7258677 27.762169 0
-3.7071793 37.756542 2.1190777
-2.7586393 27.751093 0
-3.7474005 37.697739 2.1160297
-2.7913871 27.739969 0
-3.7926881 37.690601 2.1158848
-3.4548361 33.921631 0
-3.8392792 37.69632 2.1164649
-3.4947541 33.907078 0
-3.8840268 37.683907 2.1160297
-3.5376115 33.920952 0
-3.931174 37.694687 2.1169004
-3.5802336 33.932175 0
-3.9750826 37.674412 2.1160297
-3.6633413 33.933773 0
-0 0 0
-3.7063184 33.947433 0
-0 0 0
-3.748477 33.953278 0
-0 0 0
-3.7895 33.948727 0
-0 0 0
-3.8293502 33.933777 0
-0 0 0
-3.8700552 33.92654 0
-0 0 0
-3.9146218 33.952854 0
-0 0 0
-3.958657 33.973957 0
-0 0 0
-3.3773828 28.683819 0
-0 0 0
-3.3376398 28.054358 0
-0 0 0
-3.3634613 27.983128 0
-0 0 0
-3.3947613 27.958374 0
-0 0 0
-3.4275904 27.946501 0
-4.1484008 33.823555 1.9034113
-3.4603956 27.934587 0
-4.1522145 33.519405 1.8865762
-3.4947932 27.935556 0
-4.1643291 33.287476 1.8738045
-3.52985 27.941641 0
-4.1882648 33.153526 1.8665477
-3.5486963 27.954988 0
-4.2086205 33.153568 1.8666928
-3.5841258 27.963585 0
-4.2496686 33.156193 1.8671283
-3.6199162 27.974724 0
-4.2887273 33.143299 1.8666928
-3.6489968 27.934208 0
-4.3237238 33.099453 1.864516
-3.6824059 27.927191 0
-4.3144636 32.720684 1.8434721
-3.7123723 27.89435 0
-1.9829925 14.899984 0.83959436
-3.7433028 27.869209 0
-2.0006478 14.894995 0.83944881
-2.0211036 14.910711 -0.84047163
-2.0180566 14.888231 0
-2.0186441 14.892566 0.83944881
-2.0405273 14.918556 -0.84105217
-0 0 0
-0 0 0
-2.0560651 14.898059 -0.84003603
-0 0 0
-2.0567598 14.903093 0.84031993
-2.0729895 14.88784 -0.8396005
-0 0 0
-2.0754819 14.90574 0.84060991
-2.0902548 14.880183 -0.83931047
-2.0881796 14.865411 0
-4.4204602 31.468538 1.7749696
-2.1085973 14.880218 -0.83945549
-4.0781531 28.77923 0
-4.459209 31.468313 1.7752596
-4.114397 28.784586 0
-4.4983325 31.470623 1.7756952
-3.980212 27.60763 0
-4.5370979 31.470312 1.7759857
-4.0146914 27.610529 0
-4.5743718 31.45966 1.7756952
-4.0491834 27.613386 0
-4.6150208 31.472109 1.7767112
-4.0836868 27.61619 0
-4.6549454 31.479359 1.7774369
-4.1174378 27.613817 0
-4.6945114 31.483992 1.7780174
-4.1515737 27.613964 0
-4.7348671 31.49371 1.778888
-4.1857176 27.614079 0
-4.7736974 31.493109 1.7791785
-4.2182937 27.603849 0
-4.8121395 31.489883 1.7793235
-4.2532296 27.609022 0
-4.8513727 31.491753 1.779759
-4.2873859 27.609011 0
-4.8906155 31.493563 1.780194
-4.3203392 27.601231 0
-4.9294705 31.492769 1.7804847
-4.3540936 27.598568 0
-4.9679241 31.489355 1.7806296
-4.3728018 27.608784 0
-4.9881673 31.494049 1.7810652
-4.4073877 27.611181 0
-5.0262184 31.487999 1.7810652
-4.4407473 27.605837 0
-5.0688014 31.510126 1.7826619
-4.4786816 27.628712 0
-5.1068716 31.503979 1.7826619
-4.5154185 27.643827 0
-5.1466084 31.508032 1.7832419
-4.5555797 27.679438 0
-5.1867871 31.514618 1.783968
-4.5928526 27.697018 0
-5.2240114 31.503197 1.7836775
-5.2588329 31.477465 0
-5.2650709 31.514803 1.7846935
-5.2934079 31.450558 0
-5.304008 31.513538 1.7849835
-1.2423562 7.3273015 -0.82836574
-5.3348861 31.464664 0
-5.3446894 31.522484 1.7858547
-1.2546924 7.3461919 -0.83067209
-5.3750916 31.47102 0
-5.3832111 31.51856 1.7859997
-5.4135551 31.467066 0
-5.4226136 31.519718 1.7864352
-5.4533501 31.470758 0
-5.4646873 31.536184 1.7877413
-5.4918194 31.466707 0
-5.5036812 31.534672 1.7880313
-5.5338912 31.483114 0
-5.5426812 31.533123 1.7883219
-5.5737429 31.486656 0
-5.5821366 31.534071 1.7887568
-5.6149821 31.497835 0
-5.6156759 31.501726 1.7873057
-5.654417 31.498714 0
-3.4707525 19.334309 1.0972031
-5.6910834 31.484175 0
-3.4830205 19.268744 1.0937203
-5.7277231 31.469591 0
-3.4862943 19.1546 1.0874797
-5.7610536 31.437054 0
-3.4846125 19.014914 1.0797875
-1.2075605 6.5007997 -0.73698175
-1.3589759 7.3159318 0
-3.4911668 18.794401 1.0677414
-1.2196931 6.5222154 -0.7395761
-1.3687724 7.3194056 0
-3.4942925 18.685461 1.0617913
-1.227095 6.5181975 -0.73928809
-2.3747313 12.614319 -0.71696448
-1.3790604 7.3254213 0
-3.4981186 18.581633 1.0561308
-1.2286329 6.5047498 -0.73784691
-2.3755991 12.57713 -0.71493226
-1.3834858 7.3245869 0
-3.4929476 18.492708 1.0511962
-1.2268293 6.4524412 -0.73208106
-2.3922508 12.581911 -0.71536779
-1.3957366 7.3407993 0
-3.5050979 18.43487 1.0481485
-1.210802 6.326478 -0.71795499
-2.4059861 12.571353 -0.71493226
-1.4031392 7.3314466 0
-3.5171134 18.377028 1.0451007
-0 0 -0
-2.4182262 12.553132 -0.71406168
-1.4090421 7.3144078 0
-0 0 0
-0 0 -0
-1.4659867 7.5608144 -0.43018335
-1.4134213 7.2897081 0
-2.435348 12.560287 0.71463555
-0 0 -0
-2.4555218 12.582952 -0.71609336
-1.4297059 7.3263121 0
-2.4465413 12.536933 0.71347445
-0 0 -0
-2.4682207 12.567229 -0.71536779
-1.4390583 7.3271308 0
-2.4656942 12.554365 0.71463555
-1.2354612 6.250545 -0.71017194
-1.4479107 7.3253865 0
-2.4803586 12.54883 0.71449053
-1.2425088 6.2465134 -0.70988393
-1.4582826 7.3312817 0
-2.5005879 12.571304 0.71594167
-1.2495464 6.2424641 -0.70959479
-1.4661193 7.3244152 0
-0 0 0
-1.2560679 6.2358832 -0.70901877
-1.5053706 7.4735737 -0.42582947
-1.474455 7.3200898 0
-3.5032146 17.392084 0.99096662
-1.2620599 6.2267537 -0.70815361
-1.5040765 7.4208159 -0.42292666
-3.5128238 17.331577 0
-3.5149369 17.342005 0.98835438
-1.2706175 6.230298 -0.70873076
-1.5078506 7.3935375 -0.42147556
-3.5181625 17.250824 0
-3.5203125 17.261368 0.98400044
-1.2786641 6.2312894 -0.70901877
-1.5199161 7.4069781 -0.42234612
-3.5212185 17.159887 0
-3.5275877 17.190926 0.98022711
-1.2872374 6.2348008 -0.70959479
-1.5257134 7.3898721 -0.42147556
-3.5230086 17.063875 0
-3.5205116 17.051781 0.97253484
-1.29477 6.2332411 -0.70959479
-1.5314717 7.3727632 -0.420605
-3.5250986 16.970419 0
-3.5284314 16.986464 0.96905208
-1.3012435 6.2266135 -0.70901877
-1.5403792 7.3709073 -0.420605
-3.5306971 16.894829 0
-3.5292871 16.888081 0.96368206
-1.3098295 6.230094 -0.70959479
-1.547146 7.3588696 -0.42002442
-3.5387928 16.83197 0
-3.5341871 16.810064 0.95947313
-1.316287 6.2234507 -0.70901877
-1.5576481 7.364614 -0.42045945
-3.5397434 16.736031 0
-3.5372901 16.72443 0.95482868
-1.3254212 6.2294474 -0.70988393
-1.5676281 7.3678145 -0.42074999
-3.5447981 16.660465 0
-3.5461404 16.666775 0.95178092
-1.3329473 6.2278414 -0.70988393
-1.5776162 7.3709917 -0.42104
-3.548043 16.577288 0
-3.5472438 16.573553 0.94670141
-1.342103 6.2338047 -0.71074796
-1.5876163 7.3741655 -0.42133054
-3.5483518 16.481396 0
-3.556329 16.51845 0.94379866
-1.3463508 6.2170162 -0.70901877
-1.5943255 7.3620834 -0.42074999
-3.5500891 16.393173 0
-3.5509903 16.397335 0.93712306
-1.3566138 6.2280183 -0.71045995
-1.6021129 7.3550692 -0.42045945
-3.5593698 16.340553 0
-3.5564208 16.327015 0.93334913
-1.3620328 6.2347808 -0.71132511
-1.605448 7.3490276 -0.42016944
-3.5459142 16.231619 0
-3.5546386 16.271555 0.93030137
-1.3695654 6.2331305 -0.71132511
-1.6148839 7.3496175 -0.42031443
-3.5504463 16.158699 0
-3.5553384 16.180965 0.92536688
-1.3770958 6.2314711 -0.71132511
-1.625446 7.3552752 -0.42074999
-3.5559294 16.09087 0
-3.5535817 16.080246 0.9198519
-1.3846244 6.2298026 -0.71132511
-1.6320771 7.3431597 -0.42016944
-3.562382 16.028128 0
-3.5594807 16.015074 0.91636908
-0 0 -0
-1.6426497 7.3487921 -0.420605
-3.5698247 15.970478 0
-3.5663598 15.954977 0.9131763
-0 0 -0
-1.6577953 7.3746819 -0.4222011
-3.5674305 15.86967 0
-3.5691092 15.877138 0.90896738
-0 0 -0
-1.6678519 7.3777471 -0.42249167
-3.5751286 15.81459 0
-3.5728207 15.80438 0.90504849
-1.4181572 6.2381654 -0.7130543
-1.6790694 7.3858619 -0.42307222
-3.5763495 15.731585 0
-3.5803962 15.749385 0.90214628
-1.4303051 6.256619 -0.71536064
-1.6949394 7.4142151 -0.42481333
-3.582597 15.671442 0
-3.5855255 15.684253 0.89866292
-1.4401819 6.2649689 -0.71651381
-3.6475766 15.867409 -0.90940911
-3.5817075 15.580871 0
-3.584101 15.591283 0.89358348
-1.688897 7.3064656 -0.83586079
-3.6614802 15.840207 -0.90810299
-3.5911536 15.535961 0
-3.5883079 15.52365 0.8899551
-1.6883554 7.2641101 -0.8312481
-3.6635582 15.762375 -0.90389407
-3.6040323 15.506267 0
-3.5935318 15.461088 0.88661677
-1.693601 7.2469583 -0.82951891
-3.661907 15.669385 -0.89881462
-3.6115153 15.453757 0
-3.5950632 15.38336 0.88240784
-2.2044802 9.3818512 -0.53830653
-2.1949811 9.341424 0
-3.6005733 15.323359 0.87921506
-2.2104385 9.3564234 -0.53700042
-2.2014797 9.3185024 0
-3.6047475 15.258306 0.87573171
-2.2043285 9.2804327 -0.53279155
-2.1934946 9.2348204 0
-3.5979645 15.147772 0.86963671
-2.1992466 9.2095299 -0.52887321
-2.188936 9.1663532 0
-3.6029859 15.087807 0.86644334
-2.2097671 9.2043419 -0.52872819
-0 0 0
-0 0 0
-0 0 -0
-0 0 0
-0 0 0
-0 0 -0
-0 0 0
-3.669296 15.122627 0.86920112
-0 0 -0
-0 0 0
-3.7306652 15.294879 0.87936008
-2.2573211 9.2061701 -0.52945375
-2.2603872 9.2186747 0
-3.7912195 15.461962 0.889229
-2.2684433 9.2034359 -0.52945375
-2.272769 9.2209864 0
-3.8117654 15.464941 0.88966453
-2.2820618 9.2107773 -0.5300343
-2.2826583 9.2131853 0
-3.8323243 15.467893 0.89010012
-2.2913051 9.2004461 -0.52959877
-2.2988205 9.2306232 0
-3.845988 15.443079 0.88893896
-2.297492 9.2015791 -0.52974373
-2.3031347 9.2241783 0
-0 0 0
-2.309243 9.2013235 -0.52988929
-2.3174455 9.2340069 0
-0 0 0
-2.3229015 9.2086048 -0.53046983
-2.3266935 9.2236376 0
-3.8837235 15.396122 0.88690734
-2.3333862 9.2032652 -0.53032428
-2.3371954 9.2182894 0
-3.904238 15.398968 0.88734233
-2.3470714 9.2105112 -0.53090489
-2.3509028 9.2255459 0
-3.9202752 15.384167 0.88676178
-2.3594894 9.2127075 -0.5311954
-2.3626957 9.2252274 0
-3.9388611 15.379418 0.88676178
-2.3686757 9.2022982 -0.53075987
-2.3705955 9.2097569 0
-3.9438396 15.321806 0.88371396
-2.3810959 9.2044659 -0.53105044
-2.3856337 9.2220078 0
-3.9408779 15.234025 0.87892509
-2.392869 9.2040939 -0.5311954
-2.3987403 9.2266769 0
-3.9448972 15.173921 0.87573171
-2.4039886 9.2011957 -0.5311954
-2.4131758 9.2363596 0
-3.94484 15.098759 0.87166834
-2.4184036 9.2108488 -0.53192097
-2.4223509 9.2258825 0
-3.9472437 15.033663 0.86818504
-2.4399903 9.2024679 -0.53177595
-2.4453056 9.2225151 0
-3.9555938 14.918595 0.86208946
-2.4524446 9.2045298 -0.53206599
-2.4571195 9.2220755 0
-3.9609082 14.866106 0.8593322
-2.4649098 9.2065849 -0.53235656
-2.4716253 9.2316675 0
-3.9634111 14.803576 0.85599387
-2.4773812 9.2086134 -0.53264654
-2.4814248 9.2236433 0
-3.96982 14.756121 0.85352665
-2.4898636 9.2106352 -0.53293711
-2.494606 9.2281771 0
-3.9713755 14.691121 0.85004383
-2.5030327 9.2151356 -0.5333721
-2.5105305 9.2427397 0
-3.9693723 14.613594 0.84583491
-2.5141654 9.2121038 -0.5333721
-2.5196404 9.2321644 0
-3.9795008 14.58121 0.84423828
-2.5259838 9.2115726 -0.53351766
-2.5328593 9.2366457 0
-4.2266212 15.413332 0.89271235
-2.5426314 9.2285452 -0.53467822
-2.5426342 9.2285557 0
-4.2445521 15.40571 0.89256734
-1.7743384 6.4097519 -0.74130642
-2.5510101 9.2154589 -0.53409821
-2.5558667 9.2330036 0
-4.2590032 15.38554 0.89169621
-1.782082 6.4076033 -0.74130642
-2.56423 9.2198725 -0.5345332
-2.5670211 9.229908 0
-4.2803755 15.390396 0.89227676
-1.7981731 6.4353285 -0.7447648
-2.5746701 9.2142668 -0.53438818
-2.5795712 9.2318077 0
-4.2989688 15.385213 0.89227676
-1.8020606 6.4342408 -0.7447648
-2.5844398 9.2277184 -0.53525877
-2.5851483 9.2302475 0
-4.311769 15.395131 0.89300287
-1.808434 6.427084 -0.74418879
-2.5948846 9.2220898 -0.53511375
-2.5991189 9.2371387 0
-4.3324771 15.397407 0.89343792
-1.8112729 6.4074693 -0.74217045
-2.6046135 9.2139511 -0.53482378
-2.6102784 9.2339907 0
-4.351079 15.39216 0.89343792
-1.808417 6.3679614 -0.73784691
-2.6192935 9.2232933 -0.53554934
-2.621434 9.2308302 0
-4.3732252 15.399397 0.89416403
-1.7692783 6.2016187 -0.71882015
-2.6297238 9.2176256 -0.53540432
-2.6347282 9.2351665 0
-4.3961053 15.40909 0.89503455
-1.6433591 5.7339792 -0.99442166
-1.7333055 6.0478187 -0.70123571
-2.6430054 9.2219276 -0.53583932
-2.6466017 9.2344751 0
-4.4168692 15.411263 0.89547014
-1.6211702 5.6308599 -0.97687703
-1.7341721 6.0233526 -0.69864136
-2.657743 9.2312193 -0.53656542
-2.6606379 9.2412748 0
-4.4354877 15.405914 0.89547014
-1.6172739 5.5919046 -0.97045714
-1.7292305 5.9790068 -0.69373953
-2.6681712 9.2254982 -0.53641987
-2.6718023 9.2380533 0
-4.4497666 15.385562 0.89459902
-1.6261787 5.5973439 -0.97174144
-1.7588242 6.0539126 -0.70267689
-2.6814919 9.2297554 -0.53685546
-2.6815119 9.2298241 0
-4.4698048 15.385169 0.89488959
-1.6286244 5.5805845 -0.96917284
-1.775557 6.0840583 -0.70642442
-2.695554 9.2364864 -0.53743601
-2.6941192 9.2315693 0
-2.7610326 9.4608526 0.55049103
-1.6353663 5.5786128 -0.96917284
-1.7938192 6.119132 -0.71074796
-2.707443 9.235714 -0.53758103
-2.7074687 9.2358017 0
-2.7702713 9.450036 0.55005604
-1.6442819 5.5840225 -0.97045714
-1.8107116 6.1492219 -0.71449661
-2.7200699 9.2374258 -0.53787154
-2.7215669 9.2425098 0
-2.7765493 9.4292316 0.5490399
-1.6524855 5.5869598 -0.97131389
-1.8196062 6.1519852 -0.71507263
-2.7253335 9.2141981 -0.53671044
-2.7312551 9.2342186 0
-2.791625 9.4383259 0.54976547
-1.6606958 5.5898757 -0.97216898
-1.8270383 6.1497822 -0.71507263
-2.7423851 9.2308254 -0.53787154
-2.7453754 9.2408905 0
-2.8067267 9.4473972 0.55049103
-1.6659821 5.5829501 -0.97131389
-1.8270733 6.1227899 -0.71219027
-2.7520492 9.2225199 -0.53758103
-2.758029 9.2425585 0
-2.8129408 9.4265766 0.54947549
-1.6705151 5.5735536 -0.97002959
-1.8329835 6.1156178 -0.71161312
-2.7669203 9.2316313 -0.53830653
-2.7684484 9.2367287 0
-4.6206589 15.416497 0.8989529
-1.1259973 3.7403698 -0.86533505
-1.6809477 5.5838194 -0.97216898
-1.8358997 6.0985432 -0.70988393
-2.7780728 9.228281 -0.53830653
-2.7826049 9.2433357 0
-4.6415315 15.418369 0.89938849
-1.1305161 3.7390065 -0.86533505
-1.6847215 5.5719552 -0.97045714
-1.8380265 6.0789876 -0.7078656
-2.7899756 9.2274122 -0.53845209
-0 0 0
-0 0 0
-1.1342926 3.7351995 -0.86477053
-1.1439754 3.7670846 -0.65634638
-1.8386071 6.0544906 -0.70527124
-2.8056519 9.2389469 -0.53932267
-0 0 0
-4.6787782 15.407108 0.89938849
-1.1425135 3.745985 -0.86758661
-1.1342967 3.7190444 -0.64821464
-1.8391311 6.0300012 -0.70267689
-2.8145385 9.2280922 -0.53888708
-2.8085022 9.2083006 0
-4.6981483 15.403926 0.89953345
-1.1455491 3.7397382 -0.86645973
-1.1387895 3.7176712 -0.64821464
-1.835052 5.9906764 -0.69835222
-2.8272104 9.2296581 -0.53917766
-2.8158162 9.1924601 0
-4.7182813 15.403213 0.89982402
-1.1515627 3.7432132 -0.86758661
-1.1425267 3.7138412 -0.64778703
-1.1905506 3.8699453 -0.45129919
-2.8314848 9.2038851 -0.53787154
-4.7376275 15.399899 0
-4.7399454 15.407434 0.90040457
-1.1530845 3.7321084 -0.86533505
-1.1523156 3.7296195 -0.65078157
-1.8037157 5.8379607 -0.68105578
-3.9570668 12.807562 -0.74874794
-4.753159 15.384217 0
-4.7623935 15.414106 0.90113014
-1.1553335 3.7234297 -0.86364585
-1.7501767 5.6405005 -0.98457962
-1.8038707 5.8135467 -0.67846143
-3.9586802 12.758105 -0.74613571
-4.7779112 15.398338 0
-4.7817845 15.41082 0.90127516
-1.154565 3.7130258 -0.86139435
-1.7383394 5.590416 -0.97602028
-1.8066154 5.809988 -0.67817342
-3.9586732 12.730903 -0.74468458
-4.7903047 15.40539 0
-4.7941799 15.417853 0.90185571
-1.158294 3.7092049 -0.86083198
-1.7435641 5.5834155 -0.97516519
-1.8097801 5.7954588 -0.67673224
-1.7628385 5.6451378 -0.33033243
-4.8244305 15.449274 0
-4.816678 15.424449 0.90258127
-1.1604933 3.700527 -0.85914278
-1.7510768 5.5837517 -0.97559273
-1.2278277 3.9152396 -0.45735306
-1.7486668 5.576067 -0.32641408
-4.8368645 15.423568 0
-4.8337584 15.413663 0.90229124
-1.1649638 3.699122 -0.85914278
-1.7524239 5.5644898 -0.97259653
-1.2333337 3.9162178 -0.45764109
-3.2492745 10.317456 -0.60419679
-4.8554974 15.417711 0
-4.8547187 15.415239 0.90272623
-1.1656024 3.6856008 -0.8563289
-1.7699846 5.5966392 -0.97858894
-1.2396232 3.9196522 -0.45821711
-3.271924 10.345728 -0.60608351
-4.8725548 15.406876 0
-4.8764753 15.419272 0.90330684
-1.1669785 3.6745028 -0.85407734
-1.1839041 3.7277968 -0.65206593
-1.2380952 3.8984301 -0.45591077
-3.2797017 10.326902 -0.60521239
-3.2755759 10.313911 0
-4.8982491 15.423275 0.90388739
-1.1729602 3.677927 -0.85520202
-1.1759278 3.6872323 -0.64521843
-1.2459483 3.9067881 -0.45706394
-3.2858644 10.303137 -0.60405183
-3.2745938 10.267797 0
-4.9176736 15.419827 0.90403295
-1.1781806 3.6789339 -0.85576653
-1.1702048 3.6540291 -0.63965529
-1.2427809 3.8806522 -0.45418158
-3.2951412 10.28926 -0.60347128
-3.2798553 10.241529 0
-4.9410553 15.428718 0.90490347
-1.1810677 3.6726651 -0.85463971
-1.1824795 3.6770551 -0.64393574
-1.2498453 3.8865368 -0.45504674
-3.3027968 10.270425 -0.60260016
-3.2874458 10.222689 0
-4.9604888 15.425207 0.90504849
-1.1886277 3.6809072 -0.85689121
-1.1908652 3.6878357 -0.64607519
-1.2537434 3.8825555 -0.4547576
-3.3176005 10.273847 -0.60303569
-3.2957976 10.206328 0
-4.980722 15.424152 0.90533906
-1.2001272 3.7012191 -0.86195666
-1.1858188 3.6570911 -0.64093959
-1.2472664 3.8465972 -0.45072207
-3.3324172 10.277248 -0.60347128
-3.3009038 10.18006 0
-5.0017576 15.425531 0.90577406
-1.1990913 3.6828516 -0.85801595
-1.1830848 3.6336894 -0.6370883
-1.2471104 3.8303356 -0.44899288
-3.3343756 10.241096 -0.60158455
-3.3107841 10.168638 0
-5.0244174 15.431837 0.90650016
-1.1924882 3.647593 -0.85013664
-1.1978438 3.6639748 -0.64265144
-1.2477168 3.8165267 -0.44755057
-3.3564336 10.266688 -0.60332566
-3.3174069 10.147312 0
-5.0430603 15.425756 0.90650016
-1.2087827 3.682364 -0.85858041
-1.181455 3.5991149 -0.6315251
-1.2491037 3.8051958 -0.4463985
-1.8364002 5.5943012 -0.32888129
-3.3272326 10.135885 0
-5.0633149 15.424583 0.90679014
-1.215615 3.6881335 -0.86026746
-1.1914258 3.6147439 -0.63451964
-1.2553184 3.8085918 -0.44697455
-1.8521067 5.6192269 -0.33047798
-3.3345878 10.117023 0
-5.0827613 15.420919 0.90693516
-1.2184755 3.6818421 -0.85914278
-1.1780505 3.5596907 -0.6251052
-1.2656085 3.8242633 -0.44899288
-1.8417517 5.5651827 -0.32743019
-3.3451762 10.108049 0
-5.1062908 15.429573 0.90780628
-1.2221229 3.6779583 -0.85858041
-1.1904471 3.5826304 -0.62938571
-1.2645186 3.8055472 -0.44697455
-1.8517523 5.5728168 -0.32801074
-3.3573873 10.104 0
-5.1273861 15.430782 0.90824127
-1.2193297 3.6547885 -0.85351503
-1.1996481 3.5957954 -0.6319527
-1.2494705 3.7451315 -0.44005552
-1.8527273 5.553319 -0.32699463
-3.3679447 10.094994 0
-5.1460276 15.424575 0.90824127
-1.218901 3.6388519 -0.85013664
-1.2023629 3.5894797 -0.63109756
-1.2622116 3.7681494 -0.44293901
-1.8520089 5.5289035 -0.32568851
-3.3784885 10.085986 0
-5.1679626 15.428202 0.90882182
-1.2281584 3.6518312 -0.85351503
-1.1927888 3.546663 -0.62382251
-1.2510977 3.7200396 -0.43746117
-1.8537167 5.5118794 -0.32481739
-3.3931625 10.089299 0
-5.1899142 15.431797 0.90940237
-1.2220035 3.619051 -0.84619802
-1.1970735 3.5452192 -0.62382251
-1.2597282 3.7307756 -0.43890235
-1.8512337 5.4825621 -0.3232213
-3.4061828 10.087655 0
-5.2118816 15.435363 0.90998298
-1.2271905 3.6199758 -0.84676039
-1.1964096 3.5291784 -0.62125391
-1.2575951 3.7096636 -0.43659711
-1.85452 5.4704776 -0.32264072
-3.4166965 10.078598 0
-5.2313652 15.431522 0.91012853
-0 0 -0
-1.195712 3.5131538 -0.61868691
-1.2545738 3.6860974 -0.43400165
-1.8443841 5.419035 -0.31973794
-3.429713 10.076933 0
-5.2491679 15.422723 0.90998298
-0 0 -0
-1.2074257 3.5335667 -0.62253821
-1.2590268 3.6845789 -0.43400165
-1.8206867 5.3282928 -0.31451347
-3.4427271 10.075242 0
-5.2703209 15.423748 0.91041851
-0 0 -0
-1.2150264 3.5418179 -0.62425011
-1.271034 3.7050805 -0.43659711
-1.7950848 5.2326956 -0.30899847
-3.4591203 10.083381 0
-5.290638 15.422279 0.91070849
-1.1718644 3.4025993 -0.79722869
-1.2076006 3.5063622 -0.6182577
-1.2856135 3.7328789 -0.44005552
-1.7853287 5.1838408 -0.30624068
-3.4763846 10.093953 0
-5.3151927 15.433076 0.91172463
-1.175975 3.401181 -0.79722869
-1.2051289 3.4855008 -0.61483562
-1.2622358 3.6506662 -0.43054327
-1.798384 5.2013264 -0.30740178
-3.4902811 10.094668 0
-5.3355365 15.431559 0.9120152
-1.1979934 3.4446352 -0.80792189
-1.2232481 3.5172508 -0.62082636
-1.2688503 3.6483724 -0.43054327
-1.8035412 5.1857891 -0.30667621
-3.5094256 10.090782 0
-5.367764 15.434132 0.91274077
-1.2046682 3.4503841 -0.80961108
-1.2122676 3.4721501 -0.61312377
-1.2732577 3.6468368 -0.43054327
-1.8106617 5.1860571 -0.30682123
-3.5284786 10.106191 0
-5.3855534 15.425183 0.91259575
-1.1995939 3.4225562 -0.80342096
-1.2181587 3.4755232 -0.61397886
-1.2836494 3.6623747 -0.43256047
-1.8134887 5.1740565 -0.30624068
-3.5449908 10.114198 0
-5.4024673 15.413755 0.91230518
-1.2163763 3.4570503 -0.81186265
-1.2206548 3.4692104 -0.61312377
-1.2794907 3.6364272 -0.42967811
-1.8197392 5.1718616 -0.30624068
-3.5606644 10.119726 0
-5.4098768 15.375354 0.91041851
-0 0 -0
-1.2171676 3.4459946 -0.80961108
-1.2197144 3.4532051 -0.61055511
-1.2847443 3.637315 -0.42996612
-1.8164701 5.142715 -0.30464455
-3.5763564 10.125233 0
-5.4102783 15.317356 0.90737075
-1.2153858 3.4277554 -0.80567032
-1.2316062 3.4735019 -0.61440641
-1.2951897 3.6528268 -0.43198445
-1.8261563 5.1503124 -0.3052251
-3.592067 10.130715 0
-5.4096799 15.256933 0.90417796
-1.2212323 3.4310765 -0.80679721
-1.2340823 3.4671788 -0.61355132
-1.2969998 3.6439466 -0.43111929
-1.8288927 5.1383104 -0.30464455
-3.6112869 10.145982 0
-5.4045844 15.184287 0.90025902
-1.2262313 3.4319887 -0.80735952
-1.229632 3.4415066 -0.60927081
-1.2970514 3.6302006 -0.42967811
-1.8333498 5.1311979 -0.30435398
-3.6340516 10.171021 0
-5.4115629 15.145937 0.89837235
-1.2338085 3.4400716 -0.80961108
-1.2346586 3.4424417 -0.60970002
-1.3084224 3.6481078 -0.43198445
-1.8351631 5.1167521 -0.30362844
-3.6542451 10.188667 0
-5.3982825 15.051345 0.89314789
-1.2371044 3.4361899 -0.80904871
-1.2301199 3.4167895 -0.60541952
-1.2953067 3.5978527 -0.4262186
-1.8448652 5.12431 -0.30420899
-4.2078056 11.687631 0
-5.412065 15.032589 0.89242232
-1.2378012 3.4251339 -0.80679721
-1.2359942 3.4201338 -0.60627627
-1.3145965 3.6376352 -0.43111929
-1.8519379 5.1245189 -0.30435398
-4.191853 11.599324 0
-5.4240422 15.00893 0.89140624
-1.2488706 3.4427445 -0.81130028
-1.2348717 3.4041541 -0.60370767
-1.3172286 3.631186 -0.43054327
-1.8545841 5.1125064 -0.30377343
-4.2067518 11.596695 0
-5.440403 14.997484 0.8911162
-1.2547667 3.4460034 -0.81242496
-1.2468915 3.4243758 -0.60756058
-1.3163038 3.6150048 -0.42881295
-1.86254 5.1151495 -0.30406401
-4.2154202 11.576936 0
-5.4611855 14.998218 0.8915512
-1.2571868 3.4397166 -0.81130028
-1.2448589 3.4059868 -0.60456443
-1.3215579 3.6158385 -0.42910096
-1.8669336 5.1080098 -0.30377343
-4.1731248 11.417847 0
-5.4793038 14.991608 0.8915512
-1.249092 3.4048033 -0.80342096
-1.2533933 3.4165277 -0.60670382
-1.3268194 3.6166744 -0.4293901
-1.8802638 5.1252661 -0.30493456
-0 0 0
-5.4992056 14.98986 0.89184177
-1.2567137 3.4128199 -0.80567032
-1.2530861 3.4029684 -0.60456443
-1.3240384 3.5956514 -0.42708376
-1.8864553 5.1229901 -0.30493456
-0 0 0
-5.5137224 14.973451 0.89126122
-1.2678837 3.4303656 -0.81017345
-1.261646 3.4134889 -0.60670382
-1.328382 3.5940487 -0.42708376
-1.8944476 5.1255865 -0.3052251
-0 0 0
-5.532711 14.969213 0.89140624
-1.2570045 3.388335 -0.80060494
-1.2621981 3.4023347 -0.60499197
-1.330024 3.5851638 -0.4262186
-1.8970243 5.1135488 -0.30464455
-4.1685195 11.236508 0
-5.5498915 14.960083 0.89126122
-1.2610977 3.3868136 -0.80060494
-1.2654133 3.3984036 -0.60456443
-1.3451856 3.6126409 -0.42967811
-1.9077344 5.123426 -0.30537012
-4.2093363 11.304626 0
-5.5588946 14.929009 0.88980955
-1.2660812 3.3876743 -0.80116946
-1.2704165 3.3992746 -0.60499197
-1.3477372 3.6061625 -0.42910096
-1.9130149 5.1186852 -0.3052251
-4.2339258 11.328785 0
-5.5814805 14.93446 0.89053565
-1.2710651 3.3885188 -0.80173177
-1.2763278 3.4025488 -0.60584873
-1.3357439 3.5609453 -0.42391226
-1.927411 5.1382642 -0.30653122
-4.2503543 11.330974 0
-0 0 0
-1.2706831 3.375093 -0.79891789
-1.2759132 3.3889849 -0.60370767
-1.3518921 3.5907943 -0.42765978
-1.9317853 5.131063 -0.30624068
-4.2612906 11.318521 0
-0 0 0
-1.272065 3.3664224 -0.79722869
-1.2772876 3.3802435 -0.60242498
-1.3589735 3.5964191 -0.42852494
-1.9434965 5.1433144 -0.30711177
-4.2758861 11.315804 0
-0 0 0
-1.274328 3.3601267 -0.79610187
-1.2768204 3.3666987 -0.60028559
-1.3605657 3.587517 -0.42765978
-1.9644489 5.1798263 -0.30943346
-4.2821732 11.291162 0
-0 0 0
-1.273653 3.3522372 -0.79441482
-1.2861446 3.3851151 -0.60370767
-1.3636507 3.5891099 -0.42794779
-4.0365944 10.624261 -0.63481969
-4.2825227 11.271542 0
-0 0 0
-1.2949011 3.3957977 -0.80510801
-1.2874926 3.3763697 -0.60242498
-1.3633795 3.5753782 -0.42650661
-4.047575 10.614515 -0.63452917
-4.2887211 11.246905 0
-0 0 0
-1.2772102 3.3372867 -0.79160094
-0 0 -0
-1.3852646 3.6196272 -0.43198445
-4.0538993 10.592636 -0.63351357
-4.282774 11.190675 0
-0 0 0
-1.2876166 3.3523378 -0.7955395
-0 0 -0
-1.3896372 3.6179509 -0.43198445
-4.0620341 10.575595 -0.63278747
-4.2906957 11.170919 0
-0 0 0
-1.2951344 3.3597763 -0.99343896
-1.2825289 3.3270755 -0.78991175
-0 0 -0
-1.382844 3.5873084 -0.42852494
-4.0523825 10.512499 -0.62930471
-4.2948279 11.141439 0
-0 0 0
-1.3000973 3.3605466 -0.99413049
-1.2975494 3.3539603 -0.79666632
-0 0 -0
-1.3797117 3.5663369 -0.4262186
-2.0203934 5.2223978 -0.3127718
-4.3101668 11.141101 0
-0 0 0
-1.2850456 3.3097501 -0.78653336
-0 0 -0
-1.389635 3.5791292 -0.42794779
-2.0276415 5.2223725 -0.31291682
-4.3151488 11.114052 0
-0 0 0
-1.2899691 3.3105693 -0.78709787
-0 0 -0
-1.3977149 3.5870876 -0.42910096
-2.040555 5.2368693 -0.31393293
-4.3380218 11.133075 0
-0 0 0
-1.3150125 3.3628235 -0.99620765
-1.2939683 3.3090084 -0.78709787
-0 0 -0
-1.3841535 3.5396347 -0.42362425
-4.0189257 10.277422 -0.61638796
-4.3618975 11.154489 0
-0 0 0
-1.3072461 3.3310907 -0.79272562
-0 0 -0
-1.4035475 3.5764832 -0.42823693
-4.0227985 10.250791 -0.61508185
-4.382978 11.168591 0
-5.5898848 14.243999 0.85468775
-1.3010273 3.3035007 -0.78653336
-0 0 -0
-1.4040768 3.5651584 -0.42708376
-4.0351815 10.245922 -0.61508185
-4.3964701 11.163287 0
-0 0 0
-1.3262725 3.3557036 -0.99551612
-1.2984831 3.2853918 -0.7825948
-0 0 -0
-1.4112329 3.5706685 -0.42794779
-4.0389605 10.219283 -0.61377519
-4.42239 11.189428 0
-0 0 0
-1.3312502 3.3564284 -0.99620765
-1.3043237 3.2885396 -0.78371948
-0 0 -0
-1.4107792 3.5569417 -0.42650661
-4.0407701 10.187833 -0.61217904
-4.443583 11.20343 0
-0 0 0
-1.3186069 3.3128655 -0.98375005
-1.3111162 3.2940459 -0.78540868
-0 0 -0
-1.4035981 3.526397 -0.4230471
-4.0444298 10.161218 -0.61087292
-4.4503794 11.181125 0
-0 0 0
-1.3244683 3.3159249 -0.98513305
-1.3132123 3.2877445 -0.784284
-0 0 -0
-1.4174539 3.5487227 -0.42593059
-4.0422459 10.120125 -0.60869569
-4.4764347 11.207155 0
-0 0 0
-1.3256729 3.3073337 -0.98305589
-1.3219098 3.2979455 -0.78709787
-0 0 -0
-1.4111544 3.5205963 -0.42275909
-4.0438395 10.088709 -0.60709959
-4.4938464 11.211401 0
-0 0 0
-1.3146924 3.2684979 -0.97198397
-1.3154626 3.2704127 -0.7809056
-0 0 -0
-1.4298865 3.5548854 -0.42708376
-4.0424495 10.05006 -0.60506737
-4.5005903 11.189059 0
-0 0 0
-1.3223932 3.2762036 -0.97474992
-1.3298757 3.2947414 -0.78709787
-0 0 -0
-1.4438601 3.5771351 -0.42996612
-4.0477848 10.028309 -0.60405183
-4.2472157 10.522394 0
-0 0 0
-1.3159935 3.249032 -0.96713817
-1.3281306 3.2789972 -0.78371948
-0 0 -0
-1.4423571 3.5610087 -0.42823693
-4.0511169 10.001728 -0.60274512
-4.2540665 10.502787 0
-0 0 0
-1.3038604 3.2079318 -0.9553721
-1.3215703 3.2515039 -0.77752936
-0 0 -0
-1.4388676 3.5400944 -0.42593059
-4.0543942 9.9751625 -0.601439
-4.2628345 10.487995 0
-0 0 0
-1.3077356 3.2063539 -0.9553721
-1.3283741 3.2569561 -0.77921641
-0 0 -0
-1.4587728 3.5766723 -0.43054327
-4.056633 9.9462013 -0.59998792
-4.3216949 10.596089 0
-0 0 0
-1.3059056 3.190836 -0.95121777
-1.329424 3.2483008 -0.77752936
-0 0 -0
-1.4444784 3.5294232 -0.42506543
-4.0568376 9.9124336 -0.59824622
-4.4429226 10.85579 0
-0 0 0
-1.3021393 3.1706991 -0.94568312
-1.3458955 3.277245 -0.78484631
-0 0 -0
-1.4408813 3.5085347 -0.42275909
-4.0599284 9.8858948 -0.5969401
-4.4520817 10.840784 0
-0 0 0
-1.296409 3.1459236 -0.93876022
-1.3421096 3.2568226 -0.78034323
-0 0 -0
-1.4549762 3.5307095 -0.42564255
-4.0659323 9.8665714 -0.59606957
-2.1301413 5.169095 0
-5.5647159 13.503585 0.81579262
-1.3222595 3.1976798 -0.95468056
-1.3518677 3.2692823 -0.78371948
-0 0 -0
-1.4513345 3.5098274 -0.42333624
-4.0619645 9.8232317 -0.59374732
-2.1652246 5.2362599 0
-5.5432982 13.405608 0.81027758
-1.2992277 3.1366131 -0.93668306
-1.3421743 3.2402952 -0.77696484
-0 0 -0
-1.3297338 3.2102616 -0.38730106
-4.0529819 9.7847633 -0.59157008
-2.1564364 5.2060981 0
-5.5255446 13.339845 0.80650425
-1.286649 3.0956602 -0.92491698
-1.3519416 3.2527535 -0.78034323
-0 0 -0
-1.2919208 3.1083443 -0.37519333
-4.062809 9.7750645 -0.5912801
-2.1737137 5.2299261 0
-5.5356731 13.318757 0.80563313
-1.3338424 3.1982975 -0.95606357
-1.3451116 3.2253189 -0.77415097
-0 0 -0
-1.2747695 3.0566521 -0.36913946
-4.0636144 9.7437658 -0.58968341
-2.1640036 5.1888642 0
-5.544764 13.295278 0.80461752
-1.2999388 3.1064322 -0.92907125
-1.3568547 3.2424428 -0.77865404
-0 0 -0
-1.2824558 3.0646536 -0.37029263
-4.0593357 9.7004957 -0.58736122
-2.1702716 5.1862454 0
-5.5507922 13.264593 0.80316585
-1.3250571 3.1557436 -0.94429749
-1.3588061 3.23612 -0.77752936
-0 0 -0
-1.295169 3.0845625 -0.37288699
-4.06703 9.6859999 -0.58678061
-4.2378631 10.092855 0
-5.5477052 13.212362 0.80040866
-1.32205 3.1379545 -0.93945169
-1.3627154 3.2344756 -0.77752936
-0 0 -0
-1.2858412 3.052011 -0.36913946
-4.0746951 9.6715002 -0.58620006
-4.2823892 10.164474 0
-5.5576105 13.191278 0.79953754
-1.316074 3.1132512 -0.93253142
-1.37058 3.2421882 -0.77978086
-0 0 -0
-1.2935565 3.0599847 -0.37029263
-4.0853672 9.6641788 -0.5860551
-4.286561 10.140115 0
-5.5522995 13.134294 0.79648972
-1.2933875 3.0493064 -0.913845
-0 0 -0
-0 0 -0
-1.287155 3.0346124 -0.36741027
-0 0 -0
-4.2225957 9.9552431 0
-5.5641069 13.118007 0.79590917
-1.3206455 3.1031344 -0.93045425
-0 0 -0
-0 0 -0
-1.2857575 3.0211577 -0.36596909
-4.1056561 9.6471033 -0.58561951
-0 0 0
-5.5596066 13.063464 0.79300696
-1.3312916 3.1176891 -0.93530005
-1.3853142 3.2442024 -0.78146791
-0 0 -0
-1.3107364 3.0695522 -0.37202296
-4.1234345 9.6564779 -0.58649063
-0 0 0
-5.5835505 13.075855 0.79416806
-1.3123366 3.0630462 -0.91938233
-1.3782289 3.2168415 -0.77527779
-0 0 -0
-1.3205541 3.0822265 -0.37375215
-4.1422639 9.66821 -0.58750677
-4.2617307 9.9470501 0
-5.6146927 13.104918 0.79634476
-1.3328791 3.1006382 -0.93114841
-1.3791034 3.2081685 -0.7735886
-0 0 -0
-1.3835211 3.2184455 -0.39047256
-4.1508632 9.6560335 -0.58707118
-4.3446598 10.106857 0
-0 0 0
-1.3247018 3.0713818 -0.92284244
-1.3839842 3.2088308 -0.77415097
-0 0 -0
-1.3597506 3.1526442 -0.38268837
-4.1728168 9.6748667 -0.58852232
-4.4207697 10.249758 0
-0 0 0
-1.3343881 3.0835891 -0.92699409
-1.392905 3.2188134 -0.77696484
-0 0 -0
-1.3871859 3.2055976 -0.38931939
-4.1783137 9.6555138 -0.58765173
-4.4372859 10.253963 0
-0 0 0
-1.3418361 3.0803554 -0.92699409
-1.3895203 3.1898205 -0.77077472
-0 0 -0
-1.3112646 3.0101748 -0.36596909
-4.214088 9.673975 -0.58939344
-4.4558144 10.228889 0
-0 0 0
-1.3415383 3.0695364 -0.92422545
-1.3964272 3.1951263 -0.77246392
-0 0 -0
-1.2962542 2.9659233 -0.36077926
-4.2340989 9.6879234 -0.59055454
-4.4900565 10.273574 0
-5.6981091 13.037685 0.7947486
-1.3392035 3.0541322 -0.92007381
-0 0 -0
-0 0 -0
-1.2904899 2.9430382 -0.3581849
-4.2437129 9.6780367 -0.59026396
-4.4899259 10.23954 0
-5.7075958 13.016508 0.79387748
-1.3610752 3.093842 -0.93253142
-1.4041445 3.1917422 -0.77246392
-0 0 -0
-1.2940451 2.9414768 -0.3581849
-4.2533131 9.6681499 -0.58997399
-4.5064869 10.243636 0
-5.6835599 12.919225 0.7883625
-1.3627884 3.0876093 -0.93114841
-1.4038961 3.1807451 -0.77021241
-0 0 -0
-1.2788011 2.8973231 -0.3529962
-4.270237 9.6748867 -0.59069955
-5.4446282 12.335653 0
-5.6708398 12.84817 0.78444415
-1.3563584 3.0630169 -0.92422545
-1.4077383 3.1790464 -0.77021241
-0 0 -0
-1.2854438 2.902873 -0.35386136
-4.2787666 9.66259 -0.59026396
-5.4479375 12.302887 0
-5.6842542 12.836553 0.78415358
-1.3559842 3.0522048 -0.92145681
-1.415705 3.1866314 -0.77246392
-0 0 -0
-1.3046992 2.9367666 -0.3581849
-4.2988787 9.6764097 -0.59142512
-5.4511752 12.270131 0
-5.6955404 12.820176 0.78357303
-1.3658011 3.0643175 -0.92561114
-1.4216212 3.1895556 -0.7735886
-0 0 -0
-1.3008789 2.9186575 -0.3561677
-4.3190303 9.690196 -0.59258622
-5.4501081 12.227886 0
-5.6898742 12.765826 0.78067082
-1.3797418 3.0855627 -0.93253142
-1.4161402 3.1669617 -0.76852322
-0 0 -0
-0 0 -0
-4.3275528 9.6778517 -0.59215063
-5.4500084 12.188036 0
-5.6458955 12.626104 0.77254301
-1.3672509 3.0526783 -0.92284244
-1.4284375 3.1892905 -0.77415097
-0 0 -0
-0 0 -0
-4.3355255 9.6799822 -0.5924412
-5.4467306 12.160985 0
-5.6577711 12.632177 0.77312356
-1.3627125 3.0327172 -0.91730517
-1.4156274 3.1504793 -0.76514482
-0 0 -0
-1.3202885 2.9383028 -0.35905007
-4.3514786 9.6842175 -0.59302175
-5.4539571 12.137784 0
-5.6581225 12.592154 0.77109188
-1.3849322 3.0722322 -0.92976278
-1.4319637 3.1765635 -0.7718994
-0 0 -0
-1.3280897 2.9461372 -0.36020324
-4.3610392 9.6742105 -0.59273124
-5.4493656 12.088474 0
-5.659452 12.554515 0.76920521
-1.4103516 3.1185577 -0.94429749
-1.4358009 3.1748309 -0.7718994
-0 0 -0
-1.3231221 2.9256768 -0.35789689
-4.378078 9.680769 -0.59345675
-5.455389 12.062911 0
-5.6649823 12.526361 0.7678991
-1.3809536 3.0437522 -0.92215097
-1.4490833 3.1939166 -0.77696484
-0 0 -0
-1.327724 2.926429 -0.3581849
-4.3951387 9.6873016 -0.59418231
-5.4645858 12.044463 0
-5.6575694 12.469817 0.76485127
-1.3929408 3.0603395 -0.92768562
-1.438207 3.159791 -0.76908553
-0 0 -0
-1.3259026 2.9130545 -0.35674372
-4.4068408 9.6819839 -0.59418231
-5.4683557 12.014169 0
-5.6780138 12.474794 0.76557684
-1.3903872 3.044966 -0.92353398
-1.4462456 3.1672964 -0.77133709
-1.4337569 3.1399462 -0.57546431
-1.3261974 2.9043894 -0.35587856
-4.4185367 9.676652 -0.59418231
-5.458005 11.953101 0
-5.6693401 12.415928 0.76238406
-1.4212285 3.1025815 -0.94152886
-1.4447815 3.1539984 -0.76852322
-1.426857 3.1148684 -0.5711838
-1.3426319 2.9310029 -0.35933807
-4.4302258 9.6713057 -0.59418231
-5.4681082 11.937033 0
-5.6832571 12.406709 0.76223904
-1.4029784 3.0529928 -0.92699409
-1.4528354 3.1614854 -0.77077472
-1.4338363 3.120142 -0.5724681
-1.3472515 2.9317265 -0.35962608
-4.4516764 9.6872025 -0.59548903
-5.4684019 11.899677 0
-5.6982441 12.399833 0.76223904
-1.4171716 3.0740829 -0.93391705
-1.4534621 3.1528029 -0.76908553
-1.4279339 3.0974281 -0.56861681
-1.3551244 2.939492 -0.36077926
-4.4688168 9.6936131 -0.59621453
-5.4664359 11.857616 0
-5.7110448 12.388214 0.76194853
-1.4166727 3.0632601 -0.93114841
-1.4594058 3.1556613 -0.77021241
-1.4230552 3.0770607 -0.56519306
-1.3684454 2.9589784 -0.36337361
-4.4794364 9.6858501 -0.59606957
-5.4763899 11.841554 0
-5.6943798 12.312912 0.7577396
-1.4203731 3.0615461 -0.93114841
-1.4664227 3.1608038 -0.7718994
-1.4397365 3.1032829 -0.57032865
-1.3687572 2.9502907 -0.36250958
-4.4955068 9.6898499 -0.59664953
-5.4720755 11.794797 0
-5.6851969 12.25417 0.75454682
-1.4145411 3.0393505 -0.92491698
-1.4670274 3.1521254 -0.77021241
-1.4207395 3.0526688 -0.56134176
-1.3745018 2.9533203 -0.3630856
-4.5050211 9.6797037 -0.59635955
-5.4885173 11.792891 0
-5.6703997 12.183692 0.75062847
-1.4256427 3.0535538 -0.92976278
-1.4686832 3.1457412 -0.76908553
-1.4124801 3.0253611 -0.55663371
-1.3693157 2.9329081 -0.36077926
-4.5299048 9.702507 -0.59810126
-5.4917555 11.762673 0
-5.6807203 12.167413 0.75004792
-1.4357178 3.065465 -0.93391705
-1.476794 3.1531684 -0.77133709
-1.4422657 3.0794458 -0.56690496
-1.3629863 2.9101729 -0.3581849
-4.5361156 9.6852627 -0.59737569
-5.4982362 11.739529 0
-5.6843948 12.137004 0.74859625
-1.4287506 3.0410171 -0.92699409
-1.4860042 3.1628783 -0.77415097
-1.450352 3.0869944 -0.56861681
-1.3643042 2.9038463 -0.35760888
-4.5489192 9.6821241 -0.59752065
-4.5762253 9.7402439 0
-5.6979518 12.127777 0.74845123
-1.4367023 3.0483658 -0.92976278
-1.4800767 3.1403968 -0.76908553
-1.4256284 3.0248697 -0.55749047
-1.366706 2.8998494 -0.35731974
-4.5628281 9.6813173 -0.59781069
-0 0 0
-5.6948771 12.083276 0.74612898
-1.4478916 3.0625064 -0.93460858
-1.4860443 3.1432047 -0.77021241
-1.4479339 3.0625958 -0.56476551
-1.3514163 2.8584466 -0.35241905
-4.5811887 9.6898956 -0.59868181
-4.6075377 9.7456284 0
-0 0 0
-1.4354645 3.026751 -0.92422545
-1.484394 3.1299212 -0.76739633
-1.4560335 3.0701218 -0.56647736
-4.5973477 9.6937447 -0.59926236
-4.6115026 9.7235918 0
-0 0 0
-1.4628296 3.0748501 -0.93945169
-1.4936358 3.1396043 -0.77021241
-1.4674586 3.0845804 -0.5694719
-4.6124029 9.6952152 -0.59969735
-5.489687 11.539256 0
-0 0 0
-1.4589834 3.0572379 -0.93460858
-1.4996148 3.1423793 -0.77133709
-1.4722935 3.0851283 -0.56990111
-4.6274729 9.6966724 -0.60013288
-5.4912953 11.506776 0
-0 0 0
-1.4540105 3.0373697 -0.92907125
-1.5023147 3.1382754 -0.77077472
-1.4682602 3.0671368 -0.56690496
-4.6447945 9.7027903 -0.60085845
-5.4962049 11.481353 0
-0 0 0
-1.4620234 3.044657 -0.93183988
-1.5039037 3.1318724 -0.7696479
-0 0 -0
-4.6610146 9.7065411 -0.601439
-5.4931746 11.43951 0
-0 0 0
-1.4678766 3.0474043 -0.93322289
-1.5176097 3.1506534 -0.77471328
-1.4734421 3.0589585 -0.56604981
-4.6761236 9.7079268 -0.60187459
-5.50248 11.423495 0
-0 0 0
-1.4639207 3.0298223 -0.92837977
-1.5158895 3.1373804 -0.7718994
-1.4749014 3.0525489 -0.56519306
-4.6867208 9.6999321 -0.60172957
-5.4981637 11.379345 0
-0 0 0
-1.47086 3.0348177 -0.93045425
-1.5207907 3.1378393 -0.77246392
-1.5020992 3.0992734 -0.57417995
-4.6984377 9.6942625 -0.60172957
-5.4937482 11.335222 0
-0 0 0
-1.4661222 3.0203912 -0.92630261
-1.5237947 3.1392038 -0.77302629
-0 0 -0
-4.7110996 9.7054434 -0.60260016
-5.4835477 11.296781 0
-0 0 0
-1.4730664 3.0253866 -0.92837977
-1.5242486 3.1305046 -0.77133709
-0 0 -0
-4.7251005 9.7044201 -0.60289067
-5.4983363 11.292493 0
-0 0 0
-1.4921325 3.0551598 -0.93806869
-1.529144 3.1309414 -0.7718994
-0 0 -0
-4.7356796 9.6963625 -0.60274512
-5.4868479 11.234389 0
-0 0 0
-1.4814759 3.0240686 -0.92907125
-1.5318093 3.1268117 -0.77133709
-1.4496924 2.9591901 -0.54935873
-4.7576838 9.7116413 -0.60405183
-5.4843917 11.195036 0
-0 0 0
-1.49066 3.0335321 -0.93253142
-1.5423077 3.1386371 -0.77471328
-1.4759097 3.003515 -0.55791801
-4.7671208 9.7012167 -0.60376126
-5.4841413 11.160373 0
-0 0 0
-1.4876715 3.0182316 -0.92837977
-1.5517191 3.1481731 -0.77752936
-1.4069071 2.8543742 -0.5305298
-4.7799873 9.6977777 -0.60390627
-5.4872684 11.132731 0
-0 0 0
-1.4890915 3.0119295 -0.92699409
-1.5487632 3.1326251 -0.77415097
-1.3932884 2.8181522 -0.52410984
-4.7928567 9.6943312 -0.60405183
-5.4949503 11.11443 0
-0 0 0
-1.5049912 3.0348537 -0.93460858
-1.5559348 3.1375828 -0.77584016
-1.3579183 2.7382772 -0.50955981
-4.8103375 9.7001705 -0.6047774
-5.4933462 11.077475 0
-0 0 0
-1.5108895 3.0375211 -0.93599153
-1.5619859 3.1402459 -0.77696484
-1.3692299 2.7527258 -0.51255596
-1.4245816 2.864006 -0.17866962
-5.505569 11.068501 0
-0 0 0
-1.4999996 3.0065119 -0.92699409
-1.5714542 3.1497312 -0.77978086
-1.3588026 2.7235048 -0.50742036
-1.4303635 2.8669374 -0.17896017
-5.5003495 11.02458 0
-0 0 0
-1.504753 3.0069387 -0.92768562
-1.5752589 3.14783 -0.77978086
-1.3632401 2.7241542 -0.50784791
-1.438478 2.8745017 -0.17954074
-5.500854 10.992323 0
-0 0 0
-1.5241435 3.0365131 -0.93737721
-1.5790612 3.1459243 -0.77978086
-1.3607739 2.711036 -0.50570852
-1.4466128 2.8820508 -0.18012129
-5.4966235 10.950786 0
-0 0 0
-1.5278113 3.0346692 -0.93737721
-1.592002 3.1621702 -0.784284
-1.3594313 2.7002182 -0.50399661
-1.4465877 2.8733358 -0.17968574
-5.5040007 10.932516 0
-0 0 0
-1.5246898 3.0193799 -0.93322289
-1.594673 3.1579695 -0.78371948
-1.3661654 2.7054503 -0.50528097
-1.4430331 2.8576734 -0.17881517
-5.5066452 10.904943 0
-0 0 0
-1.5181361 2.9973948 -0.92699409
-1.6053783 3.1696451 -0.78709787
-1.3671159 2.6992218 -0.50442582
-1.4417887 2.8466554 -0.17823462
-5.5033574 10.865782 0
-0 0 0
-1.5194864 2.9910891 -0.92561114
-1.6046038 3.1586416 -0.78484631
-1.3854898 2.7273185 -0.50998902
-1.4569938 2.8680732 -0.17968574
-5.5011606 10.828962 0
-0 0 0
-1.536767 3.0160749 -0.93391705
-1.6176475 3.1748121 -0.78934938
-1.3759634 2.7004802 -0.50528097
-1.4307348 2.8079751 -0.35126588
-1.4557395 2.8570497 -0.17910518
-5.5047894 10.803757 0
-0 0 0
-1.5472579 3.0276153 -0.93806869
-1.6226377 3.1751156 -0.78991175
-1.3792255 2.6988158 -0.50528097
-1.4270668 2.7924299 -0.34953669
-1.4556421 2.848345 -0.17866962
-5.5190225 10.799413 0
-0 0 0
-1.5474809 3.0190437 -0.93599153
-1.6334249 3.1867154 -0.79328793
-1.3824854 2.6971471 -0.50528097
-1.4351591 2.7999103 -0.35068986
-1.4531575 2.8350244 -0.17794406
-5.5107017 10.751053 0
-0 0 0
-1.5431017 3.0015597 -0.93114841
-1.6442469 3.1983023 -0.79666632
-1.3845708 2.6931939 -0.50485337
-1.4314479 2.7843769 -0.34896067
-1.4601474 2.8402016 -0.17837963
-5.515358 10.728183 0
-0 0 0
-1.5352277 2.9773908 -0.92422545
-1.6597527 3.2188923 -0.80229414
-1.3878239 2.691519 -0.50485337
-1.4205868 2.7550588 -0.34550115
-1.4754844 2.8615258 -0.17983073
-5.514009 10.693762 0
-0 0 0
-1.5319117 2.9621675 -0.92007381
-1.6823161 3.2529957 -0.81130028
-1.3887144 2.6852753 -0.50399661
-1.4405465 2.7854998 -0.34953669
-1.4825228 2.8666673 -0.18026629
-5.5257273 10.684773 0
-0 0 0
-1.4904429 2.8734672 -0.89308149
-1.6897564 3.2577293 -0.81298947
-1.396686 2.6927104 -0.50570852
-1.4427214 2.7814634 -0.34924868
-1.4788047 2.8510296 -0.17939518
-5.5134706 10.629577 0
-0 0 0
-1.4221311 2.7336802 -0.85016882
-1.6995536 3.2669535 -0.81580335
-1.398755 2.6887457 -0.50528097
-1.4365317 2.7613618 -0.34694234
-1.4786544 2.8423319 -0.17896017
-5.5179062 10.606752 0
-0 0 0
-1.4063938 2.6994448 -0.8397857
-1.7097417 3.2816937 -0.8197419
-1.4051236 2.6970067 -0.50699282
-1.4310316 2.7467346 -0.34521315
-1.4755689 2.8322201 -0.17837963
-5.5146937 10.584952 0
-0 0 0
-1.4038463 2.6866279 -0.83632559
-1.705472 3.2638679 -0.81580335
-1.403626 2.6862061 -0.50528097
-1.4439275 2.763334 -0.34751835
-1.4886172 2.8488591 -0.17954074
-5.5238624 10.571359 0
-0 0 0
-1.4047647 2.6804898 -0.83494258
-1.7176673 3.2775521 -0.8197419
-0 0 -0
-1.4472654 2.7615871 -0.34751835
-1.4884387 2.8401515 -0.17910518
-5.5330067 10.557759 0
-0 0 0
-1.4056659 2.6743448 -0.83355695
-1.7192643 3.2709804 -0.81861722
-1.3981721 2.6600876 -0.50100207
-1.4445854 2.7483912 -0.34607717
-1.4870336 2.8291507 -0.17852461
-5.5651326 10.587925 0
-0 0 0
-1.4109532 2.6687243 -0.83286542
-1.7117262 3.2376165 -0.81130028
-1.3985938 2.6453474 -0.49886101
-1.4451797 2.7334614 -0.34463599
-1.4938662 2.8255489 -0.17852461
-4.2746291 8.0851774 0
-0 0 0
-1.4071274 2.653723 -0.82871377
-1.3895056 2.6204898 -0.65707743
-1.4126158 2.6640737 -0.50271398
-1.4509071 2.7362878 -0.34521315
-1.5021483 2.8329244 -0.17910518
-4.2965894 8.1030035 0
-0 0 0
-1.4091516 2.6497993 -0.82801962
-1.3950593 2.6233001 -0.65820426
-1.4049824 2.6419599 -0.49886101
-1.4590654 2.7436585 -0.34636518
-1.5043514 2.8288152 -0.17896017
-4.3161526 8.116188 0
-0 0 0
-1.4123522 2.6480949 -0.82801962
-1.398228 2.6216125 -0.65820426
-1.4190497 2.6606522 -0.50271398
-1.4672483 2.7510223 -0.34751835
-1.5126597 2.8361664 -0.17954074
-4.3161588 8.092597 0
-0 0 0
-1.4096355 2.6353276 -0.82455951
-1.3953991 2.6087122 -0.65538824
-1.4101533 2.6362953 -0.49843347
-1.4705713 2.7492473 -0.34751835
-1.5026028 2.8091307 -0.17794406
-4.3296127 8.0942535 0
-0 0 0
-1.4092598 2.6269879 -0.82248235
-1.3973502 2.6047873 -0.65482587
-1.4279001 2.6617351 -0.50356907
-1.4702276 2.7406373 -0.34665433
-1.5145956 2.8233435 -0.17896017
-3.4351885 6.4035025 0
-0 0 0
-1.4064909 2.6142387 -0.81902218
-1.3968837 2.5963819 -0.65313667
-1.4165201 2.63288 -0.49843347
-1.4710847 2.7342989 -0.34607717
-1.520466 2.8260837 -0.17925018
-3.4453871 6.4039264 0
-0 0 0
-1.4227542 2.6368263 -0.82663661
-1.4024354 2.5991688 -0.65426356
-1.4245763 2.6402032 -0.50014532
-1.4768463 2.7370765 -0.34665433
-1.5263498 2.8288224 -0.17954074
-0 0 0
-0 0 0
-1.4092259 2.6042192 -0.8169477
-1.4092039 2.6041787 -0.65595275
-1.428986 2.6407354 -0.50057292
-1.4739988 2.7239182 -0.34521315
-1.521109 2.8109767 -0.17852461
-0 0 0
-0 0 0
-1.415958 2.6091232 -0.81902218
-1.4111341 2.6002343 -0.65538824
-1.4321758 2.6390069 -0.50057292
-1.4760518 2.7198553 -0.344924
-1.5257425 2.8114183 -0.17866962
-0 0 0
-0 0 0
-1.4095153 2.589782 -0.81348491
-1.4094163 2.5896003 -0.65313667
