# .PCD v0.7 - Point Cloud Data file format
VERSION 0.7
FIELDS x y z
SIZE 4 4 4
TYPE F F F
COUNT 1 1 1
WIDTH 1528
HEIGHT 1
VIEWPOINT 0 0 0 1 0 0 0
POINTS 1528
DATA ascii
-0.41385096 4.2679749 -0.94991809
-0.53388834 5.5058994 -0.92221725
-0.7522952 7.7582922 -0.86880422
-0.87052572 8.9775839 -0.50380546
-0.87898219 9.0647936 0
-2.127893 21.944597 1.2314905
-0.41702139 4.2472415 -0.94541502
-0.54079133 5.5078025 -0.92264485
-0.76065803 7.7470808 -0.86765105
-0.88035709 8.9661808 -0.50322491
-0.88891739 9.0533648 0
-2.1561847 21.960115 1.2325065
-0.42240414 4.2492604 -0.94597733
-0.54693866 5.5020409 -0.92178971
-0.77001834 7.7461562 -0.86765105
-0.89041895 8.9573507 -0.50278938
-0.89831179 9.0367508 0
-2.1832314 21.96266 1.2327965
-0.42855582 4.2588596 -0.9482289
-0.55409998 5.5064797 -0.92264485
-0.77989489 7.7503624 -0.86822706
-0.9002009 8.9459267 -0.50220877
-0.90897 9.0330715 0
-2.2102871 21.965172 1.2330866
-0.43370152 4.2583389 -0.9482289
-0.55893308 5.4879365 -0.91965032
-0.78925914 7.749414 -0.86822706
-0.91074657 8.9422503 -0.50206381
-0.91988403 9.0319672 0
-2.2405126 21.998682 1.2351187
-0.43936709 4.2628617 -0.94935358
-0.56714243 5.5025735 -0.92221725
-0.79941797 7.756176 -0.86909223
-0.92128474 8.9385605 -0.50191879
-0.92999601 9.0230799 0
-2.2678916 22.003716 1.2355543
-0.44030163 4.2219024 -0.94034958
-0.57192659 5.4840093 -0.9192211
-0.80744803 7.7423439 -0.86765105
-0.93100643 8.927103 -0.50133824
-0.94008785 9.0141821 0
-2.2955542 22.011286 1.2361344
-0.44726819 4.239048 -0.94428813
-0.57855254 5.483314 -0.9192211
-0.8170737 7.7439327 -0.86793905
-0.94288307 8.9363089 -0.50191879
-0.95016056 9.0052824 0
-2.3246036 22.031761 1.2374411
-0.45077243 4.22335 -0.94091195
-0.58490545 5.4800611 -0.91879356
-0.8261559 7.7403703 -0.86765105
-0.95340359 8.9325714 -0.50177324
-0.96021211 8.9963617 0
-2.3542557 22.05735 1.2390372
-0.45751101 4.2379546 -0.94428813
-0.59180182 5.4818997 -0.9192211
-0.83523065 7.7367973 -0.86736304
-0.9636389 8.9262514 -0.50148326
-0.97108179 8.9951954 0
-2.3803487 22.049328 1.2387471
-0.46014974 4.2146683 -0.93922275
-0.59926134 5.4888391 -0.9205054
-0.84485894 7.7383513 -0.86765105
-0.97442383 8.9250803 -0.50148326
-0.98194999 8.9940147 0
-2.4086807 22.061928 1.2396177
-0.46607873 4.2216883 -0.94091195
-0.60448486 5.4753556 -0.91836596
-0.85364038 7.7321777 -0.86707389
-0.98092997 8.8851528 -0.49930599
-0.99253148 8.9902372 0
-2.4376175 22.079664 1.2407788
-0.4728702 4.2362685 -0.94428813
-0.60967672 5.4618673 -0.91622657
-0.86212265 7.7234368 -0.86620986
-0.99253029 8.8917103 -0.49974155
-1.0031053 8.9864483 0
-2.4648707 22.081863 1.2410688
-0.4788436 4.2432714 -0.94597733
-0.61685103 5.4662237 -0.91708165
-0.87174404 7.724957 -0.86649787
-1.0038568 8.8956738 -0.50003213
-1.0125029 8.972291 0
-2.4941738 22.102114 1.2423755
-0.48224309 4.2275472 -0.94260114
-0.62403786 5.4705801 -0.91793841
-0.88019776 7.716186 -0.86563271
-1.0140151 8.889286 -0.49974155
-1.0227541 8.9658947 0
-2.5226445 22.114569 1.2432461
-0.41307402 3.5827322 -0.99501348
-0.48589495 4.2143331 -0.93978506
-0.63035268 5.4672647 -0.9175092
-0.89159465 7.7331057 -0.86765105
-1.0241607 8.8828964 -0.49945155
-1.0353748 8.9801598 0
-2.5514474 22.129578 1.2442622
-0.4918693 4.2213168 -0.94147426
-0.63695836 5.4664989 -0.9175092
-0.90093797 7.7320228 -0.86765105
-1.0345916 8.8790636 -0.49930599
-1.0444181 8.963397 0
-2.5775828 22.121311 1.2439716
-0.42231703 3.5867019 -0.99639648
-0.49578106 4.2106256 -0.93922275
-0.64386415 5.4682822 -0.91793841
-0.91088426 7.7360611 -0.86822706
-1.0444088 8.8700733 -0.498871
-1.0540305 8.9517899 0
-2.6058292 22.131081 1.2446972
-0.50236899 4.2226367 -0.94203663
-0.6498639 5.4623971 -0.91708165
-0.91931534 7.7272573 -0.86736304
-1.0554324 8.8713827 -0.49901602
-1.0666904 8.966011 0
-2.4873772 20.907518 1.1760497
-0.50747091 4.2220263 -0.94203663
-0.65615761 5.4590616 -0.91665411
-0.92587268 7.703021 -0.86476755
-1.066151 8.8701 -0.49901602
-1.076281 8.95438 0
-2.5120182 20.899343 1.1757597
-0.50910819 4.2141585 -0.94034958
-0.65976316 5.4612103 -0.91708165
-0.92990649 7.6973295 -0.86419153
-1.0711983 8.8668776 -0.498871
-1.083564 8.9692354 0
-2.5230863 20.884926 1.1750342
-0.43869722 3.5948451 -0.99916512
-0.51604599 4.2286687 -0.94372582
-0.6644963 5.4451251 -0.91451466
-0.94014674 7.7039051 -0.86505669
-1.0825404 8.8707304 -0.49916101
-1.0959768 8.9808331 0
-2.5464306 20.866381 1.174163
-0.52022231 4.2204742 -0.94203663
-0.67233139 5.4545093 -0.91622657
-0.94913739 7.7001891 -0.86476755
-1.0929406 8.8668394 -0.49901602
-1.1074637 8.984663 0
-2.5671918 20.827188 1.1721313
-0.4449051 3.5738676 -0.99363047
-0.52689189 4.2324572 -0.94485265
-0.67987204 5.461328 -0.9175092
-0.95684361 7.6862059 -0.86332637
-1.1033329 8.862936 -0.498871
-1.1170343 8.9729986 0
-2.5856149 20.769924 1.1690836
-0.448284 3.5658574 -0.99155331
-0.53200561 4.2318172 -0.94485265
-0.68551081 5.4528685 -0.91622657
-0.9635492 7.6645136 -0.86102003
-1.1146889 8.8667479 -0.49916101
-1.1294985 8.9845505 0
-2.6081166 20.746161 1.1679224
-0.4560667 3.5926826 -0.99916512
-0.53295785 4.1983953 -0.93753356
-0.69145185 5.446938 -0.91536981
-0.97346163 7.6684809 -0.86159718
-1.1257286 8.8679695 -0.49930599
-1.140025 8.9805899 0
-2.6286018 20.706909 1.1658908
-0.54352278 4.2406006 -0.94710422
-0.69770688 5.4435549 -0.91494226
-0.98239827 7.6647358 -0.86130917
-1.136443 8.8666029 -0.49930599
-1.1508754 8.9792061 0
-2.6496561 20.672791 1.164149
-0.54668927 4.2248163 -0.94372582
-0.70164841 5.4223413 -0.91151851
-0.99199051 7.6661057 -0.86159718
-1.1481565 8.8729572 -0.49974155
-1.1630602 8.9881325 0
-2.6709647 20.641224 1.1625524
-0.55376905 4.2392745 -0.94710422
-0.70786756 5.4189463 -0.91109097
-1.0002474 7.6572051 -0.86073202
-1.1585406 8.868989 -0.49959657
-1.1725713 8.9763985 0
-2.689846 20.591608 1.1599401
-0.47309789 3.5879517 -0.99847358
-0.5562337 4.2184496 -0.94260114
-0.71542186 5.4257245 -0.91237527
-1.0105135 7.6636863 -0.86159718
-1.1695956 8.8701563 -0.49974155
-1.1857985 8.9930391 0
-2.7086112 20.541977 1.1573279
-0.47776353 3.5898619 -0.99916512
-0.56334108 4.2328815 -0.94597733
-0.71859002 5.399405 -0.90809476
-1.0184081 7.652204 -0.86044401
-1.1816838 8.8790398 -0.5003221
-1.1970069 8.9941769 0
-2.7152624 20.402178 1.1496357
-0.48576412 3.5837295 -0.99778211
-0.57356864 4.2315078 -0.94597733
-0.73025692 5.3874774 -0.90638292
-1.0375916 7.6548419 -0.86102003
-1.2038362 8.8813124 -0.50061268
-1.2155931 8.96805 0
-2.7366395 20.189585 1.1380256
-0.48975435 3.5806565 -0.99709064
-0.58074647 4.2459116 -0.94935358
-0.73537457 5.3764176 -0.90467101
-1.0454382 7.643332 -0.85986686
-1.2145666 8.8798513 -0.50061268
-1.2292498 8.9872026 0
-2.7575107 20.160513 1.136574
-0.58518231 4.2401776 -0.9482289
-0.74116915 5.3704443 -0.90381593
-1.0564419 7.6548815 -0.86130917
-1.2260051 8.8835211 -0.50090265
-1.2404636 8.988286 0
-2.778672 20.134003 1.1352679
-0.49702203 3.5695233 -0.99432194
-0.59065539 4.241982 -0.94879127
-0.74978125 5.3847952 -0.90638292
-1.0667597 7.6612773 -0.8621732
-1.2378136 8.8897562 -0.50133824
-1.2520418 8.9919415 0
-2.7994151 20.104898 1.1338167
-0.50342798 3.5838218 -0.99847358
-0.59613371 4.2437787 -0.94935358
-0.7527169 5.358469 -0.90210402
-1.0742174 7.6471786 -0.86073202
-1.2507223 8.9036884 -0.50220877
-1.264354 9.0007305 0
-2.8208141 20.080915 1.1326556
-0.60161859 4.2455783 -0.94991809
-0.75883114 5.3550162 -0.90167648
-1.0834568 7.645875 -0.86073202
-1.2603858 8.8944502 -0.50177324
-1.2788794 9.0249586 0
-2.8392427 20.036329 1.1303334
-0.51208723 3.5825946 -0.99847358
-0.60495073 4.2322741 -0.94710422
-0.76966 5.3845901 -0.90681207
-1.089401 7.6215186 -0.85813767
-1.2729714 8.9057894 -0.50249934
-1.2905205 9.0285645 0
-2.859406 20.004585 1.1287367
-0.5157004 3.5770118 -0.99709064
-0.61187673 4.244112 -0.94991809
-0.77579826 5.3811083 -0.90638292
-1.100823 7.6355519 -0.85986686
-1.2844722 8.9093838 -0.50278938
-1.3029144 9.037302 0
-2.8794978 19.972834 1.1271406
-0.51821756 3.5639753 -0.99363047
-0.61554199 4.2333117 -0.94766653
-0.78193069 5.3776288 -0.90595531
-1.1089329 7.626545 -0.85900283
-1.2963586 8.9155416 -0.50322491
-1.3145815 9.0408669 0
-2.8976467 19.928198 1.1248183
-0.52507043 3.5807149 -0.99847358
-0.62323618 4.2501559 -0.95160514
-0.78693813 5.3665204 -0.90424347
-1.1170211 7.6175194 -0.85813767
-1.3101463 8.934536 -0.50438601
-1.3360771 9.111371 0
-2.9164467 19.888693 1.1227868
-0.52462614 3.547817 -0.98947614
-0.63023072 4.2619748 -0.95442116
-0.79304683 5.363029 -0.90381593
-1.1254672 7.611042 -0.85756052
-1.3228413 8.945797 -0.50511158
-1.3585057 9.1869802 0
-2.9355352 19.85174 1.1209
-0.62944555 4.238966 -0.94935358
-0.80005652 5.3879361 -0.90809476
-1.1312052 7.6180387 -0.85842568
-1.329391 8.9527092 -0.50554717
-1.3942513 9.3895082 0
-2.944092 19.826824 1.1195934
-0.5317992 3.5518274 -0.99086183
-0.63042945 4.2105675 -0.94316345
-0.80466598 5.3742743 -0.90595531
-1.1392599 7.6089897 -0.85756052
-1.3444389 8.9793568 -0.50714326
-1.4140745 9.4444456 0
-2.9607372 19.774433 1.1168361
-0.53833669 3.5660615 -0.99501348
-0.64120471 4.2474823 -0.95160514
-0.81039351 5.3682261 -0.90510023
-1.1515418 7.6280675 -0.85986686
-1.3572267 8.9905701 -0.50786883
-0 0 0
-2.9799743 19.740009 1.1150944
-0.54038101 3.5505319 -0.99086183
-0.64863116 4.2617807 -0.95498353
-0.81378937 5.34694 -0.90167648
-1.1588125 7.6138878 -0.85842568
-1.3735634 9.0248928 -0.50990105
-1.4353275 9.4307089 0
-2.9987416 19.703001 1.1132078
-0.54505086 3.5523536 -0.99155331
-0.65455014 4.2660122 -0.95610821
-0.82063842 5.3484879 -0.90210402
-1.1680115 7.6124821 -0.85842568
-1.4018052 9.1362257 -0.51628661
-1.4463258 9.4263878 0
-3.0170305 19.66341 1.1111761
-0.5524106 3.5715268 -0.99709064
-0.65659726 4.2451301 -0.95160514
-0.83023953 5.3677878 -0.90552777
-1.1772089 7.6110654 -0.85842568
-1.4434246 9.332242 -0.52746165
-1.4585111 9.4297819 0
-3.0364182 19.6315 1.1095794
-0.55131435 3.5361485 -0.98739904
-0.66290081 4.2518678 -0.95329434
-0.83474797 5.3541007 -0.90338838
-1.1852088 7.6019678 -0.85756052
-1.4615041 9.374135 -0.52992892
-1.4691014 9.4228649 0
-3.0497303 19.561069 1.1058061
-0.55636638 3.5404413 -0.98878467
-0.66764379 4.2485557 -0.95273197
-0.83962268 5.3429446 -0.90167648
-1.1939923 7.5979776 -0.85727251
-1.4744434 9.3826303 -0.53050947
-1.4792752 9.4133778 0
-3.0665066 19.513735 1.1033388
-0.56182164 3.5472023 -0.99086183
-0.67237979 4.2452388 -0.95216966
-0.84888786 5.3596673 -0.90467101
-1.2056005 7.6118622 -0.85900283
-1.4849672 9.3757143 -0.53021944
-1.4910551 9.4141512 0
-3.0872371 19.492048 1.1023227
-0.56452554 3.5366113 -0.9880932
-0.67830908 4.2494369 -0.95329434
-0.85455483 5.3535724 -0.90381593
-1.2139809 7.6052866 -0.85842568
-1.4950657 9.3662128 -0.5297839
-1.5016096 9.4072075 0
-1.7555321 10.99797 0.62208146
-0.5727821 3.5606911 -0.99501348
-0.68586528 4.2636704 -0.95667273
-0.86306113 5.3652058 -0.90595531
-1.2235799 7.6063657 -0.85871369
-1.5055573 9.359273 -0.52949393
-1.5125607 9.4028101 0
-1.7696443 11.000966 0.62237144
-0.57949197 3.5748503 -0.99916512
-0.68857634 4.2477851 -0.95329434
-0.87036562 5.3692322 -0.90681207
-1.2335984 7.6099925 -0.85929084
-1.5152019 9.347187 -0.52891332
-1.5247546 9.4061184 0
-1.7829355 10.99882 0.62237144
-0.57936347 3.5469191 -0.99155331
-0.69452846 4.2519703 -0.95442116
-0.87312698 5.3453679 -0.90295917
-1.2402902 7.5931759 -0.85756052
-1.5239809 9.329958 -0.5280422
-1.5369573 9.4094009 0
-1.7974812 11.004354 0.62280703
-0.58609253 3.5610645 -0.99570495
-0.69925177 4.2486134 -0.95385665
-0.88125277 5.3544407 -0.90467101
-1.2490444 7.5891218 -0.85727251
-1.5339885 9.320425 -0.5276072
-1.546635 9.3972654 0
-1.8120428 11.009868 0.62324256
-0.49534073 2.987133 -0.99840063
-0.58752328 3.543036 -0.99086183
-0.70480174 4.2502794 -0.95442116
-0.88982284 5.3660417 -0.90681207
-1.2586362 7.5901561 -0.85756052
-1.5422733 9.3006182 -0.52659112
-1.5562857 9.3851194 0
-1.8261942 11.012793 0.62353259
-0.59304291 3.5497398 -0.99293631
-0.71119177 4.2569356 -0.95610821
-0.89630604 5.3649626 -0.90681207
-1.268234 7.5911884 -0.85784966
-1.5522252 9.2910566 -0.52615553
-1.570627 9.4012032 0
-1.8459227 11.049024 0.62570977
-0.59316856 3.5242858 -0.98601604
-0.71338403 4.2385411 -0.95216966
-0.90065628 5.3512111 -0.90467101
-1.276975 7.5870924 -0.85756052
-1.5647447 9.2968645 -0.52659112
-1.5828484 9.4044266 0
-1.8666033 11.090343 0.62817705
-0.6003626 3.5408831 -0.99086183
-0.72147703 4.2552047 -0.95610821
-0.90798062 5.3551855 -0.90552777
-1.2865752 7.5881014 -0.85784966
-1.5751075 9.2898378 -0.52630055
-1.5942106 9.4025068 0
-1.8800024 11.08808 0.62817705
-0.50977236 2.984704 -0.99840063
-0.60759598 3.5574586 -0.99570495
-0.72576332 4.2493253 -0.95498353
-0.91790813 5.3743281 -0.90895152
-1.2953063 7.5839844 -0.85756052
-1.5845814 9.2776823 -0.52572
-1.6064477 9.4057093 0
-1.891649 11.075555 0.6275965
-0.60338855 3.5072825 -0.98186439
-0.73434371 4.2684784 -0.9594866
-0.92222548 5.360568 -0.90681207
-1.304031 7.5798674 -0.85727251
-1.5966724 9.2808876 -0.52601057
-1.6151649 9.3883772 0
-3.2618897 18.960201 1.0746026
-0.60933769 3.5164289 -0.98463035
-0.73993421 4.2700891 -0.96004891
-0.93176883 5.3771482 -0.90980661
-1.3127476 7.5757399 -0.8569845
-1.6078855 9.2789516 -0.52601057
-1.6291729 9.4018002 0
-3.2799182 18.928091 1.0730065
-0.61232257 3.5210085 -0.98601604
-0.74338371 4.2746429 -0.96117359
-0.93237919 5.3614144 -0.90723968
-1.3190969 7.5851383 -0.85813767
-1.6139358 9.2805357 -0.52615553
-1.6361909 9.4085083 0
-3.2846744 18.887703 1.0708293
-0.61874026 3.5326192 -0.98947614
-0.74504298 4.2537289 -0.95667273
-0.9379701 5.3552217 -0.90638292
-1.3278153 7.5809937 -0.85784966
-1.6255962 9.2811365 -0.52630055
-1.6502512 9.4219007 0
-3.3007693 18.845325 1.068652
-0.52556479 2.9794564 -0.99758649
-0.61734319 3.4997532 -0.9804787
-0.74929863 4.2478161 -0.95554584
-0.95023692 5.3869467 -0.91194606
-1.3365239 7.5768294 -0.85756052
-1.6408732 9.3022032 -0.5276072
-1.6611828 9.4173393 0
-3.3163173 18.80039 1.0663304
-0.62376505 3.511353 -0.98393887
-0.75576442 4.2544155 -0.95723504
-0.95584816 5.3807445 -0.91109097
-1.3443222 7.5675764 -0.85669649
-1.6521119 9.3002138 -0.5276072
-1.6752908 9.4306946 0
-3.3326678 18.760548 1.0642982
-0.63110024 3.5278859 -0.98878467
-0.76314121 4.2660027 -0.96004891
-0.96280068 5.3821101 -0.91151851
-1.3539201 7.56849 -0.8569845
-1.6651767 9.3084326 -0.52818722
-1.68806 9.4363508 0
-3.3470986 18.71047 1.0616859
-0.62780201 3.4851499 -0.97701859
-0.7687453 4.2675757 -0.96061128
-0.97021425 5.3860006 -0.91237527
-1.3635223 7.5693917 -0.85727251
-1.6773452 9.311533 -0.52847779
-1.7022282 9.449667 0
-3.3660188 18.685953 1.0605248
-0.6369366 3.5115349 -0.98463035
-0.77163434 4.2541456 -0.95779741
-0.97717917 5.3873477 -0.91280282
-1.3717451 7.5626535 -0.85669649
-1.6909134 9.3222809 -0.52920336
-1.7178266 9.4706573 0
-3.3839581 18.656311 1.0590737
-0.63847566 3.4959598 -0.9804787
-0.77586198 4.2482157 -0.95667273
-0.9869169 5.4038424 -0.91579902
-1.380882 7.5609903 -0.85669649
-1.7045101 9.3330088 -0.52992892
-1.729736 9.4711323 0
-3.3994951 18.613863 1.0568964
-0.64496744 3.5075204 -0.98393887
-0.7800746 4.2422724 -0.95554584
-0.99158865 5.3925471 -0.91408712
-1.3867422 7.5415072 -0.85467815
-1.7204862 9.3565035 -0.53138059
-1.7454143 9.4920692 0
-3.4186957 18.59186 1.0558809
-0.65194613 3.5215445 -0.9880932
-0.7884382 4.2588181 -0.9594866
-1.0009067 5.4064851 -0.91665411
-1.3982074 7.5525398 -0.85611933
-1.7351002 9.3722954 -0.53239614
-3.4154041 18.448605 0
-3.4354815 18.557055 1.0541393
-0.65344185 3.5059516 -0.98393887
-0.79172134 4.2478709 -0.95723504
-1.0060271 5.3976984 -0.91536981
-1.4082808 7.5559354 -0.85669649
-1.7483279 9.3804102 -0.53297669
-3.4362621 18.436787 0
-3.4474282 18.496696 1.0509465
-0.65767765 3.5051594 -0.98393887
-0.79544735 4.2394166 -0.95554584
-1.0168086 5.4191842 -0.9192211
-1.4183627 7.5593076 -0.85727251
-1.7630157 9.3961706 -0.53399283
-3.4647756 18.465872 0
-3.4577961 18.428673 1.0473181
-0.65585977 3.4723172 -0.97494143
-0.80009812 4.2359581 -0.95498353
-1.0204982 5.4028215 -0.91665411
-1.4265364 7.5525098 -0.85669649
-1.7787079 9.4170103 -0.53529894
-3.5054395 18.558844 0
-3.4708974 18.375967 1.0445603
-0.67083329 3.5282106 -0.99086183
-0.80521584 4.2349882 -0.95498353
-1.0289437 5.4116721 -0.91836596
-1.4375937 7.5609446 -0.85784966
-1.794453 9.4378262 -0.53660506
-3.5293205 18.562267 0
-3.4887309 18.348787 1.0432541
-0.67037922 3.5027523 -0.98393887
-0.81224293 4.2439947 -0.95723504
-1.0369298 5.4179912 -0.91965032
-1.4486734 7.5693636 -0.85900283
-1.808787 9.4509687 -0.53747612
-3.5370717 18.48131 0
-3.5084577 18.3318 1.0425286
-0.67461109 3.5019398 -0.98393887
-0.81737036 4.24301 -0.95723504
-1.0425036 5.4116879 -0.91879356
-1.4573277 7.5650606 -0.85871369
-1.8246286 9.4717379 -0.53878224
-2.5123484 13.041726 0
-3.5261822 18.304586 1.0412225
-0.57682848 2.974988 -0.99921483
-0.67597771 3.4863493 -0.97978723
-0.8249144 4.2544894 -0.96004891
-1.0490419 5.4104242 -0.91879356
-1.4694225 7.5785341 -0.86044401
-2.3266976 11.999923 -0.68275285
-2.524142 13.018241 0
-2.5274775 13.035443 0.74167025
-0.68980008 3.5347764 -0.99363047
-0.8266474 4.2360301 -0.95610821
-1.0575452 5.4192309 -0.9205054
-1.4790735 7.5792894 -0.86073202
-2.342689 12.004756 -0.68318838
-2.5383742 13.007517 0
-2.5432262 13.03238 0.74167025
-0.68488389 3.487165 -0.9804787
-0.83666295 4.2599654 -0.96173811
-1.0660714 5.4280252 -0.92221725
-1.4907223 7.5901842 -0.8621732
-2.3586955 12.009568 -0.68362391
-2.549576 12.981459 0
-2.5549655 13.0089 0.74050915
-0.68666512 3.4740314 -0.97701859
-0.8393448 4.2464809 -0.95892209
-1.0726293 5.426733 -0.92221725
-1.4998925 7.5883775 -0.8621732
-2.3606091 11.942984 -0.6799956
-2.5622327 12.963055 0
-2.5676582 12.990503 0.73963803
-0.69477779 3.4928839 -0.98255587
-0.84596282 4.2529421 -0.96061128
-1.0801883 5.4304733 -0.92307401
-1.5085564 7.5840249 -0.86188519
-2.5691819 12.91615 -0.7355808
-2.5738325 12.939529 0
-2.5787909 12.964458 0.73833191
-0.70145935 3.5043392 -0.98601604
-0.84711134 4.2319851 -0.95610821
-1.0872525 5.4316788 -0.92350161
-1.5197498 7.5923414 -0.86303836
-2.5796876 12.887563 -0.73412967
-2.5863996 12.921094 0
-2.590374 12.940948 0.73717076
-0.70420653 3.4961085 -0.98393887
-0.85523558 4.2459087 -0.9594866
-1.0963489 5.4429412 -0.925641
-1.5263693 7.5778241 -0.86159718
-2.5962851 12.889535 -0.73442024
-2.5958457 12.887354 0
-2.6019039 12.917431 0.73600966
-0.70394564 3.4731286 -0.97771007
-0.85531694 4.2199645 -0.95385665
-1.1003757 5.4290357 -0.92350161
-1.538093 7.5886464 -0.86303836
-2.6128891 12.891478 -0.73471022
-2.6103806 12.879102 0
-2.6154456 12.904091 0.73542911
-0.71154255 3.4997482 -0.9853245
-0.86141044 4.2368793 -0.95779741
-1.1057012 5.4384322 -0.92521346
-1.5447388 7.5978546 -0.86419153
-2.6237822 12.905169 -0.7355808
-2.6202352 12.887724 0
-2.6196187 12.884691 0.73441356
-0.71275294 3.484134 -0.98117024
-0.86805749 4.2433057 -0.9594866
-1.1132996 5.4421172 -0.92606854
-1.5539181 7.5959826 -0.86419153
-2.6424992 12.917269 -0.73645192
-2.637892 12.894747 0
-2.6351852 12.881516 0.73441356
-0.71241081 3.4611573 -0.97494143
-0.87369585 4.24474 -0.96004891
-1.1167704 5.4256868 -0.92350161
-1.5646601 7.6017017 -0.86505669
-2.657582 12.911524 -0.73630691
-2.6560936 12.904293 0
-2.6528437 12.888503 0.73499411
-0.71659243 3.460294 -0.97494143
-0.87985367 4.2486529 -0.96117359
-1.1228054 5.4218221 -0.92307401
-1.5769901 7.6149974 -0.86678588
-2.6752889 12.918481 -0.73688745
-2.6722114 12.903621 0
-2.672102 12.903092 0.73600966
-0.72844923 3.4962683 -0.9853245
-0.88136029 4.2301812 -0.95723504
-1.1288307 5.4179411 -0.92264485
-1.5856632 7.6105566 -0.86649787
-2.6930163 12.925415 -0.737468
-2.689394 12.908028 0
-2.689811 12.910029 0.73659021
-0.72906995 3.4781954 -0.9804787
-0.89011842 4.2465138 -0.96117359
-1.1359046 5.4190927 -0.92307401
-1.5953879 7.6111641 -0.86678588
-2.7139621 12.947578 -0.73891914
-2.7087266 12.922602 0
-2.708075 12.919493 0.73731631
-0.7306844 3.4650404 -0.97701859
-0.89367753 4.2379837 -0.9594866
-1.1440392 5.4252448 -0.9243567
-1.6040503 7.6067023 -0.86649787
-2.7333584 12.96209 -0.73993528
-2.72756 12.934593 0
-2.7274354 12.934002 0.73833191
-0.74429071 3.4877949 -0.98393887
-0.90285492 4.2308373 -0.95835972
-1.1544682 5.409914 -0.92221725
-1.6229672 7.6053309 -0.86678588
-2.765758 12.960524 -0.74022526
-2.7604399 12.935602 0
-2.7624805 12.945164 0.73934799
-0.73850167 3.4402952 -0.97078979
-0.91009951 4.2396803 -0.96061128
-1.1647762 5.4260864 -0.92521346
-1.6321557 7.6033645 -0.86678588
-2.7852345 12.974959 -0.7412414
-2.779892 12.950071 0
-2.7797568 12.949441 0.73978359
-0.75271714 3.4859862 -0.98393887
-0.91093135 4.2187085 -0.95610821
-1.1653713 5.3970714 -0.9205054
-1.6418869 7.6039124 -0.86707389
-2.8031039 12.981744 -0.74182194
-2.797184 12.954327 0
-2.8003368 12.968929 0.7410897
-0.74627936 3.4360418 -0.97009563
-0.91495067 4.2126431 -0.95498353
-1.1740711 5.4056935 -0.92221725
-1.6499767 7.5968728 -0.86649787
-2.8209937 12.988504 -0.74240249
-2.8144922 12.95857 0
-2.8182113 12.975694 0.74167025
-0.75578594 3.4596519 -0.97701859
-0.9249202 4.2338734 -0.96004891
-1.1811492 5.4067764 -0.92264485
-1.6619145 7.6075058 -0.86793905
-2.8405662 13.002849 -0.74341804
-2.8351464 12.97804 0
-2.8355498 12.979887 0.74210525
-0.75458074 3.4342284 -0.97009563
-0.93003535 4.2327528 -0.96004891
-1.1909879 5.4203935 -0.92521346
-1.6722145 7.6105394 -0.86851507
-2.8534877 12.98672 -0.74269247
-2.8525019 12.982233 0
-2.8545785 12.991684 0.74297637
-0.77064055 3.4872115 -0.9853245
-0.93789005 4.244029 -0.96286279
-1.1953208 5.4089241 -0.92350161
-1.6802939 7.603467 -0.86793905
-2.8770263 13.018779 -0.74472415
-2.872679 12.999106 0
-2.8730772 13.000909 0.74370193
-0.65373373 2.9413264 -0.99351239
-0.76451117 3.4397442 -0.9721728
-0.93530053 4.2081718 -0.95498353
-1.2035248 5.4149866 -0.92478424
-1.6872354 7.591332 -0.86678588
-2.8944468 13.022905 -0.74515975
-2.8906422 13.005788 0
-2.8910394 13.007574 0.74428248
-0.77414066 3.4633062 -0.97909576
-0.9464801 4.2343082 -0.96117359
-1.2072675 5.4010043 -0.92264485
-1.6975363 7.5943408 -0.86736304
-2.9147151 13.039685 -0.74632084
-2.9103274 13.020057 0
-2.911289 13.024358 0.74544358
-0.77887452 3.4648135 -0.97978723
-0.94825315 4.2182922 -0.95779741
-1.2132303 5.3970394 -0.92221725
-1.707278 7.5948052 -0.86765105
-2.9293301 13.031089 -0.74603087
-2.9277704 13.024151 0
-2.9293039 13.030972 0.74602413
-0.77863497 3.4442937 -0.97424996
-0.95727187 4.2344942 -0.96173811
-1.2214493 5.4030838 -0.92350161
-1.7153119 7.5876861 -0.86707389
-2.9479377 13.04021 -0.74675637
-2.9440787 13.02314 0
-2.9456196 13.029955 0.74616915
-0.6657505 2.9284918 -0.99025255
-0.77612245 3.4139941 -0.96594399
-0.95900702 4.2184639 -0.95835972
-1.2257007 5.3915911 -0.92178971
-1.7256267 7.5906572 -0.86765105
-2.9659963 13.046773 -0.74733698
-2.9650042 13.04241 0
-2.9659696 13.046657 0.74733025
-0.67369503 2.9469609 -0.99677229
-0.79478252 3.4766369 -0.98393887
-0.9629721 4.2123528 -0.95723504
-1.2345029 5.4001164 -0.92350161
-1.7365249 7.5961237 -0.86851507
-2.983494 13.050772 -0.74777198
-2.9801819 13.036283 0
-2.9852052 13.058257 0.74820083
-0.67725539 2.9461446 -0.99677229
-0.78099924 3.3974433 -0.96179235
-0.96293849 4.1889014 -0.95216966
-1.2398756 5.3936124 -0.92264485
-1.745702 7.5940199 -0.86851507
-2.9940226 13.024368 -0.74646586
-2.9970987 13.03775 0
-2.9992366 13.04705 0.74776584
-0.67514837 2.9288735 -0.99106675
-0.79319412 3.4409699 -0.97424996
-0.96832222 4.2006965 -0.95498353
-1.2454405 5.4028683 -0.9243567
-1.747968 7.5828919 -0.86736304
-2.7170734 11.786985 -0.67564166
-3.0014663 13.020717 0
-3.0030322 13.027509 0.7467497
-0.79848319 3.4448924 -0.97563291
-0.97683859 4.2143703 -0.95835972
-1.2542864 5.4113622 -0.92606854
-1.7606322 7.5958877 -0.86909223
-2.7371798 11.809003 -0.67709279
-3.0130854 12.99934 0
-3.0140774 13.00362 0.7455886
-0.80150729 3.439043 -0.97424996
-0.97674012 4.190918 -0.95329434
-1.2567471 5.3923497 -0.92307401
-1.7703955 7.596271 -0.86938024
-2.7473199 11.787979 -0.67607725
-3.025245 12.980478 0
-3.0262499 12.98479 0.74471802
-0.68745309 2.9336286 -0.99351239
-0.80623394 3.4405124 -0.97494143
-0.98702019 4.2119975 -0.95835972
-1.2667748 5.4058185 -0.925641
-1.7813438 7.6016836 -0.8702454
-3.0354426 12.953409 -0.74312806
-3.0391452 12.969209 0
-3.0348232 12.950765 0.74297637
-0.80636263 3.4224401 -0.97009563
-0.99094456 4.2058601 -0.95723504
-1.2709509 5.394289 -0.92392915
-1.7929003 7.6095958 -0.87139857
-3.0421529 12.911792 -0.74095082
-3.0470555 12.932599 0
-3.0468926 12.931909 0.74210525
-0.69567889 2.936764 -0.99514079
-0.81339049 3.4336762 -0.97355843
-0.99544066 4.2021894 -0.95667273
-1.2733252 5.3752618 -0.92093295
-1.8026893 7.6099386 -0.87168658
-3.0529604 12.887878 -0.73978972
-3.0578806 12.908648 0
-3.0577245 12.90799 0.74094415
-0.6820491 2.8637953 -0.97069341
-0.81172532 3.4082811 -0.96663553
-1.0016937 4.2059226 -0.95779741
-1.2792251 5.3712244 -0.9205054
-1.8112844 7.6052408 -0.87139857
-3.0655212 12.871544 -0.73906416
-3.071064 12.894817 0
-3.0685053 12.884073 0.73978359
-0.70162386 2.9302716 -0.99351239
-0.81876338 3.4194946 -0.97009563
-1.0038172 4.1923561 -0.95498353
-1.2928874 5.3996329 -0.925641
-1.82228 7.6105952 -0.87226373
-3.0762312 12.847614 -0.73790306
-3.0805838 12.865792 0
-3.0810437 12.867714 0.73905748
-0.82172143 3.4136293 -0.96871263
-1.016018 4.2207842 -0.96173811
-1.2994108 5.3980665 -0.925641
-1.8320794 7.6109004 -0.87255174
-3.0844553 12.813572 -0.73616135
-3.0942996 12.854467 0
-3.0917246 12.843771 0.73789632
-0.71219009 2.9429765 -0.99840063
-0.8352868 3.451648 -0.97978723
-1.0229084 4.2269549 -0.96342516
-1.3023108 5.3815269 -0.92307401
-1.8418821 7.6111922 -0.87283975
-3.098104 12.802266 -0.73572636
-3.1049347 12.830493 0
-3.1029651 12.822354 0.73688078
-0.71165532 2.9253006 -0.99269509
-0.83293301 3.4238195 -0.9721728
-1.0256126 4.2158403 -0.96117359
-1.3069913 5.3724642 -0.92178971
-1.8498558 7.60394 -0.87226373
-3.1068137 12.770739 -0.73412967
-3.1142826 12.80144 0
-3.1153858 12.805974 0.73615521
-0.71284086 2.9148352 -0.98943526
-0.83409011 3.4106281 -0.96871263
-1.023465 4.1849899 -0.95442116
-1.3159213 5.3808556 -0.92350161
-1.8578123 7.5966692 -0.87168658
-3.122859 12.769497 -0.73427469
-3.1266577 12.78503 0
-3.1246829 12.776955 0.73470354
-0.71931428 2.9259794 -0.99351239
-0.84060621 3.4193628 -0.97148126
-1.0333713 4.2034798 -0.95892209
-1.320583 5.3717804 -0.92221725
-1.8682261 7.5994473 -0.87226373
-3.1320841 12.740486 -0.73282355
-3.1371334 12.761024 0
-3.1345367 12.750463 0.73339742
-0.84353238 3.4134688 -0.97009563
-1.0384496 4.2022281 -0.95892209
-1.3313842 5.3876281 -0.92521346
-1.8761649 7.5921574 -0.87168658
-3.1437371 12.721561 -0.73195302
-3.1469316 12.734488 0
-3.1474473 12.736576 0.73281687
-0.84402865 3.3978431 -0.96594399
-1.0423026 4.196043 -0.95779741
-1.336036 5.3785391 -0.92392915
-1.8859602 7.5923929 -0.87197459
-3.1559725 12.705137 -0.73122692
-3.1585534 12.715528 0
-3.1590774 12.717637 0.73194629
-0.72931546 2.9209478 -0.99269509
-0.8505646 3.4065571 -0.96871263
-1.0479869 4.1972437 -0.95835972
-1.3431551 5.3794088 -0.9243567
-1.8938808 7.5850945 -0.87139857
-3.1643996 12.673591 -0.72963077
-3.1701314 12.696547 0
-3.1668885 12.683558 0.73020464
-0.85590035 3.4103887 -0.97009563
-1.0499657 4.1836543 -0.95554584
-1.3465304 5.365335 -0.92221725
-1.9017841 7.5777783 -0.87082142
-3.1778126 12.662194 -0.72919524
-3.1810353 12.675035 0
-3.1790497 12.667123 0.72947907
-0.85695297 3.3971915 -0.96663553
-1.0568851 4.1897759 -0.95723504
-1.3574082 5.3811302 -0.92521346
-1.9096749 7.5704637 -0.8702454
-2.1699133 8.6021185 -0.49553266
-3.1906199 12.648474 0
-3.1892686 12.643117 0.72831798
-0.7380783 2.9111044 -0.99025255
-0.86845595 3.4253354 -0.97494143
-1.0600729 4.1811047 -0.95554584
-1.3607553 5.3670468 -0.92307401
-1.919456 7.5706553 -0.87053341
-2.1726422 8.5692644 -0.49379098
-3.2014256 12.626958 0
-3.2000723 12.62162 0.72730184
-0.87197524 3.421855 -0.97424996
-1.0638704 4.174901 -0.95442116
-1.3704083 5.3778343 -0.92521346
-1.9292403 7.5708346 -0.87082142
-2.1791463 8.5515299 -0.49292043
-3.2096107 12.595337 0
-3.2089055 12.592569 0.72585076
-0.73897779 2.8853643 -0.98210132
-0.86864001 3.3916349 -0.96594399
-1.068282 4.171144 -0.95385665
-1.3724464 5.3587642 -0.92221725
-1.9371046 7.5634918 -0.8702454
-2.1862547 8.5363073 -0.49219486
-3.2228897 12.583883 0
-3.22154 12.578614 0.72527015
-0.74502414 2.9016774 -0.98780686
-0.86819327 3.3813896 -0.96317536
-1.0783846 4.2000308 -0.96061128
-1.3775995 5.365396 -0.92350161
-1.9384582 7.5497961 -0.86880422
-2.1907661 8.5324707 -0.49204987
-3.2220783 12.549167 0
-3.2233236 12.554016 0.72396404
-0.74050206 2.8696656 -0.97721308
-0.87227839 3.3803382 -0.96317536
-1.0828245 4.1962667 -0.96004891
-1.3827975 5.3587513 -0.92264485
-1.9488705 7.5524526 -0.86938024
-2.2023716 8.5348444 -0.49233988
-3.2372394 12.545264 0
-3.2332964 12.529984 0.72280294
-0.88077128 3.3962831 -0.96802115
-1.0859799 4.1875744 -0.95835972
-1.3899177 5.3595686 -0.92307401
-1.954749 7.5375762 -0.86793905
-2.2152917 8.5422382 -0.49292043
-2.2038965 8.4982977 0
-3.2477822 12.523556 0.72265792
-0.75865364 2.9109139 -0.99188089
-0.88360775 3.3903563 -0.96663553
-1.0910389 4.1862588 -0.95835972
-1.3950967 5.3529124 -0.92221725
-1.9638553 7.5352087 -0.86793905
-2.2229905 8.5294971 -0.49233988
-2.2167888 8.505702 0
-3.2563577 12.494473 0.72120625
-0.76029104 2.9028199 -0.98943526
-0.88007599 3.3601632 -0.95832956
-1.0948101 4.1800265 -0.95723504
-1.4015636 5.3512225 -0.92221725
-1.9729586 7.5328302 -0.86793905
-2.2379043 8.5444031 -0.49335599
-2.2264032 8.5004921 0
-3.2661855 12.47042 0.72004515
-0.77134734 2.9305816 -0.99921483
-0.88988447 3.3809397 -0.96456099
-1.1037394 4.193439 -0.96061128
-1.4099894 5.3569751 -0.92350161
-1.9820591 7.5304408 -0.86793905
-2.2475636 8.5391722 -0.49321043
-2.236011 8.4952812 0
-3.2805903 12.463953 0.71990013
-0.76730382 2.900974 -0.98943526
-0.89332563 3.3774297 -0.96386683
-1.1029587 4.1699967 -0.95554584
-1.4151471 5.3502994 -0.92264485
-1.990496 7.5255427 -0.86765105
-3.1501741 11.909981 -0.68812287
-2.2422829 8.4774818 0
-3.2883413 12.432355 0.71830404
-0.76700038 2.8857174 -0.98454702
-0.89160669 3.3545289 -0.95763808
-1.1093031 4.1735768 -0.95667273
-1.4242485 5.3585091 -0.9243567
-2.0002515 7.525629 -0.86793905
-3.1598897 11.888584 -0.68710673
-2.2391543 8.4244633 0
-3.2980213 12.408282 0.71714294
-0.76538444 2.8656852 -0.97802728
-0.89760202 3.3607228 -0.95971519
-1.1117226 4.1624141 -0.95442116
-1.4254229 5.3369431 -0.92093295
-2.0080097 7.5182137 -0.86736304
-3.1695609 11.867191 -0.68609118
-3.2116153 12.024649 0
-3.3143516 12.409305 0.71743292
-0.7739718 2.8838556 -0.98454702
-0.90101248 3.3572149 -0.95902371
-1.1154327 4.1561551 -0.95329434
-1.4298762 5.3277864 -0.91965032
-2.0144107 7.5057898 -0.86620986
-3.1798551 11.84829 -0.68522006
-3.2261424 12.02076 0
-3.3212609 12.375175 0.71569127
-0.77359575 2.8686047 -0.97965878
-0.90376067 3.3512747 -0.95763808
-1.1244246 4.1695285 -0.95667273
-1.4429954 5.3508353 -0.92392915
-2.0248241 7.5083399 -0.86678588
-2.3322632 8.6483679 -0.5003221
-3.2420189 12.021873 0
-3.3355355 12.368647 0.71554625
-0.77576727 2.8628922 -0.97802728
-0.90649831 3.3453422 -0.95625508
-1.1354421 4.1902366 -0.96173811
-1.4534869 5.3639493 -0.92649615
-2.0359251 7.5133796 -0.86765105
-2.3447509 8.6530704 -0.50075769
-0 0 0
-3.3464019 12.349564 0.71467566
-0.77922595 2.8619525 -0.97802728
-0.91317612 3.3539269 -0.95902371
-1.1324942 4.1594419 -0.95498353
-1.4512007 5.3299918 -0.92093295
-2.0402451 7.4934421 -0.86563271
-2.3722699 8.7129078 -0.50438601
-0 0 0
-3.3606369 12.342997 0.71453011
-0.78855258 2.8824627 -0.98536122
-0.91391867 3.340724 -0.95556355
-1.1422107 4.1752191 -0.95892209
-1.4664452 5.3604212 -0.92649615
-2.0513461 7.4984584 -0.86649787
-2.3821082 8.7075214 -0.50424045
-0 0 0
-3.3686931 12.313869 0.71307904
-0.91728783 3.3371913 -0.95486939
-1.1452365 4.1664929 -0.95723504
-1.4661188 5.3338971 -0.92221725
-2.0624623 7.5034585 -0.86736304
-2.387809 8.6871052 -0.50322491
-0 0 0
-3.1019099 11.285081 0.6537199
-0.80143696 2.9019883 -0.99269509
-0.92532784 3.3505948 -0.95902371
-1.1536514 4.1773496 -0.96004891
-1.4725627 5.3321218 -0.92221725
-2.0667069 7.4835067 -0.8653447
-2.3927703 8.664176 -0.50206381
-3.3194399 12.019629 0
-3.1210771 11.301362 0.654881
-0.81022948 2.9200706 -0.99921483
-0.9246797 3.3325498 -0.95417792
-1.1546232 4.1612673 -0.95667273
-1.4803785 5.3352904 -0.92307401
-2.0771294 7.4859838 -0.86592072
-2.3893425 8.6112013 -0.49916101
-3.334656 12.018115 0
-3.141679 11.322625 0.65633267
-0.9239893 3.3145113 -0.94933212
-1.1589662 4.1574144 -0.95610821
-1.4861327 5.331018 -0.92264485
-2.0875638 7.4884562 -0.86649787
-2.3920724 8.5807819 -0.49756488
-3.3463798 12.004049 0
-3.1574492 11.326324 0.65676767
-0.80128843 2.8609929 -0.97965878
-0.92934811 3.3182287 -0.95071775
-1.1660452 4.1633534 -0.95779741
-1.4925731 5.3292184 -0.92264485
-2.0959136 7.4834399 -0.86620986
-2.401736 8.5753765 -0.49741933
-3.3664968 12.020046 0
-3.176739 11.342517 0.65792882
-0.80206692 2.8505056 -0.97639894
-0.9394719 3.338836 -0.95694655
-1.1710749 4.1619415 -0.95779741
-1.5017926 5.3372955 -0.9243567
-2.1028519 7.4734302 -0.8653447
-2.4029472 8.5399532 -0.49553266
-0 0 0
-3.1946661 11.353683 0.65879995
-0.80887163 2.8614242 -0.98047298
-0.93326825 3.3014836 -0.94656348
-1.1740288 4.1531858 -0.95610821
-1.5026542 5.3157148 -0.92093295
-2.1125834 7.4733706 -0.86563271
-2.4146793 8.5420494 -0.4958232
-3.4011981 12.03191 0
-3.2126222 11.364813 0.65967047
-0.81262219 2.8680713 -0.98291868
-0.93594855 3.3033397 -0.94725764
-1.1723831 4.1378126 -0.95273197
-1.5051663 5.3123388 -0.9205054
-2.1185098 7.4770746 -0.86620986
-2.4212549 8.5455847 -0.49611321
-3.4113045 12.039869 0
-3.225862 11.385367 0.66097659
-0.81540847 2.8647032 -0.98210132
-0.93306988 3.2780726 -0.94033468
-1.1836418 4.1583848 -0.95779741
-1.5143952 5.3203921 -0.92221725
-2.1247103 7.4645586 -0.86505669
-2.4337134 8.5501528 -0.49654877
-3.4258499 12.035738 0
-3.2424622 11.391458 0.66155714
-0.82430542 2.8827267 -0.98862106
-0.93151224 3.2576461 -0.93479741
-1.1879677 4.154511 -0.95723504
-1.5194126 5.3136268 -0.92136216
-2.1337283 7.4619861 -0.86505669
-2.4390416 8.5297146 -0.49553266
-3.4368134 12.019081 0
-3.2626529 11.410014 0.66286325
-0.81618816 2.8413467 -0.97476745
-0.94168359 3.2782264 -0.94102883
-1.1922859 4.1506329 -0.95667273
-1.5251212 5.3093123 -0.92093295
-2.1398866 7.4494586 -0.86390352
-2.4572384 8.5542355 -0.49712932
-3.4549255 12.027424 0
-3.2800236 11.418549 0.66358882
-0.83469504 2.8925977 -0.99269509
-0.94703376 3.2819023 -0.94241184
-1.1930721 4.1345367 -0.95329434
-1.5336711 5.3148675 -0.92221725
-2.1531875 7.4617734 -0.86563271
-2.4632487 8.5362759 -0.4962582
-3.4665697 12.013239 0
-3.2938182 11.414577 0.66358882
-0.9509986 3.2807558 -0.94241184
-1.2030195 4.1501775 -0.95723504
-1.539378 5.3105474 -0.92178971
-2.1650825 7.4691029 -0.86678588
-2.4786263 8.550766 -0.49727434
-3.4825332 12.014046 0
-3.3148439 11.435551 0.66504049
-0.83891892 2.8810799 -0.98943526
-0.95566279 3.2820106 -0.94310331
-1.2051919 4.1389627 -0.95498353
-1.5457937 5.3086834 -0.92178971
-2.1733835 7.4640007 -0.86649787
-2.4831448 8.5278063 -0.49611321
-3.4970474 12.009829 0
-3.3301105 11.436522 0.66533053
-0.8312484 2.8292475 -0.97232175
-0.97137117 3.3061712 -0.95071775
-1.214475 4.1336026 -0.95442116
-1.5615127 5.314784 -0.92350161
-2.1892266 7.4512792 -0.86563271
-2.5176635 8.5691509 -0.498871
-3.6221595 12.328427 0
-3.3628666 11.445894 0.66634661
-0.82487351 2.7950583 -0.96091378
-0.94838268 3.2135651 -0.92441696
-1.2201873 4.1345668 -0.95498353
-1.5628465 5.2956567 -0.9205054
-2.2026224 7.4635177 -0.86736304
-2.5258088 8.5586243 -0.49843544
-3.6547298 12.383938 0
-3.3825781 11.461761 0.66750771
-0.84581083 2.8532991 -0.98128718
-0.9722293 3.2797656 -0.94379747
-1.2237365 4.1282125 -0.95385665
-1.5692441 5.2937641 -0.9205054
-2.2123735 7.4633284 -0.86765105
-2.536886 8.5580549 -0.49858046
-3.6726494 12.389494 0
-3.396425 11.457664 0.66750771
-0.85913086 2.8854344 -0.99269509
-0.97332788 3.2689707 -0.94102883
-1.2316241 4.1364717 -0.95610821
-1.5785697 5.3017054 -0.92221725
-2.2206526 7.4581728 -0.86736304
-2.5435181 8.5425339 -0.49785489
-3.6883588 12.387539 0
-3.4124892 11.461017 0.66794276
-0.97943151 3.274996 -0.94310331
-1.2366214 4.1349807 -0.95610821
-1.5849746 5.2997942 -0.92221725
-2.2296627 7.4554844 -0.86736304
-2.5590506 8.5568829 -0.498871
-3.7085445 12.400529 0
-3.4300599 11.469339 0.66866887
-0.85543782 2.8478496 -0.98047298
-0.97689313 3.252188 -0.93687451
-1.2386929 4.1237493 -0.95385665
-1.586207 5.280663 -0.9192211
-2.241643 7.4626837 -0.86851507
-2.5746186 8.5711975 -0.49988657
-3.7242734 12.398529 0
-3.4483995 11.480114 0.66953939
-0.86458945 2.8657441 -0.98699272
-0.98082203 3.2510054 -0.93687451
-1.245144 4.1271195 -0.95498353
-1.5933301 5.2812076 -0.91965032
-2.247673 7.4500742 -0.86736304
-2.5977316 8.6103687 -0.50235379
-3.7452655 12.413953 0
-3.4660206 11.488375 0.67026496
-0.87450165 2.8859835 -0.99432659
-0.98765963 3.2594216 -0.9396432
-1.2501299 4.1256118 -0.95498353
-1.6011977 5.2841873 -0.9205054
-2.258172 7.4522991 -0.86793905
-2.6066282 8.6022549 -0.50206381
-3.7617736 12.414404 0
-3.4814079 11.489157 0.67055553
-0.86143637 2.8305383 -0.97558159
-0.99890023 3.282222 -0.94656348
-1.2588122 4.13625 -0.95779741
-1.610571 5.2920718 -0.92221725
-2.2679274 7.4520369 -0.86822706
-2.6155057 8.5941229 -0.50177324
-3.782073 12.427271 0
-3.4967995 11.489908 0.67084551
-0.86413407 2.8271341 -0.97476745
-0.9926002 3.2474287 -0.93687451
-1.2578673 4.1152868 -0.95329434
-1.6147125 5.2827549 -0.92093295
-2.2791989 7.4567142 -0.86909223
-2.629688 8.6033878 -0.50249934
-3.8016522 12.43763 0
-3.5144773 11.498097 0.67157108
-0.99799722 3.2510281 -0.9382602
-1.2665665 4.1259065 -0.95610821
-1.6210945 5.2807999 -0.92093295
-2.2882073 7.4539547 -0.86909223
-2.6454175 8.6175852 -0.50351489
-3.8197327 12.442979 0
-3.5321827 11.506269 0.67229718
-0.86732346 2.8132303 -0.97069341
-1.0048813 3.2594094 -0.94102883
-1.271551 4.1243734 -0.95610821
-1.6267185 5.2763863 -0.9205054
-2.2987349 7.4561229 -0.86966825
-2.6542985 8.6094208 -0.50322491
-3.8378317 12.448302 0
-3.5506752 11.516888 0.67316777
-0.8809551 2.8452301 -0.98210132
-1.0095601 3.260587 -0.94172031
-1.2765335 4.1228337 -0.95610821
-1.6338513 5.2768669 -0.92093295
-2.3100381 7.4607549 -0.87053341
-2.6685414 8.6186161 -0.50395048
-3.8567183 12.456084 0
-3.5668948 11.520038 0.6736033
-0.85557646 2.7573671 -0.95195156
-1.0115299 3.2599766 -0.94172031
-1.2797793 4.1244955 -0.95667273
-1.6332361 5.2636223 -0.91879356
-2.3107135 7.4470086 -0.86909223
-2.6660488 8.5921898 -0.50249934
-3.8680985 12.466177 0
-3.573854 11.51788 0.6736033
-0.89566886 2.8743024 -0.99269509
-1.013974 3.253957 -0.94033468
-1.2817383 4.1132426 -0.95442116
-1.6426498 5.2714486 -0.9205054
-2.322788 7.4540887 -0.8702454
-2.6663799 8.5567141 -0.50061268
-3.8862555 12.471433 0
-3.5954974 11.538357 0.67505443
-0.86961764 2.7788749 -0.96009964
-1.0111624 3.2311833 -0.93410587
-1.2829109 4.0995593 -0.95160514
-1.6513188 5.2768121 -0.92178971
-2.3341112 7.458684 -0.87111056
-2.6844761 8.5782795 -0.50206381
-3.9083166 12.489079 0
-3.6133161 11.546401 0.67578
-0.88334745 2.8108284 -0.97150755
-1.0233403 3.2562885 -0.94172031
-1.2878635 4.0980062 -0.95160514
-1.6538463 5.2625704 -0.91965032
-2.3454459 7.463254 -0.87197459
-2.6987338 8.5874224 -0.50278938
-3.925746 12.491798 0
-3.6303813 11.551942 0.67636055
-0.88971859 2.8191869 -0.97476745
-1.024254 3.2454798 -0.93895167
-1.3004628 4.1206827 -0.95723504
-1.659429 5.2581129 -0.9192211
-2.3513484 7.4505482 -0.87082142
-2.7294395 8.6485777 -0.50656271
-3.9447525 12.499453 0
-3.6459024 11.552508 0.67665112
-1.0456051 3.2992382 -0.95486939
-1.2939255 4.0827737 -0.94879127
-1.6712108 5.2732363 -0.92221725
-2.3603492 7.4477015 -0.87082142
-2.7445991 8.66014 -0.50743383
-3.9637833 12.507079 0
-3.6645675 11.562952 0.67752165
-0.9122687 2.8664858 -0.99188089
-1.0381806 3.26212 -0.944489
-1.3050224 4.1005769 -0.95329434
-1.6760257 5.2663255 -0.92136216
-2.3701332 7.4473157 -0.87111056
-2.7471795 8.6320524 -0.50598216
-3.9781041 12.499803 0
-3.6777489 11.556042 0.67737669
-0.90745741 2.8394909 -0.98291868
-1.0245554 3.2058978 -0.9285686
-1.3084307 4.094161 -0.95216966
-1.6792619 5.2545152 -0.91965032
-2.3767674 7.4370532 -0.8702454
-2.7623553 8.6435823 -0.50685328
-4.0003343 12.517295 0
-3.701992 11.583763 0.67926335
-0.91617227 2.8548594 -0.98862106
-1.0491272 3.2691567 -0.94725764
-1.303284 4.0611277 -0.94485265
-1.6871771 5.2573662 -0.9205054
-2.3865414 7.436636 -0.87053341
-2.7735906 8.6427097 -0.50699824
-3.7140749 11.573327 0
-3.7294831 11.621341 0.68173057
-0.90673441 2.8137603 -0.97476745
-1.0499988 3.2583354 -0.944489
-1.3136433 4.0764718 -0.94879127
-1.6966778 5.2650971 -0.92221725
-2.3955255 7.4337468 -0.87053341
-2.7904074 8.6591377 -0.5081594
-3.739233 11.603515 0
-3.7491024 11.63414 0.68274671
-0.90024233 2.7820947 -0.96417367
-1.0477561 3.2379689 -0.93895167
-1.3271736 4.1014767 -0.95498353
-1.6998771 5.253274 -0.9205054
-2.4068954 7.4382319 -0.87139857
-2.8016675 8.6582298 -0.50830436
-3.7540514 11.601461 0
-3.7639563 11.632071 0.68289167
-0.89138299 2.7433946 -0.9511342
-1.0470147 3.2223799 -0.93479741
-1.3242751 4.0756998 -0.94935358
-1.7086041 5.2585425 -0.92178971
-2.4158814 7.4353185 -0.87139857
-2.8105228 8.6499004 -0.50801438
-3.7616329 11.577116 0
-3.7780087 11.627515 0.68289167
-0.87093455 2.6694813 -0.92587262
-1.0540202 3.2306528 -0.93756604
-1.3307766 4.0789323 -0.95048046
-1.7165476 5.2613506 -0.92264485
-2.4264667 7.4373069 -0.87197459
-2.8250015 8.6588469 -0.50873995
-3.7578619 11.518136 0
-3.7944741 11.630355 0.68332726
-0.90416563 2.7600229 -0.95765394
-1.0680754 3.2603679 -0.94656348
-1.3396585 4.0893922 -0.95329434
-1.7213069 5.2543983 -0.92178971
-2.436259 7.4368348 -0.87226373
-2.8330345 8.6480169 -0.50830436
-4.1266222 12.596775 0
-3.8101406 11.630695 0.68361723
-0.9221741 2.8035398 -0.97313905
-1.0594748 3.2209535 -0.93549156
-1.3398367 4.0732932 -0.94991809
-1.7300617 5.2596326 -0.92307401
-2.4444327 7.4314213 -0.87197459
-2.8451071 8.6495285 -0.50859493
-4.1353374 12.572012 0
-3.8201325 11.613744 0.68289167
-0.93486238 2.8305864 -0.98291868
-1.0806735 3.2720749 -0.95071775
-1.3503332 4.0885534 -0.95385665
-1.7307794 5.2404728 -0.92007786
-2.4517896 7.4235549 -0.87139857
-2.8474059 8.6214066 -0.50714326
-4.15379 12.57689 0
-3.8268294 11.586916 0.68158555
-0.91805357 2.7684548 -0.96172798
-1.0735728 3.2374339 -0.94102883
-1.3584714 4.0965657 -0.95610821
-1.7403423 5.2481241 -0.92178971
-2.4648275 7.4328599 -0.87283975
-2.8152943 8.4897175 -0.49959657
-4.1714387 12.579266 0
-4.1769581 12.595909 0.74123466
-0.95106655 2.8564506 -0.99269509
-1.0735189 3.224226 -0.93756604
-1.3513825 4.0587664 -0.94766653
-1.7483027 5.2508841 -0.92264485
-2.4738069 7.4298763 -0.87283975
-2.7648084 8.3038759 -0.48885652
-4.1882811 12.57916 0
-4.1888914 12.580992 0.74065411
-0.9239583 2.7638862 -0.96091378
-1.0790062 3.2276897 -0.93895167
-1.3643401 4.0812244 -0.95329434
-1.7538329 5.2463355 -0.92221725
-2.4836018 7.4293323 -0.87312776
-2.7575402 8.2487793 -0.48580873
-4.206778 12.583962 0
-4.2057357 12.580845 0.74094415
-0.94853222 2.826035 -0.98291868
-1.0805099 3.2192461 -0.93687451
-1.3708891 4.0843949 -0.95442116
-1.7626221 5.2515154 -0.92350161
-2.4901102 7.4189768 -0.87226373
-2.7608938 8.2257433 -0.48464817
-2.9268918 8.7203131 0
-4.2242417 12.585608 0.7415247
-0.91721773 2.7218304 -0.94706017
-1.096417 3.2536016 -0.94725764
-1.3741988 4.0779152 -0.95329434
-1.7697853 5.2518125 -0.92392915
-2.4974194 7.411056 -0.87168658
-2.7650218 8.205162 -0.48363206
-2.9149864 8.6501799 0
-4.2460842 12.600193 0.74268579
-0.96090144 2.8401165 -0.98862106
-1.0762284 3.1809859 -0.92649412
-1.3791252 4.076252 -0.95329434
-1.77037 5.232646 -0.92093295
-2.5080318 7.4129376 -0.87226373
-2.7616098 8.1624327 -0.48130983
-2.9221001 8.6367903 0
-4.2613058 12.595054 0.74268579
-0.9381001 2.7617264 -0.96172798
-1.1002427 3.2390676 -0.94379747
-1.3824166 4.0697751 -0.95216966
-1.7783443 5.2353692 -0.92178971
-2.5119941 7.3952026 -0.87053341
-2.7572637 8.1172657 -0.47884259
-2.93923 8.6529675 0
-4.2832074 12.609578 0.74384689
-0.93904537 2.7535796 -0.95928544
-1.0992956 3.2234843 -0.9396432
-1.3889718 4.072907 -0.95329434
-1.7879832 5.2429352 -0.92350161
-2.5284407 7.4141922 -0.87312776
-2.7544916 8.0770445 -0.47666591
-2.9421239 8.627243 0
-4.3009572 12.611774 0.74428248
-1.099622 3.218076 -0.9382602
-1.3914323 4.0720673 -0.95329434
-1.7911503 5.2418542 -0.92350161
-2.532084 7.4102178 -0.87283975
-0 0 -0
-2.9507017 8.6353149 0
-4.3152976 12.628844 0.74544358
-0.98092544 2.8594105 -0.99677229
-1.0969971 3.1977608 -0.93272287
-1.3988258 4.0775957 -0.95498353
-1.7924833 5.2251124 -0.92093295
-2.537679 7.397367 -0.87168658
-0 0 -0
-2.9611335 8.6317425 0
-4.3372993 12.643284 0.74660468
-0.97391462 2.8278368 -0.98617536
-1.0975925 3.186945 -0.92995423
-1.4020954 4.0710931 -0.95385665
-1.8013041 5.2302265 -0.92221725
-2.5474567 7.3967385 -0.87197459
-0 0 -0
-2.9791875 8.6503019 0
-4.3576484 12.65277 0.74747527
-0.9813714 2.8383443 -0.99025255
-1.1055406 3.1974692 -0.9334144
-1.4036922 4.0597901 -0.95160514
-1.8067844 5.2256222 -0.92178971
-2.5538592 7.3863287 -0.87111056
-0 0 -0
-2.9726288 8.5975037 0
-4.3754816 12.654865 0.7479108
-0.96453911 2.778785 -0.96987921
-1.1176285 3.2198269 -0.94033468
-1.4110972 4.0652947 -0.95329434
-1.8147792 5.228281 -0.92264485
-2.5661747 7.3930111 -0.87226373
-0 0 -0
-2.9813099 8.5889931 0
-4.3924718 12.654474 0.74820083
-0.99148089 2.8453002 -0.99351239
-1.1248202 3.2279506 -0.94310331
-1.4118285 4.0515919 -0.95048046
-1.8227863 5.230937 -0.92350161
-2.5717015 7.3801351 -0.87111056
-2.7798922 7.9775901 -0.47187644
-2.9951115 8.5952148 0
-4.4128909 12.663884 0.74907196
-0.97778046 2.79511 -0.97639894
-1.1171238 3.1934407 -0.9334144
-1.4217554 4.0642686 -0.95385665
-1.8189338 5.1996536 -0.91836596
-2.5772009 7.3672566 -0.86995739
-2.7860978 7.9644146 -0.47129589
-2.7734847 7.928359 0
-4.4333358 12.673255 0.74994248
-0.97706008 2.7822597 -0.97232175
-1.1168263 3.1802557 -0.92995423
-1.4300328 4.0721374 -0.95610821
-1.830317 5.2119799 -0.92093295
-2.5655329 7.3055682 -0.86303836
-2.7896914 7.9438782 -0.47027978
-2.7839241 7.9274554 0
-4.4563937 12.689951 0.7512486
-0.97631317 2.7694244 -0.96824771
-1.1189984 3.1741672 -0.9285686
-1.4324203 4.0632243 -0.95442116
-1.8366134 5.2097645 -0.92093295
-2.4943874 7.0756159 -0.83622855
-2.799288 7.9405017 -0.47027978
-2.7926364 7.9216337 0
-4.4751797 12.69436 0.75182915
-0.97388917 2.7519393 -0.96254528
-1.1429201 3.2295737 -0.94518048
-1.433938 4.051909 -0.95216966
-1.8403403 5.2002883 -0.91965032
-2.4632437 6.9604397 -0.82296765
-2.8062792 7.9297624 -0.46984422
-2.7926581 7.891273 0
-4.4948483 12.701189 0.75255471
-0.99044859 2.7880156 -0.97558159
-1.140942 3.2116399 -0.94033468
-1.4371301 4.0453806 -0.95104277
-1.8483394 5.2028942 -0.9205054
-2.4621303 6.9306555 -0.81979728
-2.8132515 7.9190273 -0.46940923
-2.8056724 7.8976927 0
-4.5128026 12.703096 0.75299031
-0.98385745 2.7588897 -0.96580517
-1.1380804 3.191355 -0.93479741
-1.4445784 4.0508232 -0.95273197
-1.8546247 5.2006569 -0.9205054
-2.4670279 6.9179306 -0.81864411
-2.8289251 7.9327474 -0.47042477
-2.8195865 7.9065604 0
-4.5333834 12.712315 0.75386083
-1.1478553 3.2065136 -0.9396432
-1.4503275 4.0514646 -0.95329434
-1.8617717 5.2008271 -0.92093295
-2.472769 6.9076371 -0.81777894
-2.8393867 7.931777 -0.47057033
-3.0650706 8.5622215 0
-4.5557466 12.726398 0.75502193
-1.0097432 2.8099952 -0.98454702
-1.1491829 3.1980391 -0.93756604
-1.4517848 4.0401444 -0.95104277
-1.858508 5.1720061 -0.91622657
-2.4784889 6.8973393 -0.81691378
-2.8454537 7.9185586 -0.46998978
-3.0842168 8.5830078 0
-4.5737576 12.728223 0.75545752
-0.99804407 2.766928 -0.96987921
-1.1445354 3.1730533 -0.93064576
-1.4549428 4.0336113 -0.94991809
-1.8717241 5.189075 -0.91965032
-2.4824338 6.8821769 -0.8154726
-2.8567812 7.9199986 -0.47027978
-3.0981176 8.5890675 0
-4.5944223 12.737349 0.75632805
