# .PCD v0.7 - Point Cloud Data file format
VERSION 0.7
FIELDS x y z
SIZE 4 4 4
TYPE F F F
COUNT 1 1 1
WIDTH 1559
HEIGHT 1
VIEWPOINT 0 0 0 1 0 0 0
POINTS 1559
DATA ascii
-3.7753229 12.432051 0
-3.7744925 12.429317 0.72556019
-1.0052757 3.2960205 -0.95071775
-1.3117135 4.300745 -0.9960714
-1.6781683 5.5022488 -0.95902002
-2.3984346 7.8638024 -0.91636997
-2.640408 8.6571665 -0.50554717
-3.7948956 12.442411 0
-3.7902684 12.427239 0.72570574
-0.87090993 2.8431563 -0.98047298
-1.0254214 3.3475714 -0.96594399
-1.311699 4.2821479 -0.99213064
-1.6840643 5.4977646 -0.95859241
-2.4064181 7.8559475 -0.91579282
-2.6523874 8.6589336 -0.50583714
-3.8144991 12.452743 0
-3.8106065 12.440035 0.72672129
-0.88742483 2.8846195 -0.99514079
-1.0294654 3.3463299 -0.96594399
-1.3168722 4.28056 -0.99213064
-1.6861786 5.481009 -0.95602548
-2.4197106 7.8653927 -0.917234
-2.6620846 8.6532412 -0.50569212
-3.8326039 12.458074 0
-3.8302209 12.450328 0.72759241
-0.88507283 2.8646533 -0.98862106
-1.034248 3.3474782 -0.96663553
-1.3115441 4.2449832 -0.98425138
-1.691283 5.4740577 -0.95516872
-2.4269245 7.8550568 -0.91636997
-2.6725385 8.6500187 -0.50569212
-3.8491921 12.458411 0
-3.8490963 12.458101 0.72831798
-0.89292973 2.8777499 -0.99351239
-1.0249109 3.3031013 -0.95417792
-1.3242009 4.2676582 -0.98987913
-1.7024621 5.4867253 -0.95773733
-2.4348795 7.8471732 -0.91579282
-2.6860685 8.6567097 -0.50627267
-3.8711834 12.476119 0
-3.8664577 12.460889 0.72875351
-0.88611054 2.8436286 -0.98210132
-1.0371121 3.3282096 -0.96179235
-1.3278461 4.2612081 -0.98875445
-1.7083246 5.4822063 -0.95730811
-2.442822 7.8392911 -0.9152168
-2.694979 8.6484919 -0.50598216
-3.8878026 12.476398 0
-3.8861482 12.471088 0.72962409
-0.88438082 2.826051 -0.97639894
-1.0343902 3.305408 -0.95556355
-1.3254069 4.2353559 -0.98312664
-1.7126497 5.4727955 -0.95602548
-2.453836 7.8412662 -0.91579282
-2.6984434 8.6229124 -0.50467604
-3.9044311 12.476663 0
-3.903543 12.473825 0.73005962
-0.88334745 2.8108284 -0.97150755
-1.048912 3.3376582 -0.96525252
-1.3389009 4.2604084 -0.98931676
-1.7154138 5.4584794 -0.95388603
-2.4664104 7.848165 -0.91694599
-2.7065227 8.6122065 -0.50424045
-3.9241838 12.486828 0
-3.9256229 12.491407 0.73136574
-0.89343715 2.8309698 -0.97884148
-1.0461495 3.3148587 -0.95902371
-1.3379301 4.2394028 -0.98481369
-1.7343665 5.4955621 -0.96073186
-2.4704449 7.8279204 -0.91492879
-2.7130175 8.5965424 -0.50351489
-3.94397 12.496973 0
-3.9407136 12.486655 0.73136574
-1.0486368 3.3088045 -0.95763808
-1.347659 4.2523208 -0.98819208
-1.7340264 5.4714408 -0.95688057
-2.4830244 7.8347826 -0.91608083
-2.7343946 8.6279411 -0.50554717
-3.9629977 12.504601 0
-3.9620786 12.5017 0.7325269
-0.91451812 2.8735538 -0.99432659
-1.0602437 3.3314457 -0.96456099
-1.3535659 4.253108 -0.98875445
-1.7375222 5.4595566 -0.95516872
-2.4940596 7.8367109 -0.91665798
-2.754271 8.6543341 -0.50728828
-3.9804726 12.507245 0
-3.9795434 12.504325 0.73296189
-0.90670288 2.8371298 -0.98210132
-1.0566298 3.3062606 -0.95763808
-1.3501948 4.2248435 -0.98256218
-1.7464629 5.4647913 -0.95645303
-2.5035269 7.8336916 -0.91665798
-2.7647259 8.651 -0.50728828
-3.9971652 12.50738 0
-3.9978135 12.509408 0.73354244
-0.90786678 2.8289788 -0.97965878
-1.0682914 3.3288739 -0.96456099
-1.3630644 4.2474074 -0.98819208
-1.7522812 5.4602351 -0.95602548
-2.5114083 7.8257303 -0.91608083
-2.7727973 8.6402378 -0.50685328
-3.7252097 11.608024 0
-3.7437737 11.665871 0.6843428
-0.92871815 2.8819799 -0.99840063
-1.0584608 3.2845948 -0.95210075
-1.3627394 4.228826 -0.98425138
-1.7596641 5.4605551 -0.95645303
-2.516104 7.8079243 -0.91435164
-2.7935956 8.6690302 -0.50873995
-3.7424259 11.613422 0
-3.7690232 11.695959 0.68637449
-0.93121791 2.8837681 -0.99921483
-1.0650721 3.2982836 -0.95625508
-1.3660741 4.2304177 -0.98481369
-1.7629628 5.4594908 -0.95645303
-2.5224118 7.8113298 -0.91492879
-2.7972338 8.6623907 -0.50844938
-3.7478406 11.606201 0
-3.7736955 11.686269 0.68593949
-0.93012911 2.8685386 -0.99432659
-1.0690566 3.2969942 -0.95625508
-1.3711847 4.2287641 -0.98481369
-1.7703493 5.4597964 -0.95688057
-2.5358365 7.8205757 -0.91636997
-2.8020906 8.6417093 -0.50743383
-3.7538359 11.576913 0
-3.7814016 11.661926 0.68477833
-0.92976928 2.855664 -0.99025255
-1.0745915 3.3004665 -0.95763808
-1.3739357 4.2198629 -0.98312664
-1.7729721 5.4454508 -0.95474112
-2.5412812 7.8052115 -0.91492879
-2.8270092 8.6827869 -0.51004606
-3.7444568 11.500607 0
-3.7777934 11.602996 0.68158555
-0.91939312 2.8122475 -0.97558159
-1.0785787 3.2991657 -0.95763808
-1.3829806 4.2302728 -0.98594058
-1.787526 5.4676995 -0.95902002
-2.5482986 7.7947574 -0.91406363
-2.8326554 8.6645508 -0.50917548
-4.1157794 12.58938 0
-4.1139627 12.583823 0.73949301
-0.92741722 2.8252289 -0.98047298
-1.0880423 3.3145475 -0.96248388
-1.382543 4.2116971 -0.98199981
-1.7917317 5.4582257 -0.95773733
-2.5593271 7.7965827 -0.91463965
-2.8325849 8.6290197 -0.50728828
-4.1309881 12.584398 0
-4.1275454 12.573911 0.73920304
-0.93701988 2.8428855 -0.98699272
-1.079481 3.2751076 -0.95140928
-1.3916072 4.2220874 -0.98481369
-1.7975197 5.4536119 -0.95730811
-2.5663192 7.7861223 -0.91377562
-2.8324358 8.5935106 -0.50540161
-4.1502633 12.591754 0
-4.1459889 12.578785 0.73978359
-1.0952616 3.3095291 -0.96179235
-1.3943151 4.2131729 -0.98312664
-1.8000761 5.4392529 -0.95516872
-2.5797877 7.7952909 -0.9152168
-2.7832246 8.4100122 -0.49480709
-4.1711965 12.604017 0
-4.1644473 12.583625 0.7403636
-0.93375617 2.8101234 -0.97639894
-1.0913472 3.2843909 -0.95486939
-1.4050111 4.2283573 -0.98706526
-1.8090763 5.4443846 -0.95645303
-2.5867572 7.784802 -0.91435164
-2.7679863 8.3302078 -0.4903082
-4.1872458 12.601445 0
-4.1829267 12.588447 0.74094415
-0.92463565 2.7714801 -0.96335948
-1.1111944 3.3306663 -0.96871263
-1.4069027 4.2170153 -0.98481369
-1.8156534 5.4421945 -0.95645303
-2.5937054 7.7743077 -0.91348648
-2.7706494 8.3046761 -0.48900208
-4.2065864 12.608718 0
-4.2038918 12.60064 0.74196023
-0.93897283 2.8031669 -0.97476745
-1.1199975 3.3435898 -0.97286427
-1.4176472 4.2321796 -0.98875445
-1.8214134 5.4375648 -0.95602548
-2.6022763 7.7687182 -0.91319847
-2.7666521 8.2594385 -0.48653483
-4.2284317 12.623367 0
-4.2199383 12.598013 0.74210525
-0.95653939 2.8441937 -0.98943526
-1.0976499 3.2637751 -0.95002627
-1.4122312 4.1991572 -0.98143744
-1.8263441 5.4304891 -0.95516872
-2.6124852 7.7680173 -0.91348648
-2.7741444 8.2486982 -0.48609927
-4.2478285 12.630581 0
-4.2417841 12.612608 0.74326634
-0.93881273 2.7693172 -0.96417367
-1.1168089 3.2943716 -0.95971519
-1.4191117 4.1861067 -0.97918594
-1.841112 5.4309268 -0.95602548
-2.6304202 7.759234 -0.91319847
-2.7506921 8.1140137 -0.47855258
-4.282516 12.6326 0
-4.2805953 12.626934 0.74471802
-0.95808542 2.8149767 -0.98047298
-1.1232145 3.3001471 -0.96179235
-1.4266256 4.1916075 -0.98087513
-1.8460171 5.4238329 -0.95516872
-2.6406264 7.7584963 -0.91348648
-0 0 -0
-4.3011312 12.637271 0
-4.3008714 12.636507 0.7455886
-0.95828933 2.8044617 -0.97721308
-1.1093533 3.2465549 -0.94656348
-1.4390829 4.2115178 -0.98594058
-1.8567189 5.433742 -0.95730811
-2.652509 7.7626448 -0.91435164
-0 0 -0
-4.3231297 12.651766 0
-4.3220191 12.648516 0.74660468
-0.98012114 2.8570659 -0.99595499
-1.1336262 3.3045352 -0.96386683
-1.4433469 4.207375 -0.98537821
-1.8632832 5.4314947 -0.95730811
-2.6635668 7.7643318 -0.91492879
-0 0 -0
-4.3401012 12.651452 0
-4.3423567 12.658027 0.74747527
-0.9859879 2.8628924 -0.99840063
-1.1220989 3.2581012 -0.95071775
-1.4467733 4.2008185 -0.98425138
-1.8681744 5.4243894 -0.95645303
-2.670419 7.7537689 -0.91406363
-0 0 -0
-4.3494549 12.628981 0
-4.3601875 12.660143 0.7479108
-0.96279454 2.7846158 -0.97150755
-1.1391517 3.2946796 -0.96179235
-1.4485269 4.1894617 -0.98199981
-1.8755654 5.424552 -0.95688057
-2.679786 7.7505364 -0.91406363
-2.7724915 8.0186615 -0.47390813
-4.374064 12.650764 0
-4.3780265 12.662226 0.74834579
-1.1365504 3.2743404 -0.95625508
-1.4544203 4.1901064 -0.98256218
-1.8787514 5.4125814 -0.95516872
-2.6908436 7.7521753 -0.91463965
-2.7796214 8.0079384 -0.47347257
-3.0427516 8.7660027 0
-4.4001398 12.676564 0.74950695
-0.99473411 2.8546362 -0.99677229
-1.1396813 3.2705979 -0.95556355
-1.4636651 4.2003498 -0.98537821
-1.89036 5.4248567 -0.95773733
-2.6968043 7.7391486 -0.91348648
-2.7867327 7.99722 -0.47303757
-3.0370727 8.7156334 0
-4.4188738 12.681053 0.7500875
-0.96961772 2.7717757 -0.96824771
-1.1477735 3.2810566 -0.95902371
-1.4687394 4.1985784 -0.98537821
-1.8969135 5.4225683 -0.95773733
-2.7078633 7.7407718 -0.91406363
-2.7895296 7.9742255 -0.47187644
-3.0665054 8.765996 0
-4.4401999 12.692876 0.75110364
-1.1517372 3.2796674 -0.95902371
-1.4637086 4.1680322 -0.97862357
-1.9026113 5.4178433 -0.95730811
-2.7206426 7.7472558 -0.9152168
-2.7957191 7.9610424 -0.47129589
-3.0710583 8.7450933 0
-4.4572539 12.692401 0.75139362
-0.99192733 2.8137155 -0.98373282
-1.1548626 3.2759004 -0.95832956
-1.4755023 4.185431 -0.98312664
-1.9117175 5.4228063 -0.95859241
-2.4453745 6.9365854 -0.81979728
-2.8010175 7.9454074 -0.47057033
-3.0902739 8.7659159 0
-4.482091 12.713964 0.75299031
-0.99609417 2.8201005 -0.98617536
-1.1451457 3.242089 -0.94864064
-1.4746456 4.1749558 -0.98087513
-1.9098653 5.4071317 -0.95602548
-2.4435341 6.9180326 -0.81777894
-2.8049493 7.9412565 -0.47042477
-3.0791032 8.7174301 0
-4.4897714 12.711255 0.75299031
-1.0019797 2.8258858 -0.98862106
-1.1515783 3.2477989 -0.95071775
-1.4822341 4.1803484 -0.98256218
-1.9189686 5.4120712 -0.95730811
-2.4536185 6.9199457 -0.81835496
-2.8110693 7.9280653 -0.46984422
-3.0835454 8.6965303 0
-4.5138092 12.730307 0.75444138
-0.99461997 2.7944045 -0.97802728
-1.1546613 3.2440438 -0.95002627
-1.4847305 4.17138 -0.98087513
-1.9220634 5.400075 -0.95559627
-2.4602451 6.9121075 -0.81777894
-2.8197763 7.9222174 -0.46969923
-3.0931795 8.6903486 0
-4.5335469 12.73709 0.75516754
-1.0129631 2.8350914 -0.99269509
-1.1577337 3.2402768 -0.94933212
-1.4889123 4.1671829 -0.98031062
-1.9363629 5.4195123 -0.95944917
-2.4651141 6.8993869 -0.81662577
-2.8275998 7.9139152 -0.46940923
-3.094923 8.6621017 0
-4.5524311 12.74139 0.75574809
-1.160802 3.2365165 -0.94864064
-1.5085285 4.206038 -0.98987913
-1.9385742 5.4050798 -0.95730811
-2.4717009 6.8915291 -0.81604862
-2.8327749 7.8982658 -0.46868366
-3.1185639 8.6950951 0
-4.5730848 12.750551 0.75661862
-0.98214018 2.7279994 -0.9560256
-1.1732116 3.2587206 -0.95556355
-1.4963988 4.1564078 -0.97862357
-1.944235 5.4003205 -0.95688057
-2.4730203 6.8690786 -0.81374341
-2.8475957 7.9095016 -0.46955422
-3.1264257 8.6839809 0
-4.5920091 12.754795 0.75719917
-1.0030757 2.7756224 -0.97313905
-1.1933465 3.3021228 -0.96871263
-1.5152373 4.192831 -0.98762977
-1.9507588 5.3979673 -0.95688057
-2.4769206 6.8539157 -0.8123011
-2.848321 7.8816218 -0.46810311
-3.1395674 8.6875334 0
-4.6136003 12.766346 0.75821531
-0.99631464 2.7465267 -0.96335948
-1.1768031 3.244077 -0.95210075
-1.5211681 4.1933832 -0.98819208
-1.9511545 5.3787208 -0.95388603
-2.4887285 6.8606434 -0.81345427
-2.8684721 7.9074774 -0.46984422
-3.1500621 8.683733 0
-4.6334519 12.772973 0.75894088
-1.0182352 2.7964101 -0.98128718
-1.1832981 3.249727 -0.95417792
-1.5184104 4.1700563 -0.98312664
-1.9567714 5.3739405 -0.95345682
-2.4934766 6.8479099 -0.8123011
-2.8726921 7.8893609 -0.46897367
-3.1632247 8.6872597 0
-4.6524386 12.777132 0.75952142
-1.0054952 2.7510777 -0.96580517
-1.2053086 3.2977753 -0.96871263
-1.5251908 4.172987 -0.98425138
-1.9650275 5.3763986 -0.95431358
-2.499088 6.8376112 -0.81143707
-2.8857906 7.8956461 -0.46955422
-3.1638911 8.6565409 0
-4.673224 12.786139 0.76039195
-1.0343548 2.8194678 -0.99025255
-1.2101556 3.2986696 -0.96940416
-1.531984 4.1759167 -0.98537821
-1.9741722 5.3812437 -0.95559627
-2.5046747 6.8272996 -0.81057191
-2.8962231 7.8945904 -0.46969923
-3.1806238 8.669816 0
-4.6913557 12.787805 0.76082754
-1.024949 2.7834234 -0.97802728
-1.2150066 3.299557 -0.97009563
-1.5396601 4.1812086 -0.98706526
-1.97358 5.359592 -0.95217419
-2.5084546 6.8121347 -0.80913073
-2.9129431 7.9105921 -0.47086033
-3.1973932 8.6830645 0
-4.7130866 12.799189 0.76184309
-1.0368785 2.8053615 -0.98617536
-1.1929017 3.2274954 -0.94933212
-1.5394275 4.16505 -0.98368901
-1.9862818 5.3740516 -0.95516872
-2.510406 6.7921138 -0.8071124
-2.9125893 7.8802543 -0.46926367
-3.2105868 8.686511 0
-4.7348552 12.810548 0.76285923
-1.0308136 2.7786231 -0.97721308
-1.1915668 3.2119436 -0.94518048
-1.5391548 4.1488886 -0.98031062
-1.9918817 5.3692431 -0.95474112
-2.5150127 6.7793756 -0.80595922
-2.9266305 7.888917 -0.46998978
-3.2147465 8.6655521 0
-4.7539463 12.814562 0.76343977
-1.0376202 2.7866406 -0.98047298
-1.1971961 3.215199 -0.94656348
-1.5539206 4.1732211 -0.98650289
-1.9956797 5.3596129 -0.95345682
-2.521399 6.7714887 -0.80538321
-2.9552009 7.9365101 -0.47303757
-3.2233968 8.6567793 0
-4.7748652 12.823414 0.7643103
-1.0254134 2.7437158 -0.96580517
-1.2019609 3.2161069 -0.94725764
-1.5536267 4.1570644 -0.98312664
-2.0030556 5.3596091 -0.95388603
-2.5268619 6.7611661 -0.80451804
-2.9493251 7.8915577 -0.47057033
-3.2374988 8.6626291 0
-4.7949071 12.829813 0.76503646
-1.0556353 2.8142068 -0.99106675
-1.2076067 3.2193456 -0.94864064
-1.5586485 4.1551843 -0.98312664
-2.0104311 5.3595862 -0.95431358
-2.5304885 6.7460017 -0.80307686
-2.9688942 7.9147434 -0.47216645
-3.2552757 8.6782045 0
-4.808579 12.819139 0.76474589
-1.0546815 2.8013659 -0.98699272
-1.2168012 3.2319758 -0.95279491
-1.5654569 4.1580491 -0.98425138
-2.0187128 5.3619533 -0.95516872
-2.5413692 6.7501941 -0.80394095
-2.9738786 7.8989935 -0.47144091
-3.2868507 8.7302866 0
-4.8240647 12.813319 0.76474589
-1.0650549 2.8185859 -0.99351239
-1.2508545 3.3102903 -0.97632706
-1.5812577 4.1846771 -0.99100596
-2.0197475 5.3451066 -0.95260173
-2.5422132 6.7277718 -0.80163568
-3.60796 9.5481892 -0.57013071
-3.303834 8.7433424 0
-4.8377085 12.802625 0.76445591
-1.0518064 2.7733858 -0.97802728
-1.2504028 3.2970412 -0.97286427
-1.5727968 4.1471243 -0.98256218
-2.0271139 5.3450603 -0.95302927
-2.5475881 6.7174377 -0.80077052
-3.0104668 7.9379482 -0.4741987
-3.3245485 8.7661142 0
-4.854095 12.799197 0.76460087
-1.0463662 2.749018 -0.96987921
-1.2329701 3.239265 -0.95625508
-1.5940783 4.1879697 -0.99269515
-2.0344832 5.3450036 -0.95345682
-2.5529416 6.7070999 -0.79990536
-3.068119 8.0605764 -0.48174539
-3.3416162 8.779109 0
-4.8760281 12.810324 0.76561701
-1.0796742 2.8262486 -0.99758649
-1.2207699 3.1955929 -0.94379747
-1.5791872 4.1338172 -0.98031062
-2.0409403 5.3425417 -0.95345682
-2.5591998 6.699183 -0.79932934
-3.1362731 8.2097797 -0.49088874
-3.3429358 8.7507582 0
-4.8961391 12.816557 0.76634258
-1.0734316 2.8048232 -0.99025255
-1.2612559 3.2955987 -0.97355843
-1.590768 4.1565971 -0.98594058
-2.0423341 5.3365173 -0.95260173
-2.5604722 6.6903863 -0.79846418
-3.1412325 8.2078838 -0.49088874
-3.3538051 8.7633257 0
-4.908524 12.825728 0.76706809
-1.0688448 2.7827609 -0.98291868
-1.2409488 3.2308373 -0.95486939
-1.5885009 4.1356964 -0.98143744
-2.0487809 5.3340454 -0.95260173
-2.5611353 6.6679716 -0.79615784
-3.0924542 8.0512714 -0.48174539
-3.3643913 8.7592669 0
-4.9314713 12.839193 0.76822925
-1.0535384 2.7330396 -0.96580517
-1.2322204 3.1965678 -0.94518048
-1.5934968 4.1337743 -0.98143744
-2.0515311 5.3219852 -0.95088983
-2.5645397 6.6528072 -0.79471666
-3.0638616 7.9481249 -0.47579479
-3.3674843 8.7357683 0
-4.9581971 12.86232 0.76997089
-1.0764575 2.7824726 -0.98373282
-1.2306525 3.1810424 -0.94102883
-1.5957392 4.1247339 -0.97974825
-2.0524011 5.3051329 -0.94832122
-2.5781739 6.6641726 -0.79644585
-3.0650263 7.9226089 -0.47448868
-3.3780372 8.7316933 0
-5.1134214 13.217388 0.79159546
-1.0905536 2.8088183 -0.99351239
-1.2726268 3.2777641 -0.97009563
-1.6034819 4.1299109 -0.98143744
-2.0625262 5.3122211 -0.95003307
-2.5768647 6.6369462 -0.79356349
-3.0604889 7.8825631 -0.47231147
-3.4064796 8.7736931 0
-5.1707659 13.317771 0.79798102
-1.0984325 2.8190112 -0.99758649
-1.2483529 3.2037659 -0.94864064
-1.6075493 4.1256056 -0.98087513
-2.0652156 5.3001575 -0.94832122
-2.5811262 6.6241875 -0.79241031
-3.065295 7.866756 -0.4715859
-3.4208579 8.7792702 0
-5.1811953 13.29699 0.79711044
-1.0937377 2.7969673 -0.99025255
-1.2503976 3.1975865 -0.94725764
-1.6125331 4.1236601 -0.98087513
-2.0716183 5.297658 -0.94832122
-2.5881872 6.6186576 -0.7921223
-3.0681767 7.8461132 -0.47057033
-3.4248278 8.7581615 0
-5.1754956 13.235067 0.79377264
-1.0826699 2.7588313 -0.97721308
-1.2725865 3.2427719 -0.96109819
-1.6202966 4.1287975 -0.98256218
-2.081769 5.3047099 -0.95003307
-2.5924032 6.6058946 -0.79096913
-3.0748062 7.8351412 -0.47013479
-3.4354079 8.7540169 0
-5.157311 13.141726 0.78854764
-1.091435 2.7713146 -0.98210132
-1.2544439 3.1852183 -0.944489
-1.6308725 4.141026 -0.98594058
-2.0815952 5.2854776 -0.94703853
-2.60133 6.6051612 -0.79125714
-3.0861738 7.8362513 -0.47042477
-3.447892 8.7547073 0
-5.1455741 13.065373 0.78433871
-1.1047769 2.7952807 -0.99106675
-1.2601342 3.1883621 -0.94587195
-1.6284034 4.1201482 -0.98143744
-2.0926971 5.2948933 -0.94917798
-2.6045566 6.5899887 -0.78981596
-3.1004183 7.8446059 -0.4711509
-3.4747288 8.7916775 0
-5.140347 13.005986 0.78114593
-1.2695373 3.200834 -0.95002627
-1.6446222 4.1465206 -0.98819208
-2.1009843 5.2971287 -0.95003307
-2.6106083 6.5820236 -0.78923887
-3.1108518 7.843267 -0.47129589
-3.4930253 8.8068266 0
-5.1493516 12.982856 0.78012985
-1.0932482 2.7466748 -0.97476745
-1.2585597 3.162003 -0.93895167
-1.6383555 4.1162009 -0.98143744
-2.1035862 5.2850456 -0.94832122
-2.6166484 6.5740628 -0.78866279
-3.1212866 7.8419147 -0.47144091
-3.5007758 8.7953424 0
-5.1573477 12.957311 0.77896869
-1.1130669 2.7866626 -0.98943526
-1.2633091 3.1628075 -0.9396432
-1.6536963 4.1401768 -0.98762977
-2.1099706 5.2825003 -0.94832122
-2.6226695 6.5660877 -0.7880857
-3.1297967 7.8357267 -0.47129589
-3.525882 8.8273611 0
-4.0868034 10.231678 0.61540532
-1.0952858 2.7325563 -0.97069341
-1.3081956 3.263731 -0.97009563
-1.6568052 4.1334538 -0.98650289
-2.1153977 5.2775664 -0.94789368
-2.6354156 6.5749249 -0.78952795
-3.1431296 7.8415866 -0.47187644
-5.7218118 14.274972 0
-4.0933609 10.212256 0.6145342
-1.0958188 2.7243495 -0.96824771
-1.311203 3.2598228 -0.96940416
-1.6475781 4.0960956 -0.97806126
-2.12273 5.2773857 -0.94832122
-2.6443224 6.5741329 -0.78981596
-3.156481 7.8474259 -0.47245702
-5.7361455 14.260811 0
-4.1008501 10.195251 0.61380863
-1.1259371 2.7894876 -0.99188089
-1.2738276 3.1558831 -0.93895167
-1.6639352 4.1223674 -0.98481369
-2.1252656 5.2653046 -0.94661099
-2.6561365 6.5805268 -0.79096913
-3.1601233 7.8291445 -0.4715859
-5.7631121 14.277998 0
-4.1092753 10.180651 0.61322808
-1.1126069 2.7468946 -0.97721308
-1.2832891 3.1682887 -0.94310331
-1.6679621 4.118001 -0.98425138
-2.1354773 5.2722406 -0.94832122
-2.6660261 6.5821028 -0.79154515
-3.1773851 7.8445873 -0.47274703
-5.7774277 14.263785 0
-4.117672 10.166044 0.61264753
-1.10848 2.7272305 -0.97069341
-1.292786 3.180685 -0.94725764
-1.6729367 4.1159825 -0.98425138
-2.144747 5.276793 -0.94960552
-2.6788497 6.5908642 -0.79298747
-3.1868613 7.8407426 -0.47274703
-5.799561 14.268856 0
-4.1250615 10.149028 0.61192197
-1.1304427 2.7716608 -0.98699272
-1.3222067 3.2418346 -0.96594399
-1.6692735 4.0927858 -0.97918594
-2.1472435 5.2646899 -0.94789368
-2.6877873 6.5900149 -0.79327548
-3.2041836 7.8561344 -0.47390813
-5.8285885 14.290746 0
-4.1314354 10.129604 0.61105138
-1.1412803 2.7885923 -0.99351239
-1.3109188 3.2030852 -0.95486939
-1.681917 4.1095781 -0.98368901
-2.1545746 5.2644649 -0.94832122
-2.7026031 6.6035118 -0.79529274
-3.2107203 7.8450398 -0.47347257
-0 0 0
-4.138752 10.112583 0.61032587
-1.1296259 2.7506304 -0.98047298
-1.3033514 3.1736507 -0.94656348
-1.6868814 4.107543 -0.98368901
-2.156059 5.2499871 -0.94618177
-2.7095985 6.5978513 -0.79500467
-3.2300701 7.8651958 -0.47492424
-0 0 0
-4.1489921 10.102763 0.6100353
-1.1395379 2.7652531 -0.98617536
-1.3320395 3.2323859 -0.96456099
-1.6937777 4.1101956 -0.98481369
-2.1712029 5.2687368 -0.95003307
-2.7234833 6.6089253 -0.79673499
-3.2366004 7.8540773 -0.47448868
-4.1898074 10.167171 0
-4.1582251 10.090532 0.60959971
-1.1249362 2.720484 -0.97069341
-1.3196478 3.1913638 -0.95279491
-1.693889 4.0964079 -0.98199981
-2.16678 5.2400212 -0.94532669
-2.7354205 6.6151905 -0.79788816
-3.2490678 7.857367 -0.47492424
-4.2100453 10.181342 0
-4.1654506 10.073497 0.6088742
-1.1358004 2.7373857 -0.97721308
-1.3148471 3.1689053 -0.94656348
-1.7007869 4.0990567 -0.98312664
-2.1819632 5.2587366 -0.94917798
-2.7424176 6.6094847 -0.79759902
-3.256566 7.8486309 -0.47463369
-4.1635013 10.034431 0
-4.1756296 10.063661 0.60858417
-1.1467069 2.7542655 -0.98373282
-1.3186752 3.1673143 -0.94656348
-1.6979257 4.0782328 -0.97862357
-2.1833835 5.2442493 -0.94703853
-2.7553716 6.6181026 -0.79904026
-3.2740371 7.8638806 -0.47579479
-4.1906285 10.065434 0
-4.1807947 10.041814 0.60756809
-1.1540771 2.7672548 -0.98862106
-1.3302469 3.189676 -0.95348644
-1.7013663 4.0795493 -0.97918594
-2.1875384 5.2452965 -0.94746614
-2.7643502 6.6283798 -0.80048251
-3.3017926 7.9170632 -0.47913316
-2.9606235 7.0990057 0
-4.1798582 10.022496 0.60655195
-1.1402477 2.7248223 -0.97395325
-1.3205434 3.1556706 -0.94379747
-1.7062944 4.0774903 -0.97918594
-2.1988287 5.2544875 -0.94960552
-2.7733548 6.6274185 -0.80077052
-3.3133607 7.9178576 -0.47942314
-2.9812548 7.1242323 0
-4.1909633 10.015043 0.60640693
-1.1511942 2.7416735 -0.98047298
-1.3321218 3.1725688 -0.94933212
-1.7131855 4.0801067 -0.98031062
-2.2012007 5.2423592 -0.94789368
-2.7863665 6.6359839 -0.8022117
-3.3209155 7.909061 -0.47913316
-2.9818006 7.1014285 0
-4.1930037 9.9860191 0.60495585
-1.149709 2.728894 -0.97639894
-1.3359543 3.1709569 -0.94933212
-1.7072654 4.0522833 -0.9741205
-2.2055421 5.2349687 -0.94703853
-2.7963929 6.6373844 -0.80278885
-3.3365207 7.9194055 -0.48000371
-0 0 0
-4.1980038 9.9641809 0.60393971
-1.1645503 2.7548127 -0.98617536
-1.3573698 3.2109389 -0.96179235
-1.7190869 4.0666022 -0.97806126
-2.2088664 5.2252045 -0.94575423
-2.8064232 6.6387606 -0.80336487
-3.3572178 7.9416981 -0.48160037
-0 0 0
-4.2039719 9.9447451 0.60306913
-1.1673363 2.7429023 -0.98291868
-1.3611957 3.1984155 -0.95902371
-1.7159714 4.0320354 -0.97074211
-2.2224915 5.2222109 -0.94618177
-2.831573 6.6533761 -0.80595922
-3.3794496 7.9407277 -0.48203537
-2.9957058 7.0390406 0
-4.2208686 9.9178181 0.60205305
-1.1551199 2.705121 -0.96987921
-1.3532368 3.1690819 -0.95071775
-1.7118626 4.0089307 -0.96567672
-2.222753 5.2053609 -0.94361484
-2.8446879 6.6618414 -0.80740041
-3.3931236 7.946197 -0.48261595
-3.008297 7.0449896 0
-4.2267284 9.8983765 0.60118246
-1.1797998 2.7537003 -0.98780686
-1.3550872 3.162828 -0.94933212
-1.7067007 3.9835079 -0.96004891
-2.235105 5.2168245 -0.94618177
-2.858849 6.6726685 -0.80913073
-3.4057937 7.9492588 -0.48305151
-3.0106597 7.0270009 0
-4.2386856 9.8932629 0.60118246
-1.1762925 2.7363756 -0.98210132
-1.3589078 3.1611884 -0.94933212
-1.6954571 3.9440932 -0.95104277
-2.2363389 5.2023306 -0.94404238
-2.8658891 6.6668353 -0.80884272
-3.4246311 7.9666209 -0.48435763
-3.0150371 7.0137944 0
-4.2475572 9.88097 0.60074693
-1.1688335 2.7099941 -0.97313905
-1.3448442 3.118083 -0.93687451
-1.6720492 3.8767228 -0.93528414
-2.2477055 5.2114081 -0.94618177
-2.8739426 6.6633677 -0.80884272
-3.4424872 7.981565 -0.48551872
-3.0152643 6.9910283 0
-4.2543488 9.8639021 0.60002136
-1.1858476 2.7403321 -0.98454702
-1.3755133 3.1786237 -0.95556355
-1.6686593 3.8560443 -0.93078107
-2.2489042 5.1969109 -0.94404238
-2.8871269 6.6717567 -0.8102839
-3.4696715 8.0179377 -0.48798597
-3.0257745 6.9921522 0
-4.2621365 9.8492155 0.59944081
-1.1989993 2.7615643 -0.99269509
-1.3523755 3.1148238 -0.93687451
-1.6551007 3.812068 -0.9206481
-2.2592714 5.2036085 -0.94575423
-2.9023938 6.684864 -0.8123011
-3.4710782 7.9946713 -0.48682484
-3.0342209 6.9884911 0
-4.2698946 9.8345251 0.59886026
-1.1776594 2.7034669 -0.97232175
-1.3831908 3.1752903 -0.95556355
-1.6475326 3.7821207 -0.91389561
-2.2563314 5.1796961 -0.94190294
-2.9146008 6.6908369 -0.81345427
-3.491111 8.0142889 -0.48827597
-3.0385056 6.975276 0
-4.2724361 9.8079205 0.59755415
-1.1700401 2.6771362 -0.96335948
-1.3639176 3.1207418 -0.9396432
-1.6297131 3.7289011 -0.90151107
-2.2656736 5.1840248 -0.94318724
-2.9268267 6.6967907 -0.81460744
-3.5018358 8.0124531 -0.48842153
-3.039639 6.9549136 0
-4.2957277 9.8289347 0.59915024
-1.1831976 2.6983519 -0.97150755
-1.3747406 3.1351769 -0.944489
-1.6280973 3.7129717 -0.89813483
-2.2667785 5.1695218 -0.94104618
-2.9380333 6.7003579 -0.8154726
-4.0979218 9.3455524 -0.56998575
-3.04386 6.9417019 0
-4.2919517 9.7880478 0.5969736
-1.1924307 2.7104986 -0.97639894
-1.3754961 3.1266222 -0.94241184
-1.6233748 3.6900718 -0.89306945
-2.2730231 5.166779 -0.94104618
-2.9461272 6.6968026 -0.8154726
-4.099791 9.3191805 -0.56867903
-3.0564375 6.9475474 0
-4.2985444 9.7709646 0.59624803
-1.1877209 2.6909666 -0.96987921
-1.375221 3.1157773 -0.9396432
-1.6370653 3.7090263 -0.89813483
-2.278229 5.1616826 -0.94061863
-2.9719706 6.7334619 -0.8203733
-4.1110482 9.3142204 -0.56867903
-3.0501158 6.910512 0
-4.3040504 9.7514963 0.59537691
-1.1939709 2.6963029 -0.97232175
-1.3850815 3.1278813 -0.94379747
-1.6292001 3.6791658 -0.89138025
-2.2896602 5.17066 -0.94275808
-2.9759154 6.7204061 -0.81922013
-3.1123343 7.0284762 -0.4293524
-3.0647881 6.921104 0
-4.3095193 9.7320375 0.59450632
-1.2082671 2.7197065 -0.98128718
-1.3858032 3.1193252 -0.94172031
-1.6377709 3.6864829 -0.89363176
-2.2917373 5.1585054 -0.94104618
-2.988234 6.7262602 -0.8203733
-3.1187167 7.0199656 -0.4290624
-3.0646956 6.8983688 0
-4.3202214 9.7244511 0.59436136
-1.1984729 2.6888988 -0.97069341
-1.4028476 3.1474352 -0.95071775
-1.6339488 3.6659348 -0.88912868
-2.2990167 5.1580839 -0.94147539
-2.9942553 6.7179246 -0.81979728
-3.1293104 7.0209341 -0.4293524
-3.0709078 6.8899021 0
-4.3309073 9.7168436 0.59421581
-1.1986932 2.6806777 -0.96824771
-1.3882179 3.1045182 -0.9382602
-1.637341 3.6616404 -0.88856637
-2.302103 5.1482697 -0.94019109
-3.0203185 6.7544394 -0.82469797
-3.1388552 7.019527 -0.42949796
-3.0824187 6.8933163 0
-4.3373427 9.6997452 0.59349024
-1.2083949 2.6979985 -0.97476745
-1.3829138 3.0876493 -0.9334144
-1.6385152 3.658334 -0.888004
-2.3073094 5.1515594 -0.94104618
-3.0201695 6.7431712 -0.8235448
-0 0 -0
-3.08552 6.8890796 0
-4.3357663 9.6805201 0.5924741
-1.2197582 2.7145722 -0.98128718
-1.3969243 3.1088555 -0.94033468
-1.6450154 3.6609824 -0.88912868
-2.3114302 5.1440887 -0.94019109
-3.0293744 6.7418737 -0.82383281
-3.1441166 6.9972329 -0.42848185
-3.0906408 6.8782225 0
-4.3421359 9.6634254 0.59174854
-1.2189744 2.7040834 -0.97802728
-1.4037737 3.1140289 -0.94241184
-1.6442176 3.6474121 -0.88631481
-2.3134243 5.1319313 -0.93847919
-3.0470839 6.759428 -0.82642716
-3.1557736 7.0005374 -0.42891741
-3.0882564 6.8507619 0
-4.3452663 9.6392212 0.59058744
-1.2161319 2.6891007 -0.97313905
-1.4054698 3.1077631 -0.94102883
-1.6538577 3.6569963 -0.88912868
-2.322798 5.1361513 -0.93976355
-3.0573785 6.7604499 -0.82700318
-3.1631563 6.9943447 -0.42877185
-3.0965319 6.8470254 0
-4.3515577 9.6221275 0.58986187
-1.2183563 2.6853721 -0.97232175
-1.4185517 3.126622 -0.94725764
-1.6519784 3.6411164 -0.88575244
-2.3279426 5.1310053 -0.93933594
-3.071959 6.7708879 -0.8287335
-3.1683877 6.9834256 -0.42833683
-3.1058772 6.8456464 0
-4.3578138 9.6050339 0.5891363
-1.2031718 2.6434104 -0.95765394
-1.4140142 3.1066387 -0.94172031
-1.6721628 3.6738002 -0.89419413
-2.3405194 5.1422029 -0.94190294
-3.082279 6.7718749 -0.82930952
-3.1768234 6.9795923 -0.42833683
-3.1152236 6.844255 0
-4.3726468 9.6068583 0.58957189
-1.2248421 2.68242 -0.97232175
-1.4167259 3.102648 -0.94102883
-1.6597142 3.6347954 -0.88518798
-2.3435311 5.1323633 -0.94061863
-3.0883126 6.7634444 -0.8287335
-3.1852546 6.9757485 -0.42833683
-3.1245711 6.8428512 0
-4.3810129 9.5944748 0.5891363
-1.2291148 2.6831915 -0.97313905
-1.4215176 3.1032124 -0.94172031
-1.6619906 3.6281717 -0.88406324
-2.3454547 5.1201925 -0.93890679
-3.09325 6.7526507 -0.82786834
-3.193681 6.9718947 -0.42833683
-3.1187482 6.8083138 0
-4.3796167 9.5608253 0.58739465
-1.2220335 2.6592419 -0.96498787
-1.4252661 3.1014926 -0.94172031
-1.6738012 3.6423247 -0.888004
-2.3505688 5.1150246 -0.93847919
-3.1845632 6.929863 -0.85006547
-3.1955907 6.9538598 -0.42746574
-3.1248012 6.7998157 0
-4.3933382 9.5602531 0.58768523
-1.2242119 2.6555212 -0.96417367
-1.4321647 3.1066053 -0.94379747
-1.6707536 3.6241448 -0.88406324
-2.3674927 5.135489 -0.94275808
-3.3066289 7.1726327 -0.88033479
-3.2007303 6.9429207 -0.42703074
-3.1351922 6.8007574 0
-4.3940058 9.5313349 0.58623356
-1.2429829 2.6876919 -0.97639894
-1.4253846 3.0820978 -0.93687451
-1.6825985 3.6382692 -0.888004
-2.3661566 5.1163211 -0.93976355
-3.3304908 7.2014937 -0.88437033
-3.2145698 6.9508381 -0.42775628
-3.1324852 6.7733474 0
-4.4044294 9.5236626 0.58608854
-1.2171043 2.6234102 -0.9535799
-1.4248843 3.07127 -0.93410587
-1.6773703 3.6154912 -0.88293856
-2.3744955 5.1181116 -0.94061863
-3.3293943 7.1763501 -0.88177598
-3.2295253 6.9610872 -0.42862684
-3.1505234 6.7908025 0
-4.412652 9.51126 0.58565295
-1.2254868 2.6331396 -0.95765394
-1.429652 3.0718184 -0.93479741
-1.6828088 3.6157632 -0.88350093
-2.3720126 5.0966196 -0.93719488
-3.3424287 7.1817017 -0.88292915
-3.2478008 6.9783802 -0.42993295
-3.155431 6.7799101 0
-4.4219508 9.501214 0.58536297
-1.2391255 2.6540565 -0.96580517
-1.4439778 3.0928252 -0.94172031
-1.6914761 3.6229365 -0.88575244
-2.3836021 5.1053867 -0.93933594
-3.3653274 7.2081227 -0.88667667
-3.2474363 6.9556146 -0.42877185
-3.1658251 6.7808132 0
-4.4268303 9.4817333 0.58449185
-1.2475721 2.6637466 -0.96987921
-1.4423945 3.0797207 -0.9382602
-1.6958525 3.6208901 -0.88575244
-2.3832345 5.0885501 -0.93676734
-3.3751347 7.2064004 -0.88696581
-3.2569437 6.9540458 -0.42891741
-3.1828465 6.7958374 0
-4.431673 9.4622631 0.58362132
-1.2518398 2.6644721 -0.97069341
-1.4482462 3.0825126 -0.9396432
-1.6915826 3.6004405 -0.88124937
-2.3937478 5.0949602 -0.93847919
-3.3816378 7.1976304 -0.88638866
-3.2465611 6.9101267 -0.42645016
-3.1921613 6.7943397 0
-4.4453111 9.4616003 0.5839113
-1.2645407 2.6830771 -0.97802728
-1.4434134 3.0626056 -0.93410587
-1.6991826 3.6052914 -0.88293856
-2.3944311 5.0804563 -0.9363398
-3.4002554 7.2145939 -0.88898301
-3.2593393 6.9156008 -0.42703074
-3.1970389 6.7834129 0
-4.4589581 9.460928 0.58420187
-1.2551049 2.6547337 -0.96824771
-1.4578379 3.0835443 -0.94102883
-1.7046226 3.6055305 -0.88350093
-2.4115384 5.1007624 -0.94061863
-3.4111836 7.2151608 -0.88956016
-3.2743547 6.9257479 -0.4279013
-3.2152433 6.8007178 0
-4.4703865 9.455533 0.58420187
-1.2540752 2.6442823 -0.96498787
-1.4518843 3.061373 -0.93479741
-1.7144209 3.6149449 -0.88631481
-2.4199018 5.102488 -0.94147539
-3.4243326 7.2203817 -0.89071333
-3.2938533 6.9452596 -0.4293524
-3.2256908 6.8015356 0
-4.4773545 9.440733 0.58362132
-1.2604558 2.6494629 -0.96743351
-1.4717499 3.0936005 -0.94518048
-1.7133307 3.6014006 -0.88350093
-2.4150352 5.076375 -0.93719488
-3.4330544 7.216239 -0.89071333
-3.3234537 6.9858594 -0.43211019
-3.238379 6.8070335 0
-4.4999194 9.4587765 0.5850724
-1.2657874 2.6524036 -0.96906501
-1.4473957 3.0329561 -0.9271856
-1.7165878 3.5970368 -0.88293856
-2.4266984 5.0850434 -0.93933594
-3.4317467 7.1910791 -0.88811898
-3.365464 7.052187 -0.4364641
-3.2443576 6.7984133 0
-4.5147038 9.4603701 0.58550799
-1.2636522 2.639719 -0.96498787
-1.4694735 3.0696714 -0.93895167
-1.7165444 3.5857928 -0.88068706
-2.4228621 5.0612621 -0.93548304
-3.4437804 7.1939197 -0.88898301
-3.397543 7.0973315 -0.4395119
-3.2638092 6.8179669 0
-4.5373487 9.4783401 0.58695906
-1.2668409 2.6381903 -0.96498787
-1.4601498 3.040755 -0.93064576
-1.7186741 3.5791306 -0.87956017
-2.4367554 5.0745316 -0.93847919
-3.4558301 7.1967502 -0.88984817
-3.412863 7.1072707 -0.44038245
-3.276551 6.8234024 0
-4.5420518 9.4588013 0.58608854
-1.2662941 2.6329739 -0.96335948
-1.4750347 3.067003 -0.93895167
-1.7241409 3.5849633 -0.88124937
-2.4420481 5.0776901 -0.93933594
-3.4523292 7.1783423 -0.88782984
-3.4306707 7.1333084 -0.44212413
-3.2863116 6.8331461 0
-4.5353761 9.430294 0.58449185
-1.2651789 2.6225376 -0.96009964
-1.4678367 3.0426185 -0.93202871
-1.7339906 3.5943177 -0.88406324
-2.4414871 5.0608587 -0.93676734
-3.4666228 7.1858201 -0.88927215
-3.4471917 7.1455421 -0.44314024
-3.2945657 6.8291702 0
-4.5682201 9.4692764 0.58724964
-1.2661915 2.6165531 -0.95846814
-1.4704202 3.0385866 -0.93133724
-1.7405437 3.5967898 -0.88518798
-2.4464834 5.0555964 -0.9363398
-3.4741731 7.1792912 -0.88898301
-3.4433715 7.1156411 -0.44154355
-3.302815 6.8251843 0
-0 0 0
-1.2758301 2.6283665 -0.96335948
-1.4817605 3.0526083 -0.93618304
-1.7393417 3.5832572 -0.88237405
-2.4525902 5.0526366 -0.9363398
-3.4738095 7.1564732 -0.88667667
-3.4757946 7.1605625 -0.44459134
-3.3133302 6.8258667 0
-0 0 0
-1.2930698 2.6557093 -0.97395325
-1.4931368 3.066607 -0.94102883
-1.7414476 3.5765884 -0.88124937
-2.4575708 5.0473638 -0.93591225
-3.4949102 7.1778531 -0.88984817
-3.4946806 7.1773815 -0.44589746
-3.3306899 6.8405771 0
-0 0 0
-1.275668 2.6119459 -0.95846814
-1.494637 3.0602877 -0.9396432
-1.7435356 3.5699108 -0.88012254
-2.4659188 5.0489993 -0.93676734
-3.4922321 7.1503882 -0.88696581
-3.5044942 7.1754951 -0.44604301
-3.3446624 6.848238 0
-4.6344576 9.489109 0.58986187
-1.287522 2.6281593 -0.96498787
-1.4817812 3.0246918 -0.92926276
-1.7478479 3.5678015 -0.88012254
-2.4742787 5.050631 -0.9376241
-3.5054209 7.1554546 -0.88811898
-3.5154459 7.1759181 -0.44633302
-3.3609505 6.8605537 0
-4.6825013 9.5581741 0.59450632
-1.2776161 2.5999825 -0.95520824
-1.4942821 3.0409036 -0.93479741
-1.7510381 3.5634086 -0.87956017
-2.4781129 5.0430255 -0.93676734
-3.5060785 7.1349621 -0.88610065
-3.5298429 7.1833234 -0.44705859
-3.3612022 6.8401351 0
-4.6894631 9.5431805 0.59392577
-1.2971486 2.6316931 -0.96743351
-1.5090489 3.0616028 -0.94172031
-1.7542202 3.5590134 -0.87899786
-2.4717195 5.0146971 -0.93205929
-3.5181286 7.1376824 -0.88696581
-3.5454149 7.1930413 -0.44792971
-3.3740671 6.8454061 0
-0 0 0
-1.3047091 2.6389863 -0.97069341
-1.4949573 3.0237942 -0.93064576
-1.7573943 3.5546157 -0.87843549
-2.4868786 5.0301161 -0.93548304
-3.5244558 7.1287847 -0.88638866
-3.5448909 7.1701179 -0.44676858
-3.3834927 6.8436637 0
-0 0 0
-1.2870325 2.5953343 -0.95520824
-1.524242 3.0736735 -0.94656348
-1.7684591 3.5661435 -0.88181174
-2.4906759 5.0225124 -0.93462789
-3.5296185 7.1175671 -0.8855235
-3.5316167 7.1215963 -0.44401079
-3.3906 6.8372321 0
-0 0 0
-1.2989734 2.611481 -0.96172798
-1.5145516 3.0448835 -0.9382602
-1.7693708 3.5571768 -0.88012254
-2.5024581 5.0309892 -0.93676734
-3.5405221 7.1179328 -0.88610065
-3.527493 7.0917387 -0.44241467
-3.4058154 6.847116 0
-0 0 0
-1.3065417 2.6187561 -0.96498787
-1.5137496 3.0340717 -0.93549156
-1.7657305 3.5391273 -0.87618399
-2.5039511 5.0187736 -0.93505549
-3.5502737 7.115962 -0.88638866
-3.5279379 7.0711932 -0.44139856
-3.4210551 6.8569636 0
-0 0 0
-1.3085999 2.6149671 -0.96417367
-1.5185363 3.0344818 -0.93618304
-1.7643211 3.5256321 -0.87337011
-2.5123134 5.02034 -0.93591225
-3.5588694 7.1116672 -0.88638866
-3.5608983 7.1157212 -0.44444636
-3.4246793 6.8435154 0
-0 0 0
-1.3084313 2.606755 -0.96172798
-1.5053192 2.9990098 -0.92579997
-1.7754167 3.5371187 -0.8767463
-2.5206785 5.0218849 -0.93676734
-3.5616596 7.0958056 -0.88494748
-3.5974696 7.1671491 -0.44792971
-3.4271095 6.827745 0
-0 0 0
-1.3049136 2.5919306 -0.95683974
-1.5134543 3.0061522 -0.9285686
-1.7785479 3.5327034 -0.87618399
-2.5209739 5.0073733 -0.93462789
-3.5690689 7.0891891 -0.88465947
-3.6376722 7.2254548 -0.45184803
-3.4353571 6.8235989 0
-0 0 0
-1.312501 2.5991771 -0.96009964
-1.5261323 3.0222368 -0.93410587
-1.7885407 3.5418904 -0.87899786
-2.5293345 5.0089021 -0.93548304
-3.5811265 7.0917912 -0.8855235
-3.6440599 7.2164197 -0.45155805
-3.4318707 6.7962165 0
-0 0 0
-1.3245746 2.6152289 -0.96661937
-1.5195822 3.0002501 -0.92787707
-1.7870799 3.5283952 -0.87618399
-2.5319088 4.9989786 -0.93420035
-3.5850182 7.078229 -0.88437033
-3.6433842 7.1934667 -0.45039693
-3.4612441 6.8338509 0
-0 0 0
-1.3254926 2.609215 -0.96498787
-1.5141163 2.9805181 -0.9223398
-1.7959452 3.5352945 -0.87843549
-2.5379472 4.9959159 -0.93420035
-3.5935683 7.0738921 -0.88437033
-3.6626642 7.2099066 -0.45170304
-3.462429 6.8157463 0
-0 0 0
-1.3151793 2.5811849 -0.95520824
-1.531384 3.0055103 -0.93064576
-1.793292 3.5195339 -0.8750571
-2.5463104 4.9974155 -0.93505549
-3.5974205 7.0603356 -0.88321829
-3.6701949 7.2031627 -0.45155805
-3.4777489 6.8254662 0
-0 0 0
-1.3362932 2.6148076 -0.96824771
-1.5372956 3.0081213 -0.93202871
-1.7963883 3.5151041 -0.87449479
-2.5476742 4.9851918 -0.93334359
-3.6047685 7.0536737 -0.88292915
-3.6883554 7.2172332 -0.45271915
-3.4848104 6.818944 0
-0 0 0
-1.3270535 2.5890028 -0.95928544
-1.5363561 2.99734 -0.92926276
-1.8087485 3.5287611 -0.87843549
-2.5525262 4.9798274 -0.93291605
-3.6132889 7.0493131 -0.88292915
-3.6875913 7.1942725 -0.45155805
-3.5061021 6.8401976 0
-0 0 0
-1.3279185 2.5829971 -0.95765394
-1.5376804 2.9910147 -0.92787707
-1.8013914 3.5039713 -0.8728056
-2.5667586 4.992723 -0.93591225
-3.6241715 7.0495467 -0.8835063
-3.705786 7.2082992 -0.45271915
-3.494137 6.7966108 0
-0 0 0
-1.3378371 2.5945754 -0.96254528
-1.5320953 2.9713161 -0.9223398
-1.807955 3.5063131 -0.87393242
-2.5669036 4.9782033 -0.93377113
-3.623204 7.0267715 -0.88119996
-3.7180622 7.2107377 -0.45315415
-4.8822355 9.4685135 0
-0 0 0
-1.3357152 2.578974 -0.95765394
-1.543246 2.9796708 -0.92579997
-1.8178095 3.5097928 -0.87561947
-2.5700204 4.9621477 -0.93163174
-3.6264174 7.0018196 -0.87889361
-3.7430778 7.2270651 -0.45460585
-4.8658757 9.3949423 0
-0 0 0
-1.3308582 2.562011 -0.95195156
-1.5433792 2.9711313 -0.92372543
-1.8173684 3.4985831 -0.87337011
-2.5831168 4.9727111 -0.93420035
-3.6420267 7.0112 -0.8806228
-3.7637835 7.2455916 -0.45605695
-4.8916202 9.41677 0
-0 0 0
-1.3350939 2.5625911 -0.9527657
-1.5620362 2.9981861 -0.93272287
-1.8274633 3.5076494 -0.87618399
-2.5831895 4.9581966 -0.93205929
-3.6493018 7.0045023 -0.88033479
-3.7845392 7.2640786 -0.45750806
-4.8933754 9.3923883 0
-0 0 0
-1.3587906 2.6004021 -0.96743351
-1.5656577 2.9962966 -0.93272287
-1.8269933 3.4964309 -0.87393242
-2.5903709 4.9573536 -0.9324885
-3.6589594 7.002378 -0.8806228
-3.8221951 7.3147721 -0.46099141
-4.9035163 9.3841648 0
-0 0 0
-1.3596393 2.5943842 -0.96580517
-1.5785934 3.0121794 -0.9382602
-1.826499 3.4852183 -0.87168092
-2.5963588 4.9542198 -0.9324885
-3.6602163 6.9842105 -0.87889361
-3.8382654 7.3239536 -0.46186197
-4.9039807 9.3574886 0
-0 0 0
-1.3420721 2.5533547 -0.9511342
-1.5565506 2.96141 -0.92303127
-1.8342565 3.4897585 -0.87337011
-2.5963726 4.9397197 -0.93034905
-3.6770775 6.9958115 -0.88091195
-3.8579962 7.3400178 -0.46316865
-4.9285994 9.3768902 0
-0 0 0
-1.3601388 2.5801525 -0.96172798
-1.5765088 2.9906015 -0.93272287
-1.8372835 3.4852853 -0.8728056
-2.6083238 4.9479313 -0.9324885
-3.6807032 6.9822111 -0.87975878
-3.2489114 6.1631117 -0.38915113
-4.9253674 9.3433104 0
-0 0 0
-1.3690348 2.5894387 -0.96580517
-1.5625312 2.9554241 -0.9223398
-1.843871 3.4875598 -0.87393242
-2.6095011 4.9356985 -0.9307766
-3.6806736 6.9617505 -0.87774044
-3.266072 6.1775589 -0.39031225
-4.9378686 9.3396511 0
-0 0 0
-1.3547937 2.5550261 -0.9535799
-1.5637529 2.9491053 -0.92095679
-1.850462 3.4898145 -0.8750571
-2.6214747 4.9438791 -0.93291605
-3.686662 6.9527321 -0.87716442
-3.2637959 6.1552424 -0.38915113
-4.9369607 9.310689 0
-0 0 0
-1.353238 2.5446582 -0.95032007
-1.5684919 2.9494267 -0.92164832
-1.8546774 3.487576 -0.8750571
-2.6322677 4.9497743 -0.93462789
-3.6962736 6.9505539 -0.87745243
-3.2687883 6.1467013 -0.38886058
-4.9763083 9.3575592 0
-0 0 0
-1.3563117 2.5430212 -0.95032007
-1.5767771 2.9563837 -0.92441696
-1.8576956 3.4830928 -0.87449479
-2.6334145 4.9375296 -0.93291605
-3.6742406 6.88903 -0.8702454
-3.2859957 6.1610889 -0.39002168
-4.9912868 9.3584309 0
-5.5138083 10.338135 0.65444547
-1.3733726 2.5675335 -0.96009964
-1.5756149 2.9456277 -0.92164832
-1.8595083 3.4763689 -0.87337011
-2.6381691 4.9320827 -0.9324885
-3.3922305 6.3418083 -0.80163568
-3.2922132 6.1548252 -0.38987669
-5.0062699 9.359271 0
-5.5275254 10.333762 0.65459102
-1.3776412 2.568048 -0.96091378
-1.5839169 2.9525647 -0.92441696
-1.8637074 3.4741194 -0.87337011
-2.6392725 4.9198427 -0.9307766
-3.3717675 6.2852802 -0.79500467
-3.291048 6.1348119 -0.38886058
-5.0249596 9.3669796 0
-4.789516 8.928091 0.56591511
-1.3807433 2.5663817 -0.96091378
-1.5755992 2.9285598 -0.91749668
-1.8582729 3.453964 -0.86886698
-2.6476452 4.9211674 -0.93163174
-3.3769112 6.2766504 -0.79442865
-3.2959986 6.1262589 -0.38857058
-5.0190086 9.3288107 0
-4.7953758 8.9131451 0.56533456
-1.3814981 2.5603652 -0.95928544
-1.5827072 2.9332709 -0.91957116
-1.8672713 3.4606609 -0.87111855
-2.6596835 4.9292583 -0.93377113
-3.3857198 6.2748394 -0.79471666
-3.3107994 6.1359882 -0.38944113
-5.0228648 9.3090019 0
-4.8221812 8.9370699 0.56722122
-1.3622403 2.5173907 -0.94380033
-1.5910262 2.9401822 -0.9223398
-1.8714514 3.4584022 -0.87111855
-2.6558685 4.9079881 -0.93034905
-3.3772979 6.2411742 -0.79096913
-3.3206868 6.1365581 -0.38973171
-5.0068626 9.2525749 0
-5.8692417 10.846232 0.68884224
-1.3864992 2.5548406 -0.95846814
-1.6053462 2.9581003 -0.9285686
-1.8732026 3.4516675 -0.86999172
-2.6593456 4.9002585 -0.92949229
-3.3885391 6.2439108 -0.79183429
-3.3157027 6.1096988 -0.38828003
-4.9981775 9.2099199 0
-5.8972111 10.866529 0.69058341
-1.3872244 2.5488257 -0.95683974
-1.5993249 2.9385302 -0.92303127
-1.8785855 3.4516313 -0.87055403
-2.6677215 4.9015555 -0.93034905
-3.401027 6.248899 -0.79298747
-3.3280513 6.1148171 -0.38886058
-5.0055685 9.1970148 0
-5.9289703 10.893633 0.69276059
-1.3820128 2.5319593 -0.9511342
-1.6112893 2.9520123 -0.92787707
-1.8839755 3.4515955 -0.87111855
-2.6711798 4.8938174 -0.92949229
-2.9637265 5.4297867 -0.68949574
-3.3416657 6.1222019 -0.38958669
-5.0166779 9.1909599 0
-5.9458652 10.893306 0.69319618
-1.3945655 2.547632 -0.95765394
-1.5943776 2.9126544 -0.91611099
-1.8844835 3.4426279 -0.86942935
-2.6672301 4.8725719 -0.92606854
-2.9827023 5.4488854 -0.6923781
-3.3565445 6.1318312 -0.39045724
-5.0252829 9.1803303 0
-5.966507 10.899785 0.6940667
-1.3984828 2.5511277 -0.95928544
-1.6166371 2.9490871 -0.92787707
-1.8865629 3.4414887 -0.86942935
-2.6726439 4.8754663 -0.9269253
-2.976047 5.4289379 -0.69007176
-3.3540044 6.1184115 -0.38973171
-5.0158162 9.1499071 0
-5.9830832 10.914407 0.69522786
-1.3837026 2.5169458 -0.94706017
-1.6020737 2.9141612 -0.91749668
-1.8882694 3.4347494 -0.86830252
-2.6785328 4.8722334 -0.9269253
-2.9850993 5.4298754 -0.69064891
-3.3438718 6.0824804 -0.38770002
-5.0293784 9.1484051 0
-6.0062814 10.925385 0.69638896
-1.403447 2.5455701 -0.95846814
-1.6055937 2.9122231 -0.91749668
-1.8924183 3.4324651 -0.86830252
-2.6868947 4.8734851 -0.92778045
-2.9891579 5.42173 -0.69007176
-3.0237937 5.4845519 -0.34982044
-5.0316319 9.1263657 0
-6.023243 10.924949 0.69682449
-1.3969589 2.5265768 -0.95195156
-1.6176052 2.9256434 -0.9223398
-1.8977973 3.4324062 -0.86886698
-2.6915402 4.8679905 -0.92735291
-2.9982123 5.4226456 -0.69064891
-3.0052722 5.4354143 -0.34691763
-5.0376186 9.1111689 0
-6.0552955 10.951766 0.69900119
-1.4167882 2.5551445 -0.96335948
-1.6114066 2.9061341 -0.91680253
-1.8982457 3.4234419 -0.86717778
-2.6974204 4.8647346 -0.92735291
-3.0035045 5.4167504 -0.69035983
-3.0130966 5.4340491 -0.34706265
-3.9772213 7.1728258 0
-6.0773458 10.960351 0.70001733
-1.3886467 2.4972723 -0.94217193
-1.6185757 2.9107649 -0.91887969
-1.9036145 3.4233642 -0.86774015
-2.7020502 4.8592305 -0.9269253
-3.0050194 5.4040751 -0.68920666
-3.0095577 5.4122367 -0.34590152
-3.9858854 7.168015 0
-6.0956359 10.962084 0.70059788
-1.4169412 2.5409222 -0.95928544
-1.6257584 2.9153824 -0.92095679
-1.9077497 3.4210615 -0.86774015
-2.7079196 4.8559623 -0.9269253
-3.0165858 5.4094763 -0.69035983
-3.0236909 5.4222174 -0.34677264
-3.9945436 7.1631937 0
-6.1215301 10.977401 0.70204896
-1.4127698 2.5262609 -0.9543941
-1.6170324 2.8915155 -0.91403389
-1.9118819 3.4187539 -0.86774015
-2.7200487 4.8638868 -0.92906475
-3.0243862 5.4080915 -0.69064891
-0 0 -0
-4.0819497 7.2991862 0
-6.1385956 10.976802 0.70248455
-1.4121978 2.518091 -0.95195156
-1.6242077 2.896126 -0.91611099
-1.917253 3.4186554 -0.86830252
-2.7171328 4.8449216 -0.92606854
-3.0397711 5.420218 -0.69266617
-0 0 -0
-4.1111345 7.3305674 0
-6.1721911 11.005638 0.70480675
-1.4164498 2.5185349 -0.9527657
-1.6338538 2.9050925 -0.91957116
-1.9188937 3.4119112 -0.86717778
-2.7305377 4.8550644 -0.92863721
-3.0577281 5.4368286 -0.69526052
-0 0 -0
-4.1327443 7.3482738 0
-6.1880298 11.002698 0.70509678
-1.4012779 2.4845273 -0.94054043
-1.6435238 2.9140401 -0.92303127
-1.924262 3.4118011 -0.86774015
-2.7351375 4.8495188 -0.92820799
-3.0592127 5.4241185 -0.69410735
-0 0 -0
-4.1723042 7.3976784 0
-6.2128072 11.01558 0.7064029
-1.4273992 2.52371 -0.9560256
-1.6309888 2.8836663 -0.91403389
-1.9246292 3.4028363 -0.86605096
-2.7473178 4.857389 -0.93034905
-3.0555778 5.4024072 -0.69180101
-0 0 -0
-4.17483 7.3812985 0
-4.9354305 8.7260771 0.55996454
-1.4304475 2.5219834 -0.9560256
-1.6394229 2.8904221 -0.91680253
-1.9362633 3.4137735 -0.86942935
-2.7506495 4.849596 -0.92949229
-3.617162 6.3773208 -0.81720179
-3.0308733 5.3436508 -0.3431443
-4.2273979 7.4532113 0
-6.2740235 11.061562 0.71032178
-1.427385 2.5095131 -0.95195156
-1.6453973 2.8928046 -0.91818815
-1.9366168 3.4048035 -0.86774015
-2.7552392 4.8440394 -0.92906475
-3.6095247 6.3459749 -0.81374341
-3.0398948 5.3444977 -0.3434343
-4.2338295 7.4435778 0
-6.2796741 11.040417 0.70945066
-1.4340864 2.5142212 -0.9543941
-1.6401893 2.8755579 -0.91334236
-1.9394717 3.4002559 -0.86717778
-2.7585442 4.8362427 -0.92820799
-3.6235962 6.3528404 -0.81518459
-3.0412006 5.3317924 -0.34285372
-4.2428207 7.4384565 0
-6.3148947 11.071189 0.71191788
-1.4358974 2.5103431 -0.9535799
-1.6548721 2.8931711 -0.91957116
-1.9397929 3.3912911 -0.86548859
-2.7656641 4.8351407 -0.92863721
-3.6325526 6.3507004 -0.8154726
-3.0424852 5.3191004 -0.34227374
-4.2608519 7.4491401 0
-6.3385887 11.081594 0.71307904
-1.4586058 2.5429096 -0.96661937
-1.6608655 2.8955259 -0.92095679
-1.9426262 3.3867428 -0.86492628
-2.7689474 4.8273377 -0.92778045
-3.6427951 6.3507895 -0.81604862
-3.0502019 5.3176723 -0.34241873
-4.2504249 7.4101214 0
-6.3636088 11.094212 0.71438515
-1.4407285 2.5047255 -0.9527657
-1.654356 2.8761196 -0.91541952
-1.9441856 3.3799922 -0.8638016
-2.7683797 4.8128643 -0.925641
-3.6530478 6.3508716 -0.81662577
-3.0566249 5.3139825 -0.34241873
-4.2399149 7.3711481 0
-6.3860798 11.102283 0.71540123
-1.4598069 2.5308132 -0.96335948
-1.671615 2.8980172 -0.92303127
-1.9495366 3.3798394 -0.86436391
-2.7754745 4.8117375 -0.92606854
-3.664597 6.3531766 -0.81749094
-3.0539541 5.2945275 -0.34140262
-4.2436171 7.3570023 0
-6.4072771 11.10806 0.71627182
-1.4616276 2.5269101 -0.96254528
-1.657532 2.8655963 -0.91334236
-1.953619 3.3774815 -0.86436391
-2.7761452 4.7994919 -0.9243567
-3.678745 6.3599362 -0.81893212
-3.0642536 5.2975831 -0.34183818
-4.2485933 7.3451085 0
-6.4376068 11.129548 0.71815848
-1.4547589 2.5080383 -0.9560256
-1.6521808 2.8483984 -0.90849656
-1.9551464 3.3707182 -0.86323708
-2.7858076 4.8027978 -0.925641
-3.6877236 6.3577218 -0.81922013
-3.0680425 5.2893772 -0.34154761
-4.2639928 7.3512235 0
-6.4614801 11.139743 0.71931958
-1.4664836 2.5212281 -0.96172798
-1.6644522 2.8615823 -0.91334236
-1.9617754 3.3727505 -0.86436391
-2.7877357 4.792769 -0.9243567
-3.6967022 6.355495 -0.81950814
-3.0731263 5.283422 -0.34140262
-4.262404 7.3280692 0
-6.4840822 11.147653 0.72033572
-1.4545904 2.4938426 -0.95195156
-1.6641154 2.8530657 -0.91126519
-1.9658493 3.3703775 -0.86436391
-2.2309365 3.8248599 -0.73820037
-3.7082896 6.3577285 -0.8203733
-3.0782001 5.2774625 -0.34125763
-4.2673206 7.3161669 0
-6.514565 11.168986 0.72222239
-1.4498603 2.4822862 -0.94787437
-1.6658388 2.8520598 -0.91126519
-1.9678851 3.3691893 -0.86436391
-2.2682052 3.8833632 -0.74975592
-3.7121298 6.3554869 -0.8203733
-3.1023564 5.311502 -0.34357986
-4.2651782 7.3023534 0
-6.5265536 11.174024 0.72280294
-1.4553593 2.484802 -0.94950587
-1.675627 2.8608751 -0.91472805
-1.9706718 3.3646185 -0.8638016
-0 0 -0
