# .PCD v0.7 - Point Cloud Data file format
VERSION 0.7
FIELDS x y z
SIZE 4 4 4
TYPE F F F
COUNT 1 1 1
WIDTH 1711
HEIGHT 1
VIEWPOINT 0 0 0 1 0 0 0
POINTS 1711
DATA ascii
-2.8412867 -0.58482271 -0.80033582
-2.8280449 -0.58209711 -0.6396296
-4.29107 -0.88323194 -0.7303794
-4.2951145 -0.88406444 -0.48877445
-6.0343275 -1.2420471 -0.34412026
-4.4385924 -0.91359651 0
-6.0672936 -1.2488325 0.34600022
-2.83566 -0.58723694 -0.79895014
-2.8248441 -0.58499712 -0.63906509
-4.2899995 -0.88841617 -0.7303794
-4.2940431 -0.88925362 -0.48877445
-6.0531778 -1.2535529 -0.34528136
-4.447679 -0.92107004 0
-6.0581446 -1.2545815 0.34556469
-2.8103929 -0.58554673 -0.79202986
-2.8316 -0.58996522 -0.64075428
-4.2989755 -0.8956936 -0.73209125
-4.2879062 -0.89338732 -0.48819843
-6.0592928 -1.2624565 -0.34571692
-4.4287257 -0.92272717 0
-6.0617166 -1.2629616 0.34585524
-2.7802184 -0.58276594 -0.78372395
-2.8234222 -0.59182191 -0.63906509
-4.2853298 -0.89825469 -0.72995186
-4.2944202 -0.90016019 -0.48906356
-6.0603037 -1.2703097 -0.34586194
-4.4199734 -0.92647755 0
-6.0398407 -1.2660204 0.34469411
-2.8106339 -0.59091425 -0.63625121
-4.304884 -0.90506881 -0.73337561
-4.2888088 -0.90168917 -0.48848644
-6.0519042 -1.2723664 -0.34542638
-4.4321446 -0.93182445 0
-6.0238228 -1.2664626 0.34382355
-2.7900305 -0.59010369 -0.63174814
-4.308815 -0.9113332 -0.73423237
-4.2927818 -0.90794212 -0.48906356
-6.0554514 -1.2807544 -0.34571692
-4.4284716 -0.93664116 0
-6.0171986 -1.2726638 0.34353301
-2.7868326 -0.59294617 -0.63118577
-4.3001757 -0.91493565 -0.73294801
-4.299264 -0.91474175 -0.48992762
-6.0589776 -1.2891508 -0.34600693
-4.4324231 -0.94307357 0
-6.0080295 -1.2783107 0.34309745
-2.7811496 -0.59525055 -0.63006109
-4.2940416 -0.91905534 -0.73209125
-4.2956285 -0.91939509 -0.48963961
-6.0650406 -1.298103 -0.34644249
-4.4338226 -0.94897276 0
-6.0471349 -1.2942706 0.34541968
-4.2979517 -0.92532486 -0.73294801
-4.2919888 -0.92404097 -0.4893516
-4.4250908 -0.95269716 -0.25283211
-4.4174123 -0.95104402 0
-4.4884772 -0.96634388 0.25645378
-4.2918081 -0.92942971 -0.73209125
-4.2883434 -0.92867941 -0.48906356
-4.4290204 -0.95914429 -0.25312269
-4.4416904 -0.96188807 0
-4.4796948 -0.97011834 0.25601879
-4.2906818 -0.93461484 -0.73209125
-4.2821589 -0.93275833 -0.48848644
-4.4278584 -0.96449518 -0.25312269
-4.4227324 -0.96337861 0
-4.4683638 -0.97331828 0.25543824
-0 -0 -0
-4.2895494 -0.93979859 -0.73209125
-4.2860866 -0.93903995 -0.48906356
-5.9800081 -1.3101616 -0.34194303
-4.4190154 -0.96816331 0
-5.6702495 -1.2422966 0.3242307
-0 -0 -0
-4.2859063 -0.9444291 -0.7316637
-4.2874722 -0.94477421 -0.4893516
-5.9758854 -1.3168277 -0.34179804
-4.4458017 -0.97966313 0
-5.5647063 -1.2262216 0.31828013
-4.2797542 -0.9484973 -0.73080862
-4.2964287 -0.95219272 -0.49050477
-5.9641423 -1.3217984 -0.34121746
-4.4268265 -0.98109198 0
-5.5581517 -1.2318211 0.31799012
-4.278605 -0.95366782 -0.73080862
-4.2776008 -0.95344394 -0.48848644
-5.9447947 -1.3250486 -0.34020191
-4.4205623 -0.98530895 0
-5.5439706 -1.235708 0.31726402
-4.2849569 -0.96051985 -0.73209125
-4.2890625 -0.96144009 -0.48992762
-5.9051538 -1.3237046 -0.33802468
-4.4117475 -0.98894131 0
-5.5120568 -1.2355877 0.31552291
-4.2837934 -0.96569669 -0.73209125
-4.2979903 -0.9688971 -0.49108079
-5.8579278 -1.3205543 -0.33541244
-4.4130855 -0.99484313 0
-5.51056 -1.242247 0.31552291
-4.2901363 -0.97257537 -0.73337561
-4.2892466 -0.9723736 -0.49021563
-5.7144156 -1.2954599 -0.32728463
-4.434721 -1.0053526 0
-5.5166502 -1.2506263 0.3159579
-4.2914586 -0.97832847 -0.73380315
-4.2855492 -0.97698122 -0.48992762
-5.5557871 -1.2665588 -0.31828684
-4.4360476 -1.0112906 0
-5.5227375 -1.2590245 0.31639346
-4.2808566 -0.97863263 -0.73209125
-4.2950439 -0.98187584 -0.49108079
-5.5068893 -1.2589118 -0.31552905
-4.4354358 -1.0139704 0
-5.5143743 -1.260623 0.3159579
-4.2796712 -0.98380446 -0.73209125
-4.2938542 -0.98706484 -0.49108079
-5.462316 -1.2556691 -0.3130618
-4.4392753 -1.020494 0
-5.515377 -1.2678667 0.31610289
-0 -0 -0
-4.2747831 -0.99356329 -0.7316637
-4.2889395 -0.99685353 -0.49079278
-5.4643321 -1.2700434 -0.31335235
-4.4139843 -1.0259169 0
-5.5072398 -1.2800161 0.31581289
-4.2860756 -1.0016482 -0.73380315
-4.2877316 -1.0020351 -0.49079278
-5.4678493 -1.2778265 -0.31364235
-4.4254098 -1.0342103 0
-5.5056891 -1.2866696 0.31581289
-4.284862 -1.0068263 -0.73380315
-4.2840023 -1.0066242 -0.49050477
-5.461247 -1.2832447 -0.31335235
-4.4292288 -1.0407485 0
-5.5066576 -1.293915 0.3159579
-4.2836428 -1.0120029 -0.73380315
-4.2903271 -1.0135822 -0.4913688
-5.4723344 -1.2928293 -0.31407791
-4.4406295 -1.0490909 0
-0 -0 0
-4.2899117 -1.0189584 -0.73508745
-4.2865853 -1.0181683 -0.49108079
-5.470768 -1.2994406 -0.31407791
-4.4418883 -1.0550566 0
-5.5035148 -1.3072187 0.3159579
-4.2886772 -1.0241412 -0.73508745
-4.2903881 -1.0245498 -0.49165791
-5.4666691 -1.305447 -0.31393293
-4.4380813 -1.0598191 0
-5.5095158 -1.3156788 0.31639346
-4.2824492 -1.0281252 -0.73423237
-4.2866249 -1.0291276 -0.4913688
-5.4625635 -1.3114455 -0.31378791
-4.4367976 -1.0651809 0
-5.4952912 -1.3193027 0.3156679
-2.6662447 -0.64351708 -0.75673163
-4.2836971 -1.0339006 -0.73465991
-4.2828665 -1.0337001 -0.49108079
-5.4533949 -1.3162154 -0.31335235
-4.4405622 -1.0717611 0
-5.4987402 -1.3271598 0.3159579
-2.6995931 -0.65501887 -0.76642054
-4.2749581 -1.0372593 -0.73337561
-4.2866464 -1.0400953 -0.49165791
-5.4543233 -1.323416 -0.31349736
-4.4418001 -1.0777413 0
-5.4946094 -1.3331909 0.31581289
-2.6987996 -0.65828031 -0.76642054
-4.2786942 -1.0436418 -0.73423237
-4.2853866 -1.0452741 -0.49165791
-5.4653397 -1.3330836 -0.31422293
-4.4354334 -1.0818729 0
-5.4955168 -1.3404442 0.3159579
-2.6955678 -0.66094393 -0.76572907
-4.2824116 -1.0500325 -0.73508745
-4.2866297 -1.0510668 -0.49194595
-5.4687772 -1.3409252 -0.31451347
-4.4341226 -1.0872315 0
-5.4787555 -1.3433719 0.31508735
-2.6947672 -0.66420048 -0.76572907
-4.2836299 -1.05582 -0.735515
-4.2853565 -1.0562456 -0.49194595
-5.4747148 -1.349396 -0.31494847
-4.4302812 -1.0919663 0
-5.4897408 -1.3530996 0.31581289
-2.6720488 -0.6620267 -0.75950027
-4.2748833 -1.0591449 -0.73423237
-4.2916117 -1.0632895 -0.49281108
-5.5058661 -1.3641331 -0.31683517
-4.4213777 -1.0954404 0
-5.4981904 -1.3622315 0.31639346
-2.7174938 -0.6767723 -0.77264935
-4.2835546 -1.0667886 -0.73594254
-4.2827916 -1.0665985 -0.49194595
-4.4049273 -1.0970155 -0.25355768
-4.4352078 -1.1045567 0
-4.4148965 -1.0994983 0.25413156
-2.6343317 -0.65775186 -0.7491172
-4.2754445 -1.0675124 -0.73465991
-4.2871604 -1.0704377 -0.49252197
-4.3840952 -1.0946407 -0.25239658
-4.4219079 -1.104082 0
-5.5158811 -1.3772302 0.31755456
-2.6286731 -0.65971428 -0.74773419
-4.2890859 -1.0764258 -0.7372269
-4.2908864 -1.0768776 -0.49309912
-5.4891214 -1.3775969 -0.3161096
-4.4180484 -1.1087914 0
-5.5142131 -1.3838941 0.31755456
-2.6059833 -0.657368 -0.74150538
-4.2778258 -1.079096 -0.735515
-4.2820559 -1.080163 -0.49223396
-0 -0 -0
-4.4318514 -1.1179494 0
-5.5200977 -1.3924632 0.31799012
-2.6027575 -0.65990037 -0.74081391
-2.7587137 -0.69944137 -0.47446895
-4.2857666 -1.0866088 -0.49281108
-0 -0 -0
-5.5555501 -1.4085482 0
-5.4856601 -1.3908285 0.31610289
-2.6311219 -0.67047644 -0.7491172
-2.8225389 -0.71925431 -0.48559529
-4.2919626 -1.0937006 -0.49367514
-5.4463291 -1.3878626 -0.31393293
-5.503406 -1.4024072 0
-5.4890161 -1.3987403 0.31639346
-2.6060112 -0.66743195 -0.74219692
-2.8042576 -0.71820539 -0.48259908
-4.2856312 -1.0976037 -0.49309912
-5.4471631 -1.3950864 -0.31407791
-5.5017071 -1.4090559 0
-5.4973912 -1.4079504 0.31697401
-2.6100574 -0.67182988 -0.74357986
-2.805881 -0.72223496 -0.48302829
-4.2792873 -1.1014905 -0.49252197
-5.4454732 -1.4016672 -0.31407791
-5.5000005 -1.4157026 0
-5.4881339 -1.4126481 0.31653845
-2.606817 -0.67435545 -0.74288839
-2.787607 -0.72112381 -0.48003212
-4.2929826 -1.1105483 -0.49425229
-5.4513249 -1.4101989 -0.31451347
-5.495769 -1.4216961 0
-5.4788737 -1.4173255 0.31610289
-2.5623 -0.6661436 -0.73043078
-2.7991536 -0.7277205 -0.48217154
-4.2916374 -1.1157347 -0.49425229
-5.4546418 -1.4180911 -0.31480348
-5.4890141 -1.4270272 0
-5.4821916 -1.4252535 0.31639346
-2.7957909 -0.73045391 -0.48174399
-4.2827764 -1.1189574 -0.49338713
-5.4479012 -1.4233686 -0.31451347
-5.502389 -1.4376045 0
-5.4804654 -1.4318767 0.31639346
-2.8023574 -0.73578793 -0.48302829
-4.2789221 -1.1234752 -0.49309912
-5.448688 -1.4306095 -0.31465846
-5.4956183 -1.4429315 0
-5.4862738 -1.440478 0.31682903
-2.8337317 -0.74768674 -0.48859146
-4.2950702 -1.1332643 -0.49511743
-5.4444456 -1.4365298 -0.31451347
-5.5014129 -1.4515607 0
-5.4769893 -1.4451165 0.31639346
-4.2992187 -1.1399171 -0.74150735
-4.2811899 -1.135137 -0.49367514
-5.440187 -1.4424394 -0.31436792
-5.5021682 -1.4588734 0
-5.4827766 -1.4537319 0.31682903
-4.2953501 -1.1444483 -0.7410782
-4.2798152 -1.1403091 -0.49367514
-5.440958 -1.4496827 -0.31451347
-5.4928641 -1.4635125 0
-5.4759893 -1.4590164 0.31653845
-0 -0 -0
-4.2884283 -1.1481553 -0.49482831
-5.44171 -1.4569273 -0.31465846
-5.4986267 -1.4721657 0
-5.4842629 -1.4683201 0.317119
-0 -0 -0
-4.2827425 -1.1494063 -0.49425229
-5.4483604 -1.4622359 -0.31509402
-5.5077901 -1.4781859 0
-5.4758434 -1.4696119 0.31668347
-4.2745309 -1.1527413 -0.73808366
-4.2813506 -1.1545804 -0.49425229
-5.4440732 -1.4681396 -0.31494847
-5.4884181 -1.4800985 0
-5.4665442 -1.4741995 0.31624845
-4.2830458 -1.160591 -0.73979551
-4.2824464 -1.1604285 -0.4945403
-5.4448109 -1.4753983 -0.31509402
-5.4941545 -1.4887691 0
-5.444695 -1.475367 0.31508735
-4.2890639 -1.1677866 -0.7410782
-4.283534 -1.166281 -0.49482831
-5.4430242 -1.4819762 -0.31509402
-5.4923515 -1.4954066 0
-5.4579468 -1.4860392 0.3159579
-4.2876501 -1.1729683 -0.7410782
-4.2846236 -1.1721405 -0.49511743
-5.4437332 -1.489237 -0.31523904
-5.4905405 -1.5020419 0
-5.4787021 -1.4988033 0.31726402
-4.2961307 -1.1808697 -0.74279004
-4.285696 -1.1780015 -0.49540547
-5.434411 -1.4937468 -0.31480348
-5.4912381 -1.5093669 0
-5.5069532 -1.5136863 0.3190057
-4.3268657 -1.194943 -0.74835318
-4.2817788 -1.1824913 -0.49511743
-5.4351044 -1.5010031 -0.31494847
-5.4843884 -1.5146139 0
-5.490097 -1.5161903 0.31813514
-2.877696 -0.79847181 -0.6615805
-4.3056297 -1.1946794 -0.74492949
-4.2778473 -1.1869706 -0.49482831
-5.4408007 -1.5096543 -0.31538403
-5.4825544 -1.5212396 0
-5.5007777 -1.526296 0.31886068
-2.8547032 -0.7958082 -0.65651506
-0 -0 -0
-4.2813978 -1.1935291 -0.49540547
-5.441473 -1.5169244 -0.31552905
-5.4857306 -1.5292622 0
-5.5389776 -1.5441058 0.32118291
-2.8463969 -0.7972005 -0.65482587
-4.2879033 -1.2009283 -0.7423625
-4.2774644 -1.1980046 -0.49511743
-5.4396362 -1.5234982 -0.31552905
-5.4838791 -1.5358895 0
-4.4136953 -1.2361593 0.25601879
-2.7940698 -0.78618717 -0.64300585
-4.2815118 -1.2047192 -0.74150735
-4.2834759 -1.2052718 -0.49598148
-5.4603009 -1.5364035 -0.31683517
-4.3898029 -1.2351899 0
-4.4171963 -1.2428977 0.25630879
-2.8004553 -0.79163688 -0.64469504
-4.2899342 -1.2126849 -0.74321926
-4.284503 -1.2111496 -0.49626949
-4.3907971 -1.2411971 -0.2548638
-4.4383845 -1.2546492 0
-5.4958344 -1.5535706 0.3190057
-2.8043804 -0.79640704 -0.64581972
-4.2933998 -1.2192688 -0.74407434
-4.2855315 -1.2170343 -0.49655864
-4.344306 -1.2337255 -0.25225157
-4.4118352 -1.252903 0
-0 -0 0
-2.796093 -0.79770577 -0.64413267
-4.2894568 -1.223752 -0.7436468
-4.2815633 -1.2215 -0.49626949
-5.4621944 -1.5583258 -0.3172707
-5.4964128 -1.5680881 0
-0 -0 0
-2.7980511 -0.80009276 -0.64469504
-4.2837758 -1.2249304 -0.74279004
-4.2858033 -1.2255101 -0.49684665
-0 -0 -0
-5.4979644 -1.5721233 0
-5.4786272 -1.5665939 0.31828013
-2.8092906 -0.80697995 -0.64750892
-4.2847672 -1.2308165 -0.74321926
-4.2917795 -1.2328308 -0.49771178
-5.4293914 -1.5596144 -0.31552905
-5.4935617 -1.5780475 0
-5.4842253 -1.5753655 0.31871569
-2.8184628 -0.81330252 -0.80933326
-2.7961094 -0.80685222 -0.64469504
-4.2808032 -1.2352791 -0.74279004
-4.2803464 -1.2351472 -0.49655864
-5.4325008 -1.5676159 -0.31581959
-5.4841471 -1.5825189 0
-5.4773197 -1.5805488 0.31842512
-2.7596483 -0.79994428 -0.79272139
-2.8024561 -0.81235307 -0.64638424
-4.2645187 -1.2361639 -0.74022305
-4.2887878 -1.2431986 -0.49771178
-5.430603 -1.5741788 -0.31581959
-5.4847283 -1.5898682 0
-5.4853888 -1.5900596 0.3190057
-2.7827716 -0.81029332 -0.79964429
-2.8039098 -0.81644839 -0.64694655
-4.2704186 -1.2434695 -0.74150735
-4.282311 -1.2469324 -0.49713466
-5.4262047 -1.5800138 -0.3156746
-5.4828033 -1.5964942 0
-5.4834633 -1.5966865 0.3190057
-2.8034592 -0.81999308 -0.8058731
-2.8102398 -0.82197642 -0.64863575
-4.2245588 -1.2356553 -0.73380315
-4.2783208 -1.2513803 -0.49684665
-5.4217901 -1.5858375 -0.31552905
-5.4858708 -1.6045805 0
-5.4915061 -1.6062289 0.31958625
-2.7880194 -0.81913537 -0.80171883
-2.7946126 -0.82107252 -0.64525735
-2.7921574 -0.82035112 -0.48516771
-4.2768059 -1.256549 -0.49684665
-5.4198699 -1.5923876 -0.31552905
-5.4814239 -1.6104723 0
-5.48458 -1.6113995 0.31929624
-2.8303435 -0.83528686 -0.81417906
-2.7960532 -0.82516718 -0.64581972
-2.7837753 -0.82154375 -0.48388341
-4.2852073 -1.2646441 -0.49799982
-5.4079733 -1.5959933 -0.31494847
-5.491961 -1.6207796 0
-5.4851184 -1.6187602 0.31944126
-2.8197107 -0.83585411 -0.81141043
-2.7828758 -0.82493502 -0.64300585
-2.7852395 -0.82563567 -0.48431095
-4.288631 -1.2712898 -0.49857584
-5.4459014 -1.6143426 -0.3172707
-5.4899988 -1.6274145 0
-5.4806695 -1.6246489 0.31929624
-2.8307188 -0.84283948 -0.81487054
-2.8232739 -0.84062278 -0.65257436
-2.7670248 -0.82387471 -0.48131642
-4.2970076 -1.2794232 -0.49972901
-2.8565509 -0.85053092 -0.16647847
-5.4830351 -1.63256 0
-5.4787025 -1.6312701 0.31929624
-2.7864382 -0.83332175 -0.80241299
-2.7881796 -0.83384252 -0.64469504
-2.8004546 -0.83751351 -0.48730713
-4.2855463 -1.2816501 -0.49857584
-2.8605049 -0.85547239 -0.16676903
-5.4785676 -1.6384391 0
-5.4817019 -1.6393764 0.31958625
-2.8118522 -0.84462494 -0.81002474
-2.828537 -0.84963667 -0.65426356
-2.8092749 -0.84385073 -0.48901901
-4.2839942 -1.2868273 -0.49857584
-2.8594692 -0.85892808 -0.16676903
-5.481564 -1.6465536 0
-5.482203 -1.6467457 0.31973124
-2.8180375 -0.85019648 -0.8121019
-2.7861564 -0.84057802 -0.64469504
-2.7787611 -0.8383469 -0.48388341
-4.2750149 -1.2897637 -0.49771178
-2.8609145 -0.86313242 -0.16691402
-5.4770813 -1.6524248 0
-5.4777241 -1.6526188 0.31958625
-2.826612 -0.85651106 -0.81487054
-2.8045924 -0.84983873 -0.64919811
-2.7728374 -0.84021646 -0.48302829
-4.2808723 -1.2971764 -0.49857584
-2.8598695 -0.86658865 -0.16691402
-5.4800668 -1.6605525 0
-5.4831858 -1.6614977 0.32002181
-2.7943764 -0.85043091 -0.8058731
-2.8181436 -0.85766423 -0.65257436
-2.816021 -0.85701817 -0.49073088
-4.266932 -1.2985834 -0.49713466
-2.8513603 -0.86777323 -0.16647847
-5.478056 -1.6671729 0
-5.4836578 -1.6688776 0.3201668
-2.819731 -0.8618713 -0.81348491
-2.7781568 -0.84916383 -0.48431095
-4.2802057 -1.3082759 -0.49886495
-2.8329222 -0.86590326 -0.16546291
-5.4785242 -1.6745508 0
-5.4866118 -1.6770229 0.32045737
-2.8264081 -0.8657797 -0.81556207
-2.7850089 -0.85309839 -0.48559529
-4.2522082 -1.3025279 -0.49569348
-2.8547566 -0.87446332 -0.16676903
-5.4750257 -1.6770989 0
-5.48808 -1.6810976 0.32060236
-2.7630203 -0.850016 -0.79756719
-0 -0 -0
-2.7839761 -0.8564629 -0.48559529
-2.7995574 -0.8612563 -0.3264744
-2.856179 -0.8786754 -0.16691402
-5.4804502 -1.6860067 0
-5.4860449 -1.6877277 0.32060236
-2.8362904 -0.87630969 -0.81902218
-0 -0 -0
-2.7878492 -0.8613432 -0.48645204
-2.7985148 -0.86463845 -0.3264744
-2.8476651 -0.87982404 -0.16647847
-5.4659786 -1.688787 0
-5.4815211 -1.693589 0.32045737
-2.8328357 -0.87899339 -0.81833071
-0 -0 -0
-2.7892559 -0.86547112 -0.48687959
-2.846874 -0.8833493 -0.33224025
-2.8590155 -0.88711667 -0.16720457
-5.4713936 -1.6977048 0
-5.4745026 -1.6986696 0.3201668
-2.7732406 -0.86785442 -0.80171883
-2.7724521 -0.86760765 -0.48431095
-2.8077021 -0.87863868 -0.32791558
-2.8618183 -0.89557379 -0.16749458
-5.4722376 -1.7124751 0
-4.3966622 -1.375886 0.2573249
-2.7985194 -0.87947911 -0.80933326
-2.7958963 -0.87865478 -0.48859146
-2.814043 -0.88435769 -0.32878074
-2.8582575 -0.89825284 -0.16734958
-4.3976593 -1.3820343 0
-4.4222579 -1.3897647 0.25892103
-2.7328653 -0.86247593 -0.79064691
-2.7972782 -0.88280427 -0.48901901
-2.8253028 -0.89164871 -0.33022192
-2.8596458 -0.9024871 -0.16749458
-4.4332161 -1.3990965 0
-5.5083518 -1.7384028 0.32263404
-2.8035531 -0.888511 -0.49030334
-2.7897096 -0.88412362 -0.32618639
-2.8610277 -0.90672606 -0.16763958
-4.4191108 -1.4005187 0
-5.506247 -1.7450573 0.32263404
-2.8122623 -0.8950119 -0.49201518
-2.8379328 -0.90318161 -0.33195224
-2.8376479 -0.90309095 -0.16633347
-5.4862137 -1.746006 0
-0 -0 0
-2.8282883 -0.90387726 -0.49500972
-2.831907 -0.90503377 -0.33137509
-2.866256 -0.91601115 -0.16807513
-5.4766703 -1.7502593 0
-5.4747949 -1.7496599 0.32103792
-0 -0 -0
-2.814975 -0.90337276 -0.4928703
-2.828351 -0.90766537 -0.33108708
-2.8428819 -0.91232854 -0.16676903
-5.4720664 -1.7560779 0
-5.4677234 -1.7546843 0.32074738
-2.7918937 -0.89968789 -0.48901901
-0 -0 -0
-2.8343556 -0.91337121 -0.16633347
-5.4699407 -1.7626885 0
-5.46807 -1.7620859 0.32089236
-2.7908046 -0.90306067 -0.48901901
-2.8187644 -0.91210806 -0.33022192
-2.82831 -0.9151969 -0.16604346
-5.4752374 -1.7717011 0
-5.4609976 -1.7670933 0.32060236
-2.8019161 -0.91039777 -0.49115843
-2.7881415 -0.90592211 -0.32676241
-2.83214 -0.92021805 -0.16633347
-5.4681468 -1.7767086 0
-5.4712124 -1.7777046 0.32132792
-4.2951517 -1.3984488 -0.75306123
-2.7925172 -0.90920943 -0.32733956
-2.8414667 -0.92514676 -0.16691402
-5.4670725 -1.7800119 0
-5.4750738 -1.7826171 0.32161793
-0 -0 -0
-2.7815828 -0.9093681 -0.32618639
-2.8403468 -0.92857945 -0.16691402
-5.477284 -1.7906593 0
-5.5247798 -1.8061869 0.32466573
-0 -0 -0
-2.8148818 -0.92402059 -0.33022192
-4.5969481 -1.5090065 -0.27024829
-5.4899473 -1.8021448 0
-5.9620318 -1.9571124 0.35049969
-0 -0 -0
-2.7990291 -0.92256474 -0.32849273
-4.5753789 -1.5080526 -0.2690872
-5.9623137 -1.9651886 0
-6.0090103 -1.98058 0.35340193
-0 -0 -0
-2.7905436 -0.92350751 -0.32762757
-4.556283 -1.5078645 -0.26807109
-6.0044026 -1.9871079 0
-6.0140157 -1.9902892 0.35383749
-4.3036795 -1.4300395 -0.75605744
-2.7992437 -0.93014103 -0.32878074
-4.5445938 -1.5100912 -0.26749051
-6.009409 -1.9968244 0
-6.0091429 -1.9967359 0.3536925
-4.3141217 -1.4392999 -0.75819689
-2.8079319 -0.93679696 -0.32993391
-4.5477004 -1.5172276 -0.26778108
-6.0069919 -2.0040841 0
-6.011651 -2.0056386 0.35398248
-4.3172431 -1.4461408 -0.75905198
-2.7773674 -0.93033075 -0.3264744
-4.5458641 -1.5227215 -0.26778108
-5.9971604 -2.0088603 0
-6.0043001 -2.0112519 0.3536925
-4.3179326 -1.4521769 -0.75948119
-2.8105581 -0.94522727 -0.33050993
-4.553863 -1.5315232 -0.26836106
-6.002131 -2.0185947 0
-5.9944744 -2.0160198 0.35325694
-4.3283334 -1.4614986 -0.76162058
-2.8265703 -0.95441556 -0.33252826
-4.5446305 -1.5345331 -0.26792607
-5.9972148 -2.0250108 0
-6.0043411 -2.0274169 0.35398248
-4.3119726 -1.4617809 -0.75905198
-4.2926245 -1.4552218 -0.50520682
-4.5378466 -1.5383532 -0.26763552
-6.0021601 -2.0347631 0
-6.0068135 -2.0363407 0.35427305
-4.3174958 -1.4694722 -0.76033628
-4.2957554 -1.4620726 -0.50578284
-4.5089326 -1.5346282 -0.2660394
-5.9996972 -2.0420141 0
-6.0043488 -2.0435972 0.35427305
-4.3254342 -1.4780082 -0.76204818
-2.8598075 -0.97720104 -0.33685294
-4.4996963 -1.5375538 -0.26560384
-5.9996858 -2.0501027 0
-5.9969525 -2.0491688 0.35398248
-4.3163581 -1.4807338 -0.76076382
-2.8439407 -0.97561854 -0.33512262
-4.4806275 -1.5370867 -0.26458773
-6.0021324 -2.0590413 0
-6.0043035 -2.0597861 0.35456306
-4.3364077 -1.4934705 -0.76461512
-2.862324 -0.9857921 -0.33742896
-4.4689398 -1.539115 -0.26400718
-5.9897971 -2.0629025 0
-5.9969015 -2.0653491 0.35427305
-2.8304744 -0.97865033 -0.49929023
-2.8415747 -0.98248839 -0.33512262
-4.4498935 -1.5385724 -0.26299161
-5.9774618 -2.0667367 0
-5.9821153 -2.0683455 0.35354695
-2.8444316 -0.9854005 -0.50185722
-2.8434222 -0.9850508 -0.33541062
-4.4489632 -1.5412605 -0.26299161
-4.4368863 -1.5370768 0
-4.4341135 -1.5361161 0.26211381
-2.8456612 -0.98967916 -0.50228477
-2.8226957 -0.98169208 -0.33310542
-4.4274635 -1.5398067 -0.26183051
-4.4227376 -1.5381632 0
-4.4322538 -1.5414728 0.26211381
-2.8347213 -0.98971552 -0.99002707
-2.8517365 -0.99565619 -0.50356907
-2.8361542 -0.99021584 -0.33483461
-0 -0 -0
-4.4331589 -1.5477945 0
-4.4622874 -1.5579644 0.26400104
-2.8032033 -0.98251289 -0.9794333
-2.8456907 -0.99740463 -0.50271398
-2.8105514 -0.98508847 -0.33195224
-0 -0 -0
-4.4337392 -1.55401 0
-6.5103183 -2.2818437 0.38533095
-2.8136692 -0.99000025 -0.98350739
-2.8033197 -0.98635864 -0.49543893
-2.8093591 -0.98848373 -0.33195224
-0 -0 -0
-4.4171329 -1.554185 0
-6.507556 -2.2897084 0.38533095
-2.8171365 -0.99504721 -0.98513889
-2.7900162 -0.98546797 -0.49329787
-2.8203545 -0.99618387 -0.33339342
-4.4371133 -1.5672429 -0.26284605
-4.4250674 -1.5629882 0
-6.514585 -2.3010316 0.38591149
-2.7926326 -0.99018908 -0.97698766
-2.7791455 -0.98540694 -0.491586
-2.8337708 -1.0047755 -0.33512262
-4.4376721 -1.5734739 -0.26299161
-5.887464 -2.0875294 0
-6.5093532 -2.3080339 0.38576651
-2.8100622 -1.000193 -0.98350739
-2.7803781 -0.98962754 -0.49201518
-2.8179388 -1.0029967 -0.33339342
-4.4357677 -1.5788349 -0.26299161
-5.8800292 -2.0928946 0
-6.5041142 -2.315027 0.38562149
-2.7972162 -0.99943048 -0.9794333
-2.7670956 -0.98866856 -0.48987576
-2.816725 -1.0064008 -0.33339342
-4.438746 -1.5859404 -0.26328161
-5.8799539 -2.1008761 0
-6.5110998 -2.3263814 0.38620207
-2.7797189 -0.99696791 -0.97372776
-0 -0 -0
-2.7707272 -0.99374294 -0.49073088
-2.8155067 -1.0098035 -0.33339342
-4.4343829 -1.5904262 -0.26313663
-5.8725066 -2.1062205 0
-6.5033879 -2.3324909 0.38591149
-2.785491 -1.0028385 -0.97617346
-0 -0 -0
-2.7574501 -0.99274313 -0.48859146
-2.8118534 -1.0123295 -0.33310542
-4.4300156 -1.5949037 -0.26299161
-5.8724036 -2.1141956 0
-6.5030069 -2.3412266 0.38605651
-2.7773015 -1.0036825 -0.97372776
-0 -0 -0
-2.7586606 -0.99694592 -0.48901901
-2.7887285 -1.0078121 -0.33050993
-4.4207516 -1.5976051 -0.26255605
-5.8722997 -2.1221766 0
-6.4952908 -2.3473179 0.38576651
-2.7830594 -1.0095669 -0.97617346
-0 -0 -0
-2.7429793 -0.99502778 -0.48645204
-2.7923763 -1.0129467 -0.33108708
-4.4310293 -1.6073751 -0.26328161
-5.8672776 -2.1283805 0
-6.4997802 -2.3578236 0.38620207
-2.7818375 -1.012929 -0.97617346
-0 -0 -0
-4.2975192 -1.5648224 -0.76247573
-2.8154495 -1.0251678 -0.33396944
-4.4242053 -1.6109517 -0.26299161
-5.869597 -2.1372511 0
-6.5066929 -2.3692319 0.38678262
-2.7574017 -1.0078067 -0.96802539
-0 -0 -0
-4.3125048 -1.5761834 -0.76547188
-2.8117816 -1.0276819 -0.33368143
-4.4198079 -1.6154017 -0.26284605
-5.8743458 -2.1470227 0
-6.5038252 -2.3770921 0.38678262
-2.7382252 -1.0026735 -0.96150565
-0 -0 -0
-4.3187857 -1.5814375 -0.76675624
-2.7868772 -1.0204887 -0.33079907
-4.433476 -1.6234342 -0.26371717
-5.868155 -2.1487799 0
-6.4999409 -2.380125 0.38663706
-2.7555707 -1.0128026 -0.96802539
-0 -0 -0
-4.3192792 -1.5875394 -0.76718378
-2.7856421 -1.0238553 -0.33079907
-4.4315109 -1.62879 -0.26371717
-5.8777657 -2.1603572 0
-6.5068159 -2.3915629 0.38721761
-2.782162 -1.0263938 -0.9778018
-0 -0 -0
-4.3004966 -1.5865369 -0.76418757
-2.7892516 -1.0290092 -0.33137509
-4.4466066 -1.6404399 -0.26473328
-5.8702726 -2.165658 0
-6.4966149 -2.3967278 0.38678262
-2.827276 -1.0469201 -0.99410111
-0 -0 -0
-4.2865419 -1.5872759 -0.76204818
-2.7880061 -1.0323788 -0.33137509
-4.4275618 -1.6394945 -0.26371717
-5.8725281 -2.1745551 0
-6.5010176 -2.4072802 0.38721761
-2.7611482 -1.0262289 -0.97128522
-0 -0 -0
-4.2894287 -1.594241 -0.76290327
-2.7867568 -1.0357467 -0.33137509
-4.4377537 -1.6493685 -0.26444274
-5.8723426 -2.1825585 0
-6.4981041 -2.4151337 0.38721761
-2.7946355 -1.04252 -0.98350739
-0 -0 -0
-0 -0 -0
-2.7951965 -1.0427293 -0.33252826
-4.4576664 -1.6629024 -0.26574886
-5.8697009 -2.1896527 0
-6.4927487 -2.4220765 0.38707262
-2.7609727 -1.0337644 -0.97209942
-0 -0 -0
-4.292778 -1.6073036 -0.76418757
-2.7890947 -1.0442939 -0.33195224
-4.4483509 -1.6655531 -0.2653133
-5.8621716 -2.1949165 0
-6.4898176 -2.4299197 0.38707262
-2.7250149 -1.024057 -0.95987415
-0 -0 -0
-4.3028455 -1.6170037 -0.76632702
-2.7950873 -1.0503901 -0.33281627
-4.4463353 -1.6709269 -0.2653133
-5.8570814 -2.2010837 0
-6.4966063 -2.441416 0.38765317
-2.7885277 -1.051772 -0.9826932
-0 -0 -0
-4.305697 -1.6240153 -0.76718378
-2.7913985 -1.0528548 -0.33252826
-4.441884 -1.675382 -0.26516828
-5.8641582 -2.2118328 0
-6.4936514 -2.449264 0.38765317
-2.7479613 -1.0402657 -0.96883959
-0 -0 -0
-4.2749219 -1.6183106 -0.76204818
-2.7973833 -1.0589749 -0.33339342
-4.471446 -1.6927065 -0.26705495
-5.8590493 -2.2179964 0
-4.4591856 -1.6880652 0.2663227
-2.7605605 -1.0488507 -0.97372776
-0 -0 -0
-4.2825623 -1.6271218 -0.76376003
-2.7864304 -1.0586797 -0.33224025
-4.4548278 -1.6925726 -0.26618439
-4.4283714 -1.6825206 0
-4.4595785 -1.6943775 0.26646826
-2.7685287 -1.0557081 -0.97698766
-0 -0 -0
-4.2853856 -1.6341227 -0.76461512
-2.7827346 -1.061125 -0.33195224
-4.4163585 -1.6840658 -0.26400718
-4.4141698 -1.6832312 0
-4.4550929 -1.6988363 0.2663227
-2.7787907 -1.0634687 -0.9810617
-0 -0 -0
-4.2762227 -1.6365496 -0.76333249
-2.7886906 -1.0672574 -0.33281627
-4.4070468 -1.6866174 -0.26357216
-4.421855 -1.6922845 0
-4.455471 -1.7051497 0.26646826
-2.7544353 -1.0579652 -0.97291362
-0 -0 -0
-4.2694445 -1.6398728 -0.76247573
-2.7873988 -1.0706263 -0.33281627
-4.4122758 -1.6947335 -0.26400718
-4.4028077 -1.6910969 0
-6.4908619 -2.4931083 0.38837874
-2.7669878 -1.0666249 -0.9778018
-0 -0 -0
-4.2674599 -1.6450304 -0.76247573
-2.7788699 -1.0712053 -0.33195224
-4.4490175 -1.7150176 -0.26632941
-4.4129004 -1.7010951 0
-6.4975429 -2.5046878 0.38895929
-2.773262 -1.0709684 -0.9802475
-0 -0 -0
-4.2736516 -1.6503835 -0.76376003
-2.7902842 -1.0775419 -0.33339342
-4.4746466 -1.728003 -0.26792607
-5.8733039 -2.2681315 0
-6.4960284 -2.5086129 0.38895929
-2.7673612 -1.0725338 -0.97861916
-0 -0 -0
-4.2836204 -1.6601837 -0.76589948
-2.78898 -1.0809126 -0.33339342
-4.4846673 -1.7381027 -0.26865163
-5.8560038 -2.2695854 0
-6.5051045 -2.5211544 0.38968486
-2.7683644 -1.076772 -0.9794333
-0 -0 -0
-4.281611 -1.6653583 -0.76589948
-2.7949059 -1.0870955 -0.33425859
-4.4849834 -1.7444612 -0.26879662
-5.8629594 -2.2804332 0
-6.5117402 -2.5327804 0.39026541
-2.7256224 -1.0639406 -0.96476549
-0 -0 -0
-4.2795954 -1.6705307 -0.76589948
-2.7911739 -1.0895286 -0.33396944
-4.480454 -1.7489352 -0.26865163
-5.8650436 -2.2894068 0
-6.4989929 -2.5368674 0.38968486
-2.7496428 -1.0771474 -0.97372776
-0 -0 -0
-4.2895226 -1.6803813 -0.76803887
-2.7898555 -1.0929004 -0.33396944
-4.4783373 -1.7543477 -0.26865163
-4.4253922 -1.7336068 0
-6.4499607 -2.5267129 0.3869276
-2.7552421 -1.0831828 -0.97617346
-0 -0 -0
-4.2827158 -1.6836865 -0.76718378
-2.7764995 -1.0915397 -0.33252826
-4.4737983 -1.7588078 -0.26850665
-4.4184546 -1.7370503 0
-6.4372296 -2.5307019 0.38634706
-2.7585251 -1.0883236 -0.9778018
-0 -0 -0
-4.2806783 -1.6888601 -0.76718378
-2.7920227 -1.1015395 -0.3345466
-4.4716702 -1.7642123 -0.26850665
-4.4090877 -1.7395215 0
-6.2818947 -2.4784019 0.3772037
-2.7512977 -1.0931631 -0.97617346
-0 -0 -0
-4.2765841 -1.6991998 -0.76718378
-2.7893527 -1.1082834 -0.3345466
-4.4722185 -1.7769305 -0.26879662
-4.4266357 -1.7588193 0
-6.215519 -2.4695897 0.37357533
-2.7316082 -1.0891635 -0.96965373
-0 -0 -0
-4.274528 -1.704366 -0.76718378
-2.7856112 -1.110696 -0.33425859
-4.4676566 -1.7813715 -0.26865163
-4.4075832 -1.7574186 0
-0 -0 0
-2.7692983 -1.1080716 -0.98350739
-0 -0 -0
-4.2819991 -1.7133442 -0.76889563
-2.7842672 -1.114061 -0.33425859
-4.4727411 -1.7896653 -0.2690872
-4.4078798 -1.7637126 0
-0 -0 0
-2.7863064 -1.1187845 -0.99002707
-0 -0 -0
-4.2775364 -1.7175577 -0.76846641
-2.7757161 -1.1145322 -0.33339342
-4.4705753 -1.7950685 -0.2690872
-4.4105711 -1.770975 0
-0 -0 0
-2.7459822 -1.1064481 -0.97617346
-0 -0 -0
-4.2754579 -1.722725 -0.76846641
-2.7839634 -1.121752 -0.3345466
-4.4659858 -1.7994951 -0.26894164
-4.4036045 -1.7743596 0
-0 -0 0
-0 -0 -0
-0 -0 -0
-4.2828927 -1.7317389 -0.77017832
-2.7897928 -1.1280209 -0.33541062
-4.4638081 -1.80489 -0.26894164
-4.4135189 -1.784556 0
-6.1788073 -2.4983301 0.37226921
-0 -0 -0
-0 -0 -0
-4.2784209 -1.7359484 -0.76975077
-2.783639 -1.1294479 -0.33483461
-4.4712553 -1.8141901 -0.26952219
-4.4161777 -1.7918427 0
-6.1805949 -2.5077462 0.37255922
-0 -0 -0
-0 -0 -0
-2.8395882 -1.1541476 -0.67902827
-4.2868838 -1.7423993 -0.77146262
-2.7781684 -1.1291837 -0.33425859
-4.462944 -1.8139588 -0.2690872
-4.4078684 -1.7915734 0
-6.1766739 -2.5105023 0.37241423
-0 -0 -0
-0 -0 -0
-2.8076084 -1.1451042 -0.67171133
-4.2705183 -1.741763 -0.76889563
-2.7839799 -1.1354672 -0.33512262
-4.4631524 -1.8203304 -0.26923218
-4.4129229 -1.7998439 0
-6.1640115 -2.5140386 0.37183368
-0 -0 -0
-0 -0 -0
-2.815629 -1.1523455 -0.67396289
-4.2731576 -1.7488647 -0.76975077
-2.8017561 -1.1466678 -0.33742896
-4.4657545 -1.8276885 -0.26952219
-4.4203792 -1.8091177 0
-4.4632411 -1.8266598 0.2693705
-0 -0 -0
-2.8236361 -1.1596079 -0.6762144
-4.2734137 -1.7550009 -0.77017832
-2.7931886 -1.1471037 -0.3365638
-4.4587402 -1.8311107 -0.26923218
-4.410975 -1.8114945 0
-4.461031 -1.8320514 0.2693705
-2.787477 -1.1486962 -0.99410111
-0 -0 -0
-2.8034389 -1.155274 -0.67171133
-4.2736702 -1.761144 -0.77060747
-2.7750676 -1.1435823 -0.3345466
-4.4541245 -1.8355079 -0.2690872
-4.4135904 -1.8188041 0
-4.432394 -1.8265529 0.26777437
-0 -0 -0
-0 -0 -0
-2.762126 -1.1421555 -0.66214281
-4.2667899 -1.7643429 -0.76975077
-2.7928052 -1.1548415 -0.33685294
-4.4326935 -1.832945 -0.26792607
-4.4065843 -1.8221487 0
-4.4373803 -1.8348831 0.2682094
-0 -0 -0
-0 -0 -0
-2.7560546 -1.1435465 -0.66101813
-4.2765079 -1.7744154 -0.77189016
-2.8105199 -1.1661452 -0.33915928
-4.4136724 -1.8313279 -0.26690996
-4.4115839 -1.8304611 0
-4.4399648 -1.8422371 0.26849994
-0 -0 -0
-0 -0 -0
-2.7617013 -1.1498028 -0.66270518
-4.2791052 -1.7815566 -0.77274692
-2.7732894 -1.1546274 -0.33483461
-4.4138532 -1.8376573 -0.26705495
-4.409369 -1.8357904 0
-4.447331 -1.8515955 0.26908049
-0 -0 -0
-0 -0 -0
-2.7556255 -1.1511819 -0.6615805
-4.281682 -1.788703 -0.77360207
-2.8053 -1.1719339 -0.33887014
-4.4236245 -1.8480004 -0.26778108
-4.4047484 -1.8401147 0
-6.1880846 -2.5851161 0.37459147
-0 -0 -0
-0 -0 -0
-2.7472 -1.1515629 -0.65989131
-4.2795177 -1.7938752 -0.77360207
-2.7824156 -1.1663245 -0.33627579
-4.4429541 -1.8623838 -0.2690872
-4.4169183 -1.8514702 0
-6.2017245 -2.5996201 0.37560701
-0 -0 -0
-0 -0 -0
-2.7692327 -1.1647346 -0.6655212
-4.2773471 -1.7990448 -0.77360207
-2.7905412 -1.1736969 -0.33742896
-4.4478793 -1.8707703 -0.26952219
-4.4098845 -1.8547899 0
-6.1985788 -2.6071117 0.37560701
-0 -0 -0
-0 -0 -0
-2.7678235 -1.1680797 -0.6655212
-4.2657099 -1.8002194 -0.77189016
-2.7700572 -1.1690224 -0.33512262
-4.450408 -1.878166 -0.26981276
-4.4100356 -1.8611279 0
-0 -0 0
-0 -0 -0
-0 -0 -0
-2.7640634 -1.1704297 -0.66495675
-4.254076 -1.8013685 -0.77017832
-2.7781696 -1.1764028 -0.33627579
-4.4481354 -1.8835419 -0.26981276
-4.3981977 -1.862396 0
-6.1731277 -2.613982 0.37444645
-0 -0 -0
-0 -0 -0
-2.7509565 -1.1688017 -0.66214281
-4.2589865 -1.8095199 -0.77146262
-2.7934122 -1.1868398 -0.33829412
-4.4506345 -1.8909456 -0.27010274
-4.4127131 -1.8748338 0
-6.1723537 -2.6224542 0.37459147
-0 -0 -0
-0 -0 -0
-2.7612269 -1.1771059 -0.66495675
-4.2520785 -1.8126532 -0.77060747
-2.79673 -1.1922408 -0.33887014
-4.4531317 -1.8983618 -0.27039331
-4.4080529 -1.8791447 0
-6.1620073 -2.6268523 0.37415591
-0 -0 -0
-0 -0 -0
-2.7488337 -1.1737857 -0.66214281
-4.2509828 -1.8152218 -0.77060747
-2.7960093 -1.1939303 -0.33887014
-4.4495969 -1.9000324 -0.27024829
-4.4188814 -1.8869166 0
-6.1580319 -2.6295552 0.37401089
-0 -0 -0
-0 -0 -0
-2.7660978 -1.1851115 -0.66664594
-2.856678 -1.2239199 -0.51811916
-2.8016994 -1.2003646 -0.3397353
-4.4568424 -1.9094968 -0.27082831
-4.4046397 -1.887131 0
-6.1620178 -2.640065 0.37444645
-0 -0 -0
-0 -0 -0
-2.7529943 -1.1834365 -0.66383201
-4.3102536 -1.8528594 -0.78216136
-2.8097517 -1.207835 -0.34088847
-4.4569259 -1.9159098 -0.27097386
-4.3951812 -1.8893673 0
-6.165978 -2.6505842 0.37488145
-0 -0 -0
-0 -0 -0
-2.7445607 -1.1837423 -0.66214281
-4.2962279 -1.8529838 -0.78002197
-2.8177903 -1.2153265 -0.34204164
-4.4522147 -1.9202617 -0.27082831
-4.3928947 -1.8946767 0
-6.160387 -2.6570046 0.37473646
-0 -0 -0
-0 -0 -0
-2.7547858 -1.1921022 -0.66495675
-4.3010559 -1.8612331 -0.78130627
-2.7997012 -1.2115389 -0.34002331
-4.4475088 -1.9246089 -0.27068332
-4.4073238 -1.9072193 0
-6.1571722 -2.6644464 0.37473646
-0 -0 -0
-0 -0 -0
-4.2870235 -1.8613141 -0.77916521
-2.7958651 -1.2138917 -0.3397353
-4.4427991 -1.9289477 -0.2705383
-4.3978524 -1.909433 0
-6.1658635 -2.6770573 0.37546203
-0 -0 -0
-0 -0 -0
-4.2800689 -1.8644444 -0.77831006
-2.8015122 -1.220369 -0.34060046
-4.4476137 -1.9374287 -0.27097386
-4.4074693 -1.9199412 0
-6.1578641 -2.6824322 0.37517202
-0 -0 -0
-0 -0 -0
-4.2754631 -1.8685875 -0.77788252
-2.7952909 -1.2216796 -0.34002331
-4.4357457 -1.9386389 -0.27039331
-4.4075284 -1.9263066 0
-6.1569972 -2.6909103 0.37531701
-0 -0 -0
-0 -0 -0
-4.2684956 -1.8716885 -0.77702576
-2.7819712 -1.2198639 -0.33858213
-4.4452963 -1.9492136 -0.27111888
-4.4004354 -1.9295427 0
-6.1561189 -2.6993904 0.37546203
-0 -0 -0
-0 -0 -0
-4.2709351 -1.8789142 -0.77788252
-2.7994354 -1.2315568 -0.34088847
-4.4429379 -1.9545835 -0.27111888
-4.3909521 -1.9317133 0
-6.1552286 -2.7078724 0.37560701
-0 -0 -0
-0 -0 -0
-4.2850943 -1.8913263 -0.78087705
-2.8050463 -1.2380726 -0.34175363
-4.4477067 -1.9630991 -0.27155441
-4.3981385 -1.941221 0
-6.1495776 -2.7142594 0.37546203
-0 -0 -0
-0 -0 -0
-2.7830026 -1.2323631 -0.50742036
-2.8011763 -1.2404108 -0.34146449
-4.4477053 -1.969523 -0.27169943
-4.4100628 -1.9528543 0
-6.139163 -2.7185307 0.37502646
-0 -0 -0
-0 -0 -0
-0 -0 -0
-2.769784 -1.2305148 -0.50528097
-2.7973142 -1.2427454 -0.34117648
-4.4405684 -1.9727838 -0.27140886
-4.3981957 -1.9539592 0
-6.1430001 -2.7291126 0.37546203
-0 -0 -0
-0 -0 -0
-4.3110409 -1.9214799 -0.78686941
-2.7863607 -1.2419127 -0.34002331
-4.4310679 -1.9749774 -0.27097386
-4.402956 -1.9624475 0
-4.4072294 -1.9643523 0.26951605
-0 -0 -0
-0 -0 -0
-4.3204308 -1.931926 -0.78900886
-2.8084743 -1.2558388 -0.3429068
-4.41682 -1.9750276 -0.27024829
-4.4100847 -1.9720156 0
-4.4190807 -1.9760383 0.27038661
-0 -0 -0
-0 -0 -0
-4.3157535 -1.9360954 -0.78858131
-2.7975152 -1.2549967 -0.34175363
-4.4144306 -1.980363 -0.27024829
-4.4005728 -1.9741462 0
-4.409575 -1.9781847 0.26995105
-0 -0 -0
-0 -0 -0
-4.3216009 -1.9418558 -0.78986394
-2.8085506 -1.261986 -0.34319481
-4.4037528 -1.9787695 -0.26966774
-4.3993793 -1.9768045 0
-6.1598458 -2.7678475 0.3772037
-0 -0 -0
-0 -0 -0
-4.3239365 -1.9491881 -0.7907207
-2.8046679 -1.2643168 -0.3429068
-4.4132004 -1.9894276 -0.27039331
-4.3993669 -1.9831914 0
-6.1659722 -2.7795599 0.37778425
-0 -0 -0
-0 -0 -0
-4.319241 -1.9533545 -0.79029316
-2.8102014 -1.2708991 -0.34377083
-4.4249945 -2.0011809 -0.27126387
-4.3945894 -1.9874302 0
-6.1531391 -2.7827253 0.3772037
-0 -0 -0
-0 -0 -0
-4.3308997 -1.9649338 -0.79286015
-2.8086638 -1.2742938 -0.34377083
-4.4415035 -2.0151148 -0.27242497
-4.3874493 -1.9905903 0
-6.147408 -2.7890856 0.37705868
-0 -0 -0
-0 -0 -0
-4.3238449 -1.9680364 -0.79200339
-2.8024182 -1.2755456 -0.34319481
-4.4485254 -2.024786 -0.27300555
-4.413465 -2.0088277 0
-6.1463962 -2.7975869 0.3772037
-0 -0 -0
-0 -0 -0
-4.3261385 -1.9753941 -0.79286015
-2.7985244 -1.2778575 -0.3429068
-4.4437141 -2.0290813 -0.27286053
-4.3992 -2.0087552 0
-6.1477432 -2.8071723 0.37749425
-0 -0 -0
-0 -0 -0
-4.3307524 -1.9838283 -0.79414445
-2.8016768 -1.2833904 -0.34348282
-4.4412594 -2.0344491 -0.27286053
-4.4062338 -2.0184047 0
-6.1467071 -2.8156796 0.37763923
-0 -0 -0
-0 -0 -0
-4.3330126 -1.9912014 -0.7949996
-2.8142297 -1.2932569 -0.34521315
-4.436439 -2.0387301 -0.27271554
-4.3919611 -2.0182908 0
-6.1503768 -2.8263566 0.37807426
-0 -0 -0
-0 -0 -0
-4.3352704 -1.9985871 -0.79585636
-2.793874 -1.2879936 -0.3429068
-4.4316058 -2.0429983 -0.27256998
-4.398973 -2.0279543 0
-6.1469574 -2.833786 0.37807426
-0 -0 -0
-0 -0 -0
-4.3211961 -1.9984331 -0.79371524
-2.8063967 -1.2978805 -0.34463599
-4.4244213 -2.0461721 -0.27227998
-4.3870707 -2.0288985 0
-6.1506062 -2.8444846 0.37850982
-0 -0 -0
-0 -0 -0
-4.3234401 -2.0058157 -0.794572
-2.7954412 -1.2969165 -0.34348282
-4.438448 -2.0591726 -0.27329609
-4.4082284 -2.0451527 0
-6.1471648 -2.8519144 0.37850982
-0 -0 -0
-0 -0 -0
-0 -0 -0
-4.3279972 -2.0142889 -0.79585636
-2.7938721 -1.3002932 -0.34348282
-4.4335942 -2.0634346 -0.27315053
-4.384521 -2.0405955 0
-6.1460676 -2.8604352 0.37865481
-0 -0 -0
-0 -0 -0
-0 -0 -0
-4.3232274 -2.0184278 -0.79542714
-2.8180811 -1.3157053 -0.34665433
-4.4310975 -2.0687902 -0.27315053
-4.3938408 -2.0513957 0
-6.1449685 -2.8689618 0.37880036
-0 -0 -0
-0 -0 -0
-0 -0 -0
-4.3207855 -2.0236502 -0.79542714
-2.8071201 -1.3147213 -0.34550115
-4.4356565 -2.0774503 -0.27358609
-4.3913589 -2.0567033 0
-6.1367865 -2.8741784 0.37850982
-0 -0 -0
-0 -0 -0
-4.3299608 -2.0343306 -0.7975682
-2.8125458 -1.3214086 -0.34636518
-4.4354925 -2.0839121 -0.27373108
-4.3935771 -2.0642192 0
-6.1380172 -2.8838036 0.37880036
-0 -0 -0
-0 -0 -0
-4.3367882 -2.0439389 -0.79928005
-2.8086095 -1.3237045 -0.34607717
-4.4353194 -2.0903769 -0.2738761
-4.3981442 -2.0728559 0
-6.141573 -2.8945382 0.37923536
-0 -0 -0
-0 -0 -0
-4.3262668 -2.0421753 -0.7975682
-2.8148286 -1.3287145 -0.34694234
-4.4270129 -2.0897317 -0.27344111
-4.4015937 -2.0777326 0
-6.1421795 -2.8993604 0.37938091
-0 -0 -0
-0 -0 -0
-4.3353944 -2.0528932 -0.79970765
-4.2858653 -2.0294402 -0.52855712
-4.4221387 -2.0939684 -0.27329609
-4.3967299 -2.0819368 0
-6.1363168 -2.9056647 0.37923536
-0 -0 -0
-0 -0 -0
-4.3329105 -2.0581303 -0.79970765
-4.2670536 -2.0268481 -0.52653879
-4.4336834 -2.1059973 -0.27416664
-4.403614 -2.0917144 0
-6.1421895 -2.9175367 0.37981594
-0 -0 -0
-0 -0 -0
-4.332736 -2.0644674 -0.8001352
-0 -0 -0
-4.4217525 -2.1068821 -0.27358609
-4.405787 -2.0992749 0
-6.1292768 -2.9204853 0.37923536
-0 -0 -0
-0 -0 -0
-4.3302383 -2.069701 -0.8001352
-0 -0 -0
-5.9336228 -2.8360622 -0.36734146
-4.4055929 -2.1057179 0
-6.1327791 -2.931252 0.37967092
-0 -0 -0
-0 -0 -0
-4.3369932 -2.079371 -0.80184704
-0 -0 -0
-4.3932219 -2.1063299 -0.27213499
-4.3983474 -2.1087873 0
-4.4188809 -2.1186321 0.27372441
-0 -0 -0
-0 -0 -0
-4.3344774 -2.08461 -0.80184704
-0 -0 -0
-4.4047194 -2.1183918 -0.27300555
-4.4169111 -2.1242554 0
-4.4210057 -2.1262245 0.27401495
-0 -0 -0
-0 -0 -0
-0 -0 -0
-4.325017 -2.0864985 -0.80056274
-4.2570667 -2.0537174 -0.52682793
-4.4021564 -2.1237125 -0.27300555
-4.4002728 -2.1228037 0
-6.1478591 -2.965884 0.38126761
-0 -0 -0
-0 -0 -0
-4.3294272 -2.0950787 -0.80184704
-0 -0 -0
-4.3878946 -2.1233718 -0.27227998
-4.3883343 -2.1235845 0
-6.1559639 -2.9789686 0.38199314
-0 -0 -0
-4.3428159 -2.1145253 -0.80527079
-4.247262 -2.0679998 -0.52653879
-6.3941388 -3.1133184 -0.39723822
-4.392549 -2.1387403 0
-0 -0 0
-0 -0 -0
-4.3264132 -2.1130097 -0.80270219
-4.2424383 -2.0719965 -0.52625078
-6.381042 -3.1164851 -0.39665824
-4.3969793 -2.1474738 0
-6.1311111 -2.9944196 0.38112205
-0 -0 -0
-4.3215537 -2.1171074 -0.80227458
-4.2376108 -2.0759842 -0.52596277
-6.3819342 -3.1264772 -0.39694825
-4.4060645 -2.1585088 0
-6.1228261 -2.9995415 0.38083205
-0 -0 -0
-4.3166909 -2.1211965 -0.80184704
-4.2350993 -2.0811031 -0.52596277
-6.3804817 -3.1353312 -0.39709324
-4.412796 -2.168422 0
-6.1308556 -3.0126662 0.38155758
-0 -0 -0
-4.3279357 -2.1332183 -0.80441403
-4.2348995 -2.0873611 -0.52625078
-6.3860111 -3.1476336 -0.39767379
-4.4078407 -2.1726031 0
-6.1272106 -3.020072 0.38155758
-0 -0 -0
-4.3243465 -2.1346974 -0.80398649
-4.2336378 -2.0899193 -0.52625078
-6.3864365 -3.1526403 -0.3978188
-4.3971925 -2.1706576 0
-6.1253848 -3.0237732 0.38155758
-0 -0 -0
-4.3194656 -2.138783 -0.80355895
-4.2357497 -2.097331 -0.52682793
-6.3802958 -3.1592028 -0.39767379
-4.4108858 -2.1840496 0
-6.121727 -3.0311725 0.38155758
-0 -0 -0
-4.3306684 -2.1508496 -0.80612588
-4.2401552 -2.1058958 -0.52769196
-6.3857827 -3.1715331 -0.39825436
-4.4035864 -2.1870646 0
-6.1180596 -3.0385671 0.38155758
-0 -0 -0
-4.3303709 -2.1572287 -0.80655509
-4.2399201 -2.1121697 -0.52798003
-6.3866019 -3.1815662 -0.39854491
-4.4172487 -2.2005081 0
-6.1213636 -3.0494344 0.38199314
-0 -0 -0
-0 -0 -0
-4.3346434 -2.1658986 -0.80783778
-4.2419968 -2.1196058 -0.52855712
-6.38972 -3.1927619 -0.3989799
-4.4052744 -2.2011909 0
-6.12465 -3.0603142 0.38242871
-0 -0 -0
-0 -0 -0
-4.3274379 -2.1688364 -0.80698264
-4.2394328 -2.1247299 -0.52855712
-6.3742442 -3.1946602 -0.39825436
-4.397954 -2.2041779 0
-6.118618 -3.0665448 0.38228315
-0 -0 -0
-0 -0 -0
-4.3271055 -2.1752155 -0.80741024
-4.239171 -2.1310115 -0.52884513
-6.3819857 -3.208194 -0.3989799
-4.3976102 -2.2106581 0
-6.1311617 -3.0821061 0.38329926
-0 -0 -0
-0 -0 -0
-4.3290539 -2.1827517 -0.80826533
-4.2296624 -2.1326375 -0.52798003
-6.3757863 -3.2147343 -0.39883491
-4.4112048 -2.2241731 0
-6.1297512 -3.0906811 0.38344428
-0 -0 -0
-0 -0 -0
-4.3355765 -2.192615 -0.80997717
-4.2386293 -2.1435864 -0.52942228
-6.3742137 -3.2236075 -0.3989799
-4.408514 -2.2295015 0
-6.1236959 -3.0969138 0.38329926
-0 -0 -0
-0 -0 -0
-4.3283496 -2.1955316 -0.80912209
-4.2360363 -2.1487064 -0.52942228
-6.3726382 -3.232486 -0.39912546
-4.405817 -2.2348268 0
-6.1269035 -3.1078384 0.38373482
-0 -0 -0
-0 -0 -0
-4.3256936 -2.2007601 -0.80912209
-4.2311249 -2.152647 -0.5291332
-6.3779917 -3.2448969 -0.39970604
-4.4054308 -2.2413275 0
-6.1138802 -3.1105263 0.38315427
-0 -0 -0
-0 -0 -0
-4.3184538 -2.2036493 -0.80826533
-4.2354345 -2.1612859 -0.5299983
-6.3763785 -3.2537808 -0.39985102
-4.3934469 -2.2419174 0
-6.1147418 -3.1202712 0.38344428
-0 -0 -0
-0 -0 -0
-4.3157878 -2.2088656 -0.80826533
-4.2397294 -2.1699383 -0.53086346
-6.3655005 -3.2579305 -0.39941546
-4.386106 -2.2448554 0
-6.1155977 -3.1300275 0.38373482
-0 -0 -0
-0 -0 -0
-4.3199692 -2.217597 -0.80954963
-4.24401 -2.1786044 -0.53172863
-6.3708062 -3.2703662 -0.39999601
-4.3995991 -2.2584741 0
-4.4105172 -2.2640786 0.27691776
-0 -0 -0
-0 -0 -0
-4.3277607 -2.2249014 -0.81126153
-4.2449908 -2.1823494 -0.53201663
-4.3907676 -2.2572932 -0.27576333
-4.3982339 -2.2611318 0
-4.4230094 -2.2738688 0.27778831
-0 -0 -0
-0 -0 -0
-4.3159428 -2.2254231 -0.80954963
-4.2423511 -2.1874771 -0.53201663
-4.3972659 -2.2673557 -0.27634332
-4.4093728 -2.2735984 0
-4.4133282 -2.2756379 0.27735275
-0 -0 -0
-0 -0 -0
-2.8289211 -1.4630021 -0.53095734
-4.2351055 -2.190223 -0.53143948
-4.3829846 -2.2667003 -0.27561778
-4.3973756 -2.2741427 0
-6.139226 -3.1749563 0.38605651
-0 -0 -0
-0 -0 -0
-0 -0 -0
-2.7884142 -1.4463267 -0.5236823
-4.2370524 -2.1977229 -0.53201663
-6.3569183 -3.2972794 -0.39999601
-4.4015574 -2.2830503 0
-6.1446118 -3.1871576 0.38663706
-0 -0 -0
-0 -0 -0
-2.7980492 -1.4556174 -0.52582175
-4.2343936 -2.2028408 -0.53201663
-6.3552327 -3.3061562 -0.40014103
-4.3918672 -2.2847626 0
-6.1107912 -3.1789913 0.3847504
-0 -0 -0
-0 -0 -0
-2.7985709 -1.4601882 -0.52625096
-4.2431922 -2.2139368 -0.53345782
-6.3581467 -3.31744 -0.40057659
-4.4075618 -2.2996988 0
-0 -0 0
-0 -0 -0
-0 -0 -0
-2.7831533 -1.456425 -0.5236823
-4.2382245 -2.2178643 -0.53316981
-6.3564334 -3.3263237 -0.40072158
-4.3955564 -2.3001962 0
-0 -0 0
-0 -0 -0
-0 -0 -0
-2.7791204 -1.4585949 -0.52325475
-4.2355413 -2.2229836 -0.53316981
-6.3639116 -3.3400385 -0.40144715
-4.3904719 -2.3042972 0
-0 -0 0
-0 -0 -0
-0 -0 -0
-2.8114233 -1.4798844 -0.52967304
-4.2442942 -2.2341225 -0.53461099
-6.3529797 -3.3440981 -0.40101215
-4.3784723 -2.3047519 0
-0 -0 0
-0 -0 -0
-0 -0 -0
-2.7892041 -1.4724953 -0.52582175
-4.2438765 -2.2404556 -0.534899
-6.3604217 -3.3578362 -0.40173769
-4.3756843 -2.3100407 0
-0 -0 0
-0 -0 -0
-0 -0 -0
-2.7785137 -1.4711473 -0.69647825
-2.7896981 -1.477069 -0.52625096
-4.2434502 -2.2467911 -0.53518707
-6.3563595 -3.3655193 -0.40173769
-4.3797922 -2.3189807 0
-0 -0 0
-0 -0 -0
-0 -0 -0
-2.7969291 -1.4852275 -0.70154369
-2.7947063 -1.4840472 -0.52753359
-4.2430229 -2.2531333 -0.53547615
-6.3499956 -3.3719797 -0.4015927
-4.3746819 -2.3230469 0
-6.5403552 -3.4730647 0.41363162
-0 -0 -0
-0 -0 -0
-2.7592494 -1.4694958 -0.69253755
-2.7951834 -1.4886332 -0.5279628
-4.2402973 -2.2582586 -0.53547615
-6.348208 -3.3808701 -0.40173769
-4.3833547 -2.3344467 0
-6.5338626 -3.4797444 0.4134866
-0 -0 -0
-0 -0 -0
-0 -0 -0
-2.7888498 -1.4895883 -0.52710605
-4.2421241 -2.2658153 -0.53605217
-6.3509965 -3.3922122 -0.40217325
-4.3943086 -2.3471005 0
-6.5159059 -3.480294 0.41261604
-0 -0 -0
-0 -0 -0
-0 -0 -0
-2.8006206 -1.5002276 -0.52967304
-4.2325411 -2.2672744 -0.53518707
-6.3537579 -3.4035609 -0.40260825
-4.3960533 -2.3548639 0
-6.5437584 -3.5053399 0.41464773
-0 -0 -0
-0 -0 -0
-2.7180912 -1.460248 -0.6835314
-2.7988057 -1.5036105 -0.52967304
-4.2389126 -2.2772832 -0.53634018
-6.3565102 -3.4149261 -0.40304381
-4.3748636 -2.3503206 0
-6.518919 -3.5021777 0.41334161
-0 -0 -0
-0 -0 -0
-2.7283945 -1.467908 -0.68634528
-2.7820787 -1.4967909 -0.5266785
-4.2420959 -2.2822969 -0.53691733
-6.3613129 -3.4224603 -0.40347937
-4.3711534 -2.3517315 0
-6.4939237 -3.4938066 0.41189048
-0 -0 -0
-0 -0 -0
-2.7132061 -1.4639666 -0.68296903
-4.3096557 -2.3253641 -0.81639713
-4.2438831 -2.289875 -0.53749335
-6.357173 -3.4301443 -0.40347937
-4.3912168 -2.3693719 0
-6.4691095 -3.4905422 0.41058382
-0 -0 -0
-0 -0 -0
-2.7069616 -1.464823 -0.68184221
-4.3068428 -2.3305697 -0.81639713
-4.2524848 -2.3011549 -0.53893459
-6.3644476 -3.4440053 -0.40420493
-4.3791952 -2.3697219 0
-6.4420385 -3.485992 0.40913269
-0 -0 -0
-0 -0 -0
-2.6940255 -1.4620342 -0.67902827
-4.3062778 -2.3369954 -0.81682467
-4.2451591 -2.3038266 -0.53835851
-6.3580003 -3.4504547 -0.40405992
-4.385478 -2.3799767 0
-6.4286866 -3.4888158 0.40855214
-0 -0 -0
-0 -0 -0
-2.6967249 -1.4677199 -0.68015516
-4.3057036 -2.3434229 -0.81725222
-4.2469115 -2.3114247 -0.53893459
-6.3561063 -3.4593756 -0.40420493
-4.3894501 -2.3890028 0
-6.4039273 -3.4854028 0.40724602
-0 -0 -0
-0 -0 -0
-2.6904845 -1.4685403 -0.67902827
-4.3028688 -2.3486238 -0.81725222
-4.2418475 -2.3153167 -0.53864652
-6.3405199 -3.4608297 -0.40347937
-4.3842778 -2.3930593 0
-4.4291968 -2.4175773 0.28185222
-0 -0 -0
-0 -0 -0
-2.7043121 -1.4803317 -0.68296903
-2.7103541 -1.4836391 -0.51512295
-4.2458553 -2.3241675 -0.53951168
-4.3876228 -2.4017706 -0.27939111
-4.401927 -2.4096005 0
-4.4422212 -2.4316573 0.28286776
-0 -0 -0
-0 -0 -0
-2.6847026 -1.4738163 -0.67846596
-2.7040632 -1.4844446 -0.51426786
-4.2362399 -2.3255608 -0.53864652
-4.3938289 -2.4120722 -0.27997169
-4.3898869 -2.4099081 0
-4.4392796 -2.4370232 0.28286776
-0 -0 -0
-0 -0 -0
-2.68292 -1.4770591 -0.67846596
-2.6932724 -1.4827586 -0.51255596
-4.2447534 -2.3369136 -0.54008776
-4.3749838 -2.4086108 -0.27895612
-4.3892579 -2.4164693 0
-4.4226785 -2.4348688 0.2819972
-0 -0 -0
-0 -0 -0
-2.6811333 -1.4802998 -0.67846596
-2.6937239 -1.4872515 -0.51298356
-4.2441974 -2.3432946 -0.54037684
-6.3555613 -3.5090151 -0.40551105
-4.379498 -2.4179962 0
-10.836514 -5.9830265 0.69141436
-0 -0 -0
-0 -0 -0
-2.6615593 -1.4736919 -0.67396289
-2.6806982 -1.4842889 -0.51084411
-4.241363 -2.3484213 -0.54037684
-6.3240376 -3.5015876 -0.40376937
-4.3811221 -2.4258051 0
-10.817913 -5.9898238 0.69068879
-0 -0 -0
-0 -0 -0
-2.6642239 -1.4793762 -0.67508972
-2.6789026 -1.487527 -0.51084411
-4.2520857 -2.3610756 -0.54210603
-6.3311586 -3.5155325 -0.40449494
-4.385016 -2.4348886 0
-10.819755 -6.0079365 0.69126934
-0 -0 -0
-0 -0 -0
-2.6757495 -1.490009 -0.67846596
-2.6681323 -1.4857672 -0.50913227
-4.2424483 -2.3624356 -0.54124087
-8.108923 -4.5155077 -0.51842368
-4.3888941 -2.4439847 0
-10.810219 -6.0197425 0.69112432
-0 -0 -0
-0 -0 -0
-2.6517673 -1.4808549 -0.67283821
-2.6708219 -1.4914957 -0.50998902
-4.2463675 -2.3713443 -0.54210603
-8.0989275 -4.5227709 -0.5181337
-4.3677602 -2.4391351 0
-10.805204 -6.0340657 0.69126934
-0 -0 -0
-0 -0 -0
-2.6477528 -1.4828128 -0.6722737
-2.6533372 -1.4859402 -0.50699282
-4.2434988 -2.3764737 -0.54210603
-8.0798492 -4.5249333 -0.51726258
-4.3829751 -2.4545839 0
-10.813777 -6.0560064 0.69228548
-0 -0 -0
-0 -0 -0
-2.6490791 -1.4856586 -0.67283821
-2.6636319 -1.4938202 -0.50913227
-4.237555 -2.376509 -0.54153001
-8.0703135 -4.5259995 -0.51682705
-4.3655996 -2.4483192 0
