# .PCD v0.7 - Point Cloud Data file format
VERSION 0.7
FIELDS x y z
SIZE 4 4 4
TYPE F F F
COUNT 1 1 1
WIDTH 1547
HEIGHT 1
VIEWPOINT 0 0 0 1 0 0 0
POINTS 1547
DATA ascii
-6.3649549 6.9526858 0
-6.2141361 6.7879405 0.51403356
-1.8576506 2.024267 -0.90592206
-2.139112 2.3309731 -0.87286586
-2.5170572 2.7428169 -0.82469273
-3.029495 3.3012164 -0.74698174
-3.7864947 4.1261129 -0.62420595
-5.7428026 6.2578859 -0.47441897
-6.3627901 6.9334812 0
-6.2135506 6.7708564 0.51330799
-1.9002553 2.0656772 -0.9254812
-2.1470239 2.3339276 -0.87494302
-2.5220881 2.7416418 -0.82525504
-3.030009 3.2937787 -0.74612659
-3.7932272 4.1234365 -0.62449402
-5.7468448 6.2471209 -0.47412896
-6.3729234 6.9277015 0
-6.2217274 6.7633433 0.51330799
-1.8776152 2.036123 -0.91325593
-2.1600502 2.342401 -0.87909728
-2.5219574 2.7348602 -0.82413036
-3.0374639 3.2938857 -0.74698174
-3.7964549 4.1169505 -0.62420595
-5.7508626 6.2363486 -0.47383842
-6.3795271 6.9180846 0
-6.2228489 6.7481799 0.51272744
-1.870011 2.0229666 -0.90836769
-2.1662815 2.3434701 -0.88048029
-2.526983 2.733675 -0.82469273
-3.0379601 3.2864466 -0.74612659
-3.7908959 4.1009679 -0.62247676
-5.7583938 6.2293949 -0.47383842
-6.380815 6.9027271 0
-6.2327604 6.7425623 0.51287246
-1.8707757 2.0188942 -0.90755355
-2.1537666 2.324291 -0.87425148
-2.5268335 2.7268956 -0.82356805
-3.0332065 3.2733605 -0.7439872
-3.7976046 4.09828 -0.62276477
-5.7659163 6.2224326 -0.47383842
-6.3873839 6.893105 0
-6.2373672 6.7312107 0.51258188
-1.8950796 2.0401723 -0.91814733
-2.1668146 2.3327122 -0.87840313
-2.5301268 2.7238405 -0.82356805
-3.0458932 3.2790954 -0.74612659
-3.8025539 4.093688 -0.62276477
-5.7628236 6.204042 -0.47296786
-6.3903933 6.8796597 0
-6.2366557 6.7141519 0.51185632
-1.8790145 2.0179818 -0.90918189
-2.1696317 2.3300922 -0.87840313
-2.533416 2.7207813 -0.82356805
-3.046351 3.2716517 -0.74526989
-3.8039689 4.0853009 -0.62218767
-5.7720847 6.1989737 -0.47311285
-6.4022517 6.8757463 0
-6.2447639 6.7066112 0.51185632
-1.8848276 2.0193269 -0.91081339
-2.167315 2.3219724 -0.87632865
-2.5367017 2.7177181 -0.82356805
-3.048552 3.2660935 -0.74484229
-3.8159618 4.0882649 -0.62334085
-5.7760215 6.1881924 -0.47282231
-6.3998966 6.8565865 0
-6.2510915 6.6971626 0.5117113
-1.8809829 2.0127687 -0.90836769
-2.1687174 2.3206625 -0.87632865
-2.5366035 2.7143233 -0.82300353
-3.0435138 3.2567489 -0.74313045
-3.811367 4.0783997 -0.62218767
-5.7797589 6.1847014 -0.47282231
-6.395155 6.8432136 0
-6.2551365 6.6933851 0.5117113
-1.8969316 2.0249245 -0.91488743
-2.1680863 2.3143749 -0.87494302
-2.5416234 2.7131162 -0.82356805
-3.0527134 3.2586911 -0.74441475
-3.8180656 4.0756845 -0.62247676
-5.7712412 6.1606479 -0.47151619
-6.4016414 6.8335838 0
-6.2578883 6.680131 0.51127577
-1.899377 2.0226309 -0.91488743
-2.1777506 2.3190689 -0.87771165
-2.5414176 2.7063351 -0.82244116
-3.047864 3.2456455 -0.7422753
-3.8229876 4.0710683 -0.62247676
-5.784019 6.1593547 -0.47195175
-6.4152398 6.8315368 0
-6.2659554 6.672565 0.51127577
-1.903512 2.0221324 -0.91570163
-2.1788332 2.3146107 -0.87702018
-2.5446858 2.7032621 -0.82244116
-3.0605795 3.2513044 -0.74441475
-3.8279037 4.0664458 -0.62247676
-5.7896776 6.1504707 -0.47180673
-6.4145656 6.8143001 0
-6.2704549 6.6612082 0.51098573
-1.8991688 2.0126405 -0.91244179
-2.1816285 2.3119764 -0.87702018
-2.5514414 2.7038851 -0.82356805
-3.0592186 3.2420011 -0.74313045
-3.8310344 4.0599313 -0.62218767
-5.7935352 6.1396875 -0.47151619
-6.4281549 6.8122244 0
-6.274929 6.6498437 0.51069522
-1.9066963 2.0157328 -0.91488743
-2.1930387 2.3184497 -0.88048029
-2.5581956 2.7044885 -0.82469273
-3.0684276 3.2438986 -0.74441475
-3.8359373 4.0552993 -0.62218767
-5.793807 6.1251316 -0.47093561
-6.4399614 6.8082371 0
-6.2793913 6.638485 0.51040518
-1.9040271 2.008045 -0.91244179
-2.1854846 2.3048787 -0.87632865
-2.5527217 2.6921782 -0.82187885
-3.0741096 3.2420497 -0.74484229
-3.8355005 4.0450358 -0.62132359
-5.7994175 6.1162429 -0.47079062
-6.4374356 6.7891164 0
-6.282043 6.6252341 0.50996965
-1.911562 2.0111191 -0.91488743
-2.1934483 2.3076863 -0.87840313
-2.5629749 2.6964586 -0.82413036
-3.074491 3.2346151 -0.7439872
-3.8386052 4.0385256 -0.62103558
-5.8068037 6.1092305 -0.47079062
-6.4348803 6.7700186 0
-6.291832 6.6195202 0.51011467
-1.8884147 1.9819649 -0.90266216
-2.1945062 2.3032198 -0.87771165
-2.5644801 2.6915219 -0.82356805
-3.0730832 3.2253206 -0.7427029
-3.8506119 4.0413675 -0.62218767
-5.8088021 6.0965643 -0.47035506
-6.4430556 6.762238 0
-6.2944536 6.6062746 0.50967962
-1.9283679 2.0190067 -0.92059296
-2.1920874 2.2951221 -0.87563449
-2.5589573 2.6792357 -0.82075417
-3.0734286 3.2178886 -0.74184614
-3.8483534 4.0292373 -0.62103558
-5.8233433 6.0970573 -0.47093561
-6.4440317 6.7469201 0
-6.2988386 6.5949025 0.5093891
-1.9137101 1.998819 -0.91244179
-2.1913924 2.2888508 -0.87425148
-2.5692146 2.683476 -0.82300353
-3.0861959 3.2234492 -0.7439872
-3.8496385 4.0208445 -0.62045842
-5.8235183 6.082509 -0.47035506
-6.443182 6.7297316 0
-6.2996144 6.5797791 0.50880855
-1.9144142 1.9947237 -0.91162759
-2.204576 2.2970581 -0.87840313
-2.5724552 2.6803696 -0.82300353
-3.0847545 3.2141597 -0.7427029
-3.8616579 4.0236545 -0.6216116
-5.8434601 6.088593 -0.47137117
-6.4350853 6.7050366 0
-6.3057628 6.5702896 0.50866354
-1.9116806 1.9870639 -0.90918189
-2.2108321 2.2980118 -0.87978882
-2.5721722 2.6736007 -0.82187885
-3.0904138 3.2122781 -0.74313045
-3.8647254 4.0171232 -0.62132359
-4.9717202 5.1677699 -0.40054703
-4.958303 5.1538239 0
-6.3136973 6.5626655 0.50866354
-1.9089379 1.9794204 -0.90673935
-2.1961887 2.2772772 -0.87286586
-2.577163 2.672318 -0.82244116
-3.0836046 3.1974585 -0.74056345
-3.8713701 4.0143104 -0.6216116
-0 0 -0
-4.9410429 5.1234779 0
-4.9652491 5.1485782 0.39952421
-1.9078892 1.973555 -0.90510786
-2.2059135 2.2818367 -0.87563449
-2.5768614 2.6655519 -0.82131648
-3.0928133 3.1992619 -0.74184614
-3.8762178 4.0096297 -0.6216116
-0 0 -0
-0 0 0
-0 0 0
-1.9223143 1.9836744 -0.91081339
-2.2139084 2.2845762 -0.87771165
-2.5783138 2.6606135 -0.82075417
-3.0895376 3.1881557 -0.74013591
-3.8810599 4.0049429 -0.6216116
-0 0 -0
-0 0 0
-0 0 0
-1.9436486 2.0008464 -0.91977566
-2.2166672 2.2818995 -0.87771165
-2.5939147 2.6702487 -0.82469273
-3.1041164 3.1954646 -0.7427029
-3.8822951 3.9965436 -0.62103558
-4.9930143 5.1399488 -0.40025645
-0 0 0
-4.9856887 5.1324077 0.39966923
-1.9253732 1.9772474 -0.90999609
-2.2159257 2.2756281 -0.87632865
-2.5847359 2.6543748 -0.82075417
-3.1079752 3.1917114 -0.7427029
-3.8817065 3.9862888 -0.62017041
-4.9847188 5.119019 -0.39909536
-0 0 0
-4.9846354 5.1189332 0.39908865
-1.9174055 1.9643108 -0.90510786
-2.2028971 2.2567861 -0.87009722
-2.5932608 2.6566994 -0.82244116
-3.1010742 3.1769354 -0.74013591
-3.8829033 3.9778903 -0.61959332
-5.8874884 6.0315132 -0.47079062
-4.968267 5.0898051 0
-6.3611093 6.5167198 0.50866354
-1.9306861 1.9755272 -0.91081339
-2.2182879 2.2698085 -0.87563449
-2.5895426 2.6496859 -0.82075417
-3.1119626 3.1842391 -0.7422753
-3.8925371 3.9829428 -0.62074649
-5.8711514 6.0075116 -0.46919397
-6.4828553 6.6334224 0
-6.3668594 6.5147324 0.50880855
-1.9365277 1.9767206 -0.91244179
-2.217521 2.2635458 -0.87425148
-2.5962951 2.6501815 -0.82187885
-3.1104167 3.1749735 -0.740991
-3.897347 3.9782367 -0.62074649
-5.862042 5.9837093 -0.46788785
-6.4890461 6.6237268 0
-6.3801837 6.5126047 0.50924408
-1.9354546 1.9708557 -0.91081339
-2.2202544 2.2608647 -0.87425148
-2.5994956 2.6470425 -0.82187885
-3.1178446 3.1748726 -0.74184614
-3.89853 3.9698372 -0.62017041
-5.8783765 5.9858971 -0.46861395
-6.4897509 6.6084542 0
-6.3807654 6.4974751 0.50866354
-1.9395669 1.9702753 -0.91162759
-2.2247429 2.2599666 -0.87494302
-2.5973427 2.6384656 -0.82018965
-3.1216786 3.171103 -0.74184614
-3.901511 3.9632823 -0.6198824
-5.8783135 5.9713826 -0.4680334
-6.5032034 6.6061664 0
-6.3886118 6.4897604 0.50866354
-1.9593031 1.9855195 -0.91977566
-2.2221839 2.2519178 -0.87286586
-2.6112406 2.6461804 -0.82356805
-3.1255078 3.1673286 -0.74184614
-3.906297 3.9585652 -0.6198824
-5.8818707 5.9605727 -0.46774283
-6.5166664 6.6038628 0
-6.3909717 6.4764857 0.50822794
-1.9617008 1.9831506 -0.91977566
-2.2213781 2.2456675 -0.87148285
-2.5983558 2.6267672 -0.8185026
-3.1257255 3.1599033 -0.740991
-3.9165289 3.9593534 -0.62074649
-5.8835845 5.9479175 -0.46730727
-6.515492 6.5867343 0
-6.3896575 6.4595237 0.50750244
-1.9345125 1.9509444 -0.90592206
-2.2346852 2.2536669 -0.87563449
-2.6140463 2.6362503 -0.82244116
-3.1349657 3.1615944 -0.7422753
-3.9176714 3.9509485 -0.62017041
-5.8944302 5.9444981 -0.46759784
-6.505125 6.5603805 0
-6.4011207 6.4554925 0.50779295
-1.9508077 1.9626292 -0.91244179
-2.223258 2.2367306 -0.87009722
-2.6136506 2.6294889 -0.82131648
-3.1351607 3.1541593 -0.7414186
-3.9297359 3.9535496 -0.62132359
-5.8997784 5.9355302 -0.46745282
-6.5093741 6.54882 0
-6.4052486 6.4440637 0.50750244
-1.9636481 1.9707791 -0.91733313
-2.2295039 2.2376003 -0.87148285
-2.611444 2.6209273 -0.81962729
-3.133539 3.1449184 -0.74013591
-3.9235532 3.9378016 -0.61959332
-5.9014421 5.922873 -0.46701729
-6.5154476 6.5391083 0
-6.4130306 6.4363194 0.50750244
-1.9869809 1.9893832 -0.9271096
-2.2392976 2.2420049 -0.87425148
-2.6217914 2.6249611 -0.82187885
-3.1409614 3.1447589 -0.740991
-3.9319675 3.9367213 -0.62017041
-5.910429 5.9175749 -0.46716228
-6.5270185 6.5349102 0
-6.4189682 6.4267292 0.50735742
-1.9509141 1.9485583 -0.90918189
-2.2402315 2.2375264 -0.87356001
-2.6231651 2.6199975 -0.82131648
-3.1374938 3.1337051 -0.73927915
-3.9458697 3.9411049 -0.6216116
-5.9065475 5.899415 -0.46629173
-6.5312309 6.523344 0
-6.4193754 6.4116235 0.50677687
-1.9602706 1.9531777 -0.91244179
-2.2393758 2.2312729 -0.87217438
-2.6245308 2.6150343 -0.82075417
-3.1449184 3.133539 -0.74013591
-3.935971 3.9217293 -0.61930525
-5.9155102 5.8941059 -0.46643671
-6.5427918 6.5191178 0
-6.4344807 6.4111981 0.50735742
-1.9591267 1.9473262 -0.91081339
-2.2509651 2.2374067 -0.87563449
-2.6258814 2.6100647 -0.82018965
-3.1505215 3.1315448 -0.74056345
-3.9425395 3.9187922 -0.61959332
-5.915256 5.8796268 -0.46585616
-6.5451322 6.5057087 0
-6.4330096 6.3942614 0.50663185
-1.9614782 1.9449575 -0.91081339
-2.2483277 2.2293911 -0.87356001
-2.6290331 2.60689 -0.82018965
-3.1543031 3.1277356 -0.74056345
-3.9472716 3.9140255 -0.61959332
-5.9205132 5.870647 -0.46571118
-6.5437427 6.4886279 0
-6.4370375 6.3828211 0.50634128
-1.9603091 1.9391063 -0.90918189
-2.2688522 2.2443123 -0.88048029
-2.6376021 2.6090739 -0.82187885
-3.1599033 3.1257255 -0.740991
-3.9519982 3.9092531 -0.61959332
-5.9331388 5.8689656 -0.46614617
-6.5515785 6.4807162 0
-6.4428997 6.3732128 0.50619632
-1.9802468 1.9541 -0.91733313
-2.2519178 2.2221839 -0.87286586
-2.6371391 2.6023188 -0.82075417
-3.1636777 3.1219051 -0.740991
-3.9567189 3.9044752 -0.61959332
-5.9272842 5.8490219 -0.4651306
-6.5408835 6.4545188 0
-6.4505954 6.3654232 0.50619632
-1.9667492 1.9360957 -0.90999609
-2.252815 2.2177031 -0.87217438
-2.6348476 2.5937812 -0.81906497
-3.1692753 3.1198792 -0.7414186
-3.9577508 3.8960657 -0.61901724
-5.9269404 5.8345642 -0.46455005
-6.5468249 6.444787 0
-6.4564323 6.355803 0.5060513
-1.9602716 1.9250606 -0.90592206
-2.2519166 2.211467 -0.87079138
-2.6361687 2.5888169 -0.8185026
-3.169383 3.1124537 -0.74056345
-3.9587612 3.8876529 -0.61844015
-5.941402 5.834681 -0.4651306
-6.5694618 6.4514594 0
-6.4585438 6.3425336 0.50561571
-1.9784844 1.9382558 -0.91325593
-2.2599583 2.2140064 -0.87286586
-2.6465549 2.5927424 -0.82075417
-3.1786375 3.114006 -0.74184614
-3.9708462 3.8901067 -0.61959332
-5.9465933 5.8256807 -0.46498561
-6.5660949 6.4325857 0
-6.4606323 6.329268 0.50518018
-1.9861295 1.9410479 -0.91570163
-2.2716081 2.2200465 -0.87632865
-2.6460481 2.5859873 -0.81962729
-3.1732202 3.1011937 -0.7397067
-3.9755437 3.8853059 -0.61959332
-5.9554849 5.8203058 -0.4651306
-6.564558 6.415554 0
-6.4738522 6.3269072 0.50561571
-1.9696186 1.9225866 -0.90755355
-2.2621737 2.2081559 -0.87217438
-2.6512499 2.5879414 -0.82075417
-3.1714227 3.0956931 -0.73885161
-3.9741921 3.8792934 -0.61901724
-5.9534197 5.8112597 -0.46469504
-6.553534 6.3970437 0
-6.4758158 6.3211813 0.50547075
-1.9861063 1.9339997 -0.91407329
-2.2756281 2.2159257 -0.87632865
-2.6580122 2.5882778 -0.82187885
-3.1769981 3.093648 -0.73927915
-3.9696131 3.865468 -0.61757606
-5.9567175 5.8004398 -0.46440506
-6.5948172 6.4217982 0
-6.4704156 6.3006606 0.50445461
-1.9707098 1.9143735 -0.90592206
-2.2621031 2.1974368 -0.87009722
-2.6502059 2.574445 -0.8185026
-3.1825736 3.091594 -0.7397067
-3.9817019 3.8678775 -0.61872923
-5.9599905 5.7896137 -0.46411449
-6.585773 6.3975067 0
-6.4836173 6.2982712 0.5048902
-1.9818944 1.9205893 -0.90999609
-2.2737699 2.2034364 -0.87356001
-2.6551375 2.5730073 -0.81906497
-3.1899974 3.0913224 -0.74056345
-3.9807985 3.857662 -0.61786407
-5.9669819 5.7824078 -0.46411449
-6.5729456 6.369627 0
-6.4912229 6.2904325 0.5048902
-1.959339 1.8941462 -0.89858812
-2.2692158 2.1937125 -0.87079138
-2.6564195 2.568033 -0.8185026
-3.197418 3.0910308 -0.7414186
-3.9854567 3.8528492 -0.61786407
-5.9664917 5.7679696 -0.46353394
-6.5881214 6.368916 0
-6.4894795 6.2735562 0.50416464
-1.9847525 1.9140801 -0.90918189
-2.2808921 2.1996751 -0.87425148
-2.6595206 2.5648212 -0.8185026
-3.1900673 3.0764766 -0.73885161
-3.986382 3.8444364 -0.61728698
-5.977201 5.7643671 -0.46382448
-6.5789542 6.3446932 0
-6.4951797 6.2639012 0.50401908
-2.0102172 1.9339554 -0.91977566
-2.2925863 2.2056124 -0.87771165
-2.6626177 2.5616059 -0.8185026
-3.1993339 3.0779607 -0.74013591
-3.994756 3.8432066 -0.61786407
-5.9748011 5.7481346 -0.46309894
-6.5978651 6.3475618 0
-6.5064921 6.259655 0.50430959
-1.9929422 1.9127043 -0.91081339
-2.2898178 2.1976275 -0.87563449
-2.6675425 2.5601444 -0.81906497
-3.1919346 3.0634241 -0.73756731
-3.9993968 3.838377 -0.61786407
-5.9761162 5.7355118 -0.46266338
-6.6055303 6.3395848 0
-6.5065522 6.2445917 0.50372905
-1.9970355 1.9120024 -0.91162759
-2.2779746 2.1809793 -0.87009722
-2.6743011 2.5604305 -0.82018965
-3.2141726 3.0773144 -0.74184614
-4.0096383 3.8389096 -0.61872923
-5.9886746 5.7336793 -0.46309894
-6.5906277 6.3100014 0
-6.5103354 6.2331276 0.50343853
-1.9957662 1.9061706 -0.90999609
-2.2969415 2.1938252 -0.87632865
-2.6737216 2.5536907 -0.81906497
-3.2048993 3.0610223 -0.73885161
-4.0011792 3.8215549 -0.6167109
-5.9861975 5.7174602 -0.46237281
-6.5700226 6.2750754 0
-6.5216236 6.2288499 0.50372905
-1.9891226 1.8952346 -0.90592206
-2.2905037 2.1823905 -0.87286586
-2.680481 2.5539603 -0.82018965
-3.2160296 3.0642307 -0.74056345
-4.005794 3.8167176 -0.6167109
-6.0081515 5.7245622 -0.46353394
-6.5097694 6.2025037 0
-6.5122161 6.2048349 0.50242293
-2.0039532 1.9047508 -0.91162759
-2.2876892 2.1744409 -0.87079138
-2.6835649 2.5507195 -0.82018965
-3.217871 3.0585756 -0.74013591
-4.0141487 3.8154349 -0.61728698
-6.0207162 5.7226706 -0.4639695
-6.4399209 6.1211238 0
-6.5008707 6.1790562 0.50097126
-2.0085504 1.8999026 -0.91162759
-2.3093386 2.1844203 -0.87702018
-2.6897211 2.5442269 -0.82018965
-3.2233827 3.0490212 -0.7397067
-4.0214801 3.8039474 -0.61699891
-6.0571804 5.7295318 -0.46571118
-6.439569 6.0912356 0
-6.4667068 6.1169057 0.49719793
-2.0072458 1.8940784 -0.90999609
-2.3010249 2.1712945 -0.87286586
-2.6872547 2.5357487 -0.8185026
-3.2195961 3.0380771 -0.73799485
-4.0279527 3.800859 -0.61728698
-6.0811062 5.7382569 -0.46701729
-6.4374623 6.0745215 0
-6.4646459 6.1001725 0.49647236
-2.0167317 1.8984281 -0.91325593
-2.298172 2.1633587 -0.87079138
-2.6921649 2.5342398 -0.81906497
-3.2270067 3.0377071 -0.73885161
-4.0363126 3.7995384 -0.61786407
-6.1088495 5.7504978 -0.46861395
-6.4353242 6.0578213 0
-6.5041747 6.122633 0.4989396
-2.0118172 1.8892221 -0.90999609
-2.2971232 2.1571422 -0.86940575
-2.6933746 2.5292473 -0.8185026
-3.2250593 3.028532 -0.73756731
-4.0352426 3.789345 -0.61699891
-6.123363 5.7502208 -0.46919397
-6.4559212 6.0625134 0
-6.5551362 6.1556826 0.50227797
-2.0140984 1.8867898 -0.90999609
-2.3143749 2.1680863 -0.87494302
-2.6982813 2.5277264 -0.81906497
-3.2343383 3.0298998 -0.73885161
-4.0454831 3.789773 -0.61786407
-6.1416883 5.75348 -0.47006506
-6.4594398 6.0511465 0
-6.399488 5.9949841 0.48979622
-2.0272152 1.8944836 -0.91488743
-2.3096611 2.1584365 -0.87217438
-2.6957626 2.5192578 -0.81737578
-3.2323685 3.0207295 -0.73756731
-4.036829 3.7725184 -0.6158458
-6.1524291 5.7495995 -0.47035506
-6.4667463 6.0433369 0
-6.3156071 5.9020939 0.48283011
-2.0175149 1.8831363 -0.90999609
-2.298125 2.1450562 -0.86732858
-2.7010026 2.5210996 -0.8185026
-3.2360678 3.0205262 -0.73799485
-4.0410037 3.7718487 -0.61613488
-6.174901 5.7636151 -0.47180673
-6.4551764 6.0252228 0
-6.3609586 5.9372802 0.48602289
-2.0216029 1.8823863 -0.91081339
-2.3062253 2.1474082 -0.86940575
-2.7059047 2.5195639 -0.81906497
-3.2415993 3.0183682 -0.73842406
-4.0455585 3.7669632 -0.61613488
-6.1571403 5.7331319 -0.46992007
-6.4015102 5.9606733 0
-6.527863 6.0783248 0.49821404
-2.0220599 1.8782552 -0.90999609
-2.3180072 2.1531553 -0.87286586
-2.7070873 2.514565 -0.8185026
-3.250881 3.0196853 -0.7397067
-4.0520005 3.7638309 -0.61642289
-6.1507344 5.7133074 -0.46890396
-6.2790527 5.8325 0
-6.6189637 6.1482372 0.50459963
-2.0243278 1.8758106 -0.90999609
-2.3150918 2.1452425 -0.87079138
-2.7045305 2.5061095 -0.81681341
-3.248884 3.0105257 -0.73842406
-4.0603361 3.7624447 -0.61699891
-6.1614418 5.7094002 -0.46919397
-0 0 0
-6.2833357 5.8223515 0.4784762
-2.01934 1.8666588 -0.90673935
-2.3139942 2.1390343 -0.86940575
-2.713156 2.5080156 -0.8185026
-3.2487454 3.0031095 -0.73756731
-4.0629816 3.7557817 -0.6167109
-6.0862932 5.6261115 -0.46295339
-0 0 0
-6.2216749 5.7512569 0.47325116
-2.0161414 1.8591893 -0.90429366
-2.329489 2.1481435 -0.87425148
-2.7161846 2.5047355 -0.8185026
-3.2599204 3.0061429 -0.73927915
-4.0656176 3.7491179 -0.61642289
-5.6766825 5.2347651 -0.43131492
-0 0 0
-6.20188 5.7190771 0.47121948
-2.0420318 1.8785036 -0.91488743
-2.3117714 2.126642 -0.86663705
-2.719209 2.5014517 -0.8185026
-3.2522185 2.9917772 -0.73671216
-4.0682425 3.7424533 -0.61613488
-5.6734433 5.2191076 -0.43058938
-0 0 0
-5.6924748 5.2366152 0.43203378
-2.0297318 1.8626657 -0.90836769
-2.3254333 2.134028 -0.87079138
-2.7184818 2.494725 -0.81737578
-3.255831 2.9878452 -0.73671216
-4.072762 3.7375348 -0.61613488
-5.687396 5.2192693 -0.43116936
-5.7006154 5.231401 0
-5.687315 5.2191954 0.43116322
-2.0483866 1.8752306 -0.91570163
-2.3280101 2.1312165 -0.87079138
-2.7252462 2.494873 -0.8185026
-3.2670128 2.9908426 -0.73842406
-4.0791807 3.7343559 -0.61642289
-5.7032871 5.2211714 -0.43189546
-5.6570268 5.178822 0
-5.6955323 5.2140722 0.43130824
-2.0105033 1.8360893 -0.89777398
-2.3361356 2.1334727 -0.87286586
-2.7245026 2.4881482 -0.81737578
-3.2668295 2.9834273 -0.73756731
-4.0817819 3.7276816 -0.61613488
-5.728775 5.2317958 -0.4333466
-5.7055545 5.2105894 0
-5.7056618 5.2106876 0.43159822
-2.0328197 1.85197 -0.90673935
-2.3331535 2.1255846 -0.87079138
-2.7331438 2.4899895 -0.81906497
-3.2856131 2.9933083 -0.740991
-4.0843658 3.721 -0.6158458
-6.0692997 5.5293441 -0.45859948
-0 0 0
-12.447986 11.340549 0.94057631
-2.0533435 1.8661324 -0.91488743
-2.3320036 2.119386 -0.86940575
-2.7361505 2.4866853 -0.81906497
-3.2930233 2.9927859 -0.74184614
-4.0965152 3.7230206 -0.61699891
-6.1355896 5.5761847 -0.46309894
-12.389265 11.259688 0
-0 0 0
-2.0391188 1.8487105 -0.90755355
-2.3308489 2.1131997 -0.86802274
-2.7316234 2.4765508 -0.81681341
-3.2776227 2.9715657 -0.73756731
-4.0952678 3.7128611 -0.61613488
-6.1519465 5.5774918 -0.46382448
-12.422145 11.262194 0
-12.452253 11.289492 0.93883461
-2.0230167 1.8296633 -0.89940232
-2.3315346 2.1086941 -0.86732858
-2.7402692 2.478363 -0.8185026
-3.2754972 2.962436 -0.73628294
-4.1035838 3.7113767 -0.6167109
-6.1837325 5.5927114 -0.46571118
-12.435744 11.247176 0
-12.423491 11.236094 0.93564183
-2.0692682 1.8669537 -0.91896147
-2.3508503 2.1210053 -0.87356001
-2.7432618 2.4750502 -0.8185026
-3.2962337 2.9739575 -0.74013591
-4.115747 3.713346 -0.61786407
-6.209775 5.6026387 -0.46716228
-12.406818 11.193791 0
-12.465993 11.24718 0.93781853
-2.0549905 1.8495725 -0.91162759
-2.3347609 2.1013768 -0.86663705
-2.7481372 2.4734318 -0.81906497
-3.2807405 2.952796 -0.7358554
-4.1086998 3.6979918 -0.61613488
-6.2416458 5.6177278 -0.46904895
-12.428073 11.185756 0
-12.448679 11.204303 0.93549681
-2.0719366 1.860298 -0.91814733
-2.3466301 2.1069329 -0.87009722
-2.7397764 2.4599211 -0.81568658
-3.2938547 2.9574032 -0.73799485
-4.1131649 3.6930244 -0.61613488
-6.2580948 5.6188598 -0.46977451
-12.443514 11.172468 0
-12.452536 11.180568 0.9347707
-2.0207932 1.8099732 -0.89451408
-2.3435733 2.0990794 -0.86802274
-2.7484264 2.4616961 -0.81737578
-3.3089027 2.9637005 -0.74056345
-4.1214738 3.6914999 -0.6167109
-6.2842388 5.628634 -0.47122619
-12.457005 11.157424 0
-12.464102 11.163781 0.93462569
-2.0432541 1.8256465 -0.90347952
-2.3423629 2.0928998 -0.86663705
-2.755192 2.4617624 -0.8185026
-3.2971673 2.946017 -0.7371397
-4.1162896 3.6779022 -0.61526972
-6.2871566 5.6175704 -0.47093561
-12.468538 11.140632 0
-12.50277 11.171218 0.93651241
-2.076823 1.8511322 -0.91733313
-2.346761 2.0917356 -0.86732858
-2.7600596 2.4601207 -0.81906497
-3.3083899 2.9488633 -0.73885161
-4.1168652 3.6694806 -0.61469263
-6.305582 5.6203465 -0.47180673
-12.489755 11.132478 0
-12.491044 11.133628 0.93462569
-2.0513506 1.8239849 -0.90510786
-2.356786 2.0955665 -0.87009722
-2.7516336 2.4466505 -0.81568658
-3.2966034 2.9312174 -0.73542786
-4.1328969 3.6748185 -0.61642289
-6.306541 5.607542 -0.47137117
-12.516812 11.129485 0
-12.556919 11.165147 0.93854463
-2.0775888 1.8428246 -0.91570163
-2.3705809 2.1027091 -0.87425148
-2.7545879 2.4433239 -0.81568658
-3.3155065 2.9408596 -0.73885161
-4.1373343 3.6698222 -0.61642289
-6.3171959 5.603363 -0.47166118
-12.524408 11.10917 0
-12.543182 11.125823 0.93651241
-2.0639017 1.8284572 -0.90918189
-2.375603 2.1046004 -0.87563449
-2.761771 2.4467156 -0.81737578
-3.3095965 2.9320467 -0.7371397
-4.135675 3.6638882 -0.6158458
-6.32058 5.5995455 -0.47166118
-12.501904 11.07572 0
-12.567405 11.133749 0.93781853
-2.0790751 1.8374208 -0.91488743
-2.395061 2.1166792 -0.8818633
-2.7647254 2.4433768 -0.81737578
-3.3150587 2.929744 -0.73756731
-4.1362267 3.6554661 -0.61526972
-6.3370824 5.600513 -0.47238731
-12.525025 11.069221 0
-12.53023 11.07382 0.93404514
-2.042362 1.8005843 -0.89777398
-2.3769219 2.0955386 -0.87425148
-2.7695799 2.4417131 -0.81793809
-3.3147488 2.9223442 -0.73671216
-4.1367564 3.6470413 -0.61469263
-6.355536 5.6031585 -0.47325787
-12.54425 11.059244 0
-12.529963 11.046648 0.93302959
-2.0482445 1.8013767 -0.89940232
-2.3681455 2.082721 -0.87009722
-2.7687159 2.4350119 -0.81681341
-3.3163443 2.9166367 -0.73628294
-4.1450481 3.6454599 -0.61526972
-6.3681569 5.600625 -0.47369343
-12.528288 11.018296 0
-12.56086 11.046942 0.93433571
-2.0912976 1.834764 -0.91733313
-2.3970659 2.1030245 -0.87978882
-2.7831123 2.4417157 -0.82018965
-3.3218012 2.9143252 -0.73671216
-4.1455579 3.6370339 -0.61469263
-6.3846841 5.6014929 -0.47441897
-12.559197 11.018596 0
-12.587866 11.043748 0.93535125
-2.0563152 1.7996802 -0.90103382
-2.3996053 2.1001265 -0.87978882
-2.7784126 2.4316576 -0.81793809
-3.3330472 2.9170718 -0.73842406
-4.1499496 3.6320221 -0.61469263
-6.3992691 5.6006193 -0.47499955
-12.558799 10.99142 0
-12.583605 11.013129 0.93404514
-2.0808306 1.8167006 -0.91081339
-2.3737915 2.0724745 -0.86940575
-2.7851806 2.431644 -0.81906497
-3.3288343 2.9062891 -0.73671216
-4.1562891 3.628711 -0.61498171
-6.4138613 5.5997186 -0.4755801
-12.595596 10.996776 0
-12.598858 10.999624 0.93419015
-2.083024 1.8141849 -0.91081339
-2.374404 2.0679588 -0.86871421
-2.7938666 2.4332848 -0.82075417
-3.3342776 2.9039493 -0.7371397
-4.1626191 3.6253834 -0.61526972
-6.4304185 5.6004958 -0.47630566
-12.624567 10.995216 0
-12.633696 11.003166 0.93578684
-2.0796156 1.806802 -0.90836769
-2.3882604 2.0749574 -0.87286586
-2.7968049 2.4299071 -0.82075417
-3.3455353 2.9066527 -0.73885161
-4.1689472 3.6220458 -0.61555773
-6.4411077 5.5961337 -0.47659621
-12.637844 10.979954 0
-12.633249 10.975962 0.9347707
-2.0519135 1.7783878 -0.89532828
-2.398349 2.0786426 -0.87563449
-2.7843781 2.4132128 -0.81625104
-3.3509831 2.9042878 -0.73927915
-4.1674552 3.611922 -0.61469263
-6.4380412 5.5798326 -0.4758701
-12.615705 10.933998 0
-12.617054 10.935166 0.93259406
-2.0783648 1.7969202 -0.90592206
-2.3856764 2.0626166 -0.87009722
-2.7853642 2.40818 -0.81568658
-3.3447821 2.8918436 -0.7371397
-4.1698618 3.6051939 -0.61440456
-6.4369159 5.5652518 -0.47528952
-12.591508 10.886411 0
-12.614532 10.906318 0.9314329
-2.058075 1.7750366 -0.89614248
-2.3691728 2.0433505 -0.86317694
-2.8094392 2.4230688 -0.82187885
-3.3463318 2.8861251 -0.73671216
-4.1761718 3.6018405 -0.61469263
-6.4318333 5.5472903 -0.47441897
-12.561293 10.833791 0
-12.592287 10.860523 0.92882067
-2.077086 1.787061 -0.90347952
-2.3925612 2.0584862 -0.87079138
-2.800812 2.4097326 -0.8185026
-3.3537049 2.8854249 -0.73756731
-4.180521 3.5967917 -0.61469263
-6.4306526 5.5327358 -0.47383842
-12.548729 10.796541 0
-12.593578 10.835129 0.92794961
-2.075489 1.7813274 -0.90184802
-2.3874319 2.0490582 -0.86802274
-2.7902229 2.3947611 -0.81456184
-3.3571889 2.8813703 -0.73756731
-4.1848636 3.5917377 -0.61469263
-6.4314156 5.5198832 -0.47340286
-12.575591 10.793237 0
-12.592865 10.808063 0.926934
-2.0663786 1.7691767 -0.89695978
-2.386091 2.0429056 -0.86663705
-2.8027632 2.3996489 -0.81737578
-3.3548162 2.8723016 -0.73628294
-4.1872377 3.5849981 -0.61440456
-6.4301853 5.5053482 -0.47282231
-12.594557 10.783113 0
-12.64144 10.823254 0.92954624
-2.1230164 1.8132273 -0.92059296
-2.4133556 2.0612004 -0.87563449
-2.8056607 2.3962605 -0.81737578
-3.3543842 2.8649147 -0.73542786
-4.1935315 3.581614 -0.61469263
-6.4151039 5.4790163 -0.47122619
-6.6927814 5.7161756 0
-6.8220243 5.8265595 0.50111681
-2.1007426 1.7898183 -0.90999609
-2.4273059 2.068048 -0.87978882
-2.8066218 2.3912225 -0.81681341
-3.3597956 2.8625226 -0.7358554
-4.1978559 3.5765445 -0.61469263
-6.4118319 5.4628367 -0.47050062
-6.7531648 5.7536502 0
-6.8389473 5.826736 0.50184238
-2.0821929 1.7696762 -0.90103382
-2.404954 2.0439942 -0.87079138
-2.809509 2.3878295 -0.81681341
-3.3612976 2.8568001 -0.73542786
-4.1962676 3.5664494 -0.61382854
-6.4065447 5.4449854 -0.46962953
-0 0 0
-0 0 0
-2.0918705 1.7735524 -0.90429366
-2.4131572 2.0459492 -0.87286586
-2.8201444 2.3910055 -0.81906497
-3.3764918 2.862694 -0.73799485
-4.2064867 3.5663893 -0.61469263
-6.4012308 5.4271612 -0.46875894
-0 0 0
-0 0 0
-2.094012 1.7710235 -0.90429366
-2.4098864 2.0381763 -0.87079138
-2.8210933 2.385957 -0.8185026
-3.3799481 2.8586121 -0.73799485
-4.2088199 3.5596354 -0.61440456
-6.3819938 5.3976107 -0.46687227
-0 0 0
-0 0 0
-2.1131504 1.7828346 -0.91162759
-2.4085088 2.0320244 -0.86940575
-2.8200865 2.3792665 -0.81737578
-3.3735914 2.8462508 -0.7358554
-4.211143 3.552881 -0.61411655
-6.3924794 5.3932433 -0.46716228
-0 0 0
-0 0 0
-2.0793719 1.7500398 -0.89614248
-2.4128799 2.0307264 -0.87009722
-2.8151832 2.3693128 -0.81512421
-3.3672097 2.833909 -0.73371601
-4.2094946 3.5427921 -0.61325139
-6.3830867 5.3721294 -0.46600115
-0 0 0
-0 0 0
-2.1296239 1.7901359 -0.91733313
-2.4313955 2.0438015 -0.87632865
-2.8127277 2.3643446 -0.81399953
-3.3846416 2.8450885 -0.7371397
-4.2116342 3.5402482 -0.61325139
-6.3763876 5.3599138 -0.46527562
-6.9107747 5.809113 0
-6.9252563 5.8212862 0.50532573
-2.0787563 1.743095 -0.89451408
-2.410795 2.0215187 -0.86802274
-2.8272607 2.3707368 -0.81737578
-3.388077 2.8409967 -0.7371397
-4.2178888 3.5368171 -0.61353946
-6.3729062 5.3438592 -0.46455005
-6.9157968 5.799088 0
-6.9442277 5.8229284 0.50619632
-2.1510041 1.7992548 -0.924667
-2.4305527 2.0330894 -0.87425148
-2.8262291 2.3640616 -0.81625104
-3.3954415 2.8401918 -0.73799485
-4.2221589 3.531718 -0.61353946
-6.3673959 5.3261485 -0.46367893
-6.9287891 5.7957382 0
-6.9731846 5.8328738 0.50779295
-2.0715799 1.7285684 -0.88962585
-2.419522 2.0188982 -0.86940575
-2.827127 2.3590121 -0.81568658
-3.3929634 2.8311577 -0.73671216
-4.228415 3.5282755 -0.61382854
-6.3838081 5.3267794 -0.46440506
-6.9597659 5.8073702 0
-6.9941878 5.8360925 0.50880855
-2.1705432 1.8067011 -0.93118674
-2.4335325 2.0256064 -0.87356001
-2.8299754 2.3555944 -0.81568658
-3.3884897 2.8204868 -0.73500031
-4.2326751 3.5231638 -0.61382854
-6.3842468 5.3140736 -0.4639695
-6.9907732 5.8189297 0
-7.0192065 5.8425965 0.51011467
-2.1251876 1.7646059 -0.91081339
-2.4166732 2.0066347 -0.86663705
-2.8367329 2.3554227 -0.81681341
-3.3938684 2.8180287 -0.73542786
-4.2309575 3.5130885 -0.61296338
-6.3846636 5.301374 -0.46353394
-7.0098162 5.8204565 0
-7.0362625 5.8424158 0.51084077
-2.1577735 1.7872624 -0.92385286
-2.4287546 2.0117133 -0.87009722
-2.8474042 2.3584766 -0.81906497
-3.405179 2.8204758 -0.7371397
-4.2391791 3.51127 -0.61353946
-6.385067 5.2886877 -0.46309894
-7.0388927 5.830245 0
-7.0633245 5.8504815 0.51229185
-2.1275351 1.7578861 -0.90999609
-2.4234476 2.0023854 -0.86732858
-2.8365386 2.3437037 -0.81512421
-3.4066074 2.8147259 -0.73671216
-4.2394347 3.5028536 -0.61296338
-6.4014664 5.2892427 -0.46382448
-7.061975 5.834991 0
-7.0984282 5.8651109 0.51432353
-2.1277521 1.7537436 -0.90918189
-2.431675 2.0042441 -0.86940575
-2.8452525 2.3451245 -0.81681341
-3.4000957 2.8024392 -0.7345711
-4.2436643 3.4977286 -0.61296338
-6.4138627 5.2864571 -0.46425951
-8.3462143 6.8791471 0
-8.2122927 6.7687659 0.59443665
-2.0859644 1.7150728 -0.89044005
-2.4340949 2.0013044 -0.86940575
-2.8500447 2.343297 -0.81737578
-3.4114108 2.8048501 -0.73628294
-4.2498837 3.4942393 -0.61325139
-6.4342971 5.290257 -0.46527562
-8.3585367 6.8723598 0
-8.2666235 6.7967892 0.59777445
-2.1300747 1.7470306 -0.90836769
-2.4694858 2.0254066 -0.88117182
-2.8489487 2.336632 -0.81625104
-3.406858 2.7942142 -0.7345711
-4.2521048 3.487463 -0.61296338
-6.4406848 5.2824783 -0.46527562
-8.3628139 6.8589578 0
-8.2969322 6.8049235 0.59937108
-2.1054065 1.7225474 -0.89695978
-2.4738712 2.0240083 -0.8818633
-2.8517699 2.3331878 -0.81625104
-3.4221566 2.7998521 -0.7371397
-4.2563152 3.4823227 -0.61296338
-6.4510889 5.277986 -0.46556616
-8.3791533 6.8554397 0
-8.3292828 6.8146381 0.60111278
-2.1074865 1.7200022 -0.89695978
-2.4374499 1.9892983 -0.86802274
-2.8624611 2.3361666 -0.8185026
-3.419569 2.790844 -0.7358554
-4.2585182 3.4755433 -0.61267537
-6.4735589 5.2833247 -0.46672672
-10.875343 8.8757935 0
-8.3515959 6.8160648 0.60212833
-2.1442513 1.7413911 -0.91081339
-2.4636664 2.0007949 -0.87563449
-2.8641498 2.3260357 -0.81737578
-3.4263034 2.7825723 -0.7358554
-4.2709165 3.4684999 -0.61325139
-6.4742093 5.2578397 -0.46585616
-10.896761 8.8494864 0
-10.875129 8.8319178 0.78252733
-2.1367533 1.7310213 -0.90673935
-2.4446449 1.9804497 -0.86802274
-2.8630135 2.3193774 -0.81625104
-3.4236772 2.7735808 -0.7345711
-4.2710886 3.4600837 -0.61267537
-6.4724813 5.2434707 -0.46527562
-0 0 0
-10.889834 8.8220453 0.7828179
-2.125385 1.7175622 -0.90103382
-2.4333754 1.9664549 -0.86317694
-2.8756933 2.3239 -0.81906497
-3.4170449 2.7613759 -0.73243165
-4.277276 3.4565446 -0.61296338
-6.4949803 5.2487116 -0.46643671
-10.903944 8.8116751 0
-10.892402 8.8023481 0.78223735
-2.137078 1.7227472 -0.90510786
-2.4435625 1.9698112 -0.86594558
-2.8626735 2.3076663 -0.81456184
-3.432374 2.7669148 -0.73500031
-4.2814493 3.4513738 -0.61296338
-5.22892 4.2151513 -0.37514859
-10.912559 8.7968616 0
-10.90303 8.7891808 0.78223735
-2.133378 1.7155157 -0.90266216
-2.5045891 2.0140183 -0.88670909
-2.8793225 2.3153532 -0.8185026
-3.43171 2.7595451 -0.73414356
-4.2836032 3.4445786 -0.61267537
-5.2238865 4.2006898 -0.37442303
-10.921154 8.7820406 0
-10.913642 8.776 0.78223735
-2.106535 1.6897434 -0.89044005
-2.4541883 1.9686111 -0.86802274
-2.868242 2.3007417 -0.81456184
-3.4390507 2.7586119 -0.73500031
-4.2817073 3.4345436 -0.61181021
-5.2289581 4.1943746 -0.37442303
-10.931758 8.7688379 0
-10.930321 8.7676859 0.78267288
-2.1915531 1.7535924 -0.9254812
-2.5035706 2.0032561 -0.88463193
-2.8849094 2.308388 -0.8185026
-3.4503989 2.76087 -0.73671216
-4.2919149 3.434217 -0.61267537
-5.2177916 4.175066 -0.37326193
-10.942345 8.7556229 0
-10.949015 8.7609596 0.78325289
-2.1782167 1.7386082 -0.91896147
-2.4961872 1.9924058 -0.88117182
-2.885705 2.3033109 -0.81793809
-3.4356697 2.7422814 -0.73285925
-4.294034 3.4274104 -0.61238629
-5.2228322 4.1687584 -0.37326193
-10.952916 8.7423944 0
-10.969753 8.7558327 0.783979
-2.1696055 1.7295899 -0.91488743
-2.4522769 1.9549333 -0.8652541
-2.8751788 2.2920668 -0.81456184
-3.4373257 2.7402053 -0.73285925
-4.2920628 3.4215939 -0.61181021
-0 0 -0
-10.958196 8.7357759 0
-10.938464 8.7200451 0.78136623
-2.1368763 1.6992798 -0.90021962
-2.4958708 1.9847584 -0.87978882
-2.9037981 2.3091488 -0.82187885
-3.4466639 2.7408447 -0.73414356
-4.3002386 3.4196219 -0.61238629
-5.2059741 4.1398778 -0.37152025
-10.958553 8.7144251 0
-10.93273 8.6938896 0.78020567
-2.1640987 1.7166632 -0.91081339
-2.4687831 1.958353 -0.86940575
-2.8946459 2.2961671 -0.8185026
-3.4560084 2.7414658 -0.73542786
-4.3084245 3.4176414 -0.61296338
-5.1987619 4.1238985 -0.3706497
-10.969074 8.7011766 0
-10.935083 8.6742144 0.77962512
-2.1409767 1.6941109 -0.90021962
-2.4672167 1.952258 -0.86802274
-2.8834686 2.2816296 -0.81456184
-3.4532773 2.7325075 -0.73414356
-4.3024111 3.4044096 -0.6115222
-5.1976261 4.1127748 -0.37021413
-10.971416 8.6814575 0
-10.939442 8.6561556 0.77918959
-2.1585426 1.7037733 -0.90673935
-2.4853277 1.9617103 -0.87356001
-2.9001865 2.289165 -0.8185026
-3.4585896 2.7299218 -0.7345711
-4.3126063 3.4040115 -0.61238629
-5.1944332 4.1000519 -0.36963359
-10.977817 8.6649723 0
-10.951931 8.6445398 0.77933455
-2.1780751 1.7149233 -0.91407329
-2.4620738 1.9385316 -0.86456257
-2.888974 2.2746546 -0.81456184
-3.4699533 2.7320931 -0.73628294
-4.3106256 3.3940024 -0.6115222
-5.1871381 4.0841308 -0.36876303
-10.9801 8.6452618 0
-10.968494 8.6361246 0.77977014
-2.1393285 1.6802323 -0.89695978
-2.4722986 1.9417478 -0.86732858
-2.8937166 2.2727301 -0.81512421
-3.4692183 2.72473 -0.73542786
-4.3228598 3.3951819 -0.61267537
-5.1879783 4.0746469 -0.36847246
-10.99668 8.6368122 0
-10.980964 8.6244678 0.77991509
-2.1452446 1.6806918 -0.89858812
-2.4884689 1.9495909 -0.87217438
-2.9084654 2.2786372 -0.8185026
-3.4664438 2.7157853 -0.73414356
-4.312705 3.3787885 -0.61065704
-5.1888108 4.0651736 -0.36818245
-10.998914 8.6170979 0
-10.991376 8.6111937 0.77991509
-2.1764874 1.7009289 -0.91081339
-2.5066366 1.9589412 -0.87771165
-2.8992004 2.2657306 -0.81512421
-3.4778135 2.7179177 -0.7358554
-4.3269725 3.381537 -0.61209822
-5.1834841 4.0509024 -0.36745691
-10.994962 8.5925827 0
-10.987439 8.5867043 0.77889901
-2.1746387 1.6952558 -0.90918189
-2.4832821 1.935861 -0.86871421
-2.9079497 2.2669139 -0.81681341
-3.4810948 2.7137134 -0.7358554
-4.3290172 3.3747175 -0.61181021
-5.176075 4.0350475 -0.36658579
-11.007386 8.5808897 0
-11.00806 8.5814142 0.77962512
-2.1922946 1.7047647 -0.91570163
-2.4717543 1.9220772 -0.86386842
-2.9026635 2.2571595 -0.81456184
-3.4762654 2.7032018 -0.73414356
-4.3351316 3.3710704 -0.61209822
-5.174799 4.0240097 -0.3661508
-11.015694 8.5659866 0
-11.016363 8.5665073 0.77947956
-2.1845899 1.6945416 -0.91162759
-2.4919138 1.9329265 -0.87009722
-2.9094002 2.2567623 -0.81568658
-3.4754763 2.6958559 -0.73328841
-4.3289847 3.3579049 -0.61065704
-5.1775985 4.0161567 -0.36600521
-11.026036 8.5526705 0
-11.022604 8.5500078 0.77918959
-2.1592727 1.6707286 -0.90021962
-2.5279765 1.9560118 -0.8818633
-2.9061019 2.2485847 -0.81399953
-3.4787312 2.6916544 -0.73328841
-4.3432655 3.3605843 -0.61209822
-5.1742268 4.0035372 -0.36542466
-11.032249 8.5361595 0
-11.032927 8.5366831 0.77918959
-2.1867237 1.6877487 -0.91081339
-2.4906254 1.9223047 -0.86802274
-2.9128358 2.2481737 -0.81512421
-3.4840112 2.6890161 -0.73371601
-4.3432317 3.3521762 -0.6115222
-5.1831784 4.0004606 -0.36571524
-11.054914 8.5323601 0
-11.030888 8.5138168 0.77831846
-2.1985519 1.6926427 -0.91488743
-2.4969182 1.9223518 -0.86940575
-2.9195809 2.2477555 -0.81625104
-3.487258 2.6848042 -0.73371601
-4.3493266 3.3485022 -0.61181021
-5.2003584 4.0037026 -0.36658579
-11.061095 8.5158243 0
-11.034996 8.4957314 0.77788347
-2.167273 1.6643944 -0.90103382
-2.4773579 1.9025294 -0.86179394
-2.9444561 2.2612455 -0.82244116
-3.4843895 2.6758964 -0.73243165
-4.3513198 3.3416705 -0.6115222
-5.1784029 3.9768431 -0.3646991
-11.065183 8.4976959 0
-11.043186 8.4808035 0.77773792
-2.1771309 1.6677866 -0.90429366
-2.503546 1.9178363 -0.87009722
-2.9290345 2.2437809 -0.81737578
-3.4998512 2.6810539 -0.73500031
-4.3574057 3.3379817 -0.61181021
-5.1543298 3.9484637 -0.36266744
-11.073378 8.4827385 0
-11.041053 8.4579763 0.77686733
-2.1909239 1.6741558 -0.90918189
-2.5257995 1.9300451 -0.87702018
-2.9256847 2.2356105 -0.81568658
-3.4867704 2.6643541 -0.73157656
-4.3470478 3.3217199 -0.60979193
-5.1590967 3.9422328 -0.36266744
-11.07948 8.4661894 0
-11.051265 8.4446287 0.77686733
-2.1968803 1.6745068 -0.91081339
-2.5041869 1.908742 -0.86871421
-2.9324296 2.2351573 -0.81681341
-3.4879475 2.6585844 -0.73114902
-4.3654594 3.3274419 -0.61181021
-5.1576548 3.9312692 -0.36223188
-11.079354 8.4449091 0
-11.06146 8.4312696 0.77686733
-2.1634834 1.6449217 -0.89614248
-2.5044961 1.9041978 -0.86802274
-2.9310789 2.2285337 -0.81568658
-3.497282 2.6590245 -0.73243165
-4.3674202 3.3206007 -0.6115222
-5.1479201 3.9140239 -0.36121577
-11.099907 8.4393892 0
-11.063366 8.4116068 0.77628678
-2.182198 1.6570712 -0.90347952
-2.5116343 1.9072316 -0.87009722
-2.9344542 2.2283034 -0.81625104
-3.5091081 2.6646719 -0.7345711
-4.3632436 3.3132675 -0.61065704
-5.1502838 3.910913 -0.36121577
-11.123655 8.4468451 0
-5.8454838 4.4388194 0.40997371
-2.1920795 1.6604027 -0.90673935
-2.499944 1.8935962 -0.8652541
-2.9330897 2.2216847 -0.81512421
-3.4980068 2.6495845 -0.73157656
-4.3734312 3.3126795 -0.6115222
-5.150867 3.9015522 -0.36092576
-11.148377 8.4443998 0
-5.8549895 4.4348941 0.41026425
-2.1980245 1.6607298 -0.90836769
-2.5542696 1.9298928 -0.88324893
-2.9296882 2.2135425 -0.81343502
-3.5175912 2.6577361 -0.73500031
-4.3753691 3.3058348 -0.61123419
-5.1555772 3.8953257 -0.36092576
-11.162722 8.4340572 0
-5.8624153 4.4293809 0.41040927
-2.1941061 1.6536084 -0.90592206
-2.5365686 1.9117085 -0.87632865
-2.9384501 2.2145903 -0.81512421
-3.514648 2.6488471 -0.73371601
-4.3793602 3.3005457 -0.61123419
-5.1540532 3.8843999 -0.3604902
-11.164591 8.4142981 0
-5.8573895 4.4144759 0.4096837
-2.2277124 1.6747193 -0.91896147
-2.520823 1.8950701 -0.87009722
-2.9533136 2.220202 -0.8185026
-3.5116882 2.6399693 -0.73243165
-4.3854108 3.2968044 -0.6115222
-5.1566677 3.8766096 -0.36034521
-11.176836 8.4023705 0
-5.88556 4.4245663 0.41127983
-2.1980958 1.6483014 -0.90592206
-2.5030437 1.8769746 -0.86317694
-2.9437933 2.2074826 -0.81512421
-3.5148757 2.6357241 -0.73243165
-4.3955932 3.2961538 -0.61238629
-5.1759024 3.8812897 -0.36136132
-5.8112154 4.3576961 0
-5.8659554 4.3987446 0.40953815
-2.2000859 1.6456442 -0.90592206
-2.5233884 1.8874714 -0.86940575
-2.9607031 2.2145789 -0.81906497
-3.5160041 2.6299391 -0.73200411
-4.3933649 3.2861969 -0.6115222
-5.1868248 3.8796976 -0.36179632
-5.7581244 4.3070245 0
-11.270573 8.4302855 0.7861557
-2.2040594 1.6444669 -0.90673935
-2.5256672 1.8844211 -0.86940575
-2.9613423 2.209482 -0.8185026
-3.5191793 2.6256888 -0.73200411
-4.3931823 3.2777896 -0.61094511
-5.2019281 3.8812013 -0.36252242
-5.7216144 4.2689438 0
-11.332815 8.4555063 0.78978407
-2.2060449 1.6418025 -0.90673935
-2.5219026 1.876873 -0.86732858
-2.9578929 2.2013497 -0.81681341
-3.5244069 2.6229658 -0.73243165
-4.3971395 3.2724791 -0.61094511
-5.2128615 3.8795626 -0.36295745
-5.7100663 4.2495971 0
-11.384714 8.4728346 0.79268682
-2.2358069 1.6597582 -0.91814733
-2.5322261 1.8798059 -0.87009722
-2.9585123 2.1962609 -0.81625104
-3.5296328 2.620234 -0.73285925
-4.4052482 3.2702498 -0.6115222
-5.2217221 3.8763616 -0.36324799
-5.7026548 4.2333837 0
-11.428326 8.4838533 0.79500908
-2.210006 1.6364666 -0.90673935
-2.5365176 1.8782421 -0.87079138
-2.9775 2.2047811 -0.82075417
-3.5369263 2.6190255 -0.73371601
-4.4091964 3.2649245 -0.6115222
-5.2264018 3.8700495 -0.36324799
-5.6973104 4.2187481 0
-11.463619 8.4885883 0.79675019
-2.1960769 1.6220475 -0.90021962
-2.5327294 1.8707029 -0.86871421
-2.9822037 2.2026899 -0.82131648
-3.5359545 2.6116965 -0.73285925
-4.4131384 3.2595944 -0.6115222
-5.2394347 3.8699067 -0.36382854
-5.702404 4.2118607 0
-11.511495 8.5025215 0.79936296
-2.2000232 1.6208575 -0.90103382
-2.5269086 1.861689 -0.86594558
-2.9644027 2.1840107 -0.81568658
-3.5349782 2.6043797 -0.73200411
-4.4129047 3.2511885 -0.61094511
-5.2461972 3.8651128 -0.36397356
-5.701201 4.200335 0
-11.471552 8.4516153 0.7958796
-2.2159235 1.6284448 -0.90673935
-2.52107 1.8526918 -0.86317694
-2.9793282 2.1894581 -0.81906497
-3.5526044 2.610749 -0.73500031
-4.4230847 3.2504504 -0.61181021
-5.2550473 3.8618455 -0.36426356
-5.6999869 4.1888242 0
-11.224225 8.2484941 0.77802843
-2.2338293 1.6374502 -0.91325593
-2.5374725 1.8600279 -0.86802274
-2.9635298 2.1723382 -0.81399953
-3.5474749 2.600384 -0.73328841
-4.4228411 3.2420483 -0.61123419
-5.263905 3.8585684 -0.36455411
-5.6966481 4.1757793 0
-11.206942 8.2149563 0.77614176
-2.2338128 1.6332924 -0.91244179
-2.5295942 1.8495582 -0.86456257
-2.9764061 2.1762528 -0.81681341
-3.5464659 2.5930624 -0.73243165
-4.4309268 3.2397521 -0.61181021
-5.2643642 3.8491349 -0.36426356
-5.695385 4.1642833 0
-11.221051 8.2044735 0.7764318
-2.227797 1.6247666 -0.90918189
-2.5622256 1.8686706 -0.87494302
-2.9708219 2.166666 -0.81456184
-3.5475245 2.5872641 -0.73200411
-4.4285669 3.2298219 -0.61094511
-5.2732143 3.8458364 -0.36455411
-5.6899014 4.1497326 0
-11.212064 8.1771297 0.77512568
-2.2277617 1.620621 -0.90836769
-2.5665085 1.8670477 -0.87563449
-2.9837093 2.170547 -0.81737578
-3.5444183 2.5784438 -0.7307198
-4.4282875 3.2214284 -0.61036903
-5.2799568 3.8409889 -0.3646991
-5.7075343 4.1520371 0
-11.224035 8.1651039 0.77527064
-2.2097178 1.603415 -0.90021962
-2.5768847 1.8698387 -0.87840313
-2.9925015 2.1714184 -0.81906497
-3.5496149 2.5756712 -0.73114902
-4.4321766 3.2160754 -0.61036903
-5.2972169 3.8437657 -0.36557022
-5.716764 4.1481977 0
-11.236002 8.1530657 0.7754162
-2.2256632 1.6108837 -0.90592206
-2.5750813 1.8637847 -0.87702018
-2.9930665 2.1663127 -0.8185026
-3.546484 2.5668635 -0.72986472
-4.4297714 3.2061665 -0.60950387
-5.3060632 3.8404064 -0.36586022
-5.7259846 4.1443357 0
-11.245845 8.1394835 0.7754162
-2.225606 1.606748 -0.90510786
-2.5569868 1.8459842 -0.87009722
-2.9894996 2.1582313 -0.81681341
-3.5599878 2.5700879 -0.73200411
-4.4336424 3.2008119 -0.60950387
-5.3191266 3.840076 -0.36644077
-5.730988 4.137414 0
-11.251454 8.1228447 0.77512568
-2.240612 1.6155231 -0.91081339
-2.5520027 1.8400415 -0.86802274
-2.990803 2.1564248 -0.81681341
-3.5573792 2.5649369 -0.73114902
-4.4397755 3.2011609 -0.61008102
-5.3277712 3.8414223 -0.36687633
-5.7419305 4.1400394 0
-11.239498 8.1038876 0.77396452
-2.2545979 1.6214703 -0.91570163
-2.5481119 1.8325608 -0.86594558
-2.987216 2.1483574 -0.81512421
-3.5708942 2.5681293 -0.73328841
-4.4394364 3.1927707 -0.60950387
-5.3387313 3.839529 -0.36731133
-5.7384777 4.1270204 0
-11.253505 8.093338 0.7742551
-2.2304494 1.6000175 -0.90510786
-2.5564418 1.833869 -0.86802274
-3.0001307 2.1521502 -0.81793809
-3.569819 2.5608172 -0.73243165
-4.4495978 3.1919286 -0.61036903
-5.3370385 3.828536 -0.36687633
-5.7392349 4.1170521 0
-11.261167 8.0782213 0.77411008
-2.2705739 1.6246493 -0.92059296
-2.5994534 1.8599703 -0.8818633
-2.9986002 2.1455693 -0.81681341
-3.5729105 2.5565019 -0.73243165
-4.4513502 3.1850462 -0.61008102
-5.3437719 3.823595 -0.36702135
-0 0 0
-11.264578 8.060071 0.77367455
-2.2282722 1.590314 -0.90266216
-2.5731144 1.8364273 -0.87217438
-3.0073969 2.146374 -0.8185026
-3.5780845 2.5536728 -0.73285925
-4.4509807 3.1766572 -0.60950387
-5.3547354 3.8216653 -0.36745691
-5.7809362 4.125844 0
-11.267962 8.0419245 0.77323896
-2.2301922 1.5876204 -0.90266216
-2.5916817 1.8449563 -0.87771165
-3.0079124 2.1412609 -0.81793809
-3.5728104 2.5433981 -0.73114902
-4.4527106 3.1697781 -0.60921586
-5.3635788 3.8182034 -0.36774689
-5.7816811 4.1158404 0
-11.29249 8.0388536 0.7742551
-2.2421908 1.5920833 -0.90673935
-2.5877705 1.8374646 -0.87563449
-3.0063579 2.1346855 -0.81681341
-3.575881 2.5390794 -0.73114902
-4.4628663 3.1688895 -0.61008102
-5.3660717 3.8102167 -0.3676019
-5.7866502 4.1088514 0
-11.306428 8.0282087 0.77454507
-2.260241 1.6007955 -0.91325593
-2.5715652 1.821288 -0.86940575
-3.0047841 2.1281114 -0.81568658
-3.5768454 2.5332687 -0.7307198
-4.4709096 3.1664815 -0.61065704
-5.3770351 3.8082371 -0.36803746
-5.8001056 4.107873 0
-11.303402 8.0055332 0.77367455
-2.2662148 1.6009182 -0.91488743
-2.5655677 1.8123894 -0.86663705
-3.0073533 2.1244791 -0.81568658
-3.5841012 2.5319102 -0.73157656
-4.4662819 3.1551075 -0.60950387
-7.0433092 4.9755921 -0.48167568
-5.7646761 4.07233 0
-11.319436 7.9963684 0.77411008
-2.2641029 1.5953287 -0.91325593
-2.5923653 1.8266284 -0.87494302
-3.0161512 2.1252358 -0.81737578
-3.5850616 2.5261004 -0.73114902
-4.4764361 3.1541796 -0.61036903
-7.0217047 4.9476228 -0.47978899
-5.7695928 4.0653615 0
-11.32696 7.9811845 0.77396452
-2.2437911 1.5769628 -0.90429366
-2.6048315 1.8307061 -0.87840313
-3.0166402 2.1201303 -0.81681341
-3.5902092 2.5232413 -0.73157656
-4.4802442 3.1487684 -0.61036903
-6.9724078 4.9002905 -0.47601566
-5.7787633 4.0613828 0
-11.332347 7.9645066 0.77367455
-2.2456951 1.5742506 -0.90429366
-2.5659637 1.7987615 -0.86456257
-3.0275221 2.1223178 -0.81906497
-3.5890474 2.5159516 -0.7307198
-4.4776897 3.1388969 -0.60950387
-6.9527912 4.8739634 -0.47427398
-5.7815375 4.0529051 0
-11.341962 7.950808 0.77367455
-2.2678473 1.5856961 -0.91244179
-2.6010237 1.8186556 -0.87563449
-3.034245 2.1215672 -0.82018965
-3.5941947 2.5130882 -0.73114902
-4.4899583 3.1394129 -0.61065704
-6.9501572 4.8596029 -0.47369343
-5.7821608 4.0429306 0
-11.377115 7.9549656 0.7754162
-2.2555766 1.5730618 -0.90673935
-2.5764704 1.7968564 -0.86663705
-3.0326421 2.1149952 -0.81906497
-3.5930135 2.5058038 -0.73029226
-4.4852619 3.128067 -0.60950387
-6.9432321 4.8422799 -0.47282231
-5.7849088 4.0344539 0
-11.574267 8.072011 0.78818792
-2.2268803 1.5450634 -0.89369988
-2.5828645 1.7920536 -0.86732858
-3.0273082 2.1004195 -0.81625104
-3.6053879 2.5015051 -0.73157656
-4.4906855 3.1157458 -0.60921586
-6.9399753 4.8151221 -0.47180673
-5.8053308 4.0278788 0
-11.788003 8.1788006 0.80139464
-2.2632945 1.5662804 -0.90755355
-2.6180351 1.8117737 -0.87840313
-3.029844 2.09676 -0.81625104
-3.6020732 2.492763 -0.73029226
-4.5008292 3.1147344 -0.61008102
-6.9500575 4.8096876 -0.47209674
-5.8037715 4.0164165 0
-11.804289 8.1689882 0.80183023
-2.238744 1.5452935 -0.89695978
-2.6016424 1.795784 -0.87217438
-3.0302782 2.09165 -0.81568658
-3.6114225 2.492785 -0.73157656
-4.5067163 3.1107616 -0.61036903
-6.9580007 4.8027611 -0.47224173
-5.8043408 4.0064468 0
-11.818423 8.1576691 0.80212021
-2.2609637 1.5566003 -0.90510786
-2.5934803 1.7855272 -0.86871421
-3.039084 2.0923109 -0.81737578
-3.6144321 2.4884195 -0.73157656
-4.5040784 3.1009123 -0.60950387
-5.596242 3.8528316 -0.37950251
-5.8134604 4.0023794 0
-6.0712614 4.1798668 0.41171539
-2.2669215 1.5566682 -0.90673935
-2.5997682 1.7852298 -0.87009722
-3.0395172 2.0872004 -0.81681341
-3.6195502 2.485502 -0.73200411
-4.5120907 3.0983989 -0.61008102
-5.600893 3.8460667 -0.37950251
-5.8247304 3.9997733 0
-6.1062918 4.1931181 0.41374704
-2.2617447 1.5511032 -0.90429366
-2.6318827 1.8049437 -0.88048029
-3.0533464 2.0939832 -0.82018965
-3.6125829 2.4775074 -0.73029226
-4.5075603 3.0912824 -0.60921586
-5.6032157 3.8426821 -0.37950251
-5.8400192 4.0050821 0
-6.0723963 4.1644459 0.41127983
-2.2819755 1.5609267 -0.91162759
-2.6133587 1.787601 -0.87356001
-3.0558743 2.0902925 -0.82018965
-3.6155739 2.4731405 -0.73029226
-4.5176988 3.0902157 -0.61008102
-5.6142912 3.8403115 -0.37993807
-5.8448544 3.9980226 0
-6.0945816 4.1688418 0.41244093
-2.2777328 1.5539881 -0.90918189
-2.605149 1.7773684 -0.87009722
-3.0416064 2.0751424 -0.81568658
-3.6228049 2.4716663 -0.73114902
-4.5171523 3.0818367 -0.60950387
-5.6167827 3.832062 -0.37979305
-5.8518372 3.9924283 0
-6.0802979 4.1482964 0.41113481
-2.2693939 1.5442836 -0.90510786
