# .PCD v0.7 - Point Cloud Data file format
VERSION 0.7
FIELDS x y z
SIZE 4 4 4
TYPE F F F
COUNT 1 1 1
WIDTH 1544
HEIGHT 1
VIEWPOINT 0 0 0 1 0 0 0
POINTS 1544
DATA ascii
-3.8013482 3.9704065 -0.61267537
-5.8289108 6.0881414 -0.47079062
-6.4359827 6.7222118 0
-6.3445377 6.6266999 0.51243687
-1.9178337 1.9982867 -0.91325593
-2.1819947 2.2735293 -0.86940575
-2.5460694 2.6528769 -0.81456184
-3.0616481 3.1900842 -0.7371397
-3.8079321 3.9676747 -0.61296338
-5.847055 6.0923386 -0.47166118
-6.4296842 6.6994095 0
-6.3399434 6.6059041 0.51142079
-1.9014024 1.9763805 -0.90429366
-2.177783 2.2636595 -0.86663705
-2.547513 2.647969 -0.81399953
-3.0637226 3.1845343 -0.73671216
-3.8216879 3.9723887 -0.61440456
-4.9338899 5.128448 -0.39749923
-4.9637179 5.159452 0
-6.3407216 6.5907555 0.51084077
-1.9140801 1.9847525 -0.90918189
-2.2014148 2.2826962 -0.87494302
-2.554235 2.6485434 -0.81512421
-3.0693486 3.1826761 -0.7371397
-3.819303 3.9603209 -0.61325139
-0 0 -0
-4.9392381 5.1216063 0
-6.3486805 6.5830894 0.51084077
-1.9010177 1.966447 -0.90184802
-2.1989386 2.2746217 -0.87286586
-2.5574334 2.6454551 -0.81512421
-3.0696199 3.1752703 -0.73628294
-3.8276846 3.9594259 -0.61382854
-0 0 -0
-0 0 0
-4.9895234 5.1612535 0.40097535
-1.9137158 1.9748015 -0.90673935
-2.1999412 2.2701633 -0.87217438
-2.5588615 2.6405401 -0.81456184
-3.0681002 3.1660337 -0.73500031
-3.8270643 3.949224 -0.61296338
-4.9651003 5.1235862 -0.39851481
-0 0 0
-0 0 0
-1.8954346 1.9512136 -0.89695978
-2.2061822 2.2711058 -0.87356001
-2.5620501 2.6374464 -0.81456184
-3.0737104 3.1641638 -0.73542786
-3.8300328 3.9427433 -0.61267537
-4.9712877 5.1175833 -0.39851481
-0 0 0
-0 0 0
-1.9184825 1.9701711 -0.90673935
-2.2036724 2.2630446 -0.87148285
-2.5670061 2.6361673 -0.81512421
-3.0846951 3.1678042 -0.7371397
-3.834794 3.9381127 -0.61267537
-4.988348 5.122746 -0.3993859
-0 0 0
-5.0100179 5.145 0.4011209
-1.9139559 1.9607768 -0.90347952
-2.2081559 2.2621737 -0.87217438
-2.5719626 2.6348803 -0.81568658
-3.0849309 3.1603971 -0.73628294
-3.835933 3.9297709 -0.61209822
-5.8784146 6.0222178 -0.47006506
-4.9791775 5.1009827 0
-5.0053372 5.1277823 0.40024978
-1.9422475 1.9849565 -0.91570163
-2.2003636 2.2487485 -0.86802274
-2.5715938 2.6281419 -0.81456184
-3.0905478 3.1585073 -0.73671216
-3.8479142 3.9325278 -0.61325139
-5.8729644 6.0021076 -0.46904895
-6.4923239 6.6350865 0
-6.3962398 6.5368896 0.51084077
-1.9290698 1.9667294 -0.90836769
-2.2101061 2.2532523 -0.87079138
-2.5747676 2.6250327 -0.81456184
-3.0889676 3.149271 -0.73542786
-3.8454185 3.9204895 -0.61209822
-5.8729343 5.987587 -0.4684684
-6.5003362 6.6272373 0
-6.4023089 6.5272961 0.51069522
-1.9331759 1.9661578 -0.90918189
-2.2075489 2.2452116 -0.86871421
-2.581497 2.6255398 -0.81568658
-3.0927706 3.1455364 -0.73542786
-3.8519645 3.9176826 -0.61238629
-5.8801646 5.9804864 -0.4684684
-6.5028639 6.6138091 0
-6.408371 6.517704 0.5105502
-1.9239633 1.9544247 -0.90429366
-2.2229846 2.2581804 -0.87425148
-2.5830827 2.6239796 -0.81568658
-3.1018741 3.1509848 -0.7371397
-3.8579631 3.9190447 -0.61296338
-5.8801346 5.9732327 -0.46817839
-6.5251122 6.6284218 0
-6.3995457 6.5008674 0.50953406
-1.9315332 1.957378 -0.90673935
-2.2274721 2.2572768 -0.87494302
-2.5844684 2.6190498 -0.81512421
-3.1002681 3.1417511 -0.7358554
-3.8572438 3.9088554 -0.61209822
-5.8800473 5.958725 -0.46759784
-6.5075283 6.5946021 0
-6.4073958 6.4931297 0.50953406
-1.9477955 1.9690933 -0.91325593
-2.2125583 2.2367511 -0.86802274
-2.5894163 2.6177297 -0.81568658
-3.1058655 3.1398261 -0.73628294
-3.8656054 3.9078732 -0.61267537
-5.8908939 5.955307 -0.46788785
-6.5209842 6.5922866 0
-6.4042764 6.4743028 0.50866354
-1.9292966 1.9456843 -0.90347952
-2.2205536 2.2394152 -0.87009722
-2.5925775 2.614599 -0.81568658
-3.11147 3.1378989 -0.73671216
-3.8703244 3.9031994 -0.61267537
-5.8889394 5.9389606 -0.46716228
-6.5307755 6.5862489 0
-6.4212408 6.4757833 0.5093891
-1.9316462 1.9433517 -0.90347952
-2.2161834 2.2296133 -0.86732858
-2.5885696 2.6042562 -0.81343502
-3.1134443 3.1323113 -0.73628294
-3.8768597 3.9003527 -0.61296338
-5.8979411 5.933682 -0.46730727
-6.5442348 6.5838919 0
-6.4162364 6.4551177 0.50837296
-1.949692 1.9567723 -0.91081339
-2.2206519 2.2287161 -0.86802274
-2.5970964 2.6065278 -0.81512421
-3.1117964 3.1230967 -0.73500031
-3.8742671 3.8883364 -0.61181021
-5.8959384 5.9173493 -0.46658173
-6.5503435 6.574131 0
-6.4258704 6.4492064 0.50851852
-1.9258537 1.9281821 -0.89858812
-2.2304347 2.2331314 -0.87079138
-2.6020379 2.6051841 -0.81568658
-3.122824 3.1265996 -0.73671216
-3.8826146 3.8873088 -0.61238629
-5.8902354 5.8973565 -0.46556616
-6.5398941 6.5478015 0
-6.4336586 6.4414372 0.50851852
-1.9316831 1.9293504 -0.90021962
-2.2349048 2.2322059 -0.87148285
-2.6015918 2.5984502 -0.81456184
-3.113884 3.1101236 -0.73371601
-3.8836524 3.8789625 -0.61181021
-5.9010301 5.8939042 -0.46585616
-6.5496407 6.5417318 0
-6.443274 6.435493 0.50866354
-1.9538661 1.9420973 -0.90836769
-2.2189407 2.2055752 -0.86317694
-2.6060634 2.5903661 -0.81399953
-3.1323113 3.1134443 -0.73628294
-3.8948476 3.8713877 -0.61209822
-5.8894587 5.8539844 -0.46382448
-6.5709696 6.5313907 0
-6.4532766 6.4144063 0.50822794
-1.9579647 1.9414736 -0.90918189
-2.2501075 2.2311556 -0.87425148
-2.6091914 2.5872154 -0.81399953
-3.136071 3.1096573 -0.73628294
-3.8976877 3.8648593 -0.61181021
-5.8928342 5.8432012 -0.46353394
-6.5640726 6.5087862 0
-6.4665594 6.4120946 0.50866354
-1.9532804 1.9321537 -0.90592206
-2.2420967 2.2178462 -0.87009722
-2.6050899 2.5769131 -0.81174797
-3.1325259 3.0986445 -0.7345711
-3.906029 3.8637812 -0.61238629
-5.8998899 5.8360767 -0.46353394
-6.5571308 6.4862084 0
-6.4650679 6.3951411 0.50793797
-1.9591357 1.9332676 -0.90755355
-2.239423 2.2098541 -0.86802274
-2.6154361 2.5809023 -0.81399953
-3.1381001 3.0966654 -0.73500031
-3.9051769 3.8536139 -0.6115222
-5.8828955 5.8052187 -0.46164727
-6.579783 6.4929047 0
-6.4764857 6.3909717 0.50822794
-1.9597105 1.9291667 -0.90673935
-2.2599666 2.2247429 -0.87494302
-2.6239796 2.5830827 -0.81568658
-3.1400049 3.0910652 -0.7345711
-3.9098303 3.8488925 -0.6115222
-5.8250995 5.7343102 -0.45656779
-6.5839176 6.4813013 0
-6.4842033 6.3831415 0.50822794
-1.9620401 1.9267974 -0.90673935
-2.2429616 2.202673 -0.86732858
-2.6216655 2.5745742 -0.81399953
-3.1419079 3.0854719 -0.73414356
-3.9089403 3.8387268 -0.61065704
-5.8042126 5.6999559 -0.45439056
-6.5805998 6.4623971 0
-6.4826431 6.3662004 0.50750244
-1.9678946 1.9278812 -0.90836769
-2.25279 2.2069838 -0.87009722
-2.6175141 2.5642922 -0.81174797
-3.1493046 3.0852697 -0.73500031
-3.9172745 3.8376243 -0.61123419
-5.7145829 5.5983877 -0.44684386
-6.5865459 6.4526215 0
-6.4940467 6.3620028 0.50779295
-1.9419404 1.8978617 -0.89532828
-2.2429006 2.1919906 -0.8652541
-2.6296949 2.5700054 -0.81456184
-3.1438456 3.0724857 -0.73285925
-3.9219086 3.8328881 -0.61123419
-5.7157664 5.5860286 -0.4464083
-6.5906119 6.4410167 0
-6.4980092 6.3505158 0.50750244
-1.951311 1.9024154 -0.89858812
-2.2581167 2.2015331 -0.87009722
-2.6291564 2.5632753 -0.81343502
-3.1512353 3.0722723 -0.73371601
-3.9246798 3.8263357 -0.61094511
-5.6834421 5.5410275 -0.44336051
-6.5928049 6.4276032 0
-6.4963765 6.3335915 0.50677687
-1.97487 1.9207351 -0.90836769
-2.2607751 2.1988032 -0.87009722
-2.6340783 2.5618732 -0.81399953
-3.1623063 3.0756216 -0.73542786
-3.9311597 3.8233993 -0.61123419
-5.6808214 5.5250993 -0.44263497
-6.5949678 6.4141874 0
-6.5077467 6.3293571 0.50706685
-1.9778012 1.9212621 -0.90918189
-2.2567098 2.1921978 -0.86802274
-2.6319768 2.5567372 -0.81287265
-3.1604776 3.0701296 -0.7345711
-3.9353225 3.822824 -0.6115222
-5.6916137 5.5289087 -0.44321552
-6.5988417 6.410202 0
-6.5097075 6.3236156 0.50692183
-1.9677018 1.9068357 -0.90347952
-2.259357 2.1894693 -0.86802274
-2.6368873 2.5553215 -0.81343502
-3.1623433 3.0645239 -0.73414356
-3.9417944 3.8198645 -0.61181021
-5.6758981 5.5003276 -0.44147384
-6.6103168 6.4058423 0
-6.5098796 6.3085122 0.50634128
-1.9842136 1.9181932 -0.90999609
-2.256588 2.181505 -0.86594558
-2.6363227 2.5486047 -0.81231034
-3.1697388 3.0642724 -0.73500031
-3.9389687 3.8079078 -0.61065704
-5.6993518 5.5097179 -0.44277996
-6.6030903 6.3833866 0
-6.5174971 6.3006415 0.50634128
-1.9989852 1.927806 -0.91570163
-2.2664456 2.1857429 -0.86871421
-2.6394005 2.5454175 -0.81231034
-3.1641946 3.0515251 -0.73285925
-3.9435668 3.8031456 -0.61065704
-5.7022681 5.4992237 -0.44248995
-6.6089201 6.3735919 0
-6.5194926 6.2873487 0.50590575
-1.9941885 1.9185349 -0.91244179
-2.2672789 2.1812649 -0.86802274
-2.6443033 2.5439863 -0.81287265
-3.1771345 3.0566034 -0.73500031
-3.9481595 3.7983778 -0.61065704
-5.7051597 5.4887228 -0.44219941
-6.5997391 6.3493643 0
-6.5327044 6.284873 0.50634128
-1.9911538 1.910988 -0.90999609
-2.2608645 2.1698396 -0.86456257
-2.6528769 2.5460694 -0.81456184
-3.1789682 3.0509796 -0.7345711
-3.9508817 3.7918153 -0.61036903
-5.7136679 5.4836297 -0.44234496
-6.6224275 6.3558016 0
-6.5309219 6.2679801 0.50561571
-1.9720449 1.8880761 -0.90021962
-2.2689157 2.1723063 -0.86663705
-2.652277 2.5393441 -0.81343502
-3.1845119 3.0489166 -0.73500031
-3.9573269 3.7888255 -0.61065704
-5.7353048 5.4910979 -0.44350609
-6.5943909 6.3136044 0
-6.5384908 6.2600842 0.50561571
-2.0064936 1.9164165 -0.91488743
-2.2679138 2.1661007 -0.8652541
-2.6571863 2.5378976 -0.81399953
-3.186332 3.0432885 -0.7345711
-3.9619021 3.7840412 -0.61065704
-5.7362967 5.4787779 -0.44307053
-6.5775433 6.2822585 0
-6.5460501 6.2521791 0.50561571
-1.9927049 1.8986478 -0.90755355
-2.2705295 2.1633589 -0.8652541
-2.658406 2.5329273 -0.81343502
-3.1900067 3.0394361 -0.7345711
-3.9646008 3.7774687 -0.61036903
-5.7429123 5.4718428 -0.44307053
-6.5342622 6.2258401 0
-6.5441952 6.2353044 0.5048902
-1.9949975 1.8962386 -0.90755355
-2.2695017 2.1571538 -0.86386842
-2.6596246 2.5279644 -0.81287265
-3.1936769 3.0355794 -0.7345711
-3.972908 3.7762361 -0.61094511
-5.7627053 5.4774323 -0.44408664
-6.4512429 6.1318851 0
-6.5404205 6.2166481 0.50401908
-2.0134273 1.9091306 -0.91488743
-2.2848516 2.1664948 -0.86871421
-2.6589932 2.5212557 -0.81174797
-3.1992109 3.0334897 -0.73500031
-3.9699605 3.7643142 -0.60979193
-5.7580028 5.4597344 -0.44321552
-6.4303179 6.0972233 0
-6.4970226 6.1604729 0.50010073
-2.0049558 1.8965024 -0.90999609
-2.2856469 2.1620102 -0.86802274
-2.6675701 2.5232742 -0.81343502
-3.1991403 3.0260904 -0.73414356
-3.9782677 3.7630725 -0.61036903
-5.7796974 5.4670582 -0.44437665
-6.439569 6.0912356 0
-6.4780369 6.1276226 0.49806905
-2.003654 1.8906891 -0.90836769
-2.2919035 2.1626871 -0.86940575
-2.6632321 2.5130804 -0.81118566
-3.1953263 3.0151753 -0.73243165
-3.9828117 3.7582629 -0.61036903
-5.7806273 5.4547186 -0.44394109
-6.4393535 6.0763059 0
-6.4627576 6.0983906 0.49632737
-1.9987384 1.8814902 -0.90510786
-2.2872081 2.153038 -0.86663705
-2.6681149 2.5116005 -0.81174797
-3.2045765 3.0165925 -0.73371601
-3.9911129 3.75699 -0.61094511
-5.7947822 5.454854 -0.44452164
-6.4391179 6.0613923 0
-6.4795799 6.0994811 0.49705294
-2.0082173 1.8858415 -0.90836769
-2.293469 2.1537108 -0.86802274
-2.6729982 2.5101125 -0.81231034
-3.2157044 3.0197475 -0.73542786
-3.9918823 3.7486269 -0.61036903
-5.8051615 5.4514093 -0.44481221
-6.4559212 6.0625134 0
-6.528614 6.1307764 0.50024569
-2.0249245 1.8969316 -0.91488743
-2.2887461 2.1440773 -0.8652541
-2.6723242 2.5034099 -0.81118566
-3.2024918 3.0000663 -0.73157656
-3.9907444 3.7384944 -0.60950387
-5.8136387 5.4461656 -0.4449572
-6.4860334 6.0760593 0
-6.5549841 6.1406517 0.50169736
-1.991099 1.8607321 -0.89858812
-2.3004982 2.1498733 -0.86871421
-2.6772017 2.5019124 -0.81174797
-3.2211187 3.0102165 -0.73500031
-3.9952586 3.7336695 -0.60950387
-5.824008 5.4426818 -0.4452472
-6.4724526 6.0486693 0
-6.3535771 5.9375772 0.48573288
-1.9915398 1.8566411 -0.89777398
-2.3196077 2.162487 -0.87494302
-2.6820796 2.5004067 -0.81231034
-3.217243 2.9993203 -0.73328841
-4.0035543 3.7323701 -0.61008102
-5.8305802 5.4356408 -0.4452472
-6.4778547 6.0390716 0
-6.3455415 5.9157209 0.48457175
-2.0136921 1.8727502 -0.90673935
-2.3038516 2.1426008 -0.86802274
-2.6888165 2.5006216 -0.81343502
-3.2246208 2.9989238 -0.73414356
-4.0080614 3.72753 -0.61008102
-5.8333421 5.425056 -0.4449572
-6.4356017 5.9851623 0
-6.514411 6.0584555 0.49690792
-2.0057635 1.8631179 -0.90266216
-2.3014657 2.1377904 -0.86663705
-2.6903269 2.4989965 -0.81343502
-3.2264318 2.9969749 -0.73414356
-4.0122061 3.7268665 -0.61036903
-5.844234 5.4286046 -0.44553775
-6.3095613 5.8608389 0
-6.6246772 6.1535444 0.50503516
-2.0297685 1.880852 -0.91244179
-2.3095696 2.1401253 -0.86871421
-2.7007995 2.5026522 -0.81568658
-3.2375827 3.0000534 -0.7358554
-4.0110126 3.7167399 -0.60950387
-5.8565087 5.4268389 -0.44597331
-0 0 0
-6.3824387 5.9141836 0.48602289
-2.0030003 1.8515544 -0.89940232
-2.3121538 2.1373329 -0.86871421
-2.6982293 2.4942176 -0.81399953
-3.2317817 2.9874284 -0.73371601
-4.0173984 3.7136447 -0.60979193
-5.8535161 5.4109344 -0.4452472
-0 0 0
-6.2331271 5.7618432 0.47412229
-2.021594 1.8642174 -0.90673935
-2.3073573 2.1277347 -0.86594558
-2.6919034 2.4823446 -0.81118566
-3.2316113 2.9800375 -0.73285925
-4.0218825 3.7087879 -0.60979193
-5.863874 5.4073839 -0.44553775
-0 0 0
-6.2267113 5.7419753 0.47310618
-2.0111103 1.8500584 -0.90103382
-2.3154676 2.1300423 -0.86802274
-2.7023737 2.4859645 -0.81343502
-3.2389917 2.9796097 -0.73371601
-4.0244594 3.7021761 -0.60950387
-5.8684926 5.3985372 -0.44539276
-0 0 0
-6.2240844 5.7256527 0.47238061
-2.0133443 1.847627 -0.90103382
-2.3143392 2.1238472 -0.86663705
-2.7035053 2.4809811 -0.81287265
-3.2482655 2.9809024 -0.73500031
-4.0289297 3.6973104 -0.60950387
-5.8826694 5.3984699 -0.44597331
-6.1818719 5.6730452 0
-5.702631 5.2332506 0.43232435
-2.0101044 1.8401846 -0.89858812
-2.3150551 2.1193569 -0.86594558
-2.7027562 2.4742844 -0.81174797
-3.2405007 2.9665718 -0.73243165
-4.0353003 3.6941845 -0.60979193
-5.9141021 5.414166 -0.44785997
-5.6570268 5.178822 0
-5.6859508 5.2053008 0.43058267
-2.0159802 1.841091 -0.90021962
-2.3250244 2.1233251 -0.86871421
-2.7113674 2.4761524 -0.81343502
-3.2440829 2.9626541 -0.73243165
-4.0435843 3.6927977 -0.61036903
-5.897615 5.3859887 -0.44611832
-5.6286931 5.1403961 0
-5.640429 5.151114 0.42666376
-2.045604 1.8636168 -0.91244179
-2.3183172 2.1120682 -0.8652541
-2.7124808 2.4711647 -0.81287265
-3.2571466 2.9673746 -0.7345711
-4.0499535 3.6896493 -0.61065704
-5.9060378 5.3806071 -0.44626331
-12.394893 11.292181 0
-0 0 0
-2.0149345 1.8312253 -0.89777398
-2.3282938 2.1160145 -0.86802274
-2.7117076 2.4644709 -0.81174797
-3.2569339 2.9599869 -0.73371601
-4.0505843 3.6812773 -0.61008102
-5.9221478 5.3822031 -0.44698888
-12.375789 11.247441 0
-12.432833 11.299285 0.93839908
-2.0226407 1.8337712 -0.90021962
-2.3271282 2.1098263 -0.86663705
-2.722213 2.4680192 -0.81399953
-3.2510009 2.9474299 -0.73157656
-4.0607724 3.681587 -0.61094511
-5.936347 5.3820248 -0.44756943
-12.373945 11.218495 0
-12.436853 11.275529 0.93767351
-2.052346 1.8561895 -0.91244179
-2.3334007 2.1103818 -0.86802274
-2.7214208 2.4613161 -0.81287265
-3.2621756 2.9503872 -0.73328841
-4.0556283 3.6680045 -0.60950387
-5.9467039 5.3783374 -0.44785997
-12.399069 11.214006 0
-12.446618 11.25701 0.93738353
-2.0417471 1.8421233 -0.90673935
-2.3210475 2.0941162 -0.86248541
-2.722508 2.4563255 -0.81231034
-3.2638266 2.9447188 -0.73285925
-4.0658207 3.6683011 -0.61036903
-5.9512634 5.3694019 -0.44771442
-12.414548 11.200765 0
-12.452494 11.235001 0.93680292
-2.042129 1.8379967 -0.90592206
-2.3328979 2.0997002 -0.86594558
-2.7292476 2.4564304 -0.81343502
-3.2654762 2.9390574 -0.73243165
-4.0664015 3.6599216 -0.60979193
-5.9654722 5.3691607 -0.448295
-12.431938 11.189235 0
-12.469919 11.223419 0.93709296
-2.0461929 1.8371838 -0.90673935
-2.3391631 2.1002288 -0.86732858
-2.728436 2.4497392 -0.81231034
-3.2690251 2.9351096 -0.73243165
-4.0727506 3.6567385 -0.61008102
-5.9835601 5.3723679 -0.44916609
-12.431891 11.162032 0
-12.450603 11.178833 0.93462569
-2.0299969 1.8182168 -0.89858812
-2.3622575 2.1158142 -0.87494302
-2.7370739 2.4515278 -0.81399953
-3.2706587 2.9294465 -0.73200411
-4.0733094 3.64836 -0.60950387
-5.991981 5.3668656 -0.44931111
-12.435678 11.138323 0
-12.487329 11.184585 0.93636739
-2.0414059 1.823995 -0.90266216
-2.3517148 2.1012559 -0.87009722
-2.7305622 2.4397557 -0.81118566
-3.2837656 2.9340427 -0.73414356
-4.0719266 3.6382639 -0.60863876
-6.0100837 5.3700061 -0.45018166
-12.453013 11.12676 0
-12.500834 11.169488 0.93636739
-2.0214746 1.8017986 -0.89288574
-2.3505101 2.0950775 -0.86871421
-2.7391932 2.4415216 -0.81287265
-3.285394 2.9283662 -0.73371601
-4.0859795 3.6419511 -0.61008102
-6.0262723 5.3713899 -0.45090777
-12.456729 11.103042 0
-12.502687 11.144005 0.93549681
-2.0421171 1.8157748 -0.90103382
-2.354913 2.0939012 -0.86940575
-2.7459426 2.4415901 -0.81399953
-3.2812562 2.9175713 -0.73200411
-4.0845766 3.6318538 -0.60921586
-6.038578 5.3692794 -0.45134276
-12.485695 11.101816 0
-12.52973 11.140971 0.93651241
-2.0683453 1.8346257 -0.91162759
-2.3349192 2.0710771 -0.86109978
-2.7450852 2.434895 -0.81287265
-3.280942 2.9102008 -0.73114902
-4.0889616 3.6269157 -0.60921586
-6.0275679 5.3464622 -0.45003664
-12.489367 11.078089 0
-12.535407 11.118926 0.9359318
-2.0546532 1.820264 -0.90510786
-2.3680916 2.0979462 -0.87286586
-2.7503633 2.4366093 -0.81399953
-3.2923052 2.9167278 -0.73328841
-4.096962 3.6295917 -0.61008102
-6.0113511 5.325592 -0.44858554
-12.50385 11.077444 0
-12.586858 11.150984 0.9392702
-2.0716672 1.8308738 -0.91162759
-2.349952 2.076813 -0.8652541
-2.7456896 2.4265537 -0.81174797
-3.2900546 2.9076462 -0.73200411
-4.0955286 3.6194987 -0.60921586
-5.9846835 5.2890739 -0.44611832
-12.519174 11.06405 0
-12.59448 11.130603 0.93883461
-2.0405099 1.7989514 -0.89695978
-2.3675144 2.0872447 -0.87079138
-2.7448041 2.4198704 -0.81062114
-3.3031917 2.9121552 -0.73414356
-4.1057215 3.6196804 -0.61008102
-5.9676805 5.2612181 -0.44437665
-12.509108 11.028261 0
-12.57284 11.084449 0.93622237
-2.0797939 1.8291235 -0.91325593
-2.3643813 2.0794106 -0.86871421
-2.755358 2.4232643 -0.81287265
-3.3144186 2.914943 -0.7358554
-4.1081443 3.6130037 -0.60979193
-5.9486694 5.2316966 -0.44248995
-12.538057 11.026888 0
-12.582317 11.065814 0.9359318
-2.0448513 1.794015 -0.89695978
-2.3612328 2.0715868 -0.86663705
-2.7487359 2.411556 -0.81005877
-3.3044286 2.8990836 -0.73285925
-4.1066799 3.6029248 -0.60892785
-5.9510765 5.2210746 -0.44219941
-12.545509 11.006586 0
-12.578101 11.035181 0.93462569
-2.0618966 1.8045652 -0.90347952
-2.3712857 2.0753412 -0.86940575
-2.7535579 2.409905 -0.81062114
-3.3137262 2.9001622 -0.73414356
-4.1149192 3.6013637 -0.60950387
-5.9456525 5.2036152 -0.44132885
-12.539211 10.974277 0
-12.59338 11.021685 0.9347707
-2.0435934 1.7841901 -0.89451408
-2.381351 2.0790744 -0.87217438
-2.7564678 2.4065759 -0.81062114
-3.3094931 2.8894029 -0.73243165
-4.1212144 3.5980885 -0.60979193
-5.9578094 5.2015557 -0.44176441
-12.577947 10.981366 0
-12.585162 10.987666 0.93317461
-2.0923414 1.8222997 -0.91488743
-2.3630564 2.0580759 -0.86456257
-2.7708738 2.4132595 -0.81399953
-3.3071799 2.8803489 -0.73114902
-4.1197128 3.5880148 -0.60892785
-5.9660478 5.1960583 -0.4419094
-12.551963 10.931982 0
-12.59843 10.972451 0.93317461
-2.0534983 1.7841109 -0.89695978
-2.3655415 2.0552189 -0.86456257
-2.769948 2.4065735 -0.81287265
-3.3242173 2.8881311 -0.73414356
-4.1279469 3.5864239 -0.60950387
-5.972322 5.1888456 -0.4419094
-12.614276 10.959477 0
-12.619524 10.964038 0.93375516
-2.0556524 1.7816284 -0.89695978
-2.3812885 2.0638561 -0.86940575
-2.7651734 2.3965683 -0.81062114
-3.3199451 2.8773873 -0.73243165
-4.1303244 3.579741 -0.60921586
-5.9864416 5.1884327 -0.44248995
-12.570478 10.894799 0
-12.620977 10.938567 0.93288404
-2.0615394 1.7823732 -0.89858812
-2.3742933 2.0527749 -0.86594558
-2.7661469 2.3915651 -0.81005877
-3.3253593 2.875051 -0.73285925
-4.1405187 3.5798242 -0.61008102
-5.9946704 5.1828933 -0.44263497
-12.567883 10.865986 0
-12.614532 10.906318 0.9314329
-2.0861514 1.7992518 -0.90836769
-2.3805678 2.0531783 -0.86732858
-2.7825053 2.3998392 -0.81399953
-3.3404982 2.8810937 -0.73542786
-4.1428766 3.5731244 -0.60979193
-5.9950237 5.1705532 -0.44219941
-12.565238 10.837193 0
-12.617866 10.882584 0.9307074
-2.0883238 1.7967298 -0.90836769
-2.3925612 2.0584862 -0.87079138
-2.7719183 2.3848734 -0.81005877
-3.334249 2.8686857 -0.73328841
-4.1432738 3.5647454 -0.60921586
-6.0052099 5.1666985 -0.44248995
-12.556621 10.80333 0
-12.605401 10.8453 0.92882067
-2.0661132 1.7732804 -0.89777398
-2.3760056 2.0392516 -0.86386842
-2.7825103 2.3881416 -0.81231034
-3.329921 2.8579671 -0.73157656
-4.1475778 3.5597365 -0.60921586
-6.0114484 5.1594386 -0.44248995
-12.583491 10.800017 0
-12.596805 10.811443 0.92722404
-2.0985785 1.7923553 -0.90999609
-2.3885577 2.0400209 -0.86663705
-2.7940717 2.3863626 -0.81399953
-3.336818 2.8499117 -0.73157656
-4.158133 3.5513811 -0.60950387
-6.029829 5.1499605 -0.44292551
-6.7996416 5.8074422 0
-12.607087 10.76747 0.92606288
-2.1045089 1.7930272 -0.91162759
-2.3833823 2.0306253 -0.86386842
-2.796953 2.3829849 -0.81399953
-3.3480752 2.8525369 -0.73328841
-4.1624212 3.5463543 -0.60950387
-6.0340638 5.1409807 -0.44277996
-6.7412825 5.7435265 0
-6.8567467 5.8419013 0.5031485
-2.1160886 1.7984846 -0.91570163
-2.3781877 2.0212452 -0.86109978
-2.7998304 2.3796034 -0.81399953
-3.3397794 2.8385115 -0.7307198
-4.160789 3.5362957 -0.60863876
-6.0462127 5.1387358 -0.44321552
-0 0 0
-6.8697424 5.8386617 0.50358409
-2.101295 1.7815427 -0.90836769
-2.4227304 2.0540657 -0.87632865
-2.793015 2.3680043 -0.81118566
-3.3451705 2.8361387 -0.73114902
-4.1690083 3.5346141 -0.60921586
-6.0623255 5.1398268 -0.44394109
-0 0 0
-0 0 0
-2.1053314 1.780597 -0.90918189
-2.3945622 2.0252156 -0.8652541
-2.7939286 2.3629823 -0.81062114
-3.3564277 2.8387194 -0.73285925
-4.1713033 3.5279052 -0.60892785
-6.0665493 5.1308217 -0.44379607
-0 0 0
-0 0 0
-2.0923686 1.7653013 -0.90266216
-2.4008389 2.0255532 -0.86663705
-2.7987294 2.3612478 -0.81118566
-3.3559349 2.8313541 -0.73200411
-4.1755629 3.5228624 -0.60892785
-6.0826731 5.1318641 -0.44452164
-0 0 0
-0 0 0
-2.0850468 1.7548158 -0.89858812
-2.3994493 2.019423 -0.8652541
-2.8171253 2.3709471 -0.81568658
-3.3652475 2.8322575 -0.73328841
-4.1778321 3.5161443 -0.60863876
-6.082911 5.1194959 -0.44408664
-0 0 0
-0 0 0
-2.1239462 1.7853632 -0.91488743
-2.4179509 2.0325 -0.87148285
-2.801054 2.3545318 -0.81062114
-3.3708844 2.8335245 -0.73414356
-4.1779776 3.5119569 -0.60835069
-6.0979333 5.1258483 -0.4449572
-6.9227319 5.8191638 0
-6.9133182 5.8112512 0.50445461
-2.0863318 1.7494473 -0.89777398
-2.4127154 2.023129 -0.86871421
-2.8136299 2.3593071 -0.81343502
-3.3723404 2.8278015 -0.73371601
-4.1841979 3.5085664 -0.60863876
-6.1061115 5.1201444 -0.44510219
-6.9138045 5.7974172 0
-6.9223242 5.8045611 0.50459963
-2.1130879 1.7675389 -0.90836769
-2.4016862 2.0089433 -0.86386842
-2.8242745 2.3624265 -0.81568658
-3.3796892 2.8270154 -0.7345711
-4.1844702 3.5001922 -0.60806268
-6.1122937 5.1127629 -0.44510219
-6.9547381 5.8174438 0
-6.9353137 5.8011961 0.50503516
-2.1095271 1.7602323 -0.90592206
-2.4464934 2.0414038 -0.87909728
-2.8056724 2.34111 -0.80949646
-3.3752186 2.8163509 -0.73285925
-4.1827369 3.4901607 -0.60719752
-6.1224613 5.1087065 -0.44539276
-6.9917297 5.8340416 0
-6.952292 5.8011341 0.50576073
-2.1154554 1.7608476 -0.90755355
-2.4161732 2.0111568 -0.86732858
-2.8377869 2.3620965 -0.81793809
-3.3845401 2.8171992 -0.73414356
-4.1988821 3.4950354 -0.60892785
-6.1406088 5.1112757 -0.44626331
-7.0067749 5.8322492 0
-6.9772687 5.8076887 0.50706685
-2.0985625 1.742498 -0.89940232
-2.4089527 2.0002241 -0.86386842
-2.8152277 2.3375664 -0.81062114
-3.3938684 2.8180287 -0.73542786
-4.1991186 3.4866517 -0.60835069
-6.1407809 5.0988708 -0.44582775
-7.0158253 5.8254457 0
-7.0102677 5.8208318 0.50895351
-2.1520615 1.7825311 -0.92140716
-2.4152358 2.0005157 -0.8652541
-2.8239224 2.3390269 -0.81231034
-3.387388 2.8057399 -0.73328841
-4.2033286 3.4815753 -0.60835069
-6.1429386 5.0881352 -0.44553775
-7.048912 5.8385439 0
-7.0333052 5.8256168 0.51011467
-2.1218245 1.7531677 -0.90755355
-2.415719 1.9959995 -0.86456257
-2.8267467 2.335613 -0.81231034
-3.3868141 2.7983716 -0.73243165
-4.2095242 3.4781399 -0.60863876
-6.1590962 5.0889831 -0.44626331
-8.3378963 6.8892269 0
-7.0503607 5.8253946 0.51084077
-2.1258466 1.7521731 -0.90836769
-2.4549062 2.0233917 -0.87771165
-2.8315256 2.3338103 -0.81287265
-3.3921719 2.7959082 -0.73285925
-4.2137237 3.4730508 -0.60863876
-6.1732612 5.0881481 -0.44684386
-8.3281422 6.8642516 0
-8.1761961 6.7390141 0.59182382
-2.0878718 1.7166409 -0.89125425
-2.4224715 1.9917476 -0.8652541
-2.8304219 2.327163 -0.81174797
-3.3955476 2.7918074 -0.73285925
-4.2199211 3.4696043 -0.60892785
-6.1773996 5.0790362 -0.44669887
-8.3243647 6.8442636 0
-8.2044086 6.745636 0.59327549
-2.1358097 1.7517344 -0.91081339
-2.4403946 2.0015466 -0.87079138
-2.8351943 2.325351 -0.81231034
-3.3929698 2.7828236 -0.73157656
-4.2221045 3.4628577 -0.60863876
-6.2036195 5.0880437 -0.44814998
-8.3386669 6.8391528 0
-8.2607718 6.7752657 0.59675884
-2.1723542 1.7773209 -0.9254812
-2.4583449 2.0113053 -0.87632865
-2.8321004 2.317095 -0.81062114
-3.4022846 2.7835937 -0.73285925
-4.2242856 3.4561174 -0.60835069
-6.2057443 5.0772562 -0.44785997
-8.3590069 6.8389568 0
-8.3051491 6.7948933 0.59937108
-2.1036532 1.7168736 -0.89532828
-2.4238427 1.9781929 -0.86317694
-2.8486795 2.324919 -0.81456184
-3.3996849 2.774616 -0.73157656
-4.2264566 3.4493768 -0.60806268
-6.2199273 5.0763264 -0.44844055
-10.901553 8.8971844 0
-8.3334799 6.8012795 0.60082221
-2.1536422 1.7533405 -0.91570163
-2.435957 1.9831808 -0.86663705
-2.8573999 2.3262894 -0.81625104
-3.401046 2.7688868 -0.73114902
-4.2266059 3.4409983 -0.60748559
-6.2220225 5.0655227 -0.44814998
-10.910272 8.8823576 0
-10.878556 8.8565378 0.78354347
-2.0905304 1.6977632 -0.88799435
-2.4441957 1.9849823 -0.86871421
-2.8444297 2.3100204 -0.81174797
-3.4063802 2.766392 -0.73157656
-4.2367859 3.4407821 -0.60835069
-6.236207 5.0645533 -0.44873053
-10.914941 8.8642502 0
-10.89328 8.8466597 0.78383344
-2.1444278 1.7372386 -0.90999609
-2.4387951 1.9757106 -0.86594558
-2.8472188 2.306582 -0.81174797
-3.4097202 2.762274 -0.73157656
-4.2369246 3.4324071 -0.60777467
-6.244339 5.0586486 -0.44887555
-10.921596 8.8477764 0
-10.899928 8.8302221 0.78354347
-2.1407638 1.7299902 -0.90755355
-2.4919097 2.0137575 -0.88394046
-2.8677883 2.3175118 -0.81681341
-3.41505 2.759764 -0.73200411
-4.2470984 3.4321575 -0.60863876
-6.2504468 5.0510998 -0.44887555
-10.926211 8.82967 0
-10.902505 8.8105125 0.78296292
-2.1794076 1.75687 -0.9230355
-2.437701 1.9650862 -0.86386842
-2.8567371 2.3028808 -0.81287265
-3.4203789 2.7572451 -0.73243165
-4.2472191 3.4237797 -0.60806268
-5.2066727 4.1972175 -0.37355247
-10.930792 8.8115606 0
-10.907072 8.7924385 0.78252733
-2.0987115 1.6876395 -0.88799435
-2.4478939 1.9684278 -0.86663705
-2.8595176 2.2994273 -0.81287265
-3.423708 2.7531104 -0.73243165
-4.2493391 3.417026 -0.60777467
-5.2380629 4.2120895 -0.37543914
-10.941431 8.7983456 0
-10.921742 8.7825136 0.7828179
-2.1238852 1.7036605 -0.89777398
-2.4776719 1.9874485 -0.87632865
-2.8722022 2.3039184 -0.81568658
-3.4290326 2.750576 -0.73285925
-4.2494259 3.4086492 -0.60719752
-5.2370658 4.2008781 -0.37500361
-10.954082 8.786746 0
-10.930321 8.7676859 0.78267288
-2.1626036 1.7304281 -0.91325593
-2.4389372 1.9515392 -0.86179394
-2.8809378 2.3052101 -0.81737578
-3.4303513 2.7448285 -0.73243165
-4.2616196 3.409976 -0.60835069
-5.2319956 4.1864314 -0.37427804
-10.97282 8.7800074 0
-10.949015 8.7609596 0.78325289
-2.1539967 1.7214077 -0.90918189
-2.4557869 1.962589 -0.86732858
-2.8704243 2.2939546 -0.81399953
-3.4280019 2.7395535 -0.73157656
-4.2515597 3.3977153 -0.6066215
-5.2264042 4.1767812 -0.37369749
-10.96999 8.7668772 0
-10.974608 8.7705679 0.78470457
-2.1077607 1.680288 -0.88880855
-2.4522769 1.9549333 -0.8652541
-2.8572993 2.2778134 -0.80949646
-3.4433496 2.7450075 -0.73414356
-4.2677932 3.4022462 -0.60835069
-5.22332 4.1639838 -0.37311691
-10.974468 8.7487478 0
-10.968944 8.7443428 0.78354347
-2.1291382 1.6931264 -0.89695978
-2.4703462 1.9644606 -0.87079138
-2.8640232 2.2775192 -0.81062114
-3.4406343 2.7360499 -0.73285925
-4.2739234 3.3986955 -0.60863876
-0 0 -0
-10.976884 8.729002 0
-10.938826 8.6987371 0.78064066
-2.1563535 1.7105192 -0.90755355
-2.4845071 1.9708258 -0.87494302
-2.8826983 2.2866895 -0.81512421
-3.4419286 2.7302969 -0.73243165
-4.2638483 3.3822815 -0.6066215
-5.2048712 4.1287446 -0.37108526
-10.983349 8.7125006 0
-10.947294 8.6838999 0.7804957
-2.1274071 1.6833737 -0.89451408
-2.4495125 1.938249 -0.86179394
-2.8894482 2.286361 -0.81625104
-3.4291203 2.7133927 -0.72900796
-4.269958 3.3787303 -0.60690951
-5.2017055 4.1160026 -0.37050468
-10.989791 8.6959963 0
-10.953708 8.6674442 0.78020567
-2.1488366 1.6961123 -0.90266216
-2.4616969 1.943058 -0.8652541
-2.8862233 2.2781436 -0.81456184
-3.4364305 2.7124312 -0.72986472
-4.2780943 3.3767705 -0.60748559
-5.2066751 4.1097145 -0.37050468
-10.996201 8.6794825 0
-10.96009 8.65098 0.77991509
-2.1256413 1.6736392 -0.89206839
-2.4522126 1.9307673 -0.86109978
-2.878994 2.2667968 -0.81174797
-3.4538178 2.7193887 -0.73285925
-4.2842093 3.3732035 -0.60777467
-5.1993837 4.0937724 -0.36963359
-11.000544 8.6613579 0
-10.974622 8.6409483 0.78020567
-2.1704211 1.7046527 -0.90999609
-2.4841404 1.9510483 -0.87148285
-2.8937166 2.2727301 -0.81512421
-3.4389336 2.7009447 -0.72900796
-4.2821779 3.36323 -0.60690951
-5.1879783 4.0746469 -0.36847246
-11.006911 8.6448479 0
-10.991179 8.6324911 0.78064066
-2.1413572 1.6776462 -0.89695978
-2.4687243 1.9341218 -0.8652541
-2.898459 2.2707975 -0.81568658
-3.4462402 2.6999567 -0.72986472
-4.2882724 3.359647 -0.60719752
-5.1867671 4.0635724 -0.36803746
-11.017349 8.6315422 0
-11.001601 8.6192045 0.78064066
-2.1531179 1.6826657 -0.90103382
-2.4809411 1.9388601 -0.86871421
-2.887192 2.256346 -0.81174797
-3.4636528 2.706851 -0.73285925
-4.2943649 3.3560541 -0.60748559
-5.18962 4.0556979 -0.36789191
-11.021617 8.6134138 0
-11.012009 8.6059046 0.78064066
-2.190233 1.7074124 -0.91570163
-2.5169163 1.9620807 -0.88048029
-2.9059477 2.2653532 -0.81625104
-3.4608531 2.6979337 -0.73157656
-4.2923031 3.3460968 -0.6066215
-5.1822248 4.0398421 -0.36702135
-11.032017 8.60009 0
-11.016256 8.5878048 0.78020567
-2.1825407 1.69718 -0.91162759
-2.4875979 1.9343976 -0.86940575
-2.8886209 2.2462397 -0.81062114
-3.466135 2.6953242 -0.73200411
-4.2983828 3.342494 -0.60690951
-5.1829963 4.0303841 -0.36673078
-11.036235 8.5819597 0
-11.022519 8.5712938 0.77991509
-2.1220953 1.646066 -0.88554871
-2.51967 1.9544564 -0.87978882
-2.9073944 2.2552063 -0.81512421
-3.4734421 2.694278 -0.73285925
-4.30446 3.3388817 -0.60719752
-5.1837597 4.0209365 -0.36644077
-11.034262 8.5590506 0
-11.028765 8.5547876 0.77962512
-2.1416814 1.6571175 -0.89288574
-2.4982197 1.9329876 -0.87148285
-2.9020791 2.245472 -0.81287265
-3.4746668 2.6885095 -0.73243165
-4.3044043 3.3305156 -0.6066215
-5.1865616 4.0130811 -0.36629578
-11.052829 8.5520821 0
-11.037033 8.5398598 0.77947956
-2.1612897 1.6681182 -0.90021962
-2.5303383 1.9529558 -0.8818633
-2.9088168 2.2450716 -0.81399953
-3.4901097 2.693723 -0.73500031
-4.3043261 3.3221483 -0.60604441
-5.1955166 4.0099835 -0.36658579
-11.059038 8.5355434 0
-11.037061 8.5185814 0.778754
-2.1907182 1.6866115 -0.91162759
-2.5366757 1.9529607 -0.88324893
-2.9175618 2.246201 -0.81568658
-3.4750574 2.6754112 -0.73114902
-4.3144875 3.3216801 -0.60690951
-5.2106509 4.0116272 -0.36731133
-11.056967 8.5126457 0
-11.043232 8.5020714 0.77846402
-2.2005954 1.6899849 -0.91488743
-2.5091858 1.9269722 -0.87286586
-2.9162471 2.2395818 -0.81456184
-3.4782875 2.6712103 -0.73114902
-4.3164487 3.3148906 -0.6066215
-5.1990156 3.9926729 -0.3661508
-11.073439 8.5040369 0
-11.047312 8.4839725 0.77802843
-2.210484 1.6933368 -0.91814733
-2.5055435 1.9193664 -0.87079138
-2.9108827 2.2298758 -0.81231034
-3.4876204 2.6716843 -0.73243165
-4.3163404 3.3065238 -0.60604441
-5.1811438 3.9690044 -0.36455411
-11.075442 8.4843197 0
-11.051365 8.4658756 0.7775929
-2.2046731 1.684662 -0.91488743
-2.5357647 1.9376599 -0.88048029
-2.9297266 2.2386987 -0.81681341
-3.4847326 2.662797 -0.73114902
-4.3264999 3.3060186 -0.60690951
-5.1652927 3.9469674 -0.363103
-11.081546 8.4677677 0
-11.06572 8.4556742 0.77788347
-2.1575665 1.6445409 -0.89451408
-2.4981992 1.904178 -0.86663705
-2.9243462 2.228996 -0.81456184
-3.4899871 2.6601391 -0.73157656
-4.3284364 3.299222 -0.6066215
-5.172123 3.942297 -0.36324799
-11.091769 8.4543715 0
-11.077993 8.4438705 0.77802843
-2.1978917 1.6731793 -0.91081339
-2.5372782 1.9315425 -0.87978882
-2.9277122 2.2287664 -0.81512421
-3.4936342 2.6595836 -0.73200411
-4.3283648 3.2950354 -0.60633242
-5.1579633 3.92658 -0.36208689
-11.094807 8.4460936 0
-11.076888 8.4324532 0.7775929
-2.1684172 1.6466067 -0.89777398
-2.5316181 1.9224066 -0.87702018
-2.9263597 2.222157 -0.81399953
-3.5029807 2.6600192 -0.73328841
-4.3344092 3.2913716 -0.6066215
-5.152359 3.9124892 -0.36136132
-11.092572 8.4232416 0
-11.074656 8.4096375 0.77672231
-2.1723735 1.6454762 -0.89858812
-2.5219364 1.9102545 -0.87286586
-2.9452462 2.2308929 -0.8185026
-3.4918661 2.644933 -0.73029226
-4.3466301 3.2923787 -0.60777467
-5.1612215 3.9093955 -0.36165133
-11.106887 8.4129725 0
-5.8487735 4.4301858 0.40982869
-2.1842184 1.6502986 -0.90266216
-2.4982231 1.8875465 -0.86386842
-2.9317212 2.2150786 -0.81399953
-3.5012059 2.6453559 -0.73157656
-4.340281 3.2793236 -0.60633242
-0 0 -0
-11.114969 8.3979778 0
-5.8686371 4.4340816 0.41084483
-2.2039733 1.661045 -0.90999609
-2.5165298 1.8966061 -0.86940575
-2.9303334 2.208473 -0.81287265
-3.4982476 2.6364868 -0.73029226
-4.3504386 3.2787485 -0.60719752
-5.1540532 3.8843999 -0.3604902
-11.116796 8.3782759 0
-5.8470078 4.406652 0.4089576
-2.1961026 1.6509562 -0.90592206
-2.5188196 1.893564 -0.86940575
-2.9390948 2.2095127 -0.81456184
-3.5137382 2.6415102 -0.73285925
-4.3523316 3.2719369 -0.60690951
-5.1649756 3.8828552 -0.36092576
-11.116511 8.3570194 0
-5.8751774 4.4167609 0.41055426
-2.1862352 1.6394074 -0.90103382
-2.5251238 1.8935322 -0.87079138
-2.9437933 2.2074826 -0.81512421
-3.5025568 2.6264865 -0.72986472
-4.3604169 3.2697759 -0.60748559
-5.1696639 3.8766115 -0.36092576
-11.120353 8.3388958 0
-5.8805099 4.4096584 0.41055426
-2.221859 1.6619302 -0.91488743
-2.5153525 1.8814608 -0.86663705
-2.9383197 2.1978364 -0.81287265
-3.5139506 2.6284029 -0.73157656
-4.3498721 3.2536647 -0.60546833
-5.1826673 3.8765879 -0.36150631
-5.7810502 4.324173 0
-5.8962355 4.4103303 0.41127983
-2.2080176 1.6474202 -0.90836769
-2.5216494 1.8814235 -0.86802274
-2.9511538 2.2018802 -0.81568658
-3.5150683 2.6226215 -0.73114902
-4.3620925 3.2545934 -0.6066215
-5.2040086 3.8827536 -0.36266744
-5.7612405 4.2985091 0
-5.8994794 4.4016504 0.41113481
-2.1981137 1.6359 -0.90347952
-2.5359926 1.8873591 -0.87217438
-2.9497395 2.1952817 -0.81456184
-3.5182347 2.6183722 -0.73114902
-4.3639412 3.2477715 -0.60633242
-5.2253723 3.8888738 -0.36382854
-5.7789607 4.3008699 0
-5.9006286 4.3914189 0.41084483
-2.2080271 1.6391357 -0.90673935
-2.5503614 1.8932687 -0.87632865
-2.9625888 2.1992872 -0.81737578
-3.5234551 2.615648 -0.73157656
-4.3720198 3.2455826 -0.60690951
-5.2238064 3.8779089 -0.36339298
-5.8175793 4.3186984 0
-5.9038382 4.3827329 0.41069925
-2.2020607 1.6305833 -0.90347952
-2.5586898 1.8946602 -0.87840313
-2.9468679 2.1820986 -0.81231034
-3.5307353 2.6144409 -0.73243165
-4.3697004 3.2356784 -0.60604441
-5.2305746 3.8731391 -0.363538
-5.820704 4.3101187 0
-5.9091296 4.375596 0.41069925
-2.1662536 1.6000197 -0.88799435
-2.5448334 1.8796431 -0.87286586
-2.9597197 2.1860828 -0.81512421
-3.5235691 2.6025486 -0.73029226
-4.3777719 3.2334723 -0.6066215
-5.2352505 3.866816 -0.363538
-5.817534 4.2968974 0
-5.9060516 4.3622775 0.4101187
-2.233849 1.6457785 -0.91488743
-2.555182 1.8825191 -0.87563449
-2.962359 2.1825049 -0.81512421
-3.5287759 2.5998104 -0.7307198
-4.3775067 3.2251091 -0.60604441
-5.2461972 3.8651128 -0.36397356
-5.822722 4.289865 0
-5.9217844 4.3628488 0.41084483
-2.1960032 1.6138058 -0.89858812
-2.565541 1.8853729 -0.87840313
-2.9690928 2.1819363 -0.81625104
-3.5236406 2.5894639 -0.72900796
-4.3834829 3.2213476 -0.60633242
-5.2487717 3.8572338 -0.36382854
-5.8279009 4.2828259 0
-5.9207683 4.3510728 0.41040927
-2.2298262 1.6303777 -0.91081339
-2.5741439 1.8821317 -0.87978882
-2.9723001 2.1732507 -0.81568658
-3.5443957 2.5915487 -0.73200411
-4.3849969 3.2061696 -0.60546833
-5.2727547 3.8552694 -0.36484411
-5.8382339 4.2687297 0
-5.9459505 4.3474889 0.41142538
-2.187866 1.5956442 -0.89288574
-2.5297942 1.8450178 -0.86386842
-2.9708219 2.166666 -0.81456184
-3.5433803 2.5842416 -0.73114902
-4.3951311 3.2054367 -0.60633242
-5.2732143 3.8458364 -0.36455411
-5.8370776 4.2570705 0
-5.9448991 4.3357062 0.41098982
-2.225765 1.6191684 -0.90755355
-2.5360832 1.8449143 -0.8652541
-2.9898756 2.1750329 -0.81906497
-3.5361147 2.5724032 -0.72900796
-4.3927321 3.1955633 -0.60546833
-5.288362 3.8471034 -0.36527967
-5.8085527 4.2255244 0
-11.224035 8.1651039 0.77527064
-2.205713 1.6005092 -0.89858812
-2.5565834 1.8551077 -0.87148285
-2.9822206 2.1639585 -0.81625104
-3.5537665 2.5786836 -0.73200411
-4.4028645 3.1948059 -0.60633242
-5.2951074 3.8422353 -0.36542466
-5.786273 4.1986346 0
-11.225489 8.1454372 0.77469069
-2.2126853 1.6035287 -0.90103382
-2.535356 1.8373675 -0.86386842
-2.9835274 2.1621566 -0.81625104
-3.5553238 2.5765362 -0.73200411
-4.4047937 3.1921453 -0.60633242
-5.30164 3.842088 -0.36571524
-5.7972379 4.2012467 0
-11.23251 8.1401777 0.77483565
-2.2406595 1.6196758 -0.91162759
-2.5721366 1.8592863 -0.87563449
-2.9840727 2.157057 -0.81568658
-3.5584342 2.5722382 -0.73200411
-4.4107499 3.1883404 -0.6066215
-5.3104863 3.8387208 -0.36600521
-5.8170681 4.2049069 0
-11.23181 8.118989 0.77411008
-2.2165539 1.5981768 -0.90103382
-2.5703154 1.8532454 -0.87425148
-2.9784329 2.1475058 -0.81343502
-3.5532107 2.5619314 -0.73029226
-4.4020071 3.1739295 -0.60489124
-5.3235517 3.8383801 -0.36658579
-5.8474765 4.2161398 0
-5.9789224 4.310915 0.41171539
-2.2144666 1.5926085 -0.89940232
-2.5582936 1.8398833 -0.86940575
-2.987216 2.1483574 -0.81512421
-3.5583858 2.5591335 -0.7307198
-4.4142385 3.1746488 -0.60604441
-5.3302932 3.8334606 -0.36673078
-5.8483448 4.2060351 0
-5.9735813 4.296103 0.41098982
-2.2023368 1.579851 -0.89369988
-2.5523608 1.8309416 -0.86663705
-2.9794886 2.1373425 -0.81231034
-3.5614755 2.554832 -0.7307198
-4.4180713 3.1693127 -0.60604441
-5.339148 3.8300493 -0.36702135
-5.8280468 4.1807618 0
-5.9787679 4.2888818 0.41098982
-2.2404213 1.6030743 -0.90836769
-2.5790546 1.8453745 -0.87494302
-2.9944634 2.1426094 -0.81568658
-3.5624743 2.5490344 -0.73029226
-4.4239988 3.1654756 -0.60633242
-5.3437719 3.823595 -0.36702135
-5.7759466 4.1328263 0
-5.9839458 4.2816548 0.41098982
-2.2403467 1.5989317 -0.90755355
-2.5731144 1.8364273 -0.87217438
-2.9929178 2.1360402 -0.81456184
-3.5634642 2.5432382 -0.72986472
-4.4257174 3.1586268 -0.60604441
-5.3610744 3.8261895 -0.36789191
-5.7703466 4.1182866 0
-6.001801 4.2834754 0.41186038
-2.2382462 1.5933539 -0.90592206
-2.5712478 1.8304098 -0.87079138
-3.0017085 2.1368444 -0.81625104
-3.5728104 2.5433981 -0.73114902
-4.4274254 3.1517782 -0.60575634
-5.3529963 3.8106701 -0.36702135
-5.7816811 4.1158404 0
-6.0048575 4.2747145 0.41171539
-2.2321088 1.5849245 -0.90266216
-2.5734577 1.8273016 -0.87079138
-2.9939234 2.1258564 -0.81343502
-3.5654094 2.5316441 -0.72900796
-4.4354444 3.1494184 -0.60633242
-5.3703051 3.8132226 -0.36789191
-5.7930179 4.1133728 0
-5.9930692 4.2554207 0.41055426
-2.2541959 1.5965141 -0.91081339
-2.5613306 1.8140395 -0.86594558
-2.9985695 2.1237099 -0.81399953
-3.5747526 2.5317864 -0.73029226
-4.4413633 3.1455557 -0.6066215
-6.6853108 4.7348118 -0.4575839
-5.7852368 4.0973425 0
-5.9939699 4.2451754 0.41026425
-2.2480485 1.5880849 -0.90755355
-2.5614736 1.8094971 -0.8652541
-3.0032067 2.1215498 -0.81456184
-3.5882905 2.5348697 -0.73243165
-4.4367108 3.1342175 -0.60546833
-6.7101259 4.740222 -0.45889002
-5.7901835 4.0903492 0
-6.0436611 4.2694125 0.41331205
-2.2196574 1.5640116 -0.89532828
-2.586211 1.822292 -0.87286586
-3.0057681 2.1179194 -0.81456184
-3.5808604 2.5231404 -0.73029226
-4.4489517 3.1348135 -0.6066215
-6.7179704 4.7336059 -0.45903504
-5.805757 4.0908432 0
-6.0296922 4.2486324 0.41200536
-2.2377229 1.5726979 -0.90184802
-2.59252 1.8220536 -0.87425148
-3.0020864 2.1099017 -0.81287265
-3.5818083 2.5173371 -0.72986472
-4.4548507 3.1309214 -0.60690951
-6.7279329 4.7284703 -0.45932502
-5.7872801 4.0673685 0
-6.0263262 4.235373 0.41142538
-2.2598562 1.5841776 -0.90999609
-2.5885549 1.8145981 -0.87217438
-3.0025549 2.1048155 -0.81231034
-3.5911555 2.5174294 -0.73114902
-4.4586306 3.1255362 -0.60690951
-6.7804556 4.7531548 -0.46251836
-5.8071017 4.0708256 0
-11.293022 7.916501 0.77033621
-2.2577214 1.578616 -0.90836769
-2.5804675 1.8042824 -0.86871421
-3.0092568 2.1040952 -0.81343502
-3.5878813 2.5086739 -0.72986472
-4.4539247 3.1142182 -0.60575634
-6.8202581 4.7687764 -0.46484005
-5.8120165 4.0638061 0
-11.336652 7.9266734 0.77265841
-2.2636778 1.5787119 -0.90999609
-2.5949883 1.8097711 -0.87286586
-3.0097148 2.0990055 -0.81287265
-3.59091 2.5043368 -0.72986472
-4.4576845 3.1088343 -0.60575634
-6.8430657 4.7724233 -0.46600115
-5.8233285 4.0612478 0
-6.0608191 4.2268763 0.4127315
-2.2574756 1.5703353 -0.90673935
-2.6012962 1.8095021 -0.87425148
-3.0185084 2.0997217 -0.81456184
-3.6023626 2.5058596 -0.73157656
-4.4656801 3.1063969 -0.60633242
-6.8552289 4.7686043 -0.46643671
-5.8218198 4.0497489 0
-6.0659223 4.2195501 0.4127315
-2.2553062 1.5647858 -0.90510786
-2.5931764 1.7992084 -0.87079138
-3.0210433 2.0960727 -0.81456184
-3.5990586 2.4971137 -0.73029226
-4.4736848 3.1039503 -0.60690951
-6.8481803 4.7514329 -0.46556616
-5.824573 4.0412292 0
-6.0710163 4.2122173 0.4127315
-2.2196872 1.5380868 -0.89044005
-2.6045716 1.8047844 -0.87425148
-3.0118687 2.0870128 -0.81174797
-3.6047907 2.4978657 -0.73114902
-4.4734354 3.0997753 -0.6066215
-6.8766713 4.7650485 -0.46730727
-5.8505459 4.0540156 0
-6.0821033 4.214469 0.41331205
-2.2479744 1.5536706 -0.90103382
-2.6170673 1.8087666 -0.87771165
-3.0290139 2.0934803 -0.81568658
-3.6035786 2.4905865 -0.73029226
-4.4707923 3.0899546 -0.60575634
-6.8674669 4.7463984 -0.46629173
-5.8383126 4.0351062 0
-6.0700903 4.1952977 0.41215092
-2.2457762 1.5481449 -0.89940232
-2.5820754 1.7799757 -0.8652541
-3.0357292 2.092706 -0.81681341
-3.6002426 2.481858 -0.72900796
-4.4723949 3.0830836 -0.60546833
-5.5853558 3.8503127 -0.37892196
-5.871037 4.0472498 0
-6.0323677 4.158464 0.40924814
-2.2822659 1.5692347 -0.91325593
-2.6048927 1.7910657 -0.87217438
-3.044539 2.0933564 -0.8185026
-3.6032388 2.4775059 -0.72900796
-4.4867716 3.0850031 -0.60690951
-5.6028547 3.852397 -0.37979305
-5.8673453 4.0342546 0
-6.0951929 4.1909175 0.41316649
-2.2576642 1.5483048 -0.90266216
-2.609122 1.7893344 -0.87286586
-3.0428712 2.0867994 -0.81737578
-3.6125829 2.4775074 -0.73029226
-4.4840946 3.0751896 -0.60604441
-5.5946441 3.8368037 -0.37892196
-5.8958268 4.0433545 0
-6.1002522 4.1835494 0.41316649
-2.2717774 1.5539509 -0.90755355
-2.5988619 1.7776848 -0.86871421
-3.0370016 2.0773828 -0.81512421
-3.6155739 2.4731405 -0.73029226
-4.4856744 3.0683103 -0.60575634
-5.6078548 3.8359091 -0.37950251
-5.8985538 4.0347543 0
-6.1010175 4.1732445 0.41287649
-2.2593596 1.5414528 -0.90184802
-2.605149 1.7773684 -0.87009722
-3.054204 2.0837371 -0.81906497
-3.6100774 2.4629829 -0.72858036
-4.4979248 3.0687187 -0.60690951
-5.6232162 3.8364511 -0.38022804
-5.9055805 4.0290947 0
-6.1232276 4.1775851 0.41403762
-2.2632618 1.5401108 -0.90266216
-2.6093748 1.7756348 -0.87079138
-3.048317 2.0743275 -0.81681341
-3.6194198 2.4629531 -0.72986472
-4.4952126 3.0589149 -0.60604441
-5.6321483 3.8325801 -0.38051862
-5.9190512 4.0278125 0
-6.1218238 4.1657963 0.41360205
-2.263078 1.5359883 -0.90184802
-2.6073627 1.76966 -0.86940575
-3.0529215 2.0720682 -0.81737578
-3.6223931 2.4585779 -0.72986472
-4.490345 3.0476711 -0.60489124
-5.6389227 3.8272297 -0.3806636
-5.9389811 4.0308843 0
-6.126853 4.1583962 0.41360205
-2.2894931 1.5498792 -0.91162759
-2.5949626 1.7566677 -0.86456257
-3.055423 2.0683777 -0.81737578
-3.6253612 2.4541991 -0.72986472
-4.5068793 3.0509455 -0.6066215
-5.6672149 3.8364379 -0.38226029
-5.9438472 4.023705 0
-0 0 0
-2.2688298 1.5318966 -0.90266216
-2.605392 1.759141 -0.86732858
-3.045289 2.0561562 -0.81399953
-3.6240649 2.4469411 -0.72900796
-4.5105624 3.0454977 -0.6066215
-5.7127571 3.8572102 -0.38501751
-5.9422317 4.0121498 0
-0 0 0
-2.2809353 1.536061 -0.90673935
-2.6304076 1.7714077 -0.87494302
-3.0562015 2.0581522 -0.81625104
-3.6312814 2.445431 -0.72986472
-4.5078011 3.0357096 -0.60575634
-5.8100848 3.9127126 -0.39125809
-5.9643445 4.0165968 0
-6.2927523 4.2377577 0.42376155
-2.2868893 1.5360574 -0.90836769
-2.6179659 1.758435 -0.87009722
-3.058686 2.0544577 -0.81625104
-3.6278386 2.4367461 -0.72858036
-4.5136108 3.0317013 -0.60604441
-5.8234363 3.9114847 -0.39183867
-5.9713602 4.0108423 0
-6.4380655 4.3243189 0.43319491
-2.3051708 1.5442981 -0.91488743
-2.622179 1.7566707 -0.87079138
-3.0696101 2.0564172 -0.8185026
-3.632911 2.4337881 -0.72900796
-4.5215726 3.0291271 -0.6066215
-5.8065743 3.8899858 -0.39038754
-5.965385 3.9963775 0
-6.4303374 4.3078618 0.43232435
-2.2721009 1.5181694 -0.90103382
-2.6430714 1.7660439 -0.87702018
-3.0678632 2.0498807 -0.81737578
-3.635849 2.4293966 -0.72900796
-4.5187755 3.0193493 -0.60575634
-5.7875028 3.8670857 -0.38879088
-5.9896908 4.0021834 0
-6.4679394 4.3217392 0.43450102
-2.2965517 1.5304962 -0.90999609
-2.6285024 1.7517188 -0.87148285
-3.0618804 2.0405359 -0.81512421
-3.6451924 2.4292738 -0.73029226
-4.526721 3.016753 -0.60633242
-0 0 -0
-6.3756509 4.2489395 0
-6.4904552 4.3254485 0.43566212
-2.2901738 1.5222527 -0.90673935
-2.6306169 1.7485415 -0.87148285
-3.0664577 2.03824 -0.81568658
-3.6459892 2.4234478 -0.72986472
-4.5260587 3.0084202 -0.60575634
-5.7795272 3.8415866 -0.38763031
-6.3894501 4.2469954 0
-6.4826965 4.3089752 0.43479156
-2.2796474 1.5112876 -0.90184802
-2.6390028 1.7495216 -0.87356001
-3.0752738 2.0387466 -0.81737578
-3.642494 2.414784 -0.72858036
-4.53616 3.0072381 -0.6066215
-5.779829 3.8317261 -0.38733974
-6.3880672 4.2349563 0
-6.44242 4.2709894 0.4317438
-2.285599 1.511261 -0.90347952
-2.6557574 1.7560135 -0.87840313
-3.069257 2.0294235 -0.81512421
-3.6454091 2.4103811 -0.72858036
-4.5311604 2.9960487 -0.60546833
-5.7866201 3.8261712 -0.38748476
-6.3736444 4.2143173 0
-6.3782163 4.2173405 0.42709932
-2.2720723 1.5003449 -0.89777398
-2.6316957 1.7378194 -0.87009722
-3.0789638 2.0331693 -0.81737578
-3.6554334 2.4138365 -0.73029226
-4.5329695 2.9933107 -0.60546833
-5.7802572 3.8169472 -0.38690418
-6.3761892 4.2104659 0
-6.3482442 4.1920128 0.42492265
-2.3069098 1.5193498 -0.91081339
-2.6400812 1.7387793 -0.87217438
-3.0771782 2.0266552 -0.81625104
-3.6562054 2.4080071 -0.72986472
-4.525785 2.9807193 -0.60402715
-5.780529 3.8071043 -0.3866142
-6.385623 4.2056241 0
-6.3446245 4.1786222 0.4243421
-2.2674282 1.489422 -0.89451408
-2.6296031 1.7273265 -0.86802274
-3.0881197 2.0285156 -0.8185026
-3.6591125 2.4035876 -0.72986472
-4.5401902 2.9823475 -0.60546833
-5.7742682 3.7929852 -0.38588864
-6.3798261 4.1907625 0
-6.3149199 4.1481271 0.42201987
-2.2816267 1.4948053 -0.89940232
-2.6547661 1.7392671 -0.87563449
-3.0799356 2.0178163 -0.81568658
-3.668458 2.4033861 -0.73114902
-4.5416288 2.9754434 -0.60518032
-5.7201595 3.7475564 -0.38196972
-6.3739944 4.1759157 0
-6.3199277 4.1404939 0.42201987
-2.2979167 1.5015124 -0.90510786
-2.6337698 1.7209667 -0.86802274
-3.0930128 2.0210469 -0.8185026
-3.6670573 2.3961408 -0.73029226
-4.5495472 2.9727802 -0.60575634
-5.5876498 3.6511006 -0.37282637
-6.3703213 4.1625166 0
-6.3205714 4.1300087 0.4217293
-2.2976606 1.4973866 -0.90429366
-2.6064177 1.6986037 -0.85833114
-3.0975792 2.0186939 -0.81906497
-3.6785524 2.3973145 -0.73200411
-4.550971 2.9658701 -0.60546833
-5.5311108 3.6046276 -0.36876303
-6.3753462 4.1548162 0
-6.3146744 4.1152763 0.42100376
-2.2870302 1.4865248 -0.89940232
-2.602164 1.6913555 -0.85625666
-3.0893662 2.0080273 -0.81625104
-3.6749873 2.3886695 -0.7307198
