# .PCD v0.7 - Point Cloud Data file format
VERSION 0.7
FIELDS x y z
SIZE 4 4 4
TYPE F F F
COUNT 1 1 1
WIDTH 1522
HEIGHT 1
VIEWPOINT 0 0 0 1 0 0 0
POINTS 1522
DATA ascii
-0.57668275 7.7461314 -0.86578226
-0.95138454 12.77921 -0.71577322
-1.2263058 16.472015 0
-0.79550838 10.685447 0.59849995
-0.32591733 4.3074889 -0.95696467
-0.4143559 5.4763384 -0.91559345
-0.58487153 7.7299595 -0.86405307
-0.96427661 12.74437 -0.71388656
-1.2448336 16.452353 0
-1.647453 21.773577 1.2196652
-0.33092725 4.3045611 -0.95640236
-0.42175901 5.486062 -0.91730368
-0.59440929 7.7318234 -0.86434108
-0.98007369 12.748383 -0.71417713
-1.2629169 16.427486 0
-1.6739599 21.774158 1.2198101
-0.33215356 4.2866249 -0.9524616
-0.42507336 5.4858065 -0.91730368
-0.59848076 7.7237244 -0.86347592
-0.98576772 12.721876 -0.71272546
-1.2716354 16.411158 0
-1.6875156 21.77832 1.2201002
-0.33892772 4.3064847 -0.95696467
-0.43150038 5.4827318 -0.91687614
-0.60801643 7.7255816 -0.86376506
-1.0001197 12.707726 -0.71199989
-1.2904434 16.396639 0
-1.7142373 21.78145 1.2203907
-0.34251168 4.2858095 -0.9524616
-0.43730685 5.471971 -0.91516423
-0.61714423 7.7222552 -0.86347592
-1.0125761 12.670251 -0.70996821
-1.3079739 16.366528 0
-1.7426244 21.80526 1.2218418
-0.34892246 4.3005834 -0.95583785
-0.4447487 5.4816732 -0.91687614
-0.62605667 7.7163529 -0.8628999
-1.0268345 12.656071 -0.70924264
-1.3269068 16.354559 0
-1.7696011 21.810911 1.2222774
-0.35391027 4.2976284 -0.95527548
-0.45116144 5.4785757 -0.91644853
-0.63559198 7.7181664 -0.86318791
-1.0408461 12.639277 -0.70837152
-1.3458128 16.342569 0
-1.7972331 21.824289 1.223148
-0.35762149 4.2794709 -0.95133477
-0.45820802 5.4831381 -0.91730368
-0.64405584 7.7070827 -0.86203474
-1.0543864 12.617295 -0.70721042
-1.2151579 14.541165 0
-1.8238193 21.824699 1.2232935
-0.36408049 4.2942314 -0.95471317
-0.46526715 5.4877009 -0.91816044
-0.65293127 7.701149 -0.86145872
-1.0665582 12.579769 -0.70517874
-1.2309684 14.518941 0
-1.8519449 21.843193 1.2244546
-0.36665636 4.2634096 -0.94795853
-0.47211736 5.4896903 -0.91858798
-0.66024178 7.6771646 -0.85886437
-0.78431708 9.1198883 -0.51128244
-1.2496254 14.530405 0
-1.8785592 21.843527 1.2245996
-0.37291124 4.2756176 -0.9507724
-0.47785807 5.4788861 -0.91687614
-0.66884321 7.6686282 -0.85799921
-0.79330432 9.0956383 -0.50997633
-1.2655995 14.510743 0
-1.9063058 21.856768 1.2254702
-0.37695828 4.2625113 -0.94795853
-0.48425195 5.47575 -0.91644853
-0.67788112 7.6652408 -0.8577112
-0.80292112 9.0791483 -0.5091058
-1.282673 14.504013 0
-1.9340879 21.869982 1.2263412
-0.38346931 4.2772322 -0.95133477
-0.49178487 5.4853883 -0.91816044
-0.68691099 7.6618323 -0.85742205
-0.81226647 9.0600529 -0.50808966
-0.82010204 9.1474514 0
-1.9623682 21.888334 1.2275023
-0.38748771 4.2641158 -0.9485209
-0.49701908 5.4694557 -0.91559345
-0.69687074 7.6687269 -0.85828722
-0.82203764 9.0461283 -0.50736409
-0.82785654 9.1101627 0
-1.9902251 21.901468 1.2283729
-0.392407 4.261117 -0.94795853
-0.50433302 5.4765124 -0.91687614
-0.70542461 7.6601501 -0.85742205
-0.83153731 9.0295982 -0.50649297
-0.83790922 9.0987902 0
-2.0181165 21.914568 1.2292435
-0.39708379 4.2555847 -0.94683385
-0.51118821 5.4784527 -0.91730368
-0.71516097 7.6644478 -0.85799921
-0.84124041 9.0156536 -0.50576741
-0.84672683 9.0744524 0
-2.0458024 21.925056 1.2299696
-0.40174684 4.2500377 -0.94570702
-0.51756614 5.4752779 -0.91687614
-0.72442138 7.663578 -0.85799921
-0.8506667 8.999114 -0.50489688
-0.85695595 9.0656471 0
-2.0730257 21.930323 1.2304046
-0.40736669 4.2546124 -0.94683385
-0.52246958 5.456768 -0.9138816
-0.73417336 7.6678414 -0.85857522
-0.86129141 8.9954853 -0.50475132
-0.86716598 9.0568399 0
-2.1005135 21.938148 1.2309852
-0.41079041 4.2364116 -0.94289309
-0.53005368 5.4663534 -0.91559345
-0.74268973 7.6592331 -0.8577112
-0.87090635 8.9815092 -0.50402576
-0.87760592 9.0506001 0
-2.128525 21.951117 1.2318563
-0.41715017 4.2485533 -0.94570702
-0.53515273 5.4503751 -0.91302484
-0.75219637 7.6609015 -0.85799921
-0.8812508 8.9752827 -0.50373578
-0.88726985 9.0365858 0
-2.1553009 21.951113 1.2320013
-0.42027268 4.2278185 -0.94120389
-0.54250008 5.4573903 -0.91430914
-0.76145256 7.659987 -0.85799921
-0.89003873 8.9535255 -0.50257462
-0.89638585 9.0173759 0
-2.1831079 21.961418 1.2327268
-0.4271619 4.245007 -0.94514465
-0.54935068 5.4592824 -0.91473669
-0.77096629 7.6616325 -0.85828722
-0.90111655 8.9550266 -0.50271964
-0.90676033 9.0111122 0
-2.2101622 21.96393 1.2330168
-0.36682215 3.6016774 -0.99883264
-0.43074563 4.2293162 -0.94176626
-0.55568689 5.4560633 -0.91430914
-0.77996153 7.6581244 -0.85799921
-0.91114622 8.9461737 -0.50228411
-0.91659302 8.9996538 0
-2.2390699 21.984516 1.2343235
-0.37091684 3.5987384 -0.99814117
-0.43585563 4.2287927 -0.94176626
-0.56306887 5.4630513 -0.91559345
-0.7894792 7.6597471 -0.85828722
-0.92222244 8.9476585 -0.50242966
-0.92613286 8.9855986 0
-2.2682958 22.007637 1.2357746
-0.37526494 3.5982876 -0.99814117
-0.44070166 4.225738 -0.94120389
-0.56807137 5.4470425 -0.91302484
-0.79900199 7.6613574 -0.85857522
-0.93168479 8.9336081 -0.5017035
-0.9372592 8.9870586 0
-2.2962337 22.017801 1.2365003
-0.44367442 4.2049875 -0.93670082
-0.57465261 5.446352 -0.91302484
-0.80744523 7.6526775 -0.8577112
-0.94220626 8.9298944 -0.50155854
-0.9478448 8.9833345 0
-2.3244724 22.030519 1.2373713
-0.45064291 4.2221365 -0.94064158
-0.57987112 5.4328933 -0.91088539
-0.8161419 7.6465473 -0.85713404
-0 0 -0
-0.95842278 8.9795971 0
-2.35302 22.045774 1.2383869
-0.38695985 3.5844347 -0.994681
-0.45438087 4.2089605 -0.93782771
-0.58560842 5.4245296 -0.90960109
-0.82427019 7.6352696 -0.85598087
-0.96434188 8.9327631 -0.50184906
-0.96843392 8.9706678 0
-2.3813303 22.05842 1.2392581
-0.39183471 3.5889478 -0.99606401
-0.46029279 4.2159786 -0.9395147
-0.59327692 5.4340258 -0.91131294
-0.83209199 7.6214147 -0.85453969
-0.9745701 8.9264202 -0.50155854
-0.97786045 8.9565573 0
-2.4074173 22.050356 1.2389674
-0.39537263 3.6011865 -0.9995268
-0.46367195 4.2232795 -0.94120389
-0.59627992 5.4311171 -0.91088539
-0.83726144 7.6260571 -0.85511684
-0.97939622 8.9206686 -0.50126851
-0.98241907 8.9482021 0
-2.4238582 22.077312 1.2405641
-0.39640203 3.5707846 -0.99122089
-0.46625173 4.1999898 -0.93613851
-0.60340786 5.4354906 -0.91174048
-0.84590411 7.6198936 -0.85453969
-0.99046081 8.9220591 -0.50141352
-0.99323052 8.9470081 0
-2.4525385 22.092438 1.2415797
-0.40183562 3.5802755 -0.99398953
-0.47132626 4.1994233 -0.93613851
-0.60625327 5.4015961 -0.90617734
-0.85597634 7.6265798 -0.85540485
-0.9977628 8.8898687 -0.49967185
-1.0040405 8.9458017 0
-2.4806812 22.102377 1.2423058
-0.40757525 3.5922489 -0.99744964
-0.47582775 4.1938062 -0.93501383
-0.6139372 5.4110622 -0.90788919
-0.86285824 7.60498 -0.85309851
-1.0076246 8.880909 -0.49923629
-1.0142628 8.939415 0
-2.5091429 22.114849 1.2431763
-0.48176247 4.2007942 -0.93670082
-0.62106049 5.4154224 -0.90874594
-0.87234116 7.6064987 -0.85338652
-1.018059 8.8771057 -0.4990913
-1.0256561 8.9433489 0
-2.5364552 22.11697 1.2434669
-0.41683227 3.5962329 -0.99883264
-0.48537549 4.1875916 -0.93388695
-0.62612593 5.4019203 -0.90660655
-0.87944776 7.5874615 -0.85136932
-1.0293834 8.8810358 -0.49938184
-1.0361623 8.9395208 0
-2.5643728 22.124203 1.2440469
-0.42059413 3.5907478 -0.99744964
-0.49191272 4.1996179 -0.93670082
-0.63265264 5.4011598 -0.90660655
-0.88951695 7.5940928 -0.85223335
-1.0401137 8.8797855 -0.49938184
-1.0454496 8.9253407 0
-2.5932202 22.139156 1.2450631
-0.42404765 3.5827606 -0.99537253
-0.49429923 4.1763129 -0.93163544
-0.638273 5.3927412 -0.90532225
-0.89778107 7.5853143 -0.85136932
-1.050231 8.8733568 -0.4990913
-1.0586793 8.9447365 0
-2.4749048 20.910366 1.1761255
-0.42956793 3.5922096 -0.99814117
-0.49964654 4.1782331 -0.93219775
-0.64417839 5.3868632 -0.9044655
-0.9054094 7.5713754 -0.84992701
-1.0612602 8.8746586 -0.49923629
-1.0691777 8.9408693 0
-2.5004773 20.909937 1.1762705
-0.43360749 3.5891995 -0.99744964
-0.50408584 4.1725864 -0.93107307
-0.6503793 5.3835349 -0.90403789
-0.91393739 7.5651455 -0.84935099
-1.0716714 8.8707933 -0.4990913
-1.0790448 8.9318266 0
-2.5263638 20.912056 1.1765605
-0.43794402 3.5886731 -0.99744964
-0.51066589 4.1845827 -0.93388695
-0.65719444 5.3852911 -0.9044655
-0.92245048 7.5588956 -0.84877384
-1.0823892 8.8694916 -0.4990913
-1.0929884 8.9563446 0
-2.5462794 20.865141 1.1740932
-0.44105229 3.5781815 -0.994681
-0.51478893 4.1763945 -0.93219775
-0.66464347 5.3921385 -0.9057498
-0.93126714 7.5552111 -0.84848583
-1.0931054 8.8681774 -0.4990913
-1.1063566 8.9756813 0
-2.5683107 20.836266 1.1726422
-0.5188942 4.1682124 -0.9305107
-0.66988987 5.3811421 -0.90403789
-0.93911737 7.5438137 -0.84733266
-1.1028568 8.8591118 -0.49865574
-1.1168799 8.9717579 0
-2.5867448 20.778999 1.1695944
-0.52424687 4.1701012 -0.93107307
-0.67767221 5.3905168 -0.9057498
-0.94855422 7.5452371 -0.84762067
-1.1142093 8.8629341 -0.49894628
-1.1277198 8.9704018 0
-2.6089334 20.752659 1.1682882
-0.53024554 4.1770291 -0.93276227
-0.68256903 5.3769631 -0.90361035
-0.95669425 7.5363951 -0.84675664
-1.1258997 8.8693171 -0.49938184
-1.1398675 8.9793501 0
-2.6290984 20.710821 1.166111
-0.53529227 4.1763854 -0.93276227
-0.69004494 5.3837757 -0.90489465
-0.96382624 7.5198359 -0.84502631
-1.1362844 8.865365 -0.49923629
-1.149725 8.9702291 0
-2.6485059 20.663816 1.1636438
-0.4629834 3.5779374 -0.99537253
-0.5409897 4.1807704 -0.93388695
-0.69523191 5.3727546 -0.9031828
-0.97324467 7.5212383 -0.84531546
-1.1463293 8.8588371 -0.49894628
-1.1625661 8.9843149 0
-2.6638036 20.585882 1.1594355
-0.46698165 3.5748899 -0.994681
-0.54735744 4.1901917 -0.93613851
-0.70471561 5.3948174 -0.9070341
-0.98166126 7.5149226 -0.8447383
-1.1590514 8.8729 -0.49981683
-1.1724094 8.9751587 0
-2.6654525 20.404869 1.149421
-0.4739649 3.5613194 -0.99122089
-0.55714703 4.1863403 -0.93557614
-0.7191053 5.4032769 -0.90874594
-1.0008429 7.5202222 -0.84560347
-1.1811767 8.8752289 -0.50010741
-1.1940954 8.9722996 0
-2.6928174 20.23353 1.1401327
-0.47526228 3.5383685 -0.98499209
-0.56524891 4.2083263 -0.94064158
-0.72392523 5.3896856 -0.90660655
-1.010273 7.5215683 -0.84589148
-1.1922454 8.8763685 -0.50025243
-1.2028577 8.9553795 0
-2.7134585 20.201931 1.138536
-0.47919941 3.5352983 -0.98429793
-0.56828499 4.1925282 -0.93726319
-0.72871208 5.3760805 -0.9044655
-1.0169283 7.5023985 -0.84387314
-1.2029698 8.8749218 -0.50025243
-1.2129793 8.9487667 0
-2.7340283 20.170321 1.1369399
-0.4878915 3.5670371 -0.99329799
-0.57403976 4.196878 -0.93839002
-0.73277336 5.3573995 -0.90147096
-1.0252924 7.4960437 -0.84329712
-1.2143974 8.8786154 -0.50054294
-1.2248483 8.9550219 0
-2.7545245 20.138681 1.1353432
-0.49494374 3.5863171 -0.99883264
-0.57911044 4.1961813 -0.93839002
-0.73994744 5.3615913 -0.90232605
-1.0347024 7.4973593 -0.84358513
-1.2258345 8.8822842 -0.50083297
-1.23638 8.9586964 0
-2.7753043 20.109602 1.1338921
-0.49332201 3.5586896 -0.99122089
-0.57990134 4.183249 -0.93557614
-0.74248219 5.3560629 -0.90147096
-1.038877 7.4941735 -0.84329712
-1.2329842 8.8944092 -0.50155854
-1.2425063 8.9630985 0
-2.7810316 20.061598 1.1312798
-0.50109583 3.582932 -0.99814117
-0.58601034 4.1900873 -0.93726319
-0.74575371 5.332283 -0.89761966
-1.0454234 7.4749794 -0.84127879
-1.2430112 8.8877707 -0.50126851
-1.2562193 8.9822102 0
-2.8005915 20.024771 1.1293931
-0.5036726 3.5699053 -0.994681
-0.59178346 4.1944132 -0.93839002
-0.75004369 5.3161221 -0.895051
-1.0548156 7.4762692 -0.8415668
-1.2548375 8.8939743 -0.5017035
-1.265254 8.967803 0
-2.8204293 19.990498 1.1276515
-0.5026831 3.5320356 -0.98429793
-0.59756649 4.1987209 -0.9395147
-0.75863755 5.3304653 -0.89761966
-1.0638485 7.4749894 -0.8415668
-1.2670478 8.9027414 -0.50228411
-1.2775557 8.9765739 0
-2.8394554 19.951054 1.1256192
-0.50730807 3.5339162 -0.98499209
-0.60227871 4.1954832 -0.93895239
-0.76325291 5.3168325 -0.89547855
-1.0710425 7.4608998 -0.84012562
-1.2792809 8.9114923 -0.50286466
-1.2902499 8.9879017 0
-2.8580229 19.909035 1.1234425
-0.51265514 3.5407422 -0.98706657
-0.60625505 4.1872063 -0.93726319
-0.76747036 5.3006678 -0.89291161
-1.0815393 7.4698391 -0.84127879
-1.2907932 8.9150877 -0.50315517
-1.3018557 8.9914923 0
-2.8779809 19.877275 1.1218458
-0.52273291 3.5798392 -0.99814117
-0.61058044 4.181447 -0.93613851
-0.77276152 5.2921138 -0.89162725
-1.0890694 7.4582896 -0.84012562
-1.3030663 8.9238062 -0.50373578
-1.3179829 9.0259609 0
-2.8982427 19.848078 1.1203947
-0.52303874 3.5519102 -0.99052936
-0.61600232 4.1832175 -0.93670082
-0.77915543 5.2911758 -0.89162725
-1.0992113 7.4646473 -0.84099078
-1.3157403 8.9350767 -0.50446129
-1.3288881 9.0243616 0
-2.9191947 19.823996 1.1192336
-0.52475035 3.5339022 -0.98568356
-0.62031072 4.1774483 -0.93557614
-0.78517151 5.287694 -0.89119971
-1.1078506 7.4607577 -0.84070277
-1.3288249 8.9488974 -0.50533187
-1.3493472 9.0871038 0
-2.9366581 19.776762 1.1167665
-0.52864891 3.5307868 -0.98499209
-0.62498206 4.1741853 -0.93501383
-0.79308057 5.2968965 -0.89291161
-1.1168646 7.4594135 -0.84070277
-1.3446385 8.98069 -0.50721854
-1.3807487 9.2218666 0
-2.9540119 19.729515 1.1142992
-0.52991891 3.5103002 -0.97945476
-0.63154095 4.1834669 -0.93726319
-0.79948026 5.2959342 -0.89291161
-1.1243327 7.4478288 -0.8395496
-1.3570404 8.989336 -0.50779909
-1.418695 9.3977489 0
-2.973582 19.697666 1.1127025
-0.53868979 3.5394199 -0.98776072
-0.63850808 4.1952682 -0.94007921
-0.80742377 5.3051157 -0.89462346
-1.1321632 7.4387913 -0.83868444
-1.3706385 9.0056744 -0.50881523
-1.4367058 9.439765 0
-2.9930811 19.665808 1.1111064
-0.54182428 3.5313246 -0.98568356
-0.64588809 4.2095575 -0.94345546
-0.81383342 5.3041363 -0.89462346
-1.1423279 7.4450898 -0.8395496
-1.3953106 9.0938978 -0.51389468
-1.4453477 9.4200125 0
-3.0121121 19.631355 1.1093647
-0.54762471 3.5405846 -0.9884522
-0.64903253 4.1962214 -0.94064158
-0.81984979 5.3006144 -0.89419591
-1.151323 7.4437041 -0.8395496
-1.4340998 9.2719545 -0.52405417
-1.4587175 9.4311161 0
-3.0302708 19.591757 1.1073331
-0.5468787 3.5076981 -0.97945476
-0.65371132 4.1929259 -0.94007921
-0.82743919 5.3072219 -0.89547855
-1.1595187 7.4371915 -0.83897245
-1.458511 9.3549376 -0.52884364
-1.4689089 9.4216299 0
-3.0467355 19.541862 1.1047202
-0.55423236 3.5268614 -0.98499209
-0.65917122 4.1946406 -0.94064158
-0.83584505 5.3189054 -0.89761966
-1.1681032 7.4332323 -0.83868444
-1.4714271 9.3634367 -0.52942419
-1.4778688 9.4044275 0
-3.0642962 19.49967 1.1025436
-0.55888557 3.5286646 -0.98568356
-0.66662329 4.2088938 -0.94401783
-0.84106618 5.3102827 -0.8963353
-1.1762755 7.4267111 -0.83810842
-1.4823322 9.3590775 -0.52927864
-1.4896379 9.4052029 0
-3.0837898 19.470284 1.1010919
-0.56631249 3.547806 -0.99122089
-0.67170846 4.2080855 -0.94401783
-0.84748197 5.3092628 -0.8963353
-1.1840248 7.4176192 -0.83724326
-1.491183 9.3418884 -0.52840805
-1.4981307 9.3854141 0
-1.7565629 11.004427 0.62244672
-0.56462187 3.5099628 -0.98083776
-0.67840677 4.2173052 -0.94626933
-0.85675091 5.3259788 -0.89933151
-1.1938075 7.4212856 -0.83781928
-1.5028821 9.3426437 -0.52855307
-1.5107088 9.3912973 0
-1.7690338 10.997171 0.62215674
-0.47878334 2.9535851 -0.98660123
-0.5736798 3.5389955 -0.98914373
-0.68146956 4.2039442 -0.94345546
-0.86359602 5.3274713 -0.89975905
-1.2015334 7.4121857 -0.83695525
-1.5120913 9.3279982 -0.5278275
-1.5191414 9.3714905 0
-1.7831511 11.000151 0.62244672
-0.57472014 3.518492 -0.9836064
-0.68573028 4.1981072 -0.94233078
-0.87168795 5.3365579 -0.90147096
-1.2104887 7.4107285 -0.83695525
-1.5208488 9.3107824 -0.52695698
-1.5304639 9.369648 0
-1.7956045 10.992864 0.62215674
-0.58100784 3.53017 -0.98706657
-0.6936897 4.2148185 -0.94626933
-0.87896848 5.3405614 -0.90232605
-1.219021 7.4067011 -0.83666611
-1.5316746 9.3063669 -0.52681142
-1.5426286 9.3729229 0
-1.8088859 10.990686 0.62215674
-0.49514654 2.9859617 -0.9980092
-0.58486289 3.5269928 -0.98637509
-0.69296342 4.1788888 -0.93839002
-0.88668108 5.3470955 -0.90361035
-1.2258544 7.392467 -0.83522493
-1.5420691 9.299387 -0.52652138
-1.5577842 9.3941565 0
-1.8221647 10.988492 0.62215674
-0.57916862 3.4796262 -0.97322601
-0.69965899 4.2035284 -0.94401783
-0.88906765 5.3414893 -0.90275359
-1.2307463 7.3942838 -0.83551407
-1.546833 9.2933226 -0.52623081
-1.5630325 9.3906488 0
-1.8279489 10.982258 0.62186617
-0.58212751 3.4714987 -0.97114885
-0.7013759 4.1826329 -0.9395147
-0.89679515 5.3480091 -0.90403789
-1.2379689 7.3825874 -0.8343609
-1.5567731 9.2837658 -0.52579582
-1.5730865 9.3810511 0
-1.8519603 11.044106 0.62549454
-0.58924735 3.4881113 -0.97599465
-0.70939237 4.1993222 -0.94345546
-0.90282935 5.3443928 -0.90361035
-1.2460259 7.3759809 -0.83378375
-1.5692868 9.2895575 -0.52623081
-1.5844206 9.3791428 0
-1.8700651 11.070046 0.62709123
-0.59514511 3.4972897 -0.97876328
-0.71531928 4.2034769 -0.94458228
-0.91014683 5.3483543 -0.9044655
-1.2566731 7.3846693 -0.83493692
-1.5796392 9.2825356 -0.52594084
-1.5979365 9.3900576 0
-1.8877981 11.09339 0.6285423
-0.59809846 3.4891474 -0.97668612
-0.71910954 4.1950941 -0.94289309
-0.91444045 5.3346024 -0.90232605
-1.2642837 7.375495 -0.83407176
-1.5908542 9.2806206 -0.52594084
-1.6092814 9.3881197 0
-1.9003237 11.085983 0.62825233
-0.5993256 3.4711144 -0.97184032
-0.7289322 4.2217569 -0.94908321
-0.92219633 5.341085 -0.90361035
-1.2731947 7.3739619 -0.83407176
-1.6033937 9.286376 -0.52637643
-1.6215087 9.3912926 0
-3.2629645 18.898113 1.0711951
-0.61555481 3.5395947 -0.99122089
-0.72881043 4.1908431 -0.94233078
-0.92996919 5.3475566 -0.90489465
-1.2816609 7.3698726 -0.83378375
-1.6155028 9.289547 -0.5266664
-1.6315169 9.3816319 0
-3.279563 18.858311 1.0691628
-0.60901105 3.4770718 -0.97391748
-0.73387372 4.189959 -0.94233078
-0.93554342 5.3413668 -0.90403789
-1.2923501 7.378509 -0.83493692
-1.6267262 9.2875881 -0.5266664
-1.6450961 9.3924685 0
-3.2951763 18.813393 1.0668412
-0.60929012 3.4541001 -0.96768868
-0.73584574 4.1715512 -0.93839002
-0.94244224 5.3427582 -0.9044655
-1.2981189 7.3591099 -0.83291858
-1.6406565 9.3009739 -0.52753752
-1.6582522 9.4007254 0
-3.3165514 18.801718 1.0664057
-0.61872882 3.4830027 -0.97599465
-0.74488503 4.193172 -0.94345546
-0.94440818 5.3163452 -0.9001866
-1.3088197 7.367722 -0.83407176
-1.6509838 9.2938633 -0.52724695
-1.6677892 9.3884659 0
-3.3329055 18.761885 1.064374
-0.6229369 3.4822524 -0.97599465
-0.75084686 4.1972761 -0.94458228
-0.953996 5.3328915 -0.9031828
-1.3181778 7.3686886 -0.8343609
-1.6649569 9.3072033 -0.52811754
-1.6818827 9.4018192 0
-3.3509965 18.73226 1.0629224
-0.53571337 2.9739332 -0.99638087
-0.63247949 3.511116 -0.98429793
-0.75366431 4.1838555 -0.94176626
-0.96180302 5.3393068 -0.9044655
-1.3257045 7.3594518 -0.83349574
-1.6780443 9.3154144 -0.52869809
-1.6955482 9.4125843 0
-3.3671799 18.6924 1.0608907
-0.6259774 3.4511151 -0.96768868
-0.76007998 4.1904445 -0.94345546
-0.96642125 5.3280373 -0.90275359
-1.3332107 7.3502073 -0.83263057
-1.6906906 9.3210526 -0.52913362
-1.7083141 9.4182129 0
-3.3865168 18.670418 1.0598745
-0.6369065 3.4873681 -0.97806913
-0.76423067 4.1845288 -0.94233078
-0.97516578 5.3394995 -0.90489465
-1.3416268 7.3460488 -0.83234257
-1.7052205 9.3368988 -0.53014976
-1.7239006 9.4391813 0
-3.4030056 18.633085 1.0579878
-0.64202815 3.4915357 -0.97945476
-0.76652825 4.1686034 -0.93895239
-0.9802236 5.3307405 -0.90361035
-1.3514366 7.3495054 -0.83291858
-1.7193197 9.3501596 -0.53102028
-1.7371874 9.4473295 0
-3.4137697 18.565071 1.0543596
-0.64807326 3.5006247 -0.98222345
-0.77711511 4.1976557 -0.94570702
-0.98713088 5.3320742 -0.90403789
-1.3603162 7.347867 -0.83291858
-1.7310888 9.3506279 -0.5311653
-1.7538112 9.4733658 0
-3.423902 18.494507 1.0505861
-0.64816606 3.4776447 -0.97599465
-0.78311861 4.201714 -0.94683385
-0.99216139 5.3233042 -0.90275359
-1.3687202 7.3436775 -0.83263057
-1.7480992 9.3791828 -0.53290695
-1.7705024 9.4993849 0
-3.4348202 18.42905 1.0471028
-0.65745544 3.5039752 -0.9836064
-0.78304023 4.1732917 -0.94064158
-0.99906766 5.3246317 -0.9031828
-1.3728236 7.3166022 -0.82974821
-1.7623069 9.3923922 -0.53377807
-1.7786193 9.479331 0
-3.4542112 18.409567 1.0462322
-0.65330839 3.4588096 -0.97114885
-0.78902453 4.1773314 -0.94176626
-1.0074065 5.3335104 -0.90489465
-1.3840631 7.3276434 -0.83118939
-1.7779945 9.4132338 -0.53508419
-2.6652699 14.110735 0
-3.4711475 18.377291 1.0446355
-0.56489646 2.9710417 -0.99719501
-0.66264236 3.4851308 -0.97876328
-0.79596984 4.1863594 -0.94401783
-1.0119323 5.3222017 -0.9031828
-1.3909836 7.3158016 -0.83003622
-1.7922784 9.4263897 -0.53595477
-2.6828036 14.110058 0
-3.4918957 18.365433 1.0442005
-0.66166508 3.4572208 -0.97114885
-0.80437154 4.2028666 -0.94795853
-1.0202925 5.3310604 -0.90489465
-1.3978776 7.3039541 -0.82888305
-1.8085524 9.4497433 -0.53740644
-2.7022965 14.119584 0
-3.5091989 18.335674 1.0427489
-0.66679019 3.4613409 -0.97253186
-0.80608433 4.1844239 -0.94401783
-1.0262463 5.3272958 -0.9044655
-1.4081702 7.3098817 -0.82974821
-1.8239015 9.4679632 -0.53856754
-2.5062046 13.009832 0
-3.5274191 18.311008 1.0415878
-0.68004572 3.5073302 -0.98568356
-0.81307441 4.1934247 -0.94626933
-1.0317062 5.3210163 -0.90361035
-1.4145405 7.2954812 -0.82830703
-2.1508827 11.093161 -0.63116121
-2.5273721 13.034901 0
-2.5267439 13.03166 0.74145496
-0.5797224 2.9707003 -0.9980092
-0.67419285 3.4547997 -0.97114885
-0.81619406 4.1824636 -0.94401783
-1.0376437 5.3172488 -0.9031828
-1.4233546 7.2937665 -0.82830703
-2.1637878 11.088005 -0.63101625
-2.5386329 13.008842 0
-2.5404973 13.018396 0.74087441
-0.67933285 3.4589012 -0.97253186
-0.82418621 4.1964388 -0.94739622
-1.0475295 5.3336167 -0.90617734
-1.4301729 7.2818894 -0.82715386
-2.1721773 11.05989 -0.62956512
-2.5518425 12.992998 0
-2.5557253 13.01277 0.74072939
-0.5846284 2.967222 -0.99719501
-0.68724215 3.4880276 -0.98083776
-0.82230115 4.1735058 -0.94233078
-1.0472792 5.3153596 -0.9031828
-1.4330715 7.2734084 -0.8262887
-2.1733329 11.03053 -0.62796843
-2.5556669 12.971027 0
-2.5600719 12.993384 0.73971385
-0.58340514 2.9422646 -0.98904383
-0.6914562 3.4871945 -0.98083776
-0.82882458 4.1799788 -0.94401783
-1.0546987 5.3191214 -0.90403789
-1.4428641 7.276741 -0.82686472
-2.1740251 10.964177 -0.62434012
-2.5672905 12.947517 0
-2.5712202 12.967335 0.73840719
-0.69370562 3.4765155 -0.97806913
-0.83288121 4.1739955 -0.94289309
-1.0586139 5.3052583 -0.9018985
-1.4511499 7.2724581 -0.82657671
-2.5747087 12.903189 -0.73493111
-2.5773308 12.916329 0
-2.5818028 12.938742 0.73695606
-0.5963527 2.9699252 -0.9988234
-0.69197905 3.4461586 -0.96976322
-0.83592314 4.1630216 -0.94064158
-1.0655284 5.3064899 -0.90232605
-1.4589188 7.2656326 -0.82600069
-2.5923421 12.910249 -0.73551106
-2.5903745 12.90045 0
-2.5938537 12.917777 0.73593998
-0.69365871 3.433027 -0.96630305
-0.84699148 4.1918955 -0.94739622
-1.0734652 5.3127494 -0.90361035
-1.4671831 7.261322 -0.82571155
-2.6074255 12.904563 -0.73536611
-2.6023517 12.879452 0
-2.603801 12.886623 0.73434383
-0.69580698 3.4223526 -0.96353441
-0.85357326 4.1983314 -0.94908321
-1.077327 5.2988729 -0.90147096
-1.4744115 7.2519474 -0.82484752
-2.6271579 12.921774 -0.7365272
-2.6194682 12.883951 0
-2.6188529 12.880924 0.73419881
-0.60364836 2.9508007 -0.99312097
-0.70597541 3.4510036 -0.97184032
-0.85406274 4.1748953 -0.94401783
-1.0857868 5.3076272 -0.9031828
-1.4852464 7.2602963 -0.82600069
-2.6453729 12.931315 -0.73725277
-2.6371205 12.890975 0
-2.6349351 12.880294 0.73434383
-0.60721338 2.950069 -0.99312097
-0.71318042 3.4648962 -0.97599465
-0.85962039 4.1763563 -0.94458228
-1.0921993 5.3063116 -0.9031828
-1.4940181 7.2584963 -0.82600069
-2.6620445 12.933205 -0.73754334
-2.6553175 12.900522 0
-2.6552107 12.900003 0.73564994
-0.71126157 3.4345522 -0.96768868
-0.86311978 4.1678476 -0.94289309
-1.0954857 5.2899008 -0.9006142
-1.5017374 7.2516155 -0.82542354
-2.6787229 12.935063 -0.73783332
-2.6735415 12.910044 0
-2.6718488 12.90187 0.73593998
-0.61232424 2.9389145 -0.98986113
-0.71899158 3.4508755 -0.97253186
-0.86659992 4.159337 -0.94120389
-1.0997823 5.2785206 -0.8989023
-1.5115546 7.2548647 -0.82600069
-2.6985903 12.952168 -0.73899442
-2.690732 12.91445 0
-2.6890268 12.906266 0.73637551
-0.72111911 3.4196799 -0.96422857
-0.88241643 4.1845813 -0.94739622
-1.1120061 5.2733378 -0.89847475
-1.5264144 7.2385392 -0.82455951
-2.732563 12.958319 -0.73971999
-2.7251542 12.923184 0
-2.7255688 12.925151 0.73782665
-0.62758917 2.9584334 -0.99719501
-0.73514074 3.4654279 -0.97737765
-0.87956226 4.1462259 -0.93895239
-1.1247696 5.302125 -0.90361035
-1.5378429 7.2493377 -0.82600069
-2.7509162 12.967724 -0.74044609
-0 0 0
-2.7438822 12.934565 0.73855275
-0.63219404 2.9625027 -0.9988234
-0.73252147 3.4326437 -0.96838021
-0.8866927 4.1550999 -0.94120389
-1.1226034 5.2605934 -0.89676291
-1.5455205 7.2424107 -0.82542354
-2.7671251 12.966929 -0.74059111
-2.7634368 12.949646 0
-2.7622199 12.943944 0.73927832
-0.63214344 2.9448278 -0.99312097
-0.73614258 3.4293056 -0.96768868
-0.89597893 4.1739001 -0.94570702
-1.1289589 5.259233 -0.89676291
-1.5558995 7.248127 -0.8262887
-2.7855175 12.976276 -0.74131668
-2.7779906 12.941213 0
-2.7805843 12.953297 0.74000388
-0.6336146 2.9343979 -0.98986113
-0.73710763 3.4136953 -0.96353441
-0.89780492 4.157917 -0.94233078
-1.14073 5.2829523 -0.90104175
-1.5662946 7.2538285 -0.82715386
-2.8061299 12.995758 -0.74262279
-2.7985685 12.960739 0
-2.8000734 12.96771 0.74101996
-0.63978219 2.9457045 -0.99393517
-0.73750615 3.395648 -0.95869124
-0.90282834 4.1568294 -0.94233078
-1.142756 5.2615113 -0.89761966
-1.5739594 7.246871 -0.82657671
-2.8212798 12.989821 -0.74247777
-2.8153305 12.96243 0
-2.8162913 12.966853 0.74116498
-0.646505 2.9594126 -0.9988234
-0.74375033 3.4045582 -0.96145993
-0.91001952 4.1656647 -0.94458228
-1.1523988 5.2751694 -0.9001866
-1.5860277 7.2601299 -0.82830703
-2.8441823 13.019403 -0.74436444
-2.8354347 12.979359 0
-2.8347294 12.976131 0.74189055
-0.75163072 3.4208024 -0.96630305
-0.91396064 4.1595941 -0.94345546
-1.156018 5.2612391 -0.89804721
-1.5942423 7.2556748 -0.82801789
-2.8621421 13.026108 -0.74494499
-2.8533494 12.986091 0
-2.8531942 12.985384 0.74261612
-0.64458871 2.9168165 -0.98496979
-0.75089186 3.3978469 -0.96007425
-0.91459972 4.1386385 -0.93895239
-1.1601586 5.2498121 -0.8963353
-1.6052407 7.2638454 -0.82917106
-2.8767571 13.01756 -0.74465448
-2.871285 12.992799 0
-2.8744905 13.007304 0.74406779
-0.64596766 2.9063845 -0.9817099
-0.76316214 3.4336746 -0.97045738
-0.92070341 4.1424956 -0.94007921
-1.1715132 5.2709575 -0.9001866
-1.6123346 7.254333 -0.82830703
-2.8964312 13.031834 -0.74567056
-2.8881125 12.994406 0
-2.8907685 13.006355 0.74421275
-0.65433091 2.9273083 -0.98904383
-0.76347911 3.4156091 -0.96561158
-0.92736942 4.1488123 -0.94176626
-1.1762007 5.2620196 -0.8989023
-1.6239195 7.264998 -0.82974821
-2.9167101 13.048611 -0.74683172
-2.9066496 13.003603 0
-2.9093156 13.01553 0.74493831
-0.65569919 2.9168699 -0.98578393
-0.76925683 3.4220295 -0.96768868
-0.93349737 4.1526513 -0.94289309
-1.1808707 5.2530885 -0.89761966
-1.6343968 7.2705936 -0.83061224
-2.9358931 13.060284 -0.74770224
-2.9274964 13.022931 0
-2.9273198 13.022146 0.74551886
-0.65867871 2.913667 -0.98496979
-0.77781665 3.4406738 -0.97322601
-0.93515164 4.1366453 -0.9395147
-1.1872171 5.2516575 -0.89761966
-1.6437527 7.2711439 -0.83090138
-2.9562552 13.077003 -0.74886334
-2.9420834 13.014312 0
-2.9482086 13.041408 0.74682498
-0.67027396 2.9566519 -0.9996376
-0.776012 3.423074 -0.96838021
-0.93877524 4.1410408 -0.94064158
-1.1903896 5.2509394 -0.89761966
-1.6481452 7.2701492 -0.83090138
-2.9618573 13.065077 -0.74828279
-2.955698 13.037909 0
-2.955513 13.037092 0.74668002
-0.65846598 2.8883753 -0.97682166
-0.77791709 3.4123499 -0.96561158
-0.94490665 4.1448531 -0.94176626
-1.1967336 5.2494974 -0.89761966
-1.6575029 7.2706718 -0.83118939
-2.6900368 11.799904 -0.67600751
-2.9726055 13.039397 0
-2.9758842 13.053779 0.74784112
-0.67300099 2.9357598 -0.99312097
-0.77026814 3.3600576 -0.95107681
-0.94423777 4.1189466 -0.93613851
-1.2007812 5.2380385 -0.89590776
-1.6685987 7.278748 -0.83234257
-2.7042925 11.796644 -0.67600751
-2.9877779 13.033262 0
-2.992815 13.055234 0.7481311
-0.79066932 3.4300172 -0.97114885
-0.95663315 4.1499877 -0.94345546
-1.2071096 5.2365842 -0.89590776
-1.6779728 7.2792444 -0.83263057
-2.7115405 11.762983 -0.67426586
-3.004108 13.032176 0
-3.0039182 13.031352 0.74697
-0.6795339 2.93171 -0.99230367
-0.78518361 3.3875141 -0.95938277
-0.95763022 4.1314998 -0.9395147
-1.2140151 5.2376199 -0.8963353
-1.6896868 7.2898078 -0.83407176
-3.0114756 12.992395 -0.74494499
-3.0128031 12.998123 0
-3.0155563 13.010001 0.74595445
-0.78586066 3.3719079 -0.95523113
-0.96492851 4.1402378 -0.94176626
-1.2215071 5.2411447 -0.89719045
-1.6973208 7.2827277 -0.83349574
-3.0259914 12.983682 -0.74465448
-3.027324 12.989399 0
-3.0265558 12.986103 0.7447933
-0.79222172 3.3807168 -0.95799708
-0.96935135 4.1365972 -0.94120389
-1.2319394 5.2571626 -0.9001866
-1.7067088 7.2831874 -0.83378375
-3.0357502 12.954721 -0.74320334
-3.0370803 12.960398 0
-3.0369098 12.959669 0.74348718
-0.68788934 2.9196045 -0.98904383
-0.79515654 3.3748779 -0.95661414
-0.97551543 4.1403742 -0.94233078
-1.2335812 5.2356811 -0.89676291
-1.7161005 7.2836351 -0.83407176
-3.047827 12.935873 -0.74233276
-3.0485599 12.938984 0
-3.0477996 12.935757 0.74232608
-0.6857205 2.8947256 -0.9808957
-0.7974984 3.3665888 -0.95453697
-0.97583199 4.1194129 -0.93782771
-1.2393154 5.2316914 -0.8963353
-1.7266892 7.2891088 -0.83493692
-2.7777653 11.726159 -0.67310476
-3.0593927 12.915031 0
-3.0592344 12.914363 0.74131
-0.68234617 2.8650424 -0.97111613
-0.79691577 3.3460987 -0.94899964
-0.97904217 4.1108127 -0.93613851
-1.2462301 5.2326846 -0.89676291
-1.7360941 7.2895308 -0.83522493
-2.7949414 11.735431 -0.67383027
-3.0713792 12.89614 0
-3.0724285 12.900546 0.74072939
-0.70077026 2.9267066 -0.99230367
-0.8103053 3.3841701 -0.96007425
-0.98933303 4.1318641 -0.94120389
-1.2507581 5.2236834 -0.89547855
-1.7461066 7.2924633 -0.83580208
-2.8036745 11.709305 -0.67252415
-3.080898 12.867105 0
-3.0831735 12.876608 0.73956829
-0.69273961 2.8778076 -0.97600752
-0.80911016 3.361239 -0.95384544
-0.99432486 4.1306658 -0.94120389
-1.2576715 5.2246709 -0.89590776
-1.7555215 7.2928605 -0.83609009
-2.8166034 11.70085 -0.67223364
-3.094007 12.853252 0
-3.0926499 12.847615 0.73811716
-0.693308 2.8649502 -0.97193033
-0.82202274 3.396837 -0.96422857
-0.99094945 4.0948911 -0.93332464
-1.2639835 5.2231474 -0.89590776
-1.7637244 7.2882228 -0.83580208
-2.8276842 11.684813 -0.67150807
-3.1040268 12.826741 0
-3.1038928 12.826188 0.73710108
-0.70261276 2.8881307 -0.98008156
-0.81841779 3.3641539 -0.95523113
-1.0031041 4.1233177 -0.94007921
-1.2660456 5.204154 -0.89291161
-1.7719188 7.2835755 -0.83551407
-2.8362734 11.658668 -0.67020196
-3.1127579 12.795173 0
-3.1144748 12.80223 0.73593998
-0.70551538 2.884881 -0.97926736
-0.81950051 3.3509707 -0.95176834
-1.0080855 4.1221027 -0.94007921
-1.2723328 5.2026205 -0.89291161
-1.7794882 7.2763991 -0.83493692
-2.8528278 11.665328 -0.67078251
-3.1220326 12.766117 0
-3.1237698 12.773221 0.73448884
-0.71490002 2.9080231 -0.98741543
-0.82774192 3.3670342 -0.95661414
-1.0069985 4.0962024 -0.93444932
-1.282294 5.2160316 -0.89547855
-1.790132 7.2817812 -0.83580208
-2.859477 11.631593 -0.66904086
-3.1331084 12.744652 0
-3.1367202 12.759344 0.7339083
-0.7255286 2.9359505 -0.99719501
-0.83000356 3.3587227 -0.95453697
-1.0168238 4.1147161 -0.93895239
-1.2892133 5.2169776 -0.89590776
-1.7989293 7.279613 -0.83580208
-2.8704131 11.615519 -0.66831529
-3.146008 12.730751 0
-3.1452773 12.727794 0.73231161
-0.71120143 2.8631148 -0.97274762
-0.83345711 3.3552849 -0.95384544
-1.0150586 4.0863662 -0.93276227
-1.2918017 5.2004628 -0.89333916
-1.8064758 7.272409 -0.83522493
-2.8863261 11.61961 -0.66875082
-3.1576228 12.711782 0
-3.156271 12.706339 0.73129606
-0.70867187 2.838269 -0.96459639
-0.83811784 3.3567071 -0.95453697
-1.0310737 4.1295056 -0.94289309
-1.3018169 5.2138467 -0.89590776
-1.817142 7.2777514 -0.83609009
-2.8928103 11.585861 -0.66700917
-3.1679366 12.687757 0
-3.1709929 12.699997 0.73115104
-0.72232813 2.8781619 -0.97845006
-0.83973044 3.3459587 -0.95176834
-1.0292585 4.1011453 -0.93670082
-1.3062407 5.2047977 -0.89462346
-1.823416 7.2655158 -0.83493692
-2.9068074 11.582357 -0.66700917
-3.1826322 12.681397 0
-3.1812758 12.675994 0.72998995
-0.73608178 2.9180257 -0.99230367
-0.84131825 3.3352113 -0.94899964
-1.0335923 4.0974374 -0.93613851
-1.3150402 5.2131724 -0.8963353
-1.8302952 7.2557812 -0.83407176
-2.1632535 8.5757179 -0.49401182
-3.1915884 12.652313 0
-3.1915057 12.651984 0.72882879
-0.74325287 2.9315135 -0.99719501
-0.84349966 3.3269038 -0.94692516
-1.0366685 4.0887942 -0.93444932
-1.3169215 5.1941586 -0.89333916
-1.8371558 7.2460499 -0.83320773
-2.1685052 8.552947 -0.49285072
-2.1336839 8.4156065 0
-3.2004035 12.622927 0.72737712
-0.73162967 2.8783691 -0.97926736
-0.85045373 3.3458452 -0.95246249
-1.0416424 4.0980177 -0.93670082
-1.3251185 5.2132659 -0.89676291
-1.8408942 7.242425 -0.83291858
-2.1749511 8.5566673 -0.49314073
-2.1368439 8.4067469 0
-3.2029104 12.600854 0.72621655
-0.72959942 2.8559237 -0.97193033
-0.84952819 3.3253696 -0.94692516
-1.0472217 4.0992155 -0.93726319
-1.3326887 5.21664 -0.89761966
-1.8515651 7.2477155 -0.83378375
-2.1840036 8.5490026 -0.49285072
-2.1489334 8.411725 0
-3.2136312 12.579349 0.72520047
-0.74964619 2.9196792 -0.99393517
-0.85042667 3.3121932 -0.94346505
-1.052174 4.0979471 -0.93726319
-1.3357972 5.2025867 -0.89547855
-1.8583909 7.2379551 -0.83291858
-2.1962709 8.5539103 -0.49328628
-2.1649201 8.4318066 0
-3.2230132 12.552808 0.72389436
-0.73526502 2.8493705 -0.97030193
-0.85756183 3.3233068 -0.94692516
-1.0558562 4.0917568 -0.93613851
-1.3388761 5.1885428 -0.89333916
-1.8677833 7.2382159 -0.83320773
-2.2040081 8.5411863 -0.4927057
-2.1686053 8.4039898 0
-3.2329845 12.528776 0.72273326
-0.75545764 2.9130695 -0.99230367
-0.85968679 3.3149805 -0.944848
-1.0614368 4.0929351 -0.93670082
-1.3490121 5.2018352 -0.89590776
-1.8745795 7.2284403 -0.83234257
-2.2162819 8.5460558 -0.49314073
-2.1813715 8.4114408 0
-3.2448599 12.512286 0.72200769
-0.7577315 2.9073758 -0.99067533
-0.86369169 3.3139393 -0.944848
-1.0625379 4.0769019 -0.93332464
-1.3552966 5.2002015 -0.89590776
-1.8820064 7.2211595 -0.83176541
-2.2266064 8.5433712 -0.49314073
-2.194159 8.4188719 0
-3.2553883 12.490753 0.72099155
-0.74120468 2.8299475 -0.96459639
-0.86451769 3.3007612 -0.94138789
-1.0681064 4.0780706 -0.93388695
-1.3589774 5.1886268 -0.89419591
-1.8920423 7.2238889 -0.83234257
-2.2382457 8.5457067 -0.49343127
-2.2102637 8.4388704 0
-3.2665296 12.471733 0.72012103
-0.73959064 2.8099282 -0.95807672
-0.87042171 3.3069949 -0.94346505
-1.0736793 4.0792317 -0.93444932
-1.3652458 5.1869812 -0.89419591
-1.9007696 7.2215977 -0.83234257
-3.0832145 11.714063 -0.67658752
-2.2211206 8.4387083 0
-3.2743208 12.440133 0.71852434
-0.76005006 2.8735495 -0.98008156
-0.87056667 3.291384 -0.93931073
-1.0805572 4.0853033 -0.93613851
-1.3695424 5.1778803 -0.89291161
-1.9094942 7.2192955 -0.83234257
-3.0880654 11.675164 -0.67455584
-2.2293186 8.4284678 0
-3.2846982 12.418581 0.7175082
-0.76923501 2.8941247 -0.98741543
-0.876477 3.2976058 -0.94138789
-1.0809233 4.0668025 -0.93219775
-1.3777767 5.1836667 -0.89419591
-1.9182159 7.2169828 -0.83234257
-3.0828142 11.5986 -0.67034698
-2.240169 8.4282808 0
-3.2983675 12.409585 0.71721822
-0.75615048 2.8311124 -0.96622789
-0.87722462 3.2844276 -0.93792772
-1.086494 4.0679555 -0.93276227
-1.3807253 5.1695905 -0.89205486
-1.9249319 7.2071609 -0.8314774
-3.0827467 11.54215 -0.66729915
-2.2436371 8.4004288 0
-3.3100078 12.393041 0.71649265
-0.76341349 2.8445148 -0.97111613
-0.88444346 3.2954781 -0.94138789
-1.0907481 4.0641785 -0.93219775
-1.3883028 5.1728816 -0.89291161
-1.9356508 7.2123265 -0.83234257
-3.0892839 11.510818 -0.66570306
-2.2517612 8.3901691 0
-3.3189187 12.366447 0.71518654
-0.75397915 2.7958632 -0.95481682
-0.88189125 3.27018 -0.93446493
-1.0943362 4.0579557 -0.93107307
-1.3945521 5.1712003 -0.89291161
-1.9389764 7.1900043 -0.83003622
-3.1025116 11.50456 -0.6655575
-2.2551224 8.362319 0
-3.3270917 12.337336 0.71373487
-0.77287108 2.8522038 -0.97437602
-0.88978016 3.2836452 -0.93861926
-1.0965804 4.0468211 -0.92882156
-1.4034851 5.1794224 -0.89462346
-1.9490144 7.1926441 -0.83061224
-3.1150525 11.495792 -0.66526747
-2.2611425 8.3445215 0
-3.3372412 12.315758 0.71271932
-0.77631682 2.8512681 -0.97437602
-0.89111084 3.2728851 -0.93585056
-1.1061425 4.0626569 -0.93276227
-1.4090687 5.1752481 -0.89419591
-1.9583853 7.1927867 -0.83090138
-2.3412242 8.5988827 -0.49778518
-2.2630191 8.3116503 0
-3.3507535 12.306697 0.71242875
-0.7882393 2.8813176 -0.98496979
-0.89440346 3.2693884 -0.93515909
-1.1043446 4.0368042 -0.92713237
-1.4132881 5.166111 -0.89291161
-1.967075 7.1904149 -0.83090138
-2.3481848 8.583518 -0.49705961
-2.2881672 8.364131 0
-3.3621936 12.29011 0.71170318
-0.78385943 2.8517644 -0.97519016
-0.89968181 3.2731388 -0.93654209
-1.1139362 4.0526195 -0.93107307
-1.4202091 5.1668725 -0.89333916
-1.9737046 7.1805487 -0.83003622
-2.3523571 8.5581274 -0.4957535
-2.2989612 8.3638668 0
-3.3735986 12.273513 0.71097761
-0.78730464 2.8508153 -0.97519016
-0.90230167 3.2672174 -0.93515909
-1.1154509 4.0390267 -0.92825919
-1.4285018 5.1725783 -0.89462346
-1.9823794 7.1781588 -0.83003622
-2.3633873 8.5577812 -0.49589851
-2.3042181 8.3435297 0
-3.3856595 12.259409 0.71039706
-0.79669809 2.8713036 -0.9825272
-0.90356576 3.2564552 -0.93239045
-1.1223665 4.0450144 -0.92994624
-1.4347509 5.1708488 -0.89462346
-1.9834437 7.1483402 -0.82686472
-2.3674738 8.5323868 -0.4945924
-2.3233428 8.3733377 0
-3.3990791 12.250297 0.71010649
-0.78423798 2.8131988 -0.96296805
-0.91625714 3.2867746 -0.94138789
-1.1265717 4.0412097 -0.92938387
-1.4382404 5.1592202 -0.89291161
-1.9948579 7.1559043 -0.82801789
-2.378479 8.5320206 -0.49473739
-2.3355532 8.3780384 0
-3.4152756 12.251191 0.71039706
-0.78163803 2.7908313 -0.95563412
-0.91752148 3.2760019 -0.93861926
-1.1328257 4.044744 -0.9305107
-1.4451649 5.1599483 -0.89333916
-2.0048993 7.1584749 -0.82859504
-2.3873863 8.5241413 -0.49444738
-2.3414648 8.360178 0
-3.4321766 12.254555 0.71083206
-0.79973638 2.8422229 -0.97356182
-0.9180823 3.2628183 -0.93515909
-1.1328939 4.0262485 -0.92657
-1.4493121 5.1507826 -0.89205486
-2.0149474 7.1610217 -0.82917106
-2.3983874 8.5237484 -0.4945924
-2.3600237 8.3874054 0
-3.4497967 12.260405 0.71141261
-0.79474574 2.8179557 -0.96541375
-0.9146055 3.2429464 -0.92962182
-1.138774 4.0377884 -0.92938387
-1.4559097 5.1622667 -0.89419591
-2.017169 7.1523423 -0.82830703
-2.402832 8.5198002 -0.49444738
-2.3686218 8.3984995 0
-3.460732 12.270829 0.71213877
-0.79680127 2.8122327 -0.96378225
-0.92262536 3.2563169 -0.93377346
-1.1478094 4.0510821 -0.93276227
-1.4607453 5.1555591 -0.89333916
-2.0272186 7.1548719 -0.82888305
-2.4138324 8.5193882 -0.4945924
-2.371675 8.3705969 0
-3.4805126 12.284132 0.71315432
-0.80222929 2.8184018 -0.96622789
-0.92243975 3.2407267 -0.92962182
-1.145746 4.025249 -0.92713237
-1.4683807 5.1587329 -0.89419591
-2.0344477 7.1474466 -0.82830703
-2.427681 8.5289583 -0.49531794
-2.4052958 8.4503145 0
-3.4967771 12.284921 0.71344489
-0.80631304 2.8198044 -0.96704209
-0.93532068 3.2709646 -0.93861926
-1.1506089 4.0238619 -0.92713237
-1.474613 5.1569552 -0.89419591
-2.0437927 7.1474676 -0.82859504
-2.4436998 8.5460052 -0.49647906
-2.402627 8.4023676 0
-3.5159035 12.295671 0.71431541
-0.81722653 2.8449614 -0.97600752
-0.9337312 3.2505422 -0.93308192
-1.1519632 4.0102601 -0.92431843
-1.4787161 5.1477652 -0.89291161
-2.0517142 7.1425095 -0.82830703
-2.4490016 8.5255623 -0.49546295
-2.4149342 8.4069643 0
-3.5364971 12.311394 0.71547651
-0.81997627 2.8415904 -0.97519016
-0.93418103 3.2373617 -0.92962182
-1.1645578 4.0357218 -0.9305107
-1.4856461 5.1484389 -0.89333916
-2.059624 7.1375327 -0.82801789
-2.462183 8.5325832 -0.4960435
-2.4229252 8.3965368 0
-3.5520902 12.309607 0.71562153
-0.81993228 2.8158746 -0.96704209
-0.94480723 3.2447295 -0.93239045
-1.1679146 4.010942 -0.92544532
-1.4944959 5.1325126 -0.89119971
-2.0775917 7.135025 -0.82830703
-2.4878817 8.5440741 -0.49705961
-2.4555774 8.4331331 0
-3.589819 12.328432 0.71721822
-0.82055873 2.805393 -0.96378225
-0.94802088 3.2411709 -0.9316963
-1.1720449 4.007082 -0.9248808
-1.5042989 5.1430197 -0.89333916
-2.0825789 7.12009 -0.82686472
-2.5011215 8.5510378 -0.49764016
-2.4686878 8.4401512 0
-3.6105485 12.344037 0.71837932
-0.84345609 2.8707979 -0.98660123
-0.95476526 3.2496512 -0.93446493
-1.1797508 4.0154142 -0.92713237
-1.5083406 5.1338072 -0.89205486
-2.0962851 7.1349421 -0.82888305
-2.511452 8.5480089 -0.49764016
-2.4781513 8.4346676 0
-3.6247294 12.337174 0.71823436
-0.83363146 2.8247342 -0.97111613
-0.94804162 3.2124095 -0.92408448
-1.1889184 4.0286126 -0.9305107
-1.5138168 5.1295209 -0.89162725
-2.1056361 7.134882 -0.82917106
-2.5203063 8.539979 -0.49734962
-2.4846587 8.4191885 0
-3.6447802 12.350224 0.7192499
-0.84687966 2.856905 -0.9825272
-0.95905125 3.2353101 -0.93100476
-1.1908966 4.0174289 -0.92825919
-1.5222032 5.1350741 -0.89291161
-2.1135213 7.1298552 -0.82888305
-2.5188103 8.497077 -0.49502793
-2.5059226 8.4536009 0
-3.6611788 12.350799 0.71954042
-0.84821445 2.8487709 -0.98008156
-0.95795041 3.2173247 -0.92616165
-1.1921253 4.0038128 -0.92544532
-1.5291387 5.1356893 -0.89333916
-2.1206601 7.1223431 -0.82830703
-2.527591 8.4890413 -0.49473739
-2.5087099 8.4256287 0
-3.6798065 12.358815 0.72026598
-0.84103268 2.812222 -0.96785629
-0.95968008 3.2089517 -0.92408448
-1.2042412 4.0267086 -0.93107307
-1.5324008 5.1240001 -0.89162725
-2.1292644 7.1197753 -0.82830703
-2.519978 8.4262333 -0.49125403
-2.5285821 8.4550028 0
-3.6992028 12.369292 0.72113657
-0.84585351 2.8159425 -0.96948779
-0.97582543 3.2486336 -0.93585056
-1.1996039 3.9936175 -0.92375612
-1.5378534 5.1196885 -0.89119971
-2.1386089 7.1196723 -0.82859504
-2.5256739 8.4082546 -0.49038348
-2.5268173 8.4120617 0
-3.7186325 12.379749 0.72200769
-0.84568661 2.8030894 -0.96541375
-0.97685152 3.2378447 -0.93308192
-1.2058949 3.9970257 -0.9248808
-1.5432976 5.1153712 -0.89077216
-2.1472101 7.1170831 -0.82859504
-2.5651004 8.5022097 -0.4960435
-2.550509 8.453846 0
-3.7350879 12.380218 0.72229767
-0.86268926 2.8470011 -0.9808957
-0.9763993 3.222261 -0.92893028
-1.2107236 3.9955657 -0.9248808
-1.5487337 5.1110482 -0.89034462
-2.1558082 7.1144834 -0.82859504
-2.5791388 8.5115356 -0.49676907
-2.55846 8.4432936 0
-3.757581 12.400568 0.72374934
-0.85101753 2.7963037 -0.96378225
-0.98175156 3.2258744 -0.93031329
-1.2148116 3.9916713 -0.92431843
-1.553412 5.1042566 -0.88948786
-2.1636508 7.1094012 -0.82830703
-2.5894215 8.5084133 -0.49676907
-3.8105011 12.52068 0
-3.7733178 12.398502 0.72389436
-0.85800731 2.8070896 -0.96785629
-0.98198271 3.212692 -0.92685312
-1.2203759 3.9926281 -0.9248808
-1.5618302 5.1097431 -0.89077216
-2.1737502 7.1117239 -0.82888305
-2.6315997 8.609642 -0.50286466
-3.7921579 12.406569 0
-3.7898138 12.398899 0.72418433
-0.87953097 2.865118 -0.98822963
-0.97997409 3.1923168 -0.92131585
-1.2237093 3.9862971 -0.92375612
-1.5672506 5.1054006 -0.89034462
-2.180064 7.1016722 -0.82801789
-2.6503897 8.6337824 -0.50446129
-3.8216548 12.449241 0
-3.8124197 12.419156 0.72563601
-0.8611483 2.7932005 -0.96378225
-0.98309225 3.1887352 -0.92062438
-1.2270266 3.9799547 -0.92262924
-1.5749295 5.1084046 -0.89119971
-2.1901689 7.1039805 -0.82859504
-2.6707714 8.6628523 -0.50634801
-3.8343966 12.43716 0
-3.8304851 12.424473 0.72621655
-0.85209584 2.752023 -0.94992858
-0.98100829 3.1683729 -0.91508704
-1.2325883 3.9809034 -0.92319375
-1.5795838 5.1015983 -0.89034462
-2.1979866 7.0988607 -0.82830703
-2.6627915 8.6000462 -0.50286466
-3.8517287 12.439968 0
-3.8493369 12.432244 0.72694212
-0.8737669 2.8099926 -0.97030193
-1.0064379 3.236656 -0.93515909
-1.2358872 3.9745541 -0.92206693
-1.5804105 5.0825243 -0.88734841
-2.2057924 7.0937228 -0.82801789
-2.6878412 8.6439686 -0.50562245
-3.8667572 12.435306 0
-3.8712993 12.449913 0.72824824
-0.85855436 2.755198 -0.95156008
-0.98674923 3.1665895 -0.91508704
-1.2345093 3.9616797 -0.91925305
-1.5880617 5.0962691 -0.88991541
-2.2123868 7.0997992 -0.82888305
-2.6915154 8.6373768 -0.50533187
-3.8804631 12.452845 0
-3.8788202 12.447572 0.72824824
-0.88402629 2.824918 -0.97600752
-0.98907471 3.1606019 -0.91370142
-1.2392954 3.9601851 -0.91925305
-1.5957532 5.0992508 -0.89077216
-2.220964 7.0971208 -0.82888305
-2.7197998 8.6911573 -0.50867021
-3.8962867 12.450638 0
-3.8977373 12.455273 0.72897381
-0.87335908 2.7790453 -0.96052235
-1.0049274 3.1976981 -0.92477602
-1.2463657 3.9659591 -0.92094225
-1.5988349 5.087523 -0.88906032
-2.2279885 7.0895019 -0.82830703
-2.7240672 8.6680336 -0.50750911
-3.9136665 12.453362 0
-3.9159005 12.460469 0.72955436
-0.88415641 2.8015625 -0.96867359
-1.0012414 3.1725616 -0.91785574
-1.2526847 3.9692917 -0.92206693
-1.6057528 5.0880332 -0.88948786
-2.2357724 7.084331 -0.82801789
-2.7314107 8.6548233 -0.50692856
-3.9326267 12.46103 0
-3.9372098 12.475553 0.73071551
-0.89351171 2.8193321 -0.97519016
-1.0088631 3.183305 -0.92131585
-1.2559462 3.9629357 -0.92094225
-1.6095722 5.0787458 -0.88820356
-2.2419889 7.0742345 -0.82715386
-2.7340176 8.6267519 -0.50547743
-3.961046 12.498443 0
-3.9562056 12.483169 0.73144102
-0.8856765 2.7829289 -0.96296805
-1.0165122 3.1940343 -0.92477602
-1.2645857 3.9735191 -0.92375612
-1.6172662 5.0816941 -0.88906032
-2.2489648 7.0665865 -0.82657671
-2.7310436 8.5813503 -0.50301021
-3.9650972 12.458933 0
-3.9736509 12.48581 0.73187661
-0.90634149 2.835999 -0.9817099
-1.01579 3.1784701 -0.92062438
-1.2655194 3.9598889 -0.92094225
-1.6234052 5.0797362 -0.88906032
-2.2512028 7.0441537 -0.82427037
-2.7279642 8.5359697 -0.50054294
-3.9825258 12.461572 0
-3.9903152 12.485946 0.73216659
-0.89088726 2.7760694 -0.96133655
-1.0050638 3.1318514 -0.90747261
-1.2648675 3.9414189 -0.91700149
-1.629542 5.0777712 -0.88906032
-2.2573438 7.0340471 -0.82340634
-2.7239826 8.4881277 -0.49793017
-0 0 0
-4.0093684 12.493483 0.73289216
-0.90030563 2.7938106 -0.96785629
-1.0250056 3.1807773 -0.92200732
-1.273525 3.9519775 -0.91981536
-1.6372495 5.0806804 -0.88991541
-2.26108 7.0165391 -0.82167602
-2.7334406 8.4823589 -0.49778518
-0 0 0
-3.7479203 11.630472 0.68253142
-0.90140015 2.7856729 -0.96541375
-1.027305 3.1747673 -0.92062438
-1.2782992 3.9504359 -0.91981536
-1.6394365 5.0664887 -0.88777596
-2.2719462 7.0211868 -0.82254118
-2.7516861 8.503768 -0.49923629
-0 0 0
-3.7691696 11.648183 0.68383753
-0.91240162 2.8080835 -0.97356182
-1.0311403 3.1735237 -0.92062438
-1.2791464 3.9368081 -0.91700149
-1.6495227 5.0767088 -0.88991541
-2.2844238 7.0307336 -0.82398236
-2.7860498 8.5745792 -0.50359076
-0 0 0
-3.7856512 11.651036 0.68427306
-0.90506297 2.7740874 -0.96215385
-1.0349741 3.1722753 -0.92062438
-1.2894199 3.9521711 -0.92094225
-1.6540648 5.0698357 -0.88906032
-2.2905099 7.0205889 -0.8231172
-2.8221958 8.6502476 -0.50823468
-0 0 0
-3.7997265 11.646454 0.68427306
-0.90148699 2.7518461 -0.95481682
-1.0450546 3.1900952 -0.92616165
-1.2910303 3.9409516 -0.91869068
-1.6585896 5.0629497 -0.88820356
-2.3006032 7.022737 -0.82369435
-2.8496327 8.6986837 -0.51128244
-0 0 0
-3.8113685 11.634443 0.68383753
-0.91021812 2.7671921 -0.96052235
-1.0379324 3.1554615 -0.91647005
-1.3013464 3.9562776 -0.92262924
-1.6655104 5.0633874 -0.88863271
-2.3066618 7.0125785 -0.82282919
-2.8658254 8.7125158 -0.51229858
-0 0 0
-3.8164949 11.602685 0.68224144
-0.93138957 2.8200715 -0.97926736
-1.0496136 3.1780317 -0.92339301
-1.3053298 3.9522917 -0.92206693
-1.6700157 5.0564914 -0.88777596
-2.3151336 7.0097861 -0.82282919
-2.8747194 8.7041073 -0.51200801
-0 0 0
-3.8125854 11.543788 0.6790486
-0.91379088 2.7556005 -0.95726252
-1.0471357 3.157711 -0.91785574
-1.3077043 3.9434741 -0.92037773
-1.672085 5.0422893 -0.88563657
-2.3227885 7.0045314 -0.82254118
-2.8893232 8.7129564 -0.51273358
-0 0 0
-4.1708393 12.577457 0.74014884
-0.92883241 2.7896721 -0.96948779
-1.0557041 3.1707206 -0.92200732
-1.3148772 3.9491258 -0.92206693
-1.6822304 5.0524411 -0.88777596
-2.3312504 7.0017195 -0.82254118
-2.9047756 8.7242556 -0.5136047
-0 0 0
-4.1835732 12.56502 0.73971385
-0.91966456 2.7510421 -0.95644832
-1.0547636 3.1551714 -0.91785574
-1.3204527 3.9499416 -0.92262924
