# .PCD v0.7 - Point Cloud Data file format
VERSION 0.7
FIELDS x y z
SIZE 4 4 4
TYPE F F F
COUNT 1 1 1
WIDTH 1544
HEIGHT 1
VIEWPOINT 0 0 0 1 0 0 0
POINTS 1544
DATA ascii
8.2840662 -4.1205673 -0.51679748
8.8428316 -4.3985019 0
8.8073997 -4.3808775 0.54944533
2.538924 -1.2590585 -0.93444663
2.9669642 -1.4713247 -0.91370142
3.5605018 -1.7656614 -0.88041669
4.7569447 -2.3589802 -0.88520902
7.4130473 -3.6761479 -0.92228538
8.2960253 -4.1140189 -0.51723301
8.8458109 -4.3866587 0
8.8057098 -4.3667727 0.54901034
2.5470841 -1.2592728 -0.93688917
2.9642463 -1.4655169 -0.91231841
3.564908 -1.7624829 -0.880979
4.7597914 -2.3532307 -0.88520902
7.4244332 -3.6706238 -0.92314941
8.3103075 -4.1085982 -0.51781356
8.8511047 -4.375967 0
8.8156338 -4.3584304 0.54930037
2.5064883 -1.2354358 -0.92140716
2.9615099 -1.4597138 -0.91093278
3.5601957 -1.7548029 -0.87928987
4.7580218 -2.3452055 -0.88435227
7.428863 -3.6616499 -0.92314941
8.3175945 -4.0997014 -0.51795858
8.8493891 -4.3618207 0
8.813899 -4.3443274 0.54886478
2.5368145 -1.2465757 -0.93200094
2.9632716 -1.4561343 -0.91093278
3.548635 -1.7437785 -0.87591362
4.7608523 -2.3394549 -0.88435227
7.4379292 -3.6549547 -0.92372656
8.3155441 -4.0862093 -0.51752305
8.8593197 -4.3534179 0
8.8191423 -4.3336744 0.54886478
2.5627277 -1.2554674 -0.94096321
2.9425039 -1.4415177 -0.9040125
3.5575783 -1.7428397 -0.87760067
4.7590694 -2.331444 -0.88349712
7.4446602 -3.6471014 -0.92401457
8.3204746 -4.0761585 -0.51752305
8.8622389 -4.3415661 0
8.8220406 -4.3218732 0.54871976
2.5398195 -1.2404416 -0.93200094
2.9712949 -1.4511731 -0.91231841
3.5528388 -1.7351977 -0.87591362
4.7549605 -2.3223112 -0.88221282
7.4513836 -3.6392374 -0.92430258
8.3230619 -4.0649629 -0.51737803
8.8651419 -4.3297138 0
8.8319311 -4.3134933 0.54901034
2.5324278 -1.2330439 -0.9287411
2.9685307 -1.4453832 -0.91093278
3.5777733 -1.7420247 -0.88154137
4.7693009 -2.3221817 -0.88435227
7.451129 -3.6279688 -0.92372656
8.3349781 -4.0583167 -0.51781356
8.8797178 -4.3235517 0
8.8371363 -4.3028183 0.54901034
2.5561466 -1.240774 -0.93688917
2.9725382 -1.4428939 -0.91162694
3.5593054 -1.7277154 -0.87647593
4.7813411 -2.3209012 -0.88606411
7.4531827 -3.6178346 -0.92343855
8.3445463 -4.0505095 -0.5181036
8.8872833 -4.3139586 0
8.8470001 -4.2944045 0.54930037
2.5643203 -1.2409154 -0.93933481
2.9629817 -1.433834 -0.90816414
3.5659602 -1.7256248 -0.87760067
4.7818336 -2.3140051 -0.88563657
7.4622006 -3.6110773 -0.92401457
8.3494349 -4.0404239 -0.5181036
8.8924894 -4.3032169 0
8.8428259 -4.2791839 0.54871976
2.5502331 -1.2302974 -0.93362927
2.9534163 -1.4248034 -0.90470397
3.5771968 -1.7257309 -0.87985218
4.7753778 -2.3037639 -0.88392466
7.464231 -3.6009352 -0.92372656
8.3660097 -4.0359764 -0.51882917
8.8953323 -4.2913351 0
8.84799 -4.268496 0.54871976
2.6051753 -1.2529248 -0.95318848
2.9709642 -1.4288461 -0.90954977
3.5655448 -1.7148018 -0.87647593
4.7758465 -2.2968805 -0.88349712
7.4615817 -3.5885494 -0.9228614
8.3802471 -4.0303698 -0.51940972
8.8887863 -4.2749448 0
8.8484631 -4.2555518 0.54842979
2.57549 -1.2348185 -0.94178051
2.9704285 -1.4241717 -0.9088583
3.5767789 -1.7148863 -0.8787275
4.7786183 -2.2911081 -0.88349712
7.4729114 -3.5828867 -0.92372656
8.3851109 -4.0202408 -0.51940972
8.9009876 -4.2675776 0
8.8535986 -4.2448568 0.54842979
2.6126511 -1.2487551 -0.95481682
3.0196786 -1.4432999 -0.92339301
3.5765581 -1.7094685 -0.87816513
4.790648 -2.2897606 -0.88520902
7.465569 -3.5682786 -0.92228538
8.3946562 -4.0123496 -0.51970029
8.9037914 -4.2556982 0
8.8540277 -4.2319126 0.54813921
2.5606165 -1.2200856 -0.93526077
2.9715903 -1.4159069 -0.90816414
3.5786209 -1.7051457 -0.87816513
4.7841411 -2.2795534 -0.88349712
7.472208 -3.5603669 -0.92257339
8.3971548 -4.0010867 -0.51955527
8.9089279 -4.2449365 0
8.8591347 -4.2212114 0.54813921
2.5821795 -1.2265339 -0.94259471
2.968771 -1.4101646 -0.90678114
3.5691965 -1.6953663 -0.8753491
4.7915254 -2.2759719 -0.88435227
7.4694934 -3.5480053 -0.92170823
8.3972845 -3.9887054 -0.5192647
8.9140501 -4.234169 0
8.868927 -4.2127357 0.54842979
2.5590854 -1.2117765 -0.93362927
2.9818077 -1.4119437 -0.91024125
3.5804281 -1.695402 -0.87760067
4.7942719 -2.2701805 -0.88435227
7.4784551 -3.5411932 -0.92228538
8.4044437 -3.9796669 -0.51940972
8.9121008 -4.2200527 0
8.874011 -4.2020159 0.54842979
2.553849 -1.2055213 -0.93118674
2.981245 -1.4072698 -0.90954977
3.5663962 -1.6834853 -0.87366205
4.794692 -2.2632911 -0.88392466
7.485065 -3.5332575 -0.92257339
8.4068985 -3.9684007 -0.5192647
8.9219055 -4.2115049 0
8.8861246 -4.1946149 0.54886478
2.6059923 -1.2282106 -0.94992858
3.0115941 -1.4193716 -0.91854721
3.5811989 -1.6878277 -0.8770383
4.791419 -2.2582073 -0.88306957
7.4825144 -3.5265272 -0.92199624
8.411643 -3.9644277 -0.51940972
8.9267998 -4.2072225 0
8.8839607 -4.1870322 0.54857481
2.5761607 -1.2103487 -0.93852067
2.9951417 -1.4071971 -0.91300994
3.5763342 -1.6802568 -0.8753491
4.7987862 -2.2545972 -0.88392466
7.4867702 -3.5174835 -0.92199624
8.4117279 -3.9520533 -0.51911968
8.9295235 -4.1953273 0
8.8890133 -4.1762948 0.54857481
2.5843296 -1.2103769 -0.94096321
3.0104759 -1.4099635 -0.91716421
3.5737643 -1.673781 -0.87422442
4.7991848 -2.2477095 -0.88349712
7.4816546 -3.5040507 -0.9208442
8.4306116 -3.9484971 -0.51999027
8.9392958 -4.1867404 0
8.8917027 -4.1644497 0.54842979
2.5589242 -1.1947103 -0.93118674
2.982619 -1.3925247 -0.90816414
3.5826933 -1.6726873 -0.87591362
4.8135252 -2.2473378 -0.88563657
7.4882245 -3.4961011 -0.92113221
8.4259586 -3.9339104 -0.51940972
8.9443483 -4.1759357 0
8.8967276 -4.1537027 0.54842979
2.5581188 -1.1905714 -0.93036944
2.9797547 -1.3868047 -0.90678114
3.5893147 -1.6704993 -0.8770383
4.8069277 -2.2371874 -0.88392466
7.4854064 -3.4837754 -0.92026705
8.4330683 -3.9248259 -0.51955527
8.9446726 -4.162931 0
8.9017401 -4.1429501 0.54842979
2.564044 -1.189562 -0.93200094
3.0041816 -1.3937594 -0.91370142
3.5959449 -1.6683018 -0.87816513
4.8189421 -2.2356989 -0.88563657
7.4896102 -3.4747281 -0.92026705
8.4401598 -3.9157257 -0.51970029
8.9567719 -4.1554031 0
8.9090948 -4.1332836 0.54857481
2.5879083 -1.1968358 -0.94014901
2.9967554 -1.3859161 -0.91093278
3.5864203 -1.6586198 -0.8753491
4.8193121 -2.2287979 -0.88520902
7.4938035 -3.4656758 -0.92026705
8.4425287 -3.9044349 -0.51955527
8.9594269 -4.143486 0
8.911726 -4.1214256 0.54842979
2.5713959 -1.1854298 -0.93362927
3.0257676 -1.3948979 -0.91923869
3.6045766 -1.6617326 -0.87928987
4.8150058 -2.219748 -0.88392466
7.4932923 -3.4544549 -0.91969103
8.4495974 -3.8953178 -0.51970029
8.9597044 -4.1304803 0
8.9166994 -4.1106548 0.54842979
2.5832415 -1.1833296 -0.93688917
3.015449 -1.381315 -0.91508704
3.615514 -1.6561924 -0.880979
4.8156924 -2.2059693 -0.88306957
7.5039678 -3.4374127 -0.91997904
8.4589863 -3.874887 -0.51970029
8.9696598 -4.1088161 0
8.9289675 -4.0901756 0.54857481
2.5936625 -1.1843139 -0.94014901
3.0148358 -1.3766294 -0.91439557
3.601331 -1.6444337 -0.8770383
4.8393688 -2.2097445 -0.88692087
7.4892931 -3.4197483 -0.91767269
8.4660234 -3.8657415 -0.51984525
8.974618 -4.0979748 0
8.9339027 -4.0793839 0.54857481
2.6355793 -1.1996074 -0.95481682
2.9776819 -1.3553184 -0.90262949
3.5986946 -1.6379778 -0.87591362
4.8303461 -2.198575 -0.88477981
7.505188 -3.4160531 -0.91911387
8.4683256 -3.8544338 -0.51970029
8.9866619 -4.0903592 0
8.9435511 -4.0707369 0.54886478
2.5717649 -1.1668124 -0.93118674
2.9975855 -1.3600078 -0.90816414
3.5983505 -1.6325755 -0.8753491
4.8189774 -2.1863751 -0.88221282
7.5069571 -3.4059143 -0.91882586
8.4706125 -3.8431261 -0.51955527
8.9892302 -4.0784235 0
8.9390068 -4.0556369 0.54828477
2.5709145 -1.1626828 -0.93036944
3.0243735 -1.3677573 -0.91577858
3.6072683 -1.6313684 -0.8770383
4.8426642 -2.1900699 -0.88606411
7.5157757 -3.3989706 -0.91940188
8.4799805 -3.8350275 -0.51984525
8.9894142 -4.0654159 0
8.9439011 -4.0448332 0.54828477
2.5948541 -1.1697348 -0.93852067
3.0351725 -1.3682261 -0.91854721
3.611551 -1.6280518 -0.87760067
4.8312702 -2.1778891 -0.88349712
7.5080895 -3.3845732 -0.9179607
8.4822416 -3.8237114 -0.51970029
8.9966898 -4.0556197 0
8.948782 -4.0340233 0.54828477
2.5940135 -1.1655866 -0.93770647
3.0322511 -1.3625031 -0.91716421
3.6065693 -1.6205655 -0.87591362
4.8385768 -2.1741521 -0.88435227
7.5216107 -3.379739 -0.91911387
8.4868565 -3.8134596 -0.51970029
9.0039549 -4.0458117 0
8.951273 -4.0221391 0.54813921
2.604434 -1.1664886 -0.94096321
3.0201533 -1.3526833 -0.91300994
3.5992491 -1.612052 -0.87366205
4.8365192 -2.1662076 -0.88349712
7.532773 -3.373821 -0.91997904
8.5009432 -3.8074508 -0.52028084
9.0017099 -4.0317364 0
8.9585047 -4.0123858 0.54828477
2.6193874 -1.1693882 -0.94585454
3.0034587 -1.3408513 -0.90747261
3.6081481 -1.6108063 -0.8753491
4.8485093 -2.1645479 -0.88520902
7.5179496 -3.3562815 -0.91767269
8.4912968 -3.7908185 -0.51940972
9.0089579 -4.0219207 0
8.9633465 -4.0015583 0.54828477
2.5681682 -1.1446618 -0.9271096
3.0225999 -1.3472072 -0.91300994
3.611448 -1.6096635 -0.87591362
4.8310585 -2.1532576 -0.88178527
7.5246964 -3.3538427 -0.91824871
8.5054502 -3.7909758 -0.52013528
9.0090017 -4.0154147 0
8.9633818 -3.9950812 0.54813921
2.6102109 -1.1596223 -0.94178051
3.0219352 -1.3425364 -0.91231841
3.6180301 -1.6073599 -0.8770383
4.8430405 -2.1515877 -0.88349712
7.5334749 -3.3468504 -0.91882586
8.5076523 -3.7796421 -0.51999027
9.0138474 -4.0045261 0
8.9682026 -3.9842479 0.54813921
2.6070859 -1.1544641 -0.94014901
3.0052037 -1.3307577 -0.90678114
3.6246207 -1.6050466 -0.87816513
4.8597155 -2.1519687 -0.88606411
7.5422392 -3.3398378 -0.91940188
8.5169697 -3.7714655 -0.52028084
9.0258207 -3.996794 0
8.9753933 -3.9744637 0.54828477
2.5790863 -1.1383399 -0.92955524
3.0182831 -1.3321897 -0.91024125
3.6172593 -1.5965618 -0.87591362
4.8458796 -2.1388421 -0.88306957
7.5415411 -3.3286352 -0.91882586
8.5262699 -3.7632682 -0.52057081
9.0234985 -3.9827316 0
8.982564 -3.964664 0.54842979
2.5962985 -1.1421907 -0.93526077
3.0061166 -1.3224821 -0.9060896
3.6215093 -1.5932121 -0.87647593
4.8414092 -2.1298831 -0.88178527
7.5479231 -3.3205607 -0.91911387
8.5331869 -3.7540085 -0.52071583
9.0402126 -3.9770644 0
8.9873476 -3.9538076 0.54842979
2.6135151 -1.1459976 -0.94096321
3.0375791 -1.3319449 -0.91508704
3.6350646 -1.593936 -0.87928987
4.8510342 -2.1271253 -0.88306957
7.5519295 -3.3114381 -0.91911387
8.5305843 -3.7405677 -0.52028084
9.0354872 -3.9619617 0
8.9921188 -3.9429452 0.54842979
2.6443462 -1.1557093 -0.95156008
3.0230923 -1.3212399 -0.91024125
3.625349 -1.5844556 -0.87647593
4.8559508 -2.1222892 -0.88349712
7.5606699 -3.3043845 -0.91969103
8.539856 -3.7323365 -0.52057081
9.0521889 -3.9562514 0
9.0064001 -3.9362395 0.54901034
2.5958855 -1.1307958 -0.93362927
3.0361843 -1.3225948 -0.91370142
3.6482239 -1.5892057 -0.88154137
4.8585119 -2.1164203 -0.88349712
7.5670261 -3.2962782 -0.91997904
8.5324507 -3.7168274 -0.51984525
9.052186 -3.9432302 0
9.0135298 -3.9263909 0.54915535
2.5904551 -1.1247082 -0.93118674
3.0285754 -1.3149285 -0.91093278
3.6314957 -1.5767009 -0.8770383
4.8634181 -2.1115694 -0.88392466
7.5686331 -3.2861035 -0.91969103
8.5416975 -3.7085826 -0.52013528
9.0569439 -3.9322894 0
9.0134954 -3.9134252 0.54886478
2.5872712 -1.1196122 -0.92955524
3.0117426 -1.3032974 -0.90539545
3.6287389 -1.5702956 -0.87591362
4.8612585 -2.1036544 -0.88306957
7.5725985 -3.2769558 -0.91969103
8.5461721 -3.6982591 -0.52013528
9.0473623 -3.9151435 0
9.008688 -3.8984075 0.54828477
2.6090455 -1.125294 -0.93688917
3.0110137 -1.2986647 -0.90470397
3.625963 -1.5638952 -0.87478673
4.8685064 -2.0998104 -0.88392466
7.5836706 -3.2708735 -0.92055506
8.5506344 -3.6879299 -0.52013528
9.0616455 -3.9083314 0
9.0253191 -3.8926637 0.54901034
2.5400183 -1.091884 -0.91162759
3.0125806 -1.2950256 -0.90470397
3.6371872 -1.5635267 -0.8770383
4.8521729 -2.0858157 -0.88050097
7.5828695 -3.2596669 -0.91997904
8.5574789 -3.6786246 -0.52028084
9.0639725 -3.8963525 0
9.0252371 -3.8797011 0.54871976
2.5981305 -1.1131473 -0.93200094
3.0418155 -1.3032404 -0.91300994
3.6437495 -1.561134 -0.87816513
4.8712096 -2.087029 -0.88349712
7.5963125 -3.2545764 -0.92113221
8.5690756 -3.6713488 -0.52071583
9.0686741 -3.8853977 0
9.0275326 -3.8677709 0.54857481
2.6040154 -1.1119465 -0.93362927
3.0341592 -1.2956232 -0.91024125
3.6339426 -1.5517381 -0.8753491
4.866643 -2.0781162 -0.88221282
7.6002393 -3.2453954 -0.92113221
8.5615597 -3.6558909 -0.51999027
9.0685711 -3.872391 0
9.0321999 -3.8568599 0.54857481
2.5848913 -1.1000893 -0.9262954
3.0495775 -1.2978525 -0.91439557
3.6404953 -1.549338 -0.87647593
4.8762388 -2.0752511 -0.88349712
7.6017776 -3.2351978 -0.9208442
8.5731459 -3.648597 -0.5204258
9.0756359 -3.8624487 0
9.0392418 -3.8469601 0.54871976
2.6044216 -1.1046861 -0.93281513
3.0465198 -1.2922056 -0.91300994
3.635345 -1.5419605 -0.87478673
4.8716507 -2.0663495 -0.88221282
7.6032929 -3.2249973 -0.92055506
8.5727596 -3.636204 -0.52013528
9.0755091 -3.8494494 0
9.0438833 -3.836035 0.54871976
2.5966485 -1.0976889 -0.92955524
3.0249755 -1.278757 -0.9060896
3.648905 -1.5425127 -0.87760067
4.8741441 -2.0604615 -0.88221282
7.6071844 -3.2158079 -0.92055506
8.5891209 -3.6309047 -0.52086139
9.0849428 -3.8405054 0
9.0485115 -3.8251045 0.54871976
2.5654356 -1.0826678 -0.91814733
3.055793 -1.2896091 -0.91508704
3.6287699 -1.5314174 -0.87253523
4.8753877 -2.0575163 -0.88221282
7.6091256 -3.2112114 -0.92055506
8.5913124 -3.6257148 -0.52086139
9.0848665 -3.8340049 0
9.0532131 -3.8206465 0.54886478
2.6441994 -1.1121458 -0.94585454
3.0712199 -1.2917498 -0.91923869
3.6540437 -1.5368845 -0.87816513
4.8826075 -2.0536163 -0.88306957
7.6249189 -3.2070279 -0.92199624
8.5980797 -3.6163378 -0.52100641
9.0894928 -3.823025 0
9.0554295 -3.8086982 0.54871976
2.5725989 -1.0783741 -0.91977566
3.0380795 -1.2734928 -0.9088583
3.651207 -1.5305017 -0.8770383
4.8874507 -2.0487065 -0.88349712
7.619256 -3.1938164 -0.9208442
8.5928574 -3.6019278 -0.5204258
9.0845041 -3.8080149 0
9.0600252 -3.7977538 0.54871976
2.612668 -1.0914606 -0.93362927
3.0372944 -1.2688512 -0.90816414
3.6460178 -1.5231496 -0.8753491
4.9017634 -2.0477462 -0.88563657
7.6302624 -3.1875958 -0.92170823
8.5995989 -3.5925431 -0.52057081
9.0987043 -3.801048 0
9.0670033 -3.7878044 0.54886478
2.623112 -1.0921028 -0.93688917
3.066618 -1.2767514 -0.91647005
3.6431684 -1.5167917 -0.87422442
4.8876429 -2.0349143 -0.88264036
7.6317229 -3.1773808 -0.92142022
8.5991402 -3.5801539 -0.52028084
9.0984898 -3.7880526 0
9.0691767 -3.7758482 0.54871976
2.6358421 -1.0936676 -0.94096321
3.0519447 -1.2663176 -0.91162694
3.6543863 -1.5162836 -0.87647593
4.8782449 -2.0240889 -0.88050097
7.6379433 -3.1691473 -0.92170823
8.5866575 -3.5627892 -0.5192647
9.1054621 -3.7780526 0
9.078537 -3.7668805 0.54901034
2.6600063 -1.0999284 -0.94911444
3.0696945 -1.2693369 -0.91647005
3.6632621 -1.5147806 -0.87816513
4.897295 -2.0250607 -0.88349712
7.6489401 -3.1628821 -0.92257339
8.5837498 -3.5494316 -0.51882917
9.1124229 -3.7680411 0
9.0806742 -3.7549124 0.54886478
2.6293454 -1.0835315 -0.93770647
3.0526698 -1.25798 -0.91093278
3.6533368 -1.5055099 -0.8753491
4.8997383 -2.0191417 -0.88349712
7.6551452 -3.1546221 -0.9228614
8.5688133 -3.531137 -0.51766801
9.1217861 -3.7590127 0
9.0948143 -3.7478976 0.54944533
2.5780652 -1.0587571 -0.91896147
3.056515 -1.2552463 -0.91162694
3.6645548 -1.5049555 -0.87760067
4.8926764 -2.0093191 -0.88178527
7.6733112 -3.1512673 -0.92459172
8.5730734 -3.5207806 -0.51766801
9.123908 -3.7469966 0
9.0801163 -3.7290123 0.54828477
2.5976422 -1.0631306 -0.9254812
3.0371261 -1.2429972 -0.90539545
3.6452088 -1.4918656 -0.87253523
4.8879709 -2.0004878 -0.88050097
7.6723213 -3.1400321 -0.92401457
8.5701141 -3.5074694 -0.51723301
9.1380625 -3.7399125 0
9.0918226 -3.7209878 0.54871976
2.6195199 -1.068391 -0.93281513
3.0641809 -1.2497493 -0.91300994
3.6611297 -1.4932194 -0.87591362
4.9094005 -2.0023358 -0.88392466
7.6785026 -3.1317351 -0.92430258
8.5671253 -3.4941666 -0.51679748
9.1401672 -3.7278862 0
9.0963125 -3.7099996 0.54871976
2.6459978 -1.0754629 -0.94178051
3.0749853 -1.2498245 -0.91577858
3.6558673 -1.4859233 -0.87422442
4.897552 -1.9906046 -0.88135773
7.6918654 -3.1263504 -0.92545575
8.5641174 -3.4808762 -0.51636189
9.1398478 -3.7148814 0
9.0959787 -3.6970508 0.54842979
2.6312575 -1.065769 -0.93607497
3.0532451 -1.2366916 -0.9088583
3.660013 -1.4824579 -0.87478673
4.9070845 -1.9875739 -0.88264036
7.6908474 -3.115114 -0.92487973
8.5683165 -3.4705255 -0.51636189
9.1395016 -3.701879 0
9.1100731 -3.6899593 0.54901034
2.6462905 -1.0681378 -0.94096321
3.0617096 -1.2358158 -0.91093278
3.6688724 -1.4808884 -0.87647593
4.902348 -1.9787635 -0.88135773
7.6970019 -3.106786 -0.92516774
8.5797348 -3.4630885 -0.51679748
9.1512098 -3.6937563 0
9.1097012 -3.677002 0.54871976
2.6590512 -1.0695537 -0.9450404
3.0445802 -1.2246257 -0.90539545
3.6706591 -1.4764543 -0.87647593
4.9047356 -1.9728384 -0.88135773
7.7007504 -3.0974834 -0.92516774
8.5911474 -3.4556291 -0.51723301
9.1532545 -3.681726 0
9.1189632 -3.667933 0.54901034
2.6511648 -1.0626618 -0.94178051
3.064687 -1.2284132 -0.91093278
3.6677189 -1.4701253 -0.8753491
4.916647 -1.9707309 -0.88306957
7.7140908 -3.0920255 -0.92632091
8.592907 -3.4442799 -0.51708806
9.1625223 -3.6725981 0
9.1137409 -3.6530449 0.54842979
2.6386709 -1.0539551 -0.93688917
3.0638416 -1.2237796 -0.91024125
3.671859 -1.4666377 -0.87591362
4.9285512 -1.9685938 -0.88477981
7.7106128 -3.079823 -0.92545575
8.6091261 -3.4387131 -0.51781356
9.166954 -3.6615243 0
9.1253805 -3.6449187 0.54886478
2.5917206 -1.0315723 -0.91977566
3.0606606 -1.2182229 -0.9088583
3.6689024 -1.4603188 -0.87478673
4.9142375 -1.9559947 -0.88178527
7.7215405 -3.0733745 -0.92632091
8.6060295 -3.4254243 -0.51737803
9.1616993 -3.6465952 0
9.1273661 -3.6329298 0.54871976
2.6566575 -1.0555601 -0.94259471
3.0800478 -1.2237843 -0.91439557
3.6863155 -1.4646704 -0.8787275
4.8987164 -1.9463893 -0.87878907
7.7209945 -3.0677547 -0.9260329
8.6056852 -3.4192657 -0.51723301
9.1759911 -3.6458635 0
9.1368065 -3.6302943 0.54915535
2.6188664 -1.0368826 -0.9287411
3.1001761 -1.2274466 -0.91993022
3.6809928 -1.4574082 -0.8770383
4.9201589 -1.9480287 -0.88221282
7.7295008 -3.0603259 -0.92660892
8.6098099 -3.408865 -0.51723301
9.1852341 -3.6366913 0
9.1363497 -3.6173365 0.54886478
2.6683972 -1.0527654 -0.94585454
3.054992 -1.2052889 -0.9060896
3.6827512 -1.4529594 -0.8770383
4.9272895 -1.9439683 -0.88306957
7.7283854 -3.0490873 -0.9260329
8.6139231 -3.3984592 -0.51723301
9.1896219 -3.6255901 0
9.1431379 -3.6072509 0.54901034
2.6719654 -1.0504438 -0.94666874
3.0751245 -1.2089398 -0.91162694
3.6821418 -1.4475796 -0.87647593
4.9367952 -1.9408282 -0.88435227
7.7392783 -3.042583 -0.92689693
8.6204386 -3.3889983 -0.51737803
9.1964149 -3.6154349 0
9.1354008 -3.5914478 0.54828477
2.6433177 -1.0354955 -0.93607497
3.0672393 -1.201563 -0.9088583
3.6886153 -1.4449813 -0.87760067
4.934361 -1.9329908 -0.88349712
7.7525821 -3.0370033 -0.9280501
8.6269445 -3.3795266 -0.51752305
9.1813917 -3.5967262 0
9.1469851 -3.5832474 0.54871976
2.6123376 -1.0197202 -0.924667
3.0640104 -1.1960297 -0.90747261
3.6785262 -1.4359045 -0.87478673
4.9319057 -1.9251584 -0.88264036
7.7514319 -3.0257542 -0.92747408
8.63344 -3.370044 -0.51766801
9.1905842 -3.5875242 0
9.1561537 -3.574084 0.54901034
2.6342971 -1.0246257 -0.93200094
3.0724699 -1.1950557 -0.90954977
3.6873648 -1.4342227 -0.87647593
4.9270577 -1.9164088 -0.88135773
7.7502565 -3.014509 -0.92689693
8.6399345 -3.3605545 -0.51781356
9.2021818 -3.5792439 0
9.1556177 -3.5611324 0.54871976
2.6124918 -1.0125118 -0.92385286
3.1043196 -1.2031273 -0.91854721
3.6843522 -1.4279281 -0.8753491
4.9365435 -1.9132344 -0.88264036
7.7563119 -3.0060794 -0.92718607
8.6342974 -3.3463564 -0.51723301
9.2040758 -3.5671828 0
9.1696053 -3.553823 0.54930037
2.6436846 -1.0209286 -0.93444663
3.0683258 -1.1849151 -0.90747261
3.6931882 -1.4262221 -0.8770383
4.9316745 -1.9044964 -0.88135773
7.7623491 -2.9976361 -0.92747408
8.6407557 -3.3368561 -0.51737803
9.2083788 -3.5560589 0
9.1690493 -3.5408704 0.54901034
2.6402984 -1.0159566 -0.93281513
3.0627289 -1.178503 -0.90539545
3.6735685 -1.413547 -0.87197286
4.9315696 -1.8976115 -0.88092852
7.7659655 -2.9882548 -0.92747408
8.6423588 -3.3254807 -0.51723301
9.2223845 -3.5486681 0
9.1781664 -3.5316534 0.54930037
2.6415241 -1.0127656 -0.93281513
3.0852399 -1.1828871 -0.91162694
3.6918836 -1.4154755 -0.87591362
4.9386573 -1.893491 -0.88178527
7.767158 -2.9779439 -0.92718607
8.6318092 -3.3094528 -0.51636189
9.2193737 -3.5347261 0
9.1775789 -3.518702 0.54901034
2.7073941 -1.0342698 -0.95563412
3.0843165 -1.1782604 -0.91093278
3.6983337 -1.4128252 -0.8770383
4.9409413 -1.8875222 -0.88178527
7.7779922 -2.971323 -0.9280501
8.6479454 -3.3036594 -0.51708806
9.2309332 -3.5263708 0
9.1939583 -3.5122459 0.5497359
2.5977652 -0.98879439 -0.91651583
3.081053 -1.1727496 -0.90954977
3.6952934 -1.4065495 -0.87591362
4.9432187 -1.8815507 -0.88178527
7.7791615 -2.9610033 -0.92776209
8.647069 -3.2913573 -0.51679748
9.230319 -3.5133612 0
9.1909084 -3.4983602 0.54930037
2.6451778 -1.0031836 -0.93281513
3.091851 -1.1725844 -0.91231841
3.692234 -1.4002796 -0.87478673
4.9574876 -1.880127 -0.88392466
7.7851501 -2.952518 -0.9280501
8.6583309 -3.2836716 -0.51723301
9.2394285 -3.5040531 0
9.1975555 -3.4881728 0.54944533
2.6903193 -1.0165869 -0.94830024
3.0768356 -1.1626393 -0.90747261
3.6986816 -1.3976153 -0.87591362
4.9525495 -1.8714124 -0.88264036
7.7959728 -2.9458525 -0.92891526
8.6574259 -3.2713687 -0.51694244
9.2387819 -3.4910448 0
9.196907 -3.4752216 0.54915535
2.6614776 -1.0020152 -0.93770647
3.09233 -1.1642261 -0.91162694
3.7074947 -1.3958284 -0.87760067
4.9548068 -1.8654269 -0.88264036
7.7874255 -2.9318748 -0.92747408
8.6613722 -3.2609055 -0.51694244
9.2478695 -3.4817147 0
9.2156858 -3.4695978 0.55002588
2.6881354 -1.0083448 -0.94666874
3.0937345 -1.1604887 -0.91162694
3.6972857 -1.3868865 -0.87478673
4.9522548 -1.8576372 -0.88178527
7.7982302 -2.925189 -0.92833924
8.6604452 -3.2486141 -0.51665246
9.2471914 -3.468708 0
9.2125797 -3.4557247 0.54959089
2.6893518 -1.005096 -0.94666874
3.0763342 -1.1497235 -0.9060896
3.6894383 -1.3788599 -0.87253523
4.9544959 -1.8516519 -0.88178527
7.7993293 -2.9148562 -0.9280501
8.6692276 -3.2399647 -0.51694244
9.2586918 -3.4602664 0
9.2143068 -3.4436784 0.54944533
2.6135418 -0.97496426 -0.91977566
3.0793767 -1.1487408 -0.90678114
3.7045591 -1.3819609 -0.87591362
4.9532108 -1.847762 -0.88135773
7.7938256 -2.9074342 -0.92718607
8.6760569 -3.2365448 -0.51723301
9.263217 -3.4555807 0
9.2188272 -3.4390218 0.54959089
2.5834455 -0.95663142 -0.90836769
3.0821435 -1.1412958 -0.90678114
3.7197995 -1.3774152 -0.8787275
4.9600668 -1.8366772 -0.88178527
7.7983966 -2.8876903 -0.92689693
8.6741066 -3.2119596 -0.51665246
9.2666636 -3.4313793 0
9.2246675 -3.4158285 0.54944533
2.7121291 -1.0005572 -0.95318848
3.0835204 -1.1375707 -0.90678114
3.7000089 -1.3650054 -0.87366205
4.9622822 -1.8306825 -0.88178527
7.8067379 -2.8800576 -0.92747408
8.6779814 -3.2014761 -0.51665246
9.273243 -3.4210799 0
9.2312336 -3.4055817 0.54959089
2.6901419 -0.98875445 -0.9450404
3.1225688 -1.1476918 -0.91785574
3.7040381 -1.3614093 -0.87422442
4.9572597 -1.8220277 -0.88050097
7.8102121 -2.8706226 -0.92747408
8.6769609 -3.1891937 -0.51636189
9.2675991 -3.4062812 0
9.2377777 -3.3953207 0.5497359
2.7075741 -0.99144977 -0.95074278
3.088614 -1.1309776 -0.90747261
3.717608 -1.3613003 -0.8770383
4.9618659 -1.8169183 -0.88092852
7.8112488 -2.8602948 -0.92718607
8.6881304 -3.1813881 -0.51679748
9.2888165 -3.4013455 0
9.2418737 -3.3841562 0.5497359
2.6367972 -0.96192127 -0.9254812
3.1017601 -1.1315429 -0.91093278
3.7001541 -1.3498409 -0.87253523
4.9640579 -1.8109215 -0.88092852
7.8219814 -2.8535111 -0.9280501
8.6992931 -3.1735604 -0.51723301
9.2953625 -3.3910103 0
9.248395 -3.3738763 0.54988092
2.7099621 -0.98490375 -0.95074278
3.0960584 -1.1252258 -0.9088583
3.7208869 -1.3523123 -0.8770383
4.9638319 -1.804046 -0.88050097
7.8132715 -2.8396411 -0.92660892
8.6933527 -3.1594963 -0.51665246
9.2945662 -3.378 0
9.2524652 -3.362699 0.54988092
2.6344707 -0.95386505 -0.92385286
3.0950501 -1.1206275 -0.90816414
3.7153485 -1.3452195 -0.8753491
4.9611855 -1.7963008 -0.87964582
7.8312936 -2.8354833 -0.92833924
8.7069368 -3.1525283 -0.51723301
9.2937422 -3.3649933 0
9.2565212 -3.3515167 0.54988092
2.707689 -0.97667629 -0.94911444
3.0987687 -1.1177406 -0.9088583
3.7193682 -1.3415939 -0.87591362
4.9730115 -1.7937889 -0.88135773
7.8347139 -2.8260186 -0.92833924
8.7034044 -3.1393595 -0.51679748
9.3100395 -3.3581755 0
9.2581224 -3.3394487 0.5497359
2.6414156 -0.94916582 -0.9254812
3.0930316 -1.1114495 -0.90678114
3.7161996 -1.3353785 -0.87478673
4.963089 -1.7834356 -0.87921661
7.8356819 -2.8156726 -0.9280501
8.71453 -3.1314778 -0.51723301
9.3091965 -3.3451653 0
9.2597075 -3.3273818 0.54959089
2.6658261 -0.95430201 -0.93362927
3.099092 -1.1094009 -0.90816414
3.7130306 -1.3291762 -0.87366205
4.9773316 -1.7817658 -0.88135773
7.8342128 -2.804461 -0.92747408
8.7158632 -3.1200709 -0.51708806
9.3156796 -3.3347907 0
9.268609 -3.3179407 0.54988092
2.6902616 -0.95938379 -0.94178051
3.1027999 -1.1065005 -0.9088583
3.7218068 -1.3272468 -0.8753491
4.9794812 -1.7757504 -0.88135773
7.842463 -2.7967286 -0.9280501
8.7196274 -3.1095371 -0.51708806
9.3172531 -3.3226588 0
9.2799568 -3.3093581 0.55031645
2.6518281 -0.94206768 -0.9279269
3.0734046 -1.0918336 -0.89986086
3.7114387 -1.3184966 -0.87253523
4.969521 -1.7654332 -0.87921661
7.8360877 -2.7837873 -0.92689693
8.7258244 -3.0998681 -0.51723301
9.3237114 -3.3122685 0
9.2766008 -3.2955325 0.54988092
2.6716044 -0.94545931 -0.93444663
3.0960047 -1.0956511 -0.9060896
3.7106361 -1.3131642 -0.87197286
4.9764953 -1.7611417 -0.88007337
7.8418913 -2.775182 -0.92718607
8.7295637 -3.0893223 -0.51723301
9.320344 -3.2983947 0
9.2903738 -3.2877886 0.55046147
2.6937218 -0.94962555 -0.94178051
3.0973263 -1.0919094 -0.9060896
3.7218053 -1.3120588 -0.87422442
4.9834571 -1.7568326 -0.88092852
7.8549957 -2.7691445 -0.92833924
8.7381868 -3.0804982 -0.51752305
9.3267841 -3.2879982 0
9.2918921 -3.2756975 0.55031645
2.6762114 -0.9398185 -0.93526077
3.115206 -1.0939825 -0.91093278
3.7185979 -1.3058786 -0.87309974
4.9807367 -1.7491103 -0.88007337
7.8558888 -2.7587917 -0.9280501
8.7419024 -3.0699377 -0.51752305
9.3332033 -3.2775877 0
9.2982922 -3.2653279 0.55046147
2.6820064 -0.93821478 -0.93688917
3.123632 -1.0927036 -0.91300994
3.7273614 -1.303899 -0.87478673
4.9925389 -1.7464813 -0.88178527
7.8543382 -2.747591 -0.92747408
8.7382545 -3.0568008 -0.51708806
9.3396111 -3.2671666 0
9.3071413 -3.2558079 0.55075204
2.7298174 -0.95123941 -0.95318848
3.089421 -1.0765479 -0.90262949
3.7241399 -1.2977238 -0.87366205
4.9849491 -1.7370688 -0.88007337
7.8649821 -2.7406526 -0.92833924
8.7517471 -3.0496571 -0.51766801
9.3386412 -3.254168 0
9.3086071 -3.2437022 0.55060649
2.7210536 -0.94634247 -0.94992858
3.1019163 -1.0788009 -0.9060896
3.7249234 -1.2954736 -0.87366205
4.9859977 -1.7340567 -0.88007337
7.8666368 -2.7359006 -0.92833924
8.7388668 -3.0392494 -0.51679748
9.3455172 -3.2502337 0
9.3081131 -3.2372251 0.55046147
2.7128534 -0.93981767 -0.94666874
3.1198046 -1.0807983 -0.91093278
3.7240872 -1.2901409 -0.87309974
4.9856663 -1.7271913 -0.87964582
7.8601608 -2.7230065 -0.92718607
8.747448 -3.0303907 -0.51708806
9.3518944 -3.23979 0
9.3193865 -3.2285283 0.550897
2.7209985 -0.93895853 -0.94911444
3.0902805 -1.0663899 -0.90193534
3.7256434 -1.28564 -0.87309974
4.9974561 -1.7245154 -0.88135773
7.8634453 -2.7135072 -0.92718607
8.7511034 -3.019819 -0.51708806
9.3533449 -3.2276397 0
9.3183632 -3.2155683 0.55060649
2.6894121 -0.92442369 -0.93770647
3.1058066 -1.0675497 -0.9060896
3.7295947 -1.2819625 -0.87366205
4.9898257 -1.715138 -0.87964582
7.8544903 -2.6998007 -0.92574489
8.7473717 -3.0067081 -0.51665246
9.3720093 -3.2214129 0
9.3296165 -3.2068412 0.55104202
2.6554496 -0.90916365 -0.9254812
3.1070943 -1.0637962 -0.9060896
3.7191238 -1.2733407 -0.87084818
4.996747 -1.7107688 -0.88050097
7.8552928 -2.6894679 -0.92545575
8.7608318 -2.9995031 -0.51723301
9.366046 -3.2067144 0
9.331028 -3.194725 0.550897
2.7056696 -0.92270678 -0.94259471
3.1202476 -1.0640891 -0.90954977
3.732682 -1.2729459 -0.87366205
5.0012379 -1.7055578 -0.88092852
7.8487444 -2.676635 -0.92430258
8.7619925 -2.9880772 -0.51708806
9.367444 -3.1945527 0
9.3397961 -3.1851239 0.55118704
2.727843 -0.92659056 -0.94992858
3.1191578 -1.059512 -0.9088583
3.7390244 -1.2700676 -0.87478673
4.9984384 -1.6978638 -0.88007337
7.8397303 -2.6629906 -0.9228614
8.7532873 -2.9733069 -0.51636189
9.3712969 -3.1832316 0
9.3362637 -3.1713314 0.55075204
2.6236072 -0.88764942 -0.91325593
3.1204357 -1.0557423 -0.9088583
3.7357473 -1.2639217 -0.87366205
5.0102129 -1.6951138 -0.88178527
7.8404946 -2.6526878 -0.92257339
8.7544146 -2.9618959 -0.51621693
9.3899326 -3.1769118 0
9.3548527 -3.1650431 0.55162257
2.650444 -0.89316159 -0.92222136
3.1145747 -1.0495669 -0.90678114
3.7396772 -1.2602174 -0.87422442
5.0098271 -1.6882397 -0.88135773
7.8412452 -2.6423869 -0.92228538
8.7555275 -2.9504869 -0.51607192
9.3789625 -3.1605754 0
9.3512802 -3.151247 0.55118704
2.6866708 -0.90175593 -0.93444663
3.1253541 -1.0489959 -0.90954977
3.7315619 -1.2524639 -0.87197286
5.0094228 -1.6813658 -0.88092852
7.8321743 -2.6287961 -0.9208442
8.7664785 -2.9423866 -0.51650745
9.3901787 -3.1517258 0
9.3624735 -3.1424267 0.55162257
2.7158785 -0.90790945 -0.94422305
3.121856 -1.0436264 -0.90816414
3.7403042 -1.2503717 -0.87366205
5.0017123 -1.6720562 -0.87921661
7.8353453 -2.6193306 -0.9208442
8.7848091 -2.9367335 -0.51737803
9.4013872 -3.1428533 0
9.3564062 -3.1278164 0.55104202
2.7052507 -0.90072399 -0.94014901
3.1183586 -1.0382699 -0.90678114
3.739404 -1.2450494 -0.87309974
5.015914 -1.6700685 -0.88135773
7.8213239 -2.6041408 -0.91882586
8.7908144 -2.9269366 -0.51752305
9.4002342 -3.1298454 0
9.3626413 -3.1173289 0.55118704
2.6547301 -0.88034099 -0.92222136
3.131515 -1.0384488 -0.91024125
3.7360775 -1.238929 -0.87197286
5.0130501 -1.6623889 -0.88050097
7.8146448 -2.5914319 -0.91767269
8.786952 -2.9138613 -0.51708806
9.4064865 -3.1193063 0
9.3540726 -3.1019249 0.55046147
0 -0 -0
3.1232386 -1.031517 -0.90747261
3.7351613 -1.2336178 -0.87141055
5.0174904 -1.6571348 -0.88092852
7.7981219 -2.5754983 -0.91536635
8.7978621 -2.905684 -0.51752305
9.4102488 -3.1079381 0
9.3627529 -3.0922515 0.55075204
2.6897151 -0.8847335 -0.93362927
3.1197209 -1.0261762 -0.9060896
3.7463038 -1.2322794 -0.87366205
5.0243711 -1.6526766 -0.88178527
7.7889457 -2.5620339 -0.91392517
8.8013668 -2.8950515 -0.51752305
9.4065781 -3.094125 0
9.3442602 -3.0736265 0.54944533
0 -0 -0
3.1352587 -1.0270904 -0.91024125
3.7405438 -1.225378 -0.87197286
5.0239272 -1.6458061 -0.88135773
7.7772837 -2.5477879 -0.91219485
8.8023911 -2.8836064 -0.51737803
9.4498806 -3.0957201 0
7.7528734 -2.5397913 0.45569053
2.7129905 -0.88512969 -0.94096321
3.1293399 -1.0209663 -0.90816414
3.7371953 -1.2192827 -0.87084818
5.01615 -1.6365496 -0.87964582
7.7729864 -2.5359843 -0.91133082
8.8379803 -2.883445 -0.5192647
9.4140282 -3.071384 0
7.7312288 -2.5223606 0.45423886
2.7140579 -0.8818509 -0.94096321
3.1448917 -1.0218372 -0.91231841
3.7459085 -1.2171195 -0.87253523
5.0156755 -1.6296917 -0.87921661
7.7686629 -2.5241916 -0.91046566
7.7541552 -2.5194778 -0.45540667
7.7000866 -2.5019097 0
7.731802 -2.5122149 0.45409387
2.6957905 -0.87411517 -0.93444663
3.1216395 -1.0121975 -0.90539545
3.7490671 -1.2156421 -0.87309974
5.0215478 -1.6282463 -0.88007337
7.7652707 -2.5179038 -0.90988964
7.7828674 -2.5236096 -0.45700336
7.7238746 -2.5044811 0
7.7259007 -2.5051379 0.45365831
2.7674007 -0.89364094 -0.95889401
3.1419594 -1.0145923 -0.91093278
3.7456927 -1.2095481 -0.87197286
5.0332828 -1.625333 -0.88178527
7.758462 -2.5053399 -0.90873647
7.7883816 -2.5150013 -0.45714834
7.7318435 -2.4967444 0
7.7511744 -2.5029864 0.45496443
2.7708292 -0.89105237 -0.95970821
3.1312437 -1.0069556 -0.90747261
3.7374759 -1.2019098 -0.86972135
5.0254679 -1.6161065 -0.88007337
7.7639437 -2.4967544 -0.90902448
7.7889433 -2.5047941 -0.45700336
7.7373395 -2.488199 0
0 -0 0
2.6424491 -0.84624577 -0.91488743
3.1396282 -1.0054677 -0.90954977
3.7582841 -1.2035925 -0.87422442
5.0371962 -1.6131648 -0.88178527
7.7644939 -2.4865835 -0.90873647
7.7696853 -2.488246 -0.45569667
7.7378545 -2.4780521 0
7.720088 -2.4723623 0.45278776
2.6976223 -0.86032254 -0.93362927
3.1288922 -0.99786264 -0.9060896
3.7573171 -1.1982791 -0.87366205
5.0293589 -1.6039572 -0.88007337
7.7650213 -2.4764116 -0.90844733
7.7776423 -2.4804366 -0.45598724
7.7284484 -2.4647477 0
7.7057381 -2.457505 0.45177165
2.6727543 -0.84883511 -0.924667
3.1420488 -0.99787742 -0.90954977
3.7514949 -1.1914303 -0.87197286
5.0263948 -1.5963235 -0.87921661
7.7581472 -2.4638956 -0.90729415
7.7756758 -2.4694624 -0.45569667
7.7661419 -2.4664345 0
7.7260399 -2.4536986 0.45278776
2.7562511 -0.87168771 -0.95318848
3.1241162 -0.98802823 -0.9040125
3.7626224 -1.1899612 -0.87422442
5.0454555 -1.5956681 -0.88221282
7.7685194 -2.4568601 -0.90815932
7.7959991 -2.4655507 -0.45671278
7.7790418 -2.4601879 0
9.416091 -2.9779184 0.55162257
2.766732 -0.87132645 -0.95644832
3.1396606 -0.98877275 -0.90816414
3.7567844 -1.1831235 -0.87253523
5.0400319 -1.5872564 -0.88092852
7.7788858 -2.4498031 -0.90902448
7.813848 -2.4608138 -0.4575839
9.4823036 -2.9862602 0
9.4469471 -2.9751253 0.55321926
2.6993928 -0.84653544 -0.93281513
3.148037 -0.98723125 -0.91024125
3.7485132 -1.175542 -0.87028366
5.0297012 -1.5773253 -0.87878907
7.7793746 -2.4396288 -0.90873647
7.7424293 -2.4280427 -0.45322946
9.4784622 -2.9724665 0
9.460453 -2.9668186 0.55379981
2.7287247 -0.85211396 -0.94259471
3.1348636 -0.97894126 -0.9060896
3.7523634 -1.1717713 -0.87084818
5.0414052 -1.5743076 -0.88050097
7.7823172 -2.4302273 -0.90873647
8.8664074 -2.7687624 -0.51882917
9.4696188 -2.9571304 0
9.4590654 -2.9538348 0.55350924
0 -0 -0
3.1504135 -0.97962075 -0.91024125
3.7707536 -1.1725155 -0.87478673
5.0457525 -1.5689763 -0.88092852
7.7951269 -2.4238942 -0.90988964
8.8623104 -2.7557344 -0.51839417
9.4856176 -2.9495521 0
9.4527025 -2.939317 0.55292869
2.7166142 -0.84113246 -0.93770647
3.1396146 -0.97210401 -0.90678114
3.7479002 -1.1604446 -0.86915898
5.0451951 -1.5621198 -0.88050097
7.7980504 -2.4144733 -0.90988964
8.8631439 -2.7442534 -0.51824856
9.4817142 -2.9357784 0
9.466176 -2.9309673 0.55350924
0 -0 -0
3.1335924 -0.96609157 -0.90470397
3.7541511 -1.1574109 -0.87028366
5.0421772 -1.5545114 -0.87964582
7.8059006 -2.4065719 -0.91046566
8.8614922 -2.7320123 -0.51795858
9.4902239 -2.9258516 0
9.4647493 -2.9179974 0.55321926
2.7540741 -0.84544277 -0.94992858
3.1515477 -0.96745884 -0.90954977
3.7604096 -1.1543666 -0.87141055
5.0465035 -1.5491704 -0.88007337
7.8137431 -2.3986547 -0.91104168
8.8573322 -2.7190146 -0.51752305
9.4962473 -2.9151483 0
9.4732313 -2.9080827 0.55350924
2.792912 -0.85367393 -0.96296805
3.1479115 -0.96218204 -0.90816414
3.7690938 -1.152051 -0.87309974
5.053277 -1.5445709 -0.88092852
7.8215876 -2.3907251 -0.91161883
8.8655853 -2.7098308 -0.51781356
9.4972668 -2.9029088 0
9.4543762 -2.8897989 0.55220312
0 -0 -0
3.1586721 -0.96129942 -0.91093278
3.7656169 -1.1460149 -0.87197286
5.0428624 -1.5347276 -0.87878907
7.8442659 -2.3872972 -0.91392517
8.8738203 -2.7006283 -0.5181036
9.5107269 -2.8944619 0
9.4628277 -2.8798845 0.55249316
0 -0 -0
3.1598313 -0.9574821 -0.91093278
3.7669988 -1.1414641 -0.87197286
5.0471678 -1.5293769 -0.87921661
7.8520908 -2.3793156 -0.91450119
8.8696146 -2.6876426 -0.51766801
9.5117292 -2.8822141 0
9.4762478 -2.8714626 0.5530737
2.7344699 -0.82498431 -0.94178051
3.1249652 -0.94279599 -0.90055233
3.7683752 -1.1369115 -0.87197286
5.0588427 -1.5262431 -0.88092852
7.8648648 -2.3728147 -0.91565436
8.8728552 -2.6769235 -0.51766801
9.5152044 -2.870719 0
9.47474 -2.8585107 0.55278367
2.7420611 -0.82546747 -0.94422305
3.1591616 -0.95103097 -0.91024125
3.7739322 -1.136101 -0.87309974
5.0622292 -1.5239286 -0.88135773
7.9009757 -2.3785021 -0.91969103
8.8670139 -2.6693175 -0.51723301
9.5169373 -2.8649697 0
9.4789505 -2.8535342 0.55292869
2.7714672 -0.83066893 -0.95400262
3.1555066 -0.9457739 -0.9088583
3.7631257 -1.1278905 -0.87028366
5.0468512 -1.512651 -0.87836152
7.9063187 -2.3696954 -0.91997904
8.8702326 -2.6586015 -0.51723301
9.525383 -2.854964 0
9.4898615 -2.8443177 0.55336428
2.7014213 -0.80611855 -0.92955524
3.1470311 -0.93909091 -0.9060896
3.7693598 -1.1247971 -0.87141055
5.065897 -1.5116907 -0.88135773
7.9166141 -2.36236 -0.9208442
8.8734388 -2.6478815 -0.51723301
9.5288248 -2.8434525 0
9.4833317 -2.8298769 0.55278367
0 -0 -0
3.1842299 -0.9460026 -0.91647005
3.7609735 -1.1173474 -0.86915898
5.0652518 -1.5048352 -0.88092852
7.924417 -2.3542645 -0.92142022
8.8641796 -2.6334584 -0.51650745
9.5297518 -2.8311932 0
9.4917212 -2.8198946 0.5530737
2.727067 -0.80659944 -0.93770647
3.1492913 -0.93148303 -0.9060896
3.7696328 -1.1149648 -0.87084818
5.0523014 -1.4943466 -0.87836152
7.9297338 -2.3454204 -0.92170823
8.8798113 -2.6264303 -0.51723301
9.5456514 -2.8233693 0
9.495121 -2.8084235 0.5530737
2.6972106 -0.79422569 -0.9271096
3.1455967 -0.92625839 -0.90470397
3.7855973 -1.1147141 -0.87422442
5.0614934 -1.4904169 -0.87964582
7.9300833 -2.3351073 -0.92142022
8.8730078 -2.6127629 -0.51665246
9.5440578 -2.8103614 0
9.5034981 -2.798418 0.55336428
2.740865 -0.80348265 -0.94178051
3.1635683 -0.92739773 -0.90954977
3.7771883 -1.10728 -0.87197286
5.0657516 -1.4850215 -0.88007337
7.930419 -2.3247967 -0.92113221
8.8886242 -2.6056938 -0.51737803
9.5524464 -2.800293 0
9.5093632 -2.787663 0.55350924
0 -0 -0
3.1598651 -0.92216748 -0.90816414
3.7785234 -1.1027153 -0.87197286
5.0724659 -1.4803363 -0.88092852
7.9605274 -2.3231812 -0.92430258
8.8768044 -2.5905855 -0.51650745
9.553318 -2.7880175 0
9.5127249 -2.7761707 0.55350924
2.7380471 -0.79547626 -0.94014901
3.1658001 -0.91974992 -0.90954977
3.7749777 -1.0967324 -0.87084818
5.0693254 -1.4727752 -0.88007337
7.9707823 -2.3157263 -0.92516774
8.8774252 -2.5791306 -0.51636189
9.5616827 -2.7779255 0
9.5210676 -2.7661259 0.55379981
2.8078587 -0.81208056 -0.96378225
3.1596768 -0.91383231 -0.90747261
3.7763002 -1.0921702 -0.87084818
5.0612373 -1.463796 -0.87836152
7.9735746 -2.3060935 -0.92516774
8.8780413 -2.5676808 -0.51621693
9.5625343 -2.7656479 0
9.5318842 -2.7567832 0.5542348
2.7100277 -0.77669418 -0.92955524
3.1498199 -0.90273869 -0.9040125
3.7691581 -1.0802411 -0.86859667
5.0622945 -1.4508541 -0.87793398
7.9865856 -2.2889562 -0.9260329
8.8867168 -2.5469337 -0.51636189
9.5816965 -2.7461152 0
9.5310316 -2.7315946 0.55379981
2.6919501 -0.76799446 -0.9230355
3.1726186 -0.90512586 -0.91024125
3.7900081 -1.0812627 -0.87309974
5.0837927 -1.4503704 -0.88135773
7.9992948 -2.2821426 -0.92718607
8.8947897 -2.5376213 -0.51665246
9.5925083 -2.7366755 0
9.5368223 -2.7207885 0.55394483
2.7475629 -0.78027153 -0.94178051
3.1592345 -0.89718091 -0.9060896
3.7815347 -1.0739059 -0.87084818
5.0707202 -1.4400175 -0.87878907
7.9970655 -2.2710609 -0.92660892
8.9028435 -2.52829 -0.51694244
9.595808 -2.7250829 0
9.5376053 -2.708554 0.55379981
2.7485037 -0.77695107 -0.94178051
3.1699729 -0.89609265 -0.9088583
3.7803774 -1.0686427 -0.87028366
5.074924 -1.4345871 -0.87921661
8.0047865 -2.262805 -0.92718607
8.9058924 -2.5175309 -0.51694244
9.5990944 -2.7134862 0
9.5383635 -2.6963186 0.55365425
2.7898848 -0.78500962 -0.95563412
3.1903734 -0.89769793 -0.91439557
3.781666 -1.064074 -0.87028366
5.0816007 -1.4298459 -0.88007337
7.9975557 -2.2503288 -0.9260329
8.9064283 -2.5060649 -0.51679748
9.5948572 -2.6997728 0
9.5441227 -2.6854973 0.55379981
2.8098714 -0.78697067 -0.96215385
3.1866195 -0.89248782 -0.91300994
3.7976341 -1.0636169 -0.87366205
5.0808554 -1.4230131 -0.87964582
8.0077333 -2.2427542 -0.92689693
8.906951 -2.4946012 -0.51665246
9.6006165 -2.6888785 0
9.5423517 -2.6725602 0.55350924
0 -0 -0
3.1466153 -0.87718475 -0.90124381
3.7817812 -1.0542505 -0.86972135
5.087512 -1.4182502 -0.88050097
8.0054598 -2.2316892 -0.92632091
8.9024467 -2.4817431 -0.51621693
9.6063623 -2.6779742 0
9.5530853 -2.6631222 0.55394483
2.7327151 -0.76002246 -0.93526077
3.1568127 -0.87797248 -0.9040125
3.7775261 -1.0506052 -0.86859667
5.0883679 -1.4151764 -0.88050097
8.0117855 -2.2282369 -0.92689693
8.9114571 -2.4784536 -0.51665246
9.6104832 -2.6728668 0
9.5672073 -2.6608307 0.55467039
2.695519 -0.74616969 -0.92222136
3.1530402 -0.87282014 -0.90262949
3.7934809 -1.0501059 -0.87197286
5.0876021 -1.4083428 -0.88007337
8.011981 -2.2178652 -0.92660892
8.9269648 -2.4711497 -0.51737803
9.6187277 -2.6626425 0
9.5578966 -2.6458032 0.55394483
2.7512167 -0.75801003 -0.94096321
3.1710162 -0.87367237 -0.90747261
3.7947469 -1.0455215 -0.87197286
5.0843458 -1.4008294 -0.87921661
8.0171471 -2.2088692 -0.92689693
8.9349489 -2.4617403 -0.51766801
9.6169147 -2.6496341 0
9.5711069 -2.6370134 0.55452538
2.7402148 -0.75141764 -0.93688917
3.1744866 -0.87050301 -0.90816414
3.7886539 -1.0389191 -0.87028366
5.0885177 -1.3953657 -0.87964582
8.0148258 -2.1978137 -0.92632091
8.9479408 -2.4536912 -0.51824856
9.6251335 -2.63939 0
9.5742865 -2.6254466 0.55452538
2.7554317 -0.75201178 -0.94178051
3.1755362 -0.86666662 -0.90816414
3.7997115 -1.0370164 -0.87253523
5.0901999 -1.3892163 -0.87964582
8.0249634 -2.1901712 -0.92718607
8.9609261 -2.4456141 -0.51882917
9.6885719 -2.6442029 0
9.5799561 -2.6145594 0.55467039
2.7181754 -0.73831594 -0.9287411
3.1765809 -0.86282897 -0.90816414
3.798512 -1.031759 -0.87197286
5.0968246 -1.3844092 -0.88050097
8.010129 -2.1757267 -0.92516774
8.9638748 -2.4347849 -0.51882917
9.7570543 -2.6502297 0
9.6031685 -2.6084311 0.55583149
2.7620082 -0.74663955 -0.94340891
3.1873085 -0.8616088 -0.91093278
3.8022063 -1.027831 -0.87253523
5.0885811 -1.3755701 -0.87878907
8.0202456 -2.168072 -0.9260329
8.9793596 -2.4273443 -0.51955527
9.8104868 -2.6520185 0
9.6639996 -2.6124196 0.55916929
2.8130276 -0.75678521 -0.96052235
3.1762366 -0.8544988 -0.90747261
3.798543 -1.0219171 -0.87141055
5.1001554 -1.3720882 -0.88050097
8.0178595 -2.1570342 -0.92545575
8.9822865 -2.4164927 -0.51955527
9.8413305 -2.6476004 0
9.7223482 -2.6155906 0.56236207
0 -0 -0
3.2063477 -0.85844624 -0.91577858
3.7973228 -1.01667 -0.87084818
5.0968547 -1.364598 -0.87964582
8.0229654 -2.1480155 -0.92574489
8.985199 -2.4056375 -0.51955527
9.8394995 -2.6343622 0
9.7380581 -2.6072032 0.56308818
2.7814169 -0.74107754 -0.94911444
3.1710174 -0.84488225 -0.90539545
3.7960863 -1.0114249 -0.87028366
5.093534 -1.3571154 -0.87878907
8.0255547 -2.1383197 -0.92574489
9.0031595 -2.3987916 -0.5204258
9.8451881 -2.6231406 0
9.6960011 -2.5833917 0.56047541
2.7655847 -0.73328149 -0.94340891
3.1599133 -0.83783585 -0.90193534
3.8120465 -1.0107458 -0.87366205
5.1001377 -1.352277 -0.87964582
8.0281324 -2.1286209 -0.92574489
8.9985142 -2.3859129 -0.51999027
9.8282251 -2.6059067 0
9.6463737 -2.5576897 0.55742759
2.7616937 -0.72867936 -0.94178051
3.1851857 -0.84041876 -0.9088583
3.8083465 -1.0048412 -0.87253523
5.0967989 -1.3448024 -0.87878907
8.035696 -2.1202374 -0.92632091
8.9988804 -2.3743758 -0.51984525
9.8112364 -2.5887177 0
9.6218271 -2.5387418 0.55583149
0 -0 -0
3.2007532 -0.84039086 -0.91300994
3.7972724 -0.99701315 -0.86972135
5.0934591 -1.3373404 -0.87793398
8.0357523 -2.10987 -0.9260329
9.009285 -2.3654811 -0.52028084
9.7791214 -2.5676093 0
9.6198559 -2.5257928 0.55554092
0 -0 -0
3.1750638 -0.82954621 -0.90539545
3.8132293 -0.99627918 -0.87309974
5.1124501 -1.3357254 -0.88092852
8.0357962 -2.0995057 -0.92574489
9.0045919 -2.3526223 -0.51984525
9.7268257 -2.5413196 0
9.6254225 -2.5148261 0.55568647
0 -0 -0
3.2052004 -0.83328408 -0.91370142
3.8095074 -0.99039102 -0.87197286
5.0941844 -1.3243798 -0.87750477
8.0408278 -2.0904446 -0.9260329
9.0149755 -2.3437023 -0.52028084
9.7046967 -2.5230153 0
9.6284542 -2.5031936 0.55568647
0 -0 -0
3.1722062 -0.82061553 -0.9040125
3.8180833 -0.98769695 -0.87366205
5.1156631 -1.3233668 -0.88092852
8.0358334 -2.0787833 -0.92516774
9.0228271 -2.3341079 -0.52057081
9.6901083 -2.5067265 0
9.6264353 -2.4902549 0.5553959
0 -0 -0
3.1804864 -0.81865865 -0.9060896
3.8192739 -0.98308277 -0.87366205
5.0973701 -1.3120652 -0.87750477
8.0408421 -2.0697162 -0.92545575
9.0306787 -2.3245006 -0.52086139
9.6855669 -2.4930692 0
9.6319513 -2.4792686 0.55554092
0 -0 -0
3.1688333 -0.81361806 -0.90262949
3.8198671 -0.98077518 -0.87366205
5.1031394 -1.3102635 -0.87836152
8.0370855 -2.0635726 -0.92487973
9.0270424 -2.3177507 -0.52057081
9.6895895 -2.4878638 0
9.6410007 -2.4753883 0.55597651
0 -0 -0
3.177099 -0.81164968 -0.90470397
3.811202 -0.97364324 -0.87141055
5.1121826 -1.3060032 -0.87964582
8.0470934 -2.0557811 -0.92574489
9.0298367 -2.3068416 -0.52057081
9.6976366 -2.4774435 0
9.6540546 -2.4663098 0.55655706
2.7442248 -0.69753259 -0.93362927
3.1926708 -0.81151956 -0.9088583
3.8172963 -0.9702881 -0.87253523
5.1013103 -1.2966614 -0.87750477
8.0545797 -2.0473294 -0.92632091
9.0401754 -2.2978501 -0.52100641
9.6930542 -2.4638002 0
9.6519957 -2.4533639 0.55626702
0 -0 -0
3.1936491 -0.80766124 -0.9088583
3.8332508 -0.969414 -0.87591362
5.1078553 -1.2917565 -0.87836152
8.0645733 -2.0394986 -0.92718607
9.0353851 -2.2850132 -0.52057081
9.7035952 -2.4540009 0
9.6599865 -2.4429724 0.55655706
0 -0 -0
3.1921828 -0.80318785 -0.90816414
3.8368809 -0.96540093 -0.87647593
5.1193705 -1.2880892 -0.88007337
8.0745487 -2.0316443 -0.9280501
9.040657 -2.2747276 -0.52071583
9.714118 -2.4441776 0
9.6604137 -2.430665 0.55641204
0 -0 -0
3.1785533 -0.79567599 -0.9040125
3.8257229 -0.95767963 -0.87366205
5.1084743 -1.2787862 -0.87793398
8.0769978 -2.0218863 -0.9280501
9.0509634 -2.2656956 -0.52115136
9.7145414 -2.4318068 0
9.6633444 -2.4189906 0.55641204
2.824311 -0.70337439 -0.95970821
3.1892502 -0.79425985 -0.90678114
3.8293405 -0.95366973 -0.87422442
5.1125045 -1.2732325 -0.87836152
8.0794353 -2.0121253 -0.9280501
9.0511751 -2.2541301 -0.52100641
9.7199955 -2.4206951 0
9.6687784 -2.4079399 0.55655706
0 -0 -0
3.1975152 -0.79221624 -0.9088583
3.8378913 -0.95087576 -0.87591362
5.1165285 -1.2676709 -0.87878907
8.0868864 -2.0036066 -0.92862725
9.0538921 -2.243192 -0.52100641
9.7229137 -2.4089487 0
9.6716814 -2.3962553 0.55655706
0 -0 -0
3.1814167 -0.78414881 -0.9040125
3.8267045 -0.94319797 -0.87309974
5.1105766 -1.259644 -0.87750477
8.0867929 -1.9932153 -0.92833924
9.0591173 -2.2328718 -0.52115136
9.7258177 -2.3971987 0
9.6745701 -2.3845673 0.55655706
0 -0 -0
3.2091668 -0.78687656 -0.91162694
3.8253665 -0.93796659 -0.87253523
5.124568 -1.2565264 -0.87964582
8.0992432 -1.9859064 -0.92949241
9.0567656 -2.2206876 -0.52086139
9.7337666 -2.3866858 0
9.6824865 -2.3741121 0.55684704
2.7964642 -0.68210226 -0.94911444
3.200366 -0.78062034 -0.9088583
3.8363712 -0.93575215 -0.87478673
5.1185985 -1.2485079 -0.87836152
8.1041479 -1.9767309 -0.92978042
9.0569105 -2.209125 -0.52071583
9.734108 -2.3743043 0
9.6878796 -2.3630285 0.55699259
0 -0 -0
3.1793671 -0.77142936 -0.90262949
3.8350322 -0.93051744 -0.87422442
5.1225953 -1.2429268 -0.87878907
8.1115522 -1.9681557 -0.93035644
9.0722065 -2.2012453 -0.52144194
9.742033 -2.3637693 0
9.6907282 -2.3513207 0.55699259
2.7812839 -0.67128253 -0.94340891
3.2119982 -0.77523845 -0.91162694
3.8435659 -0.92767185 -0.87591362
5.1166048 -1.2349288 -0.87750477
8.1239815 -1.9607805 -0.93150961
9.0723267 -2.1896703 -0.52129638
9.7524738 -2.3538287 0
9.711236 -2.3438756 0.55800813
0 -0 -0
3.2056117 -0.76959932 -0.90954977
3.8323331 -0.92006177 -0.87309974
5.1131058 -1.2275481 -0.87664968
8.1414404 -1.9545867 -0.93323994
9.0800238 -2.1799209 -0.52158695
9.7527733 -2.3414338 0
9.7064886 -2.3303218 0.55757314
2.8117461 -0.67144829 -0.95318848
3.2114151 -0.76688969 -0.91093278
3.8482656 -0.91897035 -0.87647593
5.1220784 -1.2231584 -0.87793398
8.1387596 -1.9435453 -0.93266279
9.0952854 -2.1719649 -0.52231246
9.7631912 -2.3314617 0
9.7194071 -2.3210058 0.55815369
0 -0 -0
3.2074623 -0.76185036 -0.90954977
3.8469033 -0.91373318 -0.87591362
5.1310382 -1.2187464 -0.87921661
8.1461401 -1.9349065 -0.93323994
9.0903168 -2.1591713 -0.52187693
9.7609425 -2.3184614 0
9.7247295 -2.30986 0.55829871
0 -0 -0
3.2254736 -0.76201242 -0.91439557
3.8578961 -0.91142112 -0.87816513
5.1250196 -1.2107768 -0.87793398
8.1459475 -1.9244657 -0.93295079
9.0929193 -2.148186 -0.52187693
9.771328 -2.3084588 0
9.7199249 -2.296315 0.55786318
0 -0 -0
3.2068541 -0.75352365 -0.9088583
3.8392062 -0.90210921 -0.87366205
5.1364746 -1.2069321 -0.87964582
8.1507921 -1.9152148 -0.93323994
