# .PCD v0.7 - Point Cloud Data file format
VERSION 0.7
FIELDS x y z
SIZE 4 4 4
TYPE F F F
COUNT 1 1 1
WIDTH 1524
HEIGHT 1
VIEWPOINT 0 0 0 1 0 0 0
POINTS 1524
DATA ascii
-6.4385381 -0.58115953 0.36109418
-0 -0 -0
-0 -0 -0
-4.3074193 -0.39404675 -0.95820618
-4.6031036 -0.42109624 -0.77060747
-4.8588562 -0.44449273 -0.54383528
-6.3784318 -0.58350492 -0.35776252
-6.5186505 -0.59633225 0
-6.4611173 -0.59106904 0.36240029
-0 -0 -0
-0 -0 -0
-4.2942824 -0.39807779 -0.95539016
-4.5846963 -0.424999 -0.76761132
-0 -0 -0
-6.3699579 -0.59049183 -0.35732698
-6.5075593 -0.60324746 0
-6.4603982 -0.59887564 0.36240029
-0 -0 -0
-0 -0 -0
-4.3140364 -0.40516704 -0.95989323
-4.5765095 -0.42981806 -0.76632702
-4.85005 -0.45550853 -0.54297119
-6.3744187 -0.59867465 -0.35761753
-6.5016484 -0.6106239 0
-6.4570856 -0.60643858 0.36225531
-0 -0 -0
-0 -0 -0
-4.3084898 -0.40989858 -0.95876855
-4.5785494 -0.43559137 -0.76675624
-4.8675127 -0.46308258 -0.54498845
-6.3762751 -0.60662234 -0.35776252
-6.4827681 -0.61675382 0
-6.4511695 -0.6137476 0.36196473
-0 -0 -0
-0 -0 -0
-4.3155813 -0.41583559 -0.96045774
-4.5780201 -0.44112334 -0.76675624
-0 -0 -0
-6.3807154 -0.61482531 -0.35805309
-6.5027418 -0.6265834 0
-6.4426613 -0.62079424 0.36152917
-0 -0 -0
-0 -0 -0
-4.3251815 -0.4220359 -0.9627071
-4.5672636 -0.44565746 -0.76504433
-4.8663793 -0.4748441 -0.54498845
-6.3773742 -0.62228161 -0.35790753
-6.5019803 -0.63444024 0
-6.452251 -0.62958783 0.36210975
-0 -0 -0
-4.3272042 -0.42751229 -0.96327162
-4.5769405 -0.45218533 -0.76675624
-0 -0 -0
-6.3792109 -0.63024318 -0.35805309
-6.4960241 -0.64178389 0
-6.425632 -0.63482946 0.36065862
-0 -0 -0
-4.3241487 -0.43248695 -0.9627071
-0 -0 -0
-4.8472095 -0.48480174 -0.54297119
-6.3758516 -0.63769138 -0.35790753
-6.4926567 -0.64937389 0
-6.4248605 -0.64259309 0.36065862
-0 -0 -0
-4.3059344 -0.43592077 -0.95876855
-4.5681701 -0.46246874 -0.76547188
-4.8183112 -0.48779234 -0.53979969
-6.3621526 -0.64408654 -0.35718197
-6.4711533 -0.65512145 0
-6.4214964 -0.65009433 0.36051363
-0 -0 -0
-4.3157816 -0.43955195 -0.96102005
-4.5806565 -0.4665288 -0.76761132
-4.8386011 -0.49279982 -0.54210603
-6.3540149 -0.64714104 -0.35674697
-6.4940557 -0.66140389 0
-6.4288602 -0.65476388 0.36094919
-0 -0 -0
-4.3127222 -0.44450614 -0.96045774
-4.5851917 -0.47258916 -0.76846641
-4.8277106 -0.49758524 -0.54095286
-6.3635573 -0.65588278 -0.35732698
-6.4958482 -0.66951782 0
-6.4513245 -0.66492885 0.36225531
-0 -0 -0
-4.3096476 -0.44945258 -0.95989323
-4.5922794 -0.47892821 -0.76975077
-4.8373957 -0.50449139 -0.54210603
-6.3679338 -0.66411096 -0.35761753
-6.5002065 -0.67790568 0
-6.4556804 -0.67326206 0.36254531
-0 -0 -0
-4.3141599 -0.45519337 -0.96102005
-4.5891471 -0.48420763 -0.76932317
-4.8316431 -0.50979376 -0.54153001
-6.3671269 -0.6718049 -0.35761753
-6.4812632 -0.68384761 0
-6.4496989 -0.6805172 0.36225531
-0 -0 -0
-4.3060246 -0.4595966 -0.95933086
-4.5783482 -0.4886626 -0.76761132
-0 -0 -0
-6.3663101 -0.67949784 -0.35761753
-6.4778466 -0.69140249 0
-6.446281 -0.68803334 0.36210975
-0 -0 -0
-0 -0 -0
-4.5726547 -0.49364373 -0.76675624
-4.8509598 -0.52368832 -0.54383528
-6.3706465 -0.68774706 -0.35790753
-6.495121 -0.70118481 0
-6.4454446 -0.69582194 0.36210975
-0 -0 -0
-4.3301554 -0.47275841 -0.96495861
-4.5720549 -0.49916855 -0.76675624
-4.8529019 -0.52983087 -0.54412436
-6.3775625 -0.69629055 -0.35834309
-6.5072021 -0.71044439 0
-6.4549317 -0.70473754 0.3626903
-0 -0 -0
-4.3245349 -0.47743312 -0.96383393
-4.5714483 -0.50469261 -0.76675624
-4.8548265 -0.53597784 -0.54441237
-6.3663855 -0.70285553 -0.35776252
-6.5218549 -0.72001946 0
-6.4514952 -0.71225166 0.36254531
-0 -0 -0
-4.3365784 -0.4840672 -0.9666478
-4.5733843 -0.51050043 -0.76718378
-4.8490295 -0.54126912 -0.54383528
-6.3732815 -0.71141261 -0.35819808
-6.5261579 -0.7284773 0
-6.44805 -0.71975857 0.36240029
-0 -0 -0
-4.3183141 -0.48731202 -0.9627071
-4.5727639 -0.51602614 -0.76718378
-4.8406687 -0.54625857 -0.54297119
-6.3724174 -0.71911293 -0.35819808
-6.5252728 -0.7363624 0
-6.4368472 -0.72638375 0.36181974
-0 -0 -0
-4.3101559 -0.49166641 -0.96102005
-4.5823393 -0.52271479 -0.76889563
-4.8477073 -0.55298579 -0.54383528
-6.3767023 -0.72740066 -0.35848808
-6.5243783 -0.74424636 0
-6.4411235 -0.73474932 0.36210975
-0 -0 -0
-4.3146019 -0.49745551 -0.96214473
-4.5689559 -0.52678144 -0.76675624
-4.8521795 -0.55943596 -0.54441237
-6.3706608 -0.73451048 -0.35819808
-6.5260572 -0.75242704 0
-6.4428196 -0.7428301 0.36225531
-0 -0 -0
-4.3139977 -0.5026685 -0.96214473
-4.5734105 -0.53289539 -0.76761132
-4.8515 -0.56529844 -0.54441237
-6.3749256 -0.74280852 -0.35848808
-6.5277262 -0.76061291 0
-6.4341717 -0.74971193 0.36181974
-0 -0 -0
-4.3260021 -0.5093661 -0.96495861
-4.5727634 -0.53842109 -0.76761132
-4.8533797 -0.57146227 -0.54470038
-6.3766117 -0.75081557 -0.35863364
-6.5293941 -0.76880503 0
-6.4306831 -0.75718224 0.36167476
-0 -0 -0
-4.3178215 -0.51369321 -0.96327162
-4.5823059 -0.54515904 -0.76932317
-4.8578272 -0.57793796 -0.54527754
-6.3731122 -0.75821203 -0.35848808
-6.5232868 -0.77607846 0
-6.4323411 -0.76525861 0.36181974
-0 -0 -0
-4.3348494 -0.52103174 -0.96721017
-4.5739951 -0.54977614 -0.76803887
-4.8571253 -0.58380723 -0.54527754
-6.3773561 -0.76653296 -0.35877866
-6.5275173 -0.78458172 0
-6.4417315 -0.77427065 0.36240029
-0 -0 -0
-4.3241272 -0.52504408 -0.96495861
-4.5886226 -0.55715966 -0.77060747
-4.8538413 -0.58936304 -0.54498845
-6.3764248 -0.77423817 -0.35877866
-6.5213923 -0.79184043 0
-6.4485321 -0.78299356 0.36283585
-0 -0 -0
-3.5891802 -0.43800592 -0.9975906
-4.3313785 -0.52858013 -0.9666478
-4.5857296 -0.5596199 -0.77017832
-4.8483543 -0.59166938 -0.54441237
-6.3759561 -0.77809036 -0.35877866
-6.5234938 -0.79609513 0
-6.4532118 -0.78751826 0.36312586
-0 -0 -0
-4.3332558 -0.5341239 -0.96721017
-4.5876055 -0.5654754 -0.77060747
-4.8476362 -0.59752721 -0.54441237
-6.3801641 -0.78642905 -0.35906863
-6.527698 -0.80461431 0
-6.4496789 -0.79499751 0.36298087
-0 -0 -0
-4.3149643 -0.53716308 -0.96327162
-4.5665393 -0.56848127 -0.76718378
-4.8494744 -0.60370344 -0.54470038
-6.3817954 -0.79445958 -0.35921422
-6.526721 -0.81250113 0
-6.4564519 -0.80375344 0.3634164
-0 -0 -0
-4.2613726 -0.53572112 -0.95145154
-4.5709381 -0.57463843 -0.76803887
-4.8461781 -0.60924029 -0.54441237
-6.3782449 -0.80184507 -0.35906863
-6.5308938 -0.82103544 0
-6.4477386 -0.81058156 0.36298087
-0 -0 -0
-4.0540318 -0.51463187 -0.90529609
-4.5626082 -0.57919216 -0.76675624
-4.850565 -0.61574632 -0.54498845
-6.3772717 -0.80955136 -0.35906863
-6.5324864 -0.82925481 0
-6.4338684 -0.81673598 0.36225531
-0 -0 -0
-3.8719566 -0.49627325 -0.86477053
-4.5873623 -0.58796769 -0.77103508
-4.8523903 -0.62193662 -0.54527754
-6.3840232 -0.81824785 -0.35950419
-6.5237327 -0.83615458 0
-6.4328771 -0.82450944 0.36225531
-0 -0 -0
-3.8234835 -0.49475697 -0.85407734
-4.5790086 -0.59252155 -0.76975077
-4.8567605 -0.62846255 -0.54585356
-6.3778811 -0.82529479 -0.35921422
-6.5175509 -0.84336799 0
-6.4215679 -0.83094788 0.36167476
-0 -0 -0
-3.8002098 -0.49641481 -0.84901196
-4.585928 -0.59905183 -0.77103508
-4.8559976 -0.63433051 -0.54585356
-6.3768792 -0.8330006 -0.35921422
-6.5294375 -0.85292906 0
-6.4282818 -0.83971524 0.36210975
-0 -0 -0
-3.8147171 -0.50299859 -0.85238814
-4.5801058 -0.60392076 -0.77017832
-4.8501039 -0.63952202 -0.54527754
-6.3784418 -0.8410446 -0.3593592
-6.5232368 -0.86013687 0
-6.4324193 -0.848162 0.36240029
-0 -0 -0
-3.579236 -0.47634938 -0.99620765
-3.8115902 -0.50727266 -0.85182583
-4.5717463 -0.60843951 -0.76889563
-4.8467565 -0.64503974 -0.54498845
-6.3748474 -0.84840858 -0.35921422
-6.5221925 -0.86801833 0
-6.4313898 -0.85593367 0.36240029
-0 -0 -0
-3.805933 -0.51120073 -0.85069895
-4.58881 -0.61635423 -0.77189016
-4.8408513 -0.65020764 -0.54441237
-6.3763905 -0.85645634 -0.3593592
-6.523716 -0.8762446 0
-6.4406524 -0.86508775 0.36298087
-0 -0 -0
-3.7977662 -0.51477617 -0.84901196
-4.5702624 -0.61948586 -0.76889563
-4.8426228 -0.65640348 -0.54470038
-6.3779235 -0.86450899 -0.35950419
-6.5200758 -0.88377738 0
-6.4318752 -0.871822 0.36254531
-0 -0 -0
-3.8147564 -0.52177399 -0.85295051
-4.5695109 -0.62500763 -0.76889563
-4.8469563 -0.66295606 -0.54527754
-6.3743019 -0.87186307 -0.3593592
-6.5215793 -0.89200729 0
-6.4359708 -0.88029796 0.36283585
-0 -0 -0
-3.8015404 -0.52464646 -0.85013664
-4.5763741 -0.63158041 -0.77017832
-4.8538308 -0.66987199 -0.54614156
-6.3732438 -0.87956452 -0.3593592
-6.517921 -0.89953125 0
-6.445199 -0.8894949 0.3634164
-0 -0 -0
-3.7807705 -0.52643615 -0.84563357
-4.5730672 -0.63675588 -0.76975077
-4.8427711 -0.67430955 -0.54498845
-6.3747478 -0.88762271 -0.35950419
-6.5116792 -0.90668911 0
-6.4312439 -0.89548922 0.3626903
-0 -0 -0
-3.8103261 -0.5352456 -0.85238814
-4.5697551 -0.64192432 -0.76932317
-4.8521981 -0.6815998 -0.54614156
-6.3685293 -0.89460248 -0.35921422
-6.5054193 -0.91383177 0
-6.4275866 -0.90289837 0.36254531
-0 -0 -0
-3.8121901 -0.54020536 -0.85295051
-4.5842209 -0.64960587 -0.77189016
-4.8488126 -0.6870997 -0.54585356
-6.3648634 -0.90193129 -0.35906863
-6.4862804 -0.9191367 0
-6.42135 -0.90993571 0.36225531
-0 -0 -0
-3.8143857 -0.54286748 -0.85351503
-4.5889153 -0.65309942 -0.77274692
-4.8432798 -0.68930084 -0.54527754
-6.3797574 -0.90797395 -0.35993975
-6.4728341 -0.92122072 0
-6.4310894 -0.91527957 0.36283585
-0 -0 -0
-3.8388734 -0.55108589 -0.85914278
-4.5932002 -0.65937257 -0.77360207
-4.8424435 -0.69515246 -0.54527754
-6.3760762 -0.91531169 -0.3597942
-0 -0 0
-6.4273992 -0.92267931 0.3626903
-3.8256335 -0.55390388 -0.8563289
-4.5720754 -0.66197932 -0.77017832
-4.8518391 -0.70248562 -0.54643071
-6.3698273 -0.92227125 -0.35950419
-0 -0 0
-6.4339972 -0.93156224 0.36312586
-3.8174164 -0.55742425 -0.85463971
-4.5865178 -0.66972947 -0.77274692
-4.8458633 -0.70759946 -0.54585356
-6.3661394 -0.92959219 -0.3593592
-0 -0 0
-6.438014 -0.94008744 0.3634164
-3.8192515 -0.56240624 -0.85520202
-4.5755467 -0.67377502 -0.77103508
-4.8322129 -0.7115705 -0.54441237
-6.3624434 -0.93690556 -0.35921422
-0 -0 0
-6.4291587 -0.94672978 0.36298087
-3.8110363 -0.56590211 -0.85351503
-4.5848861 -0.68081135 -0.77274692
-4.8441391 -0.71930796 -0.54585356
-6.3638744 -0.94497395 -0.3593592
-0 -0 0
-6.4254422 -0.95411617 0.36283585
-0 -0 -0
-4.5942154 -0.68787128 -0.77445877
-4.8458219 -0.72554326 -0.54614156
-6.3678627 -0.95343155 -0.35964921
-6.3475952 -0.95039696 0
-6.4037261 -0.95880127 0.36167476
-3.8190079 -0.58124232 -0.85576653
-4.5671563 -0.69510841 -0.77017832
-4.8414998 -0.73686278 -0.54585356
-6.3526978 -0.96686292 -0.35892364
-6.3118348 -0.96064365 0
-3.9508145 -0.60130292 0.22321865
-3.8132749 -0.58508497 -0.85463971
-4.581542 -0.70296305 -0.77274692
-4.8380518 -0.74232036 -0.54556555
-6.3592329 -0.97572082 -0.3593592
-4.0599384 -0.62293154 0
-3.952651 -0.60646999 0.22336365
-3.8175921 -0.59046966 -0.85576653
-4.5959058 -0.71085203 -0.77531391
-4.8371515 -0.74816567 -0.54556555
-6.3708863 -0.98538947 -0.36008477
-4.0308995 -0.62346208 0
-3.9288065 -0.60767126 0.22205754
-2.9886661 -0.4659574 -0.997361
-3.8193841 -0.59547311 -0.8563289
-4.5772958 -0.71363777 -0.77231938
-4.8439131 -0.75520557 -0.54643071
-6.3568563 -0.99108571 -0.3593592
-4.0455666 -0.63073683 0
-3.9229393 -0.61161822 0.22176754
-3.8211694 -0.60048169 -0.85689121
-4.5738869 -0.71876836 -0.77189016
-4.8455501 -0.76145905 -0.54671872
-6.3453865 -0.99715245 -0.35877866
-4.0293808 -0.63320136 0
-3.9093652 -0.61434138 0.22104198
-3.8279722 -0.60629123 -0.85858041
-4.5857 -0.72630352 -0.77403122
-4.8344078 -0.76569498 -0.54556555
-6.3390388 -1.0040052 -0.35848808
-4.0363269 -0.63929135 0
-3.8880885 -0.61581272 0.21988086
-3.8121772 -0.60851228 -0.85520202
-4.5873513 -0.73224813 -0.77445877
-4.8309274 -0.77112854 -0.54527754
-4.0978541 -0.65411299 -0.23178816
-4.0175591 -0.64129603 0
-3.8668137 -0.61723357 0.21871975
-3.8014047 -0.6115039 -0.85295051
-4.5661874 -0.7345289 -0.77103508
-4.8453088 -0.77942914 -0.54700673
-4.0893621 -0.65782553 -0.2313526
-4.0270591 -0.64780331 0
-3.8583663 -0.62066692 0.21828419
-3.7659216 -0.60813034 -0.8450712
-4.573348 -0.73851556 -0.77231938
-4.8346238 -0.78070694 -0.54585356
-4.0915265 -0.6607098 -0.2314976
-4.0292339 -0.65065062 0
-3.8426042 -0.6205132 0.21741363
-3.757658 -0.61145562 -0.843382
-4.4685712 -0.72713721 -0.75477314
-4.8387876 -0.78737974 -0.54643071
-4.0804663 -0.66398382 -0.23091704
-4.0284448 -0.65551871 0
-3.8264585 -0.62265098 0.21654251
-3.7569163 -0.61599553 -0.843382
-3.8470762 -0.63077843 -0.64992648
-4.8403826 -0.79364395 -0.54671872
-4.0770993 -0.66849375 -0.23077205
-4.0122452 -0.65786004 0
-3.828265 -0.62769407 0.21668752
-3.7436371 -0.61846423 -0.84056813
-3.8640428 -0.63835573 -0.65292269
-4.8470783 -0.80075723 -0.54758388
-4.0532179 -0.66960824 -0.22946593
-3.9832003 -0.65804106 0
-3.8249426 -0.6318962 0.21654251
-3.8255966 -0.63675386 -0.85914278
-3.8759272 -0.64513117 -0.65506208
-4.8409991 -0.80576324 -0.54700673
-3.9985812 -0.66554642 -0.22641814
-3.9182253 -0.65217149 0
-3.8190548 -0.635665 0.21625252
-4.2457981 -0.711968 -0.95370311
-3.8726156 -0.64938986 -0.65463454
-4.8425708 -0.81203938 -0.54729474
-3.9208989 -0.65748638 -0.22206423
-3.8635368 -0.6478675 0
-3.8182838 -0.64027911 0.21625252
-4.295033 -0.72556078 -0.96495861
-3.8414538 -0.64893752 -0.64949894
-4.8441434 -0.81832212 -0.54758388
-3.8406825 -0.64880729 -0.21756533
-3.8319576 -0.64733338 0
-3.8123782 -0.6440258 0.21596196
-4.3141923 -0.73416013 -0.96946168
-3.8482516 -0.65486944 -0.65078157
-4.8303947 -0.82200396 -0.54614156
-3.8091562 -0.64821649 -0.21582365
-3.8055212 -0.64759791 0
-3.7962325 -0.64601719 0.21509141
-4.3082981 -0.73851466 -0.968337
-3.842402 -0.65865225 -0.64992648
-4.8421516 -0.83002615 -0.54758388
-3.8006845 -0.65150118 -0.21538809
-3.7944758 -0.65043688 0
-3.7928905 -0.65016514 0.2149464
-4.3023901 -0.74285442 -0.96721017
-3.8289576 -0.66111112 -0.64778703
-4.8334966 -0.83455569 -0.54671872
-3.7922103 -0.65476632 -0.21495254
-3.7911248 -0.65457892 0
-3.7972183 -0.65563101 0.2152364
-4.2989883 -0.74761754 -0.9666478
-3.8407991 -0.66793591 -0.64992648
-4.8248377 -0.83906555 -0.54585356
-3.7786188 -0.65712237 -0.21422698
-3.7723806 -0.65603757 0
-3.7810681 -0.65754837 0.21436584
-4.2980819 -0.75281149 -0.9666478
-3.8172343 -0.66859072 -0.64607519
-4.8391113 -0.84757304 -0.54758388
-3.7727079 -0.66079187 -0.21393698
-3.7562094 -0.65790218 0
-3.7546711 -0.65763271 0.21291417
-4.2996693 -0.75844526 -0.96721017
-3.8265359 -0.67498636 -0.64778703
-4.8559065 -0.85656345 -0.54960108
-3.766784 -0.66444635 -0.21364643
-3.7451599 -0.66063195 0
-3.733402 -0.65855795 0.21175306
-4.2962503 -0.76319605 -0.9666478
-3.8181326 -0.67826211 -0.64650273
-4.8421373 -0.8601687 -0.5481599
-3.7480769 -0.66581726 -0.21263087
-3.7289796 -0.66242474 0
-3.7402813 -0.66443241 0.21218862
-4.2978239 -0.7688337 -0.96721017
-3.809727 -0.6815185 -0.64521843
-4.8436379 -0.86647391 -0.54844791
-3.7447045 -0.66988671 -0.2124853
-3.7281766 -0.66693002 0
-3.7215683 -0.66574788 0.21117249
-4.2868891 -0.77222437 -0.96495861
-3.8265879 -0.68930745 -0.64821464
-4.8400445 -0.87186772 -0.5481599
-3.7234437 -0.67072743 -0.21132475
-3.7068777 -0.66774327 0
-3.7309904 -0.67208683 0.21175306
-4.3039269 -0.77797836 -0.96889937
-3.8135426 -0.68933648 -0.64607519
-4.8496976 -0.87663203 -0.54931307
-3.7255924 -0.67343861 -0.21146975
-3.714159 -0.67137188 0
-3.7203555 -0.67249197 0.21117249
-4.2954817 -0.78181285 -0.96721017
-3.8253324 -0.69624186 -0.64821464
-4.8359141 -0.88017595 -0.54787189
-3.7017703 -0.67375255 -0.21016364
-3.7082293 -0.67492807 0
-3.7093244 -0.67512745 0.21059249
-4.2945337 -0.78700256 -0.96721017
-3.8169107 -0.69947487 -0.64693028
-4.8399305 -0.88695014 -0.54844791
-3.7009537 -0.67822492 -0.21016364
-3.699729 -0.67800051 0
-3.7059426 -0.6791392 0.21044694
-4.2985821 -0.79311401 -0.968337
-3.8185947 -0.70455348 -0.64735949
-4.8261399 -0.89045155 -0.54700673
-3.6694677 -0.67703867 -0.20842196
-3.6963501 -0.68199861 0
-3.6948981 -0.68173069 0.20986637
-4.2901235 -0.79691482 -0.9666478
-3.8126879 -0.70822841 -0.64650273
-4.8428636 -0.89958942 -0.54902506
-3.6711991 -0.6819461 -0.20856696
-3.6904011 -0.68551296 0
-3.6864147 -0.68477249 0.20943138
-4.2916527 -0.80256468 -0.96721017
-3.8118293 -0.71283478 -0.64650273
-4.8468533 -0.90639037 -0.54960108
-3.6627076 -0.68494815 -0.2081314
-3.6767817 -0.68758011 0
-3.6779196 -0.6877929 0.20899582
-4.2981734 -0.80916041 -0.96889937
-3.8008742 -0.71554041 -0.64479089
-4.8381362 -0.91081202 -0.54873705
-3.656775 -0.68841273 -0.2078414
-3.673393 -0.69154125 0
-3.6668715 -0.69031352 0.20841527
-4.2946987 -0.81388068 -0.968337
-3.8151448 -0.72300124 -0.64735949
-4.8344836 -0.91617435 -0.54844791
-3.6431777 -0.6904121 -0.20711584
-3.6648815 -0.69452512 0
-3.6685853 -0.69522703 0.20856027
-4.2887154 -0.81811625 -0.96721017
-3.826874 -0.73001522 -0.64949894
-4.8359208 -0.92250127 -0.54873705
-3.6397812 -0.69432539 -0.20697029
-3.6717112 -0.70041639 0
-3.6702926 -0.70014572 0.20870526
-4.3076863 -0.82713073 -0.97171324
-3.825989 -0.73463875 -0.64949894
-4.8424158 -0.92980564 -0.54960108
-3.6414988 -0.69921422 -0.20711584
-3.6683087 -0.70436209 0
-3.6668944 -0.70409054 0.20856027
-4.286726 -0.82847798 -0.96721017
-3.8175349 -0.73779935 -0.64821464
-4.8311305 -0.93369287 -0.54844791
-3.6176925 -0.69917661 -0.20580973
-3.6597869 -0.70731205 0
-3.6634922 -0.7080282 0.20841527
-4.2956982 -0.83559769 -0.96946168
-3.8242025 -0.74388254 -0.64949894
-4.8223896 -0.9380495 -0.54758388
-3.6168451 -0.70354742 -0.20580973
-3.6614819 -0.71223015 0
-3.6575279 -0.71146101 0.20812471
-4.2971864 -0.84127718 -0.9700262
-3.8233008 -0.74850279 -0.64949894
-3.8085184 -0.74560875 -0.43256047
-3.6108873 -0.7069177 -0.20551917
-3.668283 -0.71815431 0
-3.6566656 -0.71587992 0.20812471
-4.2911758 -0.84548557 -0.96889937
-3.8299425 -0.75460923 -0.65078157
-3.8913562 -0.76670951 -0.44207385
-3.6151342 -0.71228582 -0.20580973
-3.6520872 -0.71956664 0
-3.6481569 -0.71879226 0.2076897
-4.2826715 -0.8491869 -0.96721017
-3.821481 -0.75774002 -0.64949894
-3.865061 -0.76638126 -0.43919149
-3.606622 -0.71513683 -0.20537417
-3.643564 -0.72246188 0
-3.6472857 -0.72319984 0.2076897
-4.3015766 -0.85833871 -0.97171324
-3.8331473 -0.76486814 -0.65163833
-3.8615882 -0.77054328 -0.43890235
-3.5981083 -0.71796829 -0.20493861
-3.6350296 -0.7253356 0
-3.6464093 -0.7276063 0.2076897
-4.2905717 -0.86153483 -0.96946168
-3.8221531 -0.76747769 -0.64992648
-3.8581209 -0.77469999 -0.43861434
-3.6074286 -0.7243616 -0.20551917
-3.6316013 -0.72921544 0
-3.6455274 -0.73201174 0.2076897
-4.3094521 -0.87074435 -0.97396481
-3.8136718 -0.77056974 -0.64864218
-3.859715 -0.77987295 -0.43890235
-3.6065507 -0.72871995 -0.20551917
-3.6281691 -0.73308802 0
-3.636997 -0.73487175 0.20725416
-4.2964764 -0.87082458 -0.97115088
-3.8207557 -0.77440393 -0.64992648
-3.8465707 -0.7796362 -0.43746117
-3.5933788 -0.72831839 -0.20479362
-3.6251674 -0.73476142 0
-3.6441946 -0.7386179 0.2076897
-4.2954206 -0.87601542 -0.97115088
-3.812269 -0.7774806 -0.64864218
-3.827893 -0.78066701 -0.43544397
-3.5823119 -0.73058277 -0.20421305
-3.6293819 -0.74018228 0
-3.6382027 -0.74198121 0.20739914
-4.2993326 -0.88222545 -0.97227561
-3.8037899 -0.78053981 -0.64735949
-3.8092086 -0.78165179 -0.43342564
-3.5788836 -0.73438895 -0.20406805
-3.6259379 -0.74404454 0
-3.6398561 -0.74690056 0.20754471
-4.2932916 -0.88639319 -0.97115088
-3.8003228 -0.78461486 -0.64693028
-3.8234549 -0.78939074 -0.43515483
-3.5856206 -0.74028748 -0.20450306
-3.6250362 -0.74842519 0
-3.6389511 -0.75129807 0.20754471
-4.2922173 -0.89158016 -0.97115088
-3.8018925 -0.78972983 -0.64735949
-3.8224983 -0.79401004 -0.43515483
-3.5949001 -0.74673331 -0.20508361
-3.6164825 -0.75121641 0
-3.6329474 -0.75463653 0.20725416
-4.2986007 -0.89832562 -0.97284007
-3.8009355 -0.79432309 -0.64735949
-3.8164775 -0.79757106 -0.43457881
-3.591454 -0.75054544 -0.20493861
-3.6155722 -0.75558567 0
-3.6320329 -0.75902563 0.20725416
-4.2999964 -0.90404123 -0.97340244
-3.7773564 -0.79416025 -0.64350659
-3.8281643 -0.80484217 -0.43601999
-3.5930851 -0.7554186 -0.20508361
-3.6121123 -0.7594189 0
-3.6311131 -0.76341373 0.20725416
-4.2939243 -0.90818375 -0.97227561
-3.7789128 -0.79925656 -0.64393574
-3.8044169 -0.80465078 -0.43342564
-3.5794611 -0.75707167 -0.20435806
-3.5984538 -0.76108873 0
-3.6225588 -0.76618707 0.2068186
-4.2977991 -0.91443002 -0.97340244
-3.7754261 -0.80328631 -0.64350659
-3.8034418 -0.80924714 -0.43342564
-3.6014152 -0.76626253 -0.20566417
-3.5949883 -0.76489508 0
-3.6190913 -0.77002341 0.20667359
-4.2892346 -0.91802651 -0.97171324
-4.5751762 -0.97922677 -0.78002197
-3.7822275 -0.8095116 -0.43111929
-3.6081119 -0.77224559 -0.20609973
-3.6016986 -0.77087295 0
-3.623245 -0.7754845 0.20696415
-4.2930951 -0.92427915 -0.97284007
-4.5865355 -0.98745525 -0.78216136
-3.748378 -0.80700469 -0.42737177
-3.6021006 -0.77551198 -0.20580973
-3.5956712 -0.77412778 0
-3.6146822 -0.77822071 0.20652859
-4.296937 -0.93054038 -0.97396481
-4.5803261 -0.99191082 -0.78130627
-3.7044287 -0.80222738 -0.42247108
-3.598614 -0.77931225 -0.20566417
-3.6023662 -0.78012484 0
-3.6213603 -0.78423822 0.20696415
-4.2908487 -0.9346512 -0.97284007
-4.5715966 -0.99580491 -0.78002197
-3.6680803 -0.79899704 -0.41843554
-3.5976696 -0.78365993 -0.20566417
-3.5963402 -0.78337032 0
-3.6204102 -0.78861332 0.20696415
-4.3046036 -0.94309682 -0.97621632
-4.5553398 -0.99803066 -0.77745336
-3.6645784 -0.80287349 -0.4181464
-3.6170261 -0.79245526 -0.20682529
-3.6004705 -0.78882807 0
-3.6219904 -0.79354292 0.20710915
-4.2811313 -0.9433769 -0.97115088
-4.5867281 -1.0107173 -0.78301811
-3.6459317 -0.80340624 -0.4161292
-3.5906951 -0.79123449 -0.20537417
-3.5969756 -0.79261845 0
-3.623564 -0.79847741 0.20725416
-4.2725434 -0.94689924 -0.96946168
-3.6381812 -0.8063091 -0.62125391
-3.6500037 -0.80892932 -0.41670522
-3.5973496 -0.79725987 -0.20580973
-3.6163421 -0.80146903 0
-3.6175277 -0.80173182 0.20696415
-4.1454787 -0.92136645 -0.9407562
-3.64271 -0.80962199 -0.62211066
-3.646992 -0.8105737 -0.41641721
-3.5816431 -0.79604936 -0.20493861
-3.5879092 -0.79744208 0
-3.6068964 -0.80166215 0.20638359
-3.6732423 -0.82106692 -0.83381349
-3.6367137 -0.81290185 -0.62125391
-3.6434882 -0.81441605 -0.4161292
-3.5654681 -0.79697657 -0.20406805
-3.5920277 -0.80291331 0
-3.618602 -0.80885339 0.20710915
-3.657378 -0.82216215 -0.8304373
-3.6156924 -0.81279135 -0.61783016
-3.6324074 -0.81654882 -0.41497603
-3.5771761 -0.80413312 -0.20479362
-3.5910547 -0.80725294 0
-3.6049485 -0.81037623 0.20638359
-3.6390309 -0.8226583 -0.82649654
-3.604692 -0.81489545 -0.61611831
-3.6288977 -0.82036752 -0.41468802
-3.588872 -0.81131905 -0.20551917
-3.5900767 -0.81159145 0
-3.621701 -0.81874061 0.20739914
-3.623173 -0.82367629 -0.8231203
-3.6137176 -0.82152671 -0.61783016
-3.6279037 -0.82475173 -0.41468802
-3.5853574 -0.81507945 -0.20537417
-3.5865483 -0.81535017 0
-3.6181777 -0.82254064 0.20725416
-3.6286032 -0.83413798 -0.82480949
-3.6067228 -0.82910812 -0.61697507
-3.6183355 -0.83177757 -0.41382286
-3.5808473 -0.82315987 -0.20522916
-3.6074021 -0.82926422 0
-3.6237791 -0.83302897 0.2076897
-2.9494696 -0.68177295 -0.9981752
-3.6176903 -0.83623284 -0.82255799
-3.5857096 -0.82884043 -0.61355132
-3.6148102 -0.83556712 -0.41353485
-3.5595965 -0.82280445 -0.20406805
-3.598788 -0.83186358 0
-3.6101136 -0.83448154 0.20696415
-3.6191497 -0.84117818 -0.8231203
-3.5772016 -0.83142841 -0.61226702
-3.6213486 -0.84168923 -0.41439888
-3.5687237 -0.82945794 -0.20464861
-3.5927055 -0.83503187 0
-3.6141598 -0.84001839 0.20725416
-3.6082337 -0.8432377 -0.82086879
-3.6086884 -0.84334397 -0.61783016
-3.602706 -0.84194583 -0.41238168
-3.5904889 -0.83909076 -0.20595473
-3.5891621 -0.8387807 0
-3.6106145 -0.84379405 0.20710915
-3.6096833 -0.84817761 -0.8214311
-3.5901809 -0.84359503 -0.61483562
-3.6117575 -0.84866494 -0.41353485
-3.5844085 -0.84223866 -0.20566417
-3.5856149 -0.84252214 0
-3.6020012 -0.84637249 0.20667359
-3.6160767 -0.85429174 -0.8231203
-3.5916548 -0.84852207 -0.61526316
-3.6107295 -0.85302842 -0.41353485
-3.5783353 -0.84537536 -0.20537417
-3.5947254 -0.84924752 0
-3.6009758 -0.85072416 0.20667359
-3.6125722 -0.85807383 -0.82255799
-3.5881317 -0.85226864 -0.61483562
-3.6096961 -0.8573907 -0.41353485
-3.5823627 -0.85089833 -0.20566417
-3.5987558 -0.85479212 0
-3.5923586 -0.85327256 0.20623803
-3.6312945 -0.8671574 -0.82705891
-3.5870993 -0.85660356 -0.61483562
-3.6011078 -0.85994881 -0.41266969
-3.581332 -0.85522628 -0.20566417
-3.587595 -0.85672194 0
-3.5913248 -0.85761261 0.20623803
-3.617893 -0.86857927 -0.82424498
-3.5935428 -0.8627333 -0.61611831
-3.6101263 -0.8667146 -0.41382286
-3.5752475 -0.85834098 -0.20537417
-3.6017456 -0.86470264 0
-3.5852375 -0.86073935 0.20594804
-3.6217854 -0.87414354 -0.82537186
-3.5924978 -0.86707479 -0.61611831
-3.6065643 -0.87046987 -0.41353485
-3.5792546 -0.86387843 -0.20566417
-3.6108177 -0.87149638 0
-3.5791383 -0.86385036 0.20565748
-3.6281273 -0.88031483 -0.82705891
-3.5889552 -0.87081027 -0.61569077
-3.5979669 -0.87299681 -0.41266969
-3.563062 -0.86452764 -0.20479362
-3.609762 -0.87585872 0
-3.5907249 -0.87123966 0.20638359
-3.6251283 -0.88190657 -0.82649654
-3.5884285 -0.87297839 -0.61569077
-3.6074915 -0.87761599 -0.41382286
-3.5852599 -0.87220752 -0.20609973
-3.6218734 -0.88111472 0
-3.5826211 -0.87156558 0.20594804
-3.6240599 -0.88628614 -0.82649654
-3.5724144 -0.87365592 -0.61312377
-3.5963788 -0.87951654 -0.41266969
-3.5690639 -0.87283653 -0.20522916
-3.6106942 -0.88301748 0
-3.5765123 -0.87465811 0.20565748
-3.6254516 -0.89127046 -0.82705891
-3.5788274 -0.87980855 -0.61440641
-3.6028509 -0.88571441 -0.41353485
-3.5680065 -0.87714839 -0.20522916
-3.6222584 -0.89048553 0
-3.5678902 -0.87711978 0.20522247
-3.6268456 -0.89626181 -0.82762337
-3.580261 -0.88474983 -0.61483562
-3.6118219 -0.89254916 -0.41468802
-3.5795546 -0.88457525 -0.20595473
-3.6009679 -0.88986689 0
-3.5668278 -0.88143027 0.20522247
-3.6430147 -0.90492958 -0.83156198
-3.5791893 -0.88907528 -0.61483562
-3.6082232 -0.89628732 -0.41439888
-3.5683959 -0.88639414 -0.20537417
-3.620096 -0.8992365 0
-3.5657601 -0.88573945 0.20522247
-3.6172712 -0.90317667 -0.82593417
-3.6005256 -0.89899558 -0.61868691
-3.6021235 -0.89939457 -0.41382286
-3.5774064 -0.89322305 -0.20595473
-3.6190066 -0.90360999 0
-3.5546031 -0.88752943 0.20464192
-3.633431 -0.91187692 -0.82987493
-3.5869899 -0.90022165 -0.61654752
-3.5909996 -0.90122795 -0.41266969
-3.5889235 -0.90070695 -0.20668028
-3.6280091 -0.9105162 0
-3.568645 -0.89561766 0.20551248
-3.6175394 -0.91253644 -0.82649654
-3.5883861 -0.90518248 -0.61697507
-3.5999396 -0.90809685 -0.41382286
-3.5878327 -0.90504283 -0.20668028
-3.6142914 -0.91171718 0
-3.554965 -0.89675188 0.20478691
-3.6336772 -0.92127866 -0.8304373
-3.6022151 -0.91330177 -0.61954206
-3.5963349 -0.91181099 -0.41353485
-3.5867364 -0.90937734 -0.20668028
-3.640939 -0.92311984 0
-3.5563953 -0.9016847 0.20493191
-3.6670277 -0.93445146 -0.83831656
-3.5986238 -0.91702038 -0.61911446
-3.587709 -0.91423911 -0.41266969
-3.5780785 -0.91178501 -0.20624472
-3.6398211 -0.92751855 0
-3.5527875 -0.90534019 0.20478691
-3.6142077 -0.92564368 -0.82649654
-3.614923 -0.92582691 -0.62211066
-3.5891049 -0.91921455 -0.4129577
-3.5643907 -0.91288495 -0.20551917
-3.6513009 -0.93514371 0
-3.5516911 -0.90963238 0.20478691
-3.6278555 -0.9338116 -0.82987493
-3.6138017 -0.93019414 -0.62211066
-3.5955086 -0.92548549 -0.41382286
-3.5632851 -0.91719115 -0.20551917
-3.6476407 -0.93890429 0
-3.5455613 -0.91262901 0.20449692
-3.6316397 -0.93946594 -0.83099961
-3.6300647 -0.93905854 -0.6251052
-3.5943878 -0.9298293 -0.41382286
-3.5571477 -0.9201957 -0.20522916
-3.6565816 -0.9459182 0
-3.5369067 -0.91495955 0.20406136
-3.6427951 -0.94704944 -0.83381349
-3.6339011 -0.9447372 -0.62596196
-3.5932615 -0.93417174 -0.41382286
-3.5761423 -0.92972112 -0.20638973
-3.6655111 -0.95295513 0
-3.5408235 -0.9205389 0.20435137
-3.6465697 -0.95273614 -0.83494037
-3.655108 -0.95496696 -0.62981325
-3.61215 -0.94374335 -0.4161292
-3.5850728 -0.93666887 -0.20697029
-3.6668823 -0.95804322 0
-3.5346851 -0.92350417 0.20406136
-3.6257551 -0.95197952 -0.8304373
-3.6465001 -0.95742637 -0.62852895
-3.5959921 -0.94416493 -0.41439888
-3.5839384 -0.94100004 -0.20697029
-3.6657219 -0.96247321 0
-3.551162 -0.93239433 0.20507747
-3.654084 -0.96413869 -0.83719188
-3.6627181 -0.96641678 -0.6315251
-3.6073506 -0.95180798 -0.41584006
-3.5978782 -0.94930863 -0.2078414
-3.6771359 -0.97022098 0
-3.539983 -0.93403286 0.20449692
-3.6584089 -0.96764427 -0.83831656
-4.5902472 -1.2141143 -0.79157585
-3.6017787 -0.95266569 -0.41526404
-3.5947945 -0.95081836 -0.20769639
-3.6715121 -0.97111011 0
-3.5494664 -0.93882912 0.20507747
-3.6916206 -0.98120296 -0.84619802
-4.5714173 -1.2150458 -0.78858131
-3.5956304 -0.95568955 -0.41468802
-3.6137233 -0.96049845 -0.20885696
-3.6703362 -0.9755457 0
-3.5533469 -0.94445091 0.20536748
-3.7370675 -0.9981184 -0.85689121
-0 -0 -0
-3.6019626 -0.96203381 -0.41555205
-3.5874605 -0.95816046 -0.20740584
-3.6817241 -0.98333699 0
-3.5522032 -0.94874376 0.20536748
-4.2241898 -1.1336919 -0.96889937
-4.5635042 -1.2247574 -0.78772455
-3.6032932 -0.96705514 -0.41584006
-3.6139085 -0.96990412 -0.20900251
-3.6880763 -0.98980933 0
-3.5610929 -0.95572937 0.20594804
-4.2865968 -1.1559951 -0.98353326
-0 -0 -0
-3.6146157 -0.97477752 -0.41728237
-3.6277821 -0.97832823 -0.20987308
-3.7044692 -0.99900895 0
-3.5373583 -0.95394307 0.20464192
-4.2533174 -1.1525353 -0.97621632
-4.5803528 -1.2411532 -0.7911483
-3.6259151 -0.98252612 -0.41872355
-4.9532614 -1.3422015 -0.28664783
-3.7283738 -1.0102897 0
-3.5562673 -0.96365339 0.20580304
-4.2519217 -1.1576738 -0.97621632
-4.5813246 -1.2473606 -0.79157585
-3.657166 -0.99573928 -0.42247108
-4.9516358 -1.3481855 -0.28664783
-3.7145972 -1.0113761 0
-3.5525858 -0.96726513 0.20565748
-4.260323 -1.1654924 -0.97846788
-4.579814 -1.2528952 -0.79157585
-3.6734262 -1.0049357 -0.42448941
-0 -0 -0
-3.7359624 -1.0220437 0
-3.5689614 -0.97635734 0.20667359
-4.266264 -1.1726604 -0.98015708
-4.5807695 -1.2591079 -0.79200339
-3.6672165 -1.0080012 -0.42391226
-0 -0 -0
-4.8739524 -1.3396946 0
-3.5502379 -0.97584754 0.20565748
-4.2697377 -1.179166 -0.98128176
-4.5792446 -1.264642 -0.79200339
-3.6385689 -1.0048571 -0.42074075
-0 -0 -0
-4.8823547 -1.3483514 0
-3.5690937 -0.98567033 0.2068186
-4.2560701 -1.1809281 -0.97846788
-4.5727711 -1.2688028 -0.7911483
-4.8460679 -1.3446342 -0.56055564
-4.9425607 -1.371408 -0.28650281
-4.8857427 -1.3556427 0
-3.5553832 -0.98650908 0.20609303
-4.2521949 -1.1853882 -0.97790551
-4.5761752 -1.2757045 -0.79200339
-0 -0 -0
-4.9383993 -1.376682 -0.28635782
-4.8690643 -1.3573534 0
-4.9307723 -1.3745558 0.28591555
-4.2434168 -1.1884688 -0.97621632
-4.5746303 -1.281233 -0.79200339
-4.842804 -1.3563414 -0.56055564
-4.9417319 -1.3840483 -0.28664783
-4.8774352 -1.3660406 0
-4.8740649 -1.3650967 0.28272277
-4.2370906 -1.1922202 -0.97509164
-4.5730791 -1.2867596 -0.79200339
-4.8411617 -1.3621919 -0.56055564
-4.9425545 -1.3907216 -0.28679281
-4.8382101 -1.3613614 0
-4.8674145 -1.3695787 0.28243276
-4.2331948 -1.1966459 -0.97452712
-4.5739985 -1.2929846 -0.79243261
-4.8395123 -1.3680406 -0.56055564
-4.9533801 -1.4002289 -0.28751892
-4.8365617 -1.3672065 0
-4.865756 -1.3754591 0.28243276
-4.2398076 -1.2012817 -0.97621632
-4.5830956 -1.2985469 -0.79414445
-4.8337126 -1.3695552 -0.55997962
-4.9550309 -1.4039289 -0.28766394
-4.8432488 -1.3722572 0
-0 -0 0
-4.2505698 -1.2098812 -0.97903019
-4.5790472 -1.3033789 -0.79371524
-4.8320541 -1.3753948 -0.55997962
-4.9733243 -1.415606 -0.28882504
-4.8365765 -1.376682 0
-4.8732514 -1.3871213 0.28301334
-4.2564359 -1.2171127 -0.98071939
-4.5675964 -1.3060879 -0.79200339
-4.8428206 -1.3847872 -0.5614208
-6.2231984 -1.7795013 -0.36153588
-4.8424182 -1.3846723 0
-4.8690662 -1.3922921 0.28286776
-3.4608057 -0.99413019 -0.99343896
-4.2329855 -1.2159419 -0.97565401
-4.5684891 -1.3123168 -0.79243261
-4.8411436 -1.3906379 -0.5614208
-6.2135582 -1.7848694 -0.36110088
-4.8382425 -1.3898045 0
-4.8598952 -1.3960243 0.28243276
-4.233952 -1.2217596 -0.97621632
-4.5866318 -1.3235297 -0.79585636
-4.8394599 -1.3964864 -0.5614208
-6.1914244 -1.7866126 -0.35993975
-4.8365598 -1.3956496 0
-4.8557014 -1.4011731 0.28228721
-4.2422342 -1.2297041 -0.97846788
-4.5751667 -1.3262119 -0.79414445
-4.8303137 -1.4001719 -0.56055564
-6.1917543 -1.7948152 -0.36008477
-4.8323631 -1.4007659 0
-4.8614941 -1.4092102 0.28272277
-4.22855 -1.2312781 -0.97565401
-4.5809479 -1.3338902 -0.79542714
-4.8261375 -1.405285 -0.56026763
-6.1895814 -1.8022953 -0.36008477
-4.8231783 -1.4044232 0
-4.8572955 -1.4143575 0.28257778
-4.2441325 -1.2413805 -0.97959471
-4.5793328 -1.3394244 -0.79542714
-4.8269162 -1.4118408 -0.56055564
-6.177423 -1.8068551 -0.35950419
-4.8264685 -1.4117099 0
-4.8605661 -1.4216832 0.28286776
-3.4763973 -1.0213846 -0.99966776
-4.2353134 -1.2443583 -0.97790551
-4.5727901 -1.3435107 -0.794572
-4.832654 -1.4198601 -0.5614208
-6.1602817 -1.8099245 -0.35863364
-4.8272538 -1.4182736 0
-4.8563542 -1.4268234 0.28272277
-3.4679399 -1.0234534 -0.9975906
-4.2386761 -1.250912 -0.97903019
-4.5711632 -1.3490351 -0.794572
-4.8284564 -1.4249671 -0.56113279
-4.9095645 -1.4489036 -0.28592226
-4.8180556 -1.4218975 0
-4.8247204 -1.4238645 0.28098109
-4.2347279 -1.2553111 -0.97846788
-4.5646029 -1.3530968 -0.79371524
-4.8292084 -1.4315346 -0.5614208
-4.937706 -1.4636968 -0.28766394
-4.7988653 -1.4225399 0
-4.8180184 -1.4282175 0.28069109
-3.4678679 -1.032549 -0.99828476
-4.2283421 -1.2589782 -0.9773432
-4.5777311 -1.3630081 -0.7962839
-4.8274751 -1.4373688 -0.5614208
-4.9359336 -1.469662 -0.28766394
-4.8146052 -1.4335368 0
-4.8212652 -1.4355197 0.28098109
-4.2268176 -1.2640865 -0.9773432
-4.5859189 -1.3714805 -0.79799575
-4.8455591 -1.4491295 -0.56372714
-4.9266834 -1.4733908 -0.28722838
-4.810369 -1.4386054 0
-4.8195271 -1.4413443 0.28098109
-4.2228465 -1.2684598 -0.97677869
-4.5744238 -1.3740667 -0.7962839
-4.8388457 -1.4534937 -0.56314999
-4.9199271 -1.477849 -0.28693837
-4.8185973 -1.4474115 0
-4.8202682 -1.4479134 0.28112611
-4.228611 -1.2757638 -0.97846788
-4.5703049 -1.3788522 -0.79585636
-4.8370857 -1.4593395 -0.56314999
-4.9057016 -1.4800408 -0.2862128
-4.8193436 -1.4539866 0
-4.8135448 -1.4522371 0.28083611
-4.2270665 -1.2808723 -0.97846788
-4.5833716 -1.3888388 -0.79842329
-4.8303733 -1.4636844 -0.56257397
-4.8815217 -1.4791832 -0.28490615
-4.8101087 -1.457544 0
-4.8142705 -1.4588051 0.28098109
-3.4423659 -1.0476378 -0.99274749
-4.2279439 -1.286718 -0.97903019
-4.5792365 -1.3936292 -0.79799575
-4.8211751 -1.46726 -0.56170881
-4.8673038 -1.4812986 -0.28418058
-4.8257747 -1.4686598 0
-4.8249316 -1.4684031 0.28170666
-4.2320313 -1.2907561 -0.98015708
-4.5759406 -1.3956473 -0.7975682
-4.8277121 -1.4724368 -0.56257397
-4.863925 -1.4834815 -0.28403559
-4.8223901 -1.4708136 0
-4.8215604 -1.4705606 0.28156164
-4.2304688 -1.2958688 -0.98015708
-4.579155 -1.4026777 -0.79842329
-4.8259296 -1.4782691 -0.56257397
-4.8447347 -1.4840295 -0.28301945
-4.8106561 -1.4735905 0
-4.8222623 -1.4771457 0.28170666
-3.4511724 -1.0617193 -0.99620765
-4.2167592 -1.2972445 -0.9773432
-4.5700941 -1.4059445 -0.79713899
-4.8266096 -1.484859 -0.56286198
-4.833004 -1.4868262 -0.2824389
-4.8014169 -1.4771086 0
-4.8155112 -1.4814447 0.28141665
-3.441406 -1.0678252 -0.99413049
-4.233026 -1.313455 -0.98184627
-4.5691419 -1.4177474 -0.7975682
-4.8254752 -1.4972844 -0.56314999
-4.8269172 -1.4977319 -0.28229392
-4.7829146 -1.4840785 0
-4.8292918 -1.4984688 0.28243276
-4.2071729 -1.3110081 -0.97621632
-4.5723224 -1.4247932 -0.79842329
-4.826139 -1.5038857 -0.56343913
-4.8052578 -1.4973788 -0.28113279
-4.7885742 -1.4921801 0
-4.8274775 -1.5043029 0.28243276
-3.4436085 -1.0776385 -0.99551612
-4.2080083 -1.3168488 -0.97677869
-4.5730448 -1.4310828 -0.79885089
-4.8292503 -1.5112596 -0.56401515
-4.7960124 -1.5008581 -0.28069779
-4.7842865 -1.4971886 0
-4.8330889 -1.5124607 0.28286776
-4.2064142 -1.3219323 -0.97677869
-4.5786619 -1.4389172 -0.8001352
-4.8200159 -1.5147666 -0.56314999
-4.774364 -1.5004197 -0.27953666
-4.782474 -1.5029683 0
-4.833744 -1.5190808 0.28301334
-3.4553444 -1.090486 -0.99966776
-4.2048135 -1.3270141 -0.97677869
-4.581811 -1.4459922 -0.80099028
-4.8231201 -1.5221478 -0.56372714
-4.7601509 -1.5022751 -0.27881056
-4.7930613 -1.5126615 0
-4.8368559 -1.5264828 0.28330332
-3.4540243 -1.0946604 -0.99966776
-4.203207 -1.3320937 -0.97677869
-4.5800605 -1.4515274 -0.80099028
-4.8138781 -1.5256295 -0.56286198
-4.7608161 -1.508813 -0.27895612
-4.7713828 -1.5121619 0
-4.8424416 -1.5346819 0.28373888
-4.1919093 -1.3340893 -0.97452712
-4.5685282 -1.4539493 -0.79928005
-4.8169651 -1.5330154 -0.56343913
-4.7466116 -1.5106251 -0.27823055
-4.7869143 -1.5234514 0
-4.845531 -1.5421065 0.28402889
-4.1951399 -1.3407018 -0.97565401
-4.5594296 -1.4571234 -0.79799575
-4.8200321 -1.5404078 -0.56401515
-4.7323999 -1.5124019 -0.27750444
-4.7974625 -1.5331949 0
-4.8510919 -1.5503341 0.28446445
-4.1862564 -1.3434399 -0.97396481
-4.5723267 -1.4673364 -0.80056274
-4.8255577 -1.5486026 -0.56488031
-4.7182007 -1.5141498 -0.27677888
-4.7757821 -1.5326287 0
-4.8442621 -1.554605 0.28417388
-4.1822138 -1.3477186 -0.97340244
-4.5681095 -1.4720736 -0.8001352
-4.8236833 -1.5544322 -0.56488031
-4.7138968 -1.5190535 -0.27663389
-4.7739267 -1.5383981 0
-4.8448606 -1.5612565 0.28431946
-3.4330311 -1.1108751 -0.99551612
-4.1757426 -1.351205 -0.97227561
-4.5687675 -1.4783816 -0.80056274
-4.8267183 -1.5618505 -0.56545633
-4.6996989 -1.5207491 -0.27590832
-4.7844424 -1.5481707 0
-4.8503799 -1.569507 0.28475446
-3.4436138 -1.1188979 -0.99897629
-4.188611 -1.3609622 -0.97565401
-4.5718656 -1.4854891 -0.8014195
-4.8149881 -1.5644845 -0.56430316
-4.702796 -1.528031 -0.27619833
-4.7800956 -1.5531472 0
-4.8484797 -1.5753666 0.28475446
-3.4333951 -1.1178714 -0.99620765
-4.182951 -1.3619177 -0.97452712
-4.5782828 -1.4906329 -0.80270219
-4.8238797 -1.5705962 -0.56545633
-4.6845837 -1.525243 -0.27518278
-4.7766843 -1.5552299 0
-4.8598886 -1.5823202 0.28548056
-3.4320419 -1.1220192 -0.99620765
-4.1933851 -1.370921 -0.9773432
-4.5716033 -1.4945699 -0.80184704
-4.8121448 -1.5732088 -0.56430316
-4.6654463 -1.5252495 -0.27416664
-4.7846961 -1.5642352 0
-4.865375 -1.5906112 0.28591555
-3.4283023 -1.1253836 -0.99551612
-4.1796474 -1.3720223 -0.97452712
-4.5746675 -1.5016924 -0.80270219
-4.822525 -1.5830549 -0.5657444
-4.6561909 -1.5284536 -0.27373108
-4.772912 -1.5667688 0
-4.8708587 -1.5989211 0.28635111
-3.4126394 -1.1248118 -0.99136186
-4.1779866 -1.3770715 -0.97452712
-4.5801659 -1.5096304 -0.80398649
-4.8230724 -1.5896928 -0.56603348
-4.6666775 -1.5381448 -0.27445665
-4.7932582 -1.5798661 0
-4.8812599 -1.6088716 0.28707668
-4.1787391 -1.3829194 -0.97509164
-4.5637207 -1.510326 -0.8014195
-4.8236012 -1.5963314 -0.56632149
-4.6500192 -1.5388857 -0.27358609
-4.7987604 -1.5881103 0
-4.8768477 -1.6139529 0.28693166
-3.4242003 -1.1378036 -0.99551612
-4.1794739 -1.3887681 -0.97565401
-4.5813813 -1.522315 -0.80484325
-4.8216686 -1.6021585 -0.56632149
-4.6629467 -1.5494179 -0.27445665
-4.7943611 -1.5930846 0
-7.2272267 -2.4014845 0.42538777
-4.175385 -1.3930137 -0.97509164
-4.5770965 -1.5270349 -0.80441403
-4.8197293 -1.6079834 -0.56632149
-4.6610713 -1.555051 -0.27445665
-4.7825575 -1.5955819 0
-7.2070632 -2.4044583 0.42437166
-3.4357092 -1.1508547 -0.99966776
-4.1785126 -1.3996705 -0.97621632
-4.580121 -1.5341966 -0.80527079
-4.8128734 -1.6121613 -0.5657444
-4.6641216 -1.5623341 -0.27474722
-4.7929721 -1.605495 0
-7.1893644 -2.4082112 0.42350054
-4.1792245 -1.4055275 -0.97677869
-4.5782638 -1.5397296 -0.80527079
-4.8256359 -1.6229241 -0.56747466
-4.6745424 -1.5721093 -0.27547276
-4.8132267 -1.6187508 0
-4.940412 -1.6615248 0.29114059
-3.4091535 -1.1511297 -0.99274749
-4.1823425 -1.4122036 -0.97790551
-4.5861287 -1.5485454 -0.80698264
-4.8285675 -1.630407 -0.56805068
-4.6726394 -1.5777565 -0.27547276
-4.8334565 -1.6320578 0
-4.9408603 -1.6683236 0.29128557
-3.4267676 -1.1616919 -0.99828476
-4.1734114 -1.4148079 -0.97621632
-4.5721006 -1.5499656 -0.80484325
-4.8216996 -1.634581 -0.56747466
-4.6707296 -1.5834013 -0.27547276
-4.8290186 -1.6370622 0
-4.9339237 -1.6726255 0.2909956
-4.1789174 -1.4223065 -0.97790551
-4.5726523 -1.5563153 -0.80527079
-4.817275 -1.6395733 -0.56718665
-4.6589732 -1.5856949 -0.27489221
-4.8344212 -1.645409 0
-0 -0 0
-3.4144542 -1.1667248 -0.99551612
-4.1820002 -1.4289964 -0.97903019
-4.5780582 -1.5643302 -0.80655509
-4.8103905 -1.6437186 -0.5666095
-6.0855851 -2.0794547 -0.35921422
-4.8447404 -1.6554561 0
-4.9347801 -1.6862228 0.29128557
-3.4201543 -1.1732895 -0.9975906
-4.1706567 -1.4307506 -0.97677869
-4.5591655 -1.5640291 -0.80355895
-4.8181868 -1.6528869 -0.56776267
-6.0511088 -2.0758429 -0.35732698
-4.8624301 -1.6680646 0
-4.9278283 -1.6904995 0.2909956
-3.3902698 -1.167618 -0.98928469
-4.1761341 -1.438272 -0.97846788
-4.5766892 -1.5762242 -0.80698264
-4.823525 -1.6612351 -0.56862783
-6.0682507 -2.089922 -0.35848808
-4.8973231 -1.6866513 0
-4.9282365 -1.6972979 0.29114059
-3.3912344 -1.1725359 -0.98997885
-4.1792006 -1.4449792 -0.97959471
-4.5723577 -1.580915 -0.80655509
-4.8166208 -1.6653701 -0.56805068
-6.0706372 -2.0989525 -0.35877866
-4.8928242 -1.691718 0
-4.9237285 -1.7024032 0.2909956
-4.1798501 -1.4508603 -0.98015708
-4.5704441 -1.5864387 -0.80655509
-4.8097224 -1.6694942 -0.56747466
-6.0680966 -2.1062863 -0.35877866
-4.8612733 -1.6873879 0
-4.9167538 -1.7066456 0.29070503
-3.4097102 -1.1881566 -0.99620765
-4.1756968 -1.4550744 -0.97959471
-4.5685239 -1.59196 -0.80655509
-4.8199115 -1.6795592 -0.56891584
-6.0532808 -2.1093423 -0.35805309
-6.9038229 -2.4057245 0
-4.9196 -1.7142969 0.2909956
-3.4066253 -1.1893903 -0.99551612
-4.172411 -1.4567569 -0.97903019
-0 -0 -0
-4.8311033 -1.686733 -0.57035702
-6.0789838 -2.1224184 -0.35964921
-6.9244795 -2.4176149 0
-4.9013886 -1.7112724 0.28997946
-3.3815055 -1.1852058 -0.98859316
-4.1754479 -1.4634799 -0.98015708
-4.5728917 -1.6027825 -0.80783778
-4.8266234 -1.6917145 -0.57006902
-6.051898 -2.1211689 -0.35819808
-6.9215531 -2.4259801 0
-4.8944082 -1.7154729 0.28968892
-3.3919015 -1.1934534 -0.99205333
-4.1784658 -1.4702091 -0.98128176
-4.563694 -1.6057532 -0.80655509
-4.8245754 -1.6975453 -0.57006902
-6.037077 -2.1241686 -0.35747254
-6.8965244 -2.4265683 0
-6.9242277 -2.436316 0.41000327
-3.3975558 -1.2000585 -0.99413049
-4.1695056 -1.4727206 -0.97959471
-4.5762691 -1.6163944 -0.80912209
-4.8200846 -1.702513 -0.56978101
-6.0565543 -2.1392493 -0.35877866
-6.9377532 -2.4504995 0
-6.877182 -2.429105 0.40739104
-4.1773024 -1.4811541 -0.98184627
-4.5622172 -1.6176342 -0.80698264
-4.8180237 -1.7083359 -0.56978101
-6.0613146 -2.1491721 -0.35921422
-6.915164 -2.4519229 0
-6.8619986 -2.4330721 0.40666547
-3.4064612 -1.212471 -0.9975906
-4.1611423 -1.4810867 -0.97846788
-4.5699334 -1.6265887 -0.80869454
-4.8159561 -1.7141563 -0.56978101
-6.053813 -2.1547499 -0.35892364
-6.9220037 -2.4637675 0
-6.8517075 -2.4387469 0.40622991
-3.4073629 -1.2174326 -0.99828476
-4.1617403 -1.4869677 -0.97903019
-4.5582948 -1.6286545 -0.80698264
-4.8138814 -1.7199742 -0.56978101
-6.0512047 -2.1620634 -0.35892364
-6.9165735 -2.4712548 0
-6.8193922 -2.4365325 0.40448824
-3.4082487 -1.2223951 -0.99897629
-4.1623392 -1.4928555 -0.97959471
-4.5635657 -1.6367586 -0.80826533
-4.8239703 -1.7301548 -0.57122219
-6.0461445 -2.1684971 -0.35877866
-6.9135823 -2.4796104 0
-6.8042164 -2.4403853 0.40376267
-3.3949692 -1.2222642 -0.99551612
-4.1605325 -1.4978838 -0.97959471
-4.5640073 -1.6431437 -0.80869454
-4.8218765 -1.7359823 -0.57122219
-6.0557413 -2.1802011 -0.35950419
-6.9154735 -2.4897237 0
-6.7817039 -2.4415636 0.40260157
-3.4076419 -1.2314798 -0.99966776
-4.1611066 -1.5037726 -0.98015708
-4.5692539 -1.6512721 -0.80997717
-4.8343654 -1.7470801 -0.57295138
-6.0506616 -2.1866343 -0.3593592
-6.9026699 -2.4945397 0
-6.7592077 -2.4426944 0.40144101
-3.3872843 -1.2287521 -0.99413049
-4.1569004 -1.5079337 -0.97959471
-4.5576029 -1.6532904 -0.80826533
-4.815238 -1.7467487 -0.57093418
-6.0528955 -2.1957142 -0.35964921
-6.9094367 -2.5064285 0
-6.7415905 -2.4455416 0.40056989
-3.3975816 -1.2371352 -0.9975906
-4.1670108 -1.5173014 -0.98240858
-4.5700793 -1.6640676 -0.81083393
-4.8155518 -1.7534497 -0.57122219
-6.0453596 -2.2012501 -0.3593592
-6.8917356 -2.5094345 0
-6.7142191 -2.4447968 0.39911878
-4.1699429 -1.5240781 -0.98353326
-4.5656562 -1.6687081 -0.81040639
-4.8110027 -1.7583801 -0.57093418
-6.0378094 -2.2067673 -0.35906863
-6.89114 -2.5186524 0
-6.6624494 -2.4350679 0.39621598
-3.3804548 -1.2401595 -0.99343896
-4.1752567 -1.5317419 -0.98522246
-4.5684524 -1.6759902 -0.81126153
-4.8137264 -1.7659719 -0.5715102
-6.0205064 -2.2086933 -0.35819808
-6.7439456 -2.4740956 0
-6.581439 -2.4144781 0.39157152
-3.3860188 -1.2468448 -0.99551612
-4.159101 -1.5315193 -0.98184627
-4.5640173 -1.6806228 -0.81083393
-4.809164 -1.7708942 -0.57122219
-6.04953 -2.227638 -0.36008477
-6.5187197 -2.4004092 0
-6.4931803 -2.391005 0.38649207
-3.3986244 -1.256152 -0.99966776
-4.1548572 -1.5356603 -0.98128176
-4.5643888 -1.6870254 -0.81126153
-4.8118682 -1.7784954 -0.57179821
-6.0419545 -2.2331429 -0.3597942
-0 -0 0
-0 -0 0
-3.3853457 -1.2558955 -0.99620765
-4.1649079 -1.5450975 -0.98409563
-4.557538 -1.6907554 -0.81040639
-4.8097157 -1.7843083 -0.57179821
-6.0587416 -2.2476718 -0.36095533
-0 -0 0
-0 -0 0
-3.396342 -1.2623098 -0.99966776
-4.1711211 -1.5502698 -0.98578483
-4.5516987 -1.6917181 -0.80954963
-4.8256106 -1.7935224 -0.57381654
-6.0598254 -2.2522397 -0.36110088
-6.4260645 -2.3883591 0
-6.4518337 -2.3979366 0.38446039
-3.3830638 -1.2620293 -0.99620765
-4.1716232 -1.556196 -0.9863472
-4.556869 -1.6999093 -0.81083393
-4.8185978 -1.7975456 -0.57324052
-6.0473614 -2.2559273 -0.36052033
-6.4134207 -2.3924835 0
-6.4440575 -2.4039123 0.38416982
-3.3815365 -1.2661161 -0.99620765
-4.1578441 -1.5567815 -0.98353326
-4.5596151 -1.7072127 -0.81168908
-4.816422 -1.8033665 -0.57324052
-6.0519242 -2.2659636 -0.36095533
-6.4080901 -2.3993194 0
-6.4314141 -2.4080524 0.38358927
-3.3800042 -1.2702011 -0.99620765
-4.1559601 -1.5618043 -0.98353326
-4.557549 -1.7127209 -0.81168908
-4.821496 -1.8119119 -0.57410455
-6.0637808 -2.2787607 -0.36182645
-6.4100542 -2.4088898 0
-6.4382296 -2.4194782 0.38416982
-3.383157 -1.2760533 -0.9975906
-4.1516948 -1.5659289 -0.98297095
-4.5698919 -1.7236639 -0.81425768
-4.8314104 -1.8223031 -0.57554686
-6.0440016 -2.2796659 -0.36081031
-6.4095807 -2.4175544 0
-6.4450264 -2.4309237 0.3847504
-3.3886538 -1.2828057 -0.99966776
-4.1664362 -1.5772423 -0.98691165
-4.5678062 -1.7291845 -0.81425768
-4.8243628 -1.8263063 -0.57496971
-6.0412426 -2.2869673 -0.36081031
-5.1629763 -1.9544916 0
-6.4493771 -2.4414704 0.38518596
-3.3659968 -1.2788808 -0.99343896
-4.1336513 -1.5705445 -0.97959471
-4.5585117 -1.7319664 -0.81297338
-4.8100653 -1.8275419 -0.57352853
-6.0481911 -2.2979569 -0.36139089
-5.1508799 -1.9570312 0
-6.4488492 -2.4501834 0.38533095
-3.366791 -1.2838401 -0.99413049
-4.1222544 -1.5719167 -0.9773432
-4.5612178 -1.7393043 -0.81383014
-4.8126826 -1.835194 -0.57410455
-6.0454102 -2.3052633 -0.36139089
-5.1290574 -1.9558356 0
-6.4555955 -2.4616771 0.38591149
-3.3816407 -1.2941849 -0.99897629
-4.1061091 -1.5714456 -0.97396481
-4.5543132 -1.7429775 -0.81297338
-4.8152976 -1.8428586 -0.5746817
-6.0426202 -2.3125663 -0.36139089
-5.0829449 -1.9452897 0
-6.450192 -2.4685476 0.38576651
-3.3636785 -1.2919725 -0.99413049
-4.0852318 -1.5691175 -0.96946168
-4.5570011 -1.7503219 -0.81383014
-4.8154793 -1.8496021 -0.57496971
-6.0398216 -2.3198659 -0.36139089
-5.0344286 -1.9336994 0
-6.4302225 -2.4698169 0.3847504
-4.0975623 -1.5795379 -0.97284007
-4.5620618 -1.7585942 -0.81511283
-4.8108301 -1.8544899 -0.5746817
-6.0467124 -2.3309007 -0.36197144
-5.0102358 -1.9313574 0
-6.4369316 -2.4813232 0.38533095
-3.3722432 -1.3046225 -0.9975906
-4.0909066 -1.5826524 -0.97171324
-4.5527577 -1.7613292 -0.81383014
-4.8278837 -1.8677673 -0.57698804
-6.0414701 -2.3372686 -0.36182645
-5.0054736 -1.9364717 0
-5.1520095 -1.993162 0.3085562
-4.0937333 -1.5894355 -0.97284007
-4.5530171 -1.7677573 -0.81425768
-4.823205 -1.8726606 -0.5766989
-6.0434818 -2.346446 -0.36211643
-4.9982734 -1.9406327 0
-5.1399078 -1.9956239 0.30797565
-3.3503799 -1.3054813 -0.99205333
