# .PCD v0.7 - Point Cloud Data file format
VERSION 0.7
FIELDS x y z
SIZE 4 4 4
TYPE F F F
COUNT 1 1 1
WIDTH 1534
HEIGHT 1
VIEWPOINT 0 0 0 1 0 0 0
POINTS 1534
DATA ascii
-0.28473052 3.4832869 -0.58265054
-0.28747153 3.5168192 -0.39329621
-0.28024587 3.4284234 -0.19213733
-0.30088079 3.6808631 0
-1.7842599 21.827969 1.2232935
-0.29159927 3.5150054 -0.78135329
-0.29000098 3.4957392 -0.5847916
-0.29428676 3.547401 -0.39675573
-0.28761002 3.466918 -0.19431402
-0.30554396 3.6830981 0
-1.8114928 21.836155 1.2238741
-0.2930758 3.4817376 -0.77403635
-0.29336339 3.4851542 -0.5830797
-0.2992231 3.5547674 -0.39761975
-0.29920974 3.5546088 -0.19924903
-0 0 0
-1.8383117 21.839125 1.224164
-0.29901209 3.5016346 -0.77853942
-0.29822889 3.4924629 -0.58436239
-0.30351812 3.5544033 -0.39761975
-0.30284113 3.5464752 -0.19881347
-0.31067961 3.6382692 0
-1.865362 21.844656 1.2245996
-0.30236593 3.4911449 -0.77628785
-0.30311337 3.4997749 -0.58564669
-0.30736679 3.5488853 -0.39704373
-0.31138548 3.5952857 -0.2015707
-0.31664681 3.6560333 0
-1.8926526 21.852741 1.2251801
-0.30591694 3.4831812 -0.77459866
-0.30599481 3.4840677 -0.5830797
-0.31188077 3.5510855 -0.39733174
-0.3166388 3.6052606 -0.20215127
-0.32493472 3.6997185 0
-1.9211018 21.873734 1.2264863
-0.32043177 3.598552 -0.99675816
-0.3103506 3.4853375 -0.77516103
-0.31202587 3.5041511 -0.58650345
-0.3152537 3.5404007 -0.39617857
-0.32214695 3.6178141 -0.20287682
-0.32917428 3.6967332 0
-1.949144 21.889515 1.2275023
-0.3252303 3.6031547 -0.99814117
-0.31410533 3.4799035 -0.77403635
-0.31487465 3.4884267 -0.58393484
-0.31883359 3.5322866 -0.39531344
-0.32908788 3.6458919 -0.2044735
-0.33083335 3.6652293 0
-1.9772263 21.905252 1.228518
-0.32798457 3.5852778 -0.99329799
-0.31622681 3.4567509 -0.76897091
-0.31628317 3.4573667 -0.57879925
-0.32074559 3.5061467 -0.39243105
-0.33254611 3.6351409 -0.20389293
-0.33526179 3.6648269 0
-2.0055869 21.92355 1.2296791
-0.32157585 3.4690142 -0.77178478
-0.31998703 3.4518747 -0.5779441
-0.32426539 3.4980278 -0.39156589
-0.33933622 3.6606052 -0.20534405
-0.33776802 3.643688 0
-2.0323153 21.923695 1.2298241
-0.33641258 3.5819697 -0.99260384
-0.32434213 3.4534492 -0.76840854
-0.32703817 3.4821556 -0.5830797
-0.32849184 3.4976332 -0.39156589
-0.34691846 3.6938317 -0.20723128
-0.34314388 3.6536417 0
-2.060019 21.934156 1.2305496
-0.32947639 3.4631631 -0.77065796
-0.33270374 3.497086 -0.58564669
-0.33394238 3.5101056 -0.3930071
-0.35138148 3.6934099 -0.20723128
-0.33498845 3.521101 0
-2.0877519 21.944592 1.2312758
-0.34747449 3.6061232 -0.9995268
-0.33195546 3.4450655 -0.76671934
-0.33225167 3.4481394 -0.57751656
-0.33843222 3.5122817 -0.39329621
-0.35434815 3.6774588 -0.20636018
-0.34623191 3.5932276 0
-2.1137671 21.936874 1.2309852
-0.34793329 3.5657501 -0.9884522
-0.33389732 3.4219043 -0.76165396
-0.52587652 5.389379 -0.90275359
-0.34317777 3.5170135 -0.39387223
-0.35980079 3.6873727 -0.20694073
-0.35133183 3.6005797 0
-2.1422908 21.954994 1.2321463
-0.35421482 3.5853 -0.99398953
-0.41571984 4.2078433 -0.93670082
-0.53037006 5.3683124 -0.89933151
-0.34819028 3.5243208 -0.39473739
-0.36578834 3.7024453 -0.20781128
-0.36182213 3.6623001 0
-2.1695843 21.96015 1.2325819
-0.35737348 3.5950713 -0.99675816
-0.4192673 4.2177048 -0.93895239
-0.53158176 5.3475552 -0.89590776
-0.35031945 3.5241098 -0.39473739
-0.36725473 3.694474 -0.20737629
-0.36815363 3.7035165 0
-2.185421 21.984688 1.234033
-0.3619681 3.5971305 -0.99744964
-0.42334569 4.2070827 -0.93670082
-0.5385564 5.3520122 -0.89676291
-0.35457736 3.5236838 -0.39473739
-0.37041798 3.681103 -0.20665073
-0.37184641 3.6952982 0
-2.2127643 21.98979 1.2344686
-0.36606029 3.594197 -0.99675816
-0.42688459 4.1914062 -0.93332464
-0.54450315 5.3462548 -0.89590776
-0.35673824 3.5026674 -0.39243105
-0.37460157 3.6780603 -0.20650516
-0.91131914 8.9478722 0
-2.2427554 22.020702 1.2363552
-0.37065989 3.5962453 -0.99744964
-0.43299079 4.2009974 -0.93557614
-0.55175149 5.3532462 -0.89719045
-0.35911375 3.4842215 -0.39041275
-0.38091061 3.6957006 -0.20752129
-0.92399824 8.9648886 0
-2.2698939 22.023142 1.2366452
-0.37474498 3.593302 -0.99675816
-0.43648469 4.1853027 -0.93219775
-0.5576874 5.3474741 -0.8963353
-0.36117718 3.4632049 -0.38810641
-0.38402846 3.6823182 -0.20679572
-0.93375009 8.9534111 0
-2.2981205 22.035894 1.2375163
-0.37698057 3.5728872 -0.99122089
-0.44127515 4.1822481 -0.93163544
-0.56307089 5.336585 -0.89462346
-0.36509037 3.460196 -0.38781837
-0.39093116 3.7051058 -0.20810184
-0.94538736 8.9600439 0
-2.3252897 22.038265 1.2378063
-0.37890139 3.5499802 -0.98499209
-0.44686809 4.18677 -0.93276227
-0.56870115 5.3282404 -0.89333916
-0.36927107 3.4597523 -0.38781837
-0.39926809 3.7407987 -0.21013352
-0 0 0
-2.3532956 22.048355 1.2385318
-0.38399762 3.5569954 -0.98706657
-0.45056227 4.1735883 -0.92994624
-0.5759657 5.3352084 -0.89462346
-0.37206346 3.4464486 -0.38637719
-0.40155664 3.719646 -0.20897239
-0.96452379 8.9344482 0
-2.3821661 22.066164 1.239693
-0.39265183 3.596432 -0.99814117
-0.456157 4.1780977 -0.93107307
-0.37318435 3.4181228 -0.57323605
-0.37594709 3.4434276 -0.38608918
-0.40520558 3.7114162 -0.2085374
-0.97531861 8.9332762 0
-2.410238 22.076191 1.2404191
-0.39396963 3.5685322 -0.99052936
-0.45925304 4.159862 -0.92713237
-0.37590599 3.4049139 -0.57109666
-0.37897223 3.4326875 -0.384936
-0.40797842 3.6954224 -0.20766628
-0 0 0
-2.4397619 22.099085 1.2418703
-0.39967251 3.5805175 -0.99398953
-0.4656882 4.1719279 -0.92994624
-0.37432432 3.3534327 -0.56253731
-0.38111088 3.4142308 -0.38291767
-0.40812027 3.656198 -0.20548961
-0.99719244 8.9334764 0
-2.4673276 22.10387 1.2423058
-0.40259221 3.5675697 -0.99052936
-0.47044414 4.1688395 -0.92938387
-0.38154277 3.3810401 -0.56724536
-0.38581666 3.4189131 -0.38349482
-0.41311997 3.6608613 -0.20577961
-1.0056514 8.9115772 0
-2.4957817 22.116362 1.2431763
-0.40633342 3.5620906 -0.98914373
-0.47490564 4.1632237 -0.92825919
-0.3838827 3.3652782 -0.56467837
-0.38936061 3.4133 -0.38291767
-0.41577667 3.6448743 -0.20490906
-1.0164186 8.9103556 0
-2.5236812 22.123657 1.2437569
-0.4106372 3.5615971 -0.98914373
-0.47993574 4.1626468 -0.92825919
-0.3867726 3.3546114 -0.56296647
-0.39466962 3.4231048 -0.38407084
-0.41928735 3.6366227 -0.2044735
-1.0283766 8.9194622 0
-2.552495 22.138662 1.244773
-0.41726327 3.5810337 -0.994681
-0.48408261 4.15449 -0.92657
-0.39023095 3.3490369 -0.56210971
-0.39611161 3.3995061 -0.38147649
-0.42187732 3.6206324 -0.20360294
-1.0391532 8.9182129 0
-2.5786414 22.130396 1.2444825
-0.41865683 3.5556161 -0.98776072
-0.48939899 4.1564231 -0.92713237
-0.396079 3.3638647 -0.56467837
-0.39900914 3.3887498 -0.38032332
-0.42807442 3.6355989 -0.2044735
-1.0496243 8.9143686 0
-2.463182 20.919592 1.1765605
-0.42265555 3.5526092 -0.98706657
-0.49412099 4.1533079 -0.92657
-0.40833062 3.4322019 -0.57623225
-0.40585324 3.4113781 -0.38291767
-0.435844 3.6634641 -0.20607017
-1.0600865 8.9105024 0
-2.4884574 20.916599 1.1765605
-0.42874479 3.5670457 -0.99122089
-0.49732032 4.1375766 -0.92319375
-0.41645968 3.4648368 -0.58179539
-0.41583982 3.4596798 -0.38839552
-0.44151065 3.6732543 -0.20665073
-1.0717844 8.9169693 0
-2.5115595 20.895527 1.175545
-0.43033326 3.5441132 -0.98499209
-0.50262541 4.1394925 -0.92375612
-0.42312136 3.4847181 -0.58521914
-0.42812517 3.525928 -0.39589056
-0.45221171 3.7242985 -0.20955296
-1.0828714 8.9182482 0
-2.5333602 20.8641 1.1739483
-0.43553066 3.5510538 -0.98706657
-0.50824481 4.1439214 -0.9248808
-0.43233174 3.524972 -0.59206665
-0.44151613 3.5998559 -0.40425077
-0.45861 3.739229 -0.21042408
-1.095548 8.9324369 0
-2.5512941 20.80171 1.1706105
-0.36875027 2.9767947 -0.98904383
-0.44013038 3.5530219 -0.98776072
-0.5110659 4.1256599 -0.92094225
-0.43532833 3.5142565 -0.59035474
-0.44872698 3.6224191 -0.40684512
-0.46344694 3.7412484 -0.21056907
-1.1056999 8.9259367 0
-2.5585384 20.654203 1.1624827
-0.44317749 3.5425301 -0.98499209
-0.51573426 4.1225109 -0.92037773
-0.43766174 3.4984398 -0.58778614
-0.45246086 3.6167364 -0.40626797
-0.46925738 3.750999 -0.21114963
-1.1177766 8.9349232 0
-2.5544648 20.41906 1.149421
-0.4471423 3.5394957 -0.98429793
-0.52135265 4.1269312 -0.92150456
-0.44478393 3.5208273 -0.59163743
-0.45747963 3.6213241 -0.40684512
-0.47509208 3.7607412 -0.2117302
-1.1282459 8.9309864 0
-2.5674124 20.323162 1.1441965
-0.45054436 3.5491803 -0.98706657
-0.52480614 4.1341801 -0.92319375
-0.44270867 3.4874542 -0.58607423
-0.45836449 3.6107836 -0.40569195
-0.4799819 3.7810755 -0.21289131
-1.1342963 8.935462 0
-2.5731456 20.270052 1.1412938
-0.45036793 3.5138001 -0.97737765
-0.52786231 4.1184163 -0.91981536
-0.44790164 3.4945579 -0.58735859
-0.46404237 3.6204889 -0.40684512
-0 0 -0
-1.1437701 8.923769 0
-2.5943334 20.241159 1.1398426
-0.46266177 3.5754516 -0.994681
-0.53218669 4.1127405 -0.91869068
-0.454101 3.509294 -0.5899272
-0.46177822 3.5686238 -0.40107927
-0 0 -0
-1.1565552 8.9378614 0
-2.618789 20.23801 1.1398426
-0.46373272 3.5500185 -0.98776072
-0.53880101 4.1246896 -0.92150456
-0.45767531 3.5036471 -0.58907044
-0.46575516 3.565501 -0.40079126
-0.49603981 3.7973392 -0.21390687
-1.1683656 8.9442024 0
-2.6358354 20.178141 1.1366493
-0.46474165 3.5245783 -0.98083776
-0.54145908 4.1063995 -0.91756386
-0.46224371 3.5056341 -0.58949798
-0.4670203 3.5418594 -0.39819691
-0.49859035 3.7812853 -0.2130363
-1.179172 8.9427834 0
-2.6568186 20.149185 1.1351981
-0.4739649 3.5613194 -0.99122089
-0.54709148 4.1107845 -0.91869068
-0.46647927 3.5050731 -0.58949798
-0.47334626 3.5566709 -0.3999261
-0.50350142 3.7832532 -0.2131813
-1.1903198 8.9439297 0
-2.6794496 20.133083 1.1344726
-0.47359276 3.5259385 -0.98153192
-0.54867506 4.0849328 -0.91306078
-0.47037271 3.501965 -0.58907044
-0.47936469 3.5689111 -0.40136728
-0.50703561 3.7749236 -0.21274631
-1.2004323 8.9373217 0
-2.6985855 20.0912 1.1322954
-0.47785282 3.5253637 -0.98153192
-0.557365 4.1119657 -0.91925305
-0.47425932 3.4988527 -0.5886429
-0.4861089 3.5862732 -0.40338561
-0.51194519 3.7768805 -0.21289131
-1.2133285 8.9513426 0
-2.7176254 20.049307 1.1301187
-0.48245183 3.527267 -0.98222345
-0.56439847 4.1263895 -0.92262924
-0.48126969 3.5186243 -0.59206665
-0.48974016 3.5805531 -0.40280849
-0.51509994 3.7659614 -0.21231075
-1.2241436 8.9498701 0
-2.7397356 20.030558 1.1292475
-0.48637083 3.5241988 -0.98153192
-0.56695336 4.1080923 -0.91869068
-0.48552093 3.5180402 -0.59206665
-0.49371293 3.5773988 -0.40252045
-0.52035975 3.7704792 -0.21260075
-1.2342446 8.943223 0
-2.7575431 19.980904 1.1266353
-0.4913201 3.5285733 -0.98291492
-0.56736171 4.0746908 -0.91137373
-0.49083248 3.5250711 -0.59334928
-0.5030297 3.6126695 -0.40655711
-0.52527463 3.7724288 -0.21274631
-1.2443327 8.9365749 0
-2.7770257 19.944103 1.1247487
-0.49843788 3.5174398 -0.98014629
-0.50662422 3.5752101 -0.79992795
-0.5040316 3.5569141 -0.59891248
-0.52046663 3.672895 -0.41347501
-0.53183728 3.7531366 -0.2117302
-1.2684816 8.951582 0
-2.8146424 19.862726 1.1205398
-0.50375295 3.5242879 -0.98222345
-0.50914645 3.562021 -0.79711407
-0.51377797 3.5944235 -0.60533237
-0.52453858 3.6697054 -0.413187
-0.53673911 3.7550611 -0.21187519
-1.2833465 8.9783745 0
-2.8345973 19.831024 1.1189437
-0.50443041 3.498841 -0.97530049
-0.51272422 3.5563686 -0.79598719
-0.5276441 3.6598561 -0.61645871
-0.5311861 3.6844239 -0.41491622
-0.54127598 3.75441 -0.21187519
-1.2945653 8.9793911 0
-2.8552189 19.80443 1.1176369
-0.50757581 3.490788 -0.97322601
-0.51226842 3.523061 -0.78867024
-0.5313279 3.65414 -0.61560357
-0.53228843 3.6607459 -0.41232184
-0.54469001 3.7460365 -0.21143964
-1.3091596 9.0035791 0
-2.8727908 19.757254 1.1151698
-0.51980042 3.5447764 -0.9884522
-0.52352971 3.5702081 -0.79936558
-0.53648698 3.6585703 -0.61645871
-0.53708768 3.6626666 -0.41261098
-0.54921597 3.7453756 -0.21143964
-1.3215481 9.012291 0
-2.8910077 19.715212 1.1129931
-0.52371657 3.5416663 -0.98776072
-0.52152491 3.5268447 -0.78979713
-0.54240936 3.6680772 -0.61817056
-0.54302484 3.6722398 -0.41376305
-0.55412233 3.747287 -0.21158519
-1.336243 9.0364275 0
-2.9098864 19.678289 1.1111064
-0.52984518 3.5534351 -0.99122089
-0.52878237 3.5463073 -0.79429799
-0.54911333 3.682658 -0.62073922
-0.54669946 3.6664693 -0.413187
-1.3422782 9.0020609 -0.50837964
-1.3536851 9.0785618 0
-2.9271474 19.631071 1.1086391
-0.52966261 3.5230217 -0.98291492
-0.53080118 3.5305946 -0.79092181
-0.55432528 3.6870642 -0.62159431
-0 0 -0
-1.3516092 8.9901543 -0.50779909
-1.3994744 9.308527 0
-2.9473891 19.604397 1.1073331
-0.45360863 2.9925537 -0.9980092
-0.53354347 3.519901 -0.98222345
-0.53544724 3.5324605 -0.79148412
-0.55954868 3.691463 -0.6224494
-0.55633283 3.6702471 -0.41376305
-1.3671441 9.0193434 -0.5095408
-1.4274926 9.4174757 0
-2.9644554 19.557148 1.1048658
-0.53855348 3.524209 -0.9836064
-0.53664446 3.5117171 -0.78698105
-0.5655598 3.7009344 -0.6241613
-0.56193972 3.6772451 -0.41462818
-1.3898163 9.094739 -0.51389468
-1.4408361 9.4286041 0
-2.9818037 19.512455 1.1025436
-0.53669977 3.4838834 -0.97253186
-0.54282278 3.5236297 -0.78979713
-0.57042325 3.7027929 -0.62459052
-0.56598914 3.6740096 -0.41434017
-1.42019 9.2188902 -0.52100641
-1.4494535 9.4088488 0
-3.0014215 19.48315 1.1010919
-0.4634012 2.9960501 -0.9996376
-0.53842139 3.4810817 -0.97184032
-0.54495144 3.5233011 -0.78979713
-0.56991315 3.6846869 -0.62159431
-0.57018507 3.686445 -0.41578135
-1.4420434 9.3233128 -0.52695698
-1.4555351 9.4105406 0
-3.0080287 19.447952 1.0992053
-0.54919678 3.5225661 -0.9836064
-0.54842472 3.5176141 -0.78867024
-0.57199299 3.6687818 -0.61902732
-0.57583469 3.6934226 -0.41664651
-1.4561086 9.3395281 -0.52797252
-1.4645001 9.3933516 0
-1.7150602 11.000453 0.62186617
-0.5464431 3.4772944 -0.97114885
-0.54991311 3.4993758 -0.78472954
-0.57682371 3.6706216 -0.61945486
-0.589531 3.7514846 -0.42327639
-1.4665865 9.332633 -0.52768254
-1.4734242 9.3761444 0
-1.7283509 10.998372 0.62186617
-0.55496174 3.5038905 -0.97876328
-0.56129652 3.5438867 -0.79486251
-0.58085734 3.6673889 -0.61902732
-0.60134739 3.7967579 -0.42846623
-1.4766423 9.3231525 -0.52724695
-1.4847524 9.3743572 0
-1.7412329 10.993712 0.62172121
-0.47670865 2.9864604 -0.99719501
-0.55563492 3.4809136 -0.97253186
-0.5667786 3.5507259 -0.79654956
-0.58447814 3.6616094 -0.61817056
-0.61531055 3.8547666 -0.43509611
-1.4883156 9.323925 -0.52739197
-1.4948488 9.3648539 0
-1.7545154 10.9916 0.62172121
-0.56103623 3.487673 -0.97460896
-0.56703383 3.5249569 -0.79092181
-0.59012556 3.6685064 -0.61945486
-0.6302371 3.9178593 -0.44230315
-1.4975176 9.3092947 -0.5266664
-1.504923 9.3553305 0
-1.7682077 10.992035 0.62186617
-0.56524998 3.4869926 -0.97460896
-0.57495147 3.5468402 -0.79598719
-0.59907508 3.6956573 -0.6241613
-0.63497061 3.9170949 -0.44230315
-1.5091803 9.3100405 -0.52681142
-1.5174757 9.3612146 0
-1.7806573 10.984765 0.62157619
-0.56986696 3.4887805 -0.97530049
-0.57759827 3.5361123 -0.79373568
-0.60271323 3.6898687 -0.62330616
-0.64053631 3.9214251 -0.44287917
-1.5195917 9.3030863 -0.52652138
-1.528365 9.3567982 0
-1.7926719 10.97491 0.6211406
-0.4895317 2.9743662 -0.99393517
-0.57408208 3.4880893 -0.97530049
-0.58558387 3.5579739 -0.79880112
-0.6100899 3.706871 -0.62630236
-0.64737552 3.9334164 -0.44432148
-1.5304099 9.2986822 -0.52637643
-1.5426286 9.3729229 0
-1.8071979 10.980431 0.62157619
-0.57624465 3.4750206 -0.97184032
-0.58780462 3.5447328 -0.79598719
-0.61582714 3.7137213 -0.62758505
-0.64958829 3.9173167 -0.44259116
-1.5420691 9.299387 -0.52652138
-1.5522499 9.3607817 0
-3.1602545 19.057791 1.0790318
-0.4918308 2.9439206 -0.9841556
-0.57920253 3.4668961 -0.96976322
-0.59752995 3.5765977 -0.8033042
-0.62158346 3.7205729 -0.62886935
-0.65645176 3.9292819 -0.44403234
-1.5528767 9.2949562 -0.52637643
-1.5721364 9.4102383 0
-1.8465726 11.052914 0.62593007
-0.4990792 2.9652579 -0.99148947
-0.58755589 3.4909382 -0.97668612
-0.60227245 3.5783763 -0.80386651
-0.62692988 3.7248771 -0.62972444
-0.66420448 3.9463427 -0.44605067
-1.5636742 9.2905035 -0.52623081
-1.5826409 9.4031935 0
-1.8599266 11.050674 0.62593007
-0.5888375 3.472909 -0.97184032
-0.61126846 3.6052048 -0.81005877
-0.63271803 3.7317123 -0.63100874
-0.66854042 3.9429896 -0.44576266
-1.5753344 9.2911768 -0.52637643
-1.5966128 9.4166746 0
-1.8745813 11.056108 0.62636566
-0.58754301 3.4400489 -0.96284288
-0.61904645 3.6245008 -0.81456184
-0.63679481 3.7284169 -0.6305812
-0.67591614 3.9574714 -0.44749185
-1.587871 9.2969427 -0.52681142
-1.6071128 9.4096031 0
-3.2252073 18.883505 1.070034
-0.51317716 2.9829159 -0.9980092
-0.59425217 3.4541759 -0.96699721
-0.62644154 3.6412814 -0.8185026
-0.64042813 3.7225802 -0.62972444
-0.68245161 3.9668479 -0.44864503
-1.5991033 9.2950182 -0.52681142
-1.6175996 9.4025297 0
-3.2462597 18.86935 1.0694535
-0.60142261 3.4707518 -0.97184032
-0.63517833 3.6655529 -0.82413036
-0 0 -0
-0.6868031 3.9634743 -0.44835702
-1.612108 9.3033199 -0.52739197
-1.630293 9.4082632 0
-3.2628469 18.829575 1.0674218
-0.51656014 2.9597561 -0.99067533
-0.60389054 3.4601369 -0.96907169
-0.64091796 3.6722941 -0.82581955
-0.65471852 3.7513678 -0.63486004
-1.2634352 7.2391577 -0.81908166
-1.6224555 9.2962503 -0.52710193
-1.6425539 9.4114094 0
-3.2820225 18.805141 1.0662607
-0.6132828 3.4890554 -0.97737765
-0.64711422 3.6815271 -0.82807112
-0.65525156 3.7278216 -0.63100874
-1.2694957 7.2223463 -0.81735247
-1.6354864 9.3045206 -0.52768254
-1.6534745 9.4068575 0
-3.3015931 18.783245 1.0652446
-0.52414161 2.9609306 -0.99148947
-0.61093992 3.4512634 -0.96699721
-0.65554786 3.7032583 -0.8331365
-0.65975541 3.7270272 -0.63100874
-1.2764182 7.2106194 -0.8161993
-1.6467278 9.302537 -0.52768254
-1.6634783 9.3971615 0
-3.3170395 18.738302 1.0629224
-0.61158741 3.4307642 -0.96145993
-0.66314226 3.7199664 -0.83707511
-0.66561031 3.7338114 -0.63229311
-1.2851299 7.2090716 -0.8161993
-1.6607022 9.3158846 -0.52855307
-1.675288 9.3977051 0
-3.3342063 18.703583 1.0611806
-0.61661804 3.4349566 -0.96284288
-0.68379873 3.8091958 -0.85733896
-0.67148256 3.7405868 -0.63357741
-1.2920116 7.1973305 -0.81504613
-1.6728766 9.3189917 -0.52884364
-1.6866421 9.3956738 0
-3.3476231 18.648399 1.0582784
-0.62166142 3.439151 -0.96422857
-0.70738268 3.9133778 -0.880979
-0.67828453 3.7524009 -0.6357168
-1.3002459 7.1932116 -0.81475699
-1.6869079 9.3323002 -0.52971417
-1.6998453 9.4038725 0
-3.3595223 18.585527 1.0549401
-0.62105173 3.4239593 -0.96007425
-0.71201378 3.9254477 -0.88379294
-0.6741364 3.7166238 -0.62972444
-1.3055155 7.1975193 -0.81533414
-1.693009 9.3338337 -0.52985919
-1.7087781 9.4207716 0
-3.3614752 18.53236 1.0520372
-0.54112244 2.9629042 -0.99312097
-0.6314978 3.4577529 -0.96976322
-0.70580041 3.8645952 -0.87028366
-0.67862678 3.7158065 -0.62972444
-1.3137472 7.1933947 -0.81504613
-1.7061533 9.3420057 -0.53043973
-1.7234335 9.4366236 0
-3.373596 18.472054 1.0488445
-0.63522208 3.4545224 -0.96907169
-0.6994428 3.8037732 -0.8567766
-0.68915272 3.7478125 -0.63528925
-1.3210343 7.1841683 -0.81418097
-1.7226096 9.3680515 -0.53203642
-1.7371874 9.4473295 0
-3.3893354 18.43219 1.0468128
-0.55142921 2.9785931 -0.9988234
-0.63848323 3.4488232 -0.96768868
-0.70080018 3.7854338 -0.85283589
-0.69414753 3.7494988 -0.6357168
-1.3268899 7.1673121 -0.81245178
-1.7362925 9.3787355 -0.53276199
-1.750023 9.4529028 0
-3.4097126 18.417862 1.0462322
-0.54959351 2.9487674 -0.98904383
-0.65092319 3.4924378 -0.98014629
-0.70583874 3.7870798 -0.8533982
-0.70808464 3.7991297 -0.64427614
-1.3360226 7.1682439 -0.81273979
-1.7476236 9.3766308 -0.53276199
-1.7662113 9.4763613 0
-3.4272044 18.388187 1.0447811
-0.64588964 3.4423339 -0.96630305
-0.71135223 3.7912235 -0.85452509
-0.72640097 3.8714275 -0.65668517
-1.3446831 7.1666241 -0.81273979
-1.7651811 9.407711 -0.53464866
-2.5666335 13.679132 0
-3.4451079 18.361052 1.043475
-0.55992949 2.9644337 -0.99474937
-0.65330839 3.4588096 -0.97114885
-0.70932949 3.7554018 -0.84664363
-0.74298912 3.9336061 -0.66738391
-1.352862 7.1624551 -0.81245178
-1.7804054 9.4259977 -0.53580976
-2.5841253 13.68113 0
-3.4639149 18.338999 1.0424589
-0.65233207 3.4309046 -0.96353441
-0.71908778 3.7820024 -0.85283589
-0 0 -0
-1.3615154 7.1608152 -0.81245178
-1.7956765 9.4442606 -0.53697085
-2.5977387 13.662663 0
-3.4812188 18.309278 1.0410078
-0.65317744 3.4128726 -0.95869124
-0.72174656 3.7711484 -0.85058433
-0.75538915 3.9469318 -0.66995257
-1.3691936 7.1540794 -0.81187463
-1.8105062 9.4599514 -0.53798699
-2.5653269 13.403913 0
-3.4960124 18.266773 1.0388305
-0.56739843 2.9453933 -0.98904383
-0.65967309 3.424396 -0.96215141
-0.72389996 3.7578008 -0.84777045
-0.76064283 3.9485345 -0.67038012
-1.3778368 7.1524196 -0.81187463
-2.1168361 10.988601 -0.62506622
-2.5140812 13.05072 0
-2.5075564 13.01685 0.74043941
-0.67622542 3.487627 -0.98014629
-0.72940642 3.7619076 -0.84889513
-0.76541328 3.9476125 -0.67038012
-1.3835251 7.135519 -0.81014544
-2.1266494 10.968176 -0.62405008
-2.5219226 13.006795 0
-2.5227869 13.011252 0.74029386
-0.57830179 2.9634204 -0.99556351
-0.66506261 3.4080131 -0.95799708
-0.73492569 3.766016 -0.85002202
-0.77018261 3.9466848 -0.67038012
-1.3966041 7.1566873 -0.81273979
-2.1428859 10.980896 -0.62492067
-2.534147 12.985855 0
-2.5325363 12.9776 0.73855275
-0.58378738 2.9724205 -0.9988234
-0.67014796 3.4121351 -0.95938277
-0.74584103 3.7975352 -0.85733896
-0.77593935 3.9507844 -0.6712352
-1.4052505 7.1549945 -0.81273979
-2.2753315 11.585112 -0.65946245
-2.5458238 12.962354 0
-2.5472128 12.969426 0.73826218
-0.58354449 2.9523153 -0.99230367
-0.67718822 3.4260852 -0.96353441
-0.75092125 3.7991216 -0.85790128
-0.78270364 3.9599173 -0.67294711
-1.414897 7.1583614 -0.81331581
-2.3034341 11.65372 -0.66352582
-2.5559347 12.931191 0
-2.5578444 12.940853 0.73681104
-0.5890401 2.9613047 -0.99556351
-0.68622279 3.4498749 -0.97045738
-0.75253797 3.7832637 -0.85452509
-0.78498429 3.9463825 -0.67080766
-1.4235455 7.1566463 -0.81331581
-2.3195415 11.661122 -0.66410637
-2.5674958 12.907674 0
-2.568917 12.914819 0.73550493
-0.58873689 2.9412024 -0.98904383
-0.68595958 3.4269056 -0.96422857
-0.76359153 3.8147385 -0.86184204
-0.79025549 3.9479458 -0.6712352
-1.4281305 7.1346316 -0.81100947
-2.3336298 11.658311 -0.66410637
-2.5784936 12.881598 0
-2.5804403 12.891322 0.73434383
-0.59082764 2.9332271 -0.98660123
-0.69406092 3.44574 -0.96976322
-0.77171099 3.8312418 -0.86578059
-0.79097205 3.9268653 -0.66781312
-1.438283 7.1405101 -0.81187463
-2.3548973 11.69114 -0.66613805
-2.5955989 12.886128 0
-2.5944753 12.88055 0.7339083
-0.59486192 2.934931 -0.98741543
-0.70121503 3.4596562 -0.97391748
-0.77633971 3.8303068 -0.86578059
-1.0644363 5.251718 -0.89333916
-1.4484518 7.1463742 -0.81273979
-2.3705711 11.695929 -0.66657358
-2.6122003 12.88808 0
-2.6105525 12.87995 0.73405325
-0.59346974 2.9099972 -0.97926736
-0.69436669 3.4047313 -0.95869124
-0.78198379 3.8343499 -0.86690748
-1.0671918 5.2328281 -0.89034462
-1.4555346 7.1370134 -0.81187463
-2.389895 11.718521 -0.66802526
-2.6272516 12.882366 0
-2.6271532 12.881884 0.73434383
-0.59946913 2.9213815 -0.9833414
-0.69595915 3.3916044 -0.95523113
-0.78763682 3.8383756 -0.86803216
-1.0750605 5.2390718 -0.89162725
-1.462597 7.127646 -0.81100947
-2.4066639 11.72835 -0.66875082
-2.6470006 12.899577 0
-2.6458492 12.893967 0.73521441
-0.61049336 2.9569564 -0.99556351
-0.70157707 3.3981247 -0.95730561
-0.7927894 3.8399167 -0.86859667
-1.0777582 5.2201777 -0.88863271
-1.4706858 7.123343 -0.81072146
-2.4260864 11.750875 -0.67020196
-2.6657414 12.911657 0
-2.6640537 12.903482 0.73593998
-0.60501873 2.912662 -0.9808957
-0.71894753 3.4611347 -0.97530049
-0.81344688 3.9160702 -0.88604444
-1.0830199 5.21384 -0.88777596
-1.4787663 7.1190305 -0.81043345
-2.4397554 11.745394 -0.67005694
-2.6839867 12.921165 0
-2.681757 12.91043 0.73652053
-0.60879481 2.9219747 -0.9841556
-0.71029294 3.4091253 -0.96076578
-0.83135968 3.9901979 -0.9029299
-1.0887871 5.2257481 -0.88991541
-1.483067 7.1181359 -0.81043345
-2.4505594 11.761717 -0.67107248
-2.690732 12.91445 0
-2.6916764 12.918983 0.73710108
-0.61840969 2.9502654 -0.99393517
-0.70823747 3.3788092 -0.95246249
-0.84973252 4.053844 -0.91756386
-1.092994 5.2143784 -0.88820356
-1.4937893 7.1264644 -0.81158662
-2.4658365 11.763839 -0.67136306
-2.7116725 12.936656 0
-2.7110167 12.933526 0.73811716
-0.7164588 3.3975799 -0.95799708
-0.86144531 4.0851326 -0.9248808
-1.0992938 5.2130542 -0.88820356
-1.5029324 7.127183 -0.81187463
-2.4827294 11.773561 -0.67208862
-2.7278385 12.935914 0
-2.7282512 12.937871 0.73855275
-0.61784351 2.9124928 -0.9817099
-0.71796101 3.3844433 -0.95453697
-0.86796308 4.091548 -0.92657
-1.1071906 5.2192578 -0.88948786
-1.5120794 7.1278892 -0.81216264
-2.4969535 11.770553 -0.67208862
-2.7483292 12.955528 0
-2.7454982 12.942183 0.73898774
-0.62858474 2.9455893 -0.99312097
-0.72833288 3.4130156 -0.96284288
-0.87290633 4.0904961 -0.92657
-1.1118885 5.2103825 -0.88820356
-1.519073 7.1184759 -0.81129861
-2.5155125 11.787857 -0.67324972
-2.7656093 12.959826 0
-2.7638474 12.95157 0.73971385
-0.72824395 3.3925099 -0.95730561
-0.88478047 4.1217318 -0.93388695
-1.1203386 5.2190747 -0.88991541
-1.5282155 7.1191616 -0.81158662
-2.5308459 11.789894 -0.67354029
-2.7834516 12.966654 0
-2.7822211 12.960921 0.74043941
-0.62944132 2.9150705 -0.9833414
-0.73657864 3.4112453 -0.96284288
-0.88761497 4.1107254 -0.93163544
-1.1217681 5.1951365 -0.88606411
-1.5379074 7.1223612 -0.81216264
-2.5472813 11.796978 -0.67412031
-2.8013144 12.973456 0
-2.8006215 12.970247 0.74116498
-0.74123192 3.4128022 -0.96353441
-0.8850323 4.0748925 -0.92375612
-1.126956 5.1887646 -0.88520902
-1.5492586 7.1331429 -0.81360495
-2.560432 11.788817 -0.67383027
-2.8175399 12.972603 0
-2.8179464 12.974474 0.74160051
-0.64424735 2.9320819 -0.98986113
-0.74194068 3.3767014 -0.95384544
-0.90196538 4.1050014 -0.93107307
-1.1433467 5.2035699 -0.88820356
-1.5659354 7.1268449 -0.81331581
-2.8677175 13.051482 -0.74639612
-2.8544676 12.991179 0
-2.8554249 12.995536 0.74319667
-0.64085692 2.8999298 -0.97926736
-0.74168938 3.356205 -0.94830817
-0.90308625 4.0865388 -0.92713237
-1.1452018 5.1821318 -0.88477981
-1.5745456 7.1249475 -0.81331581
-2.8818049 13.040402 -0.74596113
-2.8740923 13.005502 0
-2.8739283 13.00476 0.74392223
-0.74846518 3.3675489 -0.95176834
-0.91133213 4.1003318 -0.9305107
-1.1536905 5.1907678 -0.88649166
-1.5803483 7.1104178 -0.81187463
-2.8964312 13.031834 -0.74567056
-2.8937578 13.019806 0
-2.8913317 13.00889 0.74435776
-0.64786303 2.8983727 -0.97926736
-0.76566821 3.4254026 -0.96838021
-0.91517627 4.0942636 -0.92938387
-1.1571622 5.176846 -0.88435227
-1.5906318 7.1160779 -0.81273979
-2.6486111 11.849205 -0.67818421
-2.9106243 13.021384 0
-2.9115829 13.025674 0.74551886
-0.65082103 2.8951693 -0.97845006
-0.75605136 3.3632851 -0.95107681
-0.9229086 4.1055474 -0.93219775
-1.1634166 5.1754441 -0.88435227
-1.5986624 7.1116295 -0.81245178
-2.6595082 11.83079 -0.67731363
-2.9303498 13.035625 0
-2.9290302 13.029754 0.74595445
-0.65813428 2.9112585 -0.9841556
-0.76730555 3.3941779 -0.96007425
-0.92282677 4.0821266 -0.92713237
-1.1696693 5.1740346 -0.88435227
-1.6061125 7.1046424 -0.81187463
-2.6692178 11.807292 -0.67615253
-2.946672 13.03461 0
-2.9464891 13.033801 0.74638945
-0.65945989 2.9008207 -0.9808957
-0.76084113 3.3467748 -0.94692516
-0.92494279 4.0686221 -0.92431843
-1.1770594 5.177629 -0.88520902
-1.6146959 7.1026964 -0.81187463
-2.6834826 11.804058 -0.67615253
-2.9624195 13.03104 0
-2.9645398 13.040367 0.74697
-0.66792125 2.9217045 -0.98822963
-0.78277344 3.4241052 -0.96907169
-0.93268895 4.0798845 -0.92713237
-1.1804549 5.1636925 -0.88306957
-1.6215471 7.0931735 -0.81100947
-2.6965845 11.795735 -0.67586195
-2.9781628 13.027451 0
-2.977978 13.026643 0.74638945
-0.67145109 2.9208953 -0.98822963
-0.76555336 3.3302517 -0.9427709
-0.93932635 4.0861859 -0.92882156
-1.1849674 5.1547546 -0.88178527
-1.6318556 7.0987735 -0.81187463
-2.9978185 13.040881 -0.74741226
-2.9927368 13.018775 0
-2.9855671 12.987586 0.74435776
-0.67553604 2.9224877 -0.98904383
-0.78031242 3.3757687 -0.9559226
-0.94254571 4.0776186 -0.92713237
-1.1958201 5.1733279 -0.88520902
-1.6433439 7.1093946 -0.81331581
-3.0112329 13.027122 -0.74683172
-3.0049496 12.999941 0
-3.0000887 12.97891 0.74406779
-0.68242514 2.9361186 -0.99393517
-0.77359903 3.328392 -0.9427709
-0.94747204 4.0764766 -0.92713237
-1.1985822 5.1568723 -0.88264036
-1.6525202 7.10993 -0.81360495
-3.0222652 13.003226 -0.74567056
-3.0165305 12.978553 0
-3.0104728 12.95249 0.74276108
-0.67922294 2.9064107 -0.9841556
-0.78561401 3.3616607 -0.95246249
-0.9518193 4.0728569 -0.92657
-1.2065655 5.1629214 -0.88392466
-1.6611099 7.1079283 -0.81360495
-2.766572 11.838226 -0.67905474
-3.0262868 12.949552 0
-3.0231652 12.936194 0.74203551
-0.68669236 2.9224327 -0.98986113
-0.79197079 3.3704779 -0.95523113
-0.95441502 4.06181 -0.92431843
-1.2098675 5.1489673 -0.88178527
-1.6720616 7.1159778 -0.81475699
-2.7707703 11.791874 -0.67658752
-3.0365744 12.923086 0
-3.0316613 12.902177 0.74029386
-0.68056297 2.8807116 -0.97600752
-0.79373556 3.3597524 -0.95246249
-0.96399581 4.0804362 -0.92882156
-1.2166778 5.1499977 -0.88221282
-1.6800646 7.1114378 -0.81446898
-2.7778497 11.758182 -0.67484641
-3.0485983 12.904216 0
-3.0466521 12.895978 0.74014884
-0.6840108 2.8875079 -0.97845006
-0.79518527 3.3568239 -0.95176834
-0.96880364 4.0897431 -0.93107307
-1.2262986 5.1767411 -0.88692087
-1.6843606 7.1104212 -0.81446898
-2.7705777 11.695818 -0.67136306
-3.0527956 12.887182 0
-3.0478559 12.866329 0.73855275
-0.6886456 2.8914928 -0.98008156
-0.80040431 3.3607464 -0.95315397
-0.96962327 4.0712647 -0.92713237
-1.2313621 5.1702566 -0.88606411
-1.6959466 7.1209588 -0.81591016
-2.7528017 11.558494 -0.66367084
-3.0653484 12.870819 0
-3.0585837 12.842415 0.73739165
-0.69271392 2.89306 -0.9808957
-0.79920745 3.337821 -0.94692516
-0.97927523 4.0898585 -0.93163544
-1.2388051 5.1737628 -0.88692087
-1.7039479 7.1163917 -0.81562215
-2.7510352 11.489461 -0.65989745
-3.07605 12.846858 0
-3.0704675 12.823544 0.73652053
-0.68811208 2.8585839 -0.96948779
-0.8008914 3.3270965 -0.94415653
-0.98124361 4.076323 -0.92882156
-1.2414498 5.1572828 -0.88435227
-1.7125454 7.1143274 -0.81562215
-0 0 -0
-3.0860896 12.820362 0
-3.07988 12.794565 0.73506939
-0.70260942 2.9033864 -0.98496979
-0.8072713 3.3358798 -0.94692516
-0.98258364 4.0603213 -0.92544532
-1.2470773 5.153286 -0.88392466
-1.7235739 7.1223087 -0.81677532
-0 0 -0
-3.0960698 12.79386 0
-3.0904481 12.770631 0.7339083
-0.70202905 2.8857315 -0.97926736
-0.80714971 3.3178358 -0.94207937
-0.9856866 4.051722 -0.92375612
-1.2533032 5.1517754 -0.88392466
-1.7303438 7.112679 -0.81591016
-0 0 -0
-3.1053758 12.764828 0
-3.1028061 12.754266 0.73318273
-0.71255887 2.913682 -0.98904383
-0.80996728 3.3119891 -0.94069636
-0.993599 4.0628667 -0.92657
-1.2637964 5.1677151 -0.88692087
-1.7420107 7.1231523 -0.81735247
-0 0 -0
-3.1177065 12.748428 0
-3.1157458 12.740411 0.73260218
-0.70840895 2.8816192 -0.97845006
-0.82115328 3.3402333 -0.94899964
-0.99608111 4.0517936 -0.92431843
-1.2706519 5.1686745 -0.88734841
-1.7487634 7.1135049 -0.81648731
-2.814816 11.449924 -0.65859133
-3.1287587 12.726959 0
-3.1249359 12.711409 0.73115104
-0.719598 2.9119515 -0.98904383
-0.82157868 3.3246303 -0.944848
-1.0009762 4.0505867 -0.92431843
-1.2787445 5.174614 -0.88863271
-1.7548754 7.1013427 -0.81533414
-2.8330131 11.464174 -0.65960747
-3.1410134 12.710539 0
-3.138422 12.700053 0.73071551
-0.70881808 2.8535202 -0.96948779
-0.82680368 3.3285 -0.94623101
-1.008932 4.0617018 -0.92713237
-1.2843754 5.1705666 -0.88820356
-1.7703142 7.126832 -0.81850564
-2.8418519 11.440568 -0.65844637
-3.1507232 12.684005 0
-3.146874 12.668509 0.72911882
-0.72363985 2.8982165 -0.98496979
-0.82353437 3.2982993 -0.93792772
-1.010762 4.0481558 -0.92431843
-1.2875134 5.1565604 -0.88606411
-1.7770441 7.117157 -0.81764048
-2.8575625 11.444692 -0.6588819
-3.1641552 12.672611 0
-3.1571434 12.644529 0.72795773
-0.72654015 2.8949449 -0.9841556
-0.84034288 3.3483989 -0.95246249
-1.0131786 4.0370741 -0.92206693
-1.2912437 5.1450415 -0.88435227
-1.7850134 7.1124983 -0.81735247
-2.1490936 8.5631981 -0.49314073
-3.1705976 12.633445 0
-3.1692576 12.628106 0.72723216
-0.72217923 2.8629122 -0.97356182
-0.84070522 3.3327811 -0.94830817
-1.0199209 4.0432401 -0.92375612
-1.2962049 5.138504 -0.88349712
-1.7961367 7.1203675 -0.81850564
-2.1613462 8.5681562 -0.49357626
-2.143245 8.496398 0
-3.1787944 12.601594 0.72592604
-0.73414081 2.8955743 -0.98496979
-0.83548498 3.2952924 -0.93792772
-1.0229317 4.0346136 -0.92206693
-1.3055667 5.1493735 -0.88563657
-1.8009237 7.1031446 -0.81677532
-2.1633964 8.5327969 -0.49168959
-2.1445565 8.4584894 0
-3.1863554 12.567519 0.72418433
-0.74435318 2.9210331 -0.99393517
-0.84380078 3.311291 -0.9427709
-1.0296888 4.0407639 -0.92375612
-1.3130543 5.1527624 -0.88649166
-1.8088671 7.0984592 -0.81648731
-2.177556 8.54529 -0.49256071
-2.1509182 8.4407558 0
-3.1976898 12.548556 0.72331381
-0.73623043 2.8746371 -0.97845006
-0.8459357 3.3029852 -0.94069636
-1.030787 4.0247431 -0.92037773
-1.3141867 5.1312871 -0.88306957
-1.818084 7.0987716 -0.81677532
-2.1859453 8.5350981 -0.49212515
-2.1533699 8.4079065 0
-3.2051139 12.514477 0.7215721
-0.75387442 2.9288001 -0.99719501
-0.84742463 3.2922423 -0.93792772
-1.0394508 4.0382633 -0.92375612
-1.3235848 5.1421232 -0.88520902
-1.8260161 7.0940671 -0.81648731
-2.1975508 8.5374784 -0.49241516
-2.1557429 8.3750544 0
-3.2182889 12.503043 0.72113657
-0.72708231 2.8106403 -0.95726252
-0.84700328 3.2742119 -0.93308192
-1.0443295 4.0370045 -0.92375612
-1.3304394 5.143003 -0.88563657
-1.8332897 7.0868425 -0.81591016
-2.2072148 8.5323038 -0.49227014
-2.168468 8.3825216 0
-3.2307911 12.489083 0.72055602
-0.75286597 2.8958747 -0.98660123
-0.85979509 3.3071742 -0.9427709
-1.0479268 4.0308166 -0.92262924
-1.3308401 5.1190338 -0.88178527
-1.839901 7.0771198 -0.81504613
-2.2247155 8.5572968 -0.49386683
-2.1759758 8.3698206 0
-3.2386892 12.457514 0.71895987
-0.74699223 2.8590908 -0.97437602
-0.85998666 3.2915738 -0.93861926
-1.054724 4.0369253 -0.92431843
-1.3396202 5.127357 -0.88349712
-1.849104 7.0773916 -0.81533414
-2.2370224 8.5621376 -0.49430183
-2.1906905 8.3848038 0
-3.2478282 12.430967 0.71765375
-0.74542493 2.8390615 -0.96785629
-0.86141485 3.2808261 -0.93585056
-1.0576646 4.0282726 -0.92262924
-1.3458146 5.1257343 -0.88349712
-1.8576543 7.0751519 -0.81533414
-3.0860357 11.753624 -0.67876476
-2.2054474 8.3997736 0
-3.2602069 12.416981 0.7170732
-0.74651152 2.8362226 -0.96704209
-0.86658907 3.2924335 -0.93931073
-1.0626851 4.0374618 -0.9248808
-1.3508694 5.1323609 -0.88477981
-1.8612708 7.0715299 -0.81504613
-3.0871842 11.729144 -0.67745864
-2.2125096 8.4059925 0
-3.260432 12.387365 0.71547651
-0.7505694 2.8377056 -0.96785629
-0.86928493 3.2865379 -0.93792772
-1.0669137 4.0337205 -0.92431843
-1.358384 5.1356931 -0.88563657
-1.8717963 7.0767698 -0.81591016
-3.0980327 11.712848 -0.67673308
-2.2220004 8.4007988 0
-3.2700818 12.36332 0.71431541
-0.76542687 2.8797975 -0.9825272
-0.87841088 3.3048818 -0.94346505
-1.0691762 4.0226059 -0.92206693
-1.3632684 5.1290812 -0.88477981
-1.8776882 7.0645041 -0.81475699
-2.2792213 8.5752087 -0.49560851
-2.2314789 8.395586 0
-3.2803452 12.341779 0.71329933
-0.77464539 2.9003592 -0.98986113
-0.870103 3.2577634 -0.93031329
-1.0727259 4.0164061 -0.92094225
-1.3701292 5.1299176 -0.88520902
-1.8882258 7.0697293 -0.81562215
-2.3029885 8.6226482 -0.49851075
-2.2389355 8.3828259 0
-3.2905638 12.32024 0.71228373
-0.76982135 2.8683908 -0.97926736
-0.87533808 3.2615511 -0.9316963
-1.0729672 3.9979262 -0.91700149
-1.3749946 5.1232948 -0.88435227
-1.8967668 7.0674424 -0.81562215
-2.3208153 8.6474676 -0.50010741
-2.2443428 8.3625269 0
-3.3034267 12.308723 0.7118482
-0.77071249 2.857913 -0.97600752
-0.88450414 3.2798688 -0.93723357
-1.079119 4.0015287 -0.91812617
-1.3818519 5.1241059 -0.88477981
-1.9039594 7.0601559 -0.81504613
-2.3238194 8.6170568 -0.49851075
-2.2497015 8.3422174 0
-3.3149147 12.292182 0.71112263
-0.75347948 2.7806413 -0.94992858
-0.88190639 3.2545879 -0.93031329
-1.0866115 4.0100317 -0.92037773
-1.3860301 5.1150064 -0.88349712
-1.9158705 7.0703297 -0.81648731
-2.3287928 8.5941792 -0.49734962
-2.2604599 8.3420029 0
-3.3250072 12.270609 0.71010649
-0.77436829 2.8441114 -0.97193033
-0.89045238 3.2704668 -0.93515909
-1.0921254 4.0111747 -0.92094225
-1.3888383 5.1009459 -0.88135773
-1.925091 7.0705032 -0.81677532
-2.3337145 8.5713015 -0.49618849
-2.2630191 8.3116503 0
-3.3377855 12.259068 0.7096715
-0.78302181 2.8622456 -0.97845006
-0.88910753 3.2500296 -0.92962182
-1.0962989 4.0073938 -0.92037773
-1.3956776 5.1017375 -0.88178527
-1.9356811 7.0756588 -0.81764048
-2.3413296 8.5584593 -0.49560851
-2.2854204 8.3540897 0
-3.349853 12.245 0.70909095
-0.78713667 2.8636875 -0.97926736
-0.88904309 3.2344341 -0.92546749
-1.1018157 4.0085235 -0.92094225
-1.4011612 5.0975747 -0.88135773
-1.9442292 7.0733147 -0.81764048
-2.3496025 8.5481052 -0.49517295
-2.2968912 8.3563366 0
-3.3660223 12.24595 0.70938098
-0.78993642 2.8603451 -0.97845006
-0.89963031 3.2575445 -0.93239045
-1.10598 4.0047331 -0.92037773
-1.4052689 5.0884523 -0.88007337
-1.9507084 7.0634785 -0.81677532
-2.3620052 8.5527763 -0.49560851
-2.3062944 8.3510485 0
-3.3842747 12.254395 0.71010649
-0.77290827 2.7855649 -0.95318848
-0.90691894 3.2685399 -0.93585056
-1.1067433 3.988708 -0.91700149
-1.4155331 5.1015873 -0.88264036
-1.9613171 7.0685954 -0.81764048
-2.3681681 8.5348883 -0.49473739
-2.324038 8.375843 0
-3.4025521 12.262814 0.71083206
-0.78622973 2.8203437 -0.96541375
-0.90615124 3.2505231 -0.93100476
-1.1129254 3.9922583 -0.91812617
-1.4161816 5.080091 -0.87921661
-1.9691627 7.0637312 -0.81735247
-2.3854554 8.5570459 -0.49618849
-2.3355532 8.3780384 0
-3.4180667 12.261204 0.71097761
-0.79696745 2.8455648 -0.97437602
-0.90872627 3.2445989 -0.92962182
-1.1163793 3.986022 -0.91700149
-1.4243965 5.0857944 -0.88050097
-1.9776964 7.061347 -0.81735247
-2.395093 8.5516577 -0.4960435
-2.3358498 8.3401299 0
-3.4363828 12.269573 0.71170318
-0.79772735 2.835083 -0.97111613
-0.91196722 3.2410858 -0.92893028
-1.1246352 3.9968972 -0.91981536
-1.4305407 5.0840697 -0.88050097
-1.9862273 7.0589519 -0.81735247
-2.4061275 8.5512562 -0.49618849
-2.3487451 8.3473225 0
-3.4575393 12.287921 0.7130093
-0.81056637 2.8674192 -0.9825272
-0.91110504 3.2230799 -0.92408448
-1.1315382 4.0028729 -0.92150456
-1.4394759 5.0922184 -0.88221282
-1.9933467 7.0515642 -0.81677532
-2.4122186 8.5333443 -0.49531794
-2.3666174 8.3720284 0
-3.4702632 12.276231 0.71257377
-0.79647386 2.804616 -0.96133655
-0.91499883 3.2219768 -0.92408448
-1.1335975 3.9917259 -0.91925305
-1.4407182 5.0731869 -0.87921661
-2.0032802 7.0541315 -0.81735247
-2.4253671 8.5404224 -0.49589851
-2.3589582 8.3065777 0
-3.4886427 12.284524 0.71329933
-0.81613594 2.8606939 -0.9808957
-0.91957891 3.223279 -0.92477602
-1.1363279 3.9830208 -0.91756386
-1.4447362 5.064044 -0.87793398
-2.0118022 7.0517058 -0.81735247
-2.437824 8.5449839 -0.49633405
-2.3954077 8.396307 0
-3.5077622 12.295298 0.7141704
-0.79916483 2.7884319 -0.95644832
-0.92278242 3.2197561 -0.92408448
-1.1369408 3.966994 -0.91418761
-1.4522673 5.0672255 -0.87878907
-2.0210333 7.0517535 -0.81764048
-2.4502928 8.5495186 -0.49676907
-2.3998151 8.3733921 0
-3.5276279 12.308537 0.71518654
-0.7902261 2.7447164 -0.94178051
-0.92458922 3.2114038 -0.92200732
-1.1501693 3.9949181 -0.92094225
-1.4626517 5.0802727 -0.88135773
-2.0295525 7.0493064 -0.81764048
-2.4649363 8.5615387 -0.49764016
-2.4228928 8.4155073 0
-3.5446525 12.311749 0.71562153
-0.8042174 2.7869787 -0.95644832
-0.92931145 3.2204864 -0.92477602
-1.1455365 3.9698048 -0.91531229
-1.4628738 5.0695224 -0.87964582
-2.0323753 7.0431042 -0.81706333
-2.4679463 8.552556 -0.49720463
-2.4214835 8.3915405 0
-3.5528126 12.31211 0.71576709
-0.83785909 2.8904467 -0.99230367
-0.93110603 3.2121301 -0.92269886
-1.1460893 3.9537797 -0.91193604
-1.4668535 5.0603518 -0.87836152
-2.0423257 7.0456166 -0.81764048
-2.4804497 8.5570564 -0.49764016
-2.4352434 8.401104 0
-3.5727487 12.325271 0.71678263
-0.82407689 2.8301082 -0.97193033
-0.94270241 3.2375011 -0.93031329
-1.1473148 3.9401965 -0.90912217
-1.4779913 5.0758314 -0.88135773
-2.0508375 7.0431437 -0.81764048
-2.4842501 8.5316019 -0.49633405
-2.4322975 8.3531828 0
-3.5919988 12.335918 0.71765375
-0.82888502 2.8338594 -0.97356182
-0.93675494 3.2026539 -0.92062438
-1.1606346 3.9680719 -0.91587681
-1.4826807 5.0691094 -0.88050097
-2.0593462 7.0406604 -0.81764048
-2.4930966 8.5236015 -0.4960435
-2.457731 8.4026909 0
-3.6090882 12.339045 0.71808875
-0.81976891 2.7901757 -0.95889401
-0.93779522 3.1918917 -0.91785574
-1.1632789 3.9593508 -0.91418761
-1.4873587 5.0623927 -0.87964582
-2.0671237 7.0356879 -0.81735247
-2.5099854 8.5430183 -0.49734962
-2.463479 8.3847284 0
-3.6305864 12.357109 0.71939486
-0.82523644 2.7962878 -0.96133655
-0.95159143 3.224438 -0.92754465
-1.1644669 3.9457598 -0.91137373
-1.4978328 5.0753598 -0.88221282
-2.0719607 7.0207744 -0.81591016
-2.5181019 8.5325098 -0.49691463
-2.4876053 8.4291735 0
-3.6447802 12.350224 0.7192499
-0 0 -0
-0.93980193 3.1703734 -0.91231841
-1.1656209 3.9321623 -0.90855765
-1.4995883 5.0587835 -0.87964582
-2.0826485 7.0257072 -0.81677532
-2.5328395 8.544404 -0.49778518
-2.4970467 8.4236584 0
-3.6641328 12.360764 0.72012103
-0 0 -0
-0.95938087 3.2221289 -0.92754465
-1.1718229 3.935626 -0.90968454
-1.5064315 5.0594258 -0.88007337
-2.0926137 7.0281482 -0.81735247
-2.5661466 8.6185322 -0.50228411
-2.4856865 8.3483038 0
-3.6835134 12.371264 0.72099155
-0.85296255 2.8396091 -0.97763586
-0.95850396 3.1909685 -0.91923869
-1.1908323 3.9644158 -0.91700149
-1.52087 5.063149 -0.88135773
-2.1043825 7.0057282 -0.81533414
-2.599674 8.6546097 -0.50475132
-2.5358016 8.4419718 0
-3.7216225 12.389704 0.72258824
-0.8449707 2.8007162 -0.96459639
-0.96525747 3.1994154 -0.92200732
-1.1860814 3.9313524 -0.90968454
-1.5255023 5.0563874 -0.88050097
-2.1083651 6.988328 -0.81360495
-2.6108823 8.6539574 -0.50489688
-2.5369799 8.4090023 0
-3.73809 12.390168 0.72287822
-0 0 -0
-0.95893854 3.1646378 -0.91231841
-1.1959895 3.9469407 -0.91362524
-1.5293769 5.0471678 -0.87921661
-2.1183062 6.9907212 -0.81418097
-2.6130474 8.6234388 -0.50330019
-2.559968 8.4482698 0
-3.7545669 12.390621 0.72316879
-0.85677445 2.8152201 -0.97030193
-0.97444862 3.2018781 -0.92339301
-1.1970567 3.9333317 -0.91080922
-1.5324847 5.0354929 -0.87750477
-2.1275039 6.9906287 -0.81446898
-2.6272471 8.6327028 -0.50402576
-0 0 0
-3.7755852 12.405952 0.72432935
-0.84861594 2.7763643 -0.95726252
-0.97171748 3.1791079 -0.91716421
-1.2003244 3.9270272 -0.90968454
-1.5408198 5.0410047 -0.87878907
-2.1321697 6.9756875 -0.8130278
-2.6384349 8.6320038 -0.50417078
-2.5864625 8.4619694 0
-3.7951314 12.416296 0.72520047
-0.8490687 2.7658856 -0.95400262
-0.9851284 3.2091072 -0.92616165
-1.2117789 3.9474328 -0.91474998
-1.5469097 5.0391393 -0.87878907
-2.1428747 6.9805264 -0.81389296
-2.6473396 8.623847 -0.50388074
-0 0 0
-3.8124197 12.419156 0.72563601
-0.8611483 2.7932005 -0.96378225
-0.98309225 3.1887352 -0.92062438
-1.2165476 3.9459658 -0.91474998
-1.5514863 5.0323648 -0.87793398
-2.1505466 6.9754629 -0.81360495
-2.668474 8.6554003 -0.50591242
-0 0 0
-3.8358419 12.441848 0.72723216
-0.8718316 2.8157637 -0.97193033
-0.98323506 3.1755648 -0.91716421
-1.2205639 3.9420681 -0.91418761
-1.5606028 5.0402951 -0.87964582
-2.1597376 6.9753275 -0.81389296
-2.6812367 8.6596184 -0.50634801
-0 0 0
-3.8493369 12.432244 0.72694212
-0.85395414 2.7462754 -0.94830024
-0.98632431 3.1719718 -0.91647005
-1.2253262 3.9405904 -0.91418761
-1.5659274 5.0359473 -0.87921661
-2.1681645 6.972713 -0.81389296
-2.6909275 8.6538935 -0.506203
-0 0 0
-3.8728409 12.45487 0.72853827
-0.86905676 2.7829807 -0.96133655
-0.99539173 3.1875429 -0.92131585
-1.223271 3.9172807 -0.90912217
-1.5712467 5.0316038 -0.87878907
-2.1758177 6.9676213 -0.81360495
-2.7098999 8.6779127 -0.50779909
-0 0 0
-3.8902118 12.457625 0.72897381
-0.86280495 2.7512722 -0.95074278
-0.99698967 3.1791542 -0.91923869
-1.2310447 3.9254978 -0.91137373
-1.5750202 5.0223508 -0.87750477
-2.1842351 6.9649873 -0.81360495
-2.7157197 8.6597605 -0.50692856
-0 0 0
-3.9083717 12.462833 0.72955436
-0.87800765 2.7879469 -0.96378225
-0.98726702 3.1348796 -0.90678114
-1.234259 3.9191556 -0.91024685
-1.5803171 5.0179977 -0.87707722
-2.1910939 6.9574041 -0.8130278
-2.7293034 8.6663866 -0.50750911
-0 0 0
-3.9281094 12.472967 0.73042494
-0.8843568 2.7963102 -0.96704209
-0.98953974 3.1288958 -0.90539545
-1.2420583 3.927352 -0.91249841
-1.5879289 5.0209846 -0.87793398
-2.19872 6.9522877 -0.81273979
-2.74369 8.6754675 -0.50823468
-0 0 0
-3.945529 12.475647 0.73086047
-0.88604605 2.7957754 -0.96704209
-1.0255362 3.2359142 -0.93654209
-1.2451977 3.9290206 -0.91306078
-1.587085 5.007791 -0.87579453
-2.2037005 6.9534216 -0.8130278
-2.7520709 8.6837158 -0.50881523
-0 0 0
-3.95699 12.485643 0.73158604
-0.87143427 2.7381778 -0.94748294
-1.0119487 3.1796954 -0.92062438
-1.2499442 3.9275131 -0.91306078
-1.5915763 5.0009727 -0.87493777
-2.2097468 6.943357 -0.81216264
-2.7586222 8.6680059 -0.50808966
-0 0 0
-3.9768031 12.495714 0.73245716
-0.894306 2.7983391 -0.96867359
-1.0081514 3.1545687 -0.91370142
-1.2531434 3.921164 -0.91193604
-1.6015244 5.0112696 -0.87707722
-2.2173481 6.938221 -0.81187463
-2.7627656 8.644866 -0.50692856
-0 0 0
-3.7158487 11.627122 0.68180585
-0.86068046 2.6819427 -0.9287411
-1.0173293 3.1700718 -0.91854721
-1.2609862 3.9293244 -0.91418761
-1.606011 5.004447 -0.87622207
-2.2233584 6.9281459 -0.81100947
-2.7827373 8.6712112 -0.50867021
-2.7348044 8.5218487 0
-3.7418058 11.659739 0.68398309
-0.88287181 2.7397103 -0.94911444
-1.0188497 3.1616745 -0.91647005
-1.2579381 3.903609 -0.90855765
-1.6120567 5.0025029 -0.87622207
-2.2349012 6.9353013 -0.81216264
-2.794009 8.6703129 -0.50881523
-0 0 0
-3.7550924 11.652729 0.68383753
-0.90900797 2.8091838 -0.97356182
-1.021126 3.1556718 -0.91508704
-1.2626541 3.9020863 -0.90855765
-1.622051 5.0127611 -0.87836152
-2.2408929 6.9252205 -0.81129861
-2.8196836 8.7139063 -0.51157302
-0 0 0
-3.7659729 11.638304 0.68325752
-0.88643497 2.7281663 -0.94585454
-1.0272648 3.1615961 -0.91716421
-1.2657992 3.8957293 -0.90743297
-1.6265187 5.0059099 -0.87750477
-2.247659 6.9175835 -0.81072146
-2.843055 8.7500238 -0.51389468
-0 0 0
-3.7711992 11.606558 0.68166083
-0.87669921 2.6871505 -0.93200094
-1.0240787 3.1388803 -0.91093278
-1.2799627 3.9231839 -0.91418761
-1.6341602 5.0088263 -0.87836152
-2.2568173 6.9173188 -0.81100947
-2.863297 8.7762251 -0.51563638
-2.8098614 8.6124411 0
-3.7691019 11.552587 0.67875808
-0.91149199 2.782387 -0.96541375
-1.0419306 3.1805589 -0.92339301
-1.2775837 3.8999052 -0.90912217
-1.6394128 5.0044112 -0.87793398
-2.2611487 6.9022994 -0.80956829
-2.8738992 8.7727594 -0.51563638
-0 0 0
-4.1203675 12.577682 0.73927832
-0.90635747 2.755455 -0.95644832
-1.0363661 3.1506996 -0.91508704
-1.2894397 3.9200792 -0.91418761
-1.6438526 4.9975448 -0.87707722
-2.2694871 6.8995624 -0.80956829
-2.888556 8.78162 -0.51636189
-2.8306661 8.6056261 0
-4.1331258 12.565288 0.73884273
-0.9205364 2.7872102 -0.96785629
-1.0385973 3.1446762 -0.91370142
-1.2878006 3.8992167 -0.90968454
-1.6498899 4.9955549 -0.87707722
-2.2810669 6.9066391 -0.81072146
-2.8967226 8.7707281 -0.5159269
-2.8320868 8.5750227 0
-4.152379 12.572618 0.73956829
-0.89901197 2.7110336 -0.94178051
-1.0329205 3.1148438 -0.90539545
-1.2981102 3.9145424 -0.91362524
-1.6494609 4.9740648 -0.87365347
-2.286154 6.8940578 -0.80956829
-2.9097693 8.7746134 -0.51636189
-2.8375294 8.5567684 0
-4.1675677 12.567593 0.73956829
-0.92180604 2.768569 -0.96215385
-1.0398535 3.1231148 -0.90816414
-1.3028393 3.912971 -0.91362524
-1.664391 4.9988623 -0.87836152
-2.2969346 6.8986549 -0.81043345
-2.9203696 8.7710915 -0.51636189
-0 0 0
-4.1893167 12.582271 0.74072939
-0.9235819 2.7627604 -0.96052235
-1.0372663 3.1028304 -0.90262949
-1.3067584 3.9089773 -0.91306078
-1.664732 4.9798026 -0.87536532
-2.3052685 6.8958745 -0.81043345
-2.923552 8.7453785 -0.51505578
-0 0 0
-4.2061663 12.582132 0.74101996
-0.92062783 2.7428973 -0.95400262
-1.0505909 3.1301062 -0.91093278
-1.3082467 3.8977599 -0.91080922
-1.6723831 4.9826593 -0.87622207
-2.312777 6.8906341 -0.81014544
-2.6993139 8.0422735 -0.47383842
-0 0 0
-4.228807 12.59921 0.74232608
-0.9018445 2.6762104 -0.93118674
