# .PCD v0.7 - Point Cloud Data file format
VERSION 0.7
FIELDS x y z
SIZE 4 4 4
TYPE F F F
COUNT 1 1 1
WIDTH 1570
HEIGHT 1
VIEWPOINT 0 0 0 1 0 0 0
POINTS 1570
DATA ascii
1.1605424 5.8529181 -0.99476206
1.6159108 8.1494608 -0.9260329
1.8268393 9.2132282 -0.52463472
3.6251521 18.282589 0
3.6294587 18.30431 1.0423139
1.1494994 5.834167 -0.99133831
1.604562 8.1437912 -0.92516774
1.8152038 9.212882 -0.5244897
3.6055734 18.299721 0
3.6058314 18.301031 1.0418783
1.1275564 5.7966204 -0.98449248
1.5809262 8.1273346 -0.9228614
1.7934303 9.2197905 -0.52463472
3.5643203 18.323704 0
3.5610988 18.307142 1.0417334
1.1201452 5.7771392 -0.98106873
1.575032 8.1232147 -0.92228538
1.7878598 9.2208719 -0.52463472
3.5532494 18.325853 0
3.5534987 18.327141 1.0427489
1.1117065 5.7709241 -0.97978443
1.5549414 8.0717783 -0.91623151
1.7767168 9.2230253 -0.52463472
3.5325809 18.337803 0
3.5298781 18.323772 1.0423139
1.1028025 5.7621779 -0.97807252
1.5417833 8.0558662 -0.91421318
1.7645935 9.2200565 -0.52434415
3.509443 18.33695 0
3.5096889 18.338234 1.0428945
1.0929632 5.7483797 -0.97550559
1.5277007 8.0348568 -0.91161883
1.7539383 9.2247419 -0.5244897
3.4858251 18.333506 0
3.4855866 18.332251 1.0423139
1.0845867 5.742126 -0.97422123
1.5151116 8.0214529 -0.90988964
1.7418253 9.2217426 -0.52419919
3.4660847 18.350487 0
3.4682548 18.361977 1.0437651
1.0762271 5.7358608 -0.97293693
0 0 -0
1.7316407 9.2289534 -0.5244897
3.4410305 18.339319 0
3.4412746 18.34062 1.0423139
1.0678841 5.7295837 -0.97165263
1.4980916 8.0378017 -0.91133082
1.7195349 9.2259254 -0.52419919
3.6563234 19.617495 0
3.4138734 18.316664 1.0407172
1.0581573 5.7157297 -0.96908563
1.4860246 8.0268927 -0.90988964
1.7083859 9.2279968 -0.52419919
3.6278801 19.596313 0
3.6060033 19.478144 1.1064619
1.0521797 5.7220588 -0.96994239
1.480534 8.0515738 -0.91248399
1.6972344 9.2300539 -0.52419919
3.603729 19.598125 0
3.5824652 19.482487 1.1064619
1.0434201 5.7132244 -0.96823055
1.4717326 8.0584412 -0.91306001
1.6856141 9.2295446 -0.52405417
3.5823832 19.615263 0
3.5617237 19.502144 1.1073331
1.0342239 5.7018447 -0.96608949
1.4666098 8.0856581 -0.91594237
1.6753874 9.2366829 -0.52434415
3.5596092 19.624704 0
3.53862 19.508987 1.107478
1.0255132 5.6929846 -0.96437758
1.4595909 8.1027021 -0.91767269
1.6614623 9.223362 -0.52347362
3.5386615 19.644354 0
3.515965 19.518358 1.1077681
1.0159222 5.6790624 -0.96181065
1.4497993 8.1044598 -0.91767269
1.3959196 7.8032694 -0.44277996
3.5162978 19.656303 0
3.4932942 19.527712 1.1080586
1.0086108 5.6777611 -0.96138304
1.4372904 8.0909214 -0.91594237
1.3901258 7.8254175 -0.44394109
3.4911783 19.652847 0
3.4710603 19.539597 1.1084942
1.0044245 5.694139 -0.96395004
1.4279636 8.0952063 -0.91623151
1.3770581 7.8066201 -0.44277996
3.468786 19.664743 0
3.4497044 19.556568 1.1092197
0.99710101 5.692822 -0.96352249
1.4155029 8.0816345 -0.91450119
1.3662807 7.8006072 -0.44234496
3.4472668 19.681736 0
3.4242785 19.550486 1.1086391
0.98846227 5.6839066 -0.96181065
1.4061812 8.0858946 -0.91479033
1.3644222 7.8457704 -0.44481221
3.4199157 19.665375 0
3.4010978 19.557165 1.1087842
0.98203003 5.687624 -0.96223819
1.3924481 8.064642 -0.91219485
1.3536144 7.8397293 -0.44437665
3.3952651 19.664358 0
3.3810012 19.581745 1.1099453
0.97602522 5.6938715 -0.96309495
1.3848886 8.079072 -0.91363716
1.3445792 7.8439178 -0.44452164
1.9056225 11.116895 0
3.3586555 19.593502 1.1103809
0.96742195 5.6849236 -0.96138304
1.3751258 8.08074 -0.91363716
1.3351004 7.8455367 -0.44452164
1.8917522 11.116626 0
3.3349781 19.597546 1.1103809
0.96012491 5.6835599 -0.9609555
1.3632053 8.0696363 -0.91219485
1.3256196 7.8471441 -0.44452164
1.8731166 11.08811 0
3.3108618 19.598991 1.1102353
0.95155859 5.6745892 -0.95924366
1.3534538 8.0712776 -0.91219485
1.3157076 7.84618 -0.44437665
1.3036715 7.7744031 0
2.5992198 15.500364 0.87787938
0.94343644 5.6681356 -0.95795935
1.341153 8.0576038 -0.91046566
1.3023868 7.8246975 -0.44307053
1.2900046 7.7503057 0
2.5723825 15.45479 0.87512159
0.93574923 5.6642008 -0.9571026
1.3305737 8.0541191 -0.90988964
1.2929312 7.8262658 -0.44307053
1.2857292 7.782671 0
2.5460837 15.411745 0.87250936
0.93316162 5.669836 -0.95795935
1.3252863 8.0523624 -0.9096005
0 0 -0
1.2810271 7.7834463 0
2.5274892 15.356878 0.86931658
0.92548162 5.6658878 -0.9571026
1.3147224 8.0488577 -0.90902448
0 0 -0
1.2686841 7.7670069 0
2.5043235 15.33171 0.86771989
0.92027789 5.6771379 -0.95881444
1.307065 8.0632038 -0.91046566
1.1079664 6.8349771 -0.38675919
2.4764762 15.27723 0
2.4812238 15.306518 0.8661238
0.91301018 5.6757135 -0.9583869
1.2952677 8.0520115 -0.90902448
0 0 -0
2.4609087 15.2982 0
2.463964 15.317193 0.86655879
0.90412873 5.6641402 -0.95624745
1.2847213 8.0484571 -0.90844733
0 0 -0
2.4407811 15.290882 0
2.4454544 15.32016 0.86655879
0.89607894 5.6576195 -0.95496315
1.2770196 8.0627842 -0.90988964
0 0 -0
2.4153826 15.250125 0
2.4265351 15.320539 0.86641377
0.88964027 5.6612315 -0.95539069
1.2648664 8.0489855 -0.90815932
1.0708857 6.8145881 -0.38530809
1.2286046 7.8182335 0
2.4096348 15.333728 0.86699432
0.88398588 5.6699142 -0.95667499
1.0945772 7.0206542 -0.79198384
1.0706549 6.8672156 -0.3882103
1.2159497 7.7991409 0
2.3919051 15.341758 0.86728436
0.87595671 5.6633649 -0.95539069
1.0888597 7.0398569 -0.79400104
1.0460739 6.7632322 -0.38226029
1.2109011 7.828898 0
2.3737643 15.347212 0.86742991
0.86794615 5.6568146 -0.95410806
1.082315 7.0539575 -0.79544336
1.0414474 6.7876043 -0.38356641
1.1959157 7.7943468 0
2.355612 15.352635 0.86757493
0.86226803 5.6654654 -0.95539069
1.0741796 7.0578146 -0.79573137
1.0258163 6.740047 -0.38080862
1.1864969 7.7957864 0
2.3386235 15.365746 0.86815548
0.85312337 5.651278 -0.9528237
1.0637208 7.0463223 -0.79429018
1.015345 6.7258701 -0.37993807
1.1836801 7.8409586 0
2.3219943 15.381405 0.86888105
0.84667408 5.6548414 -0.9532513
1.0555886 7.050158 -0.79457819
1.0076017 6.7296596 -0.38008305
1.1661125 7.7883353 0
2.3030229 15.381632 0.86873603
0.83908731 5.6507864 -0.95239615
1.0440298 7.030961 -0.79227185
1.0036682 6.7591476 -0.38167974
1.155172 7.7794418 0
2.285198 15.389539 0.86902601
0.83300602 5.6568708 -0.9532513
1.1821053 8.0275736 -0.90441179
0.99360794 6.7475042 -0.38095418
1.1347765 7.7061667 0
2.2669792 15.394857 0.86917102
0.82542908 5.6527977 -0.95239615
1.1667986 7.990603 -0.90008712
0.9839524 6.7384152 -0.38037363
1.1258399 7.7101054 0
2.2510045 15.415586 0.87018716
0.81859821 5.653791 -0.95239615
1.1571426 7.9920073 -0.90008712
0.97729897 6.7498856 -0.38095418
1.1109288 7.672823 0
2.2312586 15.410577 0.86975157
0.81103587 5.6496892 -0.9515394
1.0133431 7.0589647 -0.7948662
0.96840316 6.7459126 -0.3806636
1.1064655 7.7076564 0
2.2133756 15.418411 0.87004215
0.80457145 5.653214 -0.95196861
1.0033551 7.0499411 -0.79371303
0.9635461 6.7702279 -0.38196972
1.0975177 7.7115617 0
2.1947439 15.421074 0.87004215
0.7970221 5.6490932 -0.95111185
0.99772674 7.0716372 -0.79601938
0 0 -0
1.0820185 7.669076 0
1.3241544 9.3852749 0.52941751
0.79055095 5.6525917 -0.9515394
0.98810625 7.0651507 -0.79515421
0 0 -0
1.0731112 7.6729527 0
1.3110139 9.3740034 0.52869195
0.78301603 5.6484623 -0.95068431
0.97566301 7.0381651 -0.79198384
0 0 -0
1.0638392 7.6742439 0
1.297545 9.3601322 0.52782083
0.7758413 5.6468635 -0.95025676
0.96715802 7.0393386 -0.79198384
0.92586207 6.738771 -0.37993807
1.0545655 7.6755238 0
1.2841126 9.3462534 0.52695024
0.76929897 5.6244435 -0.94640547
0.95939922 7.0142903 -0.78910035
0.91967851 6.7238874 -0.37906751
1.0495758 7.6735835 0
1.2767055 9.334157 0.52622473
0.7652595 5.6457095 -0.94982755
0.9443233 6.966754 -0.78362364
0.91120332 6.7224112 -0.37892196
1.0430996 7.695477 0
1.2619352 9.3099394 0.524773
0.7580958 5.6440883 -0.94940001
0.93418342 6.9550753 -0.78218246
0.90238881 6.7183619 -0.37863195
1.0331068 7.6915684 0
1.2493014 9.301156 0.52419245
0.75093716 5.642458 -0.9489724
0.9199785 6.9126153 -0.77728176
0.89392781 6.7168736 -0.37848693
1.0207226 7.6695957 0
1.2363482 9.2897825 0.52346694
0.74378353 5.6408186 -0.94854486
0.90249568 6.8444839 -0.76949757
0.88513112 6.7127919 -0.37819639
1.0114547 7.6708236 0
1.2251225 9.2912693 0.52346694
0.73463929 5.6238928 -0.94554871
0.88953513 6.8096685 -0.76546204
0.87567312 6.7035503 -0.37761584
1.0085903 7.7210736 0
1.2112023 9.27213 0.52230579
0.72850287 5.6298728 -0.94640547
0.87865096 6.7902179 -0.7631557
0.86557245 6.6891465 -0.37674525
1.0009298 7.735189 0
1.1989971 9.2658539 0.52187026
0.72202581 5.6332927 -0.94683301
0.86715811 6.7656245 -0.76027334
0.85748929 6.6901875 -0.37674525
0.98463488 7.6821861 0
1.1874702 9.2647209 0.52172524
0.71586448 5.6392493 -0.9476881
0.85507387 6.7358766 -0.75681382
0.85005867 6.6963692 -0.37703526
0.97109145 7.6498094 0
1.1766016 9.2687244 0.52187026
0.70809036 5.6324763 -0.94640547
0.84596604 6.7292032 -0.75594866
0.84099543 6.6896644 -0.37660027
0.96411884 7.669045 0
1.1650776 9.2675638 0.52172524
0.7006492 5.6282282 -0.94554871
0.83687687 6.722528 -0.75508463
0.83451635 6.7035661 -0.37732583
0.9509936 7.6392136 0
1.1525947 9.2586498 0.52114469
0.69447678 5.634171 -0.94640547
0.8290695 6.726099 -0.75537264
0.8254618 6.6968303 -0.37689027
0.94049013 7.6300354 0
1.1404538 9.2523069 0.52070969
0.6876685 5.6350064 -0.94640547
0.82094175 6.7270961 -0.75537264
0.81674045 6.6926689 -0.37660027
0.93095386 7.6285753 0
1.1305325 9.2639952 0.52129024
0.67993522 5.6281848 -0.94512111
0.81281275 6.7280827 -0.75537264
0.80958712 6.7013826 -0.37703526
0.92048699 7.61936 0
1.1193379 9.2653542 0.52129024
0.67374319 5.6340952 -0.94597626
0.80683148 6.7470298 -0.75738984
0.80118102 6.6997786 -0.37689027
0.90911764 7.6023855 0
1.1072159 9.2589579 0.52085471
0.65863287 5.6229615 -0.94383681
0.79654229 6.8003383 -0.7631557
0.78498793 6.701695 -0.37689027
0.89165044 7.6123071 0
1.0848373 9.2616062 0.52085471
0.65242988 5.6288581 -0.94469357
0.79398334 6.8501148 -0.76863354
0.77659076 6.7000599 -0.37674525
0.88574815 7.6418185 0
1.072449 9.2525854 0.5202741
0.64445806 5.6194406 -0.94298172
0.7927773 6.9127307 -0.77555144
0.76908606 6.7061515 -0.37703526
0.87384546 7.6196156 0
0 0 0
0.63708824 5.615109 -0.94212496
0.78471649 6.9162607 -0.77584058
0.76274061 6.7225723 -0.37790638
0.87079906 7.6749678 0
0 0 0
0.63001698 5.6133261 -0.94169742
0.78097361 6.9583197 -0.78045213
0.75432646 6.7208991 -0.37776083
0.86326581 7.6915269 0
0 0 0
0.62436682 5.624289 -0.94340926
0.77370679 6.9695411 -0.7816053
0.74935901 6.750217 -0.37935749
1.0417558 9.3841228 0
1.0254233 9.2370005 0.519113
0.61560917 5.6071744 -0.94041306
0.76500285 6.9679022 -0.78131729
0.74148548 6.7536979 -0.37950251
1.0292801 9.3750267 0
1.0148281 9.2433939 0.51940298
0.61194313 5.6049962 -0.93998551
0.76303881 6.9889326 -0.78362364
0.73768789 6.7567348 -0.37964806
1.0241803 9.3808165 0
1.0098081 9.249176 0.51969355
0.60406804 5.5955224 -0.93827367
0.75153947 6.9615602 -0.78045213
0.72924346 6.7550306 -0.37950251
1.0131248 9.3846426 0
0.99863148 9.2503891 0.51969355
0.59703434 5.593698 -0.93784612
0.74175501 6.9496064 -0.77901095
0.72163284 6.7610793 -0.37979305
0.9995749 9.3651571 0
0.98772895 9.2541704 0.51983857
0.58919758 5.5842037 -0.93613422
0.83621174 7.9253163 -0.88826853
0.71400768 6.7671094 -0.38008305
0.99044281 9.387063 0
0.97627395 9.2527761 0.51969355
0.58298177 5.590013 -0.93698937
0.82475668 7.9083104 -0.8862502
0.70609969 6.7705493 -0.38022804
0.98098856 9.4063644 0
0.96617121 9.264286 0.5202741
0.57596391 5.5881624 -0.93656176
0.81705695 7.9273138 -0.88826853
0.69951725 6.786911 -0.38109916
0.9666878 9.3790741 0
0.95550871 9.2706118 0.52056414
0.56947118 5.5914059 -0.93698937
0.80669129 7.9205732 -0.88740337
0.69526458 6.82652 -0.38327584
0.956936 9.3957653 0
0.94430631 9.271759 0.52056414
0.56297243 5.5946512 -0.93741852
0.79737896 7.9241133 -0.88769138
0.688577 6.8428726 -0.38414696
0.94584262 9.3995008 0
0.93310249 9.2728939 0.52056414
0.5554499 5.5876617 -0.93613422
0.78857142 7.932795 -0.88855654
0.68287814 6.8695517 -0.38559809
0.93602961 9.4161806 0
0.92344004 9.2895336 0.52143526
0.54869789 5.5883288 -0.93613422
0.77898562 7.933742 -0.88855654
0.67457712 6.8703718 -0.38559809
0.92414218 9.4121199 0
0.91043717 9.2725382 0.52041912
0.54120159 5.5813198 -0.93484992
0.76914924 7.9321055 -0.88826853
0.66627508 6.871182 -0.38559809
0.91402543 9.4261885 0
0.90073764 9.2891541 0.52129024
0.53519148 5.5896382 -0.93613422
0.75907081 7.9278746 -0.88769138
0.65772474 6.8693976 -0.38545308
0.90288287 9.4298744 0
0.88926452 9.2876415 0.52114469
0.5281958 5.5877275 -0.93570668
0.74949098 7.9287863 -0.88769138
0.64673376 6.8417287 -0.38385642
0.89050841 9.4205942 0
0.87975353 9.3068199 0.52216083
0.52120453 5.5857983 -0.93527746
0.74039108 7.9348416 -0.88826853
0.63894969 6.8476849 -0.38414696
0.87960792 9.4268417 0
0.86874861 9.310461 0.52230579
0.51421964 5.5838704 -0.93484992
0.73009104 7.9280009 -0.88740337
0.629722 6.8381019 -0.38356641
0.86845613 9.4304962 0
0.85654497 9.3011541 0.52172524
0.50840151 5.5947137 -0.93656176
0.72051108 7.9288774 -0.88740337
0.85096031 9.3644085 -0.52521527
0.85776645 9.4393072 0
0.8460114 9.309948 0.52216083
0.50003618 5.577424 -0.93356562
0.71208465 7.9426203 -0.88884455
0.84057277 9.375782 -0.52579582
0.84868461 9.4662619 0
0.83615327 9.3264866 0.52303135
0.49420115 5.5882521 -0.93527746
0.7018041 7.9357533 -0.88798052
0.82924336 9.376791 -0.52579582
0.83472383 9.4387617 0
0.82557034 9.3352585 0.52346694
0.48655629 5.5786161 -0.93356562
0.69311374 7.9469023 -0.88913369
0.81881583 9.3881407 -0.52637643
0.82535321 9.4630957 0
0.81383878 9.3310766 0.52317691
0.47915602 5.5715342 -0.93228292
0.68262446 7.9374261 -0.88798052
0 0 -0
0.81347275 9.4589052 0
0.80234015 9.3294563 0.52303135
0.47198942 5.5669885 -0.93142617
0.67390716 7.948554 -0.88913369
0.79480845 9.3745518 -0.5255053
0.80226254 9.462472 0
0.79238427 9.3459597 0.52390248
0.46905708 5.5723934 -0.93228292
0.66867059 7.9438 -0.88855654
0 0 -0
0.79785502 9.4785099 0
0.78630137 9.3412523 0.5236119
0.46189871 5.5678349 -0.93142617
0.65885794 7.9420271 -0.88826853
0.77695686 9.3656187 -0.5249247
0.78661728 9.4820681 0
0.77522916 9.3447933 0.52375746
0.45537969 5.5709448 -0.93185371
0.6496821 7.947968 -0.88884455
0.76479298 9.3561916 -0.52434415
0.77494681 9.4804096 0
0.76457173 9.3534851 0.52419245
0.44823626 5.5663786 -0.93099862
0.63987064 7.9461718 -0.88855654
0.75307059 9.3519335 -0.52405417
0.76474482 9.4969091 0
0.75326931 9.3544016 0.52419245
0.44252464 5.5797086 -0.93313807
0.63108677 7.9572525 -0.88970971
0.74279702 9.3657856 -0.52477974
0.75285715 9.4926319 0
0.74196583 9.3553057 0.52419245
0.43458351 5.5648885 -0.93057108
0.62066603 7.9476948 -0.88855654
0.73087263 9.3589029 -0.52434415
0.74138665 9.493535 0
0.73106623 9.3613815 0.52448303
0.42844886 5.5730805 -0.93185371
0.61185539 7.9587545 -0.88970971
0.71956372 9.3597784 -0.52434415
0.73031437 9.4996185 0
0.72055095 9.3726206 0.52506357
0.42171457 5.5735946 -0.93185371
0.60126281 7.9465947 -0.88826853
0.70766616 9.3528757 -0.52390915
0.71922773 9.5056791 0
0.70922548 9.3734846 0.52506357
0.41478926 5.5715423 -0.93142617
0.5922367 7.9550562 -0.88913369
0.69655722 9.3563128 -0.52405417
0.70774144 9.5065413 0
0.69847715 9.3821011 0.52549857
0.40730688 5.5617986 -0.92971432
0.58224595 7.9506016 -0.88855654
0.68468189 9.349371 -0.52361858
0.69796467 9.5307474 0
0.68770969 9.3907156 0.52593416
0.40077117 5.5648546 -0.93014354
0.57263881 7.9512997 -0.88855654
0.67375821 9.3553791 -0.52390915
0.68551356 9.5186071 0
0.6769225 9.3993168 0.52636969
0.39422795 5.567893 -0.93057108
0.56230009 7.9416656 -0.88740337
0.66116875 9.3380404 -0.52289307
0.67364442 9.5142412 0
0.66519737 9.3949394 0.52607912
0.38785604 5.573482 -0.93142617
0.55216485 7.9345961 -0.88653821
0.65024549 9.3440123 -0.52318305
0.66214782 9.515049 0
0.65366471 9.3931465 0.52593416
0.38042083 5.5637021 -0.92971432
0.5413425 7.9172015 -0.88452101
0.6380685 9.331831 -0.52245748
0.65207052 9.5366135 0
0.64249158 9.3965197 0.52607912
0.37387043 5.5667267 -0.93014354
0.53194886 7.9204283 -0.88480902
0.53973508 8.0363607 -0.44989166
0.63932598 9.5192146 0
0.63235629 9.4154396 0.52709526
0.36798832 5.5799794 -0.93228292
0.5225482 7.9236436 -0.88509703
0.52934039 8.0266361 -0.44931111
0.62919348 9.5407553 0
0.62080824 9.4136066 0.52695024
0.36091375 5.5752916 -0.93142617
0.51213843 7.911366 -0.88365585
0.51796311 8.0013447 -0.44785997
0.61716038 9.5337152 0
0.60960102 9.4169407 0.52709526
0.35433942 5.5782828 -0.93185371
0.50257868 7.9119792 -0.88365585
0.50944728 8.0201092 -0.44887555
0.60646504 9.5474377 0
0.59855115 9.4228516 0.52738523
0.34791848 5.5838361 -0.93271047
0.49269685 7.9074225 -0.88307983
0.49830198 7.9973807 -0.44756943
0.59557575 9.5585537 0
0.58813488 9.4391336 0.52825636
0.34101486 5.5816927 -0.93228292
0.48251101 7.8976855 -0.88192666
0.48990601 8.0187263 -0.44873053
0.58402568 9.5592661 0
0.57657081 9.4372463 0.5281114
0.33380973 5.5744109 -0.93099862
0.47296783 7.898263 -0.88192666
0.48285693 8.0634041 -0.45119777
0.57263017 9.5625601 0
0.56547767 9.4431181 0.52840137
0.32782552 5.5876207 -0.93313807
0.46327206 7.8962393 -0.88163751
0.47570059 8.108077 -0.45366502
0.56107527 9.5632448 0
0.55421913 9.4463863 0.52854639
0.32474756 5.5929484 -0.93399483
0.45910117 7.906846 -0.88279068
0.47035 8.1005783 -0.45322946
0.55559951 9.5687838 0
0.54836148 9.444128 0.52840137
0.31769767 5.5882058 -0.93313807
0.44866639 7.8919063 -0.88106149
0.45805454 8.0570412 -0.45076221
0.54374135 9.5642462 0
0.53680235 9.4421921 0.52825636
0.31066024 5.5834641 -0.93228292
0.43956143 7.9001923 -0.88192666
0.44384432 7.9771686 -0.44626331
0.53319663 9.5830879 0
0.52625877 9.458395 0.52912694
0.30447152 5.5940886 -0.93399483
0.4298743 7.8981276 -0.88163751
0.43138081 7.9258065 -0.44336051
0.52175826 9.5863218 0
0.51525354 9.4668102 0.52956247
0.29743886 5.5893207 -0.93313807
0.42156753 7.9218845 -0.88423187
0.42028517 7.8977871 -0.44176441
0.51031339 9.589551 0
0.50326204 9.4570465 0.52898192
0.29081821 5.5922375 -0.93356562
0.41253248 7.9327197 -0.88538504
0.41074196 7.8982892 -0.44176441
0.49886093 9.5927572 0
0.49304911 9.4809999 0.53028804
0.28471234 5.6054106 -0.93570668
0.40347186 7.9435453 -0.88653821
0.39908913 7.8572578 -0.43944219
0.48687342 9.5855532 0
0.4817245 9.4841814 0.53043306
0.27793911 5.6057506 -0.93570668
0.39412975 7.9491982 -0.88711536
0.3879222 7.8239985 -0.43755549
0.47632179 9.6069288 0
0.47026438 9.4847565 0.53043306
0.27128935 5.608644 -0.93613422
0.3841494 7.941916 -0.8862502
0.37645951 7.7829347 -0.43523327
0.40587202 8.3910093 0
0.45905486 9.4905138 0.53072363
0.26439139 5.6064062 -0.93570668
0.37430942 7.937212 -0.88567418
0.36632088 7.7678156 -0.43436271
0.3985526 8.4512873 0
0.44783166 9.4962473 0.53101361
0.25761697 5.6067214 -0.93570668
0.36471859 7.9376588 -0.88567418
0.3563385 7.7552767 -0.43363714
0.38834059 8.4517632 0
0.43695366 9.5097675 0.53173971
0.25141567 5.6198487 -0.93784612
0.35535818 7.9432564 -0.8862502
0.34673503 7.750505 -0.4333466
0.37661606 8.4184303 0
0.42476565 9.494709 0.53086859
0.24417849 5.6098895 -0.93613422
0.34497261 7.9255891 -0.88423187
0.33816087 7.7690926 -0.43436271
0.3662172 8.4136734 0
0.4140839 9.5133896 0.53188473
0.23083153 5.6155882 -0.93698937
0.32603124 7.9315734 -0.88480902
0.31821102 7.7413259 -0.43276605
0.39665243 9.649621 0
0.39141282 9.5221539 0.53232026
0.22373931 5.6081753 -0.93570668
0.3172721 7.9526367 -0.88711536
0.30813172 7.7235274 -0.43174991
0.38540745 9.6604948 0
0.38032082 9.5329952 0.53290027
0.21735971 5.6187024 -0.93741852
0.30766264 7.9530144 -0.88711536
0.29859841 7.7187061 -0.43145993
0.37363344 9.6583452 0
0.36870143 9.5308542 0.53275526
0.21076252 5.6240864 -0.93827367
0.29756856 7.9404593 -0.88567418
0.28683904 7.6541481 -0.42783156
0.36196294 9.6587896 0
0.35776901 9.5468769 0.53362638
0.204153 5.6294727 -0.93913043
0.28834879 7.9511523 -0.88682735
0.27438864 7.5662045 -0.4228971
0.3497262 9.6436205 0
0.3463273 9.5498962 0.5337714
0.19708085 5.6220164 -0.93784612
0.27828783 7.9385629 -0.88538504
0.25823706 7.3665853 -0.41172206
0.33843821 9.6544399 0
0.33442372 9.5399208 0.53319085
0.19037434 5.6248136 -0.93827367
0.26878318 7.9414859 -0.88567418
0.24590813 7.2656178 -0.40606204
0.28372675 8.3830099 0
0.32333577 9.5532999 0.53391641
0.18341042 5.6199131 -0.93741852
0.25876516 7.9288721 -0.88423187
0.23619644 7.2373395 -0.40446538
0.27351251 8.3807478 0
0.31187689 9.5562782 0.53406137
0.17670026 5.622694 -0.93784612
0.24910332 7.9265962 -0.88394386
0.22794092 7.2531977 -0.40533593
0.26289549 8.3654699 0
0.30081964 9.5722361 0.53493249
0.17306595 5.6150994 -0.93656176
0.24232244 7.8621163 -0.87673682
0.22235832 7.2143836 -0.40315926
0.25679892 8.3318033 0
0.29503649 9.5724163 0.53493249
0.16620517 5.612741 -0.93613422
0.21735881 7.3401976 -0.81850564
0.21302569 7.1938682 -0.40199813
0.24519104 8.2800903 0
0.28362358 9.5779552 0.53522253
0.15942314 5.6129379 -0.93613422
0.20746124 7.3042536 -0.81446898
0.20330046 7.1577621 -0.39996648
0.23459488 8.2595692 0
0.27212396 9.5808859 0.53536749
0.1528503 5.6208272 -0.93741852
0.19758089 7.2657237 -0.81014544
0.19394508 7.1320224 -0.39851481
0.22334136 8.2130241 0
0.26026487 9.5708275 0.53478754
0.14579178 5.610743 -0.93570668
0.18846567 7.2530313 -0.80870426
0.18613723 7.1634226 -0.40025645
0 0 0
0.24971247 9.6100912 0.53696418
0.13907571 5.6134787 -0.93613422
0.17957342 7.2480774 -0.80812711
0.17690234 7.1402655 -0.39895034
0 0 0
0.23797177 9.605196 0.5366742
0.1322324 5.6110787 -0.93570668
0.17020614 7.2224364 -0.80524474
0.16851948 7.1508651 -0.39953092
0 0 0
0.22667164 9.6184626 0.53739977
0.12568192 5.6215 -0.93741852
0.16136339 7.2174602 -0.80466759
0.15842699 7.0861211 -0.39590257
0 0 0
0.21528175 9.6291208 0.53798032
0.11856358 5.6062441 -0.93484992
0.15236899 7.2047229 -0.80322641
0.15019421 7.1018896 -0.39677313
0 0 0
0.20359179 9.6267786 0.5378353
0.11178944 5.6063833 -0.93484992
0.14330238 7.1867976 -0.80120808
0.1414576 7.0942793 -0.39633814
0 0 0
0.19309911 9.6841669 0.54102808
0.10515942 5.6142163 -0.93613422
0.13447326 7.179215 -0.80034405
0.13249615 7.0736613 -0.39517701
0.149286 7.9700322 0
0.18227339 9.7311525 0.54364032
0.098645411 5.6297345 -0.93870121
0.12557179 7.1664343 -0.79890174
0.12403988 7.0790071 -0.39546701
0 0 0
0.17065167 9.7391615 0.54407591
0.091801077 5.6272855 -0.93827367
0.11649065 7.1407242 -0.79601938
0.11518962 7.0609727 -0.39445144
0.13036473 7.9911866 0
0.15875648 9.7315645 0.54364032
0.085311703 5.6479263 -0.94169742
0.1073546 7.1072416 -0.79227185
0.10669694 7.0637026 -0.39459646
0 0 0
0.14695847 9.7291536 0.5434953
0.078344546 5.6377583 -0.93998551
0.098623052 7.0970216 -0.79111868
0.098522745 7.0898032 -0.39604756
0.11170363 8.0383139 0
0.13531078 9.7371111 0.54393035
0.071597435 5.6429777 -0.94084066
0.089653842 7.0661001 -0.78765917
0.089626431 7.0639396 -0.39459646
0.10152863 8.0020161 0
0.1235453 9.7372675 0.54393035
0.064896807 5.6533275 -0.94255251
0.080937698 7.0506902 -0.78592998
0.081418984 7.0926166 -0.39619255
0.092068829 8.0203514 0
0.11180954 9.740015 0.54407591
0.057960361 5.6431341 -0.94084066
0.072311997 7.0404377 -0.78477681
0.073062383 7.1134963 -0.39735368
0.082003579 7.9840288 0
0.1003608 9.7713232 0.54581755
0.05130456 5.661171 -0.94383681
0.063687779 7.0275903 -0.78333563
0.064726107 7.1421633 -0.39895034
0.072568618 8.0075407 0
0.088459797 9.7610435 0.545237
0.044464104 5.6612291 -0.94383681
0.055175893 7.0250683 -0.78304648
0.056871612 7.2409697 -0.40446538
0.062504642 7.9581747 0
0.076726586 9.7689314 0.545672
0.037606537 5.6587143 -0.94340926
0.046670258 7.0225458 -0.78275847
0.048743866 7.3345652 -0.40968984
0.0529406 7.966054 0
0.065009005 9.7820063 0.54639757
0.030796951 5.6638846 -0.94426435
0.038128596 7.0122514 -0.7816053
0.040065154 7.3684053 -0.41157708
0.04332928 7.9687123 0
0.053104572 9.7664919 0.54552698
0.023953229 5.6639175 -0.94426435
0.029644703 7.0097084 -0.78131729
0.031139849 7.3632464 -0.4112865
0.033623561 7.9505391 0
0.041435506 9.7977304 0.54726869
0.020559281 5.6716347 -0.94554871
0.025391033 7.0045571 -0.78074127
0.026691321 7.3632641 -0.4112865
0.028942887 7.9843974 0
0.035431411 9.7743702 0.54596257
0.013700007 5.6690907 -0.94512111
0.016921107 7.0019889 -0.78045213
0.017794235 7.3632908 -0.4112865
0.019358162 8.0104465 0
0.023639791 9.7821932 0.54639757
0.0068562059 5.6742325 -0.94597626
0.0084699383 7.0097661 -0.78131729
0.0088751428 7.3451157 -0.41027039
0.0098237339 8.1301737 0
0.01185758 9.8133965 0.54813921
-0 5.6793756 -0.94683301
-0 7.0123553 -0.7816053
-0 7.329535 -0.40939984
-0 8.0859404 0
-0 9.7952213 0.54712367
-0.0068593165 5.6768069 -0.94640547
-0.0084605599 7.0020041 -0.78045213
-0.0088343294 7.3113379 -0.40838373
-0.0098520322 8.153594 0
-0.011835611 9.7952147 0.54712367
-0.013700007 5.6690907 -0.94512111
-0.016921107 7.0019889 -0.78045213
-0.01761841 7.2905345 -0.4072226
-0.019666303 8.1379566 0
-0.023727715 9.8185768 0.54842979
-0.020559281 5.6716347 -0.94554871
-0.02538163 7.0019631 -0.78045213
-0.026380498 7.2775183 -0.40649706
-0.029433409 8.1197166 0
-0.035629205 9.8289347 0.54901034
-0.027437167 5.6767449 -0.94640547
-0.033792112 6.9915814 -0.77929896
-0.035010684 7.2437043 -0.40461037
-0.03911867 8.0936451 0
-0.047442742 9.8158951 0.54828477
-0.034203298 5.6613002 -0.94383681
-0.050630882 8.3803797 -0.93410397
-0.043637671 7.2228694 -0.40344927
-0.057435397 9.5066566 0
-0.059428826 9.8366079 0.54944533
-0.041174144 5.6792264 -0.94683301
-0.060831904 8.3906584 -0.93525714
-0.052270893 7.2098222 -0.4027237
-0.069224171 9.5482187 0
-0.071352117 9.8417301 0.5497359
-0.038148787 4.5102 -0.99917942
-0.048036348 5.6791725 -0.94683301
-0 0 -0
-0.060696825 7.1759772 -0.40083703
-0.080937371 9.5689478 0
-0.08315596 9.8312435 0.54915535
-0.055047318 5.6945071 -0.94940001
-0 0 -0
-0.069116421 7.1499205 -0.3993859
-0.092373662 9.5558233 0
-0.095336445 9.8623161 0.550897
-0.049048059 4.5100946 -0.99917942
-0.061816316 5.6841688 -0.9476881
-0.091218755 8.3877983 -0.93496913
-0.077614397 7.1368427 -0.39866036
-0.10414635 9.5765238 0
-0.10722482 9.8595972 0.55075204
-0.068560407 5.6738224 -0.94597626
-0.10138492 8.3902655 -0.93525714
-0.086426139 7.1523285 -0.39953092
-0.11590636 9.5920095 0
-0.11920088 9.8646526 0.55104202
-0.059947044 4.509963 -0.99917942
-0.075586624 5.6865673 -0.94811565
-0.11169484 8.4030762 -0.93669945
-0.094895624 7.1392303 -0.39880535
-0.12766926 9.6048717 0
-0.13112029 9.864501 0.55104202
-0.065396413 4.5098872 -0.99917942
-0.082160056 5.665947 -0.94469357
-0.12177315 8.3977575 -0.9361223
-0.10355955 7.141706 -0.39895034
-0.13931248 9.6073103 0
-0.14315258 9.8721323 0.55147755
-0.070606135 4.4945569 -0.99580103
-0.089288324 5.6838036 -0.9476881
-0.13216379 8.4131165 -0.93785149
-0.11202557 7.1311831 -0.39836979
-0.15067574 9.591527 0
-0.15528505 9.8849401 0.55220312
-0.076294847 4.509716 -0.99917942
-0.096025877 5.6759987 -0.94640547
-0.14267932 8.4336395 -0.94015783
-0.12011468 7.0998654 -0.39662811
-0.16213301 9.5835285 0
-0.16727287 9.8873415 0.55234814
-0.081467509 4.4943728 -0.99580103
-0.10293062 5.678443 -0.94683301
-0.15296346 8.4386377 -0.94073498
-0.12761039 7.039968 -0.39329034
-0.17357117 9.5755167 0
-0.17931394 9.892333 0.55263871
-0.087192833 4.5095186 -0.99917942
-0.11013907 5.6962729 -0.94982755
-0.16315979 8.438447 -0.94073498
-0.13551393 7.0086331 -0.39154866
-0.18413515 9.5232697 0
-0.19136713 9.8972998 0.55292869
-0.092589304 4.5068622 -0.99861491
-0.11681092 5.6858697 -0.94811565
-0.17330281 8.4356604 -0.94044697
-0.14360875 6.9902768 -0.39053255
-0.19617648 9.5490551 0
-0.20348611 9.9048576 0.55336428
-0.098090321 4.509295 -0.99917942
-0.12362532 5.6831603 -0.9476881
-0.18377674 8.4483719 -0.94188815
-0.15149003 6.9641247 -0.38908142
-0.20794089 9.5592184 0
-0.21528447 9.8968086 0.55292869
-0.10324704 4.4964643 -0.9963634
-0.13049223 5.6830068 -0.9476881
-0.19398481 8.448143 -0.94188815
-0.15996429 6.9665318 -0.38922644
-0.22044706 9.6005898 0
-0.22783904 9.922514 0.55437982
-0.10560451 4.4811649 -0.99298716
-0.13398601 5.6854911 -0.94811565
-0.19902785 8.4454412 -0.94160014
-0.16429567 6.9716344 -0.38951698
-0.22692153 9.6290665 0
-0.23316048 9.8938065 0.55278367
-0.11120789 4.488657 -0.99467635
-0.14085573 5.6853247 -0.94811565
-0.20916812 8.4426012 -0.941311
-0.1727194 6.9714308 -0.38951698
-0.23816958 9.6131802 0
-0.50002259 20.182289 1.1276515
-0.11689549 4.4986796 -0.99692792
-0.14765862 5.6825867 -0.9476881
-0.21930209 8.4397593 -0.94102299
-0.1810752 6.9686117 -0.38937142
-0.24897385 9.581666 0
-0.52488083 20.199844 1.128667
-0.1222619 4.4959874 -0.9963634
-0.15417595 5.6695762 -0.94554871
-0.22964048 8.444664 -0.94160014
-0.18977782 6.9787779 -0.38995197
-0.25913632 9.5293274 0
-0.54957056 20.209585 1.1292475
-0.12726164 4.4806023 -0.99298716
-0.16160947 5.6899137 -0.9489724
-0.2397704 8.4417877 -0.941311
-0.19894804 7.0045228 -0.39140365
-0.27168506 9.5654325 0
-0.57406348 20.211512 1.1293931
-0.13275062 4.4829826 -0.99354953
-0.16802876 5.6743236 -0.94640547
-0.25027671 8.4518328 -0.94246417
-0.20748833 7.0068717 -0.39154866
-0.28355065 9.5754929 0
-0.5988692 20.223787 1.1301187
-0.13801092 4.4777446 -0.99242479
-0.17520097 5.68437 -0.94811565
-0.2604889 8.4515247 -0.94246417
-0.21595462 7.0066161 -0.39154866
-0.29447946 9.5543432 0
-0.62362546 20.233438 1.1306993
-0.14333972 4.4750276 -0.99186033
-0.1820693 5.684154 -0.94811565
-0.27103195 8.461544 -0.94361734
-0.22491956 7.0219278 -0.39241922
-0.30502397 9.5227661 0
-0.64832252 20.240454 1.1311343
-0.15415369 4.474668 -0.99186033
-0.19571683 5.6811347 -0.9476881
-0.29192457 8.4737873 -0.94505852
-0.24188814 7.0213637 -0.39241922
-0.32552695 9.4491749 0
-0.69768143 20.25182 1.1318604
-0.15983208 4.4820986 -0.99354953
-0.20184936 5.6603703 -0.94426435
-0.30207118 8.4708452 -0.94477051
-0.55075783 15.444654 -0.86322767
-0.33722255 9.4565792 0
-0.72289175 20.271727 1.1330209
-0.16459228 4.4641256 -0.98960876
-0.20849968 5.6549969 -0.94340926
-0.31259233 8.4782314 -0.94563568
-0.57037652 15.469938 -0.8646788
-0.34836096 9.4483604 0
-0.74767298 20.278631 1.1334565
-0.17066309 4.4816995 -0.99354953
-0.21572322 5.6650014 -0.94512111
-0.32273805 8.4752655 -0.94534767
-0.58906847 15.469238 -0.8646788
-0.35997546 9.4531384 0
-0.77187842 20.26992 1.1330209
-0.17498119 4.4535689 -0.9873594
-0.22216497 5.6544762 -0.94340926
-0.33307996 8.4774513 -0.94563568
-0.60847384 15.486692 -0.86569494
-0.37180614 9.4630985 0
-0.7955544 20.248211 1.1318604
-0.1801565 4.4482718 -0.98623252
-0.22920471 5.6593289 -0.94426435
-0.34300897 8.4692869 -0.94477051
-0.62792176 15.504113 -0.86671048
-0.38324019 9.4626427 0
-0.86954361 21.470036 1.2002172
-0.18521346 4.4404321 -0.98454332
-0.23582898 5.653923 -0.94340926
-0.35324219 8.4688663 -0.94477051
-0.64687181 15.50854 -0.86700106
-0.39467368 9.4621725 0
-0.89570212 21.474167 1.2005079
-0.19134152 4.4579778 -0.98848408
-0.24321076 5.6664548 -0.94554871
-0.36280963 8.4529333 -0.94304132
-0.66549903 15.505154 -0.86685604
-0.71499783 16.658403 0
-0.92109132 21.460081 1.1997818
-0.19627988 4.4475894 -0.98623252
-0.24960467 5.6558986 -0.94383681
-0.37268087 8.4447346 -0.94217616
-0.68480623 15.517316 -0.86758161
-0 0 0
-0.94725031 21.464149 1.2000723
-0.20165378 4.4473491 -0.98623252
-0.25585726 5.6427732 -0.94169742
-0.38194716 8.4236078 -0.93986982
-0.70331973 15.51128 -0.86729103
-0 0 0
-0.97424406 21.486347 1.2013783
-0.20690934 4.4445662 -0.98567021
-0.26303351 5.6501551 -0.94298172
-0.39104277 8.399889 -0.93727547
-0.72363234 15.54416 -0.8691777
-0 0 0
-1.0015347 21.51371 1.202975
-0.21252179 4.4493842 -0.98679489
-0.27096257 5.6729083 -0.94683301
-0.4002049 8.3787422 -0.93496913
-0.74340564 15.564038 -0.8703388
-0.78929484 16.52478 0
-1.0275291 21.512484 1.202975
-0.2185192 4.4618111 -0.98960876
-0.27806789 5.6776996 -0.9476881
-0.40956977 8.3627567 -0.93323994
-0.76348251 15.589087 -0.87179053
-0.80735201 16.484831 0
-1.0541574 21.5242 1.2037007
-0.22276415 4.4387069 -0.98454332
-0.28428483 5.6645427 -0.94554871
-0.41876662 8.3441706 -0.9312216
-0.78362054 15.6141 -0.8732416
-0.82596588 16.457857 0
-1.0808154 21.535885 1.2044262
-0.22634813 4.4563375 -0.98848408
-0.28692597 5.6489925 -0.94298172
-0.42328286 8.3335838 -0.93006843
-0.79437155 15.639569 -0.87469274
-0.83472025 16.433954 0
-1.0938263 21.535227 1.2044262
-0.23094109 4.4408407 -0.98510784
-0.29361776 5.6460705 -0.94255251
-0.43241164 8.3149834 -0.9280501
-0.81367326 15.646385 -0.87512827
-0.85457689 16.432934 0
-1.1202515 21.541677 1.2048618
-0.2364417 4.4430933 -0.98567021
-0.30112219 5.6585364 -0.94469357
-0.44177127 8.3015423 -0.92660892
-0.83285421 15.650576 -0.87541831
-0.8742941 16.429293 0
-1.1475222 21.56366 1.2061678
-0.2415337 4.4377251 -0.98454332
-0.3079592 5.6581683 -0.94469357
-0.45081818 8.2829313 -0.92459172
-0.85232913 15.659936 -0.87599885
-0.89400375 16.425629 0
-1.174565 21.580412 1.2071835
-0.24675462 4.4348955 -0.98398101
-0.3136549 5.6372871 -0.94126981
-0.45967665 8.2617207 -0.92228538
-0.87240529 15.67965 -0.87715995
-0.91428411 16.432335 0
-1.2000624 21.568598 1.2066028
-0.25182498 4.4295254 -0.98285633
-0.32148576 5.6548371 -0.94426435
-0.46951175 8.2585697 -0.92199624
-0.89076048 15.668208 -0.8765794
-0.93576318 16.459791 0
-0.60729772 10.682183 0.59762943
-0.25747129 4.4342861 -0.98398101
-0.32876483 5.6621351 -0.94554871
-0.47919071 8.2528372 -0.92142022
-0.91029429 15.677496 -0.87715995
-0.95625436 16.469042 0
-0.61960214 10.671065 0.59704888
-0.26117566 4.4060783 -0.97779089
-0.33515033 5.6540437 -0.94426435
-0.48931518 8.2548313 -0.92170823
-0.92969823 15.684169 -0.87759554
-0.97738528 16.488657 0
-0.63141912 10.652149 0.59603274
-0.26803321 4.4311171 -0.98341864
-0.34198189 5.6536345 -0.94426435
-0.49897715 8.2490759 -0.92113221
-0.78392255 12.959785 -0.72520715
-0.9973079 16.487465 0
-0 0 0
-0.27307388 4.4257131 -0.98229182
-0.34881297 5.6532173 -0.94426435
-0.50766987 8.2278137 -0.91882586
-0.79958135 12.958828 -0.72520715
-1.0169088 16.481058 0
-0.65491933 10.614288 0.59400105
-0.27778313 4.4152365 -0.98004025
-0.35548249 5.6502323 -0.94383681
-0.51761121 8.2271948 -0.91882586
-0.81360704 12.931914 -0.72375548
-1.0366583 16.477211 0
-0.66692847 10.600525 0.59327549
-0.28214255 4.3996882 -0.97666407
-0.36280242 5.6574864 -0.94512111
-0.52771717 8.2291422 -0.91911387
-0.82889992 12.92574 -0.7234655
-1.0564007 16.473352 0
-0.68023568 10.607493 0.59371108
-0.28745851 4.399344 -0.97666407
-0.36880139 5.6442385 -0.94298172
-0.53715402 8.2207527 -0.91824871
-0.8433314 12.906576 -0.72244936
-1.0764742 16.474659 0
-0.69373 10.617035 0.59429163
-0.29226765 4.3913851 -0.97497487
-0.37562108 5.6437888 -0.94298172
-0.54657197 8.2123632 -0.91738468
-0.85806322 12.892587 -0.72172379
-1.0968984 16.481138 0
-0.70724767 10.62655 0.59487164
-0.29911962 4.4138422 -0.98004025
-0.38174596 5.6330857 -0.94126981
-0.55527031 8.1936302 -0.91536635
-0.87311351 12.88376 -0.72128826
-1.1183954 16.503168 0
-0.72114176 10.641248 0.59574276
-0.30480272 4.4185524 -0.98116714
-0.3892588 5.6428642 -0.94298172
-0.56463611 8.1852093 -0.91450119
-0.88742918 12.864557 -0.72027272
-1.1395893 16.519981 0
-0.73596627 10.668886 0.59733945
-0.30854028 4.395371 -0.9761017
-0.39661556 5.6500649 -0.94426435
-0.57398307 8.1767883 -0.91363716
-0.90242678 12.855698 -0.71983713
-1.1591848 16.513395 0
-0.75085801 10.696494 0.59893554
-0.31439415 4.4026008 -0.97779089
-0.40216285 5.6316652 -0.94126981
-0.5822041 8.1528625 -0.91104168
-0.91666394 12.836452 -0.71882105
-1.1780254 16.496412 0
-0.76415259 10.700768 0.59922612
-0.31805664 4.3794026 -0.97272331
-0.40933886 5.6362906 -0.94212496
-0.59130615 8.1418438 -0.90988964
-0.93066788 12.814602 -0.71765989
-1.1968265 16.479406 0
-1.5814841 21.775856 1.2195196
-0.32428414 4.3916922 -0.97553933
-0.41766122 5.6562729 -0.94554871
-0.60114354 8.1411238 -0.90988964
-0.94442916 12.790148 -0.71635377
-1.215396 16.459778 0
-1.6074125 21.768751 1.2192296
-0.32882971 4.3811622 -0.97328782
-0.42276642 5.6327276 -0.94169742
-0.60885042 8.1120176 -0.90671813
-0.95735478 12.755315 -0.71446711
-1.2337253 16.437536 0
-1.6339089 21.769381 1.2193745
-0.33051747 4.3682871 -0.97047174
-0.42616937 5.6324711 -0.94169742
-0.61375117 8.1116476 -0.90671813
-0.96408075 12.741781 -0.71374154
-1.2434597 16.434195 0
-1.6480405 21.781343 1.2201002
-0.33482182 4.3552198 -0.96765786
-0.4343524 5.6498713 -0.94469357
-0.62236291 8.0954323 -0.90498894
-0.97728485 12.712106 -0.71214491
-1.2639141 16.440458 0
-1.6749556 21.787109 1.2205358
-0.34067768 4.3624139 -0.96934706
-0.43838036 5.6135073 -0.93870121
-0.63133872 8.0843601 -0.90383577
-0.99143082 12.695377 -0.71127433
-1.2813476 16.407793 0
-1.702494 21.800619 1.2214068
-0.34675211 4.3721309 -0.97159863
-0.44678652 5.6334457 -0.94212496
-0.64028865 8.0732775 -0.9026826
-1.0063595 12.688994 -0.71098435
-1.3028183 16.426989 0
-1.7300669 21.814083 1.2222774
-0.35162643 4.3666387 -0.97047174
-0.45276892 5.6226668 -0.94041306
-0.64983499 8.069912 -0.90239346
-1.0214818 12.685172 -0.71083879
-1.3251721 16.456522 0
-1.7576746 21.827513 1.223148
-0.35648879 4.3611507 -0.96934706
-0.46039903 5.63235 -0.94212496
-0.6583215 8.0536585 -0.90066427
-1.0355388 12.668394 -0.70996821
-1.3469636 16.478251 0
-1.7851068 21.838329 1.2238741
-0.36007759 4.3404589 -0.96484399
-0.46826524 5.6445785 -0.94426435
-0.66805226 8.0528574 -0.90066427
-1.05106 12.669721 -0.71011323
-1.3681648 16.492176 0
-1.8132106 21.856863 1.2250346
-0.36553484 4.3425503 -0.96540636
-0.47293246 5.618433 -0.93998551
-0.67821556 8.0571947 -0.90124029
-0.76800412 9.1238813 -0.51142746
-1.3889645 16.500885 0
-1.8398376 21.857252 1.2251801
-0.37272716 4.3648882 -0.97047174
-0.48103097 5.6331992 -0.94255251
-0.68729109 8.048645 -0.90037626
-0.77725935 9.1022348 -0.51026636
-1.4100085 16.512157 0
-1.8666881 21.860186 1.2254702
-0.37646693 4.3467221 -0.96653318
-0.48717335 5.6249485 -0.94126981
-0.69746172 8.0529575 -0.90095228
-0.78646421 9.0805883 -0.5091058
-1.4288366 16.49748 0
-1.8937734 21.865683 1.2259058
-0.38260803 4.3563886 -0.96878475
-0.49419403 5.6269107 -0.94169742
-0.70583433 8.0366545 -0.89922309
-0.7958442 9.0615101 -0.50808966
-1.4487696 16.495741 0
-1.9233748 21.899612 1.2279373
-0.38674501 4.3432708 -0.96597087
-0.50053686 5.6211905 -0.94084066
-0.71531534 8.0332222 -0.89893508
-0.80517918 9.0424213 -0.50707352
-1.4684697 16.49139 0
-1.9516785 21.917978 1.2290986
-0.39084995 4.3301401 -0.96315479
-0.50802118 5.6282544 -0.94212496
-0.72409129 8.022048 -0.89778191
-0.81517023 9.0310907 -0.50649297
-0.82609582 9.152133 0
-1.979095 21.925957 1.2296791
-0.39677644 4.3372583 -0.96484399
-0.51365238 5.6148567 -0.93998551
-0.7344901 8.0288868 -0.89864594
-0.82513505 9.0197487 -0.50591242
-0.83478332 9.1252165 0
-2.0070066 21.93907 1.2305496
-0.399672 4.31148 -0.95921624
-0.52090991 5.6193395 -0.94084066
-0.74419087 8.0279932 -0.89864594
-0.83459443 9.0032253 -0.5050419
-0.84604877 9.12679 0
-2.0335143 21.936628 1.2305496
-0.40701938 4.3337593 -0.96428168
-0.52745956 5.6161523 -0.94041306
-0.75340736 8.0219431 -0.89806992
-0.84498602 8.9970312 -0.50475132
-0.85342556 9.0868921 0
-2.0607481 21.941919 1.2309852
-0.41177383 4.3282003 -0.96315479
-0.5352177 5.6257329 -0.94212496
-0.76285505 8.0184546 -0.89778191
-0.85511899 8.9882507 -0.50431633
-0.86440468 9.0858536 0
-2.0882435 21.94976 1.2315657
-0.41773465 4.33529 -0.96484399
-0.54103005 5.6148615 -0.94041306
-0.77204657 8.012373 -0.89720476
-0.86473304 8.9742813 -0.50359076
-0.87363595 9.0666771 0
-2.1162598 21.962746 1.2324369
-0.42124513 4.3170772 -0.96090329
-0.54806322 5.616756 -0.94084066
-0.78172737 8.0114336 -0.89720476
-0.875323 8.9706364 -0.50344521
-0.88256872 9.0448933 0
-2.1450667 21.983444 1.233743
-0.42771098 4.3292155 -0.96371931
-0.55333573 5.6007667 -0.93827367
-0.79089898 8.0053406 -0.89662874
-0.88462925 8.9540625 -0.50257462
-0.89349705 9.0438204 0
-2.171628 21.980837 1.233743
-0.43091869 4.3084693 -0.95921624
-0.56112462 5.6103115 -0.93998551
-0.80134279 8.0120926 -0.89749277
-0.89493018 8.9478102 -0.50228411
-0.90416533 9.0401468 0
-2.1997371 21.993706 1.2346135
-0.43612432 4.3079453 -0.95921624
-0.56841981 5.6147323 -0.94084066
-0.81232655 8.0239925 -0.89893508
-0.90417135 8.9312162 -0.50141352
-0.91456312 9.033864 0
-2.229974 22.02722 1.2366452
-0.44055215 4.29983 -0.95752704
-0.57572752 5.619154 -0.94169742
-0.82149363 8.0178537 -0.89835793
-0.91575712 8.9378748 -0.50184906
-0.92547816 9.032752 0
-2.2568536 22.027102 1.2367908
-0.44548553 4.2967691 -0.95696467
-0.5827812 5.6210051 -0.94212496
-0.83198148 8.0245762 -0.89922309
-0.92548424 8.9264231 -0.50126851
-0.93478197 9.0161009 0
-2.2853425 22.042442 1.2378063
-0.45097977 4.3242912 -0.96315479
-0.58457989 5.6053376 -0.93955797
-0.83709747 8.0266418 -0.8995111
-0.93033743 8.9206886 -0.50097799
-0.94022888 9.0155344 0
-2.3002768 22.05657 1.2386774
-0.45540541 4.3161697 -0.96146774
-0.59108335 5.6020765 -0.93913043
-0.8467955 8.0256252 -0.8995111
-0.9402985 8.9118128 -0.50054294
-0.95002943 9.0040388 0
-2.3271985 22.056356 1.2388225
-0.46034989 4.3130827 -0.96090329
-0.5983963 5.6064587 -0.93998551
-0.8578645 8.0374527 -0.90095228
-0.95134151 8.9132519 -0.50068796
-0.95952761 8.9899483 0
-2.3568814 22.081951 1.2404191
-0.46665195 4.322628 -0.96315479
-0.60517013 5.6057315 -0.93998551
-0.86674249 8.0286932 -0.90008712
-0.96183211 8.9095144 -0.50054294
-0.97178584 9.0017166 0
-2.3841186 22.084249 1.2407091
-0.47765487 4.3265438 -0.96428168
-0.61618024 5.5812907 -0.93613422
-0.88869739 8.0497198 -0.9026826
-0.98278922 8.9019938 -0.50025243
-0.99125201 8.9786482 0
-2.4414721 22.114578 1.2427408
-0.48485461 4.3436327 -0.96822023
-0.62349272 5.58564 -0.93698937
-0.89870989 8.0512085 -0.90297061
-0.99440992 8.9085493 -0.50068796
-1.0018117 8.9748602 0
-2.4704976 22.132271 1.2439018
-0.48924875 4.3354764 -0.96653318
-0.62793851 5.5644755 -0.93356562
-0.90959769 8.0603971 -0.90412378
-1.0034245 8.8918438 -0.49981683
-1.0141143 8.9865704 0
-2.4975293 22.131849 1.2440469
-0.49275854 4.3197298 -0.96315479
-0.63437098 5.5611644 -0.93313807
-0.91845673 8.0515804 -0.90325862
-1.0141679 8.890625 -0.49981683
-1.0223178 8.9620695 0
-2.5257428 22.141731 1.244773
-0.5000152 4.336803 -0.96709555
-0.6410901 5.5603938 -0.93313807
-0.92936987 8.0607424 -0.90441179
-1.0246124 8.8868141 -0.49967185
-1.034636 8.973752 0
-2.5518992 22.133495 1.2444825
-0.50290239 4.3160052 -0.96259248
-0.64543146 5.5392165 -0.92971432
-0.94030643 8.06989 -0.90556496
-1.0347488 8.8804131 -0.49938184
-1.0448753 8.9673204 0
-2.4388056 20.930298 1.1769961
-0.51079094 4.3381033 -0.96765786
-0.65272498 5.5435367 -0.93057108
-0.94854462 8.0559072 -0.90412378
-1.0451735 8.8765678 -0.49923629
-1.056319 8.9712257 0
-2.4659176 20.942825 1.1778672
-0.51183045 4.3021641 -0.95977855
-0.65790671 5.5300007 -0.92843163
-0.95766622 8.049613 -0.90354663
-1.0565128 8.8804636 -0.49952686
-1.0671582 8.969943 0
-2.4902999 20.932087 1.1774317
-0.52036417 4.3292952 -0.96597087
-0.6633628 5.5190067 -0.92671978
-0.96677518 8.0433197 -0.90297061
-1.067862 8.8843355 -0.49981683
-1.0776856 8.9660654 0
-2.5112498 20.892948 1.1754
-0.52528769 4.3261337 -0.96540636
-0.66910237 5.5105538 -0.92543548
-0.97524619 8.0318747 -0.90181744
-1.0782833 8.8804617 -0.49967185
-1.0894587 8.9724998 0
-2.5349262 20.876995 1.1746739
-0.53020561 4.3229761 -0.96484399
-0.67732251 5.5224786 -0.92757487
-0.9830606 8.0152817 -0.90008712
-1.0899621 8.8868923 -0.50010741
-1.1006172 8.9737673 0
-2.5563552 20.842978 1.1729327
-0.53667814 4.3324189 -0.96709555
-0.6852572 5.5318465 -0.92928678
-0.99210942 8.0089598 -0.8995111
-1.0997407 8.8778305 -0.49967185
-1.1120987 8.9775915 0
-2.5808985 20.834709 1.1726422
-0.54033589 4.3191633 -0.96428168
-0.68779856 5.4979033 -0.92372358
-1.0008224 8.0000534 -0.89864594
-1.1107893 8.8790703 -0.49981683
-1.1232682 8.9788208 0
-2.5996203 20.78001 1.1697394
-0.54491681 4.3134608 -0.96315479
-0.69701511 5.5174427 -0.92714733
-1.0104883 7.9988379 -0.89864594
-1.1211917 8.8751469 -0.49967185
-1.1341166 8.977457 0
-2.6198428 20.738192 1.1675627
-0.54884237 4.3027172 -0.96090329
-0.7040059 5.5191407 -0.92757487
-1.0162252 7.9668226 -0.89518642
-1.13323 8.8840952 -0.50025243
-1.1433171 8.9631748 0
-2.6425972 20.716965 1.1665466
-0.55533916 4.3121314 -0.96315479
-0.71034658 5.5157423 -0.92714733
-1.0265123 7.9707246 -0.89576358
-1.1436323 8.8801451 -0.50010741
-1.157138 8.9850149 0
-2.6659684 20.700874 1.1658211
-0.56054914 4.3114572 -0.96315479
-0.71767205 5.5199666 -0.92800242
-1.0348086 7.959219 -0.8946104
-1.1553667 8.8864899 -0.50054294
-1.1686655 8.9887772 0
-2.6859539 20.658983 1.1636438
-0.56741244 4.3233805 -0.96597087
-0.72133523 5.4961905 -0.92415112
-1.0424063 7.9425807 -0.89288121
-1.1661035 8.885087 -0.50054294
-1.1812187 9.0002575 0
-2.7065189 20.622232 1.1617571
-0.56736702 4.3028841 -0.96146774
-0.72432041 5.4932113 -0.92372358
-1.0468656 7.9393778 -0.89259207
-1.1718105 8.8869543 -0.50068796
-1.1856351 8.9917994 0
-2.7135437 20.579386 1.1594355
-0.57725799 4.3374524 -0.96934706
-0.73265028 5.5050526 -0.92586303
-1.0557762 7.9329844 -0.89201605
-1.1842614 8.8984089 -0.50141352
-1.1985598 9.0058441 0
-2.7342944 20.545183 1.1576937
-0.57945466 4.3140893 -0.96428168
-0.73725182 5.488903 -0.92329603
-1.0653609 7.9317026 -0.89201605
-1.1950126 8.8969707 -0.50141352
-1.2073613 8.9889078 0
-2.7539282 20.503231 1.1555165
-0.58739728 4.333529 -0.96878475
-0.74353909 5.4854665 -0.92286849
-1.0739014 7.922718 -0.89115089
-1.205762 8.8955202 -0.50141352
-1.220669 9.0054979 0
-2.7692778 20.430374 1.1515982
-0.59159976 4.3252611 -0.96709555
-0.74981779 5.4820137 -0.92243928
-1.0824218 7.9137244 -0.89028573
-1.2168614 8.8966293 -0.50155854
-1.2322543 9.0091677 0
-2.7781162 20.311163 1.1450671
-0.59439361 4.3069215 -0.96315479
-0.75363356 5.4607596 -0.91901553
-1.0909234 7.9047313 -0.8894217
-1.2304523 8.9157448 -0.50271964
-1.2470533 9.0360336 0
-2.7845399 20.176523 1.1376654
-0.60450369 4.3414378 -0.97103626
-0.76270974 5.4776454 -0.92201173
-1.1015431 7.9110856 -0.89028573
-1.2415823 8.9168224 -0.50286466
-1.2594062 9.0448303 0
-2.8006763 20.113956 1.1343277
-0.60904145 4.3356671 -0.96990943
-0.76718599 5.461472 -0.91944474
-1.1085837 7.8918266 -0.88826853
-1.2534404 8.9230375 -0.50330019
-1.2732304 9.06392 0
-2.8202794 20.07711 1.1324409
-0.61499351 4.3399644 -0.97103626
-0.77486402 5.4681587 -0.92072743
-1.1217468 7.9160857 -0.89115089
-1.2645855 8.9240875 -0.50344521
-1.2892927 9.0984449 0
-2.8408902 20.047955 1.1309892
-0.62167519 4.3492794 -0.97328782
-0.78110772 5.4646797 -0.92029983
-1.1294814 7.9019246 -0.88970971
-1.2761036 8.927702 -0.50373578
-1.3035994 9.1200647 0
-2.8607001 20.013639 1.1292475
-0.62475383 4.3334308 -0.96990943
-0.78771019 5.4637318 -0.92029983
-1.1393973 7.9031115 -0.88999772
-1.2880013 8.9338617 -0.50417078
-1.361037 9.4404535 0
-2.8819141 19.989594 1.1280864
-0.63291442 4.3527884 -0.9744125
-0.79800451 5.4881749 -0.92457873
-1.1482022 7.896615 -0.8894217
-1.3036569 8.9657345 -0.50605798
-1.3739409 9.4491043 0
-2.8989627 19.937248 1.1253293
-0.63743687 4.3469973 -0.97328782
-0.80351907 5.4795942 -0.92329603
-1.1577429 7.8952217 -0.8894217
-1.3152426 8.9692898 -0.50634801
-1.3876221 9.462882 0
-2.9185269 19.90288 1.1235876
-0.6423161 4.3437033 -0.97272331
-0.80863744 5.4684615 -0.92158419
-1.1687953 7.9040518 -0.89057487
-1.3275996 8.9779758 -0.50692856
-1.3994355 9.4637699 0
-2.936873 19.860788 1.1214108
-0.53317469 3.5757649 -0.99744964
-0.64456636 4.3228188 -0.96822023
-0.81751519 5.4827094 -0.92415112
-1.1802518 7.915422 -0.89201605
-1.3411297 8.9943581 -0.50794464
-1.4097192 9.4543581 0
-2.9570358 19.83152 1.1199592
-0.65319014 4.3446579 -0.97328782
-0.82223147 5.4690275 -0.92201173
-1.1898152 7.9139905 -0.89201605
-1.3574044 9.0286999 -0.50997633
-1.421142 9.4526472 0
-2.9744291 19.784252 1.117492
-0.65920019 4.3488851 -0.9744125
-0.82768458 5.460413 -0.92072743
-1.2001513 7.9176564 -0.89259207
-1.3881723 9.1580706 -0.51737803
-1.4313921 9.4432011 0
-2.9893768 19.721561 1.1141542
-0.6633026 4.340548 -0.97272331
-0.83971161 5.4949408 -0.92671978
-1.2112803 7.9264278 -0.89374524
-1.426713 9.3361855 -0.52753752
-1.4431942 9.4440355 0
-3.0084939 19.687111 1.1124125
-0.54968619 3.5681822 -0.99606401
