# .PCD v0.7 - Point Cloud Data file format
VERSION 0.7
FIELDS x y z
SIZE 4 4 4
TYPE F F F
COUNT 1 1 1
WIDTH 1596
HEIGHT 1
VIEWPOINT 0 0 0 1 0 0 0
POINTS 1596
DATA ascii
1.9570879 8.7555075 -0.999982
2.0622616 9.2260284 -0.5280478
4.3204885 19.328754 0
1.6110594 7.2074656 0.41251624
1.9465071 8.7578659 -0.999982
2.0528042 9.2361259 -0.52848333
4.2993889 19.344122 0
1.5984046 7.1916585 0.41150066
1.9348062 8.7551556 -0.99940485
2.0433252 9.246213 -0.52891892
4.2760119 19.349302 0
1.5891536 7.1910496 0.41135567
2.030478 9.2410593 -0.52848333
4.2515111 19.349367 0
1.5782329 7.1828132 0.4107751
1.9130913 8.7572813 -0.99911684
2.0193105 9.2435064 -0.52848333
4.2331285 19.37738 0
1.5673345 7.1745605 0.41019455
1.9036053 8.764637 -0.99969286
2.0081401 9.2459393 -0.52848333
3.9412768 18.146545 0
1.5581112 7.1739025 0.41004899
1.8935611 8.7694664 -0.999982
1.9964188 9.245821 -0.52833837
3.9231908 18.169094 0
1.5488939 7.1732426 0.409904
1.8818767 8.7666855 -0.99940485
1.9863353 9.2533035 -0.52862835
3.9001429 18.168737 0
1.5353175 7.152246 0.40859789
1.8723632 8.7740164 -0.999982
1.9762387 9.2607841 -0.52891892
3.8798165 18.181074 0
0 0 0
1.9634292 9.255537 -0.52848333
3.8578455 18.185749 0
1.5142537 7.1381397 0.40758175
1.8511543 8.7785158 -0.999982
1.9533176 9.2629929 -0.5287739
3.8353302 18.187843 0
1.5061653 7.1425142 0.40772733
1.8394836 8.7756786 -0.99940485
1.9426562 9.2678871 -0.52891892
3.8154867 18.202654 0
1.494867 7.1316056 0.4070012
1.8283515 8.7753649 -0.99911684
1.9314563 9.2702274 -0.52891892
3.7934895 18.207251 0
1.4857192 7.1308651 0.40685621
1.8246281 8.7840681 -0.999982
1.9253274 9.2688513 -0.5287739
3.7824888 18.209539 0
1.4798249 7.1241264 0.40642065
1.8028737 8.7859106 -0.99969286
1.9034444 9.2760191 -0.52891892
3.7421348 18.236475 0
1.4620825 7.1251388 0.40627563
1.7922564 8.7880821 -0.99969286
1.8927536 9.2808561 -0.52906394
3.7195773 18.238436 0
1.4555491 7.1370845 0.40685621
1.7811232 8.7877092 -0.99940485
1.8825713 9.2882347 -0.52935445
3.7006381 18.258215 0
1.4474399 7.1413822 0.4070012
1.771526 8.7949305 -0.999982
1.8698072 9.2828588 -0.52891892
3.6796026 18.26778 0
1.4418894 7.1584148 0.40787232
1.7608978 8.7970648 -0.999982
1.8590989 9.2876568 -0.52906394
3.6585474 18.277313 0
1.4342579 7.1652427 0.40816233
1.8483816 9.2924423 -0.5292089
3.6364603 18.281719 0
1.4286417 7.1822662 0.40903345
1.7396336 8.8012943 -0.999982
1.8376575 9.297225 -0.52935445
3.6153779 18.291212 0
1.4224809 7.1967306 0.40975899
1.7289977 8.8033905 -0.999982
1.8259201 9.2968817 -0.5292089
3.594276 18.300669 0
1.41729 7.2162948 0.4107751
1.7178624 8.802927 -0.99969286
1.8146852 9.2990808 -0.5292089
3.5731566 18.310102 0
1.4090667 7.2205501 0.41092011
1.8049321 9.3089228 -0.52964449
3.554003 18.329741 0
1.4008352 7.2247958 0.4110651
1.6965842 8.8070526 -0.99969286
1.7931917 9.308547 -0.52949947
3.5303752 18.326353 0
1.3916134 7.2239342 0.41092011
1.6864289 8.8116436 -0.999982
1.7834086 9.3183661 -0.52993506
3.5082288 18.330605 0
3.5123839 18.352316 1.0436953
1.7706914 9.3128538 -0.52949947
3.4889948 18.350176 0
3.4863231 18.336124 1.0425342
1.6646483 8.8131447 -0.99969286
1.7594373 9.3149862 -0.52949947
3.4658527 18.349258 0
3.4704342 18.373514 1.0444208
1.6539981 8.8151493 -0.99969286
1.747702 9.3145542 -0.52935445
3.4446394 18.358555 0
3.4467928 18.370029 1.0439854
1.6433455 8.8171415 -0.99969286
2.2129982 11.873534 -0.67463112
3.4234071 18.367815 0
3.4198337 18.348642 1.0425342
1.6322201 8.8165798 -0.99940485
2.2024338 11.89664 -0.67579228
3.401684 18.374495 0
3.3905666 18.314442 1.0403575
1.6210985 8.8160048 -0.99911684
2.187588 11.896739 -0.67564726
3.6157391 19.663441 0
3.585999 19.501703 1.1075534
1.6090504 8.8103218 -0.99825168
2.1704113 11.884042 -0.67477667
3.5901067 19.657555 0
3.5628986 19.508577 1.1076983
1.6007113 8.8249817 -0.99969286
2.1555851 11.884091 -0.67463112
3.5668159 19.664436 0
3.5411787 19.523094 1.1082789
1.5958408 8.8284998 -0.999982
2.1507173 11.898184 -0.67535728
3.5563242 19.674273 0
3.5303085 19.53035 1.1085695
1.5828857 8.8176851 -0.99853969
1.4082177 7.8446727 -0.4451775
3.5330086 19.681114 0
3.5071659 19.537155 1.1087145
1.5740459 8.8297768 -0.99969286
1.3978268 7.8412571 -0.44488749
3.5096831 19.687939 0
3.4853806 19.551611 1.109295
1.5620244 8.8240385 -0.99882883
1.3897103 7.8506188 -0.44532305
3.486798 19.697285 0
3.4626589 19.560921 1.109585
1.3879324 7.8961496 -0.89360678
1.3820227 7.8625293 -0.4459036
3.4629951 19.701485 0
3.439472 19.567657 1.1097306
1.381948 7.9182048 -0.89591312
1.3702863 7.851387 -0.4451775
3.4405301 19.713348 0
3.4162722 19.574356 1.1098756
1.3728205 7.9224148 -0.89620113
1.3612435 7.8556046 -0.44532305
3.4162621 19.714918 0
3.3930609 19.581028 1.1100205
1.3593005 7.9011288 -0.89360678
1.3513087 7.8546758 -0.4451775
3.3950863 19.734426 0
3.3693986 19.585114 1.1100205
1.3528011 7.9206152 -0.89562511
1.3448795 7.8742347 -0.44619361
3.3716764 19.741077 0
3.3470442 19.596857 1.1104561
1.3419321 7.9145913 -0.89475995
1.3327587 7.8604875 -0.44532305
3.3465152 19.737436 0
3.3255343 19.613693 1.1111817
1.3280758 7.8907056 -0.89187759
1.3254158 7.8749018 -0.44604859
2.6069639 15.489164 0
3.3014016 19.615137 1.1110367
1.3253597 7.9331226 -0.89649028
1.3163273 7.8790579 -0.44619361
2.5861008 15.479461 0
2.5875087 15.487888 0.87708414
1.1228379 6.7712297 -0.76503557
1.3080817 7.8883357 -0.44662917
2.5631385 15.456905 0
2.5687926 15.491003 0.87708414
1.1264149 6.8440318 -0.77310663
1.2989708 7.8924718 -0.44677415
2.5360069 15.408632 0
2.5399454 15.432561 0.87360078
1.1177279 6.8428378 -0.77281862
1.290272 7.8991694 -0.44706473
1.2777117 7.8222747 0
2.5112429 15.374072 0.87011743
1.1140118 6.8722706 -0.77599013
1.2765677 7.8750682 -0.44561306
1.2640955 7.7981277 0
2.4872596 15.343753 0.86823076
1.1024209 6.8531823 -0.77368379
1.2654005 7.866343 -0.44503248
1.2530187 7.789372 0
2.466655 15.333922 0.86750519
1.0929159 6.8468447 -0.77281862
1.1047651 6.9210768 -0.39147896
1.2440158 7.7934475 0
2.4473052 15.331755 0.86721462
1.0830235 6.8379416 -0.77166545
1.1106274 7.0122252 -0.3965584
1.2288991 7.7589636 0
2.4304039 15.344966 0.86779517
1.0723521 6.8239193 -0.76993626
1.097313 6.9827585 -0.39481673
1.2154837 7.7347383 0
2.4102471 15.337624 0.86721462
1.0641059 6.8252101 -0.76993626
1.0828718 6.9455752 -0.39264005
1.2053343 7.7310534 0
2.3937154 15.35337 0.86794072
1.0515089 6.7983713 -0.76676476
1.0689189 6.910933 -0.3906084
1.1955944 7.7299347 0
2.374367 15.35111 0.86765021
1.0505519 6.8194561 -0.7690711
1.0595992 6.8781838 -0.38872117
1.194886 7.7563725 0
2.3666747 15.362814 0.86823076
1.0415305 6.8156118 -0.76849508
1.0465785 6.8486457 -0.38698003
1.1906234 7.7912521 0
2.3500724 15.378503 0.86895633
1.0360067 6.8347588 -0.77051228
1.0371339 6.8421955 -0.3865445
1.1695082 7.715497 0
2.3314886 15.381331 0.86895633
1.0392829 6.9127331 -0.7791605
1.0257752 6.8228869 -0.38538337
1.16328 7.737493 0
2.3125157 15.381571 0.86881131
1.0446615 7.0060787 -0.78953904
1.0179131 6.8266892 -0.38552836
1.147789 7.6977081 0
2.2950783 15.392066 0.86924684
1.0483013 7.0892034 -0.79876328
1.0043429 6.7919321 -0.3834967
1.1434357 7.7325554 0
2.2776177 15.402532 0.86968184
1.0423619 7.1083813 -0.80078161
0.99726683 6.8008561 -0.38393226
1.1272957 7.6875873 0
2.2586284 15.402704 0.86953688
1.0352607 7.1198735 -0.80193478
0.9834398 6.7634826 -0.38175502
1.1176318 7.6863708 0
2.2403891 15.407991 0.86968184
1.026657 7.1211195 -0.80193478
0.97749221 6.7801018 -0.38262615
1.1072291 7.6799855 0
2.2236249 15.423553 0.870408
1.01915 7.1300383 -0.80279994
0.9689303 6.7786984 -0.38248059
1.1005266 7.6993546 0
2.2064576 15.436519 0.87098855
1.0079935 7.1133361 -0.80078161
0.95709383 6.7541413 -0.38102946
1.0908579 7.6981044 0
2.1856158 15.423732 0.87011743
0.99687868 7.0966167 -0.79876328
0.95218492 6.7784491 -0.38233557
1.0797442 7.6865234 0
1.3183104 9.3848372 0.52934778
0.98651993 7.0850101 -0.79732209
0.94184434 6.7641582 -0.38146502
1.0700972 7.6852474 0
1.3051783 9.3735571 0.52862221
0.97477621 7.0631394 -0.79472774
0.93615615 6.7833023 -0.38248059
1.0565407 7.6555977 0
1.2913642 9.3571072 0.52760613
0.96378851 7.046381 -0.79271054
0.9261989 6.7715583 -0.38175502
1.0508171 7.6826587 0
1.2786485 9.3483629 0.52702558
0.95353562 7.034718 -0.79126823
0.92115694 6.7958441 -0.38306114
1.0422319 7.6890759 0
1.2659558 9.3396015 0.52644497
0.9371165 6.9769125 -0.78463835
0 0 -0
1.0336339 7.6954932 0
1.251557 9.3179483 0.52513885
0.92493188 6.9498348 -0.78146684
0 0 -0
1.0229614 7.6864176 0
1.2378972 9.3014212 0.52412277
0.91044819 6.9047952 -0.77627814
0.89176166 6.7630777 -0.38102946
1.0140129 7.6902256 0
1.2252986 9.2926054 0.52354223
0.89607465 6.8597307 -0.77108943
0.88325292 6.7615762 -0.38088447
1.0053936 7.6966014 0
1.2137332 9.2915049 0.52339721
0.88380229 6.8300271 -0.76762992
0.87174702 6.7368636 -0.3794328
0.99408984 7.6823297 0
1.2021722 9.290391 0.52325219
0.85556823 6.7397709 -0.75725138
0.85644609 6.7466865 -0.37986836
0.97552174 7.6847095 0
1.1757907 9.2623358 0.52151054
0.83871406 6.6715174 -0.74946833
0.84861726 6.7502923 -0.38001335
0.96428847 7.6703944 0
1.1649219 9.266325 0.52165556
0.8308304 6.6412253 -0.74600881
0.84453887 6.7508035 -0.38001335
0.96385372 7.7045441 0
1.1586789 9.2618752 0.52136552
0.8243947 6.655056 -0.74744999
0.83606207 6.7492428 -0.37986836
0.95486319 7.7082834 0
1.1474869 9.2632685 0.52136552
0.81509334 6.6457787 -0.74629682
0.82853836 6.7554016 -0.38015833
0.94269747 7.6861858 0
1.1350279 9.2543316 0.52078497
0.80425704 6.6236525 -0.74370247
0.81880945 6.7435026 -0.3794328
0.93372291 7.6899004 0
1.1238451 9.2556963 0.52078497
0.79995698 6.6554351 -0.74716198
0.80942029 6.7341676 -0.37885222
0.92691511 7.7116938 0
1.1129704 9.2596254 0.52092999
0.79405385 6.6743779 -0.74918032
0.80343187 6.7532048 -0.37986836
0.91482955 7.6895523 0
1.1005532 9.2506428 0.52034944
0.78356892 6.6547828 -0.74687397
0.7952714 6.7541709 -0.37986836
0.9085803 7.7164936 0
1.0896783 9.2545433 0.5204944
0.77642566 6.6634345 -0.74773914
0.78741014 6.7577052 -0.38001335
0.89865392 7.7124209 0
1.0793977 9.2635984 0.52092999
0.68681449 5.9569769 -0.99969208
0.76926154 6.6720686 -0.74860317
0.7780537 6.7483263 -0.3794328
0.88665187 7.6902351 0
1.0682037 9.2648964 0.52092999
0.67932546 5.9552546 -0.99926454
0.76706195 6.7243896 -0.75436902
0.77254933 6.7724943 -0.38073891
1.0681874 9.3641815 0
0 0 0
0.67126536 5.9484158 -0.99798024
0.77140707 6.8358216 -0.76676476
0.76290894 6.7605152 -0.38001335
1.0559959 9.3577051 0
1.0434799 9.2467947 0.51976883
0.66293824 5.9390178 -0.99626833
0.77003312 6.8984413 -0.77368379
0.75445163 6.758852 -0.37986836
1.0441103 9.353796 0
1.0323062 9.2480488 0.51976883
0.65660697 5.9474716 -0.99755269
0.76623839 6.9405003 -0.77829647
0.74828058 6.7778406 -0.38088447
1.0328072 9.355051 0
1.0194207 9.2337971 0.51889831
0.64746958 5.9303946 -0.99455649
0.76009732 6.9619908 -0.78060281
0.74178189 6.7942333 -0.38175502
1.023198 9.3718204 0
1.0096725 9.2479353 0.51962388
0.63975286 5.9260731 -0.9937014
0.75334972 6.9783282 -0.782332
0.7316193 6.7770381 -0.38073891
1.011314 9.3678694 0
0.99821883 9.2465677 0.51947886
0.63313627 5.931942 -0.99455649
0.74574101 6.9869518 -0.78319716
0.7201218 6.746922 -0.37899777
1.0016519 9.3846169 0
0.98704547 9.2477674 0.51947886
0.62462163 5.9199409 -0.99241704
0.7381115 6.9955568 -0.78406119
0.71905738 6.8149691 -0.38277113
0.9900378 9.3832245 0
0.9755972 9.2463617 0.5193333
0.61693609 5.9155898 -0.99156195
0.7291221 6.9913034 -0.78348517
0.70839679 6.7925754 -0.38146502
0.97869927 9.3844137 0
0.96577251 9.2604628 0.52005941
0.60926092 5.9112186 -0.99070519
0.72359121 7.020483 -0.78665668
0.70471746 6.8373647 -0.38393226
0.96789348 9.3907719 0
0.95431513 9.2590313 0.51991385
0.60185802 5.909399 -0.99027765
0.87365264 8.5780401 -0.96106446
0.69540215 6.8278708 -0.38335168
0.95628244 9.389348 0
0.94365376 9.2653522 0.52020442
0.59574533 5.9203386 -0.99198949
0.86328709 8.5790892 -0.96106446
0.68923277 6.8493896 -0.38451281
0.94519687 9.3930836 0
0.93323845 9.2742443 0.52063996
0.58884501 5.9236064 -0.99241704
0.85189694 8.5698309 -0.95991129
0.68840897 6.92519 -0.38872117
0.93436086 9.3993931 0
0.92177391 9.2727728 0.5204944
0.5799309 5.9064274 -0.98942089
0.8425523 8.5811501 -0.96106446
0.67775577 6.9027452 -0.38741505
0.92071432 9.3772078 0
0.91031522 9.2712955 0.52034944
0.57536519 5.8965573 -0.98770899
0.83761877 8.5842295 -0.96135247
0.67484683 6.9160819 -0.38814059
0.91555488 9.3829479 0
0.90521896 9.2770214 0.52063996
0.56823993 5.8972483 -0.98770899
0.82600564 8.5723648 -0.95991129
0.6664896 6.9168921 -0.38814059
0.73848265 7.6640434 0
0.89450681 9.2832766 0.52092999
0.56062806 5.8928242 -0.9868539
0.81564701 8.5733566 -0.95991129
0.65911579 6.9280396 -0.38872117
0.7252779 7.623477 0
0.8832891 9.2843504 0.52092999
0.55326754 5.890944 -0.98642635
0.80504465 8.5717535 -0.95962214
0.6485576 6.90555 -0.38741505
0.7133888 7.5958433 0
0.87304205 9.2957592 0.52151054
0.54591233 5.8890543 -0.98599881
0.79492623 8.5753031 -0.95991129
0.87429148 9.4314594 -0.52906394
0.70877463 7.6459389 0
0.86228853 9.3019772 0.52180052
0.54019892 5.9050431 -0.98856574
0.78385693 8.5685272 -0.95904613
0.86123747 9.4143925 -0.5280478
0.69289696 7.5742226 0
0.85057527 9.297842 0.52151054
0.53214031 5.8954649 -0.9868539
0.77373528 8.5720415 -0.95933414
0.8482269 9.3973188 -0.52703226
0.85265321 9.4463568 0
0.84004104 9.3066292 0.52194607
0.52365077 5.8807669 -0.9842869
0.76268864 8.565239 -0.95846897
0.83779335 9.4086895 -0.52761281
0.84169972 9.4525595 0
0.82902545 9.3102226 0.52209109
0.51654464 5.8813953 -0.9842869
0.75188649 8.5610065 -0.95789295
0 0 -0
0.83209908 9.4743099 0
0.81845748 9.3189859 0.52252662
0.50943774 5.8820152 -0.9842869
0.74109572 8.5567598 -0.95731694
0 0 -0
0.8197524 9.4649372 0
0.80719674 9.3199682 0.52252662
0.50101918 5.8672748 -0.9817183
0.72987574 8.5473404 -0.95616376
0 0 -0
0.80698717 9.450367 0
0.79571307 9.3183403 0.52238107
0.49565193 5.88834 -0.98514205
0.71824533 8.5327473 -0.95443344
0 0 -0
0.79382128 9.4305887 0
0.7855435 9.3322487 0.52310723
0.48683882 5.8684688 -0.9817183
0.70536858 8.502677 -0.95097393
0 0 -0
0.78221071 9.4289503 0
0.77405125 9.3305941 0.52296162
0.47849312 5.8537064 -0.97915131
0.69256639 8.472599 -0.94751555
0.76828992 9.3989725 -0.52674168
0.77102894 9.4324799 0
0.7636233 9.3418818 0.52354223
0.47203729 5.861949 -0.980434
0.68025196 8.4476433 -0.94463205
0.75755847 9.4076662 -0.52717721
0.75816864 9.4152431 0
0.75212651 9.34021 0.52339721
0.46353382 5.8446093 -0.97743946
0.6690219 8.4355698 -0.94319087
0.74598533 9.4059868 -0.52703226
0.74720347 9.4213467 0
0.74104536 9.3436995 0.52354223
0.45727086 5.8554025 -0.97915131
0.65963417 8.4466858 -0.94434404
0.73441738 9.4042931 -0.52688724
0.73480618 9.4092712 0
0.73036194 9.3523626 0.52397776
0.4501954 5.8559504 -0.97915131
0.64982367 8.45263 -0.94492006
0.72265488 9.3999872 -0.52659667
0 0 0
0.71965861 9.3610134 0.52441335
0.44311932 5.8564901 -0.97915131
0.64175659 8.481781 -0.94809157
0.71031624 9.3879013 -0.52587116
0.71088701 9.3954449 0
0.70815128 9.3592873 0.52426833
0.43528023 5.8467813 -0.97743946
0.63246751 8.4954453 -0.94953275
0.69897228 9.388752 -0.52587116
0 0 0
0.69742006 9.3679028 0.52470332
0.4270899 5.8319368 -0.9748708
0.62446886 8.5271578 -0.95299226
0.6872474 9.3844023 -0.52558059
0 0 0
0.6857211 9.3635607 0.52441335
0.42059621 5.8401322 -0.9761551
0.61527938 8.5433798 -0.95472145
0.67628133 9.3904142 -0.52587116
0.67719901 9.4031563 0
0.67477947 9.3695602 0.52470332
0.41725048 5.8429437 -0.97658271
0.61048663 8.5489149 -0.9552986
0.66986763 9.3804531 -0.52529055
0.6717031 9.4061565 0
0.66856402 9.3621988 0.52426833
0.41037038 5.8460116 -0.97701186
0.60124284 8.5651226 -0.95702779
0.65798664 9.373477 -0.52485502
0.66124815 9.41994 0
0.65852427 9.3811369 0.52528387
0.40330634 5.8465033 -0.97701186
0.59000325 8.5529432 -0.95558661
0.6468395 9.3768654 -0.52500057
0.64950764 9.4155445 0
0.64665192 9.3741465 0.52484834
0.39554739 5.8367414 -0.97530001
0.5805425 8.5665503 -0.95702779
0.63515717 9.3724499 -0.52471
0.63848191 9.4215107 0
0.6365546 9.3930702 0.52586442
0.38917646 5.8474607 -0.97701186
0.57087815 8.5775681 -0.95818096
0.62314171 9.3628397 -0.52412945
0.62692475 9.4196806 0
0.62485969 9.3886528 0.52557445
0.38127327 5.8351111 -0.9748708
0.56017643 8.5730953 -0.95760494
0.6121673 9.3687763 -0.52442002
0.61622119 9.4308195 0
0.6145311 9.404953 0.52644497
0.37373003 5.8278899 -0.97358817
0.54965174 8.571187 -0.95731694
0.60151166 9.3798819 -0.52500057
0.60432565 9.4237633 0
0.60250139 9.3953161 0.52586442
0.36717099 5.8360157 -0.9748708
0.53994375 8.58216 -0.95846897
0.58870858 9.357255 -0.52369392
0.59277517 9.4218912 0
0.59147519 9.4012289 0.52615499
0.35980314 5.8313355 -0.97401571
0.52989239 8.5879745 -0.95904613
0.5788424 9.3813086 -0.52500057
0.58283252 9.4459763 0
0.58043498 9.4071188 0.52644497
0.35306656 5.8368859 -0.9748708
0.51998377 8.5963564 -0.95991129
0.5664081 9.363842 -0.52398443
0.57063293 9.4336872 0
0.56938195 9.4130058 0.52673554
0.34555829 5.829628 -0.97358817
0.51020855 8.6073065 -0.96106446
0.55555475 9.372304 -0.52442002
0.56015748 9.4499521 0
0.55846858 9.4214611 0.52717054
0.33776963 5.8172202 -0.97144705
0.50115716 8.6311531 -0.96365881
0.47961593 8.2601604 -0.46215811
0.54964405 9.4662161 0
0.54723465 9.4247208 0.52731556
0.33132324 5.8278756 -0.97315896
0.49337 8.6782293 -0.96884751
0.47199458 8.3022423 -0.46448034
0.53835315 9.4694691 0
0.53599423 9.4279766 0.52746111
0.32342577 5.8128982 -0.97059196
0.48532626 8.7227192 -0.97374821
0.4618184 8.3002148 -0.46433532
0.52691078 9.4701128 0
0.52474618 9.4312096 0.52760613
0.31682044 5.8209767 -0.97187626
0.47675386 8.7594509 -0.97778374
0.45080021 8.2826014 -0.46331921
0.51575017 9.475935 0
0.51363218 9.4370213 0.52789611
0.31005928 5.8264775 -0.97273141
0.46754417 8.7858543 -0.98066723
0.44120634 8.2909269 -0.46375477
0.5043 9.4765511 0
0.50264341 9.4454212 0.5283317
0.29584795 5.8246484 -0.97230381
0.44657299 8.79212 -0.98124325
0.42011467 8.2712078 -0.46259367
0.48232168 9.4959383 0
0.47981608 9.4466085 0.5283317
0.28893679 5.8275633 -0.97273141
0.43594912 8.7926531 -0.98124325
0.41050637 8.2794981 -0.46302924
0.47110534 9.5017185 0
0.46930221 9.4653511 0.52934778
0.2822673 5.8356028 -0.97401571
0.42544943 8.7957544 -0.98153126
0.39974841 8.264411 -0.46215811
0.46012697 9.5126781 0
0.45799026 9.468504 0.5294928
0.27509511 5.8333778 -0.97358817
0.41506508 8.8014336 -0.98210841
0.38584575 8.1818399 -0.4575142
0.44777414 9.4950275 0
0.44667137 9.4716434 0.52963775
0.26804641 5.8337059 -0.97358817
0.40490484 8.8122644 -0.98326159
0.37083071 8.0706816 -0.45127305
0.43725654 9.5163593 0
0.43510726 9.4695826 0.5294928
0.26440531 5.831295 -0.97315896
0.39911219 8.8021717 -0.98210841
0.36042321 7.9489098 -0.44445193
0.43150714 9.5166225 0
0.43021011 9.4880171 0.53050888
0.25792536 5.8444405 -0.97530001
0.38813397 8.7948933 -0.98124325
0.34818363 7.8896408 -0.44111413
0.42035174 9.524929 0
0.41851604 9.4833336 0.53021836
0.25042298 5.8344889 -0.97358817
0.37717393 8.7876005 -0.98037809
0.33764756 7.866694 -0.43980801
0.40861943 9.5202351 0
0.40750268 9.494216 0.53079891
0.24358672 5.8399119 -0.97444326
0.36580133 8.769968 -0.97836089
0.32716745 7.8437328 -0.43850189
0.3965736 9.5077229 0
0.39646363 9.5050859 0.53137946
0.2367381 5.8453369 -0.97530001
0.35478562 8.760066 -0.97720772
0.31726897 7.8337369 -0.43792135
0.3857168 9.5237923 0
0.38476819 9.500371 0.53108948
0.22967498 5.8456187 -0.97530001
0.34399724 8.7553148 -0.97663057
0.30831319 7.8470945 -0.43864691
0.37502626 9.5450554 0
0.37369663 9.5112143 0.53167003
0.22280671 5.8510175 -0.9761551
0.33341792 8.755724 -0.97663057
0.29754597 7.8137083 -0.43676022
0.36349264 9.5455017 0
0.36240149 9.5168476 0.53196001
0.21602057 5.8589807 -0.97743946
0.3228381 8.7561207 -0.97663057
0.2873385 7.7932887 -0.43559912
0.35147914 9.5329323 0
0.35118929 9.5250711 0.5323956
0.20939831 5.8720622 -0.97957885
0.31281102 8.7720184 -0.97836089
0.27708828 7.7702618 -0.434293
0.34005287 9.5359488 0
0.33995739 9.5332708 0.5328306
0.20283306 5.8876996 -0.98214585
0.30238944 8.7775545 -0.97893691
0.26680443 7.7446165 -0.43284133
0.32861981 9.5389509 0
0.32852775 9.5362797 0.53297615
0.19614545 5.9007759 -0.9842869
0.29204115 8.7856712 -0.97980207
0.25658327 7.7189684 -0.4313902
0.27576742 8.2960978 0
0.31752259 9.5522461 0.53384668
0.19032998 5.9420509 -0.99113274
0.28142518 8.7860174 -0.97980207
0.24609175 7.6829181 -0.42935854
0.2654933 8.2886295 0
0.30598032 9.5526228 0.53384668
0.18354569 5.9551129 -0.99327379
0.27112749 8.7966919 -0.98095524
0.23576769 7.6494484 -0.42747188
0.25587872 8.3019476 0
0.29435766 9.5503912 0.53370172
0.17703374 5.9784217 -0.99712509
0.21785772 7.3570457 -0.82038438
0.22567855 7.6211548 -0.42587519
0.24646351 8.3230619 0
0.28343296 9.5715179 0.53486282
0.1701742 5.9914589 -0.99926454
0.20911501 7.3624792 -0.82096153
0.21676481 7.6318116 -0.42645574
0.23544605 8.2895374 0
0.27171975 9.5666542 0.53457224
0.200289 7.3653097 -0.82124954
0.20704858 7.613883 -0.42543963
0.22550027 8.2924147 0
0.26051322 9.5799599 0.53529781
0.19118768 7.3577871 -0.82038438
0.19683629 7.5751715 -0.42326295
0.21554787 8.2952805 0
0.24887009 9.577673 0.53515279
0.18210509 7.3502631 -0.81952035
0.18922736 7.6377373 -0.42674574
0.20488004 8.2695227 0
0.23736146 9.5805616 0.53529781
0 0 -0
0.17871298 7.5834107 -0.42369795
0.19580732 8.3087835 0
0.22609133 9.5938377 0.53602391
0.16434187 7.3506818 -0.81952035
0.16891107 7.5550528 -0.42210186
0.18326648 8.1971416 0
0.21444063 9.5914984 0.53587836
0.15551452 7.3534584 -0.81980836
0.15956238 7.5448599 -0.42152128
0.17347185 8.2025661 0
0.20301589 9.5995474 0.53631389
0.14704169 7.3743286 -0.82211471
0.15111914 7.5788178 -0.42340797
0.16215965 8.132513 0
0.19172749 9.6153774 0.53718501
0.14278646 7.3847604 -0.82326788
0.14498329 7.4983783 -0.41890904
0.15548562 8.0415468 0
0.1870735 9.6752377 0.54052281
0.13391015 7.3875108 -0.82355589
0.13432178 7.4102201 -0.41397458
0.14576887 8.041729 0
0.1756652 9.69104 0.5413934
0.1255087 7.4187007 -0.8270154
0.12382945 7.3194418 -0.40889457
0.13587581 8.0314903 0
0.16457078 9.727623 0.54342562
0.11678824 7.4343591 -0.82874459
0.11441392 7.2832174 -0.40686288
0.12649825 8.0524664 0
0.15289828 9.7330065 0.5437156
0.10765518 7.4241495 -0.82759142
0.10504833 7.2443752 -0.40468568
0.11680602 8.055213 0
0.14113773 9.7331839 0.5437156
0.097584538 7.3415241 -0.81836718
0.096502118 7.2600908 -0.40555677
0.10683063 8.0371304 0
0.12958425 9.7489414 0.54458672
0.087807395 7.2666368 -0.81000698
0.088263355 7.3043704 -0.40802401
0.097370811 8.0580721 0
0.11774162 9.7438898 0.54429615
0.065208457 5.9960852 -0.99969208
0.079223827 7.2848344 -0.81202418
0.079889499 7.3460445 -0.41034624
0.087634139 8.0581837 0
0.1062788 9.7726078 0.54589283
0.070871554 7.3314843 -0.81721401
0.071565717 7.4032936 -0.41353902
0.077972822 8.0660934 0
0.094244406 9.7493467 0.54458672
0.062428426 7.3806987 -0.82269073
0.063455343 7.5021071 -0.41905406
0.068072364 8.0479622 0
0.082639977 9.7702408 0.54574788
0.053660259 7.4014597 -0.82499707
0.055068567 7.5957103 -0.42427853
0.058423396 8.0584478 0
0.070853308 9.7729292 0.54589283
0.044357646 7.3420386 -0.81836718
0.046000499 7.6139627 -0.42529464
0.04865488 8.0533133 0
0.059123062 9.7859974 0.5466184
0.034936149 7.2282829 -0.8056823
0.036850717 7.6244063 -0.42587519
0.038886242 8.0455561 0
0.04719808 9.765274 0.5454573
0.025695885 7.0886559 -0.79011506
0.027628673 7.6218495 -0.4257302
0.02919304 8.0534067 0
0.035483383 9.7887077 0.54676342
0.016968109 7.0214381 -0.78262001
0.018375177 7.6036854 -0.42471406
0.01941802 8.0352163 0
0.023617953 9.7731571 0.54589283
0.0084434357 6.9878321 -0.77887249
0.0092095761 7.6218939 -0.4257302
0.0097184544 8.0430441 0
0.011840377 9.7991581 0.54734397
-0 6.9800749 -0.77800733
-0 7.6141014 -0.42529464
-0 8.0534601 0
-0 9.8095598 0.54792452
-0.0072362171 5.9887314 -0.99840778
-0.0084434357 6.9878321 -0.77887249
-0.0091844583 7.6011062 -0.42456907
-0.0097247371 8.0482445 0
-0.011843514 9.801754 0.54748899
-0.014466226 5.9861541 -0.99798024
-0.016849367 6.9723029 -0.7771433
-0.018356333 7.5958877 -0.42427853
-0.019405454 8.0300169 0
-0.023724698 9.8173285 0.54836005
-0.021736534 5.9964004 -0.99969208
-0.025302121 6.9800291 -0.77800733
-0.027506234 7.5880723 -0.4238435
-0.034022901 9.385808 0
-0.035615236 9.8250809 0.5487951
-0.028969601 5.9938049 -0.99926454
-0.033673611 6.9670639 -0.77656615
-0.036637228 7.5802355 -0.42340797
-0.045250598 9.3623409 0
-0.04751204 9.8302326 0.54908562
-0.036149886 5.9834976 -0.99755269
-0.042123202 6.9721956 -0.7771433
-0.045733642 7.5697923 -0.42282739
-0.056626018 9.3726892 0
-0.059295759 9.8145819 0.54821509
-0.043398339 5.9860139 -0.99798024
-0.050566442 6.9747238 -0.77743131
-0.054767229 7.5541463 -0.42195684
-0.06772463 9.3413849 0
-0.071380705 9.8456736 0.5499562
-0.050522696 5.973125 -0.99584079
-0.058928344 6.9668961 -0.77656615
-0.063828945 7.546277 -0.42152128
-0.079121858 9.3543053 0
-0.08307945 9.8221979 0.54865009
-0.057864059 5.9858918 -0.99798024
-0.067596495 6.9926882 -0.77944964
-0.072721064 7.5228119 -0.42021516
-0.090525277 9.3646126 0
-0.095249005 9.8532705 0.55039173
-0.065013021 5.9781141 -0.99669594
-0.076017536 6.9900074 -0.7791605
-0.081839092 7.5253143 -0.42036018
-0.10181224 9.3618965 0
-0.10704166 9.8427544 0.54981118
-0.068713129 5.9857769 -0.99798024
-0.080181234 6.9847927 -0.77858448
-0.086475022 7.533061 -0.42079574
-0.10737859 9.3540239 0
-0.11328649 9.8686762 0.55126286
-0.075978257 5.9882541 -0.99840778
-0.088719405 6.9924521 -0.77944964
-0.09554413 7.530345 -0.42065015
-0.11874712 9.3590965 0
-0.12514478 9.8633308 0.55097228
-0.082964256 5.9701977 -0.99541324
-0.097276069 7.0000911 -0.78031367
-0.10449873 7.5198412 -0.42007017
-0.13034496 9.3797646 0
-0.13720702 9.8735647 0.55155289
-0.090294212 5.9777856 -0.99669594
-0.13292162 8.7998657 -0.98095524
-0.11327095 7.4989243 -0.41890904
-0.14152126 9.3691912 0
-0.14905877 9.8682003 0.55126286
-0.097559124 5.9802465 -0.99712509
-0.14355443 8.7996988 -0.98095524
-0.11830546 7.2519698 -0.40512121
-0.15318143 9.3898211 0
-0.16106714 9.8732042 0.55155289
-0.10478501 5.980124 -0.99712509
-0.15427759 8.8046856 -0.98153126
-0.12401801 7.0777593 -0.39539731
-0.16429915 9.3766203 0
-0.17308782 9.8781939 0.55184287
-0.11215483 5.9876857 -0.99840778
-0.16467407 8.7915659 -0.98009008
-0.13193744 7.0438328 -0.39351061
-0.17597006 9.3946323 0
-0.18536425 9.8961658 0.55285901
-0.11908274 5.9721513 -0.99584079
-0.17529684 8.7913599 -0.98009008
-0.13998227 7.0202894 -0.39220449
-0.18737334 9.3970118 0
-0.19737345 9.89853 0.55300397
-0.12651594 5.9822693 -0.99755269
-0.18575545 8.783392 -0.97922605
-0.14846481 7.0201154 -0.39220449
-0.19878264 9.3993778 0
-0.2096086 9.9112816 0.55373007
-0.13391644 5.9898138 -0.99883699
-0.19648384 8.7883272 -0.97980207
-0 0 -0
-0.21002357 9.3939323 0
-0.22152606 9.9084158 0.55358452
-0.14762811 5.9586773 -0.9937014
-0.21733695 8.7723179 -0.97807288
-0 0 -0
-0.23330446 9.41681 0
-0.24444067 9.8662987 0.55126286
-0.15516125 5.971323 -0.99584079
-0.22766769 8.7617064 -0.97691971
-0 0 -0
-0.24468267 9.416522 0
-0.29152572 11.219259 0.62687647
-0.16209719 5.9608665 -0.99412894
-0.23818381 8.758832 -0.97663057
-0 0 -0
-0.25606051 9.4162188 0
-0.30458727 11.200714 0.62586039
-0.16893527 5.9478388 -0.99198949
-0.24884063 8.7611303 -0.97691971
-0 0 -0
-0.26721627 9.4080963 0
-0.31797352 11.195148 0.62557036
-0.17604603 5.9450669 -0.99156195
-0.25988576 8.7763309 -0.9786489
-0 0 -0
-0.27943131 9.4363832 0
-0.33203861 11.212929 0.62658596
-0.18370371 5.9602399 -0.99412894
-0.27009171 8.7630863 -0.97720772
-0 0 -0
-0.29019174 9.4152288 0
-0.34558699 11.21252 0.62658596
-0.19065872 5.9523139 -0.99284464
-0.28051424 8.7575788 -0.97663057
-0 0 -0
-0.30165124 9.41747 0
-0.35996693 11.23807 0.62803763
-0.19768038 5.9469528 -0.99198949
-0.29109585 8.7572327 -0.97663057
-0 0 -0
-0.31398135 9.445713 0
-0.37363192 11.240222 0.62818259
-0.20486598 5.9467096 -0.99198949
-0.30087566 8.733613 -0.97403622
-0 0 -0
-0.32512552 9.437521 0
-0.38748175 11.247555 0.62861818
-0.21186812 5.9413218 -0.99113274
-0.31133622 8.7306604 -0.97374821
-0 0 -0
-0.33689967 9.447525 0
-0.40107194 11.247079 0.62861818
-0.21933073 5.94876 -0.99241704
-0.3215993 8.7225218 -0.97288305
-0 0 -0
-0.34793136 9.4367085 0
-0.41466153 11.246586 0.62861818
-0.22225162 5.9306669 -0.98942089
-0.32648152 8.7119865 -0.97172987
-0 0 -0
-0.3543148 9.4547033 0
-0.42077485 11.228154 0.62760204
-0.22941752 5.9303942 -0.98942089
-0.33680823 8.7064219 -0.97115386
-0 0 -0
-0.36553732 9.4490623 0
-0.78508085 20.294172 1.1344029
-0.23668569 5.9326849 -0.9898501
-0.34763741 8.7137642 -0.97201902
-0 0 -0
-0.37705845 9.4512215 0
-0.80918747 20.282824 1.1338223
-0.24374828 5.9298224 -0.98942089
-0.35816604 8.7133379 -0.97201902
-0 0 -0
-0.38879848 9.4585524 0
-0.88353038 21.494217 1.2015986
-0.25123882 5.9372201 -0.99070519
-0.368366 8.7051439 -0.97115386
-0 0 -0
-0.71302253 16.849991 0
-0.90840292 21.467176 1.2001476
-0.25774306 5.9215293 -0.9881382
-0.37922171 8.7124472 -0.97201902
-0.30974624 7.1162791 -0.39786452
-0.73179734 16.812712 0
-0.93445402 21.468657 1.2002926
-0.26489788 5.9212136 -0.9881382
-0.38951731 8.706809 -0.97144186
-0.31973821 7.1470499 -0.3996062
-0.74966925 16.757219 0
-0.96132308 21.488279 1.2014537
-0.27169871 5.9131937 -0.9868539
-0.3998003 8.70117 -0.97086585
-0.33147451 7.2141418 -0.40337956
-0.76764727 16.706913 0
-0.98728675 21.487103 1.2014537
-0.27908507 5.9179845 -0.98770899
-0.41019148 8.6980896 -0.9705767
-0.34214962 7.2552652 -0.40570179
-0 0 0
-1.0141059 21.504065 1.2024698
-0.2862356 5.9176431 -0.98770899
-0.42057627 8.6950064 -0.97028869
-0.35192025 7.27561 -0.40686288
-0 0 0
-1.0414692 21.531366 1.2040659
-0.29351318 5.9198642 -0.9881382
-0.43146658 8.7022448 -0.97115386
-0.36083969 7.2777719 -0.4070079
-0.82304865 16.60006 0
-0.52604514 10.609798 0.59335083
-0.29988441 5.9041176 -0.9855696
-0.44158748 8.693965 -0.97028869
-0.36950153 7.2747378 -0.40686288
-0.84178555 16.573055 0
-0.53952354 10.622128 0.59407634
-0.30715185 5.906322 -0.98599881
-0.45222631 8.6960049 -0.9705767
-0.37896594 7.2872586 -0.40758845
-0 0 0
-0.55208832 10.616284 0.59378636
-0.31578845 5.9341373 -0.99070519
-0.46314588 8.7032032 -0.97144186
-0.84535301 15.885447 -0.88855582
-0.87865317 16.511208 0
-0.56505358 10.618201 0.59393138
-0.32323775 5.9388828 -0.99156195
-0.47295895 8.6897268 -0.97000068
-0.86398196 15.874035 -0.88797528
-0.89775425 16.494537 0
-0.57788318 10.617511 0.59393138
-0.32998553 5.9307961 -0.99027765
-0.48374555 8.6943092 -0.9705767
-0.81488663 14.645873 -0.81932783
-0.91753954 16.490845 0
-0.59157777 10.632366 0.5948019
-0.33656868 5.9201412 -0.98856574
-0.49425057 8.693718 -0.9705767
-0.83597505 14.704549 -0.82266617
-0.93731725 16.487127 0
-0.60501444 10.642021 0.59538245
-0.3446143 5.935102 -0.99113274
-0.50535458 8.7034426 -0.97172987
-0.85298848 14.69055 -0.82194006
-0.95769078 16.49378 0
-0.61742133 10.633508 0.59494746
-0.35057026 5.9141808 -0.98770899
-0.516177 8.7079945 -0.97230703
-0.86781758 14.640232 -0.81918281
-0.97869712 16.510788 0
-0.63057661 10.637937 0.59523749
-0.35787156 5.9163222 -0.9881382
-0.5256052 8.68929 -0.97028869
-0.8828398 14.595082 -0.8167156
-0.99896103 16.514795 0
-0.64358681 10.639758 0.59538245
-0.36391324 5.8979478 -0.98514205
-0.535945 8.6860695 -0.97000068
-0.89679372 14.534351 -0.8133772
-1.0185944 16.508375 0
-0.65580231 10.628598 0.5948019
-0.3720063 5.9128709 -0.98770899
-0.54757702 8.7034874 -0.97201902
-0.91435504 14.533257 -0.8133772
-1.0385407 16.507133 0
-0.66750276 10.609653 0.59378636
-0.37898645 5.9098577 -0.98728144
-0.55809307 8.7028198 -0.97201902
-0.93374431 14.560668 -0.81497389
-1.0589855 16.51366 0
-0.68048811 10.611429 0.59393138
-0.38562542 5.9017181 -0.98599881
-0.56928295 8.7124634 -0.97317219
-0.95387888 14.598426 -0.81715113
-1.0806347 16.538332 0
-0.69381785 10.618381 0.59436691
-0.38952842 5.9066019 -0.9868539
-0.57488656 8.7172747 -0.97374821
-0.96440798 14.62377 -0.81860226
-1.0926813 16.568838 0
-0.70057452 10.623139 0.59465694
-0.39718136 5.9138136 -0.9881382
-0.58576626 8.7217398 -0.97432536
-0.98312163 14.638144 -0.81947279
-1.1127007 16.567507 0
-0.71428043 10.635246 0.59538245
-0.40362629 5.9030848 -0.98642635
-0.59700942 8.7313375 -0.9754774
-1.0022264 14.657685 -0.82063395
-1.1334287 16.576536 0
-0.72819442 10.649935 0.59625357
-0.4102239 5.894908 -0.98514205
-0.60684156 8.7202988 -0.97432536
-1.0184934 14.635726 -0.81947279
-1.1532768 16.572561 0
-0.74160361 10.656826 0.59668916
-0.4169842 5.8892913 -0.9842869
-0.61883861 8.7401896 -0.97663057
-1.035627 14.626717 -0.8190378
-1.1723819 16.558178 0
-0.75484645 10.661101 0.59697914
-0.4244684 5.8938994 -0.98514205
-0.62995648 8.7471771 -0.97749573
-1.0519931 14.607309 -0.81802171
-1.1920141 16.551552 0
-0.76810139 10.665369 0.59726971
-0.43102705 5.8856988 -0.98385769
-0.64241403 8.7722006 -0.98037809
-1.0696424 14.606028 -0.81802171
-1.2114421 16.542311 0
-0.78155667 10.6722 0.59770471
-0.43871039 5.8928561 -0.98514205
-0.65378118 8.7817345 -0.98153126
-1.0855541 14.581406 -0.8167156
-1.2304635 16.527861 0
-0.7950303 10.679025 0.59814024
-0.4452492 5.8846402 -0.98385769
-0.66478235 8.7861013 -0.98210841
-1.1025838 14.572308 -0.81628001
-1.2512187 16.536741 0
-0.80773735 10.675467 0.59799528
-0.45196617 5.8789835 -0.9830026
-0.67638928 8.7981834 -0.98354959
-1.1178006 14.539875 -0.81453836
-1.2719971 16.545597 0
-0.82143271 10.684847 0.59857583
-0.45846966 5.8707528 -0.9817183
-0.68560982 8.7793074 -0.98153126
-1.1339529 14.520388 -0.81352282
-1.2936093 16.564806 0
-0.8347469 10.689023 0.59886581
-0.46576574 5.8727512 -0.98214585
-0.69764906 8.796524 -0.98354959
-1.1484153 14.480149 -0.81134558
-1.3169158 16.60474 0
-0.84827834 10.69578 0.5993014
-0.36192998 4.4945922 -0.99890906
-0.47265562 5.869628 -0.9817183
-0.70806998 8.7930984 -0.98326159
-1.1665368 14.486524 -0.81178111
-1.3386495 16.62389 0
-0.86120152 10.694747 0.5993014
-0.47995651 5.8716087 -0.98214585
-0.71995813 8.8076992 -0.98499078
-1.184463 14.490278 -0.81207108
-1.3606433 16.645601 0
-0.8749702 10.704058 0.59988195
-0.48514098 5.8480024 -0.97829455
-0.73017275 8.801672 -0.98441476
-1.2034749 14.506967 -0.81308722
-1.3809702 16.646536 0
-0.88747323 10.697809 0.59959137
-0.49156144 5.839745 -0.97701186
-0.74080729 8.8007832 -0.98441476
-0.7698608 9.1459389 -0.51266384
-1.4023935 16.660421 0
-0.90148836 10.709673 0.60031694
-0.4992719 5.8468127 -0.97829455
-0.75210035 8.8076057 -0.98527879
-0.77759576 9.1061745 -0.5104872
-1.4229658 16.663895 0
-0.91442823 10.708576 0.60031694
-0.50478637 5.82831 -0.97530001
-0.76229614 8.8015423 -0.98470277
-0.78702849 9.0871038 -0.50947106
-1.4430997 16.662165 0
-0.92781568 10.712646 0.60060751
-0.3945052 4.4918504 -0.99890906
-0.51182836 5.8276958 -0.97530001
-0.77270448 8.7980404 -0.98441476
-0.79618925 9.0654383 -0.50830996
-1.4650532 16.681149 0
-0.94166845 10.72187 0.60118806
-0.39993244 4.4913702 -0.99890906
-0.51773053 5.814281 -0.97315896
-0.78471059 8.8125534 -0.98614395
-0.80506849 9.0411787 -0.50700384
-1.4859008 16.687145 0
-0.95508355 10.725897 0.60147804
-0.40535909 4.4908838 -0.99890906
-0.5233714 5.798316 -0.97059196
-0.79489368 8.8064518 -0.98556793
-0.81622577 9.0427847 -0.50714886
-1.5062965 16.687927 0
-0.96874404 10.732501 0.60191363
-0.5301435 5.7951255 -0.97016442
-0.80529767 8.8029013 -0.98527879
-0.82549524 9.0236855 -0.50613326
-1.5288301 16.712006 0
-0.98194796 10.733908 0.60205859
-0.53738213 5.7970343 -0.97059196
-0.81569517 8.7993488 -0.98499078
-0.83447921 9.0019827 -0.50497216
-1.549983 16.720512 0
-0.99539721 10.737893 0.60234916
-0.41797885 4.4795194 -0.99665755
-0.54064608 5.7941551 -0.97016442
-0.82101119 8.7988548 -0.98499078
-0.83991766 9.0014772 -0.50497216
-1.5600845 16.719572 0
-1.0018843 10.737289 0.60234916
-0.42410785 4.4865923 -0.99834454
-0.54668045 5.7832751 -0.96845251
-0.83164227 8.7978563 -0.98499078
-0.848593 8.9771757 -0.50366604
-1.5820003 16.735815 0
-1.0158356 10.746419 0.60292971
-0.42880288 4.4784961 -0.99665755
-0.55391246 5.7851634 -0.96888012
-0.84227216 8.7968445 -0.98499078
-0.85968691 8.9787283 -0.50381106
-1.6009811 16.72094 0
-1.0298105 10.75553 0.60351026
-0.43372303 4.4729118 -0.99553066
-0.56164581 5.7921572 -0.97016442
-0.85240203 8.7906771 -0.98441476
-0.8702848 8.9750986 -0.50366604
-1.6214348 16.721581 0
-1.0425543 10.751684 0.60336471
-0.44036853 4.4850254 -0.99834454
-0.56964743 5.8016934 -0.97187626
-0.86352819 8.7947836 -0.98499078
-0.8793512 8.9559364 -0.5026499
-1.6411293 16.714424 0
-1.0555447 10.750417 0.60336471
-0.45120582 4.4839482 -0.99834454
-0.58238137 5.7875319 -0.96973687
-0.8850379 8.7952423 -0.98527879
-0.89969105 8.9408607 -0.5019244
-1.6817781 16.713007 0
-1.0830827 10.763351 0.60423583
-0.45610905 4.4783492 -0.99721986
-0.58833361 5.7766085 -0.96802497
-0.89540279 8.7915955 -0.98499078
-0.91049367 8.9397669 -0.5019244
-1.7009164 16.700605 0
-1.0968773 10.769793 0.60467142
-0.45995638 4.4626245 -0.99384147
-0.59320754 5.755465 -0.96460122
-0.90576017 8.7879372 -0.98470277
-0.92182726 8.9438248 -0.50221437
-1.7218943 16.706297 0
-1.1104221 10.773624 0.6049614
-0.4664025 4.4721746 -0.99609303
-0.60149258 5.7675076 -0.96674067
-0.9150368 8.7739763 -0.98326159
-0.93209493 8.937541 -0.5019244
-1.7431592 16.71456 0
-1.1234391 10.772275 0.6049614
-0.47100684 4.4640346 -0.99440598
-0.60657531 5.7489038 -0.96374446
-0.92590892 8.7754335 -0.98354959
-0.94153053 8.9234896 -0.50119883
-0.95153618 9.0183201 0
-1.1364545 10.770909 0.6049614
-0.61324912 5.7456164 -0.96331692
-0.93568784 8.7665901 -0.98268443
-0.95313865 8.930089 -0.50163382
-0.96326125 9.024929 0
-1.1502957 10.777282 0.60539699
-0.48288414 4.4729881 -0.99665755
-0.61881375 5.7321129 -0.96117753
-0.94544786 8.7577457 -0.9818204
-0.96309233 8.9211884 -0.50119883
-0.97220981 9.0056438 0
-1.1658269 10.799132 0.6067031
-0.62824667 5.7543254 -0.96502882
-0.95659006 8.761735 -0.98239642
-0.97302485 8.9122667 -0.50076324
-0.98535037 9.0251598 0
-1.1780285 10.789965 0.60626751
-0.49480748 4.4819102 -0.99890906
-0.63125598 5.717845 -0.95903808
-0.96604091 8.750289 -0.98124325
-0.98407769 8.9136648 -0.50090826
-0.99425542 9.0058527 0
-1.1907803 10.785953 0.60612249
-0.50022262 4.4813089 -0.99890906
-0.6370253 5.7068734 -0.95732623
-0.97546548 8.7388334 -0.98009008
-0.99427146 8.9073086 -0.50061828
-1.0060029 9.0124063 0
-1.2049651 10.794836 0.6067031
-0.50535131 4.478169 -0.99834454
-0.6447832 5.7137446 -0.95860887
-0.98718411 8.7479286 -0.98124325
-1.0053246 8.9086809 -0.50076324
-1.0157245 9.0008402 0
-2.3709378 21.010059 1.1809903
-0.65168673 5.7129612 -0.95860887
-0.99834037 8.751874 -0.9818204
-1.0154998 8.9023008 -0.50047326
-1.0286646 9.0177088 0
-2.3989727 21.030411 1.1822964
-0.51559031 4.4718914 -0.99721986
-0.66241127 5.7453198 -0.96417207
-1.0074325 8.7378073 -0.98037809
-1.0253626 8.893321 -0.50003767
-1.0383676 9.0061178 0
-2.4285483 21.063631 1.1843281
-0.52187586 4.4788389 -0.99890906
-0.66935289 5.7445149 -0.96417207
-1.0170925 8.7288837 -0.97951406
-1.0364082 8.8946543 -0.50018269
-1.0483451 8.9970989 0
-2.4536974 21.058104 1.1841831
-0.67629349 5.7437019 -0.96417207
-1.0273367 8.7250814 -0.97922605
-1.0477631 8.8985615 -0.50047326
-1.0598248 9.0010004 0
-2.4803557 21.065445 1.1847637
-0.53269792 4.4775648 -0.99890906
-0.68232423 5.7352409 -0.96288937
-1.0372669 8.7186928 -0.9786489
-1.0579 8.8921232 -0.50018269
-1.0706999 8.9997129 0
-2.5048862 21.054689 1.1843281
-0.53689492 4.4668269 -0.99665755
-0.69170445 5.7548018 -0.96631312
-1.0487272 8.7251396 -0.97951406
-1.0698839 8.9011583 -0.50076324
-1.0825044 9.0061569 0
-2.5309455 21.056812 1.1846186
-0.69680029 5.738667 -0.96374446
-1.0583335 8.7161598 -0.9786489
-1.0800127 8.8947048 -0.50047326
-1.0930724 9.0022612 0
-2.5598311 21.082106 1.1862148
-0.70057791 5.7407908 -0.96417207
-1.0635991 8.715519 -0.9786489
-1.0853863 8.8940506 -0.50047326
-1.0988259 9.00418 0
-2.5776038 21.121824 1.188537
-0.7081427 5.7450404 -0.96502882
-1.0728637 8.7039595 -0.97749573
-1.0961322 8.8927326 -0.50047326
-1.1103423 9.0080166 0
-2.6066206 21.147066 1.1901337
-0.71191335 5.7187114 -0.96074992
-1.0830607 8.7000923 -0.97720772
-1.106234 8.88624 -0.50018269
-1.1215471 9.0092487 0
-1.3488821 10.835402 0.60989588
-0.71914262 5.7203918 -0.96117753
-1.0922818 8.6885128 -0.97605455
-1.117943 8.8926334 -0.50061828
-1.131458 9.0001383 0
-1.3600296 10.818301 0.6090253
-0.72443801 5.7067876 -0.95903808
-1.1011511 8.6743593 -0.97461337
-1.1277052 8.8835402 -0.50018269
-1.1439717 9.0116806 0
-1.3734273 10.819225 0.60917032
-0.73524803 5.7364535 -0.96417207
-1.109001 8.6524982 -0.97230703
-1.1400899 8.8950558 -0.50090826
-1.1532046 8.9973774 0
-1.3871592 10.822707 0.60946029
-0.74119151 5.7279305 -0.96288937
-1.1211144 8.6639757 -0.97374821
-1.1511701 8.896246 -0.50105327
-1.1654111 9.0063009 0
-1.4005698 10.823607 0.60960585
-0.74578422 5.7092104 -0.95989317
-1.1275619 8.6318378 -0.97028869
-1.1622561 8.8974323 -0.50119883
-1.177641 9.0152092 0
-1.4153295 10.834788 0.61033142
-0.7567091 5.7388453 -0.96502882
-1.1349483 8.6073933 -0.96769434
-1.1733454 8.8985958 -0.50134379
-1.1868325 9.0008812 0
-1.4287596 10.835644 0.61047643
-0.76330447 5.7353845 -0.96460122
-1.1443238 8.598321 -0.96682918
-1.1844393 8.899745 -0.5014888
-1.2004541 9.0200787 0
-1.4435649 10.846786 0.611202
-0.76681608 5.7090111 -0.96032077
-1.150582 8.5661802 -0.9633708
-1.1962301 8.9060354 -0.5019244
-1.212392 9.0263615 0
-1.45667 10.845034 0.611202
-0.77578324 5.7233481 -0.96288937
-1.1591935 8.5519619 -0.96192849
-1.2080379 8.9123106 -0.50235993
-1.2222487 9.0171509 0
-1.4708205 10.850992 0.61163753
-0.78095913 5.709692 -0.96074992
-1.1677738 8.5377436 -0.96048731
-1.2181008 8.9056902 -0.50206935
-1.2366693 9.0414476 0
-1.4856911 10.862077 0.6123631
-0.78645378 5.6985722 -0.95903808
-1.1759683 8.5209589 -0.95875812
-1.2306366 8.9170799 -0.50279492
-1.2468823 9.0347958 0
-1.4981049 10.855131 0.61207312
-0.7965247 5.7204986 -0.96288937
-1.1848365 8.509284 -0.95760494
-1.243919 8.9336042 -0.50381106
-1.2628223 9.0693645 0
-1.5122941 10.861027 0.61250812
-0.80236459 5.7119031 -0.96160507
-1.192958 8.4924736 -0.95587462
-1.2547126 8.9320946 -0.50381106
-1.2748663 9.0755653 0
-1.5268623 10.869484 0.61308867
-0.80854613 5.7058506 -0.96074992
-1.2043077 8.4987106 -0.95673978
-1.2655044 8.9305725 -0.50381106
-1.2887526 9.0946331 0
-1.5407246 10.872782 0.61337924
-0.81507564 5.7023211 -0.96032077
-1.2123805 8.4818916 -0.95501059
-1.2792357 8.9496145 -0.50497216
-1.3001086 9.095643 0
-1.5542284 10.873482 0.6135242
-0.8208673 5.693717 -0.95903808
-1.2215208 8.4727383 -0.95414543
-1.2926445 8.9660683 -0.5059883
-2.8302729 19.631397 0
-1.5695899 10.887022 0.61439478
-0.82737601 5.6901731 -0.95860887
-1.229897 8.4584608 -0.95270425
-1.3031024 8.9619207 -0.50584275
-2.8528676 19.620235 0
-1.583492 10.890265 0.61468536
-0.83313459 5.6815572 -0.95732623
-1.2389904 8.4492884 -0.95183909
-1.3169461 8.9809074 -0.50700384
-2.8712873 19.580729 0
-1.5977809 10.896059 0.61512089
-0.84262657 5.6983151 -0.96032077
-1.2488208 8.4452295 -0.95155108
-1.3300782 8.9947376 -0.50787497
-2.8907566 19.548923 0
-1.6105644 10.891542 0.61497533
-0.8476187 5.6846004 -0.95818132
-1.2594054 8.44627 -0.95183909
-1.3417113 8.9982586 -0.50816494
-2.909003 19.509384 0
-1.6256406 10.902447 0.61570144
-0.85105288 5.6840873 -0.95818132
-1.2637427 8.4403963 -0.95126307
-1.3506099 9.0205727 -0.50947106
-2.9177063 19.487034 0
-1.6322272 10.901463 0.61570144
-0.85792041 5.6830544 -0.95818132
-1.2727817 8.4311886 -0.95039791
-1.371205 9.0831652 -0.51309943
-2.935811 19.447462 0
-1.6473372 10.912326 0.616427
-0.67808229 4.455287 -0.99834454
-0.86285573 5.6693273 -0.95604187
-1.2829683 8.4296436 -0.95039791
-1.4013366 9.2073736 -0.5202111
-2.954217 19.410456 0
-1.6616932 10.918027 0.616862
-0.87126267 5.6784296 -0.95775378
-1.2915839 8.4178619 -0.94924474
-1.438074 9.3726072 -0.52964449
-2.9701705 19.358004 0
-1.6772496 10.931426 0.61773312
-0.87773126 5.6748385 -0.95732623
-1.3013593 8.4137411 -0.94895673
-1.4537673 9.3991117 -0.53124118
-2.989979 19.331255 0
-1.6916487 10.937099 0.61816865
-0.88498265 5.6763077 -0.95775378
-1.3099309 8.4019403 -0.94780356
-1.4651232 9.3973484 -0.53124118
-3.0101275 19.307056 0
-1.7052628 10.937611 0.61831367
-0.89064479 5.667624 -0.95646948
-1.3192782 8.395236 -0.94722641
-1.4752665 9.3878679 -0.53080559
-1.7273425 10.991955 0
-1.7192835 10.940672 0.61860371
-0.8982963 5.6716194 -0.95732623
-1.3257802 8.3706465 -0.94463205
-1.483763 9.3681107 -0.52978945
-1.7418445 10.997574 0
-1.7333156 10.943724 0.61889422
-0.90393436 5.6629224 -0.95604187
-1.3318173 8.343502 -0.94174969
-1.4930339 9.3534842 -0.52906394
-1.7522597 10.977468 0
-1.7494036 10.959576 0.61990982
-0.91159087 5.6668901 -0.95689702
-1.3340924 8.2933645 -0.93627185
-1.5035101 9.3465471 -0.5287739
-1.7651097 10.972776 0
-1.7626449 10.957455 0.61990982
-0.91843754 5.6657848 -0.95689702
-1.3465964 8.3070707 -0.93800217
-1.5135547 9.3370256 -0.52833837
-1.7787828 10.973203 0
-1.7763005 10.957889 0.62005538
-0.924456 5.6596088 -0.95604187
-1.3516294 8.2748051 -0.93454266
-1.5235785 9.3274946 -0.52790278
-1.7916214 10.968479 0
-1.786607 10.93778 0.61903924
-0.93045926 5.6534166 -0.95518512
-1.3637266 8.2859249 -0.93598384
-0 0 -0
-1.8040289 10.961175 0
-1.8015099 10.945869 0.61961979
-0.94022965 5.6700182 -0.95818132
-1.3762755 8.2995758 -0.93771303
-1.5439899 9.3109703 -0.52717721
-1.8159944 10.951283 0
-1.8160101 10.951378 0.62005538
-0.94538808 5.6587501 -0.95646948
-1.3871561 8.3030138 -0.93829018
-1.5539544 9.3014069 -0.52674168
-3.1500056 18.85479 0
-1.8309542 10.959427 0.62063593
-0.9488163 5.637352 -0.95304573
-1.3997626 8.3166304 -0.94001937
-1.5647613 9.2969627 -0.52659667
-3.1676023 18.820173 0
-1.8437626 10.954638 0.62049037
-0.75377446 4.4456921 -0.99890906
-0.95991933 5.6615157 -0.95732623
-1.4063517 8.2945318 -0.93771303
-1.5733883 9.2796984 -0.52572614
-3.187731 18.800941 0
-1.8574334 10.95497 0.62063593
-0.96200502 5.6325145 -0.95261818
-1.4207283 8.318327 -0.94059652
-1.5854739 9.2829084 -0.52601612
-3.2065029 18.773991 0
-1.8732929 10.968081 0.62150645
-0.97011626 5.6389399 -0.95390248
-1.4250779 8.2834692 -0.936849
-1.5958091 9.2758694 -0.52572614
-3.2243311 18.741888 0
-1.8883066 10.976053 0.622087
-0.97868234 5.647881 -0.95561433
-1.4342017 8.2766399 -0.93627185
-1.6074592 9.2764921 -0.52587116
-3.242976 18.714901 0
-1.9046737 10.991688 0.62310314
-0.98285699 5.6315165 -0.95304573
-1.4433129 8.2698097 -0.93569583
-1.6204538 9.2847824 -0.52645171
-3.264246 18.703285 0
-1.9183999 10.991936 0.62324816
-0.99055052 5.6353865 -0.95390248
-1.4524078 8.2629595 -0.93511868
-1.6325704 9.2879305 -0.52674168
-3.2805343 18.663439 0
-1.9312308 10.987053 0.62310314
-1.0003142 5.6310568 -0.95347494
-1.4642164 8.2424946 -0.93310148
-1.6544014 9.3131018 -0.52833837
-3.3066177 18.613903 0
-1.9565932 11.014226 0.62484425
-0.79313534 4.4336715 -0.99778223
-1.0071175 5.6298442 -0.95347494
-1.4718978 8.2279921 -0.93166029
-1.6647372 9.305975 -0.5280478
-3.3249826 18.58684 0
-1.9717305 11.022085 0.6254248
-1.0152833 5.6361947 -0.95475757
-1.4822967 8.2287502 -0.9319483
-1.6801277 9.3269796 -0.52935445
-3.3455932 18.572565 0
-1.985509 11.022259 0.62557036
-1.0184276 5.6147571 -0.95133382
-1.4945462 8.2396755 -0.93338948
-1.6927862 9.3326054 -0.52978945
-3.3657103 18.555708 0
-2.0020709 11.037742 0.62658596
-0.80965787 4.4332643 -0.99834454
-1.0289009 5.6337247 -0.95475757
-1.5045011 8.2378635 -0.93338948
-1.7082627 9.3535566 -0.53109556
-3.3834538 18.52603 0
-2.01494 11.032761 0.62644094
-0.81547481 4.4347892 -0.99890906
-1.0347798 5.6274328 -0.95390248
-1.5102444 8.2131481 -0.93079513
-1.7228534 9.3693771 -0.5321117
-3.401129 18.496328 0
-2.030149 11.040541 0.62702149
-1.0411118 5.6236567 -0.95347494
-1.5187544 8.2036848 -0.92992997
-1.7370121 9.3826237 -0.53298283
-3.4158957 18.45126 0
-2.0453801 11.0483 0.62760204
-1.0460247 5.6123004 -0.95176303
-1.5305614 8.2120142 -0.93108314
-1.7535838 9.4086094 -0.53457892
-3.4315131 18.411306 0
