# .PCD v0.7 - Point Cloud Data file format
VERSION 0.7
FIELDS x y z
SIZE 4 4 4
TYPE F F F
COUNT 1 1 1
WIDTH 1534
HEIGHT 1
VIEWPOINT 0 0 0 1 0 0 0
POINTS 1534
DATA ascii
6.714489 -9.0220737 0.62818259
1.6439011 -2.2060807 -0.90716213
1.8911719 -2.5379128 -0.8732276
2.2843885 -3.0656013 -0.84693778
2.8390877 -3.8099959 -0.79213822
4.0749068 -5.4684391 -0.76013488
5.7061992 -7.6575985 -0.53341782
6.7588911 -9.0702887 0
6.7121768 -9.0075998 0.62745702
1.6376873 -2.1922083 -0.90227073
1.9197605 -2.5697916 -0.88499367
2.286566 -3.0607975 -0.84637326
2.8452301 -3.808625 -0.79256743
4.0737729 -5.4531527 -0.7586937
5.7092271 -7.6423717 -0.53283727
6.7620592 -9.051693 0
6.7199426 -8.9953156 0.62716651
1.6314481 -2.1783619 -0.8973825
1.9108331 -2.5514057 -0.87945634
2.2933121 -3.0621037 -0.84750009
2.8467493 -3.8010709 -0.79171067
4.078804 -5.4461503 -0.75840455
5.7122264 -7.6271482 -0.53225672
6.7651925 -9.033102 0
6.7230201 -8.9767923 0.62644094
1.6489162 -2.1961503 -0.90553063
1.9229496 -2.5611284 -0.88360798
2.2893836 -3.0491729 -0.84468621
2.8544257 -3.8017383 -0.79256743
4.0869393 -5.4432921 -0.7586937
5.7386017 -7.6430998 -0.53385335
6.7776637 -9.0270004 0
6.7276211 -8.96035 0.62586039
1.6426532 -2.1823118 -0.9006424
1.9260428 -2.5588031 -0.88360798
2.2930663 -3.0464044 -0.84468621
2.862102 -3.8023844 -0.79342258
4.0997353 -5.4466157 -0.75984687
5.7337699 -7.6174779 -0.53254724
6.7791724 -9.0063248 0
6.7384434 -8.9522142 0.62586039
1.6601738 -2.2000508 -0.90879047
1.9336681 -2.5624835 -0.88568515
2.2967458 -3.0436313 -0.84468621
2.8651495 -3.7968762 -0.79299498
4.1047511 -5.4395876 -0.75955772
5.7398367 -7.6063919 -0.53225672
6.7837853 -8.9898252 0
6.7429948 -8.9357691 0.62527984
1.6777453 -2.2177582 -0.9169417
1.9307086 -2.5521421 -0.88291651
2.2958212 -3.0347729 -0.84299701
2.8650875 -3.7872677 -0.79171067
4.1113205 -5.4346237 -0.75955772
5.7396202 -7.5870209 -0.53138614
6.7946429 -8.9816217 0
6.7475162 -8.9193258 0.62469923
1.6654856 -2.1960323 -0.90879047
1.9413695 -2.5598001 -0.88637662
2.307162 -3.0421174 -0.84581089
2.8696616 -3.783803 -0.79171067
4.1225748 -5.4358363 -0.76042289
5.7597766 -7.5945749 -0.53240228
6.8007708 -8.9671822 0
6.7582884 -8.9111662 0.62469923
1.6516871 -2.1723814 -0.8998282
1.9323139 -2.5414758 -0.88083935
2.3092999 -3.0373065 -0.84524858
2.8804462 -3.788507 -0.79342258
4.121314 -5.4205585 -0.7589817
5.7610807 -7.5772614 -0.53167617
6.8100276 -8.9568882 0
6.7674799 -8.9009275 0.62455428
1.667794 -2.1880734 -0.90716213
1.9353833 -2.539139 -0.88083935
2.3160458 -3.0385518 -0.84637326
2.8819125 -3.7809443 -0.79256743
4.132566 -5.4217477 -0.75984687
5.7686586 -7.5682302 -0.53153116
6.8161106 -8.9424419 0
6.7656283 -8.8762112 0.62339312
1.6734351 -2.1899807 -0.90879047
1.9308352 -2.5268335 -0.87737918
2.3197155 -3.0357511 -0.84637326
2.8895931 -3.7815349 -0.79342258
4.1312575 -5.4064689 -0.75840455
5.7730646 -7.5550585 -0.53109556
6.8237476 -8.9300594 0
6.7684617 -8.8577089 0.62266761
1.6655631 -2.1742282 -0.90308803
1.9521947 -2.5483975 -0.88568515
2.3156576 -3.0228624 -0.84355938
2.891041 -3.7739689 -0.79256743
4.1503706 -5.4178991 -0.7607109
5.7806106 -7.5460167 -0.53095061
6.8313708 -8.9176798 0
6.7839017 -8.8557138 0.62310314
1.6727009 -2.1780891 -0.90553063
1.9445747 -2.5321069 -0.88083935
2.3239527 -3.0261097 -0.84524858
2.8971612 -3.7725067 -0.79299498
4.1506124 -5.4046745 -0.75955772
5.7770629 -7.5225396 -0.52978945
6.8342166 -8.8991013 0
6.7882662 -8.8392668 0.62252259
1.6647813 -2.1623631 -0.8998282
1.9384532 -2.517832 -0.87668771
2.3245044 -3.019269 -0.84412169
2.9001529 -3.7669713 -0.79256743
4.1571398 -5.3996558 -0.75955772
5.7861481 -7.5155535 -0.52978945
6.8417864 -8.8867083 0
6.7973523 -8.8289938 0.62237704
1.6553118 -2.1446972 -0.89330846
1.9522196 -2.5293844 -0.88153082
2.331259 -3.0204849 -0.84524858
2.9062693 -3.7654946 -0.79299498
4.1668248 -5.3987274 -0.76013488
5.7936387 -7.5065017 -0.52964449
6.852519 -8.8784351 0
6.8016648 -8.8125458 0.62179649
1.6881464 -2.1817837 -0.90960467
1.9491394 -2.5190945 -0.87876487
2.3380136 -3.0216811 -0.84637326
2.9186702 -3.7721295 -0.79513443
4.1749263 -5.3957324 -0.76042289
5.7899837 -7.4830546 -0.52848333
6.8552804 -8.8598595 0
6.8027701 -8.7919941 0.6209259
1.6773605 -2.1651399 -0.90308803
1.9552658 -2.5238605 -0.88083935
2.3336143 -3.0122335 -0.84412169
2.91466 -3.7622483 -0.79342258
4.1797681 -5.3952518 -0.7607109
5.7992792 -7.4857197 -0.52891892
6.8510718 -8.8433762 0
6.8064909 -8.7858305 0.62078089
1.6739112 -2.1553035 -0.8998282
1.9598513 -2.5234756 -0.88153082
2.3341382 -3.0054018 -0.84299701
2.9207768 -3.7607491 -0.79385012
4.1878691 -5.3922386 -0.7609989
5.8131032 -7.4848657 -0.52935445
6.8585567 -8.8309765 0
6.8155098 -8.7755499 0.62063593
1.6932123 -2.1747258 -0.90879047
1.9551944 -2.51121 -0.87807071
2.3440118 -3.0105989 -0.84524858
2.9347842 -3.7693744 -0.79641873
4.1912065 -5.3830967 -0.76042289
5.810967 -7.4634819 -0.52833837
6.8660278 -8.8185797 0
6.8197227 -8.7591066 0.62005538
1.7171323 -2.1999593 -0.92020154
1.9613174 -2.5128047 -0.87945634
2.3429561 -3.0017536 -0.84355938
2.9251227 -3.7476149 -0.79256743
4.1961179 -5.3759913 -0.76013488
5.8071904 -7.4400682 -0.52717721
6.8750725 -8.808219 0
6.8271008 -8.7467594 0.6197648
1.6878054 -2.1570075 -0.90308803
1.9689858 -2.5163548 -0.88153082
2.3434529 -2.9949219 -0.84243464
2.9343901 -3.7501369 -0.79385012
4.2042031 -5.3729525 -0.76042289
5.8257809 -7.4453206 -0.5280478
6.8760905 -8.787612 0
6.834465 -8.7344151 0.61947477
1.6980364 -2.1646881 -0.90716213
1.9720249 -2.5139737 -0.88153082
2.3502035 -2.9960828 -0.84355938
2.9357536 -3.7425528 -0.79299498
4.2090974 -5.3658352 -0.76013488
5.8235512 -7.4239702 -0.52703226
6.8834944 -8.7752056 0
6.8418036 -8.7220573 0.61918426
1.706762 -2.1704061 -0.91042197
1.9719625 -2.5076487 -0.88014787
2.355391 -2.9952362 -0.84412169
2.9402735 -3.7390027 -0.79299498
4.2187724 -5.3648081 -0.7607109
5.8276968 -7.410799 -0.52659667
6.8973069 -8.7709694 0
6.8443079 -8.7035732 0.61845869
1.7078487 -2.1663957 -0.90960467
1.979652 -2.5111766 -0.88222498
2.3605859 -2.9943891 -0.84468621
2.9511464 -3.7435112 -0.79470688
4.2236519 -5.357677 -0.76042289
5.841475 -7.4098754 -0.52703226
6.8982358 -8.75037 0
6.8516049 -8.6912193 0.61816865
1.7089341 -2.1623933 -0.90879047
1.9764627 -2.5009096 -0.87945634
2.3610485 -2.9875438 -0.84355938
2.9493005 -3.7318864 -0.79299498
4.2333269 -5.3566246 -0.7609989
5.8375349 -7.3865027 -0.52587116
6.9071856 -8.7399807 0
6.8556571 -8.6747799 0.6175881
1.7008061 -2.1467714 -0.90308803
1.9888277 -2.5103145 -0.88360798
2.3615038 -2.9807093 -0.84243464
2.9585917 -3.7343583 -0.79427934
4.2333779 -5.3434038 -0.75984687
5.8432255 -7.3753662 -0.52558059
6.9064326 -8.7173557 0
6.8661337 -8.6664896 0.6175881
1.7310653 -2.1795487 -0.91775584
1.9934182 -2.509872 -0.88429952
2.3651037 -2.9778538 -0.84243464
2.9662917 -3.7347972 -0.79513443
4.2430453 -5.3423314 -0.76042289
5.8650613 -7.3845787 -0.52674168
6.9201951 -8.7130756 0
6.8701363 -8.6500483 0.61700755
1.7029071 -2.1387839 -0.90145653
1.9777035 -2.4839172 -0.87599623
2.3687003 -2.9749937 -0.84243464
2.9628091 -3.7211709 -0.79299498
4.2511072 -5.3392224 -0.7607109
5.8691292 -7.3713937 -0.52630669
6.9209948 -8.6924963 0
6.8838172 -8.6458025 0.61729759
1.7085769 -2.1405919 -0.90308803
1.9760067 -2.4756417 -0.87391907
2.377044 -2.9780815 -0.84412169
2.9705029 -3.721597 -0.79385012
4.2575555 -5.3340816 -0.7607109
5.8650637 -7.3480501 -0.52514559
6.9217486 -8.6719189 0
6.8829103 -8.6232605 0.61628145
1.7142475 -2.1423819 -0.90471643
1.9758588 -2.4693308 -0.87253338
2.3790545 -2.9732249 -0.84355938
2.9766059 -3.7200153 -0.79427934
4.2639976 -5.3289332 -0.7607109
5.8690662 -7.3348694 -0.52471
6.9322219 -8.6635485 0
6.8981967 -8.621026 0.61671698
1.7044628 -2.1248851 -0.8981967
1.989831 -2.4806421 -0.87737918
2.3778803 -2.9644079 -0.84187233
2.9859128 -3.7224174 -0.79556197
4.2720499 -5.3257928 -0.7609989
5.8828039 -7.3338552 -0.52514559
6.9410582 -8.6531382 0
6.9053602 -8.6086349 0.616427
1.7240678 -2.1440132 -0.90716213
2.0006859 -2.4880095 -0.88083935
2.3798637 -2.9595466 -0.84130782
2.9888015 -3.7168083 -0.79513443
4.278482 -5.3206272 -0.7609989
5.885148 -7.3186417 -0.52456504
6.9400973 -8.6305542 0
6.9092436 -8.592185 0.61584646
1.7186339 -2.1293414 -0.90227073
1.994167 -2.4707193 -0.87599623
2.3852239 -2.9552283 -0.84130782
2.987473 -3.7013991 -0.79299498
4.2832499 -5.3068314 -0.76013488
5.8935051 -7.3018951 -0.52412945
6.9540892 -8.6159306 0
6.9166465 -8.56954 0.61512089
1.7414147 -2.1522398 -0.91286451
2.0129282 -2.4878075 -0.88291651
2.3951859 -2.9602454 -0.84355938
2.9984021 -3.7057691 -0.79470688
4.3010426 -5.3157215 -0.76215208
5.8925204 -7.2826524 -0.52325892
6.9546762 -8.5953865 0
6.9171863 -8.5490522 0.61424977
1.7253362 -2.1271069 -0.90308803
2.0080323 -2.4756331 -0.87945634
2.4003601 -2.9593205 -0.84412169
3.0012622 -3.7001517 -0.79427934
4.2993174 -5.3004789 -0.7607109
5.8996739 -7.2735033 -0.52311331
6.9617748 -8.5829306 0
6.9225988 -8.5346317 0.61381423
1.7247835 -2.1211817 -0.90145653
1.9999415 -2.4595778 -0.87461054
2.3927176 -2.9426236 -0.84018314
3.0105848 -3.702492 -0.79556197
4.3057189 -5.29528 -0.7607109
0 -0 -0
6.9737873 -8.5765371 0
6.9345503 -8.5282822 0.61395979
1.7054857 -2.092279 -0.89004862
2.0203495 -2.4785516 -0.88222498
2.3978753 -2.9416981 -0.84074545
3.0020809 -3.6829333 -0.79213822
4.3186507 -5.2980928 -0.76186407
0 -0 -0
6.9792109 -8.5620508 0
6.9399233 -8.5138531 0.6135242
1.7330354 -2.1208389 -0.90308803
2.020165 -2.4722197 -0.88083935
2.3998218 -2.9368329 -0.84018314
3.0211525 -3.6971993 -0.79599118
4.3168678 -5.2828584 -0.76042289
0 -0 -0
6.981319 -8.5435371 0
6.9419861 -8.4954023 0.61279863
1.7590858 -2.1474175 -0.9153102
2.0183859 -2.4639602 -0.87876487
2.4049773 -2.9358947 -0.84074545
3.0142288 -3.6796434 -0.79299498
4.3265228 -5.2816362 -0.7609989
0 -0 -0
6.9866881 -8.5290537 0
6.9538913 -8.4890165 0.61294365
1.7334484 -2.1109123 -0.9006424
2.0229521 -2.4634566 -0.87945634
2.4053011 -2.9290631 -0.83962077
3.0219278 -3.6799624 -0.79385012
4.3378277 -5.2824035 -0.76186407
5.9204259 -7.2096176 -0.52108169
6.9920321 -8.5145693 0
6.9558997 -8.4705696 0.61221808
1.7375671 -2.1107228 -0.90145653
2.0131714 -2.4455152 -0.87391907
2.415298 -2.9340014 -0.84187233
3.0328984 -3.684236 -0.79556197
4.3442068 -5.2771583 -0.76186407
5.9241767 -7.1964383 -0.5206461
7.003974 -8.5081301 0
6.9595237 -8.454134 0.61163753
1.7243876 -2.0895622 -0.89330846
2.0177202 -2.445014 -0.87461054
2.4107504 -2.9212763 -0.83905625
3.030812 -3.6726489 -0.79385012
4.3505802 -5.2719049 -0.76186407
5.9312158 -7.1872725 -0.52050108
7.0076232 -8.4916315 0
6.9680815 -8.443716 0.61149251
1.7521186 -2.1179476 -0.90634793
2.0222707 -2.4445055 -0.87530208
2.4207571 -2.9261925 -0.84130782
3.040158 -3.6749198 -0.79513443
4.3585944 -5.2686353 -0.76215208
5.9316158 -7.1700916 -0.51977557
7.0162153 -8.4811468 0
6.9782791 -8.4352903 0.61149251
1.7720273 -2.1367509 -0.9153102
2.0396347 -2.4594381 -0.88153082
2.4226706 -2.9213114 -0.84074545
3.0478768 -3.6751995 -0.79599118
4.3633075 -5.2613759 -0.76186407
5.9386182 -7.1609211 -0.51963055
7.0115075 -8.4546356 0
6.9834886 -8.4208498 0.61105698
1.7667091 -2.125107 -0.91123617
2.031383 -2.4434733 -0.87668771
2.4229531 -2.9144781 -0.83962077
3.0441053 -3.6616383 -0.79385012
4.3713136 -5.2580872 -0.76215208
5.9472661 -7.1537404 -0.51963055
7.0233803 -8.4481573 0
6.9903393 -8.4084129 0.61076701
1.7629461 -2.1153762 -0.90797627
2.0375431 -2.4448676 -0.87807071
2.4232163 -2.9076407 -0.83849394
3.0501757 -3.6599352 -0.79427934
4.3760095 -5.2508163 -0.76186407
5.9459214 -7.1345682 -0.51875943
7.0335832 -8.4396648 0
6.995502 -8.3939705 0.61033142
1.7563078 -2.1048238 -0.90390223
2.0309849 -2.4340069 -0.87461054
2.4282315 -2.9100816 -0.83962077
3.0540292 -3.6600609 -0.79470688
4.3808365 -5.2501554 -0.76215208
5.9502306 -7.1309748 -0.51875943
6.3034143 -7.5542431 0
6.9989085 -8.3877497 0.6101864
1.7556752 -2.0989048 -0.90227073
2.029094 -2.4257762 -0.87253338
2.4350033 -2.9110398 -0.84074545
3.0617404 -3.6603024 -0.79556197
4.3904996 -5.2488298 -0.76272923
5.9621801 -7.1277699 -0.51905
6.3325748 -7.5705757 0
7.0023699 -8.371314 0.60960585
1.7359799 -2.070271 -0.89086282
2.0497565 -2.4444706 -0.88014787
2.4352567 -2.9042051 -0.83962077
3.0628653 -3.6526699 -0.79470688
4.3935113 -5.2395535 -0.76215208
5.9607677 -7.1086102 -0.51817888
6.3166332 -7.5330038 0
7.0074697 -8.3568716 0.60917032
1.765515 -2.1003337 -0.90471643
2.0446389 -2.4323919 -0.87668771
2.4371245 -2.8993099 -0.83905625
3.0738838 -3.6568265 -0.79641873
4.3998394 -5.234241 -0.76215208
5.9676824 -7.0994158 -0.51803386
6.3073153 -7.503458 0
6.310348 -7.5070658 0.5477795
1.763272 -2.0925269 -0.90227073
2.0443401 -2.4260788 -0.87530208
2.4439037 -2.9002528 -0.84018314
3.0733359 -3.6472185 -0.79513443
4.4061604 -5.2289209 -0.76215208
5.9762564 -7.0921998 -0.51803386
6.3079939 -7.4858823 0
6.3462048 -7.5312285 0.55010176
1.7769653 -2.1036136 -0.90797627
2.0456529 -2.4216921 -0.87461054
2.444124 -2.8934119 -0.83905625
3.0760858 -3.6415431 -0.79470688
4.4108081 -5.2216191 -0.76186407
5.9797893 -7.0790162 -0.51759833
6.3119946 -7.4722886 0
0 -0 0
1.7699255 -2.0901513 -0.90308803
2.0566821 -2.4287896 -0.87807071
2.4525459 -2.8962755 -0.84074545
3.0887766 -3.6476171 -0.79684627
4.4221301 -5.222209 -0.76272923
5.986661 -7.0698047 -0.51745331
6.324379 -7.4686246 0
6.3442359 -7.492074 0.54836005
1.7692477 -2.084239 -0.90145653
2.0709817 -2.4396927 -0.88291651
2.4511089 -2.8874969 -0.83905625
3.0881963 -3.6380093 -0.79556197
4.4317813 -5.2208018 -0.76330525
5.9935193 -7.0605869 -0.51730829
6.328351 -7.4550309 0
6.3213325 -7.4467626 0.54560226
1.7445362 -2.050102 -0.88760293
2.0641761 -2.4257286 -0.87876487
2.4578927 -2.888407 -0.84018314
3.0942583 -3.6362357 -0.79599118
4.4380865 -5.2154431 -0.76330525
5.9953103 -7.045424 -0.51672775
6.3424091 -7.4533195 0
0 -0 0
1.7662606 -2.0705571 -0.8973825
2.0784979 -2.4365878 -0.88360798
2.4630284 -2.8873663 -0.84074545
3.0969789 -3.6305356 -0.79556197
4.442708 -5.2081108 -0.76301724
6.003819 -7.0381746 -0.51672775
6.3564792 -7.4515924 0
6.2853527 -7.3682117 0.5409584
1.821768 -2.1304088 -0.92427558
2.0732899 -2.4245429 -0.88014787
2.4632158 -2.8805296 -0.83962077
3.1047034 -3.6306965 -0.79641873
4.4473186 -5.2007751 -0.76272923
6.0055637 -7.0230155 -0.5161472
6.3604026 -7.4379706 0
6.2841153 -7.3487587 0.54008728
1.7953833 -2.0944252 -0.90960467
2.0843801 -2.4315577 -0.88360798
2.4683468 -2.8794785 -0.84018314
3.1057434 -3.6230409 -0.79556197
4.4552808 -5.1973596 -0.76301724
6.0157347 -7.017725 -0.51629221
6.372776 -7.4342356 0
6.2862258 -7.3332691 0.53950673
1.7592585 -2.0472717 -0.89004862
2.0726027 -2.4119143 -0.87737918
2.4718242 -2.8764937 -0.84018314
3.106776 -3.6153953 -0.79470688
4.4632421 -5.1939321 -0.76330525
6.017436 -7.0025678 -0.51571167
6.3647957 -7.406795 0
6.2984724 -7.3296132 0.53979725
1.7810884 -2.067616 -0.8998282
2.0787933 -2.4132135 -0.87876487
2.4752982 -2.8735049 -0.84018314
3.1178439 -3.6194186 -0.79641873
4.4712071 -5.1905007 -0.76359439
6.0225043 -6.9913583 -0.51542163
7.1210604 -8.2666416 0
6.3039289 -7.3180561 0.53950673
1.7803514 -2.0617175 -0.8981967
2.0751491 -2.4031048 -0.87599623
2.4737849 -2.8647408 -0.83849394
3.122215 -3.6156485 -0.79641873
4.4774756 -5.1850944 -0.76359439
6.0292506 -6.982111 -0.51527667
7.1225343 -8.2481766 0
6.3127666 -7.3104339 0.53950673
1.7715225 -2.0464892 -0.89249432
2.081332 -2.4043856 -0.87737918
2.482235 -2.8675148 -0.84018314
3.1299386 -3.6157515 -0.79727387
4.4837379 -5.1796803 -0.76359439
6.0308805 -6.9669623 -0.51469606
7.1239805 -8.2297277 0
6.3283982 -7.3106594 0.54008728
1.7711352 -2.0435455 -0.89167696
2.0860736 -2.4069231 -0.87876487
2.4806356 -2.8621707 -0.83905625
3.1304429 -3.6119218 -0.79684627
4.4885588 -5.1789231 -0.7638824
6.0350885 -6.9633174 -0.51469606
7.1306543 -8.2273874 0
6.341321 -7.3166509 0.54081285
1.8108882 -2.0843186 -0.91042197
2.0807486 -2.3949261 -0.87530208
2.4824271 -2.857255 -0.83849394
3.1297522 -3.6023211 -0.79556197
4.494813 -5.1734958 -0.7638824
6.0383835 -6.9501338 -0.51426053
7.1269417 -8.2030563 0
6.3706079 -7.3325214 0.5425545
1.8069122 -2.0746737 -0.90716213
2.0852933 -2.3943074 -0.87599623
2.4892187 -2.8580892 -0.83962077
3.1341026 -3.598537 -0.79556197
4.501061 -5.1680608 -0.7638824
6.0450721 -6.9408751 -0.51411551
6.5010443 -7.4644165 0
6.3862896 -7.3326564 0.54313505
1.8191677 -2.0836563 -0.91205031
2.0931301 -2.39745 -0.87807071
2.4909945 -2.8531599 -0.83905625
3.1401417 -3.5966866 -0.79599118
4.5090017 -5.1645651 -0.76417041
6.0517468 -6.9316101 -0.51397055
6.5288815 -7.4781156 0
6.4019804 -7.3327641 0.5437156
1.8005246 -2.0572801 -0.90145653
2.0976825 -2.3968124 -0.87876487
2.4944401 -2.850148 -0.83905625
3.1411006 -3.5890226 -0.79513443
4.5186486 -5.1630096 -0.76474756
6.0566921 -6.9203782 -0.51367998
6.5344882 -7.4663081 0
6.4074168 -7.3211164 0.54342562
1.8160492 -2.0699663 -0.90797627
2.0989177 -2.3923848 -0.87807071
2.4978821 -2.8471317 -0.83905625
3.1505156 -3.5910156 -0.79641873
4.526588 -5.1594882 -0.76503557
6.059907 -6.9071932 -0.51324439
6.534925 -7.448627 0
6.4179702 -7.31532 0.54357064
1.7957006 -2.0417907 -0.89656836
2.0968411 -2.3842008 -0.87599623
2.5013204 -2.8441114 -0.83905625
3.1565461 -3.5891318 -0.79684627
4.5276933 -5.1481862 -0.76417041
6.0682487 -6.8998656 -0.51324439
6.5507884 -7.448535 0
6.4268045 -7.30756 0.54357064
1.8047044 -2.0470352 -0.8998282
2.1030354 -2.3854256 -0.87737918
2.4997189 -2.8353746 -0.83736926
3.1608806 -3.5853152 -0.79684627
4.5424609 -5.1524105 -0.76561159
6.0697079 -6.8847318 -0.51266384
6.5494609 -7.428905 0
6.4631238 -7.3309751 0.54589283
1.8022647 -2.0392954 -0.8973825
2.1175473 -2.3960433 -0.88222498
2.5149167 -2.845674 -0.84130782
3.168607 -3.5853367 -0.79770142
4.541832 -5.1391659 -0.76445842
6.078022 -6.8773928 -0.51266384
6.5739417 -7.4385347 0
6.4960642 -7.3504152 0.54792452
1.837507 -2.0741167 -0.91368181
2.110456 -2.3822124 -0.87807071
2.5116136 -2.8350258 -0.83905625
3.1712363 -3.5795858 -0.79727387
4.5497584 -5.1356158 -0.76474756
6.077714 -6.860321 -0.51193827
6.5846486 -7.4325323 0
6.5187259 -7.3581204 0.54908562
1.8203173 -2.0497184 -0.90390223
2.1033409 -2.3684092 -0.87391907
2.5201006 -2.8376901 -0.84074545
3.175559 -3.5757513 -0.79727387
4.5490909 -5.1223788 -0.76359439
6.085999 -6.852972 -0.51193827
6.5988107 -7.4304099 0
6.5224338 -7.344408 0.54865009
1.8178607 -2.0419774 -0.90145653
2.1195462 -2.3808565 -0.87945634
2.5167696 -2.8270519 -0.83849394
3.1781721 -3.5699961 -0.79684627
4.5621562 -5.1246061 -0.76474756
6.0925488 -6.8436742 -0.51179332
6.6095133 -7.4243731 0
6.5468521 -7.3539867 0.5499562
1.8104559 -2.0287185 -0.89656836
2.1174085 -2.3726766 -0.87737918
2.5269508 -2.8315918 -0.84074545
3.1807759 -3.56424 -0.79641873
4.5803952 -5.1325927 -0.76676476
6.0990849 -6.8343711 -0.5116483
6.6150169 -7.4125018 0
6.5764947 -7.3693352 0.55169785
1.8277354 -2.0431066 -0.90390223
2.1169319 -2.3663802 -0.87599623
2.5202091 -2.8171778 -0.83736926
3.1902099 -3.566128 -0.79770142
4.5762496 -5.1154919 -0.76503557
6.1038704 -6.8231196 -0.51135772
6.6083536 -7.3870487 0
6.6009846 -7.3788114 0.55300397
1.8318514 -2.0427349 -0.90471643
2.1130898 -2.3563497 -0.8732276
2.5236113 -2.8141305 -0.83736926
3.1945167 -3.5622706 -0.79770142
4.589335 -5.117661 -0.76618874
6.1069107 -6.8099413 -0.51092273
7.2132101 -8.0435982 0
6.6203079 -7.3824406 0.55387509
1.8326675 -2.0386837 -0.90390223
2.1125779 -2.3500597 -0.87184191
2.5304039 -2.8148549 -0.83849394
3.1988187 -3.5584083 -0.79770142
4.5972428 -5.1140337 -0.76647675
6.1099219 -6.7967582 -0.5104872
7.2229242 -8.0348768 0
6.6413784 -7.3879576 0.55489063
1.8185806 -2.0181031 -0.895751
2.1389248 -2.3735936 -0.88153082
2.5389078 -2.8174598 -0.84018314
3.1979654 -3.548825 -0.79641873
4.6016889 -5.1065555 -0.76618874
6.1181297 -6.7893705 -0.5104872
0 -0 0
6.664216 -7.3953695 0.55605179
1.8049001 -2.00049 -0.88841712
2.1168337 -2.3462269 -0.87184191
2.5338011 -2.8083792 -0.83793157
3.2018268 -3.5487964 -0.79684627
4.6030421 -5.1018558 -0.76590073
6.1170068 -6.7798834 -0.51005161
7.2130713 -7.9947238 0
7.1525593 -7.9276543 0.59639859
1.8222353 -2.0148039 -0.895751
2.1364987 -2.3622775 -0.87876487
2.5354898 -2.8034329 -0.83736926
3.2130003 -3.5525405 -0.79855818
4.6109366 -5.0982065 -0.76618874
6.1217122 -6.7686362 -0.50976163
7.2174873 -7.9802103 0
7.1865311 -7.9459825 0.59843028
1.8429313 -2.0327442 -0.90471643
2.1376615 -2.3578303 -0.87807071
2.5491121 -2.8116581 -0.84074545
3.2086709 -3.5391483 -0.79641873
4.6153579 -5.0907173 -0.76590073
6.1298862 -6.7612348 -0.50976163
7.2236252 -7.9676237 0
7.1961269 -7.9372931 0.59843028
1.8403976 -2.0250268 -0.90227073
2.1354518 -2.3496811 -0.87599623
2.5422573 -2.7972975 -0.83736926
3.212945 -3.5352688 -0.79641873
4.6232433 -5.087049 -0.76618874
6.1345525 -6.7499733 -0.50947106
7.2367516 -7.9627452 0
7.2057123 -7.9285922 0.59843028
1.8561593 -2.0374184 -0.90879047
2.1416652 -2.3508048 -0.87737918
2.5439193 -2.7923398 -0.83680475
3.2137535 -3.527585 -0.79556197
4.6311269 -5.0833693 -0.76647675
6.133956 -6.7329535 -0.50874549
7.2446165 -7.9520731 0
7.211791 -7.9160419 0.59814024
1.8436208 -2.0187502 -0.90145653
2.1225126 -2.3241346 -0.8683818
2.5490098 -2.7911456 -0.83736926
3.2284033 -3.5350764 -0.79813063
4.6407509 -5.0815859 -0.76705277
6.149096 -6.733212 -0.50932604
7.2489533 -7.9375463 0
7.2143416 -7.8996472 0.59755969
1.8327072 -2.0019367 -0.89493686
2.1388714 -2.3363717 -0.87391907
2.5540946 -2.7899358 -0.83793157
3.2292023 -3.5273821 -0.79727387
4.6468878 -5.0759745 -0.76705277
6.1484561 -6.7161956 -0.50860053
7.2585387 -7.9287815 0
7.2221284 -7.8890095 0.59741473
1.8685476 -2.0361414 -0.91123617
2.1586523 -2.3522661 -0.88083935
2.5608964 -2.7905884 -0.83905625
3.2386708 -3.5291536 -0.79855818
4.6565185 -5.0741711 -0.76762992
6.1548119 -6.7068491 -0.50845551
7.2593174 -7.9104199 0
7.224628 -7.8726192 0.59683418
1.8676566 -2.0302405 -0.90960467
2.1513052 -2.3385816 -0.87668771
2.5625479 -2.7856238 -0.83849394
3.2446692 -3.5271254 -0.79898572
4.6608968 -5.0666389 -0.76734191
6.1505952 -6.6860189 -0.50743937
0 -0 0
7.2323775 -7.8619733 0.59668916
1.8583845 -2.0152688 -0.90390223
2.1507246 -2.3322883 -0.87530208
2.5607426 -2.7769198 -0.83680475
3.2489285 -3.5232022 -0.79898572
4.6722708 -5.0667024 -0.76820594
6.1745214 -6.6957726 -0.50874549
7.2748804 -7.8890238 0
7.2401056 -7.8513131 0.59654361
1.882627 -2.0366144 -0.914496
2.1552491 -2.3315353 -0.87599623
2.5709953 -2.781287 -0.83905625
3.2497015 -3.5155075 -0.79813063
4.6731277 -5.0553608 -0.76734191
6.1649723 -6.6692295 -0.50729442
7.2808781 -7.8764095 0
7.2443004 -7.8368402 0.59610862
1.8582078 -2.0053313 -0.90145653
2.1444232 -2.314208 -0.8704589
2.5639951 -2.7669995 -0.83568007
3.2609262 -3.51911 -0.79984248
4.6792326 -5.0497108 -0.76734191
6.1482973 -6.6350884 -0.50526214
7.2886224 -7.8656988 0
7.2537646 -7.8280811 0.59610862
1.8808148 -2.0248153 -0.91123617
2.1659946 -2.3318293 -0.87807071
2.5759814 -2.773206 -0.83849394
3.2546902 -3.5038786 -0.79727387
4.688848 -5.0478392 -0.76791793
6.1810713 -6.6543117 -0.50729442
7.2892604 -7.8473468 0
7.256144 -7.8116956 0.59552807
1.8815774 -2.0207341 -0.91042197
2.1500096 -2.3090191 -0.8704589
2.5758708 -2.7663758 -0.83736926
3.2641714 -3.5055814 -0.79855818
4.698472 -5.0459595 -0.76849508
6.1643133 -6.6202111 -0.50526214
7.298737 -7.8385334 0
7.2567191 -7.7934079 0.5948019
1.8840176 -2.0184591 -0.91042197
2.1767604 -2.3320918 -0.88014787
2.5809436 -2.7651169 -0.83793157
3.2666547 -3.4997599 -0.79813063
4.7010326 -5.0364933 -0.76791793
6.1758575 -6.6165605 -0.50555271
7.3046546 -7.8259072 0
7.2608166 -7.7789407 0.59436691
1.8357985 -1.962041 -0.88597459
2.1607206 -2.3093071 -0.87253338
2.5912268 -2.769418 -0.84018314
3.2761378 -3.5014284 -0.79941326
4.7088804 -5.0326962 -0.76820594
6.1838479 -6.6090932 -0.50555271
7.3123293 -7.815177 0
7.2666564 -7.7663636 0.59407634
1.8545773 -1.9749243 -0.89330846
2.1923804 -2.3346481 -0.88360798
2.5858023 -2.7535999 -0.83680475
3.2824786 -3.4954846 -0.79941326
4.7233076 -5.0298119 -0.7690711
6.1887016 -6.5902977 -0.50497216
7.3193555 -7.794322 0
7.2771668 -7.7493954 0.59378636
1.8772916 -1.9942781 -0.90308803
2.1625328 -2.2972946 -0.8704589
2.5908744 -2.7523289 -0.83736926
3.2761459 -3.4803042 -0.79684627
4.7347021 -5.0297527 -0.76993626
6.1984396 -6.5847054 -0.50511718
7.3216329 -7.7778926 0
7.2829595 -7.7368093 0.59349579
1.8881797 -2.0009947 -0.90716213
2.1687472 -2.2983258 -0.87184191
2.5959404 -2.7510426 -0.83793157
3.2926831 -3.4894145 -0.79984248
4.7407761 -5.0240278 -0.76993626
6.2081728 -6.5790992 -0.50526214
7.3292413 -7.767149 0
7.2905211 -7.7261152 0.59335083
1.8838023 -1.9915295 -0.90390223
2.1663492 -2.2902341 -0.86976475
2.6045024 -2.7534435 -0.83962077
3.2916031 -3.4798367 -0.79855818
4.7468429 -5.0182962 -0.76993626
6.2000489 -6.554605 -0.50395602
7.3314672 -7.7507248 0
7.2891407 -7.7059779 0.59248024
1.8709034 -1.9731117 -0.89656836
2.2001896 -2.3203871 -0.88222498
2.6025808 -2.7447612 -0.83793157
3.2887402 -3.4684057 -0.79684627
4.7564592 -5.0163069 -0.77051228
6.2115436 -6.5508838 -0.50424659
7.3461943 -7.7475204 0
7.3002329 -7.6990485 0.59262526
1.898823 -1.9977165 -0.90879047
2.182251 -2.2959061 -0.87391907
2.6006422 -2.7360876 -0.83624238
3.3035367 -3.4755898 -0.79941326
4.7589564 -5.0068102 -0.76993626
6.2033448 -6.5264244 -0.50294048
7.3465872 -7.7292085 0
7.3077421 -7.6883402 0.59248024
1.8654332 -1.9578449 -0.89167696
2.2144418 -2.3241432 -0.88568515
2.6056974 -2.734781 -0.83680475
3.3059647 -3.469739 -0.79898572
4.7650027 -5.0010562 -0.76993626
6.2219772 -6.5302081 -0.50381106
7.3487401 -7.7127891 0
7.3116474 -7.6738591 0.59204471
1.8473122 -1.9341413 -0.88189739
2.1981864 -2.3015075 -0.87807071
2.6125133 -2.7353091 -0.83793157
3.3101547 -3.4657416 -0.79898572
4.7781878 -5.0027766 -0.77108943
6.2226844 -6.5151687 -0.50323051
7.3580542 -7.7039042 0
7.3245006 -7.6687732 0.59233469
1.8838332 -1.9676135 -0.8981967
2.1957657 -2.2934186 -0.87599623
2.6228452 -2.7394917 -0.84018314
3.3161137 -3.4635921 -0.79941326
4.7788615 -4.9913931 -0.77022427
6.2269616 -6.5038953 -0.50294048
7.3565621 -7.6837325 0
7.3283753 -7.6542921 0.59189969
1.9084562 -1.9885159 -0.90879047
2.1967931 -2.2889485 -0.87530208
2.6173582 -2.7271562 -0.83736926
3.3274064 -3.4669909 -0.80112517
4.7848892 -4.9856148 -0.77022427
6.2258143 -6.4869871 -0.50221437
7.3622332 -7.6710787 0
7.3304219 -7.6379328 0.59131914
1.893725 -1.9684004 -0.9006424
2.2013016 -2.2881057 -0.87599623
2.6276979 -2.7313161 -0.83962077
3.3262589 -3.4574234 -0.79984248
4.7962909 -4.9854236 -0.77108943
6.2462606 -6.4925694 -0.50323051
7.3733063 -7.6640582 0
7.3360391 -7.6253214 0.59102857
1.9098279 -1.9803433 -0.90716213
2.2040648 -2.285444 -0.87599623
2.6327584 -2.7299662 -0.84018314
3.3322144 -3.4552479 -0.80027002
4.8023114 -4.9796243 -0.77108943
6.2342577 -6.4644413 -0.50163382
7.3753352 -7.6476502 0
7.3416433 -7.6127143 0.59073859
1.9122194 -1.9780343 -0.90716213
2.2033339 -2.2791684 -0.87461054
2.636055 -2.726783 -0.84018314
3.3470891 -3.4622891 -0.80283701
4.8137131 -4.9793916 -0.77195346
6.2565126 -6.4718494 -0.50279492
7.3773351 -7.6312485 0
7.3472209 -7.6000977 0.59044802
1.8853693 -1.9455502 -0.89330846
2.2130697 -2.2837107 -0.87737918
2.6340415 -2.7181201 -0.83849394
3.3423395 -3.4490268 -0.80069757
4.8179278 -4.9717159 -0.77166545
6.2498612 -6.4493566 -0.50163382
7.382925 -7.6185875 0
7.3527856 -7.5874863 0.59015805
1.9032166 -1.9592246 -0.9006424
2.2070889 -2.2720394 -0.87391907
2.6355553 -2.7131145 -0.83793157
3.3429306 -3.4413066 -0.79984248
4.8221312 -4.9640369 -0.77137744
6.2540321 -6.438076 -0.50134379
7.3903136 -7.6077962 0
7.3565149 -7.5730028 0.58972245
1.8797163 -1.9303603 -0.88841712
2.2098327 -2.2693708 -0.87391907
2.6352828 -2.7062836 -0.83680475
3.3578281 -3.4482961 -0.80240947
4.8299284 -4.9600582 -0.77166545
6.2654285 -6.4342346 -0.50163382
7.394052 -7.5932655 0
7.3656597 -7.5641084 0.58972245
1.8791585 -1.9274564 -0.88760293
2.2182086 -2.2752206 -0.87668771
2.6351452 -2.7028735 -0.83624238
3.359911 -3.4462669 -0.80240947
4.8329239 -4.9571395 -0.77166545
6.2566228 -6.4174294 -0.50061828
7.3950081 -7.5850735 0
7.3666039 -7.5559397 0.58943248
1.9384923 -1.9835147 -0.914496
2.2279701 -2.2797155 -0.87945634
2.6543911 -2.7160404 -0.84130782
3.3515112 -3.4293516 -0.79941326
4.8461413 -4.9586949 -0.77281862
6.262558 -6.4080086 -0.50047326
7.4023438 -7.574266 0
7.3757286 -7.5470328 0.58943248
1.9062947 -1.9458599 -0.8981967
2.2237003 -2.2698536 -0.87668771
2.657671 -2.712831 -0.84130782
3.3574541 -3.4271383 -0.79984248
4.8557529 -4.9565349 -0.77339578
6.2702961 -6.4004364 -0.50047326
7.4151363 -7.5690379 0
7.3793855 -7.5325451 0.58899689
1.9121113 -1.9470854 -0.8998282
2.2264414 -2.2671649 -0.87668771
2.6609468 -2.7096179 -0.84130782
3.3633897 -3.4249089 -0.80027002
4.8544893 -4.9432821 -0.77224261
6.2889457 -6.4039755 -0.50134379
7.4115105 -7.5470729 0
7.383018 -7.5180593 0.58856136
1.9196594 -1.9500526 -0.90227073
2.2326958 -2.2680452 -0.87807071
2.6588767 -2.7009735 -0.83962077
3.3657262 -3.4190147 -0.79984248
4.8677168 -4.9447856 -0.77339578
6.2820959 -6.3815579 -0.50018269
7.4261031 -7.5436778 0
7.3884544 -7.5054331 0.58827132
1.8942443 -1.9195901 -0.88923442
2.2530594 -2.2832065 -0.88499367
2.6639214 -2.6995659 -0.84018314
3.3698552 -3.4149454 -0.79984248
4.8700514 -4.935215 -0.77281862
6.2770243 -6.3610139 -0.49916658
7.4297271 -7.52914 0
7.3975177 -7.4965 0.58827132
1.9295824 -1.9506811 -0.90471643
2.2346451 -2.2590795 -0.87668771
2.6618187 -2.6909239 -0.83849394
3.3775861 -3.4145176 -0.80069757
4.8869281 -4.9403634 -0.77454895
6.2956738 -6.3645124 -0.50003767
7.4278412 -7.5090594 0
7.4029121 -7.4838576 0.58798081
1.9406377 -1.9571217 -0.90879047
2.2462037 -2.2652831 -0.88014787
2.6722245 -2.6949227 -0.84074545
3.3817093 -3.410434 -0.80069757
4.8892484 -4.930778 -0.7739718
6.2978687 -6.3513637 -0.49960214
7.4369092 -7.5000792 0
7.4101214 -7.4730639 0.58783579
1.9325501 -1.9442611 -0.90390223
2.2613211 -2.2750244 -0.88499367
2.6808543 -2.6970999 -0.84243464
3.3840199 -3.4045265 -0.80027002
4.8970242 -4.9266992 -0.77425981
6.2927141 -6.3308468 -0.49858603
7.4422932 -7.4873924 0
7.4136486 -7.4585743 0.5874002
1.9366407 -1.9436737 -0.90471643
2.2463574 -2.2545152 -0.87807071
2.6787293 -2.6884573 -0.84074545
3.3935685 -3.4058921 -0.80155432
4.9066281 -4.9244466 -0.77483696
6.2966943 -6.319561 -0.49829602
7.442152 -7.4691782 0
7.4189911 -7.4459329 0.58711022
1.9459745 -1.9483272 -0.90797627
2.2473087 -2.2500257 -0.87737918
2.6712058 -2.6744354 -0.83736926
3.3994937 -3.4036038 -0.80198193
4.9162269 -4.9221711 -0.77541298
6.3079948 -6.3156214 -0.49858603
7.458528 -7.467546 0
7.4206376 -7.4296093 0.58652967
1.9728062 -1.9704239 -0.91938424
2.2393789 -2.2366748 -0.8732276
2.6852186 -2.6819758 -0.84074545
3.4036038 -3.3994937 -0.80198193
4.9148507 -4.908916 -0.77425981
6.3119478 -6.3043261 -0.49829602
7.4601803 -7.4511714 0
7.4259357 -7.4169683 0.5862397
1.9454229 -1.9383836 -0.90553063
2.2243047 -2.2162564 -0.86630464
2.6866589 -2.6769376 -0.84018314
3.400435 -3.3881309 -0.80027002
4.9262772 -4.908452 -0.77512497
6.3232388 -6.3003592 -0.49858603
7.4673362 -7.4403167 0
7.4330463 -7.4061508 0.58609408
1.9582847 -1.9464893 -0.91042197
2.2572277 -2.2436316 -0.87807071
2.6916919 -2.6754789 -0.84074545
3.4099901 -3.3894506 -0.80155432
4.9322042 -4.9024959 -0.77512497
6.3197927 -6.2817268 -0.49771547
7.4707818 -7.4257827 0
7.4383073 -7.3935041 0.5858041
1.9799359 -1.9632598 -0.91938424
2.2617238 -2.2426741 -0.87876487
2.6786861 -2.6561246 -0.83568007
3.4195466 -3.3907452 -0.80283701
4.9399595 -4.8983521 -0.77541298
6.3310723 -6.2777486 -0.49800602
7.4779029 -7.4149199 0
7.443542 -7.3808479 0.58551353
1.9840689 -1.9626092 -0.92020154
2.2876167 -2.2628739 -0.88776231
2.6836982 -2.6546712 -0.83624238
3.4163408 -3.3793895 -0.80112517
4.9477186 -4.8942041 -0.77570212
6.3349547 -6.2664356 -0.49771547
7.475759 -7.3949008 0
7.4487638 -7.3681974 0.58522356
1.9653277 -1.9393779 -0.91042197
2.2403493 -2.2107682 -0.8683818
2.686904 -2.6514266 -0.83624238
3.4240797 -3.3788688 -0.80198193
4.9591465 -4.8936667 -0.77656615
0 -0 -0
7.4865394 -7.3876886 0
7.4595089 -7.3610153 0.58536857
1.9154516 -1.8878776 -0.88678873
2.2631259 -2.230547 -0.87668771
2.697552 -2.6587191 -0.83905625
3.4206338 -3.3713918 -0.80069757
4.9565811 -4.8852282 -0.77570212
0 -0 -0
7.4891496 -7.3813396 0
7.4621058 -7.3546848 0.58522356
1.972361 -1.939275 -0.91205031
2.247927 -2.2102184 -0.86976475
2.7043896 -2.659024 -0.84018314
3.4301982 -3.3726573 -0.80198193
4.9698505 -4.8864822 -0.77685416
0 -0 -0
7.494348 -7.3686318 0
7.4709873 -7.3456631 0.58522356
1.9517659 -1.9143927 -0.90145653
2.2541814 -2.2110174 -0.87115043
2.7076006 -2.6557543 -0.84018314
3.4379325 -3.3721018 -0.80283701
4.9757514 -4.8804736 -0.77685416
6.3669662 -6.2450495 -0.49815103
7.5032463 -7.359571 0
7.4761438 -7.3329878 0.58493298
2.008837 -1.9656141 -0.92671812
2.2604342 -2.211798 -0.87253338
2.6999073 -2.6418152 -0.83680475
3.4420047 -3.3679452 -0.80283701
4.977951 -4.8708434 -0.77627814
6.3652229 -6.2282667 -0.49742547
7.5009761 -7.3395824 0
7.481288 -7.3203177 0.58464301
1.967002 -1.9200325 -0.90634793
2.2613115 -2.2073143 -0.87184191
2.7140105 -2.6492033 -0.84018314
3.4534197 -3.3709562 -0.80454886
4.9912362 -4.8720517 -0.77743131
6.3727441 -6.220571 -0.49742547
7.5116997 -7.3323298 0
7.4864054 -7.3076391 0.58435243
1.9958769 -1.943514 -0.91857004
2.2837498 -2.2238345 -0.87945634
2.7153909 -2.6441512 -0.83962077
3.4427769 -3.3524537 -0.80112517
5.0008221 -4.8696227 -0.77800733
6.3802557 -6.2128663 -0.49742547
7.5168281 -7.3196201 0
7.4915099 -7.2949662 0.58406246
1.9609958 -1.9049371 -0.90145653
2.2612388 -2.1965973 -0.86976475
2.7185838 -2.6408682 -0.83962077
3.4486718 -3.3500853 -0.80155432
5.004849 -4.8617764 -0.77771932
6.382165 -6.199719 -0.49698991
7.5219302 -7.3069019 0
7.4928637 -7.2786665 0.58348191
1.9224778 -1.8630106 -0.88271469
2.2747045 -2.2043421 -0.87391907
2.7235959 -2.639348 -0.84018314
3.4545588 -3.3477006 -0.80198193
5.0088644 -4.8539271 -0.77743131
6.3896513 -6.1920028 -0.49698991
7.5326204 -7.2996173 0
7.4997888 -7.2678008 0.58333689
1.9958009 -1.9293948 -0.9153102
2.2917962 -2.2155416 -0.87945634
2.7194757 -2.6289909 -0.83793157
3.4641402 -3.3488784 -0.80326623
5.0184412 -4.8514633 -0.77800733
6.3933887 -6.1806622 -0.49669936
7.5320816 -7.2814674 0
7.5048251 -7.2551179 0.58304632
2.0283732 -1.9561477 -0.92916381
2.2691865 -2.188386 -0.86976475
2.7281389 -2.6309962 -0.83962077
3.4718761 -3.3482506 -0.80412132
5.0224395 -4.8436022 -0.77771932
6.4008522 -6.1729326 -0.49669936
7.5427456 -7.2741661 0
7.5042357 -7.2370276 0.58232075
1.9523717 -1.8783045 -0.89330846
2.291718 -2.204777 -0.87737918
2.7276504 -2.6241713 -0.83849394
3.472223 -3.340497 -0.80326623
5.0301504 -4.8393216 -0.77800733
6.4026937 -6.1597943 -0.49626434
7.5496559 -7.2632442 0
7.5111041 -7.2261548 0.58217579
1.9760385 -1.8964812 -0.90308803
2.2835236 -2.1915867 -0.8732276
2.738152 -2.6279111 -0.84074545
3.4799573 -3.3398507 -0.80412132
5.0359941 -4.83324 -0.77800733
6.4101319 -6.1520538 -0.49626434
7.5584269 -7.2541165 0
7.5235758 -7.2206693 0.58246577
2.0104601 -1.9248557 -0.91775584
2.309726 -2.2113788 -0.88222498
2.737658 -2.6210897 -0.83962077
3.4839904 -3.3356435 -0.80412132
5.0493035 -4.8343062 -0.7791605
6.4138036 -6.1407065 -0.4959738
7.5596671 -7.2377796 0
7.5172801 -7.197197 0.58130467
1.9859726 -1.8968167 -0.90553063
2.3087645 -2.2051175 -0.88083935
2.7444947 -2.6212864 -0.84074545
3.4805927 -3.3243392 -0.80240947
5.0457911 -4.8192711 -0.77771932
6.4137025 -6.125773 -0.49539325
7.5646467 -7.2250481 0
7.5297327 -7.1917014 0.58159518
2.0097361 -1.914875 -0.9153102
2.3077981 -2.1988683 -0.87945634
2.7439842 -2.6144662 -0.83962077
3.4808936 -3.3165929 -0.80155432
5.0591006 -4.8203077 -0.77887249
6.4267449 -6.1233978 -0.49582878
7.5714817 -7.2141023 0
7.5308919 -7.1754284 0.58101463
1.994137 -1.8954207 -0.90716213
2.2995393 -2.1857045 -0.87530208
2.7416146 -2.6058955 -0.83793157
3.4904752 -3.3176851 -0.80283701
5.0630484 -4.8124108 -0.77858448
6.4228425 -6.1048903 -0.49495822
7.5745392 -7.1995745 0
7.5433197 -7.1699004 0.58130467
1.9881119 -1.8874087 -0.90390223
2.3172326 -2.1998589 -0.88153082
2.7634532 -2.6234772 -0.84412169
3.4962058 -3.319114 -0.80369377
5.0678291 -4.81113 -0.77887249
6.4265294 -6.1010089 -0.49495822
7.5769944 -7.1932001 0
7.5457673 -7.1635547 0.58115965
1.9347582 -1.8323179 -0.87863755
2.3053238 -2.1832633 -0.87599623
2.7463331 -2.6009221 -0.83793157
3.4983518 -3.3131235 -0.80326623
5.0698862 -4.8014498 -0.77829647
6.4263501 -6.0860925 -0.49437767
7.5932388 -7.1911974 0
7.5506477 -7.1508617 0.58086967
2.0052383 -1.8944755 -0.90960467
2.3225422 -2.1942525 -0.88153082
2.7624044 -2.6098182 -0.84187233
3.5079451 -3.3141778 -0.80454886
5.0813193 -4.8006439 -0.7791605
6.4355865 -6.0801058 -0.49452266
7.5905757 -7.1712971 0
7.5573959 -7.1399503 0.58072466
2.005729 -1.8903576 -0.90879047
2.3087623 -2.1759601 -0.87530208
2.756305 -2.5977597 -0.83905625
3.5138135 -3.3116956 -0.80497646
5.0890036 -4.7962794 -0.77944964
6.4353642 -6.0651965 -0.49394211
7.5973434 -7.160337 0
7.5641212 -7.1290259 0.5805791
2.0224173 -1.9014769 -0.9153102
2.3260119 -2.1869166 -0.88083935
2.7705526 -2.6048737 -0.84243464
3.5140755 -3.3039341 -0.80412132
5.0947952 -4.7901268 -0.77944964
6.4445796 -6.0591941 -0.49408713
7.6097779 -7.1547136 0
7.5670557 -7.1145463 0.58014411
2.0066893 -1.8821266 -0.90716213
2.314014 -2.1703744 -0.87530208
2.7625747 -2.5910914 -0.83905625
3.5199356 -3.30144 -0.80454886
5.1005797 -4.7839675 -0.77944964
6.4500027 -6.0496268 -0.49394211
7.6089282 -7.1366134 0
7.5699592 -7.1000633 0.57970852
1.9764793 -1.8493078 -0.89249432
2.3386178 -2.1881454 -0.88360798
2.778693 -2.599905 -0.84299701
3.5220494 -3.2954323 -0.80412132
5.1082435 -4.7795663 -0.77973765
6.4535093 -6.0382748 -0.49365157
7.6175461 -7.1274142 0
7.5785327 -7.0909114 0.57970852
2.0166471 -1.8823262 -0.90960467
2.3394277 -2.1836078 -0.88291651
2.7613983 -2.5774727 -0.83680475
3.5279036 -3.2929242 -0.80454886
5.1177926 -4.776917 -0.78031367
6.4627056 -6.0322509 -0.49379712
7.6166415 -7.1093273 0
7.5832925 -7.0781994 0.579418
2.0207341 -1.8815774 -0.91042197
2.3016748 -2.1431711 -0.86769027
2.7663758 -2.5758708 -0.83736926
3.5243649 -3.2816615 -0.80283701
5.1235609 -4.7707295 -0.78031367
6.4604759 -6.0155787 -0.49307099
7.6233234 -7.0983472 0
7.5880399 -7.0654931 0.57912797
1.972301 -1.8320352 -0.88760293
2.329993 -2.1642888 -0.87737918
2.7713461 -2.5742538 -0.83793157
3.5414953 -3.2896318 -0.80583322
5.1312222 -4.7663007 -0.78060281
6.4696493 -6.0095415 -0.49321654
7.6318951 -7.0891309 0
7.5965714 -7.0563197 0.57912797
1.981765 -1.8363705 -0.89086282
2.3583653 -2.1853411 -0.88706815
2.7781785 -2.5743539 -0.83905625
3.5322852 -3.2731349 -0.80283701
5.1407685 -4.7636099 -0.78117883
6.4711862 -5.9964199 -0.49278101
7.6366339 -7.0763631 0
7.605092 -7.0471354 0.57912797
2.0039487 -1.8524312 -0.8998282
2.3646922 -2.185899 -0.88845378
2.7924857 -2.5813472 -0.84243464
3.5437777 -3.2758346 -0.80454886
5.1465206 -4.7573948 -0.78117883
6.4765205 -5.986834 -0.492636
7.6432691 -7.0653653 0
7.6059694 -7.0308857 0.57854742
1.9989176 -1.8433063 -0.89656836
2.3452001 -2.1626315 -0.88014787
2.7806592 -2.5641911 -0.83793157
3.5420773 -3.2663345 -0.80326623
5.1541648 -4.7529244 -0.78146684
6.4799256 -5.9754777 -0.49234545
7.6537123 -7.0578876 0
7.6087265 -7.0164042 0.57811189
2.0611689 -1.8961082 -0.92346144
2.3515007 -2.1631899 -0.88153082
2.7912354 -2.5677102 -0.84018314
3.5497963 -3.2655246 -0.80412132
5.1637149 -4.7501984 -0.78204399
6.489059 -5.969408 -0.49249101
7.6584077 -7.0451136 0
7.6152887 -7.0054479 0.57796687
2.0201707 -1.8493998 -0.90308803
2.3437736 -2.1456475 -0.87668771
2.7974324 -2.5609574 -0.84018314
3.5633597 -3.2621386 -0.80540562
5.1789908 -4.7411957 -0.78262001
6.4957995 -5.9466906 -0.49191046
7.6696501 -7.0213122 0
7.6226144 -6.9782529 0.5772413
2.0030437 -1.8314973 -0.89493686
2.333957 -2.1340704 -0.87253338
2.7933519 -2.5541215 -0.83849394
3.5577519 -3.2530563 -0.80369377
5.1837611 -4.7398095 -0.78290802
6.4974675 -5.9410067 -0.49176487
7.664289 -7.0078983 0
7.6287451 -6.9753981 0.57738632
2.0436008 -1.8640524 -0.91205031
2.3587761 -2.1515369 -0.88083935
2.7964361 -2.5507443 -0.83849394
3.5616801 -3.248755 -0.80369377
5.1875753 -4.731801 -0.78262001
6.5046415 -5.9331512 -0.49176487
7.6746721 -7.0003843 0
7.6333318 -6.962676 0.57709628
2.0275743 -1.8449507 -0.90390223
2.3595204 -2.1469984 -0.88014787
2.8032782 -2.550787 -0.83962077
3.5599051 -3.2392642 -0.80240947
5.1952004 -4.7272687 -0.78290802
6.5098858 -5.9235401 -0.49161988
7.6792789 -6.987606 0
7.6455793 -6.9569421 0.57738632
2.0243101 -1.8375142 -0.90145653
2.3844042 -2.1643801 -0.88845378
2.813884 -2.554229 -0.84187233
3.5714195 -3.2418621 -0.80412132
5.2028294 -4.7227311 -0.78319716
6.5151162 -5.9139252 -0.4914749
7.6877165 -6.978322 0
7.6482062 -6.9424577 0.57695073
2.0082116 -1.81848 -0.89330846
2.3795791 -2.1547616 -0.88568515
2.79813 -2.5337687 -0.83624238
3.5848465 -3.2461579 -0.80626076
5.2104473 -4.7181759 -0.78348517
6.5145531 -5.8990722 -0.49089432
7.6903539 -6.9637856 0
7.654665 -6.931469 0.57680577
2.0415852 -1.844216 -0.90716213
2.3896277 -2.1586115 -0.88845378
2.8162737 -2.5440118 -0.84074545
3.5811465 -3.234941 -0.80454886
5.2219043 -4.7170796 -0.78435034
6.5197496 -5.8894563 -0.49074933
7.6871715 -6.9440179 0
7.6495352 -6.9100204 0.57578963
2.0529907 -1.850019 -0.91123617
2.3642769 -2.1305294 -0.87807071
2.8212314 -2.5423064 -0.84130782
3.5945859 -3.2392023 -0.80668831
5.2295198 -4.7124963 -0.78463835
6.5287895 -5.8833117 -0.49089432
7.693625 -6.9329839 0
7.6559505 -6.8990345 0.57564461
2.0368474 -1.8310167 -0.90308803
2.3668494 -2.127671 -0.87807071
2.8167427 -2.5321009 -0.83905625
3.5908608 -3.2279918 -0.80497646
5.2332883 -4.7044463 -0.78435034
6.5339632 -5.8736835 -0.49074933
7.7019963 -6.9236827 0
7.6565514 -6.8828301 0.57506406
2.0335362 -1.8236023 -0.9006424
2.3731577 -2.1281626 -0.87945634
2.8160205 -2.525306 -0.83793157
3.6004939 -3.2287939 -0.80626076
5.2428164 -4.70157 -0.78492635
6.5371828 -5.8623109 -0.49045876
7.7084208 -6.9126353 0
7.6706676 -6.8787794 0.57549965
2.0154734 -1.8030154 -0.89167696
2.3775954 -2.1269646 -0.88014787
2.8096027 -2.5134327 -0.8351177
3.6024814 -3.2227311 -0.80583322
5.2484937 -4.6952314 -0.78492635
6.5442615 -5.8544078 -0.49045876
7.7090092 -6.8963757 0
7.673162 -6.8643069 0.57506406
2.0545321 -1.8334922 -0.90797627
2.3520849 -2.0990324 -0.86976475
2.8164258 -2.5134163 -0.83624238
3.6101997 -3.221791 -0.80668831
5.2580266 -4.6923337 -0.78550351
6.5455203 -5.8413105 -0.49002376
7.7153969 -6.8853245 0
7.677577 -6.8515735 0.57477409
2.0788987 -1.8507297 -0.91775584
2.3639939 -2.1045344 -0.8732276
2.8308511 -2.5201519 -0.83962077
3.6121743 -3.2157211 -0.80626076
5.2675524 -4.6894135 -0.78607953
6.5564513 -5.8368497 -0.49031377
7.7198195 -6.8725324 0
7.6800261 -6.8371067 0.5743385
2.066349 -1.8350867 -0.91123617
2.3702831 -2.105005 -0.87461054
2.8281927 -2.5116661 -0.83793157
3.6141398 -3.2096512 -0.80583322
5.2732148 -4.6830454 -0.78607953
6.5615582 -5.8271995 -0.49016878
7.7320132 -6.8666592 0
7.6882815 -6.8278217 0.5743385
2.0519164 -1.8178393 -0.90390223
2.3878477 -2.1154485 -0.88014787
2.8312256 -2.5082469 -0.83793157
3.6257012 -3.212091 -0.80754507
5.2788696 -4.6766701 -0.78607953
6.5627575 -5.814096 -0.48973322
7.7305665 -6.8486843 0
7.6984692 -6.8202486 0.57448351
2.0152211 -1.7809887 -0.88678873
2.3622024 -2.0876398 -0.86976475
2.839968 -2.5098736 -0.83962077
3.6257291 -3.2043045 -0.80668831
5.2883964 -4.6737175 -0.78665668
6.569778 -5.8061619 -0.48973322
7.7446809 -6.8445039 0
7.7028141 -6.8075032 0.57419354
2.0822556 -1.8357552 -0.9153102
2.3797781 -2.0980566 -0.87530208
2.8429985 -2.5064404 -0.83962077
3.6276743 -3.1982253 -0.80626076
5.2940397 -4.6673241 -0.78665668
6.5709395 -5.7930627 -0.48929766
7.7431865 -6.8265371 0
7.7110338 -6.7981911 0.57419354
2.0510685 -1.8038603 -0.9006424
2.3766654 -2.090214 -0.8732276
2.8441114 -2.5013204 -0.83905625
3.6392467 -3.2006207 -0.80797261
5.3054967 -4.6660433 -0.78752071
6.562325 -5.7713904 -0.48813653
7.7514296 -6.8171763 0
7.7172933 -6.7871542 0.57404852
2.0781517 -1.8254536 -0.91205031
2.3760374 -2.0871172 -0.87253338
2.8341718 -2.4895437 -0.83568007
3.6392529 -3.1967289 -0.80754507
5.3122048 -4.666254 -0.78809786
6.5872869 -5.7862897 -0.48973322
7.7535934 -6.8107758 0
7.7135835 -6.7756314 0.57346797
2.0320277 -1.7805932 -0.89086282
2.3974297 -2.1007819 -0.87945634
2.8371778 -2.4861174 -0.83568007
3.629596 -3.180485 -0.80454886
5.3158884 -4.6581225 -0.78780872
6.6020913 -5.7851758 -0.49031377
7.7520323 -6.7928281 0
7.7198048 -6.7645884 0.57332242
2.0490649 -1.7911497 -0.8973825
2.3961852 -2.094578 -0.87807071
2.855484 -2.4960654 -0.84018314
3.6450367 -3.1862371 -0.80711752
5.3312554 -4.660212 -0.78925103
6.5836453 -5.7549644 -0.4884271
7.7563119 -6.7800274 0
7.7240639 -6.7518387 0.57303238
2.105248 -1.8357785 -0.92101574
2.3949361 -2.0883868 -0.87668771
2.8450909 -2.480922 -0.83624238
3.6469436 -3.1801386 -0.80668831
5.3368821 -4.6537666 -0.78925103
6.5964718 -5.75213 -0.48886266
7.7625389 -6.7689419 0
7.7322168 -6.7425008 0.57303238
2.11865 -1.8429631 -0.92590398
2.3974578 -2.0854914 -0.87668771
2.8672609 -2.4941618 -0.84187233
3.6546609 -3.1791024 -0.80754507
5.3405442 -4.6456122 -0.78896189
6.5857668 -5.7288017 -0.48755598
7.7648196 -6.7544317 0
7.7364407 -6.7297454 0.5727424
2.0704782 -1.7966694 -0.90390223
2.3886034 -2.0727243 -0.87253338
2.862596 -2.4840343 -0.83962077
3.6623735 -3.1780457 -0.80840015
5.3578787 -4.6493301 -0.79069221
6.5946527 -5.722548 -0.48770154
7.7769103 -6.7484589 0
7.7406378 -6.7169833 0.57245183
2.0969391 -1.815194 -0.914496
2.4157629 -2.0911806 -0.88153082
2.8521459 -2.4689312 -0.83568007
3.6700964 -3.1769817 -0.80925691
5.3595777 -4.6394639 -0.79011506
6.6113834 -5.7230773 -0.4884271
7.783093 -6.7373557 0
7.744823 -6.7042274 0.57216185
2.0804276 -1.7965083 -0.90634793
2.3879144 -2.0620317 -0.8704589
2.8512771 -2.4621587 -0.83455318
3.6622713 -3.1624749 -0.80668831
5.3710546 -4.6380577 -0.79098022
6.6084623 -5.7065945 -0.48770154
7.7813735 -6.7194366 0
7.748981 -6.6914644 0.57187128
2.082597 -1.7939932 -0.90634793
2.3980074 -2.0656943 -0.8732276
2.8600273 -2.4636881 -0.83624238
3.6699834 -3.1614015 -0.80754507
5.3786125 -4.6332507 -0.79126823
6.6271615 -5.7087774 -0.48857209
7.7894874 -6.7100296 0
7.7590275 -6.6837907 0.5720163
2.114749 -1.8172429 -0.91938424
2.4233272 -2.0824099 -0.88153082
2.8668602 -2.4635458 -0.83736926
3.677691 -3.1603076 -0.80840015
5.3861742 -4.6284389 -0.79155737
6.6242027 -5.6922998 -0.48784652
7.7936454 -6.6972237 0
7.7611909 -6.6693349 0.5715813
2.0625262 -1.7680389 -0.895751
2.4163198 -2.0713179 -0.87807071
2.8698347 -2.4600799 -0.83736926
3.6776125 -3.1525235 -0.80754507
5.3956866 -4.6252909 -0.79213339
6.6192427 -5.6741481 -0.48697597
7.8017321 -6.6878014 0
7.771215 -6.6616416 0.57172626
2.0853257 -1.7832165 -0.90471643
2.4188209 -2.0683968 -0.87807071
2.8766637 -2.4599102 -0.83849394
3.6833682 -3.1497443 -0.80797261
5.4012713 -4.6187682 -0.79213339
6.6379395 -5.6762753 -0.48784652
7.8098073 -6.6783695 0
7.7772856 -6.6505599 0.5715813
2.0630357 -1.7598444 -0.89412266
2.4136837 -2.05896 -0.87530208
2.8622377 -2.4415929 -0.8334285
3.6852202 -3.1436269 -0.80754507
5.4009433 -4.6072011 -0.79126823
6.6289778 -5.6547594 -0.48668543
7.8139071 -6.6655469 0
7.7793832 -6.636097 0.57114571
2.0783386 -1.7685643 -0.8998282
2.4276373 -2.0658002 -0.87945634
2.8845332 -2.4545963 -0.83905625
3.6929224 -3.1424959 -0.80840015
5.4242325 -4.615756 -0.79386258
6.6377831 -5.6484275 -0.48683041
7.8199754 -6.6544156 0
7.787396 -6.6266923 0.57114571
2.0880113 -1.7724497 -0.90308803
2.428221 -2.0612435 -0.87876487
2.8816912 -2.4461808 -0.83736926
3.7006345 -3.1413572 -0.80925691
5.4298058 -4.6091986 -0.79386258
6.6347003 -5.6319966 -0.48610488
7.8280101 -6.6449618 0
7.7894526 -6.6122313 0.57071018
2.0750618 -1.7571478 -0.89656836
2.4326224 -2.0599277 -0.87945634
2.8865821 -2.4443374 -0.83793157
3.7005057 -3.1335623 -0.80840015
5.4353709 -4.602634 -0.79386258
