# .PCD v0.7 - Point Cloud Data file format
VERSION 0.7
FIELDS x y z
SIZE 4 4 4
TYPE F F F
COUNT 1 1 1
WIDTH 1615
HEIGHT 1
VIEWPOINT 0 0 0 1 0 0 0
POINTS 1615
DATA ascii
-4.1431789 3.1068742 -0.2892606
-4.2959337 3.2214217 0
-4.2969084 3.2221525 0.2999934
-4.1803641 3.1268742 -0.87031853
-4.1576838 3.1099098 -0.57871723
-4.138607 3.0956402 -0.28868005
-4.2998233 3.2162285 0
-4.2966413 3.2138484 0.29970339
-4.1903057 3.1264217 -0.87160122
-4.1655889 3.10798 -0.57929438
-4.138175 3.0875266 -0.28838947
-4.3037062 3.2110307 0
-4.3005214 3.2086544 0.29970339
-4.1920228 3.1198249 -0.87117362
-4.1527419 3.0905907 -0.57698804
-4.1398201 3.0809743 -0.28824449
-4.3034115 3.2027235 0
-4.2939744 3.1957004 0.29897782
-4.1916709 3.1117001 -0.87031853
-4.1523156 3.0824845 -0.57641089
-4.1393633 3.0728693 -0.28795394
-4.3030949 3.1944158 0
-4.297833 3.1905096 0.29897782
-4.1871758 3.1005225 -0.86860669
-4.1622748 3.0820839 -0.57727605
-4.1389008 3.0647757 -0.28766394
-4.3006749 3.1845665 0
-4.3016849 3.1853142 0.29897782
-4.1909189 3.0954609 -0.86860669
-4.1597524 3.0724409 -0.57641089
-4.1488733 3.0644052 -0.2880995
-4.3003368 3.1762781 0
-4.2971702 3.173939 0.29839727
-4.1967211 3.0919158 -0.86903423
-4.1593013 3.064347 -0.57583487
-4.1462951 3.0547647 -0.28766394
-4.3041716 3.1710796 0
-4.294724 3.164119 0.29796171
-4.1901131 3.0792434 -0.86689478
-4.1692476 3.0639095 -0.5766989
-4.147891 3.0482152 -0.28751892
-4.2996116 3.1597121 0
-4.2901688 3.1527724 0.29738116
-4.1979675 3.0772107 -0.86774993
-4.1646104 3.0527589 -0.57554686
-4.1473756 3.0401256 -0.28722838
-4.3013296 3.1529775 0
-4.2981625 3.1506557 0.29767117
-4.2079015 3.0766828 -0.86903423
-4.1682959 3.0477247 -0.57554686
-4.1489506 3.0335801 -0.28708336
-4.2925272 3.1385584 0
-4.2956796 3.1408634 0.29723617
-4.2012477 3.0640345 -0.86689478
-4.1782389 3.0472538 -0.57641089
-4.1442156 3.02244 -0.28650281
-4.3026266 3.1379716 0
-4.2973661 3.134135 0.29709059
-4.2090945 3.0619731 -0.86774993
-4.1693721 3.0330765 -0.5746817
-4.1478643 3.0174303 -0.28650281
-4.3064151 3.1327703 0
-4.2906456 3.1212988 0.29636505
-4.2107153 3.0553789 -0.86732233
-4.1667519 3.0234778 -0.57381654
-4.1409936 3.0047874 -0.28577724
-4.3059883 3.1245108 0
-4.3007255 3.1206918 0.29680061
-4.2040086 3.0427647 -0.86518294
-4.1683087 3.0169258 -0.57352853
-4.1383047 2.9952097 -0.28534171
-4.2865677 3.1025193 0
-4.3002872 3.1124487 0.29651061
-4.2035155 3.0346746 -0.86432618
-4.1614676 3.0043187 -0.57208735
-4.1545653 2.9993358 -0.2862128
-4.2839813 3.092766 0
-4.3019319 3.105725 0.29636505
-4.2030168 3.0265961 -0.86347103
-4.1713853 3.003818 -0.57295138
-4.1518588 2.9897568 -0.28577724
-4.2750478 3.0784655 0
-4.3014679 3.0974908 0.29607505
-4.1983309 3.0155249 -0.86175919
-4.1708145 2.9957607 -0.57237536
-4.1491346 2.9801888 -0.28534171
-4.2766528 3.0717809 0
-4.3009825 3.0892563 0.2957845
-4.1978021 3.0074627 -0.8609041
-4.1702218 2.9877033 -0.57179821
-4.1506224 2.9736614 -0.28519669
-4.2824745 3.0681255 0
-4.3026023 3.0825453 0.29563949
-4.2118735 3.0098495 -0.86304349
-4.1633091 2.9751446 -0.57035702
-4.1499801 2.9656196 -0.28490615
-4.2840633 3.0614369 0
-4.3042116 3.075835 0.2954945
-4.2071457 2.9987979 -0.86133164
-4.1669011 2.9701118 -0.57035702
-4.1514468 2.9590962 -0.28476113
-4.2792826 3.050216 0
-4.2994609 3.064599 0.29491392
-4.2042017 2.9852231 -0.85961974
-4.1638417 2.9565649 -0.56920385
-4.150445 2.9470525 -0.28432557
-4.272068 3.0334117 0
-4.2922926 3.0477722 0.29404283
-4.2036119 2.9771707 -0.85876298
-4.1631937 2.9485445 -0.56862783
-4.149766 2.9390347 -0.28403559
-4.2757301 3.0282476 0
-4.3002172 3.0455902 0.29433337
-4.2009225 2.9676499 -0.85748035
-4.1752033 2.9494815 -0.56978101
-4.1554346 2.9355161 -0.28418058
-4.2836413 3.0260849 0
-4.3017735 3.0388942 0.29418838
-4.2086978 2.9655263 -0.85833544
-4.1681948 2.9369869 -0.56833982
-4.1526122 2.9260073 -0.28374559
-4.2936707 3.0253997 0
-4.3075643 3.0351894 0.29433337
-4.2164826 2.9633937 -0.85919219
-4.1569252 2.9215362 -0.56632149
-4.1582685 2.9224801 -0.28389058
-4.2760348 3.0052476 0
-4.3027248 3.0240057 0.29375282
-4.2095442 2.9509249 -0.85705113
-4.1689243 2.9224498 -0.56747466
-4.1575375 2.9144676 -0.28360003
-4.277534 2.9985864 0
-4.3085012 3.0202947 0.29389781
-4.2089028 2.9428971 -0.85619605
-4.1576123 2.9070342 -0.56545633
-4.1546731 2.9049792 -0.28316504
-4.2811542 2.9934156 0
-4.3036299 3.0091305 0.29331726
-4.1998262 2.9290013 -0.85362905
-4.1738548 2.9108887 -0.56718665
-4.1496549 2.8940113 -0.28258446
-4.2804947 2.98526 0
-4.3072624 3.0039282 0.29331726
-4.2096786 2.928318 -0.85491168
-4.1540108 2.8895948 -0.56401515
-4.1510096 2.887507 -0.2824389
-4.2862411 2.9815762 0
-4.3066268 2.9957569 0.29302725
-4.2026701 2.9159138 -0.8527723
-4.1745 2.8963687 -0.56632149
-4.1566367 2.8839748 -0.28258446
-4.2812877 2.9704607 0
-4.3017039 2.9846258 0.2924467
-4.2146339 2.916677 -0.85448414
-4.1631064 2.8810182 -0.56430316
-4.1537061 2.8745127 -0.2821489
-4.2784519 2.9608412 0
-4.3031726 2.9779487 0.29230168
-4.2097044 2.9057491 -0.8527723
-4.1623316 2.87305 -0.56372714
-4.1593127 2.8709664 -0.28229392
-4.2777467 2.9527154 0
-4.3067675 2.9727471 0.29230168
-4.2089877 2.8977518 -0.85191715
-4.1658001 2.8680186 -0.56372714
-4.1499414 2.8571005 -0.28142336
-4.2855945 2.9504931 0
-4.3103561 2.967541 0.29230168
-4.2230649 2.8999283 -0.8540566
-4.1692624 2.862983 -0.56372714
-4.1598105 2.8564925 -0.28185835
-4.2848697 2.942369 0
-4.3096509 2.9593859 0.29201114
-4.2117381 2.8846679 -0.85106039
-4.1620512 2.8506367 -0.56228596
-4.1546922 2.8455963 -0.28127834
-4.2841234 2.9342453 0
-4.3132234 2.9541764 0.29201114
-4.2131028 2.8781302 -0.85063285
-4.1590834 2.8412273 -0.5614208
-4.1516886 2.8361754 -0.28084278
-4.2812171 2.9246614 0
-4.3082075 2.9430995 0.29143059
-4.2102113 2.8686996 -0.84934855
-4.160378 2.8347447 -0.56113279
-4.1594028 2.8340805 -0.28113279
-4.2847476 2.9194863 0
-4.3096151 2.93643 0.29128557
-4.2115531 2.8621686 -0.848921
-4.1659374 2.8311679 -0.5614208
-4.156383 2.8246751 -0.28069779
-4.290431 2.9157739 0
-4.308866 2.9283023 0.2909956
-4.2107549 2.8541944 -0.84806424
-4.1779189 2.8319371 -0.56257397
-4.161942 2.8211074 -0.28084278
-4.2831736 2.9032822 0
-4.3037977 2.9172618 0.29041502
-4.2078266 2.8447952 -0.84678155
-4.1770482 2.8239868 -0.56199682
-4.1610384 2.813163 -0.28055224
-4.2737465 2.8893619 0
-4.2987089 2.9062381 0.28983447
-4.2155137 2.8425765 -0.8476367
-4.1761727 2.8160484 -0.5614208
-4.1795173 2.8183038 -0.28156835
-4.28371 2.8885622 0
-4.3086743 2.905396 0.29026946
-4.2019043 2.8260198 -0.84421295
-4.1860127 2.8153319 -0.56228596
-4.1678247 2.8030992 -0.28055224
-4.2850313 2.8819275 0
-4.3078737 2.89729 0.28997946
-4.2121348 2.829206 -0.84592479
-4.1726813 2.8027058 -0.56026763
-4.1781454 2.806376 -0.28113279
-4.2781382 2.8735392 0
-4.3009949 2.8888917 0.28939891
-4.2198195 2.8269746 -0.84678155
-4.176065 2.797662 -0.56026763
-4.1642632 2.7897556 -0.27997169
-4.279439 2.8669152 0
-4.3087959 2.8865824 0.28968892
-4.2104216 2.8133137 -0.84421295
-4.1729884 2.7883017 -0.55940247
-4.1697974 2.7861698 -0.28011724
-4.2915554 2.8675258 0
-4.3122807 2.8813739 0.28968892
-4.2159605 2.8096521 -0.84464216
-4.1720538 2.7803915 -0.55882645
-4.1796417 2.7854481 -0.28055224
-4.2798638 2.8522396 0
-4.3114386 2.873282 0.28939891
-4.2193522 2.8045559 -0.84464216
-4.1775622 2.7767787 -0.55911446
-4.1700244 2.7717683 -0.27968168
-4.2789683 2.844182 0
-4.308413 2.8637538 0.28896335
-4.2141795 2.7937818 -0.84293026
-4.1852221 2.7745845 -0.55969054
-4.1798697 2.7710361 -0.28011724
-4.2845688 2.8404462 0
-4.3075428 2.8556769 0.28867334
-4.2111259 2.7844388 -0.84164596
-4.1928906 2.7723813 -0.56026763
-4.1745453 2.760251 -0.27953666
-4.2814918 2.830965 0
-4.3044858 2.8461692 0.28823778
-4.2166286 2.7807603 -0.8420735
-4.1854434 2.7601945 -0.55882645
-4.186554 2.760927 -0.28011724
-4.278389 2.82149 0
-4.3014121 2.836673 0.28780225
-4.2350006 2.7855394 -0.84506971
-4.2017369 2.7636607 -0.56055564
-4.1985707 2.7615781 -0.28069779
-4.279623 2.8148897 0
-4.3091826 2.834332 0.28809279
-4.2297773 2.7747879 -0.8433578
-4.1964226 2.7529066 -0.55940247
-4.2040753 2.7579269 -0.28084278
-4.2895432 2.8139949 0
-4.3104334 2.8276992 0.2879478
-4.2331271 2.769675 -0.8433578
-4.1910882 2.7421696 -0.55824929
-4.2139297 2.7571144 -0.28127834
-4.2798777 2.8002632 0
-4.302969 2.8153715 0.28722167
-4.2257237 2.757545 -0.84121841
-4.1922345 2.7356913 -0.55796129
-4.2107277 2.7477591 -0.28084278
-4.2810807 2.7936687 0
-4.3041935 2.8087513 0.28707668
-4.2290525 2.7524369 -0.84121841
-4.1847005 2.7235708 -0.5565201
-4.2118692 2.7412534 -0.28069779
-4.2866321 2.7899122 0
-4.311944 2.8063862 0.28736722
-4.2323751 2.7473249 -0.84121841
-4.1901555 2.7199194 -0.55680811
-4.2173557 2.7375755 -0.28084278
-4.2878194 2.7833149 0
-4.3109689 2.7983418 0.28707668
-4.2162995 2.7296546 -0.83736712
-4.1869235 2.7106361 -0.55594295
-4.2162938 2.7296507 -0.28055224
-4.2868061 2.7753005 0
-4.3143468 2.7931306 0.28707668
-4.2217493 2.725949 -0.83779466
-4.185854 2.7027717 -0.55536693
-4.2283206 2.7301922 -0.28113279
-4.2967172 2.7743552 0
-4.3133569 2.7850993 0.28678668
-4.2271962 2.7222345 -0.83822221
-4.1934619 2.70051 -0.55594295
-4.222878 2.7194536 -0.28055224
-4.2869425 2.7607098 0
-4.310163 2.7756634 0.28635111
-4.2240005 2.7129617 -0.8369379
-4.1945477 2.6940446 -0.55565494
-4.2305379 2.7171602 -0.28084278
-4.2902751 2.7555277 0
-4.3047681 2.7648365 0.28577057
-4.2207971 2.7037058 -0.83565521
-4.1999755 2.6903682 -0.55594295
-4.2294374 2.7092407 -0.28055224
-4.2892141 2.7475317 0
-4.3059201 2.7582328 0.28562558
-4.2283831 2.7013652 -0.83651036
-4.2032232 2.6852913 -0.55594295
-4.241467 2.7097239 -0.28113279
-4.2881489 2.7395475 0
-4.3092494 2.7530279 0.28562558
-4.2316442 2.696254 -0.83651036
-4.1977396 2.6746511 -0.55478984
-4.2337832 2.6976168 -0.28040722
-4.2914562 2.734364 0
-4.312573 2.7478189 0.28562558
-4.217566 2.6801245 -0.83308661
-4.1987872 2.6681912 -0.55450177
-4.2260761 2.6855323 -0.27968168
-4.2925539 2.7277768 0
-4.3093085 2.7384238 0.28519002
-4.2164688 2.6722806 -0.83223152
-4.1954608 2.6589661 -0.55363774
-4.2359042 2.6845982 -0.28011724
-4.2892585 2.7184126 0
-4.317008 2.7359996 0.28548056
-4.2240305 2.6699245 -0.83308661
-4.1921091 2.6497476 -0.55277258
-4.245728 2.683639 -0.28055224
-4.2837405 2.7076659 0
-4.3203111 2.7307813 0.28548056
-4.2082767 2.65641 -0.82966286
-4.191524 2.6458352 -0.55248457
-4.2517476 2.6838503 -0.28084278
-4.289773 2.7078531 0
-4.319756 2.7267797 0.285335
-4.2223434 2.65816 -0.83180231
-4.1947179 2.6407685 -0.55248457
-4.2505851 2.6759393 -0.28055224
-4.288641 2.6998973 0
-4.3164573 2.7174089 0.28490001
-4.2168641 2.6476014 -0.83009207
-4.1891437 2.6301968 -0.5513314
-4.24722 2.6666603 -0.28011724
-4.2896895 2.6933255 0
-4.3087282 2.7052789 0.28417388
-4.2157044 2.6397767 -0.82923532
-4.2010875 2.6306238 -0.55248457
-4.2460299 2.6587658 -0.27982667
-4.2863302 2.6840007 0
-4.3142023 2.7014537 0.28431946
-4.2188911 2.634681 -0.82923532
-4.2020631 2.6241717 -0.55219543
-4.2448359 2.6508832 -0.27953666
-4.287365 2.6774423 0
-4.3152533 2.6948586 0.28417388
-4.228611 2.6336539 -0.83051962
-4.2140126 2.624562 -0.5533486
-4.2590618 2.6526194 -0.28026223
-4.2972178 2.6763835 0
-4.3163028 2.6882701 0.28402889
-4.2274246 2.6258311 -0.82966286
-4.1930184 2.6044602 -0.55017823
-4.2512293 2.6406174 -0.27953666
-4.2849798 2.661581 0
-4.3129234 2.6789382 0.28359333
-4.2305942 2.6207211 -0.82966286
-4.198359 2.6007526 -0.55046624
-4.247788 2.6313722 -0.2791011
-4.2859735 2.6550269 0
-4.3139505 2.6723578 0.28344834
-4.231576 2.6142595 -0.82923532
-4.1970935 2.5929563 -0.54988915
-4.2531729 2.6276021 -0.27924612
-4.2958231 2.6539512 0
-4.3149681 2.6657789 0.28330332
-4.2281728 2.6051035 -0.82795101
-4.1958237 2.5851722 -0.54931307
-4.2563448 2.6224611 -0.27924612
-4.2923775 2.6446617 0
-4.3203959 2.6619248 0.28344834
-4.2356963 2.6026831 -0.82880777
-4.1901293 2.5746841 -0.5481599
-4.2440195 2.6077976 -0.27823055
-4.2933545 2.6381121 0
-4.3191857 2.6539845 0.28315833
-4.2410245 2.5989032 -0.82923532
-4.1932373 2.5696192 -0.5481599
-4.2515941 2.6053803 -0.27852055
-4.294322 2.6315641 0
-4.3135271 2.643333 0.28257778
-4.2266383 2.5830677 -0.82581156
-4.2007575 2.5672507 -0.54873705
-4.2591696 2.6029487 -0.27881056
-4.2841706 2.618228 0
-4.3122797 2.6354063 0.28228721
-4.2275667 2.5766239 -0.82538402
-4.1928072 2.5554388 -0.54729474
-4.2600946 2.5964494 -0.27866557
-4.29178 2.6157608 0
-4.3154607 2.6301939 0.28228721
-4.2284851 2.5701818 -0.82495648
-4.2135735 2.5611181 -0.54960108
-4.2632289 2.5913 -0.27866557
-4.2993813 2.6132741 0
-4.3075356 2.6182306 0.28156164
-4.2381673 2.5690589 -0.82623911
-4.2100358 2.5520065 -0.54873705
-4.259697 2.5821097 -0.27823055
-4.29141 2.6013331 0
-4.3151445 2.6157205 0.28185222
-4.2280912 2.5559704 -0.82367218
-4.1976199 2.5375497 -0.54671872
-4.2650356 2.5783038 -0.27837557
-4.2967749 2.597491 0
-4.3205233 2.6118474 0.2819972
-4.2298598 2.5431023 -0.82281703
-4.1970878 2.5233989 -0.54585356
-4.2556629 2.5586159 -0.27735946
-4.3030396 2.5870998 0
-4.3223643 2.5987184 0.28170666
-4.1977034 2.5168684 -0.81596959
-4.1912608 2.5130055 -0.54470038
-4.2676659 2.5588167 -0.27794001
-4.2972431 2.5765505 0
-4.3188219 2.589489 0.28127167
-4.1765037 2.4973018 -0.81126153
-4.2053914 2.514575 -0.54614156
-4.275219 2.5563278 -0.27823055
-4.2958813 2.5686827 0
-4.3174829 2.5815992 0.28098109
-4.1684961 2.4856808 -0.80912209
-4.1928825 2.5002227 -0.54412436
-4.2805343 2.5524895 -0.27837557
-4.3012152 2.5648215 0
-4.3183699 2.5750508 0.28083611
-4.1538448 2.4701457 -0.80569834
-4.1803365 2.4858992 -0.54210603
-4.3037138 2.5592673 -0.27968168
-4.2886596 2.5503151 0
-4.3170156 2.5671773 0.2805461
-4.1509266 2.4650166 -0.80484325
-4.1640468 2.4728079 -0.53979969
-4.3298373 2.5712626 -0.28127834
-4.2946706 2.5503788 0
-4.3163252 2.5632381 0.28040054
-4.1494799 2.4573805 -0.80398649
-4.1581292 2.462503 -0.53864652
-4.3552947 2.579267 -0.28272948
-4.297749 2.5451875 0
-4.3082423 2.5514019 0.27967498
-4.1590796 2.4562824 -0.80527079
-4.156652 2.4548488 -0.5380705
-4.3986769 2.5977848 -0.28534171
-5.7550821 3.3988547 0
-4.3135571 2.5475144 0.27982
-4.1642542 2.4525566 -0.80569834
-4.1551533 2.4471967 -0.53749335
-4.4107685 2.5977426 -0.28592226
-5.7569356 3.3905737 0
-5.7763839 3.4020278 0.37444645
-4.1561494 2.4410241 -0.80355895
-4.1581073 2.4421742 -0.53749335
-4.3937411 2.5805688 -0.28461614
-5.7587867 3.3822985 0
-5.7737665 3.3910966 0.37401089
-4.1590958 2.4360006 -0.80355895
-4.1588254 2.4358423 -0.53720534
-4.426002 2.5923288 -0.28650281
-5.7696085 3.3792849 0
-5.7800999 3.3854296 0.37415591
-4.1664653 2.4335601 -0.80441403
-4.1595345 2.429512 -0.53691733
-4.4156733 2.5791183 -0.28563225
-5.7736874 3.3723109 0
-5.7752113 3.3732009 0.37357533
-4.1627545 2.4246516 -0.80313134
-4.160234 2.4231839 -0.53662932
-4.4479733 2.5907815 -0.28751892
-5.7800045 3.3666406 0
-5.7635632 3.3570642 0.37255922
-4.1545758 2.4131696 -0.80099028
-4.1609159 2.4168525 -0.53634018
-4.4218931 2.5684397 -0.28563225
-5.7795715 3.3570423 0
-5.7653708 3.3487937 0.37241423
-4.1530499 2.4055769 -0.8001352
-4.154881 2.4066374 -0.53518707
-4.4407263 2.5722079 -0.28664783
-5.7656078 3.3396211 0
-5.7784071 3.3470347 0.37299478
-4.1603951 2.4031227 -0.80099028
-4.1577859 2.4016151 -0.53518707
-4.4528313 2.5720391 -0.28722838
-5.7741418 3.335253 0
-5.7756944 3.3361499 0.37255922
-4.1566291 2.3942535 -0.79970765
-4.1562061 2.3940101 -0.53461099
-4.473949 2.5770326 -0.28838947
-5.7601266 3.3178816 0
-5.7752223 3.3265772 0.37226921
-4.1572952 2.3879521 -0.79928005
-4.1523652 2.3851204 -0.53374583
-4.4635444 2.5638618 -0.28751892
-5.7979841 3.3303642 0
-5.770225 3.3144195 0.37168866
-4.1512675 2.3778234 -0.7975682
-4.1507597 2.3775327 -0.53316981
-4.4801636 2.5662131 -0.28838947
-5.8087807 3.3272381 0
-5.7697206 3.3048644 0.37139866
-4.1675076 2.3804424 -0.8001352
-4.1603608 2.3763604 -0.53403389
-4.4697275 2.5530677 -0.28751892
-5.8014913 3.3137591 0
-5.7759638 3.2991779 0.37154368
-4.1636868 2.3715923 -0.79885089
-4.165483 2.3726156 -0.53432298
-4.4886074 2.5566638 -0.28853449
-5.7919269 3.2990208 0
-5.7776899 3.2909117 0.37139866
-4.1576209 2.3614883 -0.79713899
-4.1660914 2.3662994 -0.53403389
-4.4916935 2.5512383 -0.28853449
-5.7959089 3.2920201 0
-5.7771392 3.281359 0.37110811
-4.1582398 2.3551989 -0.79671144
-4.1554484 2.3536181 -0.53230464
-4.4902554 2.5432503 -0.28824449
-5.793087 3.2811654 0
-5.778841 3.2730966 0.37096313
-4.1566162 2.3476503 -0.79585636
-4.1582894 2.3485954 -0.53230464
-4.511425 2.5480459 -0.28940561
-5.7947836 3.2728844 0
-5.7873125 3.2686648 0.3712531
-4.1661539 2.3464017 -0.79713899
-4.1588726 2.3423011 -0.53201663
-4.5235567 2.5476933 -0.28998616
-5.8168745 3.2760973 0
-5.7776775 3.2540212 0.37038255
-4.1600327 2.3363378 -0.79542714
-4.1504264 2.3309426 -0.53057545
-4.5266318 2.5422256 -0.28998616
-5.8140192 3.2652419 0
-5.7884045 3.2508562 0.37081811
-4.1606154 2.3300564 -0.7949996
-4.1600032 2.3297138 -0.53143948
-4.5387692 2.5418327 -0.29056671
-5.8134236 3.2556736 0
-5.7855244 3.2400494 0.37038255
-4.1634278 2.3250275 -0.7949996
-4.1605592 2.3234258 -0.53115147
-4.54637 2.5388782 -0.29085672
-5.7991753 3.2384956 0
-5.7758188 3.2254524 0.36951143
-4.1536236 2.3162615 -0.79286015
-4.161962 2.3209116 -0.53115147
-4.5410924 2.5323331 -0.29042116
-5.7943096 3.2311878 0
-5.7777667 3.2219625 0.36951143
-4.1631522 2.314985 -0.79414445
-4.1647635 2.315881 -0.53115147
-4.5577793 2.5344236 -0.29129228
-5.7868395 3.2178614 0
-5.7748489 3.211194 0.36907643
-4.1636949 2.3087044 -0.79371524
-4.1630392 2.308341 -0.53057545
-4.558568 2.5276556 -0.29114726
-5.7838931 3.2070794 0
-5.7787251 3.2042139 0.36907643
-4.164237 2.3024309 -0.79328769
-4.1635551 2.3020539 -0.53028631
-4.5684342 2.525914 -0.29158229
-5.7832131 3.1975722 0
-5.7757683 3.1934559 0.36864087
-4.1580238 2.2924399 -0.79157585
-4.1572738 2.2920263 -0.5291332
-4.5601077 2.5141203 -0.29085672
-5.8144217 3.2056603 0
-5.7887249 3.1914928 0.36922145
-4.1652942 2.2898898 -0.79243261
-4.1600399 2.2870014 -0.5291332
-4.5677004 2.5111146 -0.29114726
-5.813725 3.1961224 0
-5.7834687 3.1794887 0.36864087
-4.1590538 2.2799191 -0.7907207
-4.1582685 2.2794888 -0.52855712
-4.5661697 2.503093 -0.29085672
-5.8061748 3.1828415 0
-5.7804685 3.1687498 0.36820531
-4.159555 2.2736621 -0.79029316
-4.1564765 2.2719791 -0.52798003
-4.5783114 2.5025592 -0.29143727
-5.8054447 3.1733248 0
-5.7774591 3.1580276 0.36777031
-4.1555352 2.2649477 -0.78900886
-4.1546807 2.264482 -0.52740395
-4.5858994 2.4995148 -0.29172784
-5.804709 3.1638191 0
-5.7789826 3.1497972 0.36762476
-4.1627755 2.2623742 -0.78986394
-4.1619549 2.2619281 -0.52798003
-4.5797839 2.4890087 -0.29114726
-5.7970967 3.1505904 0
-5.7873549 3.1452961 0.36791533
-4.158742 2.2536769 -0.78858131
-4.1578693 2.2532041 -0.52711594
-4.5919261 2.4884253 -0.29172784
-5.7780137 3.1311815 0
-5.7774396 3.1308703 0.36704421
-4.1524282 2.2437687 -0.78686941
-4.1674089 2.2518635 -0.52798003
-4.5994973 2.4853432 -0.29201785
-5.8161392 3.1427567 0
-5.7857947 3.1263602 0.36733475
-4.170949 2.2472696 -0.78986394
-4.1633024 2.2431495 -0.52711594
-4.6185122 2.4884124 -0.29303396
-5.8245101 3.1381934 0
-5.7758474 3.1119742 0.3664642
-4.1668839 2.2385869 -0.78858131
-4.161448 2.2356668 -0.52653879
-4.6169329 2.4803681 -0.29274338
-5.8260074 3.1299226 0
-5.7841768 3.10745 0.3667542
-4.1650558 2.2311239 -0.78772455
-4.1573133 2.2269764 -0.52567476
-4.6176386 2.473562 -0.2925984
-5.8160248 3.11551 0
-5.7764773 3.0943251 0.36602864
-4.1609535 2.22246 -0.78644025
-4.1622801 2.2231688 -0.52596277
-4.6114559 2.4630837 -0.29201785
-5.8083096 3.1023507 0
-5.7916698 3.0934629 0.3667542
-4.1636357 2.2174308 -0.78644025
-4.1581125 2.2144895 -0.52509761
-4.6190109 2.4599504 -0.29230782
-5.8097501 3.0941033 0
-5.7908206 3.084022 0.3664642
-4.1753807 2.2172141 -0.7881521
-4.1653585 2.2118919 -0.52567476
-4.6518211 2.4702137 -0.29419506
-5.8042903 3.0821989 0
-5.7853632 3.0721481 0.36588365
-4.1712575 2.2085671 -0.78686941
-4.1634521 2.2044344 -0.52509761
-4.6479111 2.4609423 -0.2937595
-5.7873125 3.0642242 0
-5.7844739 3.0627213 0.36559308
-4.1648426 2.1987314 -0.78515756
-4.1638274 2.1981957 -0.5248096
-4.6416898 2.4504719 -0.29317895
-5.8117218 3.0681632 0
-5.7812743 3.052089 0.36515754
-4.1720347 2.1960866 -0.78601265
-4.1641941 2.1919594 -0.52452159
-4.6538444 2.4497027 -0.2937595
-5.829247 3.0684142 0
-5.7872639 3.0463152 0.3653031
-4.1792359 2.1934321 -0.78686941
-4.1668396 2.1869261 -0.52452159
-4.6568012 2.4440777 -0.2937595
-0 0 0
-5.7863345 3.0369027 0.36501253
-4.1873751 2.1944783 -0.7881521
-4.1727376 2.1868072 -0.52509761
-4.6467714 2.4352343 -0.29303396
-5.8117433 3.0457611 0
-5.7835698 3.0309963 0.36472252
-4.201406 2.1953647 -0.79029316
-4.1662073 2.1769722 -0.52394444
-4.6474009 2.428411 -0.2928884
-5.8062015 3.0339203 0
-5.7872276 3.0240057 0.36472252
-4.2199855 2.198586 -0.79328769
-4.1871853 2.1814973 -0.52625078
-4.6595497 2.4275961 -0.29346895
-5.805243 3.0244951 0
-5.7816596 3.0122085 0.36414197
-4.231751 2.1982186 -0.7949996
-4.1944132 2.1788232 -0.52682793
-4.6740155 2.4279566 -0.29419506
-5.8135166 3.0198801 0
-5.785295 3.0052202 0.36414197
-4.2366815 2.1942832 -0.79542714
-4.1947393 2.1725605 -0.52653879
-4.6700215 2.418721 -0.2937595
-5.8240871 3.0164406 0
-5.7935324 3.0006154 0.36443198
-4.2530193 2.1962318 -0.79799575
-4.1950655 2.1663048 -0.52625078
-4.6775541 2.4154587 -0.2940495
-5.8369775 3.0141776 0
-5.7833056 2.9864616 0.36356142
-4.2533898 2.1899173 -0.7975682
-4.2045808 2.1647873 -0.52711594
-4.6619873 2.4002893 -0.2928884
-5.8197927 2.9964018 0
-5.7684278 2.9699559 0.36240029
-4.2583146 2.1859474 -0.79799575
-4.2048945 2.1585252 -0.52682793
-4.6856956 2.4053378 -0.29419506
-5.8141484 2.9846134 0
-5.7604561 2.9570515 0.36167476
-4.2632356 2.1819689 -0.79842329
-4.2121005 2.1557975 -0.52740395
-4.6909094 2.4008572 -0.29434007
-5.8084836 2.9728432 0
-5.7478313 2.9418008 0.36065862
-4.259007 2.1733146 -0.79713899
-4.2077885 2.1471784 -0.52653879
-4.6914949 2.3940074 -0.29419506
-5.8097553 2.9646409 0
-5.7120371 2.9147763 0.3581914
-4.2662106 2.1704972 -0.79799575
-4.2126918 2.1432688 -0.52682793
-4.7059617 2.394227 -0.29492062
-5.8226118 2.9623392 0
-5.6483946 2.8737037 0.35398248
-4.2642469 2.1630158 -0.79713899
-4.2106605 2.1358345 -0.52625078
-4.6903124 2.3791354 -0.2937595
-5.8540387 2.9694293 0
-5.6263781 2.8539498 0.35238639
-4.2599916 2.1543896 -0.79585636
-4.2040057 2.1260762 -0.52509761
-4.6885414 2.3711185 -0.29346895
-5.8692322 2.968225 0
-5.6159053 2.840111 0.35151526
-4.2583022 2.1406286 -0.794572
-4.2091312 2.1159105 -0.52509761
-4.7151589 2.3702884 -0.29477564
-5.8252373 2.9283195 0
-5.6157856 2.823029 0.3510797
-4.2654715 2.13778 -0.79542714
-4.2232442 2.1166165 -0.52653879
-4.7156901 2.3634217 -0.29463005
-5.74967 2.8816342 0
-5.6145506 2.813915 0.3507897
-4.263463 2.1303318 -0.794572
-4.2096095 2.1034226 -0.52452159
-4.7115755 2.3542409 -0.29419506
-5.6576996 2.8269923 0
-5.6156244 2.8059685 0.35064471
-4.2706251 2.1274657 -0.79542714
-4.2214084 2.1029477 -0.52567476
-4.730691 2.3566532 -0.29521063
-5.7077007 2.843363 0
-5.6190109 2.7991812 0.35064471
-4.2731924 2.122304 -0.79542714
-4.2216229 2.0966916 -0.52538562
-4.7265601 2.3474712 -0.29477564
-5.6948137 2.8283596 0
-5.6200643 2.791235 0.35049969
-4.2688589 2.1137249 -0.79414445
-4.2172065 2.0881493 -0.52452159
-4.741034 2.3475225 -0.29550117
-5.7028961 2.8237884 0
-5.6164446 2.780982 0.35006413
-4.2598939 2.1028805 -0.79200339
-4.2174006 2.0819039 -0.52423251
-4.7415304 2.3406386 -0.29535562
-5.7226329 2.8249562 0
-5.6151361 2.7718909 0.34977359
-4.2739544 2.1034026 -0.79414445
-4.2222404 2.0779519 -0.52452159
-4.730371 2.3280256 -0.29448506
-5.7073617 2.808846 0
-5.6231484 2.767401 0.35006413
-4.2636981 2.0951562 -0.79200339
-4.2188478 2.073117 -0.52394444
-4.7434349 2.3308961 -0.29521063
-5.697381 2.7996597 0
-5.6248198 2.7640033 0.35006413
-4.2639236 2.0888746 -0.79157585
-4.2143793 2.0646031 -0.52307934
-4.7439165 2.3240209 -0.29506561
-5.6937461 2.7893376 0
-5.6211524 2.7537742 0.3496286
-4.259531 2.0803444 -0.79029316
-4.2145491 2.0583754 -0.52279127
-4.7420559 2.3160086 -0.29477564
-5.6784043 2.7733188 0
-5.6174688 2.7435579 0.34919304
-4.271265 2.0796869 -0.79200339
-4.2147098 2.0521502 -0.52250326
-4.761198 2.3182364 -0.29579118
-5.6864357 2.7687364 0
-5.6067672 2.7299454 0.34832248
-4.2691603 2.0722847 -0.7911483
-4.219511 2.0481844 -0.52279127
-4.7499747 2.3056757 -0.29492062
-5.7061682 2.7698197 0
-5.6264272 2.7311127 0.34933859
-4.2647266 2.0637691 -0.78986394
-4.2219825 2.0430844 -0.52279127
-4.7667866 2.3067236 -0.29579118
-5.6626582 2.7402501 0
-5.6063285 2.7129915 0.34788692
-4.269536 2.0597332 -0.79029316
-4.2174664 2.0346131 -0.52192724
-4.7672319 2.2998343 -0.29564619
-5.7081523 2.7537582 0
-5.6283255 2.7152476 0.34904802
-4.274333 2.0556841 -0.7907207
-4.2245789 2.0317557 -0.52250326
-4.7770348 2.297452 -0.29608175
-5.6739497 2.7288115 0
-5.6245747 2.7050653 0.34861246
-4.2675548 2.0460787 -0.78900886
-4.2200317 2.023294 -0.5216381
-4.7798076 2.2916782 -0.29608175
-5.6748986 2.7208297 0
-5.6231575 2.6960225 0.34832248
-4.2723379 2.0420268 -0.7894364
-4.2201419 2.0170791 -0.52135009
-4.7942929 2.2915027 -0.29680729
-5.6993122 2.7240703 0
-5.626411 2.6892259 0.34832248
-4.2609019 2.0302398 -0.78686941
-4.2225761 2.0119784 -0.52135009
-4.7900186 2.2823539 -0.29637173
-5.7096505 2.7205412 0
-5.6343436 2.684659 0.34861246
-4.2749434 2.0305958 -0.78900886
-4.2179933 2.0035443 -0.52048492
-4.7904282 2.2754507 -0.29622674
-5.6635695 2.6901922 0
-5.6328936 2.6756213 0.34832248
-4.2727494 2.0232296 -0.7881521
-4.2227554 1.9995564 -0.52077407
-4.7931738 2.2696607 -0.29622674
-5.7114992 2.7045054 0
-5.6290746 2.6654758 0.34788692
-4.2682333 2.014781 -0.78686941
-4.2181492 1.9911392 -0.51990891
-4.8053122 2.2683041 -0.29680729
-5.7100606 2.6953826 0
-5.6275964 2.656456 0.34759691
-4.2683353 2.0085261 -0.78644025
-4.2182136 1.9849408 -0.5196209
-4.8057003 2.2613909 -0.2966623
-5.7038941 2.6840489 0
-5.6284533 2.6485491 0.34745193
-4.2754116 2.0055497 -0.78729701
-4.2182608 1.9787408 -0.51933181
-4.8131299 2.2577875 -0.29695231
-5.6906376 2.6694169 0
-5.6387 2.6450536 0.34788692
-4.2755084 1.9992958 -0.78686941
-4.2253389 1.9758357 -0.51990891
-4.8299727 2.2585721 -0.29782286
-5.7080083 2.6691556 0
-5.6324763 2.6338356 0.34730634
-4.2872281 1.9984665 -0.78858131
-4.2300653 1.9718205 -0.52019691
-4.818572 2.2461495 -0.29695231
-5.6852803 2.6501606 0
-5.6380167 2.628129 0.34745193
-4.2803278 1.9889578 -0.78686941
-4.2183757 1.9601703 -0.51846772
-4.8118567 2.2359455 -0.29637173
-5.7050014 2.6509669 0
-5.6435423 2.6224086 0.34759691
-4.2803917 1.9827023 -0.78644025
-4.2183876 1.9539815 -0.51817864
-4.8216305 2.2334073 -0.29680729
-5.73417 2.6561007 0
-5.6467071 2.6155875 0.34759691
-4.2711334 1.9721491 -0.7843008
-4.2183995 1.9477998 -0.51789057
-4.8078094 2.2199535 -0.29579118
-5.7232027 2.6426263 0
-5.635704 2.6022248 0.34672579
-4.2805114 1.9702079 -0.78558511
-4.2254534 1.9448662 -0.51846772
-4.8435297 2.2293506 -0.29782286
-5.6767478 2.6128592 0
-5.6459279 2.5986736 0.34716135
-4.2782178 1.9628912 -0.78472835
-4.2301488 1.9408367 -0.51875573
-4.8320541 2.2169971 -0.29695231
-5.7319355 2.6298721 0
-5.6348977 2.5853503 0.3462908
-4.2770715 1.9592382 -0.7843008
-4.2242641 1.9350481 -0.51789057
-4.8452024 2.2194872 -0.29767784
-5.7051306 2.6134026 0
-5.6270094 2.5776169 0.34571025
-4.2724366 1.9508729 -0.78301811
-4.2265987 1.9299425 -0.51789057
-4.8431578 2.2114747 -0.29738787
-5.7106581 2.6075912 0
-5.6324811 2.5718942 0.34585524
-4.2817936 1.9488964 -0.7843008
-4.2148075 1.9184072 -0.51616138
-4.8694715 2.2163835 -0.29883897
-4.375566 1.9915777 0
-5.6308503 2.5629315 0.34556469
-4.2771387 1.9405425 -0.78301811
-4.2218289 1.9154483 -0.5167374
-4.8674183 2.2083528 -0.29854897
-4.3163543 1.9583346 0
-5.6339426 2.5561259 0.34556469
-4.2771349 1.9343121 -0.78258896
-4.2241402 1.9103457 -0.5167374
-4.8748136 2.2046094 -0.29883897
-4.3282027 1.9574072 0
-5.6464977 2.5535994 0.34614524
-4.2747927 1.9270347 -0.78173381
-4.2193785 1.9020544 -0.51587337
-4.8774738 2.1987174 -0.29883897
-4.3447952 1.9585911 0
-5.6424794 2.5435743 0.34571025
-4.2935023 1.92923 -0.78472835
-4.2193074 1.8958915 -0.51558423
-4.8540621 2.1811104 -0.29724285
-4.3424158 1.9512086 0
-5.6408038 2.5346224 0.34541968
-4.2770967 1.9156502 -0.78130627
-4.2192369 1.8897357 -0.51529622
-4.7950315 2.1476259 -0.29346895
-4.3637714 1.9544706 0
-5.6391239 2.5256827 0.34512967
-4.2700319 1.9062949 -0.77959442
-4.21207 1.8804187 -0.51414305
-4.4535966 1.9882448 -0.27242497
-4.3708782 1.9513162 0
-5.639801 2.5178087 0.34498468
-4.2770185 1.9032193 -0.78044951
-4.2167001 1.8763783 -0.51443112
-4.3847799 1.9511719 -0.26807109
-4.3542109 1.937569 0
-5.6119699 2.497256 0.34309745
-4.2840128 1.9001336 -0.78130627
-4.2213354 1.8723336 -0.5147202
-0 0 -0
-0 0 0
-4.3632765 1.9352903 0.26661327
-4.2909966 1.8970298 -0.78216136
-4.2212219 1.8661828 -0.51443112
-0 0 -0
-0 0 0
-4.3703604 1.9321162 0.26690328
-4.2838893 1.8877029 -0.78044951
-4.223474 1.8610809 -0.51443112
-4.3632903 1.9226911 -0.26632941
-0 0 0
-4.3917146 1.9352163 0.26806438
-4.2791138 1.8794274 -0.77916521
-4.239933 1.8622189 -0.51616138
-4.3632336 1.9163736 -0.26618439
-0 0 0
-4.3821564 1.9246848 0.26733881
-4.28374 1.875288 -0.77959442
-4.2184815 1.84672 -0.51327795
-4.3941097 1.9236046 -0.26792607
-0 0 0
-4.3678141 1.9120932 0.2663227
-4.2812924 1.8680555 -0.77873766
-4.2207098 1.8416214 -0.51327795
-4.7727027 2.0824723 -0.29085672
-4.3681436 1.905951 0
-5.6346951 2.4585853 0.34338799
-4.2906113 1.8659532 -0.78002197
-4.2181926 1.8344591 -0.51270187
-4.9134169 2.1368067 -0.29927453
-4.3943133 1.9110527 0
-5.6495733 2.4569554 0.34411356
-4.2857943 1.8577038 -0.77873766
-4.2275281 1.8324479 -0.51356703
-4.9374499 2.140168 -0.30058065
-4.382288 1.8995295 0
-5.657311 2.4521961 0.34440413
-4.2762551 1.8474344 -0.77659822
-4.215488 1.8211817 -0.51183671
-4.9233327 2.1269858 -0.29956454
-5.731957 2.4763288 0
-5.6531115 2.442266 0.34396857
-4.2831955 1.8442945 -0.77745336
-4.2200589 1.8171088 -0.51212478
-4.9330611 2.1241193 -0.3000001
-5.677577 2.4446993 0
-5.6584425 2.43646 0.34411356
-4.2736282 1.8340569 -0.77531391
-4.2317591 1.8160884 -0.51327795
-4.9451756 2.122256 -0.30058065
-5.7594466 2.4717059 0
-5.6566114 2.4275737 0.34382355
-4.2805662 1.8309127 -0.77617067
-4.2220621 1.805889 -0.51183671
-4.9716225 2.1264961 -0.30203176
-5.7624288 2.464745 0
-0 0 0
-4.280407 1.8247296 -0.77574146
-4.2242413 1.8007861 -0.51183671
-4.9622393 2.1153934 -0.30130619
-5.727098 2.4414513 0
-5.6385536 2.4037049 0.34237188
-4.290957 1.8261642 -0.77745336
-4.2253284 1.7982337 -0.51183671
-4.9611278 2.1113784 -0.3011612
-5.7597003 2.4512384 0
-5.651957 2.4053848 0.34309745
-4.2907991 1.8199767 -0.77702576
-4.2251191 1.792118 -0.5115487
-4.963675 2.1053824 -0.3011612
-5.7027631 2.4188724 0
-5.6572585 2.3995712 0.343243
-4.2835374 1.8107926 -0.77531391
-4.2344308 1.7900337 -0.51241386
-4.9901447 2.1094987 -0.3026123
-5.7248583 2.4200866 0
-5.6529713 2.3896976 0.34280744
-4.2975483 1.8105979 -0.77745336
-4.2294378 1.7819022 -0.5115487
-4.9495916 2.08531 -0.3000001
-5.7205811 2.4101353 0
-5.6558547 2.3828652 0.34280744
-4.2855363 1.7994428 -0.77488637
-4.224431 1.7737855 -0.51068354
-4.9569039 2.0813417 -0.30029064
-5.7378912 2.4092684 0
-5.6563363 2.3750246 0.34266245
-4.2877073 1.7942632 -0.77488637
-4.21942 1.7656873 -0.50981951
-4.9618101 2.0763528 -0.30043563
-5.6999874 2.3852556 0
-5.6568074 2.3671861 0.34251744
-4.2685509 1.780189 -0.77103508
-4.2143865 1.7575999 -0.50895435
-4.957118 2.0673544 -0.3000001
-5.7196722 2.3853757 0
-5.657258 2.3593462 0.34237188
-4.2801809 1.7789711 -0.77274692
-4.2260609 1.7564772 -0.51010752
-4.9548182 2.0593705 -0.29971009
-5.7345734 2.38346 0
-5.6601048 2.3525088 0.34237188
-4.2823272 1.773798 -0.77274692
-4.2210088 1.7483991 -0.50924236
-4.9741006 2.0603399 -0.30072564
-5.7759099 2.3924603 0
-5.6533408 2.3416903 0.34179133
-4.2723522 1.7575824 -0.77017832
-4.2300105 1.7401634 -0.50981951
-4.9814658 2.0493011 -0.30087066
-5.6998482 2.3448329 0
-5.6589832 2.3280215 0.34179133
-4.2839737 1.7563139 -0.77189016
-4.2297101 1.7340671 -0.50953043
-4.9767327 2.0403264 -0.30043563
-5.7123094 2.341893 0
-5.65939 2.3201973 0.34164634
-4.2837186 1.7501663 -0.77146262
-4.2246261 1.7260232 -0.50866634
-4.9888163 2.0382426 -0.30101621
-5.7295947 2.3408968 0
-5.657383 2.3113937 0.34135634
-4.2739449 1.7401497 -0.76932317
-4.2338881 1.7238405 -0.50953043
-4.9792447 2.0273147 -0.30029064
-5.7541099 2.3428035 0
-5.660172 2.3045564 0.34135634
-4.2760444 1.7349843 -0.76932317
-4.2335734 1.7177519 -0.50924236
-4.9816904 2.0212967 -0.30029064
-5.7279983 2.3241074 0
-5.6605377 2.2967355 0.34121078
-4.2781377 1.7298162 -0.76932317
-4.2260547 1.7087569 -0.50808918
-4.9889426 2.0172222 -0.30058065
-5.7476935 2.3240144 0
-5.6633086 2.2898943 0.34121078
-4.2707005 1.720808 -0.76761132
-4.2113295 1.6968856 -0.50607198
-4.9986091 2.0141068 -0.30101621
-5.7263536 2.3073394 0
-5.6660714 2.2830496 0.34121078
-4.2656279 1.7127759 -0.76632702
-4.2205706 1.6946843 -0.50693601
-5.0179114 2.0148401 -0.30203176
-5.7508712 2.3091452 0
-5.6640077 2.274267 0.34092078
-4.267694 1.7076205 -0.76632702
-4.2202163 1.6886233 -0.506648
-5.0179319 2.0078111 -0.30188677
-5.7488289 2.3002629 0
-5.6715722 2.2693503 0.34121078
-4.2673721 1.7015128 -0.76589948
-4.2294636 1.6863976 -0.50751317
-5.0179434 2.0007851 -0.30174175
-5.7298498 2.2846408 0
-5.6670761 2.2596114 0.34077579
-4.2742009 1.6982528 -0.76675624
-4.226686 1.679374 -0.50693601
-5.0276041 1.9975997 -0.30217731
-5.7205157 2.2729118 0
-5.664968 2.2508414 0.34048522
-4.2786345 1.6940311 -0.76718378
-4.2215047 1.6714119 -0.50607198
-5.02035 1.9876972 -0.30159676
-5.7232575 2.2659981 0
-5.6700969 2.2449503 0.3406302
-4.2782927 1.6879188 -0.76675624
-4.2235212 1.6663098 -0.50607198
-5.0444999 1.9902114 -0.30290288
-5.7284102 2.260035 0
-5.6679759 2.236192 0.34034023
-4.2649755 1.679688 -0.76418757
-4.2149005 1.6599667 -0.50491881
-5.0263596 1.9795461 -0.30174175
-5.7273555 2.2556212 0
-5.6644859 2.2308612 0.34004965
-4.2693896 1.6754702 -0.76461512
-4.2193089 1.6558166 -0.50520682
-5.0384235 1.9772682 -0.30232233
-5.7349172 2.2505987 0
-5.6696029 2.224967 0.34019521
-4.2594595 1.6656367 -0.76247573
-4.2213063 1.6507171 -0.50520682
-5.0408087 1.9711788 -0.30232233
-5.7352109 2.2427206 0
-5.6674428 2.2162204 0.33990467
-4.2806039 1.6679448 -0.76589948
-4.22089 1.6446772 -0.50491881
-5.0528717 1.9688601 -0.30290288
-5.7403393 2.2367332 0
-5.6725354 2.2103131 0.34004965
-4.2730441 1.6590549 -0.76418757
-4.2108116 1.6348925 -0.50347656
-5.0358686 1.9552295 -0.30174175
-5.7503185 2.2326221 0
-5.670362 2.2015784 0.33975965
-4.2798386 1.6557447 -0.76504433
-4.2152033 1.6307392 -0.50376564
-5.0479212 1.9528934 -0.30232233
-5.745728 2.2228544 0
-5.673018 2.194725 0.33975965
-4.2626739 1.6431855 -0.76162058
-4.2075171 1.6219234 -0.50261247
-5.0454235 1.9449215 -0.30203176
-5.7362704 2.2112308 0
-5.6829419 2.1906736 0.34019521
-4.2598591 1.636191 -0.76076382
-4.2094741 1.6168383 -0.50261247
-5.0453463 1.9378929 -0.30188677
-5.7462287 2.2070982 0
-5.6758819 2.1800785 0.33961466
-4.2666326 1.6328795 -0.76162058
-4.2065887 1.6099001 -0.50203532
-5.0670986 1.9392252 -0.30304787
-5.7488914 2.2001536 0
-5.6760874 2.1722908 0.33946967
-4.2566118 1.6231506 -0.75948119
-4.2085309 1.6048161 -0.50203532
-5.0888615 1.9405078 -0.30420899
-5.7442479 2.1904228 0
-5.671422 2.1626525 0.33903411
-4.2681594 1.6216495 -0.76119143
-4.2104669 1.5997298 -0.50203532
-5.08634 1.9325099 -0.30391842
-5.7420201 2.1816299 0
-5.6740313 2.155798 0.33903411
-4.2677174 1.6155832 -0.76076382
-4.2148132 1.5955559 -0.50232339
-5.0765228 1.9217638 -0.30319288
-5.7568288 2.1792998 0
-5.6742039 2.1480215 0.33888909
-4.2744746 1.6122389 -0.76162058
-4.207058 1.5868107 -0.50117022
-5.0764122 1.9147123 -0.30304787
-5.7302375 2.1613209 0
-5.6767955 2.1411638 0.33888909
-4.2716093 1.605265 -0.76076382
-4.208972 1.5817262 -0.50117022
-5.0835819 1.9104034 -0.30333787
-5.7498908 2.1608014 0
-5.676939 2.1333861 0.33874354
-4.2663403 1.5974046 -0.75948119
-4.1987715 1.5721054 -0.49972901
-5.1029234 1.9106383 -0.30435398
-5.7524977 2.1538522 0
-5.6746502 2.1247046 0.33845353
-4.2658553 1.5913486 -0.75905198
-4.2006679 1.5670309 -0.49972901
-5.1076603 1.9053785 -0.304499
-5.7575412 2.1478121 0
-5.6772132 2.1178463 0.33845353
-4.2677751 1.586193 -0.75905198
-4.1977139 1.5601536 -0.49915299
-5.1026592 1.8964922 -0.30406401
-5.7552485 2.1390386 0
-5.6846352 2.1127937 0.33874354
-4.2696886 1.5810351 -0.75905198
-4.1947403 1.5532824 -0.49857584
-5.1098156 1.8921282 -0.30435398
-5.7407522 2.1257594 0
-5.6798806 2.103219 0.33830854
-4.2571497 1.5705456 -0.75648499
-4.2063208 1.5517936 -0.49972901
-5.1169786 1.887753 -0.30464455
-5.7579618 2.1242242 0
-5.6751018 2.0936556 0.33787298
-4.254221 1.5636276 -0.75562823
-4.203342 1.5449271 -0.49915299
-5.1070542 1.8770841 -0.30391842
-5.7507534 2.1136739 0
-5.6776276 2.0867968 0.33787298
-4.2585244 1.5593712 -0.75605744
-4.2027793 1.5389585 -0.49886495
-5.1215258 1.8753818 -0.30464455
-5.767961 2.1120913 0
-5.68502 2.0817201 0.33816299
-4.270052 1.5577435 -0.75776929
-4.2046356 1.5338792 -0.49886495
-5.1189008 1.8674093 -0.30435398
-5.7362852 2.0926352 0
-5.6875315 2.0748494 0.33816299
-4.2516952 1.5481371 -0.7543456
-4.203124 1.5304512 -0.49857584
-5.1102619 1.8607602 -0.30377343
-5.7399917 2.0900588 0
-5.6814661 2.0687482 0.33772799
-4.2559738 1.5438731 -0.75477314
-4.2001119 1.523609 -0.49799982
-5.1125064 1.8545841 -0.30377343
-5.7547522 2.0875616 0
-5.6815119 2.0609932 0.33758244
-4.2699051 1.5430911 -0.75691253
-4.20438 1.5194111 -0.49828783
-5.1000857 1.8431081 -0.30290288
-5.7523708 2.078836 0
-5.6839976 2.0541267 0.33758244
-4.2741795 1.5387993 -0.75734013
-4.2013507 1.5125792 -0.49771178
-5.1145306 1.8413444 -0.30362844
-5.7548785 2.0718837 0
-5.6864758 2.0472572 0.33758244
-4.2663703 1.5301671 -0.75562823
-4.1861305 1.5013884 -0.49569348
-5.1167521 1.8351631 -0.30362844
-5.7549305 2.0640509 0
-5.6938419 2.042141 0.33787298
-4.2561312 1.5206931 -0.75348884
-4.1903749 1.4971986 -0.49598148
-5.1311979 1.8333498 -0.30435398
-5.7696714 2.0614729 0
-5.6914067 2.0335093 0.33758244
-4.2700558 1.5198525 -0.75562823
-4.1921806 1.4921343 -0.49598148
-5.1334095 1.8271484 -0.30435398
-5.7770572 2.0562437 0
-5.6889682 2.0248899 0.33729243
-4.2549596 1.5086892 -0.75263369
-4.1891098 1.4853407 -0.49540547
-5.1331668 1.8200768 -0.30420899
-5.7819977 2.0501339 0
-5.6840611 2.0154085 0.33685687
-4.2591977 1.5044008 -0.75306123
-4.2030931 1.4845842 -0.49684665
-5.1378102 1.8147376 -0.30435398
-5.7525716 2.0318789 0
-5.6840444 2.0076742 0.33671188
-4.2682791 1.5018103 -0.7543456
-4.1999998 1.4777858 -0.49626949
-5.1571593 1.8145663 -0.30537012
-5.7648425 2.0283818 0
-5.6815686 1.9990816 0.33642188
-4.2604003 1.4932554 -0.75263369
-4.1944666 1.4701458 -0.49540547
-5.154439 1.8066128 -0.30507955
-5.7574654 2.0179713 0
-5.68398 1.992215 0.33642188
-4.2525072 1.4847218 -0.75092185
-4.2035584 1.4676318 -0.49626949
-5.1468053 1.7969573 -0.304499
-5.7648087 2.0127273 0
-5.6888337 1.9862013 0.33656687
-4.2494445 1.4778942 -0.75006509
-4.202888 1.4617027 -0.49598148
-5.1538863 1.7924458 -0.30478954
-5.7623253 2.0040519 0
-5.6863165 1.9776173 0.33627632
-4.2512269 1.4727585 -0.75006509
-4.1924338 1.4523908 -0.4945403
-5.1683226 1.7904692 -0.30551511
-5.7499828 1.9919747 0
-5.691164 1.971598 0.33642188
-4.2432966 1.4642712 -0.74835318
-4.1917429 1.446481 -0.49425229
-5.1680279 1.7833762 -0.30537012
-5.7794495 1.9943647 0
-5.6959963 1.9655668 0.33656687
-4.2499228 1.4608134 -0.74920994
-4.1983752 1.443095 -0.49482831
-5.1529756 1.771217 -0.30435398
-5.762166 1.9806122 0
-5.6909928 1.956148 0.3361313
-4.2759671 1.4639907 -0.75348884
-4.1927814 1.43551 -0.49396425
-5.1501999 1.7633076 -0.30406401
-5.7793231 1.9787046 0
-5.6982737 1.9509552 0.33642188
-4.2704415 1.4563364 -0.75220448
-4.1920581 1.4296056 -0.49367514
-5.1818295 1.7671446 -0.30580512
-5.7718573 1.9683599 0
-5.6957035 1.9423895 0.3361313
-4.2794924 1.4536531 -0.75348884
-4.1839862 1.4212117 -0.49252197
-5.1790452 1.7592121 -0.30551511
-5.7643743 1.9580362 0
-5.6906629 1.9329978 0.33569574
-4.3055668 1.4567097 -0.75776929
-4.1783571 1.4136707 -0.49165791
-5.1910124 1.7562841 -0.30609566
-5.766736 1.9510696 0
-5.6954627 1.9269556 0.3358413
-0 0 -0
-4.1972127 1.4144003 -0.49367514
-5.2029805 1.7533296 -0.30667621
-5.7986841 1.9540732 0
-5.6953173 1.9192401 0.33569574
-0 0 -0
-4.2038274 1.4109755 -0.49425229
-5.2050953 1.7470416 -0.30667621
-5.7714343 1.9371279 0
-5.7050247 1.9148383 0.3361313
-0 0 -0
-4.2095795 1.4100769 -0.49482831
-5.2036881 1.743072 -0.30653122
-5.7824745 1.9369472 0
-5.7061806 1.9113913 0.3361313
-0 0 -0
-4.1867495 1.3968053 -0.49194595
-5.2156501 1.7400725 -0.30711177
-5.7848105 1.9299588 0
-5.7035608 1.9028519 0.3358413
-0 0 -0
-4.2007046 1.3958226 -0.49338713
-5.2152758 1.7329475 -0.30696622
-5.7698574 1.9172255 0
-5.703383 1.8951372 0.33569574
-0 0 -0
-4.1925659 1.3874954 -0.49223396
-5.21984 1.7274632 -0.30711177
-5.8018184 1.9200642 0
-5.7081428 1.8890631 0.3358413
-0 0 -0
-4.2016115 1.3848583 -0.49309912
-5.2071118 1.7162728 -0.30624068
-5.7719951 1.9024594 0
-5.7079463 1.8813487 0.33569574
-0 0 -0
-4.2155666 1.3838131 -0.4945403
-5.2165904 1.7124119 -0.30667621
-5.7767692 1.8962977 0
-5.6954069 1.8695894 0.33482519
-0 0 -0
-4.2066035 1.3696187 -0.49309912
-5.2330651 1.7038219 -0.30740178
-5.7838073 1.8831369 0
-5.7023768 1.8566241 0.33497021
-0 0 -0
-4.2254806 1.37012 -0.49511743
-5.2277021 1.6950923 -0.30696622
-5.7811227 1.8745399 0
-5.7021465 1.8489319 0.33482519
-0 0 -0
-4.2197466 1.3626282 -0.49425229
-5.2520084 1.6959631 -0.3082729
-5.7784348 1.8659552 0
-5.7043767 1.8420405 0.33482519
-4.2894497 1.3794153 -0.99816722
-0 0 -0
-4.2287793 1.3599048 -0.49511743
-5.2293119 1.6816593 -0.30682123
-5.7905955 1.8621588 0
-5.7090697 1.8359413 0.33497021
-4.29354 1.3750085 -0.99873173
-0 0 -0
-4.2107134 1.3484832 -0.49281108
-5.2387667 1.6777178 -0.30725679
-5.8077078 1.8599215 0
-5.7063394 1.8274583 0.3346802
-4.2855153 1.3667315 -0.99648017
-0 0 -0
-4.2000117 1.3394628 -0.4913688
-5.2506924 1.6745447 -0.30783734
-5.7653251 1.8386707 0
-5.7110162 1.8213507 0.33482519
-4.2726288 1.3569362 -0.99310178
-0 0 -0
-4.2336812 1.3445668 -0.49511743
-5.2403316 1.6642672 -0.30711177
-5.7849078 1.8372182 0
-5.7181611 1.8160203 0.33511519
-4.2766852 1.352538 -0.99366415
-0 0 -0
-4.2106371 1.3316495 -0.49223396
-5.2621584 1.6642022 -0.3082729
-5.7945604 1.8325789 0
-5.7178764 1.8083268 0.33497021
-4.2977052 1.3534755 -0.99816722
-0 0 -0
-4.2073135 1.3250085 -0.49165791
-5.2567277 1.6555004 -0.30783734
-5.7694721 1.8169789 0
-5.7076674 1.7975147 0.33424464
-4.2993374 1.3482815 -0.99816722
-0 0 -0
-4.2335863 1.3276619 -0.4945403
-5.2636786 1.650701 -0.30812734
-5.7815967 1.8131213 0
-5.7098351 1.7906168 0.33424464
-4.274291 1.3347565 -0.9919771
-0 0 -0
-4.2302547 1.321005 -0.49396425
-5.2706347 1.6458902 -0.30841789
-5.77881 1.804581 0
-5.7144723 1.78449 0.33438963
-4.2686195 1.3273268 -0.9902879
-0 0 -0
-4.2120891 1.3097486 -0.49165791
-5.2626944 1.6364343 -0.30783734
-5.7834787 1.7983721 0
-5.7191033 1.7783546 0.33453465
-4.216826 1.3056359 -0.97790551
-0 0 -0
-4.2284884 1.3092468 -0.49338713
-5.2671475 1.6308421 -0.30798233
-5.783154 1.7906107 0
-5.7187681 1.7706752 0.33438963
-4.2135396 1.2990412 -0.97677869
-0 0 -0
-4.2127628 1.2988017 -0.4913688
-5.29146 1.6313658 -0.30928844
-5.7753654 1.7805545 0
-5.7184229 1.7629991 0.33424464
-4.224822 1.2969315 -0.97903019
-0 0 -0
-4.2143292 1.2937104 -0.4913688
-5.2859731 1.6226825 -0.30885291
-5.7949305 1.7789217 0
-5.725512 1.7576118 0.33453465
-4.21346 1.2906586 -0.97621632
-0 0 -0
-4.1953349 1.2851067 -0.48906356
-5.2944083 1.6217725 -0.30928844
-5.7810788 1.7708485 0
-5.7166443 1.7511111 0.33395463
-4.2150164 1.2855666 -0.97621632
-0 0 -0
-4.1919322 1.2785259 -0.48848644
-5.2789731 1.61007 -0.3082729
-5.7931714 1.7668988 0
-5.7262053 1.7464744 0.33438963
-4.1995454 1.2753036 -0.97227561
-0 0 -0
-4.2108006 1.2787215 -0.49050477
-5.2759371 1.6021786 -0.30798233
-5.7828441 1.7561144 0
-5.7233434 1.7380455 0.33409965
-4.2108121 1.2731699 -0.97452712
-0 0 -0
-4.2222457 1.2766269 -0.49165791
-5.2952824 1.6010675 -0.30899847
-5.7924376 1.7513859 0
-5.7179751 1.7288718 0.33366409
-4.1977539 1.2636878 -0.97115088
-0 0 -0
-4.2213011 1.2707765 -0.4913688
-5.2847748 1.5909235 -0.3082729
-5.7895703 1.7428867 0
-5.7225461 1.7227098 0.33380908
-4.2114449 1.2622615 -0.97396481
-0 0 -0
-4.2377038 1.2701319 -0.49309912
-5.3389516 1.6001997 -0.31132013
-5.7916718 1.7358898 0
-5.7221365 1.7150487 0.33366409
-4.2105346 1.256446 -0.97340244
-0 0 -0
-4.2317977 1.262791 -0.49223396
-5.3035388 1.5826044 -0.30914345
-5.7837896 1.7259138 0
-5.7142448 1.7051612 0.33308351
-4.2120495 1.2513576 -0.97340244
-0 0 -0
-4.2184491 1.2532587 -0.49050477
-5.332849 1.5843357 -0.31074014
-5.7883635 1.7196643 0
-5.7212877 1.6997368 0.33337408
-4.2038126 1.2433845 -0.97115088
-0 0 -0
-4.2323594 1.2518278 -0.49194595
-5.3198042 1.5734675 -0.30986902
-5.7904367 1.712669 0
-5.7308054 1.6950314 0.33380908
-4.2101817 1.2397381 -0.97227561
-0 0 -0
-4.2338686 1.246713 -0.49194595
-5.3142214 1.5648357 -0.30943346
-5.799994 1.7078773 0
-5.7253785 1.6859058 0.33337408
-4.2189941 1.2367951 -0.97396481
-0 0 -0
-4.2229643 1.2379589 -0.49050477
-5.3310742 1.5628006 -0.31030458
-5.7895594 1.6972052 0
-5.7224197 1.6775233 0.33308351
-4.1985354 1.2252905 -0.96889937
-0 0 -0
-4.2219667 1.2321287 -0.49021563
-5.3204889 1.5527188 -0.30957901
-4.4850769 1.3089142 0
-5.7294359 1.6720649 0.33337408
-4.2048974 1.2216357 -0.9700262
-0 0 -0
-4.2234526 1.2270265 -0.49021563
-5.3323421 1.5491886 -0.31015956
-4.4816523 1.3020403 0
-5.7289495 1.6644137 0.33322853
-4.2185726 1.220083 -0.97284007
-0 0 -0
-4.2348709 1.2247968 -0.4913688
-4.5055275 1.3030752 -0.2619755
-0 0 0
-5.7284627 1.6567689 0.33308351
-4.2029495 1.2100632 -0.96889937
-0 0 -0
-4.2214394 1.2153866 -0.48963961
-4.5570388 1.3120084 -0.26487827
-0 0 0
-5.7204723 1.6469704 0.33250296
-4.216619 1.2084833 -0.97171324
-0 0 -0
-4.2328501 1.2131352 -0.49079278
-4.5211501 1.2957621 -0.26270106
-0 0 0
-5.7199631 1.639342 0.33235797
-4.210753 1.2012982 -0.9700262
-0 0 -0
-4.2243638 1.2051815 -0.48963961
-4.5352039 1.2938619 -0.2634266
-4.4678717 1.2746525 0
-5.7169371 1.6310021 0.3320674
-4.214643 1.196903 -0.97058856
-0 0 -0
-4.2183504 1.1979558 -0.48877445
-4.5142698 1.281993 -0.26212049
-4.4619055 1.2671221 0
-5.7189035 1.6240932 0.3320674
-4.2185292 1.1925001 -0.97115088
-0 0 -0
-4.2272639 1.1949693 -0.48963961
-4.5108194 1.2751251 -0.26183051
-5.8257294 1.6468258 0
-5.7158661 1.6157695 0.33177739
-4.2175231 1.1867144 -0.97058856
-0 0 -0
-4.2187457 1.1870583 -0.48848644
-4.497344 1.2654495 -0.26095939
-5.8126884 1.6355573 0
-5.7228117 1.610268 0.3320674
-4.2116117 1.179561 -0.96889937
-0 0 -0
-4.2301397 1.1847502 -0.48963961
-5.3270507 1.491966 -0.30899847
-5.7996287 1.6243227 0
-5.7297626 1.6047549 0.33235797
-4.2056885 1.1724236 -0.96721017
-0 0 -0
-4.209147 1.1733878 -0.48704526
-5.3663878 1.4959927 -0.31117514
-5.8141193 1.6208073 0
-5.7291965 1.5971333 0.33221295
-4.2039504 1.1692023 -0.9666478
-0 0 -0
-4.2148342 1.1722293 -0.48762128
-5.3697915 1.4934459 -0.31132013
-5.7950392 1.6117157 0
-5.7276502 1.5929735 0.3320674
-4.2004671 1.1627674 -0.96552312
-0 0 -0
-4.2312088 1.1712772 -0.4893516
-5.3766055 1.4883443 -0.3116107
-5.8095207 1.6081833 0
-5.7295704 1.5860516 0.3320674
-4.2141151 1.161065 -0.968337
-0 0 -0
-4.2425952 1.1689118 -0.49050477
-5.3658767 1.4783963 -0.31088513
-5.8014235 1.5983973 0
-5.7364979 1.5805091 0.33235797
-4.2253165 1.1586601 -0.97058856
-0 0 -0
-4.2415028 1.1630987 -0.49021563
-5.3776832 1.4746603 -0.31146568
-5.8008432 1.5906986 0
-5.7384033 1.5735765 0.33235797
-4.2095523 1.1488701 -0.9666478
-0 0 -0
-4.232934 1.1552514 -0.48906356
-5.3769469 1.4674752 -0.31132013
-5.8027611 1.5836883 0
-5.7453094 1.5680085 0.33264795
-4.2182961 1.1457816 -0.968337
-0 0 -0
-4.2218394 1.146744 -0.48762128
