# .PCD v0.7 - Point Cloud Data file format
VERSION 0.7
FIELDS x y z
SIZE 4 4 4
TYPE F F F
COUNT 1 1 1
WIDTH 1640
HEIGHT 1
VIEWPOINT 0 0 0 1 0 0 0
POINTS 1640
DATA ascii
4.6729002 2.7941175 -0.90768367
6.570168 3.9285712 -0.85324806
11.313988 6.7650943 -0.73631251
15.21411 9.0971365 0
19.819334 11.850787 1.289839
2.5376379 1.5215228 -0.97561604
3.0114136 1.8055902 -0.96873927
3.6667907 2.1985426 -0.94712585
4.6761274 2.8037231 -0.90896797
6.5654163 3.9365072 -0.85324806
11.321407 6.788115 -0.73732859
15.236589 9.1355886 0
19.822828 11.885416 1.2910001
2.5675652 1.5436873 -0.98783821
3.0135341 1.8118154 -0.9701249
3.6706581 2.2068956 -0.94881284
4.6661344 2.8054018 -0.90768367
6.5606551 3.9444373 -0.85324806
11.322105 6.8071456 -0.73790914
15.250068 9.1687393 0
19.8619 11.941493 1.2944835
2.5762796 1.5531678 -0.99191225
2.9812591 1.7973188 -0.9604333
3.6723452 2.2139556 -0.94993973
4.6649375 2.812362 -0.90811121
6.5492368 3.9483542 -0.8523829
11.329442 6.8302083 -0.73892474
15.261271 9.2005987 0
19.867483 11.977557 1.2957896
2.5520716 1.5406766 -0.98294997
2.995209 1.808197 -0.9652791
3.6688337 2.2148619 -0.94937736
4.6632376 2.8151798 -0.90811121
6.5557075 3.9576571 -0.85353607
11.336434 6.8437653 -0.73965031
15.284671 9.2273016 0
19.90028 12.013728 1.2984018
2.5396383 1.5373607 -0.97887594
2.9908779 1.8105168 -0.96458763
3.6683264 2.2206078 -0.94993973
4.6598325 2.8208125 -0.90811121
6.5553503 3.968257 -0.85411322
11.330386 6.8588076 -0.73979586
15.29577 9.2592373 0
19.927986 12.063333 1.3011596
2.5356598 1.539142 -0.97805864
2.9972663 1.8193365 -0.96735626
3.6591222 2.2210822 -0.94825053
4.6542282 2.8251102 -0.90768367
6.546124 3.9734883 -0.85353607
11.330976 6.8778863 -0.74037641
15.326834 9.3033667 0
19.966698 12.119757 1.3046424
2.5527978 1.5537689 -0.98539251
2.9864938 1.8177394 -0.96458763
3.6651177 2.2307861 -0.95050204
4.6617732 2.8374038 -0.90982306
6.5457411 3.9840872 -0.85411322
11.333753 6.8983259 -0.74110198
15.333365 9.3327036 0
19.965361 12.151982 1.3055135
2.5656886 1.5658666 -0.99109805
2.9992793 1.8304915 -0.96943074
3.6580861 2.2325683 -0.94937736
4.6517744 2.8390265 -0.90854043
6.534297 3.9879498 -0.85324806
11.320969 6.9093056 -0.74081141
15.353183 9.3702078 0
20.001669 12.207229 1.3088514
2.5659008 1.5702546 -0.99191225
2.9906518 1.8301893 -0.96735626
3.6597161 2.2396367 -0.95050204
4.6570988 2.8500051 -0.91025227
6.544919 4.0052943 -0.85526639
11.319263 6.9270501 -0.74124694
15.357382 9.3982582 0
20.017929 12.250374 1.310883
2.5808544 1.5836953 -0.99843198
2.9905744 1.8351126 -0.96804774
3.6635063 2.2480452 -0.95219123
4.6580234 2.8583128 -0.91110736
6.5334587 4.00914 -0.85440123
11.308672 6.9393644 -0.74110198
15.357112 9.4236174 0
20.034122 12.293582 1.3129152
2.5326321 1.55832 -0.98050427
3.0054483 1.8492423 -0.97358507
3.6542931 2.2484744 -0.95050204
4.648005 2.8599019 -0.90982306
6.5264091 4.0156775 -0.85411322
11.306911 6.9571052 -0.74153697
15.363438 9.4530716 0
20.056875 12.340928 1.3153825
2.555989 1.5769523 -0.99028385
2.9647839 1.8291639 -0.96112746
3.6580629 2.256892 -0.95219123
4.6489196 2.8682144 -0.91067982
6.5237513 4.0249171 -0.85440123
11.300715 6.9721303 -0.74168253
12.802814 7.8988705 0
20.10165 12.401987 1.3193008
2.5351665 1.568338 -0.98294997
2.973237 1.839343 -0.96458763
3.6553333 2.2613103 -0.95219123
4.6410804 2.8711259 -0.90982306
6.5188832 4.0327969 -0.85440123
11.296698 6.9885116 -0.74197251
12.771132 7.9006453 0
20.097698 12.433102 1.3200264
2.547966 1.5805163 -0.98865235
2.9710124 1.8429343 -0.96458763
3.6569126 2.2684016 -0.95331597
4.6441541 2.8807926 -0.91110736
6.5249929 4.0474868 -0.85584241
11.290451 7.0035248 -0.74211752
12.765995 7.9188118 0
21.206543 13.154528 1.3938988
3.0092533 1.8716942 -0.97773665
3.6606438 2.2768457 -0.95500517
4.6472116 2.8904707 -0.91239172
6.5157094 4.0526381 -0.85526639
11.284193 7.018538 -0.74226308
12.743162 7.9259868 0
21.197247 13.184255 1.3943338
2.5378535 1.5827491 -0.98620981
2.9835799 1.8607293 -0.9701249
3.6492662 2.2758889 -0.9527536
4.6350026 2.89065 -0.91067982
6.510808 4.0605083 -0.85526639
11.282312 7.0362887 -0.74269807
12.718116 7.9317369 0
21.179098 13.208485 1.3941889
2.5568912 1.5989165 -0.99435794
2.9919629 1.8709825 -0.97358507
3.6486659 2.2816427 -0.95331597
4.6380382 2.9003329 -0.91196412
6.4993157 4.0642571 -0.85440123
11.2672 7.0457873 -0.74226308
12.69087 7.93606 0
21.143295 13.221667 1.3928827
2.5444894 1.5954412 -0.99028385
2.9684491 1.8612716 -0.96666473
3.6437557 2.2847011 -0.9527536
4.6301765 2.9032052 -0.91110736
6.4987869 4.0748577 -0.85497838
11.254271 7.056633 -0.74197251
12.681272 7.9513884 0
21.096489 13.227882 1.3908511
2.5531673 1.6094912 -0.99517208
2.9809124 1.8791375 -0.97219938
3.6403711 2.2948537 -0.95331597
4.6296639 2.918494 -0.91239172
6.4823546 4.0864115 -0.85411322
11.232793 7.0810404 -0.74168253
12.637809 7.9667487 0
18.870831 11.895984 1.2460095
2.5533161 1.6138995 -0.99598938
2.9744024 1.8800597 -0.97081637
3.6461868 2.3046811 -0.95556748
4.6283021 2.9254563 -0.91281927
6.483973 4.0983887 -0.85497838
11.228617 7.0973821 -0.74197251
12.619373 7.9764509 0
18.836678 11.906283 1.2447033
2.534663 1.6063988 -0.98946971
2.9657695 1.8796221 -0.96873927
3.6455517 2.3104491 -0.95613199
4.6269298 2.9324193 -0.91324681
6.4833817 4.1089869 -0.8555544
11.213447 7.10677 -0.74153697
12.596533 7.9833317 0
12.696943 8.0469694 0.83963954
2.5181158 1.6001797 -0.98376417
2.9762046 1.8912802 -0.97289354
3.6363218 2.3107629 -0.9544428
4.63205 2.9435153 -0.91495866
6.4696798 4.1112685 -0.85440123
11.215823 7.1272864 -0.74226308
12.558325 7.980402 0
12.674057 8.0539465 0.83876896
2.5286829 1.6111873 -0.98865235
2.9696817 1.8921762 -0.97150791
3.6442394 2.3219805 -0.95725667
4.6220012 2.9449756 -0.91367602
6.473433 4.1246424 -0.8555544
11.213771 7.1450181 -0.74269807
12.539893 7.9899764 0
12.653361 8.062274 0.83804339
2.5297987 1.614048 -0.98946971
2.9833448 1.9034169 -0.9763537
3.6299877 2.3159842 -0.95388043
4.6310396 2.95467 -0.91581541
6.4622178 4.1229877 -0.85440123
11.209453 7.1517916 -0.74269807
12.506544 7.9793549 0
12.630963 8.0587368 0.83688229
2.5070224 1.6037819 -0.98131847
2.9747007 1.9029632 -0.97427654
3.6336017 2.3244727 -0.95556748
4.6209764 2.9561121 -0.91453111
6.4637699 4.1349759 -0.85526639
11.218313 7.1765332 -0.74385917
12.479355 7.9832416 0
12.610274 8.0669928 0.83615673
2.5342126 1.6254946 -0.99272954
2.9576151 1.8970734 -0.96943074
3.6329353 2.3302372 -0.95613199
4.6195602 2.963078 -0.91495866
6.4674773 4.1483688 -0.85641956
11.209634 7.190083 -0.74385917
12.463135 7.9941034 0
12.587391 8.0738039 0.8352856
2.5364003 1.6312268 -0.99435794
2.9722013 1.911502 -0.97496802
3.6258385 2.3318737 -0.95500517
4.62677 2.9755993 -0.9170981
6.46246 4.1561809 -0.85641956
11.218422 7.2148666 -0.74502033
12.438142 7.999301 0
12.564517 8.0805769 0.83441508
2.5385857 1.6369718 -0.99598938
2.978323 1.9205303 -0.97773665
3.6358268 2.3445125 -0.95838135
4.6296453 2.9853625 -0.91838241
6.4639482 4.1681871 -0.85728359
11.227166 7.2396822 -0.74618143
12.428467 8.0143242 0
12.53291 8.0816736 0.83296394
2.5283036 1.6346701 -0.99272954
2.9802179 1.9268545 -0.97912234
3.6329913 2.3489039 -0.95838135
4.6174116 2.9853792 -0.91667056
6.456737 4.1745915 -0.85699558
11.222771 7.256062 -0.74647141
12.423141 8.0321589 0
12.525316 8.0982199 0.83310896
2.4848478 1.6108346 -0.97643024
2.9694669 1.9249954 -0.9763537
3.645077 2.3629684 -0.96232212
4.6224174 2.996542 -0.91838241
6.4451833 4.1781735 -0.85613155
11.213995 7.2696171 -0.74647141
12.406881 8.0429211 0
12.504622 8.1062832 0.83238339
2.5077674 1.6299995 -0.98620981
2.9608264 1.924479 -0.97427654
3.6273043 2.3576765 -0.95838135
4.6187935 3.002125 -0.91838241
6.4357886 4.1831365 -0.8555544
11.205202 7.2831616 -0.74647141
12.401514 8.0607405 0
12.481742 8.1128874 0.83151227
2.5285676 1.6478688 -0.99517208
2.9542992 1.9253184 -0.97289354
3.630841 2.366221 -0.96007055
4.6151624 3.0077038 -0.91838241
6.4372325 4.1951475 -0.85641956
11.205102 7.3023705 -0.74705195
12.409208 8.0870867 0
12.463222 8.1222878 0.83093172
2.5203733 1.6468709 -0.99272954
2.9960723 1.9577036 -0.98742825
3.6301043 2.371995 -0.96063292
4.6115251 3.013278 -0.91838241
6.4299955 4.2015095 -0.85613155
11.200624 7.3187499 -0.74734253
12.408142 8.10777 0
12.444697 8.1316557 0.83035117
2.5121775 1.6458503 -0.99028385
2.9391394 1.9255739 -0.96943074
3.6229889 2.3735974 -0.95950824
4.6121793 3.0216641 -0.91923916
6.4292369 4.2121077 -0.85670757
11.191773 7.3322783 -0.74734253
12.396161 8.1213312 0
12.428349 8.1424189 0.82991618
2.49986 1.642101 -0.98620981
2.957783 1.9429003 -0.9763537
3.6179967 2.3765795 -0.95894587
4.612812 3.030051 -0.92009431
6.4111762 4.2113557 -0.85497838
11.180736 7.3443708 -0.74719751
12.405913 8.1491623 0
12.409814 8.1517239 0.82933563
2.9617207 1.9506137 -0.97843081
3.6214824 2.3851383 -0.96063292
4.611289 3.0370331 -0.92052186
6.4125571 4.2233629 -0.85584241
11.176189 7.3607306 -0.74748755
12.387364 8.1584206 0
12.393443 8.1624241 0.82890004
2.5082555 1.6563065 -0.99109805
2.9656363 1.9583343 -0.98050535
3.614361 2.3867147 -0.95950824
4.6076159 3.0426028 -0.92052186
6.4182391 4.2382331 -0.85728359
11.184634 7.3856845 -0.74864864
12.401388 8.1891584 0
12.385737 8.1788235 0.82904506
2.5227392 1.6702517 -0.99761778
2.9611778 1.9605327 -0.97981381
3.6093581 2.389679 -0.95894587
4.6039362 3.0481679 -0.92052186
6.4152761 4.2474174 -0.85757273
11.180031 7.4020596 -0.74893862
12.41318 8.2185011 0
12.369352 8.1894836 0.82861006
2.5083678 1.6650997 -0.99272954
2.9483581 1.9571731 -0.9763537
3.6212802 2.4038711 -0.96288443
4.6045313 3.0565708 -0.92137861
6.4101391 4.2551656 -0.85757273
11.162428 7.4098206 -0.74835867
12.411914 8.2392521 0
12.36161 8.2058592 0.82875502
2.5145843 1.673607 -0.99598938
2.9606123 1.9704657 -0.9811995
3.6120334 2.4040256 -0.96119744
4.6029696 3.0635533 -0.92180616
6.4006824 4.2600393 -0.85699558
11.159949 7.4276175 -0.74879366
12.421446 8.2672195 0
12.3625 8.2279873 0.82948059
2.4981668 1.6670395 -0.99028385
2.9436197 1.9642924 -0.9763537
3.6070063 2.4069738 -0.96063292
4.5907235 3.0634131 -0.92009431
6.4019866 4.2720785 -0.85786074
11.157453 7.445425 -0.74922919
12.45258 8.3096704 0
12.354709 8.24436 0.82962561
2.4961507 1.6700568 -0.99028385
2.955842 1.9776145 -0.9811995
3.6167705 2.4198105 -0.96401131
4.599824 3.0775256 -0.92266291
6.3968201 4.2798109 -0.85786074
11.146291 7.4574575 -0.74908423
12.470648 8.343523 0
12.349061 8.2621746 0.82991618
2.5002906 1.6772037 -0.99272954
2.9513607 1.9797831 -0.98050535
3.6096196 2.4213455 -0.96288443
4.5982318 3.0845098 -0.92309046
6.395936 4.2904162 -0.85843676
11.15237 7.4810491 -0.75009978
12.458389 8.357131 0
12.336905 8.2756386 0.82977062
2.4941566 1.6774622 -0.99109805
2.9406395 1.9777473 -0.97773665
3.6066914 2.4257052 -0.96288443
4.5902371 3.0871959 -0.9222337
6.3800182 4.290925 -0.85699558
11.149794 7.4988708 -0.75053531
16.002678 10.762712 0
12.335521 8.29634 0.83035117
2.475734 1.66942 -0.98457831
2.9444897 1.9855083 -0.97981381
3.6100798 2.4343245 -0.96457362
4.5928907 3.0970469 -0.923518
6.3726864 4.2971864 -0.85670757
11.155807 7.5225081 -0.75155145
15.987497 10.780581 0
12.327648 8.3126955 0.83049673
2.4860044 1.6807188 -0.98946971
2.9379358 1.9862572 -0.97843081
3.6008186 2.4344139 -0.96288443
4.5933948 3.1054671 -0.92437315
6.3739195 4.3092308 -0.85757273
11.144559 7.5345283 -0.75140643
15.978775 10.802808 0
12.321896 8.330493 0.83078671
2.9388108 1.9894367 -0.97912234
3.5972452 2.4351659 -0.96232212
4.5872703 3.1053662 -0.923518
6.3606076 4.3058324 -0.85613155
11.159369 7.5543685 -0.75271255
16.030428 10.851847 0
12.325468 8.3437624 0.83136725
2.4604564 1.6699523 -0.98050427
2.9530113 2.0042574 -0.98465961
3.5964005 2.4409363 -0.96288443
4.5856366 3.1123471 -0.92394561
6.3746591 4.3265862 -0.85872591
11.171729 7.5824366 -0.75416368
16.034531 10.8829 0
12.315377 8.3586493 0.83136725
2.5013459 1.7021229 -0.99761778
2.946435 2.0049984 -0.98327398
3.6039579 2.4524314 -0.96570051
4.5861211 3.1207767 -0.92480236
6.3651457 4.3313727 -0.85814875
11.169005 7.600317 -0.75459921
16.029976 10.908124 0
12.307414 8.3749847 0.83151227
2.5033667 1.7079272 -0.99924612
2.9564486 2.0170434 -0.98742825
3.6030889 2.458215 -0.96626282
4.5823469 3.1263158 -0.92480236
6.3513613 4.3332295 -0.85699558
11.170545 7.6211276 -0.75532478
16.070528 10.964151 0
12.310169 8.3986387 0.83238339
2.4605088 1.6830479 -0.98294997
2.9395125 2.0106981 -0.98258245
3.5917273 2.4568288 -0.96401131
4.5700908 3.1260533 -0.92309046
6.3631992 4.3525829 -0.85930192
11.17205 7.641953 -0.75605035
16.102375 11.014416 0
12.317169 8.4252434 0.83354449
2.9432898 2.0185065 -0.98465961
3.5887561 2.4611669 -0.96401131
4.5747786 3.1373806 -0.92480236
6.3579354 4.3602686 -0.85930192
11.171379 7.6613255 -0.7566309
16.131979 11.063302 0
12.313403 8.4445248 0.83397949
2.4930899 1.7141925 -0.99761778
2.9429138 2.0234814 -0.98535115
3.5878713 2.4669397 -0.96457362
4.5667496 3.1399944 -0.92394561
6.350533 4.3664837 -0.85901392
11.174956 7.6836486 -0.75750148
16.144333 11.100481 0
12.311755 8.4652853 0.83456004
2.4747372 1.7059813 -0.99109805
2.9384031 2.0256133 -0.98465961
3.5911658 2.4756007 -0.96626282
4.5671835 3.1484268 -0.92480236
6.3495073 4.3770871 -0.85958993
11.174221 7.7030449 -0.75808203
16.171614 11.148041 0
12.303655 8.4816294 0.83470505
2.4767444 1.7117834 -0.99272954
2.9256363 2.0220318 -0.9811995
3.588172 2.4799383 -0.96626282
4.5591483 3.1510212 -0.92394561
6.344214 4.3847561 -0.85958993
11.16277 7.715065 -0.75793701
16.215931 11.20752 0
19.77244 13.665575 1.342522
2.4706073 1.7119567 -0.99109805
2.9252512 2.0269928 -0.98189098
3.5809917 2.4813747 -0.96513599
4.5658855 3.1638367 -0.926085
6.3431673 4.3953676 -0.86016709
11.166259 7.7374301 -0.75880814
16.215216 11.236002 0
19.74737 13.683536 1.3419415
2.4726005 1.7177638 -0.99272954
2.9413412 2.043407 -0.98811978
3.5905154 2.494401 -0.96851438
4.5536261 3.1634929 -0.92437315
6.3399739 4.4045033 -0.8604551
11.169702 7.759809 -0.75967866
16.231546 11.276371 0
19.722286 13.701457 1.3413609
2.4826882 1.7292233 -0.99761778
2.9285786 2.0397916 -0.98465961
3.5791588 2.4929287 -0.96626282
4.5476961 3.167527 -0.92394561
6.3388958 4.4151201 -0.86103225
11.168846 7.7792406 -0.76025927
16.252077 11.319775 0
19.686529 13.711912 1.3400548
2.476548 1.7293943 -0.99598938
2.9281669 2.0447636 -0.98535115
3.5823877 2.5016117 -0.96794987
4.5438652 3.1730196 -0.92394561
6.3335567 4.4227762 -0.86103225
11.159438 7.7927303 -0.76025927
16.276793 11.366221 0
19.652903 13.723788 1.3388937
2.4704032 1.7295477 -0.99435794
2.9174733 2.0425448 -0.98258245
3.5835292 2.5088558 -0.96907669
4.5484395 3.1843967 -0.92565745
6.3366833 4.4363594 -0.86218542
11.17343 7.8226027 -0.7618559
16.299286 11.411253 0
19.63418 13.746037 1.3387487
2.4602194 1.7268516 -0.99109805
2.943747 2.0662444 -0.99227142
3.5784175 2.5117254 -0.96851438
4.5466876 3.1913638 -0.926085
6.3270798 4.4410381 -0.86160827
11.176727 7.8450522 -0.76272649
16.31744 11.453368 0
19.592033 13.751836 1.337007
2.4540925 1.7269809 -0.98946971
2.9207354 2.0553646 -0.98535115
3.5753798 2.5160475 -0.96851438
4.5512257 3.2027645 -0.9277969
6.3259439 4.4516597 -0.86218542
11.19274 7.8764963 -0.76446813
16.324869 11.48805 0
19.566902 13.769518 1.3364264
2.4580567 1.7342155 -0.99191225
2.9284976 2.0661221 -0.98881125
3.5764856 2.5232925 -0.96963906
4.5431614 3.2053046 -0.92694175
6.3290057 4.4652586 -0.86333746
11.195951 7.8989997 -0.76533872
16.340752 11.528775 0
19.537516 13.784165 1.3355559
2.4539437 1.7357583 -0.99109805
2.9300992 2.0725594 -0.99019694
3.5672088 2.5232089 -0.96794987
4.5350895 3.207824 -0.926085
6.3404989 4.4848518 -0.8656438
11.209735 7.9290295 -0.76693541
16.352297 11.56654 0
19.505995 13.797257 1.3345398
2.9194069 2.0702934 -0.98742825
3.5683067 2.5304599 -0.96907669
4.5437779 3.222214 -0.92865366
6.3392987 4.4955049 -0.86622095
11.200146 7.9425683 -0.76693541
16.372276 11.610377 0
19.480829 13.814804 1.3339592
2.9107673 2.0694571 -0.98535115
3.5631776 2.5332987 -0.96851438
4.5294223 3.2202661 -0.92651421
6.335968 4.5046587 -0.86650896
11.215954 7.9741635 -0.76867706
16.398537 11.658805 0
19.440826 13.821769 1.3323625
2.4486892 1.7431632 -0.99109805
2.923825 2.0814011 -0.99019694
3.5678504 2.5398674 -0.97020143
4.5358415 3.2289569 -0.92822605
6.3269224 4.5039845 -0.8656438
11.230184 7.9944992 -0.76998317
16.429649 11.695874 0
19.430357 13.832006 1.3322176
2.4586556 1.7547383 -0.99598938
2.921308 2.0849326 -0.99019694
3.5730517 2.5500808 -0.97245294
4.5319362 3.2344351 -0.92822605
6.3256898 4.5146341 -0.86622095
11.233202 8.0171165 -0.77085376
16.466345 11.752002 0
19.388248 13.83736 1.3304758
2.4444695 1.7490757 -0.99109805
2.9330626 2.0986755 -0.99504006
3.5720401 2.5558791 -0.97301745
4.5280247 3.2399087 -0.92822605
6.3370581 4.5343146 -0.86852729
11.238301 8.0412703 -0.77186984
16.479645 11.791575 0
19.352499 13.84717 1.3291698
2.9223707 2.0963688 -0.99227142
3.5668786 2.558708 -0.97245294
4.5282745 3.2483673 -0.9290812
6.3252678 4.5374441 -0.86766213
11.247578 8.0684738 -0.77317595
16.507671 11.841813 0
17.866314 12.816439 1.2281582
2.4442525 1.7578669 -0.99272954
2.9239128 2.1028309 -0.99365705
3.5617235 2.5615339 -0.97189063
4.5243464 3.2538366 -0.9290812
6.3176827 4.5435753 -0.86737412
11.261027 8.0987482 -0.77477264
16.535606 11.89214 0
17.85503 12.841048 1.2284483
2.9111969 2.0990274 -0.99019694
3.5606849 2.5673203 -0.97245294
4.52458 3.2623065 -0.92993796
6.3289719 4.5633073 -0.86968046
11.265981 8.122983 -0.77578819
16.561337 11.941033 0
17.83107 12.856535 1.2278677
2.8984869 2.0951908 -0.98673409
3.5617025 2.5746007 -0.97357982
4.518548 3.266263 -0.92950875
6.3234534 4.570951 -0.86968046
11.273005 8.1487675 -0.77694929
16.559547 11.970181 0
17.83869 12.894816 1.2294644
2.4478691 1.7739658 -0.99680358
2.9081454 2.1075273 -0.99088842
3.5565336 2.5774128 -0.97301745
4.5145984 3.2717204 -0.92950875
6.3137331 4.5755501 -0.86910331
11.273668 8.1700048 -0.77767485
16.570358 12.008507 0
17.812576 12.908739 1.2287388
2.903569 2.1095665 -0.99019694
3.5534167 2.5817084 -0.97301745
4.5168743 3.2817011 -0.93079305
6.3165698 4.5892568 -0.87025648
11.278505 8.194314 -0.77869099
16.564259 12.034638 0
17.817984 12.945523 1.2301899
2.4335878 1.7726016 -0.99272954
2.9070957 2.1175003 -0.99227142
3.5543983 2.5889893 -0.97414213
4.5108328 3.2856467 -0.9303655
6.3193827 4.6029768 -0.87140965
11.2833 8.218646 -0.77970707
16.587566 12.082222 0
17.825436 12.983873 1.2317866
2.4414225 1.7828275 -0.99680358
2.8984625 2.1165769 -0.99019694
3.5594754 2.5992761 -0.9763937
4.5130725 3.2956319 -0.93164819
6.3221717 4.6167107 -0.87256283
11.292246 8.2460642 -0.78101319
16.61709 12.134485 0
17.860088 13.042174 1.2352694
2.4392664 1.7857761 -0.99680358
2.8959031 2.1200776 -0.99019694
3.5481315 2.5975711 -0.97414213
4.5070181 3.2995677 -0.93122059
6.3165889 4.6243463 -0.87256283
11.284369 8.2612362 -0.78115821
16.631811 12.176075 0
17.873674 13.085238 1.2373016
2.9014292 2.129513 -0.99296558
3.5470366 2.6033585 -0.9747045
4.4988928 3.3019764 -0.9303655
6.3109965 4.6319757 -0.87256283
11.291137 8.2871647 -0.78231931
16.684223 12.245438 0
17.887173 13.128346 1.2393333
2.8968275 2.131526 -0.99227142
3.5459409 2.6091528 -0.97526902
4.5052361 3.3150156 -0.93250495
6.3053951 4.6395979 -0.87256283
11.314602 8.3254423 -0.78464156
16.730202 12.310317 0
17.153461 12.621758 1.1895531
2.8962746 2.1365182 -0.99296558
3.5448284 2.6149423 -0.97583133
4.4970918 3.3174062 -0.93164819
6.3060308 4.6518207 -0.87342799
11.294072 8.3313904 -0.78391546
16.771856 12.372231 0
17.148653 12.650186 1.1902786
2.4204915 1.7945923 -0.99354374
2.8991563 2.1494823 -0.99573153
3.542577 2.6265249 -0.97695601
4.4890614 3.328264 -0.93164819
6.3030815 4.6732082 -0.87458116
11.294784 8.3741379 -0.78536713
16.838072 12.484023 0
17.126381 12.697781 1.1908592
2.8925338 2.1499934 -0.99434859
3.541446 2.6323235 -0.97752053
4.4953442 3.3413472 -0.93378925
6.29743 4.6808209 -0.87458116
11.297165 8.3970776 -0.78623766
16.866835 12.536961 0
17.108942 12.716917 1.1907142
2.8899338 2.1534867 -0.99434859
3.5321484 2.6320448 -0.97583133
4.4913034 3.3467765 -0.93378925
6.3042097 4.6976967 -0.87631035
11.284929 8.4091702 -0.7860927
16.887148 12.583766 0
17.074814 12.723608 1.1894081
2.899385 2.165983 -0.99850023
3.5309992 2.6378298 -0.9763937
4.4872561 3.352201 -0.93378925
6.3005991 4.7068572 -0.87659836
11.293493 8.4367943 -0.78739882
16.919888 12.639987 0
17.0511 12.738009 1.1888275
2.4098132 1.8047898 -0.99272954
2.8967657 2.1694849 -0.99850023
3.5318806 2.6451437 -0.97752053
4.4914212 3.3637757 -0.9355011
6.2949071 4.7144666 -0.87659836
11.293688 8.4582214 -0.78812438
16.92959 12.679137 0
17.027376 12.752373 1.188247
2.4135544 1.812148 -0.99517208
2.8961542 2.174494 -0.99919438
3.528682 2.6494093 -0.97752053
4.4852948 3.3676546 -0.93507189
6.289206 4.7220693 -0.87659836
11.298007 8.4827833 -0.78914046
16.974611 12.744898 0
17.007795 12.769814 1.1879565
2.8875096 2.1734643 -0.99711722
3.5356264 2.66131 -0.9803344
4.4771242 3.369987 -0.9342168
6.3000274 4.7421088 -0.8789047
11.283601 8.4933071 -0.78885049
17.000784 12.796701 0
16.986124 12.785666 1.1875209
2.8922083 2.1797397 -0.99919438
3.5279286 2.6588562 -0.97864521
4.4853358 3.380415 -0.93635625
6.2806373 4.7334604 -0.87659836
11.28676 8.5063715 -0.7894305
17.001364 12.813235 0
16.96595 12.786546 1.1866503
2.4139874 1.8239018 -0.99761778
2.8695519 2.1681061 -0.99227142
3.5307972 2.6677139 -0.9803344
4.483294 3.3873782 -0.93678379
6.2831678 4.747283 -0.87775153
11.284766 8.526269 -0.79001105
16.985868 12.833769 0
16.933901 12.794505 1.1854892
3.5255399 2.6704395 -0.97976989
4.4832945 3.395896 -0.93764055
6.2918615 4.7658048 -0.87976986
11.291026 8.5524502 -0.79117215
16.957897 12.844852 0
16.918428 12.814957 1.1854892
2.8802881 2.1871719 -0.99780869
3.5162456 2.6700921 -0.9780829
4.485323 3.4059694 -0.93892485
6.2799168 4.7687097 -0.8789047
11.301383 8.5818043 -0.79262382
16.934082 12.859044 0
16.896723 12.830674 1.1850536
2.8836336 2.1952109 -0.99988586
3.5190763 2.6789515 -0.97976989
4.4750748 3.4067204 -0.93764055
6.2782698 4.7794309 -0.87948185
11.288932 8.5938749 -0.79247826
16.908173 12.87161 0
16.866739 12.840068 1.184038
2.874994 2.1941261 -0.99780869
3.5178623 2.6847477 -0.9803344
4.4811563 3.4199107 -0.93977994
6.2786527 4.7917161 -0.88034588
11.290936 8.616971 -0.79334939
16.882265 12.884137 0
16.845015 12.855708 1.1836026
2.8723409 2.1975985 -0.99780869
3.5166318 2.6905389 -0.98089677
4.4709024 3.4206417 -0.93849564
6.2749186 4.8008757 -0.88063502
11.288772 8.6369228 -0.79392993
16.866684 12.904527 0
16.81502 12.864999 1.1825864
2.3928564 1.8353379 -0.99435794
2.8696833 2.2010674 -0.99780869
3.5133784 2.6947861 -0.98089677
4.4789915 3.4354184 -0.9410643
6.2793727 4.8163233 -0.8820762
11.290694 8.6600428 -0.79480052
16.855213 12.928068 0
16.803591 12.888473 1.1828769
3.5121319 2.7005765 -0.98145908
4.464664 3.4330053 -0.93892485
6.2715001 4.8223319 -0.88178819
11.288462 8.6800146 -0.79538107
16.858147 12.962701 0
16.788006 12.908768 1.1828769
2.8683336 2.2110622 -0.99919438
3.5108767 2.7063682 -0.98202145
4.4686375 3.4446604 -0.94063509
6.2820487 4.8425331 -0.8840934
11.288253 8.7015781 -0.79610664
16.885754 13.016426 0
16.790915 12.943319 1.1841831
2.3959644 1.8515549 -0.99843198
2.8636692 2.2129879 -0.99850023
3.5096204 2.7121665 -0.98258597
4.4665089 3.4516315 -0.9410643
6.2823343 4.8548665 -0.88495857
11.277731 8.7152119 -0.79610664
16.90502 13.063871 0
16.812269 12.992195 1.1867954
2.862982 2.2179873 -0.99919438
3.5043263 2.7148447 -0.98202145
4.4582725 3.4538786 -0.94020754
6.2723784 4.8592887 -0.88438255
11.293894 8.7495184 -0.7979933
16.928307 13.114567 0
16.845858 13.050693 1.1902786
3.5010433 2.7190771 -0.98202145
4.4581547 3.4624155 -0.9410643
6.2665024 4.8668642 -0.88438255
11.289472 8.7679415 -0.79842883
16.959724 13.171729 0
16.873171 13.104507 1.1933265
3.4977553 2.7233055 -0.98202145
4.458015 3.4709506 -0.94191939
6.2667336 4.8791947 -0.88524657
11.264516 8.7704 -0.79741275
16.99102 13.22898 0
16.888071 13.148826 1.1955031
3.504483 2.7353511 -0.98483747
4.4517961 3.4747567 -0.94149184
6.2730708 4.8963151 -0.8869769
11.27849 8.8031912 -0.7991544
17.007847 13.275122 0
16.915186 13.202796 1.1985509
3.4971693 2.736449 -0.98371065
4.4455748 3.4785531 -0.9410643
6.2610373 4.8991079 -0.88611174
11.271942 8.8200178 -0.79944497
17.030731 13.326129 0
16.938105 13.253651 1.2013087
3.4978623 2.7438121 -0.98483747
4.4494476 3.4902596 -0.94277614
6.273427 4.9210353 -0.88870609
11.265362 8.8368359 -0.79973495
17.069906 13.390068 0
16.960917 13.304574 1.2040659
2.3685648 1.8625898 -0.99354374
3.490546 2.7448924 -0.98371065
4.4512749 3.5003891 -0.94405884
6.2593436 4.9222169 -0.88755292
11.266934 8.8600817 -0.80060607
17.086447 13.436423 0
16.973427 13.347548 1.2060982
2.8401756 2.2390139 -0.99780869
3.4932151 2.7538288 -0.98539984
4.4490638 3.507359 -0.94448799
6.267612 4.9409866 -0.88957125
11.272546 8.8865585 -0.80176717
17.094717 13.476388 0
17.008301 13.408263 1.2097265
3.4858942 2.7548935 -0.98427296
4.4428024 3.5111361 -0.94405884
6.25352 4.9421415 -0.88841808
11.26791 8.9050016 -0.80220217
17.131512 13.538992 0
17.036934 13.464247 1.2129192
3.4925265 2.7669976 -0.98708904
4.442585 3.5196929 -0.94491559
6.2556529 4.9561186 -0.88957125
11.259184 8.920228 -0.80234772
17.15593 13.591998 0
17.059343 13.515476 1.2156765
3.488858 2.7675233 -0.98652452
4.4404578 3.5223763 -0.94491559
6.2627878 4.9679327 -0.89101243
11.272113 8.9415607 -0.80365384
17.180338 13.628238 0
17.087822 13.554851 1.2182893
2.8346124 2.2541311 -0.99919438
3.4894927 2.7749028 -0.98765135
4.4361982 3.5277393 -0.94491559
6.2567801 4.9754963 -0.89101243
11.253165 8.9487057 -0.80307329
17.182188 13.663564 0
17.110067 13.606213 1.2210466
3.4821596 2.7759464 -0.98652452
4.4299273 3.5314982 -0.94448799
6.2568331 4.9878912 -0.89187759
11.268756 8.9833517 -0.80495995
17.242992 13.745959 0
17.150507 13.67223 1.2251104
3.47682 2.7785673 -0.98596215
4.4316673 3.5416515 -0.94577068
6.258884 5.0019069 -0.89303076
11.268041 9.0050707 -0.80568552
17.267031 13.799278 0
17.166451 13.718898 1.2274327
3.4794109 2.7875338 -0.98765135
4.4373999 3.5550275 -0.94791013
6.2487946 5.0062284 -0.89245361
11.279461 9.0365515 -0.80728221
17.284872 13.847793 0
17.186361 13.768871 1.230045
3.4780195 2.7933254 -0.98821372
4.4291019 3.5571747 -0.94705498
6.2548442 5.0234957 -0.89418393
11.272581 9.0534258 -0.80757219
17.320879 13.911036 0
17.196047 13.810779 1.2319316
3.480581 2.8023078 -0.98990291
4.4228029 3.5609155 -0.94662744
6.2527952 5.0342908 -0.89475995
11.25759 9.0637836 -0.80728221
17.336493 13.958068 0
17.233988 13.87554 1.23585
3.4712589 2.8017223 -0.98821372
4.4125023 3.5614185 -0.94534314
6.2527475 5.0467176 -0.89562511
11.254718 9.0839071 -0.80786276
17.358086 14.010057 0
17.253601 13.925726 1.2384622
3.4737988 2.8107109 -0.98990291
4.4181719 3.5748196 -0.94748253
6.2506628 5.0575199 -0.89620113
11.251806 9.1040316 -0.80844277
17.38768 14.068673 0
18.915327 15.304719 1.3590671
3.4664495 2.811702 -0.98877609
4.4098659 3.5769243 -0.94662744
6.2505755 5.0699582 -0.8970663
11.246853 9.1225328 -0.8088783
17.431299 14.138853 0
18.886732 15.319381 1.3583416
3.4689658 2.820699 -0.99046528
4.4174871 3.5919642 -0.94919443
6.2404351 5.0742469 -0.89649028
11.27413 9.167264 -0.81163609
17.438435 14.179607 0
18.868208 15.342191 1.3583416
3.4635873 2.8232846 -0.98990291
4.4191151 3.6021667 -0.95047873
6.2503381 5.0948572 -0.89879662
11.257 9.1759529 -0.81120056
17.45154 14.225327 0
18.8557 15.369905 1.358777
3.4621391 2.8290739 -0.99046528
4.4087939 3.6026292 -0.94919443
6.2441773 5.1024055 -0.89879662
11.259992 9.2010593 -0.8122167
17.488752 14.290868 0
18.879366 15.427203 1.3618249
3.4567544 2.8316464 -0.98990291
4.4123807 3.6144607 -0.95090628
6.2440042 5.1148591 -0.89966065
11.283036 9.2426491 -0.81468391
17.525824 14.356513 0
18.900908 15.48293 1.3647271
3.4631469 2.8438823 -0.99271679
4.4080105 3.6197894 -0.95090628
6.2398162 5.1240401 -0.89994866
11.267839 9.2529745 -0.81439334
17.542654 14.405755 0
18.942425 15.555224 1.369081
3.4577482 2.8464515 -0.99215448
4.3976855 3.6202168 -0.94962198
6.2495956 5.1447268 -0.902255
11.26668 9.2748384 -0.81511891
17.567427 14.461675 0
18.977783 15.622693 1.3729999
3.4562643 2.8522432 -0.99271679
4.4032135 3.6337023 -0.95176303
6.2393885 5.1489849 -0.90167898
11.281516 9.3099442 -0.81700557
17.580051 14.507739 0
18.998968 15.678684 1.3759022
3.4430282 2.8483207 -0.98990291
4.3948598 3.6357443 -0.95090628
6.2331624 5.1565204 -0.90167898
11.272267 9.3252306 -0.81715113
17.620651 14.577071 0
19.02606 15.739726 1.3792405
3.4532692 2.8638282 -0.99384147
4.3904638 3.641052 -0.95090628
6.2329021 5.169003 -0.90254414
11.270989 9.3471355 -0.8178767
17.641088 14.629918 0
19.065031 15.810805 1.3834494
3.4439504 2.8631301 -0.99215448
4.3919849 3.6512792 -0.95219058
6.2385812 5.1864486 -0.90427333
11.239702 9.3441334 -0.81642503
17.663424 14.684498 0
19.107849 15.885321 1.3879483
3.4519825 2.8733366 -0.99496835
4.395699 3.6588604 -0.95347494
6.2354469 5.1902165 -0.90427333
11.240048 9.3559103 -0.81686056
17.694546 14.728459 0
19.144184 15.935098 1.3912866
3.4446025 2.8742466 -0.99384147
4.3853598 3.6592336 -0.95219058
6.2311549 5.1994023 -0.90456134
11.234722 9.3744812 -0.81729615
17.718697 14.784842 0
19.180771 16.004826 1.39535
3.4352858 2.8735204 -0.99215448
4.3927455 3.6744087 -0.95475757
6.2387571 5.2185459 -0.90657967
11.205451 9.3730459 -0.81599003
17.728771 14.82962 0
19.205263 16.064665 1.3985428
3.4473872 2.8907301 -0.99665755
4.3883028 3.6797137 -0.95475757
6.2324471 5.2260804 -0.90657967
11.227963 9.4149599 -0.81845725
19.280186 16.166973 0
19.219685 16.11624 1.40101
3.4438918 2.8948934 -0.99665755
4.383853 3.6850135 -0.95475757
6.2201862 5.2286129 -0.90571451
11.194697 9.4101267 -0.81686056
19.244699 16.176861 0
19.220091 16.156174 1.4024616
3.4365015 2.8957748 -0.99553066
4.3774362 3.6886554 -0.95433003
6.2237515 5.2444568 -0.90715569
11.195246 9.4336958 -0.81773168
21.030104 17.721058 0
21.038481 17.728119 1.5367088
3.4330001 2.899925 -0.99553066
4.3749352 3.6955969 -0.95475757
6.2253137 5.2586493 -0.90830886
11.213608 9.4723635 -0.81990838
21.056391 17.786762 0
21.026968 17.761909 1.5374345
3.4314308 2.9057114 -0.99609303
4.38026 3.7091734 -0.95689702
6.2209349 5.2678437 -0.90859801
11.192242 9.4775114 -0.81918281
21.120279 17.884504 0
21.062996 17.835997 1.5416434
3.4279172 2.9098556 -0.99609303
4.3777375 3.7161293 -0.95732623
6.2224522 5.282052 -0.90975118
11.19465 9.5028009 -0.82019895
21.146271 17.950432 0
21.102833 17.913559 1.5461422
3.4224656 2.9123504 -0.99553066
4.3751974 3.7230783 -0.95775378
6.223937 5.2962651 -0.91090322
11.202945 9.5331573 -0.82165003
21.184023 18.026564 0
21.136583 17.986197 1.5502062
3.4208753 2.9181311 -0.99609303
4.3726468 3.7300267 -0.95818132
6.2234383 5.3088193 -0.91176838
11.193393 9.5483713 -0.82179505
21.320616 18.187262 0
21.162273 18.052189 1.5536889
3.4154174 2.9206126 -0.99553066
4.3661871 3.7336407 -0.95775378
6.2150555 5.3146558 -0.91148037
11.187774 9.5669575 -0.82223058
21.261042 18.180872 0
21.207586 18.13516 1.5586234
3.4215298 2.9330041 -0.99834454
4.373363 3.7489347 -0.96032077
6.2164841 5.3288951 -0.91263354
11.172256 9.5770826 -0.82194006
21.357613 18.308174 0
21.25668 18.221653 1.5638484
3.4122076 2.932173 -0.99665755
4.3707824 3.7558942 -0.96074992
6.2080808 5.3347182 -0.91234553
11.174474 9.6024323 -0.82295614
21.345343 18.342447 0
21.293766 18.298126 1.5682024
3.4067314 2.9346306 -0.99609303
4.3681841 3.7628465 -0.96117753
6.215342 5.3540277 -0.91436273
11.166804 9.6193218 -0.82324672
21.419771 18.451445 0
21.334633 18.378105 1.5728462
3.4034755 2.9461842 -0.99721986
4.3590779 3.7733917 -0.96117753
6.2063003 5.3724208 -0.91493988
11.171026 9.6700859 -0.8252784
21.499077 18.610458 0
21.411961 18.535046 1.5818446
3.4037476 2.9536216 -0.99834454
4.3525786 3.7769752 -0.96074992
6.2095699 5.3883905 -0.91638106
11.151484 9.6767645 -0.82469785
21.529648 18.682476 0
21.446461 18.610291 1.5860535
4.3557587 3.7889709 -0.96246183
6.21281 5.4043756 -0.91782224
11.151542 9.7004604 -0.82556838
21.562031 18.756296 0
21.504337 18.70611 1.5920041
3.3985205 2.9635134 -0.99890906
4.3531103 3.7959168 -0.96288937
6.1984777 5.4050789 -0.91666907
11.157437 9.7292967 -0.82687449
21.570736 18.809704 0
21.516966 18.762817 1.5946163
4.3659134 3.8163774 -0.96674067
6.1958408 5.4159722 -0.91724622
11.137855 9.7359371 -0.82629448
21.55583 18.842604 0
21.521666 18.81274 1.596648
4.355505 3.8165729 -0.96545637
6.1951222 5.4285636 -0.91811025
11.147574 9.7682199 -0.82789063
22.568432 19.775908 0
22.55028 19.760002 1.6747289
4.3470364 3.8184478 -0.96460122
6.2079945 5.4531183 -0.92099375
11.131863 9.7782564 -0.8276006
22.532791 19.792862 0
22.506868 19.77009 1.6732777
4.3520508 3.8321784 -0.96674067
6.2033405 5.4623232 -0.92128175
11.151235 9.819169 -0.82992232
22.487373 19.801153 0
22.490765 19.80414 1.6738583
4.34588 3.8314085 -0.96588391
6.2019777 5.4677787 -0.92156976
11.153097 9.832777 -0.83050287
22.473455 19.813015 0
22.469051 19.809134 1.6731328
4.3431764 3.8383617 -0.96631312
6.1934299 5.4735575 -0.92128175
11.133419 9.8393641 -0.82992232
22.439751 19.831541 0
22.421734 19.815619 1.671391
4.3442941 3.8487086 -0.96759576
6.1945558 5.4878974 -0.92243493
11.146812 9.8752146 -0.83180952
22.423563 19.865543 0
22.403612 19.847868 1.6718266
4.3415656 3.8556647 -0.96802497
6.1956558 5.5022483 -0.9235881
11.130982 9.8852215 -0.83151895
22.370352 19.866699 0
22.364071 19.86112 1.6706655
4.3349805 3.8591959 -0.96759576
6.1948004 5.5148916 -0.92445326
11.146197 9.9228497 -0.83355063
22.334673 19.883335 0
22.320644 19.870848 1.6692138
4.3398962 3.8729823 -0.96973687
6.1823411 5.5172048 -0.9235881
11.116753 9.9207411 -0.83224452
22.295097 19.896446 0
22.292744 19.894346 1.6689239
4.3352132 3.8782232 -0.96973687
6.185307 5.5332918 -0.92502928
11.112504 9.9410963 -0.83282506
22.265219 19.918163 0
22.255131 19.90914 1.6679077
4.330524 3.8834586 -0.96973687
6.1843948 5.5459437 -0.92589444
11.110155 9.9631882 -0.83355063
22.227571 19.932888 0
22.202045 19.909998 1.6657311
4.3334575 3.8955464 -0.97144705
6.1815329 5.5568671 -0.92647046
11.119367 9.9957161 -0.83514732
22.195736 19.952778 0
22.177973 19.936811 1.6657311
4.3287473 3.9007797 -0.97144705
6.1767335 5.566062 -0.92675847
11.09956 10.002186 -0.83456677
22.163877 19.972614 0
22.153866 19.963594 1.6657311
4.3240309 3.9060075 -0.97144705
6.1834407 5.5856595 -0.9287768
11.110604 10.036492 -0.83630842
22.132002 19.992403 0
22.118155 19.979895 1.6648599
4.3193083 3.9112294 -0.97144705
6.1766868 5.5931268 -0.9287768
11.104249 10.055144 -0.83674401
22.117474 20.027863 0
22.088224 20.001377 1.6644249
4.3183842 3.9198995 -0.97230381
6.1660976 5.5971127 -0.92820078
11.090162 10.066802 -0.83659846
22.114449 20.073809 0
22.077503 20.040272 1.6654404
4.3174386 3.9285667 -0.97315896
6.1650639 5.6097765 -0.92906481
11.099133 10.099434 -0.83819509
22.103653 20.112778 0
22.078255 20.089666 1.6673272
4.3202748 3.9407005 -0.9748708
6.1621065 5.6207108 -0.92964196
11.079243 10.105833 -0.83761454
22.083183 20.142981 0
22.073166 20.133844 1.6687788
4.3136172 3.9441872 -0.97444326
6.1724882 5.6438589 -0.93223631
11.078526 10.12973 -0.83848512
22.06843 20.178429 0
22.044983 20.15699 1.6684883
4.3069577 3.9476635 -0.97401571
6.1675692 5.653059 -0.93252432
11.091178 10.165932 -0.84037179
22.059381 20.219147 0
22.024446 20.187126 1.6687788
4.3078575 3.958077 -0.97530001
6.1607337 5.6605072 -0.93252432
11.094193 10.193391 -0.84153289
22.052179 20.261633 0
22.007692 20.220757 1.6693593
4.312511 3.9719732 -0.97743946
6.1595988 5.6732059 -0.93338948
11.070405 10.196229 -0.84066236
22.067879 20.325287 0
22.008087 20.270218 1.6712461
4.3114772 3.9806604 -0.97829455
6.1565366 5.6841502 -0.9339655
11.06762 10.21841 -0.84138787
23.504099 21.700647 0
23.79528 21.969484 1.8089761
4.3141999 3.992842 -0.9800064
6.1591606 5.7003741 -0.93540782
11.076244 10.251192 -0.84298456
23.489325 21.739641 0
23.772533 22.001755 1.8092666
4.3056121 3.9945633 -0.97915131
6.1579514 5.7130847 -0.93627185
11.054327 10.255733 -0.84225899
23.407713 21.716677 0
23.724976 22.011021 1.8076699
4.3007822 3.9997628 -0.97915131
6.1434679 5.7134752 -0.93511868
11.062852 10.288543 -0.84385514
0 0 0
23.692654 22.034361 1.8072344
4.3021188 4.0058556 -0.9800064
6.1608391 5.7365761 -0.93829018
11.056634 10.295225 -0.84385514
23.094057 21.503698 0
22.846441 21.273134 1.7436669
4.2954006 4.0093012 -0.97957885
6.1463394 5.7369566 -0.93713701
11.051785 10.315669 -0.84443569
23.071859 21.535135 0
22.957481 21.428375 1.7541164
4.2924256 4.0162406 -0.9800064
6.1507316 5.7549782 -0.9388662
11.07726 10.364522 -0.8473385
23.074329 21.58967 0
23.001776 21.521784 1.7594864
4.2931886 4.0266943 -0.98129076
6.1494346 5.7677159 -0.93973136
11.047673 10.361902 -0.84603238
23.034935 21.60507 0
23.007971 21.579779 1.7619536
4.2864518 4.0301223 -0.98086315
6.1481161 5.7804589 -0.94059652
11.027573 10.368124 -0.84545177
23.005026 21.629326 0
22.989452 21.614683 1.7625341
4.2853117 4.0388165 -0.9817183
6.1448879 5.7914281 -0.94117254
11.054745 10.418866 -0.8484996
22.96183 21.641045 0
22.970875 21.649569 1.7631142
4.2767 4.0404692 -0.98086315
6.1416492 5.8024049 -0.94174969
11.047809 10.437564 -0.84893459
22.943232 21.675922 0
22.937151 21.670177 1.7625341
4.2792702 4.0526943 -0.98257506
6.1365099 5.8115983 -0.9420377
11.046513 10.461629 -0.84980571
15.84465 15.005719 0
22.909058 21.696085 1.7623886
4.2743702 4.0578623 -0.98257506
6.1388607 5.8279114 -0.94347888
11.04894 10.489282 -0.85096681
15.818958 15.017686 0
22.882826 21.723749 1.7623886
4.2769022 4.0701027 -0.9842869
6.131814 5.8353248 -0.94347888
11.028728 10.49546 -0.85038626
15.781951 15.018851 0
22.850918 21.746016 1.7619536
4.266407 4.0699501 -0.9830026
6.1266284 5.8445129 -0.94376689
11.0386 10.5303 -0.85212791
15.76003 15.034321 0
15.721747 14.997801 1.2136449
4.257772 4.0715504 -0.98214585
6.1195621 5.8519115 -0.94376689
11.022108 10.540035 -0.8518374
15.726805 15.038963 0
15.709249 15.022176 1.2140805
4.2639718 4.0873542 -0.98471445
6.1292968 5.8754153 -0.94636238
10.99624 10.540765 -0.85082179
22.629553 21.692215 0
15.683583 15.033954 1.2134999
4.2627287 4.0960569 -0.9855696
6.1221929 5.8828173 -0.94636238
11.026584 10.595448 -0.85415959
22.62772 21.742981 0
15.644794 15.033088 1.2119032
4.2614775 4.1047697 -0.98642635
6.1299758 5.9045582 -0.94866759
11.03623 10.630395 -0.8559013
22.584562 21.754059 0
22.646133 21.813366 1.7562931
4.2472825 4.1010022 -0.9842869
6.1154013 5.9047813 -0.94751555
11.015901 10.636502 -0.85532075
22.584469 21.806637 0
22.60668 21.828085 1.7552775
4.2515454 4.115056 -0.98642635
6.1138325 5.9175577 -0.94837958
11.012374 10.658839 -0.85604626
22.578674 21.853823 0
22.576551 21.851767 1.7549869
4.2484107 4.1219764 -0.9868539
6.1141028 5.9321451 -0.94953275
11.040511 10.711942 -0.8592391
22.544781 21.873838 0
22.538944 21.868177 1.7541164
4.2489495 4.1324778 -0.9881382
6.1013665 5.9341168 -0.94866759
11.001486 10.699914 -0.85720742
22.494081 21.877478 0
22.510645 21.893585 1.7539713
4.2494621 4.1429796 -0.98942089
6.1053071 5.9523215 -0.95039791
11.009016 10.733154 -0.85880405
22.383778 21.822889 0
22.471148 21.90807 1.7529552
4.2407846 4.144526 -0.98856574
6.1018066 5.9633064 -0.95097393
10.997896 10.748263 -0.85894907
22.266201 21.760798 0
22.433506 21.924305 1.7520841
4.2376056 4.1514421 -0.98899335
6.1056857 5.9815383 -0.95270425
11.029442 10.80518 -0.86243188
22.299374 21.845959 0
22.399582 21.944128 1.7515042
4.2405963 4.1593957 -0.99027765
6.1057606 5.9888449 -0.95328027
11.019205 10.808205 -0.86214185
22.358625 21.930494 0
22.380753 21.952198 1.7510686
4.2410607 4.1699181 -0.99156195
6.0948343 5.9925952 -0.95270425
11.007988 10.823332 -0.86228687
22.346956 21.972092 0
22.350502 21.975576 1.7507781
4.2378454 4.1768394 -0.99198949
6.0949578 6.0072174 -0.95385742
11.015262 10.85669 -0.86388355
22.325954 22.004559 0
22.320234 21.998922 1.750488
4.238276 4.1873713 -0.99327379
6.0950546 6.0218492 -0.95501059
11.005829 10.873642 -0.86417353
22.347481 22.079073 0
22.28809 22.020395 1.7500525
4.2259173 4.1852641 -0.99156195
6.0987968 6.0401263 -0.95673978
11.012992 10.907047 -0.86577022
22.431725 22.215931 0
22.239311 22.02537 1.7483108
4.2299643 4.1994081 -0.9937014
6.0859857 6.0420222 -0.95587462
10.972143 10.892884 -0.86359298
22.495361 22.332863 0
22.208998 22.048567 1.7480208
4.2267046 4.2063255 -0.99412894
6.0915155 6.0621448 -0.95789295
11.001337 10.948293 -0.86693132
22.579035 22.470169 0
22.092093 21.985573 1.7409091
4.2270732 4.2168703 -0.99541324
6.0915108 6.0768075 -0.95904613
10.978904 10.952404 -0.86620575
22.596087 22.541546 0
22.076551 22.023266 1.7417802
4.2256017 4.2256017 -0.99626833
6.0841637 6.0841637 -0.95904613
11.004245 11.004245 -0.86925358
22.647959 22.647959 0
22.138113 22.138113 1.7487464
4.2204928 4.2307043 -0.99626833
6.0768075 6.0915108 -0.95904613
10.996441 11.023046 -0.86968857
22.644468 22.699259 0
22.159058 22.212671 1.7525197
4.2138772 4.2445383 -0.99712509
6.0784678 6.1226964 -0.96164048
10.978922 11.058807 -0.87041414
23.704298 23.876776 0
22.304852 22.467148 1.7683392
4.2123547 4.2532711 -0.99798024
6.0728836 6.1318727 -0.96192849
10.971039 11.077605 -0.87084967
23.655283 23.885057 0
22.370935 22.588234 1.7757409
4.2072124 4.258358 -0.99798024
6.0691094 6.1428895 -0.96250564
10.99417 11.127823 -0.87375247
23.619089 23.906218 0
22.39476 22.667006 1.7798048
4.2074714 4.2689252 -0.99926454
6.067131 6.1557465 -0.9633708
10.94971 11.109639 -0.87128526
23.564613 23.908792 0
22.462198 22.790276 1.7873515
4.2041082 4.2758346 -0.99969208
6.0633116 6.1667581 -0.96394682
10.970887 11.158061 -0.87404245
23.543005 23.944672 0
22.487473 22.871132 1.7915604
6.0576653 6.1759243 -0.96423483
10.9483 11.162035 -0.87331688
0 0 0
22.42889 22.866753 1.7890931
6.0501986 6.1832395 -0.96423483
10.956613 11.197543 -0.87505859
0 0 0
31.474514 32.166622 2.513737
6.0517545 6.1997981 -0.96567601
10.946701 11.214489 -0.87534857
0 0 0
31.551781 32.323627 2.5230255
6.0532866 6.2163763 -0.96711832
10.951275 11.246328 -0.87680024
0 0 0
31.572521 32.423161 2.5278149
6.0493717 6.2273932 -0.96769434
10.968455 11.291236 -0.87926745
0 0 0
31.625654 32.556335 2.5352166
6.0382462 6.2309866 -0.96711832
10.960231 11.310081 -0.87970304
27.41099 28.285946 0
27.586554 28.467115 2.2141848
6.0362778 6.2364902 -0.96740633
10.951583 11.314828 -0.87955749
27.384848 28.293154 0
27.540436 28.453903 2.2118626
6.0467005 6.2623825 -0.97028869
10.903615 11.292541 -0.87680024
27.348827 28.324345 0
27.529497 28.511459 2.2137492
6.0391293 6.2696843 -0.97028869
10.922406 11.339391 -0.87941247
27.298336 28.340502 0
27.460773 28.509142 2.2109914
6.031549 6.2769771 -0.97028869
10.933899 11.378807 -0.88144416
27.26227 28.371592 0
27.424507 28.54043 2.2108464
6.0239601 6.2842603 -0.97028869
10.938127 11.410772 -0.88289583
27.199154 28.374451 0
27.35404 28.53603 2.2079437
6.0288773 6.3046217 -0.97230703
10.938698 11.439004 -0.88405693
27.137875 28.379087 0
27.310562 28.559673 2.2072182
6.0248222 6.3156414 -0.97288305
10.917694 11.444693 -0.88347638
27.053265 28.359131 0
27.238369 28.553171 2.2041702
6.0243187 6.330411 -0.97403622
10.900271 11.454108 -0.8831858
27.011803 28.384258 0
27.162655 28.542774 2.2008326
6.0220094 6.3433146 -0.97490138
10.909678 11.491767 -0.88507253
26.963152 28.401775 0
24.754219 26.074986 2.0082424
6.023231 6.3599749 -0.97634256
10.911864 11.521919 -0.88637865
26.966393 28.474014 0
24.699469 26.080353 2.0063558
6.0137672 6.3653698 -0.97605455
10.897934 11.535095 -0.88637865
26.93733 28.512255 0
24.66972 26.112064 2.0065007
6.007844 6.3745117 -0.97634256
6.7869477 7.2011657 -0.55272067
26.913567 28.556143 0
27.092104 28.745575 2.2063475
6.0054541 6.3874216 -0.97720772
6.7551045 7.1847525 -0.550834
26.871912 28.581057 0
27.05023 28.770718 2.2057669
6.0048094 6.4022193 -0.97836089
6.7535291 7.2004905 -0.55141455
26.826679 28.602119 0
27.011889 28.799587 2.2054765
5.9970694 6.4094706 -0.97836089
6.7341681 7.1972575 -0.55054343
26.776098 28.617413 0
26.322012 28.132099 2.1519229
5.9999061 6.4280534 -0.98009008
6.7201462 7.1996884 -0.5501079
26.739725 28.647844 0
26.307505 28.18478 2.1535196
5.9903736 6.4334073 -0.97980207
6.7025895 7.1982965 -0.54938233
26.689123 28.662985 0
26.294678 28.239368 2.1552613
5.9843545 6.442534 -0.98009008
6.6673656 7.1778383 -0.54720563
26.658016 28.69903 0
26.341875 28.358685 2.1619368
5.9835978 6.4573488 -0.98124325
6.632194 7.1572976 -0.54502845
25.837975 27.883696 0
26.330549 28.415268 2.1638236
5.975791 6.4645739 -0.98124325
6.6411829 7.184391 -0.54648012
25.827229 27.939737 0
26.386152 28.544378 2.1712258
5.9644718 6.4679909 -0.98066723
0 0 -0
25.782867 27.95945 0
26.330503 28.553318 2.1694841
5.9741597 6.4942245 -0.98354959
0 0 -0
7.069778 7.6852188 0
26.359308 28.65395 2.1747086
5.9702353 6.4978328 -0.98354959
0 0 -0
7.0686517 7.6933179 0
26.340237 28.667957 2.1745636
5.9676242 6.5107641 -0.98441476
0 0 -0
7.0558372 7.69802 0
21.98667 23.987772 1.8175389
5.9684782 6.5275121 -0.98585594
0 0 -0
7.0465302 7.7065396 0
21.896303 23.947208 1.8124593
5.9588451 6.5328102 -0.98556793
0 0 -0
0 0 0
21.888365 23.996685 1.814201
5.9509473 6.5400057 -0.98556793
0 0 -0
7.0348921 7.7312455 0
21.841862 24.003893 1.8127494
5.9586844 6.5644259 -0.98816228
0 0 -0
7.0255451 7.7397404 0
21.842531 24.062973 1.8152167
5.9420695 6.5620365 -0.9867211
0 0 -0
0 0 0
21.864017 24.145205 1.8194255
5.9428034 6.5788064 -0.98816228
0 0 -0
0 0 0
21.853989 24.192818 1.8210222
5.9487019 6.6013536 -0.99046862
0 0 -0
0 0 0
21.795172 24.186392 1.818555
5.9372592 6.6046858 -0.98989147
0 0 -0
0 0 0
21.670393 24.106432 1.8105727
5.9275494 6.6099315 -0.98960346
0 0 -0
0 0 0
21.608286 24.09584 1.807815
5.9281793 6.6267257 -0.99104464
0 0 -0
6.7575684 7.5538459 0
19.612906 21.92399 1.6430904
5.9150062 6.6280999 -0.99018061
0 0 -0
6.7449737 7.558126 0
19.612347 21.976748 1.645267
5.9241881 6.6545572 -0.99306297
0 0 -0
6.7271791 7.5565457 0
19.61688 22.035368 1.6478798
5.9144273 6.6597786 -0.99277496
0 0 -0
6.7180433 7.5646687 0
19.652351 22.12899 1.6531043
5.9115162 6.6727223 -0.99363899
0 0 -0
6.7037258 7.5669422 0
19.672123 22.205236 1.6570232
5.9051671 6.6818042 -0.99392813
0 0 -0
6.6962996 7.5769849 0
19.660763 22.246511 1.6583294
5.9056396 6.6986332 -0.99536932
0 0 -0
6.68542 7.5831203 0
21.474161 24.357655 1.8137655
5.8992481 6.7077045 -0.99565732
0 0 -0
6.6728115 7.5872808 0
21.443001 24.381636 1.8136204
5.90137 6.72649 -0.99738652
0 0 -0
6.6584949 7.5894747 0
26.496004 30.20063 2.2440815
5.8915362 6.7316709 -0.99709851
0 0 -0
6.6476007 7.5955505 0
19.244989 21.98933 1.6322054
5.8885031 6.7446318 -0.99796367
6.417438 7.3504691 -0.54502845
6.6367083 7.6016188 0
19.244041 22.041931 1.6343826
6.4324408 7.3856468 -0.54706007
6.6292257 7.6115928 0
19.196915 22.041653 1.632641
5.883059 6.7630997 -0.99911684
6.4245701 7.3856144 -0.5467701
6.6195068 7.6097116 0
19.187002 22.057165 1.6329309
5.8782701 6.7741065 -0.99969286
6.4582152 7.4424338 -0.55039847
6.6085963 7.6157331 0
6.7271981 7.7524095 0.57332242
6.5308423 7.5445261 -0.55736458
6.6010976 7.6256862 0
6.7212305 7.7644653 0.57361293
6.5098386 7.538651 -0.55634904
6.5952773 7.6375923 0
6.6982574 7.7568474 0.57245183
6.4956355 7.5406032 -0.55591345
6.5758562 7.633729 0
6.6956639 7.7728105 0.57303238
6.4678893 7.5267658 -0.55431682
6.5683217 7.643641 0
6.6896505 7.784833 0.57332242
6.450336 7.5247135 -0.55359125
6.5658565 7.6594753 0
6.6751709 7.7869973 0.57288742
6.4338174 7.5422544 -0.55373621
6.5490146 7.6772981 0
6.6613874 7.809031 0.57332242
6.4533253 7.583663 -0.55620348
6.5464797 7.6931338 0
18.850027 22.15172 1.6246587
6.4239845 7.5676908 -0.55446237
6.5405445 7.7050028 0
18.806429 22.154667 1.623207
0 0 -0
6.5379567 7.7208443 0
18.761179 22.155567 1.6216109
0 0 -0
6.5454202 7.7486238 0
18.705891 22.144478 1.6191436
0 0 -0
6.5461116 7.7684641 0
18.605448 22.079634 1.6127574
0 0 -0
6.5584884 7.8022642 0
18.506865 22.016575 1.606517
6.6703067 7.954783 -0.57986021
6.5624332 7.8261366 0
18.460213 22.015026 1.6047752
6.675693 7.9807725 -0.58116633
6.5947151 7.8839636 0
18.425264 22.027353 1.6040497
