# .PCD v0.7 - Point Cloud Data file format
VERSION 0.7
FIELDS x y z
SIZE 4 4 4
TYPE F F F
COUNT 1 1 1
WIDTH 1618
HEIGHT 1
VIEWPOINT 0 0 0 1 0 0 0
POINTS 1618
DATA ascii
-2.1021433 1.193997 -0.79714727
-2.6953769 1.5309478 -0.85523003
-2.5466523 1.4464737 -0.64881098
-2.2811911 1.2956944 -0.43737188
-2.0910654 1.1877048 -0.26804492
-2.3325078 1.3248419 -0.14983413
-2.6377134 1.4981956 0
-4.5646029 2.5926499 0.29321799
-2.0906768 1.1841452 -0.79225588
-2.7103267 1.5351107 -0.85938436
-2.5506155 1.4446514 -0.64937544
-2.2671258 1.2840848 -0.43437734
-2.0880022 1.1826303 -0.2674689
-2.3363659 1.3233019 -0.14997913
-2.6395218 1.4950074 0
-4.5699911 2.588412 0.29336298
-2.0921061 1.1816182 -0.79225588
-2.7427573 1.549105 -0.86907327
-2.5324497 1.4303236 -0.64431006
-2.2619679 1.2775559 -0.43309301
-2.0691543 1.168655 -0.26487345
-2.3334424 1.3179246 -0.14968912
-2.6413262 1.4918169 0
-4.5731153 2.5828881 0.29336298
-2.084918 1.1742378 -0.78899604
-2.7905295 1.5716422 -0.88360798
-2.5408115 1.4309996 -0.64599705
-2.2814038 1.2848997 -0.43651676
-2.0908539 1.177581 -0.2674689
-2.3350332 1.3151041 -0.14968912
-2.6499231 1.4924519 0
-4.5830274 2.5811872 0.29379854
-2.0949554 1.176559 -0.79225588
-2.7639921 1.5523002 -0.87461054
-2.5514004 1.4329053 -0.64824861
-2.2628126 1.27083 -0.43266547
-2.0900137 1.1737835 -0.26717979
-2.3592722 1.3250033 -0.15114024
-2.6381142 1.4816052 0
-4.5793438 2.5718293 0.29336298
-2.0877497 1.169196 -0.78899604
-2.7571104 1.5440559 -0.87184191
-2.5553446 1.4310617 -0.64881098
-2.2621002 1.266837 -0.43223625
-2.0891759 1.1699947 -0.26689175
-2.3586066 1.3208832 -0.15099524
-2.653522 1.4860438 0
-4.5756445 2.562484 0.29292744
-2.0870051 1.1654686 -0.78818184
-2.7808819 1.5529577 -0.87876487
-2.5526395 1.4254978 -0.64768624
-2.250186 1.2565955 -0.42966929
-2.0973649 1.1712539 -0.26775691
-2.3579342 1.3167665 -0.15085025
-2.6121504 1.4587312 0
-4.5832791 2.5594895 0.29321799
-2.0596485 1.1485597 -0.77758807
-2.7840085 1.552498 -0.87945634
-2.5468404 1.4202416 -0.64599705
-2.2733607 1.2677361 -0.43394813
-2.1025858 1.1725036 -0.26833293
-2.3496516 1.3102795 -0.15026969
-2.6107605 1.4558865 0
-4.5848246 2.55672 0.29321799
-2.0999124 1.1676887 -0.79225588
-2.7924538 1.5527871 -0.88153082
-2.5641015 1.4258082 -0.64993781
-2.2905979 1.2737223 -0.43694431
-2.0791419 1.156139 -0.26516256
-2.3421493 1.3023883 -0.14968912
-2.6375306 1.4666396 0
-4.5856414 2.5499167 0.293073
-2.0948434 1.1615584 -0.78981334
-2.78336 1.5433301 -0.87807071
-2.5636024 1.421478 -0.64937544
-2.3145814 1.2833996 -0.44122317
-2.0827973 1.154879 -0.26545057
-2.332361 1.2932582 -0.14896357
-2.6438572 1.465978 0
-4.5887194 2.544374 0.293073
-2.0984063 1.1602211 -0.79062754
-2.7742472 1.5338974 -0.87461054
-2.5808773 1.426982 -0.65331405
-2.300411 1.2719107 -0.43822864
-2.0909839 1.1561172 -0.26631573
-2.3771214 1.3143244 -0.15172081
-2.6524527 1.4665567 0
-4.5872378 2.5363107 0.29278243
-2.1127892 1.1648424 -0.79551578
-2.7760985 1.5305442 -0.87461054
-2.5803766 1.422637 -0.65275168
-2.2997003 1.2678919 -0.43780106
-2.0901077 1.1523374 -0.26602662
-2.4105697 1.3290174 -0.15375304
-2.6451066 1.4583246 0
-4.5948548 2.5332775 0.293073
-2.0817132 1.1444315 -0.78329366
-2.8021309 1.5404845 -0.88222498
-2.5999064 1.4293107 -0.65725476
-2.303478 1.2663478 -0.43822864
-2.1368296 1.1747321 -0.27179244
-2.4372146 1.3398701 -0.15534915
-2.6331878 1.4476072 0
-4.5910788 2.523967 0.29263744
-2.1069288 1.1549808 -0.79225588
-2.786391 1.52745 -0.87668771
-2.614996 1.4334942 -0.660631
-2.2960024 1.2586277 -0.43651676
-2.1110308 1.1572295 -0.26833293
-2.4411082 1.3381721 -0.15549415
-2.6212466 1.4369208 0
-4.6009631 2.5221663 0.293073
-2.073631 1.1334713 -0.77921957
-2.7860353 1.52288 -0.87599623
-2.5855165 1.4132739 -0.65275168
-2.2727416 1.2423074 -0.43180871
-2.1010821 1.1484764 -0.26689175
-2.4472878 1.3377165 -0.15578471
-2.6458127 1.4462326 0
-4.6154056 2.5228353 0.29379854
-2.0901842 1.1392413 -0.784922
-2.7702508 1.5099074 -0.8704589
-2.6050706 1.4198769 -0.65725476
-2.2810051 1.2432472 -0.43309301
-2.0888462 1.1385121 -0.26516256
-2.444335 1.332269 -0.15549415
-2.6544158 1.4467722 0
-4.609324 2.5122824 0.29321799
-2.0720167 1.1260941 -0.77758807
-2.7169688 1.4766109 -0.85315555
-2.6157143 1.4215814 -0.65950632
-2.293781 1.2466179 -0.43523243
-2.0993106 1.1409277 -0.26631573
-2.4368107 1.3243513 -0.15491359
-2.631007 1.4298927 0
-4.6009431 2.5005083 0.29249242
-2.1146657 1.1459651 -0.79307324
-2.7209547 1.474521 -0.85384703
-2.612958 1.4159962 -0.65837944
-2.3043134 1.2487378 -0.43694431
-2.1120555 1.1445507 -0.26775691
-2.4087119 1.3053126 -0.15302692
-2.6327329 1.4267125 0
-4.5925407 2.4887581 0.29176688
-2.0877829 1.1281357 -0.78247947
-2.7690823 1.4962765 -0.8683818
-2.6213753 1.4164629 -0.66006863
-2.3080771 1.2471718 -0.43737188
-2.1066084 1.1383079 -0.26689175
-2.4011433 1.2974602 -0.15244636
-2.6642177 1.4396127 0
-4.5864005 2.478266 0.2911863
-2.0992122 1.1277658 -0.7857393
-2.8345711 1.5228248 -0.88776231
-2.6673212 1.4329727 -0.67076403
-2.2997794 1.2355171 -0.43523243
-2.1253047 1.1417835 -0.26891008
-2.4363225 1.3088726 -0.15447859
-2.6791496 1.4393272 0
-4.5946627 2.4684038 0.29133132
-2.1441391 1.1485656 -0.80203551
-2.7921798 1.4957061 -0.87391907
-2.6600916 1.4249495 -0.66851246
-2.3012705 1.2327373 -0.43523243
-2.1198406 1.1355495 -0.26804492
-2.4470644 1.3108357 -0.15505914
-2.6579504 1.4238025 0
-4.6068039 2.4677582 0.29191187
-2.130271 1.1378263 -0.79633307
-2.7895548 1.489965 -0.87253338
-2.6842196 1.4337028 -0.67414021
-2.2914391 1.2239099 -0.43309301
-2.130337 1.1378615 -0.26919809
-2.4394784 1.3029811 -0.15447859
-2.6895089 1.4365281 0
-4.6281185 2.4719837 0.293073
-2.1054659 1.1213096 -0.7865535
-2.7780716 1.4795198 -0.8683818
-2.6545568 1.4137393 -0.6662609
-2.2611997 1.2042489 -0.4271023
-2.1202979 1.1292087 -0.26775691
-2.4548075 1.3073587 -0.15534915
-2.6866531 1.430833 0
-4.6333933 2.4676099 0.29321799
-2.1592009 1.1465806 -0.80610955
-2.7732079 1.472631 -0.86630464
-2.6360681 1.3998069 -0.66119552
-2.276252 1.2087371 -0.42966929
-2.1467824 1.139986 -0.27092731
-2.4540927 1.3031741 -0.15520415
-2.6929727 1.4300245 0
-4.6363716 2.4620097 0.29321799
-2.1424327 1.1360174 -0.79959297
-2.7608025 1.4639059 -0.86215299
-2.6324193 1.3958311 -0.66006863
-2.2928598 1.215781 -0.43266547
-2.1223409 1.1253639 -0.26775691
-2.4594665 1.3041235 -0.15549415
-2.6409597 1.4003596 0
-4.6424451 2.4616404 0.29350799
-2.0957291 1.1080109 -0.78166217
-2.7647853 1.4617405 -0.86284447
-2.6430891 1.3973998 -0.6623202
-2.3011289 1.2166057 -0.43394813
-2.1739995 1.1493924 -0.27409878
-2.4518518 1.2962928 -0.15491359
-2.6334469 1.392302 0
-4.6546049 2.460887 0.29408854
-2.1036279 1.1089367 -0.7841078
-2.7643323 1.45723 -0.86215299
-2.6470211 1.3953888 -0.66288251
-2.3025973 1.2138243 -0.43394813
-2.2142811 1.167268 -0.27899948
-2.4488235 1.2909081 -0.1546236
-2.6650538 1.4048948 0
-4.6506858 2.4516294 0.29365355
-2.1574736 1.1339924 -0.80366701
-2.7616453 1.451552 -0.8607673
-2.6622045 1.3992847 -0.6662609
-2.2858925 1.201491 -0.43052605
-2.2134027 1.1633894 -0.27871147
-2.4526794 1.2891561 -0.15476859
-2.6851788 1.4113603 0
-4.6559424 2.447216 0.29379854
-2.1303847 1.1164711 -0.79307324
-2.7522888 1.4423925 -0.8573072
-2.7088959 1.4196515 -0.67751646
-2.2805192 1.195152 -0.42924172
-2.1941905 1.1499097 -0.27611712
-2.4565346 1.2873966 -0.15491359
-2.705323 1.4177791 0
-4.6634946 2.4439983 0.29408854
-2.1317322 1.1138961 -0.79307324
-2.7473569 1.4355791 -0.85523003
-2.7759149 1.4505016 -0.69383955
-2.272861 1.1876402 -0.42752984
-2.1772392 1.1376749 -0.27381077
-2.46961 1.2904477 -0.15563971
-2.6816595 1.4012501 0
-4.6664443 2.4383616 0.29408854
-2.1571817 1.1238782 -0.80203551
-2.7401986 1.4276263 -0.85246402
-2.7190812 1.4166242 -0.67920566
-2.2401428 1.1671003 -0.42110994
-2.1419108 1.1159221 -0.26919809
-2.464252 1.2838598 -0.15520415
-2.7064266 1.4100313 0
-4.6693873 2.4327214 0.29408854
-2.1475737 1.1155752 -0.79796147
-2.6996193 1.4023399 -0.83931231
-2.6689363 1.3864014 -0.6662609
-2.2597759 1.1738596 -0.42453367
-2.1294904 1.1061817 -0.2674689
-2.4681051 1.2820779 -0.15534915
-2.7058213 1.4055616 0
-4.6723232 2.4270775 0.29408854
-2.0896692 1.082292 -0.77595973
-2.6500809 1.3725432 -0.8233946
-2.6435347 1.3691528 -0.65950632
-2.2452428 1.1628674 -0.42153913
-2.1446013 1.1107427 -0.26919809
-2.4742715 1.2814871 -0.15563971
-2.6982739 1.3975035 0
-4.6775665 2.4226286 0.2942341
-2.1348886 1.1024427 -0.79225588
-2.5759523 1.3302051 -0.79986238
-2.6451871 1.3659576 -0.65950632
-2.2557611 1.1648605 -0.42324936
-2.1827123 1.1271386 -0.27381077
-2.4504194 1.2653807 -0.15404303
-2.6699016 1.37872 0
-4.678175 2.4157794 0.29408854
-2.1230388 1.0930761 -0.7873677
-2.5753207 1.3259399 -0.79916823
-2.6377995 1.3581079 -0.65725476
-2.2457576 1.1562597 -0.42110994
-2.2047668 1.135155 -0.27640513
-2.4496386 1.2612307 -0.15389803
-2.6715655 1.3754929 0
-4.6810904 2.410125 0.29408854
-2.1265545 1.0916377 -0.78818184
-2.576921 1.3228272 -0.79916823
-2.6597805 1.3653619 -0.6623202
-2.2677045 1.164095 -0.42496124
-2.1992316 1.1289455 -0.27553996
-2.4511607 1.2582698 -0.15389803
-2.7010088 1.386526 0
-4.6955643 2.4104037 0.29481468
-2.1564722 1.1037053 -0.79877561
-2.5852194 1.3231426 -0.80124539
-2.6704757 1.3667778 -0.6645717
-2.2759671 1.1648639 -0.42624554
-2.1706645 1.1109691 -0.27179244
-2.4318635 1.2446535 -0.15259191
-2.7189014 1.3915625 0
-4.6938429 2.4023583 0.2945241
-2.1159813 1.0797571 -0.78329366
-2.5890489 1.3211571 -0.80193692
-2.6676033 1.3612424 -0.66344702
-2.2682266 1.1574459 -0.42453367
-2.1443589 1.0942378 -0.26833293
-2.4310446 1.2405297 -0.15244636
-2.7136242 1.3847263 0
-4.6921172 2.394325 0.2942341
-2.1172845 1.0771996 -0.78329366
-2.6286533 1.337366 -0.813703
-2.680567 1.3637779 -0.6662609
-2.2147207 1.1267717 -0.41426411
-2.1203282 1.078748 -0.26516256
-2.4580195 1.2505535 -0.15404303
-2.726891 1.3873458 0
-4.6926847 2.3874722 0.29408854
-2.1274016 1.0791129 -0.7865535
-2.6168473 1.3273816 -0.80955136
-2.6844769 1.3616862 -0.66682327
-2.2092104 1.1206099 -0.41297978
-2.0985587 1.0644825 -0.26227909
-2.4572134 1.2464082 -0.15389803
-2.7332027 1.3864022 0
-4.6955657 2.3818002 0.29408854
-2.1220851 1.0731941 -0.7841078
-2.6453145 1.337805 -0.81785727
-2.6974552 1.364174 -0.66963714
-2.2403407 1.1329992 -0.41854295
-2.1136963 1.0689518 -0.26400939
-2.4703095 1.2493005 -0.1546236
-2.7395253 1.3854499 0
-4.7007656 2.3773007 0.2942341
-2.1476588 1.0828707 -0.79307324
-2.6245234 1.3233106 -0.81093436
-2.6945684 1.3586279 -0.66851246
-2.2577555 1.1383827 -0.42153913
-2.1911983 1.1048238 -0.27352276
-2.4764531 1.2486521 -0.15491359
-2.7365453 1.379793 0
-4.7036347 2.3716192 0.2942341
-2.1357117 1.0736122 -0.78818184
-2.6462917 1.3302784 -0.81716311
-2.7052889 1.359936 -0.67076403
-2.261421 1.1368057 -0.4219667
-2.2063928 1.1091433 -0.27525195
-2.4593961 1.2363268 -0.15375304
-2.6917148 1.3531123 0
-4.7157836 2.3706021 0.29481468
-2.1518247 1.0800841 -0.79388738
-2.6336462 1.321929 -0.81301147
-2.6856654 1.3480394 -0.66569644
-2.2643993 1.1365896 -0.42239425
-2.2116814 1.1101284 -0.275828
-2.4787123 1.2441616 -0.15491359
-2.6809042 1.3456496 0
-4.7125659 2.3654191 0.2945241
-2.1155553 1.0586808 -0.78003377
-2.6442158 1.3232367 -0.81578016
-2.6872923 1.3447933 -0.66569644
-2.2428188 1.1223668 -0.41811541
-2.1945257 1.0981997 -0.27352276
-2.4755707 1.2388422 -0.1546236
-2.6895034 1.3458999 0
-4.7107773 2.3573997 0.2942341
-2.1389451 1.0671558 -0.78818184
-2.6368332 1.3155607 -0.81301147
-2.6684546 1.3313372 -0.660631
-2.2441733 1.119656 -0.41811541
-2.1472504 1.0712996 -0.2674689
-2.4654424 1.2300509 -0.15389803
-2.6981163 1.3461359 0
-4.7229228 2.3563461 0.29481468
-2.1579366 1.0733765 -0.79470158
-2.6788487 1.3324828 -0.82546908
-2.7019157 1.3439566 -0.66851246
-2.2179434 1.1032244 -0.41297978
-2.1716971 1.0802211 -0.27035126
-2.4552965 1.2212859 -0.15317248
-2.697413 1.3417168 0
-4.7234335 2.3494771 0.29466909
-2.1525869 1.0674731 -0.79225588
-2.7006829 1.3392751 -0.83169788
-2.6944323 1.3361754 -0.6662609
-2.1985786 1.0902804 -0.40912849
-2.1498332 1.0661074 -0.2674689
-2.459096 1.2194716 -0.15331748
-2.713017 1.3453916 0
-4.7286034 2.3449259 0.29481468
-2.1073494 1.041869 -0.77514243
-2.7855072 1.3771489 -0.8573072
-2.6937606 1.3317894 -0.66569644
-2.2090991 1.0921738 -0.41084036
-2.1627104 1.0692394 -0.26891008
-2.4768662 1.2245574 -0.15433304
-2.7286429 1.3490351 0
-4.7337608 2.3403611 0.29495966
-2.1684663 1.0688263 -0.79714727
-2.8029234 1.3815472 -0.86215299
-2.6999304 1.3307824 -0.66682327
-2.2242281 1.0963112 -0.41340736
-2.196476 1.0826323 -0.27294561
-2.4760156 1.2204159 -0.15418804
-2.6882484 1.3250244 0
-4.7295909 2.331192 0.2945241
-2.1697562 1.0662054 -0.79714727
-2.7820702 1.367093 -0.85523003
-2.6992581 1.3263996 -0.6662609
-2.2508967 1.1060774 -0.41811541
-2.2395625 1.1005079 -0.27813432
-2.4798183 1.2185682 -0.15433304
-2.6875138 1.3206285 0
-4.7254057 2.3220365 0.29408854
-2.1266515 1.0418358 -0.78084797
-2.6845992 1.3151716 -0.82477754
-2.6940112 1.3197825 -0.6645717
-2.2314861 1.0931938 -0.41426411
-2.266443 1.1103189 -0.28130582
-2.4719639 1.2110027 -0.15375304
-2.6891077 1.3173802 0
-4.7212138 2.3128989 0.29365355
-2.1812098 1.0652976 -0.80040711
-2.5238872 1.2326603 -0.7749446
-2.7024555 1.3198726 -0.6662609
-2.2143521 1.0814841 -0.41084036
-2.281723 1.1143879 -0.28303501
-2.4547465 1.1988921 -0.15259191
-2.7421401 1.3392544 0
-4.7310033 2.3106103 0.29408854
-2.1847155 1.0637422 -0.80122131
-2.5118456 1.2230223 -0.77079296
-2.7154686 1.3221668 -0.66907483
-2.2364273 1.0889206 -0.41469166
-2.2667964 1.1037074 -0.28101781
-2.4328265 1.1845479 -0.15114024
-2.750778 1.339359 0
-4.7267895 2.3014829 0.29365355
-2.1993361 1.0675753 -0.80610955
-2.4862382 1.20684 -0.76248699
-2.7010612 1.3111168 -0.66513407
-2.2054055 1.0705215 -0.4086993
-2.2541628 1.0941887 -0.27928749
-2.4108844 1.1702627 -0.14968912
-2.7336645 1.3269426 0
-4.7786546 2.3195972 0.29670134
-2.1739354 1.0520018 -0.79633307
-2.4651079 1.1929048 -0.75556403
-2.7003586 1.3067464 -0.6645717
-2.2298093 1.0790401 -0.41297978
-2.2322056 1.0801997 -0.27640513
-2.4029408 1.1628212 -0.14910857
-2.7282357 1.3202366 0
-4.9475055 2.3941765 0.30700526
-2.1395874 1.0321914 -0.78329366
-2.4597752 1.1866583 -0.75348955
-2.7293975 1.316731 -0.67132634
-2.2542279 1.087497 -0.41725865
-2.1822631 1.0527794 -0.27006325
-2.4066823 1.1610448 -0.14925358
-2.7228036 1.3135499 0
-5.1118765 2.4660995 0.31701976
-2.1697869 1.0435305 -0.79388738
-2.4725096 1.1891209 -0.75694972
-2.7699118 1.3321526 -0.68089485
-2.2833014 1.0981237 -0.42239425
-2.2324808 1.0736823 -0.27611712
-2.4034045 1.1558857 -0.14896357
-2.7126644 1.3046201 0
-5.1312375 2.4678011 0.3180353
-2.1888757 1.0494562 -0.80040711
-2.4445381 1.1720337 -0.74795228
-2.7646437 1.3255081 -0.67920566
-2.3100913 1.107573 -0.4271023
-2.2500958 1.0788082 -0.27813432
-2.4047995 1.1529808 -0.14896357
-2.7470882 1.3170912 0
-5.1248431 2.4571056 0.31745476
-2.2057457 1.0542686 -0.80610955
-2.457268 1.1744874 -0.75141239
-2.763953 1.321072 -0.67864329
-2.2928989 1.0959247 -0.42367855
-2.2303972 1.0660511 -0.27553996
-2.4436924 1.1679988 -0.15128525
-2.7369397 1.3081605 0
-5.0340409 2.4060938 0.31164974
-2.1490092 1.0239626 -0.784922
-2.4949224 1.1887836 -0.76248699
-2.7471967 1.3089876 -0.67414021
-2.2571423 1.0754859 -0.41683108
-2.8153946 1.3414828 -0.34760919
-2.4591811 1.1717536 -0.15215637
-2.7314677 1.301493 0
-4.8657141 2.3184214 0.30105525
-2.2455931 1.0683187 -0.81996316
-2.516027 1.196975 -0.7687158
-2.7755208 1.3204266 -0.68089485
-2.2971973 1.0928689 -0.42410612
-2.7788434 1.3220073 -0.34299764
-2.4575443 1.1691525 -0.15201136
-2.7181573 1.2931365 0
-4.7662234 2.2674837 0.29481468
-2.2714496 1.0772558 -0.82892859
-2.4925349 1.1821076 -0.76110137
-2.8115444 1.3334008 -0.68933648
-2.2776434 1.0801934 -0.42025483
-2.2149115 1.0504421 -0.27323362
-2.4401729 1.1572745 -0.15085025
-2.7173598 1.2887328 0
-4.7947788 2.273968 0.29641077
-2.4380956 1.1526828 -0.88923442
-2.5733459 1.2166263 -0.78532767
-2.8177521 1.3321768 -0.69046336
-2.2557349 1.0664662 -0.41597432
-2.2044897 1.0422386 -0.27179244
-2.4274702 1.1476593 -0.14997913
-2.7024519 1.2776651 0
-4.8233657 2.2803907 0.29800746
-2.5244405 1.1897749 -0.92020154
-2.5997703 1.225278 -0.79293948
-0 0 -0
-2.2988238 1.0834413 -0.42367855
-2.191714 1.0329602 -0.27006325
-2.4241586 1.1425118 -0.14968912
-2.6757441 1.2610847 0
-4.8966274 2.3077924 0.30236137
-2.4811361 1.1657035 -0.90390223
-2.5785468 1.2114698 -0.78601915
-2.76577 1.2994322 -0.67695409
-2.3396273 1.099219 -0.43095359
-2.2210524 1.0435094 -0.27352276
-2.4514005 1.1517332 -0.15128525
-2.6772659 1.2578506 0
-5.0169988 2.3571193 0.30961806
-2.4959681 1.1689926 -0.90879047
-2.5050371 1.1732401 -0.76317853
-2.7328291 1.279927 -0.66851246
-2.3572202 1.1040096 -0.43394813
-2.2340209 1.046309 -0.27496395
-2.4598522 1.1520776 -0.15172081
-2.6858475 1.2579231 0
-5.1539612 2.4138701 0.31789032
-2.5040996 1.1691136 -0.91123617
-2.5132749 1.1733974 -0.76525563
-2.6722085 1.2476003 -0.65331405
-2.3771608 1.1098485 -0.43737188
-2.3079295 1.0775259 -0.28390017
-2.4612424 1.1491045 -0.15172081
-2.7298167 1.2744964 0
-5.1757102 2.4164348 0.31905141
-2.4920697 1.1598318 -0.90634793
-2.5124097 1.1692981 -0.76456147
-2.6621981 1.2390109 -0.65050018
-2.3482466 1.0928952 -0.43180871
-2.3444064 1.0911078 -0.28822485
-2.4885452 1.1581913 -0.15331748
-2.7266312 1.2689987 0
-5.1644959 2.4036028 0.31818086
-2.5360622 1.1765802 -0.92182994
-2.5411301 1.1789314 -0.77286744
-2.6683075 1.2379341 -0.651627
-2.323957 1.078176 -0.4271023
-2.3175678 1.075212 -0.28476533
-2.4640121 1.1431533 -0.15172081
-2.7092762 1.2569411 0
-5.1084704 2.3700228 0.31455252
-2.5285087 1.169365 -0.91857004
-2.5584943 1.1832325 -0.77771324
-2.6375101 1.2197752 -0.64374554
-2.4044724 1.1120017 -0.44165236
-2.246088 1.0387533 -0.275828
-2.4795468 1.1467216 -0.15259191
-2.7296901 1.2624059 0
-5.1113305 2.3638484 0.31455252
-2.5478764 1.1745871 -0.92508978
-2.6647205 1.2284529 -0.80955136
-2.6966672 1.2431806 -0.65781713
-2.4570975 1.1327375 -0.45106682
-2.3694839 1.0923471 -0.2908192
-2.5729547 1.1861484 -0.15825194
-2.7146761 1.2514828 0
-5.1236219 2.3620222 0.31513306
-2.5403106 1.1673795 -0.92182994
-2.7459819 1.2618941 -0.83377498
-2.6889322 1.2356774 -0.65556556
-2.4864552 1.1426307 -0.45620242
-2.4413037 1.1218817 -0.29946741
-5.6908445 2.6151822 -0.34982601
-6.4499407 2.9640188 0
-0 0 0
-2.5439641 1.1653374 -0.92264408
-2.7361026 1.2533522 -0.83031487
-3.5196941 1.6122993 -0.85763091
-4.9405866 2.2631807 -0.90597177
-6.8468018 3.1363785 -0.83941114
-5.6821904 2.6028943 -0.34910044
-6.441689 2.9508049 0
-0 0 0
-2.5566099 1.1673949 -0.92671812
-2.7444637 1.2531724 -0.83239204
-3.579421 1.6344292 -0.87170249
-4.9549909 2.2625396 -0.90811121
-0 0 -0
-0 0 -0
-6.4641891 2.9516671 0
-5.1250572 2.3401949 0.3146975
-2.5535238 1.162259 -0.92508978
-2.784791 1.2675223 -0.84415811
-3.7525225 1.7079939 -0.91335493
-4.9577212 2.2565508 -0.90811121
-0 0 -0
-0 0 -0
-0 0 0
-5.1136956 2.327544 0.31382695
-2.5436745 1.1540678 -0.92101574
-2.7703259 1.2568997 -0.83931231
-3.8286188 1.7370484 -0.93136507
-4.9627886 2.2516224 -0.90854043
-0 0 -0
-0 0 -0
-0 0 0
-5.1165042 2.3213634 0.31382695
-2.554075 1.1550673 -0.92427558
-2.8084166 1.2700919 -0.85038692
-3.8237672 1.7292789 -0.92967588
-4.9678426 2.246681 -0.90896797
-6.8571625 3.1011162 -0.83883399
-0 0 -0
-6.470099 2.9260688 0
-5.1193051 2.3151793 0.31382695
-2.5306811 1.1408062 -0.9153102
-2.8030856 1.2636034 -0.84830976
-3.8304913 1.7267479 -0.9308027
-4.9682155 2.2396228 -0.90854043
-6.8208213 3.0747592 -0.83393329
-0 0 -0
-6.4641395 2.9139707 0
-5.1149902 2.3057873 0.31339139
-2.5298054 1.1367354 -0.914496
-2.8435104 1.2776948 -0.86007583
-3.8302593 1.7210778 -0.93024039
-4.9779358 2.2367713 -0.90982306
-6.7915068 3.051676 -0.82989776
-0 0 -0
-6.4771514 2.9104245 0
-5.1201406 2.3006692 0.31353641
-2.5598056 1.1483574 -0.92508978
-2.8854792 1.2944583 -0.87253338
-3.8382468 1.7218804 -0.93192738
-4.9675775 2.2285109 -0.90768367
-6.7721124 3.0380454 -0.82730341
-5.726162 2.5688202 -0.35055158
-5.1160183 2.2951031 0
-5.0859742 2.2816248 0.31135973
-2.5453949 1.1382 -0.91938424
-2.9213967 1.3063333 -0.88291651
-3.8380072 1.7162052 -0.93136507
-4.9796405 2.2266986 -0.90939552
-6.7356405 3.0119123 -0.82240272
-5.7102847 2.5534139 -0.34939045
-5.1092844 2.2846704 0
-5.0910969 2.2765374 0.31150472
-2.5594382 1.1370658 -0.92346144
-2.9543481 1.3125099 -0.89191395
-3.8444631 1.7079558 -0.93192738
-4.9850068 2.2146583 -0.90939552
-6.3978105 2.8423157 -0.78031367
-5.2724037 2.3423383 -0.3222509
-5.0910025 2.2617483 0
-5.0847125 2.2589538 0.31077915
-2.5291667 1.1199601 -0.91205031
-2.95364 1.3079244 -0.89122242
-3.8581474 1.7084563 -0.93474346
-4.9947233 2.2117524 -0.91067982
-6.2664475 2.7748945 -0.7638824
-5.2324681 2.31703 -0.31963867
-5.0842133 2.2513802 0
-5.0898123 2.2538595 0.31092417
-2.559911 1.1298765 -0.92264408
-2.9666917 1.3094187 -0.89468259
-3.8602087 1.7037933 -0.93474346
-0 0 -0
-6.2437649 2.7558312 -0.7607109
-5.2281299 2.3075571 -0.31920311
-5.072649 2.2389321 0
-5.0877728 2.2456071 0.3106336
-2.5725839 1.131758 -0.92671812
-2.9751632 1.3088647 -0.89675975
-3.8622646 1.6991277 -0.93474346
-4.9953499 2.1976063 -0.90982306
-6.2399945 2.7451632 -0.75984687
-5.226162 2.2991476 -0.3189131
-5.0705819 2.2307031 0
-5.0928679 2.2405074 0.31077915
-2.5739496 1.1286486 -0.92671812
-2.9744382 1.3042585 -0.89606559
-3.864315 1.6944597 -0.93474346
-5.0003591 2.1926026 -0.91025227
-6.238565 2.7355421 -0.75926971
-5.2194176 2.2886572 -0.31833255
-5.068511 2.2224865 0
-5.0860524 2.2301781 0.31019861
-2.5594647 1.1186119 -0.92101574
-2.9553249 1.2916223 -0.88983679
-3.8640246 1.6887686 -0.93417895
-4.9959459 2.1834738 -0.90896797
-6.2489781 2.7311106 -0.76013488
-5.1983647 2.2719409 -0.31688088
-5.0616541 2.2121916 0
-5.100646 2.229233 0.31092417
-2.5676146 1.1184806 -0.92346144
-2.9844837 1.3000734 -0.89814276
-3.8893616 1.694248 -0.93980885
-5.003283 2.1794841 -0.90982306
-6.2546425 2.7245898 -0.76042289
-5.1772881 2.2552826 -0.31542978
-5.059556 2.2039974 0
-5.1057158 2.2241049 0.31106916
-2.573494 1.1173441 -0.92508978
-3.0067613 1.3054575 -0.9043715
-3.8890684 1.6885322 -0.93924439
-5.0035605 2.1724157 -0.90939552
-6.2531896 2.714972 -0.75984687
-5.1418738 2.2324677 -0.31310752
-5.0646005 2.1989176 0
-5.1083994 2.2179341 0.31106916
-2.5680351 1.111288 -0.92264408
-3.0198464 1.3068042 -0.90783167
-3.8887763 1.6828238 -0.93868202
-5.0061817 2.1663682 -0.90939552
-6.2564654 2.7074144 -0.75984687
-5.1135683 2.2128386 -0.31122085
-5.0624723 2.1907272 0
-5.1063108 2.209698 0.31077915
-2.5829973 1.1140592 -0.92753547
-3.014519 1.3001765 -0.90575719
-3.883805 1.6751038 -0.93699282
-5.0135145 2.162353 -0.91025227
-6.2644777 2.7018993 -0.76042289
-5.1138544 2.2056301 -0.31107587
-5.0698996 2.186672 0
-5.1089773 2.2035265 0.31077915
-2.5480106 1.0953196 -0.914496
-3.0045657 1.2915802 -0.90229702
-3.8881674 1.6714162 -0.93755734
-5.0161238 2.1562934 -0.91025227
-6.26299 2.692287 -0.75984687
-5.1093516 2.1963699 -0.31064031
-5.0677514 2.1784868 0
-5.1211848 2.2014563 0.31135973
-2.5743248 1.102948 -0.92346144
-3.0061243 1.2879487 -0.90229702
-3.8714995 1.6587117 -0.93305427
-5.0210829 2.1512408 -0.91067982
-6.2686138 2.685735 -0.76013488
-5.114388 2.1912169 -0.31078529
-5.0679903 2.1713381 0
-5.1238413 2.195267 0.31135973
-2.5415578 1.0852764 -0.91123617
-3.030746 1.2941657 -0.9092173
-3.882848 1.6580238 -0.93530577
-5.0236783 2.1451724 -0.91067982
-6.2694778 2.6771441 -0.75984687
-5.10987 2.1819773 -0.3103503
-5.07061 2.1652129 0
-5.1336522 2.1921325 0.31179473
-2.6156423 1.1131765 -0.93731505
-2.9976792 1.2757654 -0.89883423
-3.8778324 1.650345 -0.93361658
-5.0239072 2.1380963 -0.91025227
-6.2703214 2.6685507 -0.75955772
-5.1053276 2.1727476 -0.30991474
-5.0756149 2.1601026 0
-5.1410837 2.1879649 0.31208527
-2.639735 1.1196645 -0.94546312
-3.0176952 1.2799795 -0.9043715
-3.8962002 1.6526043 -0.93755734
-5.0359397 2.136034 -0.91196412
-6.275929 2.6619854 -0.75984687
-5.1127291 2.1686046 -0.31020474
-5.0734344 2.1519375 0
-5.1461134 2.182765 0.31223029
-2.6039953 1.1026496 -0.93242371
-3.0554311 1.2938079 -0.9154461
-3.8878388 1.6462871 -0.93530577
-5.0324969 2.1309872 -0.91110736
-6.2751474 2.6571817 -0.75955772
-5.1092572 2.163491 -0.30991474
-5.0819254 2.1519172 0
-5.1546116 2.1826961 0.31266585
-2.6053259 1.0995024 -0.93242371
-3.0361919 1.281337 -0.9092173
-3.899189 1.6455399 -0.93755734
-5.039803 2.1269031 -0.91196412
-6.2807436 2.6506062 -0.75984687
-5.1094761 2.1563065 -0.30976975
-5.0821171 2.1447604 0
-5.1572456 2.1764662 0.31266585
-2.629431 1.1059341 -0.94057178
-3.0307982 1.2747486 -0.9071402
-3.8964858 1.6388552 -0.93643045
-5.0423694 2.1208119 -0.91196412
-5.125289 2.1556878 -0.61974394
-5.1192565 2.1531506 -0.31020474
-5.0799117 2.1366022 0
-5.1598716 2.170233 0.31266585
-2.5783446 1.0807827 -0.92182994
-3.0346477 1.2720544 -0.90783167
-3.9101777 1.6390563 -0.93924439
-5.0496588 2.1167004 -0.91281927
-5.1254978 2.1484904 -0.6194548
-5.1170659 2.1449561 -0.30991474
-5.0944881 2.1354918 0
-6.559536 2.7496064 0.39727783
-2.6229823 1.0957694 -0.93731505
-3.0477638 1.2732248 -0.91129446
-3.9074707 1.6323735 -0.93811965
-5.0522127 2.1105974 -0.91281927
-5.1233215 2.1403036 -0.61887878
-5.1196542 2.1387715 -0.30991474
-5.0970645 2.1293347 0
-6.5580535 2.7396731 0.39698729
-2.6379905 1.0982972 -0.94220328
-3.026135 1.2598968 -0.9043715
-3.9047444 1.6256957 -0.93699282
-5.054759 2.1044912 -0.91281927
-5.1306748 2.1360979 -0.6194548
-5.139029 2.139576 -0.31093085
-5.0972333 2.122175 0
-6.5613594 2.7317472 0.39698729
-2.5890963 1.0742719 -0.92427558
-3.0902221 1.2821997 -0.92306054
-3.9043612 1.6200036 -0.93643045
-5.0596671 2.099365 -0.91324681
-5.1236963 2.125932 -0.61830163
-5.1440082 2.1343598 -0.31107587
-5.1021957 2.1170108 0
-6.5694599 2.7258105 0.39727783
-2.6155105 1.081529 -0.93323785
-3.0778544 1.272711 -0.91890627
-3.9133623 1.6181985 -0.93811965
-5.0622001 2.0932498 -0.91324681
-5.1238732 2.118752 -0.61801362
-5.1633945 2.1350942 -0.31209198
-5.1023469 2.1098509 0
-6.5655427 2.714891 0.39684227
-2.6739426 1.1019096 -0.9536112
-3.0863509 1.2718596 -0.92098343
-3.9176617 1.6144359 -0.93868202
-5.0599833 2.0851772 -0.91239172
-5.131217 2.1145322 -0.61859077
-5.173171 2.1318209 -0.31252697
-5.1121044 2.1066558 0
-6.5688186 2.7069557 0.39684227
-2.677556 1.0996159 -0.95442539
-3.0716383 1.2614572 -0.91613764
-3.9125559 1.6068044 -0.93699282
-5.0719976 2.0829625 -0.91410357
-5.1337686 2.1083305 -0.61859077
-5.1757431 2.1255686 -0.31252697
-5.1170607 2.1014688 0
-6.5696831 2.6980305 0.39669728
-2.6422925 1.0814046 -0.94138908
-3.0824478 1.2615458 -0.91890627
-3.916853 1.6030408 -0.93755734
-5.0768843 2.0778039 -0.91453111
-5.1339116 2.1011434 -0.61830163
-5.1855245 2.1222668 -0.31296253
-5.1171803 2.0942957 0
-6.5777435 2.6920569 0.39698729
-2.6573243 1.0838097 -0.94627732
-3.0979121 1.2635069 -0.92306054
-3.9211376 1.5992656 -0.93811965
-5.0793915 2.0716679 -0.91453111
-5.1412411 2.0968938 -0.61887878
-6.6171856 2.698869 -0.39917064
-5.1269388 2.0910606 0
-6.583395 2.6850872 0.39713228
-2.6609194 1.0815278 -0.94709152
-3.1087332 1.2635412 -0.92582917
-3.9230671 1.5945264 -0.93811965
-5.0818906 2.0655291 -0.91453111
-5.141377 2.0897071 -0.61859077
-6.6084085 2.6859806 -0.39844507
-5.1463408 2.0917246 0
-6.5866346 2.6771307 0.39713228
-2.6805508 1.0857348 -0.9536112
-3.0939784 1.2531903 -0.92098343
-3.9179235 1.5869224 -0.93643045
-5.08676 2.0603499 -0.91495866
-5.1486883 2.0854335 -0.61916679
-6.611649 2.6779935 -0.39844507
-5.1488643 2.0855048 0
-6.5970922 2.6720974 0.39756784
-2.5856035 1.0436423 -0.91938424
-3.1280556 1.2625954 -0.93067235
-3.93398 1.5878953 -0.93980885
-5.0821114 2.0513222 -0.91367602
-5.1560059 2.0811489 -0.61974394
-6.6148801 2.6700027 -0.39844507
-5.1586227 2.0822051 0
-6.600316 2.6641243 0.39756784
-2.6992204 1.0857111 -0.95931673
-3.1179435 1.2541347 -0.92721218
-3.9288213 1.5802952 -0.93811965
-5.0917239 2.0480511 -0.91495866
-5.1585169 2.0749173 -0.61974394
-6.6205192 2.6629803 -0.39859065
-5.1611352 2.0759704 0
-6.5866528 2.6493583 0.39655173
-2.6064715 1.0447474 -0.92590398
-3.1310978 1.2550324 -0.93067235
-3.9448743 1.5812172 -0.9414959
-5.0894341 2.039989 -0.91410357
-5.1682158 2.0715668 -0.62060797
-6.6261415 2.6559446 -0.39873564
-5.1708798 2.0726347 0
-6.589849 2.6413977 0.39655173
-2.7064226 1.0810169 -0.96094513
-3.132612 1.2512482 -0.93067235
-3.9349861 1.5717378 -0.93868202
-5.1038127 2.0385981 -0.91624302
-7.3659945 2.9421735 -0.8840934
-6.626935 2.6469734 -0.39859065
-6.6161561 2.642668 0
-6.5906253 2.6324704 0.39640671
-2.6985412 1.0740898 -0.95768523
-3.1597638 1.2576685 -0.93828678
-3.9439671 1.5698018 -0.94037122
-5.1038895 2.0314813 -0.91581541
-7.3791566 2.9370968 -0.88524657
-6.6252952 2.6370404 -0.39830008
-6.6120973 2.6317873 0
-6.5865564 2.6216211 0.39597115
-2.7175651 1.0797603 -0.96420497
-3.1465297 1.2501993 -0.93413246
-3.9283831 1.5608503 -0.93643045
-5.1003399 2.0264997 -0.91495866
-7.3592987 2.9240437 -0.88265222
-6.6292996 2.6339958 -0.39844507
-6.5991702 2.6220245 0
-6.5929732 2.6195621 0.39626172
-2.6981876 1.0682881 -0.95687109
-3.1480381 1.2463964 -0.93413246
-3.9397161 1.5598439 -0.93868202
-3.5180311 1.392887 -0.63080323
-7.3820653 2.9227664 -0.88495857
-6.6324778 2.6259837 -0.39844507
-6.6023335 2.6140487 0
-6.5985475 2.6125498 0.39640671
-2.6626902 1.0505137 -0.94383162
-3.1915531 1.2591665 -0.94659275
-3.9581454 1.5616109 -0.94262278
-3.5268776 1.3914624 -0.63208753
-7.4024358 2.9204903 -0.8869769
-6.6380701 2.6189241 -0.39859065
-6.6175985 2.6108475 0
-6.6016994 2.6045747 0.39640671
-2.7076643 1.0644783 -0.95931673
-3.1603801 1.2424568 -0.93690115
-3.9458365 1.5512474 -0.93924439
-3.5046701 1.3778093 -0.62780869
-7.4035544 2.9105983 -0.88668889
-6.6339722 2.6080484 -0.39815509
-6.6207485 2.6028495 0
-6.6048417 2.596596 0.39640671
-2.720453 1.0657126 -0.96339083
-3.1805665 1.2459579 -0.94243842
-3.9500806 1.547408 -0.93980885
-3.4943745 1.3688892 -0.62566763
-7.4142838 2.9044778 -0.88755292
-6.6395359 2.6009774 -0.39830008
-6.6214585 2.5938959 0
-6.605557 2.5876665 0.39626172
-2.6802998 1.046249 -0.94872296
-3.2054446 1.2512381 -0.94936138
-3.9448445 1.5398612 -0.93811965
-3.5008132 1.3665346 -0.62652439
-7.3985128 2.8879929 -0.88524657
-6.6354098 2.5901175 -0.39786452
-6.6148906 2.5821078 0
-6.6135154 2.5815711 0.39655173
-2.6792605 1.0421145 -0.94790882
-3.2350028 1.2582737 -0.95766467
-3.9538088 1.5378577 -0.93980885
-3.4737523 1.3511368 -0.62138873
-7.3947721 2.876241 -0.88438255
-6.645802 2.5849247 -0.39830008
-6.6155825 2.5731707 0
-6.6214781 2.5754638 0.39684227
-2.7335165 1.0594169 -0.96665066
-3.1850622 1.2344204 -0.94243842
-3.9509211 1.5312409 -0.93868202
-3.4634166 1.342301 -0.61924934
-7.4006515 2.8682377 -0.88467056
-6.6416497 2.5740747 -0.39786452
-6.6235447 2.5670578 0
-6.6173143 2.5646431 0.39640671
-2.6840746 1.0365263 -0.94872296
-3.2450571 1.2531645 -0.95974183
-3.9669948 1.5319598 -0.94206041
-3.4410844 1.3288656 -0.61496884
-0 0 -0
-6.6277943 2.5594978 -0.39684898
-6.6290674 2.5599895 0
-6.6228299 2.5575807 0.39655173
-2.7060835 1.0412699 -0.95605689
-3.2325251 1.2438387 -0.95559019
-3.9546099 1.5216887 -0.93868202
-3.4307106 1.3200982 -0.61282939
-5.2978821 2.0385644 -0.6327157
-7.8700509 3.0283055 -0.47101146
-6.6175776 2.5463681 0
-6.6113696 2.5439792 0.39568117
-2.7096453 1.0388833 -0.95687109
-3.2246556 1.2363393 -0.95282149
-3.9896653 1.5296456 -0.94656348
-3.4275141 1.3141156 -0.6119743
-5.2423892 2.0099425 -0.62579781
-7.8761282 3.0197232 -0.47115648
-6.6085019 2.5337129 0
-6.6192861 2.5378475 0.39597115
-2.7247562 1.0409024 -0.96176243
-3.2355216 1.2360233 -0.95559019
-3.9915106 1.5248238 -0.94656348
-3.4267037 1.3090581 -0.61154675
-5.2351494 1.9999145 -0.62464464
-7.8821959 3.0111306 -0.47130147
-7.8465137 2.9974992 0
-9.479207 3.6212156 0.56679183
-2.7306273 1.039366 -0.96339083
-3.2370126 1.2321129 -0.95559019
-3.971971 1.5118622 -0.9414959
-3.4114864 1.2985233 -0.60855055
-5.2496462 1.9981871 -0.62608582
-7.8931165 3.0043783 -0.47173703
-7.8452697 2.9861662 0
-9.4422941 3.5940459 0.56432456
-2.7549868 1.0448287 -0.9715389
-3.2455294 1.230867 -0.95766467
-3.9832981 1.5106658 -0.94374746
-3.410655 1.2934909 -0.608123
-0 0 -0
-7.8967409 2.9948387 -0.47173703
-7.8464413 2.9757626 0
-9.4733486 3.592767 0.56592071
-2.7493176 1.0388806 -0.96909636
-3.2446699 1.2260586 -0.95697314
-3.9898789 1.5076495 -0.94487429
-3.4314263 1.296628 -0.61154675
-0 0 -0
-7.8930593 2.9825387 -0.47130147
-7.8524632 2.9671986 0
-9.470397 3.5785649 0.56548572
-2.7320662 1.0285909 -0.96257663
-3.2414577 1.2203709 -0.95559019
-3.9774253 1.4974542 -0.9414959
-3.4185712 1.287052 -0.60897809
-5.2689557 1.9837003 -0.627527
-7.9039555 2.9757466 -0.47173703
-7.8438673 2.9531243 0
-9.4625483 3.5625389 0.56475961
-2.754132 1.0331007 -0.9699105
-3.2335341 1.2129289 -0.95282149
-3.9911339 1.4971117 -0.94431198
-3.4369509 1.2892325 -0.6119743
-5.2640815 1.9746062 -0.62666184
-7.9148369 2.9689293 -0.47217202
-7.854733 2.9463837 0
-9.4838791 3.5574918 0.56577569
-2.7391698 1.0237144 -0.96420497
-3.2396927 1.2107757 -0.9542045
-3.9834194 1.48873 -0.94206041
-3.4312899 1.2823818 -0.61069
-5.2664633 1.9682442 -0.62666184
-7.9184184 2.9593637 -0.47217202
-7.8631678 2.9387147 0
-9.4930429 3.5478508 0.56606627
-2.7357767 1.0186807 -0.96257663
-3.2270515 1.2016095 -0.95005286
-3.9828274 1.4830265 -0.9414959
-3.4352405 1.2791296 -0.61111754
-5.2567205 1.9573673 -0.62522066
-7.9219885 2.9497936 -0.47217202
-7.8667126 2.9292114 0
-9.490015 3.5336566 0.56563067
-2.7387061 1.0178879 -0.96339083
-3.2301261 1.2005328 -0.95074439
-3.9861112 1.4815078 -0.94206041
-3.4336085 1.2761606 -0.61069
-5.2627559 1.9559951 -0.62579781
-7.923769 2.9450071 -0.47217202
-7.8611603 2.9217374 0
-9.5189428 3.5378814 0.56722736
-2.7283473 1.0102875 -0.95931673
-3.2598064 1.207083 -0.9590503
-3.9783673 1.473161 -0.93980885
-3.4399674 1.2737954 -0.61154675
-3.2495983 1.203303 -0.38623872
-7.9273219 2.9354305 -0.47217202
-7.8744469 2.9158514 0
-9.5158987 3.5236692 0.56679183
-2.7597086 1.0181103 -0.9699105
-3.2424328 1.1961967 -0.95351303
-3.9849074 1.4701099 -0.94093359
-3.441504 1.2696378 -0.61154675
-3.2170818 1.1868441 -0.38220319
-7.9308629 2.9258499 -0.47217202
-7.875525 2.9054346 0
-9.5103979 3.5085709 0.56621128
-2.7377427 1.00625 -0.96176243
-3.2485898 1.1940105 -0.95489866
-3.9842982 1.4644182 -0.94037122
-3.4550807 1.2699057 -0.61368614
-3.2403605 1.1909859 -0.38479754
-7.9343925 2.9162648 -0.47217202
-7.8790302 2.8959165 0
-9.5365782 3.5051439 0.5675174
-2.762161 1.0114383 -0.9699105
-3.240607 1.1866338 -0.95213002
-3.9884486 1.4604758 -0.94093359
-3.4590209 1.2666118 -0.61411375
-3.2345085 1.1844007 -0.38393238
-7.9379106 2.9066756 -0.47217202
-7.8800821 2.8855002 0
-9.5310469 3.4900444 0.56693679
-2.7564132 1.0055579 -0.96746486
-3.2349658 1.1801372 -0.95005286
-3.992595 1.4565253 -0.9414959
-3.503953 1.2782655 -0.62181634
-3.2092161 1.1707435 -0.38076201
-7.9414167 2.8970819 -0.47217202
-7.9006701 2.8822172 0
-9.540144 3.4803081 0.56722736
-2.7576261 1.0022266 -0.96746486
-3.2458208 1.1796552 -0.95282149
-3.9847999 1.4482284 -0.93924439
-3.5537484 1.2915678 -0.63037568
-3.2373614 1.1765807 -0.38393238
-0 0 -0
-7.8845792 2.8655572 0
-9.5370131 3.4661148 0.56679183
-2.7658093 1.0014189 -0.9699105
-3.2613928 1.1808553 -0.95697314
-3.9937165 1.4460084 -0.94093359
-3.8087361 1.3790325 -0.67531019
-3.236351 1.1717885 -0.38364437
-0 0 -0
-7.8978238 2.8595719 0
-9.5558491 3.4598947 0.56766236
-2.7460947 0.99052942 -0.96257663
-3.248662 1.1718079 -0.95282149
-3.9859002 1.4377332 -0.93868202
-3.9770081 1.4345257 -0.70483786
-3.2523582 1.173141 -0.38537356
-0 0 -0
-7.8988276 2.8491447 0
-9.5429192 3.4421766 0.56664681
-2.7589173 0.99138892 -0.96665066
-3.2524343 1.1687292 -0.95351303
-4.004375 1.4389315 -0.94262278
-3.9835749 1.4314572 -0.70569462
-3.2294369 1.1604654 -0.3824912
-0 0 -0
-0 0 0
-9.561739 3.4359138 0.5675174
-2.7776034 0.99053097 -0.9723562
-3.248158 1.1583371 -0.95143586
-3.9982677 1.4258364 -0.94037122
-4.0111971 1.4304472 -0.70997345
-3.9849801 1.421098 -0.47156885
-0 0 -0
-0 0 0
-9.5651245 3.4110529 0.56722736
-2.7694821 0.98386449 -0.96909636
-3.3157477 1.1779265 -0.97081637
-3.9999876 1.4210043 -0.94037122
-4.0395336 1.435053 -0.71468151
-3.9842596 1.4154168 -0.47128084
-4.319963 1.5346762 -0.25607064
-0 0 0
-9.5716848 3.4003618 0.56737238
-2.7473643 0.97227013 -0.96094513
-3.2793281 1.1605278 -0.95974183
-4.0112829 1.4195608 -0.94262278
-4.0581975 1.4361634 -0.71767604
-3.9859669 1.4106016 -0.47128084
-4.356113 1.5415933 -0.25810289
-0 0 0
-9.5684357 3.3861923 0.56693679
-2.7462084 0.9681288 -0.96013093
-3.3020201 1.1640707 -0.96597058
-4.010601 1.4138689 -0.94206041
-4.0865636 1.4406481 -0.7223841
-4.0047369 1.4118015 -0.47329804
-4.3040538 1.5173206 -0.25490955
-4.5421362 1.6012524 0
-9.5994797 3.3841324 0.56853348
-2.749706 0.96562797 -0.96094513
-3.2892265 1.1550941 -0.96181893
-4.0075073 1.4073365 -0.94093359
-4.0931406 1.4374087 -0.72323918
-3.99424 1.4026773 -0.47185686
-4.2985363 1.5095385 -0.25447452
-4.5465207 1.5966245 0
-9.5765905 3.3630593 0.56693679
-2.7485399 0.96148944 -0.96013093
-3.2787819 1.1469778 -0.95835882
-4.0092049 1.4024931 -0.94093359
-3.5618231 1.2459908 -0.62909132
-3.9690835 1.3884579 -0.46868649
-4.2120595 1.4734554 -0.24924952
-4.5189686 1.5808177 0
-9.5806475 3.3514855 0.56693679
-2.7496996 0.95816767 -0.96013093
-3.3014846 1.1504441 -0.96458763
-4.003696 1.3951386 -0.93924439
-3.480911 1.2129675 -0.61454129
-3.956099 1.3785528 -0.46695617
-0 0 -0
-4.5700264 1.5924836 0
-9.5846901 3.3399067 0.56693679
-2.7812076 0.96537995 -0.9707247
-3.2673192 1.1341133 -0.9542045
-3.9909811 1.3853023 -0.93586814
-3.4629731 1.2020264 -0.61111754
-3.9406645 1.3678371 -0.46493894
-0 0 -0
-4.5547347 1.5809859 0
-9.5813522 3.3257658 0.56650126
-2.7724485 0.96046323 -0.96746486
-3.2964504 1.1419939 -0.96251047
-3.9510043 1.368752 -0.92629963
-3.4151952 1.1831309 -0.60255986
-3.8583996 1.3366709 -0.45513755
-0 0 -0
-4.5655255 1.5816416 0
-9.5980959 3.3250818 0.56737238
-2.7712729 0.95630711 -0.96665066
-3.2907109 1.1355541 -0.9604333
-3.7605116 1.2976723 -0.881271
-3.4287531 1.1831895 -0.60469925
-3.8648973 1.3336935 -0.4557136
-0 0 -0
-4.5895724 1.5837635 0
-9.6119318 3.3168726 0.56795293
-2.7864461 0.95777684 -0.9715389
-3.3015707 1.1348391 -0.96320194
-3.6323242 1.248528 -0.85087633
-3.5054307 1.2049114 -0.61796504
-3.7955737 1.3046412 -0.44735339
-0 0 -0
-4.5619488 1.568065 0
-9.6159325 3.3052559 0.56795293
-2.7665584 0.94720465 -0.96420497
-3.298197 1.1292253 -0.96181893
-3.6025817 1.2334394 -0.84355938
-3.400032 1.1640912 -0.59913611
-3.6894872 1.2631938 -0.43466964
-3.5678692 1.2215546 -0.21064436
-4.5638399 1.5625517 0
-9.6027088 3.2877419 0.56693679
-2.7934356 0.95263737 -0.9731704
-3.3114293 1.1292872 -0.9652791
-3.6185036 1.2340078 -0.84693778
-3.4330196 1.1707529 -0.60469925
-3.6249113 1.2361932 -0.42688546
-3.5226216 1.2013096 -0.20788713
-4.555872 1.553676 0
-9.6238918 3.2820084 0.56795293
-2.7758625 0.94290179 -0.96665066
-3.286659 1.1164086 -0.95766467
-3.5694704 1.2124736 -0.8351177
-3.4368601 1.1674287 -0.6051268
-3.5847709 1.2176709 -0.42198476
-3.4379549 1.1678007 -0.20280711
-4.5232515 1.536453 0
-9.6204672 3.2678695 0.5675174
-2.7933908 0.94509262 -0.9723562
-3.3117745 1.1204783 -0.96458763
-3.5396459 1.1975744 -0.82780075
-0 0 -0
-3.5641916 1.205879 -0.41939041
-3.3876767 1.1461583 -0.19975932
-4.5300403 1.5326561 0
-7.645555 2.5867336 0.45083138
-2.7851617 0.93855953 -0.96909636
-3.2798467 1.1052612 -0.95489866
-3.5507216 1.1965421 -0.83005232
-0 0 -0
-3.5558417 1.1982676 -0.41823724
-3.3669 1.1345968 -0.1984532
-4.5417538 1.5305057 0
-0 0 0
-2.7816031 0.93361908 -0.96746486
-3.3001976 1.1076806 -0.9604333
-3.5449362 1.1898247 -0.82836312
-0 0 -0
-3.5720041 1.1989098 -0.41996756
-3.3485613 1.1239133 -0.19729209
-4.5485291 1.5266714 0
-0 0 0
-2.7897637 0.93260902 -0.9699105
-3.2896392 1.0997158 -0.95697314
-3.5511863 1.1871501 -0.8294878
-0 0 -0
-3.5660887 1.1921319 -0.4191024
-3.3449929 1.1182203 -0.19700208
-4.5750484 1.5294238 0
-7.6351666 2.5524116 0.44967026
-2.7721281 0.9229911 -0.96339083
-3.3052521 1.1004968 -0.96112746
-3.5429749 1.1796476 -0.82723624
-0 0 -0
-3.5577102 1.1845537 -0.41794923
-3.35374 1.116641 -0.19743764
-4.5447955 1.5132077 0
-7.6308465 2.5407207 0.44923469
-2.7849691 0.92352986 -0.96746486
-3.2994332 1.0941325 -0.9590503
-3.5685198 1.183365 -0.83286619
-0 0 -0
-3.568959 1.1835105 -0.4191024
-3.3378198 1.1068619 -0.19642153
-4.558969 1.5118101 0
-7.594449 2.5184124 0.44691247
-2.7907813 0.92171586 -0.96909636
-3.298373 1.089359 -0.95835882
-3.5434048 1.1702861 -0.82667392
-0 0 -0
-3.5875809 1.1848761 -0.42112073
-3.3588936 1.1093472 -0.19758265
-4.4916081 1.4834508 0
-4.3481426 1.4360681 0.25577396
-2.761373 0.9083041 -0.95850259
-3.2901542 1.0822372 -0.95559019
-3.5351617 1.162828 -0.82442236
-0 0 -0
-3.6086657 1.1870058 -0.42342708
-3.3676391 1.1077244 -0.19801821
-4.5082259 1.4828999 0
-4.3400011 1.4275655 0.25519341
-2.8235326 0.92497098 -0.97969013
-3.2843051 1.0759171 -0.95351303
-3.5220809 1.153811 -0.82104611
-0 0 -0
-3.7133172 1.2164587 -0.43553367
-3.3541543 1.0987993 -0.19714709
-4.4976506 1.4734013 0
-4.3120914 1.4126132 0.25345173
-2.7823577 0.90776116 -0.96502227
-3.3118403 1.0805081 -0.96112746
-3.5452106 1.1566465 -0.82611156
-0 0 -0
-3.7442915 1.2215979 -0.43899319
-3.3678288 1.0987747 -0.19787265
-4.5142775 1.4728105 0
-4.3187404 1.4090153 0.25374228
-2.8069544 0.91203481 -0.9731704
-3.2988231 1.0718526 -0.95697314
-3.5200212 1.1437242 -0.81991929
-0 0 -0
-3.7654438 1.2234669 -0.44129953
-3.369154 1.0947045 -0.19787265
-4.496253 1.460921 0
-4.3476162 1.4126263 0.2553384
-2.8216071 0.91491145 -0.97805864
-3.3209457 1.076823 -0.96320194
-3.5062141 1.1368966 -0.81654304
-0 0 -0
-3.7661824 1.2211918 -0.44129953
-3.3574584 1.0886621 -0.19714709
-4.4847493 1.4541885 0
-7.0845642 2.2971833 0.41599956
-2.7827284 0.89859051 -0.96420497
-3.3031454 1.066642 -0.95766467
-3.5245135 1.1381255 -0.8204838
-0 0 -0
-3.7479646 1.2102817 -0.43899319
-3.3661919 1.0870008 -0.19758265
-4.4765968 1.4455695 0
-7.0626121 2.280638 0.41454846
-2.7814615 0.89447153 -0.96339083
-3.2924926 1.0588106 -0.9542045
-3.5379782 1.1377547 -0.82329768
-0 0 -0
-3.7445042 1.20417 -0.43841717
-3.3749263 1.0853199 -0.19801821
-4.4461346 1.4298027 0
-0 0 0
-2.8178501 0.90241808 -0.97561604
-3.2842126 1.0517709 -0.95143586
-3.4885361 1.1172056 -0.8114776
-0 0 -0
-3.7582705 1.2035881 -0.43985835
-3.3613825 1.0764846 -0.19714709
-4.4627347 1.4291933 0
-0 0 0
-2.7859674 0.88849747 -0.96420497
-3.290266 1.0493277 -0.95282149
-3.3736866 1.0759321 -0.78445917
-0 0 -0
-3.7769737 1.204548 -0.44187668
-3.3503051 1.0684754 -0.19642153
-4.4793305 1.4285429 0
-0 0 0
-2.8082378 0.89186299 -0.9715389
-3.2867448 1.0438311 -0.95143586
-3.2635996 1.0364805 -0.75856972
-0 0 -0
-3.7759542 1.1991982 -0.44158754
-3.3615 1.0675725 -0.19700208
-4.4636974 1.4176174 0
-0 0 0
-2.8046048 0.88698 -0.9699105
-3.3310642 1.0534773 -0.9638961
-3.2139766 1.0164474 -0.74674964
-0 0 -0
-3.7478168 1.1852788 -0.43812916
-3.3454425 1.0580245 -0.19598597
-4.5026207 1.4239919 0
-0 0 0
-2.7891698 0.87839276 -0.96420497
-3.3419063 1.0524659 -0.96666473
-3.2200451 1.0140882 -0.74787438
-0 0 -0
-3.7566402 1.1830781 -0.43899319
-3.359118 1.0578864 -0.19671209
-4.5291657 1.4263694 0
-0 0 0
-2.7784398 0.87132472 -0.96013093
-3.3431754 1.0484271 -0.96666473
-3.2091479 1.0063958 -0.74506044
-0 0 -0
-3.733392 1.1707999 -0.43611082
-3.3479896 1.0499369 -0.19598597
-4.5308862 1.4208957 0
-0 0 0
-2.8007214 0.87459683 -0.96746486
-3.3133016 1.0346631 -0.95766467
-3.2297647 1.0085765 -0.74956357
-0 0 -0
-3.6804929 1.1493279 -0.42976895
-3.3914189 1.0590572 -0.1984532
-4.6220207 1.4433441 0
-0 0 0
-2.8112168 0.87414759 -0.9707247
-3.3816268 1.0515165 -0.97704518
-3.2188518 1.0009017 -0.74674964
-0 0 -0
-3.6102562 1.1226088 -0.42140874
-3.3430805 1.0395306 -0.19555098
-4.64116 1.4431683 0
-0 0 0
-2.842962 0.88025284 -0.98131847
-3.3277819 1.0303653 -0.96112746
-3.2346175 1.0015193 -0.75012589
-0 0 -0
-3.5424287 1.0968255 -0.41333655
-3.4014175 1.0531648 -0.19888876
-4.6578116 1.4421762 0
-0 0 0
-2.8156807 0.86807889 -0.9715389
-3.3218298 1.0241256 -0.9590503
-3.2406769 0.99910593 -0.75125057
-0 0 -0
-3.5215087 1.0856868 -0.41074219
-3.3281987 1.0260891 -0.19453485
-4.5998635 1.4181453 0
-0 0 0
-2.8049159 0.86105013 -0.96746486
-3.3326581 1.0230559 -0.96181893
-3.239455 0.99444455 -0.75068825
-0 0 -0
-3.4882061 1.0708059 -0.40670666
-0 0 -0
-0 0 0
-0 0 0
-2.8343182 0.86632997 -0.97724444
-3.3722789 1.0307616 -0.97289354
-3.2236519 0.98533267 -0.74674964
-0 0 -0
-3.5463812 1.0839772 -0.41333655
-0 0 -0
-0 0 0
-0 0 0
-2.7999017 0.85211247 -0.96502227
-3.3351207 1.0149992 -0.96181893
-3.2369919 0.98513502 -0.74956357
-0 0 -0
-3.4734604 1.057101 -0.40468833
-0 0 -0
-0 0 0
-7.1200666 2.1668968 0.41570956
-2.8080187 0.85087693 -0.96746486
-3.3675549 1.0204258 -0.97081637
-3.1822481 0.96427476 -0.73661667
-0 0 -0
-3.4475136 1.0446547 -0.40151796
-0 0 -0
-0 0 0
-7.1201859 2.1575363 0.415564
-2.8232467 0.85176814 -0.9723562
-3.3447716 1.0091112 -0.9638961
-3.2272024 0.97364074 -0.74674964
-0 0 -0
-3.44629 1.039739 -0.40122882
-0 0 -0
-0 0 0
-7.1203022 2.1481814 0.41541901
-2.8384721 0.85262102 -0.97724444
-3.3820221 1.0158927 -0.97427654
-3.2283766 0.96974057 -0.74674964
-0 0 -0
-3.4103937 1.024415 -0.39690527
-3.4649479 1.040802 -0.20208155
-4.6474133 1.3959912 0
-7.1204066 2.1388297 0.41527402
-2.8058455 0.84097284 -0.96583647
-3.3850362 1.0145689 -0.97496802
-3.2751994 0.98164839 -0.75744283
-0 0 -0
-3.3862314 1.0149271 -0.39402178
-0 0 -0
-4.6283121 1.3872057 0
-7.1266708 2.136018 0.415564
-2.8044934 0.83687586 -0.96502227
-3.3502064 0.9997195 -0.96458763
-3.2203896 0.96098149 -0.74449813
-0 0 -0
-3.2883253 0.98125386 -0.3824912
-0 0 -0
-4.6449432 1.386076 0
-7.1292467 2.1274054 0.415564
-2.8244476 0.8391149 -0.9715389
-3.3514118 0.99567068 -0.96458763
-3.2166724 0.95564091 -0.74337125
-0 0 -0
-0 0 -0
-0 0 -0
-4.6665726 1.3863916 0
-7.1367984 2.120271 0.41585457
-2.832572 0.83780527 -0.97398454
-3.3429894 0.98877418 -0.96181893
-3.1958981 0.94526815 -0.73830587
-0 0 -0
-0 0 -0
-0 0 -0
-4.6832228 1.3851823 0
-7.134367 2.1101706 0.415564
-2.7909098 0.82181656 -0.95931673
-3.3923137 0.99890715 -0.97566217
-3.2214074 0.94858176 -0.74393362
-0 0 -0
-3.1802113 0.93645102 -0.36951831
-0 0 -0
-4.6574292 1.3714354 0
-7.1344213 2.1008153 0.41541901
-2.7800441 0.81496793 -0.95524269
-3.3694391 0.98774868 -0.96873927
-3.1884198 0.93468302 -0.7360543
-0 0 -0
-0 0 -0
-0 0 -0
-4.7040315 1.3789834 0
-7.1469283 2.0951171 0.41599956
-2.7976284 0.81645316 -0.96094513
-3.3489578 0.97735184 -0.96251047
-3.2407668 0.94577765 -0.74787438
-0 0 -0
-3.1849551 0.92948967 -0.36980745
-0 0 -0
-4.7206888 1.3776745 0
-7.1469626 2.0857525 0.41585457
-2.7914991 0.81100547 -0.95850259
-3.3621798 0.97680348 -0.96597058
-3.1784716 0.9234314 -0.73324043
-0 0 -0
-0 0 -0
-0 0 -0
-4.7048531 1.3668863 0
-7.1619515 2.0807393 0.41658014
-2.8043463 0.81106472 -0.96257663
-3.3368545 0.96507514 -0.95835882
-3.1820238 0.92029542 -0.7338028
-0 0 -0
-3.2169983 0.93041068 -0.37326583
-0 0 -0
-4.7015061 1.3597556 0
-0 0 0
-2.8599455 0.82340145 -0.98131847
-3.3886435 0.97561789 -0.97289354
-3.239295 0.93261933 -0.74674964
-0 0 -0
-3.138593 0.90362638 -0.3640416
-0 0 -0
-4.6906438 1.3504744 0
-0 0 0
-2.8110456 0.80564594 -0.96420497
-3.3705263 0.96599323 -0.96735626
-3.2281997 0.92520237 -0.74393362
-0 0 -0
-3.2391284 0.92833453 -0.37557217
-0 0 -0
-4.6597414 1.3354824 0
-0 0 0
-2.8619268 0.81648767 -0.98131847
-3.352391 0.95641369 -0.96181893
-3.2342069 0.92269659 -0.74506044
-0 0 -0
-3.207916 0.91519594 -0.37182465
-0 0 -0
-4.7214155 1.3469868 0
-0 0 0
-2.817744 0.80020207 -0.96583647
-3.3728509 0.95784515 -0.96735626
-3.1962113 0.90768182 -0.7360543
-0 0 -0
-3.1318955 0.88941699 -0.36288843
-0 0 -0
-4.6103935 1.3092909 0
-0 0 0
-2.8163328 0.79612511 -0.96502227
-3.4077995 0.96332186 -0.97704518
