# .PCD v0.7 - Point Cloud Data file format
VERSION 0.7
FIELDS x y z
SIZE 4 4 4
TYPE F F F
COUNT 1 1 1
WIDTH 1556
HEIGHT 1
VIEWPOINT 0 0 0 1 0 0 0
POINTS 1556
DATA ascii
-4.1305184 3.7221491 -0.61974394
-0 0 -0
-12.457111 11.225522 0
-6.8201666 6.1458812 0.51280272
-2.0754454 1.8657144 -0.92020154
-2.3593864 2.1209621 -0.87530208
-2.7581697 2.4794469 -0.82160848
-3.3350613 2.9980419 -0.74763292
-4.1292405 3.7119665 -0.61887878
-6.3291373 5.6895556 -0.47536537
-12.503567 11.240038 0
-6.8333869 6.142849 0.51323825
-2.0666542 1.8533013 -0.9153102
-2.3470056 2.1047103 -0.86976475
-2.7649434 2.479502 -0.82273316
-3.3157475 2.9734435 -0.74249732
-4.1337228 3.7069743 -0.61887878
-6.2953844 5.6454749 -0.47231758
-12.460953 11.174535 0
-6.8388643 6.1328478 0.5130927
-2.046787 1.831028 -0.90553063
-2.3589013 2.1102412 -0.8732276
-2.7698364 2.4778583 -0.82329768
-3.3384666 2.986547 -0.74677616
-4.1324139 3.6968017 -0.61801362
-6.3641653 5.6932964 -0.47696149
-12.4919 11.175085 0
-6.8482118 6.1263175 0.51323825
-2.0840371 1.859823 -0.92101574
-2.3595722 2.1057141 -0.87253338
-2.7576623 2.4609752 -0.81879461
-3.324837 2.9671295 -0.74292487
-4.1349502 3.6900852 -0.61772561
-6.3090086 5.6302447 -0.47231758
-12.509282 11.163452 0
-12.506649 11.161102 0.93629766
-2.0585902 1.8326502 -0.90879047
-2.3564987 2.0978618 -0.8704589
-2.7758164 2.4711573 -0.82329768
-3.3245888 2.9596994 -0.74206978
-4.1374755 3.6833682 -0.6174376
-6.3235703 5.6295285 -0.47289816
-12.532478 11.15698 0
-12.510424 11.137345 0.93557215
-2.0755875 1.8432912 -0.9153102
-2.3627799 2.0983415 -0.87184191
-2.7844944 2.4728584 -0.82498473
-3.3281624 2.9556801 -0.74206978
-4.1419234 3.6783662 -0.6174376
-6.3575644 5.6460366 -0.47492981
-12.522599 11.121091 0
-12.51027 11.110141 0.93455601
-2.0537646 1.8194767 -0.90471643
-2.3822124 2.110456 -0.87807071
-2.78178 2.464442 -0.82329768
-3.3317316 2.9516566 -0.74206978
-4.1444235 3.6716387 -0.61714846
-6.3507657 5.6262875 -0.4739137
-12.553558 11.121482 0
-12.525628 11.096738 0.93470103
-2.0874438 1.8448168 -0.91857004
-2.3791265 2.1025968 -0.87599623
-2.7828465 2.4593916 -0.82273316
-3.3333664 2.9459238 -0.74164057
-4.1508002 3.6683459 -0.6174376
-6.349771 5.6117268 -0.47333315
-12.549438 11.090796 0
-12.527349 11.071274 0.93383044
-2.0674238 1.8226792 -0.90879047
-2.3722508 2.0914204 -0.87253338
-2.7877276 2.4577124 -0.82329768
-3.3427022 2.9469883 -0.74292487
-4.1532841 3.6616125 -0.61714846
-6.3779893 5.6229539 -0.47492981
-12.533553 11.049813 0
-12.534868 11.050973 0.93339491
-2.0640621 1.8152877 -0.90634793
-2.3842008 2.0968411 -0.87599623
-2.7906952 2.4543421 -0.82329768
-3.3346984 2.9327786 -0.74035788
-4.1674218 3.6651368 -0.61859077
-6.4023376 5.6306858 -0.47623593
-12.548848 11.036378 0
-12.556016 11.042683 0.93397546
-2.0736785 1.8193061 -0.90960467
-2.3678703 2.0774105 -0.86907327
-2.7841105 2.4425914 -0.8204838
-3.3459585 2.9355192 -0.74206978
-4.1601782 3.6498609 -0.61686045
-6.4247627 5.6366553 -0.47739705
-12.573909 11.031502 0
-12.567399 11.025791 0.93383044
-2.0628614 1.8054096 -0.90390223
-2.3760443 2.0795062 -0.87115043
-2.78897 2.4408975 -0.82104611
-3.3572299 2.9382367 -0.74378163
-4.1665297 3.646533 -0.61714846
-6.4413438 5.6374431 -0.47812262
-12.606816 11.033444 0
-12.578758 11.008888 0.93368542
-2.0836563 1.8191677 -0.91205031
-2.3861146 2.0832334 -0.87391907
-2.7938297 2.4391952 -0.82160848
-3.3472395 2.922358 -0.74078548
-4.1709328 3.6414959 -0.61714846
-6.4540248 5.6347842 -0.47855818
-12.64954 11.043872 0
-12.597919 10.998803 0.93412042
-2.0754426 1.8097881 -0.90797627
-2.3968251 2.090034 -0.87737918
-2.7799823 2.4241474 -0.81710541
-3.3567436 2.927084 -0.74249732
-4.1731319 3.6389754 -0.61714846
-0 0 -0
-12.632672 11.015703 0
-12.58498 10.974115 0.93266934
-2.0925462 1.8202562 -0.914496
-2.3823152 2.072319 -0.87115043
-2.7924929 2.4291229 -0.81991929
-3.3602781 2.9230258 -0.74249732
-4.1736269 3.6305387 -0.61657244
-0 0 -0
-12.649904 11.00385 0
-12.58843 10.950376 0.93194377
-2.1096783 1.8306856 -0.92101574
-2.4056623 2.0875273 -0.87876487
-2.8011851 2.4307446 -0.82160848
-3.3657444 2.9206443 -0.74292487
-4.1799622 3.6271865 -0.61686045
-6.4847488 5.6271787 -0.47957373
-12.596363 10.930568 0
-12.613424 10.945372 0.9328143
-2.0819893 1.802253 -0.90797627
-2.3949034 2.0731237 -0.87391907
-2.8002815 2.4240353 -0.8204838
-3.3537438 2.9031343 -0.73950112
-4.1843419 3.6221333 -0.61686045
-6.4895811 5.61764 -0.47942874
-12.548562 10.862535 0
-12.608961 10.914819 0.93150824
-2.0953858 1.8094251 -0.91286451
-2.3974066 2.0702286 -0.87391907
-2.8070509 2.4239681 -0.82160848
-3.3805645 2.9192131 -0.74463677
-4.1887155 3.6170745 -0.61686045
-6.4983287 5.6114912 -0.47957373
-12.541985 10.830359 0
-12.600513 10.880899 0.92991209
-2.1106808 1.8181852 -0.91857004
-2.3999064 2.0673301 -0.87391907
-2.8003542 2.4122846 -0.81879461
-3.3704727 2.9033966 -0.74164057
-4.1872096 3.6069512 -0.61599642
-6.5031376 5.6019406 -0.47942874
-12.557032 10.816894 0
-12.59396 10.848704 0.92846042
-2.0735121 1.7818073 -0.90145653
-2.4062042 2.0676959 -0.87530208
-2.8071175 2.4122078 -0.81991929
-3.3700883 2.8959792 -0.74078548
-4.1954846 3.6052575 -0.61657244
-6.5177846 5.600853 -0.48000929
-12.583911 10.813587 0
-12.636622 10.858883 0.93063766
-2.1113191 1.8098652 -0.9169417
-2.3991792 2.0566247 -0.87184191
-2.8138921 2.4121249 -0.82104611
-3.3872299 2.9036014 -0.74378163
-4.1939445 3.5951338 -0.61570728
-6.5324388 5.5997381 -0.48058984
-12.58709 10.789907 0
-12.594495 10.796254 0.92657375
-2.0984769 1.7944622 -0.91042197
-2.3978527 2.0504663 -0.8704589
-2.8225923 2.4136722 -0.82273316
-3.3731785 2.8844929 -0.73993033
-4.2022209 3.5934286 -0.61628443
-6.551053 5.6019764 -0.48146096
-6.7121119 5.7397022 0
-6.8333535 5.8433785 0.50220823
-2.0987577 1.7903167 -0.90960467
-2.3965075 2.0443082 -0.86907327
-2.8119805 2.3987217 -0.81879461
-3.3766615 2.880415 -0.73993033
-4.2026205 3.5849881 -0.61570728
-6.57165 5.6058564 -0.4824765
-6.8081322 5.8075843 0
-6.846334 5.8401718 0.50264323
-2.0877485 1.7765716 -0.90390223
-2.4371886 2.0739281 -0.88291651
-2.8187432 2.3986123 -0.81991929
-3.3840456 2.879657 -0.74078548
-4.2030134 3.5765581 -0.61513126
-6.6061277 5.6214905 -0.48450875
-0 0 0
-6.8890104 5.8622098 0.505256
-2.0917761 1.7756456 -0.90471643
-2.4014409 2.0385108 -0.86907327
-2.8177691 2.3919191 -0.81879461
-3.389478 2.8772256 -0.74121302
-4.2033844 3.5681262 -0.61455411
-6.6743193 5.6656284 -0.48900765
-0 0 0
-0 0 0
-2.1184387 1.7938792 -0.9153102
-2.4096477 2.0404727 -0.87115043
-2.8187199 2.3868723 -0.81823224
-3.3831587 2.864835 -0.73907357
-4.2136159 3.5680606 -0.61541927
-6.7049561 5.6777101 -0.49074933
-0 0 0
-0 0 0
-2.0903947 1.7657992 -0.90227073
-2.4140263 2.0391772 -0.87184191
-2.8216019 2.3834646 -0.81823224
-3.3866177 2.860745 -0.73907357
-4.2119946 3.5579579 -0.61455411
-6.7276921 5.6830187 -0.49191046
-0 0 0
-0 0 0
-2.1227677 1.7887545 -0.9153102
-2.4068978 2.0281773 -0.8683818
-2.8303034 2.3849609 -0.81991929
-3.3979242 2.8632677 -0.74078548
-4.2182746 3.5545373 -0.61484325
-6.6789165 5.6280022 -0.48784652
-0 0 0
-0 0 0
-2.1249275 1.7861882 -0.9153102
-2.4227915 2.0365691 -0.8732276
-2.8370769 2.3848121 -0.82104611
-3.3915579 2.8509023 -0.73864603
-4.2285004 3.554426 -0.61570728
-6.6379743 5.5798006 -0.4843632
-6.9177866 5.8150072 0
-6.9243011 5.8204832 0.505256
-2.1460268 1.7995032 -0.92346144
-2.4214022 2.0304132 -0.87184191
-2.8419015 2.3830135 -0.82160848
-3.4028685 2.8534 -0.74035788
-4.2288322 3.5459933 -0.61513126
-6.6168404 5.5484047 -0.48233151
-6.9347768 5.8150034 0
-6.9432716 5.8221264 0.50612658
-2.1045942 1.7604342 -0.90471643
-2.4180789 2.0226555 -0.86976475
-2.8447788 2.3795779 -0.82160848
-3.410248 2.852577 -0.74121302
-4.2350955 3.5425389 -0.61541927
-6.6195569 5.5370741 -0.48204151
-6.9517851 5.8149734 0
-6.9682374 5.8287358 0.5074327
-2.1427784 1.7879778 -0.92020154
-2.4455681 2.0406318 -0.87876487
-2.8378992 2.3680007 -0.81879461
-3.40187 2.8385894 -0.73864603
-4.2314291 3.5307908 -0.6142661
-6.6042948 5.5107579 -0.48044485
-6.9687953 5.8149047 0
-7.0012097 5.8419518 0.50931937
-2.1069446 1.7537633 -0.90390223
-2.4634502 2.050509 -0.88429952
-2.8388073 2.362946 -0.81823224
-3.4013476 2.8311892 -0.73778927
-4.2356925 3.5256753 -0.6142661
-6.5809894 5.4778366 -0.47826761
-6.9858155 5.8148031 0
-7.0242405 5.846787 0.51048046
-2.109062 1.7512162 -0.90390223
-2.4369795 2.0234957 -0.87391907
-2.8416605 2.3595142 -0.81823224
-3.4264929 2.8451178 -0.74249732
-4.2399492 3.5205548 -0.6142661
-6.579607 5.4632411 -0.47768706
-7.0268731 5.834619 0
-7.0432911 5.8482518 0.51135105
-2.1168888 1.7533978 -0.90634793
-2.4239662 2.0077472 -0.8683818
-2.8464644 2.3576982 -0.81879461
-3.4062045 2.8213253 -0.73736173
-4.2501779 3.5203803 -0.61513126
-6.5722013 5.4436893 -0.47667149
-7.0439372 5.8344235 0
-7.0743661 5.8596272 0.5130927
-2.1132879 1.7461143 -0.90390223
-2.4244583 2.0032203 -0.86769027
-2.859103 2.3623478 -0.82160848
-3.4234655 2.828655 -0.74035788
-4.2504368 3.5119441 -0.61455411
-6.5787745 5.4357438 -0.47667149
-8.3389368 6.8900871 0
-7.0814414 5.8510752 0.5130927
-2.1009965 1.7338237 -0.8981967
-2.4430809 2.016125 -0.87391907
-2.8703268 2.3687048 -0.82442236
-3.4271519 2.8282185 -0.74078548
-4.2505651 3.5077307 -0.6142661
-6.5880637 5.4367251 -0.47710648
-8.3370743 6.8800769 0
-7.0849748 5.8467956 0.5130927
-2.1107228 1.7375671 -0.90145653
-2.4493854 2.0163574 -0.87530208
-2.8535733 2.3490889 -0.81879461
-3.4226391 2.8175492 -0.73907357
-4.2508101 3.4993076 -0.61369008
-6.5866113 5.4221616 -0.4765265
-8.3473969 6.8716569 0
-8.2555399 6.7960391 0.59726971
-2.103272 1.7271743 -0.8973825
-2.4460089 2.0086246 -0.8732276
-2.8642642 2.3520894 -0.82104611
-3.4200876 2.8085227 -0.73778927
-4.2530308 3.4925227 -0.61340094
-6.6052032 5.4240899 -0.47739705
-8.3556938 6.8615656 0
-8.2798023 6.7992454 0.59843028
-2.086241 1.7089722 -0.88923442
-2.475601 2.0279214 -0.88291651
-2.859242 2.3421862 -0.81879461
-3.4353974 2.8141515 -0.74035788
-4.2632523 3.4922998 -0.6142661
-6.5996952 5.4062285 -0.4765265
-8.3740425 6.8597088 0
-8.3121338 6.8089952 0.60017192
-2.1227508 1.7345978 -0.90390223
-2.450856 2.0027077 -0.8732276
-2.8719058 2.3467669 -0.82160848
-3.4209068 2.7953811 -0.73650658
-4.2674689 3.4871459 -0.6142661
-6.6203017 5.4097548 -0.47754204
-10.887147 8.8963909 0
-8.3525486 6.8252535 0.60249418
-2.1497486 1.7523311 -0.914496
-2.4454956 1.9934044 -0.8704589
-2.8845847 2.3513205 -0.82442236
-3.4222865 2.789619 -0.73607743
-4.2676735 3.4787219 -0.61369008
-6.6127405 5.3902636 -0.4765265
-10.899903 8.8848715 0
-10.872236 8.8623199 0.78347373
-2.1518643 1.7497323 -0.914496
-2.4479024 1.990448 -0.8704589
-2.8815076 2.3430226 -0.82273316
-3.4415886 2.7984381 -0.73950112
-4.2758832 3.4768229 -0.6142661
-6.6111846 5.3757124 -0.47594595
-10.904572 8.8667679 0
-10.876887 8.8442564 0.7830382
-2.1597373 1.7518033 -0.9169417
-2.4600461 1.9953892 -0.87391907
-2.8705287 2.3283396 -0.81879461
-3.4369926 2.7878089 -0.73778927
-4.2800813 3.4716539 -0.6142661
-6.6196914 5.3693552 -0.47609094
-10.915277 8.8535852 0
-10.869405 8.8163776 0.78173208
-2.146481 1.7367551 -0.91042197
-2.441 1.9750553 -0.86630464
-2.8733399 2.3248694 -0.81879461
-3.4443538 2.7868865 -0.73864603
-4.2782388 3.4615974 -0.61340094
-5.2243452 4.2271085 -0.37536943
-10.927997 8.8420315 0
-10.876014 8.7999716 0.78144211
-2.110112 1.7031136 -0.89412266
-2.4707193 1.994167 -0.87599623
-2.876147 2.3213956 -0.81879461
-3.4457231 2.781112 -0.73821849
-4.2824183 3.4564254 -0.61340094
-5.2395573 4.228951 -0.376095
-10.930572 8.8222828 0
-10.902815 8.79988 0.7826032
-2.150672 1.7315629 -0.91042197
-2.4731271 1.9911802 -0.87599623
-2.8927982 2.3290684 -0.82273316
-3.4470756 2.775332 -0.73778927
-4.2906251 3.4544957 -0.61397809
-0 0 -0
-10.937165 8.8058014 0
-10.91344 8.7866993 0.7826032
-2.1546879 1.7305092 -0.91123617
-2.5087819 2.0148952 -0.88776231
-2.8837278 2.3160279 -0.81935692
-3.4624393 2.7808125 -0.74035788
-4.2907586 3.4460664 -0.61340094
-5.2376018 4.206511 -0.37522388
-10.949824 8.7942076 0
-10.936201 8.7832661 0.78347373
-2.15485 1.7263604 -0.91042197
-2.4857635 1.9914721 -0.87876487
-2.876611 2.3046 -0.81654304
-3.451771 2.7653902 -0.73736173
-4.2848287 3.432795 -0.61195976
-5.2325435 4.1920576 -0.37449834
-10.966537 8.7858534 0
-10.958969 8.7797899 0.78434432
-2.1453462 1.7144945 -0.90553063
-2.499923 1.9978614 -0.88291651
-2.8833597 2.304292 -0.81766772
-3.4470885 2.7548068 -0.73564982
-4.2889733 3.4276152 -0.61195976
-0 0 -0
-10.966983 8.7644739 0
-10.977689 8.7730303 0.78492486
-2.1744769 1.7334735 -0.9169417
-2.470948 1.9698176 -0.87184191
-2.8901193 2.3039773 -0.81879461
-3.4745021 2.7698419 -0.74078548
-4.299181 3.4272687 -0.61282492
-0 0 -0
-10.963318 8.7398586 0
-10.949683 8.7289886 0.78216761
-2.1514232 1.7108477 -0.90634793
-2.4890351 1.9793224 -0.87737918
-2.8929009 2.3004832 -0.81879461
-3.4617727 2.7528596 -0.73736173
-4.303319 3.4220715 -0.61282492
-5.2009335 4.1358695 -0.37116054
-10.97387 8.7266054 0
-10.945984 8.7044296 0.78115153
-2.1379979 1.6959589 -0.8998282
-2.5150106 1.9950228 -0.88568515
-2.9056299 2.3048799 -0.82160848
-3.4650965 2.7486746 -0.73736173
-4.3054266 3.4152634 -0.61253691
-5.1916752 4.1182766 -0.37014443
-10.978295 8.7084913 0
-10.944283 8.6815109 0.78028095
-2.1886444 1.7275331 -0.91938424
-2.4863493 1.9625165 -0.87391907
-2.8932433 2.2836847 -0.81654304
-3.4717288 2.7402928 -0.73736173
-4.3177238 3.4080508 -0.61311293
-5.1914158 4.0976701 -0.36941886
-10.985007 8.6706476 0
-10.959109 8.6502066 0.77984542
-2.1751947 1.7126554 -0.91286451
-2.4630961 1.9393368 -0.86492163
-2.909977 2.2911916 -0.8204838
-3.479075 2.739275 -0.73821849
-4.3137102 3.396431 -0.61195976
-5.1861572 4.0833588 -0.36869329
-10.995476 8.6573677 0
-10.967514 8.6353521 0.7797004
-2.1733789 1.7069756 -0.91123617
-2.5226526 1.9812958 -0.88499367
-2.9207287 2.2939456 -0.82273316
-3.4803576 2.733479 -0.73778927
-4.3198428 3.3928123 -0.61224777
-5.1788225 4.0674562 -0.3678222
-10.995697 8.6360397 0
-10.977941 8.6220942 0.7797004
-2.109293 1.6525254 -0.88352889
-2.5289905 1.9813377 -0.88637662
-2.9035006 2.2747474 -0.81710541
-3.4776015 2.7245269 -0.73650658
-4.3239393 3.3875902 -0.61224777
-5.1816897 4.0595946 -0.36767718
-10.993828 8.6131144 0
-10.988351 8.6088228 0.7797004
-2.1813889 1.7047594 -0.91286451
-2.4859238 1.942754 -0.8704589
-2.910255 2.2743697 -0.81823224
-3.4889817 2.7266457 -0.73821849
-4.3239574 3.3791807 -0.61167175
-5.1702123 4.0405307 -0.36651608
-11.008332 8.6030321 0
-10.9926 8.5907373 0.77926487
-2.1756499 1.696044 -0.90960467
-2.4724407 1.9274094 -0.86492163
-2.9150031 2.2724123 -0.81879461
-3.4821451 2.7145321 -0.73607743
-4.3300753 3.3755424 -0.61195976
-5.1709962 4.0310884 -0.36622608
-11.01256 8.5849228 0
-11.002973 8.5774488 0.77926487
-2.1727774 1.6916953 -0.90797627
-2.4894409 1.9382452 -0.8704589
-2.9223919 2.2753351 -0.8204838
-3.481761 2.7108524 -0.73564982
-4.3280358 3.3697507 -0.61138374
-5.1652293 4.0215783 -0.36564553
-11.015693 8.5766706 0
-11.006104 8.5692053 0.77911985
-2.1923864 1.7027117 -0.9153102
-2.4660249 1.9152324 -0.86146146
-2.919117 2.2671251 -0.81879461
-3.4769242 2.7003448 -0.73393798
-4.3341455 3.3661036 -0.61167175
-5.1680346 4.013742 -0.36550051
-11.038377 8.5729294 0
-11.010292 8.5511169 0.77868432
-2.1827228 1.6909822 -0.91042197
-2.4941175 1.9322236 -0.8704589
-2.9298887 2.2698209 -0.82104611
-3.4862745 2.7008598 -0.73522228
-4.3361669 3.3592818 -0.61138374
-5.1872535 4.0186291 -0.36651608
-11.056957 8.5659609 0
-11.020617 8.5378065 0.77868432
-2.1652038 1.6732274 -0.90227073
-2.4924765 1.9261374 -0.86907327
-2.924587 2.2600641 -0.81879461
-3.4895353 2.6966453 -0.73522228
-4.342267 3.3556199 -0.61167175
-5.1941595 4.0139461 -0.36666107
-11.069356 8.554184 0
-11.026816 8.5213099 0.77839428
-2.1398225 1.6494875 -0.89086282
-2.484869 1.9154676 -0.8656131
-2.9212766 2.2518735 -0.81710541
-3.507025 2.7033989 -0.73821849
-4.3401713 3.3456318 -0.61080658
-5.1784301 3.9918058 -0.36520997
-11.073506 8.5360403 0
-11.028872 8.5016346 0.77781373
-2.188838 1.683059 -0.91042197
-2.4991107 1.9216362 -0.86976475
-2.936085 2.257638 -0.8204838
-3.5082481 2.6975904 -0.73778927
-4.3483152 3.3435414 -0.61138374
-5.1502914 3.9602032 -0.36288771
-11.075561 8.5163088 0
-7.1461377 5.4948654 0.50351435
-2.19087 1.6804129 -0.91042197
-2.5153673 1.9293045 -0.87461054
-2.9307463 2.2479031 -0.81823224
-3.5013225 2.685539 -0.73564982
-4.3523521 3.338285 -0.61138374
-5.1509528 3.9508173 -0.36259773
-11.087906 8.5045023 0
-7.1527719 5.4862266 0.50351435
-2.2125249 1.6927801 -0.91857004
-2.5575464 1.9567524 -0.88845378
-2.9354763 2.2459028 -0.81879461
-3.5045648 2.6813066 -0.73564982
-4.3543305 3.3314533 -0.61109573
-5.1495299 3.9398522 -0.36216217
-11.094044 8.4879389 0
-0 0 0
-2.218502 1.6931072 -0.92020154
-2.5000827 1.9080029 -0.86769027
-2.9462674 2.2485201 -0.82104611
-3.513926 2.6817436 -0.73693419
-4.3542366 3.3230484 -0.61051857
-5.1460242 3.9273214 -0.36158159
-11.112559 8.4808369 0
-7.1804624 5.4799557 0.50452989
-2.2126799 1.684437 -0.9169417
-2.5083692 1.9095352 -0.86976475
-2.9408951 2.2388022 -0.81879461
-3.5028641 2.6666098 -0.73393798
-4.3623686 3.3209209 -0.61109573
-5.1404305 3.9132326 -0.36085606
-11.160076 8.4957809 0
-7.176743 5.4634075 0.50380433
-2.2225871 1.6877412 -0.92020154
-2.5426428 1.930778 -0.88083935
-2.9496708 2.2398584 -0.8204838
-3.512219 2.6670341 -0.73522228
-4.3622541 3.312516 -0.61051857
-5.145155 3.9070184 -0.36085606
-11.199347 8.5043221 0
-7.1771288 5.450016 0.50336879
-2.1970382 1.6641586 -0.90879047
-2.5089808 1.9004412 -0.8683818
-2.9523752 2.2362928 -0.8204838
-3.5154388 2.6627884 -0.73522228
-4.3641939 3.3056824 -0.61023057
-0 0 -0
-11.219985 8.4986391 0
-7.1795702 5.4382048 0.50307882
-2.2089055 1.668951 -0.91286451
-2.5292883 1.911018 -0.87461054
-2.9591258 2.2357843 -0.82160848
-3.5227461 2.6616309 -0.73607743
-4.3661232 3.2988491 -0.60994256
-5.1649456 3.9024038 -0.36158159
-11.219865 8.4772329 0
-5.867641 4.4333296 0.4107751
-2.2247391 1.6766953 -0.91857004
-2.5175691 1.8973894 -0.86976475
-2.9455919 2.2199728 -0.81710541
-3.5177596 2.6511922 -0.73436552
-4.3845592 3.3044636 -0.61195976
-5.1717305 3.8977227 -0.36172661
-11.225947 8.4605398 0
-5.8688393 4.4231052 0.41048455
-2.2267635 1.674006 -0.91857004
-2.5419202 1.9109303 -0.87737918
-2.9604621 2.2255759 -0.8204838
-3.5230181 2.6484866 -0.73479474
-4.3844175 3.2960579 -0.61138374
-5.1785192 3.8930366 -0.36187217
-11.204956 8.4235096 0
-5.8887205 4.4269423 0.41150066
-2.2149408 1.660933 -0.91286451
-2.5000744 1.8747481 -0.86215299
-2.9631491 2.2219973 -0.8204838
-3.5323713 2.6488438 -0.73607743
-4.3883972 3.2907579 -0.61138374
-5.1936116 3.8945696 -0.36259773
-5.8018866 4.3507009 0
-5.8795114 4.4089098 0.41048455
-2.2288251 1.6671408 -0.91775584
-2.5405021 1.9002724 -0.87530208
-2.9515872 2.2077603 -0.81654304
-3.5170705 2.6307366 -0.73222613
-4.3882236 3.2823515 -0.61080658
-5.2107944 3.8976266 -0.36346829
-5.7467051 4.2984834 0
-7.2351847 5.4118519 0.50467545
-2.2189481 1.6555755 -0.91286451
-2.5427964 1.8972013 -0.87530208
-2.9725792 2.2178659 -0.82160848
-3.5325956 2.6356988 -0.73479474
-4.3921866 3.2770467 -0.61080658
-5.2300806 3.9022062 -0.3644844
-5.7289562 4.2744212 0
-7.2375493 5.3999953 0.50438493
-2.2268972 1.6573215 -0.9153102
-2.5310047 1.883647 -0.8704589
-2.9630308 2.2051735 -0.81823224
-3.5398924 2.6344907 -0.73564982
-4.4002972 3.2748287 -0.61138374
-5.2347918 3.8958838 -0.3644844
-5.7215862 4.2581701 0
-7.2357306 5.3850408 0.50380433
-2.2110391 1.6413718 -0.90797627
-2.5655012 1.9045078 -0.88153082
-2.9595706 2.1970465 -0.81654304
-3.5451324 2.6317401 -0.73607743
-4.3876367 3.2571757 -0.60907739
-5.2436643 3.8926506 -0.36477441
-5.7100101 4.2388439 0
-7.2234564 5.3623557 0.50249821
-2.2110364 1.6372296 -0.90716213
-2.5294988 1.8730447 -0.8683818
-2.9703913 2.1995173 -0.81879461
-3.5338743 2.6167655 -0.73308289
-4.404037 3.2611039 -0.61080658
-5.2504582 3.8878624 -0.36491996
-5.7046719 4.2241993 0
-7.2215776 5.3474383 0.50191766
-2.2269239 1.6448315 -0.91286451
-2.557992 1.8893622 -0.87737918
-2.971005 2.1944182 -0.81823224
-3.5494189 2.6216416 -0.73564982
-4.3975735 3.2480981 -0.6093654
-5.2656007 3.8892331 -0.36564553
-5.7055893 4.2142134 0
-0 0 0
-2.2080312 1.6288164 -0.90471643
-2.5288477 1.8654757 -0.86699611
-2.9845946 2.2016702 -0.82160848
-3.5468745 2.6164517 -0.73479474
-4.3995352 3.2454407 -0.6093654
-5.2742248 3.8906801 -0.36608106
-5.7081342 4.2107658 0
-7.2458973 5.34514 0.5029338
-2.233887 1.6437252 -0.914496
-2.5654576 1.8876995 -0.87876487
-2.9749773 2.1890299 -0.81823224
-3.5500333 2.6121643 -0.73479474
-4.413868 3.2477856 -0.61080658
-5.2433443 3.8581259 -0.36361384
-5.7027311 4.1961489 0
-7.2523503 5.336381 0.5029338
-2.2219217 1.6307864 -0.90879047
-2.5353768 1.8608477 -0.86769027
-2.9919529 2.1959531 -0.82217079
-3.5449092 2.6017971 -0.73308289
-4.4136224 3.239392 -0.61023057
-5.2459011 3.8502457 -0.36346829
-5.697309 4.1815577 0
-7.2567005 5.3260779 0.50278878
-2.239845 1.6397805 -0.9153102
-2.533571 1.854816 -0.86630464
-2.982307 2.1833336 -0.81879461
-3.5521891 2.6005418 -0.73393798
-4.4175334 3.2340567 -0.61023057
-5.2547469 3.846977 -0.36375883
-5.6918597 4.166985 0
-7.2610278 5.3157663 0.50264323
-2.2278504 1.6268682 -0.90960467
-2.5479705 1.8606333 -0.8704589
-2.9828928 2.1782315 -0.81823224
-3.5615501 2.600791 -0.73522228
-4.4235249 3.2302403 -0.61051857
-5.2698822 3.8482854 -0.3644844
-5.7073975 4.1677771 0
-7.2611561 5.3023958 0.50220823
-2.2278185 1.6227214 -0.90879047
-2.5745511 1.875278 -0.87876487
-2.9752476 2.1671414 -0.81541622
-3.5605361 2.5934598 -0.73436552
-4.4211507 3.2203231 -0.60965341
-5.2808313 3.8465061 -0.36491996
-5.7208438 4.167007 0
-7.2654514 5.2920842 0.50206268
-2.2577755 1.6403699 -0.92020154
-2.5504241 1.8529916 -0.86976475
-2.9819791 2.1665347 -0.81654304
-3.5595176 2.5861409 -0.73351043
-4.4313183 3.2195411 -0.61051857
-5.2875752 3.8416483 -0.36506495
-5.7111421 4.1493878 0
-7.2718406 5.2833014 0.50206268
-2.2137237 1.6042811 -0.90145653
-2.5729792 1.864633 -0.87668771
-2.9907691 2.1674044 -0.81823224
-3.5647166 2.583343 -0.73393798
-4.4247355 3.2065971 -0.60907739
-5.2964172 3.8383031 -0.36535496
-5.7330022 4.1546955 0
-7.2803292 5.2760401 0.50220823
-2.2477095 1.6247721 -0.914496
-2.5548944 1.8468227 -0.86976475
-2.9933858 2.163789 -0.81823224
-3.5720003 2.5820444 -0.73479474
-4.4432821 3.2118564 -0.61109573
-5.3157945 3.8425577 -0.36637107
-5.7295814 4.1416664 0
-7.2845869 5.2657127 0.50206268
-2.2296269 1.6076026 -0.90634793
-2.5571241 1.8437343 -0.86976475
-2.985687 2.1527362 -0.81541622
-3.5688686 2.573221 -0.73351043
-4.4471598 3.206485 -0.61109573
-5.3183279 3.8346136 -0.36622608
-5.7514696 4.1469169 0
-7.2951636 5.2599492 0.50235325
-2.2255461 1.6005766 -0.90390223
-2.575644 1.8523616 -0.87530208
-2.9779739 2.1417105 -0.81260234
-3.5698934 2.5674095 -0.73308289
-4.448925 3.1995947 -0.61080658
-5.3250647 3.8297005 -0.36637107
-5.7395735 4.1278086 0
-7.2909684 5.2435465 0.50162768
-2.225472 1.5964471 -0.90308803
-2.5717707 1.8448652 -0.8732276
-3.0032723 2.1544037 -0.81879461
-3.5792446 2.5675788 -0.73436552
-4.4506879 3.1927106 -0.61051857
-5.3423524 3.8323479 -0.36724162
-5.7403316 4.1178393 0
-7.2909627 5.2301874 0.50119209
-2.2675927 1.6225162 -0.91938424
-2.5719519 1.8402923 -0.87253338
-3.0038087 2.1492963 -0.81823224
-3.5781729 2.5602672 -0.73351043
-4.4461288 3.1813102 -0.6093654
-5.3490987 3.8274064 -0.36738718
-5.7495322 4.1139259 0
-7.295166 5.2198634 0.50104713
-2.2393806 1.598242 -0.90716213
-2.5721335 1.8357273 -0.87184191
-2.9898582 2.1338565 -0.81372917
-3.585439 2.5589216 -0.73436552
-4.4499693 3.1759355 -0.6093654
-5.3664055 3.8299944 -0.36825773
-0 0 0
-7.2951207 5.2065148 0.50061154
-2.283592 1.6256346 -0.92427558
-2.6009171 1.8515307 -0.88083935
-3.0089941 2.142031 -0.81823224
-3.5864389 2.5531001 -0.73393798
-4.4559088 3.1720548 -0.60965341
-5.3562093 3.8129573 -0.36724162
-5.7679377 4.1060567 0
-7.3077588 5.2022185 0.50104713
-2.271446 1.612856 -0.91857004
-2.6072476 1.8512944 -0.88222498
-3.0136499 2.1398633 -0.81879461
-3.5853391 2.5457952 -0.73308289
-4.4597383 3.1666684 -0.60965341
-5.3883615 3.8260438 -0.36912885
-5.779263 4.1036062 0
-7.3309889 5.20542 0.50220823
-2.2512045 1.5943954 -0.90960467
-2.5849149 1.8307428 -0.87391907
-3.0141618 2.134753 -0.81823224
-3.5905054 2.5429432 -0.73351043
-4.4635615 3.1612773 -0.60965341
-7.0892835 5.0209217 -0.48523432
-5.7778435 4.0921059 0
-7.3351464 5.1950517 0.50206268
-2.2834117 1.6130664 -0.92182994
-2.5912192 1.8305104 -0.87530208
-3.0125844 2.1281745 -0.81710541
-3.5914807 2.5371234 -0.73308289
-4.4568172 3.1484215 -0.60821223
-7.0189424 4.9583788 -0.48000929
-5.7955418 4.0941339 0
-7.3456669 5.1891866 0.50235325
-2.232832 1.5732946 -0.9006424
-2.5934291 1.827378 -0.87530208
-3.0213869 2.1289248 -0.81879461
-3.5945439 2.5327818 -0.73308289
-4.4648509 3.1460164 -0.60878938
-7.0249286 4.9498944 -0.48000929
-5.7962255 4.0841274 0
-7.351932 5.1803069 0.50235325
-2.2569692 1.5862244 -0.90960467
-2.5751138 1.8098203 -0.8683818
-3.0135648 2.1179688 -0.81598073
-3.5996997 2.5299113 -0.73351043
-4.4707632 3.1421051 -0.60907739
-6.962883 4.8935962 -0.47536537
-5.7905121 4.0696402 0
-7.3624334 5.1744051 0.50264323
-2.2366276 1.5678941 -0.9006424
-2.5916808 1.8167894 -0.8732276
-3.0223577 2.1186974 -0.81766772
-3.6069541 2.5285044 -0.73436552
-4.466085 3.1307619 -0.60792422
-6.945384 4.8687706 -0.47376871
-5.7954249 4.0626402 0
-7.3708143 5.1670012 0.50278878
-2.2638936 1.5849689 -0.91123617
-2.6092191 1.8267339 -0.87876487
-3.0257246 2.1183324 -0.81823224
-3.61059 2.5278013 -0.73479474
-4.4785676 3.1354787 -0.6093654
-6.9376831 4.8571239 -0.47304314
-5.8000083 4.0606294 0
-7.3803144 5.1670136 0.50322378
-2.259726 1.5779858 -0.90879047
-2.6175892 1.8278848 -0.88083935
-3.0282819 2.114675 -0.81823224
-3.6052229 2.5175576 -0.73308289
-4.4738703 3.1241417 -0.60821223
-6.9414186 4.8472514 -0.47289816
-5.8049107 4.0536184 0
-7.4014673 5.1685076 0.50423992
-2.2697434 1.5809046 -0.91205031
-2.5827446 1.7989138 -0.8683818
-3.0245779 2.1066563 -0.81654304
-3.6061497 2.5117283 -0.73265368
-4.4818912 3.1216929 -0.60878938
-6.9366031 4.8314304 -0.47217202
-5.8098044 4.0466013 0
-7.4162359 5.1655006 0.50482047
-2.27368 1.5795698 -0.91286451
-2.5952163 1.8029473 -0.87184191
-3.0354681 2.108799 -0.81879461
-3.6070759 2.5059059 -0.73222613
-4.4856596 3.1162751 -0.60878938
-6.9381719 4.8200831 -0.47188205
-5.8253827 4.0470066 0
-7.4288764 5.160985 0.505256
-2.2654312 1.569784 -0.90879047
-2.5932727 1.7969551 -0.8704589
-3.0380139 2.1051295 -0.81879461
-3.6079931 2.5000849 -0.73179853
-4.4766622 3.1020112 -0.60705906
-6.954668 4.8190947 -0.47260758
-5.8174295 4.0310683 0
-7.4244218 5.1446009 0.50452989
-2.240896 1.5487785 -0.8981967
-2.6181381 1.8095065 -0.87807071
-3.0510046 2.1086791 -0.82160848
-3.6067917 2.4928071 -0.73094344
-4.4846663 3.0995438 -0.60763621
-6.954071 4.8062544 -0.47217202
-5.8222957 4.0240364 0
-7.4007101 5.1149459 0.50249821
-2.269218 1.5643048 -0.90879047
-2.5872738 1.7835593 -0.86699611
-3.0577304 2.1078725 -0.82273316
-3.6182473 2.4942696 -0.73265368
-4.4926634 3.0970557 -0.60821223
-5.5843282 3.8496041 -0.37885222
-5.8378654 4.0243821 0
-7.3897705 5.0942011 0.50133711
-2.2751837 1.5643651 -0.91042197
-2.6059651 1.791803 -0.87253338
-3.045625 2.0941033 -0.81879461
-3.6233799 2.4913545 -0.73308289
-4.4921436 3.088697 -0.60763621
-5.6039658 3.8531609 -0.37986836
-5.834146 4.0114274 0
-7.3852167 5.077909 0.50061154
-2.2464955 1.5406454 -0.8981967
-2.6122701 1.7914934 -0.87391907
-3.0460596 2.0889859 -0.81823224
-3.6327326 2.4913261 -0.73436552
-4.4980035 3.0847282 -0.60792422
-5.6086173 3.8463867 -0.37986836
-5.8647437 4.022038 0
-7.3870568 5.0660396 0.50032103
-2.2667136 1.5504872 -0.90553063
-2.5999362 1.7784196 -0.86907327
-3.0485816 2.0853038 -0.81823224
-3.62939 2.4825909 -0.73308289
-4.4953208 3.074909 -0.60705906
-5.6068249 3.8352044 -0.3794328
-5.8695993 4.0149488 0
-7.3974662 5.0600467 0.50061154
-2.2930858 1.5644627 -0.9153102
-2.5937936 1.7696211 -0.86630464
-3.0594947 2.0873468 -0.8204838
-3.6260233 2.4738622 -0.73179853
-4.5033102 3.0723932 -0.60763621
-5.626482 3.8386793 -0.38044891
-5.8636994 4.0005212 0
-7.4078636 5.0540309 0.50090158
-2.2725031 1.5463994 -0.90634793
-2.6249714 1.786248 -0.87599623
-3.0599079 2.0822148 -0.81991929
-3.6268897 2.4680362 -0.73137099
-4.5070195 3.0669494 -0.60763621
-5.6375632 3.8362648 -0.38088447
-5.8749857 3.9978271 0
-7.4053721 5.0392289 0.50032103
-2.2948167 1.5575299 -0.914496
-2.6146688 1.7746189 -0.87184191
-3.0582209 2.075665 -0.81879461
-3.6383653 2.4694185 -0.73308289
-4.5128603 3.0629525 -0.60792422
-5.6421943 3.8294504 -0.38088447
-5.8948793 4.0009518 0
-7.4136119 5.0317407 0.50046659
-2.2844126 1.54644 -0.90960467
-2.6105769 1.7672378 -0.86976475
-3.0544124 2.0676937 -0.81710541
-3.6349671 2.4607019 -0.73179853
-4.5165577 3.0574973 -0.60792422
-5.7113662 3.8663266 -0.38523838
-5.9040236 3.9967468 0
-6.1459041 4.1604881 0.41454846
-2.3127439 1.557482 -0.91938424
-2.6398106 1.7777401 -0.87807071
-3.0720496 2.0688248 -0.8204838
-3.6345131 2.4476073 -0.73051423
-4.5282202 3.0494604 -0.60850024
-5.813364 3.914921 -0.39147896
-5.9309344 3.994097 0
-6.1171412 4.1194949 0.41193566
-2.2715397 1.5257473 -0.90227073
-2.6273847 1.7647613 -0.8732276
-3.0745471 2.0651114 -0.8204838
-3.639605 2.4446492 -0.73094344
-4.5254664 3.0396645 -0.60763621
-0 0 -0
-5.9271145 3.9811232 0
-6.0897651 4.0903726 0.40975899
-2.265168 1.517499 -0.8990109
-2.606586 1.7462245 -0.8656131
-3.0770402 2.0613947 -0.8204838
-3.6510789 2.4459593 -0.73265368
-4.5420246 3.0428288 -0.6093654
-0 0 -0
-5.9492178 3.9855466 0
-6.1421924 4.1148252 0.41295177
-2.2711139 1.5175098 -0.9006424
-2.6232979 1.7528316 -0.8704589
-3.08375 2.0604959 -0.82160848
-3.6476345 2.4372716 -0.73137099
-4.5392442 3.033026 -0.60850024
-0 0 -0
-5.934556 3.9653437 0
-15.244689 10.186175 1.0241024
-2.2544374 1.5024298 -0.89330846
-2.6358502 1.7566156 -0.87391907
-3.0798922 2.0525396 -0.81991929
-3.6484427 2.4314401 -0.73094344
-4.5364552 3.0232401 -0.60763621
-5.7760029 3.8493147 -0.38770559
-11.65202 7.7652822 0
-15.252666 10.164868 1.0238124
-2.2841463 1.5202368 -0.90471643
-2.6264706 1.7480741 -0.8704589
-3.0769053 2.0478656 -0.81879461
-3.652046 2.4306564 -0.73137099
-4.5490446 3.0276628 -0.60907739
-5.7804885 3.8472629 -0.38785061
-11.693538 7.7827525 0
-15.204727 10.11966 1.0201842
-2.2942185 1.5229435 -0.90797627
-2.6223083 1.7407354 -0.8683818
-3.0836074 2.0469542 -0.81991929
-3.6528437 2.4248235 -0.73094344
-4.5333076 3.0092912 -0.60648304
-5.7872958 3.841711 -0.3879956
-11.650895 7.7340736 0
-7.0146284 4.6564364 0.47027922
-2.3001747 1.5228965 -0.90960467
-2.6244097 1.7375656 -0.8683818
-3.0776038 2.0376158 -0.81766772
-3.6579094 2.4218237 -0.73137099
-4.5498757 3.0123756 -0.60821223
-5.7897687 3.8332822 -0.38785061
-7.0275321 4.6527786 0
-6.9812465 4.6221342 0.46766645
-2.285521 1.5092257 -0.90308803
-2.6306903 1.7371554 -0.86976475
-3.0843084 2.0366986 -0.81879461
-3.6736817 2.4258866 -0.73393798
-4.544879 3.0011749 -0.60705906
-5.7878895 3.8219869 -0.38741505
-7.0157747 4.6328115 0
-7.0020065 4.6237197 0.46868256
-2.2976618 1.5132591 -0.90716213
-2.6265078 1.7298398 -0.86769027
-3.0846472 2.0315742 -0.81823224
-3.6680348 2.4157982 -0.73222613
-4.5463438 2.9942598 -0.60677105
-5.777319 3.8049901 -0.38639948
-7.0409265 4.6372128 0
-7.0097566 4.6166835 0.46882755
-2.2808986 1.4982703 -0.8998282
-2.6327858 1.729417 -0.86907327
-3.0892212 2.0292392 -0.81879461
-3.6709511 2.4113643 -0.73222613
-4.5542779 2.9916015 -0.60734707
-5.7145844 3.7537801 -0.38190001
-7.0356507 4.6215587 0
-7.0174994 4.6096354 0.46897256
-2.3095818 1.5131199 -0.91042197
-2.6222866 1.7179881 -0.86492163
-3.091671 2.0255048 -0.81879461
-3.6738622 2.4069269 -0.73222613
-4.555728 2.9846804 -0.60705906
-5.606101 3.6728308 -0.37435332
-7.0542874 4.6216087 0
-7.0730572 4.6339059 0.4723109
-2.3217516 1.5170867 -0.914496
-2.6012566 1.6997218 -0.8573072
-3.085608 2.0162082 -0.81654304
-3.6767678 2.4024858 -0.73222613
-4.5550051 2.9763465 -0.60648304
-5.5474548 3.6248364 -0.37014443
-6.3758125 4.1661048 0
-7.076478 4.6239362 0.47216588
-2.3153002 1.5088824 -0.91123617
-2.5822942 1.6828824 -0.85038692
-3.0752654 2.0041521 -0.81316465
-3.6796679 2.3980415 -0.73222613
-4.5694304 2.9779003 -0.60792422
-5.5322399 3.6053636 -0.36883831
-6.3503213 4.1385074 0
-15.441154 10.063007 1.0294725
-2.3005433 1.4953079 -0.90471643
-2.5064991 1.6291752 -0.82477754
-3.0222979 1.9644343 -0.79853076
-3.6825628 2.3935935 -0.73222613
-4.570859 2.9709685 -0.60763621
-5.4973803 3.5731893 -0.36622608
-2.5347133 1.6475139 0
-15.481622 10.06275 1.0313592
-2.3023484 1.4925271 -0.90471643
-2.5147831 1.6302407 -0.82685471
-2.9628408 1.9206998 -0.78220761
-3.6876044 2.3905373 -0.73265368
-4.5744452 2.9654434 -0.60763621
-5.4842505 3.5552366 -0.36506495
-2.5083151 1.6260476 0
-15.423997 9.998806 1.0267147
-2.3352857 1.5098747 -0.9169417
-2.5146463 1.6258401 -0.82616323
-2.9224923 1.8895321 -0.77095211
-3.686183 2.3832948 -0.73179853
-4.5758467 2.9585054 -0.60734707
-2.4468658 1.5820166 -0.16275084
-2.4774935 1.6018189 0
-6.4463305 4.1678634 0.42877129
-2.2914062 1.4775814 -0.8990109
-2.5208218 1.625517 -0.82754624
-2.8948734 1.8667189 -0.76307064
-3.6912153 2.380229 -0.73222613
-4.5685515 2.9459672 -0.60590589
-2.4596925 1.5860986 -0.16347641
-2.5275414 1.6298499 0
-6.4688325 4.1713367 0.42993242
-2.3181355 1.4908549 -0.90879047
-0 0 -0
-2.8458447 1.8302388 -0.74956357
-3.6897745 2.3729925 -0.73137099
-4.5677614 2.9376493 -0.60532987
-2.4725409 1.590157 -0.16420253
-2.5579624 1.6450939 0
-6.4826097 4.1691399 0.43051296
-2.3178568 1.4867196 -0.90797627
-2.4994023 1.6031666 -0.81924027
-2.5700295 1.6484683 -0.67639178
-3.6796703 2.360214 -0.72880238
-2.4247842 1.555305 -0.32108852
-2.4525843 1.5731366 -0.16275084
-2.5840471 1.6574594 0
-6.4788942 4.1556921 0.42993242
-2.3238115 1.4865791 -0.90960467
-2.4928842 1.5947376 -0.81647164
-2.5206499 1.6124997 -0.66288251
-3.6868486 2.3585355 -0.72965914
-2.4506223 1.5677019 -0.32425889
-2.4216564 1.549172 -0.16057417
-2.588238 1.6557369 0
-6.4598308 4.1324563 0.42833573
-2.3131082 1.4757963 -0.90471643
-2.5117292 1.6025193 -0.82200891
-2.5161765 1.6053568 -0.66119552
-2.3783104 1.5173963 -0.47032493
-0 0 -0
-2.403805 1.5336622 -0.1592675
-2.5880449 1.6512098 0
-6.4078689 4.0883126 0.42456239
-2.3190644 1.4756566 -0.90634793
-2.5157783 1.6008288 -0.82270044
-2.5223975 1.6050408 -0.6623202
-2.3844695 1.5172751 -0.47118005
-2.4325862 1.5478925 -0.32137653
-2.4012761 1.5279694 -0.15897749
-2.5658836 1.6327116 0
-6.3711572 4.0540662 0.42180514
-2.316668 1.4702022 -0.90471643
-2.5177107 1.5977877 -0.82270044
-2.5157537 1.5965459 -0.66006863
-2.3234472 1.4745045 -0.45876941
-2.4235377 1.5380237 -0.31993535
-2.3724096 1.505577 -0.15694582
-2.5480804 1.617061 0
-6.378243 4.0477562 0.42195016
-2.3121753 1.4634351 -0.90227073
-2.5238831 1.5974305 -0.82408607
-2.4919171 1.5771983 -0.65331405
-2.3404131 1.4813075 -0.46176559
-2.3838675 1.5088109 -0.31445751
-2.3478796 1.4860333 -0.15520415
-2.4862621 1.5736191 0
-6.3897099 4.0442114 0.42238516
-2.3235114 1.4686446 -0.90634793
-2.5100012 1.586521 -0.81924027
-2.499315 1.5797665 -0.65500325
-2.3326278 1.474407 -0.46005371
-2.3847785 1.5073704 -0.31445751
-2.3004591 1.4540737 -0.15201136
-2.5312102 1.5999268 0
-6.3679972 4.0250826 0.42078903
-2.3482773 1.4803307 -0.9153102
-2.5076759 1.5808139 -0.81785727
-0 0 -0
-2.3300602 1.4688468 -0.45919695
-2.3800321 1.5003484 -0.31359234
-2.2428625 1.4138782 -0.14809245
-0 0 0
-6.353075 4.0049152 0.41948292
-2.3228648 1.4603918 -0.90471643
-2.4777238 1.557752 -0.8074742
-0 0 -0
-2.2753332 1.4305084 -0.44807065
-2.3314867 1.4658124 -0.30696246
-2.2181714 1.3945707 -0.14635079
-2.524055 1.5868806 0
-6.3755078 4.0082998 0.42064404
-2.3099675 1.4483918 -0.8990109
-2.4094648 1.5107783 -0.78463352
-0 0 -0
-2.2357433 1.4018518 -0.43994048
-2.2061625 1.3833041 -0.29024205
-2.2440734 1.4070748 -0.14794746
-2.5921137 1.6253026 0
-6.3715405 3.9950721 0.42006347
-2.3096223 1.4442904 -0.8981967
-2.3474793 1.4679636 -0.76387
-2.5263083 1.5797919 -0.66006863
-2.1808496 1.363764 -0.42881417
-2.1552088 1.3477299 -0.28332415
-2.2567854 1.4112495 -0.14867301
-2.607311 1.6304458 0
-6.360939 3.9777253 0.41904736
-2.2820094 1.4231902 -0.88678873
-2.3109384 1.4412321 -0.75141239
-2.5454631 1.5874949 -0.6645717
-2.1672463 1.3516176 -0.425818
-2.1239138 1.3245928 -0.27899948
-2.2364452 1.3947738 -0.14722189
-0 0 0
-6.3679433 3.97141 0.41919237
-2.3173075 1.4413179 -0.8998282
-2.2999005 1.4304911 -0.74726075
-2.5430684 1.5817367 -0.66344702
-2.1557949 1.3408604 -0.42324936
-2.112339 1.3138318 -0.27727029
-2.2579849 1.4044206 -0.14852801
-2.586941 1.6090245 0
-6.3683286 3.9609706 0.41890237
-2.3148427 1.4359087 -0.8981967
-2.3122847 1.434322 -0.75072092
-2.5341754 1.571962 -0.660631
-2.1596012 1.3396116 -0.42367855
-2.1754594 1.3494486 -0.28534135
-2.2309768 1.3838862 -0.14664134
-2.6286871 1.6305882 0
-6.370904 3.9519043 0.41875735
-2.3291914 1.440915 -0.90308803
-2.3076136 1.4275662 -0.74864376
-2.5339141 1.5675633 -0.66006863
-2.1917775 1.3559061 -0.42966929
-2.2386773 1.3849199 -0.29341355
-2.2238081 1.3757213 -0.14606078
-2.6151609 1.6178252 0
-6.3778825 3.9455693 0.41890237
-2.3204074 1.431607 -0.8990109
-2.3114698 1.4260929 -0.74933529
-2.5358064 1.5645003 -0.66006863
-2.2043357 1.359995 -0.43180871
-2.2535522 1.3903599 -0.29514274
-2.2144139 1.3662128 -0.14533523
-2.5728247 1.5873393 0
-6.3782182 3.9351287 0.41861179
-2.3389759 1.439164 -0.90553063
-2.3302848 1.4338164 -0.75487256
-2.5420272 1.5641009 -0.66119552
-2.1994245 1.3532985 -0.43052605
-2.2310052 1.37273 -0.29197237
-2.2249153 1.3689829 -0.14591578
-2.5414908 1.5637708 0
-6.3719049 3.9206116 0.41788626
-2.3280776 1.4285831 -0.9006424
-2.2956669 1.408695 -0.74310648
-2.5439153 1.5610281 -0.66119552
-2.1966779 1.3479522 -0.42966929
-2.175349 1.334864 -0.28447732
-2.2221341 1.3635728 -0.14562522
-2.5300736 1.5525345 0
-6.3854966 3.9183457 0.41846681
-2.3045039 1.4102874 -0.89086282
-2.3080647 1.4124665 -0.74656659
-2.5349569 1.5513178 -0.65837944
-0 0 -0
-2.1482739 1.3146793 -0.2807287
-2.2237802 1.3608868 -0.14562522
-2.5363832 1.5521905 0
-3.8770034 2.3726101 0.2538873
-2.3040986 1.4062154 -0.89004862
-2.3247619 1.4188265 -0.75141239
-2.5390048 1.5495812 -0.65894395
-2.1539156 1.3145573 -0.42068237
-2.8364501 1.7311152 -0.37038347
-2.2298632 1.3609087 -0.14591578
-2.562695 1.5640396 0
-3.884299 2.3706284 0.25417727
-2.2741249 1.3841536 -0.87782335
-2.3071895 1.4042785 -0.74518365
-2.5408752 1.5465121 -0.65894395
-2.1335783 1.2986096 -0.41640353
-2.8297021 1.7223076 -0.3692303
-2.2403843 1.3636174 -0.14649634
-0 0 0
-3.8938217 2.3699875 0.25461283
-2.2525606 1.3673011 -0.86886108
-2.3024485 1.3975831 -0.74310648
-2.5449121 1.5447581 -0.65950632
-0 0 -0
-2.8052487 1.702782 -0.36577079
-2.2442496 1.3622564 -0.14664134
-0 0 0
-3.9322228 2.3868537 0.25693506
-2.2394083 1.3556175 -0.86315554
-2.2891104 1.3857045 -0.73826069
-2.5402536 1.5377332 -0.65781713
-2.1828253 1.3213652 -0.42539042
-2.1501818 1.3016046 -0.28015265
-2.2525647 1.3635818 -0.1470769
-0 0 0
-3.9462163 2.3888276 0.25766063
-2.1691072 1.3094823 -0.83544827
-2.3144102 1.3972012 -0.74587512
-2.5508108 1.5399154 -0.66006863
-2.1844203 1.3187268 -0.42539042
-2.1827486 1.3177176 -0.28418818
-2.256433 1.3622006 -0.14722189
-2.5969601 1.5677756 0
-3.9757941 2.4001727 0.2594023
-2.0838737 1.254594 -0.80203551
-2.3440356 1.4112242 -0.75487256
-2.5439625 1.5315899 -0.65781713
-2.1816094 1.3134357 -0.42453367
-2.1776979 1.3110808 -0.28332415
-2.2758865 1.3701952 -0.14838302
-2.5988526 1.5646365 0
-4.0165334 2.4181499 0.26186952
-2.1086993 1.2660712 -0.81100088
-2.3349869 1.4019352 -0.75141239
-2.5523484 1.5324399 -0.65950632
-2.1897995 1.3147641 -0.425818
-2.1947966 1.3177644 -0.28534135
-2.2753148 1.3661079 -0.14823802
-2.5628126 1.5387226 0
-4.0328145 2.4213176 0.26274011
-1.9957223 1.1949611 -0.76699436
-2.3581994 1.4119983 -0.75833273
-2.5563762 1.5306588 -0.66006863
-2.1715667 1.3002498 -0.4219667
-2.1253846 1.2725978 -0.27611712
-2.2747281 1.3620189 -0.14809245
-2.5624306 1.534284 0
-4.06918 2.4364672 0.26491731
-2.0600791 1.2318052 -0.79144174
-2.3461368 1.4028509 -0.75418109
-2.550756 1.525201 -0.65837944
-2.1569269 1.2897146 -0.4189705
-2.0817549 1.244766 -0.27035126
-2.2800152 1.363314 -0.14838302
-0 0 0
-4.0773439 2.4380102 0.26535287
-2.0467122 1.2204578 -0.7857393
-2.3521357 1.4025823 -0.75556403
-2.5591462 1.526023 -0.66006863
-2.156281 1.2857939 -0.41854295
-2.1188016 1.2634448 -0.27496395
-2.297277 1.3698699 -0.14939857
-2.5808563 1.5389688 0
-0 0 0
-2.0864198 1.2407206 -0.80040711
-2.3495202 1.3971771 -0.75418109
-2.5631702 1.5242271 -0.660631
-2.1666589 1.2884358 -0.42025483
-2.1670096 1.2886444 -0.28101781
-2.3034015 1.3697519 -0.14968912
-2.5804791 1.5345203 0
-0 0 0
-2.058151 1.2205461 -0.78899604
-2.3921998 1.4186473 -0.76733017
-2.5628266 1.5198342 -0.66006863
-2.1836636 1.294979 -0.42324936
-2.1440914 1.2715114 -0.27784631
-2.3139949 1.3722694 -0.15026969
-2.5868042 1.5340536 0
-0 0 0
-2.0702674 1.2243527 -0.79307324
-2.3744795 1.4042634 -0.76110137
-2.5580978 1.5128548 -0.65837944
-2.1719735 1.2845016 -0.42068237
-2.152307 1.2728709 -0.27871147
-2.3134167 1.3681509 -0.15012468
-2.6065764 1.541525 0
-4.1561732 2.4579542 0.26970679
-2.0291667 1.1967387 -0.77677393
-2.369698 1.3975735 -0.75902689
-2.5643053 1.5123469 -0.65950632
-2.1668885 1.2779628 -0.41939807
-2.1271091 1.2545021 -0.27525195
-2.3105876 1.362712 -0.14983413
-2.6151643 1.5423418 0
-4.1658483 2.4568865 0.27014178
-2.0391331 1.199298 -0.78003377
-2.3865161 1.4036084 -0.76387
-2.5573702 1.5040947 -0.65725476
-2.168431 1.2753435 -0.41939807
-2.8308656 1.6649486 -0.3660588
-2.2987981 1.3520178 -0.14896357
-2.5990798 1.528626 0
-4.1553798 2.4439499 0.26927122
-2.0427105 1.1980826 -0.78084797
-2.3882103 1.4007237 -0.76387
-2.5482292 1.4945773 -0.65444088
-2.1721911 1.274025 -0.41982725
-2.8150353 1.6510634 -0.36375359
-2.2802598 1.337409 -0.14765745
-2.5784807 1.5123203 0
-4.1740212 2.4481306 0.27028733
-2.0270889 1.1856306 -0.77432823
-2.3964 1.4016382 -0.76594716
-2.5522244 1.4927788 -0.65500325
-2.1537797 1.2597312 -0.41597432
-2.8237197 1.6515746 -0.36461762
-2.2863557 1.3372741 -0.14794746
-2.609508 1.5262836 0
-4.1792173 2.444396 0.27043235
-2.0455999 1.1931427 -0.78084797
-2.40676 1.4037975 -0.7687158
-2.5562189 1.4909728 -0.65556556
-2.142 1.2493701 -0.41340736
-2.1420841 1.2494193 -0.27640513
-2.3014328 1.342363 -0.14881802
-2.59112 1.5113297 0
-4.1754317 2.4354155 0.26999679
-2.0854926 1.2130362 -0.79551578
-2.417129 1.4059339 -0.77148443
-2.5689983 1.4942695 -0.65837944
-2.1812289 1.2687216 -0.42068237
-2.1637123 1.2585329 -0.27899948
-2.3008091 1.338276 -0.14867301
-2.5884407 1.5055782 0
-4.1783714 2.4303687 0.26999679
-2.0313735 1.1782749 -0.77432823
-2.4318426 1.4105624 -0.77563608
-2.5664105 1.4886169 -0.65725476
-2.1983063 1.2751024 -0.42367855
-2.1607609 1.2533245 -0.27842346
-2.3181608 1.3446225 -0.14968912
-2.601512 1.5089771 0
-4.1790595 2.4240155 0.26985177
-2.0477741 1.1844833 -0.78003377
-2.4140024 1.3963189 -0.76940727
-2.572602 1.4880569 -0.65837944
-2.193177 1.2685879 -0.42239425
-2.2271917 1.2882628 -0.28678256
-2.3265338 1.3457248 -0.15012468
-2.6191049 1.5149553 0
-4.1819854 2.4189641 0.26985177
-2.0427787 1.1783022 -0.77758807
-2.4004736 1.3846253 -0.76456147
-2.5788043 1.4874889 -0.65950632
-2.1835921 1.2595251 -0.42025483
-2.5961683 1.4975045 -0.33406028
-2.3304067 1.3442098 -0.15026969
-2.6367161 1.5208931 0
-4.1759019 2.4087162 0.26927122
-2.0806208 1.1967818 -0.79144174
-2.3760571 1.3667179 -0.75625819
-2.5938108 1.4919708 -0.66288251
-2.1984594 1.264563 -0.42282179
-2.6629927 1.5317645 -0.34242049
-2.3117597 1.3297338 -0.14896357
-2.6340358 1.5151083 0
-4.1810598 2.404963 0.26941624
-2.0649137 1.1844288 -0.784922
-2.3363574 1.3401279 -0.74310648
-2.6176565 1.5014803 -0.66851246
-2.1999857 1.2619056 -0.42282179
-2.6648417 1.5285457 -0.34242049
-2.3043487 1.321768 -0.14838302
-2.6178045 1.5015655 0
-4.1726947 2.393446 0.26869068
-2.04918 1.1721154 -0.77840227
-2.3858798 1.3647053 -0.75833273
-2.6326981 1.5058833 -0.67188871
-2.1948304 1.2554264 -0.42153913
-2.3097229 1.321144 -0.29658395
-2.3081975 1.3202716 -0.14852801
-2.5992877 1.486773 0
-4.1846061 2.393563 0.26927122
-2.036974 1.1586096 -0.77269989
-2.4502304 1.3936656 -0.77771324
-2.6562049 1.5108218 -0.67695409
-2.2223964 1.264076 -0.42624554
-2.1510437 1.2234912 -0.275828
-2.3091249 1.3134062 -0.14838302
-2.6254904 1.4933517 0
-4.1858563 2.3808715 0.26898068
-2.0835176 1.1817534 -0.78981334
-2.5151939 1.4265966 -0.79778528
-2.6668692 1.5126255 -0.67920566
-2.2283924 1.2639252 -0.4271023
-2.2177622 1.2578958 -0.28418818
-2.3423488 1.3285602 -0.15041469
-2.6091919 1.4799114 0
-4.2000375 2.3822255 0.26970679
-2.0885282 1.1829283 -0.79144174
-2.5356998 1.4362032 -0.80401403
-2.6744173 1.5147719 -0.68089485
-2.2380903 1.2676392 -0.42881417
-2.3715513 1.3432306 -0.30379096
-2.3476772 1.3297086 -0.15070525
-2.6304638 1.489877 0
-4.185647 2.3707223 0.26869068
-2.0684395 1.1682513 -0.78329366
-2.5417979 1.4356035 -0.80539703
-2.6673961 1.506541 -0.67864329
-2.2373786 1.2636679 -0.42838496
-2.4092062 1.3607157 -0.30840364
-2.3379631 1.3204778 -0.14997913
-2.634526 1.4879761 0
-4.1907687 2.3669395 0.26883566
-2.0569241 1.1584715 -0.77840227
-2.545723 1.4337658 -0.80609119
-2.6470795 1.4908503 -0.67301553
-2.2277224 1.2546661 -0.42624554
-2.3950708 1.3489177 -0.30638534
-2.323715 1.3087296 -0.14896357
-2.6408527 1.4873434 0
-4.177784 2.352952 0.26782012
-2.0497024 1.1511441 -0.77514243
-2.5496387 1.4319161 -0.80678272
-2.6311555 1.4776971 -0.66851246
-2.2225199 1.2482011 -0.42496124
-2.3831723 1.338426 -0.30465612
-2.3184958 1.3021026 -0.14852801
-2.6471906 1.4867027 0
-4.1783519 2.346626 0.26767457
-2.0597177 1.1534973 -0.77840227
-2.5251005 1.4141243 -0.79847676
-2.6329391 1.4745167 -0.66851246
-2.1971581 1.2304677 -0.41982725
-2.2877564 1.2812052 -0.29226038
-2.2974002 1.286606 -0.1470769
-2.6603363 1.4898599 0
-4.1879878 2.3453858 0.26811013
-2.0805376 1.1618569 -0.7857393
-2.5158577 1.4049573 -0.79501659
-2.6280615 1.4676166 -0.66682327
-2.1963954 1.2265567 -0.41939807
-2.2328496 1.246914 -0.28505334
-2.2898786 1.2787614 -0.14649634
-2.6439569 1.4764932 0
-4.1749358 2.3314543 0.26709399
-2.0646648 1.1497223 -0.77921957
-2.5416574 1.4153389 -0.8026284
-2.629833 1.46444 -0.66682327
-2.2337604 1.2438844 -0.42624554
-2.2976274 1.2794491 -0.29312554
-2.2823412 1.270937 -0.14591578
-2.6366441 1.4682329 0
-4.1822948 2.3289387 0.26738456
-2.0638855 1.1460235 -0.77840227
-2.5389833 1.4098333 -0.80124539
-2.6204956 1.4550951 -0.66400939
-2.2352619 1.2411845 -0.42624554
-2.4461429 1.3582814 -0.31186315
-2.2520669 1.2505158 -0.14388356
-2.5860918 1.4359914 0
-4.1714711 2.3163126 0.26651344
-2.0804067 1.1519107 -0.7841078
-2.5253193 1.3982565 -0.79639959
-2.6178019 1.4494636 -0.66288251
-2.2345164 1.2372403 -0.425818
-2.5677073 1.4217266 -0.32714239
-2.2513051 1.2465363 -0.14373855
-2.6083138 1.4442102 0
-4.1742668 2.3112702 0.26651344
-2.0493474 1.1314801 -0.77188569
-2.5335979 1.3988431 -0.79847676
-2.6017561 1.4364744 -0.65837944
-2.213541 1.2221341 -0.42153913
-2.6282904 1.4511245 -0.33463743
-2.2459831 1.240046 -0.14330299
-2.6601756 1.4687288 0
-4.1656847 2.2999463 0.26578787
-2.0723608 1.1409209 -0.78003377
-2.5023267 1.3776351 -0.78809631
-2.6079459 1.4357829 -0.65950632
-2.221756 1.2231692 -0.42282179
-2.6436324 1.4554298 -0.33636662
-2.204237 1.2135243 -0.14054576
-2.6824646 1.4768084 0
-4.1821227 2.3024328 0.26665899
-2.0824041 1.1431736 -0.78329366
-2.4995871 1.3721937 -0.78671068
-2.609679 1.4326307 -0.65950632
-2.2007337 1.2081327 -0.41854295
-2.5093596 1.3775585 -0.31907019
-2.2079773 1.2121093 -0.14069076
-2.6796887 1.4710637 0
-4.1803417 2.2948747 0.26636845
-2.0859499 1.1418422 -0.7841078
-2.4770341 1.3559204 -0.77909625
-2.6180968 1.4331377 -0.66119552
-2.1774201 1.1919128 -0.4138349
-2.2637331 1.2391602 -0.28764769
-2.1957688 1.2019567 -0.1398202
-2.6928763 1.4740717 0
-4.185389 2.2910683 0.26651344
