# .PCD v0.7 - Point Cloud Data file format
VERSION 0.7
FIELDS x y z
SIZE 4 4 4
TYPE F F F
COUNT 1 1 1
WIDTH 1599
HEIGHT 1
VIEWPOINT 0 0 0 1 0 0 0
POINTS 1599
DATA ascii
-3.4186051 12.037902 0
-3.2356067 11.393511 0.66156274
-0.8246246 2.8904481 -0.99109805
-0.94127303 3.2993205 -0.94659275
-1.1945457 4.1870837 -0.96457362
-1.5267911 5.3516603 -0.9277969
-2.1675637 7.5976758 -0.88063502
-2.4453213 8.5712624 -0.49786046
-3.4338641 12.036272 0
-3.2536497 11.404591 0.66243386
-0.83084035 2.8989534 -0.99435794
-0.94525892 3.2981808 -0.94659275
-1.1996042 4.1856375 -0.96457362
-1.5389144 5.3695531 -0.93122059
-2.1781662 7.600019 -0.88121104
-2.4563942 8.5708065 -0.49800602
-3.4462533 12.024607 0
-3.2717216 11.415633 0.66330439
-0.82135201 2.8528268 -0.97887594
-0.9617359 3.3404267 -0.9590503
-1.1997391 4.1670904 -0.96063292
-1.5468231 5.3726282 -0.93207735
-2.1902101 7.6073236 -0.88236421
-2.4588397 8.5403633 -0.49640936
-3.462219 12.025431 0
-3.2847946 11.409177 0.66315943
-0.83166403 2.8755708 -0.98702401
-0.95461929 3.3007021 -0.9479757
-1.2068919 4.1729627 -0.96232212
-1.5525986 5.3682823 -0.93164819
-2.1972439 7.5972152 -0.88149905
-2.468436 8.5348921 -0.49626434
-3.4847012 12.048741 0
-3.3057957 11.430156 0.66461051
-0.84410155 2.9054165 -0.99761778
-0.96770519 3.330863 -0.95697314
-1.2126415 4.1739392 -0.96288443
-1.5555037 5.3540788 -0.92950875
-2.2136395 7.6193976 -0.88438255
-2.4859951 8.5568514 -0.49771547
-3.4978034 12.039519 0
-3.3232286 11.438627 0.66533607
-0.82614845 2.8308496 -0.9723562
-0.97805399 3.3513637 -0.96320194
-1.226226 4.2017407 -0.96963906
-1.5634116 5.3571286 -0.9303655
-2.2184954 7.6018147 -0.88265222
-2.4992445 8.5638189 -0.49829602
-3.5670283 12.222648 0
-3.3363202 11.432112 0.66519105
-0.84625262 2.8867633 -0.99191225
-0.97292876 3.3188848 -0.9542045
-1.2241555 4.1758776 -0.96401131
-1.5713265 5.360158 -0.93122059
-1.2789314 4.3627305 -0.50673884
-2.5088599 8.558301 -0.49815103
-3.6169357 12.338204 0
-3.353055 11.438046 0.66577166
-0.83577967 2.8383288 -0.97561604
-0.96843445 3.2888277 -0.94589859
-1.2270466 4.1670809 -0.96232212
-1.5807025 5.3681054 -0.9329325
-1.2856617 4.3661394 -0.50731492
-2.522135 8.5652342 -0.49873158
-3.6436007 12.373759 0
-3.369076 11.441466 0.66620719
-0.83920866 2.8373168 -0.97561604
-0.97738922 3.3044977 -0.95074439
-1.2320808 4.1655951 -0.96232212
-1.5799081 5.3415799 -0.92865366
-1.2931379 4.372026 -0.50818002
-2.5354307 8.5721474 -0.49931213
-3.6607645 12.376837 0
-3.3843708 11.442366 0.66649717
-0.84897065 2.8576219 -0.98294997
-0.97709596 3.2888896 -0.94659275
-1.2407305 4.1762795 -0.96513599
-1.5870916 5.3421254 -0.9290812
-1.2940016 4.3555889 -0.50645083
-2.5413451 8.5541277 -0.49844101
-3.6794219 12.384876 0
-3.3981943 11.438269 0.66649717
-0.86584902 2.9015868 -0.99843198
-0.97461355 3.2660728 -0.94036394
-1.2392375 4.1528664 -0.96007055
-1.5935453 5.3402038 -0.9290812
-1.2985218 4.3515363 -0.50616175
-2.5487072 8.541091 -0.49786046
-3.6958737 12.385413 0
-3.4142425 11.441627 0.66693276
-0.85871232 2.865032 -0.98620981
-0.98431867 3.2841086 -0.94589859
-1.2551978 4.1878772 -0.96851438
-1.600733 5.3407307 -0.92950875
-1.3037788 4.3499641 -0.50616175
-2.5612643 8.545475 -0.49829602
-3.7160645 12.398382 0
-3.4235902 11.422563 0.66606218
-0.86787325 2.882926 -0.99272954
-0.9738254 3.2348807 -0.93205798
-1.2529312 4.1620226 -0.96288443
-1.6101451 5.3486252 -0.93122059
-1.3090339 4.3483858 -0.50616175
-2.5843208 8.5846701 -0.50076324
-3.7355454 12.40884 0
-3.4388862 11.423389 0.66635221
-0.85847884 2.8392856 -0.97805864
-0.99806088 3.3009315 -0.95143586
-1.2572247 4.1580758 -0.96232212
-1.6158644 5.3442211 -0.93079305
-1.3127915 4.3418541 -0.50558567
-2.6014595 8.6039238 -0.50206935
-3.7535491 12.414282 0
-3.7640138 12.448892 0.72643685
-0.8633467 2.8429809 -0.97969013
-0.9918443 3.2661204 -0.94174695
-1.2563415 4.1371036 -0.95781904
-1.619337 5.3324394 -0.9290812
-1.3187876 4.3427372 -0.50587368
-2.612608 8.6032581 -0.50221437
-3.7730825 12.424674 0
-3.7767873 12.436873 0.72600132
-0.87009937 2.8590035 -0.98539251
-0.99235791 3.260725 -0.94036394
-1.2610607 4.1436381 -0.95950824
-1.6419895 5.3953075 -0.94020754
-1.3176465 4.3295698 -0.5044325
-2.6193197 8.6066542 -0.50250494
-3.785893 12.439822 0
-3.7865708 12.442049 0.72643685
-0.87138796 2.8508661 -0.98294997
-0.99702978 3.2619205 -0.94105542
-1.2668086 4.1445394 -0.96007055
-1.3416196 4.3892937 -0.76517755
-1.3228769 4.3279748 -0.5044325
-2.6259203 8.5910606 -0.50177938
-3.8009212 12.435239 0
-3.8023605 12.439948 0.72658187
-0.87990719 2.8663437 -0.98865235
-1.0024415 3.2655056 -0.94243842
-1.2725605 4.145432 -0.96063292
-1.3514436 4.4023986 -0.76774615
-1.3296221 4.3313136 -0.50500858
-2.6370609 8.5903635 -0.5019244
-3.8212881 12.448046 0
-3.8219657 12.450253 0.72745299
-0.88410026 2.8676472 -0.98946971
-1.005648 3.2618966 -0.94174695
-1.2753248 4.1366143 -0.95894587
-1.3567622 4.4007621 -0.76774615
-1.3318095 4.3198266 -0.50385648
-2.6619818 8.6343431 -0.50468159
-3.8393934 12.453367 0
-3.835474 12.440655 0.72716242
-0.99920177 3.2271326 -0.93205798
-1.2885869 4.1617627 -0.96513599
-1.3628372 4.4015694 -0.76817369
-1.336261 4.3157363 -0.50356734
-2.6585805 8.5864449 -0.50206935
-3.857517 12.458663 0
-3.8581903 12.460838 0.72861409
-0.89396316 2.8749428 -0.99272954
-1.0247023 3.2953935 -0.95213002
-1.2883356 4.1432252 -0.96119744
-1.3635827 4.3852167 -0.76560676
-1.339173 4.306716 -0.50270331
-2.6643257 8.5683441 -0.50119883
-3.875659 12.463933 0
-3.8771009 12.468571 0.72933966
-1.0241951 3.2797801 -0.9479757
-1.2925813 4.1392331 -0.96063292
-1.3727056 4.3958154 -0.76774615
-1.3466865 4.3124943 -0.50356734
-2.6684806 8.5452757 -0.50003767
-3.8969223 12.479115 0
-3.8944855 12.471312 0.72977465
-0.89351088 2.8491859 -0.98457831
-1.0183989 3.2474229 -0.93897825
-1.3051865 4.1619177 -0.96626282
-1.3772486 4.3917065 -0.76731861
-1.3480272 4.2985263 -0.50212616
-1.363272 4.3471379 -0.25447452
-3.9151132 12.48433 0
-3.911885 12.474037 0.73021024
-0.89695293 2.8481042 -0.98457831
-1.0298566 3.2701144 -0.94589859
-1.3071613 4.1506433 -0.96401131
-1.3833245 4.3924851 -0.76774615
-1.3524441 4.2944298 -0.50183815
-0 0 -0
-3.9341033 12.492 0
-3.9331989 12.489128 0.73137134
-0 0 -0
-1.0330514 3.2664778 -0.94520706
-1.3121756 4.1490607 -0.96401131
-1.3847615 4.3785748 -0.76560676
-1.3568529 4.290329 -0.50155014
-0 0 -0
-3.9539044 12.50213 0
-3.9482868 12.484367 0.73137134
-0.91729796 2.8883257 -0.99924612
-1.0332013 3.2532742 -0.94174695
-1.3133433 4.1353664 -0.96119744
-1.3931592 4.3866849 -0.76731861
-1.3589042 4.2788258 -0.50039697
-1.3845245 4.3594966 -0.25549009
-3.9674308 12.492377 0
-3.9720213 12.506831 0.73296803
-0.89075112 2.7930341 -0.96665066
-1.0340824 3.2424629 -0.93897825
-1.320653 4.1410317 -0.96288443
-1.403137 4.3996682 -0.7698856
-1.3656436 4.282104 -0.50097299
-1.3874247 4.3504009 -0.2550551
-3.9896386 12.509888 0
-3.9926548 12.519345 0.73398358
-0.90241808 2.8178501 -0.97561604
-1.0479459 3.2722688 -0.9479757
-1.323333 4.1321802 -0.96119744
-1.4076699 4.3955269 -0.76945806
-1.3716048 4.2829118 -0.50126106
-1.3910937 4.3437672 -0.25476453
-3.7055266 11.570711 0
-3.7399256 11.678124 0.68492895
-0.91716999 2.8520451 -0.98783821
-1.0611155 3.2996597 -0.95628166
-1.3275448 4.1281524 -0.96063292
-1.4137652 4.3962646 -0.7698856
-1.3759879 4.2787914 -0.50097299
-1.400318 4.3544493 -0.25549009
-3.7266748 11.588521 0
-3.7548313 11.676077 0.68507451
-0.91530114 2.8344774 -0.98213577
-1.035808 3.2076592 -0.92998081
-1.3309718 4.1217141 -0.95950824
-1.4238076 4.4092054 -0.77245259
-1.381951 4.2795849 -0.50126106
-1.4055786 4.3527541 -0.25549009
-3.7430744 11.591442 0
-3.7665405 11.664111 0.68463892
-1.0551592 3.2541344 -0.94382405
-1.337517 4.1249323 -0.96063292
-1.4283433 4.4050422 -0.77202499
-1.3879211 4.2803793 -0.50155014
-1.4060297 4.3362265 -0.25461954
-3.749052 11.56216 0
-3.7790272 11.654603 0.6843484
-0.9374491 2.8792517 -0.99843198
-1.0575355 3.2480814 -0.94243842
-1.3448609 4.1305637 -0.96232212
-1.4368439 4.4130769 -0.77373689
-1.3970951 4.2909937 -0.50299132
-1.4080503 4.3246412 -0.25403896
-3.7444878 11.500702 0
-3.7898889 11.640145 0.6837678
-0.9378553 2.8687198 -0.99517208
-1.0715932 3.2777984 -0.95143586
-1.3459039 4.1168623 -0.95950824
-1.4477597 4.4284196 -0.77673304
-1.4006699 4.2843809 -0.50241423
-1.4068153 4.3031783 -0.25287786
-4.1093407 12.569686 0
-3.7958782 11.610865 0.68231672
-0.91819644 2.7971394 -0.9707247
-1.0739896 3.2717385 -0.95005286
-1.3532555 4.122478 -0.96119744
-1.4515067 4.4217844 -0.77587628
-1.4098815 4.2949796 -0.50385648
-1.403911 4.2767916 -0.25142676
-4.1261477 12.569653 0
-4.1373014 12.603631 0.74095029
-0.92699224 2.8124619 -0.97643024
-1.0740161 3.2585273 -0.94659275
-1.3574381 4.1184196 -0.96063292
-1.4600629 4.4297795 -0.77758819
-1.4223562 4.3153791 -0.50645083
-1.4009421 4.2504091 -0.24997507
-4.1445913 12.574545 0
-4.1452079 12.576415 0.73964417
-0.9257291 2.7972565 -0.9715389
-1.0708594 3.2357938 -0.94036394
-1.364809 4.1240153 -0.96232212
-1.4710609 4.4450741 -0.78058434
-1.4316319 4.3259325 -0.50789201
-1.4093424 4.2585807 -0.25055563
-4.1622357 12.576941 0
-4.1628475 12.578791 0.74007916
-0.91664141 2.7586167 -0.95850259
-1.0866326 3.2702024 -0.95074439
-1.3657858 4.1103091 -0.95950824
-1.4804773 4.4554715 -0.78272378
-1.4352251 4.3192859 -0.50731492
-1.4046545 4.227284 -0.24881396
-4.1790695 12.576838 0
-4.1788621 12.576215 0.74022412
-0.9324863 2.7950113 -0.9715389
-1.0778798 3.2308099 -0.93966979
-1.3755746 4.1231132 -0.96288443
-1.4874862 4.4585543 -0.78358054
-1.4371688 4.307734 -0.50616175
-1.4179864 4.2502375 -0.25026563
-4.1876769 12.552039 0
-4.1989908 12.58595 0.74109524
-0.94514698 2.8272691 -0.98294997
-1.0782422 3.225404 -0.93828678
-1.3772606 4.119874 -0.96232212
-1.4893634 4.4552131 -0.78315133
-1.4463315 4.3264894 -0.50846803
-1.4238493 4.2592373 -0.25084618
-2.9081349 8.6992607 0
-4.2090659 12.590807 0.74153084
-0.92182451 2.7464626 -0.95524269
-1.0845343 3.2312362 -0.94036394
-1.3830453 4.1206131 -0.96288443
-1.4890301 4.4363818 -0.78015679
-1.4482661 4.3149304 -0.50731492
-1.4223802 4.2378068 -0.24968506
-2.9070489 8.6611948 0
-4.2284098 12.598026 0.7422564
-0.92987663 2.7593954 -0.96013093
-1.0924428 3.2418082 -0.94382405
-1.3847775 4.1093078 -0.96063292
-1.7878501 5.3054194 -0.93336004
-1.4534788 4.3131776 -0.50731492
-1.4283288 4.2385449 -0.24983007
-2.9216669 8.6700048 0
-4.2486062 12.607677 0.74312693
-0.9538036 2.8191376 -0.98131847
-1.0907301 3.2238486 -0.93897825
-1.3873012 4.1004176 -0.95894587
-1.7901466 5.2910995 -0.93122059
-1.4603488 4.3163228 -0.50789201
-1.43095 4.2294297 -0.24939451
-2.9413164 8.6935883 0
-4.2688351 12.617308 0.74399805
-0.95244116 2.8039458 -0.97643024
-1.1010798 3.2415318 -0.94451559
-1.3971566 4.1131692 -0.96232212
-1.7957138 5.2865043 -0.93079305
-1.4688908 4.3243513 -0.50904518
-1.4402405 4.2400064 -0.25012064
-2.9518187 8.6900272 0
-4.2907634 12.631824 0.74515915
-0.93987304 2.7560067 -0.96013093
-1.1074259 3.2473249 -0.94659275
-1.4029449 4.1138806 -0.96288443
-1.8012724 5.2819033 -0.9303655
-1.4782883 4.3348112 -0.51048636
-1.4445215 4.2357965 -0.24997507
-2.9707153 8.7110815 0
-4.3076992 12.631544 0.74544919
-0.95135254 2.767756 -0.96502227
-1.1152701 3.2446392 -0.94659275
-1.415361 4.1176891 -0.96457362
-1.8140314 5.277535 -0.9303655
-1.4769905 4.2969866 -0.50645083
-1.4403954 4.1905212 -0.24750784
-2.9858384 8.686656 0
-4.3466573 12.645665 0.74690026
-0.98371786 2.8507063 -0.99435794
-1.1159164 3.233803 -0.94382405
-1.4170201 4.1063685 -0.96232212
-1.8220801 5.2801876 -0.93122059
-1.4762746 4.2780814 -0.5044325
-1.4412204 4.1764984 -0.24678227
-2.9819012 8.641222 0
-4.3704114 12.664972 0.74835193
-0.95561039 2.7584403 -0.96257663
-1.1255692 3.2490394 -0.94866723
-1.4253078 4.1142569 -0.96457362
-1.8242581 5.2658563 -0.9290812
-1.4789019 4.26896 -0.50356734
-1.450518 4.1870279 -0.24750784
-2.996599 8.6499062 0
-4.3916631 12.676862 0.74936754
-0.94838893 2.726938 -0.95198286
-1.1204317 3.2216187 -0.94105542
-1.4286103 4.1077366 -0.96344894
-1.8280889 5.256372 -0.9277969
-1.4806606 4.2573981 -0.50241423
-1.4504564 4.1705513 -0.24663728
-3.0087566 8.6511898 0
-4.4112477 12.683825 0.75009364
-0.95494205 2.7351239 -0.95524269
-1.1210157 3.2107882 -0.93828678
-1.4310592 4.0988083 -0.96175975
-1.8369782 5.2614326 -0.9290812
-1.4892139 4.2653737 -0.50356734
-1.4709104 4.2129493 -0.24924952
-3.0080564 8.6156092 0
-4.4257116 12.676025 0.74994808
-0.98113388 2.7992687 -0.97805864
-1.1199139 3.1952214 -0.93413246
-1.4402122 4.1090631 -0.96457362
-1.8407862 5.2519388 -0.9277969
-1.4926573 4.2586942 -0.50299132
-1.4493583 4.1351581 -0.2447506
-3.0150213 8.6021442 0
-4.4521971 12.702544 0.75183475
-0.97057045 2.7584481 -0.96420497
-1.1287715 3.2080698 -0.93828678
-1.4426453 4.1001272 -0.96288443
-1.8462796 5.2472916 -0.9273693
-2.4480841 6.957674 -0.82211471
-1.4716027 4.1824265 -0.24765339
-3.0219579 8.5886745 0
-4.4709921 12.70696 0.7524153
-0.9928363 2.8108771 -0.98294997
-1.1376587 3.2208924 -0.94243842
-1.450138 4.1055708 -0.96457362
-1.8534727 5.2474751 -0.9277969
-2.4470129 6.9278817 -0.8189432
-1.4766552 4.1806455 -0.24765339
-3.0470674 8.6267319 0
-4.4889398 12.708901 0.75285089
-0.97971243 2.7630851 -0.96665066
-1.1658624 3.2880845 -0.96251047
-1.4483047 4.0846572 -0.96007055
-1.8598119 5.2452316 -0.9277969
-2.4553821 6.9249196 -0.8189432
-1.4895202 4.2008972 -0.24895951
-3.0557513 8.6181421 0
-4.5095015 12.718158 0.75372142
-0.98719352 2.7735398 -0.9707247
-1.1462827 3.220504 -0.94313258
-1.4523879 4.0805125 -0.95950824
-1.8687316 5.2502384 -0.9290812
-2.4646142 6.9243822 -0.81923121
-1.4815243 4.1623721 -0.24678227
-3.0757627 8.6414165 0
-4.5292244 12.724946 0.75444752
-1.0080069 2.8212202 -0.98783821
-1.1425738 3.1978474 -0.93690115
-1.4590255 4.0835357 -0.96063292
-1.8716192 5.238307 -0.9273693
-2.4677594 6.9067898 -0.81750202
-1.5022881 4.2046194 -0.24939451
-3.0826993 8.6278906 0
-4.5507145 12.736586 0.75546312
-0.99055552 2.7618399 -0.96746486
-1.1633762 3.2436938 -0.95074439
-1.4759696 4.1152582 -0.96851438
-1.8736149 5.2239623 -0.92522991
-2.4734826 6.8964968 -0.81663686
-1.5003495 4.1832337 -0.24823339
-3.0852156 8.6021137 0
-4.5713658 12.745758 0.75633419
-0.97296208 2.7025061 -0.94709152
-1.170694 3.2517276 -0.95351303
-1.4706126 4.0847836 -0.96175975
-1.8816632 5.2265205 -0.926085
-2.4791846 6.8862 -0.8157717
-1.5212482 4.2254295 -0.25084618
-3.1026564 8.61796 0
-4.5911636 12.752447 0.75705975
-0.99974781 2.7664137 -0.9699105
-1.1601276 3.2102027 -0.94174695
-1.4841814 4.1068954 -0.9673875
-1.8897237 5.2290764 -0.92694175
-2.4848685 6.8759089 -0.81490767
-1.5060395 4.1673794 -0.24750784
-3.1077619 8.5995235 0
-4.6092191 12.754224 0.75749534
-1.014046 2.7954063 -0.98050427
-1.163151 3.2064426 -0.94105542
-1.4822109 4.0859904 -0.96288443
-1.895166 5.2243781 -0.92651421
-2.4914093 6.8680339 -0.81433052
-1.5181626 4.1850982 -0.24866895
-3.1172638 8.593318 0
-4.6317158 12.768187 0.75865644
-0.98871869 2.720459 -0.95442539
-1.1642319 3.2033837 -0.94036394
-1.4872838 4.0922608 -0.96457362
-1.8930591 5.2087517 -0.92394561
-1.6289023 4.4819241 -0.53153032
-1.5375556 4.2305837 -0.25142676
-3.1331224 8.6207848 0
-4.6429758 12.775146 0.75923645
-0.99454707 2.7262304 -0.95687109
-1.1741178 3.2184656 -0.94520706
-1.4887441 4.0809126 -0.96232212
-1.8975937 5.2016416 -0.92309046
-1.6476139 4.5164027 -0.535855
-1.5159522 4.1554947 -0.24707283
-3.1381834 8.6023188 0
-4.6619706 12.77929 0.759817
-1.0233346 2.7946491 -0.98131847
-1.1642036 3.1793518 -0.93413246
-1.5024092 4.1029658 -0.96794987
-1.9100537 5.2162118 -0.926085
-1.6610732 4.5362649 -0.53844935
-1.5218649 4.1560974 -0.24721783
-3.1512609 8.605854 0
-4.6818786 12.785855 0.76054311
-1.0360907 2.8189316 -0.99028385
-1.1619885 3.1614664 -0.92928934
-1.4994775 4.0796857 -0.96288443
-1.6462628 4.4790497 -0.79556197
-1.662984 4.5245438 -0.53729618
-1.5475007 4.2103438 -0.25055563
-3.1535776 8.5800581 0
-4.7044921 12.79969 0.76170367
-1.0352196 2.8060856 -0.98620981
-1.2144307 3.2918584 -0.96804774
-1.5070451 4.0850244 -0.96457362
-1.661448 4.503552 -0.80027002
-1.6666577 4.5176735 -0.53671908
-1.5489894 4.1987195 -0.24997507
-3.1657424 8.5811205 0
-4.7235522 12.803748 0.76228422
-1.0386095 2.8048327 -0.98620981
-1.1774648 3.1798205 -0.93551815
-1.5146278 4.0903511 -0.96626282
-1.6713448 4.5135756 -0.80240947
-1.6685261 4.5059633 -0.53556699
-1.5567695 4.2041574 -0.25041062
-3.1770115 8.5797272 0
-4.7435336 12.810222 0.76301032
-1.040274 2.7989376 -0.98457831
-1.176937 3.1666398 -0.93205798
-1.5195692 4.0885181 -0.96626282
-1.6803746 4.5211778 -0.80412132
-1.6622527 4.4724193 -0.53181839
-1.5609438 4.1998401 -0.25026563
-3.1973503 8.6027184 0
-4.7653432 12.821524 0.76402593
-1.0384737 2.7837887 -0.97969013
-1.2096977 3.2427809 -0.95489866
-1.5253954 4.0890574 -0.96682519
-1.6840435 4.5143385 -0.80326623
-2.5200984 6.7555122 -0.80366397
-1.5714649 4.2125535 -0.25113618
-3.205013 8.5915308 0
-4.7835574 12.823062 0.76446146
-1.02797 2.745497 -0.96665066
-1.1969 3.1966746 -0.94174695
-1.5303351 4.0872111 -0.96682519
-1.6957954 4.5291219 -0.80626076
-2.5300751 6.7573113 -0.80424112
-0 0 -0
-3.2135684 8.5827827 0
-4.804513 12.831869 0.76533204
-1.0660616 2.8367891 -0.99924612
-1.1981133 3.1881785 -0.93966979
-1.5343796 4.082983 -0.96626282
-1.7102989 4.5511041 -0.81054127
-2.538238 6.7542496 -0.80424112
-0 0 -0
-3.2321754 8.6008158 0
-4.8172746 12.818765 0.76489705
-1.0503007 2.7846267 -0.98131847
-1.2055062 3.1961179 -0.94243842
-1.5464857 4.1001453 -0.97076589
-1.7239493 4.5706487 -0.81439257
-2.54457 6.7463326 -0.80366397
-1.5757204 4.1776543 -0.24939451
-3.2554219 8.630991 0
-4.829092 12.803209 0.76431644
-1.048416 2.769491 -0.97643024
-1.2138073 3.206388 -0.94589859
-1.5442421 4.0792632 -0.96626282
-1.9575779 5.1711292 -0.92180616
-2.5499754 6.7360034 -0.80279994
-1.5678896 4.1417303 -0.24736284
-3.2769051 8.6562576 0
-4.8473158 12.804648 0.76475143
-1.0719494 2.8213561 -0.99517208
-1.2363917 3.2541661 -0.9604333
-1.5554845 4.0940142 -0.97020143
-1.9683827 5.1807561 -0.92394561
-2.5516813 6.7159901 -0.80078161
-1.5941167 4.1956935 -0.25070062
-3.2929099 8.666894 0
-4.8627844 12.798782 0.76475143
-1.0568652 2.7715635 -0.97805864
-1.2197664 3.1987617 -0.94451559
-1.5495698 4.0636511 -0.96344894
-1.9517759 5.1184115 -0.91324681
-1.6539483 4.3373771 -0.51740539
-1.5954854 4.184062 -0.25012064
-3.3339751 8.7431431 0
-4.8856521 12.81232 0.76591259
-1.0610993 2.7725997 -0.97887594
-1.2263215 3.2043169 -0.94659275
-1.5553862 4.0641465 -0.96401131
-1.7570306 4.591033 -0.81952816
-1.6804484 4.3909278 -0.52403527
-1.6033236 4.1894045 -0.25055563
-3.3631411 8.7877197 0
-4.9029889 12.811266 0.76620317
-1.057359 2.7528572 -0.9723562
-1.2166985 3.1677012 -0.93620962
-1.5666705 4.0788608 -0.96794987
-1.7598145 4.5817156 -0.81824386
-1.6940985 4.4106221 -0.52662963
-1.6149071 4.2044458 -0.25157174
-3.3858869 8.8152304 0
-4.9240537 12.819881 0.76707369
-1.0544608 2.7354321 -0.96665066
-1.2250361 3.1779308 -0.93966979
-1.5670291 4.0651131 -0.96513599
-1.7607335 4.5676117 -0.81610441
-1.6901252 4.3844428 -0.52374727
-1.6368076 4.246129 -0.25418398
-3.4133835 8.8548384 0
-4.9414115 12.818776 0.76736426
-1.0640085 2.750294 -0.9723562
-1.2297829 3.1787949 -0.94036394
-1.5756071 4.0726953 -0.9673875
-1.7708815 4.5774493 -0.81824386
-1.7075528 4.4137545 -0.52749479
-1.6006885 4.137527 -0.2477984
-3.4231422 8.8482819 0
-5.2231464 13.501009 0.80858165
-1.0753812 2.7697406 -0.97969013
-1.2354373 3.1819794 -0.94174695
-1.5860466 4.0850048 -0.97076589
-1.7764112 4.5753059 -0.81824386
-1.7119495 4.4092793 -0.52720678
-1.6226134 4.1791863 -0.25041062
-3.4262955 8.8247309 0
-5.2460403 13.511646 0.80959773
-1.065266 2.7338927 -0.96746486
-1.2602279 3.234242 -0.95766467
-1.584523 4.0665107 -0.96682519
-0 0 -0
-1.7135197 4.3975673 -0.52605361
-0 0 -0
-3.4369559 8.8205843 0
-5.2548151 13.485929 0.80843663
-1.1027719 2.82007 -0.99843198
-1.2349012 3.1579585 -0.93551815
-1.5829569 4.0480261 -0.96288443
-1.7809175 4.5542622 -0.81524765
-1.7160053 4.3882647 -0.52518845
-1.646904 4.211555 -0.25258785
-3.4400291 8.7970352 0
-5.263536 13.460209 0.80727553
-1.0836066 2.7612183 -0.97805864
-1.2671245 3.2288539 -0.95697314
-1.5943455 4.0626698 -0.96682519
-1.7892334 4.559278 -0.81653196
-1.7118595 4.3621159 -0.52230608
-0 0 -0
-3.4459033 8.7807617 0
-5.2750506 13.441748 0.80654997
-1.0879884 2.7674658 -0.98050427
-1.267241 3.2234225 -0.95559019
-1.6005182 4.0711646 -0.96907669
-1.7844738 4.5390835 -0.81310821
-1.7040839 4.3345995 -0.51913458
-0 0 -0
-3.4502563 8.7762585 0
-5.2698588 13.404697 0.80451775
-1.0740995 2.7224722 -0.96502227
-1.2508808 3.170552 -0.94036394
-1.6091664 4.0786819 -0.97132826
-1.7918395 4.5416956 -0.81396335
-1.7026746 4.3156934 -0.51711631
-0 0 -0
-3.4656329 8.7841845 0
-5.2660265 13.347563 0.80146992
-1.0919427 2.7579322 -0.97805864
-1.2473227 3.1503773 -0.93482661
-1.6084795 4.0625553 -0.96794987
-1.797326 4.5395269 -0.81396335
-1.714554 4.3304691 -0.51913458
-0 0 -0
-3.5011516 8.8428993 0
-5.263979 13.295293 0.79871273
-1.0943625 2.7543161 -0.97724444
-1.2511283 3.1488678 -0.93482661
-1.6115124 4.0558906 -0.96682519
-1.8009158 4.5325851 -0.81310821
-1.7388862 4.3764682 -0.52490044
-0 0 -0
-3.5224056 8.8652697 0
-5.2493367 13.211649 0.79406822
-1.106842 2.7759457 -0.98539251
-1.2651504 3.172981 -0.94243842
-1.6211165 4.0657392 -0.96963906
-1.808291 4.5351706 -0.81396335
-1.7776989 4.458446 -0.53498983
-0 0 -0
-5.6824741 14.251573 0
-4.0748854 10.21976 0.61454034
-1.1056055 2.763135 -0.98131847
-1.2643244 3.1598063 -0.93897825
-1.6307467 4.0755706 -0.97245294
-1.8166313 4.5401344 -0.81524765
-2.6362832 6.5886126 -0.79098022
-0 0 -0
-4.3085251 10.767889 0
-4.08916 10.219649 0.61483032
-1.0923679 2.7205162 -0.96665066
-1.2821645 3.1931999 -0.94936138
-1.6262041 4.0500226 -0.96682519
-1.8211603 4.5355563 -0.81482011
-2.6403873 6.5758214 -0.78982705
-0 0 -0
-4.3186231 10.755427 0
-4.0976324 10.205056 0.61424977
-1.1168973 2.7719152 -0.98539251
-1.2972696 3.219563 -0.95766467
-1.6301478 4.0457001 -0.96626282
-1.8228017 4.523828 -0.81310821
-1.7629155 4.3752027 -0.52576452
-0 0 -0
-0 0 0
-4.1012211 10.178409 0.61294365
-1.0998647 2.7201576 -0.96746486
-1.2955182 3.2040427 -0.95351303
-1.638845 4.0531497 -0.96851438
-1.8253788 4.5144806 -0.8118239
-1.7536602 4.3371081 -0.52144092
-1.6649421 4.1176929 -0.24808839
-4.3455801 10.747379 0
-4.1144896 10.175852 0.61308867
-1.0947882 2.6982164 -0.96013093
-1.273924 3.1397147 -0.93482661
-1.6341863 4.0276175 -0.96288443
-1.8192503 4.483727 -0.80668831
-1.7540382 4.3230047 -0.51999974
-0 0 -0
-4.3477993 10.715591 0
-4.1189666 10.15161 0.61192757
-1.1120291 2.731231 -0.9723562
-1.2881206 3.1637256 -0.94243842
-1.6553394 4.0656443 -0.97245294
-1.8140212 4.455379 -0.80198193
-1.7670631 4.3400464 -0.52230608
-0 0 -0
-4.169383 10.240334 0
-4.1312299 10.146626 0.61192757
-1.1153284 2.7298853 -0.9723562
-1.2919424 3.1621668 -0.94243842
-1.6621746 4.0683498 -0.97357982
-1.8077526 4.4246674 -0.79684627
-1.768393 4.3283305 -0.52115291
-0 0 -0
-4.1266365 10.100383 0
-4.1366105 10.124796 0.61091197
-1.1120623 2.7125254 -0.96665066
-1.2852968 3.1350763 -0.93482661
-1.6449199 4.0122633 -0.96063292
-1.8169926 4.4319806 -0.79855818
-1.7804868 4.342936 -0.52317017
-0 0 -0
-4.1329126 10.080936 0
-4.1448984 10.110173 0.61033142
-1.1332061 2.754611 -0.98213577
-1.3186696 3.2054379 -0.95628166
-1.6526676 4.0173244 -0.96232212
-1.8311354 4.4511461 -0.80240947
-1.7827839 4.3336124 -0.52230608
-0 0 -0
-4.1371694 10.056682 0
-4.1492033 10.085933 0.60917032
-1.1252167 2.7258244 -0.9723562
-1.3033965 3.1574631 -0.94243842
-1.6517054 4.0012374 -0.95894587
-1.8531631 4.4892664 -0.80968451
-1.7939385 4.3457952 -0.52403527
-0 0 -0
-4.1423697 10.034842 0
-4.161387 10.080913 0.60917032
-1.137966 2.7472932 -0.98050427
-1.3168131 3.1790681 -0.94936138
-1.6555637 3.9968843 -0.95838135
-1.8723375 4.5202227 -0.8156752
-1.7972105 4.33885 -0.52345926
-0 0 -0
-4.149509 10.017801 0
-4.1705809 10.068672 0.60873473
-1.1280062 2.713968 -0.96909636
-1.3119886 3.1566272 -0.94313258
-1.6525941 3.9761195 -0.95388043
-1.8876523 4.541666 -0.81995571
-1.8153559 4.367722 -0.52720678
-0 0 -0
-4.1546216 9.995965 0
-4.1707764 10.034832 0.60699308
-1.1255747 2.6989117 -0.96420497
-1.3206292 3.1666148 -0.94659275
-1.6573973 3.9741197 -0.95388043
-2.1243415 5.0937624 -0.92009431
-1.8345683 4.3989415 -0.53124231
-0 0 -0
-2.9806969 7.1471376 0
-4.1799006 10.022597 0.60655808
-1.1441008 2.73403 -0.97724444
-1.336076 3.1927884 -0.95489866
-1.6406171 3.920543 -0.9414959
-2.155268 5.1503916 -0.93079305
-1.8598514 4.4444418 -0.53700817
-0 0 -0
-2.9812934 7.1243248 0
-4.1869898 10.005548 0.60583198
-1.1263542 2.6825149 -0.95931673
-1.3088528 3.1171515 -0.93274951
-1.6384702 3.9021652 -0.93755734
-2.1505566 5.1217456 -0.926085
-1.8772364 4.4708085 -0.54046768
-0 0 -0
-2.9828458 7.1039181 0
-4.1990762 10.000481 0.60583198
-1.1382304 2.7016492 -0.96665066
-1.3243068 3.1433113 -0.94105542
-1.6204929 3.8463242 -0.92461044
-2.1597347 5.1262426 -0.9273693
-1.8766098 4.4542308 -0.53873736
-0 0 -0
-0 0 0
-4.2000623 9.9690666 0.60423583
-1.1491929 2.7184842 -0.9731704
-1.334939 3.1578774 -0.94589859
-1.6182166 3.8279874 -0.92067188
-2.1709239 5.1354494 -0.92950875
-1.8799782 4.4472003 -0.53816134
-0 0 -0
-3.0091236 7.1182604 0
-4.2060323 9.9496193 0.60336471
-1.1515127 2.7148204 -0.9723562
-1.3299379 3.135478 -0.93966979
-1.6059747 3.7862656 -0.91110337
-2.1791344 5.1375537 -0.9303655
-1.8883774 4.4520617 -0.53902537
-0 0 -0
-3.0095925 7.0954523 0
-4.2200828 9.9493189 0.60365528
-1.1550838 2.7186694 -0.97398454
-1.3534166 3.1854765 -0.95489866
-1.5973314 3.7595682 -0.9049111
-2.1822379 5.1362362 -0.9303655
-1.8971373 4.4652081 -0.54075569
-0 0 -0
-3.0098081 7.0840516 0
-4.2189794 9.9300241 0.6026392
-1.1583679 2.7172718 -0.97398454
-1.3405406 3.1446083 -0.94313258
-1.5889205 3.7272518 -0.89759415
-2.1844156 5.1241498 -0.92865366
-1.8964435 4.4486318 -0.53902537
-0 0 -0
-3.0010166 7.0397134 0
-4.2258806 9.9129696 0.60191363
-1.1538744 2.6976905 -0.96746486
-1.3384178 3.1291418 -0.93897825
-1.5834324 3.701972 -0.89196634
-2.1966608 5.1356635 -0.93122059
-1.9079224 4.4606104 -0.54075569
-0 0 -0
-3.0136144 7.0456533 0
-4.2347889 9.9006872 0.60147804
-1.1730967 2.7244034 -0.97805864
-1.3687968 3.1788981 -0.95489866
-1.585339 3.6817961 -0.88802564
-2.1968825 5.1020465 -0.926085
-1.9248319 4.4702358 -0.54248488
-0 0 -0
-3.0172532 7.007278 0
-4.2504816 9.8713312 0.60031694
-1.1675667 2.7025657 -0.9707247
-1.3427862 3.1081462 -0.93413246
-1.5867624 3.672878 -0.88633645
-2.2101731 5.1158867 -0.9290812
-1.934335 4.4774041 -0.54363805
-1.8367194 4.2514534 -0.25868344
-3.0246866 7.0012403 0
-4.2613764 9.8638048 0.60017192
-1.1541219 2.6626036 -0.95687109
-1.349535 3.1134293 -0.93620962
-1.5891801 3.6662998 -0.88521177
-2.2224767 5.1273398 -0.93164819
-1.9407713 4.4774342 -0.54392612
-0 0 -0
-3.0238299 6.9760923 0
-4.2619271 9.8324308 0.59857583
-1.1829647 2.7201331 -0.97805864
-1.3522964 3.1094978 -0.93551815
-1.5895556 3.6550567 -0.8829602
-2.2194576 5.103466 -0.9277969
-1.9534016 4.4916916 -0.54594439
-1.8459489 4.2446127 -0.25853789
-3.0322568 6.9724336 0
-4.2706947 9.8201227 0.59814024
-1.1862506 2.7187016 -0.97805864
-1.3680922 3.1354547 -0.94382405
-1.5919366 3.6484711 -0.88183337
-2.2256224 5.1007805 -0.9277969
-1.9815819 4.5414777 -0.55228627
-1.8708215 4.287632 -0.26129568
-3.0417192 6.9711475 0
-4.2773623 9.8030491 0.59741473
-1.1726856 2.6787779 -0.96420497
-1.3698657 3.1291983 -0.94243842
-1.6004198 3.6558554 -0.88408488
-2.2286987 5.0910397 -0.92651421
-1.9901807 4.5461903 -0.55315143
-1.8593282 4.2472825 -0.25897345
-3.0501404 6.9674673 0
-4.2839952 9.7859745 0.59668916
-1.1868556 2.7022536 -0.9731704
-1.3665867 3.1114686 -0.93759531
-1.6079023 3.6609004 -0.88577408
-2.2389779 5.0977445 -0.92822605
-2.0050325 4.565093 -0.55574578
-1.8644588 4.2450328 -0.25897345
-3.0533252 6.9518647 0
-4.2916369 9.7712746 0.59610862
-1.1781601 2.6736765 -0.96339083
-1.3612376 3.0891466 -0.93136382
-1.6072026 3.6473312 -0.8829602
-2.24617 5.0973821 -0.92865366
-2.0084631 4.5579381 -0.55516976
-0 0 -0
-3.0543759 6.9314976 0
-4.301343 9.761322 0.59581804
-1.1883864 2.688077 -0.96909636
-1.3609155 3.0783303 -0.92859787
-1.6105821 3.643065 -0.88239789
-2.2481756 5.0852728 -0.92694175
-1.9972358 4.5176582 -0.55055708
-0 0 -0
-3.0690649 6.9420877 0
-4.3078818 9.7442369 0.59509248
-1.1986455 2.7024479 -0.97479874
-1.3737878 3.0973213 -0.93482661
-1.6180706 3.6480775 -0.88408488
-2.2543185 5.0825524 -0.92694175
-1.9922041 4.4915934 -0.54767364
-0 0 -0
-3.0595138 6.897934 0
-4.319653 9.7390242 0.59509248
-1.1848286 2.6626117 -0.96094513
-1.3663088 3.0704439 -0.92721218
-1.6100813 3.6182625 -0.8773303
-2.2625434 5.0845113 -0.9277969
-1.9818598 4.4537435 -0.54335004
-0 0 -0
-3.0763109 6.9132538 0
-4.3229661 9.7148056 0.59393138
-1.2071898 2.7040615 -0.97643024
-1.3853596 3.1031556 -0.93759531
-1.6217037 3.6325581 -0.881271
-2.263454 5.0700555 -0.92565745
-1.9714228 4.415916 -0.53902537
-0 0 -0
-3.0740507 6.8857627 0
-4.3347015 9.7095747 0.59393138
-1.2094469 2.7003474 -0.97561604
-1.40141 3.1289458 -0.94589859
-1.6260918 3.6305959 -0.881271
-2.2727275 5.0743475 -0.92694175
-2.0116453 4.491426 -0.54853874
-0 0 -0
-3.0759878 6.8677969 0
-4.3379331 9.685359 0.59277022
-1.2096689 2.6921186 -0.9731704
-1.3815429 3.0746245 -0.92998081
-1.6304774 3.6286283 -0.881271
-2.2756999 5.0645709 -0.92565745
-2.028733 4.5149465 -0.55171025
-0 0 -0
-3.0949485 6.8878093 0
-4.3421769 9.663517 0.59175414
-1.2129209 2.690655 -0.9731704
-1.378039 3.0569408 -0.92513502
-1.6348608 3.6266556 -0.881271
-2.2849836 5.0688405 -0.92694175
-2.0384388 4.5219235 -0.55286342
-0 0 -0
-3.0947125 6.8650842 0
-4.3527832 9.6558962 0.59160912
-1.2212625 2.7004452 -0.97724444
-1.3879364 3.0689931 -0.92928934
-1.6381956 3.6223645 -0.88070869
-2.2900498 5.0637388 -0.92651421
-2.0343101 4.4982495 -0.55026907
-0 0 -0
-3.0965731 6.8471165 0
-4.362308 9.6458988 0.59131914
-1.2045388 2.6591861 -0.96257663
-1.402212 3.095577 -0.93759531
-1.6456249 3.6329446 -0.88352257
-2.2920463 5.0600095 -0.926085
-2.0509002 4.5276456 -0.55401659
-0 0 -0
-3.1039317 6.8523583 0
-4.3574114 9.6195879 0.58986747
-1.2179745 2.6802261 -0.9707247
-1.398685 3.0778904 -0.93274951
-1.6437081 3.6170785 -0.88014632
-2.2981586 5.0572362 -0.926085
-2.0574384 4.5275168 -0.5543046
-0 0 -0
-3.105747 6.8343825 0
-4.3658094 9.6072254 0.58943248
-1.2130101 2.6607609 -0.96420497
-1.4044824 3.080759 -0.93413246
-1.6459675 3.6104612 -0.8790195
-2.3032038 5.0521221 -0.92565745
-2.0596879 4.5179648 -0.55343944
-0 0 -0
-3.1096845 6.8211527 0
-4.3774147 9.601944 0.58943248
-1.2110853 2.648057 -0.96013093
-1.4207251 3.1064377 -0.94243842
-1.649273 3.6061614 -0.87845713
-2.311444 5.054009 -0.92651421
-2.0619171 4.5084143 -0.55257434
-0 0 -0
-3.1168427 6.8150258 0
-4.3782043 9.5730124 0.58798081
-1.2184068 2.6555777 -0.96339083
-1.4244776 3.1047187 -0.94243842
-1.651508 3.5995426 -0.8773303
-2.3207576 5.0582051 -0.9277969
-2.0630529 4.4965248 -0.55142224
-0 0 -0
-3.1294162 6.8207164 0
-4.3886857 9.5653553 0.58783579
-1.2278172 2.6675789 -0.96828216
-1.4114449 3.0665319 -0.93136382
-1.6579828 3.6021652 -0.87845713
-2.3236511 5.0484085 -0.92651421
-2.0771317 4.5128164 -0.55372751
-0 0 -0
-3.1343901 6.8098354 0
-4.3969798 9.5529623 0.5874002
-1.2300004 2.6638429 -0.96746486
-1.4151491 3.0648243 -0.93136382
-1.6591376 3.5932364 -0.87676793
-2.3254447 5.0362744 -0.92480236
-2.061985 4.4656935 -0.54825073
-0 0 -0
-3.1360722 6.7918711 0
-4.3998094 9.528779 0.5862397
-1.2290629 2.653384 -0.96420497
-1.4293978 3.0858805 -0.93828678
-1.6656162 3.5958447 -0.87789482
-2.3326063 5.0357881 -0.92522991
-2.0858593 4.5030942 -0.55315143
-0 0 -0
-3.1453695 6.7904363 0
-4.4102244 9.5210905 0.58609408
-1.2333126 2.654145 -0.96502227
-1.4299529 3.0773237 -0.93620962
-1.6688859 3.5915186 -0.8773303
-2.3419356 5.0399523 -0.92651421
-2.0836682 4.484149 -0.5511331
-0 0 -0
-3.1480896 6.7748322 0
-4.4173455 9.5063286 0.58551353
-1.229208 2.6369693 -0.95931673
-1.4209508 3.0483072 -0.92790371
-1.6850342 3.6148343 -0.88352257
-2.3491073 5.039443 -0.92694175
-2.0901809 4.4839792 -0.55142224
-0 0 -0
-3.1562734 6.7710233 0
-4.4288292 9.5009842 0.58551353
-1.2501906 2.6735415 -0.9731704
-1.4490761 3.0988595 -0.94382405
-1.6721799 3.5759687 -0.87451643
-2.3519316 5.0296226 -0.92565745
-2.1010745 4.4931626 -0.55286342
-0 0 -0
-3.1534307 6.7436342 0
-4.4315004 9.4767962 0.58435243
-1.2450229 2.6541278 -0.96665066
-1.4432313 3.0766668 -0.93759531
-1.6883705 3.599252 -0.88070869
-2.3601897 5.0314298 -0.92651421
-2.1108956 4.4999876 -0.55401659
-0 0 -0
-3.1659935 6.7492347 0
-4.4363289 9.457324 0.58348191
-1.2282372 2.6101367 -0.95116866
-1.4319913 3.0431364 -0.92790371
-1.6883909 3.5880132 -0.87845713
-2.3597074 5.0146332 -0.92394561
-2.1086216 4.4810491 -0.55199826
-0 0 -0
-3.1708252 6.7383466 0
-4.4455423 9.4472589 0.58319187
-1.247213 2.6421709 -0.96339083
-1.453872 3.0799699 -0.93966979
-1.6938086 3.5882659 -0.8790195
-2.3712428 5.0233831 -0.926085
-2.1272838 4.5065656 -0.55545777
-0 0 -0
-3.1878524 6.7533383 0
-4.4680443 9.465374 0.58464301
-1.2461735 2.6317267 -0.96013093
-1.4457853 3.0532758 -0.93205798
-1.6992295 3.588511 -0.87958181
-2.3806078 5.0274768 -0.9273693
-2.1349392 4.5086627 -0.55603379
-0 0 -0
-3.191555 6.7400727 0
-4.4783673 9.4576216 0.58449799
-1.2514756 2.6346884 -0.96176243
-1.4559299 3.065119 -0.93620962
-0 0 -0
-2.3800743 5.0106888 -0.92480236
-2.1348379 4.4944005 -0.55459261
-0 0 -0
-3.2063942 6.7503119 0
-4.4931331 9.4592381 0.58493298
-1.2578446 2.6398616 -0.96420497
-1.4563938 3.056561 -0.93413246
-1.7035246 3.5752189 -0.8773303
-2.3916471 5.0193939 -0.92694175
-2.1547291 4.5221701 -0.55834013
-2.0994091 4.4060688 -0.2726157
-3.2324598 6.7840233 0
-4.5112677 9.4678812 0.5858041
-1.2514417 2.6182723 -0.95687109
-1.4535969 3.0412223 -0.92998081
-1.7089423 3.5754569 -0.87789482
-2.388854 4.9979715 -0.923518
-2.157963 4.5149007 -0.55776411
-2.0856831 4.3636761 -0.27014849
-3.2395334 6.7777667 0
-4.5159793 9.4483528 0.58493298
-1.2588787 2.6256728 -0.96013093
-1.4496772 3.0236261 -0.92513502
-1.7110621 3.5688026 -0.87676793
-2.3948915 4.9950814 -0.923518
-2.1622956 4.5099506 -0.55747503
-2.1122997 4.405673 -0.27290627
-3.2567217 6.7926211 0
-4.5285192 9.4452391 0.58507854
-1.2609801 2.6219246 -0.95931673
-1.4631147 3.042218 -0.93136382
-1.718678 3.5736043 -0.87845713
-2.3786731 4.9459157 -0.91495866
-2.1666234 4.5050058 -0.55718696
-2.1142418 4.3960905 -0.27247071
-3.2660537 6.7910242 0
-4.5534387 9.4678516 0.58681965
-1.2609245 2.6137187 -0.95687109
-1.4689718 3.0449715 -0.93274951
-1.7207845 3.5669436 -0.8773303
-2.2006149 4.5615644 -0.84434777
-2.1821787 4.5233488 -0.55978131
-2.1172962 4.3888564 -0.27218071
-3.2787802 6.7964487 0
-4.5727797 9.4787273 0.58783579
-1.2737702 2.6322143 -0.96420497
-1.4649993 3.0273843 -0.92790371
-1.721776 3.5580068 -0.87564325
-2.170347 4.4849677 -0.8306545
-2.1797593 4.5044179 -0.55776411
-2.1237285 4.3886313 -0.27232572
-3.2869899 6.7924819 0
-0 0 0
-1.2618417 2.5995486 -0.95279706
-1.476326 3.0414126 -0.93274951
-1.7282909 3.5604911 -0.87676793
-2.1757648 4.4823418 -0.8306545
-2.1931036 4.5180621 -0.55978131
-2.1199522 4.3673615 -0.2711646
-3.283828 6.7650886 0
-0 0 0
-1.266655 2.6054564 -0.95524269
-1.4770674 3.0382659 -0.93205798
-1.7304417 3.5594463 -0.87676793
-2.1762254 4.4764047 -0.82979774
-2.193573 4.5120883 -0.55920529
-2.1600807 4.4431958 -0.27595407
-3.3129501 6.8146 0
-0 0 0
-1.2763001 2.617249 -0.96013093
-1.4774375 3.029712 -0.92998081
-1.7313991 3.5504992 -0.87507874
-2.1872575 4.4853067 -0.83193713
-2.1978908 4.507112 -0.55891728
-2.1381135 4.3845296 -0.27247071
-3.3280239 6.8246226 0
-0 0 0
-1.2946638 2.6467838 -0.9715389
-1.4855067 3.0369391 -0.93274951
-1.737923 3.5529737 -0.87620562
-2.2253852 4.5495315 -0.84434777
-2.2078812 4.5137467 -0.56007046
-2.1240013 4.3422642 -0.27000347
-3.3294086 6.8065743 0
-0 0 0
-1.2684692 2.5853133 -0.94953716
-1.4792305 3.0148735 -0.92652071
-1.7366198 3.5394678 -0.87339169
-2.4411891 4.9754763 -0.92394561
-2.2133336 4.5110755 -0.56007046
-2.1693032 4.4213352 -0.27508295
-3.3456519 6.8188944 0
-0 0 0
-1.303241 2.6480868 -0.9731704
-1.4817656 3.0108352 -0.92582917
-1.7465041 3.5487635 -0.87620562
-2.4369984 4.9517956 -0.92009431
-2.2142143 4.499115 -0.55891728
-2.1689079 4.4070563 -0.27435738
-3.3527405 6.8125143 0
-4.6711779 9.491478 0.59088355
-1.2659608 2.5645101 -0.94301742
-1.4920635 3.0225358 -0.92998081
-1.7429166 3.5306995 -0.87226486
-2.457751 4.9787698 -0.92565745
-2.2230804 4.5033875 -0.55978131
-2.1661789 4.3881202 -0.27334127
-3.3713367 6.8294587 0
-4.7401509 9.6023235 0.59814024
-1.2920889 2.6094904 -0.96013093
-1.4946024 3.0184846 -0.92928934
-1.7539486 3.5422578 -0.87564325
-2.4580705 4.9642959 -0.923518
-2.234262 4.5122943 -0.56122363
-2.1760917 4.394814 -0.27392182
-3.3818982 6.830049 0
-0 0 0
-1.3084339 2.6344907 -0.9699105
-1.4826232 2.9852154 -0.91959774
-1.7559648 3.5355802 -0.87451643
-2.4697754 4.9728155 -0.92565745
-2.2397127 4.5095916 -0.56122363
-2.1629114 4.3549547 -0.27160016
-3.406353 6.8585854 0
-0 0 0
-1.2873725 2.5842416 -0.95198286
-1.5097198 3.0305765 -0.93413246
-1.7579718 3.5289116 -0.87339169
-2.4734952 4.9652367 -0.92480236
-2.2463121 4.5091949 -0.56151164
-2.1867058 4.3895421 -0.27392182
-3.4076774 6.8404922 0
-0 0 0
-1.2960168 2.5937369 -0.95605689
-1.5066546 3.0152891 -0.92998081
-1.7656384 3.533597 -0.87507874
-2.485229 4.9737239 -0.92694175
-2.2459795 4.4949107 -0.56007046
-2.1815562 4.3659792 -0.2726157
-3.4101205 6.8247228 0
-0 0 0
-1.2969329 2.5877454 -0.95442539
-1.5125428 3.0179479 -0.93136382
-1.7664946 3.524653 -0.87339169
-2.4877853 4.9638305 -0.92565745
-2.2595181 4.5083733 -0.56208766
-2.2042949 4.3981876 -0.27479294
-3.4218638 6.8275795 0
-0 0 0
-1.3044991 2.5950096 -0.95768523
-1.4992899 2.9825022 -0.92098343
-1.7718923 3.5247838 -0.87395406
-2.4995451 4.9722862 -0.9277969
-2.2672896 4.5102663 -0.56266481
-2.2072713 4.3908734 -0.2745024
-3.4347866 6.8327408 0
-0 0 0
-1.302071 2.5823989 -0.9536112
-1.5017641 2.9784503 -0.9202919
-1.7704313 3.5112984 -0.87114018
-2.4997735 4.9578037 -0.92565745
-2.2727377 4.5075235 -0.56266481
-2.2184236 4.3998017 -0.27522793
-3.4348371 6.8123164 0
-0 0 0
-1.3230373 2.6161132 -0.96665066
-1.506493 2.9788702 -0.92098343
-1.7746727 3.5091565 -0.87114018
-2.5080817 4.9593658 -0.92651421
-2.2781825 4.5047736 -0.56266481
-2.2307765 4.4110351 -0.27609906
-3.4348478 6.7919111 0
-0 0 0
-1.322842 2.607898 -0.96420497
-1.5146309 2.9859972 -0.92375207
-1.788107 3.5251381 -0.87564325
-2.5210376 4.9700632 -0.9290812
-2.2859619 4.5066266 -0.56324083
-2.2278752 4.3921127 -0.27508295
-3.4677744 6.836494 0
-0 0 0
-1.3237528 2.601896 -0.96257663
-1.5250612 2.9975767 -0.92790371
-1.7842989 3.5071201 -0.87170249
-2.515403 4.9441381 -0.92480236
-2.2890623 4.4992552 -0.56266481
-2.2331808 4.3894176 -0.27508295
-3.4677706 6.8160596 0
-0 0 0
-1.3291404 2.6046934 -0.96420497
-1.5275428 2.9934993 -0.92721218
-1.7885352 3.5049615 -0.87170249
-2.5295393 4.9570947 -0.9277969
-2.3015485 4.5103049 -0.564394
-2.2266743 4.3635755 -0.27363184
-3.4760039 6.8118649 0
-0 0 0
-1.3176488 2.5744853 -0.9536112
-1.5231566 2.9760165 -0.92236638
-1.7916125 3.5005383 -0.87114018
-2.5273435 4.938045 -0.92480236
-2.3246739 4.5420594 -0.56871867
-2.2449644 4.3863192 -0.27522793
-3.4806738 6.8007073 0
-0 0 0
-1.3264012 2.5838833 -0.95768523
-1.5347725 2.9897993 -0.92721218
-1.7981594 3.5028875 -0.87226486
-2.5391688 4.946404 -0.92694175
-2.3396101 4.5576553 -0.57102501
-2.2490773 4.3812938 -0.27508295
-3.4948301 6.8080707 0
-0 0 0
-1.3261315 2.5756927 -0.95524269
-1.5246032 2.9611766 -0.91890627
-1.8023906 3.5007122 -0.87226486
-2.5369172 4.9273539 -0.92394561
-2.3510342 4.5663209 -0.57246619
-2.263885 4.3970547 -0.27624404
-3.5054386 6.808475 0
-0 0 0
-1.3485203 2.6114197 -0.96909636
-1.5350889 2.9727111 -0.92306054
-1.8031251 3.4917653 -0.87057781
-2.5475805 4.9334087 -0.92565745
-2.3482416 4.5473871 -0.57044786
-2.2644274 4.3850808 -0.2756635
-3.5244086 6.8250437 0
-0 0 0
-1.3342004 2.5798647 -0.95768523
-1.531119 2.9606347 -0.91959774
-1.8087325 3.4974396 -0.87226486
-2.5493824 4.9295907 -0.92522991
-2.3545539 4.5528622 -0.57131302
-2.2694659 4.3883328 -0.27595407
-3.5345075 6.8344693 0
-0 0 0
-1.3361797 2.5760589 -0.95687109
-1.5497153 2.98774 -0.92859787
-1.8152993 3.4997671 -0.87339169
-2.5506091 4.9173913 -0.923518
-2.3588636 4.54772 -0.57102501
-2.284338 4.4040403 -0.27711517
-4.8775916 9.4036474 0
-0 0 0
-1.3564026 2.6073344 -0.96909636
-1.5452183 2.970284 -0.92375207
-1.8242173 3.5065875 -0.87564325
-2.5541818 4.9097557 -0.92266291
-2.3607748 4.5379806 -0.57015985
-2.2836583 4.3897443 -0.27638906
-4.9141722 9.446229 0
-0 0 0
-1.344364 2.5690107 -0.95605689
-1.5523919 2.9665411 -0.92375207
-1.8256153 3.4886568 -0.87226486
-2.5648456 4.901288 -0.9222337
-2.3837245 4.5551748 -0.57304221
-2.3075137 4.4095402 -0.27798572
-4.9176793 9.3974323 0
-0 0 0
-1.3394259 2.5520627 -0.95035136
-1.5454835 2.9446726 -0.91752326
-1.8298293 3.4864485 -0.87226486
-2.579118 4.9140987 -0.92522991
-2.3940346 4.5614519 -0.57419538
-2.2995558 4.3814373 -0.27638906
-4.8830743 9.3039207 0
-0 0 0
-1.3425086 2.5504425 -0.95035136
-1.5502079 2.9450209 -0.91821474
-1.8293065 3.4752412 -0.8700133
-2.5838592 4.908709 -0.92480236
-2.4127982 4.5837345 -0.57736689
-2.3145308 4.3970504 -0.27755016
-4.9234061 9.3532839 0
-0 0 0
-1.3582833 2.5728633 -0.95931673
-1.5537652 2.9431458 -0.91821474
-1.8335043 3.4730282 -0.8700133
-2.5993762 4.9237447 -0.92822605
-2.4062574 4.5579381 -0.57448345
-2.3234828 4.4011464 -0.27798572
-4.9140501 9.3082056 0
-0 0 0
-1.3683281 2.584322 -0.96420497
-1.5596658 2.9456961 -0.91959774
-1.8412675 3.4775491 -0.87170249
-2.6053238 4.9206004 -0.92822605
-2.415395 4.5618873 -0.57534856
-2.3348773 4.4098158 -0.27871129
-4.9484282 9.3459539 0
-0 0 0
-1.3714497 2.5826669 -0.96420497
-1.563224 2.9438095 -0.91959774
-1.8383204 3.4618614 -0.86832631
-2.6088572 4.91291 -0.9273693
-2.4196935 4.5566831 -0.57506055
-2.3316722 4.3909245 -0.27769518
-4.9548349 9.3307743 0
-0 0 0
-1.3443645 2.5242925 -0.94301742
-1.5691407 2.9463513 -0.92098343
-0 0 -0
-2.6063435 4.8938913 -0.92437315
-2.4288461 4.560607 -0.57592571
-2.3467474 4.4064517 -0.27885628
-4.9624343 9.3178873 0
-5.4831843 10.295691 0.6515488
-1.3578925 2.5422852 -0.95035136
-1.5762466 2.9510939 -0.92306054
-1.8586496 3.4798169 -0.87395406
-2.6134679 4.8930092 -0.92480236
-2.4404466 4.5690742 -0.57736689
-2.3532977 4.4059114 -0.27900186
-4.9994369 9.3600883 0
-5.5139852 10.323441 0.65372604
-1.3738024 2.5646105 -0.95931673
-1.5809948 2.9513967 -0.92375207
-1.8580537 3.4686093 -0.87170249
-2.6072543 4.8672152 -0.92052186
-2.4606216 4.5934815 -0.5808264
-2.3622971 4.4099298 -0.27943686
-4.9861703 9.3081684 0
-5.5301323 10.323635 0.65416104
-1.3687111 2.5477054 -0.9536112
-1.5750614 2.9318039 -0.91821474
-1.8598408 3.4618893 -0.87057781
-2.6192114 4.8753743 -0.92266291
-2.4698389 4.5973339 -0.58169043
-2.3688574 4.4093676 -0.27958241
-2.4369226 4.5360637 0
-5.558588 10.346701 0.6560477
-1.3717885 2.5460498 -0.9536112
-1.5762252 2.9254856 -0.91683179
-1.8628137 3.4573963 -0.8700133
-2.6311874 4.8835034 -0.92480236
-2.4950213 4.6307783 -0.58630311
-2.3729475 4.4042082 -0.27943686
-2.4300599 4.5102091 0
-4.8242259 8.9537992 0.56809795
-1.3642904 2.5248222 -0.94627732
-1.5916829 2.9456463 -0.92375207
-1.8706149 3.4618514 -0.87170249
-2.6419678 4.8893547 -0.92651421
-2.5215166 4.6664419 -0.59120381
-2.3832083 4.4104819 -0.28001741
-2.4008663 4.4431605 0
-4.8412166 8.9593916 0.56882352
-1.3696976 2.5275223 -0.94790882
-1.5785091 2.9128451 -0.9140631
-1.8651116 3.4417167 -0.86719942
-2.6405327 4.8726125 -0.92394561
-2.5505688 4.7066007 -0.59668165
-2.3885357 4.407599 -0.28001741
-2.4211128 4.4677138 0
-4.849565 8.9489708 0.56853348
-1.3751087 2.5302045 -0.94953716
-1.6047854 2.9528105 -0.92721218
-1.876551 3.4528599 -0.87057781
-2.6500971 4.8761868 -0.92522991
-2.5525475 4.6966958 -0.59581649
-2.3951042 4.4069991 -0.28016296
-2.4215384 4.4556384 0
-2.5439324 4.6808438 0.2975719
-1.3935409 2.5567515 -0.96013093
-1.5903462 2.9178333 -0.91683179
-1.8795023 3.4483526 -0.8700133
-2.6547596 4.8707294 -0.92480236
-2.5347009 4.6504555 -0.59033865
-2.4041545 4.4109402 -0.28059795
-2.4306581 4.4595666 0
-2.54337 4.6663609 0.29684633
-1.3978134 2.5572324 -0.96094513
-1.5914618 2.9115026 -0.9154461
-1.88245 3.4438515 -0.86945099
-2.6618731 4.8697686 -0.92522991
-2.5725753 4.7064023 -0.59783483
-2.4182079 4.4239945 -0.28161409
-2.4372919 4.4589081 0
-2.537791 4.642766 0.29554021
-1.3937762 2.5425417 -0.95605689
-1.5937738 2.9073796 -0.91475463
-1.8853897 3.4393485 -0.86888862
-2.6591163 4.8507891 -0.9222337
-2.61431 4.7690535 -0.6061939
-2.4260473 4.425622 -0.28190407
-2.4489317 4.4673681 0
-2.5371549 4.6283059 0.29481468
-1.402446 2.5546947 -0.96094513
-1.6015652 2.9174101 -0.91821474
-1.8874671 3.4382088 -0.86888862
-2.6669879 4.8581829 -0.92394561
-2.6371057 4.80375 -0.61080658
-2.4324732 4.4309912 -0.28233963
-2.4190705 4.4065771 0
-2.5487001 4.6427102 0.29583022
-1.4007639 2.5443375 -0.95768523
-1.6026716 2.9110816 -0.91683179
-1.8928444 3.4381495 -0.86945099
-2.6728561 4.8549571 -0.92394561
-2.6429083 4.80056 -0.61080658
-2.442838 4.4371538 -0.28292018
-2.4369423 4.426445 0
-2.553056 4.6373529 0.29568523
-1.3954782 2.5275033 -0.95198286
-1.6183115 2.9311013 -0.92375207
-1.8945435 3.4314153 -0.86832631
-2.6762412 4.8472333 -0.92309046
-2.6399593 4.7815194 -0.60878938
-2.4406645 4.4205546 -0.28204963
-2.4485772 4.4348865 0
-2.5599122 4.6365376 0.29583022
-1.4033202 2.5344644 -0.95524269
-1.621852 2.9291437 -0.92375207
-1.8986883 3.4291236 -0.86832631
-2.6895547 4.8574667 -0.92565745
-2.6231806 4.7375917 -0.60359955
-2.4548113 4.4335084 -0.2830652
-2.450156 4.4251008 0
-2.5680325 4.6379914 0.29612076
-1.3943807 2.5111544 -0.94709152
-1.6095587 2.8986709 -0.91475463
-1.9040627 3.4290462 -0.86888862
-2.6891923 4.8429942 -0.923518
-2.6125813 4.7050242 -0.59985203
-2.4740434 4.4555302 -0.28466186
-2.4416025 4.3971066 0
-2.5698493 4.628068 0.29568523
-1.4130448 2.5375378 -0.95768523
-1.6228243 2.9142587 -0.9202919
-1.9119143 3.4334049 -0.87057781
-2.6962898 4.8419819 -0.92394561
-2.5956166 4.6611934 -0.59466332
-2.4832191 4.4593506 -0.28509742
-2.4469137 4.3941536 0
-2.5678568 4.6113424 0.29481468
-1.4124981 2.529361 -0.95524269
-1.6177809 2.896961 -0.9154461
-1.9111061 3.4222186 -0.86832631
-2.7033889 4.8409595 -0.92437315
-3.026211 5.4190373 -0.69181317
-2.487335 4.4540715 -0.28495187
-2.4547615 4.3957424 0
-6.1484804 11.010086 0.70437682
-1.4107226 2.5190265 -0.95198286
-1.6323116 2.9147019 -0.92167491
-1.9177206 3.4243364 -0.86945099
-2.7117472 4.8421731 -0.92522991
-3.0479224 5.4424572 -0.69527268
-2.4863679 4.4397292 -0.2842263
-2.4257357 4.3314629 0
-6.1655898 11.009453 0.70481235
-1.4113424 2.513006 -0.95035136
-1.6333776 2.9083569 -0.9202919
-1.9143939 3.4087284 -0.86607474
-2.7150795 4.8344121 -0.92437315
-3.0494301 5.4297495 -0.69411951
-2.5069995 4.4639091 -0.28596798
-2.4577284 4.3761783 0
-6.1928806 11.02691 0.70640844
-1.4289325 2.5371413 -0.96013093
-1.6295015 2.8932614 -0.91613764
-1.9210026 3.4108362 -0.86719942
-2.7360358 4.8579688 -0.92950875
-3.0597928 5.4328156 -0.69498354
-2.5289669 4.4903073 -0.28785467
-2.4527974 4.3550644 0
-6.2087526 11.023951 0.70669901
-1.4161969 2.5074379 -0.94953716
-1.6354661 2.8956635 -0.91752326
-1.9263709 3.410723 -0.86776179
-2.7343316 4.8412523 -0.92694175
-3.0587256 5.415606 -0.69325435
-2.5382254 4.4940376 -0.2882902
-2.4491026 4.3362417 0
-4.9148774 8.7020025 0.55822903
-1.4167918 2.5014279 -0.94790882
-1.6315429 2.8805833 -0.91336894
-1.9267375 3.4017665 -0.86607474
-2.7338548 4.8267789 -0.92480236
-3.0499706 5.3848996 -0.68979484
-2.5551779 4.5113144 -0.28959632
-2.4684451 4.3581824 0
-4.9343538 8.7118864 0.55924511
-1.4210328 2.5018611 -0.94872296
-1.6387407 2.8851562 -0.9154461
-1.9358662 3.4082735 -0.86832631
-2.7422183 4.8279319 -0.92565745
-3.6197872 6.3729739 -0.81692487
-2.5606272 4.5082235 -0.28959632
-2.454433 4.321259 0
-6.2807546 11.057856 0.71032739
