# .PCD v0.7 - Point Cloud Data file format
VERSION 0.7
FIELDS x y z
SIZE 4 4 4
TYPE F F F
COUNT 1 1 1
WIDTH 1532
HEIGHT 1
VIEWPOINT 0 0 0 1 0 0 0
POINTS 1532
DATA ascii
-4.1931896 3.9424372 -0.32147962
-6.4659176 6.0792561 0
-0 0 0
-1.6834489 1.5789509 -0.76103514
-1.9566358 1.8351802 -0.74011976
-2.3635612 2.216846 -0.71786684
-2.8078792 2.6335835 -0.64179468
-3.3757834 3.1662359 -0.51587337
-4.1979504 3.9373677 -0.32147962
-6.4770513 6.0749965 0
-0 0 0
-1.6853555 1.5769156 -0.76103514
-1.9826652 1.8550956 -0.7491172
-2.3569558 2.2053034 -0.71505076
-2.8035686 2.6231799 -0.64008445
-3.3852675 3.1674511 -0.5167374
-4.1970105 3.9269648 -0.32104406
-6.4596839 6.0440521 0
-2.8953698 2.7090745 0.22147699
-1.669188 1.55801 -0.75288391
-1.953729 1.823599 -0.73735112
-2.3689113 2.2111275 -0.71786684
-2.806736 2.6197906 -0.64008445
-3.3758621 3.1510093 -0.5147202
-4.2036576 3.9236686 -0.32118961
-6.472692 6.0415716 0
-2.9024439 2.7091236 0.22176754
-1.7054394 1.5879953 -0.76836902
-1.972454 1.8366219 -0.74357986
-2.3715813 2.2082636 -0.71786684
-2.8117764 2.618145 -0.64051205
-3.3815582 3.1486888 -0.51500821
-4.2045884 3.9150417 -0.32089907
-6.4761744 6.0301957 0
-2.8981082 2.6985316 0.22118698
-1.6956297 1.5731329 -0.76266348
-1.9537166 1.812575 -0.73527658
-2.3867526 2.2143271 -0.72124302
-2.8165171 2.6130443 -0.64051205
-3.375879 3.1319964 -0.51327795
-4.2040577 3.9003456 -0.32031849
-0 0 0
-2.9010916 2.691509 0.22104198
-1.6884613 1.5626904 -0.75858945
-1.9614238 1.8153203 -0.73735112
-2.3782411 2.2010896 -0.71786684
-2.8140185 2.6044066 -0.63922769
-3.383461 3.1314323 -0.51385504
-4.204957 3.8917363 -0.32002848
-0 0 0
-2.9005239 2.6844683 0.22075142
-1.6976122 1.5673556 -0.76184934
-1.9580913 1.8078483 -0.73527658
-2.3752966 2.1930418 -0.71617764
-2.8190477 2.6027441 -0.63965529
-3.3834379 3.1238291 -0.51327795
-4.2058344 3.8831239 -0.31973794
-0 0 0
-2.9018581 2.6792004 0.22060643
-1.7140487 1.5786988 -0.76836902
-1.9602742 1.805481 -0.73527658
-2.3779447 2.19017 -0.71617764
-2.8165314 2.5941236 -0.6383726
-3.3834085 3.1162374 -0.51270187
-4.2143497 3.8815632 -0.32002848
-2.9695616 2.73507 0
-2.8993576 2.6704094 0.22017087
-1.6922966 1.554889 -0.75777531
-1.9569105 1.7980173 -0.73319948
-2.3824587 2.1890128 -0.71673995
-2.8139911 2.5855064 -0.6370883
-3.3909771 3.1156435 -0.51327795
-4.2171178 3.8747051 -0.31988293
-2.9709496 2.7297206 0
-2.8968399 2.6616282 0.21973531
-1.7142112 1.5712086 -0.76673752
-1.9701747 1.805819 -0.73735112
-2.3776095 2.179265 -0.71448845
-2.8303618 2.5942478 -0.64008445
-3.3909295 3.108052 -0.51270187
-4.2294588 3.8766296 -0.32046351
-2.9704051 2.7226086 0
-2.8923917 2.651103 0.21915475
-1.683279 1.5391184 -0.75206971
-1.9630996 1.7949742 -0.73389095
-2.3746135 2.1712451 -0.71279925
-2.8221238 2.5804291 -0.63751584
-3.3870473 3.096971 -0.5115487
-4.2303081 3.8680127 -0.3201735
-2.9621725 2.7084837 0
-2.893677 2.6458545 0.21900976
-1.7198275 1.5687255 -0.76755172
-1.9782435 1.8044373 -0.73873675
-2.379118 2.1700914 -0.71336371
-2.8252397 2.5770173 -0.63751584
-3.3984306 3.0998485 -0.51270187
-4.2330608 3.8611491 -0.32002848
-2.963522 2.7031505 0
-2.9007151 2.6458619 0.21930031
-1.7144095 1.5599926 -0.76429188
-1.9767076 1.7986655 -0.73735112
-2.3798537 2.1655002 -0.71279925
-2.8283513 2.5736017 -0.63751584
-3.4002624 3.0940008 -0.51241386
-4.2357955 3.8542776 -0.31988293
-2.9590864 2.6925616 0
-2.8981426 2.6371069 0.21886475
-1.7126365 1.5546007 -0.76266348
-1.9825983 1.7996514 -0.73873675
-2.3937604 2.172873 -0.71617764
-2.8238559 2.5632808 -0.635804
-3.392504 3.0794561 -0.51068354
-4.2346835 3.8439221 -0.31944793
-2.971971 2.6977284 0
-2.9013269 2.6336031 0.21886475
-1.6925286 1.5326222 -0.75288391
-1.971752 1.7854652 -0.73389095
-2.390732 2.164861 -0.71448845
-2.8421738 2.5736516 -0.63922769
-3.3866379 3.0666757 -0.50924236
-4.2335448 3.8335686 -0.31901237
-2.9655848 2.6854026 0
-2.8910222 2.6178849 0.21784863
-1.7017156 1.5372031 -0.75614381
-1.9813547 1.7898083 -0.73665959
-2.3895786 2.1585674 -0.71336371
-2.8319452 2.5581682 -0.63623154
-3.3865058 3.0591171 -0.50866634
-4.2381735 3.8284504 -0.31901237
-2.9688272 2.6818175 0
-2.9076829 2.6265841 0.21886475
-1.7476381 1.5748554 -0.77570295
-1.977923 1.782373 -0.73458242
-2.3921852 2.1556785 -0.71336371
-2.8235958 2.5444369 -0.63366455
-3.3901999 3.055023 -0.50866634
-4.2447248 3.8250644 -0.31915739
-2.9739971 2.6799688 0
-2.9069974 2.6195931 0.21857475
-1.6944004 1.5231754 -0.75125557
-1.9800752 1.7799817 -0.73458242
-2.3891175 2.1476886 -0.71167451
-2.8285754 2.542738 -0.63409209
-3.397732 3.0543795 -0.50924236
-4.2532125 3.8234103 -0.31944793
-2.9714251 2.6711521 0
-2.9101605 2.6160786 0.21857475
-1.687041 1.5128778 -0.74718153
-1.9896955 1.7842876 -0.73735112
-2.3917108 2.1448004 -0.71167451
-2.8259103 2.5341752 -0.63280779
-3.3994966 3.0485466 -0.50895435
-4.2616944 3.8217347 -0.31973794
-2.9727147 2.6658239 0
-2.9075141 2.6073544 0.21813919
-1.7404389 1.5569731 -0.76999742
-1.978767 1.7701782 -0.73250794
-2.3905168 2.1385241 -0.71054983
-2.838542 2.5393214 -0.63494885
-3.4070292 3.0478823 -0.50953043
-4.2604976 3.8113832 -0.31930238
-2.9720581 2.6587629 0
-2.9087276 2.6021085 0.2179942
-1.6980613 1.5153729 -0.75043821
-1.9809045 1.7677859 -0.73250794
-2.3911977 2.1339371 -0.70998532
-2.8358605 2.5307603 -0.63366455
-3.4165008 3.0489316 -0.51039553
-4.2631626 3.8045042 -0.31915739
-2.9752686 2.65517 0
-2.9021707 2.5899363 0.21726808
-1.7017424 1.5149682 -0.75125557
-1.9774158 1.760385 -0.73043078
-2.3899825 2.1276705 -0.70886064
-2.8331625 2.5222094 -0.63238025
-3.4201822 3.044801 -0.51039553
-4.2638788 3.7958977 -0.31886739
-2.9745831 2.6481087 0
-2.9111221 2.5916126 0.21770364
-1.7146565 1.5227549 -0.75614381
-2.0133028 1.7879772 -0.74288839
-2.3925517 2.1247811 -0.70886064
-2.8400505 2.5221968 -0.633237
-3.4180551 3.0355122 -0.50953043
-4.2645726 3.7872889 -0.31857681
-2.9777808 2.6445124 0
-2.9123104 2.5863695 0.21755864
-1.7127987 1.5174072 -0.75451541
-1.9966869 1.7689103 -0.73596811
-2.3913097 2.1185157 -0.70773381
-2.8411691 2.517056 -0.63280779
-3.4255962 3.0348134 -0.51010752
-4.2672029 3.7804117 -0.31843182
-2.9770818 2.6374643 0
-2.9173765 2.5845702 0.21770364
-1.7026055 1.5065418 -0.74962407
-1.9958782 1.7660427 -0.73527658
-2.3792744 2.105289 -0.70379525
-2.8407686 2.5136397 -0.63238025
-3.425494 3.0310309 -0.50981951
-4.27143 3.7795532 -0.31857681
-2.9747727 2.6322126 0
-2.9130976 2.5776396 0.21726808
-1.7322212 1.5290194 -0.76184934
-1.9980106 1.7636298 -0.73527658
-2.3780029 2.0990462 -0.70266837
-2.8341827 2.501713 -0.6302408
-3.4213974 3.0200431 -0.50866634
-4.2682014 3.7675111 -0.31799626
-2.987705 2.6372259 0
-2.9181638 2.5758424 0.21741363
-1.7155143 1.5105883 -0.75369811
-2.0114338 1.7711588 -0.73942822
-2.3347776 2.0558777 -0.6891613
-2.833354 2.4948969 -0.62938571
-3.4269834 3.0176146 -0.50895435
-4.2747064 3.7640731 -0.31814182
-2.9830766 2.6267343 0
-2.9154217 2.5671613 0.21697807
-1.7099105 1.5019897 -0.75043821
-2.0041499 1.7604504 -0.73596811
-2.3334384 2.0496981 -0.68803447
-2.8498616 2.5033257 -0.63238025
-3.4247954 3.0083489 -0.50808918
-4.2831521 3.7623317 -0.31843182
-2.9842949 2.621412 0
-2.9165711 2.5619235 0.21683307
-1.7191597 1.5064381 -0.75369811
-1.9987282 1.7514139 -0.73319948
-2.3225343 2.0351536 -0.68409371
-2.8490264 2.4965 -0.6315251
-3.4420469 3.0161424 -0.51010752
-4.2818303 3.7520144 -0.31799626
-2.9796307 2.6109436 0
-2.9118474 2.5515475 0.21625252
-1.7154015 1.4994845 -0.75125557
-2.0310645 1.7754152 -0.74427402
-2.307776 2.017297 -0.67902827
-2.846241 2.4879856 -0.6302408
-3.4320555 3.0000639 -0.50808918
-4.2804971 3.7417126 -0.31756127
-2.9808257 2.6056302 0
-2.9071028 2.5411868 0.21567196
-1.7060314 1.4876611 -0.74636418
-2.0048437 1.7482258 -0.73389095
-2.3102119 2.0145071 -0.67902827
-2.8511779 2.4862301 -0.63066834
-3.4395804 2.9993176 -0.50866634
-4.2928491 3.7433686 -0.31814182
-2.9820123 2.6003177 0
-2.9140842 2.5410845 0.21596196
-1.7264793 1.5018233 -0.75451541
-2.0107441 1.7490984 -0.73527658
-2.310729 2.0100482 -0.67846596
-2.8522451 2.4811001 -0.6302408
-3.4412448 2.9934571 -0.50837725
-4.2875609 3.7296469 -0.31741571
-2.9851522 2.5967128 0
-2.9151938 2.5358577 0.21581696
-1.7320226 1.5029727 -0.75614381
-2.0185351 1.7515955 -0.73735112
-2.3073971 2.0022571 -0.67677677
-2.8552408 2.4776518 -0.6302408
-3.4487703 2.9926903 -0.50895435
-4.2979536 3.7295742 -0.31785128
-3.0059762 2.6084533 0
-2.9202166 2.5340347 0.21596196
-1.7244956 1.4927921 -0.75206971
-2.0149651 1.7442341 -0.73527658
-2.3155799 2.0044582 -0.67846596
-2.8562934 2.4725215 -0.62981325
-3.4484689 2.9851322 -0.50837725
-4.2926359 3.7158768 -0.31712571
-2.9874794 2.5860813 0
-2.9173882 2.5254073 0.21552695
-1.7562288 1.5165534 -0.76510918
-2.0132699 1.7385156 -0.73389095
-2.3122289 1.9966753 -0.67677677
-2.857338 2.4673922 -0.62938571
-3.4481618 2.9775856 -0.50780118
-4.2951579 3.7089906 -0.31698072
-2.9827232 2.575666 0
-2.9184651 2.5201774 0.2153814
-1.7374594 1.4966844 -0.75614381
-2.0229721 1.7426312 -0.73665959
-2.3146398 1.9938799 -0.67677677
-2.8564236 2.4605839 -0.62852895
-3.4556727 2.9767897 -0.50837725
-4.3035698 3.7071865 -0.3172707
-2.9917505 2.5771573 0
-2.9175744 2.5132606 0.21509141
-1.7317684 1.4881406 -0.75288391
-2.0479095 1.7598064 -0.74496555
-2.3035631 1.9794943 -0.67283821
-2.8555045 2.4537878 -0.6276738
-3.4690812 2.9810455 -0.50981951
-4.3001633 3.6952097 -0.31669015
-3.0067015 2.5837142 0
-2.924547 2.5131171 0.2153814
-1.7410712 1.4924812 -0.75614381
-2.002418 1.7165129 -0.72766215
-2.2963021 1.9684364 -0.67002213
-2.8545656 2.446991 -0.62681705
-3.4726806 2.9768517 -0.50981951
-4.304625 3.690011 -0.31669015
-2.9959958 2.5682278 0
-2.9157481 2.499438 0.21451084
-1.7409967 1.4887717 -0.75532961
-2.057878 1.7597452 -0.74704272
-2.3141279 1.9788711 -0.6745252
-2.8594694 2.4452069 -0.62724465
-3.4762752 2.9726534 -0.50981951
-4.3090806 3.6848071 -0.31669015
-2.9852493 2.5527644 0
-2.9187663 2.495913 0.21451084
-1.718351 1.4658159 -0.74473584
-2.0237365 1.7263207 -0.73389095
-2.3145859 1.974426 -0.67396289
-2.8624218 2.4417498 -0.62724465
-3.4798644 2.968451 -0.50981951
-4.3095798 3.6762283 -0.31640014
-2.9843755 2.5457809 0
-2.9158473 2.4873238 0.21407528
-1.7351795 1.4765527 -0.75125557
-2.025821 1.7238742 -0.73389095
-2.3208439 1.9749243 -0.67508972
-2.8692839 2.4416199 -0.62810141
-3.4854167 2.9659185 -0.51010752
-4.3179727 3.6743829 -0.31669015
-2.9973576 2.5506043 0
-2.9247892 2.4888523 0.21451084
-1.7181162 1.458457 -0.74310434
-2.0470319 1.7376637 -0.74081391
-2.3251638 1.9737614 -0.67565209
-2.8624487 2.4298463 -0.62596196
-3.4870279 2.9600327 -0.50981951
-4.3224092 3.669163 -0.31669015
-2.998455 2.5452981 0
-2.9297736 2.4869964 0.21465585
-1.7368511 1.4707533 -0.75043821
-2.0146644 1.7060037 -0.72835368
-2.3023407 1.9496061 -0.66833514
-2.869297 2.4297006 -0.62681705
-3.4886224 2.9541409 -0.50953043
-4.3189077 3.6572206 -0.3161096
-2.9955683 2.5366261 0
-2.9307954 2.481777 0.21451084
-1.7707232 1.495766 -0.76429188
-2.0167243 1.7035681 -0.72835368
-2.3105125 1.9517369 -0.67002213
-2.8683124 2.4229219 -0.62596196
-3.4842858 2.9432473 -0.50837725
-4.3213406 3.6503243 -0.31596458
-2.9847124 2.5212474 0
-2.9198949 2.4664948 0.21349473
-1.7460722 1.4713312 -0.75288391
-2.0360456 1.715678 -0.73458242
-2.3148177 1.9505857 -0.67058665
-2.8653469 2.4144902 -0.62467766
-3.4819117 2.9340398 -0.50751317
-4.325748 3.6451001 -0.31596458
-3.0036778 2.531055 0
-2.9288361 2.4679894 0.21393029
-1.7383907 1.4612701 -0.74880987
-2.0361986 1.7116038 -0.73389095
-2.3249531 1.9543271 -0.67283821
-2.8721886 2.4143267 -0.62553275
-3.4814906 2.9264987 -0.50693601
-4.3241801 3.6348531 -0.31552905
-3.0007555 2.5223985 0
-2.9338031 2.4661193 0.21407528
-1.7401551 1.4591684 -0.74880987
-2.0286553 1.7010839 -0.73043078
-2.333148 1.9564096 -0.6745252
-2.8731384 2.4092066 -0.6251052
-3.4770966 2.9156423 -0.50578284
-4.3285689 3.6296256 -0.31552905
-3.0197546 2.5321484 0
-2.9268274 2.4542263 0.21334973
-1.7893105 1.496708 -0.76918322
-2.0422513 1.7082862 -0.73458242
-2.3277144 1.947068 -0.6722737
-2.8819563 2.410676 -0.6263895
-3.4766529 2.9081228 -0.50520682
-4.3329515 3.6243925 -0.31552905
-3.0088444 2.516814 0
-2.9357719 2.4556911 0.21378529
-1.7522789 1.4639338 -0.75288391
-2.0201871 1.6877565 -0.72627914
-2.3308458 1.9472951 -0.67283821
-2.8755322 2.4023509 -0.62467766
-3.4823754 2.9093354 -0.50578284
-4.3351402 3.6217742 -0.31552905
-3.006366 2.5116553 0
-2.9193099 2.4389248 0.21247917
-1.7369603 1.4475758 -0.74555004
-2.0434189 1.7029773 -0.73389095
-2.3468549 1.9558597 -0.67677677
-2.8685746 2.3906589 -0.62253821
-3.4680076 2.890224 -0.50318849
-4.3395133 3.6165333 -0.31552905
-2.9994044 2.4996917 0
-2.9262431 2.4387195 0.21276917
-1.7425129 1.4486392 -0.74718153
-2.0647705 1.7165482 -0.74081391
-2.3453124 1.9497769 -0.67565209
-2.8714612 2.3871911 -0.62253821
-3.4615548 2.8777654 -0.50174731
-4.3358874 3.6046426 -0.31494847
-3.0244381 2.5143685 0
-2.9371803 2.4418266 0.21334973
-1.7119141 1.4197061 -0.73332477
-2.0243552 1.6788163 -0.72558498
-2.3515747 1.9501826 -0.67677677
-2.8802733 2.3886373 -0.62382251
-3.4630404 2.8719313 -0.5014593
-4.34024 3.599401 -0.31494847
-2.9974234 2.485791 0
-2.9281316 2.4283266 0.21247917
-1.7079206 1.4129148 -0.73088223
-2.0437777 1.6907599 -0.73181379
-2.3500175 1.9441035 -0.67565209
-2.8811738 2.3835144 -0.62339336
-3.4625182 2.8644443 -0.50088215
-4.3405852 3.5908446 -0.31465846
-3.0004249 2.4821672 0
-2.9390721 2.431412 0.21305972
-1.7553706 1.4485998 -0.75043821
-2.0187333 1.6659368 -0.72212487
-2.3327634 1.9250869 -0.67002213
-2.8840518 2.3800313 -0.62339336
-3.4599979 2.8553243 -0.50001812
-4.3469234 3.5872495 -0.31480348
-2.9953928 2.4719141 0
-2.9299791 2.4179323 0.21218862
-1.7609397 1.4496224 -0.75206971
-2.0517352 1.689008 -0.73319948
-2.3429348 1.9287263 -0.6722737
-2.8869255 2.3765447 -0.62339336
-3.4574528 2.8462083 -0.49915299
-4.3452344 3.5770385 -0.31436792
-3.0003848 2.4699454 0
-2.9349029 2.4160402 0.21233362
-1.7340366 1.4239639 -0.7398445
-2.0382638 1.6737906 -0.72766215
-2.3334854 1.9162219 -0.66889745
-2.8858311 2.3697996 -0.62253821
-3.452894 2.8354628 -0.49799982
-4.3495531 3.5717854 -0.31436792
-3.005384 2.4679747 0
-2.9458525 2.4190884 0.21291417
-1.7529694 1.4359683 -0.74718153
-2.0402849 1.6713265 -0.72766215
-2.34956 1.9246736 -0.67283821
-2.8827329 2.3614292 -0.62125391
-3.4643209 2.8378446 -0.49915299
-4.3538661 3.5665274 -0.31436792
-3.0023222 2.4593923 0
-2.944757 2.4122369 0.21262418
-1.7585273 1.4369739 -0.74880987
-2.0345321 1.6625103 -0.72489351
-2.3440139 1.9154021 -0.67058665
-2.8915496 2.3628187 -0.62253821
-3.4597361 2.8271103 -0.49799982
-4.3601899 3.5629129 -0.31451347
-3.0133526 2.4623497 0
-2.9456594 2.4070344 0.21247917
-1.7717533 1.4442147 -0.75369811
-2.0501535 1.6711478 -0.72973931
-2.3502617 1.915776 -0.67171133
-2.8924146 2.3577027 -0.62211066
-3.4631495 2.8229277 -0.49799982
-4.3564358 3.5510747 -0.31393293
-3.0143106 2.4570642 0
-2.9364772 2.3936198 0.21160805
-1.75624 1.4280407 -0.74636418
-2.0424407 1.6607572 -0.72627914
-2.3604605 1.9193469 -0.67396289
-2.8972511 2.355824 -0.62253821
-3.4625406 2.8154745 -0.49742267
-4.360723 3.5458083 -0.31393293
-3.0112176 2.448493 0
-2.9474316 2.3966272 0.21218862
-1.7637247 1.43059 -0.74880987
-2.0541859 1.6661886 -0.72973931
-2.3608065 1.9148942 -0.67340052
-2.8981037 2.3507061 -0.62211066
-3.4599195 2.8064053 -0.49655864
-4.3690367 3.5438073 -0.31422293
-2.9879003 2.4235415 0
-2.938221 2.3832457 0.21131806
-1.7500806 1.4160206 -0.74229014
-2.0347424 1.6463454 -0.72212487
-2.3552175 1.9056473 -0.67114902
-2.8929594 2.3407438 -0.62039882
-3.4592826 2.7989657 -0.49598148
-4.3753338 3.5401583 -0.31436792
-3.0312901 2.4526694 0
-2.9350364 2.374789 0.2108825
-1.7767913 1.4340838 -0.75288391
-2.0523479 1.656491 -0.72766215
-2.3496094 1.8964167 -0.66889745
-2.9117663 2.3501449 -0.62382251
-3.4526005 2.7866628 -0.4945403
-4.3674798 3.5250802 -0.31349736
-3.0504448 2.462075 0
-2.9480119 2.3793993 0.21160805
-1.7650522 1.4210902 -0.74718153
-2.0934305 1.6854762 -0.74150538
-2.3538764 1.8951682 -0.66945982
-2.9066057 2.3401852 -0.62211066
-3.443881 2.7727599 -0.49281108
-4.3636403 3.5132821 -0.31291682
-3.0149078 2.4273822 0
-2.9508846 2.3758354 0.21160805
-1.7590598 1.4127657 -0.74392164
-2.0974195 1.684515 -0.74219692
-2.3561645 1.8923225 -0.66945982
-2.907424 2.3350594 -0.62168145
-3.4472289 2.7685964 -0.49281108
-4.3759856 3.5145154 -0.31349736
-3.0178387 2.4237375 0
-2.9537532 2.372268 0.21160805
-1.8051251 1.446178 -0.76266348
-2.0583391 1.6490406 -0.72766215
-2.3564682 1.8878871 -0.66889745
-2.8982267 2.3219175 -0.61911446
-3.4546049 2.7676604 -0.49338713
-4.3761773 3.5059791 -0.31320736
-3.0045166 2.4070716 0
-2.9464798 2.3605754 0.2108825
-1.7373631 1.3884469 -0.73332477
-2.0740507 1.6575173 -0.73250794
-2.3627136 1.8882079 -0.67002213
-2.8990266 2.3168128 -0.61868691
-3.4417825 2.7505662 -0.49108079
-4.3743186 3.4958205 -0.3127718
-3.0297883 2.4213133 0
-2.9473021 2.3553929 0.2107375
-1.8161609 1.4442415 -0.76510918
-2.0603797 1.6384485 -0.72627914
-2.3672698 1.8824927 -0.67002213
-2.9146614 2.3177874 -0.62082636
-3.4443746 2.7390242 -0.49050477
-4.3847861 3.486855 -0.31291682
-3.0152574 2.397783 0
-2.9489141 2.3450258 0.21044694
-1.7830464 1.4143949 -0.75043821
-2.0662851 1.6390729 -0.72766215
-2.3595915 1.871737 -0.66720825
-2.9134336 2.3110702 -0.61996961
-3.443625 2.7316425 -0.48992762
-4.3889961 3.4815545 -0.31291682
-3.0303898 2.4038453 0
-2.9517455 2.3414609 0.21044694
-1.8002598 1.4245087 -0.75695795
-2.0584292 1.6287929 -0.72420204
-2.3738105 1.8783475 -0.67058665
-2.9101906 2.3027742 -0.61868691
-3.4509835 2.7306926 -0.49050477
-4.3870845 3.47141 -0.31248125
-3.0169652 2.3872626 0
-2.950501 2.334671 0.21015693
-1.7681565 1.3973697 -0.74310434
-2.0653198 1.632217 -0.72627914
-2.3629799 1.8674573 -0.66720825
-2.8813686 2.2771385 -0.61226702
-3.4566872 2.7318115 -0.49108079
-4.3871441 3.4671493 -0.31233624
-3.0469887 2.4080276 0
-2.9457932 2.328053 0.20972139
-1.7640263 1.3906462 -0.7406618
-2.0850201 1.6436973 -0.73250794
-2.3632412 1.8630291 -0.66664594
-2.8397708 2.2386947 -0.60285252
-3.4518609 2.7212276 -0.48992762
-4.3852067 3.4570181 -0.31190068
-3.01107 2.3737361 0
-2.9588051 2.3325338 0.21044694
-1.7987318 1.414485 -0.75451541
-2.0712283 1.6287705 -0.72697067
-2.3774707 1.8695931 -0.67002213
-2.8162432 2.2146347 -0.59728938
-3.4490528 2.7122629 -0.48906356
-4.3873401 3.4501123 -0.31175569
-3.0262065 2.3797455 0
-2.95754 2.3257475 0.21015693
-1.7809891 1.397053 -0.74636418
-2.0712228 1.6247197 -0.72627914
-2.3777306 1.8651524 -0.66945982
-2.7866001 2.1858799 -0.59044188
-3.4482534 2.7048976 -0.48848644
-4.3853703 3.4399958 -0.31132013
-3.020889 2.369662 0
-2.9685261 2.3285873 0.2107375
-1.7515314 1.3705302 -0.73332477
-2.0771322 1.6253049 -0.72766215
-2.3839886 1.8654126 -0.67058665
-2.7649789 2.163528 -0.58530629
-3.4515193 2.7007291 -0.48848644
-4.4038506 3.4459047 -0.31233624
-3.0319486 2.3724253 0
-2.9631519 2.3185935 0.21015693
-1.7531861 1.3684129 -0.73332477
-2.0810704 1.6243361 -0.72835368
-2.3782289 1.8562771 -0.66833514
-2.7817583 2.1712437 -0.58830249
-3.4547801 2.6965566 -0.48848644
-4.4018641 3.4357831 -0.31190068
-3.0348129 2.3687601 0
-2.9536572 2.3054156 0.20928583
-1.7645949 1.3738899 -0.7374019
-2.0731359 1.6141157 -0.72489351
-2.3924956 1.862765 -0.67171133
-2.75805 2.1473806 -0.58273929
-3.4580357 2.6923802 -0.48848644
-4.3998671 3.4256775 -0.31146568
-3.0315106 2.3602934 0
-2.9502957 2.2970607 0.20885083
-1.7877204 1.3884288 -0.74636418
-2.0909357 1.6239202 -0.73043078
-2.398762 1.8629928 -0.67283821
-2.7768621 2.1566434 -0.58616304
-3.4572048 2.68503 -0.48791039
-4.4040031 3.4203587 -0.31146568
-3.0220318 2.3470538 0
-2.9571695 2.2966788 0.20914082
-1.8245702 1.413517 -0.76103514
-2.0690975 1.6029552 -0.72212487
-2.3789144 1.8429742 -0.66664594
-2.773376 2.1485684 -0.58487874
-3.4686255 2.6871867 -0.48906356
-4.4040208 3.411849 -0.31117514
-3.0536642 2.3657112 0
-2.9578903 2.2915142 0.20899582
-1.7832477 1.3780593 -0.74310434
-2.0869136 1.6127263 -0.72766215
-2.3972235 1.8525279 -0.67114902
-2.7739408 2.1436477 -0.5844512
-3.4595864 2.6735013 -0.48733327
-4.4184184 3.4144681 -0.31190068
-3.0276947 2.3397439 0
-2.9668272 2.2927065 0.20943138
-1.8064462 1.3925035 -0.75206971
-2.0868757 1.6086733 -0.72697067
-2.4034812 1.8527296 -0.6722737
-2.7866926 2.148129 -0.58659059
-3.4607677 2.6677415 -0.48704526
-4.4122529 3.4011962 -0.31117514
-3.0181487 2.3265474 0
-2.9634194 2.2843592 0.20899582
-1.7885377 1.3752568 -0.74392164
-2.0967731 1.6122676 -0.72973931
-2.397661 1.8436286 -0.67002213
-2.783179 2.1400645 -0.58530629
-3.4516823 2.6540952 -0.48531494
-4.4081197 3.3895266 -0.31059456
-3.0622196 2.3546264 0
-2.976475 2.2886949 0.20972139
-1.7666643 1.355044 -0.73414207
-2.1285737 1.6326311 -0.74011976
-2.3978727 1.8391854 -0.66945982
-2.7959456 2.14451 -0.58744574
-3.4589953 2.6530738 -0.48589209
-4.4142799 3.3857839 -0.31074014
-3.0299592 2.3240001 0
-2.9606838 2.2708654 0.20841527
-1.8075522 1.3829396 -0.75043821
-2.0907025 1.599575 -0.72627914
-2.3940451 1.8316592 -0.66777277
-2.7801876 2.1270928 -0.58359444
-3.4601462 2.6473222 -0.48560408
-3.0027254 2.2973545 -0.2111792
-3.0369029 2.3235033 0
-2.981997 2.2814953 0.20972139
-1.8033333 1.3762604 -0.74799567
-2.0766792 1.5848715 -0.72074187
-2.3962564 1.8287652 -0.66777277
-2.7807169 2.1221762 -0.5831669
-3.4695048 2.6478424 -0.48646811
-3.0054991 2.2937245 -0.2111792
-3.041775 2.3214095 0
-2.9702904 2.2668538 0.20870526
-1.7931914 1.3650949 -0.74310434
-2.0845754 1.5869155 -0.72281635
-2.402504 1.8289436 -0.66889745
-2.7832792 2.1188147 -0.5831669
-3.4665337 2.6389527 -0.48560408
-3.018604 2.2979593 -0.21190475
-3.0217977 2.3003905 0
-2.9688962 2.2601185 0.20841527
-1.7810664 1.3524684 -0.7374019
-2.1064754 1.5995705 -0.72973931
-2.4148283 1.833721 -0.67171133
-2.7981 2.1247618 -0.58573383
-3.4491169 2.619117 -0.48272058
-3.0110335 2.2864547 -0.2111792
-3.0328655 2.3030331 0
-2.9674821 2.2533836 0.20812471
-1.7767868 1.3458369 -0.73495626
-2.1104045 1.5985374 -0.73043078
-2.4109638 1.8261977 -0.67002213
-2.7863472 2.1105337 -0.58273929
-3.3100257 2.5071971 -0.4628298
-0 0 -0
-3.0501699 2.3103681 0
-2.9743493 2.2529371 0.20841527
-1.8060161 1.3645457 -0.74636418
-2.1343546 1.6126237 -0.73804528
-2.4131687 1.8232832 -0.67002213
-2.7929876 2.1102576 -0.58359444
-3.0303478 2.2895966 -0.42333624
-3.0165501 2.2791715 -0.2111792
-3.0384223 2.2956972 0
-2.972919 2.2462058 0.20812471
-1.7721387 1.3355888 -0.73169637
-2.1242769 1.600981 -0.73389095
-2.4113157 1.8173105 -0.66889745
-2.8057837 2.1146049 -0.58573383
-3.0289772 2.2828169 -0.42275909
-3.0110013 2.2692692 -0.21059863
-3.0391176 2.2904592 0
-2.9777119 2.2441802 0.20827027
-1.7658488 1.3275058 -0.72843653
-2.0881147 1.5697744 -0.72074187
-2.4277287 1.8250848 -0.67283821
-2.7878215 2.0957906 -0.58145499
-3.0213981 2.2713854 -0.42131791
-3.0033581 2.2578237 -0.20987308
-3.041883 2.2867854 0
-2.9721134 2.2343349 0.2076897
-1.8022238 1.3531479 -0.74310434
-2.0910668 1.5700175 -0.72143334
-2.4125755 1.8114129 -0.66833514
-2.8096118 2.1095161 -0.58573383
-0 0 -0
-3.0151093 2.2638083 -0.21059863
-3.0619926 2.2990091 0
-2.9693029 2.2294157 0.20739914
-1.7623152 1.3198569 -0.72599083
-2.1030006 1.5750077 -0.72489351
-2.4249294 1.8161107 -0.67114902
-2.7916155 2.0907342 -0.58145499
-3.0048113 2.2504039 -0.41843554
-3.0178425 2.2601633 -0.21059863
-3.0376904 2.275028 0
-2.9719946 2.2258263 0.20739914
-1.7936119 1.3399162 -0.7382161
-2.0888233 1.5604538 -0.71935624
-2.4210131 1.8086158 -0.66945982
-2.802366 2.0935051 -0.5831669
-3.0075283 2.2467716 -0.41843554
-3.0205712 2.2565153 -0.21059863
-3.0383542 2.2697999 0
-2.9809289 2.2269003 0.20783471
-1.8110845 1.3495626 -0.74473584
-2.1007638 1.5654224 -0.72281635
-2.4068973 1.7935433 -0.66495675
-2.782249 2.0732434 -0.57845885
-3.006089 2.240042 -0.41785839
-3.0191326 2.2497616 -0.21030863
-3.0452642 2.2692339 0
-2.9836175 2.2232969 0.20783471
-1.824612 1.356217 -0.74962407
-2.1066847 1.565879 -0.72420204
-2.4233396 1.8012456 -0.66889745
-2.801234 2.0821311 -0.58188254
-3.0087936 2.236408 -0.41785839
-3.0281072 2.2507637 -0.21074419
-3.0312941 2.2531326 0
-2.9758766 2.2119412 0.20710915
-1.8361747 1.3613701 -0.75369811
-2.1005139 1.5573556 -0.72143334
-2.4153106 1.7907511 -0.66608357
-2.789319 2.068047 -0.578888
-3.0135694 2.2343099 -0.4181464
-3.0245605 2.2424588 -0.21030863
-3.0381997 2.2525711 0
-2.9785471 2.2083437 0.20710915
-1.8119864 1.3400466 -0.74310434
-2.1205461 1.5682406 -0.72766215
-2.4276853 1.795384 -0.66889745
-2.7897458 2.0631444 -0.57845885
-3.0225074 2.2352822 -0.41901156
-3.0209982 2.2341661 -0.20987308
-3.0283606 2.2396107 0
-2.9833004 2.2062867 0.20725416
-1.8255421 1.3466624 -0.74799567
-2.1184056 1.5627015 -0.72627914
-2.421674 1.7864159 -0.66664594
-2.7943084 2.0613003 -0.578888
-3.014801 2.2239528 -0.41757038
-3.0278819 2.233602 -0.21016364
-3.0436344 2.2452226 0
-2.981786 2.1995983 0.20696415
-1.8450828 1.3576376 -0.75532961
-2.1445327 1.5779772 -0.73458242
-2.4422479 1.7970401 -0.67171133
-2.7926579 2.0548766 -0.57803124
-3.0237379 2.2249086 -0.41843554
-3.0263886 2.2268589 -0.20987308
-3.0421486 2.2384555 0
-2.9823427 2.1944494 0.2068186
-1.8268005 1.3407859 -0.74718153
-2.1039677 1.5442135 -0.72004771
-2.4239376 1.7790565 -0.66608357
-2.8013492 2.0560589 -0.5793156
-3.0222497 2.2181897 -0.41785839
-3.0227907 2.2185867 -0.20943752
-3.0511472 2.239399 0
-2.984992 2.1908443 0.2068186
-1.7925181 1.3122945 -0.73251057
-2.1240563 1.5550122 -0.72627914
-2.4404309 1.7866286 -0.67002213
-2.7934768 2.0450921 -0.57717615
-3.0270128 2.2160625 -0.4181464
-3.0170827 2.2087929 -0.20885696
-3.0790498 2.2541587 0
-2.9855425 2.1857023 0.20667359
-1.822051 1.3305368 -0.74392164
-2.1117492 1.5420865 -0.72143334
-2.4302797 1.7746906 -0.66664594
-2.810452 2.0523081 -0.58017069
-3.0234277 2.2078319 -0.41728237
-3.0281434 2.2112753 -0.20943752
-3.05865 2.2335525 0
-2.9839883 2.1790314 0.20638359
-1.8136625 1.3210542 -0.7398445
-2.1257741 1.5483932 -0.72558498
-2.4344742 1.7732474 -0.66720825
-2.783884 2.0277541 -0.57417995
-3.028182 2.2056983 -0.41757038
-3.0266163 2.2045579 -0.20914751
-3.0487289 2.2206645 0
-2.992914 2.1800096 0.2068186
-1.8592519 1.3508255 -0.75777531
-2.1296792 1.5473025 -0.72627914
-2.4345615 1.7688124 -0.66664594
-2.8112538 2.0424955 -0.5793156
-3.0266559 2.1989942 -0.41699323
-3.0355866 2.2054827 -0.20958307
-3.0556169 2.2200356 0
-2.9850371 2.1687562 0.20609303
-1.8108516 1.3123206 -0.7374019
-2.1254511 1.5403101 -0.72420204
-2.4346414 1.7643799 -0.66608357
-2.7970908 2.0270462 -0.57589185
-3.0355959 2.1998904 -0.41785839
-3.036139 2.200284 -0.20943752
-3.0393331 2.2025988 0
-2.9855533 2.1636245 0.20594804
-1.7964113 1.298548 -0.73088223
-2.1191778 1.531862 -0.72143334
-2.4326491 1.7584568 -0.66495675
-2.8057814 2.028178 -0.57717615
-3.0382516 2.1962206 -0.41785839
-3.0409074 2.1981404 -0.20958307
-3.0525362 2.2065463 0
-2.9818459 2.1554475 0.20551248
-1.8661392 1.3455212 -0.75858945
-2.1271341 1.5337034 -0.7235105
-2.4368391 1.7570065 -0.6655212
-2.8082299 2.0247862 -0.57717615
-3.0367112 2.1895256 -0.41728237
-3.0393417 2.1914222 -0.20929252
-3.0699792 2.2135122 0
-2.9886675 2.1548851 0.20580304
-1.8135843 1.3043005 -0.7365846
-2.1310205 1.5325954 -0.72420204
-2.4368916 1.7525729 -0.66495675
-2.7960839 2.0108984 -0.57417995
-3.0435503 2.1888721 -0.41785839
-3.0419874 2.1877482 -0.20929252
-3.038846 2.1854889 0
-2.987046 2.1482351 0.20551248
-1.791067 1.2848257 -0.72680819
-2.1328707 1.5300194 -0.72420204
-2.4348822 1.7466679 -0.66383201
-2.7943439 2.0045285 -0.57332486
-3.0440931 2.1836867 -0.41757038
-3.0446286 2.1840708 -0.20929252
-3.0626354 2.1969881 0
-2.9790847 2.1370528 0.20478691
-1.8750206 1.3416215 -0.76021785
-2.1367562 1.5288996 -0.72489351
-2.4452565 1.7496388 -0.66608357
-2.8176367 2.0160856 -0.5776037
-3.0383158 2.1739867 -0.41641721
-3.0451543 2.17888 -0.20914751
-3.0631652 2.191767 0
-2.9943399 2.1425209 0.20565748
-1.7981864 1.2833625 -0.72843653
-2.1549385 1.5379758 -0.73043078
-2.4411623 1.7422533 -0.66439438
-2.7970843 1.9962744 -0.57289565
-3.0367258 2.1673059 -0.41584006
-3.0393248 2.1691608 -0.20856696
-3.0658112 2.1880641 0
-2.9990478 2.1404152 0.20580304
-1.8037667 1.2840583 -0.73006803
-2.1200109 1.509185 -0.71797323
-2.4391296 1.736358 -0.6632697
-2.7994945 1.9928931 -0.57289565
-3.0414553 2.1651392 -0.4161292
-3.0440583 2.1669922 -0.20871195
-3.0769334 2.1903954 0
-2.9931643 2.1307621 0.20522247
-1.8750398 1.3330898 -0.75858945
-2.1250076 1.5108085 -0.71935624
-2.4567451 1.7466626 -0.66777277
-2.7986078 1.9897153 -0.5724681
-3.042763 2.1633015 -0.4161292
-3.0432513 2.1636486 -0.20856696
-3.0464463 2.1659203 0
-3.0029221 2.1349759 0.20580304
-1.8443913 1.3079476 -0.74555004
-2.1329727 1.5125947 -0.72143334
-2.4484847 1.7363396 -0.66495675
-2.8177619 1.998212 -0.57589185
-3.0432587 2.1581228 -0.41584006
-3.0543418 2.1659822 -0.20914751
-3.0660443 2.1742811 0
-2.9927781 2.1223245 0.20493191
-1.8298277 1.2942998 -0.7390303
-2.1286523 1.5056688 -0.71935624
-2.4464362 1.730448 -0.66383201
-2.8034079 1.9829464 -0.5724681
-3.0500915 2.1574342 -0.41641721
-3.0399854 2.1502857 -0.2079864
-3.0601704 2.1645634 0
-2.9995873 2.1217108 0.20522247
-1.8475468 1.3034867 -0.74555004
-2.136622 1.5074358 -0.72143334
-2.436064 1.7186991 -0.66045362
-2.8162878 1.9869556 -0.57460755
-3.0463538 2.1492724 -0.41555205
-3.0531955 2.1540995 -0.20871195
-3.0627837 2.1608641 0
-2.9978981 2.1150858 0.20493191
-1.8187993 1.2799158 -0.73332477
-2.1322849 1.5005202 -0.71935624
-2.4568467 1.7289191 -0.6655212
-2.820792 1.9850328 -0.5750367
-3.0552962 2.1500568 -0.41641721
-3.0515501 2.1474206 -0.20842196
-3.0611317 2.1541634 0
-2.9983287 2.1099679 0.20478691
-1.8284365 1.2833971 -0.7365846
-2.1443615 1.5051478 -0.72281635
-2.4381328 1.7113487 -0.65989131
-2.8252876 1.9830964 -0.57546431
-3.0515387 2.1419044 -0.41555205
-3.0690243 2.1541774 -0.20943752
-3.0658686 2.1519625 0
-2.9966264 2.1033609 0.20449692
-1.8299859 1.2811868 -0.7365846
-2.1133039 1.4795399 -0.71174443
-2.4422781 1.7098573 -0.66045362
-2.8318834 1.9826229 -0.5763194
-3.0541246 2.1382155 -0.41555205
-3.0460896 2.1325901 -0.20769639
-3.0684667 2.1482565 0
-2.9949043 2.096755 0.20420636
-1.8214024 1.2719008 -0.73251057
-2.1418278 1.4956565 -0.72074187
-2.4735119 1.7272743 -0.66833514
-2.8342769 1.9791996 -0.5763194
-3.0545874 2.1330442 -0.41526404
-3.0529208 2.1318805 -0.2079864
-3.0838585 2.1534846 0
-3.003829 2.0975993 0.20464192
-1.8269981 1.272527 -0.73414207
-2.1353989 1.487332 -0.71797323
-2.4568341 1.7112156 -0.6632697
-2.8345621 1.9743078 -0.57589185
-3.0571625 2.1293519 -0.41526404
-3.0469658 2.1222496 -0.20740584
-3.0757825 2.1423209 0
-3.0042312 2.0924845 0.20449692
-1.818387 1.2632689 -0.73006803
-2.1680939 1.5062171 -0.72835368
-2.4589 1.7082458 -0.6632697
-2.8243001 1.9620963 -0.57332486
-3.0554891 2.1227078 -0.41468802
-3.058064 2.1244967 -0.2079864
-3.0698197 2.1326635 0
-3.0003533 2.084404 0.20406136
-1.8706911 1.296257 -0.75043821
-2.1761005 1.5078843 -0.73043078
-2.4421678 1.6922501 -0.65820426
-2.8245528 1.9572159 -0.57289565
-3.0580516 2.1190143 -0.41468802
-3.0606287 2.1208 -0.2079864
-3.0723944 2.1289527 0
-3.0071373 2.083734 0.20435137
-1.8112625 1.2518406 -0.72599083
-2.1510935 1.4867121 -0.72143334
-2.4609246 1.7008498 -0.66270518
-2.8290334 1.9552653 -0.57332486
-3.0606098 2.1153176 -0.41468802
-3.0610535 2.1156242 -0.2078414
-3.0706785 2.1222765 0
-3.0117965 2.0815806 0.20449692
-1.8595793 1.281917 -0.74473584
-2.1425626 1.4769938 -0.71797323
-2.4546101 1.6921065 -0.66045362
-2.8292744 1.9503844 -0.57289565
-3.0652909 2.1130846 -0.41497603
-3.0550501 2.106025 -0.20726085
-3.0646698 2.1126564 0
-3.0036066 2.0705619 0.2037708
-1.8346527 1.2614659 -0.73414207
-2.15468 1.4815094 -0.72143334
-2.4566529 1.6891392 -0.66045362
-2.8485513 1.9585998 -0.5763194
-3.0593169 2.1035175 -0.41382286
-3.0682962 2.1096916 -0.2079864
-3.0779488 2.1163285 0
-3.0061061 2.066931 0.2037708
-1.8769343 1.2872005 -0.75043821
-2.1212978 1.4547849 -0.70966727
-2.4545052 1.6832982 -0.65932894
-2.8339794 1.9435414 -0.57289565
-3.0725195 2.1071322 -0.41526404
-3.0665615 2.1030462 -0.20769639
-3.0719187 2.1067202 0
-3.0043197 2.0603607 0.20348081
-1.8172917 1.2430718 -0.72599083
-2.1479025 1.4692174 -0.71797323
-2.473315 1.6918076 -0.66383201
-2.834209 1.9386678 -0.5724681
-3.0729306 2.1019592 -0.41497603
-3.0755284 2.1037362 -0.2081314
-3.0873463 2.11182 0
-3.0153859 2.0625973 0.20406136
-1.8310466 1.2492354 -0.73088223
-2.1558874 1.4708587 -0.72004771
-2.4711554 1.6859511 -0.66270518
-2.8407946 1.9381381 -0.57332486
-3.0669217 2.0924139 -0.41382286
-3.0716348 2.0956292 -0.20769639
-3.0684016 2.0934236 0
-3.0221648 2.0618782 0.20435137
-1.8340601 1.2448068 -0.73088223
-2.1303782 1.4459229 -0.7103588
-2.4689214 1.6756977 -0.66101813
-2.8390958 1.926941 -0.57204056
-3.0762455 2.0878985 -0.41439888
-3.0702381 2.0838211 -0.20726085
-3.0842164 2.0933084 0
-3.0357387 2.060406 0.20493191
-1.8245844 1.236766 -0.72680819
-2.1457899 1.4544902 -0.7152046
-2.4783463 1.6799084 -0.6632697
-2.8445051 1.9281034 -0.57289565
-3.0710895 2.0816901 -0.41353485
-3.0671904 2.0790472 -0.20697029
-3.1156356 2.1118851 0
-3.036983 2.0585716 0.20493191
-1.8567851 1.255321 -0.7390303
-2.1745625 1.4701616 -0.72420204
-2.4824774 1.6783344 -0.66383201
-2.8383262 1.9189138 -0.5711838
-3.0736027 2.0779777 -0.41353485
-3.0740099 2.078253 -0.20726085
-3.0492013 2.0614808 0
-3.035167 2.0519924 0.20464192
-1.8480562 1.2461687 -0.73495626
-2.1513767 1.4507017 -0.71589607
-2.4613278 1.6597059 -0.65763974
-2.8491564 1.9212238 -0.57289565
-3.0739605 2.0728121 -0.41324571
-3.0743663 2.0730858 -0.20711584
-3.0624769 2.0650685 0
-3.0333312 2.0454152 0.20435137
-1.8208519 1.2246265 -0.72354829
-2.1572955 1.450904 -0.7172817
-2.4696586 1.6609861 -0.65932894
-2.8514757 1.9177797 -0.57289565
-3.0743186 2.0676544 -0.4129577
-3.0833313 2.0737157 -0.20755084
-3.0433705 2.0468397 0
-3.0422711 2.0461004 0.20478691
-1.8572221 1.245831 -0.7374019
-2.1319563 1.4301238 -0.70828164
-2.473772 1.6594149 -0.65989131
-2.8474014 1.9100468 -0.57161301
-3.081115 2.0668225 -0.41353485
-3.083679 2.0685425 -0.20740584
-3.0588131 2.0518625 0
-3.0382652 2.038079 0.20435137
-1.8381797 1.2298394 -0.72925073
-2.1274335 1.4233655 -0.70620716
-2.4736655 1.655013 -0.65932894
-2.8497074 1.9066049 -0.57161301
-3.0836101 2.0630982 -0.41353485
-3.081861 2.0619278 -0.20711584
-3.0526381 2.0423763 0
-3.0385683 2.0329628 0.20420636
-1.845834 1.2317345 -0.73169637
-2.1395838 1.4277552 -0.70966727
-2.4693208 1.6477904 -0.65763974
-2.8584087 1.9074308 -0.57289565
-3.0817935 2.0564966 -0.4129577
-3.0821824 2.056756 -0.20697029
-3.0594292 2.0415726 0
-3.0367038 2.026408 0.20391636
-1.8267494 1.2158116 -0.72354829
-2.1287725 1.4168261 -0.705513
-2.4776578 1.6490303 -0.65932894
-2.8564415 1.9011337 -0.57204056
-3.0842762 2.0527713 -0.4129577
-3.0954874 2.0602331 -0.20769639
-3.0554004 2.0335526 0
-3.0369806 2.0212934 0.2037708
-1.8776302 1.2464048 -0.74310434
-2.1283948 1.4128667 -0.70482147
-2.4838784 1.6488432 -0.66045362
-2.8672915 1.9033597 -0.5737524
-3.0867543 2.0490432 -0.4129577
-3.0871439 2.0493016 -0.20697029
-3.0578554 2.0298595 0
-3.0394208 2.0176222 0.2037708
-1.8152543 1.2018411 -0.71784276
-2.1552024 1.4269135 -0.71312743
-2.4943433 1.6514515 -0.66270518
-2.8760126 1.9041466 -0.5750367
-3.0870733 2.0438855 -0.41266969
-3.0874531 2.0441368 -0.20682529
-3.0581295 2.0247223 0
-3.0483584 2.0182531 0.20420636
-1.8785763 1.240503 -0.74229014
-2.1255283 1.4035758 -0.70274699
-2.4921005 1.6456387 -0.6615805
-2.8654542 1.89218 -0.5724681
-3.0873845 2.0387299 -0.41238168
-3.089921 2.0404048 -0.20682529
-3.045378 2.0109911 0
-3.0399551 2.0074103 0.20348081
-1.8718172 1.2327943 -0.7390303
-2.1586444 1.4217011 -0.71312743
-2.491967 1.6412301 -0.66101813
-2.8613048 1.884479 -0.5711838
-3.0920036 2.0364192 -0.41266969
-3.0923841 2.0366697 -0.20682529
-3.0651932 2.0187616 0
-3.0488908 2.0080247 0.20391636
-1.8691778 1.2278204 -0.7374019
-2.1645584 1.4218491 -0.71451306
-2.4875751 1.6340314 -0.65932894
-2.8635798 1.8810203 -0.5711838
-3.0879745 2.0284202 -0.41180453
-3.0926731 2.0315065 -0.20668028
-3.0632758 2.0121961 0
-3.0404496 1.9972022 0.20319025
-1.8334424 1.2011778 -0.72273099
-2.1368918 1.3999823 -0.70482147
-2.4810462 1.6254548 -0.65707743
-2.8594148 1.8733425 -0.56990111
-3.0882618 2.0232713 -0.41151652
-3.0951254 2.0277681 -0.20668028
-3.06353 2.0070684 0
-3.0537345 2.0006509 0.20391636
-1.8721396 1.2232997 -0.7374019
-2.1637838 1.4138669 -0.71312743
-2.4851334 1.6238443 -0.65763974
-2.8659701 1.8726918 -0.57075626
-3.0928674 2.0209517 -0.41180453
-3.0910456 2.0197613 -0.20624472
-3.0594149 1.9990932 0
-3.0452671 1.9898487 0.20319025
-1.8425539 1.2007933 -0.72517669
-2.1528838 1.4030354 -0.70897579
-2.4892287 1.6222315 -0.65820426
-2.8682308 1.8692275 -0.57075626
-3.097472 2.0186241 -0.41209254
-3.097842 2.0188651 -0.20653528
-3.0552936 1.9911363 0
-3.0454946 1.9847503 0.20304525
-1.8419331 1.1972204 -0.72436249
-2.1461635 1.3949641 -0.70620716
-2.4762719 1.6095282 -0.65426356
-2.8640282 1.8615621 -0.5694719
-3.0999088 2.0148799 -0.41209254
-3.0937409 2.0108709 -0.20609973
-3.0664253 1.9931164 0
-3.0522521 1.9839039 0.20333581
-1.8496022 1.1990286 -0.72680819
-2.1352127 1.3841792 -0.70205283
-2.4888732 1.6134443 -0.65707743
-2.8813558 1.8678762 -0.5724681
-3.1045177 2.0125437 -0.41238168
-3.1048899 2.012785 -0.20668028
-3.0491712 1.9766647 0
-3.050282 1.9773847 0.20304525
-1.8759485 1.2128911 -0.7365846
-2.1242471 1.373428 -0.69790119
-2.4908211 1.6104358 -0.65707743
-2.8706803 1.8560332 -0.56990111
-3.1004291 2.0045767 -0.41151652
-3.1007714 2.0047982 -0.20624472
-3.0646744 1.9814597 0
-3.0483091 1.9708786 0.20275524
-1.8608032 1.1999131 -0.73006803
-2.1343386 1.3762987 -0.70066983
-2.49704 1.6101817 -0.65820426
-2.8772316 1.8553429 -0.57075626
-3.1006773 1.9994286 -0.41122851
-3.1075633 2.0038691 -0.20653528
-3.0736301 1.9819877 0
-3.061605 1.9742335 0.20348081
-1.8386678 1.1840672 -0.7211026
-2.1436067 1.3804421 -0.70343846
-2.4937358 1.6059188 -0.65707743
-2.8805082 1.8549929 -0.5711838
-3.0975313 1.9947516 -0.41065136
-3.0978522 1.9949583 -0.20580973
-3.0682607 1.9759018 0
-3.0606146 1.970978 0.20333581
-1.8442523 1.1845136 -0.72273099
-2.1769302 1.3981836 -0.71381891
-2.4871228 1.5974119 -0.65482587
-2.8589945 1.836255 -0.56647736
-3.104296 1.9938055 -0.41122851
-3.1024446 1.9926165 -0.20595473
-3.070646 1.972193 0
-3.0542486 1.9616615 0.20275524
-1.851928 1.186285 -0.72517669
-2.1638365 1.3860836 -0.70897579
-2.474072 1.5848104 -0.65088516
-2.8612111 1.8327991 -0.56647736
-3.1023428 1.9872602 -0.41065136
-3.1004698 1.9860605 -0.20566417
-3.0708375 1.9670789 0
-3.0588026 1.9593698 0.20290025
-1.8762733 1.1986849 -0.73414207
-2.154933 1.3767108 -0.705513
-2.4888368 1.5900301 -0.65426356
-2.8677461 1.8321019 -0.56733251
-3.1025641 1.982119 -0.41036335
-3.11601 1.9907091 -0.20653528
-3.0644395 1.9577625 0
-3.0567842 1.9528718 0.20260969
-1.8610446 1.1857919 -0.72762233
-2.1502535 1.3700656 -0.70343846
-2.4886153 1.5856576 -0.65370119
-2.872129 1.8300189 -0.56776172
-3.1136823 1.9839282 -0.41151652
-3.1118367 1.9827523 -0.20609973
-3.0646017 1.9526558 0
-3.0569525 1.9477819 0.20246468
-1.8583001 1.1808885 -0.72599083
-2.1370835 1.3580463 -0.69859266
-2.4755156 1.5731087 -0.64976043
-2.8743379 1.8265471 -0.56776172
-3.1095259 1.9760014 -0.41065136
-3.1120393 1.9775985 -0.20595473
-3.0691617 1.9503512 0
-3.0527306 1.9399098 0.20202969
-1.8555542 1.1759986 -0.72436249
-2.1683855 1.3742623 -0.70828164
-2.4881434 1.576916 -0.65257436
-2.8722022 1.8203218 -0.56690496
-3.1140938 1.973626 -0.41093937
-3.1144264 1.9738368 -0.20595473
-3.0583227 1.9382796 0
-3.057265 1.9376094 0.20217469
-1.8674181 1.1803572 -0.72843653
-2.165807 1.3689629 -0.70689863
-2.4750185 1.5644093 -0.64863575
-2.8787436 1.8195957 -0.56776172
-3.1121078 1.9671005 -0.41036335
-3.112412 1.9672928 -0.20566417
-3.0694618 1.9401449 0
-3.0617983 1.9353009 0.20231968
-1.8479387 1.1649221 -0.72028846
-2.1886783 1.379721 -0.71381891
-2.4876521 1.5681912 -0.65144962
-2.8852792 1.8188512 -0.56861681
-3.1188543 1.9660947 -0.41093937
-3.1169913 1.9649203 -0.20580973
-3.0696044 1.9350481 0
-3.0641346 1.9316 0.20231968
-1.8472464 1.1613691 -0.7194711
-2.1669872 1.362391 -0.70620716
-2.4938433 1.5678864 -0.65257436
-2.8722599 1.8057981 -0.5656206
-3.1146648 1.9581987 -0.41007534
-3.1171572 1.9597656 -0.20566417
-3.0675297 1.9285647 0
-3.0708618 1.9306595 0.20260969
-1.8486483 1.1591362 -0.7194711
-2.1728787 1.3624345 -0.7075901
-2.4914346 1.5621749 -0.65144962
-2.8787937 1.8050562 -0.56647736
-3.1126418 1.9516832 -0.40949818
-3.1173234 1.9546187 -0.20551917
-3.0632493 1.9207132 0
-3.0709929 1.9255686 0.20246468
-1.868914 1.1686995 -0.72680819
-2.1872902 1.3677915 -0.71174443
-2.4760857 1.5483857 -0.64694655
-2.8875046 1.805661 -0.56776172
-3.117197 1.949296 -0.40978733
-3.1218841 1.9522269 -0.20566417
-3.0788031 1.9252869 0
-3.0733175 1.9218565 0.20246468
-1.8766103 1.1703604 -0.72925073
-2.1463668 1.3385959 -0.69790119
-2.4779546 1.5453928 -0.64694655
-2.8744347 1.7926602 -0.56476551
-3.1151567 1.942788 -0.40921018
-3.1308572 1.9525797 -0.20609973
-3.0745003 1.9174324 0
-3.0734346 1.9167678 0.20231968
-1.8675313 1.1615664 -0.72517669
-2.1692817 1.349249 -0.70482147
-2.4819758 1.5437382 -0.64750892
-2.8765988 1.7891858 -0.56476551
-3.1218987 1.9417573 -0.40978733
-3.1288054 1.9460531 -0.20580973
-3.081239 1.9164678 0
-3.0691268 1.9089344 0.20188414
-1.8941375 1.1749432 -0.73495626
-2.1581233 1.3386948 -0.70066983
-2.490319 1.5447576 -0.64919811
-2.8874843 1.7911212 -0.56647736
-3.1220384 1.9366163 -0.40949818
-3.1267343 1.9395292 -0.20551917
-3.0747063 1.907256 0
-3.0714312 1.9052244 0.20188414
-1.8829484 1.1648543 -0.73006803
-2.1874728 1.3532431 -0.70966727
-2.4813817 1.5350648 -0.64638424
-2.8852761 1.7849274 -0.5656206
-3.1221786 1.9314831 -0.40921018
-3.1290755 1.9357497 -0.20551917
-3.0814307 1.9062752 0
-3.0737312 1.9015119 0.20188414
-1.8675267 1.152196 -0.72354829
-2.1549447 1.3295225 -0.69859266
-2.4810658 1.5307274 -0.64581972
-2.8852482 1.7800932 -0.56519306
-3.1223111 1.9263524 -0.40892217
-3.1269934 1.9292413 -0.20522916
-3.0770936 1.8984549 0
-3.0693986 1.8937073 0.20144913
-1.8626003 1.1460518 -0.7211026
-2.1950059 1.3505797 -0.71105027
-2.4829137 1.5277284 -0.64581972
-2.8983266 1.7833306 -0.56733251
-3.1334479 1.928 -0.41007534
-3.1381745 1.9309083 -0.20580973
-3.0749478 1.8920051 0
-3.0738955 1.8913575 0.20159413
-1.8555573 1.1386296 -0.71784276
-2.1581511 1.3243109 -0.69859266
-2.4847579 1.5247272 -0.64581972
-2.8873556 1.7717742 -0.56476551
-3.1291595 1.9201528 -0.40921018
-3.1272128 1.9189583 -0.20493861
-3.0750158 1.8869284 0
-3.0695322 1.8835636 0.20115857
-1.8906626 1.1570289 -0.73088223
-2.1811445 1.3347951 -0.705513
-2.475764 1.5150934 -0.64300585
-2.8960652 1.7723053 -0.56604981
-3.1292734 1.9150217 -0.40892217
-3.1317434 1.9165334 -0.20508361
-3.0728581 1.8804972 0
-3.071806 1.8798532 0.20115857
-1.8772891 1.1457292 -0.72517669
-2.1656322 1.3217081 -0.69997835
-2.4775929 1.5121009 -0.64300585
-2.8850532 1.7607781 -0.56348121
-3.1293793 1.909893 -0.40863416
-3.1318412 1.9113954 -0.20493861
-3.0773475 1.8781374 0
-3.0785153 1.8788502 0.20144913
-1.8610969 1.1343043 -0.71865696
-2.1664305 1.3203994 -0.69997835
-2.4785061 1.5106038 -0.64300585
-2.8883061 1.7603695 -0.56390876
-3.1283176 1.906652 -0.40834501
-3.1329954 1.909503 -0.20493861
-3.0807016 1.8776309 0
-3.0774248 1.8756337 0.20130357
-1.8709143 1.1371897 -0.72191679
-2.1787412 1.3242948 -0.70343846
-2.4673059 1.4996918 -0.6396296
-2.8992057 1.7622117 -0.5656206
-3.1306193 1.9028707 -0.40834501
-3.1308637 1.9030193 -0.20464861
-3.0851901 1.8752576 0
-3.0819156 1.8732674 0.20144913
-1.8743986 1.1362083 -0.72273099
-2.1503003 1.3034521 -0.69374692
-2.471287 1.4980254 -0.64019197
-2.9035344 1.7600417 -0.56604981
-3.1351345 1.9004312 -0.40863416
-3.144269 1.9059683 -0.20537417
-3.076328 1.8647844 0
-3.0841768 1.8695421 0.20144913
-1.8842307 1.1390572 -0.72599083
-2.1647596 1.3086427 -0.69790119
-2.4774401 1.4976647 -0.64131665
-2.9078538 1.7578589 -0.56647736
-3.1396396 1.8979784 -0.40892217
-3.1398964 1.8981336 -0.20493861
-3.0808041 1.8624109 0
-3.0797603 1.86178 0.20101357
-1.8707949 1.1278507 -0.72028846
-2.1770797 1.3125013 -0.70136136
-2.4727261 1.4907383 -0.6396296
-2.9143684 1.7569922 -0.56733251
-3.1441438 1.8955175 -0.40921018
-3.151089 1.8997046 -0.20551917
-3.074137 1.8533124 0
-3.0797844 1.8567171 0.20086858
-1.8763888 1.1281339 -0.72191679
-2.1743681 1.3072869 -0.69997835
-2.4854116 1.4942944 -0.64244348
-2.9098954 1.7495052 -0.56604981
-3.1464317 1.8917171 -0.40921018
-3.1444743 1.8905401 -0.20493861
-3.0741458 1.8482568 0
-3.0820258 1.8529944 0.20086858
-1.8713892 1.1220517 -0.7194711
-2.1651816 1.2982044 -0.69651556
-2.4872153 1.4912901 -0.64244348
-2.9208138 1.7512681 -0.56776172
-3.1442828 1.8852563 -0.40863416
-3.1445301 1.8854043 -0.20479362
-3.0763769 1.844541 0
-3.0820274 1.847929 0.20072301
-1.8981992 1.1350107 -0.72925073
-2.1861336 1.3071784 -0.70274699
-2.4781137 1.4817652 -0.6396296
-2.9207182 1.7464164 -0.56733251
-3.1398969 1.8774722 -0.40776899
-3.1445777 1.8802712 -0.20464861
-3.0808349 1.8421566 0
-3.0820301 1.8428714 0.20057802
-1.891078 1.1276529 -0.72599083
-2.1661599 1.2916846 -0.69582403
-2.4908118 1.4852751 -0.64244348
-2.9096014 1.735 -0.56476551
-3.1399436 1.8723534 -0.40748098
-3.1490772 1.8777997 -0.20479362
-3.0830584 1.8384328 0
-3.0909522 1.8431398 0.20101357
-1.8818194 1.1190518 -0.72191679
-2.1892862 1.3018916 -0.70274699
-2.4751334 1.4718748 -0.63794041
-2.9050744 1.7275456 -0.56348121
-3.1466458 1.8711996 -0.408057
-3.1513438 1.8739934 -0.20479362
-3.0942252 1.8400269 0
-3.0864747 1.835418 0.20057802
-1.8895499 1.1205605 -0.72436249
-2.169275 1.2864461 -0.69582403
-2.4812768 1.4714726 -0.63906509
-2.9027479 1.7214178 -0.56262606
-3.1400056 1.8621188 -0.40690383
-3.1491315 1.8675308 -0.20450306
-3.0897372 1.8323082 0
-3.0953972 1.8356647 0.20101357
-1.8823928 1.1132439 -0.7211026
-2.1708279 1.283824 -0.69582403
-2.4874313 1.4710628 -0.64019197
-2.8959875 1.7126821 -0.56091422
-3.1533825 1.8649052 -0.40834501
-3.1513858 1.8637244 -0.20450306
-3.1009092 1.8338726 0
-3.0886667 1.8266324 0.20043302
-1.9028949 1.1222676 -0.72843653
-2.1615748 1.274829 -0.69236392
-2.4913936 1.4693457 -0.64075428
-2.8936281 1.7065711 -0.56005746
-3.1511822 1.8584683 -0.40776899
-3.1536355 1.8599151 -0.20450306
-3.0784621 1.8155804 0
-3.0886354 1.8215802 0.20028801
-1.8765557 1.1036797 -0.71784276
-2.182574 1.2836616 -0.69859266
-2.4997396 1.4701998 -0.64244348
-2.8934774 1.7017733 -0.55962992
-3.1534255 1.8546593 -0.40776899
-3.1558805 1.8561033 -0.20450306
-3.0851359 1.8144954 0
-3.0818751 1.8125776 0.19970745
-1.8800179 1.1026607 -0.71865696
-2.1927795 1.2861004 -0.70136136
-2.4949369 1.4633206 -0.64075428
-2.8955317 1.6982758 -0.55962992
-3.1534352 1.8495405 -0.40748098
-3.1626079 1.8549204 -0.20479362
-3.0828407 1.8081356 0
-3.0840631 1.8088524 0.19970745
-1.8898827 1.1053797 -0.72191679
-2.1791708 1.2745824 -0.69651556
-2.4988945 1.4615865 -0.64131665
-2.8909318 1.6908865 -0.55834562
-3.1556678 1.8457288 -0.40748098
-3.1648469 1.8510976 -0.20479362
-3.0872676 1.805722 0
-3.0840056 1.8038141 0.19956246
-1.8890841 1.1018512 -0.7211026
-2.1633811 1.2618412 -0.69098091
-2.5050526 1.4611288 -0.64244348
-2.8796725 1.6796343 -0.55577862
-3.1645918 1.8458201 -0.40834501
-3.164839 1.8459642 -0.20464861
-3.0872014 1.8006803 0
-3.0951524 1.805318 0.20014246
-1.886137 1.09708 -0.7194711
-2.1822448 1.2693125 -0.69651556
-2.5068161 1.4581009 -0.64244348
-2.8861337 1.6787325 -0.55663371
-3.1578767 1.8367932 -0.40719184
-3.1580827 1.8369129 -0.20406805
-3.0938697 1.7995632 0
-3.0905995 1.7976612 0.19970745
-1.8896054 1.0960439 -0.72028846
-2.1946337 1.2729721 -0.69997835
-2.4975889 1.4486977 -0.6396296
-2.897042 1.6803961 -0.55834562
-3.1600938 1.8329761 -0.40719184
-3.1602998 1.8330957 -0.20406805
-3.0937929 1.7945191 0
-3.0995061 1.797833 0.20014246
-1.8909283 1.0937599 -0.72028846
