# .PCD v0.7 - Point Cloud Data file format
VERSION 0.7
FIELDS x y z
SIZE 4 4 4
TYPE F F F
COUNT 1 1 1
WIDTH 1587
HEIGHT 1
VIEWPOINT 0 0 0 1 0 0 0
POINTS 1587
DATA ascii
2.2576265 1.2679175 -0.43167385
2.2471604 1.2620395 -0.28726885
2.3132551 1.2991593 -0.14819229
2.3242719 1.3053466 0
2.3244762 1.3054614 0.14891115
2.1596155 1.2163079 -0.81726384
2.2193508 1.2499511 -0.70274699
2.2545378 1.2697686 -0.57321244
2.2516239 1.2681274 -0.43081874
2.2568998 1.271099 -0.28871003
2.3048892 1.2981268 -0.14775673
2.3340375 1.3145434 0
2.3206353 1.3069952 0.14876615
2.1516862 1.2152689 -0.81481814
2.217839 1.2526319 -0.70274699
2.2596412 1.2762418 -0.57490164
2.2500899 1.2708472 -0.43081874
2.2508626 1.2712836 -0.28813401
2.3010585 1.2996342 -0.14761172
2.3211107 1.3109596 0
2.3190544 1.3097982 0.14876615
2.1545215 1.2203064 -0.81644964
2.207592 1.2503651 -0.69997835
2.2536714 1.2764642 -0.57377481
2.2574873 1.2786256 -0.43253061
2.2448194 1.2714505 -0.28755686
2.2994866 1.3024137 -0.14761172
2.3150003 1.3112005 0
2.3242464 1.3164375 0.14920115
2.1444488 1.218026 -0.8131898
2.2235227 1.2629392 -0.705513
2.2565503 1.2816987 -0.57490164
2.2604008 1.2838856 -0.43338573
2.2387877 1.2716097 -0.28698084
2.2843504 1.2974887 -0.14674062
2.3269875 1.3217063 0
2.3203969 1.3179629 0.14905615
2.1451211 1.2218385 -0.81400394
2.2176394 1.263144 -0.70412999
2.2505801 1.2819067 -0.57377481
2.2343175 1.2726438 -0.42867932
2.2417402 1.2768717 -0.28755686
2.2895567 1.3041074 -0.14717616
2.3072977 1.3142126 0
2.3165469 1.3194809 0.14891115
2.1436431 1.2244295 -0.81400394
2.2073977 1.2608455 -0.70136136
2.2534463 1.2871481 -0.57490164
2.2416945 1.2804354 -0.43039119
2.237952 1.2782978 -0.28726885
2.2879791 1.306873 -0.14717616
2.3079743 1.318294 0
2.3262303 1.3287216 0.1496367
2.1786199 1.2479016 -0.82785761
2.2102306 1.266008 -0.70274699
2.2474756 1.2873418 -0.57377481
2.2356863 1.2805889 -0.42953444
2.2364056 1.281001 -0.28726885
2.2841458 1.3083463 -0.14703117
2.3176689 1.3275481 0
2.3088465 1.3224946 0.14862114
2.1471097 1.2333007 -0.81644964
2.2043443 1.2661762 -0.70136136
2.2415161 1.2875278 -0.57265007
2.2385936 1.285849 -0.43039119
2.2258849 1.2785492 -0.28611568
2.2893164 1.3149842 -0.14746617
2.3092909 1.3264576 0
2.298234 1.3201065 0.14804059
2.1691706 1.2494607 -0.82541192
2.1984692 1.2663368 -0.69997835
2.2443581 1.2927693 -0.57377481
2.2259095 1.2821428 -0.42825013
2.2288253 1.2838223 -0.28669283
2.2787192 1.3125616 -0.1468856
2.3031805 1.3266516 0
2.3033855 1.3267696 0.14847559
2.1569602 1.2459008 -0.82133788
2.186069 1.2627146 -0.69651556
2.2449925 1.2967499 -0.57433712
2.2354796 1.2912551 -0.43039119
2.2295101 1.2878069 -0.28698084
2.2793882 1.3166175 -0.14703117
2.3105903 1.3346404 0
2.2995329 1.3282534 0.14833058
2.2046378 1.2769954 -0.84007972
2.1736894 1.2590691 -0.69305539
2.2368343 1.2956446 -0.57265007
2.2405753 1.2978115 -0.43167385
2.2324243 1.2930902 -0.28755686
2.2688017 1.3141612 -0.14645061
2.2999678 1.3322135 0
2.3024275 1.3336383 0.14862114
2.1646271 1.2573155 -0.82541192
2.1765094 1.2642173 -0.69444108
2.2396572 1.3008964 -0.57377481
2.2345703 1.2979417 -0.43081874
2.2308602 1.2957867 -0.28755686
2.2694569 1.3182055 -0.14659561
2.3096063 1.3415262 0
2.2985611 1.3351104 0.14847559
2.2100883 1.2872953 -0.84333962
2.1684747 1.2630569 -0.69236392
2.2336967 1.3010464 -0.57265007
2.2463055 1.3083905 -0.43338573
2.2136543 1.2893724 -0.28553966
2.2678626 1.3209467 -0.14659561
2.305737 1.3430072 0
2.294703 1.3365803 0.14833058
2.2426789 1.3099099 -0.85637903
2.1669469 1.2656761 -0.69236392
2.2321229 1.3037444 -0.57265007
2.2292125 1.3020445 -0.43039119
2.2232597 1.2985675 -0.28698084
2.2707479 1.3263046 -0.1468856
2.3086028 1.3484149 0
2.2908447 1.3380427 0.1481856
2.2560256 1.321364 -0.86208457
2.1610906 1.2657602 -0.69098091
2.2283473 1.3051527 -0.57208562
2.2364981 1.3099266 -0.43210307
2.2105319 1.2947181 -0.28553966
2.2669036 1.3277353 -0.14674062
2.2935021 1.3433142 0
2.2981949 1.3460628 0.14876615
2.2586856 1.3265901 -0.86371297
2.1552289 1.2658269 -0.68959528
2.2267685 1.3078443 -0.57208562
2.2172055 1.3022276 -0.42867932
2.2134221 1.3000056 -0.28611568
2.269783 1.3331079 -0.14703117
2.3120718 1.3579453 0
2.2853661 1.3422602 0.14804059
2.3018024 1.3556572 -0.88082641
2.1623447 1.2735229 -0.69236392
2.2186248 1.3066692 -0.57039857
2.2311077 1.3140211 -0.43167385
2.2140763 1.3039904 -0.28640369
2.2681706 1.3358495 -0.14703117
2.2924895 1.3501723 0
2.2837424 1.3450207 0.14804059
2.2831373 1.3483826 -0.87430674
2.1672869 1.2799631 -0.69444108
2.2257957 1.3145175 -0.57265007
2.2228935 1.3128035 -0.43039119
2.2058241 1.3027227 -0.28553966
2.2598405 1.3346238 -0.14659561
2.279654 1.3463254 0
2.2776365 1.3451339 0.14775003
2.2836392 1.3524034 -0.87512404
2.1549475 1.2761904 -0.69098091
2.2176447 1.3133205 -0.57096094
2.2168839 1.3128698 -0.42953444
2.2020166 1.3040652 -0.28525051
2.2604599 1.3386762 -0.14674062
2.2757885 1.3477541 0
2.2760096 1.347885 0.14775003
2.2650025 1.3450657 -0.8686043
2.1339841 1.2672608 -0.68474948
2.2138736 1.314703 -0.57039857
2.208672 1.311614 -0.42825013
2.2093349 1.3120077 -0.28640369
2.2588408 1.3414066 -0.14674062
2.2898157 1.3598009 0
2.2743793 1.3506341 0.14775003
2.2726867 1.3514869 -0.87186414
2.1440058 1.2749649 -0.68821228
2.2261784 1.32383 -0.57377481
2.221122 1.3208232 -0.43081874
2.2107713 1.3146679 -0.28669283
2.2490964 1.3374586 -0.14616005
2.2710989 1.3505427 0
2.2668605 1.3480222 0.14731447
2.2731729 1.3554968 -0.87267834
2.1316836 1.2711264 -0.68474948
2.2202165 1.3239187 -0.57265007
2.2239299 1.326133 -0.43167385
2.2047338 1.3146864 -0.28611568
2.2519464 1.3428394 -0.14645061
2.2739401 1.3559542 0
2.2674682 1.352095 0.14746003
2.2503245 1.3455607 -0.86453027
2.1645975 1.294301 -0.69582403
2.2120707 1.3226873 -0.57096094
2.2091107 1.3209172 -0.42910689
2.1987083 1.3146973 -0.28553966
2.2480943 1.3442272 -0.14630561
2.2700684 1.3573664 0
2.2702889 1.3574983 0.14775003
2.2741261 1.3635256 -0.87430674
2.1329131 1.2788569 -0.68613511
2.2170107 1.3292803 -0.57265007
2.2009058 1.3196241 -0.42782256
2.2015505 1.3200105 -0.28611568
2.2486949 1.3482776 -0.14645061
2.2684267 1.3601084 0
2.2708735 1.3615754 0.14789504
2.2724769 1.3662724 -0.87430674
2.1292183 1.2801417 -0.68544364
2.202333 1.3241001 -0.56927174
2.2081101 1.3275734 -0.42953444
2.1933017 1.3186703 -0.28525051
2.2426059 1.3483132 -0.14616005
2.2779317 1.369552 0
2.2625523 1.3603054 0.14746003
2.2480211 1.3589761 -0.8661586
2.1282632 1.2865801 -0.68613511
2.2034798 1.33205 -0.57039857
2.1961079 1.3275936 -0.42782256
2.1967511 1.3279823 -0.28611568
2.2460144 1.3577629 -0.14659561
2.2790654 1.377743 0
2.2525849 1.3617351 0.14702447
2.2484889 1.3629714 -0.8669728
2.1245639 1.2878515 -0.68544364
2.2018688 1.3347114 -0.57039857
2.2076778 1.3382329 -0.43039119
2.1951449 1.3306357 -0.28611568
2.242152 1.3591301 -0.14645061
2.2595947 1.3697033 0
2.2531579 1.3658016 0.14716947
2.2742951 1.3823749 -0.87756658
2.1187146 1.287809 -0.68405795
2.1937385 1.3334105 -0.56870937
2.1907017 1.3315647 -0.42739502
2.1913273 1.3319449 -0.28582767
2.2382898 1.36049 -0.14630561
2.2557161 1.3710822 0
2.2537243 1.3698714 0.14731447
2.2789567 1.3889822 -0.88001227
2.1150167 1.2890637 -0.68336648
2.1986368 1.3400286 -0.57039857
2.1890912 1.3342108 -0.42739502
2.1919227 1.3359365 -0.28611568
2.2388611 1.3645446 -0.14645061
2.2473888 1.3697422 0
2.2409754 1.3658333 0.14658892
2.2329907 1.3646699 -0.86289877
2.1155961 1.2929254 -0.68405795
2.1840034 1.3347317 -0.56702018
2.1852891 1.3355175 -0.42696744
2.188102 1.3372366 -0.28582767
2.2349956 1.3658952 -0.14630561
2.2568417 1.3792462 0
2.2481921 1.3739601 0.14716947
2.2671638 1.3893198 -0.87675238
2.1140323 1.2954807 -0.68405795
2.1975565 1.3466643 -0.57096094
2.1836739 1.3381571 -0.42696744
2.1864848 1.3398795 -0.28582767
2.2399838 1.3726639 -0.14674062
2.2573905 1.3833306 0
2.2487438 1.378032 0.14731447
2.2465329 1.3804138 -0.8694185
2.1167445 1.3006635 -0.68544364
2.1872683 1.3439977 -0.56870937
2.190804 1.3461703 -0.42867932
2.1760492 1.3371041 -0.2846745
2.2184005 1.3631275 -0.1454345
2.249063 1.3819685 0
2.2492974 1.3821124 0.14746003
2.265902 1.3960898 -0.87756658
2.1258488 1.309799 -0.68890375
2.1942956 1.351971 -0.57096094
2.1826172 1.3447754 -0.42739502
2.174432 1.3397325 -0.2846745
2.2211807 1.3685356 -0.14572506
2.2407424 1.3805882 0
2.2476256 1.3848293 0.14746003
2.2915466 1.415713 -0.88816035
2.1157274 1.3070923 -0.68613511
2.1796863 1.346606 -0.56758255
2.1744368 1.3433628 -0.42611068
2.1772084 1.3450751 -0.28525051
2.2239423 1.3739473 -0.14601505
2.241293 1.3846664 0
2.2393167 1.3834456 0.14702447
2.2562244 1.3976605 -0.87512404
2.1141465 1.3096478 -0.68613511
2.1737418 1.3465652 -0.56645781
2.172812 1.3459892 -0.42611068
2.1777866 1.3490709 -0.28553966
2.2267027 1.3793728 -0.14630561
2.2351892 1.38463 0
2.2354367 1.3847833 0.14687948
2.2650297 1.4069051 -0.87919807
2.104038 1.3069065 -0.68336648
2.1699569 1.3478514 -0.5658955
2.1777282 1.3526784 -0.42739502
2.1761549 1.3517013 -0.28553966
2.2272396 1.3834321 -0.14645061
2.2445662 1.3941944 0
2.2293429 1.3847387 0.14658892
2.2759118 1.4174783 -0.88408631
2.1088481 1.313428 -0.68544364
2.1769538 1.3558456 -0.568147
2.1717298 1.352592 -0.42653826
2.1679316 1.3502263 -0.2846745
2.2233629 1.3847499 -0.14630561
2.2318366 1.3900275 0
2.2320838 1.3901814 0.14687948
2.2972596 1.4346296 -0.89305168
2.0944879 1.3079994 -0.68128932
2.1839345 1.3638586 -0.57039857
2.1679187 1.3538567 -0.42611068
2.1728821 1.3569562 -0.28553966
2.2172759 1.38468 -0.14601505
2.2323606 1.3941004 0
2.2304022 1.3928775 0.14687948
2.2921972 1.4333938 -0.89142019
2.0851889 1.303944 -0.67852068
2.1701798 1.3570919 -0.56702018
2.1627514 1.3524466 -0.4252556
2.1632898 1.3527833 -0.28438649
2.2142379 1.384643 -0.14587004
2.2535882 1.4092501 0
2.2207477 1.3887138 0.14629892
2.1585467 1.353448 -0.84007972
2.1069944 1.3211238 -0.68613511
2.1749988 1.3637639 -0.56870937
2.1698153 1.3605137 -0.42696744
2.1726084 1.362265 -0.28582767
2.212563 1.3873174 -0.14587004
2.2320416 1.3995308 0
2.2256663 1.3955333 0.14673391
2.1841173 1.3731607 -0.85067666
2.1053965 1.3236687 -0.68613511
2.1798048 1.3704494 -0.57039857
2.1659901 1.3617642 -0.42653826
2.1665771 1.3621331 -0.28525051
2.213083 1.3913716 -0.14601505
2.2303488 1.4022267 0
2.2217808 1.3968399 0.14658892
2.1510918 1.3560269 -0.83845139
2.0910578 1.318182 -0.68198079
2.1738441 1.3703697 -0.56927174
2.1643431 1.3643804 -0.42653826
2.1605577 1.3619941 -0.2846745
2.1982155 1.3857331 -0.14514449
2.2352512 1.4090801 0
2.2222874 1.4009079 0.14673391
2.1369205 1.3507042 -0.83356315
2.0894635 1.3207077 -0.68198079
2.1700411 1.3716391 -0.56870937
2.1518455 1.3601381 -0.42439884
2.1567264 1.3632231 -0.28438649
2.1987338 1.3897753 -0.1452895
2.237951 1.4145637 0
2.220593 1.403592 0.14673391
2.1624241 1.3704842 -0.84415692
2.0984674 1.3299502 -0.68544364
2.1597974 1.3688195 -0.56645781
2.1632142 1.3709849 -0.42696744
2.1572602 1.3672113 -0.2846745
2.1992457 1.3938206 -0.1454345
2.2362401 1.4172667 0
2.2210965 1.4076691 0.14687948
2.1190457 1.3465838 -0.82785761
2.0989742 1.333829 -0.68613511
2.1581419 1.3714281 -0.56645781
2.1550541 1.3694659 -0.42568314
2.1556065 1.369817 -0.2846745
2.2019503 1.399267 -0.14572506
2.2147593 1.4074068 0
2.2106216 1.4047773 0.14629892
2.1132443 1.3464845 -0.82622612
2.0825486 1.3269264 -0.68128932
2.1586239 1.3753989 -0.56702018
2.1620576 1.3775867 -0.42739502
2.1583083 1.3751976 -0.28525051
2.1958709 1.3991313 -0.1454345
2.2086635 1.4072822 0
2.2133012 1.4102373 0.14658892
2.1428602 1.3689979 -0.83845139
2.085176 1.3321456 -0.68267494
2.161247 1.3807447 -0.568147
2.1517384 1.3746699 -0.42568314
2.1522899 1.3750223 -0.2846745
2.1919911 1.400386 -0.1452895
2.2135429 1.4141546 0
2.2072203 1.4101154 0.14629892
2.1391253 1.3702543 -0.83763719
2.0793359 1.3319551 -0.68128932
2.1574314 1.3819807 -0.56758255
2.1479163 1.3758856 -0.4252556
2.1506269 1.3776219 -0.2846745
2.1990495 1.4086399 -0.14587004
2.2162113 1.419633 0
2.1989486 1.4085753 0.14586335
2.0958757 1.3461244 -0.82133788
2.0798337 1.335821 -0.68198079
2.1579041 1.3859636 -0.568147
2.1484101 1.3798658 -0.42568314
2.1489608 1.3802195 -0.2846745
2.197346 1.411296 -0.14587004
2.2363958 1.4363768 0
2.2016137 1.414037 0.14615336
2.0755477 1.3366134 -0.81400394
2.0782182 1.3383331 -0.68198079
2.1540854 1.3871902 -0.56758255
2.1424289 1.3796836 -0.42482802
2.1472914 1.3828151 -0.2846745
2.1847179 1.406917 -0.14514449
2.2171543 1.4278054 0
2.1955383 1.4138851 0.14586335
2.1216819 1.3699527 -0.83274585
2.0639579 1.3326808 -0.67782915
2.1524076 1.3897921 -0.56758255
2.1429148 1.3836625 -0.4252556
2.1434481 1.384007 -0.28438649
2.1917481 1.4151938 -0.14572506
2.2044978 1.4234263 0
2.1850965 1.4108989 0.1452828
2.1138067 1.3684895 -0.83030325
2.07077 1.3406273 -0.68059784
2.1613977 1.3993001 -0.57039857
2.1476998 1.390432 -0.42653826
2.1352587 1.3823776 -0.28352132
2.1856699 1.415014 -0.1454345
2.2202535 1.4374037 0
2.1746652 1.4078896 0.14470224
2.132879 1.3844973 -0.83845139
2.079668 1.3499569 -0.68405795
2.1469135 1.3936074 -0.56702018
2.1503286 1.3958242 -0.42739502
2.1400974 1.3891828 -0.28438649
2.173063 1.4105815 -0.14470893
2.2119641 1.4358331 0
2.1860437 1.4190077 0.14557336
2.0877049 1.358762 -0.82133788
2.057013 1.3387865 -0.67713767
2.1431005 1.3948158 -0.56645781
2.1400344 1.3928202 -0.42568314
2.140583 1.3931773 -0.2846745
2.1757083 1.4160383 -0.14499894
2.1971362 1.4299843 0
2.188679 1.4244801 0.14586335
2.1005528 1.3707401 -0.82704341
2.0700946 1.3508643 -0.68198079
2.1243904 1.3862956 -0.56195474
2.1297507 1.3897935 -0.42397127
2.1323977 1.3915209 -0.28380933
2.1805263 1.4229276 -0.1454345
2.1954067 1.432638 0
2.1847823 1.425705 0.14571837
2.0740759 1.3570385 -0.81726384
2.0684609 1.3533646 -0.68198079
2.1482284 1.4055554 -0.56870937
2.1173313 1.3853397 -0.42183185
2.1307147 1.3940964 -0.28380933
2.1788054 1.4255613 -0.1454345
2.2132802 1.4481179 0
2.178705 1.4254957 0.14542781
2.0827658 1.3663208 -0.82133788
2.0668242 1.355863 -0.68198079
2.1422753 1.40536 -0.56758255
2.1306827 1.397755 -0.42482802
2.1311893 1.3980873 -0.28409737
2.1770811 1.428193 -0.1454345
2.1897643 1.4365132 0
2.1704693 1.4238554 0.1449928
2.0873103 1.3729124 -0.82378358
2.0609963 1.3556046 -0.68059784
2.1342132 1.4037626 -0.5658955
2.146142 1.4116086 -0.42825013
2.1316655 1.4020869 -0.28438649
2.1753538 1.4308225 -0.1454345
2.1815019 1.4348662 0
2.1817687 1.4350418 0.14586335
2.080286 1.3700936 -0.82133788
2.0538895 1.3527086 -0.67852068
2.1312368 1.4036502 -0.56533098
2.1217122 1.3973773 -0.42354372
2.1329761 1.4047958 -0.2846745
2.1701531 1.4292808 -0.14514449
2.1915081 1.4433453 0
2.1722209 1.4306427 0.1452828
2.074508 1.3698848 -0.81970954
2.0648186 1.3634865 -0.68267494
2.1274209 1.4048254 -0.56476861
2.1285908 1.4055982 -0.4252556
2.1291208 1.405948 -0.28438649
2.1640837 1.4290354 -0.14485393
2.1875844 1.4445541 0
2.1748316 1.4361328 0.14557336
2.0893302 1.3833009 -0.82622612
2.0422471 1.3521281 -0.67575204
2.1299632 1.4102031 -0.5658955
2.1311677 1.4110007 -0.42611068
2.1101673 1.3970968 -0.28208014
2.1601908 1.4302162 -0.14470893
2.1901815 1.4500724 0
2.1839259 1.4459306 0.14629892
2.0835426 1.3830931 -0.82459772
2.0510607 1.361531 -0.67921215
2.1240196 1.4099625 -0.56476861
2.1273246 1.4121563 -0.42568314
2.1235559 1.4096546 -0.28409737
2.1671207 1.4385737 -0.1452895
2.190594 1.4541558 0
2.1648579 1.4370717 0.1451378
2.0674651 1.3760225 -0.81889218
2.0682163 1.3765224 -0.68544364
2.1328886 1.4195657 -0.56758255
2.1192036 1.4104575 -0.42439884
2.1197 1.4107878 -0.28380933
2.1610503 1.438309 -0.14499894
2.1780047 1.4495932 0
2.1717725 1.4454453 0.14571837
2.0925257 1.396353 -0.82948595
2.0456796 1.3650924 -0.67852068
2.1290603 1.4207329 -0.56702018
2.1110981 1.4087465 -0.42311615
2.1007822 1.4018626 -0.28150299
2.1571515 1.4394783 -0.14485393
2.1914072 1.4623373 0
2.1721838 1.4495093 0.14586335
2.0600293 1.3782685 -0.81726384
2.0732243 1.3870966 -0.68821228
2.1146753 1.4148295 -0.56364393
2.1029916 1.4070126 -0.42183185
2.1098332 1.41159 -0.2829442
2.1640491 1.4478633 -0.1454345
2.1896386 1.4649841 0
2.1596346 1.4449097 0.1451378
2.0173109 1.3532192 -0.80096453
2.0465455 1.3728299 -0.67990631
2.1129642 1.4173837 -0.56364393
2.1098173 1.4152727 -0.42354372
2.1081259 1.4141383 -0.2829442
2.1558225 1.4461331 -0.14499894
0 0 0
2.157887 1.4475181 0.1451378
2.0402853 1.372208 -0.81074411
2.0407178 1.3724989 -0.67852068
2.1196835 1.4256078 -0.5658955
2.1123619 1.4206835 -0.42439884
2.1171532 1.423906 -0.28438649
2.1562359 1.4501913 -0.14514449
2.1515396 1.4470328 0
2.1518199 1.4472214 0.14484724
2.0550196 1.3857268 -0.81726384
2.0349019 1.3721611 -0.67713767
2.1137419 1.4253241 -0.56476861
2.1255445 1.4332827 -0.42739502
2.1154311 1.4264631 -0.28438649
2.1480167 1.448436 -0.14470893
2.1519454 1.4510851 0
2.1586874 1.4556314 0.14542781
2.0656252 1.3965122 -0.82215208
2.037395 1.3774265 -0.67852068
2.1162322 1.4307261 -0.5658955
2.1323178 1.441601 -0.42910689
2.1137059 1.4290181 -0.28438649
2.1376543 1.445209 -0.14412838
2.1415663 1.4478538 0
2.1504753 1.4538767 0.1449928
2.1007664 1.4239717 -0.83682299
2.0502677 1.389742 -0.68336648
2.1081901 1.4290037 -0.5642063
2.107198 1.4283314 -0.42439884
2.0991278 1.4228609 -0.28265616
2.1595683 1.4638298 -0.14572506
2.1462801 1.4548224 0
2.1487169 1.4564742 0.1449928
2.0315871 1.3806651 -0.80992991
2.0444331 1.3893954 -0.68198079
2.119067 1.4401165 -0.56758255
2.1160846 1.4380896 -0.42653826
2.0974069 1.4253962 -0.28265616
0 0 -0
2.1531305 1.463266 0
2.1491024 1.4605285 0.1451378
2.066679 1.4081671 -0.82459772
2.0489745 1.3961039 -0.68405795
2.111032 1.4383879 -0.5658955
2.1143453 1.4406455 -0.42653826
2.099962 1.4308451 -0.28323331
2.1152227 1.4412432 -0.14296727
2.1449068 1.4614689 0
2.1494815 1.464586 0.1452828
2.0711005 1.4148471 -0.82704341
2.0307138 1.3872575 -0.67852068
2.0988042 1.4337726 -0.56308162
2.093528 1.4301682 -0.42268696
2.0939562 1.4304607 -0.28265616
2.1113362 1.4423337 -0.14282227
2.1409924 1.462593 0
2.139128 1.4613192 0.14470224
2.0653071 1.4145527 -0.82541192
2.0269682 1.388294 -0.67782915
2.0991645 1.437742 -0.56364393
2.10027 1.4384992 -0.42439884
2.09863 1.4373759 -0.28352132
2.1095917 1.4448837 -0.14282227
2.130635 1.4592963 0
2.1395023 1.4653698 0.14484724
2.0595255 1.4142516 -0.82378358
2.0480406 1.4063652 -0.68544364
2.0974257 1.4402773 -0.56364393
2.0879517 1.4337715 -0.42225939
2.0947616 1.4384478 -0.28323331
2.1035562 1.4444871 -0.14253171
2.139595 1.4692345 0
2.1313102 1.4635453 0.14441225
2.0761352 1.4293519 -0.83111745
2.0298085 1.3974576 -0.67990631
2.0977747 1.4442501 -0.5642063
2.0967877 1.4435705 -0.42439884
2.0930221 1.4409779 -0.28323331
2.1103704 1.4529217 -0.14311226
2.1292436 1.4659154 0
2.1338167 1.4690638 0.14470224
2.0499976 1.4150112 -0.82133788
2.0301812 1.401333 -0.68059784
2.0960281 1.4467838 -0.5642063
2.0887101 1.4417324 -0.42311615
2.093406 1.4449738 -0.28352132
2.1128943 1.4584256 -0.14340281
2.1296108 1.4699641 0
2.1341765 1.4731157 0.14484724
2.0503166 1.4188923 -0.82215208
2.0264256 1.4023588 -0.67990631
2.1005485 1.4536545 -0.5658955
2.093293 1.4486334 -0.42439884
2.0916584 1.4475021 -0.28352132
2.1089959 1.4595003 -0.14325783
2.1620734 1.4962319 0
2.1302602 1.4742161 0.14470224
2.049459 1.4201307 -0.82215208
2.0338264 1.4092983 -0.68267494
2.095489 1.4520261 -0.56476861
2.0860934 1.4455158 -0.42311615
2.0886595 1.4472939 -0.28323331
2.1081138 1.4607743 -0.14325783
2.1290882 1.4753081 0
2.1357787 1.4799441 0.1451378
2.0660083 1.4352962 -0.82948595
2.0156391 1.4003037 -0.67713767
2.1062574 1.4632581 -0.568147
2.0948846 1.4553571 -0.4252556
2.0826569 1.4468623 -0.28265616
2.0956709 1.4559034 -0.14253171
2.1208899 1.4734236 0
2.1297169 1.4795557 0.14484724
2.05616 1.4321411 -0.82622612
2.0139456 1.4027382 -0.67713767
2.0836339 1.451277 -0.56251711
2.0910201 1.4564215 -0.42482802
2.0809071 1.4493778 -0.28265616
2.0960486 1.459924 -0.14267726
2.1148329 1.4730074 0
2.1321959 1.4851011 0.1451378
2.0645659 1.4417039 -0.83030325
1.9999039 1.3965498 -0.67298335
2.0818789 1.4537936 -0.56251711
2.0829425 1.4545364 -0.42354372
2.0727904 1.4474471 -0.28179103
2.0964115 1.4639418 -0.14282227
2.1279898 1.4859933 0
2.1282716 1.4861901 0.1449928
2.0668681 1.4470298 -0.83193165
2.0084968 1.4061636 -0.6764462
2.0863671 1.4606812 -0.5642063
2.0832844 1.458523 -0.42397127
2.0689232 1.4484686 -0.28150299
2.088253 1.4620017 -0.1423867
2.1581738 1.5109537 0
2.1243396 1.4872661 0.14484724
2.083323 1.4623045 -0.83926553
2.0026853 1.405704 -0.67506051
2.0825229 1.4617428 -0.56364393
2.087826 1.4654651 -0.4252556
2.0735245 1.4554268 -0.28236815
2.0928676 1.4690038 -0.14282227
2.1158719 1.4851508 0
2.1182914 1.486849 0.14455724
2.119961 1.4918478 -0.85475069
2.0276551 1.4268909 -0.68405795
2.0807552 1.4642581 -0.56364393
2.0671616 1.454692 -0.4214043
2.0802255 1.4638852 -0.28352132
2.0910909 1.4715315 -0.14282227
2.1162021 1.4892026 0
2.1228704 1.4938952 0.1449928
2.1585405 1.5228997 -0.87104684
2.0074823 1.4163247 -0.67782915
2.0831327 1.469698 -0.56476861
2.0779839 1.4660652 -0.42397127
2.0657704 1.4574484 -0.28179103
2.0935538 1.4770502 -0.14311226
2.1122768 1.4902596 0
2.114692 1.4919637 0.14455724
2.1728413 1.5369251 -0.87756658
2.0057695 1.4187493 -0.67782915
2.0709853 1.4648788 -0.56195474
2.0699215 1.4641263 -0.42268696
2.0682352 1.4629335 -0.28236815
2.0960145 1.4825827 -0.14340281
2.1040983 1.4883008 0
2.1192539 1.4990209 0.1449928
2.2012265 1.5609968 -0.88979185
2.0142839 1.4284266 -0.68128932
2.0733631 1.4703226 -0.56308162
2.0911868 1.4829621 -0.42739502
2.0749052 1.4714162 -0.28352132
2.0878606 1.4806036 -0.14296727
2.1214025 1.5043896 0
2.1174412 1.5015805 0.1449928
2.2618449 1.6122131 -0.91586757
2.0067441 1.4303807 -0.67990631
2.0594525 1.4679505 -0.56026554
2.0771468 1.4805628 -0.4252556
2.0565979 1.4659158 -0.28150299
2.0906265 1.4901708 -0.14340281
2.1156435 1.5080028 0
2.1159201 1.5081999 0.1451378
2.2719646 1.6235698 -0.92075896
1.9968497 1.4269699 -0.67713767
2.0680196 1.4778286 -0.56308162
2.0649154 1.4756104 -0.42311615
2.0569274 1.4699022 -0.28179103
2.0803678 1.4866527 -0.14282227
2.1159353 1.5120696 0
2.1140962 1.5107555 0.1451378
2.2700012 1.6263139 -0.92075896
1.995124 1.4293816 -0.67713767
2.068296 1.4818047 -0.56364393
2.0547838 1.4721241 -0.4214043
2.0530493 1.4708816 -0.28150299
2.0806801 1.4906772 -0.14296727
2.1141067 1.5146252 0
2.1017098 1.5057437 0.14441225
2.2800753 1.6377041 -0.9256472
1.9893162 1.4288614 -0.67575204
2.0541177 1.4754062 -0.56026554
2.0634265 1.4820923 -0.42354372
2.0512707 1.4733611 -0.28150299
2.0725441 1.4886413 -0.14253171
2.1207299 1.5232515 0
2.1104391 1.5158601 0.1451378
2.2500188 1.6202404 -0.91423923
1.9957317 1.4371281 -0.67852068
2.0564613 1.4808595 -0.56139243
2.0512202 1.4770855 -0.4214043
2.0599813 1.4833944 -0.2829442
2.0623093 1.4850707 -0.14195114
2.0956628 1.5090886 0
2.0938435 1.5077785 0.14412169
2.177927 1.5723267 -0.88571781
1.9756889 1.4263235 -0.67229187
2.0526123 1.4818574 -0.56083006
2.0660849 1.4915837 -0.42482802
2.0519023 1.4813448 -0.28208014
2.0605135 1.4875615 -0.14195114
2.1043863 1.519235 0
2.0962379 1.5133523 0.14441225
2.1419899 1.550323 -0.87186414
1.9922529 1.4419467 -0.67852068
2.0549331 1.4873132 -0.56195474
2.060118 1.491066 -0.42397127
2.0563908 1.4883682 -0.2829442
2.0713482 1.4991941 -0.14282227
2.1004429 1.5202521 0
2.0965106 1.5174061 0.14455724
2.1041033 1.5267791 -0.85719323
1.9905092 1.444353 -0.67852068
2.0613606 1.4957641 -0.5642063
2.0520797 1.4890298 -0.42268696
2.0504079 1.4878167 -0.28236815
2.0779476 1.5078001 -0.14340281
2.1070299 1.5289028 0
2.0925746 1.5184137 0.14441225
2.0931845 1.5207876 -0.85311919
1.9815177 1.4396569 -0.67575204
2.0460651 1.4865533 -0.56026554
2.0491049 1.4887618 -0.42225939
2.0515993 1.490574 -0.28265616
2.062319 1.4983624 -0.1423867
2.1061058 1.5301754 0
2.0937569 1.5212035 0.14455724
2.1153193 1.5407779 -0.86289877
1.9716653 1.4361417 -0.67298335
2.0524826 1.4950083 -0.56251711
2.0618312 1.5018179 -0.4252556
2.0372565 1.483918 -0.28092697
2.0584087 1.4993249 -0.1422417
2.1147714 1.5403789 0
2.0961139 1.5267891 0.14484724
2.0895033 1.5258415 -0.85311919
1.986137 1.4503592 -0.67852068
2.0547826 1.5004871 -0.56364393
2.0455012 1.4937093 -0.42225939
2.037549 1.4879023 -0.28121498
2.067086 1.5094715 -0.14296727
2.1213157 1.5490723 0
2.1026616 1.5354503 0.14542781
2.089658 1.5298294 -0.85393649
1.9681889 1.4409024 -0.67298335
2.0447674 1.4969651 -0.56139243
2.0354095 1.4901142 -0.42054754
2.0378346 1.4918896 -0.28150299
2.0547795 1.5042949 -0.1422417
2.1173446 1.5500985 0
2.0966156 1.534923 0.1451378
2.0778396 1.5250369 -0.8498593
1.9886956 1.4596094 -0.68059784
2.0491042 1.5039464 -0.56308162
2.0418854 1.4986482 -0.42225939
2.0422878 1.4989434 -0.28236815
2.0613394 1.5129265 -0.14282227
2.1049738 1.544952 0
2.0821867 1.5282273 0.14426668
2.0680325 1.5216872 -0.84659946
1.9909681 1.4649822 -0.68198079
2.0411439 1.5019021 -0.56139243
2.0359418 1.4980744 -0.4214043
2.038394 1.4998786 -0.28208014
2.0657907 1.5200375 -0.14325783
2.109396 1.5521231 0
2.094991 1.5415237 0.1452828
2.0642052 1.522719 -0.84578526
1.97507 1.4569659 -0.67713767
2.0291057 1.496827 -0.55857855
2.0444572 1.5081514 -0.42354372
2.0344927 1.5008007 -0.28179103
2.0534911 1.5148154 -0.14253171
2.0991416 1.5484909 0
2.0847626 1.5378838 0.14470224
2.0405102 1.5090504 -0.83682299
1.9773384 1.462332 -0.67852068
2.0211649 1.4947437 -0.55688936
2.0323155 1.5029901 -0.4214043
2.0264449 1.4986485 -0.28092697
2.0579288 1.5219322 -0.14296727
2.0805295 1.5386465 0
2.0891724 1.5450383 0.1451378
2.0148599 1.4938504 -0.82704341
1.9796045 1.4677113 -0.67990631
2.035686 1.5092912 -0.56139243
2.030498 1.5054446 -0.4214043
2.0350192 1.5087968 -0.28236815
2.0665231 1.5321542 -0.14369282
2.0933049 1.5520107 0
2.0977387 1.555298 0.14586335
2.0249517 1.5051277 -0.83193165
1.9717872 1.465611 -0.67782915
2.0318236 1.5102355 -0.56083006
2.0389769 1.5155524 -0.42354372
2.0352685 1.512796 -0.28265616
2.0709286 1.5393019 -0.14412838
2.0976963 1.559198 0
2.0875161 1.5516312 0.1452828
0 0 -0
1.9700149 1.4679924 -0.67782915
2.0320327 1.5142063 -0.56139243
2.0330234 1.5149443 -0.42268696
2.0292952 1.5121663 -0.28208014
2.064904 1.5387008 -0.14383838
2.0874634 1.5555114 0
2.0877213 1.5557035 0.14542781
1.9678519 1.470082 -0.80992991
1.9762791 1.4763776 -0.68059784
2.028168 1.5151412 -0.56083006
2.0270822 1.51433 -0.42183185
2.0212481 1.5099717 -0.28121498
2.0588758 1.5380814 -0.14354782
2.096005 1.5658188 0
2.0900073 1.5613382 0.14571837
0 0 -0
1.9604355 1.4682359 -0.67575204
2.0283678 1.5191125 -0.56139243
2.0252509 1.5167782 -0.42183185
2.0132096 1.50776 -0.28034982
2.0466187 1.5327812 -0.14282227
2.0920305 1.5667917 0
2.0798001 1.5576319 0.1451378
0 0 -0
1.9626763 1.4736191 -0.67713767
2.0224628 1.5185081 -0.56026554
2.0110958 1.5099734 -0.41926321
2.015527 1.5133004 -0.28092697
2.0468411 1.5368118 -0.14296727
2.1005397 1.5771298 0
2.0924561 1.5710604 0.14615336
1.9921249 1.4994972 -0.82215208
1.9608943 1.4759895 -0.67713767
2.0165703 1.5178975 -0.55914086
2.0318325 1.5293856 -0.42397127
2.0178258 1.5188426 -0.28150299
2.0429087 1.5377227 -0.14282227
2.0965552 1.5781032 0
2.0801778 1.5657758 0.14542781
1.933099 1.4587302 -0.79851884
1.9591094 1.4783578 -0.67713767
2.0187874 1.5233911 -0.56026554
2.0217867 1.5256544 -0.42225939
2.0077307 1.5150478 -0.28034982
2.0368967 1.5370567 -0.14253171
2.0884128 1.575931 0
2.0845089 1.5729851 0.14586335
1.9313351 1.4610648 -0.79851884
1.9673235 1.4882903 -0.68059784
2.0068152 1.5181659 -0.55745167
2.021987 1.5296435 -0.42268696
2.0120888 1.5221555 -0.28121498
2.0516162 1.5520582 -0.14369282
2.0823519 1.5753099 0
2.0805364 1.5739365 0.14571837
1.9216909 1.4574233 -0.795259
1.9735194 1.4967303 -0.68336648
2.0130775 1.5267314 -0.55970323
2.0099123 1.524331 -0.42054754
2.0164325 1.529276 -0.28208014
2.0435343 1.54983 -0.14325783
2.0742321 1.5731115 0
2.0848384 1.5811553 0.14615336
1.9238673 1.4627389 -0.7968905
1.9697144 1.497597 -0.68267494
2.0112312 1.5291626 -0.55970323
2.0060275 1.5252062 -0.42011997
2.0145833 1.5317113 -0.28208014
2.0540669 1.5617312 -0.14412838
2.0785389 1.5803375 0
2.0787933 1.5805309 0.14586335
1.9181634 1.462063 -0.795259
1.97189 1.5030146 -0.68405795
2.009382 1.5315918 -0.55970323
2.0164289 1.536963 -0.42268696
2.010668 1.532572 -0.28179103
2.039783 1.5547639 -0.14325783
2.0890508 1.5923167 0
2.0830836 1.5877687 0.14629892
1.9262204 1.4718874 -0.79933614
1.968081 1.5038743 -0.68336648
2.0115716 1.537107 -0.56083006
2.0084569 1.5347269 -0.4214043
1.9964877 1.5255809 -0.28006181
2.0440907 1.5619559 -0.14369282
2.1036682 1.607481 0
2.0811636 1.5902845 0.14629892
1.9253309 1.4730508 -0.79933614
1.975142 1.5111609 -0.68613511
2.0106428 1.538322 -0.56083006
2.0136399 1.5406151 -0.42268696
1.9996781 1.5299331 -0.28063896
2.0472782 1.5663515 -0.14398338
2.0840962 1.5945206 0
2.0863876 1.5962738 0.14673391
1.9255089 1.4768789 -0.80015033
1.9713259 1.5120209 -0.68544364
2.002732 1.5361097 -0.55914086
2.005672 1.5383646 -0.4214043
2.0019288 1.5354935 -0.28121498
2.0474439 1.5704039 -0.14412838
2.1028144 1.6128734 0
2.0885849 1.6019595 0.14702447
1.9198004 1.4761883 -0.79851884
1.9754581 1.5189852 -0.68751812
2.0069194 1.5431764 -0.56083006
1.9997377 1.5376544 -0.42054754
1.9939187 1.53318 -0.28034982
2.0270078 1.5586231 -0.14282227
2.0843592 1.6027222 0
2.0825241 1.6013111 0.14673391
1.9336755 1.4905787 -0.80503857
1.9696512 1.5183105 -0.68613511
1.9970036 1.5393952 -0.55857855
2.0039797 1.5447727 -0.42183185
1.9961656 1.5387493 -0.28092697
2.0456989 1.5769322 -0.14427337
2.0741763 1.598884 0
2.0826516 1.6054173 0.14687948
1.9025432 1.4702485 -0.79281646
0 0 -0
1.9971507 1.5433593 -0.55914086
1.9899204 1.5377719 -0.41926321
1.9963496 1.5427402 -0.28121498
2.0417378 1.5778154 -0.14412838
2.0907743 1.6157098 0
2.0827644 1.6095198 0.14702447
1.9007653 1.4725463 -0.79281646
1.9739093 1.5292118 -0.68890375
1.9992979 1.5488806 -0.56026554
1.9941508 1.5448931 -0.42054754
1.9944839 1.5451512 -0.28121498
2.0295613 1.5723261 -0.14340281
2.0785358 1.6102672 0
2.0787659 1.6104455 0.14687948
1.9126433 1.4854499 -0.79851884
1.9740396 1.5331331 -0.68959528
1.9934151 1.5481812 -0.55914086
2.0064766 1.5583253 -0.42354372
1.9905747 1.5459751 -0.28092697
2.0440776 1.587528 -0.14456393
2.0765884 1.6127775 0
2.07271 1.6097653 0.14658892
1.9147512 1.4907995 -0.80015033
1.970208 1.5339775 -0.68890375
1.995549 1.5537076 -0.56026554
2.0045922 1.5607486 -0.42354372
1.9907441 1.5499667 -0.28121498
2.0401018 1.5883958 -0.14441837
2.0828521 1.6216807 0
2.081013 1.6202487 0.14731447
1.883721 1.4702992 -0.78792506
1.9545076 1.5255501 -0.68405795
1.9976799 1.5592475 -0.56139243
1.9743781 1.5410597 -0.41755301
1.9929438 1.5555508 -0.28179103
2.044328 1.5956576 -0.14485393
2.0808911 1.6241963 0
2.0811079 1.6243654 0.14746003
1.8916813 1.4801942 -0.79200226
1.9566182 1.5310057 -0.68544364
1.9817848 1.5506979 -0.55745167
1.9967673 1.5624214 -0.42268696
1.9849576 1.5531806 -0.28092697
2.040354 1.5965269 -0.14470893
2.0891733 1.6347268 0
2.0770915 1.625273 0.14731447
1.8898915 1.4824789 -0.79200226
1.9567388 1.5349157 -0.68613511
1.9839119 1.5562309 -0.55857855
1.9928601 1.5632502 -0.42225939
1.9851125 1.5571728 -0.28121498
2.0241101 1.5877633 -0.14369282
2.0892422 1.6388546 0
2.0894394 1.6390094 0.14833058
1.9036341 1.4969779 -0.79851884
1.9430467 1.5279713 -0.68198079
1.98203 1.5586269 -0.55857855
1.9869379 1.5624864 -0.4214043
1.9791672 1.5563756 -0.28063896
2.0283196 1.5950282 -0.14412838
2.0954432 1.6478127 0
2.089498 1.6431375 0.14847559
1.9037704 1.5008116 -0.79933614
1.9471114 1.5349789 -0.68405795
1.9761506 1.5578716 -0.55745167
1.9749628 1.5569352 -0.41926321
1.9833729 1.5635651 -0.28150299
2.0304682 1.600692 -0.14441837
2.081192 1.6406795 0
2.0854723 1.6440539 0.14833058
1.8864424 1.4908508 -0.79281646
1.9491956 1.5404445 -0.68544364
1.9662929 1.5539564 -0.55520016
1.9670439 1.5545499 -0.41798055
1.9774276 1.5627562 -0.28092697
2.0326138 1.6063697 -0.14470893
2.0894153 1.6512597 0
2.085521 1.6481822 0.14847559
1.8923888 1.4992685 -0.7960763
1.9532264 1.5474679 -0.68751812
1.9644138 1.5563312 -0.55520016
1.979243 1.5680798 -0.42097509
1.9795886 1.5683537 -0.28150299
2.0245593 1.6039822 -0.14427337
2.0792589 1.6473186 0
2.0876055 1.6539313 0.14876615
1.8789595 1.4923279 -0.79118496
1.9513552 1.5498269 -0.68751812
1.9704906 1.5650247 -0.55745167
1.9874036 1.5784576 -0.42311615
1.9797156 1.5723516 -0.28179103
2.036865 1.6177413 -0.1452895
2.073195 1.6465957 0
2.0856054 1.6564525 0.14876615
1.886821 1.5022933 -0.795259
1.9435989 1.5475 -0.68544364
1.9685981 1.5674045 -0.55745167
1.9634022 1.5632675 -0.4184081
1.9717498 1.5699139 -0.28092697
2.0288084 1.6153442 -0.14485393
2.0691698 1.6474801 0
2.0795329 1.6557312 0.14847559
1.8946686 1.5122858 -0.79933614
1.9476043 1.554538 -0.68751812
1.9627348 1.5666149 -0.55632699
1.9715415 1.5736443 -0.42054754
1.9718709 1.5739071 -0.28121498
2.0491965 1.6356268 -0.14645061
2.0753059 1.656467 0
2.0897198 1.6679717 0.14934671
1.8889765 1.5114827 -0.79770464
1.937889 1.5506206 -0.68474948
1.9588507 1.5673933 -0.55576247
1.9676362 1.5744231 -0.42011997
1.9760283 1.5811381 -0.28208014
2.039103 1.6316079 -0.14587004
2.085499 1.6687322 0
2.0897298 1.6721174 0.14949171
1.8803473 1.5064423 -0.7944448
1.9408715 1.5549313 -0.68613511
1.9638543 1.573344 -0.55745167
1.9626739 1.5723983 -0.41926321
1.9730483 1.5807098 -0.28179103
2.0462284 1.6393381 -0.14645061
2.0885489 1.6732432 0
2.0948048 1.6782551 0.14992726
1.8708175 1.5025225 -0.79118496
1.9331212 1.5525609 -0.68405795
1.963931 1.5773053 -0.55801404
1.9727854 1.5844165 -0.42183185
1.9711369 1.5830927 -0.28179103
2.0300627 1.6304181 -0.1454345
2.0763819 1.6676189 0
2.0907438 1.6791533 0.1497817
1.8612999 1.4985819 -0.78792506
1.9312439 1.5548955 -0.68405795
1.9620237 1.5796772 -0.55801404
1.9608736 1.5787513 -0.41969243
1.9732558 1.5887204 -0.28236815
2.0422609 1.6442783 -0.14645061
2.0784235 1.6733938 0
2.098839 1.6898308 0.15050782
1.8691099 1.5085959 -0.79200226
1.9293636 1.557228 -0.68405795
1.9522047 1.5756633 -0.55576247
1.9509742 1.5746703 -0.41798055
1.969324 1.5894806 -0.28208014
2.0443127 1.6500057 -0.14674062
2.0966477 1.6922463 0
2.1028557 1.6972569 0.15094282
1.874964 1.5170659 -0.795259
1.931385 1.5627172 -0.68544364
1.948326 1.5764244 -0.55520016
1.9490701 1.5770265 -0.41798055
1.9694108 1.5934844 -0.28236815
2.0281832 1.6410382 -0.14572506
2.0925803 1.693143 0
2.0987854 1.6981636 0.15079783
1.8750546 1.5208918 -0.7960763
1.935335 1.5697863 -0.68751812
1.9444482 1.5771782 -0.55463779
1.9591215 1.58908 -0.42054754
1.9755189 1.6023803 -0.28352132
2.0463755 1.6598533 -0.14717616
2.0844674 1.6907504 0
2.102788 1.7056106 0.15123338
1.8636291 1.5153613 -0.79200226
1.9334368 1.5721236 -0.68751812
1.9445107 1.5811281 -0.55520016
1.9492331 1.584968 -0.41883567
1.9735813 1.6047661 -0.28352132
2.0423543 1.6606871 -0.14703117
2.0723288 1.68506 0
2.1087899 1.7147075 0.15181394
1.8617967 1.5176121 -0.79200226
1.9179293 1.5633676 -0.68267494
1.9485091 1.5882943 -0.55688936
1.9552755 1.5938098 -0.42054754
1.9736438 1.6087823 -0.28380933
2.0403461 1.6631536 -0.14703117
2.0924749 1.7056456 0
2.1026845 1.7139676 0.15152338
1.8618736 1.521423 -0.79281646
1.9238095 1.5720336 -0.68544364
1.9524931 1.5954723 -0.55857855
1.9513625 1.5945485 -0.42011997
1.9676965 1.6078957 -0.28323331
2.0443656 1.6705456 -0.14746617
2.0904124 1.7081727 0
2.1146986 1.7280179 0.15253949
1.8562063 1.5205361 -0.79118496
1.9160845 1.5695862 -0.68336648
1.9485925 1.5962156 -0.55801404
1.9633372 1.6082938 -0.42311615
1.9637456 1.6086284 -0.2829442
2.0423455 1.6730146 -0.14746617
2.1004303 1.7205955 0
2.1186414 1.7355133 0.15297505
1.865832 1.5321921 -0.7960763
1.9103053 1.5687129 -0.68198079
1.9427389 1.5953469 -0.55688936
1.9554389 1.605776 -0.42183185
1.951808 1.6027944 -0.28150299
2.0403225 1.6754811 -0.14746617
2.0862784 1.7132194 0
2.1165428 1.738072 0.15297505
1.8735185 1.5422983 -0.80015033
1.9142209 1.5758049 -0.68405795
1.9466968 1.6025394 -0.55857855
1.9495295 1.6048714 -0.42097509
1.9558625 1.6100848 -0.28236815
2.030272 1.6713394 -0.1468856
2.0781848 1.7107816 0
2.1144412 1.7406281 0.15297505
1.8659327 1.53984 -0.79770464
1.9161891 1.5813135 -0.68544364
1.9427936 1.6032685 -0.55801404
1.9436328 1.6039611 -0.42011997
1.9638883 1.6206766 -0.28380933
2.0362675 1.6804069 -0.14746617
2.1002033 1.7331691 0
2.1283617 1.7564065 0.15413561
1.852648 1.5326437 -0.79281646
1.914277 1.5836277 -0.68544364
1.9310678 1.5975183 -0.55520016
1.9436694 1.6079432 -0.42054754
1.9599376 1.6214013 -0.28352132
2.0442522 1.6911525 -0.14819229
2.1041176 1.7406775 0
2.1222374 1.7556676 0.15384561
1.8641068 1.545921 -0.79851884
1.9142914 1.5875394 -0.68613511
1.9350055 1.604718 -0.55688936
1.9357953 1.6053729 -0.41926321
1.9559879 1.6221188 -0.28323331
2.0502079 1.7002562 -0.14877284
2.0899971 1.7332538 0
2.126117 1.7632084 0.15428117
1.8660634 1.5551698 -0.80096453
1.9104493 1.5921609 -0.68613511
1.935022 1.6126398 -0.55801404
1.9457161 1.6215521 -0.42225939
1.9600099 1.6334646 -0.28438649
2.044091 1.7035375 -0.14862728
2.0918021 1.7432996 0
2.1398129 1.7833117 0.15558729
1.8584907 1.552668 -0.79851884
1.9085242 1.5944682 -0.68613511
1.9369757 1.618238 -0.55914086
1.9595156 1.6370687 -0.42568314
1.9580348 1.6358317 -0.28438649
2.0480154 1.7110056 -0.14906284
2.105664 1.7591679 0
2.1436408 1.7908955 0.15602285
1.8660929 1.5628518 -0.80259603
1.9046746 1.5951638 -0.68544364
1.9330728 1.6189474 -0.55857855
1.9358858 1.6213032 -0.42097509
1.9639884 1.6448392 -0.28553966
2.0439563 1.7118123 -0.14891784
2.1175053 1.7734095 0
2.153424 1.8034914 0.1568934
1.8660944 1.5666931 -0.80341023
1.8988993 1.5942348 -0.68405795
1.9350035 1.6245463 -0.55970323
1.9457253 1.6335479 -0.42354372
1.9580339 1.6438817 -0.28496251
2.0558112 1.7259713 -0.1499334
2.1133697 1.774295 0
2.1671638 1.8194584 0.15805452
1.8670377 1.5694091 -0.80422437
1.9017804 1.5986134 -0.68544364
1.9398586 1.6306216 -0.56139243
1.9506352 1.6396801 -0.42482802
1.9590185 1.6467271 -0.28525051
2.0527811 1.7255427 -0.14978839
2.1342132 1.7939936 0
2.1859512 1.837484 0.15950564
1.8689237 1.5748522 -0.80585587
1.9017639 1.6025252 -0.68613511
1.932056 1.6280508 -0.55970323
1.9466838 1.6403769 -0.42439884
1.9530753 1.6457628 -0.2846745
2.0685761 1.7430897 -0.15109451
2.1419928 1.8049544 0
2.1916776 1.8468214 0.16008618
1.8877833 1.5946491 -0.81481814
1.9094069 1.6129149 -0.68959528
1.926209 1.627108 -0.55857855
1.9388227 1.6377631 -0.42311615
1.9570148 1.6531303 -0.28553966
2.068459 1.7472695 -0.15124007
2.1497488 1.8159367 0
2.1993678 1.8578507 0.16081175
1.8858551 1.596929 -0.81481814
1.9036312 1.6119815 -0.68821228
1.928116 1.632715 -0.55970323
1.9309634 1.6351262 -0.42183185
1.9569879 1.6571636 -0.28582767
2.0782404 1.7598395 -0.15211064
2.1455688 1.8168527 0
2.2050531 1.8672236 0.1613923
1.8876964 1.6024085 -0.81644964
1.9055036 1.6175245 -0.68959528
1.9300196 1.6383355 -0.56083006
1.948553 1.6540679 -0.42611068
1.9668113 1.6695669 -0.28755686
2.0939393 1.7774819 -0.15341675
2.1513083 1.8261807 0
2.2186432 1.8833393 0.16255343
1.8669318 1.5886674 -0.80829841
1.9092815 1.624705 -0.69167238
1.9222314 1.6357247 -0.55914086
1.9465529 1.6564211 -0.42611068
1.9726719 1.678647 -0.28871003
2.1135602 1.7985361 -0.15501343
2.1649487 1.8422651 0
2.2282434 1.8961258 0.16342454
1.8725325 1.5973383 -0.81155831
1.8996823 1.6204981 -0.68890375
1.9299172 1.6462896 -0.56195474
1.950411 1.6637715 -0.42739502
1.9627709 1.674315 -0.28755686
2.1173105 1.8061428 -0.15544842
2.1904445 1.8685288 0
3.342834 2.8515589 0.24542373
1.8630872 1.5931745 -0.80829841
1.9015325 1.6260501 -0.69028676
1.9240681 1.6453208 -0.56083006
1.9542542 1.6711336 -0.42867932
1.9745086 1.6884538 -0.28957519
2.0993354 1.7951964 -0.15428786
2.2752068 1.9455886 0
3.3532119 2.867419 0.24643986
1.8667921 1.6002518 -0.81074411
1.8938577 1.6234529 -0.68821228
1.9317224 1.6559113 -0.56364393
1.9522334 1.6734937 -0.42867932
1.9783601 1.6958901 -0.29044035
2.116889 1.8146398 -0.15573898
2.4111626 2.0668972 0
0 0 0
1.8686028 1.6057248 -0.81237251
1.8995057 1.6322803 -0.69098091
1.9200864 1.6499658 -0.56083006
1.9502099 1.6758515 -0.42867932
1.9880759 1.7083904 -0.29216954
2.1265156 1.8273542 -0.15660954
2.4876096 2.1376488 0
3.3718908 2.8975282 0.24832653
1.8610487 1.6031468 -0.80992991
1.8937268 1.6312965 -0.68959528
1.9315616 1.6638882 -0.56476861
1.9559634 1.6849083 -0.43039119
1.9820946 1.7074183 -0.29159352
2.1420226 1.8451838 -0.15791565
2.5303779 2.1797211 0
3.3388546 2.8761601 0.2461493
1.8703307 1.6150835 -0.81481814
1.8955556 1.636866 -0.69098091
1.9333997 1.6695454 -0.5658955
1.9636388 1.6956577 -0.43253061
1.9937278 1.7216403 -0.29361072
2.1633916 1.86815 -0.15965733
2.5198634 2.1759734 0
3.339314 2.8835921 0.24643986
1.853428 1.6044012 -0.80829841
1.8992614 1.6440763 -0.69305539
1.9294542 1.6702125 -0.56533098
1.9771156 1.7114701 -0.43595436
1.9955609 1.727437 -0.29418787
2.1964996 1.9013777 -0.16227011
2.513293 2.1756067 0
3.3338645 2.885926 0.24629486
1.8477582 1.6034029 -0.80667007
1.9010667 1.6496617 -0.69444108
1.9370357 1.680874 -0.568147
2.0021865 1.737409 -0.44194508
2.0169144 1.7501892 -0.29764739
2.2059722 1.9142452 -0.16314067
10.565366 9.1681566 0
3.330375 2.8899522 0.24629486
1.8532786 1.6121229 -0.80992991
1.8952827 1.6486613 -0.69305539
1.9254124 1.6748704 -0.56533098
1.9904034 1.7314045 -0.43980566
2.0304024 1.7661988 -0.2999526
2.2585516 1.9646603 -0.16720457
10.544456 9.1723709 0
3.3209972 2.8888564 0.2458593
1.8494611 1.6127319 -0.80911261
1.8989636 1.6558982 -0.69513255
1.9367945 1.6888868 -0.56927174
2.0057211 1.7489909 -0.44365695
2.0380197 1.7771553 -0.30139491
2.3482172 2.0476477 -0.17402571
10.513755 9.168005 0
3.3233814 2.8979919 0.24629486
1.8493773 1.6165968 -0.80992991
1.8837376 1.6466322 -0.69028676
1.9328412 1.6895552 -0.56870937
2.0190685 1.7649289 -0.44708067
2.0631301 1.8034447 -0.30543044
3.5860195 3.1346486 -0.2660394
10.486994 9.1669998 0
3.3198774 2.9020054 0.24629486
1.8306942 1.6041718 -0.80259603
1.8911791 1.6571724 -0.69374692
1.9384423 1.6985877 -0.57096094
2.0304513 1.7792116 -0.45007688
2.0881801 1.8297975 -0.30946597
3.5900466 3.1458292 -0.26661995
10.452421 9.1590824 0
3.3202732 2.9094365 0.24658486
1.8473204 1.6226909 -0.81074411
1.898605 1.6677395 -0.69720972
1.9459317 1.7093114 -0.57377481
2.0340803 1.7867413 -0.45135954
2.0956821 1.8408524 -0.31090716
3.5745256 3.1398723 -0.26574886
10.431572 9.1631193 0
3.322614 2.9185925 0.24702041
1.8379385 1.6183883 -0.80748427
1.8947002 1.6683697 -0.69651556
1.953398 1.7200557 -0.57658869
2.0550392 1.8095554 -0.45649514
2.1361659 1.8809912 -0.31725016
0 0 -0
10.395103 9.1533604 0
3.3190849 2.922605 0.24702041
1.8443763 1.6260364 -0.81074411
1.8955792 1.6711779 -0.69720972
1.9504544 1.7195568 -0.57602632
2.0809002 1.8345603 -0.46248585
2.1932299 1.9335923 -0.32589838
0 0 -0
10.372004 9.1441507 0
3.3192658 2.9263265 0.24716541
1.8516685 1.636446 -0.81481814
1.9085974 1.6867579 -0.70274699
1.946473 1.7202313 -0.57546401
2.0959918 1.8523713 -0.46633714
2.2451508 1.9841932 -0.33396944
0 0 -0
10.341442 9.1394396 0
3.3176727 2.932054 0.24731041
1.8404415 1.6304889 -0.81074411
1.9140619 1.6957109 -0.705513
1.9520006 1.7293216 -0.57771552
2.1033652 1.8634188 -0.46847823
2.306638 2.043503 -0.34348282
0 0 -0
10.307023 9.1312256 0
3.3121843 2.9343393 0.24716541
1.851408 1.6442015 -0.81644964
1.9307735 1.7146846 -0.7124359
1.9499097 1.731679 -0.57771552
2.1490958 1.9085724 -0.479177
2.3563781 2.0926561 -0.35126588
3.5690613 3.1696179 -0.26661995
10.288198 9.1367607 0
3.3028059 2.9331613 0.24672985
1.8475686 1.6447892 -0.81563234
1.9493068 1.7353611 -0.72004771
1.9459125 1.7323394 -0.577151
2.1602039 1.9231113 -0.48217154
2.4156673 2.1505363 -0.36049125
3.5749309 3.1825652 -0.26734552
10.249933 9.1249552 0
3.3031447 2.940609 0.24702041
1.8308272 1.6338551 -0.80911261
1.9528257 1.7427281 -0.72212487
1.949507 1.7397665 -0.5788402
2.2134204 1.9752864 -0.49458218
3.6152551 3.2263026 -0.54008776
3.5710828 3.1868825 -0.26734552
10.219487 9.1200085 0
3.2976522 2.9428694 0.24687542
1.8325394 1.639365 -0.81074411
1.9282812 1.7250143 -0.71381891
1.9511945 1.7455122 -0.57996708
2.2244265 1.9899418 -0.49757835
3.6055765 3.2255001 -0.53922367
3.5827224 3.205055 -0.26850665
10.189067 9.1150017 0
3.2979634 2.9503136 0.24716541
1.8287189 1.6399295 -0.80992991
1.9205976 1.7223231 -0.71174443
1.9471869 1.7461673 -0.57940257
2.258327 2.0251865 -0.50570852
3.5920503 3.2212219 -0.53778249
3.5923831 3.2215204 -0.26952219
10.16061 9.1116705 0
3.3021343 2.9612355 0.24774598
1.8414408 1.6553568 -0.81644964
1.9278419 1.7330267 -0.7152046
1.9431877 1.7468218 -0.5788402
2.2711511 2.0416431 -0.50913227
3.5900772 3.2272873 -0.5380705
3.6039474 3.2397559 -0.27068332
10.134109 9.1100225 0
3.3004844 2.9669588 0.24789098
1.8449423 1.6625395 -0.81889218
1.9592896 1.7655817 -0.72766215
1.9410757 1.7491685 -0.5788402
2.2896614 2.0632908 -0.51384032
3.586175 3.2316229 -0.5380705
3.5961733 3.2406325 -0.27039331
10.105696 9.1065826 0
3.2968969 2.9709446 0.24789098
1.8502685 1.6713947 -0.82215208
1.9813547 1.7898083 -0.73665959
1.9502774 1.7617353 -0.58221859
2.3404975 2.1142311 -0.52582175
3.5899451 3.2428889 -0.53922367
3.5787556 3.2327812 -0.2693772
10.079235 9.1048307 0
3.2952385 2.9766729 0.24803653
1.8848894 1.7068092 -0.83845139
1.988487 1.8006191 -0.74011976
1.9500289 1.7657944 -0.58278096
2.3931222 2.1670251 -0.53823239
3.5783551 3.2402799 -0.5380705
3.5690665 3.231869 -0.26894164
10.050859 9.1012754 0
3.2897077 2.9789033 0.24789098
1.9907955 1.8070922 -0.88653195
2.0141757 1.8283149 -0.75050282
1.9441274 1.7647306 -0.58165407
2.4285173 2.2044227 -0.54679173
3.5648632 3.2359107 -0.53662932
3.5709326 3.24142 -0.2693772
10.024446 9.0994272 0
3.2861059 2.9828761 0.24789098
2.052588 1.8677113 -0.91505343
2.0249557 1.842568 -0.75534862
1.9476335 1.7722101 -0.58334327
2.45243 2.2315395 -0.55278242
3.5532985 3.2332528 -0.53547615
3.5631733 3.2422383 -0.2690872
9.9845686 9.0852585 0
3.2824993 2.9868445 0.24789098
2.1270208 1.9401433 -0.94928038
2.0579395 1.8771313 -0.76849771
1.9398571 1.7694236 -0.58165407
2.4724908 2.2552607 -0.55791801
3.539829 3.2288237 -0.53403389
3.565007 3.2517896 -0.26952219
9.95436 9.0797815 0
3.286567 2.997813 0.24847153
2.1374452 1.9543884 -0.95498592
2.1204662 1.9388636 -0.79272139
1.9264702 1.7614819 -0.57827789
2.4981835 2.2842321 -0.56433797
3.5244756 3.2226298 -0.53230464
3.5534046 3.2490811 -0.26894164
9.9260969 9.0759983 0
3.2829423 3.0017819 0.24847153
2.1332619 1.9553013 -0.95417178
2.1791513 1.9973626 -0.81556207
1.9205905 1.7603714 -0.577151
2.5294814 2.3184674 -0.57204056
3.5186744 3.2251401 -0.53201663
3.5494761 3.2533724 -0.26894164
9.8997755 9.0739183 0
3.2773991 3.0039926 0.24832653
2.1418142 1.9679077 -0.95905995
2.2062945 2.0271523 -0.82663661
1.9203385 1.7644148 -0.57771552
2.5644844 2.3562586 -0.5805999
3.5052536 3.2206414 -0.53057545
3.5531962 3.2646911 -0.26952219
9.8715582 9.0700274 0
3.2756786 3.0097067 0.24847153
2.1430674 1.9738399 -0.96068835
2.2038434 2.0298166 -0.82663661
2.4676478 2.2727897 -0.74319392
2.5861802 2.3819623 -0.58616304
3.4918416 3.2161081 -0.5291332
3.5435205 3.263706 -0.2690872
9.8433571 9.0660763 0
3.2796848 3.020704 0.24905209
2.1352382 1.9714029 -0.95824581
2.2013891 2.0324781 -0.82663661
2.4705021 2.2809422 -0.74488312
2.57198 2.3746338 -0.58359444
3.4727573 3.206295 -0.52682793
3.5338449 3.2626956 -0.26865163
9.8190165 9.0656099 0
3.2760324 3.0246649 0.24905209
2.1255987 1.9672661 -0.95498592
2.187881 2.024909 -0.82248235
2.5106292 2.3236163 -0.75782782
2.5276644 2.3393824 -0.57417995
3.4536946 3.196434 -0.52452159
3.5356228 3.2722597 -0.2690872
9.7908669 9.0615597 0
3.2780983 3.0339177 0.24948764
2.160898 2.0023613 -0.81279337
2.4980459 2.3147738 -0.75445163
3.3452926 3.0998611 -0.76033628
3.4517627 3.1985199 -0.52452159
3.5374537 3.2779241 -0.2693772
9.7682047 9.051548 0
3.272449 3.032362 0.24919708
2.1272306 1.9759465 -0.8010273
2.4933875 2.3160629 -0.75388926
3.3359001 3.0986581 -0.75905198
3.4384146 3.193882 -0.52307934
3.527777 3.2768891 -0.26894164
9.7496405 9.0562668 0
3.272594 3.039854 0.24948764
