# .PCD v0.7 - Point Cloud Data file format
VERSION 0.7
FIELDS x y z
SIZE 4 4 4
TYPE F F F
COUNT 1 1 1
WIDTH 1516
HEIGHT 1
VIEWPOINT 0 0 0 1 0 0 0
POINTS 1516
DATA ascii
3.8445144 -1.7864466 0.23679122
2.6695418 -1.2365472 -0.9700765
3.1546323 -1.461244 -0.95919126
3.8383877 -1.7779635 -0.93710965
3.3965137 -1.5732849 -0.62404454
3.7948396 -1.7577918 -0.46615082
3.6817472 -1.7054067 -0.22663899
3.8652151 -1.7903901 0
3.8490345 -1.7828952 0.23693678
2.6732843 -1.2343599 -0.9708938
3.1563957 -1.4574312 -0.95919126
3.8313057 -1.7690636 -0.93485808
3.3867614 -1.5638001 -0.62190509
3.794615 -1.7521219 -0.46586281
3.6743686 -1.6965996 -0.22605842
3.8673756 -1.7857184 0
3.8606136 -1.7825961 0.23751678
2.7017076 -1.2435257 -0.98067027
3.151324 -1.4504724 -0.95711678
3.8311348 -1.7633716 -0.93429571
3.3839803 -1.5575579 -0.62104833
3.810822 -1.7540222 -0.46759203
3.6858578 -1.6965044 -0.22663899
3.8624451 -1.7777829 0
3.8580482 -1.7757592 0.23722677
2.6605322 -1.2206801 -0.96518826
3.1827149 -1.460263 -0.96611422
3.8240249 -1.7545028 -0.93204421
3.3858597 -1.553468 -0.62104833
3.81059 -1.7483387 -0.46730399
3.6997113 -1.6974664 -0.22736454
3.8716798 -1.7763673 0
3.8601911 -1.7710962 0.23722677
2.675487 -1.2236304 -0.9700765
3.1662252 -1.4480689 -0.96057689
3.8284504 -1.7509366 -0.93260652
3.3783963 -1.545105 -0.61933649
3.8103499 -1.7426584 -0.46701598
3.7112119 -1.6973177 -0.2279451
3.8714588 -1.7706064 0
3.8646891 -1.7675103 0.23737177
2.6724701 -1.2183481 -0.9684481
3.1634028 -1.4421587 -0.95919126
3.8282537 -1.7452564 -0.93204421
3.3685842 -1.5356984 -0.61719704
3.8218665 -1.7423446 -0.46816915
3.7250795 -1.6982205 -0.22867066
3.8641233 -1.7616091 0
3.8550026 -1.7574509 0.23664622
2.6866987 -1.2228748 -0.97333634
3.1665635 -1.4412895 -0.95988542
3.8385577 -1.7471538 -0.93429571
3.3718455 -1.5347254 -0.61762464
3.8346868 -1.7453918 -0.46961033
3.7379274 -1.7013509 -0.22939621
3.8509793 -1.7528075 0
3.8560636 -1.7551216 0.23664622
2.6859257 -1.2186073 -0.97252214
3.1683025 -1.4374622 -0.95988542
3.8429778 -1.7435631 -0.93485808
3.3573401 -1.5232288 -0.6146301
3.8320777 -1.7386177 -0.46903321
3.7423444 -1.6979057 -0.22954121
3.8649421 -1.7535284 0
3.8581815 -1.750461 0.23664622
2.6941543 -1.2184174 -0.97496784
3.1540339 -1.4263955 -0.95503962
3.8404469 -1.7368222 -0.93373126
3.3685341 -1.5234022 -0.61634195
3.841248 -1.7371845 -0.46989837
3.7443933 -1.6933825 -0.22954121
3.8623109 -1.7467102 0
3.862659 -1.7468677 0.23679122
2.6911137 -1.2131277 -0.97333634
3.1649036 -1.4267075 -0.95780826
3.8494942 -1.7353142 -0.93542045
3.3867476 -1.5267127 -0.61933649
3.8433442 -1.7325419 -0.46989837
3.7488124 -1.6899279 -0.22968677
3.8644187 -1.7420421 0
3.8624003 -1.7411323 0.23664622
2.6925776 -1.2098751 -0.97333634
3.1872182 -1.4321356 -0.96403706
3.8654988 -1.7369121 -0.93879884
3.3651788 -1.5120999 -0.61505765
3.852515 -1.731078 -0.4707635
3.7579553 -1.6885889 -0.23012178
3.871273 -1.7395067 0
3.8692462 -1.7385961 0.23693678
2.6985533 -1.2086433 -0.97496784
3.147738 -1.4098266 -0.95157951
3.8559933 -1.7270441 -0.93598276
3.3552916 -1.502787 -0.6129182
3.8475199 -1.723249 -0.46989837
3.7599928 -1.6840469 -0.23012178
3.8614986 -1.7295098 0
3.8665967 -1.7317933 0.23664622
2.6887293 -1.2003449 -0.9708938
3.1837952 -1.42136 -0.9619599
3.8580773 -1.7223836 -0.93598276
3.3453779 -1.4934963 -0.61077714
3.8590465 -1.7228163 -0.47105151
3.7738864 -1.6847978 -0.23084733
3.8683341 -1.7269626 0
3.8686864 -1.7271199 0.23664622
2.7082341 -1.2051301 -0.97741038
3.1648839 -1.4083334 -0.95573109
3.8462315 -1.7115246 -0.93260652
3.3331125 -1.483193 -0.60821015
3.8729384 -1.7234088 -0.47249272
3.7830436 -1.6834068 -0.23128289
3.8823042 -1.7275764 0
3.8826382 -1.7277251 0.23737177
2.6848421 -1.1908365 -0.9684481
3.1688743 -1.4055244 -0.95642263
3.8506172 -1.7079051 -0.93316889
3.3349023 -1.4791646 -0.60821015
3.8868375 -1.7239703 -0.47393391
3.7874482 -1.6798871 -0.23142789
3.8772585 -1.7197217 0
3.8823502 -1.72198 0.23722677
2.6930628 -1.1905906 -0.9708938
3.1958125 -1.4128538 -0.96403706
3.8549998 -1.7042775 -0.93373126
3.3132129 -1.4647561 -0.60393131
3.8912811 -1.7203174 -0.47422192
3.8013647 -1.6805658 -0.23215401
3.8721907 -1.7118776 0
3.8891766 -1.7193869 0.23751678
2.705806 -1.192318 -0.97496784
3.2112873 -1.4150592 -0.9681887
3.8570561 -1.6996183 -0.93373126
3.3314173 -1.4679947 -0.60692585
3.9028244 -1.7197862 -0.47537509
3.7986324 -1.6738738 -0.23186345
3.8552041 -1.6988021 0
3.8888757 -1.7136396 0.23737177
2.6846108 -1.1791066 -0.9668166
3.2061105 -1.4081542 -0.96611422
3.859107 -1.6949565 -0.93373126
3.3284926 -1.4619056 -0.60607076
3.921479 -1.7223508 -0.47739342
3.8244386 -1.6797298 -0.23331456
3.8167486 -1.6763523 0
3.898083 -1.7120751 0.23780733
2.7245221 -1.192711 -0.98067027
3.1802313 -1.3922063 -0.95780826
3.8658121 -1.6923323 -0.93485808
3.3302565 -1.4578828 -0.60607076
3.9283004 -1.7196877 -0.47797054
3.8193312 -1.6719843 -0.23287956
3.785399 -1.6571299 0
3.8930056 -1.7042367 0.23737177
2.7123735 -1.1834893 -0.97578204
3.2003064 -1.396389 -0.96334559
3.8608651 -1.6846105 -0.93316889
3.3273056 -1.4518025 -0.605214
3.9374807 -1.7180401 -0.4788346
3.8261073 -1.6694446 -0.23316956
3.8279467 -1.6702472 0
3.8926826 -1.6984934 0.23722677
2.6911404 -1.170356 -0.96763396
3.1904905 -1.3875194 -0.95988542
3.8792107 -1.6870384 -0.93710965
3.3125854 -1.4406176 -0.60221946
3.9229572 -1.7060635 -0.47681737
3.8400338 -1.6700007 -0.23389512
3.8060918 -1.6552396 0
3.9066441 -1.698969 0.23795234
2.7077105 -1.1756175 -0.97333634
3.2051311 -1.3915845 -0.96403706
3.8755634 -1.6826687 -0.93598276
3.3040364 -1.4345266 -0.60050756
3.9239872 -1.7036932 -0.47681737
3.8291268 -1.6625072 -0.23316956
3.7856085 -1.6436126 0
3.9029074 -1.6945407 0.23766233
2.7068629 -1.1713642 -0.97252214
3.22753 -1.3966769 -0.97026587
3.8659363 -1.67294 -0.93316889
3.2939899 -1.4254367 -0.59836817
3.9497759 -1.7092206 -0.47969976
3.8215938 -1.6537514 -0.23258901
3.8138671 -1.6504077 0
3.9144909 -1.6939515 0.23824289
2.7037416 -1.1661367 -0.9708938
3.2200005 -1.3888018 -0.96749723
3.8819582 -1.6743073 -0.93654728
3.2980647 -1.4224712 -0.59879571
3.954211 -1.7054703 -0.47998777
3.8140454 -1.6450161 -0.23200844
3.8110745 -1.6437347 0
3.9165349 -1.6892204 0.23824289
2.7210369 -1.169699 -0.97659624
3.2009351 -1.3759938 -0.96126842
3.8816373 -1.6686091 -0.93598276
3.2832701 -1.4113874 -0.59579951
3.9515209 -1.6986501 -0.47941172
3.7038374 -1.5921779 -0.22518732
3.7939394 -1.6309102 0
3.9233432 -1.6865373 0.23853289
2.7224483 -1.1664102 -0.97659624
3.186451 -1.3652083 -0.95642263
3.8813174 -1.662918 -0.93542045
3.2991352 -1.413487 -0.59836817
3.9583211 -1.6959095 -0.47998777
3.4334874 -1.471049 -0.20864224
3.8126457 -1.6334962 0
3.9158242 -1.6777022 0.23795234
2.6988587 -1.1524458 -0.96763396
3.2065558 -1.3692387 -0.9619599
3.878655 -1.6562332 -0.93429571
3.3173599 -1.4165534 -0.60136271
3.9603672 -1.6911254 -0.47998777
3.377919 -1.4424129 -0.20515946
3.8098345 -1.6268461 0
3.9226325 -1.6750122 0.23824289
2.7298119 -1.1617653 -0.97822773
3.1897407 -1.3575039 -0.95642263
3.8829889 -1.6525395 -0.93485808
3.2978129 -1.4034976 -0.59751141
3.2270515 -1.3733828 -0.39091012
3.3892229 -1.4424003 -0.20574002
3.7998264 -1.6171467 0
3.9222558 -1.6692508 0.23809734
2.7357602 -1.1603944 -0.97985607
3.1936951 -1.3546312 -0.95711678
3.8779633 -1.644869 -0.93316889
3.2876923 -1.3945009 -0.59537196
3.2834773 -1.392713 -0.39754111
3.3670373 -1.4281557 -0.20428835
3.8113611 -1.6166191 0
3.9410172 -1.6716138 0.23911345
2.7303283 -1.1542 -0.97741038
3.1907034 -1.3488157 -0.95573109
3.8846331 -1.6421626 -0.93429571
3.3082907 -1.3985236 -0.59879571
3.2875378 -1.3897507 -0.39782915
3.3424401 -1.4129597 -0.20269223
3.8085129 -1.609984 0
3.938252 -1.6648291 0.23882344
2.7089484 -1.1413057 -0.9692623
3.2085168 -1.3517786 -0.96057689
3.8936324 -1.6404244 -0.93598276
3.3052421 -1.3925298 -0.59793895
3.2772989 -1.3807572 -0.39638793
3.3297727 -1.4028648 -0.2018211
3.8080595 -1.6043715 0
3.9546237 -1.6661205 0.23969401
2.7057719 -1.1361196 -0.96763396
3.2078369 -1.3469304 -0.95988542
3.8979611 -1.6367049 -0.93654728
3.3021932 -1.3865494 -0.59708381
3.2813475 -1.3777965 -0.39667597
3.3290718 -1.3978354 -0.20167612
3.8123925 -1.6007757 0
3.9710045 -1.6673748 0.24056457
2.7230964 -1.1395255 -0.97333634
3.204829 -1.3411146 -0.95849979
3.8952436 -1.6300303 -0.93542045
3.2967596 -1.3795844 -0.59579951
3.2710822 -1.3688394 -0.39523476
0 -0 -0
3.8431332 -1.6082237 0
3.9754202 -1.6635814 0.24071012
2.7221923 -1.1352838 -0.97252214
3.2110825 -1.3391744 -0.95988542
3.8784494 -1.6174982 -0.93091732
3.300791 -1.3765872 -0.59622705
3.2798884 -1.3678697 -0.39609882
0 -0 -0
3.8354657 -1.5995719 0
3.9870203 -1.6627774 0.24129069
2.7326913 -1.1357882 -0.97578204
3.2103751 -1.3343278 -0.95919126
3.8897862 -1.6167114 -0.93316889
3.290602 -1.3676724 -0.59408766
3.2743807 -1.3609304 -0.39523476
3.2909315 -1.3678095 -0.19906388
3.8590221 -1.6039249 0
3.9938209 -1.6599513 0.24158068
2.7203653 -1.1268122 -0.9708938
3.2027137 -1.3266075 -0.95642263
3.8964362 -1.6139568 -0.93429571
3.2969999 -1.3656621 -0.59494442
3.2688515 -1.3540026 -0.39436963
3.2925818 -1.363832 -0.19906388
3.856153 -1.5972708 0
4.0078244 -1.6600953 0.24230623
2.7354281 -1.129181 -0.97578204
3.1973641 -1.3198676 -0.95434815
3.8913355 -1.606338 -0.93260652
3.3057594 -1.3646131 -0.59622705
3.2752621 -1.3520238 -0.39494565
3.2966268 -1.3608432 -0.19920889
3.8628869 -1.5945945 0
4.0218344 -1.6602079 0.2430318
2.7338269 -1.1265874 -0.97496784
3.214391 -1.3246239 -0.95919126
3.9040492 -1.6088264 -0.93542045
3.2947183 -1.3577261 -0.59408766
3.2760785 -1.3500448 -0.39494565
3.2950482 -1.3578621 -0.19906388
3.8470037 -1.5853184 0
4.0420566 -1.6656981 0.24419291
2.7456913 -1.1237223 -0.97822773
3.2152631 -1.3159028 -0.95849979
3.9079256 -1.599387 -0.93542045
3.3027458 -1.3517067 -0.59494442
3.2625818 -1.3352689 -0.39292845
3.2911034 -1.3469417 -0.19862832
3.8700924 -1.5839032 0
4.0749283 -1.6677358 0.24593459
2.6966939 -1.099867 -0.96029693
3.2029173 -1.306334 -0.95434815
3.9098554 -1.594664 -0.93542045
3.2877357 -1.3409278 -0.59194821
3.2570059 -1.3283944 -0.39206329
3.2782969 -1.3370781 -0.19775777
3.8840499 -1.584139 0
4.0841608 -1.6657557 0.24637015
2.7323687 -1.1105683 -0.97252214
3.2091372 -1.3043504 -0.95573109
3.9117794 -1.5899385 -0.93542045
3.2917295 -1.3379198 -0.59237576
3.2610023 -1.3254309 -0.3923513
3.2774959 -1.3321347 -0.19761221
3.8980229 -1.5843472 0
4.1006088 -1.6666881 0.24724071
2.7634871 -1.1193275 -0.98311591
3.2223351 -1.3051801 -0.95919126
0 -0 -0
3.2814493 -1.3291239 -0.59023637
3.2650058 -1.3224635 -0.39264041
3.274291 -1.3262243 -0.1973222
3.9216416 -1.5884284 0
4.1218872 -1.6695361 0.24840182
2.7556698 -1.1122872 -0.97985607
3.2192614 -1.2994094 -0.95780826
3.9085393 -1.5776266 -0.93373126
3.2854311 -1.3261178 -0.59066391
3.254602 -1.3136741 -0.39119813
3.2782984 -1.3232387 -0.19746721
3.9066622 -1.576869 0
4.1239014 -1.6645544 0.24840182
2.7593026 -1.1098781 -0.98067027
3.2231545 -1.2964538 -0.95849979
3.9104426 -1.5729027 -0.93373126
3.2798932 -1.3192759 -0.58938122
3.2489951 -1.3068477 -0.39033407
3.2750781 -1.3173391 -0.1971772
3.9133985 -1.5740917 0
4.1451955 -1.6673276 0.24956293
2.7537658 -1.1037871 -0.97822773
3.2177305 -1.2897573 -0.95642263
3.9170618 -1.5700691 -0.93485808
3.2838652 -1.3162659 -0.58980882
3.2601748 -1.3067702 -0.39148724
3.2694292 -1.3104796 -0.19674164
3.9370363 -1.5780754 0
8.6958342 -3.4855359 0.52328175
2.7527955 -1.0995395 -0.97741038
3.2192864 -1.2858683 -0.95642263
3.9071603 -1.5606233 -0.93204421
3.2830718 -1.3113458 -0.58938122
3.2593427 -1.3018678 -0.39119813
3.2854841 -1.3123094 -0.19761221
3.9316874 -1.5704201 0
8.709692 -3.4788816 0.5238623
2.7747962 -1.1044413 -0.98474741
3.2581325 -1.2968217 -0.96749723
3.9137602 -1.5577786 -0.93316889
3.2941942 -1.3111752 -0.59109312
3.2633233 -1.2988878 -0.39148724
3.2701747 -1.3016149 -0.19659665
3.9553418 -1.5743293 0
8.7114773 -3.4673951 0.52371734
2.7485588 -1.0901527 -0.97496784
3.2317126 -1.2817847 -0.95919126
3.9227276 -1.5558598 -0.93485808
3.286231 -1.3034081 -0.58938122
3.2576752 -1.2920821 -0.39062211
3.2620835 -1.2938305 -0.19601609
3.9499812 -1.5666693 0
8.6987495 -3.4501593 0.5227012
2.7268836 -1.0777444 -0.9668166
3.235599 -1.2788036 -0.95988542
3.9151525 -1.5473831 -0.93260652
3.2830243 -1.2975475 -0.58852446
3.244797 -1.2824389 -0.38889179
3.2636445 -1.2898879 -0.19601609
3.9591348 -1.5647662 0
8.7077503 -3.4415581 0.52299178
2.7350852 -1.0771667 -0.9692623
3.2254639 -1.2702938 -0.95642263
3.924114 -1.5454453 -0.93429571
3.2917576 -1.2964026 -0.58980882
3.2439399 -1.2775704 -0.38860378
3.2603605 -1.2840374 -0.19572553
3.9610226 -1.5599811 0
8.6998158 -3.4262741 0.52226621
2.7179785 -1.0666378 -0.96274257
3.2269962 -1.2663956 -0.95642263
3.9236064 -1.5397718 -0.93373126
3.271817 -1.2839849 -0.58595753
3.2430758 -1.2727058 -0.38831577
3.2619097 -1.2800969 -0.19572553
3.9701748 -1.5580469 0
8.6966906 -3.4129109 0.52183062
2.7784524 -1.0884334 -0.98393011
3.2301035 -1.2653635 -0.95711678
3.9221723 -1.5364752 -0.93316889
3.2510827 -1.2735819 -0.58210623
3.248656 -1.2726313 -0.38889179
3.2650995 -1.2790729 -0.19587053
3.9735363 -1.5565965 0
8.6914902 -3.4048119 0.52139509
2.7406268 -1.0697976 -0.9700765
3.2386343 -1.2641938 -0.95919126
3.9216614 -1.5308118 -0.93260652
3.2789171 -1.279918 -0.58681262
3.2381465 -1.2640033 -0.38745061
3.2545421 -1.2704033 -0.19514497
3.9851115 -1.5555794 0
8.6786518 -3.3876925 0.52037895
2.7488301 -1.0691741 -0.97252214
3.2425044 -1.2611916 -0.95988542
3.9211423 -1.525152 -0.93204421
3.2661109 -1.2703735 -0.58424562
3.2444973 -1.2619667 -0.38802776
3.2609229 -1.2683556 -0.19543552
3.9918439 -1.5526516 0
8.6706324 -3.3724947 0.51965344
2.7501202 -1.0658518 -0.97252214
3.2440259 -1.2572727 -0.95988542
3.930083 -1.5231649 -0.93373126
3.258069 -1.2627153 -0.58253378
3.2411916 -1.2561743 -0.38745061
3.2479112 -1.2587786 -0.19456442
4.0009899 -1.5506459 0
8.6674395 -3.3592012 0.51921839
2.7375765 -1.0571874 -0.96763396
3.217459 -1.2425067 -0.95157951
3.9319208 -1.518415 -0.93373126
3.2715638 -1.2634008 -0.58467317
3.2378862 -1.2503953 -0.38687459
3.2518609 -1.255792 -0.19470997
3.9810133 -1.5373734 0
8.6472483 -3.3393631 0.51776671
2.778064 -1.0689672 -0.98148757
3.2517331 -1.2512298 -0.96126842
3.9266453 -1.5109282 -0.93204421
3.2658982 -1.2566803 -0.58338886
3.2393947 -1.246482 -0.38687459
3.2509439 -1.250926 -0.19456442
3.2663801 -1.2568656 0
3.2387087 -1.2462181 0.19383216
2.7539656 -1.0558759 -0.97252214
3.2391922 -1.2419127 -0.95711678
3.9308381 -1.5070912 -0.93260652
3.2530372 -1.247221 -0.58082187
3.2312381 -1.2388631 -0.38572142
3.233043 -1.2395551 -0.1934033
3.2800534 -1.257579 0
3.2329404 -1.2395158 0.19339716
2.7575459 -1.0534286 -0.97333634
3.2500648 -1.2415791 -0.95988542
3.9421508 -1.5059675 -0.93485808
3.2713306 -1.2497029 -0.58381808
3.2158172 -1.228496 -0.38370308
3.2491074 -1.2412133 -0.19427441
3.2426722 -1.238755 0
3.2441454 -1.2393177 0.19397773
2.7495773 -1.046579 -0.9700765
3.2374902 -1.2322946 -0.95573109
3.9392135 -1.4993936 -0.93373126
3.2560418 -1.239356 -0.58082187
3.2221384 -1.2264513 -0.3842802
3.2408907 -1.2335891 -0.19369386
3.2441669 -1.234836 0
3.2407787 -1.2335464 0.19368717
2.7808805 -1.0546489 -0.98067027
3.2553992 -1.2346101 -0.96057689
3.9434052 -1.4955363 -0.93429571
3.247936 -1.2317796 -0.57911003
3.223618 -1.2225571 -0.3842802
3.242379 -1.2296721 -0.19369386
3.243216 -1.2299896 0
3.2398396 -1.2287091 0.19354217
2.7520983 -1.0399313 -0.9700765
3.2615776 -1.2324475 -0.9619599
0 -0 -0
3.251821 -1.2287607 -0.57953757
3.2129977 -1.2140907 -0.38283902
0 -0 -0
3.2495735 -1.2279115 0
3.2364559 -1.2229548 0.19325161
2.7718577 -1.0435721 -0.97659624
3.2513273 -1.2240868 -0.95849979
3.9565196 -1.4895834 -0.93654728
3.2509031 -1.223927 -0.57911003
3.2168806 -1.211118 -0.38312706
3.2331843 -1.2172561 -0.19296829
3.2656639 -1.2294842 0
3.245229 -1.2217908 0.19368717
2.7569242 -1.0341481 -0.9708938
3.2645464 -1.2245619 -0.9619599
3.9583166 -1.4848015 -0.93654728
3.2475679 -1.2181932 -0.57825327
3.2280285 -1.2108637 -0.3842802
3.2541161 -1.2206495 -0.19412941
3.2403502 -1.2154857 0
3.22967 -1.2114795 0.19267105
2.7697456 -1.0351416 -0.97496784
3.2425282 -1.2118354 -0.95503962
0 -0 -0
3.2370167 -1.2097757 -0.57611382
3.2343302 -1.2087716 -0.38485625
3.2458527 -1.2130779 -0.19354886
3.2296298 -1.2070149 0
3.2286999 -1.2066674 0.19252604
2.7547784 -1.0257561 -0.9692623
3.2392833 -1.206164 -0.95365399
3.9499803 -1.4707958 -0.93373126
3.2360728 -1.2049686 -0.57568628
3.2091324 -1.1949372 -0.38168585
3.2473161 -1.2091551 -0.19354886
3.2188842 -1.1985683 0
3.2301557 -1.2027652 0.19252604
2.7537007 -1.0215678 -0.9684481
3.2548556 -1.2074864 -0.95780826
3.9612837 -1.4695569 -0.93598276
3.218272 -1.1939145 -0.57226253
3.2129967 -1.1919575 -0.38197389
3.2463315 -1.204324 -0.1934033
3.2105701 -1.1910573 0
3.2340405 -1.1997643 0.19267105
2.7751753 -1.0276276 -0.97578204
3.2673457 -1.2098747 -0.96126842
3.9526396 -1.4636341 -0.93373126
3.2045534 -1.1866232 -0.56969559
3.2185626 -1.1918107 -0.38254991
3.2421896 -1.2005596 -0.1931133
3.2356994 -1.1981564 0
3.2274613 -1.1951059 0.19223605
2.7694564 -1.0217063 -0.97333634
3.2546875 -1.2007176 -0.95711678
3.9567959 -1.4597391 -0.93429571
3.2011635 -1.1809715 -0.56883883
3.2078695 -1.1834456 -0.38110873
3.2387576 -1.1948408 -0.19282274
3.2298174 -1.1915426 0
3.2410901 -1.1957012 0.1929616
2.7822859 -1.0226218 -0.97741038
3.2655549 -1.200246 -0.95988542
3.9537826 -1.4532022 -0.93316889
3.2170496 -1.182418 -0.57140744
3.2092972 -1.1795686 -0.38110873
3.2353258 -1.1891353 -0.19253275
3.2239244 -1.1849447 0
3.2449689 -1.1926796 0.19310661
2.7695987 -1.0141617 -0.97252214
3.2622867 -1.1945724 -0.95849979
3.9603119 -1.4501728 -0.93429571
3.2088337 -1.1749992 -0.56969559
3.201005 -1.1721325 -0.37995556
3.239198 -1.1861179 -0.19267774
3.2302461 -1.1828399 0
3.2390854 -1.1860766 0.19267105
2.784749 -1.0158951 -0.97741038
3.2872915 -1.1992259 -0.96542007
3.9548981 -1.4427732 -0.93260652
3.1957769 -1.1658407 -0.56712693
3.2048466 -1.1691494 -0.38024357
3.2430675 -1.1830927 -0.19282274
3.231673 -1.1789359 0
3.2405162 -1.1821619 0.19267105
2.783654 -1.0116861 -0.97659624
3.2816713 -1.1926847 -0.96334559
3.96141 -1.4397277 -0.93373126
3.2044237 -1.1646099 -0.56841123
3.2013998 -1.1635109 -0.37966755
3.2420547 -1.1782866 -0.19267774
3.2208676 -1.1705862 0
3.2395024 -1.1773589 0.19252604
2.7802308 -1.0066406 -0.97496784
3.276031 -1.1861554 -0.96126842
3.9631467 -1.43494 -0.93373126
3.2010057 -1.1589909 -0.56755614
3.2003736 -1.1587621 -0.37937951
3.2434762 -1.1743683 -0.19267774
3.227169 -1.1684639 0
3.2335906 -1.170789 0.1920905
2.7837679 -1.0041183 -0.97578204
3.2680221 -1.1787912 -0.95849979
3.9648776 -1.4301503 -0.93373126
3.2144754 -1.1594765 -0.56969559
3.2017715 -1.1548942 -0.37937951
3.2302318 -1.1651599 -0.19180718
3.2089937 -1.1574993 0
3.2423382 -1.1695268 0.19252604
2.7989306 -1.0057672 -0.98067027
3.278888 -1.1782351 -0.96126842
3.9690008 -1.4262202 -0.93429571
3.2545273 -1.1694813 -0.57654303
3.1982915 -1.1492736 -0.37880239
3.2316372 -1.161256 -0.19180718
3.1981463 -1.1492214 0
3.2315245 -1.1612154 0.19180049
2.7652454 -0.98989183 -0.9684481
3.2755899 -1.1725829 -0.95988542
3.9731114 -1.4222789 -0.93485808
3.3115191 -1.1854447 -0.58638507
3.1899374 -1.1419214 -0.37764922
3.2305939 -1.1564754 -0.19166218
3.204438 -1.1471123 0
3.2329252 -1.15731 0.19180049
2.7571275 -0.98322904 -0.96518826
3.2628217 -1.1635665 -0.95573109
3.962863 -1.4132106 -0.93204421
3.3443799 -1.1926512 -0.59194821
3.2034936 -1.1424092 -0.3790904
3.2246442 -1.1499518 -0.19122663
3.2156267 -1.1467361 0
3.2318761 -1.1525308 0.19165549
2.7722831 -0.98485959 -0.9700765
3.2689579 -1.1613044 -0.95711678
3.9741447 -1.4118235 -0.93429571
3.3554943 -1.1920466 -0.59366012
3.1926875 -1.1342092 -0.37764922
3.2235851 -1.1451856 -0.19108163
3.2047412 -1.1384913 0
3.2357125 -1.1494939 0.19180049
2.7827911 -0.98480737 -0.97333634
3.2703586 -1.1573536 -0.95711678
3.2333286 -1.144249 -0.75980902
3.342417 -1.1828544 -0.59109312
3.1843026 -1.126899 -0.37649605
3.2200627 -1.1395543 -0.19079107
3.2061145 -1.1346182 0
3.2444501 -1.1481848 0.19223605
2.7839792 -0.98144424 -0.97333634
3.2670181 -1.1517314 -0.95573109
3.2323146 -1.1394973 -0.75924671
3.3510997 -1.1813729 -0.59237576
3.1856618 -1.1230506 -0.37649605
3.2189889 -1.1347995 -0.19064607
3.2099447 -1.1316111 0
3.2188759 -1.1347597 0.19063938
2.7944908 -0.98135537 -0.97659624
3.2636778 -1.1461221 -0.95434815
3.212115 -1.1280146 -0.75418127
3.350105 -1.1764731 -0.59194821
3.1870165 -1.1192006 -0.37649605
3.227715 -1.1334928 -0.19108163
3.208847 -1.1268669 0
3.227602 -1.1334531 0.19107494
2.7770109 -0.97144908 -0.9700765
3.267426 -1.1430053 -0.95503962
3.19909 -1.1191001 -0.75080502
3.353945 -1.1732712 -0.59237576
3.195693 -1.1179118 -0.37736121
3.2094607 -1.122728 -0.18992051
3.197926 -1.118693 0
3.2265189 -1.1286952 0.19092993
2.7775972 -0.96977115 -0.9700765
3.2823229 -1.1459912 -0.95919126
3.209352 -1.1205142 -0.75305438
3.3619263 -1.173784 -0.59366012
3.1890397 -1.1134224 -0.37649605
3.224853 -1.1259263 -0.19079107
3.1789451 -1.1098979 0
3.214927 -1.1224606 0.19020382
2.7997749 -0.97372049 -0.97741038
3.2766032 -1.1395544 -0.95711678
3.2011132 -1.1133001 -0.75080502
3.375463 -1.1739364 -0.59579951
3.1903827 -1.1095682 -0.37649605
3.2262111 -1.1220288 -0.19079107
3.2024043 -1.113749 0
3.2211943 -1.120284 0.19049437
2.7892745 -0.96629226 -0.97333634
3.2708638 -1.13313 -0.95503962
3.202456 -1.1094314 -0.75080502
3.376879 -1.1698569 -0.59579951
3.1795037 -1.1014799 -0.37505487
3.2177434 -1.1147274 -0.19021051
3.1889975 -1.1047689 0
3.2176301 -1.1146882 0.19020382
2.806797 -0.96856576 -0.97904187
3.291203 -1.1357238 -0.96057689
3.2037942 -1.105561 -0.75080502
3.3637347 -1.160753 -0.59323251
3.1808321 -1.0976373 -0.37505487
3.2117262 -1.1082982 -0.18977551
3.1927879 -1.101763 0
3.2165208 -1.1099527 0.19005881
2.7916014 -0.95954883 -0.97333634
3.2996836 -1.1341904 -0.96265143
3.202718 -1.1008607 -0.7502405
3.3602748 -1.1550173 -0.59237576
3.1748159 -1.09127 -0.3741897
3.2056885 -1.1018819 -0.18933995
3.191658 -1.0970591 0
3.225234 -1.1086001 0.19049437
2.7787333 -0.95137298 -0.9684481
3.2939379 -1.127767 -0.96057689
3.196841 -1.0945233 -0.74855351
3.3665299 -1.1526209 -0.59323251
3.176132 -1.0874331 -0.3741897
3.2094736 -1.0988485 -0.18948495
3.1905215 -1.0923597 0
3.2241151 -1.1038613 0.19034937
2.8102896 -0.95838499 -0.97904187
3.2858002 -1.1205471 -0.95780826
3.205369 -1.0931178 -0.7502405
3.3606288 -1.1460657 -0.59194821
3.174998 -1.0827605 -0.3739017
3.2058849 -1.0932938 -0.18919495
3.186908 -1.0868222 0
3.2180662 -1.0974479 0.18991382
2.7997463 -0.95101464 -0.97496784
3.2847786 -1.1157699 -0.95711678
3.1898532 -1.0835257 -0.74630195
3.3474319 -1.1370518 -0.58938122
3.1714106 -1.0772611 -0.37332568
3.2022781 -1.0877463 -0.18890439
3.193152 -1.0846462 0
3.2243059 -1.0952286 0.19020382
2.8008935 -0.947631 -0.97496784
3.2837412 -1.1109937 -0.95642263
3.2007875 -1.0829278 -0.74855351
3.35853 -1.1362972 -0.59109312
3.1678052 -1.0717689 -0.37274852
3.2035902 -1.0838761 -0.18890439
3.191988 -1.0799507 0
3.2133224 -1.0871688 0.18947826
2.8114052 -0.94740313 -0.97822773
3.2922156 -1.1094294 -0.95849979
3.2093103 -1.0814915 -0.7502405
3.3623309 -1.1330572 -0.59152067
3.1642005 -1.06629 -0.3721725
3.2048976 -1.0800045 -0.18890439
3.1883628 -1.0744324 0
3.2097135 -1.0816274 0.18918826
2.7820892 -0.93378228 -0.96763396
3.298315 -1.1070486 -0.95988542
3.1961663 -1.0727633 -0.74686432
3.3539629 -1.1257263 -0.58980882
3.1654866 -1.062466 -0.3721725
3.1988077 -1.0736499 -0.18846883
3.1871939 -1.0697519 0
3.2110181 -1.0777482 0.18918826
2.7972755 -0.93512022 -0.97252214
3.268712 -1.0927199 -0.9508853
3.2070994 -1.0721231 -0.74911582
3.357753 -1.122486 -0.59023637
3.1790309 -1.0627397 -0.37361369
3.1976407 -1.0689609 -0.18832384
3.1736698 -1.0609477 0
3.2098465 -1.0730413 0.1890427
2.8359241 -0.94423217 -0.98556161
3.2628961 -1.0863942 -0.94881082
3.2059841 -1.0674452 -0.74855351
3.3615401 -1.1192381 -0.59066391
3.1704965 -1.0556294 -0.37246051
3.1915314 -1.062633 -0.18788828
3.1724827 -1.0562907 0
3.2160761 -1.0708054 0.18933326
2.811255 -0.93224657 -0.97659624
3.2094352 -1.064288 -0.93289047
3.2169185 -1.0667696 -0.75080502
3.3604558 -1.1143683 -0.59023637
3.1668644 -1.050171 -0.37188447
3.1952865 -1.0595962 -0.18803383
3.1638758 -1.04918 0
3.2075021 -1.063647 0.1887527
2.7936039 -0.92264807 -0.9700765
3.2059591 -1.0588373 -0.93150747
3.2254364 -1.0652701 -0.75249207
3.3739853 -1.1143316 -0.59237576
3.1583071 -1.0430992 -0.37073129
3.1842206 -1.0516577 -0.18730772
3.1626725 -1.0445409 0
3.2112501 -1.0605848 0.1888977
2.8082497 -0.92560387 -0.97496784
3.1732452 -1.045907 -0.92181849
3.2260795 -1.0633212 -0.75249207
3.3673508 -1.1098845 -0.59109312
3.1515648 -1.0387611 -0.36986616
3.1823897 -1.0489211 -0.18716273
3.1707203 -1.0450748 0
3.2094247 -1.0578319 0.1887527
2.7976267 -0.91835636 -0.9708938
3.176888 -1.0428537 -0.92251003
3.2201264 -1.0570472 -0.75080502
3.3540506 -1.1010096 -0.58852446
3.157728 -1.0365641 -0.37044218
3.1885972 -1.0466974 -0.18745328
3.1744511 -1.0420538 0
3.2008252 -1.0507114 0.18817215
2.7987342 -0.91497535 -0.9708938
3.1614516 -1.0335566 -0.91766423
3.2214012 -1.0531555 -0.75080502
3.3724608 -1.1025407 -0.59152067
3.1540658 -1.031142 -0.36986616
3.1898596 -1.0428438 -0.18745328
3.1658132 -1.0349824 0
3.20456 -1.0476497 0.18831715
2.805635 -0.90973246 -0.97252214
3.1877999 -1.0336502 -0.92458451
3.221513 -1.0445817 -0.7502405
3.3677874 -1.0920115 -0.59023637
3.1565485 -1.0235169 -0.36986616
3.1800141 -1.0311255 -0.18672772
3.1683052 -1.027329 0
3.1897871 -1.0342945 0.18730159
2.8137903 -0.90862095 -0.97496784
3.1675622 -1.0228599 -0.9183557
3.2372851 -1.0453746 -0.7536189
3.3715448 -1.0887294 -0.59066391
3.1430101 -1.0149317 -0.36813584
3.1960893 -1.0320718 -0.18759827
3.1596379 -1.020301 0
3.1910346 -1.0304395 0.18730159
2.8219383 -0.90748817 -0.97741038
3.1759632 -1.0213367 -0.92043287
3.2482214 -1.0445738 -0.75587046
3.3655336 -1.0822994 -0.58938122
3.1467037 -1.0119274 -0.36842498
3.184968 -1.0242325 -0.18687272
3.1509583 -1.0132955 0
3.184854 -1.0241958 0.18686603
2.8042109 -0.89805013 -0.9708938
3.1533072 -1.0098484 -0.91351259
3.244637 -1.0390967 -0.75474358
3.3692813 -1.0790142 -0.58980882
3.1454537 -1.0073333 -0.36813584
3.178777 -1.018005 -0.18643716
3.1571422 -1.0110765 0
3.1910336 -1.0219302 0.18715602
2.8241231 -0.900666 -0.97741038
3.1473522 -1.0037498 -0.91143543
3.2483087 -1.0359467 -0.75530595
3.3681393 -1.074163 -0.58938122
3.1466687 -1.0035318 -0.36813584
3.1775315 -1.0133746 -0.18629216
3.1657927 -1.0096309 0
3.1947489 -1.0188656 0.18730159
2.8016572 -0.88977313 -0.9692623
3.1413872 -0.99766737 -0.90935826
3.2422998 -1.029716 -0.7536189
3.3694346 -1.0700924 -0.58938122
3.1429534 -0.99816471 -0.36755982
3.1737957 -1.0079598 -0.1860016
3.1546106 -1.0018669 0
3.1934941 -1.0142158 0.18715602
2.8145108 -0.89011288 -0.97333634
3.1473792 -0.99538529 -0.91074395
3.241112 -1.0250292 -0.75305438
3.3731704 -1.0667937 -0.58980882
3.1392298 -0.99280798 -0.36698377
3.1651013 -1.0009902 -0.18542105
3.1607864 -0.9996255 0
3.1872919 -1.008008 0.18672103
2.8155844 -0.88671148 -0.97333634
3.1629324 -0.99610174 -0.91489559
3.2156961 -1.0127186 -0.74686432
3.3720107 -1.0619467 -0.58938122
3.1379528 -0.98823494 -0.36669466
3.1811841 -1.0018497 -0.18629216
3.1446133 -0.99033254 0
3.1860218 -1.0033733 0.18657547
2.8614647 -0.89736158 -0.98882145
3.1545584 -0.98927641 -0.9121269
3.2144952 -1.0080727 -0.74630195
3.356143 -1.0524938 -0.58638507
3.1416197 -0.98521876 -0.36698377
3.1650341 -0.99256158 -0.18527605
3.1458077 -0.98653215 0
3.1798007 -0.9971925 0.18614046
2.8318789 -0.88432652 -0.97822773
3.1629379 -0.98770815 -0.91420406
3.2132785 -1.0034283 -0.74573743
3.3647656 -1.050734 -0.58766937
3.1403317 -0.98064882 -0.36669466
3.1662312 -0.98873651 -0.18527605
3.1494792 -0.98350537 0
3.176038 -0.991799 0.18584991
2.8282206 -0.87943494 -0.97659624
3.144964 -0.97792625 -0.90866679
3.2120647 -0.99879128 -0.74517512
3.3611255 -1.0451417 -0.58681262
3.1415145 -0.97685367 -0.36669466
3.1599772 -0.98259467 -0.18484049
3.1407249 -0.9766081 0
3.1772342 -0.98796064 0.18584991
2.8387253 -0.87894106 -0.97985607
3.1557295 -0.97709358 -0.91143543
3.2156942 -0.99566019 -0.74573743
3.362386 -1.0410796 -0.58681262
3.1402242 -0.97229278 -0.36640665
3.1710911 -0.98184991 -0.18542105
3.1294746 -0.96896446 0
3.173466 -0.98258525 0.18555991
2.8180048 -0.87066013 -0.97252214
3.1683018 -0.97888905 -0.91489559
3.2065845 -0.99071699 -0.74348593
3.3507533 -1.0352598 -0.58467317
3.1383421 -0.96963263 -0.36611864
3.1692033 -0.97916758 -0.18527605
3.1424897 -0.97091407 0
3.1740589 -0.98066783 0.18555991
2.8285041 -0.87016153 -0.97578204
3.1431127 -0.96694773 -0.90728378
3.2077792 -0.98684174 -0.74348593
3.3470993 -1.0297022 -0.58381808
3.1296229 -0.9627977 -0.36496547
3.162931 -0.97304463 -0.18484049
3.1461456 -0.96788079 0
3.1752417 -0.97683185 0.18555991
2.8342755 -0.86818957 -0.97741038
3.1442788 -0.96314919 -0.90728378
3.2041149 -0.9814781 -0.74236125
3.3556974 -1.0279106 -0.58510077
3.125833 -0.95749891 -0.36438832
3.1566582 -0.96694118 -0.18440549
3.1348734 -0.96026814 0
3.1764195 -0.97299451 0.18555991
2.8069625 -0.85611457 -0.96763396
3.164628 -0.96520144 -0.91281843
3.2004426 -0.9761247 -0.74123651
3.3422093 -1.0193632 -0.58253378
3.1220446 -0.95221364 -0.3638123
3.1553411 -0.96236897 -0.18426049
3.1459885 -0.95951647 0
3.1701343 -0.96688086 0.18512435
2.8434625 -0.86349297 -0.97985607
3.1465971 -0.95554787 -0.90728378
3.1991813 -0.97151643 -0.74067205
3.3385212 -1.0138308 -0.58167702
3.1182382 -0.94693595 -0.36323515
3.1565018 -0.95855564 -0.18426049
3.1446579 -0.95495898 0
3.1713002 -0.96304965 0.18512435
2.804287 -0.8478967 -0.96600246
3.1549466 -0.95392126 -0.90935826
3.1954932 -0.9661808 -0.73954731
3.3176312 -1.0031102 -0.57782573
3.1193802 -0.94316751 -0.36323515
3.1452143 -0.95097858 -0.18353437
3.148298 -0.95191103 0
3.1774409 -0.96072257 0.18541491
2.8266072 -0.85091919 -0.97333634
3.146488 -0.94721574 -0.90658963
3.2039597 -0.964517 -0.74123651
3.318841 -0.99910074 -0.57782573
3.1180432 -0.93865275 -0.36294714
3.1588089 -0.95092481 -0.18426049
3.1469564 -0.94735676 0
3.1736183 -0.95538306 0.18512435
2.8347383 -0.84963262 -0.97578204
3.1620536 -0.94773614 -0.91074395
3.2051229 -0.96064496 -0.74123651
3.293004 -0.98698479 -0.57311928
3.1216505 -0.93562645 -0.36323515
3.1499994 -0.94412327 -0.18367992
3.1306458 -0.93832254 0
3.1673009 -0.94930887 0.18468879
2.821557 -0.8419677 -0.9708938
3.13675 -0.93602294 -0.90312946
3.1989746 -0.9545911 -0.73954731
3.2991092 -0.9844718 -0.57397443
3.1203024 -0.93111497 -0.36294714
3.1486409 -0.93957126 -0.18353437
3.1292858 -0.93379563 0
3.1709428 -0.94622624 0.18483436
2.8675814 -0.85192955 -0.98637581
3.1354761 -0.93151838 -0.90243798
3.1952496 -0.94927645 -0.73842049
3.2929115 -0.97829086 -0.57269013
3.1189482 -0.92660809 -0.36265913
3.1497738 -0.93576604 -0.18353437
3.1254272 -0.92853296 0
3.1695857 -0.94165194 0.18468879
2.830687 -0.83724767 -0.97333634
3.1390028 -0.92843992 -0.90312946
3.1988378 -0.94613767 -0.738985
3.29656 -0.97504151 -0.57311928
3.1175878 -0.92210591 -0.36237112
3.1484127 -0.93122315 -0.18338937
3.1215508 -0.92327809 0
3.1607542 -0.93487346 0.18410824
2.8364429 -0.83522439 -0.97496784
3.1232738 -0.91968513 -0.89828366
3.1926641 -0.94011796 -0.73729581
3.2928059 -0.96960586 -0.57226253
3.1236572 -0.91979802 -0.36294714
3.1470454 -0.92668498 -0.18324438
3.1401422 -0.92465222 0
3.1618814 -0.93105364 0.18410824
2.8303325 -0.82970995 -0.97252214
3.1340127 -0.9187336 -0.90105236
3.2011149 -0.93840456 -0.738985
3.2915142 -0.96490502 -0.57183498
3.1073992 -0.91093189 -0.36092991
3.1356976 -0.91922754 -0.18251881
3.1312675 -0.91792887 0
3.1605132 -0.92650217 0.18396324
2.8242128 -0.82421148 -0.9700765
3.1206753 -0.91073042 -0.89690071
3.1949267 -0.93239975 -0.73729581
3.2902157 -0.96020871 -0.57140744
3.1159394 -0.90934825 -0.36179397
3.1417902 -0.91689253 -0.18280882
3.1348703 -0.91487306 0
3.1641223 -0.92340988 0.18410824
2.860811 -0.83114243 -0.98230177
3.1434536 -0.91325766 -0.90312946
3.1960509 -0.92853862 -0.73729581
3.2938364 -0.95694792 -0.57183498
3.1170359 -0.90558261 -0.36179397
3.1304216 -0.90947157 -0.18208326
3.1384702 -0.91180992 0
3.1652358 -0.919586 0.18410824
2.8351974 -0.82184386 -0.97333634
3.124728 -0.9057706 -0.89759219
3.1892877 -0.92448467 -0.73560661
3.3042762 -0.95781654 -0.57354689
3.1076455 -0.90081882 -0.36064079
3.1334639 -0.9083029 -0.18222825
3.1315289 -0.90774202 0
3.1533146 -0.91405708 0.18338268
2.8409424 -0.81978929 -0.97496784
3.1210041 -0.90060455 -0.89620918
3.1855245 -0.91922277 -0.73448193
3.3078952 -0.95453429 -0.57397443
3.1112239 -0.89778239 -0.36092991
3.1445456 -0.90739775 -0.18280882
3.1151178 -0.89890599 0
3.1544168 -0.91024619 0.18338268
2.8348022 -0.81430817 -0.97252214
3.1220899 -0.89683276 -0.89620918
3.1915126 -0.91677469 -0.73560661
3.3164504 -0.9526636 -0.57525873
3.1073296 -0.89259285 -0.36035278
3.1356499 -0.90072793 -0.18222825
3.1162016 -0.89514136 0
3.1455245 -0.90356445 0.18280213
2.8191471 -0.80612504 -0.9668166
3.1183424 -0.89167893 -0.89482355
3.1999493 -0.91501409 -0.73729581
3.3175991 -0.94865561 -0.57525873
3.1158688 -0.89097154 -0.36121795
3.1367359 -0.89693844 -0.18222825
3.1197808 -0.8920902 0
3.1466138 -0.89976305 0.18280213
2.8510201 -0.81151372 -0.97741038
3.1001141 -0.88241583 -0.88928628
3.2059355 -0.9125368 -0.73842049
3.3236761 -0.94605047 -0.57611382
3.0995271 -0.8822487 -0.35919961
3.1378174 -0.89314765 -0.18222825
3.1033325 -0.88333189 0
3.1476989 -0.89596033 0.18280213
2.8377352 -0.80402696 -0.97252214
3.1229088 -0.88482636 -0.89551771
3.1679306 -0.89758253 -0.72941649
3.3272939 -0.94273555 -0.57654303
3.1080587 -0.88061881 -0.36006477
3.1214013 -0.88439918 -0.18121269
3.1219275 -0.88454831 0
3.1512864 -0.89286667 0.18294768
2.8482199 -0.80328107 -0.97578204
3.1191421 -0.87968904 -0.89413208
3.183681 -0.89789093 -0.73279274
3.3506644 -0.94498509 -0.58039433
3.10165 -0.8747558 -0.35919961
3.1274645 -0.88203621 -0.1815027
3.1154773 -0.87865543 0
3.1498549 -0.88835096 0.18280213
2.8468111 -0.79917163 -0.97496784
3.1129541 -0.87388468 -0.89205492
3.1921051 -0.89610434 -0.73448193
3.3962865 -0.9534232 -0.58809692
3.1027048 -0.87100738 -0.35919961
3.1210203 -0.87614906 -0.18106714
3.1240559 -0.87700123 0
3.153435 -0.88524866 0.18294768
2.8334875 -0.79173905 -0.9700765
3.10918 -0.86877364 -0.89067191
3.1736081 -0.88677627 -0.72997886
3.4444039 -0.96244258 -0.59622705
3.0937905 -0.86447352 -0.35804644
3.1195767 -0.87167865 -0.18092214
3.1100793 -0.86902493 0
3.1519923 -0.88073641 0.18280213
2.8273053 -0.78632987 -0.96763396
3.1078126 -0.8643446 -0.88998044
3.167331 -0.88089782 -0.72828966
3.4455643 -0.95828003 -0.59622705
3.0848653 -0.85796243 -0.35689327
3.1181266 -0.86721307 -0.18077715
3.1010976 -0.862477 0
3.1455512 -0.87484044 0.18236712
2.8520691 -0.78950566 -0.97578204
3.1112704 -0.86125743 -0.89067191
3.1488028 -0.87164706 -0.72378653
4.7306767 -1.3095392 -0.818331
3.0858998 -0.85423434 -0.35689327
3.1241758 -0.8648299 -0.18106714
3.1121702 -0.86150652 0
3.1516097 -0.87242413 0.18265712
2.836339 -0.78146273 -0.9700765
3.1098924 -0.85683173 -0.88998044
3.1327133 -0.86311924 -0.71984798
4.7396827 -1.3058684 -0.8196153
3.0844386 -0.84981865 -0.35660526
3.1177104 -0.85898572 -0.18063214
3.113209 -0.85774547 0
3.1476562 -0.86723632 0.18236712
2.863503 -0.78522557 -0.97904187
3.1254375 -0.85705286 -0.89413208
3.1362019 -0.86000466 -0.72041035
4.7437301 -1.3008187 -0.82004285
3.0929487 -0.84814382 -0.35747042
3.1237531 -0.85659093 -0.18092214
3.0991793 -0.84985232 0
3.1386781 -0.86068362 0.18178657
2.8239174 -0.7707029 -0.96518826
3.104691 -0.84733158 -0.88790327
3.124985 -0.85287023 -0.71759647
4.7353926 -1.2923824 -0.818331
3.0914688 -0.843723 -0.35718128
3.1172631 -0.85076278 -0.18048659
3.1077383 -0.84816325 0
3.1447244 -0.85825753 0.18207656
2.8653922 -0.77830333 -0.97904187
3.1105499 -0.84489352 -0.88928628
3.1284628 -0.84975904 -0.71815878
4.7394257 -1.2873318 -0.81875855
3.0924861 -0.83998692 -0.35718128
3.1132786 -0.84563464 -0.18019658
3.0987148 -0.8416788 0
3.1357288 -0.85173261 0.18149601
2.8281553 -0.7645207 -0.96600246
3.1018813 -0.83851564 -0.88651758
3.1540112 -0.85260773 -0.72378653
3.4202077 -0.92456728 -0.59066391
3.0835209 -0.83355242 -0.35602921
3.1168041 -0.84254968 -0.18034159
3.0972197 -0.83725554 0
3.1367557 -0.84794307 0.18149601
2.8500915 -0.76860321 -0.97333634
3.1217651 -0.84186727 -0.89205492
3.1226358 -0.84210205 -0.71646959
3.3464148 -0.90245003 -0.57782573
3.0815194 -0.83101392 -0.3557401
3.1047709 -0.83728427 -0.17961602
3.0952146 -0.8347072 0
3.1372674 -0.84604788 0.18149601
2.8247666 -0.75811344 -0.96437407
3.0985544 -0.83159292 -0.88513464
3.1162865 -0.83635187 -0.71478039
3.3103199 -0.88842672 -0.57140744
3.0825212 -0.82728994 -0.3557401
3.1032729 -0.83285928 -0.17947103
3.1012433 -0.83231449 0
3.1433115 -0.84360486 0.18178657
2.849555 -0.76107627 -0.97252214
3.1140952 -0.83173126 -0.88928628
3.1271143 -0.83520842 -0.71703196
3.3039482 -0.88243836 -0.57012314
3.073523 -0.82089502 -0.35458693
3.0992513 -0.82776666 -0.17918047
3.0771079 -0.82185245 0
3.1418109 -0.83913374 0.18164101
2.8576407 -0.75953782 -0.97496784
3.1102533 -0.82668024 -0.88790327
3.0986629 -0.82359958 -0.71027946
3.3025336 -0.87778676 -0.56969559
3.0745127 -0.81718069 -0.35458693
3.1052766 -0.82535744 -0.17947103
3.0956976 -0.82281142 0
3.1453409 -0.83600622 0.18178657
2.8370538 -0.75039697 -0.96763396
3.0967026 -0.81907368 -0.88375163
3.1168437 -0.82440102 -0.71421808
3.3035917 -0.87379563 -0.56969559
3.0754979 -0.81346512 -0.35458693
3.1012428 -0.82027459 -0.17918047
3.1017263 -0.8204025 0
3.1413198 -0.83087492 0.18149601
2.8761926 -0.7570318 -0.98067027
3.1073852 -0.81788319 -0.88651758
3.1055539 -0.81740117 -0.7114042
3.2897453 -0.8658815 -0.56712693
3.0739796 -0.80909067 -0.35429892
3.0997212 -0.81586593 -0.17903547
3.0926483 -0.81400436 0
3.1347804 -0.82509381 0.18106045
2.8532002 -0.7472949 -0.97252214
3.1156542 -0.81603545 -0.88859475
3.0942516 -0.81042981 -0.70859027
3.2858272 -0.86060625 -0.56627184
3.0724554 -0.80472106 -0.35401091
3.1007047 -0.81211996 -0.17903547
3.0860744 -0.8082881 0
3.1332638 -0.82064772 0.18091545
2.8564904 -0.74446952 -0.97333634
3.0996513 -0.80784309 -0.88375163
3.1075201 -0.80989391 -0.7114042
3.2669921 -0.85145605 -0.56284809
3.0759261 -0.8016597 -0.35429892
3.0991716 -0.8077181 -0.17889047
3.0744593 -0.80127746 0
3.139287 -0.81817311 0.181206
2.8741374 -0.74536121 -0.97904187
3.1127648 -0.80724543 -0.88721174
3.1084964 -0.80613846 -0.7114042
3.2257781 -0.83655357 -0.55557305
3.0718899 -0.79664516 -0.35372287
3.1026583 -0.80462438 -0.17903547
3.0930619 -0.80213577 0
3.1352379 -0.81307346 0.18091545
2.8582811 -0.73756438 -0.97333634
3.1185918 -0.80473614 -0.88859475
3.099627 -0.79984236 -0.70915264
3.1571884 -0.81469578 -0.54358995
3.0678365 -0.79163903 -0.35314575
3.0960777 -0.79892647 -0.17859991
3.0814219 -0.79514462 0
3.1337044 -0.80863589 0.18077044
2.8472028 -0.73103744 -0.9692623
3.1219895 -0.80159068 -0.88928628
3.1104355 -0.7986241 -0.7114042
3.0960124 -0.79492086 -0.53289121
3.0687909 -0.78793156 -0.35314575
3.0894976 -0.79324812 -0.17816491
3.0899448 -0.79336303 0
3.132165 -0.80420327 0.18062545
2.8696339 -0.73310196 -0.97659624
3.1083763 -0.79409313 -0.88513464
3.1064792 -0.79360849 -0.71027946
3.0969706 -0.79117936 -0.53289121
3.0572131 -0.78102255 -0.35170457
3.0828986 -0.78758436 -0.17772935
3.0782962 -0.7864086 0
3.14572 -0.80363327 0.18135101
2.8729107 -0.73024231 -0.97741038
3.1263559 -0.79466349 -0.88998044
3.1098962 -0.79047972 -0.71084183
3.0805156 -0.78301173 -0.52989668
3.0606589 -0.77796447 -0.35199258
3.0888798 -0.78513777 -0.17801934
3.0918531 -0.7858935 0
3.1391311 -0.79791069 0.18091545
2.8618126 -0.72374111 -0.97333634
3.1394725 -0.79396021 -0.89344054
3.0960641 -0.78298241 -0.70746344
3.0739911 -0.7774002 -0.52861238
3.0666165 -0.77553523 -0.35256973
3.0873096 -0.78076839 -0.17787436
3.0928006 -0.78215706 0
3.1400928 -0.79411709 0.18091545
2.9058337 -0.73113936 -0.98800731
3.2012508 -0.80546945 -0.91074395
3.1044025 -0.78110141 -0.70915264
3.0649703 -0.7711798 -0.52690047
3.0575182 -0.76930481 -0.35141656
3.0806885 -0.77513468 -0.1774388
3.0887005 -0.77715057 0
3.1334977 -0.78842205 0.18048045
2.8803389 -0.72102499 -0.97904187
3.2387197 -0.81073719 -0.92112434
3.0930223 -0.77426529 -0.70633876
3.0733728 -0.76934654 -0.52818477
3.0584455 -0.7656098 -0.35141656
3.0816228 -0.77141172 -0.1774388
3.0770166 -0.77025867 0
3.1369662 -0.78526562 0.18062545
2.8663907 -0.71569341 -0.97415364
3.3244028 -0.83005196 -0.94535071
3.1058133 -0.77547354 -0.70915264
3.0663629 -0.76562339 -0.52690047
3.0538838 -0.76250756 -0.35083941
3.0871353 -0.77080995 -0.17772935
3.0825267 -0.76965922 0
3.1323931 -0.78211015 0.1803349
2.8576584 -0.70984608 -0.9708938
3.3594854 -0.83450055 -0.95503962
3.1289392 -0.77723253 -0.71421808
3.0722733 -0.76315665 -0.52775723
3.0548029 -0.75881702 -0.35083941
3.0830159 -0.76582515 -0.1774388
3.0784078 -0.76468045 0
3.1383843 -0.77957875 0.18062545
2.8561077 -0.70579797 -0.9700765
3.3458736 -0.82682836 -0.9508853
3.1224737 -0.771622 -0.71252888
0 -0 -0
3.0557175 -0.75512528 -0.35083941
3.0864689 -0.76272452 -0.17758435
3.0767956 -0.76033407 0
3.1317539 -0.77391535 0.18018989
2.8785574 -0.7076562 -0.97741038
3.3614924 -0.82637954 -0.95503962
3.1308084 -0.76966888 -0.71421808
3.0616372 -0.75266403 -0.52561617
3.0516093 -0.75019878 -0.35026339
3.0798159 -0.75713301 -0.17714879
3.0802467 -0.75723892 0
3.1352077 -0.7707504 0.1803349
2.8538489 -0.69427282 -0.9684481
3.370795 -0.82003337 -0.95711678
3.1450014 -0.76510322 -0.71703196
3.0584633 -0.74405056 -0.52476108
3.0408497 -0.73976564 -0.34882218
3.0816367 -0.74968809 -0.17714879
3.0820677 -0.74979293 0
3.1345389 -0.76255792 0.18018989
2.900322 -0.70186782 -0.98393011
3.3839729 -0.81890965 -0.96057689
3.1335778 -0.75831491 -0.71421808
3.0618527 -0.74095768 -0.52518862
3.0417414 -0.73609084 -0.34882218
3.0774844 -0.74474049 -0.17685823
3.0829713 -0.74606836 0
3.1379809 -0.75938046 0.1803349
2.893966 -0.69662917 -0.98148757
3.3703206 -0.81129628 -0.95642263
3.1419051 -0.75631261 -0.71590728
3.0552561 -0.73545462 -0.52390432
3.0451407 -0.73301965 -0.34911022
3.0809155 -0.74163127 -0.17700379
3.0838706 -0.74234259 0
3.1464777 -0.75741327 0.18077044
2.8587482 -0.68449831 -0.9692623
3.3810577 -0.80956006 -0.95919126
3.1378698 -0.75133115 -0.71478039
3.0561426 -0.73176241 -0.52390432
3.0535729 -0.73114711 -0.34997535
3.0792751 -0.73730123 -0.17685823
3.0847652 -0.73861581 0
3.1347578 -0.75058603 0.18004489
2.900445 -0.69077772 -0.98311591
3.3820333 -0.8054741 -0.95919126
3.1239495 -0.74400818 -0.7114042
3.0645185 -0.72985393 -0.52518862
3.049417 -0.72625726 -0.34939823
3.0877492 -0.73538661 -0.17729379
3.0805874 -0.7336809 0
3.1356626 -0.74679774 0.18004489
2.872417 -0.6804359 -0.97333634
3.3854525 -0.80196697 -0.95988542
3.1223762 -0.73964781 -0.71084183
3.0579019 -0.72437477 -0.52390432
3.0528069 -0.72316778 -0.34968624
3.0810478 -0.72985768 -0.17685823
3.0713418 -0.72755849 0
3.1340365 -0.74240994 0.17989989
2.887676 -0.68036664 -0.97822773
3.3815305 -0.7967239 -0.95849979
3.0713332 -0.72363818 -0.69902182
3.0537825 -0.71950305 -0.52304918
3.0436082 -0.71710587 -0.34853306
3.0844638 -0.7267319 -0.17700379
3.0747495 -0.72444308 0
3.1399848 -0.73981321 0.18018989
2.8812745 -0.67518467 -0.97578204
3.3873806 -0.79378331 -0.95988542
3.0746768 -0.72050571 -0.69958413
3.0521526 -0.71522748 -0.52262163
3.046998 -0.71401954 -0.34882218
3.0802751 -0.72181761 -0.17671323
3.0756226 -0.72072732 0
3.145941 -0.73720545 0.18048045
2.870055 -0.66889828 -0.971708
3.3932192 -0.79082751 -0.96126842
3.0903881 -0.7202493 -0.70296037
3.0605075 -0.71328539 -0.52390432
3.0453322 -0.70974857 -0.34853306
3.0836732 -0.71868438 -0.17685823
3.0739591 -0.71642035 0
3.1341691 -0.73045301 0.17975433
2.85641 -0.66208029 -0.9668166
3.3917305 -0.78616095 -0.96057689
3.0689809 -0.71135157 -0.69789493
3.0588689 -0.70900774 -0.52347672
3.0386357 -0.70431799 -0.34766904
0 -0 -0
3.0824308 -0.71446908 0
3.137588 -0.72725385 0.17989989
2.8812969 -0.66418123 -0.97496784
3.3902357 -0.78149915 -0.95988542
3.0846987 -0.71106839 -0.70127332
3.0447195 -0.70185256 -0.52090979
3.0344391 -0.69948274 -0.34709188
0 -0 -0
3.0782149 -0.70957375 0
3.1435237 -0.72462839 0.18018989
2.874469 -0.6607787 -0.97252214
3.3955927 -0.78057379 -0.96126842
3.0900757 -0.71034199 -0.702398
3.0476422 -0.70058751 -0.52133733
3.0424256 -0.69938833 -0.34795704
3.0427818 -0.69947016 -0.174391
3.1040113 -0.71354556 0
3.1464911 -0.72331071 0.1803349
2.8969481 -0.66226178 -0.97985607
3.3745246 -0.77143896 -0.95503962
3.0983651 -0.70830709 -0.7040872
3.0484865 -0.69690448 -0.52133733
3.0432684 -0.69571161 -0.34795704
0 -0 -0
0 -0 0
3.1524336 -0.72066754 0.18062545
2.8591843 -0.64999443 -0.9668166
3.4194839 -0.77737045 -0.96749723
3.0769219 -0.69949394 -0.69902182
3.0518272 -0.69378901 -0.52176487
3.0642841 -0.69662088 -0.35026339
0 -0 -0
3.0930405 -0.70315826 0
3.1406357 -0.71397835 0.17989989
2.8647938 -0.64763021 -0.9684481
3.3935103 -0.76715463 -0.95988542
3.0876782 -0.69801664 -0.70127332
3.0476604 -0.68896997 -0.52090979
3.0424204 -0.68778545 -0.34766904
0 -0 -0
3.0862699 -0.6976983 0
3.1414959 -0.71018296 0.17989989
2.8800383 -0.64741963 -0.97333634
3.3993256 -0.76415312 -0.96126842
3.0959494 -0.69595551 -0.70296037
3.0409744 -0.68359739 -0.51962543
3.0508125 -0.68580896 -0.34853306
3.0664084 -0.68931478 -0.17555211
3.0820277 -0.69282597 0
3.1372766 -0.70524567 0.17960933
2.8784087 -0.64340055 -0.97252214
3.4026923 -0.76059186 -0.9619599
3.1091938 -0.69498712 -0.70577639
3.0392954 -0.67936301 -0.51919788
3.0592141 -0.68381536 -0.34939823
3.0748491 -0.68731022 -0.17598768
3.0701659 -0.68626338 0
3.1457365 -0.7031554 0.18004489
2.8695331 -0.63777709 -0.9692623
3.4109583 -0.75811327 -0.96403706
3.1149871 -0.69233131 -0.70690107
3.0501378 -0.67791796 -0.52090979
3.0474162 -0.67731309 -0.34795704
3.0782115 -0.68415755 -0.17613268
3.0811548 -0.68481177 0
3.1491179 -0.69991714 0.18018989
2.9209802 -0.64550883 -0.98637581
3.3971786 -0.75074416 -0.95988542
3.1282244 -0.69130784 -0.70971501
3.0459366 -0.67312306 -0.52005303
3.0457091 -0.67307276 -0.34766904
3.0460544 -0.67314905 -0.174246
3.0845187 -0.68164933 0
3.1575756 -0.6977942 0.18062545
2.880722 -0.63296235 -0.97252214
3.4029791 -0.74771458 -0.96126842
3.1240988 -0.68643796 -0.70859027
3.0517671 -0.67054498 -0.52090979
3.0540917 -0.67105573 -0.34853306
3.0798557 -0.67671674 -0.17613268
3.0929682 -0.67959785 0
3.1558809 -0.69342124 0.18048045
2.888731 -0.63106412 -0.97496784
3.389179 -0.7403906 -0.95711678
3.1274059 -0.68320435 -0.70915264
3.0425434 -0.66466552 -0.51919788
3.0523758 -0.66681349 -0.34824505
3.0629084 -0.66911447 -0.17511712
3.083617 -0.67363834 0
3.1516345 -0.68849725 0.18018989
2.8967304 -0.62914544 -0.97741038
3.3876126 -0.73576093 -0.95642263
3.1232679 -0.67834747 -0.70802796
3.040838 -0.66044444 -0.51877034
3.0481291 -0.66202796 -0.34766904
3.0814822 -0.66927195 -0.17613268
3.0920608 -0.67156953 0
3.1600842 -0.68634367 0.18062545
2.8829975 -0.62251586 -0.97252214
3.4007673 -0.73431617 -0.95988542
3.1315291 -0.67618042 -0.70971501
3.0466475 -0.65785229 -0.51962543
3.0463912 -0.65779692 -0.34737989
3.0746763 -0.66390437 -0.17569768
3.1005039 -0.66948128 0
3.1482141 -0.67978317 0.17989989
2.9248266 -0.62785 -0.98637581
3.4041028 -0.7307325 -0.96057689
3.1323438 -0.67239606 -0.70971501
3.0424252 -0.65309399 -0.51877034
3.0572994 -0.6562869 -0.34853306
3.0805523 -0.66127843 -0.17598768
3.0962167 -0.66464096 0
3.1617336 -0.67870498 0.18062545
2.8869083 -0.61606228 -0.97333634
3.3927178 -0.72400141 -0.95711678
3.1406112 -0.67020214 -0.7114042
3.0582707 -0.65263081 -0.52133733
3.055563 -0.65205294 -0.34824505
3.0889752 -0.65918314 -0.17642324
3.0919321 -0.65981406 0
3.1600125 -0.67434239 0.18048045
2.8973217 -0.61462522 -0.97659624
3.4230306 -0.72614676 -0.96542007
3.1538441 -0.66904271 -0.71421808
