# .PCD v0.7 - Point Cloud Data file format
VERSION 0.7
FIELDS x y z
SIZE 4 4 4
TYPE F F F
COUNT 1 1 1
WIDTH 1600
HEIGHT 1
VIEWPOINT 0 0 0 1 0 0 0
POINTS 1600
DATA ascii
-2.2381485 4.8781543 -0.29978538
-0 0 0
-6.4389496 14.034007 0.86245531
-1.3203815 2.868686 -0.69958413
-1.311781 2.8500004 -0.52304918
-1.3485031 2.9297836 -0.35948762
-2.2473016 4.8825302 -0.30022094
-0 0 0
-6.4559026 14.026217 0.86245531
-1.331304 2.8832386 -0.70352489
-1.3335171 2.8880317 -0.53032422
-1.3574667 2.9398999 -0.36092991
-2.2564642 4.8868814 -0.30065593
-0 0 0
-6.4728456 14.018406 0.86245531
-1.3176996 2.844739 -0.69451874
-1.3326899 2.8771009 -0.52861238
-1.3468823 2.9077406 -0.35718128
-2.2558167 4.8700094 -0.29978538
-0 0 0
-6.4974256 14.027081 0.86347139
-1.3286321 2.8592768 -0.69845945
-1.3004681 2.7986665 -0.51448983
-1.3449461 2.8943853 -0.3557401
-2.273741 4.8931942 -0.3013815
-0 0 0
-6.5198436 14.031 0.86419696
-1.3256428 2.843847 -0.69508106
-1.3201184 2.8319957 -0.52090979
-1.3451673 2.8857319 -0.35487604
-2.2774584 4.8857379 -0.30109149
-0 0 0
-6.5367923 14.023111 0.86419696
-1.339839 2.8652556 -0.70070881
-1.3126634 2.8071404 -0.51662928
-1.343172 2.8723829 -0.35343376
-2.2921655 4.9018126 -0.30225262
-0 0 0
-6.5625372 14.034034 0.86535805
-1.3530151 2.8843446 -0.70577639
-1.3149652 2.8032303 -0.51620173
-1.3345619 2.8450065 -0.35026339
-2.2903612 4.8825698 -0.30123648
-0 0 0
-6.5827975 14.033145 0.86579305
-1.3478444 2.864315 -0.70127332
-1.3128874 2.7900279 -0.51406229
-1.3412992 2.8504059 -0.35112742
-2.2973645 4.8821478 -0.3013815
-0 0 0
-6.6019635 14.029887 0.86608362
-1.3560719 2.8772862 -0.70464957
-1.3080084 2.775306 -0.51149529
-1.3297931 2.8215282 -0.34766904
-2.3025312 4.8854642 -0.30167204
-0 0 0
-6.6204076 14.047048 0.86738974
-1.3497744 2.8549738 -0.69958413
-1.3135532 2.7783606 -0.51235044
-1.3276707 2.8082211 -0.34622672
-2.3106518 4.8873725 -0.30196205
-0 0 0
-6.639595 14.043732 0.86767977
-1.3619335 2.8717072 -0.7040872
-1.3092082 2.7605331 -0.50935423
-1.3310629 2.8066149 -0.34622672
-2.315443 4.8822312 -0.30181706
-0 0 0
-6.6610131 14.045091 0.86826032
-1.3730445 2.8861229 -0.70802796
-1.3070297 2.7473607 -0.50721478
-1.3366776 2.8096802 -0.34680387
-2.3235755 4.8841276 -0.3021076
-0 0 0
-6.6835637 14.048771 0.86898643
-1.3754333 2.8821621 -0.70746344
-1.3180889 2.7619991 -0.51021099
-1.3333899 2.7940617 -0.34507465
-2.3283529 4.8789644 -0.30196205
-0 0 0
-6.6960578 14.031304 0.86840588
-1.3811111 2.8850861 -0.70859027
-1.32364 2.7650309 -0.51106608
-1.3311777 2.780777 -0.34363237
-2.3297586 4.8667727 -0.3013815
-0 0 0
-6.7208571 14.039602 0.86942142
-1.3845962 2.8834152 -0.70859027
-1.3380942 2.7865751 -0.51534659
-1.3390152 2.7884929 -0.34478554
-2.3367655 4.866303 -0.30152705
-0 0 0
-6.7378163 14.031471 0.86942142
-1.3957946 2.8977578 -0.71252888
-1.3303181 2.7618241 -0.51106608
-1.3289144 2.7589099 -0.34132603
-2.3471541 4.8728399 -0.3021076
-0 0 0
-6.770555 14.056099 0.87145364
-0 0 -0
-1.3548746 2.8041337 -0.51919788
-1.3254977 2.7433333 -0.33959684
-1.3910699 2.8790457 -0.17859991
-0 0 0
-6.7909222 14.054919 0.87188864
-1.406119 2.9012377 -0.71421808
-1.3604989 2.8071101 -0.52005303
-1.336709 2.7580247 -0.34161517
-1.3900145 2.8680098 -0.17801934
-0 0 0
-6.8101683 14.051385 0.87217921
-1.4129574 2.9063945 -0.71590728
-1.3773583 2.8331687 -0.52518862
-1.3411704 2.7587316 -0.34190318
-1.380985 2.8406286 -0.17642324
-0 0 0
-6.8282766 14.045481 0.87232423
-1.2962337 2.6581256 -0.81592107
-1.4142386 2.9001129 -0.71478039
-1.3864055 2.8430369 -0.52732801
-1.3240987 2.7152672 -0.33671448
-1.3935279 2.8576422 -0.17758435
-0 0 0
-6.8554926 14.058237 0.87363034
-1.3281033 2.715147 -0.83391595
-1.4099298 2.8824313 -0.71084183
-1.3864591 2.8344481 -0.52604538
-1.3330599 2.72528 -0.33815566
-1.3958347 2.8536155 -0.1774388
-0 0 0
-6.8736148 14.052276 0.8737753
-1.3556967 2.7630947 -0.84914488
-1.3943859 2.8419487 -0.70127332
-1.3898829 2.8327708 -0.52604538
-1.3352138 2.7213476 -0.33786765
-1.3832599 2.8192723 -0.17540713
-0 0 0
-6.8963151 14.055631 0.87450147
-1.3379853 2.7186844 -0.83599311
-1.3720124 2.7878249 -0.68832642
-1.3989713 2.8426034 -0.52818477
-1.3259368 2.6942027 -0.33469614
-1.3924012 2.8292537 -0.17613268
-0 0 0
-6.9270577 14.075255 0.87624258
-1.3478922 2.7221901 -0.83807027
-1.353943 2.7344105 -0.67594403
-1.4160875 2.8599167 -0.53203607
-1.3347369 2.695622 -0.33527216
-1.3830943 2.7932842 -0.17410101
-0 0 0
-6.9633603 14.063136 0.87653309
-1.3456018 2.7093272 -0.8346101
-1.3470751 2.7122934 -0.67087865
-1.4161154 2.8513041 -0.53075176
-1.3299428 2.6777983 -0.33325496
-1.3968699 2.8125539 -0.17540713
-2.8961008 5.8312082 0
-6.9815025 14.057036 0.87667811
-1.3555843 2.7211683 -0.83876175
-1.3537514 2.717489 -0.67256784
-1.4172724 2.8449998 -0.52989668
-1.3251032 2.6599813 -0.33123663
-1.387521 2.7852776 -0.17381045
-0 0 0
-7.0042748 14.060218 0.87740368
-1.342054 2.6858716 -0.82838136
-1.3388623 2.6794841 -0.6635617
-1.4298885 2.861656 -0.53332043
-1.3271613 2.6560667 -0.33094862
-1.394371 2.7905746 -0.174246
-0 0 0
-7.03055 14.070339 0.87856477
-1.3452984 2.6842482 -0.82838136
-1.342099 2.6778643 -0.6635617
-1.4367925 2.8668044 -0.53460306
-1.3268919 2.647522 -0.33008346
-1.3791137 2.7517192 -0.17192377
-2.980185 5.9463062 0
-7.0580235 14.082739 0.87987089
-1.3557917 2.6970448 -0.99534118
-1.3541737 2.693826 -0.83184147
-1.3567436 2.6989384 -0.66918945
-1.4321879 2.8490179 -0.53160852
-1.3207964 2.6274292 -0.32777712
-1.3882763 2.7616656 -0.17264989
-0 0 0
-7.0762053 14.07653 0.88001645
-1.3445847 2.6667163 -0.98474741
-1.3574276 2.6921878 -0.83184147
-1.3462763 2.6700711 -0.66243482
-1.4379386 2.8518653 -0.53246367
-1.3228068 2.6235242 -0.32748911
-1.383422 2.7437425 -0.17163377
-0 0 0
-7.0932088 14.067968 0.88001645
-1.3511491 2.6717002 -0.98718995
-1.3470932 2.6636806 -0.82353556
-1.341478 2.6525772 -0.65849626
-1.4448601 2.8570004 -0.53374797
-1.3329817 2.635777 -0.3292194
-1.3761834 2.7212019 -0.17032766
-2.9641361 5.8611474 0
-7.1184072 14.075612 0.88103205
-1.3409592 2.6436148 -0.97741038
-1.3514446 2.6642861 -0.82422704
-1.342381 2.6464179 -0.65736938
-1.4506315 2.8598268 -0.53460306
-1.3209515 2.6041708 -0.32547078
-1.3912228 2.7427063 -0.17177877
-2.9912291 5.8970156 0
-7.1412859 14.078586 0.88175756
-1.3324823 2.6229742 -0.9700765
-1.3530539 2.6634691 -0.82422704
-1.3497325 2.6569309 -0.66018331
-1.4628218 2.8795457 -0.53845435
-1.3389271 2.6356604 -0.32950744
-1.3693422 2.6955321 -0.16887598
-3.0101132 5.9253688 0
-7.1533217 14.081221 0.88219315
-1.308725 2.5685174 -0.95052046
-1.3642451 2.6774817 -0.82907283
-1.3494847 2.6485126 -0.65849626
-1.473295 2.891504 -0.54102302
-1.3256692 2.6017723 -0.32547078
-1.3796785 2.7077715 -0.1697471
-2.974741 5.8382578 0
-7.1785898 14.088776 0.88320923
-1.3298192 2.6021395 -0.96355677
-0 0 -0
-1.3503691 2.6423507 -0.65736938
-1.473282 2.8828621 -0.53973866
-1.3205762 2.584053 -0.32345358
-1.385312 2.7107255 -0.17003711
-2.9983714 5.8670988 0
-7.1967897 14.082403 0.88335425
-1.3340931 2.6027365 -0.96437407
-0 0 -0
-1.3581969 2.6497617 -0.65962094
-0 0 -0
-1.333136 2.6008694 -0.32575992
-1.3696266 2.6720605 -0.16771543
-3.0232661 5.8982134 0
-7.2232823 14.092196 0.88451535
-1.3440151 2.6143072 -0.9692623
-0 0 -0
-1.3544294 2.6345644 -0.6562447
-1.487289 2.8929958 -0.54230732
-1.3209052 2.569355 -0.32201239
-1.3799804 2.6842649 -0.16858599
-3.0280087 5.8899226 0
-7.2474308 14.09732 0.88538593
-1.3313172 2.5819309 -0.95785433
-0 0 -0
-1.3448014 2.6080818 -0.65005243
-1.4837224 2.8775027 -0.53973866
-1.3204516 2.5608582 -0.32114723
-1.3867965 2.6895263 -0.16902155
-3.0279694 5.872385 0
-7.2704167 14.100106 0.88611203
-1.3491948 2.6088583 -0.9684481
-0 0 -0
-1.3502885 2.6109734 -0.65117931
-1.4883764 2.8779857 -0.54016626
-1.3271104 2.5661554 -0.32201239
-1.3840781 2.6763105 -0.16829598
-3.0326695 5.8640943 0
-7.2874489 14.091311 0.88611203
-1.3273118 2.5589619 -0.95052046
-1.3778458 2.656388 -0.82561266
-1.3534423 2.60934 -0.65117931
-1.4906719 2.8739085 -0.53973866
-1.3266363 2.5576599 -0.32114723
-1.3789349 2.6584876 -0.16727987
-3.0565312 5.8927732 0
-7.3140368 14.100939 0.8872726
-1.3269796 2.5507762 -0.94807476
-1.3775799 2.6480422 -0.82353556
-1.3589373 2.6122065 -0.65230399
-1.4976987 2.8789396 -0.54102302
-1.3213688 2.5399909 -0.3191289
-1.3845422 2.6614254 -0.16756986
-3.1020792 5.9629474 0
-7.3394656 14.10823 0.88828874
-1.3334918 2.5557468 -0.95052046
-1.3796191 2.6441536 -0.82284403
-1.3585653 2.6038022 -0.6506148
-1.4940491 2.8634679 -0.53845435
-1.3268322 2.5429831 -0.31970605
-1.3889625 2.662061 -0.16771543
-3.1514139 6.0399442 0
-7.3553061 14.09705 0.88814372
-1.3572042 2.5935476 -0.96518826
-1.3746696 2.6269228 -0.81799823
-1.3652459 2.6089149 -0.65230399
-1.5022688 2.8707585 -0.54016626
-1.3299038 2.5413778 -0.31970605
-1.3801279 2.6373534 -0.16626374
-3.1502666 6.0199976 0
-7.3771534 14.097361 0.88872427
-1.3442587 2.561271 -0.95378029
-1.3708496 2.6119359 -0.81384659
-1.3624945 2.5960162 -0.64949012
-1.5105084 2.8780332 -0.5418781
-1.3209513 2.5168626 -0.31682256
-1.3929741 2.6540904 -0.16742487
-3.1696305 6.0392261 0
-7.4014249 14.102238 0.88959485
-1.3461978 2.5574512 -0.95296299
-1.3704978 2.6036153 -0.81176943
-1.3608961 2.5853744 -0.64723855
-1.5056182 2.8603115 -0.53888357
-1.327607 2.5221331 -0.31768772
-1.3780285 2.6179218 -0.1652482
-3.1914721 6.0630274 0
-7.4208822 14.097887 0.88988537
-1.3573655 2.571125 -0.95866853
-1.3584177 2.573118 -0.80277199
-1.3580889 2.5724952 -0.64442468
-1.5090733 2.8584902 -0.53888357
-1.3270298 2.5136631 -0.31682256
-1.3726977 2.6001673 -0.16423208
-3.1915081 6.045362 0
-7.4463997 14.104988 0.89090097
-1.3477482 2.5454533 -0.94970316
-1.3568301 2.5626061 -0.80000335
-1.3683277 2.5843215 -0.64780092
-1.5149262 2.8611977 -0.53973866
-1.3228066 2.498347 -0.31509337
-1.3904293 2.6260638 -0.16597375
-3.1963725 6.0368972 0
-7.4719501 14.112058 0.89191705
-1.3473487 2.5372806 -0.94726062
-1.3552191 2.5521019 -0.79723471
-1.3654921 2.5714476 -0.64498705
-1.523198 2.868434 -0.54145056
-1.3294648 2.5036023 -0.31595853
-1.383852 2.6060224 -0.16481264
-3.1987822 6.0238361 0
-7.4938707 14.112199 0.8924976
-1.3655159 2.5640082 -0.95785433
-1.366558 2.5659649 -0.80208051
-1.3638207 2.5608251 -0.64273548
-1.5182149 2.8507288 -0.53845435
-1.3093873 2.4586165 -0.31048068
-1.3808938 2.5928831 -0.16408707
-3.2341967 6.0728011 0
-7.5145826 14.110017 0.89293319
-1.3546396 2.536195 -0.94807476
-1.3519269 2.5311162 -0.79169744
-1.3633215 2.5524495 -0.64104629
-1.5252877 2.8556874 -0.53973866
-1.32698 2.4844098 -0.3139402
-1.3827981 2.5889142 -0.16394152
-3.2170095 6.0229774 0
-7.5389695 14.114674 0.89380372
-1.3647034 2.5476246 -0.95296299
-1.3561678 2.5316901 -0.79238892
-1.3700052 2.5575218 -0.64273548
-1.5263152 2.8493209 -0.53888357
-1.3324212 2.48736 -0.31451622
-1.3699757 2.5574667 -0.16205485
-3.2476304 6.0626669 0
-7.5560188 14.105554 0.89380372
-1.364275 2.539448 -0.95052046
-1.3604165 2.5322661 -0.79308307
-1.3658818 2.542439 -0.63935924
-1.5333982 2.8542523 -0.54016626
-1.3354257 2.4857483 -0.31451622
-1.373065 2.5558095 -0.16205485
-3.2795866 6.1045904 0
-7.5804329 14.110144 0.8946743
-1.3567924 2.5182168 -0.94318652
-1.3527622 2.5107367 -0.78685164
-1.3629279 2.5296044 -0.63654536
-1.5331964 2.8456242 -0.53888357
-1.329844 2.4682004 -0.31249902
-1.3773882 2.5564427 -0.16220041
-0 0 0
-7.6036429 14.112418 0.8954004
-1.3551344 2.5078778 -0.93992668
-1.3462584 2.4914515 -0.781317
-1.3659835 2.5279558 -0.63654536
-1.5500541 2.8686059 -0.54358995
-1.331597 2.4643183 -0.31221101
-1.3780032 2.5502002 -0.16190985
-3.2621648 6.0371213 0
-7.6243916 14.110072 0.8958354
-1.3346117 2.4627779 -0.92362738
-1.3408996 2.474381 -0.7764712
-1.361771 2.5128953 -0.63316697
-1.546183 2.8531933 -0.54102302
-1.3333378 2.460427 -0.31192186
-1.3748946 2.5371127 -0.16118428
-7.5942235 14.013728 0
-7.6513395 14.119125 0.89699656
-1.3552865 2.4937313 -0.93584949
-1.346282 2.4771633 -0.7778542
-1.3623821 2.5067873 -0.63204229
-1.5569819 2.8648517 -0.54358995
-1.3326081 2.452003 -0.31105784
-1.3791989 2.5377302 -0.16132928
-7.6546431 14.084567 0
-7.6733575 14.119002 0.89757711
-1.3485254 2.4777219 -0.93014711
-1.3477783 2.4763494 -0.7778542
-1.3626782 2.5037255 -0.63147777
-1.5587124 2.8639104 -0.54358995
-1.3167765 2.4193878 -0.30702117
-1.3670715 2.5117977 -0.15973318
-7.6743464 14.100511 0
-7.6893415 14.128062 0.89844823
-1.3503352 2.4739234 -0.92933291
-1.3399531 2.4549024 -0.7716254
-1.3730088 2.5154634 -0.63485616
-1.5670913 2.871038 -0.54530185
-1.3296125 2.4359574 -0.30932751
-1.3837961 2.5352263 -0.16132928
-7.6988621 14.104939 0
-7.7076507 14.121039 0.89859319
-1.3509477 2.4679496 -0.92770141
-1.3513519 2.468688 -0.7764712
-0 0 -0
-1.5606984 2.8511281 -0.5418781
-1.3275871 2.4252739 -0.30817434
-1.3706398 2.5039237 -0.15944262
-7.7158995 14.095625 0
-7.7346892 14.129951 0.89975435
-1.3658204 2.4879775 -0.93584949
-1.3434695 2.447263 -0.77024239
-0 0 -0
-1.5629081 2.8469923 -0.54145056
-1.3292731 2.4214029 -0.30788633
-1.3774167 2.5091014 -0.15987816
-7.7291675 14.079446 0
-7.7655077 14.145643 0.90135044
-1.3580986 2.466841 -0.92851561
-1.3476343 2.4478335 -0.77093393
-0 0 -0
-1.552732 2.8203714 -0.53674412
-1.3309517 2.4175315 -0.30759832
-1.3741828 2.4960558 -0.15915261
-7.7511945 14.079215 0
-7.7775817 14.127145 0.90076989
-1.3646635 2.4716914 -0.93096131
-1.3530139 2.4505916 -0.77231687
-0 0 -0
-1.568544 2.8409617 -0.54102302
-1.3251196 2.4000692 -0.30557999
-1.380962 2.5012114 -0.15958761
-7.7682009 14.069839 0
-7.8009291 14.129117 0.90149599
-1.3772269 2.4873388 -0.93748099
-1.3523318 2.4423769 -0.77024239
-1.3795642 2.49156 -0.63091546
-1.5558115 2.8098712 -0.53545982
-1.3292704 2.4007268 -0.305868
-1.3852456 2.5018208 -0.15973318
-7.7940216 14.076383 0
-7.8318377 14.14468 0.90309209
-1.3718313 2.4705451 -0.93177545
-1.3491936 2.4297767 -0.76678228
-1.383806 2.4921105 -0.63147777
-1.5567107 2.8034964 -0.53460306
-1.3284069 2.3923416 -0.30500397
-1.3819567 2.48878 -0.15900706
-7.8249183 14.091976 0
-7.842617 14.12385 0.90236658
-1.3639944 2.4494534 -0.92444158
-1.3618882 2.4456708 -0.77231687
-1.3868161 2.4904366 -0.63147777
-1.548858 2.7814305 -0.53075176
-1.3300346 2.3884685 -0.30471483
-1.3849629 2.4871085 -0.15900706
-7.8482695 14.093878 0
-7.8786411 14.148418 0.90454376
-1.3488804 2.4154408 -0.91221941
-1.3550614 2.4265091 -0.76678228
-1.3836313 2.477669 -0.6286639
-1.5522178 2.779557 -0.53075176
-1.3329197 2.3868597 -0.30471483
-1.3740346 2.4604843 -0.15741093
-7.8716416 14.095752 0
-7.899528 14.145688 0.90497875
-1.3711163 2.4483044 -0.92525572
-1.3555384 2.4204879 -0.7653966
-1.3754514 2.4560452 -0.62359846
-1.5605925 2.7866385 -0.53246367
-1.3320149 2.3784838 -0.3038508
-1.378275 2.4610872 -0.15755594
-7.8848515 14.079415 0
-7.9166145 14.136132 0.90497875
-0 0 -0
-1.3510935 2.4057281 -0.76124495
-1.3709552 2.4410932 -0.62022227
-1.5652143 2.7869868 -0.53289121
-1.3336177 2.3746109 -0.30356166
-1.3812478 2.45942 -0.15755594
-7.9133263 14.090298 0
-7.9425974 14.142418 0.90599489
-0 0 -0
-1.3466103 2.390974 -0.75709069
-1.3676656 2.428359 -0.61740619
-1.5559858 2.7627306 -0.52861238
-1.3250639 2.3527174 -0.30096731
-1.3752913 2.4418986 -0.15653983
-7.9252377 14.071656 0
-7.9673285 14.146391 0.90686548
-0 0 -0
-1.3569033 2.402456 -0.76124495
-1.3581057 2.4045846 -0.61177844
-1.5593228 2.7608485 -0.52861238
-1.3317229 2.357873 -0.30183247
-1.3833524 2.4492853 -0.15712038
-7.9345579 14.048477 0
-7.9933619 14.152594 0.90788156
-0 0 -0
-1.3560948 2.3942637 -0.75916779
-1.3597591 2.4007332 -0.61121607
-1.5398877 2.7187605 -0.52090979
-1.3269252 2.3427629 -0.30010328
-1.3824728 2.4408355 -0.15668538
-7.9438286 14.025289 0
-8.010457 14.142924 0.90788156
-1.3687954 2.4098923 -0.9138478
-1.3552685 2.3860769 -0.75709069
-1.3614053 2.3968811 -0.61065376
-1.5495095 2.7280564 -0.52304918
-1.3208119 2.3254128 -0.29808494
-1.3751544 2.4210877 -0.15552427
-7.9556284 14.006628 0
-8.0326738 14.142273 0.90846211
-1.3704842 2.406091 -0.9130336
-1.3569101 2.3822598 -0.75639915
-1.3655567 2.3974402 -0.61121607
-1.5515355 2.7239537 -0.52262163
-1.3338617 2.341795 -0.30039129
-1.3742193 2.4126487 -0.15508871
-7.9558034 13.967609 0
-8.0523252 14.137068 0.90875214
-1.3697116 2.3979928 -0.91058791
-1.3535674 2.3697283 -0.75293905
-1.3621526 2.3847589 -0.60840219
-1.538275 2.6931012 -0.51705849
-1.3354088 2.3379376 -0.30010328
-1.3784211 2.4132407 -0.15523371
-7.9042687 13.838225 0
-8.0810041 14.147641 0.9100588
-1.3713809 2.3941934 -0.90977377
-1.3464541 2.3506756 -0.74740171
-1.3650331 2.3831112 -0.60840219
-1.541528 2.6912405 -0.51705849
-1.3343748 2.3295872 -0.29923812
-1.381336 2.4115732 -0.15523371
-7.8550177 13.713499 0
-8.1006737 14.142372 0.91034877
-1.3730429 2.3903935 -0.90895957
-1.3492935 2.3490469 -0.74740171
-1.3729739 2.3902733 -0.61065376
-1.5537252 2.7049515 -0.52005303
-1.3294615 2.3145206 -0.2975089
-1.379072 2.4008896 -0.15465315
-7.8482471 13.663373 0
-8.1229324 14.141586 0.91092938
-1.3796277 2.3951516 -0.91140211
-1.3471221 2.3387191 -0.74463308
-1.3669822 2.373198 -0.606713
-1.5416169 2.676379 -0.51491737
-1.3270932 2.3039474 -0.29635575
-1.3715963 2.3812084 -0.15349203
-7.8998241 13.71477 0
-8.1452017 14.140767 0.91150993
-1.3961204 2.4170275 -0.92036754
-1.3562199 2.3479497 -0.74809325
-1.3634956 2.3605456 -0.60389912
-1.5448498 2.6745141 -0.51491737
-1.3337535 2.3090549 -0.29721978
-1.3731741 2.3773015 -0.15334703
-7.9307051 13.729998 0
-8.1778784 14.157916 0.91325158
-1.3953223 2.4089205 -0.91792184
-1.3515137 2.3332882 -0.74394161
-1.3688915 2.3632896 -0.6050238
-1.5455093 2.6682072 -0.51406229
-1.3261714 2.2895365 -0.29491344
-1.3760456 2.3756406 -0.15334703
-8.0346823 13.871283 0
-8.1949797 14.148025 0.91325158
-1.3870605 2.3879998 -0.91058791
-1.3744931 2.3663633 -0.75501615
-1.3513317 2.3264878 -0.5960198
-1.5448629 2.6596763 -0.51277798
-1.3367339 2.3013561 -0.29664376
-1.3749985 2.3672333 -0.15291148
-8.1102571 13.962831 0
-8.2212009 14.153833 0.91426712
-1.3799931 2.369236 -0.90406823
-1.3634607 2.3408523 -0.74740171
-1.3554194 2.3270469 -0.59658217
-1.5429074 2.6489348 -0.51106608
-1.3264931 2.277385 -0.29376027
-1.3830892 2.3745515 -0.15349203
-1.4432313 2.4778063 0
-8.2382975 14.143889 0.91426712
-1.3627487 2.3363833 -0.89184606
-1.3737239 2.3551998 -0.75224751
-1.3478625 2.3108616 -0.59264141
-1.5238185 2.6125317 -0.50422025
-1.338294 2.2944567 -0.29606661
-1.3727421 2.3535168 -0.15218592
-1.4329283 2.4567039 0
-8.2520771 14.147888 0.91484773
-1.3468518 2.302731 -0.87962079
-1.3677011 2.3383772 -0.74740171
-1.3480905 2.3048489 -0.59151673
-1.5308585 2.6173298 -0.50550294
-1.3345375 2.281677 -0.29462543
-1.3834587 2.3653183 -0.15305704
-1.4464072 2.4729424 0
-8.2744141 14.146878 0.91542828
-1.3496332 2.3011019 -0.87962079
-1.3705256 2.3367231 -0.74740171
-1.363727 2.3251314 -0.59714454
-1.5392148 2.6243353 -0.50721478
-1.3386008 2.2822917 -0.29491344
-1.3652822 2.3277831 -0.1507348
-1.4362252 2.4487398 0
-8.2980728 14.148075 0.91615385
-1.3649403 2.3207698 -0.88776892
-1.379706 2.3458755 -0.75086188
-1.3575172 2.3081486 -0.59320378
-1.5514958 2.637965 -0.51021099
-1.3308675 2.2628369 -0.2926071
-1.3694098 2.3283694 -0.1508798
-1.4418242 2.4514935 0
-8.3243847 14.153719 0.91716993
-1.3690027 2.321254 -0.88858622
-1.4016577 2.3766229 -0.76124495
-1.3486894 2.2868111 -0.58813834
-1.5259949 2.5874469 -0.50079656
-1.3296628 2.25455 -0.29174307
-1.3682609 2.3199961 -0.15044424
-1.4342088 2.4318161 0
-8.3454418 14.150367 0.91760552
-1.3670415 2.3051794 -0.88369489
-1.3843603 2.3343832 -0.74878472
-1.3568064 2.2879205 -0.58926523
-1.4510622 2.4468596 -0.4742634
-1.328512 2.2402086 -0.29030189
-1.3685617 2.3077428 -0.14986369
-1.4334452 2.4171529 0
-8.3941889 14.154737 0.91920161
-1.3736169 2.309901 -0.88614053
-1.4012862 2.3564303 -0.75639915
-1.3543751 2.2775435 -0.58701366
-1.413347 2.3767118 -0.46099764
-1.3312178 2.2386017 -0.29030189
-1.3779936 2.317261 -0.15058981
-1.431044 2.4064715 0
-8.4232435 14.16469 0.92050827
-1.3713436 2.2997482 -0.88288069
-1.3964257 2.3418109 -0.75224751
-1.355821 2.2737167 -0.58644915
-1.3846638 2.3220863 -0.45072642
-1.3352451 2.2392111 -0.2905899
-1.3807926 2.3155942 -0.15058981
-1.417956 2.3779175 0
-8.4456758 14.163429 0.92108881
-1.3753886 2.3002088 -0.88369489
-1.4056904 2.3508859 -0.75570768
-1.3663937 2.2851658 -0.58982754
-1.3677062 2.2873607 -0.44430649
-1.3366238 2.2353783 -0.29030189
-1.3755859 2.3005388 -0.14971869
-1.4208282 2.3762023 0
-8.4627829 14.153214 0.92108881
-1.3692738 2.2837129 -0.87799245
-1.4227173 2.3728476 -0.76331943
-1.358701 2.2660794 -0.58532447
-1.3467103 2.2460809 -0.4366039
-1.3353324 2.2271044 -0.28943673
-1.3716849 2.2877343 -0.14899313
-1.4317255 2.3878717 0
-8.4878931 14.156345 0.9219594
-1.3771263 2.2905297 -0.88125229
-1.3777602 2.291584 -0.7377128
-1.3653671 2.2709711 -0.58701366
-1.3481017 2.2422543 -0.43617636
-1.3326914 2.2166226 -0.28828356
-1.3784661 2.2927582 -0.14942868
-1.4319304 2.3816836 0
-8.5036545 14.143854 0.92181438
-1.3607503 2.2571115 -0.86902708
-1.3753469 2.2813234 -0.73494416
-1.3733577 2.2780237 -0.58926523
-1.3335813 2.2120459 -0.43061319
-1.3313613 2.2083633 -0.2874184
-1.3839161 2.2955372 -0.14971869
-1.4334648 2.3777249 0
-8.5261049 14.142469 0.92239493
-1.3621992 2.2533526 -0.86821288
-1.372911 2.2710721 -0.73217553
-1.3721644 2.2698371 -0.58757603
-1.3482044 2.2302024 -0.43446448
-1.3367075 2.2111843 -0.28799555
-1.3786258 2.2805254 -0.14884813
-1.4363368 2.3759911 0
-8.5512505 14.145495 0.92326552
-1.3585161 2.2411389 -0.86413884
-1.3652502 2.2522485 -0.7266382
-1.3656849 2.2529655 -0.58363527
-1.3415819 2.213203 -0.43146831
-1.3273127 2.1896629 -0.2854012
-1.3759924 2.2699697 -0.14826757
-1.4338104 2.3653517 0
-8.5764151 14.14848 0.9241361
-1.3548006 2.2289295 -0.86006165
-1.3627584 2.2420218 -0.72386956
-1.3736851 2.2599986 -0.58588684
-1.3349257 2.1962311 -0.42847377
-1.3326418 2.1924739 -0.28597721
-1.3787342 2.2683053 -0.14826757
-1.4258534 2.3458261 0
-8.6083517 14.162535 0.92573273
-1.3536376 2.2209654 -0.85761911
-1.3667709 2.2425139 -0.72456104
-1.3645148 2.2388122 -0.58082139
-1.3375783 2.1946166 -0.42847377
-1.3285608 2.179821 -0.28453603
-1.3774158 2.2599792 -0.14783202
-1.4205576 2.3307636 0
-8.6322184 14.163215 0.9264583
-1.3498771 2.2087855 -0.85354507
-1.3655535 2.2344368 -0.72248393
-1.3658953 2.2349958 -0.58025903
-1.32952 2.1754754 -0.42505002
-1.3352413 2.1848371 -0.2854012
-1.3801454 2.2583132 -0.14783202
-1.4315181 2.3423736 0
-8.6574583 14.166081 0.92732942
-1.3551253 2.2113636 -0.85517341
-1.3603899 2.2199547 -0.71833229
-1.3792157 2.2506754 -0.58476216
-1.3321476 2.1738675 -0.42505002
-1.3297691 2.169986 -0.28367087
-1.3787988 2.2499952 -0.14739646
-1.4248275 2.3251071 0
-8.6772814 14.160037 0.9276194
-1.3461519 2.190774 -0.84783953
-1.3591299 2.2118948 -0.71625513
-1.3819343 2.2490075 -0.58476216
-1.3428344 2.185375 -0.42761701
-1.3351009 2.1727893 -0.28424802
-1.3733569 2.2350485 -0.1465259
-1.4344469 2.3344684 0
-8.6971083 14.153974 0.92790997
-1.364356 2.214397 -0.85761911
-1.3499588 2.1910298 -0.71002632
-1.3726563 2.2278688 -0.57969671
-1.3198929 2.1422319 -0.41948688
-1.3282268 2.1557579 -0.28222969
-1.3910513 2.2577243 -0.14812258
-1.4331751 2.3260927 0
-8.7114754 14.139026 0.9276194
-1.347544 2.1812046 -0.84539384
-1.3526052 2.1893971 -0.71002632
-1.3780156 2.2305276 -0.58082139
-1.3373179 2.1646521 -0.42419326
-1.3362683 2.1629531 -0.28338286
-1.3855814 2.242774 -0.14725146
-1.427775 2.3110707 0
-8.7340164 14.137332 0.92820001
-1.3540845 2.1858799 -0.84783953
-1.3460004 2.1728301 -0.70518053
-1.3833885 2.2331851 -0.58194822
-1.3439894 2.1695836 -0.42547759
-1.3388808 2.1613369 -0.28338286
-1.3828168 2.2322624 -0.14667089
-1.4291973 2.3071337 0
-8.7579327 14.137811 0.92892551
-1.3449888 2.1653483 -0.8405056
-1.3552474 2.1818638 -0.70864332
-1.3927881 2.2423019 -0.58476216
-1.3398387 2.157057 -0.42333817
-1.331937 2.1443355 -0.28136453
-1.3786591 2.2195554 -0.14594534
-1.4319839 2.3054049 0
-8.7859774 14.144876 0.93008667
-1.3476043 2.1637216 -0.8405056
-1.3698181 2.1993883 -0.71487212
-1.3847501 2.2233632 -0.58025903
-1.3410883 2.1532595 -0.4229106
-1.334527 2.1427245 -0.28136453
-1.3772177 2.2112689 -0.14550978
-1.4416465 2.3147163 0
-8.8003178 14.129844 0.92979664
-1.3554544 2.1704772 -0.8437655
-1.3565282 2.1721966 -0.70656615
-1.3914745 2.2281559 -0.58194822
-1.3382502 2.1429281 -0.42119873
-1.3357463 2.1389189 -0.28107652
-1.3661274 2.1875677 -0.14405866
-1.4347913 2.2975187 0
-8.8297701 14.139033 0.93110275
-1.3528329 2.1633692 -0.8413198
-1.3658186 2.1841352 -0.7107178
-1.3914694 2.2251542 -0.58138376
-1.3341002 2.1334131 -0.41948688
-1.3384084 2.1403022 -0.28136453
-1.3784704 2.2043672 -0.14521979
-1.4320436 2.2900381 0
-8.8493328 14.151321 0.93226391
-1.3318148 2.1240447 -0.82665199
-1.3631259 2.1739812 -0.70794916
-1.3928086 2.2213206 -0.58082139
-1.3284923 2.1187458 -0.41691825
-1.3286288 2.1189635 -0.27877018
-1.3742324 2.1916945 -0.14449422
-1.4154516 2.2574329 0
-8.8691835 14.145017 0.93255389
-1.3396423 2.1308036 -0.82991183
-1.3684249 2.1765845 -0.70933485
-1.4009011 2.2282405 -0.58307296
-1.3433471 2.1366963 -0.42076954
-1.3325635 2.1195443 -0.27905819
-1.3893256 2.2098286 -0.14580034
-1.3974044 2.2226787 0
-8.8959513 14.149691 0.93357003
-1.3725271 2.1772666 -0.84865367
-1.367039 2.1685605 -0.70725769
-1.4184988 2.2501922 -0.58926523
-1.3349814 2.117707 -0.41734743
-1.3365068 2.1201267 -0.27934733
-1.3684394 2.1707821 -0.14333311
-1.4181298 2.2496068 0
-8.9241276 14.156517 0.93473113
-1.3474263 2.1317344 -0.83154023
-1.3656356 2.1605432 -0.70518053
-1.3981389 2.2119658 -0.57969671
-1.3375393 2.1160924 -0.41734743
-1.3349204 2.1119492 -0.27848217
-1.3821681 2.1866987 -0.14449422
-1.431971 2.2654908 0
-8.9551067 14.167684 0.93618226
-1.3658782 2.1551566 -0.8413198
-1.3695922 2.1610167 -0.70587468
-1.3994465 2.2081223 -0.5791322
-1.3332204 2.1036272 -0.41520637
-1.3291612 2.0972223 -0.27675185
-1.3792453 2.1762478 -0.14391367
-1.3859507 2.1868281 0
-8.9791727 14.167825 0.93690777
-1.341969 2.1117837 -0.82502049
-1.3681644 2.1530058 -0.70379752
-1.3816758 2.174268 -0.57069057
-1.330254 2.0933483 -0.4134945
-1.3511181 2.1261811 -0.28078851
-1.3776916 2.1679983 -0.14347811
-1.4234807 2.2400544 0
-9.0088263 14.176701 0.93821388
-1.3471786 2.1143334 -0.82665199
-1.3721117 2.1534648 -0.70448905
-1.3747431 2.1575947 -0.56674981
-1.3452013 2.1112301 -0.41734743
-1.3328369 2.091825 -0.27646384
-1.374725 2.1575663 -0.14289755
-1.4345798 2.2515059 0
-9.0371199 14.183336 0.93937504
-1.3723521 2.1481104 -0.8405056
-1.3774166 2.1560378 -0.70587468
-1.3814542 2.1623578 -0.56843901
-1.3311666 2.0836437 -0.41221184
-1.3381512 2.0945764 -0.27704099
-1.3731328 2.1493325 -0.14246199
-1.4316949 2.2409983 0
-9.061245 14.183352 0.94010061
-1.369614 2.1381257 -0.83724576
-1.3651341 2.1311321 -0.69826025
-1.3607682 2.1243162 -0.55887049
-1.3419887 2.0949993 -0.41477883
-1.3406811 2.092958 -0.27704099
-1.3827409 2.1586182 -0.1431881
-1.4287865 2.2305009 0
-9.0867882 14.185526 0.94097167
-1.3668538 2.1281507 -0.83398587
-1.382623 2.1527028 -0.70587468
-1.3619622 2.1205347 -0.55830818
-1.3320349 2.0739388 -0.41092753
-1.3390144 2.0848057 -0.27617583
-1.3755171 2.1416395 -0.14217199
-1.4146037 2.2024958 0
-9.1109419 14.185466 0.94169724
-1.3533659 2.1015615 -0.82420629
-1.3879371 2.1552451 -0.70725769
-1.3631438 2.116745 -0.55774367
-1.3373171 2.0766404 -0.41178262
-1.3219298 2.0527463 -0.27214029
-1.3668489 2.1224985 -0.14101088
-1.4285364 2.2182894 0
-5.5576301 8.6301136 0.57335252
-1.3559042 2.0999248 -0.82420629
-1.3891807 2.1514609 -0.70656615
-1.3615695 2.1086988 -0.55605662
-1.342613 2.0793402 -0.41263938
-1.3412453 2.0772221 -0.27559981
-1.3806887 2.138309 -0.14217199
-1.4213325 2.2012551 0
-0 0 0
-1.3879887 2.1439257 -0.842134
-1.3917793 2.1497808 -0.70656615
-1.3572135 2.0963895 -0.55324274
-1.3423315 2.0734024 -0.41178262
-1.3310994 2.0560529 -0.27300432
-1.3889199 2.145364 -0.14275254
-1.3928783 2.1514783 0
-0 0 0
-1.3771236 2.1215196 -0.83398587
-1.4039388 2.1628296 -0.71141195
-1.3597456 2.094748 -0.55324274
-1.3350561 2.0567126 -0.40878808
-1.3406281 2.0652969 -0.27444664
-1.3787795 2.1240706 -0.14144644
-1.4025605 2.1607063 0
-0 0 0
-1.3823799 2.1239932 -0.83561426
-1.3873897 2.1316905 -0.70172036
-1.3636603 2.0952311 -0.55380511
-1.3487426 2.0723102 -0.41221184
-1.3402983 2.0593357 -0.27386948
-1.3841772 2.1267545 -0.14173643
-1.4193692 2.1808262 0
-0 0 0
-1.3795425 2.1140418 -0.83235437
-1.3968182 2.1405156 -0.70518053
-1.3606367 2.0850701 -0.55155355
-1.3358124 2.0470288 -0.40750378
-1.3484396 2.0663791 -0.27502266
-1.3895887 2.129437 -0.14202699
-1.4205769 2.176924 0
-0 0 0
-1.3820958 2.1123734 -0.83235437
-1.4062754 2.1493289 -0.70864332
-1.3575904 2.0749197 -0.54930198
-1.3439069 2.0540059 -0.40921566
-1.3580146 2.075568 -0.27646384
-1.3708193 2.0951383 -0.13984977
-1.4075366 2.1512566 0
-5.5901756 8.5439358 0.57030469
-1.3751611 2.0962415 -0.82665199
-1.3937329 2.1245515 -0.70102888
-1.3503392 2.058404 -0.54536128
-1.3337163 2.0330646 -0.40536436
-1.3307296 2.0285118 -0.27040997
-1.3676487 2.0847898 -0.1392692
-1.4301175 2.1800148 0
-5.5905166 8.5219641 0.56928861
-1.3709031 2.0842555 -0.82257795
-1.3728635 2.0872357 -0.68926281
-1.3612058 2.0695119 -0.54873967
-1.3319385 2.0250154 -0.40408003
-1.3331796 2.0269024 -0.27040997
-1.3730253 2.087482 -0.13955976
-1.3812708 2.1000178 0
-5.5922451 8.5021811 0.56841803
-1.3584515 2.0598989 -0.81361252
-1.3961034 2.1169927 -0.69964588
-1.351117 2.0487773 -0.54367423
-1.3400375 2.0319767 -0.40579191
-1.3512926 2.0490437 -0.27358148
-1.3726828 2.0814786 -0.1392692
-1.4411126 2.1852429 0
-5.5896406 8.4758968 0.56711191
-1.3513957 2.0438223 -0.80790699
-1.3765211 2.0818214 -0.68857133
-1.3549917 2.0492606 -0.5442366
-1.3481551 2.0389211 -0.40750378
-1.3366488 2.0215192 -0.27012196
-1.3780659 2.0841577 -0.13955976
-1.4050004 2.124893 0
-5.5927081 8.458293 0.56638581
-1.3690037 2.0677357 -0.81768656
-1.3930092 2.1039937 -0.69618309
-1.3590322 2.0526748 -0.54536128
-1.3423023 2.0274062 -0.40536436
-1.3421549 2.0271833 -0.27098712
-1.3764532 2.0789874 -0.1392692
-1.4192129 2.1435714 0
-5.5863471 8.4375877 0.56522524
-1.3468989 2.0290184 -0.80301875
-1.373356 2.0688741 -0.68511117
-1.3432444 2.0235131 -0.53804433
-1.3376538 2.0150912 -0.40322495
-1.3474615 2.0298657 -0.27156314
-1.3775284 2.0751598 -0.1391242
-1.4189205 2.1375144 0
-5.5821643 8.4091787 0.56377357
-1.3616731 2.0459054 -0.81035268
-1.3619519 2.0463245 -0.6781882
-1.3485068 2.026123 -0.53917116
-1.331551 2.0006471 -0.40065631
-1.3427492 2.0174723 -0.27012196
-1.374276 2.0648413 -0.13854365
-1.4215022 2.1357985 0
-5.5894446 8.3981056 0.5634836
-1.3380766 2.0051944 -0.79486758
-1.3644235 2.0446773 -0.6781882
-1.365055 2.0456235 -0.54479891
-1.3353964 2.0011783 -0.4010855
-1.3408775 2.009392 -0.2692568
-1.378211 2.0653386 -0.13868864
-1.3850828 2.0756366 0
-5.5995879 8.391346 0.5634836
-1.3638618 2.0384963 -0.80872118
-1.3724734 2.0513675 -0.68095684
-1.3604624 2.0334156 -0.54198503
-1.3392396 2.0016947 -0.40151307
-1.3389939 2.0013275 -0.26839277
-1.3734822 2.0528755 -0.13796309
-1.4006131 2.0934267 0
-5.5764885 8.3348989 0.56014526
-1.3594409 2.0265861 -0.80464715
-1.3679645 2.0392926 -0.67749673
-1.3572565 2.0233297 -0.53973353
-1.3530977 2.0171299 -0.40493679
-1.3370872 1.9932621 -0.26752761
-1.3745157 2.0490587 -0.13781808
-1.3799449 2.0571523 0
-0 0 0
-1.367406 2.0331454 -0.80790699
-1.366226 2.0313909 -0.67541957
-1.3497728 2.0069273 -0.53579277
-1.3440729 1.9984524 -0.40151307
-1.3308311 1.9787635 -0.26579729
-1.3929379 2.0711079 -0.13941421
-1.4172872 2.107312 0
-0 0 0
-1.3615733 2.0192003 -0.80301875
-1.3644757 2.0235045 -0.67334509
-1.3493584 2.0010855 -0.53466809
-1.3436136 1.9925661 -0.40065631
-1.3433448 1.9921675 -0.26781562
-1.3765551 2.0414181 -0.13752753
-1.4329262 2.1250157 0
-0 0 0
-1.3640122 2.0175536 -0.80301875
-1.3725402 2.0301678 -0.67611372
-1.3588896 2.0099766 -0.53748196
-1.3460202 1.990941 -0.40065631
-0 0 -0
-1.3819343 2.0440626 -0.13781808
-1.40051 2.0715387 0
-1.1824971 1.7490689 0.11792854
-1.3650635 2.01386 -0.80220461
-1.3735806 2.0264251 -0.67541957
-1.3527606 1.9957095 -0.53410357
-1.3469859 1.9871904 -0.40022874
-1.3481551 1.9889153 -0.26781562
-1.3829465 2.0402427 -0.13767308
-1.4482802 2.1366284 0
-1.1860663 1.7497876 0.11807355
-1.3549887 1.9938053 -0.79486758
-1.3746194 2.022691 -0.6747281
-1.355171 1.9940736 -0.53410357
-1.3436145 1.9770687 -0.39851689
-1.3418373 1.9744536 -0.26608643
-1.3737264 2.0213771 -0.13651197
-1.4157531 2.0832174 0
-1.1867205 1.7462062 0.11792854
-1.3518353 1.9840044 -0.79161084
-1.3629386 2.0003002 -0.66780776
-1.3518621 1.9840435 -0.53185421
-1.3431143 1.9712049 -0.39766178
-1.3340259 1.9578664 -0.2640681
-1.380553 2.0261517 -0.13694698
-1.4212029 2.0858109 0
-1.1873622 1.7426174 0.11778298
-1.3695636 2.004813 -0.80057311
-1.3639355 1.9965743 -0.6671136
-1.3657191 1.9991851 -0.53635514
-1.3512872 1.9780593 -0.39937365
-1.3466048 1.9712051 -0.26608643
-1.3844702 2.0266337 -0.13709253
-1.4237221 2.0840921 0
-1.2011929 1.7583462 0.1189441
-1.3482434 1.9684927 -0.78671944
-1.3677686 1.9970006 -0.66780776
-1.3566527 1.9807708 -0.53185421
-1.3507724 1.9721851 -0.39851689
-1.3489857 1.9695766 -0.26608643
-1.3898518 2.029243 -0.13738252
-1.3953578 2.037282 0
-1.1812959 1.7247424 0.11676743
-1.3604161 1.9811265 -0.79242498
-1.3758613 2.003619 -0.67057645
-1.3547287 1.9728444 -0.53016502
-1.3458899 1.9599727 -0.39637744
-1.3440453 1.9572864 -0.26464525
-1.3761269 2.0040057 -0.13578641
-1.4140196 2.0591874 0
-1.1774954 1.7147456 0.11618686
-1.3417839 1.9489425 -0.78019977
-1.3683213 1.9874882 -0.66573066
-1.3527875 1.9649253 -0.52847582
-1.345343 1.9541122 -0.39552069
-1.3449383 1.9535244 -0.26435611
-1.3844357 2.0108943 -0.13636641
-1.4150323 2.0553358 0
-1.1884047 1.726159 0.11705743
-1.3651997 1.9778332 -0.79242498
-1.3721455 1.9878961 -0.66642213
-1.3609344 1.9716538 -0.53072733
-1.3477032 1.9524852 -0.39552069
-1.3428941 1.945518 -0.26349208
-1.3898195 2.0135012 -0.13665697
-1.401251 2.0300624 0
-1.1786808 1.7076139 0.11589631
-1.3633677 1.970083 -0.78997934
-1.3659835 1.9738629 -0.66227049
-1.3503038 1.9512056 -0.52566195
-1.3486021 1.9487464 -0.39509314
-1.3422974 1.9396362 -0.26291493
-1.380422 1.9947268 -0.13549586
-1.3948199 2.0155318 0
-1.1896181 1.7190129 0.11676743
-1.3488398 1.9440659 -0.78019977
-1.3669387 1.9701517 -0.66157901
-1.3584542 1.9579231 -0.52791345
-1.3290095 1.9154847 -0.38867486
-1.3461131 1.9401358 -0.26320294
-1.3843111 1.9951901 -0.13564086
-1.4106048 2.033087 0
-1.1931742 1.719707 0.11691242
-1.3568335 1.9505506 -0.7834596
-1.3678815 1.9664332 -0.66088486
-1.3521105 1.943761 -0.52453506
-1.3415802 1.9286228 -0.39166939
-1.3455052 1.9342655 -0.26262692
-1.3733678 1.9743201 -0.13433474
-1.4160355 2.0356581 0
-1.202669 1.7289275 0.11763798
-1.3521215 1.9387753 -0.77938557
-1.3860441 1.9874163 -0.66849929
-1.353006 1.9400437 -0.52397275
-1.3380357 1.918578 -0.38995755
-1.3448795 1.9283912 -0.26204976
-1.3935893 1.9982351 -0.13607642
-1.4110463 2.0232663 0
-1.1854353 1.6997679 0.11575131
-1.3610603 1.9415755 -0.78183126
-1.359164 1.9388705 -0.65327305
-1.3620673 1.9430121 -0.52566195
-1.3470902 1.9216471 -0.39124185
-1.3421137 1.9145479 -0.26060858
-1.3760394 1.9629436 -0.13389918
-1.3965126 1.992149 0
-1.2163846 1.7351933 0.11836354
-1.3494548 1.9225478 -0.77449733
-1.3661004 1.9462627 -0.65604168
-1.3676217 1.9484301 -0.52735114
-1.3408784 1.9103292 -0.38910243
-1.349214 1.9222049 -0.26176175
-1.3742423 1.9578623 -0.13360918
-1.429113 2.0360358 0
-1.2039986 1.7153187 0.11705743
-1.3503503 1.9188888 -0.77368003
-1.3670032 1.942553 -0.65534753
-1.3524276 1.9218407 -0.5205965
-1.3535285 1.9234052 -0.39209861
-1.3381404 1.9015381 -0.2591674
-1.3825886 1.9647005 -0.13418974
-1.4001211 1.9896146 0
-1.1806499 1.6777394 0.1145902
-1.3797414 1.9556295 -0.78916514
-1.3621194 1.9306521 -0.65188742
-1.3591446 1.9264357 -0.5222857
-1.3528889 1.917569 -0.39124185
-1.3493806 1.9125963 -0.26089659
-1.3894569 1.9694 -0.1346253
-1.4175301 2.0091906 0
-1.2006519 1.70179 0.11633187
-1.3706851 1.9378181 -0.7826454
-1.3673515 1.9331052 -0.65327305
-1.3585339 1.9206392 -0.52115887
-1.3433456 1.8991667 -0.3878181
-1.3546808 1.9151918 -0.26147375
-1.3768272 1.9465017 -0.13317363
-1.4064323 1.988356 0
-1.2117076 1.7130624 0.11720242
-1.3530122 1.9079387 -0.77123749
-1.3740357 1.937585 -0.65534753
-1.362322 1.9210669 -0.52172118
-1.3396996 1.8891662 -0.38610625
-1.3554991 1.9114457 -0.26118574
-1.3776766 1.9427191 -0.13302863
-1.4208716 2.0036302 0
-0 0 0
-1.3653375 1.9203974 -0.77693987
-1.3778338 1.9379739 -0.65604168
-1.3543403 1.9049294 -0.51778263
-1.3449591 1.8917345 -0.38696301
-1.3533101 1.9034804 -0.26032057
-1.3785188 1.9389373 -0.13288362
-1.4052012 1.9764671 0
-0 0 0
-1.3590522 1.9066741 -0.77205163
-1.3743498 1.928136 -0.65327305
-1.3448426 1.8867389 -0.51327956
-1.3457497 1.8880116 -0.3865338
-1.3466045 1.8892107 -0.25859138
-1.3718084 1.9245704 -0.1320125
-1.421182 1.9938389 0
-0 0 0
-1.3584782 1.9010049 -0.77042013
-1.3664668 1.9121839 -0.64842725
-1.3545065 1.895447 -0.51609343
-1.3450478 1.882211 -0.38567868
-1.3533933 1.8938893 -0.25945541
-1.386219 1.9398245 -0.13317363
-1.4205611 1.9878814 0
-0 0 0
-1.3636559 1.9033843 -0.77205163
-1.3643916 1.9044112 -0.64635009
-1.3567958 1.893809 -0.51609343
-1.3428345 1.8743219 -0.38439438
-1.3571914 1.8943613 -0.25974455
-1.3825086 1.9296989 -0.13259307
-1.4259962 1.9903986 0
-0 0 0
-1.3486522 1.877646 -0.76227206
-1.3623053 1.8966542 -0.64427561
-1.3576021 1.8901064 -0.51553106
-1.3346196 1.8581092 -0.38139984
-1.3534437 1.8843169 -0.25859138
-1.3909028 1.9364688 -0.13317363
-1.4056251 1.9569659 0
-0 0 0
-1.3552543 1.8820339 -0.76471776
-1.3689898 1.9011085 -0.64635009
-1.3569125 1.8843368 -0.51440424
-1.339861 1.8606576 -0.38225496
-1.3436282 1.8658888 -0.25628504
-1.3902076 1.9305736 -0.13288362
-1.4095081 1.9573759 0
-0 0 0
-1.3517405 1.8723793 -0.76145786
-1.363945 1.8892845 -0.64288998
-1.3487817 1.8682809 -0.51046568
-1.34962 1.869442 -0.38439438
-1.3428509 1.8600658 -0.25570789
-1.3742877 1.9036108 -0.13114195
-1.4133998 1.9577875 0
-0 0 0
-1.3728393 1.8967713 -0.77205163
-1.370641 1.8937339 -0.64496714
-1.3584856 1.8769395 -0.51327956
-1.3458574 1.8594918 -0.3826825
-1.3420674 1.8542553 -0.25513187
-1.3811588 1.9082658 -0.13157751
-1.4111853 1.9497516 0
-0 0 0
-1.3896431 1.9151118 -0.78019977
-1.3685067 1.8859829 -0.64288998
-1.3503053 1.860899 -0.5093388
-1.3330297 1.8370911 -0.37840366
-1.3382307 1.8442587 -0.2539787
-1.3941417 1.9213113 -0.13259307
-1.3936719 1.920664 0
-0 0 0
-1.3730558 1.8874501 -0.76960599
-1.3766879 1.8924428 -0.64565861
-1.3525528 1.859266 -0.5093388
-1.3548789 1.8624636 -0.3839668
-1.3389381 1.8405508 -0.25369069
-1.3888206 1.909121 -0.13186751
-1.4281408 1.963172 0
-0 0 0
-1.3695098 1.8778019 -0.7663461
-1.389323 1.9049687 -0.65050441
-1.3547984 1.8576304 -0.5093388
-1.3450272 1.8442326 -0.38054308
-1.3503027 1.8514661 -0.25541988
-1.3880671 1.9032468 -0.13157751
-1.433576 1.9656461 0
-0 0 0
-1.3426017 1.8362423 -0.75004679
-1.3782985 1.885064 -0.64427561
-1.3525414 1.8498367 -0.5076496
-1.341194 1.8343171 -0.37883121
-1.3586452 1.8581847 -0.25657305
-1.3842311 1.8931779 -0.13099696
-1.400625 1.9155993 0
-0 0 0
-1.3857335 1.8904341 -0.77286583
-1.3746425 1.8753036 -0.64150697
-1.3487669 1.8400038 -0.50539809
-1.3434094 1.8326952 -0.37883121
-1.3593619 1.8544576 -0.25628504
-1.3803728 1.883121 -0.13041639
-1.4229389 1.9411904 0
-0 0 0
-1.3645986 1.8568921 -0.75982642
-1.3754175 1.8716139 -0.64081281
-1.36002 1.8506616 -0.50877649
-1.3547467 1.843486 -0.38139984
-1.3646619 1.8569782 -0.25686106
-1.3780295 1.8751682 -0.12998083
-1.4191189 1.9310811 0
-0 0 0
-1.3595127 1.8452945 -0.75575233
-1.3732181 1.8638971 -0.63873833
-1.3577323 1.842878 -0.50708729
-1.344792 1.8253139 -0.37797609
-1.3577027 1.8428378 -0.25513187
-1.3879991 1.8839597 -0.1307064
-1.4044694 1.9063151 0
-4.186727 5.6827307 0.3942596
-1.3734888 1.8595552 -0.76227206
-1.3754692 1.8622365 -0.63873833
-1.3584499 1.8391943 -0.50652492
-1.3469965 1.8236877 -0.37797609
-1.3522464 1.8307954 -0.25369069
-1.3794724 1.8676564 -0.12969084
-1.3913127 1.8836869 0
-0 0 0
-1.3522013 1.8261131 -0.74923265
-1.3732381 1.8545226 -0.63666117
-1.3561336 1.8314235 -0.50483572
-1.3491992 1.8220587 -0.37797609
-1.3544576 1.8291601 -0.25369069
-1.3801773 1.8638939 -0.12954527
-1.4400467 1.9447459 0
-0 0 0
-1.3558787 1.8264605 -0.75004679
-1.3769718 1.8548744 -0.63735265
-1.3628906 1.835906 -0.50652492
-1.342216 1.808056 -0.37540746
-1.342787 1.8088251 -0.25109521
-1.3777864 1.8559717 -0.12911028
-1.4237803 1.9179287 0
-4.2072988 5.6675167 0.3942596
-1.3643583 1.835565 -0.75412399
-1.3706106 1.8439767 -0.63389254
-1.3639995 1.8350823 -0.50652492
-1.3479037 1.8134276 -0.37669179
-1.3546818 1.8225465 -0.25311354
-1.3758042 1.850964 -0.12881972
-1.4187287 1.9087133 0
-4.2215743 5.679574 0.39527571
-1.3606679 1.8259876 -0.75086415
-1.3728377 1.8423193 -0.63389254
-1.3586261 1.8232477 -0.50371104
-1.3470291 1.8076847 -0.37583667
-1.3398813 1.7980925 -0.24994205
-1.3826991 1.855553 -0.12925528
-1.403933 1.8840486 0
-4.216013 5.6578002 0.39411461
-1.3776627 1.8441392 -0.75901222
-1.3900745 1.8607538 -0.64081281
-1.3532262 1.8114287 -0.50089717
-1.3399913 1.7937124 -0.37326804
-1.3575357 1.8171973 -0.25282553
-1.3787196 1.8455541 -0.12867472
-1.4186691 1.8990304 0
-4.1932969 5.6131473 0.39135683
-1.3902626 1.8563232 -0.76471776
-1.3742809 1.8349841 -0.63250953
-1.3569356 1.811824 -0.50145948
-1.3467757 1.7982581 -0.37455237
-1.3426738 1.792781 -0.24965402
-1.3840609 1.8480425 -0.12896472
-1.3991185 1.868148 0
-4.220324 5.6351123 0.39324349
-1.3390806 1.7834878 -0.73537898
-1.3795069 1.8373307 -0.63389254
-1.3636963 1.816273 -0.50314653
-1.3520272 1.8007312 -0.37540746
-1.347948 1.7952981 -0.25023118
-1.3862929 1.8463688 -0.12896472
-1.4232541 1.8955965 0
-4.2333708 5.6383204 0.39382404
-1.3575863 1.8035922 -0.74434441
-1.3696561 1.8196273 -0.62835521
-1.3628367 1.8105676 -0.50202185
-1.354202 1.7990962 -0.37540746
-1.3470023 1.7895311 -0.24965402
-1.3869617 1.8426183 -0.12881972
-1.4302343 1.9001073 0
-4.2511206 5.6477356 0.39484015
-1.3597646 1.8019506 -0.74434441
-1.3809236 1.8299903 -0.63250953
-1.3711455 1.8170325 -0.50427341
-1.3471003 1.7851678 -0.37284049
-1.3444941 1.7817143 -0.24878998
-1.3970115 1.8513099 -0.12954527
-1.4199883 1.8817586 0
-4.2172503 5.5886703 0.39106682
-1.3649204 1.8042446 -0.74597275
-1.3907002 1.8383223 -0.6359697
-1.3564759 1.7930824 -0.49808112
-1.3585458 1.7958183 -0.37540746
-1.349764 1.78421 -0.24936602
-1.3898443 1.8371909 -0.12867472
-1.4238356 1.8821229 0
-4.2318368 5.5939302 0.39179236
-1.3730736 1.8104713 -0.74923265
-1.3823071 1.8226461 -0.6311239
-1.3647833 1.79954 -0.50033265
-1.3467551 1.7757691 -0.37155616
-1.3503574 1.7805189 -0.24907801
-1.3857825 1.8272287 -0.12809417
-1.4040889 1.8513666 0
-0 0 0
-1.3573091 1.7852008 -0.73945302
-1.389065 1.8269677 -0.633201
-1.3715717 1.8039596 -0.50202185
-1.3473476 1.772099 -0.37112862
-1.3525078 1.7788858 -0.24907801
-1.3895605 1.8276194 -0.12823915
-1.4252264 1.8745291 0
-0 0 0
-1.3849348 1.8169744 -0.75330669
-1.4003935 1.8372557 -0.63735265
-1.3629669 1.7881535 -0.49808112
-1.3323686 1.7480099 -0.36642057
-1.3468181 1.7669671 -0.24763681
-1.3838934 1.8156081 -0.1275136
-1.410141 1.8500439 0
-0 0 0
-1.3826315 1.8094137 -0.75086415
-1.3889048 1.8176234 -0.6311239
-1.3574142 1.7764125 -0.49526724
-1.3469489 1.7627167 -0.36984432
-1.3536589 1.771498 -0.24850085
-1.3813516 1.8077387 -0.12707804
-1.4044701 1.8379933 0
-1.9176662 2.5095997 0.17641655
-1.3757957 1.7959656 -0.74597275
-1.3636415 1.7800995 -0.61866629
-1.3595598 1.7747711 -0.49526724
-1.3537625 1.7672033 -0.37112862
-1.3557984 1.769861 -0.24850085
-1.3993397 1.8266999 -0.12852971
-1.4003655 1.8280389 0
-0 0 0
-1.3719431 1.7864609 -0.74271291
-1.3780158 1.7943683 -0.62420356
-1.3709918 1.7852222 -0.49864563
-1.3449504 1.7513126 -0.36813244
-1.3532144 1.7620734 -0.24763681
-1.384135 1.8023363 -0.12693304
-1.4231784 1.8531764 0
-0 0 0
-1.3665633 1.7750115 -0.73863888
-1.3924265 1.808605 -0.62974089
-1.3545474 1.7594042 -0.491891
-1.3423721 1.7435899 -0.36684978
-1.3600715 1.7665794 -0.24850085
-1.3926524 1.8088983 -0.1275136
-1.4143018 1.8370184 0
-0 0 0
-1.3792795 1.7870572 -0.74434441
-1.3823481 1.7910329 -0.62420356
-1.3628823 1.765812 -0.49414253
-1.3523188 1.7521255 -0.3689892
-1.3558837 1.7567445 -0.2473477
-1.3884865 1.7989862 -0.12693304
-1.4276527 1.8497317 0
-0 0 0
-1.3950489 1.8029804 -0.75167829
-1.367622 1.7675335 -0.61658913
-1.3758947 1.7782253 -0.49808112
-1.3575736 1.7545469 -0.36984432
-1.3580054 1.7551049 -0.2473477
-1.400203 1.8096417 -0.12780416
-1.4155487 1.8294746 0
-1.398535 1.8074859 0.12765191
-1.3639023 1.7583323 -0.73375064
-1.3743711 1.7718285 -0.61866629
-1.3796042 1.7785749 -0.49864563
-1.3612707 1.7549394 -0.3702735
-1.3601252 1.7534628 -0.2473477
-1.3960181 1.7997358 -0.1272236
-1.4177582 1.8277628 0
-0 0 0
-1.3614728 1.7508278 -0.73130494
-1.3672678 1.75828 -0.61451197
-1.3708324 1.762864 -0.4947049
-1.3649645 1.7553179 -0.37070107
-1.3558919 1.7436508 -0.24619453
-1.3918115 1.7898426 -0.12664305
-1.4183697 1.8239959 0
-0 0 0
-1.3848585 1.7764677 -0.74271291
-1.3940703 1.7882842 -0.62558657
-1.3667128 1.7531906 -0.49245337
-1.3481451 1.7293724 -0.36556545
-1.3484596 1.7297759 -0.24446532
-1.3779944 1.7676624 -0.12519138
-1.4317745 1.8366504 0
-0 0 0
-1.3778753 1.7631121 -0.73782468
-1.3838714 1.7707846 -0.6200493
-1.3594456 1.7395295 -0.48907712
-1.3486545 1.7257215 -0.3651379
-1.3553282 1.734261 -0.24533048
-1.3929296 1.7823752 -0.12635249
-1.4500149 1.8554209 0
-0 0 0
-1.370856 1.7497685 -0.73293334
-1.4014851 1.7888635 -0.62697226
-1.3772136 1.7578833 -0.4947049
-1.3523204 1.7261095 -0.36556545
-1.3685842 1.7468686 -0.2473477
-1.3870711 1.7704656 -0.12562692
-1.4362087 1.8331851 0
-0 0 0
-1.3871706 1.7683905 -0.74108452
-1.3777913 1.7564337 -0.61589766
-1.3672963 1.7430546 -0.49076417
-1.3454427 1.7151951 -0.36342603
-1.3552735 1.7277277 -0.24475333
-1.3993683 1.7839406 -0.12664305
-1.4116161 1.7995542 0
-0 0 0
-1.3663876 1.7375687 -0.72885931
-1.3969727 1.7764622 -0.62351209
-1.3741149 1.747395 -0.49245337
-1.3490994 1.715584 -0.36385357
-1.3493676 1.7159251 -0.24331215
-1.399912 1.7802 -0.12649749
-0 0 0
-0 0 0
-1.3730781 1.7417413 -0.73130494
-1.3649455 1.7314252 -0.60828322
-1.3652123 1.7317636 -0.48851261
-1.3559407 1.7200025 -0.3651379
-1.3562453 1.720389 -0.24417731
-1.3972406 1.7723912 -0.12606248
-0 0 0
-0 0 0
-1.3905036 1.7594686 -0.73945302
-1.3779269 1.7435546 -0.61312902
-1.3720318 1.7360952 -0.4902018
-1.3659749 1.7284311 -0.36727732
-1.364738 1.726866 -0.24533048
-1.4026004 1.774775 -0.12635249
-0 0 0
-0 0 0
-1.3573318 1.713235 -0.72071117
-1.3753574 1.7359873 -0.61105186
-1.3772873 1.7384231 -0.49132866
-1.3537167 1.7086723 -0.36342603
-1.3620034 1.7191318 -0.24446532
-1.3837684 1.7466037 -0.12446582
-0 0 0
-0 0 0
-1.3716983 1.7270772 -0.72723091
-1.3899363 1.7500404 -0.61658913
-1.3746445 1.7307867 -0.48963946
-1.3557804 1.7070353 -0.36342603
-1.3592523 1.7114067 -0.24360016
-1.3971919 1.7591757 -0.12548193
-0 0 0
-0 0 0
-1.372246 1.7234868 -0.72641671
-1.3857993 1.740509 -0.61382049
-1.3767347 1.7291244 -0.48963946
-1.3610369 1.7094085 -0.36428115
-1.3629349 1.7117923 -0.24388929
-1.3879852 1.7432545 -0.12446582
-0 0 0
-0 0 0
-1.3882028 1.739211 -0.73375064
-1.3722539 1.7192295 -0.60690022
-1.3613857 1.7056131 -0.48344719
-1.3502902 1.6917121 -0.3608574
-1.3520942 1.6939723 -0.24158294
-1.3787422 1.7273583 -0.1234497
-0 0 0
-0 0 0
-1.3872119 1.7336689 -0.73211914
-1.3774621 1.7214842 -0.60828322
-1.3729736 1.7158746 -0.48682559
-1.3459179 1.6820618 -0.35914552
-1.3589833 1.6983901 -0.242447
-0 0 -0
-0 0 0
-0 0 0
-1.3753885 1.7146416 -0.72478521
-1.3968102 1.7413471 -0.61589766
-1.3670919 1.7042984 -0.48400953
-1.3543744 1.688444 -0.3608574
-1.3626574 1.6987703 -0.24273612
-0 0 -0
-0 0 0
-0 0 0
-1.3883028 1.7264631 -0.73049074
-1.378477 1.7142439 -0.60690022
-1.364378 1.6967107 -0.48232251
-1.3580269 1.6888126 -0.36128661
