# .PCD v0.7 - Point Cloud Data file format
VERSION 0.7
FIELDS x y z
SIZE 4 4 4
TYPE F F F
COUNT 1 1 1
WIDTH 1562
HEIGHT 1
VIEWPOINT 0 0 0 1 0 0 0
POINTS 1562
DATA ascii
1.9421501 4.3716145 -0.26719439
2.4621217 5.542026 0
3.6521251 8.220623 0.50244695
0.92947459 2.0990002 -0.75692666
1.0536313 2.3793788 -0.71794665
1.1947441 2.6980491 -0.6536774
1.3539276 3.0575275 -0.55747402
1.5817581 3.5720294 -0.43543178
1.9400238 4.3810878 -0.26762995
2.4701738 5.5783076 0
3.6569169 8.2582884 0.50447857
0.92893565 2.1046484 -0.75855815
1.0497396 2.3783486 -0.71725249
1.2007201 2.7204182 -0.65874499
1.3554139 3.0709014 -0.55961347
1.5795317 3.578675 -0.4360089
1.9347286 4.3834291 -0.26762995
2.4613321 5.5765309 0
3.6511326 8.2722092 0.50505918
0.9263919 2.1057692 -0.75855815
1.0701016 2.4324338 -0.73317283
1.1882205 2.7009284 -0.6536774
1.3548045 3.0795884 -0.56089777
1.5731213 3.5758414 -0.43543178
1.9336162 4.395277 -0.2682105
2.457737 5.5866494 0
3.6495054 8.2956429 0.50622028
0.91491103 2.0865085 -0.75122112
1.0530553 2.4015546 -0.72348124
1.1941425 2.7233121 -0.65874499
1.3510824 3.081223 -0.56089777
1.5750335 3.5919566 -0.43716207
1.9293463 4.3999877 -0.26835549
2.4593458 5.6086826 0
3.6467845 8.3167067 0.50723636
0.93020773 2.1283824 -0.76589203
1.0441265 2.3890367 -0.7193296
1.1796569 2.6991398 -0.65255272
1.3576368 3.1063712 -0.56517661
1.57794 3.6104405 -0.4391793
1.9219491 4.3975587 -0.26806551
2.4567318 5.6211801 0
3.6460972 8.3425341 0.50854248
0.93059367 2.136296 -0.76833463
1.0392371 2.3857009 -0.71794665
1.1885716 2.7285171 -0.6593073
1.3497816 3.0985954 -0.56346476
1.5704803 3.6052375 -0.43831524
1.9280462 4.4260755 -0.26966161
2.4613719 5.6503921 0
3.641202 8.3588419 0.50926805
0.9201408 2.1192906 -0.76181799
1.0403464 2.3961511 -0.7207126
1.1862848 2.7322798 -0.65986967
1.3460366 3.100224 -0.56346476
1.5650899 3.604753 -0.43802613
1.9216629 4.4260206 -0.26951662
2.4514322 5.6461983 0
3.6362724 8.3751507 0.50999361
0.92248642 2.1317403 -0.76589203
1.0553867 2.4388545 -0.73317283
1.1769297 2.7197239 -0.65649343
1.341271 3.0994947 -0.56303722
1.5617634 3.6090221 -0.43831524
1.9132166 4.4211826 -0.26908106
2.4456446 5.6515512 0
3.6405995 8.4129295 0.51202583
0.91892827 2.1305773 -0.76507473
1.052439 2.4401281 -0.73317283
1.1806837 2.7374694 -0.66043204
1.3415916 3.1105416 -0.56474906
1.5655962 3.6299067 -0.44062158
1.9140496 4.4378119 -0.26995218
2.4377804 5.6521058 0
3.6293995 8.4149294 0.51188028
0.9144029 2.1271491 -0.76344639
1.0336372 2.4045205 -0.72209829
1.1703538 2.7225604 -0.65649343
1.3347898 3.105083 -0.56346476
1.5622295 3.6341696 -0.44090959
1.9148412 4.4544401 -0.27082273
2.4443097 5.6861272 0
3.6264136 8.4360218 0.51289642
0.90307266 2.1078079 -0.75611246
1.0287532 2.4011512 -0.7207126
1.1670632 2.7239726 -0.65649343
1.328003 3.0996125 -0.56218046
1.5568196 3.6336794 -0.44062158
1.9115061 4.4615321 -0.27111328
2.4384651 5.6914754 0
3.6254265 8.4618912 0.51420254
0.92672902 2.1702631 -0.7781142
1.0268391 2.4047065 -0.72140676
1.1657647 2.7300496 -0.65761811
1.3313146 3.117743 -0.56517661
1.5564908 3.6450727 -0.44177476
1.9112149 4.4757848 -0.27183884
2.4438467 5.7231297 0
3.6223433 8.482996 0.51521862
0.92217213 2.1668372 -0.7764858
1.0337552 2.4290252 -0.72832704
1.1664451 2.7408082 -0.65986967
1.3386012 3.1453252 -0.56988305
1.5541091 3.651706 -0.44235078
1.9068221 4.4804792 -0.27198383
2.4369295 5.7260785 0
3.6151402 8.4945326 0.51565367
0.9311347 2.1952546 -0.78626537
1.0396352 2.4510565 -0.73455584
1.1641238 2.7445526 -0.66043204
1.3358051 3.1493104 -0.57031226
1.5527264 3.6607268 -0.44321594
1.9034381 4.4875689 -0.2722744
2.4361084 5.7433987 0
3.6129909 8.5180311 0.51681477
0.92463201 2.1872718 -0.78300554
1.0259303 2.426899 -0.72694409
1.1578414 2.7389429 -0.65874499
1.3220015 3.1272728 -0.56603175
1.5503143 3.6673605 -0.44379199
1.8980144 4.4898658 -0.2722744
2.4342325 5.7583213 0
3.61079 8.5415382 0.51797587
0.90567577 2.1496687 -0.76915193
1.0181241 2.4165704 -0.72348124
1.1643945 2.763751 -0.66437274
1.336164 3.1714547 -0.57373595
1.541865 3.6596968 -0.44263881
1.8915762 4.4897542 -0.27212885
2.4242406 5.7540612 0
3.6075296 8.5626593 0.51899201
0.92066616 2.1889441 -0.78300554
1.0137488 2.4102542 -0.72140676
1.1578 2.7527454 -0.66155887
1.3262857 3.153331 -0.57031226
1.5396537 3.6606276 -0.44263881
1.8918865 4.4980841 -0.27256441
2.4369078 5.7939076 0
3.6154513 8.5959721 0.52087867
0.9036873 2.1558611 -0.77078027
1.0224739 2.4392419 -0.72971272
1.1505438 2.7447689 -0.6593073
1.3204879 3.1501918 -0.5694555
1.540228 3.6744101 -0.44408
1.8944863 4.5195384 -0.27372551
2.4349346 5.8088465 0
0 0 0
0.90870357 2.1751962 -0.7773
1.0175899 2.4358413 -0.72832704
1.1511443 2.7555354 -0.66155887
1.3137147 3.144686 -0.56817281
1.5397751 3.6858149 -0.44523317
1.8870226 4.5170336 -0.27343553
2.42892 5.8141928 0
3.6177022 8.6598234 0.52421647
0.89467484 2.1489117 -0.76752043
1.0175396 2.4440196 -0.7304042
1.1575782 2.7803769 -0.66718662
1.3197788 3.1699653 -0.57245165
1.5373106 3.6924529 -0.44581029
1.8815633 4.5193105 -0.27343553
2.4288921 5.8339348 0
0 0 0
0.88639611 2.1362982 -0.76263219
1.0040088 2.4197557 -0.72278976
1.1464275 2.7629983 -0.66268355
1.3120123 3.1620734 -0.57073981
1.5308634 3.6895251 -0.44523317
1.8830692 4.5383739 -0.27445108
2.4218411 5.8368654 0
3.6107078 8.7021456 0.52624869
0.88664484 2.1442132 -0.76507473
1.0125881 2.4487875 -0.73109573
1.1440582 2.7667274 -0.66324592
1.3170182 3.1850042 -0.5745911
1.5283829 3.696157 -0.44581029
1.877584 4.5406461 -0.27445108
2.4277139 5.8710499 0
3.6071382 8.7233047 0.52726424
0.88499779 2.1475747 -0.76589203
1.0058051 2.440731 -0.72832704
1.1436195 2.7751577 -0.66493511
1.3073022 3.1723573 -0.57202411
1.5308112 3.7147341 -0.44782752
1.8770454 4.5549212 -0.27517664
2.4206183 5.8739791 0
3.599566 8.7348661 0.52769983
0.91244471 2.2217958 -0.79196781
1.0114318 2.4628286 -0.73455584
1.1412299 2.7788858 -0.66549742
1.3015158 3.1691809 -0.57116735
1.5233766 3.7094102 -0.44696346
1.8715403 4.5571861 -0.27517664
2.4145105 5.8793139 0
3.5969062 8.7584381 0.52886093
0.88635588 2.1657126 -0.77159446
1.0056036 2.4570813 -0.73247868
1.1388365 2.7826209 -0.66606194
1.3006034 3.1778808 -0.57245165
1.5237908 3.7232146 -0.44840464
1.8670195 4.5618558 -0.2753222
2.4152868 5.9014864 0
3.5873039 8.7651806 0.52900594
0.88187337 2.1622093 -0.76996613
0.99600452 2.4420402 -0.72763556
1.1373907 2.7886961 -0.66718662
1.2967626 3.17945 -0.57245165
1.5183151 3.7226605 -0.44811663
1.8703369 4.5857606 -0.27662832
2.4091401 5.9068174 0
3.5835805 8.7863531 0.53002203
0.88484222 2.1770072 -0.7748543
0.99683166 2.4525385 -0.7304042
1.138803 2.8018355 -0.67000049
1.2967863 3.1905272 -0.57416356
1.5186845 3.7364707 -0.44955781
1.8706632 4.6024556 -0.27749887
2.4098406 5.9290118 0
3.5827434 8.814744 0.53147316
0.89613014 2.2124393 -0.78707957
1.0023431 2.4746664 -0.736633
1.1287422 2.786731 -0.66606194
1.297748 3.2039859 -0.57630295
1.5161088 3.743093 -0.45013386
1.8670535 4.6095338 -0.27778941
2.4065828 5.9415679 0
3.5759919 8.8287001 0.53205371
0.88143063 2.1837273 -0.7764858
0.9984141 2.4735515 -0.73594153
1.1396371 2.8234289 -0.67450356
1.296759 3.2126954 -0.57758725
1.5096505 3.7401297 -0.44955781
1.8624541 4.6141939 -0.27793443
2.3994017 5.9444714 0
3.5633781 8.8282003 0.53176373
0.87418056 2.1733277 -0.77241176
0.99823046 2.4817321 -0.73801601
1.1333792 2.8177297 -0.67281437
1.2900014 3.2071128 -0.57630295
1.508991 3.7515497 -0.45071098
1.857846 4.6188493 -0.27807942
2.3922174 5.9473662 0
3.5585246 8.8469591 0.53263426
0.87339127 2.1789663 -0.77404016
1.0073643 2.5132067 -0.74701345
1.1261923 2.8096631 -0.67056286
1.2928118 3.2253509 -0.57929915
1.5063796 3.7581673 -0.45128703
1.8522637 4.6210909 -0.27807942
2.3976159 5.9816537 0
3.5565321 8.8729572 0.53394037
0.87900805 2.2006755 -0.78137404
0.9894411 2.4771545 -0.73594153
1.1190302 2.8015924 -0.6683135
1.2870073 3.2221382 -0.57844239
1.5085543 3.7768009 -0.45330533
1.8514971 4.6353884 -0.27880499
2.3942478 5.9942141 0
3.5496638 8.8869009 0.53452092
0.87726146 2.20403 -0.78218824
0.98922789 2.4853342 -0.73801601
1.1269164 2.8312626 -0.67506593
1.2850136 3.2284658 -0.57929915
1.5030341 3.7762201 -0.45301732
1.8468547 4.6400342 -0.27894998
2.3898878 6.0043497 0
3.5466104 8.9104977 0.53568208
0.87459773 2.2050884 -0.78218824
0.98715174 2.4888663 -0.73871017
1.1150643 2.8113673 -0.67000049
1.2848974 3.2395608 -0.581011
1.50419 3.7924545 -0.45474651
1.8498716 4.6640081 -0.28025666
2.3845518 6.0120759 0
3.5415876 8.9292641 0.53655261
0.8792004 2.2245324 -0.78870797
0.9933632 2.5133843 -0.74563044
1.118205 2.8292561 -0.67394125
1.275319 3.2267823 -0.57844239
1.4939041 3.7798412 -0.45301732
1.8394566 4.65415 -0.27953056
2.3839791 6.031888 0
3.534616 8.943203 0.53713316
0.8810429 2.2370982 -0.79278511
0.97102094 2.4655657 -0.73109573
1.1157157 2.832967 -0.67450356
1.274242 3.2354887 -0.5797267
1.4921764 3.7888563 -0.45388138
1.836689 4.6636248 -0.27996609
2.3890855 6.0662408 0
3.527616 8.9571381 0.53771371
0.86208504 2.1967425 -0.7781142
0.99186802 2.5274522 -0.74909055
1.1225032 2.8603334 -0.68069589
1.2656436 3.22508 -0.57758725
1.4904327 3.7978821 -0.45474651
1.8376982 4.682775 -0.28098223
2.3884099 6.0860839 0
3.5215394 8.9734955 0.53843987
0.85228795 2.1873069 -0.77404016
0.96389705 2.4737399 -0.73247868
1.110976 2.8512025 -0.67788196
1.2634364 3.242476 -0.58015424
1.4859449 3.8135204 -0.45618773
1.8358086 4.7114091 -0.28243333
2.3736954 6.0918384 0
3.5130496 9.015871 0.54047149
0.86171782 2.2154634 -0.78381974
0.9678607 2.4883552 -0.736633
1.1064891 2.8447666 -0.67619276
1.2670624 3.2575982 -0.5827229
1.4827039 3.8120091 -0.45589969
1.8310798 4.7076783 -0.28214332
2.3756766 6.1078286 0
3.5113697 9.0276785 0.5410521
0.86975837 2.244158 -0.79359931
0.96575904 2.4918597 -0.73732448
1.1085584 2.860312 -0.67956901
1.2649789 3.2639093 -0.58357799
1.4790305 3.8162074 -0.45618773
1.8263283 4.7123079 -0.28228834
2.3748755 6.1276741 0
3.5117271 9.0609884 0.54279375
0.86882514 2.249814 -0.79522765
0.96907467 2.5094094 -0.74217027
1.104187 2.8592815 -0.6790067
1.261958 3.267828 -0.58400553
1.4744183 3.8179917 -0.45618773
1.8215683 4.7169333 -0.28243333
2.3721564 6.1426759 0
3.5073261 9.0821857 0.54380929
0.85101765 2.2116501 -0.78137404
0.96694195 2.5129175 -0.74286181
1.1034697 2.8677301 -0.68069589
1.2580086 3.2693503 -0.58400553
1.4744509 3.8318472 -0.45763001
1.826133 4.7458091 -0.28402999
2.370342 6.1601157 0
3.5028825 9.1033955 0.54482543
0.84657675 2.2080657 -0.7797457
0.96031237 2.504714 -0.74009317
1.0972741 2.8619416 -0.6790067
1.2660033 3.3020258 -0.58956873
1.4716699 3.8384514 -0.45820603
1.8176057 4.7407312 -0.28359446
2.3638277 6.1654029 0
3.4974597 9.1221743 0.54569596
0.84831738 2.220629 -0.78381974
0.95907754 2.5105643 -0.7414788
1.0947211 2.8656366 -0.67956901
1.2556025 3.2867739 -0.5865742
1.4698007 3.8474777 -0.45907119
1.8165118 4.7550583 -0.28432
2.3563764 6.1682544 0
3.490144 9.1361027 0.54627651
0.84475517 2.2193449 -0.78300554
0.95336509 2.5046852 -0.73940164
1.0966828 2.8812099 -0.6829474
1.2488897 3.2810888 -0.58528984
1.4669892 3.8540807 -0.45964721
1.8126154 4.7621117 -0.28461057
2.3618808 6.2051444 0
3.4855738 9.1573153 0.54729265
0.84031838 2.2157373 -0.78137404
0.97168887 2.5621331 -0.75601351
1.0877928 2.8682737 -0.67956901
1.2421925 3.2753923 -0.58400553
1.4641674 3.860692 -0.46022436
1.8077805 4.7667255 -0.28475556
2.3534594 6.2055626 0
3.4763474 9.1663742 0.54758263
0.83589482 2.2121315 -0.7797457
0.94997066 2.5140245 -0.7414788
1.0870215 2.876719 -0.6812582
1.2463996 3.2985008 -0.58785683
1.4622415 3.86971 -0.46108842
1.8056935 4.7786293 -0.28533611
2.3487201 6.2157073 0
3.4707818 9.1851578 0.54845375
0.82712448 2.1969459 -0.77404016
0.96018898 2.5503819 -0.75185925
1.0844392 2.8804059 -0.68182057
1.2397022 3.292804 -0.5865742
1.4584786 3.8739014 -0.46137753
1.8017474 4.7856665 -0.28562611
2.3476241 6.2355833 0
3.4605954 9.1917744 0.54859877
0.84617001 2.2557955 -0.79441351
0.95798689 2.5538869 -0.75255072
1.0827445 2.8864768 -0.6829474
1.2402297 3.3063149 -0.58871359
1.4574304 3.8853478 -0.4625307
1.7987024 4.7951412 -0.28606167
2.343744 6.2481623 0
3.4549639 9.2105513 0.54946989
0.84604031 2.2637641 -0.79685915
0.952268 2.5479994 -0.75047624
1.0801446 2.8901608 -0.68350977
1.2344346 3.3029971 -0.58785683
1.4509219 3.8822558 -0.46195355
1.7974545 4.8094788 -0.28678724
2.341661 6.2656212 0
3.4501972 9.2317495 0.55048543
0.83381641 2.2393038 -0.78789377
0.94043255 2.5256329 -0.74355328
1.0801982 2.9009886 -0.68576127
1.2358191 3.3189251 -0.59042549
1.4471315 3.8864276 -0.46224159
1.7943629 4.8189549 -0.2872228
2.3449862 6.2977128 0
3.4390399 9.2359123 0.55048543
0.83025122 2.2379944 -0.78707957
0.94959807 2.5597017 -0.75324488
1.0758092 2.8999116 -0.68519896
1.2335919 3.3252251 -0.59128058
1.4424345 3.8881733 -0.46224159
1.7894417 4.8235531 -0.28736779
2.3409958 6.3103018 0
3.4305899 9.2473717 0.55092102
0.82411897 2.2297227 -0.78381974
0.94128436 2.5467236 -0.74909055
1.0723045 2.9012094 -0.68519896
1.227795 3.321902 -0.59042549
1.4458047 3.9117458 -0.46483594
1.7881155 4.8378959 -0.28809336
2.3369782 6.3228903 0
3.4248171 9.2661295 0.55179155
0.82654691 2.2446287 -0.78870797
0.94600773 2.5690448 -0.75531936
1.0644056 2.8905742 -0.68238288
1.2291008 3.3378322 -0.59299242
1.4419734 3.9159241 -0.46512505
1.7804744 4.8351812 -0.28780335
2.333832 6.3379178 0
3.4208014 9.2897673 0.55295265
0.82213324 2.2409894 -0.78707957
0.93685693 2.5537059 -0.75047624
1.0644126 2.9014001 -0.68463445
1.2259535 3.3417318 -0.59342164
1.4363474 3.9152281 -0.46483594
1.7791046 4.849524 -0.28852892
2.3306532 6.3529472 0
3.4167335 9.3134098 0.55411381
0.8270601 2.2628717 -0.79441351
0.93204653 2.5501189 -0.74909055
1.0652697 2.9146233 -0.68745047
1.2227951 3.3456194 -0.59384918
1.433393 3.9218242 -0.46541306
1.7750293 4.8565559 -0.28881946
2.3229752 6.3557587 0
3.4108315 9.33218 0.55498493
0.81840491 2.2476101 -0.78870797
0.93325549 2.5630279 -0.75255072
1.0626158 2.9182937 -0.68801284
1.222265 3.3567431 -0.59556109
1.4286532 3.9235532 -0.46541306
1.7682682 4.8562484 -0.28867391
2.3241963 6.3830104 0
3.4004409 9.3387337 0.55512989
0.8207472 2.2625425 -0.79359931
0.92588115 2.5523639 -0.74909055
1.0590888 2.9195755 -0.68801284
1.2147065 3.3485646 -0.59384918
1.4247925 3.9277058 -0.46570107
1.7668322 4.8706021 -0.28940001
2.3191454 6.3931561 0
3.3926988 9.3526058 0.55571049
0.82305133 2.2774749 -0.79848754
0.9364391 2.5912316 -0.76016515
1.0538315 2.9160693 -0.68688595
1.2106595 3.3500299 -0.59384918
1.4209238 3.9318547 -0.46598911
1.7653606 4.8849497 -0.29012558
2.3140733 6.4032989 0
3.3866928 9.371357 0.55658102
0.81444073 2.2621961 -0.79278511
0.93755567 2.604161 -0.76362532
1.0537499 2.9269032 -0.68913752
1.209217 3.3587294 -0.59513187
1.4258102 3.9603405 -0.46916059
1.7594568 4.8870792 -0.29012558
2.3169131 6.4354739 0
3.3806496 9.3901157 0.55745214
0.80753219 2.2515392 -0.78870797
0.92594039 2.5816817 -0.75670505
1.0502126 2.9281743 -0.68913752
1.21296 3.3819423 -0.59898484
1.4175311 3.9523218 -0.46800742
1.7605684 4.9087687 -0.29128671
2.3126466 6.4480581 0
3.3771954 9.4162045 0.55875826
0.81117147 2.2659934 -0.79359931
0.91677147 2.5609851 -0.75047624
1.0493022 2.9312074 -0.68970203
1.2065881 3.3705831 -0.59684372
1.4134012 3.9483118 -0.4674314
1.7514712 4.8927045 -0.2902706
2.3175235 6.4739614 0
3.3741307 9.4255753 0.55919325
0.80760342 2.2646461 -0.79278511
0.92378533 2.5904381 -0.75877953
1.0457597 2.9324732 -0.68970203
1.2016531 3.3696229 -0.59641618
1.4138405 3.9646294 -0.46916059
1.7551597 4.9217415 -0.29186726
2.3131959 6.4865618 0
3.3705971 9.4516802 0.56049991
0.80900258 2.2772629 -0.79685915
0.91645628 2.5797346 -0.75531936
1.0422156 2.9337347 -0.68970203
1.2001597 3.3783317 -0.59770048
1.4142424 3.9809537 -0.47088981
1.7509495 4.928751 -0.29215726
2.3105819 6.5040617 0
3.3617811 9.4630842 0.5609349
0.80295211 2.2689188 -0.79359931
0.91166615 2.5761144 -0.75393635
1.0471452 2.9589405 -0.69532979
1.1960766 3.3797793 -0.59770048
1.4102966 3.9851048 -0.47117892
1.746725 4.9357576 -0.29244727
2.2992485 6.497035 0
3.3546779 9.4793844 0.56166047
0.79692298 2.2605634 -0.79033947
0.90604967 2.5701137 -0.75185925
1.04019 2.950618 -0.69307822
1.1945533 3.3884876 -0.59898484
1.4046179 3.9843597 -0.47088981
1.7450819 4.9501247 -0.29317337
2.3052409 6.5390797 0
3.3509994 9.5054941 0.56296718
0.79828483 2.2731824 -0.79441351
0.90876305 2.5877783 -0.75670505
1.036624 2.9518728 -0.69307822
1.1972594 3.4092956 -0.60240692
1.4015182 3.9909394 -0.47146693
1.7390994 4.95223 -0.29317337
2.3042364 6.5615044 0
3.3438153 9.5217924 0.56369269
0.79308838 2.267144 -0.79196781
0.9031496 2.581768 -0.75462788
1.0364125 2.9627168 -0.69532979
1.1880548 3.3962059 -0.59983993
1.3984014 3.997508 -0.47204298
1.7365463 4.9641385 -0.29375392
2.3006022 6.5765643 0
3.3408861 9.5503483 0.56514382
0.79766732 2.2891042 -0.79930174
0.89755201 2.575748 -0.75255072
1.0336671 2.9663639 -0.69589216
1.1881731 3.4097571 -0.60197937
1.3952739 4.0040846 -0.4726201
1.7356755 4.9809508 -0.29462448
2.2977939 6.594089 0
3.3327641 9.5641928 0.56572437
0.79409111 2.2877336 -0.79848754
0.90513289 2.6076391 -0.76154816
1.0234165 2.9484076 -0.69138908
1.1840521 3.4111903 -0.60197937
1.3921294 4.0106497 -0.47319615
1.7339152 4.995316 -0.29535004
2.2898245 6.5968609 0
3.3229077 9.5731173 0.56601441
0.79859436 2.3097124 -0.80582142
0.89706421 2.5945091 -0.75739652
1.025666 2.9664543 -0.69532979
1.1774154 3.4053471 -0.60069668
1.3822128 3.9976666 -0.47146693
1.7304262 5.004777 -0.29578561
2.2903545 6.6242146 0
3.3138862 9.5844955 0.56644994
0.78856021 2.2896459 -0.79848754
0.89556086 2.6003306 -0.75877953
1.0287001 2.9869106 -0.69983286
1.1774787 3.4189007 -0.60283613
1.3824332 4.0140023 -0.47319615
1.7235323 5.0044098 -0.29564062
2.2908218 6.6515789 0
3.304842 9.5958652 0.56688553
0.77777451 2.2672229 -0.79033947
0.89404792 2.6061614 -0.76016515
1.0242666 2.9857504 -0.69927055
1.1708469 3.4130342 -0.60155177
1.3851348 4.0376859 -0.4757905
1.7191689 5.0113997 -0.29593059
2.2861609 6.6641889 0
3.2983022 9.6145945 0.56775606
0.7862215 2.3009002 -0.80174738
0.89576387 2.6214793 -0.7643168
1.0181925 2.9797702 -0.69758135
1.1733625 3.4338799 -0.60497552
1.3802551 4.0393567 -0.4757905
1.7189945 5.0306878 -0.29694673
2.2890456 6.6989589 0
3.2917252 9.6333303 0.56862718
0.78423631 2.3041861 -0.80256158
0.89825475 2.6391869 -0.7691626
1.0186839 2.9930229 -0.70039523
1.1683862 3.4328673 -0.60454798
1.3745407 4.0385756 -0.47550246
1.7137511 5.0352187 -0.29709172
2.2809496 6.7017198 0
3.2817557 9.6422157 0.56891716
0.78383297 2.3121564 -0.80500728
0.88781679 2.6188889 -0.76293379
1.0126187 2.9870303 -0.69870603
1.1658841 3.4391341 -0.60540307
1.3704895 4.0426807 -0.4757905
1.7101693 5.0446706 -0.29752728
2.2778652 6.719264 0
3.2734396 9.6560173 0.56949776
0.7794587 2.308423 -0.80337888
0.88946575 2.6342168 -0.76708543
1.010636 2.9930711 -0.69983286
1.1609073 3.4381106 -0.60497552
1.3689135 4.0541358 -0.47694367
1.7057335 5.0516524 -0.29781729
2.2739067 6.7343378 0
3.2609394 9.657506 0.56935275
0.77587873 2.3070138 -0.80256158
0.88788313 2.6400499 -0.76847112
1.0118768 3.0087354 -0.7032091
1.1616604 3.4541049 -0.60754251
1.3697861 4.0729499 -0.47896197
1.7029415 5.0635614 -0.29839784
2.2732334 6.7592788 0
3.2567217 9.6836033 0.57065886
0.77623075 2.3173239 -0.80582142
0.88150513 2.6316054 -0.76570249
1.0033998 2.9955046 -0.69983286
1.1525954 3.440906 -0.60497552
1.3607569 4.0623417 -0.47752079
1.7017756 5.0804038 -0.29926896
2.2667193 6.7669606 0
3.249969 9.7023096 0.57152939
0.77186722 2.3135755 -0.80419308
0.88546962 2.6540847 -0.77193123
1.0021898 3.0039387 -0.70151991
1.1557479 3.4642098 -0.60882682
1.3599393 4.0762486 -0.47896197
1.6956357 5.0824561 -0.29926896
2.2593639 6.772161 0
3.2398894 9.7111645 0.57181996
0.77296728 2.326232 -0.80826712
0.87751704 2.6408725 -0.76777959
1.0009638 3.0123837 -0.7032091
1.1531786 3.4704714 -0.60968196
1.3574606 4.0852547 -0.47982714
1.691949 5.0918918 -0.29970396
2.2602041 6.8020458 0
3.232249 9.7273989 0.57254553
0.76782554 2.3201225 -0.80582142
0.87274748 2.6371629 -0.76639396
1.0005164 3.0232399 -0.70546061
1.1473728 3.4669929 -0.60882682
1.3541471 4.0917983 -0.48040316
1.6906952 5.1087384 -0.30057508
2.2577081 6.8220696 0
3.2245743 9.7436295 0.5732711
0.7673434 2.3280931 -0.80826712
0.87034494 2.6405959 -0.76708543
0.99606812 3.0220356 -0.7048983
1.1480027 3.4830003 -0.61139381
1.3556793 4.1130834 -0.4827095
1.6877747 5.1206489 -0.30115563
2.2576084 6.8495049 0
3.219306 9.7672615 0.57443219
0.76207608 2.3168192 -0.80419308
0.87423748 2.6578057 -0.77193123
0.99582851 3.0274596 -0.70602298
1.1426898 3.4739389 -0.60968196
1.3531941 4.1139016 -0.4827095
1.6863029 5.1265998 -0.30144563
2.2591629 6.868175 0
3.2125933 9.7667389 0.57428718
0.76312262 2.3294799 -0.80826712
0.86399698 2.6374054 -0.76570249
0.99137938 3.0262485 -0.70546061
1.1424896 3.4875216 -0.61182302
1.3514431 4.1253653 -0.48386267
1.6849624 5.1434541 -0.30231676
2.255722 6.8857341 0
3.2064531 9.7879009 0.57530332
0.76567429 2.3468506 -0.81397265
0.87170196 2.6718335 -0.7753914
0.99166179 3.0395195 -0.70827454
1.143846 3.505976 -0.61481756
1.3472588 4.1294522 -0.48415071
1.6787462 5.1454864 -0.30231676
2.2498226 6.8958797 0
3.1962342 9.7967043 0.57559329
0.75367284 2.3195665 -0.80419308
0.86227089 2.6537969 -0.76985413
0.98798841 3.0407157 -0.70827454
1.1372313 3.5000381 -0.61353487
1.3422682 4.1310768 -0.48415071
1.6749343 5.1549177 -0.30275175
2.2527463 6.9332399 0
3.1868043 9.8079748 0.57602888
0.75923753 2.3463356 -0.81315535
0.86910373 2.6858644 -0.77885157
0.98431355 3.0419073 -0.70827454
1.133791 3.5038497 -0.61396241
1.3364801 4.1302371 -0.48386267
1.6719043 5.1668267 -0.3033323
2.2443671 6.935957 0
3.1789501 9.8241768 0.57675445
0.76549894 2.3754811 -0.82293493
0.85739565 2.6606534 -0.77123976
0.98375463 3.052768 -0.71052605
1.1327059 3.5149906 -0.61567432
1.336247 4.146615 -0.48559189
1.6664562 5.1713142 -0.30347729
2.2423706 6.9584804 0
3.1686695 9.8329525 0.57704443
0.75054419 2.3387501 -0.80989546
0.85877824 2.6760154 -0.7753914
0.97851396 3.0491204 -0.70940137
1.1308119 3.5236919 -0.61695862
1.3328178 4.1531572 -0.48616901
1.6649719 5.1881738 -0.30434841
2.2458904 6.9983573 0
3.1583755 9.8417273 0.577335
0.74771768 2.3396554 -0.80989546
0.85019749 2.660321 -0.7705456
0.97482896 3.0503006 -0.70940137
1.1273341 3.5274985 -0.61738616
1.3301615 4.162158 -0.48703417
1.6587019 5.1901817 -0.30434841
2.2445619 7.0233746 0
3.1448979 9.8405819 0.57704443
0.7598812 2.3876612 -0.82619476
0.85611224 2.6900337 -0.77885157
0.97422481 3.0611613 -0.71165293
1.1207347 3.5215173 -0.61610186
1.3251313 4.1637621 -0.48703417
1.6555815 5.2020864 -0.30492896
2.2337055 7.0186391 0
3.1314306 9.839427 0.57675445
0.74728918 2.3579504 -0.81560105
0.84907234 2.6791108 -0.7753914
0.9682216 3.0550673 -0.70996374
1.1172537 3.5253136 -0.61652941
1.3224412 4.17275 -0.48789823
1.6524346 5.2139912 -0.30550954
2.2393773 7.0659938 0
3.1195393 9.8432035 0.57675445
0.73774546 2.3376408 -0.80826712
0.84583449 2.6801348 -0.7753914
0.96911627 3.0707688 -0.71333992
1.1145399 3.5315619 -0.61738616
1.3197343 4.181747 -0.48876336
1.6476959 5.2209353 -0.30579954
2.2316203 7.0711741 0
3.1045153 9.8370543 0.5761739
0.75196147 2.3927557 -0.82700896
0.84410125 2.6859462 -0.77677703
0.96540517 3.0719376 -0.71333992
1.1141192 3.5451486 -0.61952561
1.3154553 4.1858039 -0.4890514
1.6445024 5.2328382 -0.30638009
2.2308755 7.0986886 0
3.0949647 9.848237 0.57660943
0.73652172 2.3535652 -0.81315535
0.84235227 2.6917481 -0.77816004
0.96396989 3.080379 -0.71502912
1.1136674 3.5587394 -0.621665
1.3111713 4.1898656 -0.48934051
1.6381783 5.2348213 -0.30638009
2.229291 7.1237302 0
3.0846136 9.8569241 0.57689941
0.73441476 2.3568199 -0.81397265
0.84432447 2.7095325 -0.78300583
0.96100235 3.0839651 -0.71559149
1.1070747 3.5527277 -0.6203807
1.3076452 4.1963811 -0.48991653
1.6364917 5.2516861 -0.30725121
2.2261024 7.1438136 0
3.070384 9.8532095 0.57646441
0.74548107 2.4025497 -0.82945466
0.83733326 2.6985726 -0.77954572
0.95351106 3.0729926 -0.71277761
1.096698 3.5344579 -0.61695862
1.3041053 4.2028937 -0.49049258
1.6316835 5.2586184 -0.30754119
2.2220948 7.161407 0
3.0615535 9.8668289 0.57704443
0.7352829 2.3798387 -0.82130659
0.83407193 2.6995823 -0.77954572
0.95279747 3.083853 -0.71502912
1.0992459 3.5578523 -0.62080991
1.3036085 4.2192984 -0.49222288
1.6260946 5.2630663 -0.30768621
2.218051 7.1790104 0
3.0480964 9.8655605 0.57675445
0.72513783 2.3570974 -0.81315535
0.82638192 2.6861966 -0.7753914
0.94981694 3.0874283 -0.71559149
1.0979654 3.5689924 -0.62252176
1.3007917 4.2282896 -0.49308804
1.6250831 5.2824149 -0.30870232
2.2162614 7.2040701 0
3.0377002 9.8741989 0.57704443
0.73314005 2.4037631 -0.82864046
0.83013296 2.721776 -0.78508031
0.94680202 3.1043015 -0.71896988
1.0923328 3.5814569 -0.62423366
1.2913235 4.2338924 -0.49337605
1.6176198 5.3037271 -0.30971843
2.2094731 7.2442503 0
3.0198936 9.9013948 0.57820553
0.72233433 2.3786302 -0.81967509
0.82247114 2.7083786 -0.78092867
0.94526607 3.1127393 -0.72065908
1.0887498 3.585228 -0.62466121
1.2884623 4.2428765 -0.49424121
1.6096985 5.3007002 -0.30942789
2.2022321 7.2518997 0
3.0086849 9.9075298 0.57835108
0.72017705 2.3818738 -0.82049239
0.81919801 2.7093704 -0.78092867
0.94003206 3.1090102 -0.71953219
1.0859015 3.5914507 -0.6255163
1.2825838 4.2419472 -0.4939521
1.6055493 5.3101053 -0.30986345
2.2002461 7.2769732 0
2.9967113 9.9111576 0.57835108
0.73225963 2.4324405 -0.83760589
0.82098663 2.7271764 -0.78577447
0.935543 3.1077132 -0.71896988
1.0815611 3.5927601 -0.6255163
1.2819324 4.258359 -0.49568239
1.6073692 5.3394041 -0.31145954
2.2004542 7.3095307 0
2.9847333 9.9147711 0.57835108
0.71158046 2.3741372 -0.81723255
0.81480962 2.7185538 -0.78300583
0.93032688 3.1039689 -0.717843
1.0757465 3.5891511 -0.62466121
1.2804981 4.2722902 -0.49712357
1.5986804 5.3338823 -0.31102455
2.1968486 7.3296275 0
2.9787164 9.9382734 0.57951164
0.71368617 2.3864043 -0.82130659
0.82251108 2.7502899 -0.79200327
0.92918158 3.1069717 -0.71840751
1.073578 3.5898004 -0.62466121
1.2779168 4.2730632 -0.49712357
1.597689 5.3423085 -0.31145954
2.1976404 7.3484097 0
2.9742022 9.945055 0.57980222
0.71009755 2.3848982 -0.82049239
0.81345993 2.7320461 -0.786466
0.93122464 3.1275647 -0.72290844
1.0721698 3.6009362 -0.62637305
1.2764425 4.2869964 -0.49856475
1.5949425 5.3566942 -0.31218567
2.193959 7.3685222 0
2.963665 9.953618 0.58009225
0.71353674 2.4070795 -0.82782626
0.81301028 2.7426484 -0.78923464
0.92672348 3.1262538 -0.72234607
1.0714653 3.6145329 -0.6285125
1.2705272 4.2860579 -0.49827674
1.5869904 5.3536305 -0.3118951
2.2079811 7.4485111 0
2.9501603 9.9522133 0.57980222
0.70223266 2.3794935 -0.81804669
0.80685532 2.734004 -0.786466
0.93085718 3.1541805 -0.72853839
1.0670969 3.6158249 -0.6285125
1.2697387 4.3024697 -0.50000596
1.5871391 5.3779712 -0.31320122
2.2203412 7.5235572 0
2.9366603 9.9507818 0.57951164
0.71050453 2.4182823 -0.83108616
0.8035512 2.734977 -0.786466
0.92131525 3.1358001 -0.72403526
1.0634501 3.6195722 -0.62894005
1.266727 4.3114481 -0.50087112
1.5813743 5.3823853 -0.31334677
2.2237198 7.5686803 0
2.9290309 9.969286 0.58038276
0.71174383 2.4333677 -0.8359744
0.79954231 2.7335403 -0.78577447
0.92037886 3.146666 -0.72628683
1.0590758 3.6208546 -0.62894005
1.2600658 4.3080153 -0.50029504
1.5763271 5.3892756 -0.31363678
2.2247999 7.6063266 0
2.916254 9.9703264 0.58023781
0.70603907 2.4247336 -0.8327145
0.79623878 2.7345045 -0.78577447
0.91515392 3.1428919 -0.72516
1.0582876 3.6344528 -0.63107949
1.2577491 4.3194585 -0.50144714
1.5727199 5.4011555 -0.31421733
2.2287025 7.6539817 0
2.9042048 9.9738426 0.58023781
0.70242131 2.4232135 -0.83190036
0.79223359 2.733048 -0.78508031
0.91277188 3.148881 -0.72628683
1.0510366 3.6258664 -0.62936759
1.2546899 4.3284302 -0.5023123
1.5669153 5.4055452 -0.31436235
2.2339439 7.7066612 0
2.895045 9.9873276 0.58081836
0.69537997 2.4098077 -0.82700896
0.79519266 2.7557039 -0.7913118
0.91108048 3.1573079 -0.72797602
1.0544842 3.6542671 -0.63407564
1.251611 4.3374004 -0.50317746
1.5639839 5.4199152 -0.31508791
2.232568 7.7368627 0
2.8872962 10.005794 0.58168888
0.70475191 2.4534104 -0.84167993
0.78978378 2.7494266 -0.78923464
0.90726483 3.1584065 -0.72797602
1.050776 3.6580033 -0.63450325
1.2470826 4.3413935 -0.50346547
1.5595868 5.4292955 -0.31552345
2.2318401 7.7695704 0
2.8730512 10.00178 0.58125335
0.69839001 2.4423807 -0.83760589
0.79749674 2.7889724 -0.80030924
0.90344787 3.1595004 -0.72797602
1.0463554 3.6592703 -0.63450325
1.2432594 4.3478756 -0.50404257
1.5558829 5.4411693 -0.31610402
2.232466 7.8072877 0
2.8595364 10.000253 0.58096331
0.70220345 2.46699 -0.84575397
0.79687345 2.7995858 -0.80307788
0.89962953 3.1605897 -0.72797602
1.044042 3.6679413 -0.63578755
1.2401272 4.3568301 -0.50490665
1.551442 5.4505453 -0.31653959
2.2251689 7.8174911 0
2.8460269 9.9986973 0.5806728
0.6998952 2.4702122 -0.84656817
0.78391427 2.7667494 -0.79338628
0.90065652 3.1787801 -0.73191458
1.0375092 3.6617882 -0.63450325
1.2397982 4.3757477 -0.50692499
1.5455626 5.4549136 -0.31668457
2.2164302 7.8226757 0
2.8396101 10.022129 0.5818339
0.68953204 2.4448962 -0.83760589
0.78806204 2.7942572 -0.80100071
0.89405614 3.170084 -0.72966307
1.0358711 3.6729221 -0.63621509
1.2324032 4.369772 -0.50605983
1.5403796 5.4617739 -0.31697458
0 0 0
2.8253844 10.018057 0.5813989
0.68056321 2.424304 -0.83026886
0.7853626 2.7976205 -0.80169219
0.89228594 3.1785033 -0.73135227
1.0383719 3.6988912 -0.6404956
1.2292202 4.3787313 -0.50692499
1.5372925 5.4761472 -0.31770068
2.2052548 7.8555641 0
2.8132775 10.021464 0.5813989
0.68096107 2.4370337 -0.834346
0.78333318 2.8034046 -0.80307788
0.89596707 3.2065003 -0.73754454
1.0290653 3.6828341 -0.63749939
1.2239285 4.3802133 -0.50692499
1.5327704 5.4855013 -0.31813568
2.1985626 7.8682489 0
2.8046622 10.037367 0.58212447
0.68529892 2.4640412 -0.84330827
0.77322173 2.780174 -0.79615492
0.88800567 3.1928878 -0.73416615
1.0239273 3.6816039 -0.63707185
1.2227918 4.3966355 -0.50865418
1.5289261 5.4973631 -0.31871626
2.1890538 7.8708997 0
2.7967081 10.055764 0.582995
0.68891627 2.4886923 -0.8514595
0.77120179 2.7859466 -0.79754055
0.88346982 3.1915121 -0.73360378
1.0215307 3.6902535 -0.63835454
1.2167891 4.3956194 -0.50836617
1.5229777 5.501718 -0.31886181
2.1850963 7.8936043 0
2.7880211 10.071654 0.58372056
0.68196833 2.4752214 -0.84656817
0.76850069 2.7892928 -0.79823208
0.88298678 3.204823 -0.73641765
1.0218447 3.7088115 -0.64135069
1.2135386 4.4045696 -0.50923133
1.5170184 5.5060568 -0.3190068
2.1797059 7.9112978 0
2.7820606 10.09756 0.58502668
0.68290007 2.49035 -0.8514595
0.77574515 2.8289306 -0.80930668
0.87844247 3.2034395 -0.73585534
1.0146471 3.7001407 -0.63963884
1.2088991 4.4085245 -0.50951934
1.5144861 5.5229168 -0.31987736
2.1749606 7.9314876 0
2.7719197 10.108434 0.58546227
0.67468446 2.4720981 -0.84493977
0.76902431 2.8177669 -0.80584651
0.87724704 3.2143035 -0.73810685
1.012879 3.7112701 -0.64135069
1.2062954 4.4199629 -0.51067251
1.5105481 5.5347695 -0.32045794
2.1681163 7.9441524 0
2.7644935 10.129326 0.58647835
0.67363864 2.4800601 -0.84738231
0.76890647 2.830797 -0.80930668
0.8693651 3.2006443 -0.73472846
1.0097384 3.7174411 -0.64220583
1.2029884 4.4289079 -0.51153767
1.5045398 5.5390959 -0.32060292
2.1598814 7.9517941 0
2.761106 10.165255 0.58836502
0.66806155 2.4713285 -0.84412247
0.76548541 2.8317239 -0.80930668
0.86748695 3.2090533 -0.73641765
1.0072563 3.7260952 -0.64349014
1.2010102 4.4428401 -0.51297885
1.502593 5.5584712 -0.32161903
2.1543453 7.9694672 0
2.7664502 10.233798 0.59213841
0.66528255 2.4669635 -0.84249407
0.76900023 2.8515637 -0.81484395
0.8688553 3.2218406 -0.73923159
1.0050049 3.7267029 -0.64349014
1.1983259 4.4435649 -0.51297885
1.5026169 5.5719199 -0.3223446
2.1529176 7.9833283 0
2.7690616 10.26808 0.59402508
0.65525329 2.4415047 -0.8335287
0.75254828 2.8040304 -0.80100071
0.86562222 3.2253492 -0.73979604
1.0031629 3.7378321 -0.64520198
1.1942954 4.4500008 -0.51355487
1.4938645 5.5662098 -0.32190961
2.145968 7.9959784 0
2.7606952 10.286481 0.5948962
0.66697222 2.4972188 -0.8522737
0.75110233 2.8122115 -0.80307788
0.86368948 3.2337503 -0.74148309
0.995996 3.7291207 -0.64349014
1.1895869 4.4539471 -0.51384395
1.4938415 5.5931101 -0.32336071
2.1416774 8.0186806 0
2.750946 10.29985 0.59547675
0.66712815 2.509964 -0.85634774
0.75156915 2.8276598 -0.80722952
0.8597815 3.2347915 -0.74148309
0.99610585 3.7476904 -0.64648628
1.1861956 4.462873 -0.51470804
1.4884158 5.5999289 -0.32365072
2.1380026 8.0438967 0
2.7418354 10.315721 0.59620231
0.65587944 2.479708 -0.84575397
0.74366075 2.8115859 -0.80238372
0.85587227 3.2358282 -0.74148309
0.98895115 3.7389646 -0.64477444
1.1821263 4.4693089 -0.51528519
1.4816483 5.6017232 -0.32365072
2.1336055 8.0666018 0
2.7287025 10.316507 0.59605676
0.65351123 2.4828866 -0.84656817
0.74217927 2.8197632 -0.80446088
0.85196173 3.2368598 -0.74148309
0.98835182 3.7550471 -0.64734143
1.1780405 4.4757314 -0.51586121
1.4775243 5.6135612 -0.32423127
2.1225333 8.0641451 0
2.7188807 10.329848 0.59663731
0.65301555 2.4932382 -0.849828
0.74067914 2.8279409 -0.80653799
0.85255712 3.2550952 -0.74542385
0.98771763 3.7711432 -0.64991003
1.1772196 4.494669 -0.51787955
1.4740316 5.6279082 -0.32495683
2.1207006 8.0969152 0
2.7083728 10.34067 0.59707284
0.66122139 2.5370715 -0.86449581
0.7378937 2.8312593 -0.80722952
0.84990376 3.2610359 -0.74654853
0.97927445 3.7574246 -0.64734143
1.1724395 4.4985886 -0.51816756
1.4672302 5.6296849 -0.32495683
2.1089458 8.0919142 0
2.7030852 10.371595 0.59866953
0.65443385 2.5235186 -0.85960758
0.74895519 2.8879957 -0.82314724
0.84341145 3.2522223 -0.74429697
0.97924513 3.7760015 -0.65033758
1.1683028 4.5050139 -0.51874465
1.4643418 5.6465502 -0.32582796
2.1070065 8.1246862 0
2.6925063 10.382393 0.59910452
0.64644372 2.5051618 -0.85308784
0.74170524 2.8743281 -0.81899559
0.84075212 3.2581644 -0.74542385
0.97147542 3.7647562 -0.64819819
1.1641498 4.5114264 -0.51932073
1.4581666 5.6508288 -0.32597294
2.1036892 8.152421 0
2.6825562 10.395702 0.59968507
0.65140635 2.53706 -0.86368161
0.73136806 2.8484905 -0.81138116
0.8387109 3.2665634 -0.74711305
0.97011715 3.778357 -0.65033758
1.1619133 4.5253534 -0.52076191
1.454568 5.6651683 -0.32669851
2.1022503 8.1877241 0
2.6719322 10.406489 0.60012066
0.63671845 2.492353 -0.84819967
0.72916877 2.8542383 -0.81276679
0.83790731 3.2798812 -0.74992692
0.96555108 3.7795265 -0.65033758
1.1558049 4.5242505 -0.5204739
1.4496518 5.6744771 -0.32713404
2.0955756 8.2028637 0
2.6612864 10.417265 0.60055619
0.63431472 2.4955137 -0.84901381
0.72510207 2.8526881 -0.81207532
0.83519429 3.2858117 -0.7510516
0.96541089 3.7981083 -0.65333378
1.1522495 4.5331664 -0.52133906
1.4466338 5.69133 -0.32800463
2.0901511 8.2230482 0
2.6531761 10.438095 0.60157174
0.62826961 2.4842997 -0.84493977
0.72165459 2.8535621 -0.81207532
0.83309293 3.2942109 -0.7527408
0.96082091 3.7992721 -0.65333378
1.1486742 4.5420804 -0.52220416
1.4429431 5.7056766 -0.32873073
2.0770237 8.2129545 0
2.6443856 10.456412 0.60244286
0.6325044 2.5138199 -0.85471934
0.72922367 2.8982203 -0.82453287
0.82167202 3.265646 -0.74598616
0.95873505 3.8103883 -0.65504563
1.1450768 4.550983 -0.52306825
1.4417536 5.7300925 -0.33003685
2.0753531 8.2482653 0
2.6323824 10.462118 0.60258788
0.63246685 2.5265682 -0.85879338
0.71901929 2.8723264 -0.81691843
0.82574612 3.298677 -0.75330311
0.95225954 3.8040707 -0.65376133
1.1427168 4.5649061 -0.52450943
1.4323049 5.7217479 -0.3294563
2.0799189 8.3088255 0
2.6228936 10.477892 0.60331345
0.62821776 2.5225291 -0.85716188
0.71736753 2.8804986 -0.81899559
0.81991935 3.2922828 -0.75161612
0.94952404 3.8126941 -0.65504563
1.1378269 4.5688004 -0.52479851
1.4260175 5.7259936 -0.32960129
2.0767965 8.3391142 0
2.6133702 10.493658 0.60403895
0.62992448 2.542479 -0.86368161
0.7138865 2.8813634 -0.81899559
0.81594068 3.2932711 -0.75161612
0.94615 3.8188171 -0.65590078
1.1347936 4.580214 -0.52595168
1.4240969 5.74789 -0.33076242
2.0736041 8.3694077 0
2.6050637 10.514466 0.60505509
0.62507689 2.5360365 -0.86123598
0.70500147 2.8603034 -0.81276679
0.81378329 3.3016486 -0.75330311
0.94460613 3.8324177 -0.65804017
1.1286378 4.5790634 -0.5256626
1.4190168 5.7571778 -0.33119798
2.0609984 8.3617992 0
2.5998192 10.547881 0.6067968
0.61965775 2.5271881 -0.85797608
0.70751816 2.8855145 -0.81968707
0.80979329 3.3026295 -0.75330311
0.93936396 3.8310654 -0.65761262
1.1261855 4.5929914 -0.52710485
1.4132957 5.7639308 -0.33148795
2.0552299 8.3819695 0
2.5907838 10.566153 0.60766733
0.61894643 2.5375397 -0.86123598
0.71116501 2.9156148 -0.82799304
0.80640364 3.3060718 -0.75386548
0.93594962 3.8371809 -0.65846777
1.1200204 4.5918288 -0.52681577
1.4112562 5.7858295 -0.33264908
2.0469513 8.3920345 0
2.5823257 10.586948 0.60868347
0.61762881 2.5454938 -0.86368161
0.70350009 2.8994036 -0.82314724
0.80540574 3.319397 -0.7566815
0.93070775 3.8358166 -0.65804017
1.11752 4.6057444 -0.52825695
1.4073271 5.8001542 -0.33337465
2.0374227 8.3970289 0
2.5707581 10.595117 0.60897398
0.60933417 2.524617 -0.85634774
0.69646573 2.8856237 -0.81899559
0.80079639 3.3178906 -0.75611705
0.92667395 3.8394313 -0.65846777
1.1143814 4.6171484 -0.52941012
1.4009267 5.8043737 -0.33351964
2.026665 8.3969564 0
2.5591724 10.603262 0.60926402
0.61243629 2.5442085 -0.86286747
0.69765735 2.8982372 -0.82245576
0.79819769 3.315906 -0.75555468
0.92735982 3.8524766 -0.66060883
1.1128036 4.6228547 -0.52998728
1.3998522 5.8153243 -0.33410019
2.0203745 8.3931236 0
2.5515509 10.599758 0.60897398
0.61051166 2.5497494 -0.86449581
0.69999784 2.9234807 -0.82937866
0.79714823 3.329221 -0.75836855
0.92210466 3.8510907 -0.66017962
1.1102278 4.6367707 -0.53142846
1.3964561 5.8321786 -0.33497131
2.012048 8.4031448 0
2.5417659 10.615466 0.60969955
0.60456777 2.5384657 -0.86042178
0.69413996 2.9145625 -0.82661003
0.79665816 3.345017 -0.76174694
0.91685653 3.8497071 -0.65975207
1.1046243 4.6381087 -0.53142846
1.3888066 5.831336 -0.33482632
2.0037024 8.413167 0
2.5313454 10.628641 0.6102801
0.61289454 2.5872953 -0.87672108
0.68656921 2.8983083 -0.82176423
0.78793025 3.3261974 -0.75724387
0.91516232 3.8632996 -0.66189146
1.0996149 4.6419544 -0.53171647
1.3865489 5.8532281 -0.33598688
1.9965341 8.4282417 0
2.5208967 10.641806 0.61086071
0.60806686 2.5808144 -0.87427539
0.6893959 2.9259989 -0.82937866
0.78391057 3.327147 -0.75724387
0.91284841 3.874397 -0.66360337
1.0975653 4.65839 -0.53344673
1.383052 5.870079 -0.33685797
1.989931 8.4458523 0
2.5110154 10.657487 0.61158621
0.6015656 2.5671134 -0.86938715
0.68929315 2.9414806 -0.83353031
0.78626728 3.3553069 -0.76343614
0.90816629 3.8754973 -0.66360337
1.0931149 4.6647444 -0.53402281
1.3783295 5.881866 -0.33743855
1.9844723 8.4685116 0
2.4993205 10.665568 0.61187625
0.5984633 2.5678384 -0.86938715
0.67890519 2.912992 -0.8252244
0.77990556 3.3463562 -0.76118463
0.90464932 3.8815968 -0.66446012
1.0904125 4.6786542 -0.53546399
1.3741698 5.8961778 -0.33816409
1.9813267 8.501318 0
2.4899714 10.683769 0.61274737
0.59536016 2.5685596 -0.86938715
0.67878491 2.9284787 -0.82937866
0.77643478 3.3497689 -0.76174694
0.89995849 3.8826871 -0.66446012
1.086511 4.6875296 -0.53632915
1.3676306 5.9003625 -0.33830911
1.9739908 8.5163794 0
2.4823403 10.70955 0.61405349
0.59281075 2.5716832 -0.87020135
0.68426025 2.9684019 -0.84045064
0.77581 3.3655558 -0.76512319
0.89641851 3.8887696 -0.66531521
1.0820094 4.6938848 -0.53690624
1.3651696 5.9222674 -0.33947021
1.9713002 8.551734 0
2.4699812 10.715071 0.61419845
0.59633023 2.6013069 -0.87998092
0.67394829 2.9398918 -0.83214736
0.77060843 3.3615422 -0.76399851
0.89745617 3.9148765 -0.66959572
1.0769143 4.6977077 -0.53719431
1.3614975 5.9391141 -0.34034133
1.9632896 8.5642462 0
2.4622574 10.74084 0.61550456
0.58494568 2.5658767 -0.86775565
0.6770848 2.9700468 -0.84045064
0.76993358 3.3773301 -0.76737469
0.89101291 3.908447 -0.66831142
1.0718117 4.7015247 -0.53748232
1.3548973 5.9432855 -0.34048632
1.9610394 8.6021414 0
2.4510105 10.75141 0.61594015
0.59168202 2.6099741 -0.88242662
0.66961449 2.953743 -0.83560747
0.76416636 3.3708215 -0.7656855
0.88799286 3.9170339 -0.66959572
1.0678461 4.7103863 -0.53834742
1.3494368 5.9525137 -0.34092134
1.9563967 8.62988 0
2.4391656 10.759427 0.61623013
0.57726318 2.5752177 -0.87020135
0.65753633 2.9333229 -0.82937866
0.76102173 3.3949797 -0.77075309
0.88133132 3.9316905 -0.67173517
1.0581554 4.7205172 -0.53921151
1.3418684 5.9861836 -0.34266302
1.946921 8.6853724 0
2.4177041 10.785575 0.61739123
0.5741511 2.5759134 -0.87020135
0.66599786 2.9879813 -0.84460491
0.75415355 3.3834896 -0.76793706
0.87602204 3.9302495 -0.67130756
1.0558281 4.7369442 -0.54094183
1.3352011 5.990344 -0.34280857
1.9432192 8.7182007 0
2.4080632 10.80371 0.61826235
0.57531649 2.5959096 -0.87672108
0.65424395 2.9520416 -0.83422184
0.75446296 3.4042439 -0.77244014
0.87238228 3.9363127 -0.67216271
1.0506628 4.7407393 -0.54122984
1.3318961 6.0097041 -0.34382412
1.9360611 8.7357826 0
2.3961306 10.811681 0.61855239
0.57058328 2.5893595 -0.87427539
0.65769434 2.9846776 -0.84321928
0.74816191 3.3952277 -0.77018857
0.86983508 3.9473915 -0.67387456
1.0471601 4.7521091 -0.54238302
1.3274288 6.0239944 -0.34454969
1.9311036 8.763526 0
2.3825064 10.812033 0.61840737
0.56798261 2.5924592 -0.87508959
0.65140343 2.9732192 -0.83975911
0.74242908 3.3886902 -0.76850158
0.86396492 3.9434197 -0.6730178
1.0430785 4.7609529 -0.54324812
1.3229312 6.0382924 -0.34527579
1.9266404 8.7938194 0
2.3699958 10.81744 0.61855239
0.56537724 2.5955656 -0.87590688
0.64567459 2.9641988 -0.83699048
0.74157768 3.4044762 -0.77187777
0.86029321 3.9494822 -0.67387456
1.038425 4.7672596 -0.5438242
1.3172916 6.0474958 -0.34571078
1.9204446 8.8164845 0
2.357476 10.822832 0.61869735
0.57008594 2.6324739 -0.888129
0.64952528 2.9992993 -0.84667939
0.73961467 3.415303 -0.77412933
0.85715091 3.9580479 -0.67515886
1.0332109 4.7710361 -0.54411221
1.3132844 6.0643258 -0.34658191
1.9147471 8.8416872 0
2.3454978 10.830757 0.61898792
0.56274307 2.6138308 -0.88160932
0.63798189 2.9633005 -0.836299
0.73334825 3.4062583 -0.77187777
0.85344732 3.9640951 -0.67601401
1.0301688 4.7849312 -0.54555446
1.3081435 6.0760689 -0.34716246
1.905706 8.8516302 0
2.3351433 10.846282 0.61971349
0.56165349 2.6241765 -0.88486916
0.63544995 2.9689708 -0.83768195
0.73082775 3.4145982 -0.77356696
0.85080594 3.9751642 -0.67772585
1.0260087 4.7937527 -0.54641855
1.302976 6.0878091 -0.34774303
1.8988204 8.8717327 0
2.323668 10.856721 0.62014902
0.56161594 2.6317692 -0.88731486
0.63575041 2.9791682 -0.84045064
0.72929448 3.4175217 -0.77412933
0.84840417 3.9756775 -0.67772585
1.0247324 4.8019629 -0.54728371
1.3036362 6.1089249 -0.34890413
1.8994352 8.900878 0
2.3171086 10.858123 0.62014902
0.55894798 2.6348612 -0.888129
0.63215023 2.9799342 -0.84045064
0.72516453 3.4184003 -0.77412933
0.84626275 3.9892533 -0.6798653
1.0189294 4.8031974 -0.54728371
1.2967925 6.1130347 -0.34904915
1.8962387 8.9388037 0
2.3072212 10.876161 0.6210196
0.54913461 2.6040976 -0.87753528
0.62906826 2.9831576 -0.8411448
0.72470397 3.4366801 -0.77807009
0.84038359 3.985254 -0.67901015
1.0152596 4.8145485 -0.54843688
1.2920854 6.1273074 -0.34977469
1.8875844 8.9512739 0
2.2935421 10.8764 0.62087458
0.55105728 2.6289449 -0.88568336
0.62803614 2.9961903 -0.84460491
0.72055089 3.4375532 -0.77807009
0.83661985 3.9912868 -0.6798653
1.0126241 4.8309555 -0.55016607
1.2873458 6.1415777 -0.35050026
1.884243 8.989213 0
2.2803986 10.879164 0.62087458
0.54888952 2.6344528 -0.88731486
0.62390417 2.9944932 -0.84391344
0.71484143 3.4309566 -0.7763809
0.83232164 3.9948151 -0.68029445
1.0062591 4.8296461 -0.54987806
1.2878745 6.1812887 -0.35267749
1.8770943 9.0093107 0
2.2661905 10.876819 0.62058407
0.54470253 2.6302691 -0.88568336
0.6207937 2.9976993 -0.84460491
0.71018052 3.429332 -0.77581853
0.8290543 4.0033517 -0.68157715
1.0009466 4.8333883 -0.55016607
1.2793498 6.1777463 -0.35238692
1.8725399 9.0421534 0
2.2546277 10.887185 0.6210196
0.55248719 2.6841886 -0.90361416
0.61919421 3.0082762 -0.84737355
0.70705986 3.4351604 -0.77694321
0.82576954 4.0118961 -0.68286145
0.99875635 4.8523307 -0.5521844
1.2734563 6.1869254 -0.35282248
1.8642358 9.0571518 0
2.2414708 10.889901 0.6210196
0.53983116 2.6388443 -0.888129
0.61807239 3.0213091 -0.85083371
0.7059651 3.450953 -0.7803216
0.81989133 4.0078564 -0.68200469
0.99496603 4.8636699 -0.55333757
1.2685832 6.2011862 -0.35354805
1.8585075 9.0848999 0
2.2288313 10.895144 0.62116462
0.53615028 2.6370749 -0.88731486
0.61442131 3.0220537 -0.85083371
0.70078129 3.4468188 -0.77919477
0.81658292 4.0163932 -0.68328899
0.98857367 4.8623362 -0.5530495
1.2636774 6.2154436 -0.35427362
1.8537509 9.1177425 0
2.2151477 10.895287 0.6210196
0.53883755 2.6667926 -0.89709443
0.61126566 3.0252507 -0.85152519
0.70164925 3.4725735 -0.78482467
0.8137629 4.027442 -0.6850009
0.98525858 4.8762012 -0.55449075
1.2597691 6.2347975 -0.35528973
1.8458242 9.1352768 0
2.2019813 10.897955 0.6210196
0.54047972 2.6916695 -0.9052425
0.60563421 3.0161483 -0.84875655
0.69695115 3.4709203 -0.78426015
0.80990767 4.0334606 -0.68585765
0.98038334 4.8824549 -0.55506676
1.255816 6.2541504 -0.35630584
1.8383716 9.155364 0
2.1888118 10.900607 0.6210196
0.5338428 2.6753607 -0.89954013
0.60395306 3.0267191 -0.85152519
0.69076788 3.4617929 -0.78200865
0.806539 4.0419812 -0.68714029
0.97549635 4.8887138 -0.55564392
1.2487662 6.2582092 -0.35645083
1.8364736 9.2035131 0
2.1766567 10.908345 0.62131017
0.52195585 2.63236 -0.88486916
0.59834361 3.0176032 -0.84875655
0.68856126 3.4725945 -0.78426015
0.8031528 4.0505095 -0.68842465
0.97210342 4.9025717 -0.5570851
1.2452465 6.2801042 -0.35761195
1.8283877 9.2210369 0
2.1675177 10.931358 0.62247127
0.52211982 2.649966 -0.89057469
0.59324157 3.0109372 -0.84667939
0.68878502 3.4958584 -0.78932559
0.80024296 4.0615516 -0.69013649
0.96617895 4.9037428 -0.5570851
1.2396667 6.2918019 -0.3581925
1.8263012 9.269206 0
2.1558132 10.94161 0.62290627
0.52366513 2.6748457 -0.89872277
0.5987615 3.0584328 -0.85983115
0.68309736 3.4892147 -0.78763855
0.79582751 4.0650325 -0.69056404
0.96224076 4.91506 -0.55823827
1.2350577 6.3085904 -0.35906306
1.8210981 9.3020439 0
2.1455872 10.959513 0.62377739
0.52184898 2.6827574 -0.90116847
0.59027624 3.0345328 -0.85291088
0.68033493 3.4975126 -0.78932559
0.7918964 4.0710354 -0.69142079
0.95679456 4.9187555 -0.55852628
1.2309077 6.3279352 -0.3600792
1.813336 9.3221226 0
2.1407773 11.005455 0.6262446
0.51485503 2.6639724 -0.89464873
0.58565611 3.0303125 -0.85152519
0.67659187 3.500834 -0.78989011
0.78697675 4.0719895 -0.69142079
0.95085049 4.919908 -0.55852628
1.225233 6.339623 -0.36065975
1.8094788 9.3626375 0
2.1570599 11.161098 0.63495243
0.51629555 2.6888604 -0.9027968
0.59003597 3.0728996 -0.86329126
0.67331868 3.506635 -0.79101479
0.78011972 4.0628533 -0.68970895
0.94880688 4.9413738 -0.56083262
1.2205108 6.3564048 -0.3615303
1.8060145 9.4057007 0
2.1808093 11.357626 0.6459825
0.51536322 2.7016284 -0.906874
0.58820289 3.0834677 -0.86605996
0.66622531 3.4924753 -0.78763855
0.77953869 4.0864849 -0.69356024
0.94380575 4.9476027 -0.56140971
1.2147771 6.3680844 -0.36211085
1.7961117 9.4155474 0
2.1797426 11.426611 0.64975584
0.50979608 2.6901002 -0.9027968
0.57980645 3.0595319 -0.85913962
0.66484255 3.5082519 -0.79101479
0.77507794 4.0899434 -0.69398779
0.93830794 4.9512787 -0.56169778
1.2095002 6.3823104 -0.36283642
1.7900643 9.4458399 0
2.1717401 11.459873 0.65149748
0.50471795 2.6810079 -0.89954013
0.57889313 3.0750182 -0.86329126
0.66248333 3.5190408 -0.79326636
0.77013546 4.0908771 -0.69398779
0.93710887 4.9778223 -0.56458014
1.2037106 6.3939815 -0.36341697
1.7829825 9.4710121 0
2.1655831 11.503346 0.65381974
0.50674278 2.7007368 -0.9060567
0.57564682 3.0679679 -0.86121416
0.66082531 3.5219352 -0.79382867
0.77050513 4.1064849 -0.69655639
0.93124038 4.9631395 -0.56285095
1.2017641 6.404923 -0.36399752
1.7839783 9.5078926 0
2.1619859 11.522522 0.65483528
0.49849892 2.6746266 -0.89709443
0.57010245 3.0588055 -0.85844815
0.65563905 3.5177402 -0.79270399
0.76413119 4.0998397 -0.69527209
0.92808527 4.9795127 -0.56458014
1.1983086 6.429358 -0.36530364
1.7777344 9.5381861 0
