# .PCD v0.7 - Point Cloud Data file format
VERSION 0.7
FIELDS x y z
SIZE 4 4 4
TYPE F F F
COUNT 1 1 1
WIDTH 1684
HEIGHT 1
VIEWPOINT 0 0 0 1 0 0 0
POINTS 1684
DATA ascii
6.0310216 -4.8377447 -0.43185532
5.4888163 -4.4028182 0
5.3296466 -4.2751412 0.38163289
0 -0 -0
0 -0 -0
3.1422632 -2.5143123 -0.89151865
3.8988044 -3.1196659 -0.83245349
4.743711 -3.7957261 -0.6771698
6.0388899 -4.8320756 -0.43200034
5.5225768 -4.4189429 0
5.3408971 -4.2735701 0.38206846
0 -0 -0
0 -0 -0
3.1353638 -2.5025835 -0.88870263
3.8965502 -3.110147 -0.83116919
4.7422276 -3.7851493 -0.67630464
6.044724 -4.8247752 -0.43200034
5.5706248 -4.4463592 0
5.3216867 -4.2476616 0.38032678
0 -0 -0
0 -0 -0
3.1383855 -2.4987934 -0.88870263
3.9043257 -3.1086376 -0.83202595
4.7407331 -3.7745881 -0.67544061
6.0464878 -4.8142343 -0.43171033
5.5963492 -4.455832 0
5.3430777 -4.2541766 0.38148788
0 -0 -0
0 -0 -0
3.1418891 -2.4984827 -0.88926715
3.9162474 -3.1142654 -0.83416539
4.7389603 -3.7685003 -0.67486346
6.0432916 -4.8057265 -0.43127477
5.586822 -4.4427347 0
5.3253126 -4.2347779 0.38003677
0 -0 -0
0 -0 -0
3.1230066 -2.4773133 -0.88307482
3.9139721 -3.1047435 -0.83288103
4.7455344 -3.7643774 -0.67515147
6.0470605 -4.7968078 -0.43112975
6.2894588 -4.9890895 0
5.3426366 -4.2380261 0.38090733
0 -0 -0
0 -0 -0
3.1419382 -2.4861512 -0.88757795
3.9157095 -3.0984206 -0.83245349
4.7480531 -3.7570372 -0.67486346
6.065074 -4.7991686 -0.43200034
6.2709918 -4.9621072 0
5.3579397 -4.2396278 0.38163289
0 -0 -0
0 -0 -0
3.1509252 -2.4870772 -0.88926715
3.9234767 -3.0968649 -0.83330864
4.7464967 -3.7464883 -0.6739983
6.066793 -4.78862 -0.43171033
6.234086 -4.9206672 0
5.3732629 -4.2412052 0.382359
0 -0 -0
0 -0 -0
3.1599114 -2.4879792 -0.89095414
3.9252007 -3.0905354 -0.83288103
4.7449293 -3.7359548 -0.67313427
6.0623689 -4.7732506 -0.43098477
6.1705093 -4.8583956 0
5.4171677 -4.2652464 0.38511622
0 -0 -0
0 -0 -0
3.1489332 -2.4731777 -0.88701558
3.9289322 -3.0857902 -0.83288103
4.7413039 -3.7238283 -0.6719811
6.0640411 -4.7627087 -0.43069422
0 -0 0
5.3916626 -4.2346215 0.38293901
0 -0 -0
0 -0 -0
3.1479151 -2.466234 -0.88588876
3.9346766 -3.0826223 -0.83330864
4.7396898 -3.7133098 -0.67111593
6.063653 -4.7505689 -0.43025866
0 -0 0
5.3865499 -4.2200923 0.38221344
0 -0 -0
0 -0 -0
3.1549008 -2.4655607 -0.88701558
3.9323363 -3.0731282 -0.83202595
4.7401013 -3.7043979 -0.67053992
6.0611992 -4.7368383 -0.42967808
0 -0 0
5.3957438 -4.216784 0.38250399
0 -0 -0
0 -0 -0
3.1658933 -2.4679956 -0.88926715
3.9360468 -3.0683744 -0.83202595
4.7486496 -3.7018449 -0.67111593
6.0628238 -4.7263193 -0.42938811
0 -0 0
5.3721409 -4.187892 0.38047177
0 -0 -0
0 -0 -0
3.1668615 -2.4626043 -0.88870263
3.9458251 -3.0683391 -0.83330864
4.7388244 -3.6849887 -0.6690976
6.0623746 -4.7142034 -0.42895254
6.2593255 -4.8673558 0
5.3874593 -4.1893778 0.38119787
0 -0 -0
0 -0 -0
3.1537809 -2.4463232 -0.88420171
3.9495296 -3.0635693 -0.83330864
4.7534981 -3.687191 -0.67053992
6.07833 -4.7148361 -0.42967808
6.2528601 -4.8502154 0
5.3637691 -4.1605659 0.37916565
0 -0 -0
0 -0 -0
3.1728034 -2.4549439 -0.88870263
3.957293 -3.0619397 -0.83416539
4.747716 -3.673526 -0.6690976
6.0819693 -4.7058997 -0.42953309
5.4683747 -4.231133 0
5.4016738 -4.1795235 0.38148788
0 -0 -0
0 -0 -0
3.1757674 -2.4511085 -0.88870263
3.9508309 -3.049315 -0.83202595
4.7603412 -3.674108 -0.67025077
6.0917692 -4.7017255 -0.42982364
5.5002642 -4.2451925 0
5.4272861 -4.1888671 0.38293901
0 -0 -0
0 -0 -0
3.1706812 -2.4410751 -0.88645321
3.960609 -3.0492325 -0.83330864
4.7381363 -3.6478429 -0.66650325
6.0912671 -4.6896043 -0.42938811
5.5053897 -4.2385435 0
5.4488153 -4.1949873 0.38410011
0 -0 -0
0 -0 -0
3.177655 -2.4403346 -0.88757795
3.9663322 -3.0460126 -0.83373779
4.7302365 -3.6326659 -0.66477406
6.0969291 -4.682241 -0.42938811
5.4878006 -4.2144504 0
5.4559469 -4.1899877 0.38424566
0 -0 -0
0 -0 -0
3.1806014 -2.4364932 -0.88757795
3.9740815 -3.044337 -0.83459294
4.7325711 -3.6253762 -0.66448605
6.0902095 -4.6653924 -0.42851755
5.5032167 -4.2157278 0
5.4713173 -4.1912913 0.38497123
0 -0 -0
0 -0 -0
3.1719847 -2.4268527 -0.88476402
3.9616466 -3.0310149 -0.83159673
4.7327003 -3.6209402 -0.66419691
6.1012821 -4.6680279 -0.4290981
5.5202332 -4.2234735 0
5.477972 -4.1911402 0.38526124
0 -0 -0
0 -0 -0
3.1789505 -2.4260983 -0.88588876
3.9632673 -3.0246701 -0.83116919
4.7288475 -3.6089423 -0.66304374
6.100719 -4.6559215 -0.42866254
5.5170569 -4.2104845 0
5.4933586 -4.1923985 0.3859868
0 -0 -0
0 -0 -0
3.1778402 -2.4191802 -0.88476402
3.9689598 -3.0214324 -0.83159673
4.7290926 -3.6000955 -0.66246772
6.1001358 -4.6438231 -0.42822698
5.493154 -4.1817489 0
5.4860191 -4.1763172 0.38511622
0 -0 -0
0 -0 -0
3.1888552 -2.4214852 -0.88701558
3.9767005 -3.0197425 -0.83245349
4.737555 -3.5975041 -0.66304374
6.0933299 -4.6270237 -0.42735642
5.5002732 -4.176681 0
5.455883 -4.1429725 0.382649
0 -0 -0
0 -0 -0
3.1857007 -2.4130263 -0.88532639
3.978302 -3.0133867 -0.83202595
4.7377791 -3.5886567 -0.66246772
6.0761299 -4.6023979 -0.42575973
5.4804215 -4.151175 0
6.2168765 -4.7090068 0.43562198
0 -0 -0
0 -0 -0
3.1886139 -2.4091752 -0.88532639
3.9819403 -3.0085773 -0.83202595
4.7400498 -3.5813715 -0.66217971
6.0671721 -4.5840859 -0.42474362
5.5082765 -4.1618094 0
6.2370763 -4.7124581 0.43663809
0 -0 -0
0 -0 -0
3.1915226 -2.4053206 -0.88532639
3.9855726 -3.0037639 -0.83202595
4.7340479 -3.5678594 -0.66073853
6.0581865 -4.5658088 -0.42372808
5.4530311 -4.1097274 0
0 -0 0
0 -0 -0
0 -0 -0
3.2106745 -2.4136772 -0.88982946
3.9871414 -2.9973989 -0.83159673
4.7362823 -3.5605779 -0.66044939
6.0491581 -4.547554 -0.42271197
5.443429 -4.0921874 0
0 -0 0
0 -0 -0
0 -0 -0
3.2095191 -2.4067442 -0.88870263
3.9866567 -2.9895017 -0.83074164
4.7219591 -3.5408883 -0.65785503
6.0421791 -4.5308909 -0.42184141
5.4796038 -4.1090283 0
0 -0 0
0 -0 -0
0 -0 -0
3.2002206 -2.3937359 -0.88532639
4.006711 -2.9969833 -0.83416539
4.734519 -3.5413771 -0.6590082
6.0518069 -4.5266967 -0.42213139
5.4408026 -4.0696707 0
0 -0 0
0 -0 -0
0 -0 -0
3.1969993 -2.3853076 -0.88363719
4.0000439 -2.9844656 -0.83202595
4.7408657 -3.537199 -0.65929621
6.0593529 -4.5209332 -0.42227641
5.4582272 -4.0724282 0
0 -0 0
0 -0 -0
0 -0 -0
3.205996 -2.3859951 -0.88532639
3.9954097 -2.9734998 -0.8303141
4.7326908 -3.5222058 -0.65756702
6.068984 -4.5167141 -0.42256695
5.4694095 -4.0704932 0
0 -0 0
0 -0 -0
0 -0 -0
3.212961 -2.3851516 -0.88645321
3.9948733 -2.9656067 -0.82945734
4.730711 -3.511858 -0.65670186
6.0786061 -4.5124722 -0.42285696
5.4701405 -4.0607758 0
0 -0 0
0 -0 -0
0 -0 -0
3.2187157 -2.3773801 -0.88645321
4.0102878 -2.9620445 -0.83116919
4.7516708 -3.5096385 -0.65843219
6.0957656 -4.5024023 -0.42329252
5.4506345 -4.0259008 0
6.2545109 -4.6196537 0.43431586
0 -0 -0
2.6726022 -1.9715202 -0.91628122
3.2181008 -2.3739226 -0.88588876
4.0244756 -2.9687676 -0.83373779
4.7392182 -3.4960177 -0.65641385
6.1005735 -4.5002599 -0.42343751
5.4530654 -4.0226073 0
6.2552118 -4.6143332 0.43417087
0 -0 -0
2.7153885 -1.9980208 -0.93012178
3.2311976 -2.3775604 -0.88870263
4.0239205 -2.9608569 -0.83288103
4.7559347 -3.4994833 -0.65814304
6.1122875 -4.4975066 -0.42387307
5.4558282 -4.0144744 0
0 -0 0
0 -0 -0
2.7198291 -1.9962269 -0.93081594
3.2279289 -2.3691485 -0.88701558
4.0171499 -2.9483995 -0.83074164
4.7372293 -3.4769042 -0.65497267
6.1114311 -4.4855042 -0.42343751
5.4606748 -4.0078793 0
0 -0 0
0 -0 -0
2.6675816 -1.9529246 -0.9121269
3.22054 -2.357743 -0.88420171
4.024848 -2.9465733 -0.83159673
4.7142982 -3.4513168 -0.65122515
6.1231384 -4.4827228 -0.42387307
5.4592118 -3.9966645 0
0 -0 0
0 -0 -0
2.6658912 -1.9467437 -0.91074395
3.2336447 -2.3613408 -0.88701558
4.0304847 -2.9432261 -0.83202595
4.7247257 -3.4501896 -0.65208918
6.1348481 -4.4799194 -0.42430863
5.4640369 -3.9900653 0
6.2585564 -4.5702562 0.43286476
0 -0 -0
2.6499927 -1.9302289 -0.90451515
3.2282803 -2.3514481 -0.88476402
4.0319571 -2.9368382 -0.83159673
4.7393503 -3.4520967 -0.65353149
6.142355 -4.4740319 -0.42445362
5.468854 -3.9834602 0
0 -0 0
0 -0 -0
2.676671 -1.9447153 -0.91281843
3.2249503 -2.3430636 -0.88307482
4.0375853 -2.9334774 -0.83202595
4.7414193 -3.4448428 -0.65324235
6.143548 -4.4635491 -0.42416307
5.4652414 -3.9707303 0
0 -0 0
0 -0 -0
2.6668341 -1.9326495 -0.90866679
3.2318978 -2.34215 -0.88420171
4.0369658 -2.925581 -0.83116919
4.7413936 -3.4360788 -0.65266633
6.132113 -4.4439301 -0.42300251
5.4510717 -3.9503808 0
0 -0 0
0 -0 -0
2.6752691 -1.9338362 -0.91074395
3.2285459 -2.3337762 -0.88251251
4.0404978 -2.920701 -0.83116919
4.7413459 -3.4273138 -0.65208918
6.1185188 -4.4228129 -0.42169583
5.4727139 -3.9559882 0
0 -0 0
0 -0 -0
2.6409705 -1.904189 -0.89828366
3.2457926 -2.3402772 -0.88645321
4.0523529 -2.9218221 -0.83288103
4.7224116 -3.4049468 -0.64891881
6.026916 -4.3455191 -0.41502026
5.4416051 -3.9234989 0
0 -0 0
0 -0 -0
2.7002981 -1.9420106 -0.91766423
3.2465494 -2.3348656 -0.88588876
4.0537982 -2.9154263 -0.83245349
4.7265224 -3.3992383 -0.64891881
5.8317614 -4.1941085 -0.40123242
5.4252176 -3.9017286 0
0 -0 0
0 -0 -0
2.70876 -1.9431348 -0.91974139
3.2638223 -2.34131 -0.88982946
4.0614858 -2.9135156 -0.83330864
4.7411323 -3.4010615 -0.65035999
5.7988243 -4.1597991 -0.39862019
6.2820935 -4.5064731 0
0 -0 0
0 -0 -0
2.6947837 -1.9281814 -0.91420406
3.256319 -2.3299732 -0.88701558
4.060832 -2.9056213 -0.83245349
4.7389259 -3.3908136 -0.64949483
5.7869406 -4.1406927 -0.39745909
0 -0 0
0 -0 0
0 -0 -0
2.6991518 -1.9263799 -0.91489559
3.2549915 -2.323082 -0.88588876
4.0601568 -2.897727 -0.83159673
4.7472343 -3.388093 -0.65007198
5.8025126 -4.1412435 -0.39818463
0 -0 0
0 -0 0
0 -0 -0
2.6565177 -1.8911115 -0.89966935
3.2681441 -2.3265135 -0.88870263
4.0615659 -2.8913317 -0.83116919
4.7407913 -3.3748558 -0.6486308
5.7905774 -4.1221738 -0.39702353
0 -0 0
6.2498193 -4.4490967 0.42851084
0 -0 -0
2.681304 -1.9038787 -0.90728378
3.268883 -2.3210933 -0.88814026
4.0671477 -2.8879068 -0.83159673
4.7322083 -3.3601375 -0.64690048
5.7955542 -4.1151738 -0.39702353
0 -0 0
6.2509489 -4.43853 0.42822027
0 -0 -0
2.7061169 -1.9165831 -0.91489559
3.2675421 -2.3142076 -0.88701558
4.0706344 -2.8829904 -0.83159673
4.74049 -3.3574097 -0.64747763
5.7899218 -4.1006603 -0.39629796
0 -0 0
6.2393436 -4.4189591 0.42705917
0 -0 -0
2.7011278 -1.9106002 -0.91281843
3.2689397 -2.312233 -0.88701558
4.0702815 -2.8790495 -0.83116919
4.7298441 -3.3455806 -0.6457473
5.7478509 -4.0656519 -0.39325017
0 -0 0
6.239893 -4.4136901 0.42691416
0 -0 -0
2.687043 -1.8957704 -0.90728378
3.2696571 -2.306818 -0.88645321
4.0779567 -2.8770919 -0.83202595
4.7317715 -3.3383734 -0.64545929
5.7463875 -4.0542083 -0.39281461
6.2726383 -4.4254904 0
6.2303653 -4.3956656 0.42589861
0 -0 -0
2.7098444 -1.9069574 -0.91420406
3.2786698 -2.3072484 -0.88814026
4.07513 -2.8677289 -0.83074164
4.7484889 -3.3415818 -0.64718848
5.7279129 -4.0308166 -0.39121851
6.2673416 -4.4104204 0
6.2314177 -4.3851404 0.42560807
0 -0 -0
2.7141981 -1.9051217 -0.91489559
3.2835331 -2.3047433 -0.88870263
4.0869966 -2.8687019 -0.83245349
4.7292423 -3.3195004 -0.64401811
5.7115068 -4.0089617 -0.38976684
6.272666 -4.4028444 0
6.2345872 -4.3761163 0.42546305
0 -0 -0
2.6938972 -1.8860177 -0.90728378
3.284236 -2.2993183 -0.88814026
4.0883589 -2.8622906 -0.83202595
4.7353663 -3.3152657 -0.64430612
5.6588802 -3.9618244 -0.38584849
6.2758517 -4.3937707 0
6.2313557 -4.3626189 0.4248825
0 -0 -0
2.7146842 -1.895687 -0.91351259
3.2849307 -2.293895 -0.88757795
4.0981226 -2.8617535 -0.83330864
4.7287679 -3.3021386 -0.64286494
5.6104045 -3.917793 -0.38222015
6.2704811 -4.3787298 0
6.2366223 -4.3550863 0.4248825
0 -0 -0
2.6963825 -1.878064 -0.90658963
3.2856171 -2.2884731 -0.88701558
4.0973682 -2.8538682 -0.83245349
4.720016 -3.28755 -0.64113462
5.602345 -3.9021032 -0.38134956
6.2715006 -4.3681784 0
6.2333512 -4.3416071 0.42430195
0 -0 -0
2.7130744 -1.8848256 -0.91143543
3.2862949 -2.2830532 -0.88645321
4.0944872 -2.8445199 -0.83116919
4.7261152 -3.2833242 -0.64142376
5.6006517 -3.890882 -0.38091403
6.2724953 -4.3576245 0
6.2407246 -4.3355532 0.42444694
0 -0 -0
2.7235982 -1.8872616 -0.91420406
3.2932243 -2.2819722 -0.88757795
4.0958133 -2.8381097 -0.83074164
4.732203 -3.279083 -0.64171177
5.6074829 -3.8855903 -0.38105902
6.2713447 -4.3455997 0
6.2395492 -4.3235679 0.42401138
0 -0 -0
2.7258766 -1.8839693 -0.91420406
3.2897065 -2.2736561 -0.88588876
4.0950198 -2.8302424 -0.8298865
4.7361612 -3.2733626 -0.64171177
5.6164532 -3.8817697 -0.38134956
6.2616024 -4.3276596 0
6.2404981 -4.3130736 0.42372137
0 -0 -0
2.7550011 -1.8991835 -0.9232015
3.2903614 -2.2682385 -0.88532639
4.1005483 -2.8267479 -0.8303141
0 -0 -0
5.6168566 -3.8720279 -0.38105902
6.2625456 -4.3171391 0
6.2350101 -4.2981572 0.42299584
0 -0 -0
2.7097528 -1.8631651 -0.90728378
3.3014746 -2.2700195 -0.88757795
4.112422 -2.8276088 -0.83202595
0 -0 -0
5.6236701 -3.866709 -0.38120401
6.261322 -4.3051443 0
6.2359123 -4.287673 0.42270526
0 -0 -0
2.7202702 -1.8655597 -0.9100498
3.3021216 -2.2645931 -0.88701558
4.1073675 -2.8168302 -0.8303141
0 -0 -0
5.6390591 -3.8672636 -0.38193014
6.2643752 -4.2961049 0
6.2303762 -4.2727885 0.4219797
0 -0 -0
2.7349503 -1.8707726 -0.91420406
3.300657 -2.2577295 -0.88588876
4.1150017 -2.8147612 -0.83116919
0 -0 -0
5.6694641 -3.8780513 -0.38367182
6.2631154 -4.2841229 0
6.2398281 -4.2681942 0.42227027
0 -0 -0
2.7330601 -1.8646361 -0.91281843
3.3012857 -2.2523091 -0.88532639
4.1226449 -2.8126831 -0.83202595
0 -0 -0
5.7535553 -3.9253752 -0.38904127
6.2661395 -4.2750869 0
6.2385392 -4.2562566 0.42183471
0 -0 -0
2.7228706 -1.8528666 -0.90866679
3.3229086 -2.2611823 -0.89039183
4.130281 -2.8105853 -0.83288103
0 -0 -0
6.1728864 -4.2005434 -0.41705194
6.2648435 -4.2631187 0
6.2350845 -4.2428679 0.42125416
0 -0 -0
2.7509618 -1.8695517 -0.91766423
3.3158681 -2.2534616 -0.88814026
4.1192431 -2.7994347 -0.8303141
0 -0 -0
0 -0 -0
6.2631092 -4.2564044 0
6.2333446 -4.2361765 0.42096359
0 -0 -0
2.7469869 -1.8620021 -0.91558707
3.3164873 -2.2480292 -0.88757795
4.1204996 -2.7930164 -0.8298865
0 -0 -0
0 -0 -0
6.2660952 -4.247375 0
6.2406154 -4.230104 0.42110914
0 -0 -0
2.7346921 -1.8488498 -0.91074395
3.3192012 -2.2440202 -0.88757795
4.1281209 -2.7909083 -0.83074164
0 -0 -0
0 -0 -0
6.264761 -4.2354317 0
6.234961 -4.2152848 0.4203836
0 -0 -0
2.7597988 -1.8609687 -0.9183557
3.3113787 -2.2329063 -0.88476402
4.1357427 -2.7887859 -0.83159673
0 -0 -0
0 -0 -0
6.259079 -4.2205796 0
6.2228146 -4.196126 0.41922247
0 -0 -0
2.7495589 -1.8492348 -0.91420406
3.3246145 -2.2359924 -0.88757795
4.1220765 -2.7723312 -0.82817465
4.7408252 -3.1884747 -0.63681108
0 -0 -0
6.2598596 -4.2101116 0
6.2321882 -4.1915011 0.41951248
0 -0 -0
2.7601252 -1.8515015 -0.9169727
3.3252058 -2.2305596 -0.88701558
4.1382108 -2.7759261 -0.83074164
4.7360826 -3.1769805 -0.63565791
6.243824 -4.1883788 -0.41995472
6.2541375 -4.1952972 0
6.2264609 -4.1767316 0.41878691
0 -0 -0
2.7415049 -1.8342118 -0.9100498
3.3215609 -2.2222998 -0.88532639
4.1479645 -2.7752075 -0.83202595
4.7463689 -3.1755717 -0.63652307
6.2423992 -4.1764951 -0.41951916
6.2570329 -4.186286 0
6.2293458 -4.1677618 0.41864192
0 -0 -0
2.7645915 -1.8448259 -0.9169727
3.3263552 -2.2196939 -0.88588876
4.1470399 -2.7673409 -0.83116919
4.739439 -3.1626518 -0.63508075
6.2474408 -4.1689491 -0.41951916
6.251265 -4.1715012 0
6.2278905 -4.1559033 0.41820636
0 -0 -0
2.7501106 -1.830364 -0.91143543
3.3332694 -2.2184913 -0.88701558
4.1503806 -2.7623281 -0.83116919
4.7368035 -3.1526277 -0.63421673
6.2438211 -4.1556387 -0.41893861
6.2563009 -4.1639447 0
6.2285771 -4.145493 0.41791579
0 -0 -0
2.762769 -1.8339758 -0.91489559
3.3380625 -2.2158661 -0.88757795
4.1622705 -2.76299 -0.83288103
4.7362957 -3.1440382 -0.63363957
6.246675 -4.1466556 -0.41879362
6.248322 -4.1477489 0
6.2314191 -4.136528 0.4177708
0 -0 -0
2.7524359 -1.822329 -0.91074395
3.3365042 -2.2090282 -0.88645321
4.1591825 -2.753706 -0.83159673
4.7379365 -3.1368866 -0.63335156
6.2451792 -4.1347995 -0.41835806
6.2554975 -4.1416311 0
6.2342482 -4.1275625 0.41762581
0 -0 -0
2.7525363 -1.8176155 -0.9100498
3.3391709 -2.2049952 -0.88645321
4.1539464 -2.7430255 -0.8298865
4.737411 -3.1283116 -0.63277555
6.2588439 -4.132978 -0.41893861
6.2539797 -4.129766 0
6.2327237 -4.1157298 0.41719025
0 -0 -0
2.7526374 -1.8129097 -0.90935826
3.3375847 -2.1981609 -0.88532639
4.1508241 -2.733767 -0.82860219
4.7433453 -3.1240065 -0.63306355
6.252985 -4.1182675 -0.41821304
6.2546225 -4.1193461 0
6.2268438 -4.1010509 0.41646469
0 -0 -0
2.7632134 -1.8150918 -0.9121269
3.3402383 -2.1941266 -0.88532639
4.1519809 -2.7273417 -0.82817465
4.7406292 -3.1140113 -0.63219839
6.2644739 -4.1149902 -0.4186486
6.2465401 -4.10321 0
6.2231073 -4.0878177 0.41588414
0 -0 -0
2.750721 -1.8021319 -0.90728378
3.3513887 -2.1956587 -0.88757795
4.1638622 -2.7279499 -0.8298865
4.7422271 -3.1068649 -0.63191038
6.2650905 -4.1045671 -0.41835806
6.2406111 -4.0885296 0
6.2280421 -4.0802951 0.41588414
0 -0 -0
2.7528965 -1.7988068 -0.90728378
3.3540392 -2.1916075 -0.88757795
4.1650004 -2.7215085 -0.82945734
4.7481408 -3.102546 -0.63219839
6.2700453 -4.0969939 -0.41835806
6.2411933 -4.0781417 0
6.22644 -4.0685015 0.41544858
0 -0 -0
2.7592676 -1.7982161 -0.90866679
3.3652 -2.1931026 -0.88982946
4.1768885 -2.7220802 -0.83116919
4.7432184 -3.0911577 -0.63104522
6.2728162 -4.0879974 -0.41821304
6.2417517 -4.0677528 0
6.2335348 -4.062398 0.41559413
0 -0 -0
2.7876859 -1.8143378 -0.91766423
3.358006 -2.1855249 -0.88757795
4.1742334 -2.7167585 -0.8303141
4.7450848 -3.0882916 -0.63104522
6.2752848 -4.0842071 -0.41821304
6.2354832 -4.0583024 0
6.2229171 -4.0501237 0.41472301
0 -0 -0
2.7709394 -1.7986759 -0.91143543
3.3649027 -2.1842301 -0.88870263
4.1818151 -2.7145054 -0.83116919
4.7444782 -3.079742 -0.6304692
6.2649565 -4.0667167 -0.41719693
6.2382016 -4.0493498 0
6.2299919 -4.0440207 0.41486856
0 -0 -0
2.7541592 -1.7830571 -0.90520662
3.3675394 -2.1801627 -0.88870263
4.1894059 -2.7122433 -0.83202595
0 -0 -0
6.2742324 -4.0619707 -0.4174875
6.2299862 -4.0333257 0
6.2326865 -4.0350738 0.41472301
0 -0 -0
2.7837083 -1.7974178 -0.91420406
3.3659062 -2.1733382 -0.88757795
4.1775818 -2.6974306 -0.82902974
4.7366948 -3.058445 -0.62845087
6.274766 -4.0515652 -0.41719693
6.2348552 -4.025795 0
6.2310147 -4.0233154 0.41428801
0 -0 -0
2.7753341 -1.7872627 -0.91074395
3.3578506 -2.1623924 -0.88476402
4.187315 -2.6965518 -0.8303141
4.738214 -3.0513203 -0.62816286
6.2774744 -4.0425749 -0.41705194
6.2265825 -4.0098014 0
6.2336807 -4.0143723 0.41414246
0 -0 -0
2.7796004 -1.7852623 -0.91143543
3.3711486 -2.1651976 -0.88757795
4.1819305 -2.6859412 -0.82860219
4.7375407 -3.0427947 -0.62758571
6.2823544 -4.0349865 -0.41705194
6.2336192 -4.0036855 0
6.2232285 -3.9970119 0.41312689
0 -0 -0
2.7902057 -1.7873152 -0.91420406
3.3737624 -2.1611228 -0.88757795
4.1894922 -2.6836529 -0.82945734
4.7433982 -3.0384672 -0.62787485
6.2872252 -4.0273929 -0.41705194
6.2209206 -3.98492 0
6.2280536 -3.9894893 0.41312689
0 -0 -0
2.7881308 -1.7812387 -0.91281843
3.3699453 -2.1529396 -0.88588876
4.194901 -2.6799748 -0.8298865
4.7383475 -3.0271635 -0.62672168
6.2877035 -4.0169926 -0.41676137
6.2147675 -3.970396 0
6.2219234 -3.9749677 0.41240135
0 -0 -0
2.7797041 -1.7711293 -0.90935826
3.3832567 -2.1556914 -0.88870263
4.2046251 -2.6790383 -0.83116919
0 -0 -0
6.2859845 -4.0052071 -0.41632637
6.2261386 -3.9670753 0
6.2223344 -3.9646516 0.41211078
0 -0 -0
2.775496 -1.7637365 -0.90728378
3.368711 -2.1407049 -0.88420171
4.2035298 -2.6712048 -0.8303141
4.7412791 -3.0129268 -0.62614453
6.2864289 -3.9948189 -0.41603583
6.2199469 -3.9525716 0
6.2271204 -3.9571302 0.41211078
0 -0 -0
2.7776253 -1.7603815 -0.90728378
3.3884561 -2.1475091 -0.88870263
4.1959152 -2.6592541 -0.82817465
4.7383599 -3.0030406 -0.62527937
6.2912517 -3.98722 -0.41603583
6.2291188 -3.9478421 0
6.2318974 -3.9496031 0.41211078
0 -0 -0
2.7733862 -1.7530015 -0.90520662
3.3889029 -2.1420569 -0.88814026
4.2143087 -2.6637793 -0.83116919
0 -0 -0
6.291676 -3.9768412 -0.41574582
6.2184834 -3.9305778 0
6.2322764 -3.939296 0.41182077
0 -0 -0
2.805223 -1.7636517 -0.91420406
3.3940694 -2.1338611 -0.88814026
4.2098694 -2.6467569 -0.82902974
4.7360806 -2.9775875 -0.62355018
6.288065 -3.9533243 -0.4148747
6.2147403 -3.9072249 0
6.2285748 -3.9159229 0.41094968
0 -0 -0
2.794595 -1.7522619 -0.9100498
3.3966453 -2.1297586 -0.88814026
4.2217641 -2.6471231 -0.83074164
4.7309098 -2.9663665 -0.62239701
6.2928371 -3.9457235 -0.4148747
6.2260737 -3.9038615 0
6.2289033 -3.9056358 0.41065967
0 -0 -0
2.8286188 -1.7688376 -0.92043287
3.3949118 -2.122961 -0.88701558
4.2119045 -2.6338561 -0.82817465
4.7322998 -2.9592781 -0.622109
6.290997 -3.9339879 -0.41443971
6.2175508 -3.8880591 0
6.2203946 -3.8898377 0.40978855
0 -0 -0
2.8211753 -1.7618128 -0.91766423
3.402653 -2.1249433 -0.88870263
4.2265549 -2.6394668 -0.83074164
4.7275033 -2.952307 -0.62124383
6.2955747 -3.9315615 -0.4145847
6.2110691 -3.878788 0
6.2227435 -3.8860788 0.40978855
0 -0 -0
2.7956204 -1.7411621 -0.90866679
3.4009087 -2.1181464 -0.88757795
4.2232018 -2.6302853 -0.82945734
4.7288737 -2.9452267 -0.62095582
6.2892942 -3.9170845 -0.41385916
6.2135444 -3.8699059 0
6.2164087 -3.8716898 0.40906298
0 -0 -0
2.8190293 -1.7510176 -0.91558707
3.4034655 -2.1140354 -0.88757795
4.2285638 -2.6265388 -0.8298865
4.732429 -2.9395106 -0.62095582
6.294023 -3.9094822 -0.41385916
6.2159986 -3.8610179 0
6.2255011 -3.8669205 0.40935355
0 -0 -0
2.7934196 -1.7304363 -0.90658963
3.4060173 -2.1099215 -0.88757795
4.236095 -2.6241286 -0.83074164
4.7315755 -2.9310634 -0.62037867
6.2965269 -3.900502 -0.41371357
6.2184491 -3.8521352 0
6.221333 -3.8539219 0.40877301
0 -0 -0
2.7976489 -1.7283821 -0.90728378
3.4172108 -2.1111462 -0.88982946
4.2370806 -2.6176603 -0.8303141
4.7285185 -2.9212697 -0.61951464
6.2879758 -3.8846993 -0.41284302
6.2186751 -3.8418856 0
6.2237682 -3.845032 0.40862742
0 -0 -0
2.804003 -1.7276299 -0.90866679
3.4089451 -2.1003528 -0.88701558
4.2467909 -2.6165745 -0.83159673
4.7254367 -2.9114826 -0.61864948
6.2882447 -3.8743751 -0.41255304
6.2188773 -3.8316357 0
6.2195606 -3.832057 0.40804687
0 -0 -0
2.8103595 -1.7268649 -0.9100498
3.4158061 -2.0988901 -0.88814026
4.2477646 -2.6100986 -0.83116919
4.728951 -2.9057705 -0.61864948
6.2818456 -3.8599687 -0.41182691
6.2257175 -3.8254797 0
6.2241864 -3.8245389 0.40804687
0 -0 -0
2.8017507 -1.716915 -0.90658963
3.4161754 -2.0934348 -0.88757795
4.2377868 -2.5969191 -0.82860219
4.7302556 -2.8987043 -0.61836147
6.2887273 -3.8537369 -0.41197246
6.2192426 -3.8111567 0
6.2243762 -3.8143027 0.40775687
0 -0 -0
2.8102472 -1.7174543 -0.90866679
3.4121959 -2.0853293 -0.88588876
4.2452979 -2.5944712 -0.82945734
4.7359595 -2.8943341 -0.61864948
6.2911553 -3.8447766 -0.41182691
6.2171793 -3.7995665 0
6.2289805 -3.8067789 0.40775687
0 -0 -0
2.8187492 -1.7179757 -0.91074395
3.4147131 -2.0812049 -0.88588876
4.250628 -2.5906796 -0.8298865
4.730619 -2.8832252 -0.61749631
6.2913632 -3.83447 -0.4115369
6.2195454 -3.7906985 0
6.2224841 -3.7924893 0.40703133
0 -0 -0
2.8229647 -1.7158704 -0.91143543
3.4237413 -2.0810378 -0.88757795
4.2537551 -2.5855417 -0.8298865
4.7318912 -2.8761649 -0.6172083
6.2915468 -3.8241634 -0.41124636
6.2152257 -3.7777736 0
6.2248435 -3.7836196 0.40688631
0 -0 -0
2.8185976 -1.7085555 -0.90935826
3.4262533 -2.0768993 -0.88757795
4.2568765 -2.5804 -0.8298865
4.7375727 -2.8717847 -0.61749631
6.2939429 -3.815213 -0.41110137
6.2131157 -3.7662177 0
6.2249622 -3.7733989 0.40659577
0 -0 -0
2.8034844 -1.6947654 -0.90382099
3.4265881 -2.0714447 -0.88701558
4.2621861 -2.5765812 -0.8303141
4.7343965 -2.8620427 -0.61663115
6.2918749 -3.803571 -0.41066581
6.2176619 -3.7587075 0
6.2250743 -3.7631884 0.40630576
0 -0 -0
2.8248649 -1.703033 -0.9100498
3.4334364 -2.0699241 -0.88814026
4.2608948 -2.5687759 -0.82945734
4.7378516 -2.8563199 -0.61663115
6.2920198 -3.7932851 -0.4103758
6.2132835 -3.7458172 0
6.2207155 -3.7502975 0.40572521
0 -0 -0
2.8419731 -1.7086686 -0.91489559
3.4250488 -2.0592289 -0.88532639
4.2684002 -2.5662737 -0.8303141
4.7324324 -2.8452621 -0.61547798
6.2854662 -3.7789865 -0.40965024
6.2200336 -3.7396467 0
6.2319169 -3.7467911 0.40616021
0 -0 -0
2.8203738 -1.691046 -0.90728378
3.4340744 -2.05901 -0.88701558
4.2670903 -2.5584717 -0.82945734
4.7292185 -2.8355556 -0.61461395
6.2878013 -3.7700541 -0.40950525
6.2200794 -3.729449 0
6.2230721 -3.7312436 0.40528965
0 -0 -0
2.8288684 -1.6914957 -0.90935826
3.432194 -2.0522487 -0.88588876
4.2745891 -2.5559511 -0.8303141
4.7326412 -2.829839 -0.61461395
6.2901154 -3.7611163 -0.40935969
6.2245808 -3.7219307 0
6.2231116 -3.7210519 0.40499908
0 -0 -0
2.8385057 -1.694931 -0.9121269
3.4334333 -2.0501747 -0.88588876
4.2717204 -2.5507333 -0.82945734
4.7276859 -2.823 -0.61374879
6.2856998 -3.7533228 -0.40892467
6.2223639 -3.7155035 0
6.220901 -3.7146299 0.40470907
0 -0 -0
2.8470204 -1.6953521 -0.91420406
3.4337268 -2.0447259 -0.88532639
4.268189 -2.5416336 -0.82817465
4.7310934 -2.8172853 -0.61374879
6.2946916 -3.7483814 -0.40921468
6.2156706 -3.7013259 0
6.2231541 -3.7057822 0.40456408
2.4701092 -1.4668678 -0.94726062
2.83181 -1.6816629 -0.90866679
3.4449339 -2.0457649 -0.88757795
4.2778721 -2.5404029 -0.82945734
4.7344942 -2.8115668 -0.61374879
6.2880473 -3.7341402 -0.40848914
6.2156587 -3.6911523 0
6.2209229 -3.6942785 0.40412852
2.4421027 -1.4462476 -0.93584949
2.8187275 -1.6692902 -0.90382099
3.4495873 -2.0428944 -0.88814026
4.2787318 -2.5339253 -0.82902974
4.7334414 -2.8032105 -0.61317277
6.2903209 -3.7252169 -0.40834412
6.2134027 -3.6796649 0
6.2209148 -3.6841135 0.40383852
0 -0 -0
2.8315496 -1.6722655 -0.90728378
3.4520533 -2.0387247 -0.88814026
4.2906318 -2.5339751 -0.83074164
4.736825 -2.7974892 -0.61317277
6.2948174 -3.7176135 -0.40834412
6.2200832 -3.6734765 0
6.2275968 -3.6779141 0.40398353
0 -0 -0
2.8249211 -1.6637504 -0.90451515
3.452327 -2.0332639 -0.88757795
4.284843 -2.5235779 -0.82902974
4.746881 -2.7956975 -0.6140368
6.2970595 -3.7086823 -0.40819857
6.2222772 -3.6646388 0
6.2253175 -3.6664293 0.40354797
0 -0 -0
2.8355825 -1.6654179 -0.90728378
3.465734 -2.0355237 -0.89039183
4.2923203 -2.5210013 -0.8298865
4.7636418 -2.7978218 -0.61576712
6.2925825 -3.695812 -0.40761855
6.2177243 -3.6518455 0
6.2230191 -3.6549554 0.40311241
2.4234798 -1.4194427 -0.92607307
2.8289337 -1.6569188 -0.90451515
3.44627 -2.0184953 -0.88476402
4.302002 -2.5197015 -0.83116919
4.7670188 -2.7920637 -0.61576712
6.294795 -3.6868889 -0.407473
6.2198801 -3.6430109 0
6.2251906 -3.6461215 0.40296742
2.4614727 -1.4377037 -0.93992668
2.856921 -1.6686782 -0.91281843
3.4596746 -2.0207362 -0.88757795
4.3006144 -2.5119145 -0.8303141
4.7770829 -2.7902114 -0.61663115
6.2902703 -3.6740379 -0.40689245
6.2220321 -3.6341815 0
6.2273502 -3.6372876 0.40282241
2.4589326 -1.4322381 -0.93829519
2.8546038 -1.662702 -0.91143543
3.4665008 -2.0191095 -0.88870263
4.2969899 -2.5028389 -0.82902974
4.7804508 -2.7844372 -0.61663115
6.2969565 -3.6677463 -0.407038
6.2174234 -3.6214211 0
6.2272458 -3.6271422 0.40253186
2.4392931 -1.4168543 -0.93014711
2.8631208 -1.6630329 -0.91351259
3.4601579 -2.0098195 -0.88645321
4.2977929 -2.496357 -0.82860219
4.7838116 -2.7786589 -0.61663115
6.2631884 -3.6379495 -0.40457079
6.2150412 -3.6099832 0
6.2293792 -3.6183112 0.40238684
2.4837699 -1.4386774 -0.94644326
2.8434153 -1.6469953 -0.90658963
3.4515839 -1.9992658 -0.88363719
4.3008065 -2.4911621 -0.82860219
4.7871656 -2.7728765 -0.61663115
6.2675796 -3.630379 -0.40457079
6.2148991 -3.5998647 0
6.2202601 -3.6029699 0.40151629
0 -0 -0
2.8475819 -1.6448169 -0.90728378
3.4737971 -2.0065305 -0.88870263
4.3060341 -2.4872463 -0.82902974
4.7905126 -2.7670903 -0.61663115
6.2742095 -3.6241016 -0.40471578
6.2147417 -3.5897517 0
6.2201042 -3.5928493 0.40122575
2.4979541 -1.4388428 -0.95052046
2.8669503 -1.6513877 -0.91281843
3.4586134 -1.9921907 -0.88420171
4.3112583 -2.4833214 -0.82945734
4.7916136 -2.76001 -0.61634314
6.2673283 -3.6100342 -0.40399021
6.2032862 -3.5731456 0
6.2199421 -3.5827396 0.40093574
2.4889686 -1.4296645 -0.94644326
2.8711252 -1.6491755 -0.91351259
3.4742336 -1.9956012 -0.88757795
4.3098083 -2.4755557 -0.82860219
4.7971854 -2.7555053 -0.61663115
6.2626729 -3.5972817 -0.40340966
6.2121081 -3.5682375 0
6.2197561 -3.5726304 0.40064517
2.4778302 -1.4192876 -0.94155502
2.86005 -1.638221 -0.90935826
3.4766424 -1.9914018 -0.88757795
4.3239317 -2.4767246 -0.83074164
4.8027625 -2.7509961 -0.61692029
6.2647533 -3.5884166 -0.40326411
6.2096472 -3.5568519 0
6.2150493 -3.5599463 0.40006462
2.4851255 -1.421473 -0.94400072
2.8545125 -1.6327596 -0.90728378
3.4756415 -1.9880407 -0.88701558
4.3232012 -2.4728384 -0.8303141
4.8021722 -2.7468061 -0.61663115
6.2669206 -3.5846312 -0.40326411
6.2072725 -3.550513 0
6.219461 -3.5574846 0.40021017
2.4846964 -1.4172459 -0.94318652
2.8542976 -1.6280627 -0.90658963
3.4736226 -1.9813193 -0.88588876
4.321722 -2.4650667 -0.82945734
4.8009982 -2.7384412 -0.61605513
6.2554541 -3.568048 -0.40224853
6.2092996 -3.5417218 0
6.2192364 -3.5473897 0.39991963
2.454179 -1.3959116 -0.93096131
2.8693511 -1.6320572 -0.91074395
3.4738076 -1.9758656 -0.88532639
4.3246975 -2.4598429 -0.82945734
4.7998028 -2.730078 -0.61547798
6.2597609 -3.5604868 -0.40224853
6.2090459 -3.5316408 0
6.2235184 -3.5398724 0.39991963
2.473063 -1.4027003 -0.93748099
2.8538635 -1.6186872 -0.90520662
3.487241 -1.9779334 -0.88814026
4.3187351 -2.4495497 -0.82774544
4.7963552 -2.7204518 -0.61461395
6.2572756 -3.5490735 -0.401813
6.2178402 -3.5267062 0
6.21875 -3.5272222 0.39933905
2.474756 -1.399711 -0.93748099
2.8623705 -1.618944 -0.90728378
3.491838 -1.9749681 -0.88870263
4.3239326 -2.4455969 -0.82817465
4.8086443 -2.7197478 -0.61576712
6.2502527 -3.5351152 -0.40108743
6.2130361 -3.5140655 0
6.216229 -3.5158713 0.39890406
2.4936681 -1.4064332 -0.94400072
2.8796146 -1.6241078 -0.9121269
3.4853776 -1.9657593 -0.88645321
4.3291183 -2.4416304 -0.82860219
4.8119268 -2.7139356 -0.61576712
6.2635727 -3.5326664 -0.40166798
6.2082105 -3.5014417 0
6.2136803 -3.5045271 0.39846849
2.4415107 -1.3731307 -0.92362738
2.857528 -1.6071029 -0.90451515
3.4855292 -1.9602973 -0.88588876
4.3343005 -2.437655 -0.82902974
4.812942 -2.7068477 -0.61547798
6.2519808 -3.5161779 -0.40065187
6.2033629 -3.4888349 0
6.2133765 -3.4944665 0.39817795
2.4733443 -1.387103 -0.93503535
2.8572731 -1.6024183 -0.90382099
3.5011966 -1.9635439 -0.88926715
4.3417249 -2.4349298 -0.8298865
4.8162088 -2.7010303 -0.61547798
6.2630262 -3.5124354 -0.40108743
6.2053065 -3.4800649 0
6.2153301 -3.4856863 0.39803293
2.4814923 -1.3877337 -0.93748099
2.8614032 -1.6001927 -0.90451515
3.4924805 -1.9531122 -0.88645321
4.340179 -2.4271736 -0.82902974
4.821733 -2.696475 -0.61576712
6.258194 -3.4997921 -0.40050688
6.2049594 -3.4700215 0
6.2172713 -3.4769068 0.39788795
2.4766891 -1.3811219 -0.93503535
2.8786662 -1.6052836 -0.90935826
3.503706 -1.9538361 -0.88870263
4.3453484 -2.4231765 -0.82945734
4.8295016 -2.6931639 -0.61634314
6.2646856 -3.4934919 -0.40065187
6.2114272 -3.4637928 0
6.2146578 -3.4655941 0.39745238
2.4826806 -1.3805329 -0.93666685
2.8871837 -1.605463 -0.91143543
3.5016272 -1.9471339 -0.88757795
4.3437901 -2.4154315 -0.82860219
4.8259683 -2.6835542 -0.61547798
6.2598181 -3.4808686 -0.40007132
6.2110548 -3.453753 0
6.2233868 -3.4606104 0.39774296
2.469214 -1.369141 -0.93096131
2.8671851 -1.5898099 -0.90451515
3.5061975 -1.9441323 -0.88814026
4.3444629 -2.4089375 -0.82817465
4.8292074 -2.677721 -0.61547798
6.2640195 -3.4733024 -0.40007132
6.2152233 -3.4462454 0
6.2230144 -3.4505656 0.39745238
2.4751883 -1.368546 -0.93258965
2.8822727 -1.5936254 -0.90866679
3.5063224 -1.9386661 -0.88757795
4.3518591 -2.4061682 -0.82902974
4.839232 -2.6756396 -0.61634314
6.256844 -3.4594455 -0.39934576
6.2102728 -3.433696 0
6.220355 -3.4392705 0.39701682
2.4746778 -1.3643621 -0.93177545
2.8973739 -1.5974069 -0.91281843
3.4997618 -1.9295208 -0.88532639
4.3525176 -2.3996699 -0.82860219
4.8424616 -2.6697905 -0.61634314
6.2610197 -3.4518828 -0.39934576
6.2166944 -3.4274449 0
6.2199597 -3.4292452 0.39672685
2.4719968 -1.3589917 -0.93014711
2.8883119 -1.5878628 -0.90935826
3.4998662 -1.9240677 -0.88476402
4.3509102 -2.3919332 -0.82774544
4.8479486 -2.6651821 -0.61663115
6.2606363 -3.4418139 -0.39905575
6.2185526 -3.4186783 0
6.2218237 -3.4204764 0.39658183
2.5039754 -1.3726348 -0.94155502
2.8924263 -1.5855765 -0.9100498
3.5044146 -1.9210577 -0.88532639
4.3605528 -2.3903773 -0.82902974
4.8511653 -2.6593225 -0.61663115
6.2625051 -3.4329939 -0.39891019
6.2067108 -3.4024084 0
6.2168379 -3.4079599 0.39600128
2.5012989 -1.3672396 -0.93992668
2.8899415 -1.5796763 -0.90866679
3.5067332 -1.9168218 -0.88532639
4.3656878 -2.3863368 -0.82945734
4.8589182 -2.6559424 -0.6172083
6.2689352 -3.4266744 -0.39905575
6.2108173 -3.3949063 0
6.2209511 -3.4004457 0.39600128
2.4739234 -1.3503352 -0.92933291
2.8908954 -1.57793 -0.90866679
3.5101187 -1.9159191 -0.88588876
4.3648777 -2.3824701 -0.82902974
4.8650584 -2.6554823 -0.61778432
6.2618814 -3.4179065 -0.3984752
6.2082944 -3.3886573 0
6.2138815 -3.3917069 0.39542073
2.4755533 -1.347345 -0.92933291
2.8861871 -1.5708367 -0.90658963
3.507972 -1.9092494 -0.88476402
4.3655009 -2.3759682 -0.82860219
4.8705416 -2.650842 -0.61807346
6.2660065 -3.4103379 -0.3984752
6.2078166 -3.3786674 0
6.2134061 -3.3817093 0.39513016
2.488039 -1.3502462 -0.93340695
2.9013171 -1.5745302 -0.91074395
3.5147386 -1.907431 -0.88588876
4.3751392 -2.3743663 -0.8298865
4.8782835 -2.6474199 -0.61864948
6.258697 -3.3965635 -0.3977491
6.2073154 -3.368679 0
6.2152061 -3.372961 0.39498517
2.467927 -1.3354738 -0.92525572
2.8921876 -1.5650548 -0.90728378
3.5282121 -1.9092278 -0.88870263
4.375741 -2.3678527 -0.82945734
4.8814788 -2.6415236 -0.61864948
6.2559471 -3.3852923 -0.39731407
6.209095 -3.3599389 0
6.2147107 -3.3629777 0.39469516
2.4673657 -1.3313184 -0.92444158
2.9205625 -1.57585 -0.91558707
3.5260484 -1.9025525 -0.88757795
4.3808646 -2.3637862 -0.8298865
4.8823929 -2.6343963 -0.61836147
6.2600331 -3.3777306 -0.39731407
6.21315 -3.3524339 0
6.2256236 -3.3591642 0.39513016
2.5146787 -1.3529265 -0.94155502
2.9025829 -1.5616233 -0.90935826
3.5126793 -1.8898624 -0.88363719
4.3724079 -2.3524063 -0.82774544
4.8923993 -2.6321678 -0.6192255
6.2549567 -3.3652396 -0.39673352
6.2126083 -3.3424556 0
6.2296777 -3.3516393 0.39513016
2.4771118 -1.3288581 -0.92688721
2.8978417 -1.5545605 -0.90728378
3.5239165 -1.8904213 -0.88588876
4.3775158 -2.3483384 -0.82817465
4.9069786 -2.6323714 -0.62066782
6.2613058 -3.3589065 -0.39687851
6.21206 -3.3324883 0
6.2199888 -3.3367417 0.3942596
2.5114007 -1.3433472 -0.93910939
2.9174068 -1.5605197 -0.91281843
3.5329218 -1.8897583 -0.88757795
4.3803501 -2.3430474 -0.82817465
4.9124346 -2.6276591 -0.62095582
6.2607818 -3.3488896 -0.39658853
6.2160821 -3.3249798 0
6.2171402 -3.3255455 0.39382404
2.4868605 -1.3263586 -0.92933291
2.9015901 -1.5475531 -0.90728378
3.5284746 -1.8818998 -0.88588876
4.3786435 -2.3353343 -0.82731789
4.920166 -2.6241536 -0.62153184
6.2648239 -3.3413222 -0.39658853
6.2086158 -3.3113439 0
6.2188635 -3.3168094 0.39367905
2.4884615 -1.3233527 -0.92933291
2.9034579 -1.5440459 -0.90728378
3.5442107 -1.8847954 -0.88926715
4.3905282 -2.3348632 -0.82902974
4.9324675 -2.6230643 -0.62268502
6.261972 -3.3300886 -0.39615297
6.2057171 -3.3001726 0
6.2159815 -3.3056314 0.39324349
2.5069411 -1.3254184 -0.93503535
2.9071808 -1.5370249 -0.90728378
3.5442584 -1.8738475 -0.88814026
4.391623 -2.3218489 -0.82817465
4.9570847 -2.6208081 -0.62499136
6.2700009 -3.3149462 -0.39615297
6.2067695 -3.2815158 0
6.2147632 -3.285742 0.39266291
2.4888651 -1.3120161 -0.92770141
2.9090357 -1.533511 -0.90728378
3.5397832 -1.8660123 -0.88645321
4.4057775 -2.322525 -0.8303141
4.9648285 -2.6172311 -0.62556851
6.2671037 -3.3037314 -0.39571741
6.2107301 -3.2740138 0
6.2164326 -3.2770197 0.39251792
2.4991999 -1.3136077 -0.93096131
2.926425 -1.5381621 -0.9121269
3.5532789 -1.8676435 -0.88926715
4.410851 -2.318393 -0.83074164
4.9656911 -2.6100233 -0.62527937
6.2572951 -3.2889049 -0.39484686
6.2100787 -3.2640874 0
6.2180896 -3.2682984 0.39237294
2.4854586 -1.3025547 -0.92525572
2.9260616 -1.5334616 -0.91143543
3.5577815 -1.864527 -0.88982946
4.4068255 -2.3094857 -0.82945734
4.9757161 -2.6076243 -0.62614453
6.2543578 -3.2777221 -0.3944113
6.216321 -3.2577884 0
6.2174268 -3.2583678 0.39208236
2.4870307 -1.2995507 -0.92525572
2.9145756 -1.5229559 -0.90728378
3.5577819 -1.8590512 -0.88926715
4.4027939 -2.3005962 -0.82817465
4.9857426 -2.6052051 -0.62700969
6.2606144 -3.2713649 -0.39455628
6.2156444 -3.2478666 0
6.2213593 -3.2508531 0.39208236
2.5017552 -1.3033987 -0.93014711
2.9164135 -1.5194331 -0.90728378
3.5487607 -1.848882 -0.88645321
4.4055705 -2.2952745 -0.82817465
5.0049458 -2.6075454 -0.62902802
6.2576561 -3.2601993 -0.39412129
6.2034054 -3.2319353 0
6.2160649 -3.2385309 0.39150181
2.491581 -1.2961848 -0.92607307
2.9262249 -1.5222977 -0.9100498
3.5566328 -1.8502523 -0.88814026
4.4046726 -2.2914243 -0.82774544
5.0088129 -2.6057138 -0.62931603
6.2527065 -3.2528195 -0.39368573
6.20997 -3.2305868 0
6.2134147 -3.2323787 0.39121181
2.4909451 -1.292032 -0.92525572
2.9481118 -1.5291604 -0.91628122
3.5475905 -1.8401049 -0.88532639
4.416553 -2.2908285 -0.82945734
5.0211415 -2.6044233 -0.6304692
6.2589369 -3.2464571 -0.39383075
6.2092533 -3.2206867 0
6.2103939 -3.2212782 0.39077625
2.5166559 -1.3015114 -0.93422115
2.9343562 -1.5175289 -0.91143543
3.5520661 -1.8369831 -0.88588876
4.4216046 -2.2866728 -0.8298865
5.0334744 -2.603107 -0.63162237
6.2628551 -3.2388921 -0.39383075
6.206203 -3.209594 0
6.2096696 -3.2113869 0.39048624
2.49406 -1.2860086 -0.92525572
2.920577 -1.5059328 -0.90658963
3.5700936 -1.8408421 -0.88982946
4.4197969 -2.2789733 -0.82902974
5.0458117 -2.6017644 -0.63277555
6.2552185 -3.2253692 -0.39310518
6.2031441 -3.198518 0
6.2112384 -3.2026916 0.39034125
2.5131972 -1.2920345 -0.93177545
2.9513977 -1.5173134 -0.91558707
3.5700579 -1.8353665 -0.88926715
4.4339604 -2.2794986 -0.83116919
5.0535479 -2.5980287 -0.63335156
6.2614202 -3.2189956 -0.39325017
6.2093167 -3.192209 0
6.2151036 -3.1951842 0.39034125
2.4971607 -1.2799777 -0.92525572
2.9264467 -1.5000182 -0.90728378
3.5654871 -1.8275733 -0.88757795
4.4298644 -2.2706299 -0.8298865
5.063591 -2.5954611 -0.63421673
6.2468061 -3.2019453 -0.39208907
6.2131691 -3.1847041 0
6.2166409 -3.1864834 0.3901957
2.5163124 -1.2859573 -0.93177545
2.9349525 -1.4999027 -0.90935826
3.5699532 -1.8244189 -0.88814026
4.4326048 -2.2652757 -0.8298865
5.082839 -2.5975766 -0.63623393
6.2553024 -3.1967623 -0.39237961
6.2146974 -3.1760111 0
6.2112312 -3.1742396 0.38961515
2.5090554 -1.2784276 -0.92851561
2.9367626 -1.4963553 -0.90935826
3.5812111 -1.8247181 -0.89039183
4.437624 -2.2610824 -0.8303141
5.0767555 -2.5867362 -0.63508075
6.2545257 -3.1868401 -0.39208907
6.2092552 -3.1637735 0
6.219697 -3.1690938 0.38990569
2.4863653 -1.2630845 -0.91955334
2.9430463 -1.4950805 -0.91074395
3.5720887 -1.8146367 -0.88757795
4.435771 -2.253391 -0.82945734
5.0960217 -2.5888011 -0.63709909
6.2514286 -3.1757531 -0.39165407
6.2084284 -3.153909 0
6.2096171 -3.1545129 0.38903457
2.5011151 -1.2667778 -0.92444158
2.9358983 -1.486989 -0.90797526
3.5697496 -1.8080252 -0.88645321
4.4293303 -2.2433901 -0.82774544
5.103765 -2.5849814 -0.63767624
6.2622089 -3.171716 -0.39208907
6.212235 -3.146405 0
6.2134242 -3.1470075 0.38903457
2.5533903 -1.28938 -0.94318652
2.9488881 -1.4890937 -0.91143543
3.585536 -1.8105804 -0.88982946
4.4389143 -2.241509 -0.82902974
5.1114979 -2.5811422 -0.63825226
6.2590847 -3.1606364 -0.39165407
6.2044187 -3.1330321 0
6.2149053 -3.1383274 0.38888958
2.5262411 -1.271842 -0.93258965
2.9708502 -1.4956815 -0.91766423
3.5831776 -1.8039593 -0.88870263
4.4507909 -2.2407613 -0.83074164
5.1330948 -2.5842686 -0.6405586
6.2559342 -3.1495647 -0.39121851
6.2105222 -3.1267021 0
6.2094092 -3.1261415 0.38830903
2.5344048 -1.2721159 -0.93503535
2.9726553 -1.4920908 -0.91766423
3.5762799 -1.7950734 -0.88645321
4.4512033 -2.2342312 -0.8303141
5.1431508 -2.5815465 -0.64142376
6.2597351 -3.1420035 -0.39121851
6.2096481 -3.1168628 0
6.2178311 -3.12097 0.38859957
2.5204744 -1.2613132 -0.92933291
2.9340768 -1.4682909 -0.90520662
3.5875266 -1.7952949 -0.88870263
4.4516063 -2.2277033 -0.8298865
5.150888 -2.5776429 -0.64199978
6.2588754 -3.1321096 -0.39092794
6.21806 -3.1116846 0
6.2169456 -3.1111267 0.38830903
2.5219967 -1.2582668 -0.92933291
2.9493139 -1.4714626 -0.90935826
3.5919735 -1.7920964 -0.88926715
4.4565897 -2.2234678 -0.8303141
5.156311 -2.5725708 -0.64228779
6.2626553 -3.1245446 -0.39092794
6.2148271 -3.1006823 0
6.2160544 -3.1012948 0.38801903
2.5146632 -1.2508155 -0.92607307
2.9600747 -1.472367 -0.9121269
3.605509 -1.7934117 -0.89208102
4.4592729 -2.2180812 -0.8303141
5.1848917 -2.5790105 -0.64545929
6.2547956 -3.1111901 -0.39020237
6.213913 -3.0908546 0
6.2151394 -3.0914648 0.38772845
2.502883 -1.2411855 -0.92118168
2.9506156 -1.4632174 -0.90866679
3.6099477 -1.7901816 -0.89264333
4.4642472 -2.2138309 -0.83074164
5.1903191 -2.5738916 -0.6457473
6.2515645 -3.1001658 -0.38976684
6.222302 -3.0856545 0
6.2258563 -3.0874171 0.38816401
2.5442576 -1.2578754 -0.93584949
2.9523816 -1.4596511 -0.90866679
3.5984461 -1.7790639 -0.88926715
4.4554152 -2.2027478 -0.82860219
5.1911092 -2.5664732 -0.64545929
6.2529788 -3.0914593 -0.38962182
6.2190337 -3.0746768 0
6.210948 -3.0706792 0.38700292
2.5250728 -1.2464926 -0.92851561
2.9577577 -1.460086 -0.9100498
3.5995202 -1.7768897 -0.88926715
4.4544458 -2.1989202 -0.82817465
5.1996188 -2.5667722 -0.64632446
6.2548451 -3.0876808 -0.38962182
6.22089 -3.070919 0
6.2151299 -3.0680754 0.3871479
2.5864542 -1.2729089 -0.95052046
2.964026 -1.4587288 -0.91143543
3.6016645 -1.772539 -0.88926715
4.4594002 -2.1946688 -0.82860219
5.2189546 -2.5684791 -0.64834166
6.2585716 -3.0801208 -0.38962182
6.2199216 -3.0610995 0
6.2165031 -3.0594172 0.38700292
2.530303 -1.2414787 -0.92933291
2.9928138 -1.468407 -0.91974139
3.5924003 -1.7625908 -0.88645321
4.4643512 -2.1904087 -0.82902974
5.2336712 -2.5678709 -0.64978397
6.2552881 -3.0691216 -0.38918626
6.2166133 -3.0501459 0
6.2108641 -3.0473251 0.38642234
2.5451183 -1.2449344 -0.93422115
2.9720454 -1.4537642 -0.91281843
3.599088 -1.7604796 -0.88757795
4.4646912 -2.1838858 -0.82860219
5.248385 -2.5672266 -0.65122515
6.2589917 -3.0615611 -0.38918626
6.2179494 -3.0414853 0
6.2145419 -3.0398183 0.38642234
2.5355151 -1.2364427 -0.93014711
2.9670415 -1.4468763 -0.91074395
3.6080663 -1.7594717 -0.88926715
4.4719367 -2.1807377 -0.82945734
5.2491517 -2.559746 -0.65093601
6.2556868 -3.0505824 -0.38875127
6.2169461 -3.0316906 0
6.2205434 -3.0334449 0.38656735
2.5614522 -1.245262 -0.93910939
2.9665248 -1.4421902 -0.9100498
3.6056149 -1.7528868 -0.88814026
4.4699554 -2.17309 -0.82860219
5.2638779 -2.5590591 -0.65237832
6.2523551 -3.0396121 -0.38831571
6.2182665 -3.0230398 0
6.2101874 -3.0191119 0.3856968
2.531821 -1.2270768 -0.92770141
2.9547241 -1.4320418 -0.90589815
3.6123078 -1.7507473 -0.88926715
4.4841261 -2.1732843 -0.83074164
5.2762766 -2.5572093 -0.65353149
6.2583594 -3.0331874 -0.38846073
6.2242546 -3.0166578 0
6.216167 -3.0127382 0.38584179
2.5689092 -1.2412211 -0.94074088
2.979037 -1.4393828 -0.91281843
3.6075547 -1.7430639 -0.88757795
4.4728847 -2.161166 -0.82817465
5.2770271 -2.5497036 -0.65324235
6.2526612 -3.0211012 -0.38788015
6.2208629 -3.0057371 0
6.2198029 -3.0052249 0.38584179
2.5325544 -1.2198832 -0.92688721
2.95366 -1.4227217 -0.90451515
3.6119452 -1.7398052 -0.88814026
4.4893651 -2.1624415 -0.83074164
5.2824407 -2.544451 -0.65353149
6.2586551 -3.0146749 -0.3880257
6.2244902 -2.9982183 0
6.216413 -2.9943278 0.38540679
2.5251145 -1.2125427 -0.92362738
2.9644232 -1.4234958 -0.90728378
3.6209185 -1.7387403 -0.88982946
4.4734616 -2.1481256 -0.82731789
5.301826 -2.5459006 -0.65554869
6.2505741 -3.001483 -0.3872996
6.1976123 -2.9760509 0
6.2153373 -2.9845624 0.38511622
2.555557 -1.2233633 -0.93422115
2.9706624 -1.4220772 -0.90866679
3.6115599 -1.7288793 -0.88701558
4.4922643 -2.1504788 -0.8303141
5.3118992 -2.5428441 -0.65641385
6.2541966 -2.9939282 -0.3872996
6.2059031 -2.9708097 0
6.2119055 -2.9736834 0.38468069
2.5034983 -1.1947263 -0.914662
2.9587979 -1.4120057 -0.90451515
3.6365733 -1.7354556 -0.89264333
4.4855924 -2.1406269 -0.82860219
5.3266373 -2.5419924 -0.65785503
6.2578096 -2.9863691 -0.3872996
6.2047858 -2.9610651 0
6.1990852 -2.9583445 0.38366511
2.5540378 -1.2150582 -0.93258965
2.9990127 -1.4267507 -0.91628122
3.6180196 -1.7212371 -0.88757795
4.4858599 -2.1341035 -0.82817465
5.3390474 -2.539999 -0.6590082
6.2614131 -2.9788055 -0.3872996
6.1989589 -2.9490936 0
6.2026553 -2.9508519 0.38366511
2.5175419 -1.1939675 -0.91873604
3.0165951 -1.430648 -0.92112434
3.6430504 -1.7277501 -0.8932057
4.4930696 -2.1308796 -0.82902974
5.3491259 -2.5368721 -0.65987337
6.2579713 -2.9679005 -0.3868646
6.2001686 -2.9404869 0
6.2085619 -2.9444675 0.3838101
2.5659044 -1.2131082 -0.93584949
2.9865732 -1.411992 -0.91143543
3.6244636 -1.7135737 -0.88814026
4.5002871 -2.1276455 -0.8298865
5.3638768 -2.5359335 -0.66131455
6.2662468 -2.9625559 -0.38715461
6.1943059 -2.9285438 0
6.2027183 -2.9325211 0.38322955
2.5584254 -1.2057921 -0.93258965
3.0132422 -1.4201484 -0.91904986
3.6265314 -1.709193 -0.88814026
4.4982061 -2.1200154 -0.82902974
5.3645992 -2.5283487 -0.66102654
6.2580719 -2.9494443 -0.38642904
6.1907754 -2.9177272 0
6.2039089 -2.9239173 0.38308457
2.5502164 -1.2000408 -0.92933291
2.9868596 -1.4055095 -0.91074395
3.6252666 -1.7059209 -0.88757795
4.5018067 -2.1183894 -0.82945734
5.3918629 -2.5372181 -0.66419691
6.2504478 -2.9412374 -0.38584849
6.2066703 -2.9206374 0
6.2009678 -2.917954 0.38279399
2.5740368 -1.207453 -0.93748099
2.9908247 -1.4029638 -0.91143543
3.6342285 -1.7047775 -0.88926715
4.4997191 -2.11077 -0.82860219
5.3879066 -2.5274091 -0.66333288
6.2492967 -2.931478 -0.38555849
6.1960535 -2.906502 0
6.2044888 -2.910459 0.38279399
2.5351977 -1.1854988 -0.92281318
2.9902475 -1.3982873 -0.91074395
3.6339774 -1.6993057 -0.88870263
4.5045896 -2.1064177 -0.82902974
5.4003282 -2.5252793 -0.66448605
6.2481222 -2.9217212 -0.38526791
6.2042804 -2.9012201 0
6.2080011 -2.9029601 0.38279399
2.5411046 -1.1845212 -0.92444158
2.9896543 -1.3936101 -0.9100498
3.6498504 -1.7013566 -0.89208102
4.5001493 -2.0977185 -0.82774544
5.4080596 -2.5209358 -0.66506207
6.2540007 -2.9152663 -0.38541293
6.2054157 -2.8926187 0
6.2067986 -2.8932633 0.38250399
2.5402946 -1.1804093 -0.92362738
3.0004365 -1.3942255 -0.91281843
3.6357713 -1.6894491 -0.88814026
4.5026803 -2.0922794 -0.82774544
5.4228277 -2.5198481 -0.66650325
6.2551646 -2.9066136 -0.38526791
6.1994748 -2.8807359 0
6.2079358 -2.8846674 0.382359
2.55742 -1.1846118 -0.92933291
2.9930134 -1.3863813 -0.9100498
3.6332033 -1.6829208 -0.88701558
4.5098686 -2.0889974 -0.82860219
5.4399543 -2.5198185 -0.66823357
6.2492409 -2.8946848 -0.38468736
6.202951 -2.8732429 0
6.1996207 -2.8717005 0.38163289
2.572309 -1.1877356 -0.93422115
3.024303 -1.3964388 -0.91904986
3.6536889 -1.6870509 -0.89151865
4.5053954 -2.080317 -0.82731789
5.4359484 -2.5099897 -0.66736841
6.2550907 -2.8882198 -0.38483235
6.2016883 -2.8635616 0
6.2007294 -2.8631191 0.38148788
2.5378189 -1.168092 -0.92118168
3.0009174 -1.3812442 -0.91143543
3.6464922 -1.6783854 -0.88926715
4.5125737 -2.0770204 -0.82817465
5.4366298 -2.5023391 -0.6670804
6.25386 -2.878489 -0.38454238
6.2051435 -2.856066 0
6.1994681 -2.8534539 0.38119787
2.5392287 -1.1650248 -0.92118168
3.0025842 -1.3776171 -0.91143543
3.6323493 -1.6665601 -0.88532639
4.5174112 -2.0726357 -0.82860219
5.4466953 -2.499001 -0.66794443
6.2526054 -2.8687611 -0.3842518
6.1991286 -2.8442252 0
6.1934648 -2.8416266 0.38061732
2.5743518 -1.1773764 -0.93340695
2.9996791 -1.3718992 -0.9100498
3.6597803 -1.6737956 -0.89151865
4.5245767 -2.069309 -0.82945734
5.447361 -2.491343 -0.66765642
6.2537065 -2.8601241 -0.38410681
6.2001963 -2.8356514 0
6.2063456 -2.8384638 0.38119787
2.5825129 -1.1773378 -0.93584949
2.9762311 -1.3568293 -0.90243798
3.6525521 -1.6651562 -0.88926715
4.5247402 -2.0627766 -0.82902974
5.4527183 -2.485831 -0.66794443
6.2453384 -2.8471773 -0.38338125
6.1988773 -2.8259964 0
6.1979423 -2.8255701 0.38047177
2.5636842 -1.1650145 -0.92851561
2.9778683 -1.353232 -0.90243798
3.6568725 -1.6617918 -0.88982946
4.520216 -2.0541208 -0.82774544
5.4533658 -2.4781716 -0.66765642
6.2440472 -2.837481 -0.38309124
6.2022877 -2.8185041 0
6.2013521 -2.818079 0.38047177
2.5786028 -1.1680368 -0.93340695
