# .PCD v0.7 - Point Cloud Data file format
VERSION 0.7
FIELDS x y z
SIZE 4 4 4
TYPE F F F
COUNT 1 1 1
WIDTH 1632
HEIGHT 1
VIEWPOINT 0 0 0 1 0 0 0
POINTS 1632
DATA ascii
-4.4556723 16.970087 0.98001242
-2.1378717 8.1025305 -0.93402535
-2.2847028 8.6590195 -0.50021225
-0 0 0
-4.9103613 18.610262 1.0750734
-2.1483228 8.1024389 -0.93431336
-2.2951639 8.6562529 -0.50021225
-0 0 0
-4.9395056 18.629436 1.076525
-2.1587768 8.102334 -0.93460137
-2.3062925 8.6559916 -0.50035781
-0 0 0
-4.5934162 17.240038 0.99655694
-2.167897 8.0972242 -0.93431336
-2.3180926 8.6582136 -0.50064778
-4.0468764 15.115323 0
-4.6155896 17.2395 0.99684745
-2.1770079 8.092103 -0.93402535
-2.3265269 8.6478758 -0.50021225
-4.0658154 15.112943 0
-4.6377654 17.238924 0.99713749
-2.186784 8.089467 -0.93402535
-2.3390093 8.652586 -0.50064778
-4.0854301 15.113039 0
-4.6565595 17.22579 0.99670249
-2.1945224 8.0793285 -0.93316019
-2.3487821 8.6472483 -0.50050282
-4.1050544 15.113119 0
-4.6760068 17.215132 0.99641192
-2.2063267 8.0841589 -0.93402535
-2.3571758 8.6368818 -0.50006723
-4.1274223 15.123207 0
-4.694068 17.199442 0.99583137
-2.2147241 8.0764933 -0.9334482
-2.3682966 8.6365309 -0.50021225
-4.1456928 15.118209 0
-4.7038546 17.153671 0.99350965
-2.2251701 8.0763121 -0.93373734
-2.3814912 8.6436834 -0.5007928
-4.1840038 15.185947 0
-4.7093921 17.092857 0.99031633
-2.2335458 8.0686274 -0.93316019
-2.3933215 8.645813 -0.50108337
-4.2224841 15.253615 0
-4.7314296 17.092169 0.9906069
-2.2460659 8.0758905 -0.93431336
-2.4037666 8.6429148 -0.50108337
-4.2576456 15.308669 0
-4.7722697 17.159037 0.99481577
-2.2558222 8.0731707 -0.93431336
-2.4149067 8.6425037 -0.50122839
-4.2768421 15.306026 0
-4.8237648 17.263361 1.0012014
-2.2593055 8.0668297 -0.93373734
-2.4166243 8.6285343 -0.50050282
-4.2846837 15.298423 0
-4.8433032 17.292971 1.003088
-2.2669487 8.0566216 -0.93287218
-2.4284546 8.6306067 -0.5007928
-4.2996416 15.280711 0
-6.4547319 22.939795 1.3310865
-2.2787933 8.0613461 -0.93373734
-2.4388814 8.6276655 -0.5007928
-4.3159781 15.267989 0
-6.493752 22.971975 1.3334082
-2.2842913 8.0436535 -0.93200701
-2.4507256 8.6297169 -0.50108337
-4.3315792 15.252749 0
-6.5300226 22.994108 1.3351499
-2.301815 8.0682497 -0.93517852
-2.4647148 8.6392403 -0.50180894
-4.3507223 15.250014 0
-6.5627928 23.003695 1.336166
-2.3072853 8.050539 -0.9334482
-2.475867 8.638751 -0.5019539
-4.3583899 15.207216 0
-6.57412 22.938303 1.3328282
-2.3191586 8.0552044 -0.93431336
-2.4848669 8.630764 -0.50166392
-4.3738813 15.191936 0
-6.5788264 22.850439 1.3281838
-2.3346388 8.0722733 -0.9366197
-2.4974575 8.6352367 -0.50209892
-5.9127402 20.443956 0
-6.5992141 22.817516 1.3267326
-2.3407836 8.0570297 -0.93517852
-2.5100651 8.6397009 -0.50253451
-5.9127507 20.351822 0
-6.6891208 23.024105 1.3392137
-2.3483427 8.0467443 -0.93431336
-2.5205028 8.6366615 -0.50253451
-5.9103646 20.252237 0
-6.7496934 23.12825 1.345745
-2.3648593 8.0311213 -0.93316019
-2.5443027 8.6405163 -0.50311506
-5.9078312 20.063143 0
-6.8062987 23.114363 1.3458899
-2.3789618 8.0431347 -0.93488938
-2.5554776 8.639925 -0.50326002
-5.8818784 19.886297 0
-5.3359871 18.04067 1.0508366
-2.3938355 8.0576124 -0.93690771
-2.5673966 8.6418171 -0.50355059
-5.8473535 19.682098 0
-5.3592606 18.039186 1.0511266
-2.402092 8.0497618 -0.93633169
-2.5741224 8.6262608 -0.50282502
-5.8361568 19.557817 0
-5.3855133 18.047644 1.0519977
-0 0 -0
-2.416271 8.0617142 -0.93806088
-2.5875278 8.6331005 -0.50340563
-5.8366241 19.473476 0
-5.4080615 18.04361 1.0521426
-2.4252653 8.0563145 -0.93777287
-2.6002023 8.6374254 -0.50384063
-5.8406458 19.401623 0
-5.4321074 18.044527 1.0525782
-0 0 -0
-2.6151507 8.6492052 -0.50471169
-5.8595638 19.379599 0
-6.8548765 22.67144 1.3229587
-2.445478 8.0529032 -0.93806088
-2.6255996 8.646039 -0.50471169
-5.8776846 19.35508 0
-6.891326 22.692978 1.3247004
-2.4552066 8.049942 -0.93806088
-2.6375594 8.6478262 -0.50500172
-5.892715 19.32058 0
-6.9149513 22.672209 1.3239748
-2.4664481 8.0519199 -0.93863803
-2.6510508 8.6545715 -0.50558227
-5.8947134 19.243771 0
-6.9339719 22.636515 1.3223788
-0 0 -0
-2.4738932 8.0415154 -0.93777287
-2.6630359 8.656333 -0.50587285
-5.8919449 19.152065 0
-6.9529133 22.600798 1.3207821
-2.4858992 8.0459366 -0.93863803
-2.6719577 8.648139 -0.50558227
-5.8866606 19.052942 0
-6.9656425 22.545208 1.3180243
-0 0 -0
-2.4971509 8.047863 -0.93921405
-2.6831748 8.6473837 -0.50572729
-5.8888535 18.978703 0
-6.9851794 22.511961 1.3165731
-0 0 -0
-2.5061047 8.0423727 -0.93892604
-2.702898 8.6739044 -0.50746894
-5.8831377 18.879652 0
-7.0054193 22.48118 1.315267
-2.5171309 8.0606079 -0.94123238
-2.7034922 8.6573935 -0.50659841
-5.8720469 18.804056 0
-7.004283 22.429815 1.3125092
-2.5245459 8.0501547 -0.94036722
-2.717061 8.6640377 -0.50717896
-5.8729587 18.727415 0
-7.0072784 22.344482 1.3080103
-2.5358236 8.0520277 -0.94094324
-2.7290876 8.6657009 -0.50746894
-5.8729124 18.648321 0
-6.3068504 20.026209 1.1727476
-2.5455511 8.0489578 -0.94094324
-2.7434733 8.6747818 -0.50819451
-5.869545 18.559328 0
-6.3310437 20.018574 1.1727476
-0 0 -0
-2.5576243 8.0532742 -0.9418084
-2.7555275 8.6764183 -0.50848508
-5.8706989 18.485258 0
-6.3552275 20.01091 1.1727476
-2.5673532 8.0501776 -0.9418084
-2.7675867 8.6780291 -0.50877506
-5.8669367 18.396332 0
-6.386507 20.025494 1.1740537
-2.5802338 8.0569229 -0.94296157
-2.7820354 8.6870584 -0.50950116
-5.8661427 18.317356 0
-6.4122829 20.022707 1.1743437
-2.5899673 8.0537987 -0.94296157
-2.7901425 8.6762676 -0.50906563
-5.8667622 18.243368 0
-6.4348822 20.010002 1.1740537
-0 0 -0
-2.5989027 8.0482044 -0.94267356
-2.8078098 8.6951418 -0.51037174
-5.8640122 18.159498 0
-6.4510694 19.97748 1.1726021
-2.6094224 8.0475168 -0.94296157
-2.8215201 8.7016296 -0.51095229
-5.8610649 18.075653 0
-6.4687915 19.949896 1.171441
-2.6191444 8.0443573 -0.94296157
-2.829618 8.6907997 -0.51051676
-5.8611493 18.001751 0
-6.4776101 19.895128 1.1686836
-2.6304715 8.0461082 -0.94353873
-2.8465767 8.7071323 -0.51167786
-5.8618722 17.930344 0
-5.8985152 18.042429 1.06027
-2.6401918 8.0429239 -0.94353873
-2.8570955 8.7036867 -0.51167786
-5.855123 17.836702 0
-5.9203115 18.035288 1.06027
-2.6523347 8.0470905 -0.94440275
-2.8733046 8.7175055 -0.51269394
-5.856308 17.767834 0
-5.9420996 18.028122 1.06027
-2.6604326 8.0389738 -0.94382674
-2.883836 8.7140274 -0.51269394
-5.8548784 17.691565 0
-5.9646974 18.023403 1.0604155
-2.6725886 8.0431099 -0.94469076
-2.9017365 8.7327271 -0.51400006
-5.8557353 17.622736 0
-5.977457 17.989056 1.0588188
-2.6823051 8.039875 -0.94469076
-2.9131079 8.7316771 -0.51414508
-5.8556118 17.551466 0
-5.9901419 17.954702 1.0572221
-2.6953039 8.0464382 -0.94584394
-2.9244807 8.7306128 -0.51429009
-5.8520184 17.47035 0
-6.0011039 17.915424 1.0553355
-2.7074988 8.0505323 -0.9467091
-2.9424818 8.7492361 -0.51559621
-5.8507237 17.396662 0
-6.0061841 17.858912 1.0524333
-2.7172241 8.0472546 -0.9467091
-2.9513905 8.7407551 -0.51530617
-5.8451009 17.310686 0
-6.0144582 17.81225 1.0501111
-2.7244537 8.0366144 -0.94584394
-2.9727943 8.7691717 -0.5171929
-5.8476324 17.249392 0
-6.0192914 17.755753 1.0472082
-2.7383316 8.0455666 -0.94728625
-2.9825516 8.7631159 -0.51704788
-5.8424754 17.165936 0
-6.0315309 17.721405 1.0456115
-2.7480512 8.0422525 -0.94728625
-2.9914558 8.7545834 -0.51675731
-5.8404946 17.092379 0
-6.0428605 17.684608 1.0438704
-2.7611239 8.0487118 -0.94843942
-3.0163648 8.7927427 -0.51922452
-5.8400316 17.023769 0
-6.0532641 17.645344 1.0419837
-2.767478 8.0355873 -0.94728625
-3.0295262 8.7964649 -0.51966012
-5.8444948 16.969946 0
-6.0661173 17.613443 1.0405321
-2.7797186 8.0395641 -0.94815028
-3.0410011 8.7952509 -0.51980513
-5.842886 16.898926 0
-6.0873957 17.6061 1.0405321
-2.7902815 8.0386505 -0.94843942
-3.0567403 8.806304 -0.5206762
-5.8419666 16.830391 0
-6.1103702 17.603647 1.0408226
-2.8042471 8.0474825 -0.9498806
-3.068233 8.8050556 -0.52082121
-5.8400345 16.759428 0
-6.1273589 17.583975 1.0400965
-2.8122592 8.0392008 -0.94930345
-3.0865912 8.8234138 -0.52212733
-5.8379397 16.688494 0
-6.1434546 17.561848 1.0392259
-2.8262551 8.0479965 -0.95074463
-3.0981104 8.8221264 -0.52227235
-5.8391314 16.627411 0
-6.1620865 17.547054 1.0387905
-2.8328354 8.0511723 -0.95132178
-3.1129274 8.8472185 -0.52386904
-5.8249893 16.555141 0
-6.1718249 17.540878 1.0386454
-2.841701 8.0453062 -0.95103377
-3.12448 8.8458986 -0.524014
-5.8181219 16.472027 0
-6.1921506 17.53096 1.0385004
-2.8548777 8.0516186 -0.95218694
-3.1464541 8.8739519 -0.52590066
-5.6675658 15.984249 0
-6.2141962 17.525913 1.0386454
-2.8628681 8.0432844 -0.95160979
-3.1545627 8.8628063 -0.52546567
-5.628408 15.813125 0
-6.236239 17.520836 1.0387905
-2.8743269 8.0446959 -0.95218694
-3.1810048 8.9030285 -0.5280779
-5.6291232 15.754848 0
-6.2722669 17.554884 1.0412576
-2.8884103 8.0533876 -0.95362812
-3.1900039 8.8942823 -0.52778739
-5.6297059 15.696593 0
-6.8610177 19.129704 1.1351579
-2.89551 8.0425882 -0.95276296
-3.2086694 8.9124222 -0.5290935
-5.630156 15.63836 0
-6.3542795 17.649691 1.0477887
-2.9087422 8.0488138 -0.95391613
-3.238867 8.962306 -0.53228682
-5.6384339 15.602175 0
-6.3658857 17.615116 1.046192
-2.9211123 8.0525904 -0.95478129
-3.2541234 8.9705973 -0.53301239
-5.6404223 15.548874 0
-6.3853951 17.602531 1.0459021
-2.9352641 8.061204 -0.95622247
-3.2551799 8.9397984 -0.5314157
-5.6235886 15.44423 0
-6.3995471 17.57527 1.044741
-2.9432249 8.0527887 -0.95564532
-3.2686565 8.9431829 -0.53185129
-5.6252737 15.390988 0
-6.4136429 17.548 1.0435798
-2.9600794 8.0686522 -0.95795166
-3.2767744 8.9319057 -0.5314157
-5.6313162 15.34997 0
-6.4312615 17.530479 1.0429993
-2.9734018 8.0747786 -0.95910484
-3.2938507 8.9450111 -0.53243184
-5.6309752 15.29187 0
-6.4596224 17.542202 1.0441605
-2.9732955 8.0444994 -0.95593446
-3.3226733 8.9897709 -0.53533459
-5.6305022 15.233795 0
-6.510541 17.614813 1.0489498
-2.9839122 8.0433235 -0.95622247
-3.3389542 9.0003624 -0.53620517
-5.6298966 15.175742 0
-6.7098546 18.086836 1.0775405
-3.0071645 8.0760641 -0.96054602
-3.3670557 9.0425901 -0.53896296
-5.6364245 15.137225 0
-6.7652521 18.168812 1.0829105
-3.0042458 8.0385094 -0.95651048
-3.4052677 9.1115313 -0.54331684
-5.6428676 15.098715 0
-6.7908392 18.170361 1.0834911
-3.015775 8.0397224 -0.95708764
-3.4491253 9.1949854 -0.54854131
-5.6492257 15.06021 0
-6.7562132 18.011314 1.0744933
-3.0327778 8.0554371 -0.95939398
-3.4986844 9.292943 -0.5546369
-5.6692548 15.058249 0
-6.7450113 17.915594 1.0692683
-3.0623221 8.0746803 -0.96256435
-3.5469313 9.3524895 -0.5587008
-5.6862488 14.993406 0
-6.7855215 17.891951 1.0688328
-3.0739186 8.0758133 -0.9631415
-3.5665479 9.3700504 -0.56000692
-5.7052865 14.988955 0
-6.8136067 17.90074 1.0698489
-3.0790565 8.0600052 -0.96169919
-3.5825026 9.3778687 -0.56073248
-0 0 0
-6.8407936 17.907053 1.0707194
-3.0989795 8.0828466 -0.96487069
-3.5929019 9.371109 -0.56058747
-5.7349696 14.958111 0
-6.8670793 17.910912 1.0714456
-3.1022408 8.0621967 -0.96285236
-5.7298398 14.89088 -0.89119822
-5.7511716 14.946317 0
-6.8999104 17.931694 1.0731866
-3.1136243 8.0772171 -0.96487069
-5.7500472 14.9165 -0.89293933
-5.7536473 14.925839 0
-6.9303689 17.978436 1.0762345
-3.1224494 8.0710382 -0.96458268
-0 0 -0
-5.7744961 14.92616 0
-6.9849024 18.054871 1.0813144
-3.1350088 8.0744953 -0.96544784
-0 0 -0
-5.787818 14.907043 0
-7.0292807 18.104542 1.0847973
-3.1550899 8.0972042 -0.96861821
-0 0 -0
-5.8001552 14.885486 0
-7.0586987 18.115404 1.0859584
-3.1639304 8.0909796 -0.9683302
-0 0 -0
-5.8190842 14.880888 0
-7.0758519 18.094765 1.0852329
-3.1737044 8.0871506 -0.9683302
-5.8267722 14.84763 -0.89090765
-5.8323078 14.861734 0
-7.0977106 18.086201 1.0852329
-3.1844206 8.0857143 -0.96861821
-5.8447084 14.840579 -0.89090765
-5.849308 14.852258 0
-7.1243191 18.089699 1.0859584
-3.2017939 8.1011047 -0.97092456
-5.8588161 14.823839 -0.8903271
-5.8653388 14.840343 0
-7.1547666 18.102823 1.0872645
-3.2125328 8.0996313 -0.97121257
-5.8738484 14.809501 -0.88989151
-5.8813453 14.828402 0
-7.1670566 18.070015 1.0858134
-3.2261434 8.1053562 -0.97236574
-5.8907785 14.799981 -0.88974655
-5.8944468 14.809197 0
-7.1898456 18.063755 1.0859584
-3.2426515 8.118268 -0.97438407
-5.9028759 14.778378 -0.88887596
-5.9123363 14.802064 0
-7.2078114 18.045401 1.0853778
-3.2543812 8.1191416 -0.97496009
-5.9197626 14.768826 -0.88873094
-5.9244061 14.780411 0
-7.2247777 18.024622 1.0846523
-3.2690182 8.1272087 -0.9764024
-5.9356623 14.756836 -0.88844043
-5.9422612 14.773241 0
-7.2339468 17.984541 1.0827656
-3.286577 8.1424313 -0.97870761
-5.9505701 14.742422 -0.88800484
-5.9542646 14.751575 0
-7.2478914 17.956511 1.0816045
-3.3002973 8.1480427 -0.97986078
-5.9732594 14.74727 -0.88873094
-5.9720845 14.74437 0
-7.2578773 17.91884 1.0798628
-3.3189042 8.1656122 -0.98245513
-5.9852018 14.725594 -0.88785988
-5.9859762 14.727499 0
-7.2707186 17.888395 1.0785567
-3.334631 8.1759701 -0.98418546
-5.9980845 14.706323 -0.88713431
-5.9988537 14.708209 0
-7.2913475 17.877192 1.0784117
-3.3454864 8.1743259 -0.98447347
-6.0079761 14.679826 -0.88597316
-6.0156369 14.698544 0
-7.3139267 17.870771 1.0785567
-3.3602731 8.1822386 -0.98591465
-6.0266957 14.674957 -0.88611817
-6.036356 14.69848 0
-7.3325524 17.854708 1.0781211
-3.3760719 8.1925249 -0.98764497
-6.0444231 14.667665 -0.88611817
-6.0491548 14.679146 0
-7.3471937 17.829025 1.0771055
-3.3988163 8.2195101 -0.99139249
-6.0522141 14.636342 -0.88466704
-6.0668869 14.671826 0
-7.388586 17.868151 1.0800078
-3.4097357 8.2177839 -0.9916805
-6.0718846 14.633814 -0.88495708
-6.0766315 14.645254 0
-7.4211259 17.885612 1.0816045
-3.4465015 8.2781219 -0.99946356
-6.0885649 14.62407 -0.88481206
-6.0943232 14.637901 0
-7.4257541 17.835854 1.0791372
-6.1032248 14.609508 -0.88437653
-6.1100011 14.625729 0
-7.433279 17.793306 1.0771055
-6.1248913 14.611708 -0.88495708
-6.1236448 14.608735 0
-7.476871 17.837029 1.0802983
-6.137506 14.592323 -0.88423151
-6.1372561 14.591729 0
-7.6253476 18.129765 1.0985851
-0 0 -0
-6.1531148 14.580112 -0.88394153
-6.1558938 14.586699 0
-7.6219912 18.06069 1.0949568
-0 0 -0
-6.1656623 14.560706 -0.88321596
-6.1694555 14.569663 0
-7.6144266 17.982079 1.0907478
-0 0 -0
-6.1734405 14.554579 -0.88307041
-6.1853714 14.582706 0
-7.5928202 17.900927 1.0861033
-0 0 -0
-6.1900058 14.544721 -0.88292539
-6.1948338 14.556065 0
-3.160892 7.4271803 0.45086092
-6.1983929 14.515725 -0.88161927
-6.2103753 14.543787 0
-3.1719067 7.4281397 0.45115149
-6.2149053 14.505839 -0.88147426
-6.2187171 14.514736 0
-3.1747382 7.4099665 0.45028037
-3.1357944 7.2947083 -0.88501841
-6.2314034 14.495934 -0.8813293
-6.2321396 14.497647 0
-3.1703496 7.375093 0.4483937
-3.1405089 7.281414 -0.88386524
-6.2499423 14.490778 -0.88147426
-6.2537756 14.499665 0
-3.1730862 7.3569455 0.44752315
-3.1380045 7.2515006 -0.88069373
-6.267447 14.483215 -0.88147426
-3.1769209 7.3414311 0
-3.1778452 7.3435674 0.44694257
-3.1374943 7.2263532 -0.87809938
-6.2839088 14.47325 -0.8813293
-3.1837184 7.3328176 0
-3.1856825 7.3373408 0.44679758
-3.144156 7.2178097 -0.87752223
-6.2972412 14.456119 -0.88074869
-3.1811426 7.3027172 0
-3.1893542 7.3215685 0.44607148
-3.1435535 7.1926775 -0.87492788
-3.1826406 7.2821112 -0.44390148
-3.1889229 7.2964859 0
-3.1971591 7.3153305 0.44592646
-3.1439328 7.1699238 -0.87262154
-3.1799579 7.2520809 -0.44230482
-3.1914682 7.2783313 0
-3.2080848 7.316226 0.44621703
-3.1494722 7.1590238 -0.87175751
-3.1929038 7.2577472 -0.44288537
-3.2002604 7.2744699 0
-3.2106426 7.298069 0.44534591
-3.1581204 7.1552134 -0.87175751
-3.1922288 7.2324915 -0.44157925
-3.2016909 7.2539291 0
-3.2184103 7.2918096 0.44520092
-3.1636209 7.1442947 -0.87089235
-3.1967571 7.2191253 -0.4409987
-3.2104535 7.2500548 0
-3.2261674 7.2855415 0.4450559
-3.1743493 7.1451898 -0.87146837
-3.2033658 7.2105036 -0.44070813
-3.2149849 7.2366571 0
-3.2391882 7.2911367 0.44563645
-3.1777167 7.129539 -0.87002718
-3.2057309 7.1923919 -0.43983757
-3.2226682 7.2303925 0
-3.2405899 7.2706017 0.44462034
-3.1821058 7.1162496 -0.86887401
-3.2122998 7.1837735 -0.43954757
-3.233525 7.2312403 0
-3.2610414 7.2927761 0.44621703
-3.1896443 7.1100416 -0.868586
-3.2231028 7.1846237 -0.43983757
-3.2348065 7.2107129 0
-3.2666593 7.2817154 0.44578147
-3.1939871 7.0967479 -0.86743283
-3.2221847 7.1594005 -0.43853146
-3.2499235 7.221034 0
-3.2775862 7.2824974 0.44607148
-3.1929815 7.0716701 -0.86483848
-3.2297647 7.1531363 -0.43838647
-3.2586465 7.2171016 0
-3.2906604 7.2880049 0.44665202
-3.1993914 7.0630989 -0.86426246
-3.235188 7.1421251 -0.43795091
-3.2630692 7.2036767 0
-3.3005395 7.2863975 0.44679758
-3.2111306 7.0662856 -0.86512649
-3.2362895 7.1216493 -0.4369348
-3.2857671 7.2305274 0
-3.307189 7.277668 0.44650704
-3.2185946 7.0600491 -0.86483848
-3.2448921 7.1177335 -0.4369348
-3.2858648 7.2076077 0
-3.309515 7.2594852 0.44563645
-3.2228198 7.0467463 -0.86368531
-3.2470078 7.0996337 -0.43606424
-3.2978196 7.2107348 0
-3.3096385 7.2365766 0.44447535
-3.2345691 7.049902 -0.86455047
-3.2534149 7.0909772 -0.43577367
-3.3043575 7.2020092 0
-3.3129632 7.2207661 0.44374979
-3.2377486 7.0455985 -0.86426246
-3.2631264 7.1008224 -0.43649977
-3.3032753 7.18819 0
-3.3194928 7.2234807 0.44403979
-3.2440917 7.0369787 -0.86368531
-3.2727909 7.0992322 -0.43664479
-3.3119586 7.1841936 0
-3.326045 7.2147493 0.44374979
-3.2525921 7.0330539 -0.86368531
-3.2715511 7.0740485 -0.43533868
-3.3250065 7.1896348 0
-3.3293035 7.1989264 0.44302368
-3.267617 7.0431919 -0.8654145
-3.285563 7.0818739 -0.43606424
-3.3315029 7.1808949 0
-3.3401887 7.1996169 0.44331422
-3.2815847 7.0509701 -0.86685681
-3.2908275 7.0708289 -0.43562868
-3.3390758 7.1744981 0
-3.3423052 7.1814365 0.44244313
-3.3194549 7.0875163 -0.87233353
-3.3145199 7.0769792 -0.43649977
-3.3486805 7.1499166 0
-3.3673658 7.1898127 0.44345924
-3.3467131 7.1232944 -0.87723422
-3.3241725 7.0753183 -0.43664479
-3.3606384 7.1529341 0
-3.3749471 7.1833892 0.44331422
-3.3652408 7.1403003 -0.87982857
-3.3360436 7.0783505 -0.43708035
-3.3748255 7.1606369 0
-3.3836243 7.179306 0.44331422
-3.3838146 7.1572714 -0.88242292
-3.3457036 7.0766611 -0.43722534
-3.380137 7.1494927 0
-3.378969 7.1470227 0.44157255
-3.3924601 7.1531773 -0.88242292
-3.3609307 7.0866957 -0.4380959
-3.3887734 7.1454034 0
-3.3853776 7.1382432 0.44128257
-3.4022152 7.1514153 -0.88271207
-3.3773062 7.0990567 -0.43911201
-3.3951707 7.1366081 0
-3.3850698 7.115376 0.44012144
-3.4052808 7.1356211 -0.88126975
-3.390358 7.104351 -0.43969259
-3.4183619 7.1630321 0
-3.3936648 7.1112804 0.44012144
-3.4194875 7.1431727 -0.88271207
-3.3933311 7.0885329 -0.43896702
-3.42027 7.1448073 0
-3.4325449 7.1704493 0.44403979
-3.4236376 7.1297092 -0.8815589
-3.4063928 7.0937972 -0.43954757
-3.4334068 7.1500535 0
-3.4625788 7.210804 0.44679758
-3.43225 7.1255674 -0.8815589
-3.4194725 7.09904 -0.44012815
-3.4420438 7.1458998 0
-3.4757996 7.2159791 0.44737813
-3.439729 7.1190796 -0.88126975
-3.4325652 7.1042528 -0.44070813
-3.4506757 7.1417356 0
-3.5059915 7.2562208 0.45013538
-3.4460745 7.1102672 -0.88069373
-3.4354815 7.0884109 -0.43998259
-3.4558964 7.1305327 0
-3.524955 7.2730212 0.4514415
-3.4569228 7.1107459 -0.88126975
-3.4497232 7.0959368 -0.44070813
-3.4599581 7.1169896 0
-3.5496438 7.3014693 0.45347315
-3.4677818 7.111218 -0.8818469
-3.4594371 7.0941057 -0.44085369
-3.4788246 7.133863 0
-3.5641615 7.3088593 0.45419928
-3.4797823 7.1139951 -0.88271207
-3.4805624 7.1155896 -0.44244981
-3.4782939 7.1109519 0
-3.5707047 7.2998748 0.45390871
-3.4906521 7.1144247 -0.88328809
-3.4971707 7.1277108 -0.44346592
-3.5040755 7.1417832 0
-3.5909703 7.3188872 0.45536038
-3.5038145 7.1194844 -0.88444126
-3.5057805 7.1234798 -0.44346592
-3.5218956 7.1562247 0
-8.9520941 18.189974 1.1324008
-3.5101268 7.1106114 -0.88386524
-3.5120828 7.114574 -0.44317538
-3.5201733 7.1309633 0
-8.9510622 18.132544 1.129498
-3.5233068 7.1156368 -0.88501841
-5.5199103 11.147958 -0.69483465
-3.5380256 7.1453629 0
-8.9891052 18.154312 1.1315297
-3.5388029 7.1252689 -0.8867476
-5.5391545 11.152914 -0.69556022
-5.5110555 11.096338 0
-9.0156584 18.152746 1.1321102
-3.548562 7.1233006 -0.88703561
-5.5491495 11.139234 -0.69512469
-5.5256233 11.092007 0
-9.6910286 19.453545 1.2139649
-3.5586374 7.1327252 -0.88847679
-5.5396399 11.103332 -0.693093
-5.5369663 11.097973 0
-9.7282982 19.498835 1.2171577
-3.5742004 7.142303 -0.89020711
-5.5367699 11.064093 -0.69106078
-5.5294104 11.049387 0
-3.3460124 6.686316 0.41762581
-5.5303192 11.017918 -0.68859351
-5.5205784 10.998511 0
-3.3505909 6.6752992 0.41719025
-5.5424609 11.008908 -0.68844855
-5.5174775 10.959285 0
-3.3656673 6.6851754 0.41806135
-5.5358486 10.962774 -0.68598127
-5.5271997 10.945647 0
-3.3819382 6.6973338 0.41907692
-5.5338292 10.925944 -0.68409461
-5.5192533 10.897166 0
-3.3935513 6.7001987 0.41951248
-5.5246696 10.87524 -0.68133742
-5.5100241 10.846411 0
-3.4240067 6.7401123 0.42227027
-5.5271859 10.847713 -0.6800307
-5.5219455 10.837428 0
-3.4356837 6.742909 0.42270526
-5.5213742 10.804014 -0.67770904
-5.5077963 10.777445 0
-3.4521072 6.754952 0.42372137
-5.5130877 10.755708 -0.67509627
-5.4887657 10.708258 0
-3.4744899 6.7785239 0.42546305
-5.5058842 10.709755 -0.672629
-5.5100312 10.717822 0
-3.4826779 6.7743211 0.42546305
-5.5081043 10.682311 -0.67132288
-5.5038943 10.674147 0
-3.4860973 6.76087 0.4248825
-0 0 -0
-5.516233 10.666415 -0.67074233
-5.5132003 10.660551 0
-3.4894896 6.7474203 0.42430195
-5.5231361 10.648211 -0.67001677
-5.5116978 10.626159 0
-3.506016 6.7593474 0.42531806
-5.5300035 10.630006 -0.66929126
-5.5113254 10.594102 0
-3.5033844 6.7343531 0.42401138
-5.5188041 10.577242 -0.66638845
-5.5144911 10.568975 0
-3.5151262 6.7370286 0.42444694
-5.5183315 10.545247 -0.66479236
-5.5115724 10.532331 0
-3.5100148 6.707458 0.42285082
-5.5045004 10.487949 -0.66159898
-5.5085731 10.495708 0
-3.4939659 6.6571956 0.41994804
-5.4965944 10.442204 -0.65913177
-5.5018554 10.452198 0
-3.5032163 6.6552663 0.42009303
-5.4934387 10.405684 -0.6572451
-5.513267 10.443243 0
-3.5124674 6.6533241 0.42023805
-5.4853387 10.360003 -0.65477782
-5.5076137 10.402072 0
-3.5217233 6.6513782 0.4203836
-5.4795766 10.318949 -0.65260118
-5.5079751 10.372428 0
-3.5395024 6.6654687 0.42154413
-5.4834895 10.296264 -0.65158504
-5.5082684 10.342791 0
-3.5524395 6.670361 0.42212471
-5.4775672 10.255258 -0.6494084
-5.5035982 10.303994 0
-3.5592737 6.6637735 0.4219797
-5.4690547 10.224451 -0.64766669
-5.5024595 10.286902 0
-3.5694256 6.6730762 0.42270526
-5.4715781 10.199517 -0.64650559
-5.5025802 10.257308 0
-3.5627458 6.6412811 0.42096359
-5.4666648 10.160867 -0.64447391
-5.5026422 10.227737 0
-3.5523045 6.6026535 0.41878691
-5.4715323 10.140529 -0.64360279
-5.4865713 10.168401 0
-0 0 0
-5.4726524 10.113344 -0.64229667
-5.476562 10.120569 0
-3.5595925 6.5780506 0.4177708
-5.4687576 10.077037 -0.64041001
-5.4788561 10.095645 0
-3.573734 6.5851617 0.41849637
-5.4697514 10.049883 -0.63910389
-5.4798546 10.068447 0
-3.5816884 6.5808387 0.41849637
-5.4706874 10.022741 -0.63779777
-5.4807959 10.041262 0
-3.6020892 6.5993185 0.41994804
-5.4703145 9.9933271 -0.6363461
-5.4854293 10.020939 0
-3.6387537 6.6473784 0.42328581
-5.4661312 9.9571009 -0.63445944
-5.4875145 9.9960527 0
-3.66679 6.6794219 0.42560807
-5.4656291 9.9277296 -0.6330083
-5.483273 9.9597788 0
-3.6823747 6.6886396 0.42647862
-5.4650588 9.8983669 -0.63155663
-5.4827223 9.9303589 0
-3.6929684 6.6887393 0.42676917
-0 0 -0
-5.4606533 9.8622055 -0.62966996
-5.4858961 9.9077959 0
-3.6934979 6.6706371 0.42589861
-0 0 -0
-5.4637399 9.8397055 -0.62865442
-5.4864898 9.8806763 0
-3.6813724 6.6298218 0.42357638
-0 0 -0
-0 0 -0
-5.4604549 9.8058538 -0.62691271
-5.481966 9.8444834 0
-3.6552467 6.5640712 0.41965747
-0 0 -0
-5.4621639 9.7810993 -0.62575161
-5.4824381 9.8174038 0
-3.6353056 6.5097432 0.41646469
-0 0 -0
-5.4587426 9.7472868 -0.62400997
-5.4815826 9.7880707 0
-3.6292062 6.4804139 0.41486856
-5.4590659 9.720295 -0.62270385
-5.4781132 9.7542105 0
-3.6281259 6.4601626 0.41385245
-5.4595413 9.6663532 -0.62009162
-5.48247 9.7069502 0
-3.6373389 6.4400654 0.41312689
-5.4558496 9.632618 -0.61834991
-5.4762411 9.6686201 0
-3.6412747 6.4288807 0.41269132
-5.4623518 9.6169806 -0.61776936
-5.4776373 9.6438923 0
-3.6374915 6.4041438 0.41138521
-5.452106 9.5719919 -0.61530215
-5.4802732 9.6214437 0
-3.6220803 6.3591065 0.40877301
-5.4533577 9.5473471 -0.61414105
-5.4815683 9.596736 0
-3.3797488 5.9170213 0.38061732
-5.4493918 9.5136929 -0.61239934
-5.47893 9.5652628 0
-3.3623559 5.870091 0.37785953
-5.4570041 9.500349 -0.61196434
-5.467154 9.5180187 0
-3.3655674 5.8592706 0.37742454
-5.4497843 9.4745216 -0.61051267
-5.461226 9.4944134 0
-3.3729897 5.863987 0.37785953
-5.4521441 9.4521799 -0.60949713
-5.4596882 9.4652596 0
-3.3891623 5.8756652 0.37887564
-5.4505482 9.4230881 -0.60804546
-5.463305 9.4451427 0
-3.410567 5.8963013 0.38047177
-5.4541101 9.4030142 -0.60717487
-5.4642677 9.4205256 0
-3.4646242 5.9730935 0.3856968
-5.4497905 9.369463 -0.60543323
-5.4704123 9.4049177 0
-3.7331178 6.4181018 0.41472301
-5.4545627 9.3516512 -0.60470766
-5.463418 9.3668318 0
-3.7788351 6.4786758 0.41893193
-3.3650322 5.753242 -0.74289715
-3.3839886 5.7856517 -0.37438288
-5.4707885 9.3534822 0
-3.818146 6.5279365 0.42241526
-3.3667474 5.7402472 -0.74174398
-3.3922954 5.7838063 -0.37452844
-3.4111013 5.8158703 0
-3.8207724 6.5143528 0.42183471
-3.3828609 5.7517838 -0.74376231
-3.3926911 5.7684979 -0.37380233
-3.4154899 5.8072619 0
-3.4255669 5.8243957 0.37742454
-3.3871779 5.7432318 -0.74318516
-3.3970213 5.7599225 -0.37351233
-3.4211786 5.8008828 0
-3.4326022 5.8202524 0.37742454
-3.3954303 5.7413592 -0.74347317
-3.4000092 5.7491016 -0.37307677
-3.417587 5.7788239 0
-3.4396322 5.8161006 0.37742454
-3.3970878 5.7283535 -0.74232
-3.4109309 5.7516961 -0.37351233
-3.4219146 5.7702174 0
-3.4440041 5.807466 0.37713397
-3.4013655 5.7198024 -0.74174398
-3.4165514 5.7453394 -0.37336731
-3.4288843 5.7660785 0
-3.4550042 5.8100028 0.37756953
-3.4082744 5.7156887 -0.74174398
-3.4248204 5.7434363 -0.37351233
-3.435849 5.7619314 0
-3.4606924 5.8035941 0.37742454
-3.413852 5.7093482 -0.74145597
-3.4237592 5.7259173 -0.37264177
-3.4441431 5.7600069 0
-3.4690347 5.8016362 0.37756953
-3.4127653 5.691905 -0.73972565
-3.4333453 5.7262292 -0.37293178
-3.4524374 5.7580714 0
-3.480047 5.8041196 0.37800455
-3.4289708 5.7032962 -0.74174398
-3.4389243 5.7198515 -0.37278676
-3.4661012 5.7650537 0
-3.489738 5.8043685 0.37829509
-3.4385278 5.7035747 -0.74232
-3.4525397 5.7268167 -0.37351233
-3.474407 5.7630882 0
-3.4980893 5.802371 0.37844008
-3.4454169 5.6994157 -0.74232
-3.470211 5.7404304 -0.37467343
-3.482713 5.7611108 0
-3.514509 5.8137078 0.37945622
-3.4563246 5.7018862 -0.74318516
-3.4744482 5.7317848 -0.37438288
-3.4869761 5.7524519 0
-3.5323069 5.8272338 0.38061732
-3.4632118 5.6977057 -0.74318516
-5.4261117 8.9270859 -0.58351815
-3.4885173 5.7393384 0
-3.5514908 5.8429432 0.38192344
-3.4741333 5.7001448 -0.74405032
-5.4368944 8.9205227 -0.58351815
-5.4389625 8.9239159 0
-5.4395394 8.9248629 0.58380198
-5.4395418 8.9006481 -0.58264756
-5.4497414 8.9173374 0
-5.4408331 8.9027605 0.5827859
-5.4353566 8.8696957 -0.58105087
-5.4455533 8.8863354 0
-5.4502296 8.8939667 0.58264089
-5.4392695 8.8520546 -0.58032537
-5.4494753 8.8686638 0
-4.0245032 6.5496149 0.4293814
-5.4282761 8.8222094 -0.57858366
-5.4507451 8.8587275 0
-3.9944181 6.4918575 0.42575306
-5.4266539 8.7957439 -0.57727754
-5.4518781 8.836628 0
-0 0 0
-5.4359121 8.786972 -0.57713252
-5.4474893 8.805687 0
-0 0 0
-5.4341993 8.7605267 -0.57582641
-5.4457803 8.7791958 0
-3.9987509 6.4464259 0.42372137
-5.4310546 8.731885 -0.57437474
-5.4412684 8.7483063 0
-3.9845793 6.4062862 0.42139915
-5.4333534 8.7120914 -0.57350421
-5.4449449 8.7306776 0
-3.9689426 6.363987 0.41893193
-5.4287205 8.681284 -0.57190752
-5.4444566 8.7064486 0
-3.9780056 6.3613877 0.41907692
-5.4350691 8.6681194 -0.57147253
-5.4466753 8.6866293 0
-4.0036325 6.3851938 0.42096359
-3.5309753 5.6162863 -0.73943764
-5.431706 8.6395435 -0.57002085
-5.4419289 8.6558046 0
-4.0362425 6.4199524 0.42357638
-3.5239685 5.5901399 -0.73655528
-5.435214 8.6219854 -0.56929529
-5.4468379 8.6404247 0
-4.0550818 6.4326558 0.42473748
-3.5321012 5.5880618 -0.73684329
-5.4456282 8.6154118 -0.56929529
-5.4475393 8.6184359 0
-4.0642385 6.4299455 0.4248825
-3.5263906 5.5641298 -0.73424894
-5.4532547 8.6044407 -0.56900531
-5.4454117 8.5920649 0
-4.0761795 6.4316163 0.42531806
-3.5331113 5.559865 -0.73424894
-3.5628133 5.6066055 -0.37104508
-5.444623 8.5679073 0
-4.0727987 6.4091415 0.42415693
-3.5314848 5.5424995 -0.73251861
-3.5695851 5.6022964 -0.37104508
-5.4437838 8.5437632 0
-4.0665741 6.3822975 0.42270526
-3.5451458 5.5491333 -0.73396093
-3.5665579 5.5826488 -0.37002897
-5.4400949 8.5152521 0
-5.4255919 8.4925508 0.56290305
-3.5504491 5.5426612 -0.73367178
-3.5691001 5.5717773 -0.36959398
-5.4447651 8.4999065 0
-5.4372497 8.4881754 0.56304801
-3.5515528 5.5296621 -0.73251861
-3.5772328 5.5696449 -0.36973897
-3.5845921 5.5811033 0
-5.4404821 8.4706697 0.5623225
-3.5638332 5.5340648 -0.73367178
-3.5797379 5.5587626 -0.36930341
-3.5913332 5.5767679 0
-5.4366422 8.4422388 0.56087077
-3.5691156 5.5275841 -0.73338377
-3.5836358 5.5500717 -0.36901343
-3.5966587 5.5702405 0
-5.4397926 8.4247513 0.56014526
-3.5687654 5.5124135 -0.73194259
-3.5875123 5.5413709 -0.36872286
-3.6019735 5.5637078 0
-3.6312251 5.6088905 0.37321565
-3.5754232 5.5080972 -0.73194259
-3.592792 5.5348544 -0.36857787
-3.6016045 5.5484304 0
-3.6210222 5.5783443 0.37147397
-3.5905387 5.5167756 -0.73367178
-3.6094003 5.5457559 -0.36959398
-3.6097298 5.5462623 0
-3.6192527 5.560894 0.37060285
-3.5972021 5.5124331 -0.73367178
-3.6089945 5.5305037 -0.36886787
-3.6093135 5.5309925 0
-3.6160333 5.5412903 0.36958727
-3.6095247 5.5167398 -0.73482496
-3.6213651 5.5348368 -0.36944842
-3.6174228 5.5288115 0
-3.6184568 5.5303917 0.36915174
-3.6227803 5.529705 -0.73684329
-3.6275589 5.5369987 -0.36973897
-3.6164825 5.5200925 0
-3.6217973 5.5282044 0.36915174
-3.6294591 5.5253234 -0.73684329
-3.6342466 5.5326118 -0.36973897
-3.6231499 5.5157185 0
-3.631325 5.5281639 0.36944172
-3.644666 5.5338902 -0.73857248
-3.646646 5.5368967 -0.37031955
-3.6326721 5.5156794 0
-3.6337183 5.5172682 0.36900672
-3.657625 5.5389853 -0.37075454
-3.639334 5.5112858 0
-3.6446736 5.519372 0.36944172
-3.6643152 5.5345616 -0.37075454
-3.6474314 5.5090609 0
-3.648474 5.5106354 0.36915174
-5.4255948 8.173317 -0.54796076
-3.6598427 5.5133224 0
-3.6580012 5.5105481 0.36944172
-5.4369049 8.1689157 -0.54810578
-3.6621747 5.5023947 0
-3.6661007 5.5082936 0.36958727
-5.4450765 8.138485 -0.54694521
-5.4279013 8.1128139 0
-3.680845 5.5015755 0.36973229
-5.4491162 8.1232672 -0.54636467
-5.4290042 8.0932856 0
-4.8107214 7.1715808 0.48235494
-5.4502239 8.1037359 -0.54549354
-5.4271598 8.0694437 0
-4.8164802 7.1614461 0.4820644
-5.4483895 8.0799093 -0.54433244
-5.4296327 8.0520935 0
-4.7975321 7.1146936 0.47930714
-5.4479656 8.0582581 -0.54331684
-5.4262409 8.026125 0
-4.2094636 6.2263503 0.41980302
-5.4445782 8.0323133 -0.54201072
-5.4315529 8.0130978 0
-4.186368 6.1760931 0.41675523
-5.4396715 8.0042334 -0.54055905
-5.4266057 7.9850082 0
-4.0915923 6.0205951 0.40659577
-5.4317813 7.9718866 -0.53881741
-5.4274549 7.9655371 0
-4.0227861 5.9039927 0.39904907
-5.4267554 7.9438658 -0.53736627
-5.4282703 7.9460835 0
-4.0152569 5.8776674 0.3975974
-5.417263 7.9094353 -0.53547961
-5.4290414 7.9266315 0
-4.0238285 5.8749614 0.39774296
-5.4135795 7.8836074 -0.53417349
-5.4297786 7.907198 0
-4.0912251 5.9579086 0.40369296
-5.4127855 7.8620763 -0.53315741
-5.4260483 7.881341 0
-4.2428155 6.1626945 0.41791579
-5.4104724 7.8384228 -0.53199625
-5.4237404 7.8576441 0
-4.2620678 6.1746712 0.41907692
-5.4081101 7.814786 -0.53083515
-5.4228625 7.8361025 0
-4.2074242 6.0797796 0.41298133
-5.4101443 7.7975731 -0.53010958
-5.4249105 7.8188553 0
-4.0325832 5.8121119 0.39513016
-5.4044747 7.7793627 -0.5290935
-5.4147878 7.7942071 0
-4.0094113 5.7712665 0.39251792
-5.400506 7.7536387 -0.52778739
-5.4108157 7.7684407 0
-0 0 0
-5.4009476 7.7343292 -0.5269168
-5.4172158 7.7576256 0
-4.0173955 5.7530384 0.39193738
-5.4028392 7.7171564 -0.52619123
-5.4146447 7.7340188 0
-4.0317941 5.758821 0.39266291
-5.4002171 7.6936083 -0.52503014
-5.4150176 7.714694 0
-4.0462179 5.7645855 0.39338905
-5.3990402 7.6722002 -0.524014
-5.4108572 7.6889925 0
-4.0561681 5.7639384 0.39367905
-5.3993216 7.652936 -0.52314347
-5.4081416 7.6654367 0
-4.0556417 5.7484188 0.39295349
-5.4010634 7.6358013 -0.5224179
-5.4083796 7.6461439 0
-4.0610852 5.741395 0.3928085
-5.3997631 7.6144304 -0.52140176
-5.404067 7.6204996 0
-4.1251345 5.8170238 0.39832351
-5.4029369 7.5994291 -0.52082121
-5.4042258 7.6012421 0
-4.4197254 6.216506 0.4260436
-5.3955235 7.5696177 -0.51922452
-5.4043403 7.5819869 0
-4.4543786 6.2492442 0.42865583
-5.398623 7.5546365 -0.51864398
-5.4029098 7.5606356 0
-4.4543738 6.2332888 0.4279303
-5.3971581 7.5333276 -0.51762843
-5.4029446 7.5414042 0
-4.4165053 6.164537 0.42357638
-5.3986793 7.5162506 -0.51690286
-5.4044633 7.5243034 0
-4.1920347 5.8363132 0.4013713
-5.3986435 7.497066 -0.51603174
-5.4059482 7.5072103 0
-4.1717491 5.7932844 0.3987585
-5.4016147 7.48211 -0.51545119
-5.399785 7.4795761 0
-4.1741877 5.7819252 0.39832351
-5.3984632 7.4587383 -0.51429009
-5.3966112 7.4561801 0
-4.1781211 5.7726636 0.39803293
-5.3967934 7.4374943 -0.51327455
-5.3995032 7.4412284 0
-4.1789889 5.7591982 0.39745238
-0 0 -0
-5.3966017 7.4183559 -0.51240343
-5.3977718 7.4199648 0
-4.1737156 5.7373343 0.39629129
-5.3979073 7.4013348 -0.51167786
-5.3975353 7.400825 0
-4.1638069 5.7091994 0.39469516
-5.3930449 7.3759308 -0.51037174
-5.39572 7.37959 0
-4.1430936 5.6664042 0.39208236
-0 0 -0
-5.3973432 7.3631201 -0.50993615
-5.4000158 7.366766 0
-4.1268983 5.6299644 0.38990569
-0 0 -0
-5.3954692 7.3419418 -0.50892061
-5.3950443 7.3413634 0
-4.1429276 5.6375327 0.39077625
-5.3950863 7.3228612 -0.50804949
-5.396194 7.3243651 0
-4.1651521 5.6534467 0.39222792
-5.3902569 7.3070583 -0.50717896
-5.3944383 7.3127265 0
-4.1793599 5.6655607 0.39324349
-5.3944454 7.29427 -0.50674337
-5.3893447 7.2873731 0
-4.1985631 5.6772199 0.39440459
-5.3893285 7.2689629 -0.50543725
-5.3919463 7.2724934 0
-4.2162547 5.6867561 0.39542073
-5.3965592 7.2603621 -0.5052923
-5.3898606 7.2513499 0
-4.2091732 5.6628904 0.39411461
-5.391356 7.235086 -0.50398618
-5.3877378 7.2302303 0
-4.2455082 5.6973825 0.39687183
-5.3892069 7.2139921 -0.50297004
-5.3902397 7.2153749 0
-4.2601633 5.7026548 0.3975974
-5.3901329 7.1970782 -0.50224447
-5.392714 7.2005243 0
-4.2732816 5.7058225 0.39817795
-5.3839207 7.1707091 -0.99946356
-5.386344 7.1739364 -0.50108337
-5.3904705 7.1794329 0
-4.2801728 5.7006545 0.39817795
-5.3816977 7.1497393 -0.99744636
-5.3903189 7.1611924 -0.50064778
-5.3913178 7.1625199 0
-4.280807 5.6871748 0.3975974
-5.3856573 7.1370354 -0.9965812
-5.38801 7.1401529 -0.4996317
-5.3921318 7.1456151 0
-4.2939363 5.6902947 0.39817795
-5.386476 7.1202111 -0.99514002
-5.3872304 7.1212077 -0.49876115
-5.3834891 7.1162624 0
-5.4012656 7.139761 0.50006056
-5.3841333 7.0992694 -0.99312168
-5.3864126 7.1022749 -0.49789059
-5.3873701 7.1035376 0
-5.3753476 7.0876851 0.49686778
-5.386446 7.0845227 -0.99196851
-5.3839803 7.0812802 -0.49687445
-5.392796 7.092875 0
-5.3383012 7.0212007 0.49265885
-5.3840313 7.0636158 -0.98995131
-5.3893852 7.0706401 -0.49658448
-5.3903174 7.0718632 0
-5.3026819 6.9568892 0.48859552
-5.3847055 7.0468235 -0.988509
-5.3853035 7.0476055 -0.49542335
-5.3893809 7.0529418 0
-4.2020273 5.499083 0.38656735
-5.3822107 7.0259447 -0.9864918
-5.3827524 7.0266523 -0.49440724
-5.3852377 7.0298967 0
-4.2055116 5.4898806 0.38627735
-5.3843946 7.0112309 -0.98533863
-5.383327 7.009841 -0.49368167
-5.3858042 7.0130663 0
-4.2137232 5.4868536 0.38642234
-5.3849745 6.9944744 -0.98389745
-5.3791118 6.9868593 -0.49252057
-5.3895097 7.0003648 0
-4.2187662 5.479701 0.38627735
-5.3839374 6.9756737 -0.98216712
-5.3859639 6.9782996 -0.49237555
-5.3916039 6.9856067 0
-4.2237983 5.4725447 0.38613236
-5.3796997 6.9527979 -0.97986078
-5.3832598 6.9573989 -0.49135944
-5.3888969 6.964685 0
-4.2351732 5.4735966 0.38656735
-5.3849292 6.9422088 -0.97928476
-5.3821096 6.9385743 -0.49048889
-5.3861413 6.9437718 0
-4.2449722 5.4725852 0.3868579
-5.3869629 6.9275303 -0.97813159
-5.3857031 6.92591 -0.49005333
-5.3833432 6.9228754 0
-4.2340341 5.4448862 0.38526124
-5.3752604 6.9038696 -0.97524923
-5.381906 6.9124055 -0.48932776
-5.3779349 6.9073048 0
-4.2708445 5.4853816 0.38830903
-5.3756366 6.8871694 -0.97380692
-5.3790612 6.8915572 -0.48831165
-5.3798718 6.8925953 0
-4.3270335 5.5437179 0.3928085
-5.3731141 6.8497453 -0.97034854
-5.3732505 6.8499188 -0.48627999
-5.3836627 6.8631926 0
-4.4638991 5.690661 0.40398353
-5.3733883 6.8330765 -0.96890622
-5.3734937 6.8332109 -0.48555443
-5.3806891 6.8423605 0
-4.4257975 5.6280718 0.39991963
-5.372036 6.8143954 -0.96717703
-5.3720913 6.8144655 -0.48468331
-5.3808985 6.8256369 0
-4.4132905 5.5982323 0.39817795
-5.3722491 6.7977548 -0.96573585
-5.3722672 6.7977781 -0.48395774
-5.3826871 6.8109632 0
-4.4119978 5.5827045 0.39745238
-5.3740339 6.7831492 -0.96458268
-5.3740225 6.7831349 -0.48337719
-5.3763695 6.786097 0
-4.402607 5.5570064 0.39600128
-5.3757915 6.7685494 -0.96342951
-5.374136 6.7664647 -0.48265162
-5.3748569 6.7673721 0
-4.3980041 5.537437 0.39498517
-5.3759127 6.7519336 -0.96198833
-5.3774509 6.7538657 -0.48221606
-5.3749261 6.7506948 0
-4.3836527 5.5056944 0.39309847
-5.3776131 6.7373466 -0.96083516
-5.375885 6.7351818 -0.4813455
-5.3749571 6.7340193 0
-4.3643661 5.4678998 0.39077625
-5.3744364 6.7167053 -0.95881683
-5.3775253 6.7205658 -0.48076496
-5.3798409 6.7234597 0
-4.3725982 5.4646573 0.3909218
-5.3760748 6.702136 -0.95766366
-5.3775139 6.7039304 -0.48003939
-5.3781872 6.7047701 0
-4.397078 5.4816604 0.39251792
-5.3695831 6.6774964 -0.9550693
-5.3709507 6.6791973 -0.47873273
-5.3748736 6.6840754 0
-4.4492917 5.533042 0.39658183
-5.3695326 6.6609368 -0.95362812
-5.3724942 6.6646109 -0.47815216
-5.3813143 6.6755519 0
-4.4657555 5.5397959 0.39745238
-5.3694506 6.6443877 -0.95218694
-5.3691154 6.6439729 -0.47713661
-5.3795586 6.6568956 0
-4.4544854 5.5121708 0.39585626
-5.3660765 6.6238246 -0.95016861
-5.3689628 6.6273875 -0.47641104
-5.3761292 6.6362338 0
-5.141541 6.3466606 0.45623094
-5.3675537 6.6093049 -0.94901544
-5.367135 6.608789 -0.47553992
-5.3759422 6.6196337 0
-5.1688633 6.3646483 0.45797262
-5.3690042 6.5947909 -0.94786227
-5.3652763 6.5902123 -0.47466937
-5.3724399 6.5990114 0
-5.2848158 6.4913821 0.46755099
-5.3704271 6.5802836 -0.9467091
-5.371594 6.5817132 -0.47452438
-5.3771152 6.5884786 0
-5.3386588 6.5413585 0.4716149
-5.3751016 6.5697899 -0.94613308
-5.3696671 6.5631475 -0.47365326
-5.3735347 6.5678749 0
-5.3350396 6.520823 0.47059879
-5.3715525 6.5492892 -0.94411474
-5.3710022 6.5486178 -0.47307271
-5.3748717 6.5533357 0
-5.2868915 6.4460659 0.46566433
-5.3689427 6.5380473 -0.94296157
-5.3634191 6.5313206 -0.47205713
-5.368917 6.5380158 0
-5.2874899 6.438858 0.46537432
-5.3653302 6.5175748 -0.94094324
-5.3613949 6.5127945 -0.47118604
-5.373508 6.5275092 0
-5.3266397 6.4705753 0.46813154
-5.3616824 6.4971285 -0.93892604
-5.3626447 6.4982953 -0.47060546
-5.3764205 6.5149879 0
-5.369184 6.5062194 0.47117934
-5.3629341 6.4826736 -0.93777287
-5.3638678 6.4838023 -0.47002491
-5.3726749 6.4944482 0
-5.3720775 6.4937263 0.47074434
-5.3592038 6.4622502 -0.93575454
-5.3617487 6.4653192 -0.46915436
-5.3738728 6.4799385 0
-5.3649869 6.4692235 0.46943766
-5.3620462 6.4498014 -0.93488938
-5.3662314 6.4548359 -0.46886379
-5.3667264 6.455431 0
-5.3528724 6.4387665 0.46769655
-5.361558 6.4333849 -0.9334482
-5.3657107 6.4383683 -0.46813825
-5.3678579 6.4409451 0
-5.3406854 6.4083405 0.46595487
-5.3610373 6.4169793 -0.93200701
-5.3618231 6.4179196 -0.46712214
-5.370636 6.4284682 0
-5.3650813 6.4218197 0.467406
-3.2389963 3.8674612 -0.84101284
-5.365469 6.4065347 -0.931431
-5.3662405 6.4074559 -0.46683213
-5.3683705 6.4099994 0
-5.3444762 6.3814688 0.46493876
-3.2370646 3.8556805 -0.83930099
-5.3665538 6.3921232 -0.93027782
-5.3606124 6.3850465 -0.465671
-5.3694181 6.395535 0
-5.327126 6.3451605 0.46276209
-3.2334578 3.8419478 -0.83716154
-5.3626137 6.3717799 -0.92825949
-5.3616309 6.3706121 -0.46509045
-5.3670907 6.3770995 0
-5.2661901 6.2572107 0.45681152
-3.2231946 3.820374 -0.83330864
-5.363637 6.357388 -0.92710632
-5.3659763 6.3601608 -0.46480045
-5.3664026 6.3606658 0
-5.2603421 6.2349548 0.45565039
-3.2046034 3.7890396 -0.82731789
-5.377996 6.3588018 -0.92825949
-5.3652692 6.3437543 -0.46407488
-5.3707199 6.3501992 0
-5.3232436 6.2940645 0.46043986
-0 0 -0
-5.3789849 6.3444076 -0.92710632
-5.366209 6.329339 -0.46349433
-5.3682942 6.3317986 0
-5.3375669 6.2955556 0.46102041
-3.182169 3.7441251 -0.81918776
-3.2678468 3.8449335 -0.56243551
-5.3738527 6.3228502 -0.46349433
-5.370883 6.3193564 0
-5.3064642 6.2435613 0.45768207
-3.1833577 3.7363656 -0.818331
-3.2792001 3.8488574 -0.56358868
-3.2987232 3.8717721 -0.28411087
-5.3700776 6.302959 0
-5.2988396 6.2193451 0.45637596
-3.1795359 3.7227583 -0.81619155
-3.2653689 3.8232558 -0.56041718
-3.2932768 3.8559318 -0.28324032
-5.3574076 6.272718 0
-5.3367233 6.2485003 0.45898819
-3.1823637 3.7169654 -0.81576401
-3.2632575 3.8114486 -0.559264
-3.2861023 3.838131 -0.28222421
-3.3052204 3.8604608 0
-5.3729968 6.2756004 0.4614554
-3.1851761 3.711164 -0.8153348
-3.2594395 3.7976911 -0.55782282
-3.2839682 3.8262703 -0.28164363
-3.3014095 3.8465917 0
-3.327894 3.8774498 0.28541085
-3.1913369 3.709264 -0.81576401
-3.2522159 3.7800233 -0.55580449
-3.2801173 3.8124528 -0.28091809
-3.3026569 3.8386505 0
-3.3342698 3.8753939 0.28555584
-3.1941352 3.7034557 -0.8153348
-3.2432733 3.7604291 -0.55349928
-3.2711449 3.7927449 -0.27975696
-3.3005004 3.8267815 0
-3.3219759 3.8516815 0.28410417
-3.1913435 3.6957021 -0.81405216
-3.2370875 3.7486753 -0.55205697
-3.2734356 3.7907679 -0.27975696
-3.2960081 3.8169079 0
-3.320909 3.8457441 0.28381419
-3.1941283 3.6899042 -0.81362456
-3.2297697 3.7310779 -0.55003977
-3.2729101 3.7809143 -0.2793214
-3.2920961 3.8030784 0
-3.3221488 3.8377957 0.28352362
-3.1851249 3.6705313 -0.81020087
-3.2410564 3.7349868 -0.55119294
-3.2740734 3.7730355 -0.2790314
-3.2932811 3.7951703 0
-3.3148675 3.8200464 0.28250808
-3.1895576 3.6666801 -0.81020087
-3.2387769 3.7232621 -0.55003977
-3.2701046 3.7592759 -0.27830586
-3.2910321 3.783334 0
-3.3160667 3.8121135 0.2822175
-3.1939857 3.6628234 -0.81020087
-3.2347755 3.7096007 -0.54859859
-3.2695196 3.7494447 -0.2778703
-3.2904682 3.7734683 0
-3.315552 3.8022342 0.28178251
-3.1984091 3.6589613 -0.81020087
-3.2375484 3.7037363 -0.54830945
-3.2723393 3.7435369 -0.27772528
-3.2830408 3.7557793 0
-3.3252695 3.8040886 0.2822175
-3.2011313 3.6531577 -0.80977166
-3.2403183 3.6978781 -0.54802144
-3.2751493 3.7376277 -0.27758029
-3.2910035 3.7557206 0
-3.3213027 3.7902982 0.28149194
-3.202158 3.6454337 -0.80891651
-3.2533171 3.7036746 -0.54946262
-3.2779434 3.7317097 -0.27743474
-3.2921073 3.7478344 0
-3.3173075 3.7765231 0.2807664
-3.2116516 3.6473434 -0.81020087
-3.2372785 3.6764467 -0.5460031
-3.2790189 3.7238498 -0.27714473
-3.2949085 3.7418952 0
-3.3252993 3.7764087 0.28105637
-3.2143526 3.64153 -0.80977166
-3.2314517 3.6609015 -0.54427391
-3.2817981 3.7179387 -0.27699974
-3.2959864 3.7340126 0
-3.3264241 3.7684956 0.2807664
-3.2153513 3.6338022 -0.80891651
-3.2392974 3.6608646 -0.54484993
-3.282841 3.7100749 -0.27670917
-3.2953203 3.7241783 0
-3.3258078 3.7586334 0.28033084
-3.2112243 3.6203139 -0.80677712
-3.2437186 3.6569479 -0.54484993
-3.2873216 3.7061055 -0.27670917
-3.3015432 3.7221389 0
-3.3286242 3.75267 0.28018582
-3.2258277 3.6279378 -0.80934411
-3.2447009 3.6491637 -0.54427391
-3.2883472 3.6982508 -0.27641916
-3.2973933 3.7084246 0
-3.3314314 3.7467053 0.28004083
-3.2233765 3.6163721 -0.80763221
-3.2473884 3.6433115 -0.5439859
-3.2945409 3.6962125 -0.27656418
-3.3053386 3.7083268 0
-3.3307676 3.7368562 0.27960527
-3.2345855 3.6201317 -0.80934411
-3.25351 3.6413119 -0.54427391
-3.3007343 3.694165 -0.27670917
-3.302881 3.6965675 0
-3.3318212 3.7289572 0.27931526
-3.2389574 3.6162207 -0.80934411
-3.2630861 3.6431599 -0.54513907
-3.3051953 3.6901739 -0.27670917
-3.3056104 3.6906371 0
-3.3345857 3.7229874 0.27916971
-3.2433245 3.6123042 -0.80934411
-3.269212 3.6411371 -0.54542708
-3.3113861 3.6881092 -0.27685419
-3.3170154 3.6943789 0
-3.3373475 3.7170238 0.27902472
-3.2562718 3.6179211 -0.8114835
-3.2718806 3.6352634 -0.54513907
-3.312367 3.6802464 -0.27656418
-3.3197377 3.6884356 0
-3.3418365 3.7129886 0.27902472
-3.2589231 3.6120799 -0.81105596
-3.274533 3.6293814 -0.54484993
-3.3150723 3.6743138 -0.27641916
-3.324192 3.6844218 0
-3.3515439 3.7147377 0.27946028
-3.2632852 3.6081395 -0.81105596
-3.2789161 3.6254222 -0.54484993
-3.3212509 3.6722307 -0.27656418
-3.3268974 3.6784739 0
-3.3490582 3.7029767 0.2788797
-3.2676425 3.6041937 -0.81105596
-3.2815588 3.6195433 -0.54456192
-3.3239419 3.666292 -0.27641916
-3.3348324 3.678304 0
-3.3587675 3.7047043 0.27931526
-3.2685454 3.596447 -0.81020087
-3.2963707 3.6270638 -0.54629225
-3.3336074 3.6680362 -0.27685419
-3.3427784 3.6781273 0
-3.356251 3.6929514 0.27873471
-3.2741697 3.5982654 -0.81105596
-3.2933376 3.6193306 -0.54542708
-3.3375766 3.667949 -0.27699974
-3.3397439 3.6703305 0
-3.3637228 3.6966832 0.27916971
-3.2863235 3.594135 -0.81191272
-3.307312 3.6170897 -0.54629225
-3.3499343 3.6637042 -0.27728972
-3.357383 3.6718504 0
-3.3708947 3.6866279 0.27902472
-3.2976019 3.5977314 -0.81362456
-3.3134263 3.6149957 -0.54658026
-3.3578737 3.6634886 -0.27758029
-3.3583035 3.6639576 0
-3.3788617 3.6863868 0.27931526
-3.3036819 3.5956326 -0.81405216
-3.31954 3.6128922 -0.54686826
-3.3622978 3.6594286 -0.27758029
-3.3644874 3.6618116 0
-3.3815503 3.6803825 0.27916971
-3.3219371 3.6067438 -0.81747586
-3.3291616 3.6145878 -0.54773343
-3.3702345 3.6591821 -0.2778703
-3.3671482 3.6558311 0
-3.389519 3.68012 0.27946028
-3.329772 3.6064959 -0.818331
-3.3352797 3.6124611 -0.54802144
-3.3728924 3.6531999 -0.27772528
-3.3839228 3.6651468 0
-3.3974853 3.6798365 0.27975026
-3.342844 3.6118882 -0.82047039
-3.3413973 3.6103249 -0.54830945
-3.3808308 3.6529322 -0.27801529
-3.383044 3.6553235 0
-3.4054625 3.6795464 0.28004083
-3.3419731 3.602206 -0.81918776
-3.3492789 3.6100807 -0.5488866
-3.3870144 3.6507547 -0.27816084
-3.3945384 3.6588645 0
-3.4187407 3.6849515 0.2807664
-3.3480697 3.6000433 -0.8196153
-3.3589177 3.6117077 -0.54975063
-3.3984947 3.6542633 -0.27874085
-3.4024982 3.6585681 0
-3.4231908 3.6808178 0.2807664
-3.3506684 3.5941193 -0.81918776
-3.372103 3.6171112 -0.55119294
-3.4029078 3.6501541 -0.27874085
-3.4104691 3.6582649 0
-3.4329531 3.6823826 0.28120196
-3.3672731 3.6031916 -0.8221823
-3.3799999 3.6168098 -0.55176896
-3.4161918 3.6555376 -0.27946696
-3.42377 3.6636467 0
-3.4409451 3.6820252 0.28149194
-3.3733845 3.6009991 -0.82261151
-3.4038205 3.6334887 -0.55494046
-3.4259305 3.6570907 -0.27990195
-3.4317493 3.6633019 0
-3.4560537 3.6892464 0.28236306
-3.377733 3.5969203 -0.82261151
-3.411746 3.6331406 -0.55551648
-3.4374621 3.6605253 -0.28048253
-3.4415195 3.6648459 0
-3.4676242 3.6926446 0.28294361
-3.3926306 3.604048 -0.82517844
-3.4249959 3.6384301 -0.55695766
-3.450793 3.6658347 -0.28120863
-3.4566517 3.6720586 0
-3.4809868 3.6979103 0.28366917
-3.3952227 3.5980806 -0.8247509
-3.4418173 3.6474593 -0.55897599
-3.4587831 3.6654387 -0.28149864
-3.475368 3.6830146 0
-3.4997191 3.7088206 0.2848303
-3.4119112 3.6070247 -0.82774544
-3.4479978 3.645175 -0.559264
-3.4739199 3.6725793 -0.2823692
-3.4833961 3.6825974 0
-3.5166922 3.7177978 0.28584585
-3.4303975 3.6178019 -0.83116919
-3.4506218 3.6391311 -0.55897599
-3.4837203 3.6740377 -0.28280476
-3.4985838 3.6897132 0
-3.5301197 3.7229719 0.28657141
-3.4365332 3.6155131 -0.83159673
-3.4603639 3.6405849 -0.55984116
-3.4953177 3.6773591 -0.28338531
-3.506629 3.6892595 0
-3.5381994 3.7224741 0.28686196
-3.4391303 3.6095014 -0.83116919
-3.4736795 3.6457622 -0.56128234
-3.5051377 3.6787786 -0.28382087
-3.521852 3.6963212 0
-5.3691034 5.6350832 0.43475142
-3.4434891 3.6053431 -0.83116919
-3.4905891 3.6546571 -0.56330067
-3.5185521 3.6839342 -0.28454643
-5.3471084 5.5984378 0
