# .PCD v0.7 - Point Cloud Data file format
VERSION 0.7
FIELDS x y z
SIZE 4 4 4
TYPE F F F
COUNT 1 1 1
WIDTH 1569
HEIGHT 1
VIEWPOINT 0 0 0 1 0 0 0
POINTS 1569
DATA ascii
-5.180686 3.8604825 0.36087948
-2.7963045 2.0784671 -0.96126842
-2.6976476 2.0051363 -0.74461275
-2.7178416 2.0201461 -0.56455994
-5.15412 3.8310091 -0.71579933
-5.1604176 3.83569 -0.35914448
-5.1794643 3.8498476 0
-5.1790886 3.8495679 0.36044392
-2.7947872 2.0721014 -0.95988542
-2.6857786 1.9912806 -0.74067205
-2.7326493 2.0260313 -0.56712693
-5.1670561 3.8309405 -0.7169525
-5.1587844 3.8248076 -0.35870895
-5.1715651 3.8342834 0
-5.1753869 3.837117 0.35986337
-2.7529089 2.0359018 -0.94465655
-2.6881828 1.9880338 -0.74067205
-2.7454133 2.0303583 -0.56926638
-5.1654406 3.8200791 -0.71608734
-5.1571326 3.8139348 -0.35827339
-5.1761942 3.8280318 0
-5.1800194 3.8308606 0.35986337
-2.7755599 2.0474699 -0.95157951
-2.6844547 1.9802635 -0.738985
-2.7458007 2.0255172 -0.56883883
-5.1658859 3.810761 -0.71551019
-5.161737 3.8077006 -0.35827339
-5.1745391 3.8171442 0
-5.17628 3.8184288 0.35928279
-2.8371215 2.082314 -0.97095734
-2.6974258 1.9797841 -0.74123651
-2.7755215 2.0371025 -0.57397443
-5.1688304 3.7936792 -0.71464616
-5.1520729 3.7813799 -0.35696727
-5.1795483 3.8015456 0
-5.1834002 3.8043725 0.3591378
-2.8173742 2.0625873 -0.96334559
-2.7121134 1.9855261 -0.74461275
-2.7883353 2.041328 -0.57611382
-5.1629777 3.779793 -0.71320498
-5.1524487 3.772085 -0.35667726
-5.1715426 3.7860632 0
-5.187993 3.7981067 0.3591378
-2.7833912 2.0325472 -0.9508853
-2.7001445 1.9717569 -0.74067205
-2.7887287 2.0364449 -0.57568628
-5.1570911 3.7659206 -0.71176267
-5.1486087 3.7597268 -0.35609671
-5.1824126 3.7844117 0
-5.1883774 3.7887673 0.35884723
-2.775708 2.0217986 -0.94742519
-2.7271707 1.9864447 -0.74742663
-2.7870414 2.0300539 -0.57483119
-5.1595488 3.7581651 -0.71147466
-5.1510415 3.7519686 -0.35595113
-5.178575 3.7720239 0
-5.1908531 3.780967 0.35870224
-2.7477102 1.9963282 -0.93704474
-2.713124 1.9712 -0.74292356
-2.801949 2.0357351 -0.57739818
-5.1619954 3.7504094 -0.71118665
-5.153471 3.744216 -0.35580614
-5.1810179 3.7642298 0
-5.1870093 3.7685828 0.35812169
-2.7582459 1.9988954 -0.93981338
-2.7237337 1.9738843 -0.74517512
-2.7981689 2.0278275 -0.57611382
-5.1602383 3.7396145 -0.71032149
-5.1600938 3.7395096 -0.35595113
-5.1792464 3.7533896 0
-5.185245 3.7577369 0.35768613
-2.7647216 1.9984977 -0.94119638
-2.7467129 1.98548 -0.75080502
-2.8110175 2.0319629 -0.57825327
-5.1626592 3.731863 -0.71003348
-5.1582966 3.7287097 -0.35551614
-5.1816626 3.7455997 0
-5.1771507 3.7423382 0.35681558
-2.7834144 2.0068936 -0.94673371
-2.7408659 1.9762155 -0.74855351
-2.8217995 2.0345702 -0.57996511
-5.1671648 3.7256222 -0.71003348
-5.1543674 3.7163954 -0.35493559
-5.1777406 3.7332478 0
-5.179563 3.7345617 0.35667056
-2.7899146 2.0064614 -0.94811934
-2.7494342 1.9773486 -0.7502405
-2.8451006 2.0461504 -0.58424562
-5.167459 3.7163527 -0.70945632
-5.1588545 3.7101645 -0.35493559
-5.1759152 3.7224345 0
-5.1798487 3.7252631 0.35638002
-2.7943735 2.0045497 -0.94881082
-2.7476962 1.9710658 -0.74911582
-2.8579984 2.0501912 -0.58638507
-5.1677461 3.7070937 -0.70888031
-5.1548882 3.69787 -0.35435504
-5.1867471 3.7207241 0
-5.1822367 3.7174885 0.356235
-2.7947552 1.9997134 -0.94811934
-2.7562771 1.9721813 -0.75080502
-2.864645 2.049721 -0.58724016
-5.1617064 3.6933229 -0.70743912
-5.1551218 3.6886115 -0.35406446
-5.1891246 3.7129414 0
-5.1867247 3.7112241 0.356235
-2.7951214 1.9948734 -0.94742519
-2.7751956 1.9806523 -0.75530595
-2.8963764 2.0671389 -0.59323251
-5.1619506 3.6840754 -0.70686197
-5.1553493 3.6793637 -0.35377446
-5.1766605 3.6945739 0
-5.1869793 3.7019382 0.35594502
-2.8097966 2.000227 -0.95157951
-2.7589591 1.9640369 -0.7502405
-2.9009614 2.065125 -0.59366012
-5.1600833 3.6733396 -0.70599794
-5.1534386 3.6686096 -0.35333893
-5.1896019 3.6943533 0
-5.182981 3.6896403 0.35536444
-2.8355405 2.0159733 -0.95988542
-2.7622221 1.9638463 -0.75080502
-2.9084871 2.0678358 -0.59494442
-5.1538696 3.6642268 -0.70484477
-5.1514225 3.662487 -0.35304892
-5.1727452 3.6776466 0
-5.1936803 3.6925309 0.35594502
-2.8502491 2.0212502 -0.96403706
-2.7915351 1.9796134 -0.75812197
-2.9444792 2.0880735 -0.60179025
-5.1604009 3.6594913 -0.70513278
-5.1494837 3.6517491 -0.35261336
-5.179306 3.6728978 0
-5.1875343 3.6787329 0.35521889
-2.8444965 2.0120099 -0.96126842
-2.8105204 1.9879774 -0.7626251
-2.9428124 2.081552 -0.6009351
-5.1648188 3.6532533 -0.70513278
-5.153892 3.6455243 -0.35261336
-5.1688733 3.656121 0
-5.1771317 3.6619625 0.35420334
-2.894068 2.0418315 -0.97718614
-2.7983851 1.9743249 -0.75868434
-2.9558113 2.0853927 -0.60307455
-5.1649985 3.6440248 -0.70455563
-5.1519217 3.6347988 -0.3521778
-5.1711545 3.6483681 0
-5.1751809 3.6512089 0.35376778
-2.9108968 2.0484409 -0.98203194
-2.8319321 1.9928722 -0.76712596
-5.1651716 3.6348071 -0.70397961
-5.1520638 3.6255832 -0.35188779
-5.1862068 3.6496103 0
-5.1795893 3.644953 0.35376778
-2.894891 2.0319519 -0.97580314
-2.8426569 1.995288 -0.76937753
-5.1632066 3.624104 -0.70311445
-5.164948 3.6253266 -0.35246834
-5.1735721 3.6313798 0
-5.1839895 3.6386919 0.35376778
-2.9158387 2.0414004 -0.98203194
-2.8471532 1.9933133 -0.76994205
-0 0 -0
-5.1675816 3.6178627 -0.70311445
-5.1586757 3.6116276 -0.35174224
-5.175818 3.6236289 0
-5.1819944 3.6279533 0.35333222
-2.9285858 2.0450561 -0.98549211
-2.8578925 1.9956906 -0.77219355
-0 0 -0
-5.1571112 3.6012545 -0.70109725
-5.1587791 3.6024191 -0.35145223
-5.178061 3.6158838 0
-5.1821175 3.6187165 0.35304222
-2.9331191 2.042954 -0.98618627
-2.8665509 1.9965883 -0.7738806
-0 0 -0
-5.1593304 3.593538 -0.70080811
-5.1524692 3.5887589 -0.35072669
-5.1760259 3.6051664 0
-5.1822176 3.6094792 0.35275167
-2.9623682 2.0580149 -0.99518371
-2.8689613 1.9931233 -0.7738806
-0 0 -0
-5.1594243 3.5843527 -0.70023209
-5.1653376 3.5884607 -0.35130724
-5.1867838 3.6033599 0
-5.1844435 3.6017339 0.35260665
-2.9586644 2.0501459 -0.99310654
-2.877635 1.9939982 -0.7755698
-0 0 -0
-5.1531239 3.5707517 -0.69879091
-5.1568508 3.5733342 -0.35043612
-5.1825776 3.591161 0
-5.1802483 3.5895469 0.3520261
-2.9466908 2.0365834 -0.98826075
-2.8925798 1.9991848 -0.77894604
-0 0 -0
-5.1616859 3.5674608 -0.69936693
-5.1611648 3.5671005 -0.35043612
-5.1762104 3.5774992 0
-5.1781669 3.5788515 0.35159054
-2.9429588 2.0287538 -0.98618627
-2.9054592 2.002903 -0.78176206
-0 0 -0
-5.1638656 3.5597546 -0.69907892
-5.1611967 3.557915 -0.35014611
-5.1783886 3.5697665 0
-5.171793 3.5652194 0.35086498
-2.9578075 2.0337219 -0.99033791
-2.9183438 2.0065875 -0.78457594
-0 0 -0
-5.1639042 3.5505846 -0.6985029
-5.1654921 3.551676 -0.35014611
-5.1826982 3.5635068 0
-5.178236 3.5604386 0.35100999
-2.9396234 2.0159922 -0.78964138
-0 0 -0
-5.1617894 3.5399523 -0.69763774
-5.1590672 3.5380852 -0.34942058
-5.1805596 3.5528247 0
-5.1825342 3.5541792 0.35100999
-2.9693189 2.0310862 -0.79695833
-0 0 -0
-5.1660633 3.5337129 -0.69763774
-5.150466 3.5230439 -0.34854946
-5.1869946 3.5480304 0
-5.1782546 3.542052 0.35042998
-2.9885623 2.0389531 -0.8014614
-0 0 -0
-5.1596484 3.5201809 -0.69619656
-5.1504302 3.5138919 -0.34825945
-5.1891303 3.5402951 0
-5.1846747 3.5372555 0.350575
-0 0 -0
-5.1617537 3.5124846 -0.69590741
-5.1589646 3.510587 -0.34854946
-5.178349 3.5237777 0
-5.186799 3.5295277 0.35042998
-0 0 -0
-5.1531572 3.4975328 -0.69417822
-5.1524549 3.497056 -0.34782389
-5.1782923 3.5145924 0
-5.1889038 3.5217946 0.35028443
-0 0 -0
-0 0 -0
-5.1573796 3.4913037 -0.69417822
-5.1502194 3.4864564 -0.34738833
-5.1868496 3.5112534 0
-5.1953135 3.516983 0.35042998
-5.1487765 3.4809453 -0.69273704
-5.1523247 3.4833443 -0.34738833
-5.1824999 3.5037448 0
-5.1845174 3.5051088 0.34955886
-5.1529784 3.4747214 -0.69273704
-5.1543775 3.4756649 -0.34724334
-5.173779 3.4887474 0
-5.180131 3.4930308 0.34897831
-5.1571732 3.4684925 -0.69273704
-5.1564193 3.4679854 -0.34709832
-5.1758332 3.4810424 0
-5.1821938 3.4853203 0.34883332
-5.1613607 3.4622586 -0.69273704
-5.1584501 3.4603062 -0.34695333
-5.1757174 3.471889 0
-5.1885571 3.4805021 0.34897831
-5.1612368 3.4531403 -0.69215989
-5.1583037 3.4511781 -0.34666279
-5.1799083 3.4656327 0
-5.1841202 3.4684505 0.34839776
-5.1611066 3.4440329 -0.69158387
-5.1538248 3.4391735 -0.34608221
-5.186255 3.4608145 0
-5.1861482 3.4607432 0.34825274
-5.1588025 3.4334936 -0.69071871
-5.1514931 3.4286287 -0.34564722
-5.1774297 3.4458909 0
-5.1816735 3.4487152 0.34767219
-5.1586418 3.4243994 -0.69014269
-5.1491356 3.4180889 -0.34521165
-5.1750908 3.4353187 0
-5.1858368 3.4424517 0.34767219
-5.162776 3.4181638 -0.69014269
-5.14676 3.4075599 -0.34477609
-5.1770701 3.4276276 0
-5.1878281 3.4347501 0.34752721
-5.1561041 3.4047925 -0.68870038
-5.1552143 3.4042051 -0.34506667
-5.187717 3.4256678 0
-5.183301 3.4227517 0.34694663
-5.1602144 3.39856 -0.68870038
-5.1528115 3.3936844 -0.34463111
-5.1875095 3.4165368 0
-5.1830888 3.413625 0.34665608
-5.1578383 3.3880663 -0.68783635
-5.1482215 3.3817494 -0.34405056
-5.1807604 3.4031234 0
-5.1785221 3.4016533 0.34607553
-5.1597667 3.3804157 -0.68754834
-5.1501322 3.3741035 -0.34390554
-5.1761608 3.3911562 0
-5.1761146 3.3911257 0.34564054
-5.1616759 3.3727596 -0.6872592
-5.1563787 3.3692982 -0.34405056
-5.1737165 3.3806272 0
-5.1802082 3.3848689 0.34564054
-5.161418 3.3636987 -0.68668318
-5.1495633 3.355973 -0.34332499
-5.1756196 3.3729539 0
-5.1755862 3.3729322 0.34505996
-5.1654787 3.3574595 -0.68668318
-5.1557913 3.3511631 -0.34346998
-5.1796913 3.3666975 0
-5.17312 3.3624265 0.3446244
-5.1651869 3.3483992 -0.68610603
-5.1489367 3.3378649 -0.34274444
-5.1793838 3.3576024 0
-5.1815443 3.3590031 0.34491497
-5.1540308 3.3323293 -0.68408883
-5.152966 3.331641 -0.34274444
-5.1812534 3.34993 0
-5.1746821 3.3456814 0.34418884
-5.1558733 3.3246934 -0.68379968
-5.148253 3.3197794 -0.34216386
-5.1831121 3.342258 0
-5.1721759 3.335206 0.34375384
-5.1577139 3.3170636 -0.68351167
-5.1500769 3.3121521 -0.34201887
-5.1871471 3.3359928 0
-5.1783857 3.330358 0.34389886
-5.1573677 3.3080387 -0.68293566
-5.1562605 3.3073285 -0.34216386
-5.1889858 3.3283191 0
-5.1736569 3.3184869 0.34331828
-5.1528296 3.3007355 -0.68207049
-5.1582575 3.3042126 -0.34216386
-5.1866083 3.3223732 0
-5.1712809 3.3125548 0.34302774
-5.1568141 3.294507 -0.68207049
-5.1578627 3.295177 -0.34187332
-5.1752648 3.3062947 0
-5.1687169 3.3021111 0.34259275
-5.1586118 3.286885 -0.68178248
-5.1552725 3.2847574 -0.34143832
-5.1792564 3.3000388 0
-5.1748924 3.2972584 0.34273773
-5.1582093 3.2778723 -0.68120533
-5.1526566 3.2743435 -0.34100276
-5.1722593 3.2868006 0
-5.1810637 3.2923954 0.34288272
-5.1578012 3.2688708 -0.68062931
-5.1566091 3.2681153 -0.34100276
-5.1806278 3.2833376 0
-5.1784601 3.2819636 0.34244773
-5.1530018 3.2571084 -0.67947614
-5.1517682 3.2563288 -0.34042218
-5.182385 3.2756808 0
-5.1758304 3.2715378 0.34201217
-5.1569338 3.2508795 -0.67947614
-5.1535029 3.2487171 -0.34027719
-5.1797409 3.2652571 0
-5.1797795 3.2652814 0.34201217
-5.1542869 3.2405148 -0.67861098
-5.1530209 3.2397189 -0.33998665
-5.1814814 3.2576122 0
-5.1815233 3.2576387 0.34186718
-0 0 -0
-5.1494331 3.2287884 -0.67745781
-5.1525331 3.2307322 -0.33969665
-5.1809998 3.2485812 0
-5.1810489 3.2486119 0.34157661
-0 0 -0
-5.1594133 3.2177022 -0.67774582
-5.1559114 3.2155182 -0.33940607
-5.1822081 3.2319183 0
-5.1756597 3.2278342 0.34070605
-5.1611032 3.2101009 -0.67745781
-5.1509671 3.2037966 -0.33882552
-5.1728544 3.2174098 0
-5.1773434 3.2202017 0.3405605
-5.158391 3.1997762 -0.67659378
-5.159255 3.2003124 -0.33911607
-5.1833749 3.2152741 0
-5.1790242 3.2125752 0.34041551
-5.1556525 3.1894574 -0.67572862
-5.1586947 3.1913393 -0.33882552
-5.1761837 3.2021587 0
-5.176271 3.2022126 0.33997995
-5.1550961 3.1805067 -0.67515147
-5.1426463 3.1728256 -0.33751941
-5.1800494 3.1959021 0
-5.1757178 3.1932297 0.33968994
-5.1545334 3.1715672 -0.67457545
-5.1509066 3.1693356 -0.33780998
-5.1883445 3.1923709 0
-5.1795726 3.1869736 0.33968994
-5.1539488 3.1626284 -0.6739983
-5.1525197 3.1617515 -0.33766496
-5.1811094 3.1792951 0
-5.1767731 3.1766343 0.33925438
-5.151154 3.1523523 -0.67313427
-5.1518993 3.1528082 -0.33737442
-5.1827207 3.17167 0
-5.1894732 3.1758022 0.33983496
-5.1571651 3.1474719 -0.67342228
-5.1468329 3.1411662 -0.33679384
-5.1909966 3.1681194 0
-5.1844349 3.1641147 0.33925438
-5.1565413 3.138546 -0.67284513
-5.1528425 3.1362946 -0.33693886
-5.1814866 3.153729 0
-5.1816015 3.1537991 0.33881938
-5.1537032 3.1282907 -0.6719811
-5.1521897 3.127372 -0.33664885
-5.178617 3.1434133 0
-5.1742959 3.1407905 0.33809328
-5.1574793 3.1220613 -0.6719811
-5.151515 3.1184506 -0.33635828
-5.1846356 3.1385 0
-5.1714249 3.1305029 0.33765829
-5.1637874 3.1216183 -0.67255712
-5.1556282 3.1166859 -0.33650386
-5.1843057 3.1340222 0
-5.1799798 3.131407 0.33809328
-5.1609168 3.1113741 -0.67169309
-5.1571584 3.1091084 -0.33635828
-5.1836271 3.1250656 0
-5.1793137 3.1224651 0.33780327
-5.1535826 3.0984685 -0.67025077
-5.140871 3.090826 -0.33505216
-5.1829429 3.1161206 0
-5.1830826 3.1162047 0.33780327
-5.1551065 3.0909104 -0.66996276
-5.1423755 3.0832772 -0.33490717
-5.1777759 3.1045027 0
-5.1823826 3.1072648 0.3375127
-5.1588373 3.0846791 -0.66996276
-5.1460972 3.0770614 -0.33490717
-5.1882267 3.102252 0
-5.1794491 3.0970037 0.33707771
-5.1558943 3.0744681 -0.6690976
-5.1475821 3.0695114 -0.33476219
-5.1830301 3.0906494 0
-5.1764903 3.0867496 0.33664215
-5.1573844 3.0669153 -0.66880959
-5.1468163 3.0606306 -0.33447161
-5.1822829 3.0817213 0
-5.1779847 3.0791657 0.33649716
-5.158864 3.0593634 -0.66852158
-5.154985 3.0570629 -0.33476219
-5.1792936 3.0714788 0
-5.1705289 3.0662808 0.33577159
-5.1536517 3.0478611 -0.66736841
-5.1519628 3.0468624 -0.33432662
-5.1740408 3.0599191 0
-5.178699 3.062674 0.3360616
-5.1617818 3.0442569 -0.66794443
-5.1511688 3.0379975 -0.33403662
-5.1777344 3.0536652 0
-5.1734428 3.0511343 0.33548105
-5.1632295 3.0367079 -0.66765642
-5.1525893 3.0304501 -0.33389106
-5.1769295 3.0447655 0
-5.1816096 3.047518 0.33577159
-5.1601996 3.0265398 -0.66679126
-5.1472821 3.0189636 -0.33331051
-5.1783619 3.0371926 0
-5.1763229 3.0359964 0.33519104
-5.1549306 3.0150843 -0.66563922
-5.148685 3.0114312 -0.3331655
-5.1887698 3.0348763 0
-5.1665254 3.0218658 0.33431992
-5.1540976 3.0062444 -0.66506207
-5.143342 2.9999712 -0.33258495
-5.1834407 3.0233595 0
-5.1724153 3.0169289 0.33446494
-5.1532588 2.9974163 -0.66448605
-5.1469631 2.9937541 -0.33258495
-5.1758356 3.0105479 0
-5.1783094 3.011987 0.33461049
-5.1523981 2.9885893 -0.6639089
-5.1505766 2.9875329 -0.33258495
-5.1817269 3.0056012 0
-5.1774454 3.0031178 0.33431992
-5.1560054 2.9823613 -0.6639089
-5.1519356 2.9800074 -0.33243996
-5.1763439 2.9941256 0
-5.1743288 2.9929602 0.33388492
-5.1573668 2.974838 -0.66362089
-5.1532841 2.9724832 -0.33229494
-5.1754446 2.9852657 0
-5.1734357 2.9841068 0.33359438
-5.1983457 2.9901102 -0.99977922
-5.1587176 2.9673159 -0.66333288
-5.1546216 2.9649599 -0.33214995
-5.1767945 2.9777136 0
-5.1725368 2.9752648 0.33330438
-5.2019548 2.9838269 -0.99977922
-5.1578078 2.9585042 -0.66275573
-5.153688 2.956141 -0.33185938
-5.173614 2.9675705 0
-5.1671124 2.9638412 0.3327238
-5.157352 2.9541032 -0.66246772
-5.1509681 2.9504464 -0.33156937
-5.1731496 2.9631519 0
-5.1756597 2.9645898 0.33315882
-5.2029009 2.9718497 -0.99892414
-5.1564217 2.9453011 -0.66189057
-5.1522665 2.9429278 -0.33142382
-5.1812506 2.9594831 0
-5.1747298 2.9557588 0.33286881
-5.1997938 2.9617479 -0.99763983
-5.1554861 2.9365106 -0.66131455
-5.1490517 2.9328456 -0.33098882
-5.1802955 2.9506419 0
-5.1737776 2.9469292 0.33257824
-5.2033687 2.9554629 -0.99763983
-5.1455407 2.922617 -0.65958536
-5.1480684 2.9240527 -0.33069828
-5.1815963 2.9430962 0
-5.1682968 2.9355423 0.33199769
-5.1913066 2.9403212 -0.9946453
-5.1423144 2.9125721 -0.6587202
-5.1515975 2.9178302 -0.33069828
-5.1828861 2.9355516 0
-5.1718402 2.9292953 0.33199769
-5.1903811 2.931519 -0.99378854
-5.1413212 2.9038103 -0.65814304
-5.1483297 2.9077685 -0.33026272
-5.1841569 2.9280035 0
-5.1753759 2.923044 0.33199769
-5.1916847 2.9239867 -0.993361
-5.1515894 2.9014049 -0.6590082
-5.1495776 2.9002717 -0.3301177
-5.1808949 2.9179096 0
-5.1743803 2.9142406 0.33170769
-5.1929779 2.9164557 -0.99293339
-5.1505857 2.8926473 -0.65843219
-5.1462879 2.8902338 -0.32968271
-5.1730647 2.905272 0
-5.1710987 2.9041679 0.33127213
-5.1897769 2.9064147 -0.99164909
-5.1540771 2.8864217 -0.65843219
-5.1520414 2.8852818 -0.32982773
-5.1743026 2.8977487 0
-5.172339 2.8966491 0.33112714
-5.1910458 2.8988912 -0.99122155
-5.1530399 2.8776674 -0.65785503
-5.1577907 2.8803203 -0.32997271
-5.1800704 2.8927622 0
-5.1690273 2.8865952 0.33069158
-5.1945448 2.8926167 -0.99122155
-5.158771 2.8726959 -0.65814304
-5.1544542 2.8702922 -0.32953715
-5.1835618 2.8865008 0
-5.1770558 2.8828781 0.33098215
-5.1868167 2.8801084 -0.9890821
-5.1599793 2.865206 -0.65785503
-5.1420231 2.8552356 -0.32852161
-5.1756716 2.8739197 0
-5.1759877 2.8740952 0.33069158
-5.1970239 2.8775659 -0.99036479
-5.1498652 2.8514543 -0.65612584
-5.1409187 2.8465006 -0.32823104
-5.1882477 2.8727064 0
-5.1794567 2.8678391 0.33069158
-5.1892629 2.8650815 -0.98822534
-5.1487737 2.8427269 -0.65554869
-5.1420817 2.8390319 -0.32808605
-5.1826019 2.8614037 0
-5.1783733 2.8590691 0.33040157
-5.1792326 2.8513832 -0.98565841
-5.1499414 2.8352573 -0.65526068
-5.1477823 2.8340688 -0.32823104
-5.1792226 2.8513777 0
-5.172719 2.8477972 0.32982102
-5.1781693 2.8426499 -0.98480165
-5.1488333 2.8265455 -0.65468466
-5.1512032 2.8278465 -0.32823104
-5.1780968 2.8426104 0
-5.1829915 2.8452973 0.33025658
-5.1838498 2.8376226 -0.98522919
-5.1499696 2.8190765 -0.65439552
-5.1500621 2.8191273 -0.32794103
-5.1838083 2.8376 0
-5.1704683 2.8302977 0.32924047
-5.1715083 2.822751 -0.98223466
-5.1465673 2.8091378 -0.65353149
-5.1420541 2.8066742 -0.32721493
-5.1758137 2.8251011 0
-5.1716061 2.8228045 0.32909545
-5.1839342 2.821409 -0.9839465
-5.1567669 2.806623 -0.65439552
-5.1545711 2.8054276 -0.32779548
-5.1792235 2.8188453 0
-5.170444 2.8140666 0.32880491
-5.1805687 2.8114686 -0.9826622
-5.1533413 2.7966924 -0.65353149
-5.1556754 2.7979591 -0.32765049
-5.1757617 2.8088598 0
-5.1715589 2.8065791 0.32865989
-5.179451 2.8027658 -0.98180711
-5.161262 2.792923 -0.65410751
-5.152194 2.7880163 -0.32721493
-5.1791515 2.802604 0
-5.1726632 2.7990928 0.3285149
-5.1630759 2.7898734 -0.97838336
-5.1561193 2.7861145 -0.65324235
-5.1401658 2.7774937 -0.32634437
-5.1785564 2.7982383 0
-5.1743531 2.7959671 0.3285149
-5.1732163 2.787282 -0.97966599
-5.1480994 2.7737491 -0.65180117
-5.143518 2.7712808 -0.32634437
-5.1819339 2.7919791 0
-5.1800132 2.7909441 0.32865989
-5.1698027 2.7773881 -0.97838336
-5.1446095 2.7638533 -0.65093601
-5.146863 2.765064 -0.32634437
-5.1830134 2.7844851 0
-5.1765127 2.7809927 0.32822436
-5.1618342 2.765075 -0.9762423
-5.1479454 2.7576351 -0.65093601
-5.1410379 2.7539351 -0.32576382
-5.1817904 2.7757649 0
-5.1730042 2.7710586 0.32778934
-5.162909 2.7576277 -0.9758147
-5.1535616 2.7526348 -0.65122515
-5.144362 2.747721 -0.32576382
-5.1782517 2.7658224 0
-5.1786385 2.7660289 0.32793435
-5.1707735 2.753803 -0.97667146
-5.1523137 2.7439718 -0.650648
-5.1430955 2.7390625 -0.32547382
-5.176991 2.7571144 0
-5.1750941 2.756104 0.32749879
-5.169558 2.7451429 -0.9758147
-5.1533432 2.7365322 -0.65035999
-5.148694 2.7340636 -0.3256188
-5.1780224 2.7496376 0
-5.1669478 2.7437568 0.32677323
-5.1637969 2.7340896 -0.97410285
-5.1566463 2.7303035 -0.65035999
-5.1451025 2.7241917 -0.32518324
-5.1698432 2.7372911 0
-5.1679654 2.7362969 0.32662824
-5.1602926 2.7242563 -0.97282016
-5.1553712 2.721658 -0.64978397
-5.1460948 2.7167609 -0.32503825
-5.1708479 2.7298286 0
-5.171268 2.7300503 0.32662824
-5.1726584 2.7227974 -0.9745304
-5.1517873 2.7118113 -0.64891881
-5.1424737 2.7069087 -0.32460269
-5.1787438 2.7260008 0
-5.1630683 2.7177494 0.32590267
-5.1633081 2.7019608 -0.97153586
-5.1445713 2.6921558 -0.64718848
-5.1490002 2.6944733 -0.32460269
-5.1899328 2.7158935 0
-5.1765213 2.7088752 0.32633767
-5.1574659 2.6909702 -0.96982402
-5.1478205 2.6859376 -0.64718848
-5.1476488 2.6858482 -0.32431269
-5.1839814 2.7048049 0
-5.1797905 2.7026184 0.32633767
-5.1561546 2.6823647 -0.96896726
-5.1556559 2.6821053 -0.64776564
-5.1416698 2.6748295 -0.32373214
-5.1756949 2.6925302 0
-5.1853552 2.6975558 0.32648268
-5.1593919 2.6761324 -0.96896726
-5.1520023 2.6722999 -0.64690048
-5.1541247 2.6734004 -0.32431269
-5.1720209 2.682683 0
-5.172471 2.6829166 0.32546711
-5.1580658 2.6675403 -0.96811211
-5.1460381 2.6613202 -0.6457473
-5.1504245 2.6635888 -0.32387713
-5.1706309 2.6740384 0
-5.1641712 2.6706977 0.32474154
-5.1612849 2.6613059 -0.96811211
-5.1515465 2.6562843 -0.64603531
-5.1513319 2.6561737 -0.32373214
-5.1715469 2.6665971 0
-5.172009 2.6668353 0.32503155
-5.1622162 2.6538949 -0.96768457
-5.1524544 2.6488764 -0.6457473
-5.1522288 2.6487606 -0.32358712
-5.1701407 2.657969 0
-5.17061 2.6582103 0.32474154
-5.1654191 2.6476555 -0.96768457
-5.1533518 2.64147 -0.64545929
-5.1577358 2.6437173 -0.32373214
-5.1733484 2.6517198 0
-5.1714993 2.6507719 0.32459599
-5.1670175 2.6445341 -0.96768457
-5.1503463 2.6360016 -0.64488328
-5.1454492 2.6334953 -0.32286102
-5.1726265 2.6474049 0
-5.1730995 2.6476471 0.32459599
-5.1587787 2.6324561 -0.96554518
-5.1443119 2.6250739 -0.6437301
-5.1486273 2.6272759 -0.32286102
-5.1688738 2.6376073 0
-5.178616 2.6425788 0.32474154
-5.1596613 2.6250534 -0.96511596
-5.1428652 2.6165082 -0.64315295
-5.1448569 2.6175215 -0.32242602
-5.1743741 2.632539 0
-5.1725416 2.6316066 0.32416099
-5.1536717 2.614172 -0.96340406
-5.1437187 2.6091232 -0.64286494
-5.1433768 2.6089499 -0.32213545
-5.172905 2.6239278 0
-5.1733937 2.6241758 0.32401544
-5.1568265 2.6079428 -0.96340406
-5.1491733 2.6040723 -0.64315295
-5.1511679 2.6050808 -0.32242602
-5.1737514 2.6165023 0
-5.169611 2.6144083 0.32358044
-5.1531043 2.5982459 -0.96212143
-5.1453853 2.5943539 -0.64228779
-5.1473489 2.5953441 -0.32199046
-5.1769094 2.6102488 0
-5.1658034 2.6046491 0.32314488
-5.1585312 2.5931695 -0.96254897
-5.1508336 2.5892999 -0.64257693
-5.1504807 2.5891225 -0.32199046
-5.1707587 2.5993161 0
-5.1666274 2.5972393 0.32299989
-5.1616607 2.5869343 -0.96254897
-5.1516399 2.581912 -0.64228779
-5.1559262 2.5840604 -0.32213545
-5.1669226 2.5895715 0
-5.1697621 2.5909946 0.32299989
-5.1578918 2.5772524 -0.96126467
-5.1501327 2.5733755 -0.64171177
-5.1520786 2.5743477 -0.32170045
-5.1677127 2.5821598 0
-5.1682358 2.5824208 0.32270932
-5.1564107 2.5687311 -0.96040952
-5.1578641 2.5694551 -0.64228779
-5.1505289 2.5658009 -0.32140991
-5.1685019 2.5747542 0
-5.1760082 2.5784938 0.32299989
-5.1572051 2.5613534 -0.95998037
-5.1470704 2.55632 -0.6405586
-5.1396666 2.5526431 -0.32053936
-5.1786041 2.5719814 0
-5.1861038 2.5757062 0.32343546
-5.1602964 2.5551202 -0.95998037
-5.1362524 2.543215 -0.63882941
-5.1543884 2.5521948 -0.32126489
-5.179378 2.5645685 0
-5.1845508 2.5671299 0.32314488
-5.1610804 2.5477479 -0.95955276
-5.1462731 2.5404384 -0.63969344
-5.1597962 2.5471139 -0.32140991
-5.1824727 2.5583084 0
-5.1899767 2.5620124 0.32328987
-5.1526408 2.5358431 -0.95741338
-5.1609402 2.5399277 -0.64113462
-5.1745248 2.5466132 -0.32213545
-5.1808858 2.5497439 0
-5.1814137 2.5500038 0.32256433
-5.1580033 2.530745 -0.95784092
-5.1616855 2.5325515 -0.64084661
-5.1799288 2.5415025 -0.32228047
-5.1769514 2.5400417 0
-5.1891613 2.5460324 0.32285488
-5.1772017 2.5324075 -0.96083713
-5.1786866 2.533134 -0.64257693
-5.1783319 2.5329604 -0.32199046
-5.1730099 2.5303574 0
-5.187561 2.5374749 0.32256433
-5.1871819 2.5295267 -0.96212143
-5.186389 2.52914 -0.64315295
-5.1883974 2.5301194 -0.32242602
-5.169044 2.5206816 0
-5.1906233 2.5312047 0.32256433
-5.1902347 2.5232573 -0.96212143
-5.1871171 2.5217416 -0.64286494
-5.1867728 2.521574 -0.32213545
-5.1697474 2.5132973 0
-5.1866651 2.5215216 0.32212877
-5.1978955 2.5192211 -0.96297652
-5.1878352 2.5143452 -0.64257693
-5.1874795 2.5141728 -0.32199046
-5.1751204 2.5081828 0
-5.1897078 2.5152528 0.32212877
-5.2009358 2.5129385 -0.96297652
-5.1838803 2.504698 -0.64171177
-5.1858387 2.5056443 -0.32170045
-5.1711149 2.4985301 0
-5.1857309 2.5055921 0.32169378
-5.199347 2.5044265 -0.96212143
-5.1799102 2.495064 -0.64084661
-5.1794987 2.4948659 -0.3211199
-5.1741304 2.49228 0
-5.1864071 2.4981935 0.32154822
-5.2008595 2.5012848 -0.96212143
-5.1814165 2.4919341 -0.64084661
-5.181005 2.4917362 -0.3211199
-5.1732917 2.4880266 0
-5.185576 2.4939344 0.32140321
-5.1969314 2.4916682 -0.96083713
-5.1844239 2.4856715 -0.64084661
-5.1840119 2.4854741 -0.3211199
-5.1692519 2.4783974 0
-5.1839037 2.4854224 0.3211132
-5.1929879 2.482065 -0.95955276
-5.1757574 2.4738295 -0.63940543
-5.1752825 2.4736025 -0.3203938
-5.1769433 2.4743962 0
-5.1892452 2.4802761 0.32125822
-5.1890283 2.4724746 -0.95826846
-5.18575 2.4709127 -0.64027059
-5.1806202 2.4684682 -0.32053936
-5.1752262 2.465898 0
-5.1898952 2.4728875 0.3211132
-5.1943374 2.4673076 -0.95869768
-5.1840549 2.4624231 -0.63969344
-5.1812453 2.4610887 -0.3203938
-5.1664505 2.454061 0
-5.1811461 2.4610415 0.32038766
-5.1926703 2.4588301 -0.95784092
-5.1823554 2.4539456 -0.63911742
-5.1771765 2.4514933 -0.31995878
-5.1694117 2.4478166 0
-5.1841159 2.4547791 0.32038766
-5.190999 2.4503644 -0.95698583
-5.192327 2.4509912 -0.63998145
-5.1777782 2.4441235 -0.31981322
-5.1770773 2.4437926 0
-5.182374 2.4462929 0.32009709
-5.1962767 2.4451823 -0.95741338
-5.1859326 2.4403145 -0.63882941
-5.1760302 2.4356549 -0.31952322
-5.1776648 2.436424 0
-5.187675 2.4411345 0.32024211
-5.1945839 2.4367235 -0.95655823
-5.1865292 2.432945 -0.63854027
-5.1789694 2.4293988 -0.31952322
-5.1711802 2.425745 0
-5.1835704 2.4315572 0.31980708
-5.1951923 2.4293544 -0.95612907
-5.1777525 2.4211993 -0.63709909
-5.1701341 2.4176369 -0.31879768
-5.1788268 2.4217019 0
-5.1912074 2.4274912 0.32009709
-5.1911502 2.4198248 -0.95484638
-5.1853671 2.417129 -0.63767624
-5.1754045 2.4124849 -0.31894267
-5.1723142 2.4110444 0
-5.1870694 2.4179223 0.31966153
-5.1894102 2.4113848 -0.95398962
-5.1742058 2.40432 -0.63594592
-5.1806698 2.4073236 -0.31908768
-5.1752238 2.4047928 0
-5.1852784 2.4094651 0.31937152
-5.1899929 2.4040349 -0.95356208
-5.1818056 2.4002426 -0.63652307
-5.1717882 2.3956022 -0.31836212
-5.1804848 2.3996305 0
-5.1858306 2.402107 0.31922653
-5.1975508 2.3999121 -0.95441717
-5.1847019 2.3939795 -0.63652307
-5.1770358 2.3904397 -0.31850711
-5.1644783 2.3846414 0
-5.1816497 2.3925703 0.31879097
-5.1957874 2.3914857 -0.95356208
-5.1805401 2.3844678 -0.63565791
-5.1752043 2.3820117 -0.3182171
-5.1697178 2.3794866 0
-5.1727371 2.3808763 0.31806543
-2.9136622 1.3368187 -0.8844431
-5.1940022 2.3830628 -0.95270532
-5.1834173 2.3782063 -0.63565791
-5.1827974 2.3779218 -0.31850711
-5.1654997 2.3699853 0
-5.1708822 2.3724549 0.31777486
-2.9358065 1.342687 -0.89067191
-5.1945457 2.3757184 -0.95227778
-5.1886373 2.3730161 -0.63594592
-5.185667 2.3716576 -0.31850711
-5.1612573 2.3604939 0
-3.0164011 1.3795469 0.18526936
-2.944277 1.3422618 -0.89274907
-5.1997461 2.3705039 -0.95270532
-5.1844382 2.3635252 -0.63508075
-5.1814427 2.3621595 -0.31807211
-5.1735778 2.3585739 0
-3.0369804 1.3845241 0.18643047
-2.9344702 1.3335106 -0.88928628
-5.197937 2.3620973 -0.95185018
-5.1872902 2.357259 -0.63508075
-5.1819205 2.3548191 -0.31792656
-5.1716895 2.3501697 0
-3.0244617 1.3744055 0.18555991
-2.9292302 1.3268614 -0.88721174
-5.196106 2.3536944 -0.95099342
-5.1830735 2.347791 -0.63421673
-5.1776681 2.3453426 -0.31749156
-5.1674113 2.3406966 0
-3.0142879 1.3653903 0.18483436
-2.9117444 1.3168213 -0.88167447
-5.1858344 2.3452668 -0.94885403
-5.1797729 2.3425255 -0.63363957
-5.1790843 2.3422141 -0.31749156
-5.1522231 2.3300664 0
-3.0151122 1.3635689 0.18483436
-2.9270515 1.3194861 -0.88582611
-2.9785669 1.3427087 -0.72378653
-5.1910114 2.3400569 -0.94928324
-5.1825995 2.3362651 -0.63363957
-5.1771679 2.3338165 -0.31720099
-5.164525 2.3281174 0
-3.0120153 1.357787 0.1845438
-2.9149179 1.309781 -0.88167447
-2.9732318 1.3359834 -0.72209734
-5.1891475 2.3316767 -0.94842649
-5.1807046 2.327883 -0.63306355
-5.1847291 2.3296914 -0.31749156
-3.0380902 1.3651267 0
-3.008918 1.3520186 0.1842538
-0 0 -0
-2.9910786 1.3396612 -0.7260381
-3.0249658 1.3548387 -0.5525769
-5.1858721 2.3226776 -0.63335156
-5.2136197 2.3351054 -0.31908768
-3.0516109 1.3667728 0
-2.9963162 1.342007 0.18338268
-2.8928733 1.291482 -0.87406003
-2.9741337 1.3277596 -0.72153503
-3.007848 1.3428109 -0.54915315
-2.9946651 1.3369256 -0.36554149
-3.0431292 1.3585616 -0.18614717
-3.0318744 1.3535372 0
-2.9908242 1.3352108 0.18294768
-2.8875532 1.2849247 -0.87198287
-2.9664502 1.320033 -0.71928346
-3.000087 1.3350009 -0.54744124
-3.0081005 1.3385669 -0.36698377
-3.0590081 1.36122 -0.18701772
-3.0311322 1.3488157 0
-2.9924352 1.331596 0.18294768
-2.8982768 1.2855035 -0.87475151
-2.963402 1.3143891 -0.71815878
-3.0016978 1.3313749 -0.54744124
-3.0168021 1.3380742 -0.36784783
-3.0535223 1.3543612 -0.18658216
-3.0327599 1.3451521 0
-2.9940422 1.3279792 0.18294768
-0 0 -0
-0 0 -0
-2.9845304 1.3194472 -0.54401916
-3.0018642 1.3271103 -0.3658306
-3.0504081 1.3485713 -0.18629216
-3.0224841 1.3362262 0
-2.9837549 1.3191042 0.18222156
-2.8830178 1.2704066 -0.86921686
-2.9502914 1.3000509 -0.71421808
-2.9814198 1.3137677 -0.54316241
-2.9939981 1.3193103 -0.36467743
-3.0353882 1.337549 -0.18527605
-3.005044 1.3241777 0
-2.9948578 1.3196892 0.18280213
-2.8914349 1.2699457 -0.8712914
-2.9518602 1.2964851 -0.71421808
-2.983005 1.3101642 -0.54316241
-2.9861174 1.3115312 -0.36352426
-3.0370023 1.3338803 -0.18527605
-3.0161731 1.3247319 0
-2.9916966 1.3139817 0.18251212
-2.8929672 1.2664511 -0.8712914
-2.9487736 1.2908814 -0.7130934
-2.9728303 1.3014126 -0.54102302
-2.9948013 1.3110309 -0.36438832
-3.0267122 1.3250005 -0.18455049
-3.0153806 1.3200399 0
-2.9909041 1.3093247 0.18236712
-2.8967927 1.2639569 -0.87198287
-2.9363537 1.2812185 -0.70971501
-2.9626386 1.2926874 -0.53888357
-2.9845324 1.3022404 -0.36294714
-3.0211639 1.3182238 -0.18411493
-3.0145905 1.3153555 0
-2.9829576 1.3015532 0.18178657
-2.9075203 1.2644579 -0.87475151
-2.933244 1.2756449 -0.70859027
-2.9618375 1.28808 -0.53845435
-2.9955912 1.3027593 -0.36410031
-3.0203741 1.3135371 -0.18396993
-3.0209553 1.3137898 0
-2.9845281 1.2979479 0.18178657
-2.8952394 1.2549592 -0.87059987
-2.9301159 1.2700768 -0.70746344
-2.9563324 1.2814404 -0.53717172
-2.9852998 1.2939965 -0.36265913
-3.0148044 1.3067853 -0.18353437
-3.0129893 1.3059986 0
-2.9765577 1.2902071 0.181206
-2.8982637 1.2479589 -0.87059987
-2.9261823 1.2599803 -0.70577639
-2.9570651 1.2732781 -0.53674412
-2.9717865 1.279617 -0.36064079
-3.0012541 1.2923054 -0.18251881
-2.999402 1.2915078 0
-2.974889 1.2809529 0.18091545
-2.8997695 1.2444561 -0.87059987
-2.9300354 1.2574447 -0.70633876
-2.9491653 1.2656546 -0.53503227
-2.9875963 1.2821474 -0.36237112
-3.0147502 1.2938008 -0.18324438
-3.0033495 1.2889081 0
-2.9644978 1.2722346 0.18018989
-2.8897402 1.2360193 -0.86713976
-2.9128633 1.2459096 -0.70183569
-2.9601336 1.2661283 -0.53674412
-2.9677427 1.2693831 -0.35977674
-3.0091419 1.2870905 -0.18280882
-2.9905524 1.2791394 0
-2.9755893 1.2727392 0.18077044
-2.9027684 1.2374448 -0.87059987
-2.9237161 1.2463747 -0.7040872
-2.9427695 1.2544972 -0.53332043
-2.9597571 1.261739 -0.35862356
-3.0011337 1.2793777 -0.18222825
-3.0040638 1.2806269 0
-2.9699516 1.2660849 0.1803349
-2.8927188 1.2290323 -0.86713976
-2.9158654 1.2388667 -0.70183569
-2.9324632 1.2459185 -0.53117931
-2.9684143 1.2611932 -0.35948762
-2.9883327 1.2696558 -0.1813577
-2.998421 1.2739421 0
-2.9762669 1.2645295 0.18062545
-2.9073138 1.2331604 -0.8712914
-2.9166133 1.2371048 -0.70183569
-2.9403074 1.2471548 -0.53246367
-2.9572723 1.2543505 -0.35804644
-2.9914889 1.2688639 -0.1815027
-3.0015929 1.2731495 0
-2.9746406 1.2617174 0.18048045
-2.8995588 1.2257391 -0.8685227
-2.8993831 1.225665 -0.69733262
-2.9181719 1.2336075 -0.52818477
-2.9516363 1.2477541 -0.35718128
-2.990629 1.2642375 -0.1813577
-2.9911366 1.2644521 0
-2.9809451 1.2601439 0.18077044
-2.9056659 1.2241846 -0.86990839
-2.9055495 1.2241356 -0.69845945
-2.9267507 1.2330679 -0.52946746
-2.9555323 1.2451938 -0.35747042
-2.9849682 1.2575954 -0.18092214
-2.9806728 1.2557857 0
-2.9657011 1.249478 0.17975433
-2.9210174 1.2264985 -0.87406003
-2.9023366 1.2186546 -0.69733262
-2.9282384 1.2295306 -0.52946746
-2.9474957 1.2376164 -0.35631725
-2.984092 1.2529827 -0.18077715
-3.0013845 1.2602437 0
-2.9624217 1.2438836 0.17946433
-2.9016707 1.2142529 -0.86783123
-2.8850555 1.2072999 -0.69282955
-2.9178839 1.2210375 -0.52732801
-2.9585328 1.2380478 -0.35747042
-2.9927974 1.2523863 -0.18121269
-2.9789019 1.2465715 0
-2.9615276 1.2393011 0.17931934
-2.8938739 1.2068833 -0.86506259
-2.9029303 1.2106602 -0.69677025
-2.9217331 1.2185019 -0.52775723
-2.9647965 1.2364614 -0.35804644
-2.9895072 1.2467669 -0.18092214
-2.980406 1.2429713 0
-2.9678149 1.2377201 0.17960933
-2.9022822 1.2062752 -0.86713976
-2.8950057 1.2032509 -0.69451874
-2.9232032 1.2149707 -0.52775723
-2.9543486 1.2279156 -0.35660526
-2.9814138 1.2391647 -0.18034159
-2.9819057 1.2393692 0
-2.9693081 1.2341332 0.17960933
-2.7842937 1.1532922 -0.99370968
-2.8875108 1.1960461 -0.86229396
-2.9011481 1.2016948 -0.69564342
-2.9294081 1.2134005 -0.52861238
-2.9438844 1.2193968 -0.35516408
-2.982909 1.2355614 -0.18034159
-2.9834011 1.2357652 0
-2.9587963 1.2255735 0.17888378
-2.8959131 1.195429 -0.86437106
-2.9025979 1.1981885 -0.69564342
-2.9332426 1.2108386 -0.52903992
-2.9405696 1.2138631 -0.35458693
-2.9699931 1.2260091 -0.17947103
-2.9848921 1.2321594 0
-2.9650741 1.2239786 0.17917377
-2.8927107 1.1900182 -0.86298543
-2.8993485 1.1927489 -0.69451874
-2.9252074 1.2033869 -0.52732801
-2.9468226 1.2122791 -0.35516408
-2.9738731 1.2234073 -0.17961602
-2.9719334 1.2226093 0
-2.9665508 1.220395 0.17917377
-2.8686192 1.1760566 -0.85537362
-2.8984387 1.1882818 -0.69395638
-2.9242864 1.1988786 -0.52690047
-2.9434943 1.2067534 -0.35458693
-2.9609284 1.2139008 -0.17874546
-2.985446 1.2239524 0
-2.9752383 1.2197676 0.17960933
-2.7967014 1.142627 -0.99615538
-2.8886175 1.1801804 -0.86091095
-2.8975136 1.183815 -0.69339186
-2.909096 1.1885471 -0.52390432
-2.9353731 1.1992829 -0.35343376
-2.9696023 1.2132677 -0.17918047
-2.9772954 1.2164108 0
-2.9574666 1.2083095 0.17844822
-2.8970053 1.1795245 -0.86298543
-2.8965907 1.1793557 -0.69282955
-2.9152896 1.186969 -0.52476108
-2.9392223 1.1967133 -0.35372287
-2.975884 1.2116402 -0.17947103
-2.9835789 1.2147733 0
-2.9637423 1.2066967 0.17873877
-2.8844848 1.1703657 -0.85883379
-2.8885958 1.1720337 -0.69057798
-2.9167216 1.1834457 -0.52476108
-2.950253 1.1970508 -0.35487604
-2.9677145 1.2041358 -0.17889047
-2.9681613 1.2043171 0
-2.9627833 1.202135 0.17859322
-2.8008249 1.1324817 -0.99615538
-2.8696136 1.1602956 -0.85398799
-2.8900099 1.1685425 -0.69057798
-2.920527 1.1808819 -0.52518862
-2.9445014 1.1905756 -0.35401091
-2.9739809 1.2024952 -0.17918047
-2.976855 1.2036574 0
-2.9642339 1.1985542 0.17859322
-2.8044815 1.1300194 -0.99696958
-2.8686888 1.1558907 -0.85329652
-2.8890653 1.164101 -0.69001561
-2.9171944 1.1754352 -0.52433348
-2.9411349 1.1850816 -0.35343376
-2.9754317 1.1989009 -0.17918047
-2.9638283 1.1942255 0
-2.9584563 1.1920609 0.17815822
-2.8081365 1.12755 -0.99778372
-2.8654318 1.1505557 -0.85191351
-2.8999014 1.1643964 -0.69226718
-2.9114635 1.1690389 -0.52304918
-2.9353712 1.1786385 -0.35256973
-2.9672327 1.1914319 -0.17859991
-2.9797552 1.19646 0
-2.9647126 1.19042 0.17844822
-2.7911389 1.1168107 -0.99126405
-2.8551669 1.1424299 -0.84845072
-2.89187 1.1571158 -0.69001561
-2.9176362 1.1674256 -0.52390432
-2.9343848 1.1741272 -0.35228059
-2.9734998 1.1897782 -0.17889047
-2.9667058 1.1870596 0
-2.9637387 1.1858724 0.17830321
-2.8154492 1.1225932 -0.99941522
-2.8705318 1.144556 -0.85260499
-2.88855 1.1517404 -0.68889093
-2.9285827 1.1677024 -0.52561617
-2.9358013 1.1705807 -0.35228059
-2.9580374 1.1794468 -0.17787436
-2.9705529 1.184437 0
-2.9699919 1.1842134 0.17859322
-2.7977557 1.1135798 -0.99289554
-2.8618991 1.1391106 -0.84983635
-2.8845193 1.148114 -0.68776411
-2.9102068 1.1583383 -0.52219242
-2.9268956 1.1649808 -0.35112742
-2.9611614 1.1786195 -0.17801934
-2.9809401 1.1864918 0
-2.9707069 1.1824188 0.17859322
-2.8059938 1.112933 -0.99534118
-2.8516157 1.1310278 -0.84637624
-2.8906329 1.1465031 -0.68889093
-2.8949077 1.1481986 -0.51919788
-2.9379182 1.1652578 -0.35228059
-2.9601703 1.1740835 -0.17787436
-2.9799547 1.1819305 0
-2.9817951 1.1826606 0.17917377
-2.7797534 1.0986401 -0.98556161
-2.8553109 1.1285026 -0.84706771
-2.8872855 1.1411399 -0.68776411
-2.9225471 1.1550763 -0.52390432
-2.9176774 1.1531516 -0.34968624
-2.9664245 1.1724179 -0.17816491
-2.9765353 1.176414 0
-2.9735558 1.1752363 0.17859322
-2.8201714 1.1106764 -0.99941522
-2.8496675 1.1222929 -0.84499055
-2.8815675 1.1348561 -0.68607491
-2.9191682 1.1496646 -0.52304918
-2.9238865 1.1515228 -0.35026339
-2.9654143 1.1678778 -0.17801934
-2.9803739 1.1737694 0
-2.9604719 1.1659313 0.17772266
-2.8054037 1.1009467 -0.99370968
-2.8626962 1.1234304 -0.84845072
-2.8876717 1.1332318 -0.68720174
-2.9086094 1.1414485 -0.52090979
-2.9349065 1.1517686 -0.35141656
-2.9547312 1.1595485 -0.17729379
-2.9793696 1.1692175 0
-2.976387 1.1680471 0.17859322
-2.8547056 1.1163158 -0.84568208
-2.9008687 1.1343677 -0.69001561
-2.9195495 1.1416727 -0.52262163
-2.9290674 1.1453946 -0.3505514
-2.9609749 1.1578718 -0.17758435
-2.9638114 1.1589811 0
-2.9705431 1.1616136 0.17815822
-2.7965436 1.089678 -0.98963565
-2.8560524 1.1128657 -0.84568208
-2.8975067 1.1290184 -0.68889093
-2.9304945 1.1418723 -0.52433348
-2.930449 1.1418545 -0.3505514
-2.9672093 1.1561782 -0.17787436
-2.9821863 1.1620141 0
-2.9695258 1.1570809 0.17801322
-2.7978582 1.0862981 -0.98963565
-2.8340125 1.1003355 -0.83876175
-2.8917606 1.1227567 -0.68720174
-2.9462256 1.1439034 -0.52690047
-2.9270091 1.1364424 -0.34997535
-2.9661844 1.1516526 -0.17772935
-2.9763079 1.1555831 0
-2.9878707 1.1600726 0.17902878
-2.8268301 1.0936182 -0.99941522
-2.8376775 1.0978147 -0.83945328
-2.888371 1.1174265 -0.68607491
-2.9117005 1.126452 -0.52048218
-2.918731 1.1291718 -0.34882218
-2.9627221 1.1461908 -0.1774388
-2.9704273 1.1491717 0
-2.9747345 1.150838 0.17815822
-2.8120039 1.0839778 -0.99370968
-2.8624151 1.1034105 -0.84637624
-2.8944654 1.1157652 -0.68720174
-2.9274263 1.1284711 -0.52304918
-2.9225044 1.1265738 -0.34911022
-2.9568384 1.1398089 -0.17700379
-2.983953 1.1502612 0
-2.9882433 1.151915 0.17888378
-2.8179307 1.0823534 -0.99534118
-2.8707654 1.1026469 -0.84845072
-2.8934417 1.1113569 -0.68663943
-2.9239905 1.1230904 -0.52219242
-2.9311094 1.1258248 -0.34997535
-2.9703393 1.1408929 -0.17772935
-2.9853406 1.1466547 0
-2.9969122 1.1510993 0.17931934
-2.812309 1.0762966 -0.99289554
-2.8814678 1.1027642 -0.85121936
-2.8947825 1.1078598 -0.68663943
-2.9397349 1.1250635 -0.52476108
-2.9058933 1.112112 -0.34680387
-2.9595842 1.13266 -0.17700379
-2.9818583 1.1411846 0
-2.9885938 1.1437624 0.17873877
-2.820538 1.0755404 -0.99534118
-2.8429503 1.0840868 -0.83945328
-2.8842416 1.0998321 -0.68382335
-2.9219034 1.1141934 -0.52133733
-2.9241545 1.1150519 -0.34882218
-2.9609506 1.1290832 -0.17700379
-2.9808056 1.1366544 0
-2.9948249 1.1420002 0.17902878
-2.8218355 1.0721315 -0.99534118
-2.8770955 1.0931271 -0.84914488
-2.8831954 1.0954447 -0.68326104
-2.9016526 1.1024573 -0.51748604
-2.9424176 1.1179457 -0.35083941
-2.9671662 1.1273485 -0.17729379
-2.9797463 1.1321284 0
-2.9864864 1.1346892 0.17844822
-2.8231289 1.0687211 -0.99534118
-2.8713732 1.0869844 -0.84706771
-2.884517 1.0919601 -0.68326104
-2.9509985 1.1171273 -0.52604538
-2.9486089 1.1162227 -0.35141656
-2.9612334 1.1210017 -0.17685823
-2.9786804 1.1276065 0
-2.9805717 1.1283225 0.17801322
-2.8244183 1.0653092 -0.99534118
-2.8586049 1.0782036 -0.84291607
-2.9048536 1.0956476 -0.68776411
-2.9355307 1.1072183 -0.52304918
-2.9451108 1.1108317 -0.35083941
-2.9625857 1.1174229 -0.17685823
-2.9727333 1.1212504 0
-2.9989448 1.1311368 0.17902878
-2.8303261 1.0636328 -0.99696958
-2.864598 1.0765121 -0.84429908
-2.9014227 1.0903509 -0.68663943
-2.9176424 1.0964462 -0.51962543
-2.9391942 1.1045454 -0.34997535
-2.9712331 1.1165855 -0.17729379
-2.9667752 1.1149101 0
-2.9978793 1.1265991 0.17888378
-2.8038332 1.0498122 -0.98718995
-2.8705912 1.0748078 -0.84568208
-2.9003518 1.0859507 -0.68607491
-2.9237778 1.0947219 -0.52048218
-2.9284084 1.0964557 -0.34853306
-2.9677179 1.111174 -0.17700379
-2.9851832 1.1177135 0
-2.9992385 1.1229759 0.17888378
-2.8143625 1.0498791 -0.99044985
-2.8648429 1.0687103 -0.84360754
-2.9064276 1.0842233 -0.68720174
-2.9226863 1.0902885 -0.52005303
-2.9442759 1.0983424 -0.35026339
-2.9763551 1.1103092 -0.1774388
-2.9816504 1.1122845 0
-3.0127635 1.1238912 0.17960933
-2.8179436 1.0473379 -0.99126405
-2.8637826 1.0643748 -0.84291607
-2.910115 1.0815951 -0.68776411
-2.9408476 1.0930173 -0.52304918
-2.9310496 1.0893757 -0.34853306
-2.9630852 1.1012822 -0.17656824
-2.9927499 1.1123077 0
-3.0092528 1.1184413 0.17931934
-2.8532968 1.0565554 -0.83945328
-2.9090393 1.0771965 -0.68720174
-2.9325368 1.0858974 -0.52133733
-2.9275174 1.0840387 -0.34795704
-2.9644136 1.0977012 -0.17656824
-2.9940917 1.1086907 0
-3.010602 1.1148044 0.17931934
-2.8244784 1.0439441 -0.99289554
-2.8798218 1.0643994 -0.84706771
-2.9120705 1.0763187 -0.68776411
-2.9404182 1.0867963 -0.52262163
-2.9427235 1.0876483 -0.34968624
-2.9772604 1.1004133 -0.17729379
-2.9874446 1.1041775 0
-3.01371 1.1138853 0.17946433
-2.8303719 1.042237 -0.99452388
-2.8763928 1.0591835 -0.84568208
-2.9109869 1.0719222 -0.68720174
-2.9272711 1.0779185 -0.52005303
-2.9294772 1.0787309 -0.34795704
-2.9859054 1.0995097 -0.17772935
-2.9887767 1.100567 0
-3.0272431 1.1147316 0.18018989
-2.8316293 1.0388163 -0.99452388
-2.8776705 1.0557071 -0.84568208
-2.9170463 1.0701526 -0.68832642
-2.9309883 1.0752674 -0.52048218
-2.9332044 1.0760804 -0.34824505
-2.9847946 1.0950069 -0.17758435
-2.9901044 1.0969548 0
-3.006635 1.1030192 0.17888378
-2.8189583 1.030305 -0.98963565
-2.8624566 1.0462033 -0.84083891
-2.9111845 1.0640129 -0.68663943
-2.9274588 1.069961 -0.51962543
-2.9442198 1.076087 -0.34939823
-2.9885538 1.0922906 -0.17772935
-2.9792082 1.0888749 0
-3.0201662 1.1038446 0.17960933
-2.8364604 1.0328184 -0.99534118
-2.8613634 1.0418862 -0.84014744
-2.9100738 1.0596226 -0.68607491
-2.9552853 1.0760852 -0.52433348
-2.9406619 1.0707605 -0.34882218
-2.99475 1.0904552 -0.17801934
-2.9878509 1.0879431 0
-3.0312641 1.1037508 0.18018989
-2.8284125 1.026019 -0.99208134
-2.8744099 1.0427048 -0.84360754
-2.9137473 1.0569746 -0.68663943
-2.9396887 1.0663849 -0.52133733
-2.9492409 1.06985 -0.34968624
-2.9862945 1.0832914 -0.1774388
-3.0013936 1.0887686 0
-3.0325956 1.1000873 0.18018989
-2.8249967 1.020919 -0.99044985
-2.8615067 1.0341133 -0.83945328
-2.9221845 1.0560415 -0.68832642
-2.94822 1.0654504 -0.52262163
-2.9408014 1.0627693 -0.34853306
-2.9778264 1.0761497 -0.17685823
-3.002707 1.0851413 0
-3.0363641 1.0973045 0.1803349
-2.8745632 1.0349064 -0.84291607
-2.9306328 1.0550927 -0.69001561
-2.9422572 1.0592778 -0.52133733
-2.9372208 1.0574646 -0.34795704
-2.9791245 1.0725508 -0.17685823
-3.0089178 1.0832771 0
-3.047467 1.0971557 0.18091545
-2.8390858 1.0182604 -0.99452388
-2.8687248 1.0288906 -0.84083891
-2.9199491 1.0472625 -0.68720174
-2.9411209 1.0548561 -0.52090979
-2.943361 1.0556595 -0.34853306
-2.9853148 1.0707065 -0.17714879
-3.0077772 1.0787629 0
-3.0683577 1.1004905 0.18207656
-2.8472989 1.0173248 -0.99696958
-2.8534262 1.0195141 -0.83599311
-2.9164224 1.0420222 -0.68607491
-2.9351387 1.0487095 -0.51962543
-2.9495106 1.0538445 -0.34911022
-2.9841616 1.0662251 -0.17700379
-3.0090785 1.0751277 0
-3.0672405 1.0959088 0.18193157
-2.8508525 1.0147116 -0.99778372
-2.8712029 1.021955 -0.84083891
-2.9224715 1.0402032 -0.68720174
-2.9267299 1.041719 -0.51791358
-2.9459035 1.0485435 -0.34853306
-2.9927847 1.06523 -0.1774388
-3.0226321 1.0758537 0
-3.0759089 1.0948166 0.18236712
-2.8357766 1.0054867 -0.99208134
-2.8937142 1.0260298 -0.84706771
-2.9165394 1.0341229 -0.68551254
-2.9328301 1.0398992 -0.51877034
-2.954484 1.047577 -0.34939823
-2.9965258 1.0624839 -0.17758435
-3.0263805 1.0730695 0
-3.0796762 1.0919666 0.18251212
-2.8299956 0.9995892 -0.98963565
-2.8689287 1.0133408 -0.83945328
-2.9249766 1.0331377 -0.68720174
-2.9437666 1.0397745 -0.52048218
-2.9533112 1.0431458 -0.34911022
-2.9978075 1.0588624 -0.17758435
-3.0031402 1.0607461 0
-3.0809934 1.0882447 0.18251212
-2.8521826 1.0035514 -0.99696958
-2.8630581 1.0073779 -0.8373788
-2.9238284 1.0287601 -0.68663943
-2.9474401 1.037068 -0.52090979
-2.9496851 1.0378579 -0.34853306
-3.0088892 1.0586891 -0.17816491
-3.0289648 1.0657527 0
-3.0945594 1.0888325 0.18323769
-2.8300729 0.9919306 -0.98882145
-2.8808393 1.009724 -0.84222192
-2.9274647 1.0260662 -0.68720174
-2.9511113 1.0343541 -0.52133733
-2.9655871 1.0394279 -0.35026339
-3.0028074 1.0524734 -0.17772935
-3.0277967 1.0612321 0
-3.0836141 1.080796 0.18251212
-2.8522682 0.99584186 -0.99615538
-2.8725832 1.0029346 -0.83945328
-2.9287026 1.0225282 -0.68720174
-2.952359 1.0307876 -0.52133733
-2.9546335 1.0315818 -0.34882218
-3.0114388 1.0514147 -0.17816491
-3.0266221 1.0567158 0
-3.0898197 1.0787807 0.18280213
-2.8394582 0.98752183 -0.99126405
-2.8856473 1.0035857 -0.84291607
-2.934731 1.0206563 -0.68832642
-2.9778438 1.0356503 -0.52561617
-2.9729714 1.0339558 -0.35083941
-3.0077939 1.0460665 -0.17787436
-3.037729 1.0564775 0
-3.091121 1.0750464 0.18280213
-2.8406494 0.98409021 -0.99126405
-2.8915944 1.0017391 -0.84429908
-2.93837 1.0179436 -0.68889093
-2.9621205 1.0261716 -0.52262163
-2.9742186 1.0303627 -0.35083941
-3.0041499 1.0407319 -0.17758435
-3.04146 1.0536573 0
-3.0899646 1.0704608 0.18265712
-2.8658018 0.98698992 -0.99941522
-2.8886659 0.99486428 -0.84291607
-2.9354007 1.01096 -0.68776411
-2.9348497 1.0107702 -0.51748604
-2.9662993 1.0216014 -0.34968624
-3.0207675 1.0403605 -0.17845491
-3.0605824 1.0540729 0
-3.0968182 1.0665525 0.18294768
-2.8599765 0.98111963 -0.99696958
-2.8922365 0.99218649 -0.84360754
-2.9366202 1.0074123 -0.68776411
-2.9312079 1.0055556 -0.51662928
-2.969985 1.0188582 -0.34997535
-3.0171113 1.035025 -0.17816491
-3.0766284 1.0554425 0
-3.1030157 1.0644946 0.18323769
-2.8541412 0.97526485 -0.99452388
-2.8934333 0.98869103 -0.84360754
-2.9258156 0.9997561 -0.68495023
-2.9324207 1.0020131 -0.51662928
-2.9712141 1.0152688 -0.34997535
-3.0208163 1.032218 -0.1783099
-3.0779016 1.0517242 0
-3.0944641 1.0573837 0.18265712
-2.862339 0.97420532 -0.99696958
-2.8922532 0.98438662 -0.84291607
-2.9342399 0.99867696 -0.68663943
-2.9263458 0.99599016 -0.51534659
-2.9528501 1.005011 -0.34766904
-3.0196037 1.0277308 -0.17816491
-3.0865636 1.0505208 0
-3.0957394 1.0536438 0.18265712
-2.8981879 0.98250055 -0.84429908
-2.9330311 0.99431264 -0.68607491
-2.9883239 1.0130572 -0.52604538
-2.9712021 1.0072528 -0.34968624
-3.0233018 1.0249149 -0.1783099
-3.100152 1.0509675 0
-3.106854 1.0532395 0.18323769
-2.8898652 0.97578758 -0.84153044
-2.9390497 0.99239522 -0.68720174
-2.9603601 0.99959075 -0.52090979
-2.9797711 1.0061451 -0.3505514
-3.0122311 1.0171055 -0.17758435
-3.1359351 1.0588752 0
-3.1056647 1.0486542 0.18309268
-2.8611708 0.96224898 -0.99534118
-2.9005537 0.97549391 -0.84429908
-2.9402468 0.9888432 -0.68720174
-0 0 -0
-2.985883 1.0041913 -0.35112742
-3.0282304 1.0184333 -0.17845491
-3.0977445 1.0418117 0
-3.10939 1.0457283 0.18323769
-2.8740473 0.96271557 -0.99941522
-2.8993537 0.97119236 -0.84360754
-2.9414394 0.98528981 -0.68720174
-0 0 -0
-2.9846442 0.999762 -0.35083941
-3.0319204 1.0155981 -0.17859991
-3.1113374 1.0422002 0
-3.1131129 1.0427949 0.18338268
-2.8728662 0.95846063 -0.99860108
-2.9052801 0.96927476 -0.84499055
-2.9450357 0.98253828 -0.68776411
-0 0 -0
-2.9981153 1.0002469 -0.35228059
-3.0208232 1.0078229 -0.17787436
-3.0953205 1.0326771 0
-3.1143706 1.0390327 0.18338268
-2.855258 0.94875365 -0.99208134
-2.9064491 0.96576357 -0.84499055
-2.9486299 0.97977954 -0.68832642
-0 0 -0
-3.0042355 0.99825633 -0.35285774
-3.0171118 1.0025349 -0.17758435
-3.1015005 1.0305759 0
-3.1156237 1.0352688 0.18338268
-2.8775182 0.95229107 -0.99941522
-2.917141 0.96540385 -0.84775919
-2.9329329 0.97063011 -0.68438786
-0 0 -0
