# .PCD v0.7 - Point Cloud Data file format
VERSION 0.7
FIELDS x y z
SIZE 4 4 4
TYPE F F F
COUNT 1 1 1
WIDTH 1739
HEIGHT 1
VIEWPOINT 0 0 0 1 0 0 0
POINTS 1739
DATA ascii
-6.1528168 8.1434326 -0.57009614
-6.1377335 8.1234694 0
-6.8920641 9.1218481 0.63859195
-0 0 -0
-0 0 -0
-6.1861877 8.1670647 -0.57227337
-6.1428289 8.1098223 0
-6.8905296 9.0969439 0.63743085
-0 0 -0
-6.579464 8.6645002 -0.60768574
-6.1620641 8.1148252 0
-6.8465209 9.0161867 0.63235134
-0 0 -0
-6.7111139 8.815733 -0.61886078
-6.649488 8.7347813 0
-6.777144 8.9024696 0.62494963
-6.7532902 8.8489304 -0.62176359
-6.5732031 8.6129599 0
-6.7768593 8.8798132 0.62393355
-6.7639771 8.840764 -0.62176359
-0 0 0
-6.7875838 8.8716183 0.62393355
-6.7635832 8.8181496 -0.62074745
-6.5654912 8.5598831 0
-0 0 0
-6.7251368 8.7461195 -0.61624855
-6.5678988 8.5416307 0
-6.7979202 8.8407764 0.62291801
-6.613121 8.5896978 -0.60550851
-6.5952821 8.5665274 0
-6.7493682 8.7666674 0.61798352
-0 0 -0
-6.5377655 8.4706259 -0.59767127
-6.960207 9.0179605 0
-6.5884967 8.536356 0.60230905
-6.5161991 8.4216261 -0.594769
-6.9456167 8.9766111 0
-6.5479283 8.4626331 0.59766513
-0 0 -0
-6.5215912 8.4075842 -0.59433347
-6.9357238 8.9414806 0
-6.5454082 8.4382896 0.59650397
-0 0 -0
-6.5365319 8.4058542 -0.594769
-6.935338 8.9187107 0
-6.5300784 8.3975544 0.59418178
-6.5370955 8.3856497 -0.59389788
-6.941308 8.9041653 0
-6.5242414 8.3691607 0.5927301
-6.5296273 8.3552294 -0.59230179
-6.9504609 8.8937225 0
-7.2239313 9.2436523 0.65528202
-6.5317011 8.337101 -0.59157568
-6.9933023 8.9262905 0
-7.2030511 9.1940155 0.65237975
-6.5497999 8.339426 -0.59230179
-7.0362325 8.9587679 0
-7.1804519 9.1423931 0.64933199
-6.574337 8.3498774 -0.5936079
-6.918262 8.7866869 0
-7.1432729 9.0724669 0.64497805
-0 0 -0
-6.6198363 8.386796 -0.59680068
-6.8724437 8.7068281 0
-7.0801768 8.9700098 0.63830191
-0 0 -0
-6.6622133 8.4195452 -0.59970349
-6.8748798 8.6883078 0
-7.0748835 8.9410677 0.63685024
-6.6869135 8.4298086 -0.60100961
-6.8789034 8.6718388 0
-7.0759959 8.9203014 0.63597971
-6.6857719 8.4074841 -0.59999347
-6.8861403 8.6594505 0
-7.0786843 8.9015779 0.63525414
-6.6894469 8.3912716 -0.59941292
-6.8884888 8.6409512 0
-7.0959139 8.9011459 0.63583469
-6.7158065 8.4034853 -0.60086459
-6.897295 8.6305819 0
-14.926932 18.678064 1.3355157
-6.7324538 8.4034767 -0.60144514
-6.8914495 8.6019354 0
-14.923495 18.627567 1.3331935
-6.7360945 8.3872318 -0.60086459
-6.9165034 8.6118622 0
-14.996434 18.672327 1.337693
-6.7266693 8.3547983 -0.59912294
-6.9366999 8.6156654 0
-20.164856 25.045574 1.7960192
-6.7220731 8.3284683 -0.59781682
-6.9618144 8.6255016 0
-20.175526 24.996935 1.794278
-6.9735675 8.6293907 0
-20.188986 24.982714 1.7941325
-6.9905424 8.6290474 0
-6.9709706 8.604888 0.61856407
-6.9878383 8.6044321 0
-6.987915 8.6045265 0.61914462
-6.8884711 8.4611654 -0.60942739
-7.0080853 8.6080885 0
-0 0 0
-6.9183993 8.476985 -0.6111685
-7.0267076 8.6096935 0
-0 0 0
-6.9878716 8.5410194 -0.61639357
-7.0420513 8.6072407 0
-7.0042467 8.5610342 0.61783797
-0 0 -0
-7.0327897 8.5747595 -0.61944133
-7.0474935 8.5926876 0
-7.0063481 8.5425205 0.6171124
-0 0 -0
-7.0546989 8.580307 -0.62045747
-7.0198603 8.5379353 0
-7.0018144 8.5159864 0.61580628
-7.0634036 8.569766 -0.62031192
-6.9656215 8.4511299 0
-9.3273849 11.316571 0.81913596
-0 0 -0
-7.0687928 8.5552216 -0.61987692
-6.9459863 8.4065914 0
-9.4271173 11.409455 0.82668322
-0 0 -0
-7.0857553 8.554678 -0.62045747
-6.9478402 8.3881721 0
-9.4889631 11.456087 0.83089215
-0 0 -0
-5.9375024 7.1507797 -0.51915485
-6.9646206 8.3877802 0
-9.5011339 11.442609 0.83074659
-0 0 -0
-5.9594374 7.1595774 -0.52031595
-6.9647641 8.3673611 0
-9.5016613 11.415151 0.82958603
-0 0 -0
-7.1183815 8.5309305 -0.62060243
-6.9715314 8.3549395 0
-9.4971333 11.381713 0.82798934
-0 0 -0
-7.1170125 8.5083694 -0.61958635
-6.9782853 8.3425207 0
-9.467535 11.318413 0.82421601
-0 0 -0
-7.1055851 8.4738808 -0.61769968
-6.9666238 8.3081598 0
-9.4544916 11.275107 0.82189375
-0 0 -0
-5.9454856 7.0730095 -0.51610702
-6.9632607 8.2837992 0
-9.3878593 11.168207 0.81492764
-5.9255643 7.032042 -0.51363981
-6.9682322 8.2694073 0
-9.3912973 11.14493 0.81405652
-5.9139419 7.0010648 -0.5118987
-6.9563885 8.2351379 0
-9.3963747 11.123651 0.81333095
-5.9257522 6.9978757 -0.51218867
-6.9629736 8.2227573 0
-9.4014139 11.102376 0.81260538
-5.9358835 6.9926896 -0.51233369
-6.9577479 8.1964836 0
-9.5409365 11.239574 0.82349044
-0 0 -0
-7.072557 8.321538 -0.61000741
-6.9508991 8.1783953 0
-9.6638288 11.370416 0.83350438
-7.0657582 8.29321 -0.60855627
-6.9641485 8.1739492 0
-9.7163143 11.404217 0.83684212
-7.0690236 8.276763 -0.60797572
-9.5125561 11.137773 0
-9.7284012 11.390494 0.83669716
-0 0 -0
-5.8859801 6.8747592 -0.50551254
-9.5141573 11.112431 0
-9.742157 11.378731 0.83669716
-0 0 -0
-0 0 -0
-11.151274 12.992753 0
-9.744051 11.353147 0.83568102
-0 0 -0
-0 0 -0
-11.156777 12.967429 0
-9.7120094 11.288187 0.83176267
-0 0 -0
-11.17074 12.951969 0
-9.6509771 11.189873 0.82537711
-0 0 -0
-0 0 -0
-11.174465 12.92468 0
-9.6372995 11.146753 0.82305485
-0 0 -0
-0 0 -0
-11.207122 12.930839 0
-9.6490602 11.133139 0.82290989
-5.832706 6.7134004 -0.99125403
-0 0 -0
-9.5466776 10.988154 0
-9.6607971 11.119504 0.82276434
-0 0 -0
-0 0 -0
-9.5462742 10.960911 0
-9.6810513 11.115661 0.82334489
-0 0 -0
-0 0 -0
-13.475475 15.434673 0
-9.6756821 11.082429 0.82174873
-0 0 -0
-0 0 -0
-13.473258 15.357066 0
-9.6578836 11.008233 0.8179754
-0 0 -0
-0 0 -0
-14.194719 16.14002 0
-9.6831856 11.010208 0.81899095
-0 0 -0
-0 0 -0
-14.205607 16.113098 0
-9.7171021 11.02189 0.82073265
-0 0 -0
-0 0 -0
-9.7719765 11.05717 0
-9.7252493 11.004297 0.82029706
-5.9110484 6.6721945 -0.99356037
-0 0 -0
-9.774972 11.033662 0
-9.7178679 10.969206 0.81855595
-0 0 -0
-0 0 -0
-9.7813845 11.014059 0
-9.6948824 10.916656 0.81550819
-0 0 -0
-0 0 -0
-9.8016071 11.010008 0
-9.682148 10.875821 0.81333095
-0 0 -0
-0 0 -0
-9.8117237 11.007974 0
-9.6800737 10.860272 0.81260538
-0 0 -0
-0 0 -0
-9.8215466 10.992225 0
-9.7035732 10.86019 0.81347597
-0 0 -0
-0 0 -0
-9.8296108 10.974531 0
-9.7288265 10.862008 0.81449205
-0 0 -0
-0 0 -0
-9.8359089 10.954901 0
-9.7454119 10.854108 0.81478208
-0 0 -0
-0 0 -0
-9.8352175 10.92754 0
-9.7515669 10.834599 0.81420147
-0 0 -0
-0 0 -0
-9.8222618 10.886662 0
-9.7507324 10.807382 0.81304091
-0 0 -0
-0 0 -0
-9.7428894 10.772489 0
-9.755064 10.785951 0.81231481
-0 0 -0
-0 0 -0
-9.6964693 10.695158 0
-9.7523842 10.756832 0.81100869
-0 0 -0
-0 0 -0
-9.6971378 10.669958 0
-9.7444029 10.721965 0.80926704
-5.8568759 6.4288158 -0.96934491
-0 0 -0
-9.7328062 10.683241 0
-9.7381067 10.689059 0.80767089
-0 0 -0
-0 0 -0
-9.7404404 10.665706 0
-9.71597 10.63891 0.80476815
-5.872395 6.4146433 -0.96934491
-0 0 -0
-9.7181749 10.615537 0
-9.7253122 10.623333 0.80447811
-5.8696451 6.3961053 -0.96761459
-0 0 -0
-9.7116432 10.5827 0
-9.7574615 10.632628 0.80607426
-5.8528571 6.3623624 -0.96357906
-0 0 -0
-9.7244234 10.570957 0
-9.7632656 10.613181 0.80549371
-5.8430099 6.3362751 -0.9606967
-0 0 -0
-9.7601233 10.58407 0
-11.375463 12.335777 0.93727362
-5.8892841 6.3709912 -0.96703857
-0 0 -0
-9.7852726 10.585649 0
-11.392123 12.323929 0.93741864
-5.8741255 6.3392091 -0.96329105
-0 0 -0
-9.7909803 10.566181 0
-11.401712 12.304442 0.93698364
-5.8976216 6.3491607 -0.9658854
-5.8923388 6.3434734 -0.48359749
-9.7877951 10.537176 0
-11.407724 12.281132 0.93625754
-5.8735662 6.3079605 -0.9606967
-5.8858404 6.3211427 -0.48243693
-9.7827883 10.506299 0
-9.7156553 10.434201 0.7963503
-5.8547091 6.2724948 -0.95637202
-5.8828325 6.3026252 -0.4815658
-5.8871574 6.3072591 0
-9.7052088 10.397762 0.79446363
-5.8832183 6.2954092 -0.96040756
-5.8830943 6.2952766 -0.4812758
-5.8856344 6.2979951 0
-14.590231 15.612454 1.1935768
-5.8324757 6.2260141 -0.95089531
-5.8871403 6.2843671 -0.48098525
-5.889678 6.2870765 0
-9.6476545 10.298617 0.78822309
-5.9072723 6.2906065 -0.96184987
-5.8804994 6.2620955 -0.47982413
-9.8627634 10.502776 0
-9.6885519 10.31726 0.79054528
-5.8882747 6.2552123 -0.95752519
-5.896965 6.2644439 -0.48054969
-9.8611755 10.475691 0
-9.7366323 10.343387 0.79344809
-5.8940554 6.2462134 -0.95723718
-5.8920517 6.2440901 -0.47953412
-9.8898993 10.480802 0
-9.7901344 10.375075 0.79678589
-5.8589411 6.1939902 -0.95031816
-7.6494064 8.0868454 -0.62176359
-9.9114971 10.478295 0
-9.8098059 10.37079 0.79736644
-5.8557463 6.1756487 -0.94858897
-7.5125685 7.9229836 -0.60986239
-9.9062471 10.447431 0
-9.8223295 10.358929 0.79736644
-5.8899279 6.1966844 -0.95291251
-7.4899163 7.880003 -0.60725015
-9.8812132 10.395842 0
-9.8527374 10.365884 0.79881757
-5.8385415 6.1277766 -0.9434002
-5.9293318 6.2230649 -0.4801147
-9.825551 10.3123 0
-9.8975229 10.387836 0.80143034
-5.8280735 6.1020098 -0.94051677
-5.8812089 6.1576428 -0.47561523
-9.8631668 10.326764 0
-9.8975029 10.362715 0.8004142
-5.8515387 6.1117759 -0.94311112
-5.892242 6.1542892 -0.47590578
-9.8612385 10.2998 0
-9.9082222 10.348873 0.80026925
-5.8642941 6.110301 -0.94397628
-5.8978767 6.1452923 -0.47576079
-15.070552 15.702762 0
-8.9905481 9.3677006 0.72523558
-5.8017426 6.0305228 -0.93273371
-5.8836794 6.1156907 -0.47401911
-15.029974 15.622651 0
-9.0162725 9.3718109 0.72639674
-5.8467278 6.0626035 -0.93878758
-5.9036927 6.1216712 -0.47503522
-15.095808 15.653181 0
-9.0384159 9.3721361 0.72726786
-5.8001213 5.9997501 -0.93013936
-5.8803778 6.0827689 -0.47256744
-0 0 0
-9.0515385 9.3630743 0.72741282
-5.8937578 6.0818863 -0.94397628
-5.8750701 6.062602 -0.47155187
-5.8267593 6.0127492 0
-9.061038 9.3502665 0.72726786
-5.8344221 6.0061183 -0.93330973
-5.8751493 6.0480437 -0.47097132
-0 0 0
-9.0650873 9.3318558 0.72668725
-5.8452878 6.0027738 -0.93388689
-5.886075 6.0446601 -0.47126132
-0 0 0
-9.0745459 9.3190355 0.72654229
-5.8651781 6.0086575 -0.93590409
-5.8897481 6.0338283 -0.47097132
-0 0 0
-9.0658321 9.2876081 0.7249456
-5.8543487 5.9830823 -0.93302172
-5.8770423 6.0062757 -0.46937466
-0 0 0
-13.712717 14.014253 1.0951771
-5.8507099 5.9649286 -0.93129253
-5.895216 6.0103035 -0.47024575
-0 0 0
-9.9160986 10.109682 0.79098088
-5.8506846 5.9576988 -0.93071538
-5.8806362 5.9881978 -0.46879408
-0 0 0
-9.9276609 10.109246 0.79141587
-5.8506212 5.9432521 -0.92956221
-5.8951592 5.9884949 -0.46937466
-0 0 0
-9.9508095 10.108357 0.79228699
-5.8523464 5.9306536 -0.92869705
-5.8950901 5.973969 -0.46879408
-0 0 0
-9.3187752 9.4434643 0.74105513
-5.8213186 5.8849707 -0.92264426
-5.8895178 5.9539156 -0.46777853
-0 0 0
-9.6335039 9.7388391 0.76514685
-5.8429875 5.8926187 -0.92494953
-5.9021912 5.9523253 -0.46821353
-0 0 0
-9.6873465 9.7696323 0.76848519
-5.8355236 5.8708858 -0.92264426
-5.9167066 5.9525609 -0.46879408
-0 0 0
-9.7064714 9.7652912 0.7690658
-5.8517394 5.8729901 -0.9240855
-5.9165583 5.9380445 -0.46821353
-0 0 0
-9.710928 9.7461929 0.76848519
-5.8040004 5.8110175 -0.91543728
-5.8998594 5.9069924 -0.46632686
-0 0 0
-9.6988268 9.7105532 0.76659852
-5.8329711 5.8259273 -0.91889566
-8.1719007 8.1620321 -0.64512974
-0 0 0
-9.3612576 9.3499537 0.73902345
-5.8510032 5.8298321 -0.92062598
-8.1854343 8.155817 -0.64541978
-5.8740602 5.8528056 0
-9.300766 9.2671127 0.73336339
-5.8745513 5.8391666 -0.92322034
-8.1805401 8.1312656 -0.64425868
-5.9051213 5.8695526 0
-9.2400808 9.1844244 0.72770286
-5.8430347 5.7938213 -0.91716647
-8.1848288 8.1158915 -0.64382362
-5.8734031 5.8239336 0
-9.2050524 9.1275225 0.72407502
-5.826128 5.7631125 -0.91341895
-8.1853876 8.0968542 -0.64309752
-5.873035 5.8095117 0
-9.2105303 9.1109095 0.72363949
-5.8220448 5.7451715 -0.91168976
-8.1729774 8.0650635 -0.64135641
-5.8893104 5.8115492 0
-9.2104321 9.0888195 0.72276837
-5.854784 5.7635322 -0.91572529
-8.1771593 8.0497112 -0.64092088
-5.8944755 5.8026052 0
-9.2325211 9.088624 0.72363949
-5.8188081 5.7004938 -0.9079411
-8.2040129 8.0372009 -0.64150143
-5.8434196 5.7246051 0
-9.6238136 9.4281311 0.75252068
-5.831243 5.698884 -0.90880626
-0 0 -0
-5.8633556 5.730268 0
-9.6482086 9.4292107 0.75353682
-5.8621984 5.7153044 -0.91255379
-8.1936436 7.9883285 -0.63917917
-5.8907752 5.743165 0
-9.6726131 9.4302387 0.75455236
-5.8264599 5.6667457 -0.9059239
-8.1827974 7.9584918 -0.63758254
-5.8753223 5.7142692 0
-9.6765499 9.4112978 0.75397182
-5.8240228 5.6506977 -0.90448272
-8.212924 7.9685044 -0.63917917
-5.8878284 5.712604 0
-9.6879148 9.3995981 0.75397182
-5.8327031 5.6454535 -0.90477073
-8.237483 7.973032 -0.64034033
-5.9171667 5.7272053 0
-9.6974001 9.3860798 0.7538268
-5.8398285 5.6455207 -0.90534675
-8.2628508 7.9879222 -0.64193696
-5.8701038 5.674789 0
-9.7068081 9.3838348 0.75411737
-5.8261714 5.6187153 -0.90217638
-0 0 -0
-5.8563557 5.6478243 0
-7.1839032 6.9281011 0.55746329
-5.8329563 5.6116714 -0.90217638
-8.308342 7.9931483 -0.64396864
-5.8669229 5.6443491 0
-7.2016301 6.9284215 0.55818886
-5.8359971 5.6010337 -0.90159923
-8.3142414 7.9795017 -0.64367807
-5.8493309 5.613831 0
-7.2324934 6.9413056 0.5599305
-5.8259478 5.5778813 -0.89900488
-8.3107443 7.9568758 -0.64266253
-5.8579879 5.6085572 0
-7.2802887 6.9702969 0.56297833
-5.8382964 5.5761991 -0.89987004
-8.3165903 7.9432354 -0.64237195
-5.8402963 5.5781088 0
-7.3601069 7.0296907 0.56849331
-5.8375397 5.5620036 -0.89871687
-8.3318281 7.9385595 -0.64280754
-5.8470321 5.5710478 0
-7.4062204 7.0566411 0.57139611
-5.829258 5.5406904 -0.89641052
-8.3301172 7.9177489 -0.64193696
-5.8669658 5.5765314 0
-7.4260383 7.0584249 0.5722667
-8.3396778 7.9076777 -0.64193696
-5.8359294 5.5336246 0
-7.4326777 7.0476604 0.57212168
-8.3567705 7.9047308 -0.64251697
-5.8520627 5.5355091 0
-7.4430742 7.0404582 0.5722667
-8.3776588 7.9053307 -0.64338809
-5.8568563 5.52665 0
-7.4515758 7.0314598 0.5722667
-8.4269361 7.9326024 -0.64643586
-5.8445835 5.5017338 0
-7.452498 7.0153265 0.57168615
-8.5368977 8.0166807 -0.6541276
-5.7943163 5.4412255 0
-7.4590769 7.0045395 0.57154113
-8.5845041 8.0418882 -0.65703034
-5.698329 5.3381443 0
-7.471324 6.9990711 0.57183111
-0 0 -0
-8.5885181 8.026186 -0.65659481
-5.6629467 5.2921658 0
-5.6630259 5.2922397 0.43294004
-0 0 -0
-5.7330914 5.3447552 -0.87363625
-5.6542988 5.2712998 -0.43178561
-0 0 0
-5.6713152 5.2871637 0.43308502
-0 0 -0
-5.6644659 5.2679996 -0.43207562
-0 0 0
-5.6776996 5.2803068 0.43308502
-0 0 -0
-5.6651182 5.2558546 -0.43164062
-0 0 0
-5.676456 5.2663736 0.43250448
-0 0 -0
-5.6809978 5.2578292 -0.43236616
-0 0 0
-5.6751871 5.2524509 0.43192393
-0 0 -0
-5.6778026 5.2421489 -0.43164062
-5.6680422 5.2331376 0
-5.6777148 5.2420678 0.43163392
-0 0 -0
-5.6764874 5.2282434 -0.43106005
-5.6628795 5.2157097 0
-5.6802182 5.2316794 0.43134338
-0 0 -0
-5.6739063 5.2195334 -0.43062449
-5.6468797 5.1946712 0
-5.6719074 5.2176948 0.43047279
-5.6472178 5.1823983 -0.85432148
-5.6648932 5.1986189 -0.42946339
-5.6569834 5.19136 0
-5.6724629 5.2055655 0.43003726
-5.6496634 5.172081 -0.85374546
-5.6711702 5.1917701 -0.42946339
-5.6363816 5.1599221 0
-5.6730042 5.1934485 0.42960224
-5.6463614 5.1565313 -0.85230428
-5.6678476 5.1761541 -0.42873782
-5.6426125 5.1531076 0
-5.6735172 5.1813316 0.4291667
-5.6468501 5.1444778 -0.85143912
-5.67026 5.1658053 -0.42844781
-5.6469126 5.1445351 0
-5.666326 5.1622214 0.42815056
-5.6511497 5.1359129 -0.85115111
-5.672648 5.1554513 -0.42815727
-5.6531248 5.1377082 0
-5.6687174 5.1518788 0.42786059
-5.6496868 5.1221318 -0.84999794
-5.6673269 5.1381249 -0.42728671
-5.6419778 5.1151428 0
-5.6653147 5.1363006 0.42713502
-5.6443582 5.1048884 -0.84826761
-5.6715984 5.1295252 -0.42714116
-5.6539392 5.113554 0
-5.6676588 5.1259623 0.42684445
-5.637085 5.0859413 -0.84625041
-5.6681476 5.1139669 -0.42641559
-5.6504545 5.0980034 0
-5.6699934 5.1156325 0.42655447
-5.6451468 5.0808549 -0.84653842
-5.6685343 5.1019044 -0.4259806
-5.6411352 5.0772443 0
-5.6684451 5.1018243 0.42597389
-5.6474366 5.0705776 -0.84596241
-5.6688924 5.0898418 -0.42554504
-5.6453314 5.0686874 0
-5.6649399 5.0862932 0.42524835
-5.6439204 5.0551167 -0.84452009
-5.6711636 5.0795178 -0.42525446
-5.6378798 5.049706 0
-5.6594644 5.0690393 0.42437723
-5.6461706 5.0448503 -0.84394407
-5.6714897 5.0674725 -0.42481947
-5.645916 5.0446224 0
-5.6636496 5.0604677 0.42423221
-5.6426101 5.0294209 -0.84250289
-5.6717873 5.0554276 -0.42438391
-5.6403542 5.0274105 0
-5.6697602 5.0536203 0.42423221
-5.6409516 5.0157247 -0.84134972
-5.6740041 5.045114 -0.42409337
-5.6405883 5.0154018 0
-5.6661549 5.0381346 0.42350668
-5.6431341 5.0054688 -0.84077257
-5.6664944 5.0261893 -0.42307779
-5.6427541 5.0051322 0
-5.6683469 5.0278325 0.4232161
-5.645308 4.9952221 -0.84019655
-5.6628351 5.0107312 -0.42235225
-5.6429486 4.9931345 0
-5.6685853 5.0158191 0.42278111
-5.6397009 4.9781241 -0.83846623
-5.6688857 5.0038848 -0.42235225
-5.6489778 4.9863129 0
-5.6668496 5.0020876 0.42220056
-5.6418333 4.9678907 -0.83789021
-5.6690755 4.9918785 -0.42191669
-5.6549988 4.9794831 0
-5.6709337 4.9935145 0.42205501
-5.6420002 4.9559474 -0.83702505
-5.667294 4.9781651 -0.42133614
-5.6355948 4.9503207 0
-5.6691542 4.9797993 0.42147443
-5.6440978 4.9457207 -0.83644903
-5.6654878 4.9644637 -0.42075557
-5.637661 4.9400806 0
-5.6653976 4.964385 0.42074889
-5.6403346 4.9303875 -0.83500785
-5.6695275 4.9559064 -0.42061058
-5.6259856 4.9178448 0
-5.6596575 4.9472785 0.41987833
-5.6443329 4.921864 -0.8347187
-5.6657214 4.940515 -0.41988501
-0 0 0
-5.6617103 4.9370174 0.41958776
-5.6463766 4.9116483 -0.83414268
-5.6658034 4.9285474 -0.41944945
-5.6555314 4.9196119 0
-5.6598296 4.9233513 0.41900721
-5.6415329 4.9014506 -0.83298951
-5.6648531 4.9217119 -0.41915891
-5.6663609 4.9230218 0
-5.6569242 4.9148231 0.41857222
-5.6376805 4.8861623 -0.83154833
-5.6668725 4.9114633 -0.4188689
-5.6723051 4.9161716 0
-0 0 0
-5.6377087 4.87427 -0.83068317
-5.6629767 4.8961163 -0.41814333
-5.6703663 4.9025054 0
-0 0 0
-5.6377163 4.8623848 -0.82981801
-5.6688886 4.8892703 -0.41814333
-5.6782551 4.8973484 0
-5.6766686 4.8959804 0.41871721
-0 0 -0
-0 0 -0
-0 0 0
-5.6825805 4.8891177 0.41871721
-5.629827 4.8319044 -0.82693565
-5.6649132 4.8620181 -0.41698223
-5.6742744 4.8700523 0
-5.7022882 4.8940959 0.41973332
-5.6395869 4.8284597 -0.82751167
-5.6767073 4.8602409 -0.41741779
-5.6841049 4.8665748 0
-5.7101693 4.8888903 0.41987833
-5.6552567 4.8300457 -0.82895398
-5.6825757 4.8533783 -0.41741779
-5.6939425 4.8630867 0
-5.7200203 4.8853593 0.42016831
-5.6669893 4.8282361 -0.82981801
-5.7022758 4.8582997 -0.41843334
-5.7097178 4.8646402 0
-5.7358069 4.886868 0.42089388
-5.6807027 4.8280854 -0.83097118
-5.7140837 4.8564558 -0.4188689
-5.7215424 4.8627954 0
-5.7456713 4.8833027 0.42118445
-5.7003441 4.8329277 -0.83298951
-5.7298555 4.8579483 -0.41959447
-5.7373376 4.8642921 0
-5.7594957 4.8830781 0.421765
-5.7042065 4.824368 -0.8327015
-5.7377033 4.8526978 -0.41973945
-5.7471814 4.860714 0
-5.7733278 4.8828273 0.42234555
-5.7336569 4.8255568 -0.83529586
-5.7613459 4.8488603 -0.42061058
-5.7788262 4.8635721 0
-5.8010154 4.882247 0.42350668
-5.7375045 4.8169637 -0.83500785
-5.7831211 4.8552613 -0.42177168
-5.794663 4.8649516 0
-5.8148704 4.881917 0.42408723
-5.7611651 4.8249722 -0.8376022
-5.7949538 4.8532705 -0.4222067
-5.8005371 4.8579464 0
-5.8247457 4.878221 0.42437723
-5.7689738 4.819664 -0.83789021
-5.802814 4.8479357 -0.42235225
-5.812396 4.8559413 0
-5.8366199 4.8761787 0.42481279
-5.7847261 4.8209677 -0.83933139
-5.8246365 4.854229 -0.42351335
-5.8282537 4.8572435 0
-5.8484979 4.874115 0.42524835
-5.7985024 4.8205886 -0.84048456
-5.8384824 4.8538256 -0.42409337
-5.8401241 4.8551908 0
-5.8643718 4.875349 0.42597389
-5.8142757 4.8218327 -0.84192574
-5.8403463 4.8434534 -0.42380336
-5.8519902 4.8531094 0
-5.8682599 4.8666024 0.4258289
-5.8220963 4.8164573 -0.84221488
-5.8582034 4.8463273 -0.42467391
-5.865871 4.8526707 0
-5.8781366 4.8628173 0.42611891
-5.8338909 4.814353 -0.84307891
-5.8720717 4.845861 -0.42525446
-5.8757486 4.8488955 0
-5.8940268 4.8639793 0.42684445
-5.837709 4.8056579 -0.8427909
-5.8618736 4.8255506 -0.42409337
-5.8755736 4.8368282 0
-5.8858624 4.8452983 0.4258289
-5.842607 4.803771 -0.84307891
-5.8507438 4.810461 -0.42307779
-5.8684454 4.8250151 0
-5.8747368 4.8301883 0.42481279
-5.8504052 4.7983465 -0.84336692
-5.8183765 4.7720776 -0.42032
-5.8360362 4.7865615 0
-5.8966417 4.8362689 0.42597389
-5.794147 4.7405062 -0.83443069
-5.8643608 4.7979517 -0.42322281
-5.8257017 4.7663226 0
-5.9426961 4.862042 0.42887613
-5.7798367 4.7171507 -0.83154833
-5.9385958 4.8467202 -0.42815727
-5.9604959 4.864594 0
-5.9707127 4.872932 0.43047279
-5.8035822 4.7248588 -0.83414268
-5.9585552 4.8510265 -0.42917338
-5.9582968 4.8508162 0
-5.9826431 4.8706374 0.43090835
-5.8092871 4.7178431 -0.83414268
-5.9603744 4.8405437 -0.42888284
-5.9540467 4.8354053 0
-5.9844861 4.8601255 0.43061781
-5.8049369 4.7026811 -0.8327015
-5.9722781 4.8382468 -0.42931837
-5.9295578 4.8036389 0
-6.0105486 4.8692508 0.43206948
-5.7884841 4.6777792 -0.82953
-6.0003529 4.8489943 -0.43091506
-5.9940567 4.8439064 0
-0 0 0
-5.7820539 4.6610451 -0.82780081
-6.0163202 4.8498926 -0.43164062
-6.0262432 4.8578916 0
-6.0425243 4.871016 0.43352059
-5.7896953 4.6556745 -0.82808882
-6.036345 4.8540134 -0.43265617
-6.0300827 4.8489776 0
-6.0463824 4.8620844 0.4333756
-0 0 -0
-5.7993479 4.6519089 -0.82866484
-6.0340981 4.8402123 -0.43207562
-6.0318732 4.8384275 0
-6.04212 4.8466473 0.43265003
-5.8130426 4.6513619 -0.82981801
-6.0663238 4.8540273 -0.43396285
-20.543793 16.438313 0
-20.588274 16.473906 1.4728107
-5.8328109 4.6556311 -0.83183634
-6.076242 4.8499327 -0.43425286
-20.539232 16.393995 0
-20.575672 16.423082 1.4704884
-5.8465261 4.6550241 -0.83298951
-6.0800672 4.84097 -0.43410784
-20.53256 16.348095 0
-20.573137 16.380402 1.4688917
-5.864295 4.6576047 -0.8347187
-6.087945 4.8352346 -0.43425286
-14.086267 11.18775 0
-20.574604 16.340988 1.4675857
-5.8739772 4.6537309 -0.83529586
-6.1202579 4.8488503 -0.43613952
-14.109972 11.178801 0
-20.576006 16.301596 1.4662795
-5.8552446 4.6273851 -0.83183634
-6.1363039 4.8495059 -0.43686509
-14.162266 11.192404 0
-20.585497 16.268667 1.465554
-5.8770814 4.6331172 -0.83414268
-6.146244 4.8453083 -0.43715563
-14.19213 11.188173 0
-20.592899 16.234133 1.4646834
-5.8826752 4.6260123 -0.83414268
-6.1541348 4.8394828 -0.43730062
-14.193359 11.161361 0
-10.882299 8.5576124 0.77327466
-5.8801203 4.6125154 -0.83298951
-6.1681557 4.8384581 -0.4378812
-14.196599 11.136173 0
-10.878319 8.5332298 0.77225858
-5.9019852 4.6181583 -0.83529586
-6.1801391 4.8358068 -0.43831676
-14.167005 11.085334 0
-10.913178 8.5392942 0.77400023
-5.9320283 4.6301212 -0.83875537
-6.188024 4.8299332 -0.43846175
-5.8207517 4.5432668 0
-20.445814 15.958554 1.4487189
-5.8865991 4.5832272 -0.83154833
-6.2020564 4.8288379 -0.4390423
-5.8200827 4.5314384 0
-20.530684 15.984915 1.4533628
-5.820642 4.5205879 -0.82145894
-6.2509813 4.8548098 -0.44209009
-5.8029423 4.5068412 0
-20.560242 15.968063 1.4540884
-5.86833 4.5519433 -0.82780081
-6.251862 4.8494415 -0.44194511
-14.238436 11.044462 0
-20.561672 15.949268 1.4535078
-6.1683817 4.7727609 -0.8693127
-6.2618232 4.8450608 -0.44223511
-14.22707 11.008139 0
-20.541889 15.894204 1.4507506
-6.2130418 4.7953258 -0.87478942
-6.2738461 4.8422556 -0.44267064
-14.205339 10.96391 0
-20.542566 15.855084 1.4494445
-0 0 -0
-6.2838063 4.8378386 -0.44296065
-14.233013 10.957852 0
-11.202258 8.6245041 0.78967416
-6.2492285 4.799202 -0.87824893
-6.2958322 4.8349919 -0.44339621
-14.271012 10.959668 0
-11.204435 8.6046381 0.78909421
-0 0 -0
-6.2996087 4.8258023 -0.44325122
-14.385468 11.019958 0
-16.080622 12.318527 1.13146
-6.2957435 4.8107815 -0.88314962
-6.3198819 4.829226 -0.44426677
-20.908152 15.976595 0
-16.112011 12.311709 1.132621
-0 0 -0
-6.3241816 4.8204193 -0.88632113
-6.3525758 4.842062 -0.44615343
-20.92123 15.946586 0
-20.518124 15.63933 1.4410267
-6.3361726 4.8174663 -0.88718516
-6.3584218 4.834383 -0.44615343
-20.925987 15.910274 0
-20.520458 15.601945 1.4398656
-6.3522987 4.817626 -0.88862747
-6.3746166 4.8345518 -0.44687957
-19.823435 15.034225 0
-20.520662 15.563008 1.4385594
-0 0 -0
-6.3928833 4.8362489 -0.44775012
-19.822901 14.996126 0
-20.520805 15.524094 1.4372534
-6.3680477 4.8053737 -0.88920349
-6.3987222 4.8285208 -0.44775012
-19.735065 14.892219 0
-20.514658 15.480505 1.4355117
-6.3779864 4.8007898 -0.88978064
-6.4149299 4.8285975 -0.44847569
-20.484922 15.419255 0
-16.70323 12.572729 1.1677434
-6.3837829 4.7930799 -0.88978064
-6.4166079 4.8177257 -0.44818568
-5.7966022 4.352212 0
-16.874241 12.669538 1.1786278
-6.4061236 4.7977605 -0.89208585
-6.4307437 4.8161993 -0.44876623
-5.7851925 4.3327241 0
-16.991447 12.725463 1.1857396
-6.4036355 4.7838306 -0.89093381
-6.4636188 4.8286409 -0.4506529
-5.7904234 4.3257308 0
-20.505978 15.318974 1.4297067
-6.4467392 4.803905 -0.89612252
-6.492362 4.8379016 -0.45224902
-20.868042 15.550201 0
-20.511967 15.284866 1.4288355
-6.4442353 4.7899399 -0.89496934
-6.508636 4.8378081 -0.45297515
-20.878462 15.518765 0
-20.509571 15.244572 1.4273844
-6.4583292 4.7883115 -0.89612252
-6.5228262 4.8361306 -0.4535557
-20.870022 15.473378 0
-16.779327 12.440469 1.1667273
-6.4807467 4.7928081 -0.89842886
-6.5370135 4.8344197 -0.45413569
-20.884514 15.445051 0
-11.368986 8.4078836 0.78981972
-6.4948592 4.7911153 -0.89958203
-6.5449476 4.8280644 -0.45428127
-20.892693 15.412082 0
-11.362409 8.3818007 0.78865862
-6.504806 4.7863274 -0.90015805
-6.5570493 4.8247685 -0.45471627
-20.875666 15.360607 0
-11.406015 8.392705 0.79098088
-6.5293489 4.7922359 -0.9027524
-6.5670676 4.8199201 -0.45500681
-14.667525 10.765276 0
-11.397288 8.3650751 0.78967416
-6.530159 4.7867627 -0.90246439
-6.5951271 4.8343859 -0.45674849
-14.667727 10.751795 0
-11.423302 8.3735533 0.79112583
-6.5442896 4.7849751 -0.90361756
-6.5946689 4.8218112 -0.45631292
-20.443005 14.947271 0
-11.435506 8.3612766 0.79127085
-6.5646968 4.787734 -0.90563589
-6.6193833 4.8276181 -0.45761904
-20.427408 14.898023 0
-11.445601 8.3474531 0.79127085
-6.5725665 4.7813187 -0.9059239
-6.6336164 4.8257303 -0.45819959
-20.434874 14.865676 0
-11.455679 8.3336172 0.79127085
-6.5929871 4.7840023 -0.9079411
-6.6457543 4.8222914 -0.45863515
-14.591042 10.58755 0
-11.448915 8.30756 0.79010975
-6.6134315 4.7866497 -0.90995944
-6.6663046 4.8249178 -0.45965073
-14.582738 10.55465 0
-11.452628 8.2891483 0.78967416
-6.6312785 4.7751894 -0.9108246
-6.6842732 4.8133507 -0.46008629
-14.574419 10.495051 0
-5.7585335 4.1467252 0.39636657
-6.6496439 4.7762237 -0.91255379
-6.6964178 4.8098197 -0.46052185
-5.7901001 4.1588411 0
-18.292719 13.139067 1.2580154
-6.6638207 4.7742109 -0.91370696
-6.7402415 4.8289618 -0.46313408
-14.608201 10.465863 0
-18.304354 13.113925 1.2577249
-6.6990418 4.7872057 -0.91774249
-6.7439594 4.8193045 -0.46298906
-14.606012 10.437611 0
-15.87216 11.342413 1.089662
-6.690084 4.7686033 -0.91572529
-6.7540054 4.8141661 -0.46327907
-14.618614 10.419954 0
-15.843542 11.293068 1.0867598
-6.7190228 4.776998 -0.91889566
-6.7746439 4.8165426 -0.46429518
-14.629075 10.400777 0
-15.84235 11.263374 1.0857437
-6.7269058 4.7703762 -0.9191848
-6.7825766 4.809855 -0.4644402
-14.645873 10.386101 0
-15.830513 11.226187 1.084002
-6.7432213 4.7697115 -0.92062598
-6.7883835 4.8016558 -0.4644402
-14.658412 10.368397 0
-15.799519 11.175541 1.0809542
-6.7595448 4.7690139 -0.92206717
-6.8026729 4.7994418 -0.46502075
-0 0 0
-5.7707486 4.0713954 0.3944799
-6.7737632 4.7667971 -0.92322034
-6.8233442 4.8016877 -0.46603686
-0 0 0
-5.8075409 4.0868521 0.39665711
-6.7943392 4.769012 -0.92523867
-6.8504057 4.8083653 -0.46748796
-14.715069 10.328649 0
-16.297169 11.439139 1.1121576
-6.8128057 4.7696962 -0.92696786
-6.8711128 4.8105178 -0.4685041
-14.727539 10.310861 0
-16.321621 11.426889 1.1128832
-6.8249278 4.7659049 -0.92783302
-6.8833137 4.8066764 -0.46893963
-14.76346 10.309449 0
-16.329023 11.402695 1.1124476
-6.8370423 4.7620854 -0.92869705
-6.8955073 4.8028069 -0.46937466
-14.739604 10.266317 0
-16.338528 11.379989 1.1121576
-6.8512883 4.7597237 -0.92985022
-6.9077096 4.7989202 -0.46981022
-20.398558 14.171276 0
-16.373604 11.375061 1.1136087
-6.8647943 4.76296 -0.93129253
-6.9255538 4.8051162 -0.47082633
-20.392147 14.148563 0
-16.386879 11.369612 1.1140443
-6.8790517 4.7605491 -0.9324457
-6.9356241 4.7996993 -0.47111633
-20.374987 14.100217 0
-16.364283 11.324667 1.111577
-6.8954401 4.7595787 -0.93388689
-6.9456997 4.7942705 -0.47140688
-20.374874 14.063761 0
-5.7801881 3.9897757 0.39230323
-6.9033141 4.7527084 -0.9341749
-6.9600487 4.7917686 -0.47198743
-20.363989 14.019947 0
-11.625479 8.0037661 0.78836805
-6.9218411 4.7531457 -0.93590409
-6.9851098 4.7965918 -0.47329354
-20.36376 13.983551 0
-11.64371 7.9955969 0.7889486
-6.9510546 4.7608571 -0.93907559
-7.0080509 4.7998948 -0.47445467
-20.367754 13.950109 0
-11.666229 7.990335 0.78981972
-6.9632111 4.7568331 -0.93994075
-7.0181327 4.7943521 -0.47474468
-20.382448 13.924022 0
-11.660854 7.965971 0.78880364
-6.9903245 4.7629771 -0.94282311
-7.0282192 4.7887974 -0.47503522
-20.373449 13.881798 0
-11.670471 7.9518752 0.78880364
-6.9960747 4.7545271 -0.94282311
-7.044744 4.7876034 -0.47576079
-20.379448 13.849858 0
-11.677924 7.9363089 0.78865862
-7.012517 4.7533255 -0.94426429
-7.0591273 4.7849193 -0.47634134
-20.383238 13.81646 0
-12.212297 8.277915 0.82407099
-7.0332565 4.7549906 -0.94628263
-7.0670547 4.7778401 -0.47648636
-20.376207 13.77579 0
-0 0 0
-7.043282 4.7493782 -0.94685864
-7.0922103 4.782371 -0.47779247
-20.375576 13.73952 0
-0 0 0
-7.0618968 4.7495275 -0.94858897
-7.1130786 4.7839503 -0.47880858
-20.374886 13.703271 0
-5.7287941 3.8529401 0.38562709
-7.0805144 4.7496338 -0.95031816
-7.1576924 4.801405 -0.48142081
-20.371979 13.665595 0
-18.578829 12.462744 1.2495977
-7.0926995 4.7453909 -0.95118332
-7.1656461 4.7941961 -0.4815658
-20.369013 13.627946 0
-18.591717 12.438842 1.2494526
-7.1134906 4.7468686 -0.95320159
-7.1757607 4.7884216 -0.48185638
-20.368145 13.591767 0
-20.400602 13.613427 1.3699119
-7.1256742 4.7425647 -0.95406568
-7.1793718 4.7783041 -0.48171079
-20.367222 13.555611 0
-20.36729 13.555657 1.3665742
-7.1421719 4.7411022 -0.95550686
-7.195971 4.7768149 -0.48243693
-20.372747 13.523796 0
-20.403137 13.54397 1.3678803
-7.1565218 4.7381806 -0.95666003
-7.2082314 4.7724161 -0.48287192
-20.358698 13.479058 0
-20.389151 13.499222 1.3658481
-7.1644063 4.7309589 -0.95694917
-7.2291732 4.7737269 -0.48388803
-20.34239 13.432937 0
-5.8067107 3.8344154 0.38867486
-7.183074 4.7308321 -0.95867836
-7.2327681 4.7635608 -0.48374304
-20.358606 13.408347 0
-5.7440734 3.7830944 0.38417596
-7.1988926 4.7350168 -0.96040756
-7.2486658 4.767755 -0.4846136
-5.7603445 3.7888229 0
-5.7506957 3.7824764 0.38446596
-7.2002873 4.7234802 -0.95983154
-7.2739735 4.7718191 -0.48591971
-5.7431622 3.7675874 0
-5.7639527 3.7812262 0.38504651
-7.2514391 4.7445135 -0.9658854
-7.3166966 4.7872105 -0.48838693
-5.6997952 3.729295 0
-5.755475 3.7657256 0.38417596
-7.2831597 4.7527103 -0.96934491
-7.3137712 4.772686 -0.48780638
-5.6280212 3.6726303 0
-5.7578387 3.7573442 0.3840304
-7.2823915 4.7396727 -0.96847975
-7.3195324 4.7638454 -0.48780638
-5.7218823 3.7240305 0
-5.7449517 3.7390451 0.3828693
-7.2751007 4.7224231 -0.96675056
-5.7473888 3.7307525 -0.38273099
-0 0 0
-5.766902 3.7434189 0.3840304
-7.3068557 4.7304964 -0.97021002
-5.7409883 3.7167459 -0.38200542
-0 0 0
-5.7452545 3.7195077 0.38228929
-7.3321199 4.7342901 -0.97280443
-5.7280116 3.6985302 -0.3808443
-0 0 0
-5.7344618 3.7026951 0.38127318
-5.7135043 3.6793888 -0.75746077
-5.7259202 3.6873844 -0.38040876
-5.6982393 3.6695583 0
-5.7389317 3.6957633 0.38127318
-7.3848825 4.7431107 -0.97828114
-5.7303715 3.6804631 -0.38040876
-5.7377052 3.6851733 0
-5.7652521 3.7028658 0.38272429
-7.3753686 4.724422 -0.97626388
-5.6998143 3.6511164 -0.37808707
-5.7246222 3.6670074 0
-5.7500319 3.683284 0.38141817
-7.389782 4.7210717 -0.97741598
-5.7545795 3.6763983 -0.38142487
-5.7268577 3.6586878 0
-5.7457194 3.670738 0.38083762
-7.3976688 4.7135329 -0.97770512
-5.7809272 3.6834025 -0.38287598
-5.696157 3.62939 0
-5.7742581 3.6791532 0.38243428
-7.4557424 4.7378788 -0.98462301
-7.513454 4.7745528 -0.4972403
-5.6653943 3.6001716 0
-20.482689 13.016074 1.3555441
-7.4964166 4.75102 -0.9892357
-7.5411611 4.7793779 -0.49869144
-5.6367731 3.5724299 0
-5.7809401 3.6637986 0.38228929
-7.4781084 4.7267613 -0.98606527
-0 0 -0
-0 0 0
-5.7699852 3.6470912 0.38127318
-7.492558 4.7232337 -0.98721737
-7.5285072 4.7458959 -0.49709475
-0 0 0
-5.7589989 3.6304154 0.38025707
-0 0 -0
-7.5232396 4.7298822 -0.49636918
-0 0 0
-20.408974 12.831181 1.3465458
-7.508337 4.7078643 -0.98779452
-7.5641727 4.7428741 -0.49869144
-0 0 0
-20.43327 12.812033 1.3471264
-7.5512991 4.7221003 -0.99269521
-7.600738 4.753016 -0.50072312
-0 0 0
-20.428909 12.774935 1.3458202
-7.5651178 4.7243862 -0.99413639
-0 0 -0
-0 0 0
-20.434422 12.761215 1.3456752
-7.6059484 4.7371202 -0.99874908
-7.635808 4.7557168 -0.50246477
-0 0 0
-20.42997 12.724148 1.3443686
-0 0 -0
-7.6437535 4.7478566 -0.50260979
-0 0 0
-20.436508 12.693974 1.3437885
-7.6693721 4.7509365 -0.50391644
-0 0 0
-20.398817 12.636431 1.3403052
-7.6773152 4.7430305 -0.50406146
-0 0 0
-20.380909 12.591286 1.338128
-7.7007389 4.7446551 -0.50522256
-0 0 0
-5.7517443 3.5438213 0.37735483
-7.6976109 4.7299051 -0.50464201
-0 0 0
-20.389143 12.528396 1.3366768
-7.7622223 4.7438045 -0.50812477
-0 0 0
-20.414921 12.476374 1.3363863
-7.8012328 4.7547078 -0.51030201
-0 0 0
-20.410013 12.439528 1.3350801
-7.802536 4.7425814 -0.51001203
-0 0 0
-20.411711 12.406762 1.3342096
-7.8260288 4.7439208 -0.51117259
-0 0 0
-20.40447 12.368622 1.3327585
-7.8406501 4.7398381 -0.51175314
-0 0 0
-20.394938 12.32917 1.3311619
-7.8530493 4.7343869 -0.51218867
-0 0 0
-20.396473 12.296471 1.3302913
-7.8654475 4.7289124 -0.51262426
-0 0 0
-5.7298117 3.4449127 0.37343591
-7.8733821 4.7207398 -0.51276928
-0 0 0
-5.7361965 3.4393218 0.37358093
-7.8991499 4.7232237 -0.5140754
-0 0 0
-5.7202787 3.4203877 0.37227482
-7.9383302 4.7336392 -0.51625258
-0 0 0
-11.952997 7.1275911 0.77733803
-7.9708447 4.7399812 -0.51799428
-0 0 0
-11.941502 7.1011915 0.77603191
-7.9810319 4.7329946 -0.51828426
-0 0 0
-11.912081 7.0642266 0.7735647
-7.9956913 4.7286386 -0.51886481
-0 0 0
-20.278332 11.992572 1.3159229
-8.0097313 4.7304125 -0.51959038
-0 0 0
-20.314657 11.997495 1.3178096
-8.0221605 4.7246885 -0.52002597
-0 0 0
-11.774405 6.9345894 0.76326019
-8.043541 4.7241998 -0.52104151
-5.6556497 3.3217232 0
-11.771574 6.9137788 0.76253462
-8.0492439 4.7144771 -0.52104151
-5.6708941 3.3214674 0
-5.7375913 3.3605323 0.37140426
-8.0482092 4.70082 -0.52060652
-5.6793933 3.3172355 0
-5.7685728 3.3693235 0.37314591
-8.0853138 4.7093987 -0.5226382
-5.7013884 3.3208494 0
-5.7614064 3.355808 0.3724198
-8.1179609 4.7152872 -0.52437985
-5.7053967 3.3139579 0
-5.738503 3.3331876 0.37067869
-8.1663675 4.7302165 -0.5271371
-5.7026386 3.3031473 0
-5.7177906 3.3119237 0.369082
-8.181078 4.7255445 -0.52771765
-5.6953597 3.289747 0
-5.7352843 3.312808 0.36995256
-8.1845322 4.7143598 -0.52757263
-10.150748 5.8469172 0
-5.7708101 3.3240356 0.37198481
-8.2104988 4.716114 -0.52887875
-10.164577 5.8385377 0
-5.6914563 3.2691748 0.36661479
-8.2229576 4.7100654 -0.52931434
-20.611076 11.805912 0
-5.7337308 3.2842498 0.369082
-8.237668 4.7052813 -0.52989489
-20.652443 11.796488 0
-5.7489743 3.283762 0.36980757
-8.250124 4.6991839 -0.53033042
-20.687033 11.783116 0
-5.7642255 3.2832422 0.37053314
-8.2603102 4.6917758 -0.53062046
-5.7416854 3.2612214 0
-5.7230086 3.2506132 0.3676309
-8.2795429 4.6894774 -0.53149158
-5.7524171 3.2581303 0
-5.7563224 3.2603421 0.36951756
-8.3575954 4.7203569 -0.53613544
-5.7314301 3.2371025 0
-5.7014365 3.2201624 0.36574423
-8.3791437 4.719182 -0.53715158
-10.472089 5.8979406 0
-5.7370157 3.2311203 0.36777589
-8.3939018 4.7141433 -0.53773212
-10.458788 5.8738146 0
-0 0 0
-8.4086609 4.7090764 -0.53831267
-10.322832 5.7810636 0
-0 0 0
-8.4302187 4.7077775 -0.53932828
-9.954915 5.5592299 0
-0 0 0
-8.4495268 4.7051754 -0.54019934
-9.9388838 5.5345335 0
-5.7026258 3.175545 0.3645831
-8.4500904 4.6988029 -0.54005378
-9.9968138 5.5588822 0
-5.6591239 3.1468432 0.36168033
-8.4694014 4.6961522 -0.54092491
-9.9102077 5.4950576 0
-0 0 0
-8.4818935 4.6896882 -0.5413605
-9.8485184 5.445303 0
-5.6416955 3.1193264 0.36008364
-8.498929 4.6857076 -0.54208606
-9.8414202 5.4258623 0
-5.7546859 3.1727264 0.36705035
-8.5706167 4.7117362 -0.54629493
-10.484221 5.7637491 0
-0 0 0
-8.5876942 4.7076211 -0.54702049
-10.529971 5.7723427 0
-5.7030983 3.1263371 0.36327699
-8.6024961 4.7022262 -0.54760104
-10.566623 5.7758412 0
-5.6886311 3.1094732 0.36211589
-8.6218567 4.6992874 -0.54847163
-10.596441 5.7755218 0
-5.6718526 3.0914066 0.36080977
-8.6366606 4.6938295 -0.54905218
-10.610273 5.7664433 0
-5.7326493 3.1155648 0.36443755
-8.6583204 4.6920576 -0.55006832
-10.12074 5.4845619 0
-5.7387009 3.1098773 0.3645831
-8.6639833 4.6815925 -0.55006832
-9.9579325 5.3807788 0
-5.7013011 3.0807037 0.36197031
-8.6810694 4.6772814 -0.55079383
-9.9254799 5.3477588 0
-5.682148 3.0614898 0.3605192
-8.6867142 4.6667886 -0.55079383
-9.9135933 5.3259082 0
-5.6560879 3.0386364 0.35863253
-8.7083826 4.6648793 -0.55180997
-5.7266502 3.0676339 0
-5.7467909 3.0784228 0.36414754
-8.7690125 4.6837296 -0.55529273
-5.7096949 3.0496783 0
-5.7344599 3.062906 0.36313143
-8.8044786 4.6890082 -0.55717945
-9.9466209 5.2972798 0
-5.6854134 3.0278852 0.35979363
-8.8193178 4.6832409 -0.55776
-9.9713936 5.2950172 0
-5.6936531 3.0234482 0.36008364
-8.8364496 4.6786594 -0.55848557
-9.9593935 5.2732272 0
-5.7041941 3.0202153 0.3605192
-8.8581839 4.6764717 -0.55950165
-9.949645 5.2526832 0
-5.694056 3.0060441 0.35964864
-8.8730259 4.6706061 -0.5600822
-9.9421721 5.2333865 0
-5.7045755 3.0027895 0.36008364
-8.8873434 4.6712885 -0.56080776
-0 0 0
-5.7638884 3.0295651 0.36371198
-8.8906822 4.6593413 -0.56066275
-9.9585495 5.2189784 0
-5.737627 3.0069191 0.36182532
-8.9124289 4.6570201 -0.56167889
-9.9786921 5.2141757 0
-5.7205315 2.9891548 0.3605192
-8.9387875 4.657052 -0.562985
-10.001135 5.2105284 0
-5.6918812 2.9654343 0.35848752
-8.9813023 4.6654129 -0.56530726
-10.042068 5.2164369 0
-5.7000675 2.960948 0.35877752
-9.0261555 4.6748719 -0.56777447
-10.332594 5.3515091 0
-5.680572 2.9421105 0.35732642
-9.0364113 4.6663442 -0.56806445
-10.443108 5.3927536 0
-5.6610394 2.9233243 0.35587531
-9.0582161 4.6637492 -0.56908059
-10.463495 5.3872766 0
-5.7015224 2.9355085 0.35819697
-9.0995283 4.6572347 -0.57096726
-10.344442 5.294395 0
-5.6854734 2.9098852 0.35674587
-9.1190319 4.6533203 -0.57183784
-10.262748 5.2369437 0
-5.7306423 2.9242704 0.3593581
-9.1315975 4.6458344 -0.57227337
-10.19716 5.1879549 0
-5.745749 2.923234 0.36008364
-9.1487894 4.6406736 -0.57299894
-10.97627 5.5676532 0
-5.7330618 2.9080644 0.3590681
-9.1706238 4.6378255 -0.57401502
-5.7067666 2.8860619 0
-5.7203379 2.8929253 0.35805199
-9.1785393 4.6279101 -0.57416004
-5.7241879 2.8861921 0
-5.7261472 2.8871799 0.35819697
-9.2630548 4.6564941 -0.57909453
-5.7090693 2.8699224 0
-5.7157063 2.8732588 0.35732642
-9.2895794 4.6557755 -0.58040065
-10.698277 5.3617897 0
-5.7005897 2.8570361 0.35616529
-9.3021736 4.6480327 -0.58083618
-10.683797 5.3383908 0
-10.480492 5.236805 0.65441144
-9.3217335 4.6437392 -0.58170676
-10.673931 5.3173532 0
-10.503095 5.2322493 0.65542758
-9.3273382 4.632472 -0.58170676
-10.657044 5.2928782 0
-10.539661 5.2345791 0.65731424
-0 0 -0
-9.3487587 4.6360717 -0.58286786
-10.662569 5.2875938 0
-10.472988 5.1935802 0.6529603
-9.3706608 4.6328344 -0.583884
-10.671282 5.2758584 0
-10.423352 5.1532831 0.64947701
-9.3879032 4.6272516 -0.58460951
-10.691659 5.2698665 0
-10.359654 5.1062231 0.64512306
-9.400486 4.6193438 -0.5850451
-9.7941332 4.8127794 0
-5.7228527 2.8121762 0.35616529
-9.4130545 4.6114078 -0.58548009
-9.8209734 4.811245 0
-5.7145815 2.7995446 0.35543975
-9.4326334 4.6068749 -0.58635122
-9.7870274 4.7799602 0
-5.7062879 2.786937 0.35471418
-9.5129528 4.6318746 -0.59099567
-10.672544 5.1964822 0
-10.318799 5.0242424 0.64105916
-9.5465841 4.6339884 -0.59273678
-10.608582 5.1494908 0
-10.294476 4.9970207 0.63917249
-9.5545225 4.6235852 -0.59288234
-10.542183 5.1015296 0
-10.305188 4.9868441 0.63946307
-9.5788164 4.6210651 -0.5940429
-10.074875 4.8603768 0
-10.320568 4.9789047 0.64004362
-9.5984478 4.6162467 -0.59491402
-10.038528 4.8278985 0
-10.307842 4.9574213 0.63888252
-0 0 -0
-9.6321354 4.6181264 -0.59665567
-10.10771 4.8461404 0
-10.306793 4.9415913 0.63844693
-9.6517696 4.6132054 -0.59752625
-10.169911 4.8608589 0
-10.291659 4.9190502 0.63714081
-9.6667204 4.6060109 -0.5981068
-10.199267 4.8597593 0
-5.7071548 2.7193522 0.3531175
-9.6980991 4.6065917 -0.59970349
-10.191031 4.8407345 0
-5.7104363 2.7124541 0.3531175
-9.7130518 4.5993185 -0.60028404
-10.194524 4.8273044 0
-5.7184024 2.7077742 0.3534075
-9.7021513 4.579813 -0.5992679
-5.7195649 2.6998692 0
-5.7122798 2.6964302 0.35282752
-9.7876129 4.605701 -0.60420239
-5.7039843 2.6840913 0
-10.361157 4.8755903 0.63960803
-9.8284607 4.610425 -0.60637963
-10.202531 4.7858977 0
-10.348221 4.8542395 0.63844693
-9.8340235 4.598546 -0.60637963
-10.208306 4.7735662 0
-10.39174 4.8593431 0.64076918
-9.8556271 4.6013937 -0.60754019
-10.946885 5.1108804 0
-10.44882 4.8783436 0.64410698
-9.8753195 4.5960622 -0.60841131
-10.934177 5.0888643 0
-10.523023 4.8975096 0.64831585
-9.9185791 4.6016235 -0.61073351
-10.930883 5.0712719 0
-10.5525 4.8957248 0.64976698
-9.9429998 4.5983615 -0.61189467
-10.903929 5.0427647 0
-10.577275 4.891696 0.65092808
-9.9674177 4.5950427 -0.61305517
-10.858023 5.0056171 0
-10.599699 4.886528 0.65194422
-9.9729624 4.5829954 -0.61305517
-10.823865 4.974021 0
-10.624484 4.8823972 0.65310532
-9.9997616 4.5806842 -0.61436188
-10.784919 4.9403486 0
-5.7121367 2.616612 0.35094029
-10.010012 4.570755 -0.61465186
-10.244041 4.6776171 0
-10.63152 4.854547 0.65281475
-10.105392 4.5995593 -0.6201669
-10.171521 4.6296582 0
-10.637378 4.8416972 0.65281475
-10.118044 4.5905676 -0.62060243
-0 0 0
-10.614834 4.8159614 0.65107363
-10.142525 4.586904 -0.62176359
-10.187427 4.6072111 0
-10.613541 4.7999187 0.6506381
-10.148059 4.5746455 -0.62176359
-10.169256 4.5842009 0
-10.609857 4.7828193 0.65005755
-10.172541 4.5709004 -0.62292469
-10.151053 4.5612454 0
-10.627477 4.7753201 0.65078312
-10.204136 4.5702858 -0.62452078
-10.125683 4.5351481 0
-10.661696 4.7752209 0.65252477
-10.235753 4.5696058 -0.62611747
-10.119276 4.5176063 0
-10.67932 4.7676301 0.65325034
-10.260259 4.5656857 -0.62727857
-10.122342 4.5043149 0
-10.661338 4.7441607 0.6517992
-10.270514 4.5553904 -0.6275686
-10.142056 4.4984136 0
-10.657561 4.7270613 0.65121865
-10.287891 4.5482292 -0.62829417
-10.230786 4.5229836 0
-5.7083936 2.5236545 0.3486186
-10.312403 4.5441775 -0.62945527
-5.7187037 2.5199564 0
-5.7209501 2.5209463 0.34919918
-10.327402 4.5358934 -0.63003582
-5.7098327 2.5078127 0
-5.7073364 2.5067165 0.34818304
-10.415811 4.5672183 -0.63526082
-10.096635 4.4272633 0
-13.513941 5.9257145 0.82421601
-10.454651 4.5691962 -0.6372925
-10.116289 4.4213157 0
-13.518712 5.9083419 0.82407099
-10.467313 4.5596747 -0.6377281
-10.131168 4.4132462 0
-13.513924 5.8868113 0.82334489
-10.487111 4.5532308 -0.63859862
-10.131714 4.3989267 0
-13.523417 5.8715158 0.82349044
-10.506918 4.5467496 -0.63946974
-10.139408 4.3877139 0
-13.556727 5.8665195 0.82508653
-10.538643 4.5453677 -0.64106584
-10.871136 4.6887732 0
-13.559038 5.8480787 0.82479656
-10.565611 4.5418653 -0.64237195
-10.876793 4.6756339 0
-13.561316 5.8296366 0.82450598
-10.583031 4.5342112 -0.64309752
-10.901572 4.6706877 0
-13.410725 5.7457128 0.81492764
-10.602844 4.527545 -0.64396864
-10.902426 4.6554694 0
-5.6897702 2.4296017 0.3455708
-10.615482 4.5177836 -0.64440423
-10.934378 4.6535001 0
-5.6998677 2.4257746 0.34600583
-10.647241 4.5161119 -0.64600033
-11.656328 4.9441242 0
-13.5391 5.7427173 0.82145822
-10.712522 4.5285363 -0.6496287
-11.659899 4.9290237 0
-13.531673 5.7202849 0.82058764
-10.8001 4.5348263 -0.65427315
-11.678977 4.9038558 0
-13.394527 5.6241937 0.81144428
-10.831933 4.5328045 -0.65586925
-11.699294 4.8957663 0
-13.374944 5.5969701 0.80984759
-10.851796 4.5257158 -0.65674037
-11.695593 4.8776193 0
-12.47041 5.2007551 0.75469738
-10.886041 4.5245638 -0.65848148
-11.703878 4.8644819 0
-12.505479 5.1976509 0.75643903
-10.901102 4.5153842 -0.65906203
-11.680896 4.8383851 0
-12.509352 5.1815429 0.75629407
-10.928174 4.5111356 -0.66036874
-12.879854 5.3167863 0
-12.505996 5.1624584 0.75571352
-10.952832 4.5058322 -0.66152924
-12.898301 5.3061695 0
-12.509824 5.1463556 0.7555685
-10.970297 4.4975262 -0.66225541
-12.873402 5.2777476 0
-5.7123804 2.341922 0.34484527
-10.985033 4.4958177 -0.66298097
-5.699369 2.3325667 0
-7.5125117 3.0746272 0.45340344
-11.024137 4.4962778 -0.6650126
-5.7166371 2.3315735 0
-7.5306621 3.0714374 0.45427456
-11.145099 4.5299134 -0.67197877
-5.6953454 2.314867 0
-0 0 0
-5.6825976 2.3016889 -0.68337321
-11.186692 4.5310769 -0.67415601
-12.898016 5.2242341 0
-0 0 0
-11.201797 4.5214472 -0.67473656
-12.940521 5.223258 0
-7.4839168 3.020777 0.45079121
-11.214487 4.5108185 -0.67517209
-13.021666 5.2377224 0
-12.817433 5.1555738 0.77167803
-11.244044 4.5069304 -0.67662323
-14.750272 5.9123254 0
-12.799539 5.1304169 0.7702269
-11.263955 4.4991221 -0.67749375
-11.896017 4.7515845 0
-12.793665 5.1101289 0.76950133
-11.303187 4.4989634 -0.67952603
-11.913837 4.7420182 0
-12.775683 5.0850554 0.76804966
-11.327939 4.4929667 -0.68068713
-11.909882 4.7237811 0
-12.757669 5.0600367 0.76659852
-11.355105 4.4878707 -0.68199325
-11.898636 4.7026896 0
-5.7126336 2.2578003 0.34310359
-11.379862 4.4817643 -0.68315434
-11.889786 4.6825891 0
-5.7129331 2.2499411 0.34295803
-11.382843 4.4670587 -0.68300879
-11.900275 4.6701188 0
-5.7035556 2.2382913 0.34223247
-11.451157 4.4779081 -0.68678272
-13.372215 5.2291265 0
-12.605328 4.9292397 0.75600404
-11.577602 4.5112329 -0.69403887
-13.359125 5.2054062 0
-12.570118 4.8979683 0.75353682
-5.6767945 2.2040758 -0.67876053
-11.583045 4.4972405 -0.69403887
-13.333869 5.1770163 0
-12.544539 4.8705506 0.75165015
-5.6625748 2.190685 -0.67674333
-11.590901 4.4841814 -0.69418442
-13.352257 5.1655989 0
-12.511641 4.8403888 0.7493279
-11.615707 4.4776497 -0.69534552
-13.40462 5.167244 0
-12.500506 4.8187242 0.74831182
-11.633235 4.4682689 -0.69607109
-13.43758 5.1613088 0
-12.501472 4.8017545 0.74802178
-11.67502 4.4681377 -0.69824773
-13.460814 5.151577 0
-12.502407 4.7847862 0.74773127
-11.711705 4.4740672 -0.70027995
-12.238693 4.6753855 0
-12.495586 4.7735229 0.74715066
-11.748671 4.4719286 -0.70216668
-12.256493 4.6652222 0
-12.447924 4.7380867 0.74395788
-11.780785 4.4678621 -0.70376277
-12.264562 4.6513348 0
-12.388047 4.6981664 0.74003953
-11.788612 4.4545455 -0.70390832
-12.253129 4.6300716 0
-5.6828885 2.1473846 0.33933023
-11.803704 4.4439564 -0.70448834
-5.7072845 2.1487257 0
-5.6976357 2.1450932 0.34005579
-5.6978955 2.1373341 -0.33991691
-5.7049985 2.1399982 0
-12.514466 4.6942935 0.74657011
-5.6810021 2.1231704 -0.33875582
-12.664734 4.733212 0
-12.549337 4.6900845 0.74831182
-5.6777949 2.1141565 -0.67530215
-12.002362 4.469142 -0.7153734
-12.685082 4.7233562 0
-12.637784 4.7057447 0.75324625
-5.673068 2.1045947 -0.67443699
-12.022375 4.4600606 -0.71624446
-12.695655 4.7098341 0
-12.80668 4.7510219 0.76297021
-5.6853113 2.101325 -0.67559016
-12.042375 4.4509339 -0.71711504
-12.664727 4.6809592 0
-12.912338 4.7724776 0.76892078
-12.064815 4.4426661 -0.71813118
-12.599553 4.6395745 0
-12.896152 4.7487922 0.76761466
-12.097001 4.4379268 -0.71972728
-12.553843 4.6055245 0
-12.833575 4.7081475 0.76355076
-12.136527 4.4357963 -0.7217595
-12.571619 4.5948186 0
-12.766044 4.6658788 0.75919682
-12.171168 4.4317937 -0.72350061
-12.589386 4.5840759 0
-12.798523 4.6602273 0.76079297
-12.193616 4.4232874 -0.72451675
-12.614489 4.5759606 0
-12.743079 4.6226077 0.7571646
-12.201393 4.4094329 -0.72466171
-12.634689 4.566021 0
-5.6889839 2.0559287 0.33787856
-5.6388535 2.0301123 -0.99914616
-12.218943 4.3990903 -0.72538787
-12.676929 4.5639753 0
-5.7134652 2.0569739 0.33918467
-12.304953 4.4132676 -0.73017675
-12.733875 4.5671043 0
-12.593441 4.516736 0.74729568
-5.6340733 2.0130246 -0.99743426
-12.47177 4.4560971 -0.73975569
-12.776139 4.5648465 0
-12.628253 4.5120072 0.74903738
-5.6219954 2.0010521 -0.99486727
