# .PCD v0.7 - Point Cloud Data file format
VERSION 0.7
FIELDS x y z
SIZE 4 4 4
TYPE F F F
COUNT 1 1 1
WIDTH 1751
HEIGHT 1
VIEWPOINT 0 0 0 1 0 0 0
POINTS 1751
DATA ascii
-10.336434 -2.4881639 0
-10.440804 -2.5132875 0.59984177
-10.261092 -2.4831486 -0.58968902
-10.391591 -2.5147288 0
-10.493317 -2.539346 0.60303456
-10.230318 -2.4887905 -0.58809286
-10.403723 -2.5309756 0
-10.560935 -2.5692217 0.60709846
-5.1383953 -1.2566262 -0.88188887
-10.169248 -2.4869521 -0.58475453
-0 -0 0
-10.608304 -2.594326 0.61000127
-5.1269021 -1.2603828 -0.88017696
-10.143528 -2.4936554 -0.58344841
-10.427893 -2.5635629 0
-10.602632 -2.6065202 0.60985571
-10.198529 -2.5202484 -0.58678675
-10.414681 -2.5736637 0
-10.571733 -2.6124742 0.60825962
-10.336688 -2.5676467 -0.59491402
-10.396415 -2.5824828 0
-10.513094 -2.6114659 0.60506684
-10.462144 -2.6122358 -0.60231572
-10.256943 -2.5609999 0
-10.431775 -2.6046531 0.60056734
-0 -0 -0
-10.178119 -2.5543878 0
-10.398377 -2.6096656 0.59882569
-10.52795 -2.6489465 -0.60637963
-5.1392584 -1.2930932 0
-10.35649 -2.6058054 0.59650397
-10.507105 -2.6572053 -0.60536349
-5.120028 -1.2948349 0
-11.481851 -2.9037147 0.66152316
-10.473666 -2.6622179 -0.60362184
-5.1108999 -1.299099 0
-10.408077 -2.6455462 0.59984177
-10.447786 -2.6690834 -0.60231572
-5.1143651 -1.3065606 0
-10.46278 -2.672914 0.60318011
-5.1444173 -1.3208619 -0.29666787
-11.442028 -2.9378135 0
-10.426817 -2.6771517 0.60129291
-5.1704869 -1.3342168 -0.298264
-11.430907 -2.9496853 0
-10.312879 -2.6611841 0.59490734
-5.1452918 -1.3343486 -0.88616937
-5.1160712 -1.3267705 -0.58910686
-12.613621 -3.2711394 -0.72785509
-10.361783 -2.6871614 0
-10.211569 -2.6482058 0.58924729
-5.1262851 -1.3360322 -0.88317317
-5.1244755 -1.3355606 -0.59026003
-12.569428 -3.2758927 -0.72553283
-10.361054 -2.7003381 0
-10.165618 -2.6494026 0.58678007
-9.9438438 -2.6044383 -0.57416004
-10.309948 -2.7003262 0
-10.320763 -2.7031589 0.59592342
-9.9180765 -2.6104996 -0.57285392
-11.396383 -2.9995992 0
-10.543633 -2.7751498 0.60898519
-9.8923082 -2.6165025 -0.57154781
-11.412878 -3.0186913 0
-10.505107 -2.7785869 0.6069535
-10.662569 -2.8340247 -0.61624855
-11.414258 -3.0338175 0
-12.103844 -3.217104 0.69954771
-0 -0 -0
-11.377899 -3.0388777 0
-12.004555 -3.2062488 0.69403273
-0 -0 -0
-0 -0 -0
-11.286242 -3.0290122 0
-11.963025 -3.2106478 0.69185549
-0 -0 -0
-11.259962 -3.0365491 0
-11.91649 -3.2135994 0.68938822
-0 -0 -0
-10.390429 -2.8155289 -0.60129958
-11.256285 -3.0501525 0
-11.857427 -3.2130458 0.68619543
-10.511597 -2.85518 -0.60841131
-11.216775 -3.0467217 0
-10.263247 -2.7877226 0.59403676
-10.728725 -2.9280813 -0.62118298
-11.092572 -3.0273826 0
-10.262375 -2.8008051 0.59418178
-11.376685 -3.1196976 -0.65891707
-11.051266 -3.0304618 0
-10.251463 -2.811141 0.59374619
-5.1369243 -1.4153156 -0.88830876
-11.435533 -3.1506963 -0.66254538
-11.052609 -3.0451941 0
-10.243053 -2.8221467 0.59345621
-11.411683 -3.1589658 -0.66138428
-11.104107 -3.073823 0
-10.227107 -2.8310533 0.5927301
-11.420372 -3.1762328 -0.66210985
-11.15554 -3.1025779 0
-10.198649 -2.8364475 0.59127897
-10.388018 -2.9026418 -0.60246074
-11.13674 -3.1118515 0
-10.157683 -2.8382812 0.58910233
-10.27594 -2.8981147 -0.59636515
-10.863694 -3.0638785 0
-10.100777 -2.8487136 0.58619952
-10.199932 -2.8899877 -0.59215623
-5.1312809 -1.4538664 0
-10.149825 -2.8757908 0.58924729
-10.173943 -2.8959086 -0.59085011
-5.134531 -1.4614918 0
-10.131343 -2.8837833 0.58837616
-10.155451 -2.9039149 -0.58997953
-5.1252522 -1.4655477 0
-10.62499 -3.038178 0.61725742
-5.1348119 -1.4749953 -0.29840955
-5.1209788 -1.4710217 0
-10.7262 -3.0811436 0.623353
-5.1579871 -1.4884014 -0.29986066
-5.121696 -1.4779291 0
-10.734959 -3.0977061 0.62407911
-10.713851 -3.1056435 -0.6230697
-5.1124053 -1.4819422 0
-10.723719 -3.1085038 0.62364352
-5.1183257 -1.4903649 -0.88873631
-5.1118011 -1.4884651 -0.5934304
-10.652707 -3.1018777 -0.61973131
-5.1231022 -1.4917557 0
-10.717463 -3.1207335 0.62349856
-5.1140594 -1.4958283 -0.88830876
-10.334737 -3.0228415 -0.60144514
-5.1113043 -1.4950224 0
-10.718667 -3.1351388 0.62378854
-10.183992 -2.9921126 -0.59288234
-5.1045051 -1.4997315 0
-10.719862 -3.149554 0.62407911
-10.164732 -2.9931262 -0.59186625
-9.7868223 -2.8818462 0
-10.698016 -3.1501582 0.62291801
-10.161108 -3.0054061 -0.59186625
-9.7458963 -2.8825967 0
-10.674268 -3.1571863 0.62175685
-10.149994 -3.015461 -0.59143066
-9.7748346 -2.9040051 0
-10.423859 -3.0968232 0.6073885
-10.171247 -3.0351546 -0.59288234
-9.8012447 -2.9247439 0
-10.375295 -3.0960433 0.60477626
-10.257169 -3.0742965 -0.5981068
-9.8101664 -2.9403198 0
-10.769775 -3.2279356 0.62799746
-10.390288 -3.1278825 -0.60608906
-9.8090954 -2.9529209 0
-10.845489 -3.2649155 0.63264191
-10.446195 -3.1584837 -0.60957241
-9.8030319 -2.9640186 0
-10.881322 -3.2900474 0.63496357
-10.48712 -3.1846929 -0.61218464
-9.8019314 -2.9766171 0
-10.944471 -3.3235798 0.63888252
-10.480782 -3.1966047 -0.61203963
-9.8008242 -2.9892199 0
-10.932989 -3.3345268 0.63844693
-5.1363945 -1.5733701 -0.89558381
-10.474429 -3.2085061 -0.61189467
-9.7872515 -2.9980111 0
-10.797276 -3.3074 0.63075471
-5.1197729 -1.5750479 -0.89301682
-10.46061 -3.2181039 -0.61131406
-11.470023 -3.5286398 0
-10.785828 -3.3181539 0.63031965
-10.471605 -3.235342 -0.61218464
-11.505535 -3.5547884 0
-10.77684 -3.3296485 0.63002914
-10.586802 -3.2849519 -0.61915076
-11.404301 -3.5386114 0
-10.720695 -3.3264976 0.62698132
-10.682056 -3.3286633 -0.62495637
-10.79627 -3.3642538 0
-10.607523 -3.3054378 0.62059575
-10.687946 -3.3446724 -0.62553692
-10.722662 -3.3555365 0
-10.544004 -3.2996275 0.6171124
-10.64671 -3.3458979 -0.62335968
-10.681355 -3.3567855 0
-10.53258 -3.3100307 0.6166774
-10.008336 -3.158571 -0.5862062
-10.615249 -3.3501089 0
-10.526088 -3.3219705 0.61653185
-9.9866066 -3.1583488 -0.5850451
-5.134656 -1.6238784 0
-10.526564 -3.3291149 0.6166774
-9.9827824 -3.1704135 -0.5850451
-5.0954814 -1.6182644 0
-10.522533 -3.3418319 0.6166774
-9.9591398 -3.1761572 -0.583884
-5.1158352 -1.6315361 0
-10.548185 -3.3640151 0.61841851
-12.744071 -4.081296 -0.74744737
-5.0866036 -1.6289876 0
-10.551539 -3.3791363 0.61885411
-12.763872 -4.1046481 -0.74889904
-10.381337 -3.3384645 0
-10.54992 -3.392678 0.61899906
-12.773735 -4.1248569 -0.74976963
-10.320341 -3.3326144 0
-10.550763 -3.4070215 0.61928964
-12.783577 -4.1450992 -0.75064075
-10.328683 -3.3490949 0
-10.554056 -3.4221728 0.61972523
-0 -0 -0
-12.783496 -4.1621499 -0.75093073
-10.411242 -3.3897734 0
-10.567203 -3.4405518 0.62074077
-0 -0 -0
-10.23221 -3.3451622 -0.60129958
-10.859794 -3.5503347 0
-11.669456 -3.8150334 0.6857599
-0 -0 -0
-10.223228 -3.3559041 -0.60100961
-11.013738 -3.6153989 0
-11.608062 -3.8104935 0.6824221
-10.224096 -3.3698795 -0.60129958
-11.135411 -3.6702504 0
-11.625658 -3.8318365 0.68372822
-10.247155 -3.391212 -0.60289627
-11.1285 -3.6828859 0
-12.264841 -4.058949 0.7216078
-0 -0 -0
-12.637905 -4.1993608 0
-12.232801 -4.0647516 0.72001112
-0 -0 -0
-11.146716 -3.7188258 0
-9.6620655 -3.2235088 0.5689289
-10.205228 -3.4184308 -0.60115463
-11.201441 -3.7521305 0
-9.6433754 -3.2302277 0.56805778
-10.191238 -3.4274461 -0.60057402
-11.214168 -3.7714705 0
-9.6345444 -3.2402225 0.5677678
-10.179702 -3.437263 -0.60013849
-11.226855 -3.7908435 0
-9.6404696 -3.2551866 0.56834835
-10.177624 -3.4434125 -0.60013849
-11.214703 -3.7942894 0
-9.6606512 -3.2685044 0.56965446
-10.173455 -3.4557078 -0.60013849
-11.215043 -3.8095131 0
-9.6443949 -3.2759972 0.5689289
-10.166815 -3.46716 -0.59999347
-11.178412 -3.8121419 0
-9.6084604 -3.2767458 0.56704223
-10.184741 -3.4870164 -0.60129958
-11.171338 -3.8248038 0
-9.5897388 -3.2833016 0.56617111
-10.187895 -3.5018549 -0.60173517
-11.149478 -3.832377 0
-9.5513668 -3.2830629 0.56413943
-10.191028 -3.516706 -0.60217071
-5.1104231 -1.7634979 0
-9.5351133 -3.2903643 0.56341386
-10.157308 -3.5188103 -0.60042906
-5.1107454 -1.7705227 0
-9.5360365 -3.3035827 0.56370389
-10.926095 -3.7999351 -0.64614534
-9.8205013 -3.415426 0
-9.5443068 -3.3193696 0.5644294
-10.894517 -3.803715 -0.64454919
-9.8360233 -3.4341526 0
-9.5280256 -3.326618 0.56370389
-5.1103988 -1.7911768 -0.30247289
-9.8171358 -3.4408717 0
-9.4921227 -3.3269558 0.56181717
-5.0935287 -1.7921774 -0.30160233
-9.7884169 -3.4440916 0
-9.456233 -3.3272116 0.5599305
-5.0962548 -1.8000598 -0.30189234
-9.749898 -3.4437835 0
-9.4424057 -3.3351736 0.55934995
-5.0740724 -1.7991235 -0.60006142
-10.307853 -3.654875 -0.61087853
-9.7555408 -3.4590409 0
-9.4530678 -3.3517923 0.56022108
-10.269161 -3.6551304 -0.60884684
-9.7832251 -3.4821699 0
-9.4783783 -3.3736646 0.56196219
-7.9558411 -2.8425798 -0.94166994
-10.235373 -3.6570446 -0.6071052
-9.8304749 -3.5123763 0
-9.4889812 -3.3903625 0.56283331
-7.9426622 -2.8486979 -0.94051677
-10.191813 -3.6553736 -0.60478294
-0 -0 0
-9.4946613 -3.4053345 0.56341386
-7.9440861 -2.8600469 -0.94109392
-10.162946 -3.6588855 -0.6033318
-0 -0 0
-9.5541 -3.4396877 0.56718719
-0 -0 -0
-7.9301844 -2.8604553 -0.93965161
-11.165286 -4.0273719 -0.66298097
-9.778204 -3.5270448 0
-9.6766729 -3.490422 0.57458889
-7.8926792 -2.8577094 -0.93561608
-11.104215 -4.0205126 -0.65964258
-9.7641468 -3.5353134 0
-9.7042074 -3.5136111 0.57647556
-0 -0 -0
-11.009035 -4.0161695 -0.65456313
-10.652806 -3.886215 0
-9.7005663 -3.5388312 0.5767656
-0 -0 -0
-10.989539 -4.0241098 -0.6536926
-10.638328 -3.8955045 0
-9.7036057 -3.5532312 0.57720113
-7.6360245 -2.8066003 -0.90678906
-15.140387 -5.5648088 -0.9009974
-10.633613 -3.908356 0
-9.7212524 -3.5730205 0.57850724
-7.622921 -2.8122442 -0.90563589
-10.16314 -3.7493804 -0.60507292
-10.655743 -3.9311111 0
-9.7120571 -3.582967 0.57821727
-7.5952573 -2.8124695 -0.9027524
-10.158603 -3.7616577 -0.60507292
-9.4771376 -3.5093162 0
-9.7150335 -3.5974073 0.5786528
-7.5506406 -2.8063273 -0.89785171
-10.124831 -3.7630701 -0.6033318
-9.4728899 -3.5207651 0
-9.71068 -3.6091435 0.5786528
-7.3921585 -2.7575951 -0.8794021
-11.047798 -4.1213069 -0.65862703
-9.4686289 -3.5322084 0
-9.7038698 -3.6199634 0.57850724
-7.2580237 -2.7175519 -0.86383486
-11.059837 -4.1410279 -0.65964258
-9.4594755 -3.54182 0
-9.7116537 -3.636241 0.57923281
-7.2063208 -2.7081258 -0.85807014
-11.049965 -4.1525626 -0.6593526
-10.943607 -4.1125932 0
-9.7169828 -3.6516292 0.57981336
-7.1981988 -2.715004 -0.85749298
-11.040072 -4.1640754 -0.65906203
-9.9354372 -3.7474308 0
-9.7174301 -3.6652033 0.58010393
-7.1949129 -2.7236996 -0.85749298
-15.098037 -5.7154989 -0.90172297
-9.9065676 -3.750221 0
-9.7008467 -3.6723435 0.57937837
-7.1916165 -2.7323914 -0.85749298
-15.061971 -5.7226629 -0.89998132
-9.4957733 -3.6078353 0
-9.6818228 -3.6785233 0.57850724
-7.1834807 -2.7392375 -0.85691696
-7.2618322 -2.769115 -0.43410784
-9.4160213 -3.5905602 0
-9.6919432 -3.695776 0.57937837
-7.182579 -2.7488389 -0.85720497
-7.2778955 -2.7853174 -0.43526897
-5.0927606 -1.9490463 0
-9.7141581 -3.7176976 0.58097452
-7.171257 -2.749474 -0.8560518
-7.273778 -2.7887809 -0.43512341
-5.0842896 -1.9493268 0
-9.7167673 -3.7254281 0.58126503
-7.179997 -2.7627807 -0.85749298
-0 -0 -0
-5.0940728 -1.9601408 0
-9.7049818 -3.7343657 0.5808295
-7.1573505 -2.7639999 -0.85518664
-0 -0 -0
-5.0892749 -1.965358 0
-9.6956186 -3.7442193 0.58053946
-7.1347122 -2.7651687 -0.8528803
-0 -0 -0
-9.3648157 -3.6294801 0
-9.6741257 -3.7493579 0.57952338
-7.1289577 -2.772851 -0.85259229
-0 -0 -0
-9.3822508 -3.6492827 0
-9.6913815 -3.769521 0.5808295
-7.0966887 -2.7701766 -0.84913278
-0 -0 -0
-9.365715 -3.6558859 0
-9.7013474 -3.7868993 0.58170062
-7.0451708 -2.759881 -0.84336692
-7.2412744 -2.8367028 -0.43439785
-9.346756 -3.6615059 0
-9.6822433 -3.7929301 0.5808295
-6.9961019 -2.7504141 -0.83789021
-7.2330093 -2.8435509 -0.43410784
-9.3495836 -3.6756508 0
-9.6703959 -3.8017735 0.58039391
-6.9181943 -2.7294419 -0.82895398
-7.2247295 -2.8503795 -0.4338173
-9.3475637 -3.6879032 0
-9.644043 -3.8048737 0.57908779
-6.874011 -2.7216136 -0.82405329
-7.2309437 -2.8629332 -0.43439785
-9.3479357 -3.7011094 0
-9.6418524 -3.8174794 0.57923281
-6.8466759 -2.720365 -0.82116979
-7.2033358 -2.8620753 -0.43294674
-9.3507147 -3.7152858 0
-9.6517267 -3.8348856 0.58010393
-6.8265734 -2.7219331 -0.81915259
-11.054288 -4.4076333 -0.66472262
-9.3486338 -3.7275445 0
-9.6374311 -3.8426955 0.57952338
-6.8064671 -2.7234528 -0.81713426
-11.007944 -4.4045777 -0.66225541
-9.3344584 -3.7349706 0
-9.6279516 -3.8524053 0.57923281
-6.7959685 -2.7287829 -0.8162691
-10.992969 -4.4140029 -0.66167486
-12.338981 -4.9544663 0
-9.6281166 -3.8659742 0.57952338
-6.7854762 -2.7340953 -0.81540507
-10.970754 -4.4204836 -0.66065872
-12.316085 -4.9625626 0
-12.28411 -4.9496784 0.73974901
-6.7845631 -2.7432609 -0.81569308
-15.115865 -6.111928 -0.91072136
-12.305259 -4.9754915 0
-12.280527 -4.9654908 0.73989397
-6.7932248 -2.7563179 -0.81713426
-15.094018 -6.1243243 -0.90985024
-12.299238 -4.990356 0
-12.286564 -4.9852138 0.74062014
-6.793952 -2.7613945 -0.81742227
-15.083091 -6.130506 -0.90941465
-5.078176 -2.0640192 0
-12.305212 -5.0014405 0.74192625
-6.771451 -2.7617874 -0.81511593
-15.082892 -6.1516714 -0.90985024
-5.0949473 -2.0780127 0
-12.287123 -5.0113959 0.74120009
-6.7393837 -2.7582109 -0.81165642
-15.089882 -6.1757989 -0.91072136
-5.092433 -2.0841675 0
-12.288276 -5.0291924 0.74163568
-6.7049451 -2.7535796 -0.80790889
-15.079998 -6.1930375 -0.91057581
-5.0826955 -2.0873561 0
-12.265371 -5.0371294 0.74062014
-6.668138 -2.7478845 -0.80387336
-5.074017 -2.0909605 -0.30653679
-12.105897 -4.98874 0
-12.247256 -5.0469933 0.73989397
-6.660037 -2.7539649 -0.80329734
-5.1027012 -2.109997 -0.30842346
-19.33853 -7.9965963 0
-12.267566 -5.072711 0.74149066
-6.6232538 -2.7481308 -0.79926068
-5.1001477 -2.1161613 -0.30842346
-19.328852 -8.0199575 0
-17.954058 -7.4495258 1.0857437
-6.6175432 -2.7551386 -0.79897267
-10.849726 -4.5171595 -0.65644979
-19.311947 -8.040309 0
-17.906662 -7.4552345 1.0834215
-6.5545464 -2.7382081 -0.79176563
-10.834669 -4.5262594 -0.65586925
-19.316622 -8.0696545 0
-17.883261 -7.4708581 1.0825509
-6.5202255 -2.7331281 -0.78801811
-10.795647 -4.5252862 -0.65383756
-19.299654 -8.0899696 0
-17.867029 -7.4894462 1.0821153
-6.5121546 -2.739001 -0.78744209
-10.768617 -4.5292616 -0.65253145
-12.148575 -5.1096697 0
-17.86994 -7.5160661 1.0828409
-6.473093 -2.7317817 -0.78311741
-10.760744 -4.5412607 -0.65238649
-12.130405 -5.1192865 0
-17.858454 -7.5366435 1.0826958
-6.4412069 -2.7274988 -0.7796579
-10.779172 -4.5643897 -0.65383756
-0 -0 0
-17.839762 -7.5541635 1.0821153
-6.4069619 -2.7221322 -0.77591038
-10.811913 -4.5936685 -0.65615982
-12.0677 -5.1272159 0
-12.452315 -5.2906275 0.75571352
-6.356082 -2.7095859 -0.77014452
-10.823081 -4.6138592 -0.65717536
-12.061496 -5.1417933 0
-12.503282 -5.3301258 0.75919682
-6.3266511 -2.7060781 -0.76697415
-10.791224 -4.6156955 -0.65557927
-12.083988 -5.1686454 0
-12.613886 -5.3952966 0.76630801
-6.289351 -2.6946197 -0.76264948
-10.735892 -4.5997033 -0.65238649
-12.126307 -5.195415 0
-12.663175 -5.4254313 0.76950133
-6.2694635 -2.6950698 -0.76063228
-10.696901 -4.5983033 -0.65035421
-12.127196 -5.2131481 0
-12.666159 -5.4448328 0.77008188
-6.2567024 -2.6985459 -0.75947911
-10.688953 -4.6101971 -0.65020925
-12.118501 -5.226768 0
-12.621394 -5.4436684 0.76775968
-6.253437 -2.706104 -0.75947911
-10.673836 -4.6189814 -0.6496287
-12.090683 -5.2321057 0
-18.430887 -7.9757566 1.1217365
-6.2382936 -2.7085047 -0.75803679
-10.670629 -4.6329093 -0.64977366
-12.091507 -5.2498174 0
-18.423616 -7.9990549 1.1218816
-6.2207932 -2.7098446 -0.7563076
-10.676931 -4.6509867 -0.65049922
-19.681641 -8.573535 0
-18.430607 -8.0285721 1.1228971
-6.2056665 -2.7121813 -0.75486642
-10.683216 -4.6690903 -0.65122533
-19.642651 -8.5848036 0
-18.420893 -8.0508356 1.1228971
-6.2000184 -2.7186399 -0.75457841
-10.696604 -4.6903434 -0.65238649
-19.637024 -8.6106195 0
-18.42067 -8.0772619 1.1234777
-6.1990943 -2.72717 -0.75486642
-10.736113 -4.7231426 -0.65514368
-19.519421 -8.5871868 0
-18.425173 -8.105794 1.1243488
-6.1863294 -2.7304809 -0.75371325
-10.744657 -4.7424049 -0.65601426
-19.401892 -8.5634775 0
-18.424873 -8.1322479 1.1249293
-6.1806626 -2.7369075 -0.75342524
-10.727041 -4.7501249 -0.6552887
-19.322523 -8.5563574 0
-18.424538 -8.1587133 1.1255099
-5.007822 -2.2247941 -0.91355759
-6.165535 -2.7391241 -0.75198406
-13.041208 -5.7937369 -0.79708254
-19.290768 -8.5701895 0
-18.419411 -8.1830778 1.1257999
-5.0262303 -2.2402482 -0.91740888
-6.1574912 -2.7444639 -0.75140691
-13.041321 -5.812665 -0.79751813
-19.273264 -8.590313 0
-18.41188 -8.2063847 1.125945
-5.0516415 -2.2588944 -0.92254454
-6.1518121 -2.7508473 -0.7511189
-13.031918 -5.8273587 -0.79737312
-5.094377 -2.2780042 0
-18.416189 -8.234992 1.126816
-5.0465684 -2.263947 -0.92211694
-6.1508412 -2.7593362 -0.75140691
-13.058054 -5.8579893 -0.7994048
-5.0892396 -2.2830899 0
-18.425192 -8.2657471 1.1279771
-5.0087132 -2.2542388 -0.91569704
-6.1640153 -2.7741981 -0.75342524
-10.641288 -4.7892551 -0.65180588
-5.0746131 -2.2838981 0
-18.41519 -8.2880039 1.1279771
-6.1407986 -2.7816143 -0.75140691
-10.596541 -4.7999444 -0.64977366
-5.0667109 -2.2950819 0
-18.416409 -8.3421307 1.1292833
-6.1485381 -2.7895985 -0.75256008
-10.598377 -4.8084946 -0.65006423
-19.720537 -8.9472284 0
-18.42083 -8.3575497 1.1298639
-6.1404595 -2.7948847 -0.75198406
-13.48007 -6.1355734 -0.82727045
-19.709711 -8.9710503 0
-18.417814 -8.3830318 1.1302993
-0 -0 -0
-6.1441298 -2.8055222 -0.75284809
-13.489185 -6.159409 -0.82828605
-19.679918 -8.9862108 0
-18.424212 -8.4128323 1.131315
-6.1336875 -2.8097157 -0.75198406
-0 -0 -0
-19.728195 -9.0370789 0
-18.418762 -8.4372549 1.1316055
-6.1443849 -2.8236029 -0.75371325
-0 -0 -0
-19.731445 -9.0674286 0
-18.413271 -8.4616718 1.1318955
-6.1339192 -2.8277755 -0.75284809
-13.443176 -6.1973891 -0.82683492
-19.729929 -9.0956211 0
-18.417196 -8.4904442 1.1327666
-6.1281528 -2.8341005 -0.75256008
-13.412089 -6.2027187 -0.82538325
-19.700026 -9.1107149 0
-18.416359 -8.5170546 1.1333472
-6.1294117 -2.843678 -0.7531361
-13.383372 -6.2090793 -0.82407713
-19.648872 -9.1158934 0
-18.413118 -8.5425777 1.1337821
-6.1283231 -2.8521767 -0.75342524
-13.331107 -6.2044172 -0.82131988
-19.45145 -9.0528803 0
-18.416922 -8.5714016 1.1346533
-6.1342468 -2.8639562 -0.75457841
-13.267093 -6.1941385 -0.81783652
-5.0919075 -2.3773088 0
-18.411257 -8.5958443 1.1349432
-6.1354618 -2.8735583 -0.75515443
-13.245484 -6.2035542 -0.816966
-5.084322 -2.3812542 0
-18.41498 -8.6246996 1.1358144
-6.136672 -2.8831713 -0.75573158
-13.221514 -6.2118182 -0.81594986
-5.0673037 -2.3807538 0
-18.413942 -8.6513596 1.1363944
-0 -0 -0
-6.1495543 -2.8982999 -0.75774878
-13.192846 -6.2178206 -0.81464374
-5.0620713 -2.3857665 0
-6.9760494 -3.2878289 0.43076336
-6.1507292 -2.9079416 -0.75832593
-13.166531 -6.2248721 -0.81348264
-5.0497737 -2.3874319 0
-6.9673686 -3.2940323 0.43047279
-6.1472111 -2.9153714 -0.75832593
-13.137872 -6.2307563 -0.81217653
-18.385998 -8.7197285 0
-6.9610376 -3.3013363 0.4303278
-6.1273322 -2.9150176 -0.7563076
-13.078716 -6.2220702 -0.80898374
-18.363699 -8.7363482 0
-6.9500022 -3.3063948 0.42989224
-6.1191411 -2.9201934 -0.75573158
-13.059465 -6.2322741 -0.80825818
-18.317896 -8.7417173 0
-6.9272413 -3.3058372 0.42873114
-6.1243701 -2.9272327 -0.75659561
-5.0780463 -2.4271271 -0.31437406
-18.317312 -8.7550287 0
-6.9111805 -3.3033004 0.42786059
-6.1184983 -2.9335136 -0.7563076
-13.050488 -6.2570558 -0.80840319
-18.276205 -8.7625256 0
-6.9095249 -3.3127711 0.42800558
-5.0008273 -2.405082 -0.61851102
-13.038231 -6.2705655 -0.80811262
-19.332689 -9.2978029 0
-6.9031777 -3.3199925 0.42786059
-6.8358526 -3.2977896 -0.84596241
-13.028307 -6.2851872 -0.8079676
-19.316757 -9.3188963 0
-6.8944759 -3.326071 0.42757002
-6.8528147 -3.3161857 -0.84855676
-13.013683 -6.2975283 -0.80753207
-0 -0 0
-6.8810959 -3.3298717 0.42698947
-6.8534517 -3.3267205 -0.84913278
-12.992043 -6.3064418 -0.80666149
-19.284817 -9.3610039 0
-6.8770676 -3.3381836 0.42698947
-6.1401949 -2.9896724 -0.7612083
-15.374259 -7.4857559 -0.95513153
-19.280504 -9.3877144 0
-6.8613501 -3.3408043 0.4262639
-6.1412306 -2.999362 -0.76178545
-15.358196 -7.500905 -0.95469594
-19.283182 -9.4178591 0
-6.8573084 -3.3490925 0.4262639
-6.1956592 -3.0352221 -0.76899135
-15.360786 -7.5251718 -0.95542151
-19.283472 -9.4468756 0
-6.8602595 -3.3608065 0.42669946
-0 -0 -0
-7.1664495 -3.5215514 -0.44600844
-19.267376 -9.4678755 0
-6.8538637 -3.3679483 0.42655447
-6.2579098 -3.0844932 -0.7776407
-7.1528664 -3.5256128 -0.44542789
-19.272255 -9.4991999 0
-6.840466 -3.3716321 0.42597389
-6.2634439 -3.0966332 -0.77879274
-0 -0 -0
-19.260763 -9.52248 0
-6.8433685 -3.3833466 0.42640889
-6.2736053 -3.1110959 -0.78052306
-7.1094131 -3.5255752 -0.44325122
-19.237589 -9.5399656 0
-6.84161 -3.3927708 0.42655447
-5.3361225 -2.6542339 -0.99358296
-6.2744689 -3.1209757 -0.78109908
-7.08886 -3.5260611 -0.44223511
-6.9840331 -3.4739192 0
-6.8328481 -3.3987184 0.4262639
-5.3191338 -2.6538057 -0.99101597
-6.2799506 -3.1331737 -0.78225225
-7.0845947 -3.5346241 -0.44223511
-6.9705157 -3.4777081 0
-6.8310595 -3.4081309 0.42640889
-5.3159232 -2.6602309 -0.99101597
-6.2645974 -3.134973 -0.78081107
-7.0756755 -3.5408583 -0.44194511
-6.9500237 -3.4779787 0
-5.2724452 -2.6384735 0.32931575
-5.3211932 -2.6668894 -0.99229866
-6.2696414 -3.142235 -0.78167623
-15.175823 -7.6058583 -0.94816536
-6.9339566 -3.4751782 0
-0 -0 0
-5.2835698 -2.6560256 -0.98588037
-6.2612138 -3.1474829 -0.78109908
-5.0843606 -2.5558841 -0.31785685
-6.9158058 -3.4765432 0
-0 -0 0
-5.2872353 -2.6658764 -0.98716468
-6.2620296 -3.1573772 -0.78167623
-5.0580711 -2.5503294 -0.31640571
-6.9185739 -3.4884131 0
-5.264451 -2.6543882 0.32931575
-5.2771358 -2.6687863 -0.98588037
-6.2651367 -3.1684442 -0.78254139
-5.0503526 -2.554096 -0.31611574
-5.2632031 -2.6617401 0
-5.2473316 -2.6537135 0.3284452
-5.2555923 -2.6658704 -0.98245662
-6.2613034 -3.176012 -0.78254139
-5.063478 -2.5684216 -0.31713128
-5.2274938 -2.6516178 0
-5.2278976 -2.6518226 0.32742909
-5.2294917 -2.6605806 -0.97817779
-6.2689857 -3.1894383 -0.78398257
-5.0418429 -2.5651116 -0.31597018
-5.2057295 -2.6484914 0
-5.2154255 -2.6534245 0.32684851
-5.1645336 -2.6353927 -0.96662229
-5.0372324 -2.5704324 -0.63033074
-5.0456858 -2.5747461 -0.31640571
-5.2025256 -2.6547794 0
-5.1936994 -2.6502757 0.32568741
-5.1224999 -2.6217496 -0.95934725
-5.0824718 -2.6012628 -0.63638461
-5.0703282 -2.5950475 -0.31814739
-0 -0 0
-5.1789303 -2.6506312 0.32496184
-5.1033487 -2.6197343 -0.95635271
-5.1345406 -2.635746 -0.6433025
-5.1041756 -2.6201587 -0.32046962
-5.233139 -2.6863604 0
-5.1711049 -2.654516 0.32467183
-5.1458173 -2.6493959 -0.96491039
-5.1405501 -2.6466842 -0.64445567
-5.1194873 -2.6358397 -0.32163075
-5.1766782 -2.6652851 0
-5.1540279 -2.6536233 0.32380074
-5.1768279 -2.6732805 -0.97133034
-0 -0 -0
-5.1486173 -2.6587129 -0.32366243
-5.1618853 -2.6655641 0
-5.1323471 -2.650311 0.32263961
-0 -0 -0
-0 -0 -0
-0 -0 -0
-5.1447992 -2.6646202 0
-5.1199117 -2.6517303 0.32205907
-0 -0 -0
-0 -0 -0
-0 -0 -0
-5.1300306 -2.6648376 0
-5.1051764 -2.651927 0.3213335
-5.1534395 -2.6849096 -0.96876168
-5.1437573 -2.6798654 -0.646474
-5.0790348 -2.6461451 -0.31988907
-5.1129541 -2.6638172 0
-5.0927505 -2.6532912 0.32075295
-0 -0 -0
-5.1365447 -2.6840038 -0.96619469
-5.1244664 -2.6776924 -0.64445567
-0 -0 -0
-5.0958967 -2.6627638 0
-5.0757275 -2.6522248 0.31988239
-0 -0 -0
-0 -0 -0
-5.1219316 -2.6842513 -0.9640553
-5.1051974 -2.6754816 -0.64243847
-0 -0 -0
-5.0903726 -2.6677125 0
-5.063313 -2.6535313 0.31930181
-0 -0 -0
-5.0998535 -2.6766098 -0.96020401
-5.094419 -2.6737573 -0.6412853
-5.1055236 -2.6795857 -0.32206574
-5.0795426 -2.6659496 0
-5.0525055 -2.6517596 0.31872126
-0 -0 -0
-5.0875297 -2.6779871 -0.9584921
-5.0705881 -2.6690693 -0.63869095
-0 -0 -0
-5.0694065 -2.6684475 0
-5.0355062 -2.6506028 0.31785071
-0 -0 -0
-5.0683966 -2.6757419 -0.95549595
-5.0650654 -2.6739831 -0.63840181
-5.0415883 -2.6615891 -0.3184374
-5.050066 -2.6660645 0
-5.023108 -2.6518328 0.31727016
-0 -0 -0
-5.0515523 -2.6746593 -0.95292896
-5.0458364 -2.6716328 -0.63638461
-5.0337801 -2.6652493 -0.31814739
-5.0353432 -2.6660769 0
-5.0038233 -2.6493881 0.31625405
-0 -0 -0
-5.0437779 -2.6783509 -0.9520722
-5.035749 -2.6740875 -0.63551944
-5.0259619 -2.6688902 -0.31785685
-5.0114336 -2.6611753 0
-4.9868531 -2.6481225 0.31538346
-0 -0 -0
-5.024684 -2.6759999 -0.94907767
-5.0188212 -2.6728778 -0.63379025
-5.0066857 -2.6664145 -0.31684127
-4.9898376 -2.6574419 0
-4.9721756 -2.6480355 0.31465736
-0 -0 -0
-5.0146518 -2.6784399 -0.94779336
-5.0064621 -2.6740658 -0.63263708
-4.996582 -2.6687884 -0.31640571
-4.9797344 -2.6597898 0
-4.9552245 -2.6466985 0.3137868
-0 -0 -0
-5.0000997 -2.6784375 -0.94565392
-4.9986629 -2.6776681 -0.63205993
-4.9841914 -2.6699159 -0.31582516
-4.9696412 -2.6621218 0
-4.9497347 -2.6514583 0.31364182
-0 -0 -0
-4.9855461 -2.6783993 -0.94351286
-4.9726434 -2.6714675 -0.62917757
-4.9649363 -2.6673272 -0.31480905
-4.9572506 -2.663198 0
-4.9396582 -2.6537466 0.31320626
-0 -0 -0
-4.9732752 -2.6795557 -0.94180262
-4.9580293 -2.6713412 -0.62773639
-4.9457035 -2.6647003 -0.31379351
-4.9356999 -2.6593103 0
-4.9341626 -2.6584821 0.31306124
-0 -0 -0
-4.9542227 -2.6770191 -0.93880647
-4.9411402 -2.66995 -0.62600607
-4.9401965 -2.66944 -0.31364849
-4.9301958 -2.6640363 0
-4.9263701 -2.6619692 0.31277069
-0 -0 -0
-4.9329286 -2.6732187 -0.93538272
-4.9310861 -2.6722205 -0.62514091
-4.9255381 -2.6692138 -0.31292239
-4.9155259 -2.6637881 0
-4.9322882 -2.6728718 0.31335124
-0 -0 -0
-4.9251795 -2.6767232 -0.93452597
-4.9187636 -2.6732364 -0.62398773
-4.9154663 -2.6714444 -0.31248739
-4.914597 -2.6709719 0
-4.9313359 -2.6800692 0.31349623
-0 -0 -0
-4.8939252 -2.6750774 -0.92981952
-4.8918653 -2.6739514 -0.62139338
-4.9067097 -2.6820655 -0.31234181
-4.9058375 -2.6815889 0
-4.9225669 -2.6907334 0.31335124
-0 -0 -0
-4.8974447 -2.6846919 -0.93110389
-4.8977027 -2.6848335 -0.62254655
-4.9103031 -2.6917408 -0.31277737
-4.8911858 -2.6812608 0
-4.9352641 -2.7054241 0.31436735
-0 -0 -0
-4.8919411 -2.6893673 -0.93067467
-4.8876619 -2.6870151 -0.62168252
-4.9093218 -2.6989226 -0.31292239
-4.9039087 -2.6959465 0
-4.9228835 -2.7063782 0.3137868
-0 -0 -0
-4.8948174 -2.6948009 -0.93153143
-4.8905649 -2.6924598 -0.62225854
-4.9099731 -2.7031448 -0.31306794
-4.8977151 -2.6963961 0
-4.9280787 -2.7131126 0.31422237
-0 -0 -0
-4.8960481 -2.7031925 -0.93238652
-4.8827839 -2.6958692 -0.62168252
-4.9089761 -2.7103302 -0.31321293
-4.9126797 -2.7123752 0
-4.9247966 -2.7190652 0.31422237
-0 -0 -0
-4.897274 -2.7115958 -0.93324327
-4.8908348 -2.7080305 -0.62312371
-4.9079685 -2.7175174 -0.31335795
-4.9162312 -2.7220924 0
-4.9306006 -2.7300487 0.31480291
-0 -0 -0
-4.8895011 -2.7150164 -0.93238652
-4.8852997 -2.7126837 -0.6228357
-4.911499 -2.7272313 -0.31379351
-4.9015646 -2.721715 0
-4.9318376 -2.7385247 0.31509292
-0 -0 -0
-4.8974285 -2.7271657 -0.93452597
-4.8774948 -2.7160654 -0.62225854
-4.9036551 -2.730633 -0.31350294
-4.9073672 -2.7327001 0
-4.9353375 -2.7482758 0.31552848
-0 -0 -0
-4.8941298 -2.7330813 -0.93452597
-4.8877544 -2.729521 -0.62398773
-4.9116936 -2.7428896 -0.3142285
-4.9040618 -2.7386277 0
-4.9252052 -2.7504351 0.31509292
-0 -0 -0
-4.8885865 -2.7377398 -0.93409842
-4.8844528 -2.735425 -0.62398773
-4.9083757 -2.7488225 -0.3142285
-4.8848519 -2.7356486 0
-4.9128094 -2.7513056 0.31451237
-0 -0 -0
-4.8875108 -2.7449007 -0.93452597
-4.8879113 -2.7451255 -0.6248529
-4.909586 -2.7572985 -0.31451905
-4.8928866 -2.7479198 0
-4.9321332 -2.7699614 0.31596348
-0 -0 -0
-4.8953805 -2.7571065 -0.93666703
-4.8823395 -2.7497616 -0.62456489
-4.9130454 -2.7670553 -0.31495461
-4.8918366 -2.7551105 0
-4.9333153 -2.7784715 0.31625405
-0 -0 -0
-4.8920455 -2.7630196 -0.93666703
-4.8857718 -2.7594762 -0.62543005
-4.9142189 -2.775543 -0.31524462
-4.9020963 -2.7686961 0
-4.9254251 -2.7818723 0.31596348
-0 -0 -0
-4.8909349 -2.7701926 -0.93709457
-4.8959332 -2.7730234 -0.62715924
-4.9108615 -2.7814789 -0.31524462
-4.8919516 -2.7707684 0
-4.9311037 -2.792944 0.31654403
-0 -0 -0
-4.8987427 -2.7824383 -0.93923402
-4.8858294 -2.7751038 -0.62629408
-4.9029827 -2.7848465 -0.31495461
-4.895391 -2.7805345 0
-4.9367633 -2.8040335 0.31712461
-0 -0 -0
-4.902071 -2.7921681 -0.94051832
-4.882473 -2.7810054 -0.62629408
-4.9041257 -2.7933383 -0.31524462
-4.9055915 -2.7941735 0
-4.9333715 -2.8099966 0.31712461
-0 -0 -0
-4.8964667 -2.7968173 -0.94009078
-4.8880925 -2.7920341 -0.62744725
-4.9007468 -2.799262 -0.31524462
-4.8886571 -2.7923565 0
-4.9367437 -2.8198233 0.31756014
-0 -0 -0
-4.8863993 -2.7989028 -0.93880647
-4.8892088 -2.8005121 -0.6280244
-4.9041271 -2.8090572 -0.31568018
-4.8965688 -2.804728 0
-4.924314 -2.8206201 0.31697959
-0 -0 -0
-4.8896937 -2.8086419 -0.94009078
-4.8903027 -2.8089917 -0.62860042
-4.9007297 -2.814981 -0.31568018
-4.8931761 -2.8106425 0
-4.9231529 -2.8278611 0.31712461
-0 -0 -0
-4.879621 -2.810703 -0.93880647
-4.8936305 -2.8187728 -0.62946558
-4.9085803 -2.827384 -0.31640571
-4.8897767 -2.8165529 0
-4.9152336 -2.8312163 0.3168346
-0 -0 -0
-4.8957114 -2.8239117 -0.94223017
-4.8874502 -2.8191466 -0.62888956
-4.9136262 -2.8342452 -0.31684127
-4.8925872 -2.8221097 0
-4.9225259 -2.8393786 0.31741515
-0 -0 -0
-4.9011841 -2.8349664 -0.94394207
-4.8907504 -2.8289316 -0.62975359
-4.9146919 -2.8427799 -0.31713128
-4.8914242 -2.8293211 0
-4.9280882 -2.8505287 0.3179957
-0 -0 -0
-4.8999734 -2.8421733 -0.94436961
-4.8828583 -2.8322458 -0.62917757
-4.9112535 -2.8487163 -0.31713128
-4.8924999 -2.8378384 0
-4.9291315 -2.8590863 0.3182857
-0 -0 -0
-4.8943186 -2.8468025 -0.94394207
-4.8973188 -2.8485475 -0.63148391
-4.9078078 -2.8546486 -0.31713128
-4.9093204 -2.8555284 0
-4.9301701 -2.8676555 0.31857628
-0 -0 -0
-4.9019604 -2.8591797 -0.94608146
-4.8849363 -2.8492503 -0.63033074
-4.8953767 -2.8553398 -0.31655073
-4.8946199 -2.8548982 0
-4.9289436 -2.8749185 0.31872126
-0 -0 -0
-4.8962884 -2.863806 -0.94565392
-4.8814902 -2.8551507 -0.63033074
-4.905385 -2.8691268 -0.31742185
-4.9158802 -2.8752651 0
-4.9299479 -2.8834932 0.31901127
-0 -0 -0
-4.8950367 -2.8710175 -0.94608146
-4.8802657 -2.8623543 -0.63061875
-4.9086328 -2.8789918 -0.31785685
-4.8989372 -2.8733053 0
-4.9264603 -2.8894479 0.31901127
-0 -0 -0
-4.8959851 -2.8795304 -0.94693661
-4.8857212 -2.8734939 -0.63177192
-4.9006748 -2.8822887 -0.31756684
-4.9021854 -2.883177 0
-4.922965 -2.8953986 0.31901127
-0 -0 -0
-4.8925023 -2.8854442 -0.94693661
-4.8800201 -2.8780825 -0.63148391
-4.912858 -2.8974495 -0.31858295
-4.8919792 -2.8851359 0
-4.9217076 -2.9026687 0.31915683
-0 -0 -0
-4.8934355 -2.8939698 -0.94779336
-4.8876681 -2.890559 -0.63292509
-4.9138227 -2.9060266 -0.31887296
-4.901926 -2.8989909 0
-4.9249001 -2.9125779 0.31959182
-0 -0 -0
-4.9031792 -2.9077344 -0.95036036
-4.8908482 -2.9004219 -0.63379025
-4.9036002 -2.9079843 -0.3184374
-4.896183 -2.9035857 0
-4.9258518 -2.92118 0.31988239
-0 -0 -0
-4.8952532 -2.9110351 -0.94950521
-4.8851104 -2.9050035 -0.63350111
-4.9112477 -2.9205465 -0.31916296
-4.8971405 -2.9121573 0
-4.9267807 -2.9297833 0.32017237
-0 -0 -0
-4.8961377 -2.919575 -0.95036036
-4.886044 -2.9135561 -0.63407826
-4.9166427 -2.931802 -0.31974351
-4.9025593 -2.923404 0
-4.9232373 -2.9357343 0.32017237
-0 -0 -0
-4.8992186 -2.9294424 -0.95164466
-4.8869557 -2.9221098 -0.63465428
-4.8974915 -2.9284098 -0.31872797
-4.9057264 -2.9333336 0
-4.9152303 -2.9390166 0.31988239
-0 -0 -0
-4.8912678 -2.9327173 -0.9507879
-4.8856373 -2.9293416 -0.63494229
-4.911778 -2.945015 -0.31988907
-4.8999486 -2.9379222 0
-4.9228163 -2.9516332 0.32060793
-0 -0 -0
-4.8899269 -2.9399519 -0.95121711
-4.87988 -2.9339113 -0.63465428
-4.8970752 -2.9442494 -0.31916296
-4.90308 -2.9478598 0
-4.9259291 -2.9615972 0.32104349
-0 -0 -0
-4.890347 -2.9442284 -0.95164466
-4.88697 -2.9421952 -0.63580745
-4.9042001 -2.9525685 -0.31974351
-4.9035339 -2.9521677 0
-4.9308109 -2.9685895 0.32147849
-0 -0 -0
-4.8955765 -2.955442 -0.9533565
-4.8811989 -2.9467626 -0.63551944
-4.9117575 -2.9652107 -0.32046962
-4.9021893 -2.9594343 0
-4.9294515 -2.9758921 0.32162407
-0 -0 -0
-4.8898077 -2.9600272 -0.95292896
-4.877635 -2.9526584 -0.63551944
-4.9015002 -2.9671052 -0.32003409
-4.907515 -2.9707463 0
-4.921402 -2.9791524 0.3213335
-0 -0 -0
-4.8884201 -2.9672642 -0.9533565
-4.8851166 -2.9652591 -0.63696063
-4.9045777 -2.9770718 -0.32046962
-4.8994684 -2.9739704 0
-4.9222455 -2.9877961 0.32162407
-0 -0 -0
-4.8914118 -2.977174 -0.95464081
-4.8859534 -2.9738517 -0.63753778
-4.9054117 -2.9856951 -0.32075962
-4.8936505 -2.9785366 0
-4.9208488 -2.9950912 0.32176906
-0 -0 -0
-4.9009538 -2.9911034 -0.9572078
-4.8823562 -2.9797533 -0.63753778
-4.9128885 -2.9983873 -0.32148519
-4.8967142 -2.9885161 0
-4.9172263 -3.0010347 0.32176906
-0 -0 -0
-4.8951488 -2.9956844 -0.95678025
-4.8919849 -2.9937484 -0.63926697
-4.9136987 -3.0070367 -0.32177573
-4.901979 -2.9998643 0
-4.9268909 -3.0151095 0.32263961
-0 -0 -0
-4.8893394 -3.0002558 -0.95635271
-4.8839593 -2.9969544 -0.63869095
-4.8989906 -3.0061779 -0.3210502
-4.8961258 -3.0044203 0
-4.9387488 -3.030575 0.32365572
-0 -0 -0
-4.890079 -3.0088494 -0.9572078
-4.8847361 -3.0055616 -0.63926697
-4.9064178 -3.0189023 -0.32177573
-4.90801 -3.0198822 0
-4.9505773 -3.0460734 0.32467183
-0 -0 -0
-4.8864398 -3.0147557 -0.9572078
-4.878902 -3.0101049 -0.63897896
-4.9049759 -3.0261917 -0.32192075
-4.9021449 -3.0244451 0
-4.9712124 -3.0670574 0.32626796
-0 -0 -0
-4.8958879 -3.0287585 -0.95977479
-4.8752608 -3.0159979 -0.63897896
-4.903523 -3.0334818 -0.32206574
-4.9006977 -3.031734 0
-4.9873886 -3.0853639 0.32757407
-0 -0 -0
-4.8922248 -3.034672 -0.95977479
-4.8760047 -3.0246108 -0.63955498
-4.9064808 -3.043515 -0.3225013
-4.8970308 -3.0376534 0
-4.9902835 -3.0954983 0.32800964
-0 -0 -0
-4.8907404 -3.0419409 -0.96020401
-4.8855286 -3.0386992 -0.6412853
-4.9116254 -3.0549309 -0.32308185
-4.8801017 -3.0353239 0
-4.9887438 -3.1028969 0.32815462
-0 -0 -0
-4.8892374 -3.0492053 -0.96063155
-4.8906322 -3.0500751 -0.64243847
-4.9079309 -3.0608635 -0.32308185
-4.8852634 -3.0467269 0
-4.9960213 -3.1158018 0.32888076
-0 -0 -0
-4.8942556 -3.060555 -0.96234339
-4.880362 -3.0518668 -0.64157331
-4.91084 -3.070926 -0.32351741
-4.8881922 -3.0567632 0
-4.9834404 -3.1163254 0.32830018
-0 -0 -0
-4.8970809 -3.070559 -0.96362776
-4.8898149 -3.0660031 -0.6433025
-4.9159322 -3.0823789 -0.32409799
-4.8889089 -3.0654352 0
-4.9906764 -3.1292453 0.32902575
-0 -0 -0
-4.8995686 -3.0762444 -0.96448284
-4.8857732 -3.0675826 -0.64301449
-4.907465 -3.0812018 -0.32366243
-4.8936706 -3.072541 0
-4.9931822 -3.1350205 0.32931575
-0 -0 -0
-4.8958483 -3.0821621 -0.96448284
-4.8930054 -3.0803723 -0.64445567
-4.903738 -3.0871294 -0.32366243
-4.9075651 -3.0895386 0
-4.9937925 -3.1438229 0.32960629
-0 -0 -0
-4.8986349 -3.0921879 -0.96576715
-4.8849092 -3.0835238 -0.64387965
-4.9131842 -3.1013718 -0.32453299
-4.9214344 -3.1065795 0
-5.0009747 -3.1567883 0.33033186
-0 -0 -0
-4.9035711 -3.1035962 -0.96747905
-4.8833632 -3.090806 -0.64416766
-4.9269981 -3.1184235 -0.32569408
-4.9484677 -3.1320124 0
-4.9905677 -3.1586583 0.3298963
-0 -0 -0
-4.9236536 -3.1246455 -0.97218543
-4.8949142 -3.1064069 -0.64618599
-4.9429698 -3.136904 -0.3270002
-4.9600549 -3.1477466 0
-4.9889393 -3.1660771 0.33004132
-0 -0 -0
-4.9675255 -3.1609137 -0.98160154
-4.9042459 -3.1206479 -0.64791518
-4.9698715 -3.1624067 -0.32903245
-4.9694262 -3.1621232 0
-4.9938793 -3.1776829 0.33062187
-0 -0 -0
-0 -0 -0
-5.0026526 -3.1917644 -0.98930413
-4.930994 -3.1460452 -0.65195072
-4.9748092 -3.1739998 -0.329613
-4.9765697 -3.175123 0
-4.990036 -3.1837146 0.33062187
-0 -0 -0
-5.0204129 -3.2116377 -0.99358296
-4.951158 -3.1673343 -0.65512222
-4.9644017 -3.1758065 -0.32917744
-4.9617701 -3.174123 0
-4.9883804 -3.1911461 0.33076742
-0 -0 -0
-5.0273304 -3.2246301 -0.99572241
-4.9560361 -3.1789005 -0.65627539
-4.9758649 -3.1916189 -0.33019301
-4.957931 -3.1801162 0
-4.9910765 -3.201376 0.33120242
-0 -0 -0
-5.0169592 -3.2265406 -0.99443972
-4.9478445 -3.182091 -0.65569937
-4.9654546 -3.1934164 -0.32975799
-4.9540849 -3.1861045 0
-4.9893961 -3.2088139 0.33134797
-0 -0 -0
-4.9936337 -3.2200756 -0.99058682
-4.9483395 -3.1908679 -0.65627539
-4.9681373 -3.2036343 -0.33019301
-4.9699144 -3.2047803 0
-4.983325 -3.213428 0.33120242
-0 -0 -0
-4.9319968 -3.1972306 -0.97988969
-4.9341006 -3.1985946 -0.65541023
-4.964746 -3.2184608 -0.33048356
-4.9665184 -3.2196097 0
-4.9886317 -3.2339449 0.33207354
-0 -0 -0
-4.9173617 -3.1961887 -0.97774857
-4.9432483 -3.2130144 -0.65714055
-4.9630299 -3.225872 -0.33062857
-4.9648128 -3.227031 0
-4.9934349 -3.2456348 0.33265409
-0 -0 -0
-4.9285531 -3.2119405 -0.98074478
-4.945857 -3.2232175 -0.65800458
-4.9634867 -3.2347066 -0.33091912
-4.9674449 -3.2372863 0
-4.9895096 -3.2516661 0.33265409
-0 -0 -0
-4.9440074 -3.2305298 -0.98459607
-4.9441299 -3.2306101 -0.65829372
-4.9682755 -3.2463872 -0.33149967
-4.9591765 -3.2404418 0
-4.9833956 -3.2562671 0.33250853
-0 -0 -0
-4.9637222 -3.2519772 -0.98930413
-4.9488769 -3.2422514 -0.6594469
-4.9730434 -3.2580838 -0.33208025
-4.961782 -3.250706 0
-4.9838085 -3.2651367 0.33279911
-0 -0 -0
-4.9724865 -3.2620146 -0.99144357
-4.9469171 -3.2452407 -0.6594469
-4.968895 -3.2596583 -0.33193466
-4.9554691 -3.2508509 0
-4.9905257 -3.2738483 0.33337966
-0 -0 -0
-0 -0 -0
-4.9642482 -3.2651963 -0.99058682
-4.9559541 -3.2597411 -0.66117609
-4.9779825 -3.2742302 -0.33280578
-4.9624071 -3.2639856 0
-4.9909039 -3.2827291 0.33366966
-0 -0 -0
-0 -0 -0
-4.9688711 -3.2768455 -0.99229866
-4.9649625 -3.2742679 -0.66290528
-4.9718471 -3.2788081 -0.33266023
-4.9649796 -3.2742789 0
-4.9999533 -3.2973433 0.33454078
-0 -0 -0
-0 -0 -0
-4.971334 -3.2870958 -0.99358296
-4.9394317 -3.2660019 -0.66002291
-4.9700556 -3.2862504 -0.33280578
-4.9718719 -3.2874513 0
-4.9894609 -3.2990816 0.33410522
-0 -0 -0
-0 -0 -0
-4.9737792 -3.2973571 -0.99486727
-4.9570355 -3.2862568 -0.66290528
-4.957418 -3.2865102 -0.33222523
-4.9635615 -3.2905831 0
-4.9919701 -3.3094165 0.33454078
-0 -0 -0
-0 -0 -0
-4.9655118 -3.3005197 -0.99401051
-4.9401412 -3.2836561 -0.66117609
-4.9642615 -3.2996886 -0.3329508
-4.9747477 -3.3066587 0
-4.987968 -3.3154459 0.33454078
-0 -0 -0
-0 -0 -0
-4.9636621 -3.3079448 -0.99443972
-4.9447789 -3.2953603 -0.66232926
-4.962431 -3.3071241 -0.33309579
-4.9664211 -3.3097835 0
-4.9882784 -3.3243499 0.33483076
-0 -0 -0
-0 -0 -0
-4.959662 -3.31394 -0.99443972
-4.9429421 -3.3027682 -0.66261727
-4.9627566 -3.3160079 -0.33338636
-4.9602566 -3.3143375 0
-4.9885831 -3.3332648 0.33512133
-0 -0 -0
-0 -0 -0
-4.9684463 -3.3285003 -0.99700671
-4.9561386 -3.320255 -0.66492361
-4.9760165 -3.3335717 -0.33454746
-4.9627285 -3.3246698 0
-4.9867086 -3.340735 0.33526632
-0 -0 -0
-0 -0 -0
-4.9708157 -3.3387966 -0.99829102
-4.9564214 -3.3291283 -0.66550076
-4.9719849 -3.339582 -0.33454746
-4.9673495 -3.3364685 0
-4.9891415 -3.3511057 0.33570188
-0 -0 -0
-0 -0 -0
-4.9646425 -3.3433623 -0.9978618
-4.952395 -3.3351147 -0.66550076
-4.970099 -3.3470371 -0.33469248
-4.9503665 -3.3337486 0
-4.9872422 -3.3585818 0.3358469
-0 -0 -0
-0 -0 -0
-4.9483619 -3.3410962 -0.66550076
-4.9660511 -3.3530402 -0.33469248
-4.9635897 -3.3513782 0
-4.9939456 -3.3718743 0.33657244
-0 -0 -0
-0 -0 -0
-4.9593077 -3.3572183 -0.66751796
-4.9619961 -3.3590381 -0.33469248
-4.9573755 -3.3559101 0
-4.9898677 -3.3779061 0.33657244
-0 -0 -0
-0 -0 -0
-4.9466872 -3.3573983 -0.66636479
-4.964386 -3.3694105 -0.33512801
-4.9597788 -3.3662837 0
-5.0008349 -3.3941491 0.33758855
-0 -0 -0
-0 -0 -0
-4.942627 -3.3633728 -0.66636479
-4.9603109 -3.3754065 -0.33512801
-4.9578571 -3.3737369 0
-4.9838362 -3.3914151 0.33671746
-0 -0 -0
-0 -0 -0
-4.9385595 -3.3693426 -0.66636479
-4.9562287 -3.3813975 -0.33512801
-4.9623766 -3.385592 0
-4.9990511 -3.4106133 0.33802357
-0 -0 -0
-0 -0 -0
-4.9514747 -3.38254 -0.66838312
-4.9670544 -3.393183 -0.33599859
-4.9667792 -3.3929949 0
-4.9948463 -3.4121685 0.33787856
-0 -0 -0
-0 -0 -0
-4.9495158 -3.3899806 -0.66867113
-4.9715261 -3.4050555 -0.33657914
-4.9712644 -3.4048762 0
-4.9842858 -3.4137948 0.33744299
-0 -0 -0
-0 -0 -0
-4.9560752 -3.4032779 -0.67011231
-4.9716883 -3.4139991 -0.33686915
-4.9542785 -3.4020441 0
-4.9887257 -3.4256985 0.33802357
-0 -0 -0
-0 -0 -0
-4.9477024 -3.4063332 -0.66953629
-4.9654212 -3.4185319 -0.33672413
-4.9587383 -3.4139311 0
-4.9824448 -3.4302518 0.33787856
-0 -0 -0
-0 -0 -0
-4.9520974 -3.4181862 -0.67068946
-4.9634233 -3.4260037 -0.33686915
-4.9588895 -3.4228742 0
-4.9868503 -3.442174 0.33845913
-0 -0 -0
-0 -0 -0
-4.956471 -3.4300547 -0.67184263
-4.9742389 -3.4423506 -0.33788526
-4.967586 -3.4377465 0
-4.9890995 -3.4526346 0.33889467
-0 -0 -0
-0 -0 -0
-4.9480686 -3.4330895 -0.67126548
-4.9658103 -3.4453988 -0.33759525
-4.959156 -3.4407821 0
-4.9870567 -3.4601402 0.33903968
-0 -0 -0
-0 -0 -0
-4.9460464 -3.440547 -0.67155463
-4.9637747 -3.452879 -0.33774024
-4.9635406 -3.4527164 0
-4.9892735 -3.4706166 0.33947524
-0 -0 -0
-0 -0 -0
-4.944005 -3.447999 -0.67184263
-4.9595985 -3.4588742 -0.33774024
-4.9721689 -3.4676406 0
-4.9872055 -3.4781275 0.33962023
-0 -0 -0
-0 -0 -0
-4.9483142 -3.4598987 -0.67299581
-4.9617982 -3.469327 -0.33817527
-4.9615827 -3.4691765 0
-4.9915175 -3.4901071 0.34020078
-0 -0 -0
-0 -0 -0
-4.9526014 -3.4718142 -0.67414898
-4.9682474 -3.4827819 -0.33890137
-4.9659114 -3.4811447 0
-4.9894223 -3.4976258 0.3403458
-0 -0 -0
-0 -0 -0
-4.9462805 -3.4763043 -0.67385983
-4.9746633 -3.4962518 -0.33962694
-4.9617019 -3.4871423 0
-4.9809446 -3.5006666 0.34005579
-0 -0 -0
-0 -0 -0
-4.9505339 -3.4882376 -0.67501301
-4.9640603 -3.4977686 -0.33919138
-4.9574847 -3.493135 0
-4.9915738 -3.5171552 0.34107134
-0 -0 -0
-0 -0 -0
-4.9484339 -3.4957135 -0.67530215
-4.9661994 -3.5082633 -0.33962694
-4.959631 -3.503623 0
-4.989449 -3.5246875 0.34121692
-0 -0 -0
-0 -0 -0
-4.9505324 -3.5061705 -0.67616618
-4.9704385 -3.5202687 -0.34020749
-4.9532719 -3.5081105 0
-4.9915419 -3.5352147 0.34165192
-0 -0 -0
-0 -0 -0
-4.9547448 -3.5136507 -0.67703134
-4.9746637 -3.527776 -0.34064248
-4.9617639 -3.5186281 0
-4.9894052 -3.5382297 0.34165192
-0 -0 -0
-0 -0 -0
-4.9504957 -3.519635 -0.67703134
-4.9640503 -3.5292716 -0.34020749
-4.95539 -3.5231144 0
-4.9957209 -3.5517886 0.34237802
-0 -0 -0
-0 -0 -0
-4.9441352 -3.5241141 -0.67674333
-4.9661241 -3.5397875 -0.34064248
-4.9638405 -3.5381601 0
-4.985076 -3.5532963 0.34194246
-0 -0 -0
-0 -0 -0
-4.9524956 -3.5391057 -0.67847252
-4.9660754 -3.54881 -0.34093305
-4.9595618 -3.5441551 0
-4.9913473 -3.5668695 0.34266803
-0 -0 -0
-0 -0 -0
-4.948216 -3.5450873 -0.67847252
-4.9681225 -3.5593493 -0.34136862
-4.9679732 -3.5592422 0
-4.9870338 -3.5728979 0.34266803
-0 -0 -0
-0 -0 -0
-4.9460273 -3.5525711 -0.67876053
-4.97226 -3.5714133 -0.34194916
-4.9573259 -3.5606863 0
-4.9932632 -3.5864992 0.34339359
-0 -0 -0
-0 -0 -0
-4.9543285 -3.5676162 -0.68049085
-4.9616132 -3.5728619 -0.3415136
-4.9593577 -3.5712376 0
-4.9889259 -3.59253 0.34339359
-0 -0 -0
-0 -0 -0
-4.9416261 -3.5675442 -0.67933768
-4.9678245 -3.5864577 -0.34223917
-4.9529309 -3.5757055 0
-4.9866862 -3.600075 0.34353858
-0 -0 -0
-0 -0 -0
-4.9645481 -3.5932255 -0.6830852
-4.9677014 -3.5955079 -0.34252971
-4.9528189 -3.5847363 0
-4.9844437 -3.6076257 0.34368414
-0 -0 -0
-0 -0 -0
-4.951829 -3.5931456 -0.68193203
-4.9675555 -3.6045568 -0.34281972
-4.9569097 -3.596832 0
-4.9842834 -3.6166949 0.34397414
-0 -0 -0
-0 -0 -0
-4.9495735 -3.6006463 -0.68222004
-4.969502 -3.6151438 -0.34325528
-4.9567647 -3.6058779 0
-4.9841161 -3.6257751 0.34426469
-0 -0 -0
-0 -0 -0
-4.9514904 -3.6111979 -0.6830852
-4.9651303 -3.6211457 -0.34325528
-4.9503036 -3.6103325 0
-4.9818287 -3.6333244 0.3444097
-0 -0 -0
-0 -0 -0
-4.9408574 -3.612597 -0.68222004
-4.9649425 -3.6302071 -0.34354529
-4.9627442 -3.6285999 0
-4.9879208 -3.6470082 0.34513524
-0 -0 -0
-0 -0 -0
-4.9469171 -3.6262085 -0.68366122
-4.9605522 -3.6362035 -0.34354529
-4.9625583 -3.6376739 0
-4.9814167 -3.6514976 0.34499025
-0 -0 -0
-0 -0 -0
-4.9467044 -3.6352496 -0.68423837
-4.9603467 -3.6452751 -0.34383583
-4.9602542 -3.6452072 0
-4.9874682 -3.6652062 0.34571582
-0 -0 -0
-0 -0 -0
-4.9443884 -3.6427567 -0.68452638
-4.9622083 -3.6558855 -0.34427083
-4.9558463 -3.6511979 0
-4.985126 -3.6727698 0.34586081
-0 -0 -0
-0 -0 -0
-4.9420619 -3.6502635 -0.68481439
-4.9640598 -3.6665115 -0.34470639
-4.9493394 -3.6556387 0
-4.9869571 -3.6834235 0.34629637
-0 -0 -0
-0 -0 -0
-4.9523373 -3.6624792 -0.68654472
-4.9576693 -3.6664228 -0.34441638
-4.9492202 -3.6601741 0
-4.9826436 -3.6848922 0.34615138
-0 -0 -0
-0 -0 -0
-4.9582949 -3.6761613 -0.6879859
-4.961585 -3.6786008 -0.34499696
-4.9594221 -3.6769972 0
-4.9927926 -3.7017386 0.34716693
-0 -0 -0
-0 -0 -0
-4.9497013 -3.6790669 -0.68740988
-4.9717288 -3.6954393 -0.3460125
-4.9612436 -3.6876462 0
-4.9883161 -3.7077687 0.34716693
-0 -0 -0
-0 -0 -0
-4.9493966 -3.6881328 -0.6879859
-4.9547625 -3.6921313 -0.34514195
-4.9567842 -3.6936381 0
-4.9900851 -3.7184527 0.34760249
-0 -0 -0
-0 -0 -0
-4.9449363 -3.6941106 -0.6879859
-4.9586244 -3.7043362 -0.3457225
-4.9523177 -3.6996248 0
-4.9918356 -3.7291465 0.34803805
-0 -0 -0
-0 -0 -0
-4.9425373 -3.7016318 -0.68827391
-4.9603782 -3.7149932 -0.34615752
-4.9624271 -3.7165279 0
-4.9956455 -3.741406 0.3486186
-0 -0 -0
-0 -0 -0
-4.9442682 -3.7122617 -0.68913907
-4.9766693 -3.736589 -0.34760919
-4.9662576 -3.7287717 0
-4.9869609 -3.7443163 0.34832805
-0 -0 -0
-0 -0 -0
-4.9459805 -3.7229011 -0.69000423
-4.9576163 -3.7316592 -0.34659305
-4.9555087 -3.730073 0
-4.9865894 -3.7534676 0.3486186
-0 -0 -0
-0 -0 -0
-4.9414787 -3.7288744 -0.69000423
-4.9655523 -3.747041 -0.34746417
-4.9613829 -3.7438946 0
-4.9861946 -3.7626176 0.3489086
-0 -0 -0
-0 -0 -0
-4.9452205 -3.7410846 -0.6911574
-4.9610214 -3.7530382 -0.34746417
-4.9568558 -3.7498868 0
-4.9899335 -3.7749104 0.34948915
-0 -0 -0
-0 -0 -0
-4.9546938 -3.7671118 -0.69375175
-4.9684849 -3.7775974 -0.3486253
-4.9498487 -3.7634282 0
-4.9828629 -3.7885292 0.34963417
-0 -0 -0
-0 -0 -0
-4.9521933 -3.7746623 -0.69403976
-4.957715 -3.7788711 -0.34818974
-4.9597883 -3.7804513 0
-4.9886208 -3.8024278 0.35036027
-0 -0 -0
-0 -0 -0
-4.9537964 -3.7853558 -0.69490492
-4.9655294 -3.7943218 -0.3490603
-4.9572825 -3.7880201 0
-4.9902105 -3.8131812 0.35079527
-0 -0 -0
-0 -0 -0
-4.9410057 -3.7850473 -0.69375175
-4.9630022 -3.8018975 -0.34920529
-4.9465098 -3.789264 0
-4.9855995 -3.8192081 0.35079527
-0 -0 -0
-0 -0 -0
-4.9407682 -3.7896044 -0.69403976
-4.9648318 -3.8080611 -0.34949586
-4.9628029 -3.8065052 0
-4.9832911 -3.8222196 0.35079527
-0 -0 -0
-0 -0 -0
-0 -0 -0
-4.9464359 -3.803453 -0.69548094
-4.9561033 -3.8108866 -0.34920529
-4.9643912 -3.8172596 0
-4.9869084 -3.8345737 0.35137585
-0 -0 -0
-0 -0 -0
-0 -0 -0
-4.9520769 -3.8173211 -0.69692212
-4.9617906 -3.8248088 -0.34993142
-4.9597754 -3.8232553 0
-4.9843278 -3.8421814 0.35152084
-0 -0 -0
-0 -0 -0
-0 -0 -0
-4.9474611 -3.8233018 -0.69692212
-4.9674439 -3.8387444 -0.35065696
-4.9695611 -3.8403804 0
-4.9817433 -3.8497949 0.35166639
-0 -0 -0
-0 -0 -0
-0 -0 -0
-4.9510164 -3.8356133 -0.69807529
-4.9648542 -3.8463335 -0.35080197
-4.9875498 -3.8639162 0
-4.9853048 -3.8621769 0.35224694
-0 -0 -0
-0 -0 -0
-0 -0 -0
-4.9463782 -3.8415928 -0.69807529
-4.9663615 -3.8571129 -0.35123754
-4.9993205 -3.8827105 0
-4.9826846 -3.8697901 0.35239196
-0 -0 -0
-0 -0 -0
-0 -0 -0
-4.9478574 -3.8523352 -0.69894046
-4.9596491 -3.861516 -0.35109252
-5.0069423 -3.8983381 0
-4.984158 -3.8805985 0.35282752
-0 -0 -0
-0 -0 -0
-0 -0 -0
-4.9533916 -3.8662665 -0.70038164
-4.9672656 -3.8770957 -0.35196307
-4.9919724 -3.8963802 0
-4.9815116 -3.8882153 0.35297251
-0 -0 -0
-0 -0 -0
-0 -0 -0
-4.946681 -3.8706565 -0.70009363
-4.9543915 -3.8766899 -0.35138252
-4.9872608 -3.9024093 0
-4.97681 -3.8942316 0.35297251
-0 -0 -0
-0 -0 -0
-0 -0 -0
-4.9420004 -3.8766308 -0.70009363
-4.961967 -3.8922927 -0.35225308
-4.9845877 -3.9100373 0
-4.9925418 -3.9162767 0.35442361
-0 -0 -0
-0 -0 -0
-0 -0 -0
-4.9454455 -3.8889947 -0.7012468
-4.9593086 -3.8998964 -0.35239863
-4.9757719 -3.912843 0
-4.9796357 -3.9158814 0.35384306
-0 -0 -0
-0 -0 -0
-0 -0 -0
-4.9488678 -3.9013727 -0.70239997
-4.9566312 -3.9074931 -0.35254365
-4.9649072 -3.9140172 0
-4.9871483 -3.9315507 0.35471418
-0 -0 -0
-0 -0 -0
-0 -0 -0
-4.946177 -3.9089518 -0.70268798
-4.9600611 -3.919924 -0.3531242
-4.9601741 -3.9200134 0
-4.9803495 -3.9359579 0.35456863
-0 -0 -0
-0 -0 -0
-0 -0 -0
