# .PCD v0.7 - Point Cloud Data file format
VERSION 0.7
FIELDS x y z
SIZE 4 4 4
TYPE F F F
COUNT 1 1 1
WIDTH 1696
HEIGHT 1
VIEWPOINT 0 0 0 1 0 0 0
POINTS 1696
DATA ascii
-0 0 -0
-0.035671268 59.04348 0
-0.024399189 40.385811 2.2557976
-0 0 -0
-0.1069713 59.019974 0
-0.073409438 40.50267 2.2623281
-0 0 -0
-0.17823029 59.001579 0
-0.12226263 40.473976 2.2607319
-0 0 -0
-0.24915884 58.915443 0
-0.17131028 40.507576 2.2626188
-0 0 -0
-0.31992197 58.837029 0
-0.33340627 61.316936 3.4249804
-0 0 -0
-0.35509109 58.774368 0
-0.370608 61.342712 3.4264321
-0 0 -0
-0.42580637 58.732265 0
-0.44504863 61.386387 3.4288993
-0 0 -0
-0.49694854 58.752518 0
-0.51955134 61.424774 3.431076
-0.56834161 58.793514 0
-0.5937708 61.424103 3.431076
-0.63983446 58.834419 0
-0.66897833 61.514271 3.4361556
-0.71095532 58.836205 0
-0.74361986 61.539406 3.437607
-0.7817356 58.811886 0
-0.28459835 21.411032 1.1960441
-0.85226947 58.774471 0
-0.30994165 21.374292 1.1940118
-0.92271394 58.736961 0
-0.33625787 21.405081 1.1957536
-0.99320132 58.707188 0
-0.36198974 21.396872 1.1953185
-1.0642309 58.711143 0
-0.38798454 21.404205 1.1957536
-1.1347686 58.688999 0
-0.41364613 21.393328 1.1951729
-1.205308 58.66938 0
-0.43938887 21.387623 1.194883
-1.2765936 58.686089 0
-1.3405336 61.625462 3.4429772
-0 0 -0
-1.3466671 58.648083 0
-1.4143387 61.595219 3.4413805
-0 0 -0
-1.4904393 58.7253 0
-1.5442001 60.843548 3.3995826
-0 0 -0
-1.562503 58.765079 0
-1.6161972 60.784496 3.3963897
-0 0 -0
-1.634665 58.804775 0
-1.6876926 60.712364 3.3924708
-0 0 -0
-1.7107736 58.977043 0
-0 0 0
-0 0 -0
-1.7834492 59.021751 0
-0 0 0
-0 0 -0
-1.8581157 59.126202 0
-0.58885902 18.737797 1.0471385
-0 0 -0
-1.938215 59.38921 0
-0.61175388 18.744865 1.047574
-0 0 -0
-2.0222979 59.750946 0
-0.63449079 18.746708 1.0477191
-0 0 -0
-2.0956788 59.782269 0
-0.65696013 18.740738 1.0474291
-0 0 -0
-2.1679125 59.779694 0
-0.67941564 18.734734 1.0471385
-0 0 -0
-2.2046037 59.793983 0
-0.69073421 18.73432 1.0471385
-0 0 -0
-2.2785349 59.835484 0
-0.71297491 18.723083 1.0465579
-0 0 -0
-2.430115 61.850559 0
-0.73529148 18.714417 1.0461224
-0 0 -0
-2.5032682 61.808578 0
-0.85852903 21.198072 1.185014
-0 0 -0
-2.5768652 61.779503 0
-0.88186818 21.142502 1.1819662
-0 0 -0
-2.6487219 61.711342 0
-0.90685707 21.128443 1.1812407
-0 0 -0
-2.7243185 61.731495 0
-0.9336459 21.15588 1.1828368
-0 0 -0
-2.7981999 61.712563 0
-0.96332753 21.24559 1.1879169
-0 0 -0
-0 0 0
-0.99371022 21.345634 1.1935768
-0 0 -0
-2.9885478 62.568626 0
-1.0203689 21.362579 1.1945924
-0 0 -0
-3.0607102 62.494785 0
-1.0464351 21.366526 1.194883
-0 0 -0
-3.1343946 62.454659 0
-1.0722517 21.365246 1.194883
-0 0 -0
-3.2103908 62.46122 0
-1.0996672 21.395075 1.1966246
-0 0 -0
-3.2827158 62.397518 0
-1.1274291 21.430054 1.1986563
-0 0 -0
-3.3554516 62.344139 0
-1.1524847 21.413113 1.1977857
-0 0 -0
-3.4277768 62.285469 0
-1.1436621 20.781261 1.1625184
-0 0 -0
-3.4995265 62.218922 0
-1.1684798 20.774681 1.1622283
-0 0 -0
-3.5757487 62.232838 0
-1.1949224 20.7966 1.1635345
-0 0 -0
-3.6558192 62.3116 0
-1.2299417 20.963737 1.1729679
-3.7357752 62.385075 0
-1.2638137 21.104887 1.1809502
-3.8236892 62.585712 0
-1.2921659 21.150024 1.1835624
-3.9075627 62.713512 0
-1.3199832 21.184761 1.1855946
-3.9894409 62.80484 0
-1.3732518 21.618782 1.2099763
-4.0733948 62.924622 0
-1.4089406 21.764908 1.2182492
-4.1029263 62.792316 0
-1.4249697 21.808128 1.2207164
-4.1743016 62.719795 0
-1.4545976 21.855646 1.2234737
-4.2455087 62.647198 0
-1.4829376 21.882393 1.2250704
-1.7327859 25.119215 0
-1.511523 21.911692 1.226812
-1.7651404 25.145653 0
-1.5418187 21.964281 1.2298597
-1.7962642 25.153885 0
-1.5779809 22.097168 1.2374065
-1.8253374 25.133533 0
-1.6152194 22.240366 1.2455337
-1.8555129 25.128708 0
-1.6401782 22.212488 1.2440826
-1.88607 25.129049 0
-1.662544 22.150902 1.2407448
-1.9174216 25.139725 0
-1.6869365 22.117785 1.2390032
-1.9479975 25.139982 0
-1.7180762 22.172722 1.242196
-1.977352 25.12464 0
-1.7544477 22.292372 1.249017
-2.0089524 25.137793 0
-1.7898693 22.396431 1.2549677
-2.039325 25.135347 0
-1.8207116 22.440866 1.2575799
-2.0699089 25.135466 0
-0.91912323 11.161162 0.62553024
-2.1015787 25.148502 0
-0.93347418 11.170402 0.62611079
-2.1324034 25.151125 0
-0 0 0
-2.1621237 25.140759 0
-0 0 0
-2.1934044 25.148499 0
-0.97441083 11.172117 0.62640077
-2.2231019 25.13805 0
-0.98699385 11.160578 0.62582022
-2.2548685 25.150894 0
-0.99839044 11.136087 0.6245141
-2.2850215 25.145561 0
-1.0092595 11.106415 0.62291801
-2.3154032 25.142782 0
-2.0639229 22.411974 1.2571443
-2.3477161 25.160696 0
-2.0910017 22.409464 1.2571443
-2.3768919 25.144888 0
-1.7967743 19.007885 1.0664408
-2.3930686 25.153811 0
-1.8077658 19.001629 1.0661508
-2.423959 25.156076 0
-1.8287305 18.978739 1.0649897
-2.4541011 25.150543 0
-1.8511571 18.971348 1.0646996
-2.4837208 25.139786 0
-1.8745893 18.974264 1.0649897
-2.5465636 25.154425 0
-1.9217455 18.982601 1.0657152
-2.576956 25.151329 0
-1.9446809 18.980267 1.0657152
-2.610029 25.174089 0
-1.9686853 18.988241 1.0662957
-2.640445 25.170918 0
-1.9910858 18.980684 1.0660058
-2.6694832 25.15476 0
-2.0153894 18.991182 1.0667313
-2.7026541 25.177399 0
-2.0405538 19.009401 1.0678924
-2.7375684 25.215511 0
-2.0638018 19.009502 1.0680375
-3.9821599 36.270844 0
-2.0881872 19.019907 1.068763
-3.9783185 35.836643 0
-2.1105945 19.012211 1.068473
-4.0793781 36.346451 0
-2.1329854 19.004477 1.0681825
-4.1212397 36.323399 0
-2.1577053 19.017382 1.0690535
-4.1526732 36.209805 0
-2.1792026 19.001856 1.068328
-1.888652 16.294401 -0.91623634
-4.1817403 36.078091 0
-1.6223829 13.997156 0.78706193
-1.9062228 16.27404 -0.91522026
-4.2325974 36.135048 0
-1.6392945 13.995186 0.78706193
-1.9228319 16.245924 -0.91376913
-4.3028679 36.354748 0
-1.6540667 13.975139 0.78604639
-1.9378322 16.204885 -0.91159189
-4.3600788 36.460629 0
-1.6709517 13.97313 0.78604639
-1.9586579 16.212851 -0.91217244
-4.399137 36.413994 0
-1.6859637 13.955618 0.78517526
-1.97982 16.223368 -0.912898
-4.4242191 36.253662 0
-1.6999925 13.930359 0.78386915
-1.9987862 16.215811 -0.91260803
-4.4438257 36.051994 0
-1.7149168 13.912827 0.78299862
-0 0 -0
-2.3848863 19.157495 0
-1.7269112 13.872064 0.78082138
-2.041532 16.239285 -0.91420412
-2.4067342 19.144272 0
-1.7378381 13.823565 0.77820915
-2.0477612 16.209698 -0.91260803
-2.417321 19.135065 0
-1.7452121 13.814775 0.77777356
-2.0673459 16.207212 -0.91260803
-2.4397821 19.126972 0
-1.7615747 13.810081 0.7776286
-2.0832763 16.176352 -0.91101134
-2.4592347 19.095615 0
-1.7766011 13.79506 0.77690303
-2.1021514 16.168673 -0.91072136
-2.4813006 19.084894 0
-1.7925978 13.787745 0.77661246
-2.1230378 16.176416 -0.91130131
-2.5046973 19.084459 0
-1.8106087 13.795874 0.77719301
-2.1436064 16.18157 -0.91173691
-2.526047 19.068521 0
-1.8265952 13.788529 0.77690303
-2.163157 16.178968 -0.91173691
-2.5473602 19.052551 0
-1.8432546 13.786312 0.77690303
-2.1854842 16.196943 -0.912898
-2.5696843 19.044306 0
-1.8599113 13.784075 0.77690303
-2.2057555 16.199446 -0.91318858
-2.5923429 19.03861 0
-1.877616 13.789534 0.77733803
-2.2278025 16.214781 -0.91420412
-2.6153455 19.035465 0
-1.8949847 13.792409 0.7776286
-2.2448967 16.194067 -0.91318858
-2.6383443 19.032291 0
-1.9127195 13.797832 0.77806413
-2.2691407 16.224794 -0.91507524
-2.6635013 19.044548 0
-1.9319084 13.813519 0.77907968
-2.290921 16.237474 -0.91594583
-2.6850564 19.031008 0
-1.9496872 13.818895 0.77951527
-0 0 -0
-2.7087839 19.032907 0
-1.9689466 13.834539 0.78053135
-2.3401222 16.301329 -0.91986418
-2.7347379 19.05023 0
-1.9860303 13.83472 0.78067636
-2.3776898 16.421928 -0.92683083
-2.7566354 19.039183 0
-2.0049787 13.847734 0.78154695
-2.4155507 16.54245 -0.933797
-2.780014 19.03841 0
-2.0232112 13.855587 0.7821275
-2.5369854 17.228445 -0.97269267
-2.8037753 19.040192 0
-2.0456302 13.891695 0.78430474
-0 0 -0
-2.5547476 17.204805 -0.97153157
-2.8325124 19.075396 0
-3.4752452 23.403847 1.3215829
-0 0 -0
-2.5782266 17.219687 -0.97254711
-2.8609536 19.107988 0
-3.5015984 23.386784 1.3208573
-2.5959284 17.196003 -0.97138602
-2.8894792 19.140549 0
-3.5286901 23.374825 1.3204218
-2.6143594 17.177446 -0.97051543
-5.2369261 34.408817 0
-3.0123329 19.792301 1.1182532
-2.630384 17.143454 -0.96877378
-5.2694201 34.3433 0
-3.031517 19.757826 1.1165116
-2.6554661 17.168512 -0.97037047
-5.3109136 34.336906 0
-3.0446656 19.684822 1.1125932
-2.6781976 17.246496 -0.97486937
-5.3396444 34.385124 0
-3.0481846 19.629061 1.1095455
-2.7002404 17.250952 -0.9753049
-5.3852119 34.404354 0
-3.0714989 19.622799 1.1094004
-2.7194631 17.23741 -0.97472435
-5.4340801 34.444099 0
-3.0915613 19.595966 1.1080937
-2.737025 17.213581 -0.97356325
-5.4834585 34.486336 0
-2.5750234 16.194729 0.91593909
-2.7631667 17.243612 -0.97544992
-2.2298288 13.915305 0
-2.5913005 16.17108 0.91477799
-2.7765446 17.194092 -0.97283769
-2.2445672 13.899757 0
-2.6120815 16.175634 0.91521353
-2.7939796 17.170208 -0.97167659
-2.2617781 13.899601 0
-2.6341279 16.187849 0.91608411
-2.2752028 13.876312 0
-2.6574709 16.207741 0.91739076
-2.2923934 13.876128 0
-2.6808643 16.227589 0.91869688
-2.3053114 13.850236 0
-2.7030292 16.239712 0.91956747
-2.3203251 13.837184 0
-2.7239392 16.244123 0.920003
-2.337476 13.836934 0
-2.744864 16.24851 0.92043859
-2.352011 13.821274 0
-2.7644951 16.245182 0.92043859
-2.3695881 13.823546 0
-2.7832434 16.236702 0.92014802
-2.3854046 13.815549 0
-3.3669624 19.500437 1.1053365
-2.4012036 13.807524 0
-2.816241 16.194094 0.91811633
-2.4183342 13.807174 0
-2.8308747 16.162521 0.91651964
-2.4381807 13.822185 0
-2.8490472 16.151409 0.91608411
-2.4738674 13.829059 0
-2.8789208 16.09333 0.9131819
-2.8389626 15.76008 -0.89446628
-2.4910362 13.828618 0
-2.8813205 15.995223 0.90781188
-2.8593953 15.764311 -0.89490181
-2.5044937 13.80768 0
-2.8830237 15.894579 0.90229684
-2.8775067 15.755727 -0.8946113
-2.5211756 13.804645 0
-2.6482792 14.500596 0.82334489
-2.8912401 15.776986 -0.89591742
-2.1762912 11.875637 0
-2.6598504 14.514334 0.82421601
-2.9117162 15.78115 -0.89635295
-2.1873331 11.855081 0
-2.6759713 14.503441 0.82378042
-2.5744083 13.85911 -0.78735918
-2.1921501 11.801254 0
-4.6713533 25.147835 1.4286906
-2.5921068 13.861093 -0.78764921
-0 0 0
-4.7093782 25.183039 1.4310127
-2.6026044 13.824757 -0.78576255
-2.2177746 11.780582 0
-4.7580705 25.274361 1.4365277
-2.6188238 13.819051 -0.78561753
-2.254781 11.898065 0
-3.2274098 17.030449 0.96818656
-1.9913827 10.439194 -0.5936079
-2.2672052 11.885106 0
-3.246038 17.016327 0.96760595
-1.9672475 10.245399 -0.58272284
-1.9738816 10.27995 0
-3.2612081 16.984329 0.96600986
-1.950536 10.092499 -0.57416004
-1.9764248 10.226453 0
-2.7546656 14.253241 0.81086373
-1.9592559 10.072278 -0.57314396
-1.9828169 10.193402 0
-2.7723815 14.25245 0.81100869
-1.9674309 10.049503 -0.5719828
-1.9886326 10.157799 0
-0 0 0
-1.9760576 10.02928 -0.57096726
-1.9958749 10.12986 0
-0 0 0
-0 0 -0
-2.0076058 10.124881 0
-2.8311036 14.277995 0.81304091
-0 0 -0
-0 0 0
-2.8463197 14.264371 0.81246036
-2.0052392 9.9863892 -0.56893557
-0 0 0
-2.9044755 14.46472 0.82407099
-2.016274 9.9788599 -0.568645
-0 0 0
-2.9734099 14.715878 0.83858383
-0 0 -0
-2.0461495 10.064062 0
-2.9901547 14.707187 0.83829379
-2.0377798 9.9612322 -0.56791949
-2.054657 10.043733 0
-2.9902177 14.617013 0.83335936
-0 0 -0
-0 0 0
-2.8868716 14.025498 0.79983366
-0 0 -0
-2.0778682 10.033646 0
-3.1050937 14.993931 0.8552739
-0 0 -0
-2.092644 10.043864 0
-3.1179097 14.964734 0.85382277
-0 0 -0
-2.1015739 10.02604 0
-3.1381216 14.971128 0.85440332
-0 0 -0
-2.1152985 10.031136 0
-3.1202884 14.796984 0.84467942
-0 0 -0
-2.126878 10.02603 0
-3.0944908 14.587322 0.83292377
-0 0 -0
-2.134017 10.029828 0
-3.117902 14.654065 0.83684212
-0 0 -0
-2.1445022 10.019615 0
-3.0997167 14.482601 0.82726377
-2.1383369 9.9321547 -0.5674839
-2.1549635 10.009382 0
-3.1002595 14.400096 0.82276434
-2.1508861 9.9321012 -0.56762892
-2.1681569 10.011853 0
-3.0978601 14.304924 0.81753987
-2.1606731 9.9193392 -0.56704837
-2.1780372 9.999054 0
-3.1096132 14.275786 0.81608874
-2.1732149 9.9192667 -0.56719393
-2.1912324 10.001505 0
-3.1224117 14.251712 0.81492764
-2.184638 9.9140892 -0.56704837
-2.2038753 10.001389 0
-3.1580799 14.331656 0.81971651
-2.1971796 9.9139862 -0.56719393
-2.2159584 9.9987183 0
-3.2029436 14.452136 0.82682824
-2.2068958 9.9011793 -0.56661338
-2.2286038 9.9985714 0
-3.2102294 14.402608 0.82421601
-2.2205613 9.9061041 -0.56704837
-2.2401149 9.9933338 0
-3.2196715 14.363216 0.82218373
-0 0 -0
-2.227387 9.8806028 -0.56574225
-2.2544775 10.000775 0
-3.2250249 14.306087 0.81913596
-0 0 -0
-2.2364523 9.8652363 -0.56501669
-2.2654102 9.9929724 0
-3.2388628 14.286979 0.81826538
-2.2529912 9.8827944 -0.56617779
-2.276325 9.9851484 0
-3.2572796 14.288127 0.81855595
-2.264931 9.880065 -0.56617779
-2.2889695 9.9849243 0
-4.3805532 19.108816 1.095032
-2.2768676 9.8773212 -0.56617779
-2.3016188 9.9846945 0
-4.402473 19.09845 1.0947421
-2.2888007 9.8745623 -0.56617779
-2.3136816 9.9819069 0
-4.4255466 19.093117 1.0947421
-2.3001413 9.8692617 -0.56603277
-2.3263314 9.981636 0
-4.4338694 19.024492 1.0911137
-2.3120646 9.8664751 -0.56603277
-2.3383906 9.9788179 0
-4.7402205 20.228357 1.1604867
-2.327559 9.8788443 -0.56690335
-2.3510425 9.9785156 0
-4.7586989 20.197317 1.1590351
-2.3359013 9.8608589 -0.56603277
-2.3654974 9.9857969 0
-4.7711229 20.140993 1.1561328
-2.3508241 9.8706656 -0.56675833
-2.3733404 9.9652071 0
-3.6998432 15.534942 0.89199233
-2.3639581 9.8728666 -0.56704837
-2.3871982 9.9699278 0
-3.7325287 15.588584 0.89533073
-2.3722382 9.8548508 -0.56617779
-2.3980262 9.9619799 0
-3.7398067 15.53606 0.89257294
-2.38781 9.8671255 -0.56704837
-2.4106731 9.9616022 0
-4.0030346 16.541702 0.9506259
-2.399117 9.8617105 -0.56690335
-2.4251688 9.9687977 0
-4.0187187 16.519176 0.94960982
-2.4050746 9.8602591 -0.56690335
-2.431191 9.9673309 0
-4.0274677 16.511702 0.94931978
-2.4176054 9.8598671 -0.56704837
-2.4413729 9.9568005 0
-4.0480342 16.509346 0.9494648
-2.4307621 9.86199 -0.56733888
-2.4540241 9.9563675 0
-4.0710883 16.517054 0.95019037
-2.4389284 9.8439169 -0.56646836
-2.467931 9.9609756 0
-4.112288 16.597872 0.9551248
-2.4545877 9.8560867 -0.56733888
-2.479965 9.9579868 0
-4.1756659 16.766859 0.96513873
-2.4652317 9.8480673 -0.56704837
-2.4919956 9.9549828 0
-4.209805 16.817261 0.96833211
-2.4809349 9.8602057 -0.56791949
-2.5052936 9.9570169 0
-4.2294865 16.809633 0.96818656
-2.490299 9.8471241 -0.56733888
-2.5160456 9.9489317 0
-4.2491579 16.801994 0.96804154
-2.504756 9.8541813 -0.56791949
-2.5293484 9.9509335 0
-4.2745781 16.816996 0.96920264
-2.5160184 9.8486328 -0.56777447
-2.5394373 9.9403028 0
-4.3103309 16.87224 0.97268599
-2.5417571 9.8500643 -0.56820947
-2.5660527 9.9442167 0
-4.4017296 17.05801 0.98400605
-2.5523539 9.8419609 -0.56791949
-2.5787191 9.9436255 0
-3.1739213 12.238746 0.70622331
-2.5681748 9.8539515 -0.56879002
-2.5900764 9.9379864 0
-3.1893644 12.237423 0.70636886
-2.577446 9.840786 -0.56820947
-2.6053791 9.9474354 0
-0 0 0
-2.5886741 9.8351545 -0.56806445
-2.6173966 9.9442797 0
-3.2156219 12.217118 0.7056433
-2.6038775 9.8445768 -0.56879002
-2.6287456 9.9385967 0
-3.2297151 12.210705 0.70549774
-2.617774 9.8489599 -0.56922561
-2.6400821 9.9328909 0
-3.251143 12.231911 0.70694941
-2.6316848 9.853323 -0.56966114
-2.6514113 9.9271812 0
-3.2726243 12.253073 0.70840055
-2.6422403 9.8451118 -0.56937057
-2.6654289 9.9315138 0
-3.2773237 12.211463 0.70622331
-2.6527824 9.8368998 -0.56908059
-2.678781 9.9333067 0
-3.1297097 11.605414 0.67139208
-2.6639874 9.8311815 -0.56893557
-2.6935043 9.9401102 0
-3.141012 11.591593 0.67081153
-2.6731341 9.8179264 -0.56835502
-2.7027781 9.9268036 0
-3.1529672 11.580265 0.67037594
-2.6865888 9.8438768 -0.56995112
-2.7101467 9.9301949 0
-3.1606464 11.580862 0.67052096
-0 0 -0
-2.6950459 9.8280964 -0.56922561
-2.7235186 9.9319277 0
-3.1753266 11.579548 0.67066652
-2.7069194 9.8248329 -0.56922561
-2.7362106 9.9311466 0
-3.1920738 11.585713 0.67124653
-2.7271075 9.8516064 -0.57096726
-2.7482085 9.9278326 0
-3.2088437 11.591866 0.67182708
-2.7369199 9.8407907 -0.57053173
-2.7615957 9.9295149 0
-4.8206687 17.333059 1.004905
-2.7481098 9.8349762 -0.57038671
-2.7721922 9.9211626 0
-4.8520989 17.364763 1.0070822
-0 0 -0
-2.7677147 9.8591604 -0.5719828
-2.7827699 9.9127893 0
-3.2719123 11.655214 0.67618155
-2.7732785 9.8333035 -0.57067668
-2.7968655 9.9169369 0
-3.3029182 11.711264 0.67966431
-2.786576 9.8349504 -0.57096726
-2.8131013 9.9285688 0
-3.3503566 11.824759 0.68648547
-0 0 -0
-2.7984576 9.8315763 -0.57096726
-2.8258078 9.9276628 0
-3.4144363 11.99564 0.69664496
-0 0 -0
-2.812479 9.8356848 -0.57140279
-2.8392339 9.9292507 0
-3.4432158 12.041472 0.69954771
-0 0 -0
-2.823642 9.8297749 -0.57125723
-2.8519471 9.9283113 0
-4.7712607 16.609901 0.96528429
-0 0 -0
-2.8420005 9.8488226 -0.57256335
-2.8617761 9.9173546 0
-4.791327 16.604126 0.96528429
-0 0 -0
-2.8517303 9.8379011 -0.57212836
-2.8759315 9.9213905 0
-4.7998114 16.558392 0.96296209
-0 0 -0
-2.865067 9.8394337 -0.57241839
-2.8857341 9.9104099 0
-3.6473823 12.52612 0.72871894
-0 0 -0
-2.8747649 9.8284798 -0.5719828
-2.9006293 9.9169073 0
-3.6537614 12.491776 0.72697729
-2.8917665 9.842453 -0.57299894
-2.9140785 9.9183941 0
-3.6439497 12.402593 0.7220428
-0 0 -0
-2.9029224 9.836462 -0.57285392
-2.9260607 9.9148655 0
-3.6442263 12.348347 0.71914059
-2.914068 9.8304586 -0.5727089
-2.9417362 9.9237957 0
-4.858408 16.389589 0.95483482
-0 0 -0
-2.9237187 9.8194571 -0.57227337
-2.9552119 9.9252281 0
-4.8752418 16.373745 0.95425427
-2.9400473 9.8308487 -0.57314396
-2.9672024 9.9216499 0
-4.8994884 16.382774 0.9551248
-2.9496834 9.8198309 -0.5727089
-2.9799366 9.9205475 0
-4.9177866 16.37187 0.95483482
-0 0 -0
-2.9652984 9.8286953 -0.57343447
-2.9934235 9.9219179 0
-6.85958 22.736572 1.3265173
-0 0 -0
-2.9734929 9.8343658 -0.57387006
-3.00243 9.9300718 0
-6.8688045 22.717506 1.3256468
-0 0 -0
-2.9815962 9.818327 -0.57314396
-3.0166957 9.9339094 0
-6.8962493 22.70919 1.3256468
-2.9980073 9.8296347 -0.57401502
-3.0332508 9.9451885 0
-4.96803 16.288794 0.95120645
-0 0 -0
-3.0129263 9.8359432 -0.57459563
-3.0422163 9.9315624 0
-4.9907522 16.292717 0.95178705
-3.0225163 9.8248425 -0.57416004
-3.0618684 9.9527588 0
-7.2161307 23.4564 1.3707831
-3.0405219 9.8410444 -0.57532114
-3.0761945 9.9565039 0
-7.2429323 23.442694 1.3704926
-3.0485611 9.8249569 -0.57459563
-3.0951664 9.9751577 0
-7.2681727 23.423998 1.3699119
-3.0650671 9.8361464 -0.57546616
-3.1103141 9.981349 0
-3.8542728 12.368796 0.72363949
-3.0699663 9.8101187 -0.57416004
-3.124702 9.9850273 0
-3.8777494 12.391401 0.72523558
-3.0880499 9.8262339 -0.57532114
-3.1430066 10.001107 0
-3.9012895 12.413978 0.72683227
-0 0 -0
-3.1077397 9.84727 -0.57677227
-3.1543062 9.9948225 0
-3.9217615 12.426602 0.72784841
-0 0 -0
-3.1251318 9.8608494 -0.57778841
-12.540372 39.569122 0
-3.9320621 12.406988 0.72697729
-3.1496527 9.8966837 -0.58011061
-12.589751 39.558895 0
-3.9525676 12.419562 0.72799337
-5.1706748 16.179363 -0.94874591
-12.637541 39.543655 0
-3.9786439 12.449425 0.73002505
-5.1806927 16.143414 -0.94700426
-5.2112455 16.238619 0
-4.0008287 12.466873 0.73133117
-5.1874433 16.09757 -0.944682
-5.2244768 16.212494 0
-4.0302372 12.506553 0.733944
-0 0 -0
-5.1948895 16.054205 -0.94250482
-5.2248363 16.146753 0
-4.0621448 12.553588 0.73699176
-5.2110724 16.038031 -0.94192421
-5.2314754 16.100826 0
-4.0965786 12.607972 0.74047452
-5.2167468 15.989731 -0.939457
-5.245275 16.077171 0
-4.1230946 12.637602 0.7425068
-0 0 -0
-5.2166524 15.924161 -0.93597424
-5.2646976 16.070822 0
-4.1391697 12.635077 0.74265176
-5.2155924 15.85614 -0.93234587
-5.2832994 16.061979 0
-5.9373121 18.05027 1.0613613
-5.2127447 15.783205 -0.92842698
-5.3051529 16.063 0
-5.5076866 16.676233 0.98095822
-5.2130032 15.720176 -0.92508918
-5.3220997 16.049164 0
-5.5409188 16.709028 0.98328048
-5.21804 15.671956 -0.92262197
-5.3431339 16.047665 0
-5.5660281 16.71711 0.98415107
-5.2130823 15.594174 -0.91841304
-6.7181249 20.096291 0
-5.5886955 16.717768 0.9845866
-0 0 -0
-5.2112513 15.526281 -0.91478467
-6.7349501 20.065954 0
-5.6047583 16.698687 0.98386103
-0 0 -0
-5.201582 15.466491 -0.91144687
-6.7346301 20.024889 0
-5.6140184 16.692839 0.98371601
-0 0 -0
-5.2086267 15.425723 -0.90941465
-6.7538247 20.001938 0
-5.818717 17.23255 1.0159351
-5.199008 15.275348 -0.90128744
-7.6557226 22.493486 0
-5.8502979 17.188919 1.0141934
-5.1972971 15.210042 -0.89780408
-7.6635408 22.427576 0
-5.6627069 16.572077 0.97820103
-5.204711 15.171801 -0.89591742
-7.6771259 22.378922 0
-5.9247041 17.27059 1.0198539
-5.2001963 15.099174 -0.89199907
-7.6922951 22.335176 0
-5.9413347 17.251127 1.0191278
-5.1980581 15.03394 -0.88851571
-7.6852632 22.227489 0
-6.9852939 20.203022 1.1940118
-5.2034416 14.990833 -0.88633901
-7.6575007 22.060846 0
-7.0028868 20.174938 1.1928513
-5.2001762 14.923194 -0.8827107
-7.658462 21.977856 0
-7.0229816 20.154186 1.1921252
-5.201901 14.870296 -0.87995291
-7.6721215 21.931734 0
-7.0207334 20.069658 1.1876262
-5.1949015 14.792913 -0.87574452
-13.884485 39.537228 0
-6.9089541 19.67382 1.1646956
-5.1989489 14.747416 -0.87342232
-13.925326 39.500786 0
-6.8990269 19.569881 1.1590351
-5.2028947 14.701929 -0.87110007
-13.965232 39.461853 0
-6.9105339 19.527243 1.1570034
-5.1989098 14.634421 -0.86747175
-14.018129 39.45966 0
-6.6166472 18.625214 1.1040304
-5.1947694 14.566944 -0.86384338
-13.647096 38.268585 0
-6.6426387 18.626995 1.1046109
-5.1913486 14.501943 -0.86036003
-13.70736 38.291271 0
-3.7139797 10.374938 0.6155163
-5.1851449 14.429641 -0.85644168
-13.750977 38.26733 0
-7.030314 19.564528 1.1612123
-5.1928773 14.396476 -0.85484499
-13.784844 38.216419 0
-7.0442495 19.529129 1.1596156
-5.1899252 14.334003 -0.85150725
-13.826582 38.1875 0
-7.037766 19.437536 1.1546811
-5.1903796 14.281328 -0.84875
-13.888714 38.21479 0
-7.0195341 19.314245 1.1478601
-5.1898217 14.226224 -0.84584719
-13.929525 38.183308 0
-7.0214939 19.247162 1.1443766
-5.1796846 14.171837 -0.84279943
-14.421599 39.458111 0
-7.041151 19.264889 1.1456833
-5.1815915 14.1241 -0.84033221
-14.472852 39.450428 0
-7.0814252 19.30271 1.1484406
-5.1860847 14.083695 -0.83830053
-14.518709 39.428024 0
-7.120904 19.338026 1.1510528
-5.1850815 14.028672 -0.83539772
-14.574459 39.432419 0
-8.2864723 22.419744 1.3350801
-5.1821475 13.968805 -0.83220494
-14.626619 39.426975 0
-8.3099403 22.399969 1.3344996
-5.1799817 13.911399 -0.82915711
-14.681514 39.428787 0
-8.331562 22.375307 1.333629
-5.1804113 13.861312 -0.82654434
-14.73279 39.420769 0
-8.3540449 22.353056 1.3329035
-5.1862082 13.825857 -0.82480323
-14.795035 39.441925 0
-8.3801365 22.340515 1.3327585
-5.1836848 13.768515 -0.82175547
-14.843598 39.426453 0
-8.4016294 22.315777 1.3318874
-5.1746001 13.694181 -0.81769156
-14.897668 39.425533 0
-8.419404 22.281305 1.3304362
-5.1561308 13.595599 -0.81217653
-14.951756 39.424538 0
-8.4500065 22.280834 1.3310168
-3.099236 8.1423273 -0.9710741
-5.1559176 13.545651 -0.80956429
-5.1558723 13.545531 0
-8.5101957 22.358025 1.3362412
-3.1063056 8.1313343 -0.97021002
-3.11658 8.1582298 -0.48780638
-5.1648059 13.519842 0
-8.7523251 22.910845 1.3699119
-3.1161284 8.1275749 -0.97021002
-3.1199265 8.1374807 -0.48679084
-5.1727538 13.491724 0
-8.7902355 22.926943 1.3715086
-3.1148005 8.0948372 -0.96675056
-3.1306889 8.1361284 -0.48693582
-5.1778369 13.456317 0
-8.8225965 22.928429 1.3722342
-3.1180561 8.0741749 -0.96473223
-3.1255403 8.0935555 -0.4846136
-3.1400416 8.1311064 0
-8.8690166 22.96623 1.375137
-0 0 -0
-3.1287434 8.0728111 -0.48359749
-3.1517434 8.1321554 0
-8.9352551 23.054823 1.3810871
-3.1291215 8.0449238 -0.96213788
-3.1309638 8.0496597 -0.48243693
-3.1540198 8.1089373 0
-3.1751888 8.1633615 0.48925138
-0 0 -0
-3.1406879 8.0458708 -0.48243693
-3.1477287 8.0639086 0
-3.1822147 8.1522551 0.48881581
-3.1579862 8.0614166 -0.96502024
-3.14851 8.0372267 -0.48214635
-3.1470311 8.0334511 0
-3.1759512 8.107276 0.48634857
-3.1705644 8.0648184 -0.9658854
-3.1610723 8.0406742 -0.48258191
-3.1548293 8.0247936 0
-3.1743364 8.0744133 0.48460689
-3.1793585 8.0585785 -0.96559739
-3.1736474 8.0441017 -0.48301747
-0 0 0
-3.1793232 8.0584888 0.48388135
-3.1909959 8.059536 -0.96617341
-3.1824055 8.0378389 -0.48287192
-3.1761308 8.0219908 0
-3.1785388 8.0280724 0.48228523
-3.200732 8.0556746 -0.96617341
-3.1930776 8.0364094 -0.48301747
-3.1896617 8.027812 0
-0 0 0
-3.21717 8.0686207 -0.96819174
-3.2027855 8.0325451 -0.48301747
-3.1935778 8.0094519 0
-0 0 0
-3.2182064 8.0570679 -0.96703857
-3.2047453 8.0233669 -0.48258191
-3.2051747 8.0244417 0
-0 0 0
-3.2269781 8.0507746 -0.96675056
-3.217339 8.0267267 -0.48301747
-3.2187414 8.0302258 0
-3.2143931 8.0193777 0.48257524
-3.2395964 8.0540619 -0.96761459
-3.2347889 8.0421104 -0.48417804
-3.2323267 8.0359888 0
-3.2269907 8.0227222 0.4830108
-3.2493258 8.0501413 -0.96761459
-3.2435324 8.0357885 -0.48403305
-3.2430074 8.0344877 0
-3.2337635 8.0115862 0.48257524
-3.2619643 8.0534039 -0.96847975
-3.252265 8.0294571 -0.48388803
-3.2468491 8.0160866 0
-3.240514 8.0004454 0.48213968
-3.2746155 8.0566473 -0.96934491
-3.2668557 8.0375557 -0.4846136
-3.2643721 8.0314445 0
-3.2511599 7.9989386 0.48228523
-3.2853239 8.0550776 -0.96963292
-3.27951 8.040823 -0.48504916
-3.26228 7.9985771 0
-2.332545 5.7190194 0.34499025
-3.293097 8.046319 -0.96905684
-3.2882402 8.0344515 -0.48490414
-3.2788436 8.0114918 0
-2.3414204 5.7210016 0.34528026
-3.3057621 8.0495043 -0.96992093
-3.2959697 8.0256605 -0.4846136
-3.286546 8.0027142 0
-2.3424103 5.7037511 0.3444097
-3.3125322 8.0383368 -0.96905684
-3.3076468 8.0264816 -0.48490414
-3.3071179 8.025198 0
-2.3433585 5.6864972 0.34353858
-3.3281708 8.048665 -0.97078609
-3.3133709 8.0128746 -0.48432359
-3.3108473 8.0067711 0
-2.3492358 5.681263 0.34339359
-0 0 -0
-5.1423445 12.393534 -0.74947959
-3.3225124 8.0075674 0
-2.3570938 5.6808176 0.34353858
-5.1443334 12.356129 -0.74759293
-3.3271852 7.9915366 0
-2.3639562 5.6779656 0.34353858
-5.1422324 12.309146 -0.74512571
-3.34286 8.0019236 0
-2.3678131 5.6679192 0.34310359
-5.1390185 12.259784 -0.74251294
-5.3454914 12.75235 0
-2.3716455 5.6578622 0.34266803
-0 0 -0
-5.1417432 12.224832 -0.74077177
-5.3568602 12.736286 0
-2.3734441 5.6430187 0.34194246
-5.1514564 12.206634 -0.74004567
-5.3681979 12.720213 0
-2.3812702 5.6425385 0.34208748
-5.1408725 12.140583 -0.73641735
-0 0 0
-2.3850455 5.6324763 0.34165192
-5.1463947 12.112841 -0.73511124
-15.889659 37.398785 0
-2.3948989 5.6367674 0.34208748
-5.1398888 12.016757 -0.73003173
-0 0 0
-2.4013596 5.6142373 0.34107134
-5.1390367 11.974728 -0.72785509
-2.4553237 5.7212734 0
-2.411217 5.6184978 0.3415069
-5.1380863 11.932708 -0.72567785
-2.4498839 5.6896181 0
-2.418004 5.6155801 0.3415069
-5.137042 11.890708 -0.72350061
-2.4588232 5.6914368 0
-2.4227285 5.6078882 0.34121692
-5.1287484 11.851838 -0.72132397
-2.4674282 5.70189 0
-2.4188912 5.5897279 0.34020078
-5.131681 11.819411 -0.71972728
-2.462914 5.6726432 0
-2.4256437 5.5868011 0.34020078
-5.1303954 11.777475 -0.71755058
-2.4812002 5.6959109 0
-2.4365432 5.5933952 0.34078136
-5.1290126 11.735551 -0.7153734
-2.4818294 5.6786051 0
-2.4349751 5.5713992 0.33962023
-5.1327558 11.705552 -0.71392226
-2.478236 5.651763 0
-2.4490108 5.585113 0.34063634
-5.1291089 11.65891 -0.71145505
-2.4819224 5.6416249 0
-2.4536629 5.5773883 0.3403458
-5.1232562 11.607535 -0.70869726
-2.4897871 5.6410003 0
-2.4604001 5.5744195 0.3403458
-5.1309676 11.587085 -0.70782667
-2.4913337 5.626092 0
-2.4702914 5.5785728 0.34078136
-5.1407447 11.571379 -0.70724612
-2.489677 5.6040506 0
-2.480196 5.5827098 0.34121692
-2.4933336 5.5940542 -0.34209415
-2.4964466 5.6010385 0
-2.4805908 5.565464 0.3403458
-2.5053935 5.6028957 -0.34281972
-2.5010858 5.5932617 0
-2.4904969 5.5695815 0.34078136
-2.5047157 5.5832663 -0.34180361
-2.5014529 5.5759931 0
-2.4993498 5.5713053 0.34107134
-2.5146606 5.5873466 -0.34223917
-2.4985766 5.55161 0
-2.5060799 5.5682812 0.34107134
-2.5182011 5.5771971 -0.34180361
-2.502069 5.5414686 0
-2.5117381 5.5628829 0.34092635
-2.5152898 5.5528498 -0.34049749
-2.4990995 5.517108 0
-2.5163155 5.5551147 0.34063634
-2.5230713 5.5521703 -0.34064248
-2.5165288 5.5377731 0
-2.5305481 5.5686226 0.34165192
-2.5351708 5.560946 -0.34136862
-2.5156646 5.5181589 0
-2.5361979 5.563199 0.3415069
-2.5381596 5.549726 -0.68020284
-2.5267558 5.5247917 -0.33933637
-2.5385635 5.5506091 0
-2.5364358 5.5459566 0.34063634
-2.5448635 5.5466552 -0.68020284
-2.5345163 5.5241027 -0.33948192
-2.5398431 5.5357127 0
-2.5474694 5.5523348 0.34121692
-2.5493989 5.5388722 -0.67962569
-2.5411894 5.5210366 -0.33948192
-2.5432646 5.5255456 0
-2.553087 5.5468855 0.34107134
-2.5495861 5.5217032 -0.6778965
-2.5413208 5.5038028 -0.3386108
-2.5313935 5.4823031 0
-2.5597875 5.5437965 0.34107134
-2.5508215 5.506886 -0.67645532
-2.5370498 5.4771547 -0.33715969
-2.5467668 5.4981322 0
-2.563211 5.5336328 0.34063634
-2.5422122 5.4709568 -0.67241865
-2.542572 5.4717307 -0.3370147
-2.5621819 5.5139322 0
-2.5731771 5.5375943 0.34107134
-2.5335152 5.4436321 -0.66924828
-2.5403922 5.4584079 -0.33628857
-2.5644157 5.510026 0
-2.5710411 5.524262 0.3403458
-2.5324306 5.424159 -0.66722995
-2.5458875 5.4529824 -0.33614358
-2.5699675 5.5045586 0
-2.5865083 5.5399871 0.3415069
-2.5280147 5.3976765 -0.66434759
-2.5524745 5.4499021 -0.33614358
-2.5744112 5.4967399 0
-2.5865901 5.5227432 0.34063634
-2.5430319 5.4127035 -0.99700671
-2.5345347 5.394618 -0.66434759
-2.5579538 5.4444642 -0.33599859
-2.5788398 5.4889188 0
-2.5965729 5.5266628 0.34107134
-2.5366406 5.3821931 -0.66319442
-2.5600996 5.4319677 -0.33541802
-2.5810323 5.4763823 0
-2.6043599 5.5258784 0.34121692
-2.5550086 5.4042234 -0.99657917
-2.549773 5.3931494 -0.66492361
-2.5622187 5.4194736 -0.33483747
-2.5831981 5.4638486 0
-2.6154773 5.532124 0.34179747
-2.5582356 5.3941717 -0.99529487
-2.5463138 5.3690338 -0.66232926
-2.5732191 5.425765 -0.33541802
-2.6009481 5.4842334 0
-2.6165895 5.5172138 0.34107134
-0 0 -0
-2.5527992 5.3659534 -0.66232926
-2.5786579 5.4203076 -0.33527303
-2.6064558 5.4787388 0
-2.6176736 5.5023184 0.3403458
-2.5646322 5.3740778 -0.99272788
-2.5581682 5.3605328 -0.66204125
-2.5874414 5.4218736 -0.33556303
-2.6074705 5.4638438 0
-2.6310372 5.5132265 0.34121692
-0 0 -0
-2.5679908 5.36443 -0.66290528
-2.59287 5.4164019 -0.33541802
-2.6264281 5.4865036 0
-2.6410596 5.5170679 0.34165192
-2.568722 5.3493514 -0.98930413
-2.571115 5.3543348 -0.66204125
-2.5971653 5.4085846 -0.33512801
-2.6229179 5.462214 0
-2.6432247 5.5045033 0.34107134
-2.5751839 5.3462439 -0.98930413
-2.5742145 5.3442316 -0.66117609
-2.6025677 5.4030948 -0.33498245
-2.6362901 5.4731045 0
-2.6510048 5.503653 0.34121692
-2.573823 5.3269463 -0.98630792
-2.5806701 5.3411169 -0.66117609
-2.6113575 5.4046297 -0.33527303
-2.6417701 5.4675736 0
-2.6678259 5.5215006 0.34252304
-2.5813763 5.3261404 -0.98673552
-2.5803556 5.3240342 -0.6594469
-2.614485 5.3944535 -0.33483747
-2.6415668 5.4503307 0
-2.6710947 5.5112557 0.34208748
-2.578831 5.3045478 -0.98331177
-2.5833931 5.3139319 -0.65858173
-2.6232758 5.3959689 -0.33512801
-2.6390474 5.4284105 0
-2.6822965 5.5173721 0.34266803
-2.5863669 5.3037419 -0.98374099
-2.597749 5.3270822 -0.66060007
-2.6229579 5.3787775 -0.33425692
-2.6581535 5.4509511 0
-2.6889613 5.5141268 0.34266803
-0 0 -0
-2.5916424 5.2983003 -0.98331177
-2.5996377 5.3146458 -0.6594469
-2.6408706 5.398941 -0.33570802
-2.6487262 5.4150014 0
-2.6967626 5.5132055 0.34281301
-2.5935237 5.285955 -0.98160154
-2.6060576 5.3115005 -0.6594469
-2.6382401 5.3770928 -0.33454746
-2.680485 5.4631939 0
-2.7080007 5.5192742 0.34339359
-0 0 -0
-2.6021738 5.2874198 -0.98245662
-2.6124737 5.3083482 -0.6594469
-2.6493249 5.3832269 -0.33512801
-2.6813395 5.448278 0
-2.7123749 5.5113397 0.34310359
-2.6085608 5.2842717 -0.98245662
-2.6188858 5.3051872 -0.6594469
-2.660424 5.3893328 -0.33570802
-2.6948347 5.4590406 0
-2.7236333 5.5173783 0.34368414
-2.6103876 5.2719135 -0.98074478
-2.62185 5.295063 -0.65858173
-2.666934 5.3861141 -0.33570802
-2.7060483 5.4651093 0
-2.7302978 5.5140834 0.34368414
-2.6156149 5.266459 -0.98031723
-2.6270967 5.289577 -0.65829372
-2.6665072 5.3689289 -0.33483747
-2.711489 5.4594979 0
-2.7450461 5.5270643 0.34469971
-2.6173978 5.2541037 -0.97860533
-2.6300251 5.2794514 -0.65742856
-2.6868963 5.3936129 -0.33657914
-2.7111232 5.4422455 0
-2.7436152 5.5074692 0.34368414
-2.6260371 5.2555256 -0.97946048
-2.6352475 5.2739582 -0.65714055
-2.6817992 5.3671227 -0.33512801
-2.7386336 5.480866 0
-2.76072 5.5250678 0.34499025
-2.6243374 5.2362905 -0.97646594
-2.6427758 5.2730803 -0.65742856
-2.7010858 5.3894248 -0.33672413
-2.7475884 5.4822106 0
-2.7708833 5.5286903 0.34542525
-1.3294967 2.6487234 -0.81766582
-2.6321068 5.2438807 -0.97817779
-2.64132 5.2622361 -0.65627539
-2.6880243 5.3552842 -0.33469248
-2.7543991 5.4875207 0
-2.7753921 5.5293446 0.3455708
-1.3270566 2.6359129 -0.81420565
-2.6384411 5.2406969 -0.97817779
-2.6500003 5.2636566 -0.65685141
-2.6921542 5.3473859 -0.33440191
-2.7528391 5.4679236 0
-2.7879124 5.5375891 0.34629637
-1.3483342 2.6701386 -0.82528025
-2.641299 5.230628 -0.97689348
-2.6575277 5.2627664 -0.65714055
-2.7009583 5.3487725 -0.33469248
-2.7617879 5.4692354 0
-2.7969418 5.5388508 0.34658638
-1.3424911 2.6506031 -0.81974292
-2.6441364 5.2205606 -0.97560918
-2.6673875 5.2664671 -0.65800458
-2.7121155 5.3547773 -0.33527303
-2.7742729 5.4775004 0
-2.7989359 5.526195 0.34600583
-1.3196342 2.5976827 -0.9607228
-1.3490983 2.6556826 -0.82181746
-2.6527703 5.2219434 -0.97646594
-2.673749 5.2632399 -0.65800458
-2.7138762 5.3422298 -0.33469248
-2.7844265 5.4811072 0
-2.8150263 5.5413423 0.34716693
-1.3272604 2.6048951 -0.96398264
-1.3511684 2.6518173 -0.82112592
-2.6579092 5.2164402 -0.97603673
-2.6801066 5.2600055 -0.65800458
-2.7285836 5.3551469 -0.33570802
-2.7898669 5.4754224 0
-2.8170011 5.528676 0.34658638
-1.3124111 2.5680759 -0.95094317
-1.3623643 2.6658225 -0.82597172
-2.666549 5.2178011 -0.97689348
-2.6841087 5.2521615 -0.65742856
-2.7326896 5.3472228 -0.33541802
-2.7929268 5.4650927 0
-2.8319578 5.5414672 0.34760249
-1.3301682 2.5950794 -0.96153694
-1.3564296 2.6463139 -0.82043445
-2.6705074 5.2100019 -0.97603673
-2.7010701 5.2696276 -0.66002291
-2.7355917 5.3369775 -0.33498245
-7.8872218 15.387504 0
-2.8505018 5.5611606 0.34905359
-1.312964 2.5539081 -0.94686913
-1.3550379 2.6357481 -0.81766582
-2.6732831 5.1999288 -0.97475404
-2.7050724 5.261764 -0.6594469
-2.7467906 5.3429117 -0.33556303
-7.8843927 15.336305 0
-2.8560324 5.5554032 0.3489086
-1.3103864 2.5413382 -0.9427951
-1.3628207 2.6430283 -0.82043445
-2.6807396 5.1989746 -0.97518164
-2.7149808 5.2653813 -0.66031092
-2.7544341 5.3418965 -0.33570802
-7.8886056 15.299009 0
-2.868696 5.5634937 0.34963417
-1.3145905 2.5419462 -0.9436093
-1.3821453 2.6725731 -0.83012336
-1.3532261 2.6166537 -0.65259594
-2.6905584 5.2025743 -0.97646594
-2.7189672 5.2575068 -0.6597349
-2.7680509 5.352417 -0.33657914
-7.9023037 15.280219 0
-4.3256135 8.3641844 0.52596986
-1.3264318 2.5497231 -0.94768333
-1.433756 2.7560263 -0.85711837
-1.3501688 2.5953515 -0.64809507
-2.7066739 5.2028823 -0.97774857
-2.7376318 5.2623911 -0.66117609
-2.7917693 5.3664565 -0.33788526
-7.9019771 15.189513 0
-4.3614025 8.3836718 0.52785653
-1.3180807 2.5262101 -0.93953526
-1.4359212 2.7520611 -0.85642421
-1.3533038 2.5937183 -0.64809507
-2.7141495 5.2018905 -0.97817779
-2.7427931 5.2567887 -0.66088808
-2.8030596 5.3722939 -0.33846581
-5.080543 9.7372789 0
-4.3703284 8.3760939 0.52771151
-1.3268609 2.5355628 -0.9436093
-1.4497131 2.7703273 -0.86265296
-1.3481891 2.5763199 -0.64415431
-2.720433 5.1986074 -0.97817779
-2.7503409 5.2557602 -0.66117609
-2.8119562 5.3735032 -0.33875582
-5.0874782 9.7219095 0
-4.3876724 8.3846169 0.5285821
-1.3195872 2.5142634 -0.93627536
-1.4425677 2.7485831 -0.85642421
-1.3548447 2.5814407 -0.64584351
-2.7231324 5.1884952 -0.97689348
-2.7614975 5.2615938 -0.66232926
-2.8172405 5.3678031 -0.3386108
-5.0919623 9.7019243 0
-4.4050436 8.3931093 0.52945262
-1.3341346 2.534534 -0.9444235
-1.4423854 2.7401843 -0.85434967
-1.3449428 2.5550671 -0.63965124
-2.7329879 5.192018 -0.97817779
-2.767853 5.2582536 -0.66232926
-5.0772614 9.6455727 -0.60884684
-5.0903506 9.6704388 0
-4.4163957 8.3900862 0.52959818
-1.3383489 2.5351036 -0.94523764
-1.4503803 2.747314 -0.85711837
-1.3468441 2.5511951 -0.63908887
-2.7356629 5.1818991 -0.97689348
-2.7742047 5.2549052 -0.66232926
-5.0876961 9.637126 -0.60870129
-5.0959535 9.6527672 0
-4.4241014 8.3801441 0.5293076
-1.3252218 2.5029085 -0.93382972
-1.4560444 2.7499895 -0.85850132
-1.3487333 2.5473139 -0.63852441
-2.7479272 5.1899314 -0.97903293
-2.7890253 5.2675524 -0.66434759
-5.0823169 9.5988264 -0.6066696
-5.0881333 9.6098108 0
-4.4342241 8.3747921 0.5293076
-1.3317237 2.5078561 -0.93627536
-1.4523089 2.7349379 -0.85434967
-1.3494291 2.5411985 -0.63739967
-2.7566063 5.1911459 -0.97988969
-2.7953882 5.2641783 -0.66434759
-5.081727 9.5697327 -0.60521853
-5.085094 9.5760736 0
-4.441905 8.3648424 0.52901763
-1.334753 2.5062451 -0.93627536
-1.4603295 2.7420382 -0.85711837
-1.3465279 2.5283549 -0.6345858
-2.7580502 5.1787481 -0.97817779
-2.8102541 5.2767706 -0.66636479
-5.0884008 9.5544119 -0.60463792
-5.0880966 9.5538406 0
-4.4507842 8.3571692 0.52887207
-1.3389437 2.5068085 -0.93708956
-1.4624563 2.7380526 -0.85642421
-1.3423971 2.5132742 -0.63120741
-2.7667222 5.1799364 -0.97903293
-2.814193 5.2688127 -0.66578877
-5.0889249 9.5276308 -0.6033318
-5.089828 9.5293217 0
-4.4510899 8.3334579 0.52771151
-1.3311318 2.488564 -0.93056983
-1.4641103 2.7371686 -0.85642421
-1.3475118 2.5191865 -0.6328966
-2.7759039 5.1895795 -0.98117232
-2.821032 5.2739472 -0.6666528
-5.0848756 9.5062246 -0.60217071
-5.0820851 9.501008 0
-4.4499922 8.3193045 0.52698541
-1.3306315 2.4804177 -0.92812419
-1.4745346 2.748666 -0.86057848
-1.3493547 2.5153196 -0.63233429
-2.7870266 5.1952701 -0.98288423
-5.0914445 9.4909143 -0.60159016
-5.0763354 9.4627495 0
-4.4563599 8.3070583 0.52655041
-1.3066972 2.4287527 -0.90938234
-1.4719127 2.7358379 -0.85711837
-1.3391494 2.4890714 -0.62614202
-2.7920868 5.18964 -0.98245662
-5.0844407 9.450429 -0.59941292
-5.091466 9.4634867 0
-4.4700837 8.308526 0.52698541
-1.3225379 2.4510927 -0.91834462
-1.4847432 2.7517121 -0.86265296
-1.334919 2.4740388 -0.62276578
-2.8056672 5.1998134 -0.98502362
-5.0896878 9.4328461 -0.59868735
-5.094245 9.4412928 0
-4.4727187 8.289403 0.52611482
-1.3160928 2.4321113 -0.91182798
-1.4868742 2.7477117 -0.86196148
-1.3391155 2.4746566 -0.62332809
-2.8070612 5.1873889 -0.98331177
-5.0812955 9.3901253 -0.59636515
-5.0833573 9.3939352 0
-4.486443 8.2908506 0.52655041
-1.314315 2.4218299 -0.90856814
-1.465065 2.6996105 -0.84742677
-1.3384676 2.4663348 -0.62163895
-2.8206761 5.197535 -0.98588037
-5.0827227 9.3657074 -0.595204
-5.0884986 9.3763514 0
-4.4902568 8.2739973 0.52582431
-1.3160553 2.4180629 -0.90775084
-1.4539343 2.6713958 -0.83912081
-1.334161 2.4513295 -0.61826271
-2.830637 5.2008891 -0.98716468
-5.0840979 9.341301 -0.5940429
-5.0799189 9.333622 0
-4.4890728 8.2480268 0.52451819
-1.3154271 2.4099689 -0.90530825
-1.4367288 2.6322036 -0.82735473
-1.3298203 2.4363382 -0.61488646
-2.8430674 5.2087293 -0.98930413
-5.0854268 9.3169136 -0.59288234
-5.083714 9.3137751 0
-4.5015278 8.2471628 0.5248087
-1.3171479 2.4062033 -0.90449095
-1.4411165 2.6326725 -0.82804888
-1.3364197 2.4414096 -0.61657351
-2.8444285 5.1962833 -0.98759228
-5.0829549 9.2856874 -0.59128565
-5.0899658 9.2984943 0
-4.5227175 8.262229 0.52611482
-1.3152968 2.3959436 -0.90123111
-1.4261861 2.5979395 -0.81766582
-1.3393687 2.4397931 -0.61657351
-2.859349 5.2085881 -0.99058682
-5.0866709 9.2658758 -0.59041512
-5.0899272 9.2718077 0
-4.5314484 8.2544832 0.52596986
-1.3122319 2.3835289 -0.89715707
-1.3966594 2.5368822 -0.7989794
-1.3337413 2.4225984 -0.61263496
-2.8557408 5.1871476 -0.98716468
-5.0865812 9.2392302 -0.58910847
-5.0848112 9.2360153 0
-4.5226197 8.2148552 0.52379262
-1.3163091 2.3841114 -0.89797437
-1.4009351 2.5373869 -0.79967093
-1.3354359 2.4187541 -0.61207044
-1.3917657 2.5207794 -0.48004857
-5.0876985 9.2148876 -0.58794791
-5.0770974 9.1956873 0
-4.4835649 8.1206751 0.51813257
-1.3072141 2.3608923 -0.88982314
-1.383342 2.498383 -0.78790486
-1.3371278 2.4149179 -0.61150807
-1.3873521 2.5056255 -0.47748157
-5.0812054 9.1769037 -0.58591563
-5.0781198 9.1713314 0
-4.4631653 8.0606937 0.51464921
-1.3112645 2.3614697 -0.89063734
-1.3778334 2.4813545 -0.78305906
-1.3375802 2.4088621 -0.61038339
-1.3966085 2.5151665 -0.47962099
-5.0784178 9.1457748 -0.58431953
-5.0854068 9.1583614 0
-4.4514585 8.0166779 0.512182
-1.3093071 2.3512461 -0.88737744
-1.3649647 2.4511957 -0.77406162
-1.3429599 2.4116795 -0.61150807
-1.3834119 2.484323 -0.47405782
-5.0818777 9.1260061 -0.58344841
-5.0850749 9.1317482 0
-4.4560852 8.0022125 0.51160145
-1.3242002 2.3712459 -0.89552867
-1.3667035 2.4473565 -0.77337009
-1.3433976 2.4056225 -0.61038339
-1.3738989 2.4602413 -0.46977898
-5.0878329 9.1107845 -0.58286786
-5.0808783 9.0983305 0
-4.469553 8.0036306 0.51203698
-1.2992866 2.3200433 -0.87678373
-1.3623023 2.4325657 -0.76921582
-1.3376113 2.3884771 -0.60644263
-1.3718534 2.4496205 -0.46806711
-5.0848756 9.0796986 -0.58127177
-5.071527 9.0558634 0
-4.4779525 7.9959593 0.51189202
-1.309353 2.3314059 -0.88167506
-1.3726138 2.4440465 -0.77337009
-1.3404964 2.3868589 -0.60644263
-1.3773239 2.4524331 -0.46892223
-5.0882058 9.0599499 -0.58040065
-5.0799141 9.045186 0
-4.4863396 7.9882789 0.511747
-1.2951864 2.2996683 -0.87026399
-1.3681768 2.4292665 -0.76921582
-1.3383919 2.3763819 -0.60419112
-1.3689498 2.4306388 -0.46507093
-5.083848 9.0266266 -0.57865894
-5.0755143 9.0118303 0
-4.4781342 7.9511514 0.50971478
-1.2955354 2.2938015 -0.86863559
-1.3538408 2.3970337 -0.75952685
-1.3337673 2.3614926 -0.60081488
-1.3693632 2.4245169 -0.46421582
-5.0883632 9.0091667 -0.57793337
-5.0838423 9.0011625 0
-4.4762387 7.925374 0.50840867
-1.3043954 2.3029854 -0.87270963
-1.3555009 2.3932152 -0.75883538
-1.3378708 2.3620882 -0.60137725
-1.3748196 2.4273236 -0.46507093
-5.0864415 8.9804058 -0.5764823
-5.080605 8.9701014 0
-4.4627633 7.8792663 0.50579643
-1.3071772 2.3014076 -0.87270963
-1.3546734 2.3850293 -0.75675821
-1.340724 2.3604698 -0.60137725
-1.3726803 2.4167318 -0.46335906
-5.0870223 8.9561787 -0.57532114
-5.0798731 8.9435921 0
-4.4337831 7.8060899 0.50144255
-1.2977265 2.2783542 -0.86456156
-1.3587947 2.3855684 -0.75744969
-1.3435751 2.3588481 -0.60137725
-1.3679787 2.4016922 -0.46079209
-5.0824075 8.9229307 -0.57357949
-5.0752192 8.9103107 0
-4.4290643 7.775888 0.49984586
-1.3164138 2.3046825 -0.87515533
-1.3218632 2.3142231 -0.73530322
-1.3426424 2.3506019 -0.59968805
-1.3708797 2.4000375 -0.46079209
-5.0828753 8.8987322 -0.57241839
-5.0834031 8.8996563 0
-4.4384565 7.7705307 0.49984586
-1.3202579 2.3081737 -0.87678373
-1.3444355 2.3504426 -0.7470693
-1.3364953 2.336561 -0.59631181
-1.3634062 2.3836086 -0.45779589
-5.0766401 8.8753624 -0.57111228
-5.0797324 8.8807678 0
-4.4457331 7.7723632 0.50013644
-1.3144411 2.2915752 -0.87108129
-1.3273025 2.3139975 -0.7359947
-1.3380545 2.3327425 -0.5957495
-1.3624523 2.375277 -0.45651159
-5.0705547 8.839922 -0.56922561
-5.0852799 8.8655939 0
-4.4577045 7.7714891 0.50042641
-1.3184402 2.2921257 -0.87189549
-1.3338513 2.3189182 -0.73807186
-1.3358046 2.3223138 -0.59349793
-1.3640426 2.3714061 -0.45608404
-5.0773444 8.8270292 -0.56879002
-5.0817184 8.8346338 0
-4.4826388 7.7931261 0.50216806
-1.3051559 2.2627003 -0.86130172
-1.315344 2.2803631 -0.72630578
-1.3386097 2.320698 -0.59349793
-1.3656256 2.3675346 -0.45565647
-5.0776196 8.8028812 -0.56762892
-5.0845852 8.8149567 0
-4.5309987 7.8552251 0.506522
-1.2979887 2.2440059 -0.85478199
-1.3130738 2.2700856 -0.72353709
-1.340137 2.3168731 -0.59293342
-1.3569186 2.3458858 -0.45180517
-5.0791492 8.7810011 -0.56661338
-5.0613551 8.7502384 0
-4.7005057 8.1263905 0.52437317
-1.3168194 2.2702274 -0.86537576
-1.3145583 2.2663293 -0.72284561
-1.3391145 2.3086648 -0.59124637
-1.3558869 2.3375807 -0.45052087
-5.0806279 8.7591219 -0.56559724
-5.0693154 8.7396183 0
-4.7924542 8.2623034 0.53351653
-1.295954 2.2280478 -0.84989375
-1.3349526 2.2950954 -0.73253453
-1.3419031 2.307045 -0.59124637
-1.3574209 2.3337238 -0.4500933
-5.0833716 8.7395039 -0.56472665
-5.0654769 8.7087393 0
-4.8259482 8.2969332 0.53612876
-1.3011334 2.230746 -0.85152215
-1.3250872 2.2718141 -0.72561425
-1.3434058 2.3032207 -0.59068191
-1.3576506 2.3276429 -0.44923654
-5.0834546 8.7153988 -0.56356555
-5.0628867 8.6801357 0
-4.8621535 8.3359861 0.53903157
-1.3050745 2.2313037 -0.85233629
-1.3138974 2.2463882 -0.71799982
-1.3436247 2.2972136 -0.58955717
-1.3513935 2.3104959 -0.446242
-5.0821757 8.6890659 -0.56225944
-5.065485 8.6605291 0
-4.903708 8.3839369 0.54251492
-1.3115221 2.2361231 -0.85478199
-1.3343775 2.2750912 -0.72768873
-1.3438259 2.2912006 -0.58843035
-1.3606766 2.3199308 -0.44838145
-1.446578 2.4663911 -0.31870243
-5.0847812 8.669466 -0.56138831
-5.0614662 8.629715 0
-4.9572101 8.4519596 0.5473038
-1.3242471 2.2515805 -0.86130172
-1.3218634 2.2475274 -0.71938282
-1.3440197 2.2851992 -0.58730567
-1.3608736 2.3138552 -0.4475247
-1.4298872 2.4311972 -0.31437775
-5.0807662 8.6386843 -0.55979222
-5.0679307 8.6168604 0
-4.9911332 8.4862843 0.54991663
-1.3106455 2.2223046 -0.85070795
-1.324578 2.2459285 -0.71938282
-1.3429064 2.2770054 -0.58561647
-1.3584521 2.3033645 -0.44581282
-1.4328238 2.4294677 -0.31437775
-5.0806403 8.6146336 -0.55863112
-5.0624738 8.5838308 0
-5.0106201 8.4959078 0.55093217
-1.3259088 2.2419894 -0.85885602
-1.3234634 2.2378545 -0.71730834
-1.334017 2.2556996 -0.58055103
-1.3533963 2.2884681 -0.44324583
-1.4397094 2.4344156 -0.31524292
-5.0857549 8.5995417 -0.55805057
-5.0635672 8.5620251 0
-6.9135966 11.690254 0.75861627
-1.3034024 2.1978676 -0.84255672
-1.3197693 2.2254663 -0.71384817
-1.341926 2.2628281 -0.58280259
-1.3561605 2.2868311 -0.44324583
-1.4360546 2.4215529 -0.31380174
-5.0855384 8.57551 -0.55688941
-5.060637 8.5335197 0
-6.9237394 11.675184 0.75818074
-1.3300608 2.2366562 -0.85804182
-1.3250195 2.2281785 -0.71523118
-1.3381668 2.2502875 -0.57998872
-1.3576119 2.2829866 -0.44281828
-1.4244362 2.3953595 -0.31063023
-5.0892572 8.5581942 -0.55616385
-5.0642943 8.5162163 0
-6.92589 11.646711 0.75687462
-1.3314978 2.2329266 -0.85722768
-0 0 -0
-1.3382797 2.2443001 -0.57886183
-1.3511649 2.2659085 -0.43982211
-1.4246826 2.3891981 -0.31005421
-5.0889482 8.5341845 -0.55500275
-5.0612545 8.4877424 0
-6.9319754 11.624948 0.75600404
-1.3062873 2.1846433 -0.83929688
-1.3110867 2.1926699 -0.70484805
-1.3422983 2.2448685 -0.57942635
-1.3578553 2.2708862 -0.44110641
-1.4235851 2.3808129 -0.30918905
-5.0925899 8.516881 -0.55427718
-5.0661645 8.4726868 0
-6.9260125 11.583109 0.7538268
-1.3063865 2.1788278 -0.83766848
-1.3188955 2.1996906 -0.70761675
-1.3397833 2.2345281 -0.57717478
-1.355318 2.2604373 -0.43939453
-1.4171542 2.3635693 -0.30717182
-5.0908527 8.4906664 -0.55297107
-5.0630126 8.4442339 0
-6.9333239 11.563591 0.75310129
-1.3217512 2.198426 -0.84581661
-1.3176781 2.1916513 -0.70554221
-1.3450984 2.2372587 -0.57829952
-1.3593698 2.2609959 -0.43982211
-1.4186726 2.3596323 -0.30688271
-5.0890541 8.4644594 -0.55166441
-5.0651689 8.4247322 0
-6.925869 11.519574 0.75077903
-1.3078185 2.1693122 -0.83522284
-1.311257 2.1750159 -0.70069641
-1.3438637 2.2291014 -0.57661033
-1.3581233 2.2527542 -0.43853778
-1.4215226 2.3579164 -0.30688271
-5.089891 8.4427338 -0.55064887
-5.0672803 8.4052286 0
-6.9277101 11.491171 0.74947292
-1.2938175 2.1402354 -0.82462907
-1.3125875 2.1712849 -0.70000494
-1.3439298 2.2231314 -0.57548559
-1.3542054 2.2401292 -0.43639836
-1.4176816 2.3451316 -0.30544153
-5.0839572 8.409893 -0.54890716
-5.0626264 8.3746071 0
-6.9308352 11.465002 0.74831182
-1.2989675 2.1429019 -0.82626057
-1.337317 2.206167 -0.71177101
-1.3413465 2.2128143 -0.57323408
-1.3449361 2.2187364 -0.43254706
-1.4111276 2.3279321 -0.3034232
-5.0819941 8.3837471 -0.54760104
-5.0686932 8.361805 0
-6.9285202 11.429955 0.74657011
-1.3400662 2.2046885 -0.85070795
-1.3204345 2.1723902 -0.70138794
-1.3334612 2.1938219 -0.56873101
-1.3476161 2.2171097 -0.43254706
-1.4139394 2.3262253 -0.3034232
-5.0853734 8.3664999 -0.54687548
-5.0639229 8.3312092 0
