# .PCD v0.7 - Point Cloud Data file format
VERSION 0.7
FIELDS x y z
SIZE 4 4 4
TYPE F F F
COUNT 1 1 1
WIDTH 1514
HEIGHT 1
VIEWPOINT 0 0 0 1 0 0 0
POINTS 1514
DATA ascii
-4.833621 -0.67005897 0.27256942
-2.6530395 -0.37104446 -0.8833034
-2.9027996 -0.40597498 -0.80866838
-3.4962163 -0.48896807 -0.78205407
-4.3541541 -0.6089561 -0.73296446
-4.8091731 -0.67259347 -0.54125309
-4.8535042 -0.67879343 -0.27373669
-4.8334184 -0.67598432 0
-4.8456726 -0.67769814 0.27329499
-2.6574888 -0.37494111 -0.8849349
-2.8998251 -0.409132 -0.80797684
-3.5006499 -0.49390149 -0.78317875
-4.3508754 -0.61385852 -0.73253691
-4.8160329 -0.67948693 -0.54211712
-4.8423982 -0.68320674 -0.27315667
-4.8480554 -0.68400484 0
-4.8525715 -0.68464208 0.27373055
-2.6325595 -0.37466872 -0.87678373
-2.92168 -0.41581663 -0.81420565
-3.5000508 -0.49813098 -0.78317875
-4.3323379 -0.61658299 -0.72954071
-4.8126502 -0.68494159 -0.54182911
-4.8364191 -0.68832439 -0.27286613
-4.8446512 -0.68949598 0
-4.8517408 -0.69050497 0.27373055
-2.6149862 -0.37539193 -0.87108129
-2.9460037 -0.42291081 -0.82112592
-3.4944208 -0.50163835 -0.78205407
-4.3442926 -0.62364084 -0.73168015
-4.8067036 -0.69002187 -0.54125309
-4.8355842 -0.69416779 -0.27286613
-4.8438144 -0.69534928 0
-4.8560424 -0.69710463 0.27402055
-2.5656087 -0.37146804 -0.85478199
-2.885911 -0.41784379 -0.80451673
-3.4887779 -0.50513142 -0.78092718
-4.3257589 -0.62631577 -0.72868562
-4.8084235 -0.6961996 -0.5415411
-4.8501668 -0.70224345 -0.27373669
-4.8403974 -0.70082897 0
-4.8500581 -0.70222771 0.27373055
-2.6458628 -0.38635242 -0.88167506
-2.8804343 -0.42060488 -0.80313104
-3.4906867 -0.50971472 -0.7814917
-4.3351598 -0.63302583 -0.73039746
-4.8229299 -0.70425069 -0.54327029
-4.8441772 -0.70735323 -0.27344668
-4.8498478 -0.70818126 0
-9.0425797 -1.3204097 0.51044035
-2.5769274 -0.37946707 -0.85885602
-2.939492 -0.43285674 -0.81974292
-3.4825244 -0.51282132 -0.7798025
-4.3343916 -0.63826352 -0.73039746
-4.8246322 -0.71045423 -0.5435583
-4.8484554 -0.71396232 -0.27373669
-4.8515611 -0.71441966 0
-9.0204124 -1.3283064 0.50927919
-2.6644797 -0.39564955 -0.8881948
-2.8893356 -0.42903847 -0.80589968
-3.4844131 -0.51740175 -0.78036487
-0 -0 -0
-4.8212142 -0.71590376 -0.54327029
-4.847589 -0.71982026 -0.27373669
-4.8584194 -0.72142839 0
-4.8911729 -0.72629195 0.27619776
-2.6346674 -0.39447698 -0.87841523
-2.9185884 -0.43698719 -0.81420565
-3.4862959 -0.52198744 -0.78092718
-0 -0 -0
-4.8152347 -0.72096348 -0.54269427
-4.8569951 -0.72721612 -0.27431723
-4.8446774 -0.7253719 0
-4.9005709 -0.73374051 0.27677834
-2.5682008 -0.38769853 -0.85641032
-2.9006913 -0.43789166 -0.80935985
-3.4906921 -0.52695888 -0.78205407
-4.3117428 -0.65090561 -0.72697377
-4.8322549 -0.72948271 -0.54471147
-4.8638234 -0.73424834 -0.2747528
-4.85151 -0.73238951 0
-4.8894033 -0.73810989 0.27619776
-2.6165998 -0.3982392 -0.87270963
-2.8778408 -0.43799931 -0.80313104
-3.4850242 -0.53041095 -0.78092718
-4.3211045 -0.65766007 -0.72868562
-4.8288155 -0.73493224 -0.54442346
-4.8578 -0.73934358 -0.27446279
-4.8506217 -0.73825109 0
-4.8807988 -0.74284393 0.2757622
-2.6161168 -0.40140057 -0.87270963
-2.9045889 -0.4456619 -0.81074548
-3.4944267 -0.53616291 -0.78317875
-4.3177624 -0.66249037 -0.7282564
-4.8432684 -0.74312067 -0.54615378
-4.8748741 -0.74797016 -0.27547833
-4.8574457 -0.745296 0
-4.8798976 -0.74874085 0.2757622
-2.6180701 -0.40493876 -0.87352383
-2.899085 -0.44840354 -0.80935985
-3.4862504 -0.53922081 -0.7814917
-4.3093553 -0.66653103 -0.72697377
-4.8295789 -0.74699438 -0.54471147
-4.8739672 -0.75385994 -0.27547833
-4.8642602 -0.75235856 0
-4.8866954 -0.75582868 0.27619776
-2.6566525 -0.41419378 -0.8865633
-2.9208481 -0.45538402 -0.81558865
-3.4755542 -0.5418672 -0.77924019
-4.3136144 -0.67252767 -0.72782886
-4.8363423 -0.75402516 -0.54557663
-4.8781924 -0.76054996 -0.27576891
-4.8659163 -0.758636 0
-4.883204 -0.76133126 0.27605221
-2.6659167 -0.41893831 -0.88982314
-2.9029543 -0.45618784 -0.81074548
-3.4849372 -0.54764414 -0.7814917
-4.3077316 -0.67694306 -0.72697377
-4.8430953 -0.76107335 -0.54644179
-4.8747053 -0.76604074 -0.27562392
-4.8624277 -0.76411134 0
-4.8848548 -0.7676357 0.27619776
-2.6019425 -0.41210723 -0.86863559
-2.8776174 -0.45576984 -0.80382258
-3.484273 -0.55185461 -0.7814917
-4.2891598 -0.67933619 -0.72397757
-4.8370581 -0.76611471 -0.54586464
-4.8891702 -0.77436846 -0.27649447
-4.8769188 -0.77242804 0
-4.8839235 -0.77353752 0.27619776
-2.6914866 -0.43129161 -0.89878857
-2.904038 -0.46535146 -0.81143701
-3.4882801 -0.55897212 -0.78261638
-4.2879219 -0.68710899 -0.72397757
-4.8484383 -0.77692783 -0.54730695
-4.8851953 -0.78281784 -0.27634946
-4.8626647 -0.77920747 0
-4.8799405 -0.78197581 0.27605221
-2.6372881 -0.42587581 -0.88086087
-2.8886087 -0.46645966 -0.80728269
-3.4775684 -0.56156635 -0.78036487
-4.3073621 -0.6955635 -0.72740132
-4.8551488 -0.78402144 -0.54817098
-4.8842459 -0.78872007 -0.27634946
-4.8694296 -0.78632754 0
-4.8815646 -0.7882871 0.27619776
-2.6635995 -0.43342763 -0.88982314
-2.9103358 -0.4735772 -0.81351417
-3.4944451 -0.56862497 -0.78430557
-4.2989149 -0.6995303 -0.72611701
-4.8490973 -0.78905737 -0.54759496
-4.8884134 -0.79545504 -0.27663946
-4.8710423 -0.79262829 0
-4.8729119 -0.79293257 0.2757622
-2.6557543 -0.43544564 -0.88737744
-2.8800528 -0.47222233 -0.80520821
-3.4937556 -0.57284689 -0.78430557
-4.3031378 -0.70555574 -0.72697377
-4.8506904 -0.79533404 -0.54788297
-4.8874488 -0.80136114 -0.27663946
-4.8726463 -0.7989341 0
-8.7206306 -1.4298613 0.49360526
-2.6308453 -0.43462646 -0.87922937
-2.8770075 -0.47529343 -0.80451673
-3.4880421 -0.57623887 -0.78317875
-4.3022823 -0.71075469 -0.72697377
-4.8548341 -0.80203855 -0.54846013
-4.8916092 -0.80811393 -0.27693003
-4.8768182 -0.80567038 0
-8.693264 -1.4361629 0.49215415
-2.6327541 -0.4382104 -0.88004357
-2.9110723 -0.48453531 -0.81420565
-3.4823353 -0.57961953 -0.78205407
-4.2912912 -0.71426672 -0.72526187
-4.8487539 -0.80705392 -0.54788297
-4.8880587 -0.81359607 -0.27678445
-4.8758411 -0.81156242 0
-4.9443355 -0.82296312 0.27997112
-2.6224723 -0.43975624 -0.87678373
-2.8981161 -0.48597831 -0.81074548
-3.4691052 -0.58172619 -0.77924019
-4.2929544 -0.71987551 -0.72568941
-4.8554301 -0.81419581 -0.54874814
-4.8922024 -0.82036203 -0.27707502
-4.8799853 -0.8183133 0
-4.9305267 -0.82678854 0.27924556
-2.6731153 -0.45156991 -0.89389718
-2.9173164 -0.49282286 -0.81628281
-3.4709029 -0.58634031 -0.7798025
-4.2946105 -0.72548938 -0.72611701
-4.8646445 -0.82178533 -0.54990131
-4.896327 -0.82713747 -0.27736503
-4.8892574 -0.82594323 0
-4.9192758 -0.83101422 0.27866501
-2.653075 -0.45148239 -0.88737744
-2.8796182 -0.49003398 -0.80589968
-3.4777088 -0.59181303 -0.7814917
-4.2886739 -0.72981757 -0.72526187
-4.8687425 -0.82852972 -0.55047733
-4.9004521 -0.83392584 -0.27765557
-4.8908191 -0.83228654 0
-4.9080215 -0.8352139 0.27808446
-2.6330483 -0.45134872 -0.88086087
-2.9037464 -0.49775088 -0.81282002
-3.4694757 -0.59472638 -0.7798025
-4.2903166 -0.73543239 -0.72568941
-4.8728414 -0.83528686 -0.55105448
-4.8994408 -0.83984643 -0.27765557
-4.882122 -0.8368777 0
-4.9095674 -0.8415823 0.27822945
-2.6592853 -0.45915449 -0.88982314
-2.9155109 -0.5033946 -0.81628281
-3.483773 -0.60151124 -0.78317875
-4.2868977 -0.74017948 -0.72526187
-4.8692727 -0.84073281 -0.55076534
-4.9086647 -0.8475343 -0.27823615
-4.8862314 -0.84366089 0
-4.9034204 -0.84662884 0.27793887
-2.6416807 -0.45940268 -0.8841176
-2.8827617 -0.50132793 -0.80728269
-3.4655275 -0.60267413 -0.77924019
-4.2910538 -0.74623764 -0.72611701
-4.8810015 -0.84883279 -0.55220765
-4.8999548 -0.8521288 -0.27780059
-4.880085 -0.8486734 0
-4.9126344 -0.85433388 0.27851945
-2.6849504 -0.47027054 -0.89878857
-2.8920383 -0.50654215 -0.81005132
-3.4572859 -0.60554558 -0.777551
-4.2901487 -0.75142199 -0.72611701
-4.8774176 -0.85428238 -0.55191851
-4.9066024 -0.85939413 -0.27823615
-4.8841782 -0.85546654 0
-4.9064841 -0.85937345 0.27822945
-2.6989796 -0.47608975 -0.90367675
-2.8939018 -0.51047331 -0.81074548
-3.4715605 -0.61237007 -0.78092718
-4.2841864 -0.75571424 -0.72526187
-4.8840256 -0.86152351 -0.55278367
-4.9157963 -0.86712772 -0.2788167
-4.9036446 -0.86498421 0
-4.915678 -0.86710691 0.27880999
-2.6059337 -0.46292424 -0.87270963
-2.8759899 -0.51089764 -0.80589968
-3.46332 -0.61523235 -0.77924019
-4.2959056 -0.76313478 -0.72740132
-4.8829808 -0.86742425 -0.55278367
-4.9173007 -0.87352091 -0.27896169
-4.9025955 -0.87090868 0
-4.9120708 -0.87259185 0.27866501
-2.6345682 -0.47129548 -0.88248926
-2.8827815 -0.51569813 -0.80797684
-3.457567 -0.61852092 -0.77811331
-4.2848725 -0.7665168 -0.72568941
-4.8819294 -0.8733238 -0.55278367
-4.918797 -0.87991899 -0.27910671
-4.8989806 -0.87637407 0
-4.9161239 -0.87944078 0.27895501
-2.6048074 -0.4692204 -0.87270963
-2.8944991 -0.52140439 -0.81143701
-3.4693179 -0.62495011 -0.78092718
-4.2839432 -0.77169371 -0.72568941
-4.8834133 -0.8796801 -0.55307168
-4.9202852 -0.88632196 -0.27925169
-4.8927903 -0.88136923 0
-4.9125028 -0.88492012 0.27880999
-0 -0 -0
-2.8716531 -0.52087218 -0.80520821
-3.4735653 -0.63004947 -0.78205407
-4.285531 -0.77732712 -0.72611701
-4.8899841 -0.88696539 -0.55393684
-4.916656 -0.89180326 -0.27910671
-4.9045229 -0.88960248 0
-4.8960843 -0.88807184 0.27793887
-0 -0 -0
-2.915761 -0.5306924 -0.81766582
-3.4631846 -0.630328 -0.7798025
-4.2774911 -0.77853841 -0.72483432
-4.8843632 -0.8889941 -0.55336082
-4.9263425 -0.8966347 -0.27968726
-4.9116683 -0.89396387 0
-8.4207182 -1.5326397 0.47807631
-0 -0 -0
-2.922523 -0.53557223 -0.81974292
-3.4774113 -0.6372593 -0.78317875
-4.2689695 -0.78231776 -0.72355002
-4.8985453 -0.89769173 -0.55509001
-4.9278088 -0.90305448 -0.27983224
-4.9054699 -0.89896071 0
-4.9455848 -0.90631199 0.28084168
-0 -0 -0
-2.8898034 -0.53318596 -0.81074548
-3.466644 -0.63961649 -0.78092718
-4.2755971 -0.78887314 -0.72483432
-4.8949156 -0.90314114 -0.554802
-4.9369354 -0.91089398 -0.28041282
-4.9069371 -0.90535909 0
-4.9802651 -0.91888863 0.2828739
-0 -0 -0
-2.8990233 -0.53851008 -0.81351417
-3.4633727 -0.64334118 -0.78036487
-4.2847362 -0.79591411 -0.72654617
-4.8989019 -0.90999889 -0.55537802
-4.9179549 -0.9135381 -0.27939725
-4.9007168 -0.91033602 0
-4.9842558 -0.92585385 0.28316391
-0 -0 -0
-2.8811061 -0.53878403 -0.80866838
-3.467593 -0.64846057 -0.7814917
-4.2686267 -0.79825866 -0.72397757
-4.9054284 -0.91734439 -0.55624318
-4.9398327 -0.92377818 -0.28070337
-4.9072905 -0.91769254 0
-4.9678135 -0.92901069 0.28229335
-0 -0 -0
-2.87799 -0.54180115 -0.80797684
-3.4643025 -0.65217853 -0.78092718
-4.2752299 -0.8048411 -0.72526187
-4.9043164 -0.92327094 -0.55624318
-4.9259477 -0.92734313 -0.2799778
-4.906178 -0.92362136 0
-4.9692383 -0.93549293 0.28243834
-2.7607172 -0.52317858 -0.92649579
-2.8822582 -0.5462116 -0.80935985
-3.4685097 -0.65731108 -0.78205407
-4.2742543 -0.81000626 -0.72526187
-4.9031973 -0.92919618 -0.55624318
-4.9324751 -0.93474454 -0.28041282
-4.9076128 -0.93003297 0
-0 -0 0
-0 -0 -0
-2.8939154 -0.55204386 -0.81282002
-3.4677131 -0.66150165 -0.78205407
-4.2707529 -0.81468976 -0.72483432
-4.8995328 -0.93463588 -0.55595517
-4.9339018 -0.94119209 -0.28055838
-4.9192748 -0.93840188 0
-4.9261246 -0.93970847 0.28011611
-0 -0 -0
-2.9031012 -0.55743253 -0.81558865
-3.4419532 -0.66089898 -0.77642411
-4.2697654 -0.81984949 -0.72483432
-4.9085603 -0.94250625 -0.55710834
-4.9378595 -0.9481321 -0.28084835
-4.9257975 -0.94581598 0
-4.9275346 -0.94614959 0.28026113
-0 -0 -0
-2.9122784 -0.56284416 -0.81835729
-3.4511311 -0.66698599 -0.77867568
-4.2687716 -0.82500809 -0.72483432
-4.9074178 -0.94843656 -0.55710834
-4.9443665 -0.95557755 -0.28128392
-4.9399872 -0.95473117 0
-4.9238391 -0.95161027 0.28011611
-0 -0 -0
-2.8746641 -0.55917865 -0.80797684
-3.4602993 -0.67309618 -0.78092718
-4.2627273 -0.82918417 -0.72397757
-4.9088049 -0.95485896 -0.55739635
-4.9432082 -0.96155113 -0.28128392
-4.9234977 -0.95771694 0
-4.9303398 -0.95904797 0.28055167
-0 -0 -0
-2.8789058 -0.56361479 -0.80935985
-3.4545012 -0.67630136 -0.7798025
-4.2592053 -0.83384156 -0.72355002
-4.9101834 -0.96128601 -0.55768436
-4.9496856 -0.96901959 -0.28171894
-4.9274497 -0.96466631 0
-4.92663 -0.96450585 0.28040668
-0 -0 -0
-2.8929958 -0.57000375 -0.81351417
-3.4437096 -0.67851019 -0.777551
-4.2682695 -0.8409723 -0.72526187
-4.9191689 -0.96921831 -0.55883753
-4.9612656 -0.9775126 -0.28244504
-4.9364939 -0.97263187 0
-4.9331021 -0.97196352 0.28084168
-0 -0 -0
-2.8775351 -0.57057029 -0.80935985
-3.4603362 -0.68613064 -0.7814917
-4.2722816 -0.84712672 -0.72611701
-4.9230633 -0.97616661 -0.55941355
-4.9600811 -0.98350662 -0.28244504
-4.9276543 -0.97707689 0
-4.916636 -0.97489214 0.27997112
-0 -0 -0
-2.8842268 -0.57552004 -0.81143701
-3.4595046 -0.69031125 -0.7814917
-4.2687397 -0.85178643 -0.72568941
-4.9294925 -0.98363334 -0.56027871
-4.9665265 -0.99102312 -0.28288004
-4.9290199 -0.9835391 0
-8.151515 -1.6265575 0.4642885
-0 -0 -0
-2.8515561 -0.57258451 -0.80243957
-3.4561696 -0.69398922 -0.78092718
-4.2828035 -0.85997504 -0.7282564
-4.9257669 -0.98908025 -0.5599907
-4.9576898 -0.99549031 -0.28244504
-4.9278278 -0.98949414 0
-4.9881434 -1.0016054 0.28418002
-0 -0 -0
-2.9049568 -0.58695978 -0.81766582
-3.4528403 -0.69766212 -0.78036487
-4.2666688 -0.86209983 -0.72568941
-4.9220352 -0.99451959 -0.55970269
-4.9615722 -1.0025083 -0.28273505
-4.9444876 -0.99905622 0
-4.9996619 -1.0102044 0.28490558
-0 -0 -0
-2.8772001 -0.58497071 -0.81005132
-3.4544823 -0.70233941 -0.78092718
-4.2631106 -0.86674368 -0.72526187
-4.9258943 -1.0014958 -0.56027871
-4.9654551 -1.009539 -0.28302559
-4.9483728 -1.006066 0
-4.995894 -1.0157276 0.28476059
-0 -0 -0
-2.8936985 -0.59196693 -0.81489712
-3.4387 -0.70345849 -0.777551
-4.2620606 -0.87189418 -0.72526187
-4.9322848 -1.0090027 -0.56114388
-4.9642315 -1.0155381 -0.28302559
-4.9497104 -1.0125675 0
-4.9793835 -1.0186378 0.28388947
-0 -0 -0
-2.8736799 -0.58968073 -0.80935985
-3.46316 -0.7106424 -0.78317875
-4.2564988 -0.87343597 -0.72440511
-4.9291434 -1.011463 -0.56085587
-4.9737988 -1.0206263 -0.28360617
-4.9389005 -1.0134652 0
-4.9787674 -1.0216459 0.28388947
-0 -0 -0
-2.8705106 -0.59264582 -0.80866838
-3.4498591 -0.7122581 -0.78036487
-4.2604733 -0.87961757 -0.72526187
-4.9456415 -1.0210775 -0.56287307
-4.9827313 -1.028735 -0.28418615
-4.9529595 -1.0225884 0
-4.964808 -1.0250345 0.28316391
-0 -0 -0
-2.9041765 -0.60325605 -0.81835729
-3.4489958 -0.71642607 -0.78036487
-4.2543755 -0.88371968 -0.72440511
-4.9418745 -1.026527 -0.56258506
-4.9789429 -1.0342269 -0.28404117
-4.9542661 -1.0291011 0
-4.9635658 -1.0310328 0.28316391
-0 -0 -0
-2.9206378 -0.61035764 -0.82320309
-3.4456429 -0.7200737 -0.7798025
-4.2558246 -0.88938624 -0.72483432
-4.9482279 -1.0340854 -0.56345022
-4.9776897 -1.0402423 -0.28404117
-4.9530191 -1.0350866 0
-4.9673982 -1.0380915 0.28345391
-0 -0 -0
-2.8879843 -0.60717654 -0.81420565
-3.4397924 -0.72319001 -0.77867568
-4.2597666 -0.89558327 -0.72568941
-4.9520326 -1.0411268 -0.56402624
-4.9866004 -1.0483946 -0.28462172
-4.9517646 -1.0410706 0
-4.9737716 -1.0456973 0.28388947
-0 -0 -0
-2.8946142 -0.61222357 -0.81628281
-3.4563198 -0.73102677 -0.78261638
-4.2712364 -0.90338516 -0.72782886
-4.9482427 -1.046575 -0.56373823
-4.9802504 -1.0533447 -0.28433171
-4.9505033 -1.0470531 0
-4.9674249 -1.050632 0.28359947
-0 -0 -0
-2.9110422 -0.61937386 -0.82112592
-3.4479759 -0.73361564 -0.78092718
-4.2550812 -0.90534109 -0.72526187
-4.9570942 -1.0547063 -0.5648914
-4.9840522 -1.0604421 -0.28462172
-4.9517775 -1.0535752 0
-4.9686909 -1.0571737 0.28374445
-0 -0 -0
-2.8784025 -0.61606556 -0.81212848
-3.4520609 -0.73884594 -0.78205407
-4.2640252 -0.91263092 -0.72697377
-4.9558158 -1.0606952 -0.5648914
-4.9853058 -1.0670069 -0.2847667
-4.9632325 -1.0622826 0
-4.9699483 -1.0637199 0.28388947
-0 -0 -0
-2.9119871 -0.62693441 -0.82181746
-3.446193 -0.74194592 -0.78092718
-4.2578955 -0.91670084 -0.72611701
-4.9520044 -1.0661387 -0.56460339
-4.9890981 -1.0741248 -0.28505728
-4.9644871 -1.0688261 0
-4.9788203 -1.0719119 0.28447002
-0 -0 -0
-2.8621984 -0.61983484 -0.80797684
-3.4403319 -0.74503487 -0.7798025
-4.2492652 -0.92021662 -0.72483432
-4.9582891 -1.0737622 -0.56546742
-4.990334 -1.0807017 -0.28520226
-4.9682741 -1.0759245 0
-4.9749842 -1.0773777 0.28432503
-0 -0 -0
-2.8712525 -0.62542856 -0.81074548
-3.4419096 -0.7497316 -0.78036487
-4.2506557 -0.92589617 -0.72526187
-4.964572 -1.0814046 -0.56633258
-4.9915609 -1.0872834 -0.28534728
-4.9746017 -1.0835892 0
-4.9762154 -1.0839406 0.28447002
-0 -0 -0
-2.9072471 -0.6369496 -0.82112592
-3.4459701 -0.75497854 -0.7814917
-4.2595644 -0.93322915 -0.72697377
-4.965786 -1.0879555 -0.56662059
-5.0003967 -1.0955383 -0.28592783
-4.9580402 -1.0862584 0
-4.9723659 -1.0893971 0.28432503
-0 -0 -0
-2.9015801 -0.63938326 -0.81974292
-3.4252043 -0.75476748 -0.77698863
-4.2484059 -0.93616563 -0.72526187
-4.967001 -1.0945131 -0.56690973
-5.004149 -1.1026989 -0.28621837
-4.9618025 -1.0933675 0
-4.9811964 -1.0976411 0.28490558
-0 -0 -0
-2.8567126 -0.63311678 -0.80728269
-3.4441354 -0.76330388 -0.7814917
-4.2472715 -0.94129831 -0.72526187
-4.9732432 -1.1021912 -0.56777376
-5.0053477 -1.1093063 -0.28636339
-4.963016 -1.0999247 0
-4.9798665 -1.1036592 0.28490558
-0 -0 -0
-2.868196 -0.63929862 -0.81074548
-3.4332905 -0.76525378 -0.77924019
-4.2586565 -0.94922149 -0.72740132
-4.9744396 -1.1087639 -0.5680629
-5.0014696 -1.1147888 -0.28621837
-4.9743915 -1.1087532 0
-4.9861403 -1.111372 0.28534114
-0 -0 -0
-2.891897 -0.64825022 -0.81766582
-3.4348402 -0.76995689 -0.7798025
-4.2499895 -0.95268148 -0.72611701
-4.9730964 -1.1147738 -0.5680629
-5.0077186 -1.1225346 -0.2866534
-4.9831963 -1.1170378 0
-4.9974689 -1.1202372 0.28606671
-0 -0 -0
-2.8739777 -0.64788157 -0.81282002
-3.4190304 -0.77075297 -0.77642411
-4.2538486 -0.95894623 -0.72697377
-4.9793077 -1.1224867 -0.56892693
-5.0038261 -1.1280138 -0.28650838
-4.9767704 -1.1219146 0
-4.9859724 -1.1239891 0.28548613
-0 -0 -0
-2.8609617 -0.64858097 -0.80935985
-3.4180968 -0.77488363 -0.77642411
-4.2476749 -0.96294928 -0.72611701
-4.9779477 -1.1285024 -0.56892693
-5.0100641 -1.1357832 -0.28694394
-4.9779468 -1.1285021 0
-5.0023422 -1.1340326 0.28650171
-0 -0 -0
-2.8825841 -0.65531403 -0.81558865
-3.4002912 -0.77300733 -0.77248555
-4.2445912 -0.96494681 -0.72568941
-4.9873538 -1.1338031 -0.5700801
-5.009377 -1.1388098 -0.28694394
-4.9874148 -1.1338171 0
-4.999125 -1.1364791 0.28635669
-0 -0 -0
-2.9013557 -0.6632694 -0.82112592
-3.404304 -0.77824676 -0.77361023
-4.2434225 -0.97007489 -0.72568941
-4.9834609 -1.1392527 -0.56979209
-5.0105281 -1.1454403 -0.28708896
-4.9809723 -1.1386837 0
-5.0028191 -1.1436781 0.28664726
-0 -0 -0
-2.9054468 -0.66789979 -0.82251161
-3.4083185 -0.78349924 -0.77473712
-4.2397475 -0.97462696 -0.72526187
-4.9845991 -1.1458523 -0.5700801
-5.0167398 -1.1532408 -0.28752449
-4.9973397 -1.1487811 0
-4.993834 -1.1479752 0.2862117
-0 -0 -0
-2.8704126 -0.66349882 -0.81282002
-3.4048867 -0.78704304 -0.7741726
-4.2360682 -0.97917157 -0.72483432
-4.9983358 -1.1553706 -0.57181042
-5.0204015 -1.160471 -0.2878145
-4.9908814 -1.1536474 0
-5.0076284 -1.1575185 0.28708225
-0 -0 -0
-2.8891578 -0.67151034 -0.81835729
-3.398988 -0.79000723 -0.77304792
-4.2298765 -0.98312587 -0.72397757
-4.9944096 -1.1608219 -0.57152128
-5.021534 -1.1671263 -0.28796005
-4.9920163 -1.1602657 0
-4.9961023 -1.1612153 0.28650171
-0 -0 -0
-2.8590291 -0.66814989 -0.81005132
-3.4029746 -0.79526901 -0.7741726
-4.2436886 -0.99174231 -0.72654617
-4.9980454 -1.1680342 -0.57209843
-5.0226479 -1.1737837 -0.28810507
-5.0058212 -1.1698513 0
-8.0460539 -1.8803483 0.46153125
-0 -0 -0
-2.8948557 -0.6802125 -0.82043445
-3.397069 -0.79821897 -0.77304792
-4.2399807 -0.99628037 -0.72611701
-5.0067024 -1.176439 -0.57325161
-5.0262799 -1.1810393 -0.28839508
-4.9891982 -1.1723261 0
-5.0539908 -1.1875507 0.28998503
-0 -0 -0
-2.8500884 -0.67332834 -0.80797684
-3.4059932 -0.8046599 -0.77529943
-4.2387738 -1.0014029 -0.72611701
-4.9977231 -1.1807033 -0.57238644
-5.0273852 -1.1877109 -0.28854063
-5.0004392 -1.1813449 0
-5.0576148 -1.1948526 0.2902756
-0 -0 -0
-2.8582134 -0.68254477 -0.81074548
-3.4089768 -0.81406772 -0.77642411
-4.2363415 -1.0116434 -0.72611701
-5.0099545 -1.196383 -0.57411677
-5.021966 -1.1992514 -0.28839508
-5.0127625 -1.1970537 0
-5.0420685 -1.2040519 0.2895495
-0 -0 -0
-2.8842134 -0.69243842 -0.81835729
-3.403054 -0.81700099 -0.77529943
-4.2301288 -1.0155641 -0.72526187
-5.0185652 -1.2048509 -0.57526994
-5.0331535 -1.2083533 -0.28912118
-5.0087843 -1.2025027 0
-5.0380855 -1.2095374 0.28940448
-0 -0 -0
-2.8809383 -0.69533485 -0.81766582
-3.3946521 -0.8193233 -0.77361023
-4.2338843 -1.021878 -0.72611701
-5.0145841 -1.2103055 -0.5749808
-5.0266333 -1.2132136 -0.28883061
-5.0123825 -1.209774 0
-5.0340967 -1.2150149 0.28925949
-0 -0 -0
-2.902036 -0.70413882 -0.82389456
-3.3936596 -0.82342452 -0.77361023
-4.2426252 -1.0294143 -0.72782886
-5.0156388 -1.2169753 -0.57526994
-5.0327415 -1.221125 -0.28926617
-5.0083904 -1.2152165 0
-5.0326252 -1.2210968 0.28925949
-0 -0 -0
-2.9011831 -0.70764488 -0.82389456
-3.4074781 -0.83113831 -0.77698863
-4.2363954 -1.0333245 -0.72697377
-5.0292368 -1.2267112 -0.57699913
-5.0363064 -1.2284355 -0.28955618
-5.019558 -1.2243503 0
-5.033668 -1.227792 0.28940448
-0 -0 -0
-2.851594 -0.69920099 -0.81005132
-3.3990657 -0.83343911 -0.77529943
-4.2401252 -1.039664 -0.72782886
-5.0302606 -1.2334025 -0.57728714
-5.0398707 -1.2357588 -0.28984675
-5.018075 -1.2304145 0
-5.0372329 -1.2351121 0.28969505
-0 -0 -0
-2.8775439 -0.70925093 -0.81766582
-3.4227221 -0.84362519 -0.78092718
-4.2338858 -1.0435592 -0.72697377
-5.0337939 -1.2407188 -0.57786429
-5.0383739 -1.2418476 -0.28984675
-5.0191088 -1.2370993 0
-5.0382576 -1.2418189 0.28984004
-0 -0 -0
-2.8620787 -0.70910853 -0.81351417
-3.4167721 -0.84653932 -0.7798025
-4.2301326 -1.0480574 -0.72654617
-5.0322914 -1.2468003 -0.57786429
-5.0444288 -1.2498075 -0.29028174
-5.0327721 -1.2469194 0
-5.0392733 -1.24853 0.28998503
-0 -0 -0
-2.8612199 -0.71256626 -0.81351417
-3.4108109 -0.84943795 -0.77867568
-4.23384 -1.0544075 -0.72740132
-5.0307813 -1.2528799 -0.57786429
-5.0479627 -1.2571589 -0.29057229
-5.0363078 -1.2542562 0
-5.0478463 -1.2571299 0.29056561
-0 -0 -0
-2.8583479 -0.71368527 -0.81282002
-3.4102972 -0.85149848 -0.77867568
-4.2381787 -1.0582078 -0.7282564
-5.0275068 -1.2552906 -0.57757515
-5.0446839 -1.2595795 -0.2904273
-5.0406036 -1.2585608 0
-5.0496049 -1.2608082 0.2907106
-0 -0 -0
-2.886683 -0.72446668 -0.82112592
-3.4068036 -0.85500062 -0.77811331
-4.2219629 -1.05958 -0.72568941
-5.028502 -1.2619959 -0.57786429
-5.0507116 -1.2675699 -0.29086229
-5.0365477 -1.2640152 0
-5.053123 -1.268175 0.29100117
-0 -0 -0
-2.9028358 -0.73225009 -0.82597172
-3.4033067 -0.85849553 -0.777551
-4.2157059 -1.063426 -0.72483432
-5.0395107 -1.2712336 -0.57930547
-5.0617814 -1.2768513 -0.2915884
-5.0526834 -1.2745564 0
-5.0566211 -1.2755497 0.29129115
-0 -0 -0
-2.867908 -0.72712636 -0.81628281
-3.3998063 -0.8619833 -0.77698863
-4.2193899 -1.0697796 -0.72568941
-5.0429807 -1.278592 -0.57988149
-5.0551925 -1.2816881 -0.29129785
-5.0486193 -1.2800217 0
-5.0575929 -1.2822967 0.29143617
-0 -0 -0
-2.8791804 -0.73368806 -0.81974292
-3.4012222 -0.86671752 -0.777551
-4.2131238 -1.0736105 -0.72483432
-5.038928 -1.2840464 -0.57959348
-5.0712686 -1.2922876 -0.29231396
-5.0445399 -1.2854764 0
-5.0610805 -1.2896914 0.29172671
-0 -0 -0
-2.8928692 -0.74089986 -0.82389456
-3.4075592 -0.87271839 -0.77924019
-4.2118235 -1.0787005 -0.72483432
-5.0448918 -1.2920598 -0.58045864
-5.0747328 -1.2997024 -0.29260397
-5.0354271 -1.2896357 0
-5.0570035 -1.2951617 0.29158172
-2.8719428 -0.73923934 -0.97783625
-2.8603897 -0.73626554 -0.81489712
-3.401576 -0.8755672 -0.77811331
-4.2279119 -1.0882664 -0.72782886
-5.0508342 -1.300087 -0.58132267
-5.0807104 -1.307777 -0.29303953
-5.0540276 -1.3009089 0
-5.0629768 -1.3032125 0.29201671
-2.7203054 -0.70371366 -0.92649579
-2.8522091 -0.73783571 -0.81282002
-3.4078977 -0.88158637 -0.7798025
-4.2241111 -1.092732 -0.72740132
-5.0567741 -1.3081329 -0.58218783
-5.0766129 -1.313265 -0.29289451
-5.0448909 -1.3050588 0
-5.0588851 -1.308679 0.29187173
-2.7648959 -0.71881425 -0.9419778
-2.8707399 -0.74633145 -0.81835729
-3.4043732 -0.88506478 -0.77924019
-4.2128496 -1.0952516 -0.72568941
-5.0526891 -1.313592 -0.58189982
-5.0926194 -1.3239729 -0.29391009
-5.055902 -1.3144271 0
-5.0749068 -1.319368 0.29288784
-2.8142412 -0.73527437 -0.95909131
-2.8819702 -0.75296992 -0.82181746
-3.418047 -0.89303023 -0.78261638
-4.2264209 -1.1042334 -0.7282564
-5.0510983 -1.3196962 -0.58189982
-5.0809598 -1.327498 -0.29332954
-5.059351 -1.3218523 0
-5.1034775 -1.3333812 0.29462951
-0 -0 -0
-2.8519495 -0.7488088 -0.81351417
-3.4194205 -0.89780426 -0.78317875
-4.2151613 -1.1067342 -0.72654617
-5.0495 -1.3257985 -0.58189982
-5.0768409 -1.3329772 -0.29318452
-5.0627794 -1.3292851 0
-5.1043735 -1.340206 0.2947745
-2.6571293 -0.70108986 -0.90612245
-2.9044044 -0.76633394 -0.82874036
-3.4085059 -0.89934236 -0.78092718
-4.2063723 -1.1098613 -0.72526187
-5.0478945 -1.3318988 -0.58189982
-5.0827665 -1.3411 -0.29362008
-5.076263 -1.339384 0
-5.0977206 -1.3450456 0.29448396
-2.8091705 -0.74483806 -0.95827711
-2.8501315 -0.75569868 -0.81351417
-3.4000559 -0.90150845 -0.77924019
-4.202549 -1.1142857 -0.72483432
-5.0562816 -1.3406488 -0.58305299
-5.0861607 -1.3485711 -0.29391009
-5.0671015 -1.3435175 0
-5.091073 -1.3498735 0.29419395
-2.770056 -0.73805052 -0.94523764
-2.8564818 -0.76107776 -0.81558865
-3.3989639 -0.9056161 -0.77924019
-4.2036777 -1.1200231 -0.72526187
-5.0596519 -1.3480879 -0.58362901
-5.0845275 -1.3547157 -0.29391009
-5.0679865 -1.3503087 0
-5.0894384 -1.3560241 0.29419395
-0 -0 -0
-2.90888 -0.77880418 -0.83081752
-3.3978672 -0.90972245 -0.77924019
-4.2023215 -1.1251017 -0.72526187
-5.0630212 -1.3555397 -0.58420616
-5.0879121 -1.3622037 -0.29420063
-5.0713744 -1.3577762 0
-5.0777559 -1.3594847 0.2936134
-2.7539485 -0.74089116 -0.94034946
-2.8643248 -0.7705856 -0.81835729
-3.3967655 -0.91382742 -0.77924019
-4.1984825 -1.1295122 -0.72483432
-5.0713701 -1.3643441 -0.58535933
-5.0862622 -1.3683505 -0.29420063
-5.0697303 -1.3639029 0
-5.0786166 -1.3662935 0.29375839
-2.7578185 -0.74550694 -0.9419778
-2.8803468 -0.77862942 -0.82320309
-3.393199 -0.91726607 -0.77867568
-4.1921535 -1.1332433 -0.72397757
-5.074707 -1.3718195 -0.58593535
-5.092133 -1.3765302 -0.29463619
-5.0756178 -1.3720658 0
-5.0794678 -1.3731065 0.29390338
-2.7287407 -0.73941582 -0.93219823
-2.8459804 -0.77118462 -0.81351417
-3.4098136 -0.92396843 -0.78261638
-4.1939435 -1.1364466 -0.72440511
-5.0738769 -1.3748852 -0.58593535
-5.1013227 -1.3823222 -0.2952162
-5.0747881 -1.375132 0
-5.0836582 -1.3775356 0.29419395
-0 -0 -0
-2.8595657 -0.77857608 -0.81766582
-3.4037962 -0.92675412 -0.7814917
-4.1876183 -1.1401658 -0.72355002
-5.0747151 -1.3816963 -0.5862245
-5.0996485 -1.3884851 -0.2952162
-5.0881939 -1.3853663 0
-5.0920186 -1.3864077 0.2947745
-2.7936981 -0.76426929 -0.95501727
-2.8537877 -0.78070801 -0.81628281
-3.4173744 -0.93488783 -0.78486794
-4.1837635 -1.1445482 -0.72312248
-5.0830112 -1.3905545 -0.58737653
-5.1029849 -1.3960186 -0.29550675
-5.0915322 -1.3928856 0
-5.0903397 -1.3925594 0.2947745
-2.7999244 -0.76961023 -0.95746291
-2.8528423 -0.78415567 -0.81628281
-3.3917465 -0.93228328 -0.77924019
-4.1823778 -1.1496027 -0.72312248
-5.0738525 -1.3946408 -0.58651251
-5.1063004 -1.4035597 -0.29579675
-5.0973759 -1.4011066 0
-5.0961723 -1.4007758 0.29521006
-2.7680233 -0.76444012 -0.94686913
-2.9026735 -0.80162627 -0.83081752
-3.3808208 -0.93367529 -0.77698863
-4.1710877 -1.151922 -0.72141057
-5.0796361 -1.4028342 -0.58737653
-5.1020985 -1.4090376 -0.29565176
-5.088151 -1.4051857 0
-5.1019831 -1.4090056 0.29564506
-2.8218682 -0.78298128 -0.96561104
-2.8823633 -0.79976684 -0.82528025
-3.3845823 -0.93911707 -0.77811331
-4.172164 -1.1576468 -0.72183812
-5.0754476 -1.40828 -0.58708853
-5.1104078 -1.4179803 -0.29623231
-5.0889549 -1.4120278 0
-5.1077909 -1.4172542 0.29608062
-2.7923501 -0.77842593 -0.95583141
-2.8741426 -0.80122733 -0.82320309
-3.3932352 -0.94593525 -0.78036487
-4.1855941 -1.1668218 -0.72440511
-5.0861969 -1.4178838 -0.58852971
-5.1187024 -1.4269453 -0.29681286
-5.0997868 -1.4216721 0
-5.1060743 -1.423425 0.29608062
-0 -0 -0
-2.8900855 -0.8094365 -0.82804888
-3.3920898 -0.95003462 -0.78036487
-4.1866603 -1.1725729 -0.72483432
-5.0844803 -1.4240284 -0.58852971
-5.1144748 -1.4324291 -0.29666787
-5.0930481 -1.4264281 0
-5.101851 -1.4288936 0.29593563
-2.7571564 -0.77580059 -0.9444235
-2.8842707 -0.81156766 -0.82666326
-3.3958359 -0.95551038 -0.7814917
-4.1877093 -1.1783253 -0.72526187
-5.0852528 -1.4308735 -0.58881885
-5.1152391 -1.439311 -0.29681286
-5.0988393 -1.4346964 0
-5.1051188 -1.4364634 0.29622564
-2.8323259 -0.80064607 -0.97050238
-2.8398376 -0.80276954 -0.81420565
-3.3824465 -0.956155 -0.77867568
-4.1986313 -1.1868753 -0.72740132
-5.0909796 -1.4391258 -0.58968288
-5.1185021 -1.4469059 -0.29710343
-5.1021056 -1.4422709 0
-5.1108832 -1.444752 0.29666117
-2.7766695 -0.78853744 -0.95175737
-2.8823011 -0.81853545 -0.82666326
-3.3959589 -0.96440744 -0.78205407
-4.2095389 -1.1954534 -0.72954071
-5.101685 -1.4488111 -0.59112519
-5.1217446 -1.4545078 -0.29739344
-5.107872 -1.4505682 0
-5.1166348 -1.4530567 0.29709673
-2.8066103 -0.80070627 -0.96235114
-2.8499496 -0.81307065 -0.81766582
-3.380126 -0.96432626 -0.77867568
-4.2154994 -1.2026525 -0.73082507
-5.0924664 -1.452845 -0.59026003
-5.1149907 -1.459271 -0.29710343
-5.113626 -1.4588817 0
-5.0898833 -1.452108 0.29564506
-2.8032672 -0.80341667 -0.96153694
-2.8875518 -0.82757264 -0.82874036
-3.3862882 -0.97051054 -0.78036487
-4.2165084 -1.2084517 -0.73125261
-5.0907073 -1.4589971 -0.59026003
-5.1057277 -1.463302 -0.29666787
-5.1093507 -1.4643403 0
-5.0706468 -1.4532479 0.29462951
-2.7595468 -0.79449582 -0.94686913
-2.8600283 -0.82342529 -0.82112592
-3.3924406 -0.97671115 -0.78205407
-4.2051778 -1.2107048 -0.72954071
-5.0740228 -1.4608523 -0.58852971
-5.0939674 -1.4665946 -0.29608732
-5.1025805 -1.4690742 0
-5.0638881 -1.4579345 0.29433894
-0 -0 -0
-2.8469837 -0.82339609 -0.81766582
-3.379056 -0.9772805 -0.77924019
-4.2160397 -1.2193503 -0.73168015
-5.0772281 -1.4684207 -0.58910686
-5.0946856 -1.4734699 -0.29623231
-5.0932994 -1.4730688 0
-5.0621228 -1.4640521 0.29433894
-2.8050787 -0.81495076 -0.96316534
-2.8483934 -0.82753479 -0.81835729
-3.3607903 -0.97639984 -0.77529943
-4.2121005 -1.2237283 -0.73125261
-5.0754499 -1.4745545 -0.58910686
-5.0879159 -1.4781761 -0.29594231
-5.0965185 -1.4806756 0
-5.0603504 -1.4701676 0.29433894
-2.8349431 -0.82734305 -0.97376221
-2.8546185 -0.83308506 -0.82043445
-3.3644817 -0.98188227 -0.77642411
-4.2130804 -1.2295353 -0.73168015
-5.0711842 -1.4799622 -0.58881885
-5.1010876 -1.4886892 -0.29681286
-5.0722437 -1.4802715 0
-5.056078 -1.4755538 0.29419395
-2.7675312 -0.8112998 -0.95094317
-2.8439801 -0.83371073 -0.81766582
-3.37061 -0.98809195 -0.77811331
-4.2115917 -1.2346251 -0.73168015
-5.0644231 -1.484632 -0.5882417
-5.1042767 -1.4963151 -0.29710343
-5.080441 -1.4893277 0
-5.0542917 -1.4816619 0.29419395
-2.8381772 -0.83387202 -0.97539061
-2.8362525 -0.83330649 -0.81558865
-3.360261 -0.98726308 -0.7758618
-4.215776 -1.238618 -0.73253691
-5.0635252 -1.4876915 -0.5882417
-5.098381 -1.4979322 -0.29681286
-5.0845294 -1.4938626 0
-5.0633678 -1.4876451 0.2947745
-2.8490179 -0.84079802 -0.97946465
-2.8689346 -0.84667581 -0.82528025
-3.3517523 -0.98916429 -0.7741726
-4.2216649 -1.2458916 -0.73382121
-5.0766129 -1.4982027 -0.58997202
-5.0965672 -1.5040915 -0.29681286
-5.097692 -1.5044235 0
-5.066546 -1.4952317 0.29506451
-2.8337862 -0.84002656 -0.97457641
-2.8438518 -0.84301025 -0.81835729
-3.3578653 -0.99538064 -0.7758618
-4.215229 -1.2495311 -0.73296446
-5.0723119 -1.5035985 -0.58968288
-5.1196542 -1.5176322 -0.298264
-5.1008658 -1.5120628 0
-5.0722122 -1.5035688 0.29550007
-2.7972345 -0.83286965 -0.96235114
-2.854851 -0.85002476 -0.82181746
-3.3737092 -1.0045135 -0.7798025
-4.2063327 -1.2524252 -0.73168015
-5.0804071 -1.5126786 -0.59083605
-5.110353 -1.5215949 -0.297829
-5.1065202 -1.5204538 0
-5.0654154 -1.5082148 0.29521006
-2.7749166 -0.82987601 -0.95501727
-2.8706491 -0.85850614 -0.82666326
-3.3505859 -1.0020378 -0.77473712
-4.2097402 -1.2589792 -0.73253691
-5.0761003 -1.5180758 -0.59054804
-5.0985527 -1.5247905 -0.29724842
-5.0922055 -1.5228924 0
-5.0710506 -1.5165658 0.29564506
-2.7952137 -0.83962703 -0.96235114
-2.8623993 -0.85980827 -0.82458609
-3.3712718 -1.0126635 -0.7798025
-4.1959252 -1.2603731 -0.73039746
-5.0742621 -1.5242082 -0.59054804
-5.1041651 -1.5331905 -0.29768342
-5.0953512 -1.530543 0
-5.0667286 -1.5219452 0.29550007
-2.7681749 -0.83515304 -0.95338887
-2.8853812 -0.87051398 -0.83150905
-3.365176 -1.0152671 -0.77867568
-4.2066851 -1.2691488 -0.73253691
-5.0823216 -1.5333266 -0.59170121
-5.1023088 -1.5393567 -0.29768342
-5.1159201 -1.5434632 0
-5.0798168 -1.5325708 0.29637119
-2.7482407 -0.8327632 -0.94686913
-2.8435133 -0.86163241 -0.81974292
-3.3688147 -1.0208076 -0.7798025
-4.1977758 -1.2719969 -0.73125261
-5.0854111 -1.5409652 -0.59227723
-5.1054235 -1.5470293 -0.29797399
-5.1115632 -1.5488896 0
-5.0729828 -1.5371993 0.29608062
-2.8512626 -0.86774349 -0.98272449
-2.8520703 -0.86798936 -0.82251161
-3.355427 -1.0211792 -0.77698863
-4.2060595 -1.2800578 -0.73296446
-5.0810733 -1.5463564 -0.59198922
-5.1110106 -1.5554674 -0.29840955
-5.1022162 -1.552791 0
-5.0760984 -1.5448424 0.29637119
-2.7864001 -0.8516835 -0.9607228
-2.8582103 -0.87363279 -0.82458609
-3.3493264 -1.023746 -0.7758618
-4.2020569 -1.2843894 -0.73253691
-5.0890956 -1.5555191 -0.59314239
-5.1165748 -1.5639184 -0.29884455
-5.1053185 -1.5604777 0
-5.0791931 -1.5524924 0.29666117
-2.745204 -0.84271985 -0.94686913
-2.8811402 -0.88444942 -0.83150905
-3.3456602 -1.0270473 -0.77529943
-4.2103181 -1.2924792 -0.73424876
-5.0971026 -1.5647032 -0.59429556
-5.1171727 -1.5708643 -0.2989901
-5.1084003 -1.5681714 0
-5.0648956 -1.5548164 0.29593563
-2.7607102 -0.85113144 -0.95257157
-2.8704798 -0.88497359 -0.82874036
-3.3614159 -1.03633 -0.77924019
-4.1915793 -1.2922707 -0.73125261
-5.0902696 -1.5693383 -0.59371954
-5.1252031 -1.5801085 -0.29957065
-5.1089864 -1.5751088 0
-5.0828781 -1.5670596 0.29709673
-2.8069003 -0.86908722 -0.96887088
-2.8430443 -0.88027835 -0.82112592
-3.3553021 -1.0388863 -0.77811331
-4.1826558 -1.2950559 -0.72996831
-5.0957747 -1.5777806 -0.59458357
-5.120801 -1.5855293 -0.2994251
-5.1244841 -1.5866698 0
-5.0884204 -1.5755036 0.29753175
-2.7987654 -0.87027586 -0.96642518
-2.8611436 -0.88967234 -0.82666326
-3.3564684 -1.0436935 -0.77867568
-4.2105036 -1.3092556 -0.73510391
-5.0963416 -1.5847069 -0.59487271
-5.1164026 -1.5909449 -0.29928011
-5.1200805 -1.5920886 0
-5.086513 -1.5816507 0.29753175
-2.7788377 -0.8677631 -0.95990545
-2.8624589 -0.8938759 -0.82735473
-3.3552048 -1.0477484 -0.77867568
-4.2015743 -1.3120489 -0.73382121
-5.1018224 -1.5931745 -0.59573674
-5.1219196 -1.5994503 -0.29971567
-5.1280899 -1.6013771 0
-5.1044407 -1.593992 0.29869285
-2.8225982 -0.88517296 -0.97539061
-2.8589852 -0.89658397 -0.82666326
-3.3442385 -1.0487605 -0.77642411
-4.199986 -1.3171247 -0.73382121
-5.1023688 -1.600114 -0.59602588
-5.1274238 -1.6079713 -0.30015123
-5.1311131 -1.6091282 0
-5.1025109 -1.6001586 0.29869285
-2.7979565 -0.88115996 -0.96724248
-2.8602905 -0.90079075 -0.82735473
-3.3405476 -1.0520381 -0.7758618
-4.1861415 -1.3183409 -0.73168015
-5.1028962 -1.6070542 -0.59631389
-5.1304293 -1.6157253 -0.30044124
-5.1366143 -1.617673 0
-5.100574 -1.6063228 0.29869285
-2.7544672 -0.87112355 -0.95257157
-2.8281062 -0.89441258 -0.81835729
-3.3320038 -1.0537745 -0.7741726
-4.1821003 -1.3226247 -0.73125261
-5.1009507 -1.6132189 -0.59631389
-5.1408587 -1.6258401 -0.30116677
-5.1148047 -1.6176004 0
-5.1011138 -1.6132704 0.29883841
-2.7987087 -0.88697565 -0.96805668
-2.8395207 -0.89990997 -0.82181746
-3.3313665 -1.0557872 -0.7741726
-4.1813006 -1.3251511 -0.73125261
-5.1123009 -1.6202067 -0.59775507
-5.1522579 -1.6328701 -0.30189234
-5.1634445 -1.6364152 0
-5.1125212 -1.6202765 0.29956397
-2.7706575 -0.88545936 -0.95909131
-2.854068 -0.91211605 -0.82666326
-3.3409138 -1.0677044 -0.77698863
-4.1952052 -1.3407227 -0.73424876
-5.120687 -1.6364925 -0.59919626
-5.1581974 -1.6484803 -0.30247289
-5.149559 -1.6457195 0
-5.1085906 -1.6326267 0.29956397
-2.8095911 -0.90164489 -0.97294492
-2.8242984 -0.9063648 -0.81835729
-3.3420384 -1.0725162 -0.777551
-4.1862469 -1.3434368 -0.73296446
-5.1334872 -1.6474222 -0.60092658
-5.1487865 -1.6523321 -0.30203789
-5.14013 -1.649554 0
-5.1066141 -1.6387981 0.29956397
-2.77086 -0.89290971 -0.95990545
-2.8590212 -0.92131972 -0.82874036
-3.3528297 -1.0804496 -0.78036487
-4.1895118 -1.3500704 -0.73382121
-5.129024 -1.6528282 -0.60063744
-5.1492572 -1.6593484 -0.30218288
-5.1406078 -1.6565611 0
-5.1219354 -1.6505439 0.30057952
-2.7909498 -0.90310764 -0.96724248
-2.8388107 -0.91859466 -0.82320309
-3.3273516 -1.0766789 -0.77473712
-4.2000871 -1.3590825 -0.73596066
-5.1171799 -1.6558393 -0.59948426
-5.1472483 -1.6655691 -0.30218288
-5.1485071 -1.6659763 0
-5.1471343 -1.6655321 0.30217621
-2.7639971 -0.89807713 -0.95827711
-2.8949621 -0.9406302 -0.83981496
-3.342957 -1.0861926 -0.77867568
-4.1911149 -1.3617759 -0.73467636
-5.1250148 -1.6652182 -0.60063744
-5.1600552 -1.6766036 -0.30305344
-5.1638184 -1.6778263 0
-5.1624193 -1.6773717 0.30319232
-2.8052003 -0.9152137 -0.97294492
-2.850888 -0.93011957 -0.82735473
-3.3295665 -1.0862913 -0.7758618
-4.1919045 -1.3676344 -0.73510391
-5.1279216 -1.6730156 -0.60121459
-5.1777878 -1.6892848 -0.30421457
-5.1815805 -1.6905222 0
-5.1677928 -1.6860238 0.30362731
-2.7618189 -0.90475398 -0.95827711
-2.8545349 -0.9351272 -0.82874036
-3.3403225 -1.0942681 -0.77867568
-4.180491 -1.3695018 -0.733392
-5.1455598 -1.6856521 -0.60352093
-5.1979642 -1.7028196 -0.30552068
-5.1869464 -1.6992102 0
-5.173162 -1.6946944 0.30406287
-2.7607236 -0.90809047 -0.95827711
-2.9177413 -0.95973861 -0.84742677
-3.3365865 -1.0975102 -0.77811331
-4.200778 -1.3817705 -0.73724329
-5.1656299 -1.6991411 -0.60611528
-5.198369 -1.7099102 -0.30566567
-5.1848893 -1.7054763 0
-5.1760521 -1.7025694 0.30435345
-2.7737014 -0.91607481 -0.96316534
-0 -0 -0
-3.3352578 -1.101541 -0.77811331
-4.1869197 -1.3828207 -0.73510391
-5.1832209 -1.7118708 -0.60842162
-5.2111082 -1.7210811 -0.30653679
-5.1877723 -1.7133739 0
-5.181386 -1.7112647 0.30478844
-2.7796326 -0.92176026 -0.96561104
-0 -0 -0
-3.3435714 -1.1087693 -0.78036487
-4.1949921 -1.3911108 -0.73681575
-5.190969 -1.7213889 -0.60957479
-5.2065606 -1.7265594 -0.30639181
-5.1931109 -1.7220993 0
-5.1990457 -1.7240672 0.30594954
-2.8066573 -0.9344877 -0.97539061
-2.8714023 -0.95604479 -0.83496916
-3.318126 -1.1047833 -0.77473712
-4.1811323 -1.3921247 -0.73467636
-5.1864238 -1.7268405 -0.60928565
-5.2167954 -1.7369527 -0.30711737
-5.2033701 -1.7324828 0
-5.2265429 -1.7401983 0.30769122
-2.7563024 -0.92142296 -0.95827711
-0 -0 -0
-3.348114 -1.1192636 -0.78205407
-4.1867533 -1.3996181 -0.73596066
-5.1916952 -1.7355669 -0.61015081
-5.2097592 -1.7416056 -0.3068268
-5.2111459 -1.7420694 0
-5.217041 -1.74404 0.30725566
-2.7715912 -0.93025869 -0.96398264
-2.8357909 -0.95180666 -0.82528025
-3.3347173 -1.1192666 -0.77924019
-4.1704526 -1.3997735 -0.733392
-5.1895943 -1.7418388 -0.61015081
-5.2101216 -1.7487285 -0.30697235
-5.2090373 -1.7483647 0
-5.2124686 -1.7495165 0.30711067
-2.7938826 -0.94149828 -0.97213072
-2.8346386 -0.9552325 -0.82528025
-3.3309476 -1.1224815 -0.77867568
-4.1857891 -1.4105508 -0.73638821
-5.1899343 -1.7489333 -0.61043882
-5.2080045 -1.7550226 -0.30697235
-5.2143126 -1.7571484 0
-5.210351 -1.7558135 0.30711067
-2.774013 -0.93853652 -0.96561104
-2.8548682 -0.96589237 -0.83150905
-3.3416302 -1.1305794 -0.7814917
-4.186511 -1.4164294 -0.73681575
-5.1951699 -1.7576907 -0.61130399
-5.2009525 -1.7596471 -0.30668181
-5.2097225 -1.7626144 0
-5.2057667 -1.7612759 0.30696568
-2.772877 -0.94188774 -0.96561104
-2.8560722 -0.97014731 -0.83220053
-3.3234181 -1.1288949 -0.777551
-4.1750741 -1.4181844 -0.73510391
-5.1954889 -1.7647978 -0.61159199
-5.211122 -1.7701081 -0.30740735
-5.2174459 -1.7722561 0
-5.2085509 -1.7692347 0.30725566
-2.7863507 -0.94834244 -0.97050238
-2.85074 -0.97025752 -0.83081752
-3.3203323 -1.1300846 -0.77698863
-4.1717887 -1.4198802 -0.73467636
-5.2066717 -1.7721056 -0.61303431
-5.2248158 -1.7782811 -0.30827847
-5.2163744 -1.7754079 0
-5.2173204 -1.77573 0.30783623
-2.7828572 -0.95090705 -0.96968508
-2.8519373 -0.9745118 -0.83150905
-3.3237686 -1.1357374 -0.77811331
-4.1846404 -1.4298986 -0.73724329
-5.2069716 -1.7792311 -0.61332232
-5.2300329 -1.787111 -0.30871347
-5.2142253 -1.7817097 0
-5.2151709 -1.7820327 0.30783623
-2.7980735 -0.95988369 -0.97539061
-2.8839755 -0.98935246 -0.84119797
-3.3199928 -1.138929 -0.777551
-4.1780577 -1.4332895 -0.73638821
-5.2097063 -1.7871983 -0.61389834
-5.2254143 -1.7925869 -0.30856848
-5.2194562 -1.790543 0
-5.2179346 -1.7900209 0.30812678
-2.8015809 -0.96487206 -0.97701895
-2.8543136 -0.9830333 -0.832892
-3.3138049 -1.1412833 -0.77642411
-4.1836066 -1.4408454 -0.73767251
-5.2075434 -1.793492 -0.61389834
-5.2379899 -1.803978 -0.3094396
-5.2222052 -1.7985417 0
-5.2182221 -1.7971698 0.3082718
-2.8027556 -0.9690665 -0.97783625
-2.8578703 -0.98812264 -0.83427769
-3.3292356 -1.1510994 -0.78036487
-4.1818624 -1.4458995 -0.73767251
-5.2151504 -1.8031638 -0.61505151
-5.2358065 -1.8103057 -0.3094396
-5.229867 -1.808252 0
-5.2160468 -1.8034737 0.3082718
-2.792243 -0.96921045 -0.97457641
-2.8566742 -0.99157506 -0.83427769
-3.308639 -1.1484557 -0.7758618
-4.1801124 -1.4509513 -0.73767251
-5.2105265 -1.8086165 -0.6147635
-5.2434344 -1.8200392 -0.31002015
-5.2326002 -1.8162785 0
-5.2310495 -1.8157402 0.30928791
-2.7723982 -0.96607721 -0.96805668
-2.855474 -0.99502611 -0.83427769
-3.3192434 -1.1566324 -0.77867568
-4.1831999 -1.4576889 -0.73852766
-5.2132177 -1.8166116 -0.61533952
-5.2289557 -1.8220958 -0.30929404
-5.2377672 -1.8251663 0
-5.2362061 -1.8246223 0.3097229
-2.7315705 -0.95555323 -0.95420307
-2.8542695 -0.99847561 -0.83427769
-3.3130515 -1.1589658 -0.777551
-4.183856 -1.4635893 -0.7389552
-5.2232327 -1.8271823 -0.61678183
-5.2414713 -1.8335623 -0.31016514
-5.2429299 -1.8340726 0
-5.2364573 -1.8318083 0.30986845
-2.7700553 -0.97277421 -0.96805668
-2.8814657 -1.0118988 -0.8425836
-3.3116486 -1.1629682 -0.777551
-4.1796651 -1.4677938 -0.73852766
-5.218574 -1.8326327 -0.61649269
-5.2441502 -1.8416145 -0.31045514
-5.2358036 -1.8386834 0
-5.2342401 -1.8381343 0.30986845
-2.7758732 -0.97858661 -0.97050238
-2.8684039 -1.0112067 -0.83912081
-3.3198264 -1.170348 -0.7798025
-4.1609387 -1.4668678 -0.73553145
-5.2163558 -1.8389369 -0.61649269
-5.2370248 -1.8462235 -0.31016514
-5.2360301 -1.845873 0
-5.244266 -1.8487763 0.31059402
-2.7886643 -0.98688585 -0.97539061
-2.8766401 -1.0180198 -0.84188944
-3.3112216 -1.1718147 -0.77811331
-4.1785231 -1.4787457 -0.7389552
-5.2238832 -1.8486902 -0.61764586
-5.2494831 -1.8577497 -0.31103569
-5.2436099 -1.8556713 0
-5.2297826 -1.850778 0.30986845
-2.757195 -0.97949946 -0.96479684
-2.8895967 -1.0265354 -0.84604377
-3.302618 -1.1732622 -0.77642411
-4.1719003 -1.4820765 -0.73810005
-5.2240896 -1.8558692 -0.617935
-5.2545824 -1.8667017 -0.31147125
-5.2364545 -1.8602617 0
-5.2299886 -1.8579649 0.31001344
-2.7955832 -0.99694288 -0.97865045
-2.8670893 -1.0224429 -0.83981496
-3.3275261 -1.186641 -0.78261638
-4.165266 -1.4853902 -0.73724329
-5.2267113 -1.863916 -0.61851102
-5.2596679 -1.8756688 -0.31190681
-5.236661 -1.8674643 0
-5.2595549 -1.8756285 0.31190014
-2.7548199 -0.98615968 -0.96479684
-2.8823788 -1.0318228 -0.84465814
-3.3260899 -1.1906607 -0.78261638
-4.1610537 -1.4895577 -0.73681575
-5.2317629 -1.8728461 -0.61937618
-5.2622857 -1.8837725 -0.31219682
-5.2417445 -1.8764192 0
-5.2670703 -1.8854853 0.31248069
-2.765254 -0.99366593 -0.96887088
-2.8669689 -1.0302161 -0.84050649
-3.312695 -1.1903833 -0.7798025
-4.1665006 -1.4971895 -0.73810005
-5.2367916 -1.8817878 -0.62024021
-5.2649012 -1.8918887 -0.31248739
-5.2419295 -1.8836341 0
-5.2672315 -1.8927261 0.31262568
-2.7687058 -0.99868536 -0.97050238
-2.9058385 -1.0481498 -0.85227257
-3.3088665 -1.1935239 -0.77924019
-4.1743474 -1.505707 -0.73981196
-5.2369542 -1.8889942 -0.62052935
-5.2626114 -1.8982489 -0.31248739
-5.2567792 -1.8961453 0
-5.2576051 -1.8964432 0.31219012
-2.7582011 -0.99866426 -0.96724248
-2.8809764 -1.0431176 -0.84534961
-3.3193653 -1.2018454 -0.78205407
-4.1580381 -1.5055045 -0.73724329
-5.2346678 -1.8953207 -0.62052935
-5.2529817 -1.9019517 -0.31205183
-5.2520399 -1.9016106 0
-5.2553101 -1.9027946 0.31219012
-2.8040576 -1.0171841 -0.98353869
-2.885067 -1.0465707 -0.84673524
-3.3162522 -1.202985 -0.7814917
-4.1571279 -1.5080162 -0.73724329
-5.240809 -1.9011264 -0.62139338
-5.2591619 -1.9077841 -0.31248739
-5.253334 -1.9056699 0
-5.2614899 -1.9086285 0.31262568
-2.7726369 -1.0095789 -0.97294492
-2.8932297 -1.0534894 -0.84950393
-3.3219521 -1.2095968 -0.78317875
-4.1528926 -1.5121608 -0.73681575
-5.2409453 -1.908345 -0.62168252
-5.2666197 -1.9176935 -0.31306794
-5.2608094 -1.9155779 0
-5.2543011 -1.9132081 0.3123357
-2.7644575 -1.0103854 -0.97050238
-2.8919547 -1.0569845 -0.84950393
-3.3157196 -1.211867 -0.78205407
-4.1534715 -1.5180579 -0.73724329
-5.2434897 -1.9164504 -0.62225854
-5.2716131 -1.9267292 -0.31350294
-5.258491 -1.9219332 0
-5.2568622 -1.9213378 0.31262568
-2.7817888 -1.0205318 -0.97701895
-2.9024494 -1.0647976 -0.85296404
-3.2975526 -1.2097458 -0.77811331
-4.141994 -1.519539 -0.73553145
-5.2508831 -1.926348 -0.62341172
-5.2741647 -1.9348892 -0.31379351
-5.2561646 -1.9282856 0
-5.2496624 -1.9259001 0.3123357
-2.7851968 -1.0256021 -0.97865045
-2.9105778 -1.0717715 -0.85573268
-3.2937062 -1.2128521 -0.777551
-4.1594262 -1.5316391 -0.7389552
-5.2655439 -1.9389484 -0.62543005
-5.2840128 -1.9457492 -0.31451905
-5.2538309 -1.9346353 0
-5.2522035 -1.934036 0.31262568
-2.7746823 -1.0255393 -0.97539061
-2.8951659 -1.0700707 -0.85158104
-3.2898574 -1.2159511 -0.77698863
-4.1551671 -1.5357747 -0.73852766
-5.2680449 -1.947101 -0.62600607
-5.2840929 -1.9530324 -0.31466407
-5.2636929 -1.9454924 0
-5.2596121 -1.9439843 0.31320626
-2.7664869 -1.0263113 -0.97294492
-2.9032793 -1.0770586 -0.85434967
-3.2883856 -1.2199253 -0.77698863
-4.1533084 -1.5407943 -0.73852766
-5.2608433 -1.9516675 -0.62543005
-5.2768612 -1.95761 -0.31437406
-5.2710981 -1.955472 0
-5.2572594 -1.950338 0.31320626
-2.7814608 -1.0356914 -0.97865045
-2.8925717 -1.077064 -0.85158104
-3.2964339 -1.2274444 -0.77924019
-4.1538467 -1.5467066 -0.7389552
-5.2560501 -1.9571177 -0.62514091
-5.2915306 -1.970329 -0.3153896
-5.2736139 -1.9636576 0
-5.2622066 -1.95941 0.31364182
-2.7639987 -1.0329938 -0.97294492
-2.9053636 -1.0858264 -0.85573268
-3.2925615 -1.2305344 -0.77867568
-4.1567888 -1.5535237 -0.73981196
-5.2658024 -1.9679971 -0.62658322
-5.2940187 -1.9785424 -0.31568018
-5.2736731 -1.9709386 0
-5.2598352 -1.9657669 0.31364182
-2.7627485 -1.0363328 -0.97294492
-2.9040494 -1.0893362 -0.85573268
-3.2886956 -1.2336204 -0.77811331
-4.15731 -1.5594459 -0.7402395
-5.2682595 -1.9761734 -0.62715924
-5.2867537 -1.9831109 -0.3153896
-5.2737217 -1.9782225 0
-5.272049 -1.9775949 0.31451237
-2.7360568 -1.0300934 -0.96398264
-2.9097769 -1.095497 -0.85780984
-3.275315 -1.2331178 -0.77529943
-4.1386032 -1.5581357 -0.73724329
-5.2658677 -1.9825376 -0.62715924
-5.2965198 -1.9940778 -0.31611574
-5.2786369 -1.9873451 0
-5.2647967 -1.9821343 0.31422237
-2.7856708 -1.0526173 -0.98191029
-2.9178383 -1.1025592 -0.86057848
-3.2785718 -1.2388691 -0.77642411
-4.1487312 -1.5676749 -0.73938441
-5.2658858 -1.9898124 -0.62744725
-5.296535 -2.0013938 -0.31626073
-5.281096 -1.9955599 0
-5.2623978 -1.9884944 0.31422237
-2.756665 -1.0454651 -0.97213072
-2.9141517 -1.1051919 -0.85988432
-3.2889583 -1.2473373 -0.77924019
-4.1516299 -1.5745054 -0.7402395
-5.2779927 -2.0016785 -0.62917757
-5.3062582 -2.0123985 -0.31698629
-5.2884145 -2.005631 0
-5.2745638 -2.0003784 0.31509292
-2.7808111 -1.0584676 -0.98109615
-2.9268866 -1.1140687 -0.86403865
-3.2660697 -1.2431729 -0.7741726
-4.1425247 -1.5767803 -0.7389552
-5.2876544 -2.0126541 -0.63061875
-5.3086753 -2.0206554 -0.3172763
-5.2859874 -2.0120196 0
-5.281857 -2.0104475 0.31567347
-2.7749081 -1.0600612 -0.97946465
