# .PCD v0.7 - Point Cloud Data file format
VERSION 0.7
FIELDS x y z
SIZE 4 4 4
TYPE F F F
COUNT 1 1 1
WIDTH 1518
HEIGHT 1
VIEWPOINT 0 0 0 1 0 0 0
POINTS 1518
DATA ascii
2.4438584 -1.2119151 -0.75260657
2.855418 -1.4160087 -0.7060684
3.3799896 -1.676145 -0.62897462
4.2415156 -2.1033778 -0.52770305
5.4170976 -2.6863515 -0.33774024
5.4821258 -2.7185993 0
5.4658742 -2.7105403 0.34078136
2.1399729 -1.0579979 -0.78714222
2.4453208 -1.2089614 -0.75260657
2.8389051 -1.4035486 -0.70156533
3.3820124 -1.6720597 -0.62897462
4.2510118 -2.1016912 -0.52856821
5.429657 -2.6844106 -0.33832082
5.4970694 -2.7177391 0
5.4644823 -2.7016284 0.34049079
2.1279523 -1.0488572 -0.78225398
2.4445317 -1.2048976 -0.7519151
2.8383222 -1.398995 -0.70100296
3.4001417 -1.6759131 -0.63196915
4.2396331 -2.0896943 -0.52683902
5.4259019 -2.6744006 -0.33788526
5.4886794 -2.7053432 0
5.4700804 -2.6961758 0.34063634
2.1314342 -1.0473742 -0.78306818
2.4369795 -1.1975174 -0.74914646
2.8286104 -1.3899626 -0.69818908
3.3814311 -1.6616154 -0.62811786
4.2491121 -2.0879889 -0.52770305
5.4407878 -2.6735711 -0.3386108
5.5036211 -2.704447 0
5.4686656 -2.6872702 0.3403458
2.1260374 -1.0415349 -0.78062248
2.4226518 -1.1868449 -0.74430066
2.834847 -1.3887773 -0.69931376
3.3788302 -1.6552718 -0.62726271
4.2493114 -2.0817163 -0.52741504
5.4556794 -2.6727097 -0.33933637
5.4928575 -2.6909232 0
5.4765801 -2.6829488 0.34063634
2.0984249 -1.0248656 -0.77002871
2.4037979 -1.174009 -0.73807186
2.8342421 -1.3842368 -0.69875145
3.3854365 -1.6534389 -0.62811786
4.2518239 -2.0765803 -0.52741504
5.4659119 -2.6695378 -0.33977193
5.4961047 -2.6842842 0
5.4821506 -2.6774688 0.34078136
2.135217 -1.0396411 -0.78306818
2.4209974 -1.1787882 -0.74291497
2.8267746 -1.376362 -0.69649988
3.3828204 -1.6471016 -0.62726271
4.2543302 -2.0714414 -0.52741504
5.4667993 -2.6617949 -0.33962694
5.4923315 -2.6742265 0
5.4807048 -2.6685655 0.34049079
2.1231349 -1.0305866 -0.77817994
2.4359658 -1.1824373 -0.7470693
2.8215759 -1.3696156 -0.69481069
3.3917296 -1.6463727 -0.6285454
4.2591543 -2.0674276 -0.52770305
5.479362 -2.6597261 -0.34020749
5.4955587 -2.6675882 0
6.970572 -3.3835714 0.43279505
2.1532989 -1.0420154 -0.78877372
2.4170706 -1.1696589 -0.74084049
2.8506749 -1.3794868 -0.70156533
3.4029593 -1.646746 -0.63025725
4.2569976 -2.0600286 -0.52712703
5.4755526 -2.6497068 -0.33977193
5.503459 -2.6632111 0
6.9793286 -3.377408 0.43308502
2.1189387 -1.02223 -0.77573425
2.4523692 -1.1830854 -0.75122094
2.8477583 -1.3738312 -0.70043844
3.3887687 -1.6348284 -0.62726271
4.2524924 -2.0515108 -0.52626187
5.4810886 -2.6442168 -0.33991691
5.5090146 -2.6576891 0
6.969367 -3.3622003 0.43221447
2.1201723 -1.0196689 -0.77573425
2.4424949 -1.1746857 -0.74776077
2.8585756 -1.3747942 -0.70269001
3.4023066 -1.6362946 -0.62940216
4.2526398 -2.0452511 -0.52597386
5.4725733 -2.6319621 -0.33919138
5.5122218 -2.6510305 0
6.9312782 -3.3335071 0.42960224
2.112488 -1.0128322 -0.77247441
2.4393923 -1.1695664 -0.74637777
2.8510699 -1.3669453 -0.70043844
3.4019687 -1.6310736 -0.62897462
4.2551079 -2.0401111 -0.52597386
5.4640365 -2.6197317 -0.33846581
5.5154209 -2.6443682 0
6.8814082 -3.2992907 0.4262639
2.1917531 -1.0475806 -0.80099583
2.4543805 -1.1731073 -0.75052941
2.8366785 -1.3558323 -0.69649988
3.4016142 -1.6258516 -0.6285454
4.2552385 -2.0338538 -0.52568585
5.4765754 -2.6176097 -0.33904636
5.5115747 -2.6343381 0
6.8807054 -3.2887344 0.42597389
2.1210144 -1.0121963 -0.77492011
2.4347134 -1.1619006 -0.74430066
2.8420792 -1.3563049 -0.69762456
3.3910143 -1.6182692 -0.62640595
4.2587986 -2.0323956 -0.52597386
5.4593949 -2.6053476 -0.33788526
5.5037704 -2.6265244 0
6.9248981 -3.304719 0.42858613
2.1400909 -1.0181272 -0.78143978
2.4315803 -1.1568003 -0.74291497
2.8322456 -1.3474129 -0.69481069
3.3976078 -1.6163783 -0.62726271
4.2542419 -2.0239136 -0.5251087
5.4601951 -2.5976338 -0.33774024
5.4951825 -2.6142788 0
6.9593878 -3.3108602 0.43047279
2.1189835 -1.0049474 -0.77328861
2.4375143 -1.1560135 -0.74430066
2.8361654 -1.3450775 -0.69537306
3.3972323 -1.6111686 -0.6268335
4.259028 -2.0198832 -0.52539784
5.456284 -2.587693 -0.33730468
5.4889317 -2.6031764 0
6.9657288 -3.303561 0.43061781
2.1760557 -1.0287956 -0.79366195
2.4457157 -1.1562853 -0.74637777
2.8286002 -1.3373054 -0.69312149
3.392221 -1.6037741 -0.62555087
4.2684736 -2.0180488 -0.52626187
5.4641094 -2.5833216 -0.33759525
5.4803114 -2.5909812 0
6.9955583 -3.3073599 0.43221447
2.1348248 -1.006148 -0.77817994
2.4403007 -1.1501197 -0.74430066
2.8440089 -1.3403883 -0.69649988
3.3987961 -1.6018608 -0.62640595
4.2709088 -2.0128899 -0.52626187
5.467227 -2.5767174 -0.33759525
5.478734 -2.5821407 0
6.9783974 -3.2889357 0.43090835
2.1382737 -1.0046178 -0.77899414
2.4348745 -1.1439687 -0.7422235
2.8456264 -1.3369508 -0.69649988
3.4030502 -1.5988435 -0.6268335
4.256958 -2.0000319 -0.52424467
5.4609294 -2.5656896 -0.3370147
5.4771347 -2.5733035 0
6.9847159 -3.281605 0.43105337
2.1238158 -0.99469423 -0.77328861
2.4294457 -1.1378367 -0.74014902
2.8495386 -1.3345882 -0.69706225
3.4096336 -1.59691 -0.62769026
4.2663918 -1.9981747 -0.5251087
5.4616656 -2.5579841 -0.33686915
5.4778852 -2.5655806 0
6.9910269 -3.2742641 0.43119836
2.1362205 -0.99735826 -0.77736574
2.4785542 -1.157187 -0.75468373
2.8580582 -1.3343698 -0.69875145
3.4069042 -1.5906149 -0.6268335
4.2711535 -1.9941155 -0.52539784
5.4647522 -2.5513828 -0.33686915
5.4739046 -2.555656 0
6.9879217 -3.2625198 0.43076336
2.1777542 -1.0135463 -0.79203355
2.4435587 -1.1372542 -0.74360913
2.8366277 -1.3201921 -0.69312149
3.3948638 -1.5800002 -0.62426656
4.2641797 -1.9845877 -0.52424467
5.4607706 -2.5414917 -0.33643413
5.4769888 -2.5490398 0
6.9965658 -3.2562647 0.43105337
2.145344 -0.99531049 -0.77980828
2.4472046 -1.1353556 -0.74430066
2.8336155 -1.3146269 -0.69199681
3.4153998 -1.5845399 -0.62769026
4.27596 -1.9837879 -0.52539784
5.4638376 -2.5348916 -0.33643413
5.4682631 -2.5369449 0
6.9957852 -3.2456231 0.43076336
2.1173842 -0.97923142 -0.76921457
2.4258084 -1.1218691 -0.73738033
2.8490348 -1.3175994 -0.69537306
3.4079921 -1.5761018 -0.62597841
4.2713089 -1.9753617 -0.52453268
5.4645309 -2.527194 -0.33628857
5.4689646 -2.5292442 0
6.9902682 -3.232805 0.43018281
2.1477432 -0.99012315 -0.77980828
2.4977837 -1.151494 -0.75883538
2.8529389 -1.3152229 -0.69593757
3.4075651 -1.570909 -0.62555087
4.2760391 -1.9712811 -0.52482069
5.4628658 -2.5184157 -0.33599859
5.4743776 -2.5237226 0
6.9847302 -3.2200048 0.42960224
2.1646609 -0.99475265 -0.78551388
2.4399083 -1.1212404 -0.74084049
2.8475974 -1.3085907 -0.69424838
3.4071214 -1.5657154 -0.62512165
4.280766 -1.9671918 -0.5251087
5.4682636 -2.512897 -0.33614358
5.4608769 -2.5095024 0
6.9744449 -3.2050505 0.42873114
2.118675 -0.97052127 -0.76840037
2.4389827 -1.1172477 -0.74014902
2.8306959 -1.2966834 -0.68974531
3.4043474 -1.5594614 -0.62426656
4.2807903 -1.9609418 -0.52482069
5.4736562 -2.5073688 -0.33628857
5.4757333 -2.5083203 0
6.9759521 -3.1955397 0.42858613
2.1243384 -0.97001183 -0.77002871
2.4243538 -1.1070044 -0.73530322
2.8553696 -1.3038141 -0.69537306
3.4225776 -1.5628116 -0.62726271
4.2784557 -1.9536213 -0.52424467
5.4695973 -2.4975185 -0.33585358
5.4716554 -2.4984581 0
6.9845314 -3.189265 0.42887613
2.125509 -0.9674443 -0.77002871
2.4348233 -1.1082314 -0.73807186
2.8476925 -1.2961526 -0.69312149
3.4244635 -1.5586749 -0.62726271
4.2784524 -1.9473755 -0.52395552
5.4726114 -2.4909077 -0.33585358
5.4746704 -2.4918449 0
6.9836545 -3.1786723 0.42858613
2.1176732 -0.96079057 -0.76676887
2.4475815 -1.1104703 -0.74153197
2.8423216 -1.2895644 -0.6914345
3.4380307 -1.5598382 -0.62940216
4.2808022 -1.9422045 -0.52395552
5.4685159 -2.4810715 -0.33541802
5.4705653 -2.4820013 0
6.985126 -3.1691592 0.42844114
2.116004 -0.95849216 -0.76595467
2.4802411 -1.1234816 -0.75122094
2.8500371 -1.2909892 -0.69312149
3.4179294 -1.5482289 -0.62555087
4.2819748 -1.9396179 -0.52395552
5.4629107 -2.4745498 -0.33498245
5.4720635 -2.4786956 0
6.9823008 -3.162792 0.42815056
2.1441922 -0.96813995 -0.77573425
2.4587362 -1.1101619 -0.74430066
2.865494 -1.2938201 -0.69649988
3.4361684 -1.5514895 -0.6285454
4.2772498 -1.9312525 -0.5230915
5.463531 -2.4668787 -0.33483747
5.4774332 -2.473156 0
6.9742785 -3.1490076 0.42742503
2.1385968 -0.96250427 -0.77328861
2.4669411 -1.11028 -0.74637777
2.8577871 -1.2861856 -0.69424838
3.4122972 -1.5357504 -0.62383896
4.2866497 -1.9292643 -0.52395552
5.4641404 -2.4592099 -0.33469248
5.4732957 -2.4633305 0
6.9757113 -3.1395128 0.42728001
2.1194646 -0.95081556 -0.76595467
2.4522557 -1.1001095 -0.74153197
2.8500659 -1.2785715 -0.69199681
3.4094615 -1.5295227 -0.6229822
4.2771802 -1.9187909 -0.52251434
5.4647393 -2.4515433 -0.33454746
5.473896 -2.455651 0
6.9794993 -3.1310816 0.42728001
2.1318913 -0.95329762 -0.77002871
2.4375496 -1.0899758 -0.73668617
2.8562434 -1.2771993 -0.69312149
3.4183397 -1.5285466 -0.62426656
4.2794957 -1.9136214 -0.52251434
5.4700675 -2.445998 -0.33469248
5.4863625 -2.4532845 0
6.978529 -3.1205225 0.42698947
2.1375611 -0.95273525 -0.77166021
2.4709496 -1.1013304 -0.74637777
2.860112 -1.2747844 -0.69368601
3.4248693 -1.5265032 -0.62512165
4.2936149 -1.913713 -0.52395552
5.4730186 -2.4393868 -0.33469248
5.4940724 -2.4487705 0
6.9775524 -3.1099744 0.42669946
2.1658154 -0.96219343 -0.78143978
2.4653983 -1.0952872 -0.74430066
2.8616502 -1.2713276 -0.69368601
3.4290638 -1.523409 -0.62555087
4.2817464 -1.9022249 -0.52222633
5.4759622 -2.4327719 -0.33469248
5.5136781 -2.4495275 0
6.9789324 -3.1004872 0.42655447
2.1353328 -0.94556344 -0.77002871
2.459836 -1.0892591 -0.7422235
2.8585334 -1.2658094 -0.69255918
3.4262033 -1.5171838 -0.62469411
4.2864041 -1.8980961 -0.52251434
5.4765244 -2.4251025 -0.33454746
5.5142474 -2.4418068 0
6.9826736 -3.0920522 0.42655447
2.1274292 -0.93899053 -0.76676887
2.4473839 -1.08021 -0.73807186
2.8507626 -1.2582506 -0.69030762
3.4303801 -1.5140783 -0.62512165
4.2886944 -1.8929155 -0.52251434
5.4770665 -2.4174311 -0.33440191
5.5148149 -2.4340923 0
6.9864049 -3.0836129 0.42655447
2.1398807 -0.94139856 -0.77084607
2.4578726 -1.081293 -0.74084049
2.8615839 -1.2588978 -0.69255918
3.441606 -1.5140672 -0.6268335
4.2886133 -1.8866915 -0.52222633
5.4609556 -2.4024405 -0.33324078
5.5034637 -2.4211409 0
6.9782357 -3.0699382 0.4258289
2.1229081 -0.93087184 -0.76432633
2.4637682 -1.0803353 -0.7422235
2.8584533 -1.2534004 -0.6914345
3.4316802 -1.5047541 -0.62469411
4.2837815 -1.8783911 -0.52136117
5.5066943 -2.4146249 -0.33585358
5.504004 -2.4134452 0
6.9509969 -3.0479357 0.42394167
2.1376154 -0.93424302 -0.76921457
2.4650719 -1.0773575 -0.7422235
2.8622918 -1.2509621 -0.69199681
3.433496 -1.5006065 -0.62469411
4.288425 -1.8742524 -0.52165031
5.4929385 -2.4006841 -0.33483747
5.502142 -2.4047065 0
6.8880162 -3.0104015 0.41987833
2.158004 -0.93694919 -0.77573425
2.4883771 -1.0803885 -0.74845225
2.8816237 -1.2511259 -0.69593757
3.4324074 -1.490262 -0.62383896
4.2881923 -1.8618214 -0.52107316
5.474894 -2.3770564 -0.33338636
5.5151014 -2.3945134 0
6.7927876 -2.9492517 0.41363773
2.1682079 -0.93826735 -0.77899414
2.4666607 -1.0674194 -0.74153197
2.8644779 -1.2395703 -0.6914345
3.4342055 -1.4861135 -0.62383896
4.2951908 -1.8586949 -0.52165031
5.4920659 -2.3766291 -0.33425692
5.5370979 -2.3961163 0
6.8750315 -2.9750917 0.41842663
2.1375713 -0.92194474 -0.76758617
2.4472182 -1.0554969 -0.73530322
2.8636336 -1.2350991 -0.69086999
3.4336438 -1.4809471 -0.62341142
4.2950516 -1.8524764 -0.52136117
5.4877734 -2.3669031 -0.33382136
5.544764 -2.3914835 0
6.9573565 -3.0007412 0.4232161
2.1636548 -0.93009561 -0.77654845
2.4646277 -1.0594757 -0.74014902
2.8744614 -1.2356519 -0.69312149
3.4424992 -1.4798357 -0.62469411
4.2949128 -1.8462648 -0.52107316
5.4810805 -2.3561656 -0.33324078
5.5428724 -2.3827283 0
6.989624 -3.004647 0.42495778
2.1102607 -0.9041236 -0.7569924
2.4751215 -1.0604451 -0.74291497
2.8572769 -1.2241764 -0.68862057
3.4301317 -1.4696112 -0.62212712
4.2971406 -1.8410739 -0.52107316
5.4934773 -2.3536344 -0.33382136
0 -0 0
0 -0 0
2.1454408 -0.91612959 -0.76921457
2.5064015 -1.0702642 -0.7519151
2.8680921 -1.2247105 -0.69086999
3.4507916 -1.4735304 -0.62555087
4.2922235 -1.8328321 -0.520208
5.4963169 -2.3469949 -0.33382136
5.5462141 -2.3683014 0
6.9729719 -2.9775445 0.42350668
2.1073444 -0.89835703 -0.7553609
2.4931962 -1.062845 -0.74776077
2.8664963 -1.221982 -0.69030762
3.4445946 -1.4684243 -0.62426656
4.3004704 -1.8332825 -0.52107316
5.4738355 -2.3334858 -0.33237022
5.5476437 -2.3649502 0
6.9652085 -2.9692554 0.4229261
2.1220815 -0.90161085 -0.7602523
2.4760067 -1.0519834 -0.7422235
2.9030516 -1.2334224 -0.69875145
3.4463663 -1.4642611 -0.62426656
4.2955384 -1.8250496 -0.520208
5.4670849 -2.3228056 -0.33178967
5.5481043 -2.3572285 0
6.9664021 -2.9598219 0.42278111
2.1163392 -0.89615393 -0.7578066
2.5003824 -1.0587752 -0.74914646
2.8764625 -1.2180245 -0.69199681
3.436316 -1.4550918 -0.62212712
4.295361 -1.8188504 -0.51991999
5.4914203 -2.325316 -0.33309579
5.5485544 -2.3495092 0
6.9723635 -2.9524145 0.4229261
2.1606796 -0.91185224 -0.77328861
2.4854779 -1.0489241 -0.74430066
2.8779323 -1.214548 -0.69199681
3.435709 -1.4499415 -0.62169957
4.2975554 -1.8136591 -0.51991999
5.4822583 -2.3136284 -0.33237022
5.55618 -2.344825 0
6.9663501 -2.9399464 0.42234555
2.1526666 -0.90540785 -0.77002871
2.475183 -1.0410578 -0.74084049
2.8770578 -1.2100855 -0.6914345
3.4398224 -1.4467834 -0.62212712
4.2997441 -1.8084649 -0.51991999
5.4874425 -2.3080089 -0.33251524
5.5638118 -2.3401296 0
6.9675045 -2.9305203 0.42220056
2.1378095 -0.89612043 -0.76432633
2.4741278 -1.0370973 -0.74014902
2.8785179 -1.2066083 -0.6914345
3.4392028 -1.4416345 -0.62169957
4.3043094 -1.8042672 -0.520208
5.4878335 -2.3003731 -0.33237022
5.5450363 -2.3243513 0
6.968637 -2.9210918 0.42205501
2.1913378 -0.91544688 -0.78306818
2.4938893 -1.0418398 -0.74568361
2.8729377 -1.2001901 -0.68974531
3.4575162 -1.4444017 -0.62469411
4.3041019 -1.7980689 -0.51991999
5.4738231 -2.2867281 -0.33135411
5.5382352 -2.3136368 0
6.9625707 -2.908663 0.42147443
2.1673498 -0.90235132 -0.77410591
2.4696763 -1.0282216 -0.73807186
2.8861122 -1.2015998 -0.69255918
3.433197 -1.4293724 -0.61998767
4.3062711 -1.7928669 -0.51991999
5.4861774 -2.2841074 -0.33193466
5.5482368 -2.3099451 0
6.9684858 -2.9012496 0.42161998
2.1410437 -0.88836521 -0.76432633
2.463963 -1.0223514 -0.7359947
2.8805192 -1.1951895 -0.69086999
3.4396594 -1.4271888 -0.62084281
4.3060479 -1.786672 -0.51963198
5.4769354 -2.2724986 -0.33120912
5.5438104 -2.3002462 0
6.9599795 -2.8878453 0.42089388
2.169524 -0.89711106 -0.77410591
2.4628804 -1.0184157 -0.73530322
2.884316 -1.1926818 -0.6914345
3.4485004 -1.4259753 -0.62212712
4.3082032 -1.7814677 -0.51963198
5.4820762 -2.266871 -0.33135411
5.5441828 -2.2925525 0
6.9610648 -2.8784416 0.42074889
2.1271858 -0.87659574 -0.7586208
2.4849827 -1.0240408 -0.74153197
2.883399 -1.1882249 -0.69086999
3.4478498 -1.4208304 -0.62169957
4.3055654 -1.7742879 -0.51905483
5.4680009 -2.2533181 -0.33033857
5.5517569 -2.287833 0
6.9549279 -2.8660681 0.42016831
2.141957 -0.87965661 -0.76350898
2.4537332 -1.0076965 -0.73184305
2.8777881 -1.181847 -0.68918294
3.449564 -1.4166632 -0.62169957
4.3005352 -1.7661393 -0.5181908
5.4707198 -2.2467093 -0.33033857
5.537663 -2.2742014 0
6.9199276 -2.8418684 0.41784608
2.197917 -0.89953613 -0.78306818
2.4851305 -1.0170833 -0.74084049
2.8980267 -1.1860682 -0.69368601
3.4583938 -1.4154083 -0.6229822
4.3050575 -1.7619203 -0.51847881
5.4782357 -2.242064 -0.33062857
5.554863 -2.2734251 0
6.8319864 -2.7961102 0.41233164
2.1669667 -0.88381374 -0.77166021
2.4979706 -1.0188161 -0.74430066
2.8853366 -1.1768063 -0.69030762
3.4553521 -1.4092914 -0.62212712
4.3071837 -1.7567173 -0.51847881
5.4833446 -2.2364233 -0.33077356
5.5576057 -2.2667115 0
6.7607708 -2.7574313 0.40783218
2.1565866 -0.87654239 -0.76758617
2.4713101 -1.0044614 -0.7359947
2.8820534 -1.1714075 -0.68918294
3.4546766 -1.4041495 -0.62169957
4.2973247 -1.7466431 -0.51703763
5.4932666 -2.2327323 -0.33120912
5.5579319 -2.2590156 0
6.7568736 -2.7463241 0.40739661
2.1370292 -0.86558586 -0.7602523
2.465544 -0.99864811 -0.73391753
2.9093654 -1.1784143 -0.69537306
3.4563706 -1.3999742 -0.62169957
4.3138113 -1.7472734 -0.51876682
5.4815145 -2.220242 -0.33033857
5.5510092 -2.2483902 0
6.7626023 -2.739136 0.40754217
2.1747358 -0.8778013 -0.77328861
2.4690819 -0.99660999 -0.73461169
2.8825219 -1.1634891 -0.68862057
3.4580598 -1.3957969 -0.62169957
4.3159194 -1.7420598 -0.51876682
5.4793696 -2.2116699 -0.33004799
5.5561328 -2.2426543 0
6.756269 -2.7270725 0.40696162
2.1436963 -0.86226189 -0.76188064
2.5121756 -1.0104759 -0.7470693
2.8839254 -1.1600053 -0.68862057
3.4525967 -1.3887427 -0.62041527
4.3108201 -1.733947 -0.51790166
5.4844465 -2.2060163 -0.33019301
5.5540047 -2.233995 0
6.7667847 -2.721813 0.40739661
2.1832061 -0.87662196 -0.77573425
2.4778619 -0.99493498 -0.73668617
2.8846259 -1.1582627 -0.68862057
3.4486659 -1.3847417 -0.61955851
4.3142738 -1.7323089 -0.5181908
5.4737239 -2.1978624 -0.32946745
5.5722613 -2.2374282 0
6.7732549 -2.7196627 0.40768716
2.1154263 -0.84643966 -0.75128686
2.4744081 -0.99007803 -0.73530322
2.9001732 -1.1604382 -0.69199681
3.4503367 -1.3805735 -0.61955851
4.3187628 -1.7280545 -0.51847881
5.4956756 -2.1989694 -0.33062857
5.582212 -2.2335949 0
6.7717066 -2.7095439 0.40739661
2.2013912 -0.87775224 -0.78143978
2.4989018 -0.99637741 -0.7422235
2.8826916 -1.1494044 -0.68749374
3.4567759 -1.3783069 -0.62041527
4.2968268 -1.7132572 -0.51559645
5.4766078 -2.1836667 -0.32932246
5.5873218 -2.2278111 0
6.7870507 -2.7061744 0.40812272
2.1863694 -0.86870229 -0.77573425
2.481452 -0.98594642 -0.73668617
2.8817191 -1.1449831 -0.68693137
3.4608221 -1.3750759 -0.62084281
4.3036966 -1.7099723 -0.51617247
5.4647584 -2.1712928 -0.32845187
5.6021004 -2.2258623 0
6.7878938 -2.6970093 0.40797716
2.194314 -0.86879033 -0.77817994
2.4733112 -0.97925317 -0.73391753
2.9114501 -1.1527246 -0.69368601
3.4696438 -1.3737292 -0.62212712
4.3129768 -1.7076283 -0.51703763
5.452877 -2.1589468 -0.32758078
5.5999508 -2.2171774 0
4.6724491 -1.8499535 0.28069669
2.1401827 -0.84436834 -0.7586208
2.4838276 -0.97994685 -0.73668617
2.8868392 -1.1389474 -0.68749374
3.4641352 -1.3667085 -0.62084281
4.3294683 -1.7081093 -0.51876682
5.4748192 -2.1599855 -0.32874188
5.5808401 -2.2018142 0
4.7085166 -1.8576555 0.28272834
2.1504023 -0.84539896 -0.76188064
2.5200343 -0.99071431 -0.7470693
2.8882132 -1.1354584 -0.68749374
3.4490581 -1.3559463 -0.61784661
4.3267193 -1.7009858 -0.5181908
5.4725928 -2.1514692 -0.32845187
5.5713792 -2.1903055 0
4.7035098 -1.8491154 0.28229335
2.2066541 -0.86443651 -0.78143978
2.5142195 -0.98492247 -0.74499214
2.8753924 -1.1264087 -0.6841175
3.462652 -1.3564622 -0.61998767
4.3143172 -1.6900942 -0.51646048
5.4751887 -2.144855 -0.32845187
5.5643287 -2.179775 0
4.6912193 -1.8377422 0.28142223
2.180068 -0.85098469 -0.77166021
2.4850285 -0.97002536 -0.7359947
2.8885839 -1.1275524 -0.68693137
3.4618902 -1.3513411 -0.61955851
4.3308172 -1.6905248 -0.5181908
5.4801946 -2.1391819 -0.32859689
5.5645366 -2.1721044 0
4.7103829 -1.8386874 0.28243834
2.1350248 -0.83043069 -0.7553609
2.504904 -0.97429746 -0.74153197
2.8899443 -1.1240612 -0.68693137
3.4515605 -1.3425052 -0.61741906
4.320797 -1.6805999 -0.51674849
5.4827752 -2.1325583 -0.32859689
5.5550318 -2.1606631 0
4.7634544 -1.8527744 0.28548613
2.1728997 -0.84214115 -0.76840037
2.4850285 -0.96311146 -0.73530322
2.8913004 -1.1205685 -0.68693137
3.4627545 -1.3420444 -0.61913091
4.3276525 -1.6772491 -0.51732564
5.4998803 -2.1315644 -0.32946745
5.5479321 -2.1501875 0
6.5197392 -2.5268264 0.39056155
2.1831384 -0.84307653 -0.77166021
2.4978898 -0.96462613 -0.73876333
2.9021335 -1.1207355 -0.68918294
3.4787464 -1.3434098 -0.62169957
4.3320866 -1.6729497 -0.51761365
5.4733644 -2.1136842 -0.32772577
5.5408154 -2.1397321 0
4.7921534 -1.8506166 0.28693727
2.1956871 -0.84487522 -0.77573425
2.4803224 -0.95439965 -0.73322606
2.8987381 -1.1154013 -0.68805611
3.463594 -1.3327513 -0.61870337
4.3292813 -1.665858 -0.51703763
5.4759145 -2.1070693 -0.32772577
5.5361075 -2.1302309 0
4.7943859 -1.8448248 0.28693727
2.182864 -0.83691436 -0.77084607
2.5212939 -0.96666908 -0.74499214
2.8858533 -1.106442 -0.68467987
3.4580088 -1.3258075 -0.61741906
4.3288693 -1.6596971 -0.51674849
5.4639034 -2.0948715 -0.32685521
5.5216742 -2.1170208 0
4.8087406 -1.8436806 0.2876628
2.1376963 -0.81663567 -0.75454676
2.4685645 -0.94303286 -0.72907442
2.9014251 -1.108393 -0.68805611
3.4644089 -1.3234621 -0.61827582
4.3187928 -1.6498511 -0.51530731
5.4737153 -2.0910506 -0.32729077
5.5047793 -2.1029177 0
4.8182492 -1.8406516 0.28809837
2.1456134 -0.81669062 -0.7569924
2.5142438 -0.95700347 -0.7422235
2.8908913 -1.1003678 -0.68524218
3.4684024 -1.3201873 -0.61870337
4.3256226 -1.6464734 -0.51588446
5.4738026 -2.0835083 -0.32714522
5.4927273 -2.0907116 0
4.8447495 -1.8440702 0.2895495
2.1558425 -0.81760323 -0.7602523
2.5200944 -0.95574576 -0.74360913
2.9017217 -1.1004779 -0.68749374
3.4579961 -1.3114449 -0.61656398
4.3300247 -1.6421618 -0.51617247
5.4738884 -2.0759721 -0.3270002
5.487947 -2.0813038 0
0 -0 0
2.2099993 -0.83508915 -0.77899414
2.5001283 -0.94471979 -0.73738033
2.8983002 -1.0951763 -0.68636906
3.4691834 -1.3108952 -0.61827582
4.3199105 -1.6323582 -0.51473129
5.4763932 -2.0693564 -0.3270002
5.4782877 -2.0700724 0
4.8078723 -1.8167435 0.28708225
2.1809387 -0.82109791 -0.76840037
2.4965677 -0.93992859 -0.7359947
2.8901095 -1.0880924 -0.6841175
3.4707649 -1.3067024 -0.61827582
4.3388171 -1.6335139 -0.51674849
5.4788895 -2.0627377 -0.3270002
5.4710426 -2.0597835 0
4.7979074 -1.806356 0.28635669
2.1976321 -0.82586718 -0.77410591
2.4713094 -0.92871481 -0.72838289
2.9216845 -1.0979652 -0.6914345
3.4739544 -1.3055075 -0.61870337
4.3325467 -1.6281654 -0.51588446
5.4655452 -2.0539446 -0.32612965
5.4820304 -2.0601399 0
4.7916985 -1.8007139 0.28592113
2.1361299 -0.79981047 -0.75210106
2.5147159 -0.9415608 -0.74084049
2.9015954 -1.0864164 -0.68636906
3.4779313 -1.3022082 -0.61913091
4.3417706 -1.6256474 -0.51674849
5.4607201 -2.0446048 -0.32569408
5.4698877 -2.0480373 0
4.7865772 -1.792192 0.28548613
2.1625698 -0.80673212 -0.76106644
2.4782431 -0.92449194 -0.72976589
2.9052842 -1.0837967 -0.68693137
3.4770992 -1.2971085 -0.61870337
4.3364687 -1.6176906 -0.51588446
5.4656191 -2.0389125 -0.3258391
5.4796758 -2.0441563 0
4.7765689 -1.7818669 0.28476059
2.1218457 -0.78862095 -0.74639863
2.5334384 -0.94159657 -0.74568361
2.8922968 -1.0749725 -0.68355298
3.4762599 -1.2920127 -0.61827582
4.3335667 -1.6106457 -0.51530731
5.463212 -2.030498 -0.3255491
5.4797044 -2.0366278 0
4.7738423 -1.7742817 0.28447002
2.1552417 -0.79807061 -0.7578066
2.5204628 -0.93330938 -0.74153197
2.9078948 -1.0767727 -0.68693137
3.4850338 -1.290483 -0.61955851
4.3379421 -1.6063091 -0.51559645
5.4632268 -2.0229938 -0.32540411
5.4919238 -2.0336201 0
4.7784171 -1.7694137 0.28461501
2.181705 -0.80487353 -0.76676887
2.5004077 -0.92244905 -0.73530322
2.9115753 -1.0741369 -0.68749374
3.4697385 -1.2800541 -0.61656398
4.3325977 -1.5983797 -0.51473129
5.4705386 -2.0181882 -0.32569408
5.4870496 -2.0242794 0
4.7829962 -1.7645406 0.28476059
2.1571641 -0.79285991 -0.7578066
2.4873874 -0.91423261 -0.7311489
2.8961744 -1.0644811 -0.68355298
3.4736898 -1.2767454 -0.61699152
4.3393769 -1.5949264 -0.51530731
5.4729729 -2.0115767 -0.32569408
4.8031149 -1.765372 0
4.7680502 -1.7524841 0.28374445
2.2347081 -0.81829739 -0.78469968
2.5026295 -0.91640389 -0.73530322
2.8950748 -1.0601081 -0.68299067
3.4728217 -1.2716655 -0.61656398
4.3437366 -1.5905738 -0.51559645
5.4778371 -2.0058548 -0.3258391
4.8125782 -1.7622527 0
4.770164 -1.7467216 0.28374445
2.1753206 -0.79357153 -0.76350898
2.5108078 -0.91595948 -0.73738033
2.9082866 -1.0609623 -0.68580455
3.4719465 -1.2665893 -0.61613637
4.3432183 -1.5844351 -0.51530731
5.4729409 -1.9965653 -0.32540411
4.8000398 -1.7510865 0
4.7771487 -1.7427359 0.28403446
2.166995 -0.78756875 -0.7602523
2.5048368 -0.9103533 -0.73530322
2.9095664 -1.0574476 -0.68580455
3.4807055 -1.2650213 -0.61741906
4.3451295 -1.5791861 -0.51530731
5.4680204 -1.9872874 -0.32496855
4.797255 -1.7435057 0
4.7694826 -1.733412 0.28345391
2.1795628 -0.7891562 -0.76432633
2.4941428 -0.90305644 -0.73184305
2.913238 -1.0547986 -0.68636906
3.4967184 -1.2660599 -0.61998767
4.3421755 -1.5721753 -0.51473129
5.4752994 -1.9824464 -0.32525852
4.8018031 -1.7385931 0
4.7691326 -1.726764 0.28330889
2.1549377 -0.77729625 -0.7553609
2.5070295 -0.90429747 -0.73530322
2.9001648 -1.0461032 -0.68299067
3.4789274 -1.2548656 -0.61656398
4.3440719 -1.5669274 -0.51473129
5.4776907 -1.9758291 -0.32525852
4.8136926 -1.7363219 0
4.7736573 -1.721881 0.28345391
2.195415 -0.78890008 -0.76921457
2.5175641 -0.90466112 -0.73807186
2.9157784 -1.0477554 -0.68636906
3.4901044 -1.2541336 -0.61827582
4.3435302 -1.5608035 -0.51444328
0 -0 -0
4.8108935 -1.7287458 0
4.7659626 -1.7126002 0.2828739
2.2173073 -0.79374301 -0.77654845
2.4808636 -0.8880899 -0.72699726
2.9194324 -1.045087 -0.68693137
3.4819498 -1.2464548 -0.61656398
4.3283644 -1.5494511 -0.51242495
5.4800057 -1.961711 -0.32511353
4.8178749 -1.724684 0
4.7753606 -1.709465 0.28330889
2.1903286 -0.78110087 -0.76676887
2.4961083 -0.89014608 -0.7311489
2.9159019 -1.0398501 -0.68580455
3.4882846 -1.2439696 -0.61741906
4.3302336 -1.54422 -0.51242495
0 -0 -0
4.8224134 -1.719738 0
4.7774224 -1.7036936 0.28330889
2.1726477 -0.77183783 -0.7602523
2.5160944 -0.89384794 -0.73668617
2.9099801 -1.0337768 -0.6841175
3.475276 -1.2345994 -0.61485207
4.3394103 -1.541585 -0.51329011
5.4626956 -1.9406345 -0.32380742
4.8195786 -1.7121657 0
4.7794776 -1.6979198 0.28330889
2.1595943 -0.76426303 -0.7553609
2.491164 -0.88160288 -0.72907442
2.9255946 -1.0353444 -0.68749374
3.488863 -1.2346805 -0.61699152
4.3388247 -1.5354751 -0.51300097
5.4625893 -1.9331664 -0.32366243
4.8118305 -1.702868 0
4.7741842 -1.6895454 0.2828739
2.1698403 -0.76494008 -0.7586208
2.4945912 -0.87942547 -0.72976589
2.9220552 -1.0301206 -0.68636906
3.4830868 -1.2279027 -0.61570722
4.3406768 -1.5302314 -0.51300097
5.4673696 -1.9274276 -0.32380742
4.82125 -1.6996492 0
4.7811189 -1.6855017 0.28316391
2.1241231 -0.74593896 -0.74232149
2.5335248 -0.88971061 -0.74084049
2.911304 -1.0223773 -0.68355298
3.5039444 -1.2304977 -0.61913091
4.3571696 -1.5301291 -0.51473129
5.4672451 -1.9199599 -0.32366243
4.8183846 -1.6920962 0
4.7807026 -1.6788633 0.28301892
2.1786835 -0.76214331 -0.76106644
2.5274916 -0.88416272 -0.73876333
2.9125373 -1.0188588 -0.68355298
3.4933157 -1.2220256 -0.61699152
4.3370447 -1.5171776 -0.51213694
5.4597502 -1.9099203 -0.32308185
4.8130631 -1.6836973 0
4.7827277 -1.6730855 0.28301892
2.1730559 -0.75575686 -0.7586208
2.4935534 -0.86722124 -0.72838289
2.9311807 -1.0194216 -0.68749374
3.4931023 -1.2148497 -0.61656398
4.3471093 -1.5118607 -0.51300097
5.4582896 -1.8983129 -0.32279131
4.8283949 -1.6792448 0
4.7882042 -1.665267 0.28316391
2.1552839 -0.74665803 -0.75210106
2.5135548 -0.87077433 -0.73391753
2.9180095 -1.0108901 -0.6841175
3.4969912 -1.2114675 -0.61699152
4.341608 -1.5040694 -0.51213694
5.4458523 -1.8866143 -0.32192075
4.8279638 -1.6725582 0
4.7975807 -1.6620327 0.28359947
2.2099242 -0.76259768 -0.77084607
2.4908943 -0.85955441 -0.72699726
2.9264276 -1.0098478 -0.68580455
3.4960279 -1.2064047 -0.61656398
4.3483076 -1.5005082 -0.51271296
5.3965478 -1.8622335 -0.31887296
4.8398218 -1.6701192 0
4.7995858 -1.6562346 0.28359947
2.1921449 -0.75349951 -0.76432633
2.4990509 -0.85899132 -0.72907442
2.9276457 -1.0063109 -0.68580455
3.5023339 -1.2038468 -0.61741906
4.3378897 -1.49105 -0.51127177
4.9933548 -1.716351 -0.2949262
4.844295 -1.6651151 0
4.8064933 -1.6521217 0.28388947
2.1322613 -0.7300362 -0.74313879
2.5072007 -0.85840666 -0.7311489
2.9264579 -1.0019505 -0.68524218
3.4916449 -1.1954572 -0.61527961
4.342133 -1.4866444 -0.51155978
4.8774333 -1.6699187 -0.28796005
4.8389144 -1.6567307 0
4.8060303 -1.6454719 0.28374445
2.1729078 -0.74102056 -0.7569924
2.5106175 -0.85618865 -0.73184305
2.9445031 -1.0041555 -0.68918294
3.4979508 -1.1928961 -0.61613637
4.343926 -1.4813967 -0.51155978
4.8376408 -1.6497668 -0.28549284
4.8458438 -1.6525643 0
4.825233 -1.6455353 0.28476059
2.1410334 -0.72726375 -0.74558133
2.5116501 -0.85315442 -0.73184305
2.9264672 -0.99405903 -0.68467987
3.4969521 -1.1878407 -0.61570722
4.3359165 -1.4728193 -0.51040661
4.8396306 -1.6439202 -0.28549284
4.8823314 -1.6584247 0
4.8395171 -1.6438817 0.28548613
2.1629794 -0.73180449 -0.75291526
2.5126791 -0.85011899 -0.73184305
2.9132204 -0.98563474 -0.68130147
3.5032527 -1.1852615 -0.61656398
4.3499413 -1.471723 -0.51184779
4.831768 -1.6347402 -0.28491229
4.9410248 -1.6717054 0
4.8611908 -1.644695 0.28664726
2.1966572 -0.74024194 -0.76432633
2.5041947 -0.84387767 -0.72907442
2.9095981 -0.98049271 -0.68017679
3.5071127 -1.1818465 -0.61699152
4.3566232 -1.4681194 -0.51242495
4.8386598 -1.6305587 -0.28520226
4.9874382 -1.6806949 0
4.8582454 -1.6371589 0.28635669
2.1647415 -0.72657526 -0.75291526
2.4956992 -0.83765811 -0.72630578
2.9131873 -0.97778404 -0.6807391
3.4915001 -1.1718894 -0.61399531
4.3583937 -1.4628541 -0.51242495
4.8258505 -1.6197517 -0.28433171
5.0067286 -1.6804618 0
4.8626809 -1.6321135 0.28650171
2.1374977 -0.7145586 -0.74313879
2.5062268 -0.83782357 -0.72907442
2.9432843 -0.98393041 -0.68749374
3.5050938 -1.1717416 -0.61613637
4.3454447 -1.4526681 -0.51069576
4.8154845 -1.6098011 -0.28360617
5.0087557 -1.6744108 0
4.8646493 -1.6262366 0.28650171
2.1805658 -0.72602808 -0.7578066
2.5167587 -0.83796477 -0.73184305
2.9348278 -0.9771626 -0.68524218
3.5089405 -1.1683156 -0.61656398
4.3520999 -1.449049 -0.51127177
4.8050923 -1.5998746 -0.28288004
5.0132513 -1.6691821 0
4.866611 -1.6203574 0.28650171
2.1908255 -0.72650456 -0.76106644
2.5034771 -0.83018374 -0.72768873
2.9335968 -0.97281671 -0.68467987
3.4981689 -1.1600357 -0.61442453
4.353848 -1.4437894 -0.51127177
4.8045578 -1.5932503 -0.28273505
5.0177326 -1.6639416 0
4.8685651 -1.614476 0.28650171
2.1377203 -0.70602834 -0.74232149
2.5044785 -0.82715815 -0.72768873
2.9178789 -0.96369261 -0.6807391
3.4898179 -1.1525878 -0.61271268
4.3531356 -1.4377171 -0.51098377
4.7892056 -1.5817387 -0.28171894
5.0197396 -1.6578774 0
4.8779168 -1.6110375 0.28693727
2.1761374 -0.71580136 -0.7553609
2.5221605 -0.82961941 -0.73253453
2.9238732 -0.96175563 -0.68186599
3.5033982 -1.15238 -0.61485207
4.3597789 -1.4340709 -0.51155978
4.7812495 -1.5727062 -0.28113893
5.0143199 -1.6493706 0
4.8823261 -1.6059535 0.28708225
2.1981375 -0.72009569 -0.76269484
2.5422339 -0.8328194 -0.73807186
2.9250331 -0.95822197 -0.68186599
3.502351 -1.1473476 -0.61442453
4.3443098 -1.4231678 -0.50954258
4.7880802 -1.5685441 -0.28142893
5.0187802 -1.64412 0
4.8867393 -1.6008642 0.28722781
2.1849122 -0.71284097 -0.7578066
2.5146177 -0.82040936 -0.72976589
2.9261889 -0.95468694 -0.68186599
3.4988492 -1.1415209 -0.61356777
4.3583183 -1.4219279 -0.51098377
4.7875042 -1.5619524 -0.28128392
5.0133476 -1.6356353 0
4.88867 -1.5949584 0.28722781
2.1928263 -0.71249241 -0.7602523
2.5156074 -0.81737036 -0.72976589
2.9370065 -0.95429122 -0.6841175
3.4928992 -1.1349118 -0.61228347
4.3624911 -1.4174592 -0.51127177
4.7893877 -1.5561664 -0.28128392
5.0177932 -1.6303798 0
4.8831773 -1.5866406 0.28679225
2.1885495 -0.70964134 -0.7586208
2.5161006 -0.81585038 -0.72976589
2.9472506 -0.95565158 -0.68636906
3.4960332 -1.1335953 -0.61271268
4.351047 -1.4108353 -0.50983059
4.7853789 -1.5516682 -0.28099337
5.0187774 -1.6273481 0
4.8890738 -1.5852915 0.28708225
2.2199793 -0.71686924 -0.76921457
2.5003705 -0.80741233 -0.72492009
2.9338906 -0.94740337 -0.68299067
3.5047219 -1.1317345 -0.61399531
4.3478212 -1.4039856 -0.50925344
4.7897301 -1.5466856 -0.28113893
5.0256882 -1.6228806 0
4.8934655 -1.5801836 0.28722781
2.2373168 -0.71948367 -0.77492011
2.5108976 -0.80746269 -0.72768873
2.9447088 -0.94696915 -0.68524218
3.5207543 -1.1322157 -0.61656398
4.3544436 -1.4003164 -0.50983059
4.7792201 -1.5369172 -0.28041282
5.0425158 -1.6215887 0
4.8978429 -1.5750644 0.28737283
2.193459 -0.70245647 -0.75943494
2.5381553 -0.81284565 -0.73530322
2.9458511 -0.9434104 -0.68524218
3.5025618 -1.1216973 -0.61314023
4.3561325 -1.3950539 -0.50983059
4.7884998 -1.5335196 -0.28084835
5.0618138 -1.6210486 0
4.9071689 -1.5715234 0.28780836
2.1684108 -0.69154704 -0.75047266
2.5391357 -0.80977815 -0.73530322
2.9373057 -0.93676209 -0.68299067
3.5063579 -1.1182436 -0.61356777
4.3528819 -1.388216 -0.50925344
4.8051982 -1.5324682 -0.28171894
5.0786505 -1.6196772 0
4.9164839 -1.5679592 0.28824338
2.1621757 -0.68668133 -0.74802703
2.5209837 -0.8006345 -0.72976589
2.9384353 -0.93321222 -0.68299067
3.5077066 -1.114006 -0.61356777
4.3644166 -1.3860869 -0.51040661
5.2973804 -1.6823851 -0.31045514
5.0830817 -1.6143265 0
4.9258065 -1.5643778 0.28867891
2.210135 -0.69897389 -0.76432633
2.5171697 -0.7960763 -0.72838289
2.9322906 -0.92736179 -0.68130147
3.5090501 -1.1097668 -0.61356777
4.3537602 -1.3769135 -0.50896543
5.4257545 -1.715941 -0.31785685
5.6532302 -1.7878819 0
4.9276934 -1.5584248 0.28867891
2.1897631 -0.68962169 -0.7569924
2.5276923 -0.79604566 -0.7311489
2.9431033 -0.926871 -0.68355298
3.5030406 -1.1032119 -0.61228347
4.3504915 -1.3700995 -0.50838941
5.4352617 -1.7117261 -0.31829241
5.6975832 -1.7943388 0
4.9444389 -1.5571512 0.2895495
2.1882296 -0.68623358 -0.7561751
2.5430198 -0.79749656 -0.73530322
2.9539189 -0.92635542 -0.68580455
3.5141687 -1.102051 -0.61399531
4.3595405 -1.3671614 -0.50925344
5.4497209 -1.7090443 -0.31901795
5.6898141 -1.7843381 0
4.956234 -1.5542859 0.29013005
2.2362421 -0.69832373 -0.77247441
2.5248239 -0.7884407 -0.72976589
2.9404883 -0.91824263 -0.6824283
3.5130498 -1.0970396 -0.61356777
4.3661318 -1.3634362 -0.50983059
5.4542599 -1.7032319 -0.31916296
5.6894841 -1.7766868 0
4.9853945 -1.5568168 0.29172671
2.1497614 -0.66846812 -0.74232149
2.5090029 -0.78017426 -0.72492009
2.9488771 -0.91695303 -0.6841175
3.5168219 -1.0935555 -0.61399531
4.3628316 -1.3566221 -0.50925344
5.4513559 -1.6950986 -0.31887296
5.6816864 -1.7667198 0
6.3171611 -1.9643207 0.36951756
2.1505675 -0.66587007 -0.74232149
2.4979634 -0.77343261 -0.72145998
2.942699 -0.91113394 -0.6824283
3.5107911 -1.0870296 -0.61271268
4.3644676 -1.3513495 -0.50925344
5.4534001 -1.6885105 -0.31887296
5.6664119 -1.7544644 0
6.3344183 -1.961296 0.37038812
2.2151444 -0.68293256 -0.76432633
2.5180755 -0.77632678 -0.72699726
2.9437976 -0.90757757 -0.6824283
3.5121019 -1.0827867 -0.61271268
4.348803 -1.3407429 -0.50723624
5.4479847 -1.6796225 -0.3184374
5.6436625 -1.7399504 0
6.3243704 -1.9498136 0.36966258
2.1781633 -0.66865033 -0.75128686
2.5262091 -0.77549303 -0.72907442
2.9400294 -0.90252715 -0.68130147
3.5109465 -1.0777867 -0.61228347
4.3578305 -1.3377622 -0.50810027
5.4500103 -1.6730385 -0.3184374
5.6208868 -1.7254939 0
6.3267217 -1.9421705 0.36966258
2.1955175 -0.67107594 -0.7569924
2.5535285 -0.78050458 -0.73668617
2.9435546 -0.89971894 -0.68186599
3.5171609 -1.0750458 -0.61314023
4.3545012 -1.3309851 -0.50752425
5.4495454 -1.6656932 -0.31829241
5.6403823 -1.7240238 0
6.3265815 -1.9337656 0.36951756
2.120662 -0.64539498 -0.73091352
2.5232708 -0.76792365 -0.72768873
2.9276216 -0.89098233 -0.67792523
3.5012639 -1.0655627 -0.61014402
4.3610506 -1.3272271 -0.50810027
5.4515538 -1.6591072 -0.31829241
5.644958 -1.7179672 0
6.3214531 -1.9238495 0.369082
2.2136838 -0.67078346 -0.76269484
2.5314021 -0.76705748 -0.72976589
2.9457204 -0.89260286 -0.68186599
3.5050032 -1.062075 -0.61057156
4.3552322 -1.3197087 -0.50723624
5.4535546 -1.6525189 -0.31829241
5.6345692 -1.7073693 0
6.2939315 -1.9071673 0.36734036
2.2428877 -0.67667496 -0.77247441
2.5611491 -0.77269375 -0.73807186
2.9467969 -0.88904291 -0.68186599
3.5136595 -1.0600643 -0.61185592
4.3592973 -1.3151916 -0.50752425
5.4555473 -1.6459281 -0.31829241
5.6216836 -1.6960511 0
6.2887659 -1.8973086 0.3669048
2.2058299 -0.66258776 -0.75943494
2.5236375 -0.75805092 -0.72699726
2.9503 -0.88621193 -0.6824283
3.5051036 -1.052864 -0.61014402
4.363358 -1.3106667 -0.50781226
5.4550462 -1.6385882 -0.31814739
5.6137586 -1.6862624 0
6.288568 -1.8889617 0.36675978
2.1896636 -0.65628982 -0.75373256
2.5337076 -0.75940722 -0.72976589
2.9459624 -0.8829689 -0.68130147
3.5180316 -1.0544305 -0.61228347
4.3641491 -1.3080302 -0.50781226
5.4510522 -1.6337987 -0.31785685
5.5923424 -1.6761465 0
6.2872214 -1.8844168 0.36661479
2.2046611 -0.65788263 -0.7586208
2.5418377 -0.75849801 -0.73184305
2.9421623 -0.87795693 -0.68017679
3.52177 -1.050915 -0.61271268
4.3632503 -1.3020172 -0.50752425
5.4530225 -1.627211 -0.31785685
5.6043391 -1.6723647 0
6.2870059 -1.8760762 0.36646977
2.2196653 -0.65944022 -0.76350898
2.5186989 -0.74828011 -0.72492009
2.9505303 -0.87657279 -0.68186599
3.5230372 -1.0466589 -0.61271268
4.3697743 -1.298216 -0.50810027
5.4500074 -1.6191423 -0.31756684
5.6013613 -1.664108 0
6.2867799 -1.867739 0.36632478
2.1896515 -0.64764512 -0.75291526
2.5604966 -0.75733203 -0.73668617
2.9637678 -0.87660968 -0.68467987
3.5193713 -1.0409436 -0.61185592
4.3589411 -1.2892677 -0.50665909
5.4419928 -1.6096078 -0.31698629
5.5958886 -1.6551263 0
6.2840438 -1.8586658 0.36603424
2.1596122 -0.6359235 -0.74232149
2.5012472 -0.73652196 -0.71938282
2.9428902 -0.86656904 -0.67961442
3.5280166 -1.0388664 -0.61314023
4.3679414 -1.2861923 -0.50752425
5.443934 -1.6030312 -0.31698629
5.5928864 -1.646892 0
6.291275 -1.8525407 0.36632478
2.1603792 -0.6333136 -0.74232149
2.5286195 -0.74126303 -0.72699726
2.9707494 -0.87087303 -0.68580455
3.5071011 -1.0281042 -0.60928893
4.3645234 -1.279457 -0.5069471
5.4508491 -1.5979125 -0.3172763
5.5699029 -1.6328131 0
6.3034735 -1.8478588 0.3669048
2.237067 -0.65286028 -0.76840037
2.5319195 -0.7389093 -0.72768873
2.9498494 -0.86087704 -0.6807391
3.5181978 -1.0267425 -0.61100078
4.3685565 -1.274909 -0.50723624
5.4477921 -1.5898706 -0.31698629
5.5518856 -1.620249 0
6.293232 -1.8366017 0.36617923
2.2971888 -0.667395 -0.78877372
2.5472698 -0.74005032 -0.73184305
2.9533253 -0.85802031 -0.68130147
3.5169635 -1.0217724 -0.61057156
4.357677 -1.2660222 -0.50579506
5.4497089 -1.5832869 -0.31698629
5.5338459 -1.6077309 0
6.2954464 -1.8289963 0.36617923
2.2030213 -0.6371513 -0.7561751
2.5264747 -0.73069948 -0.72561425
2.9494827 -0.85304064 -0.68017679
3.5206687 -1.0182374 -0.61100078
4.3691325 -1.2636275 -0.5069471
5.4491243 -1.5759795 -0.31684127
5.5207891 -1.5967062 0
6.2926645 -1.8199457 0.36588922
2.2417917 -0.64543003 -0.76921457
2.5394075 -0.731116 -0.72907442
2.948072 -0.84877378 -0.67961442
3.5194225 -1.0132703 -0.61057156
4.3681731 -1.2576325 -0.50665909
5.4510245 -1.5693941 -0.31684127
5.5177078 -1.5885928 0
6.2973537 -1.8130591 0.36603424
2.1356544 -0.61207873 -0.73254186
2.5282331 -0.72459185 -0.72561425
2.9637461 -0.84940988 -0.68299067
3.5280499 -1.0111394 -0.61185592
4.3672056 -1.2516415 -0.50637108
5.4554124 -1.5635217 -0.31698629
5.5246315 -1.58336 0
6.2970443 -1.8047335 0.36588922
2.2053165 -0.62916136 -0.7561751
2.5291066 -0.72153646 -0.72561425
2.9696617 -0.8472237 -0.6841175
3.5243366 -1.0054685 -0.61100078
4.3736844 -1.2477815 -0.5069471
5.4548016 -1.5562166 -0.31684127
5.5365515 -1.5795393 0
6.3167043 -1.8021115 0.3669048
2.1704183 -0.61637008 -0.74395299
2.5420411 -0.72190613 -0.72907442
2.9633482 -0.84155172 -0.6824283
3.530483 -1.0026106 -0.61185592
4.3652463 -1.2396723 -0.50579506
5.4491763 -1.5474942 -0.31640571
5.545959 -1.5749792 0
6.3288755 -1.797317 0.36748534
2.1949408 -0.62046915 -0.75210106
2.5187652 -0.7120083 -0.72215146
2.9472449 -0.83313155 -0.6784876
3.5292239 -0.99764627 -0.61142832
4.3717141 -1.2358027 -0.50637108
5.4435387 -1.5387876 -0.31597018
5.5303349 -1.5633233 0
6.3910537 -1.8066326 0.3709687
2.188549 -0.61580753 -0.74965537
2.5341182 -0.7130428 -0.72630578
2.9458058 -0.82888222 -0.67792523
3.5279582 -0.99268657 -0.61100078
4.3682294 -1.2291195 -0.50579506
5.445394 -1.532209 -0.31597018
5.5372252 -1.5580482 0
6.4282455 -1.808761 0.37300035
2.1916783 -0.6138311 -0.75047266
2.5446413 -0.71268672 -0.72907442
2.9565923 -0.82806325 -0.68017679
3.5167882 -0.98495936 -0.60885972
4.3672132 -1.223141 -0.50550592
5.4472413 -1.5256282 -0.31597018
5.539104 -1.5513564 0
6.5230045 -1.826921 0.37837037
2.1376572 -0.59591663 -0.73172772
2.5599957 -0.71365225 -0.73322606
2.9575906 -0.82449019 -0.68017679
3.5155053 -0.98002058 -0.60843217
4.3686881 -1.2178631 -0.50550592
5.4540915 -1.520442 -0.31626073
5.5334516 -1.5425652 0
6.5777678 -1.8336903 0.38141817
2.1383758 -0.59333324 -0.73172772
2.5487711 -0.70720536 -0.72976589
2.9634769 -0.82227331 -0.68130147
3.5142157 -0.97508639 -0.60800463
4.3701568 -1.2125835 -0.50550592
5.455925 -1.5138507 -0.31626073
5.5428367 -1.5379661 0
6.6851358 -1.8549188 0.38751376
2.2244866 -0.61577922 -0.76106644
2.5419421 -0.70365679 -0.72768873
2.9566338 -0.81845111 -0.67961442
3.5271719 -0.97638673 -0.61014402
4.3708882 -1.2099431 -0.50550592
5.4468212 -1.5077813 -0.31568018
5.5262151 -1.5297589 0
6.8365016 -1.8924707 0.39622155
2.1513593 -0.59273845 -0.73580176
2.5500488 -0.70258462 -0.72976589
2.9674189 -0.81757766 -0.68186599
3.5234041 -0.97076166 -0.60928893
4.3723469 -1.2046608 -0.50550592
5.4486394 -1.5011988 -0.31568018
5.5280595 -1.5230805 0
6.8938909 -1.8993919 0.39941436
2.2331121 -0.61236072 -0.76350898
2.541218 -0.69684905 -0.72699726
2.9536974 -0.80995852 -0.6784876
3.5270479 -0.96718186 -0.60971648
4.3763013 -1.2000628 -0.50579506
5.4454322 -1.4932384 -0.3153896
5.5374179 -1.5184625 0
6.9312692 -1.9006823 0.40144658
2.1551766 -0.58819038 -0.73661906
2.5323772 -0.69113582 -0.72422862
2.952225 -0.80572063 -0.67792523
3.5257399 -0.96224415 -0.60928893
4.377748 -1.194774 -0.50579506
5.4397197 -1.4846071 -0.31495461
5.516655 -1.5056043 0
6.9360647 -1.8929893 0.40159157
2.217896 -0.60242915 -0.7578066
2.5646818 -0.69662374 -0.73322606
2.9703631 -0.80681568 -0.68186599
3.5244155 -0.95730847 -0.60885972
4.3716979 -1.1874489 -0.5049299
5.4415097 -1.4780332 -0.31495461
5.5084243 -1.4962087 0
6.9408522 -1.8852875 0.40173659
2.213846 -0.59845763 -0.7561751
2.529201 -0.68370593 -0.72284561
2.9811473 -0.80587828 -0.6841175
3.5379674 -0.95640063 -0.61100078
4.3656363 -1.1801401 -0.50406474
5.4432917 -1.4714571 -0.31495461
5.5026889 -1.4875137 0
6.9356074 -1.8748672 0.40130159
2.1382008 -0.57523739 -0.73009932
2.5397158 -0.68325645 -0.72561425
2.9575775 -0.79567325 -0.6784876
3.5217655 -0.947456 -0.60800463
4.3670592 -1.1748643 -0.50406474
5.4350286 -1.4621787 -0.31437406
5.4843864 -1.4754574 0
6.9353514 -1.8658085 0.40115604
2.1651502 -0.57968289 -0.73906159
2.564769 -0.68667424 -0.73253453
2.9511805 -0.79012948 -0.67680055
3.5105116 -0.93988103 -0.60586518
4.3684759 -1.1695867 -0.50406474
5.4468317 -1.4582986 -0.31495461
5.4962115 -1.4715192 0
6.9401178 -1.8581011 0.40130159
2.2119389 -0.58648497 -0.75454676
2.5348985 -0.67211616 -0.72353709
2.9579887 -0.78429651 -0.67792523
3.5177305 -0.93270934 -0.60672027
4.3637867 -1.157037 -0.50319958
5.4578676 -1.4471273 -0.3153896
5.4670515 -1.4495624 0
6.9320221 -1.8379924 0.40057546
2.1313968 -0.56237406 -0.72683948
2.5623851 -0.67609137 -0.7311489
2.9589343 -0.78072178 -0.67792523
3.538712 -0.93369746 -0.61014402
4.3801918 -1.1557239 -0.5049299
5.4420319 -1.4358929 -0.31437406
5.4713225 -1.4436214 0
6.934238 -1.8296151 0.40057546
2.2229121 -0.58364856 -0.7578066
2.5632002 -0.67299473 -0.7311489
2.9672506 -0.7790823 -0.67961442
3.5224643 -0.92485946 -0.60714948
4.3740773 -1.1484593 -0.50406474
5.4487848 -1.4306349 -0.31466407
5.4755778 -1.4376696 0
6.9339328 -1.8205758 0.40043047
2.1925306 -0.57284063 -0.74721283
2.5373182 -0.66292298 -0.72353709
2.9804792 -0.77870727 -0.6824283
3.5409579 -0.92514306 -0.61014402
4.3804717 -1.1444821 -0.50464189
5.4630775 -1.4273336 -0.3153896
5.4949393 -1.4356581 0
6.9336162 -1.81154 0.40028548
2.2290957 -0.57951754 -0.75943494
2.5381174 -0.65985668 -0.72353709
2.9715815 -0.77254808 -0.68017679
3.5321352 -0.91828018 -0.60843217
4.3768401 -1.1378856 -0.50406474
5.4698324 -1.4220403 -0.31568018
5.4891109 -1.4270524 0
6.9282527 -1.8011987 0.39984992
2.2274036 -0.57620531 -0.7586208
2.5534811 -0.66055799 -0.72768873
2.9528334 -0.76386613 -0.67567372
3.5407004 -0.915941 -0.60971648
4.3706975 -1.1306522 -0.50319958
5.4514217 -1.410224 -0.31451905
5.5059438 -1.4243282 0
6.9354606 -1.7941287 0.40014046
2.2065585 -0.56796908 -0.75128686
2.5469956 -0.65559781 -0.72561425
2.9586802 -0.76156563 -0.67680055
3.5318604 -0.90910244 -0.60800463
4.3695579 -1.1247261 -0.50291157
5.4480839 -1.4023392 -0.3142285
5.5051432 -1.4170263 0
6.9350996 -1.7850977 0.39999491
2.2455523 -0.57511395 -0.76432633
2.5453486 -0.65189558 -0.72492009
2.9595983 -0.75799006 -0.67680055
3.5205247 -0.90165031 -0.60586518
4.3709135 -1.1194456 -0.50291157
5.4573283 -1.3976899 -0.31466407
5.5043325 -1.4097283 0
6.9372516 -1.7767166 0.39999491
2.2079246 -0.56263506 -0.75128686
2.5437057 -0.64820063 -0.72422862
2.9678915 -0.75629389 -0.6784876
3.526582 -0.89866239 -0.60672027
4.3647413 -1.1122466 -0.50204641
5.451457 -1.3891692 -0.3142285
5.5161195 -1.4056469 0
6.939393 -1.7683331 0.39999491
2.175066 -0.55146396 -0.73987889
2.5444872 -0.64512658 -0.72422862
2.9688032 -0.75270724 -0.6784876
3.5226934 -0.89313996 -0.60586518
4.3786254 -1.110152 -0.50348872
5.46069 -1.3844976 -0.31466407
5.5253749 -1.4008976 0
6.9339757 -1.7580329 0.39955992
2.2548048 -0.56878215 -0.76676887
2.5695858 -0.64818662 -0.7311489
2.9672492 -0.74849856 -0.67792523
3.5362132 -0.89202166 -0.60800463
4.3824692 -1.1054925 -0.50377673
5.4648762 -1.3785334 -0.31480905
5.5220213 -1.3929484 0
6.9260168 -1.747111 0.39897937
2.1976318 -0.55294806 -0.74721283
2.5553839 -0.64296234 -0.72699726
2.967701 -0.74670577 -0.67792523
3.5317771 -0.88863349 -0.60714948
4.3881478 -1.1041057 -0.50435275
5.4531112 -1.372062 -0.31408349
5.5329571 -1.3921522 0
6.9295883 -1.7435597 0.39912435
2.2342558 -0.55929333 -0.75943494
2.5512962 -0.63865697 -0.72561425
2.9710634 -0.74373579 -0.6784876
3.5353363 -0.88498819 -0.60757703
4.381959 -1.0969203 -0.50348872
5.4547648 -1.365472 -0.31408349
5.5321131 -1.3848343 0
6.929172 -1.734555 0.39897937
2.184567 -0.54405069 -0.74232149
2.566668 -0.63921022 -0.72976589
2.9719598 -0.74014527 -0.6784876
3.5388916 -0.8813355 -0.60800463
4.3757491 -1.0897489 -0.50262356
5.4564109 -1.3588799 -0.31408349
5.5464067 -1.3812928 0
6.9287438 -1.7255539 0.39883435
2.1468468 -0.53190267 -0.72928518
2.5430918 -0.63007629 -0.72284561
2.9802535 -0.73838747 -0.68017679
3.5349753 -0.87582529 -0.60714948
4.3845968 -1.0863276 -0.50348872
5.4504895 -1.3504131 -0.31364849
5.5228057 -1.3683301 0
6.9232545 -1.7153053 0.39839879
2.2554667 -0.55592263 -0.76595467
2.5267978 -0.62279969 -0.71799982
2.9638717 -0.73052877 -0.67623603
3.5310411 -0.87032348 -0.60629272
4.3758612 -1.0785528 -0.50233555
5.4420252 -1.3413388 -0.31306794
5.526989 -1.3622805 0
6.9303632 -1.7081811 0.39868879
2.2105343 -0.54201537 -0.75047266
2.5640996 -0.62870836 -0.72838289
2.9820292 -0.73118323 -0.68017679
3.5395722 -0.86789083 -0.60757703
4.3821802 -1.0744954 -0.50291157
5.4537368 -1.3372374 -0.31364849
5.4957743 -1.3475449 0
6.9374747 -1.7010447 0.39897937
2.2063806 -0.53817147 -0.74884117
2.5380447 -0.61906964 -0.72076845
2.9631622 -0.72276258 -0.67567372
3.528151 -0.86057234 -0.60543764
4.3784547 -1.0679749 -0.50233555
5.447773 -1.3287988 -0.31321293
5.4746456 -1.3353535 0
6.9319491 -1.6908131 0.3985438
2.2118378 -0.53667176 -0.75047266
2.5509787 -0.61895961 -0.72422862
2.9566233 -0.71738368 -0.67398453
3.5316806 -0.85691333 -0.60586518
4.3847642 -1.0639023 -0.50291157
5.4417968 -1.3203765 -0.31277737
5.4813085 -1.3299636 0
6.9289417 -1.6812117 0.3982538
2.1692328 -0.52355969 -0.73580176
2.5492883 -0.61528879 -0.72353709
2.9698448 -0.71679312 -0.67680055
3.5227315 -0.85023624 -0.60415334
4.3785009 -1.0567822 -0.50204641
5.4408646 -1.3131912 -0.31263238
5.4803843 -1.3227296 0
6.9208641 -1.6703995 0.39767325
2.3188648 -0.55671018 -0.78632802
2.5719826 -0.61747837 -0.72976589
2.9707088 -0.71320409 -0.67680055
3.5362349 -0.84897482 -0.60629272
4.3772621 -1.0508877 -0.5017584
5.4424472 -1.3066161 -0.31263238
5.4870348 -1.3173205 0
6.9279261 -1.6632478 0.39796323
0 -0 -0
2.5605283 -0.61145723 -0.72630578
2.9715683 -0.70961404 -0.67680055
3.5422566 -0.84589505 -0.60714948
4.3835654 -1.0468005 -0.50233555
5.4440222 -1.3000389 -0.31263238
5.4835649 -1.3094817 0
