# .PCD v0.7 - Point Cloud Data file format
VERSION 0.7
FIELDS x y z
SIZE 4 4 4
TYPE F F F
COUNT 1 1 1
WIDTH 1571
HEIGHT 1
VIEWPOINT 0 0 0 1 0 0 0
POINTS 1571
DATA ascii
3.5946305 14.775937 0.84939915
0.64899212 2.6818242 -0.90980506
0.7599265 3.1402373 -0.89139003
0.89817947 3.7115388 -0.84594929
1.0742588 4.4391499 -0.76143152
1.3547828 5.5983567 -0.64201087
1.8497111 7.6435442 -0.4392626
3.3328059 13.772123 0
3.5828846 14.805521 0.85085028
0.65269244 2.711442 -0.91958463
0.75026137 3.1167672 -0.88446969
0.89607275 3.7225027 -0.84820086
1.0694945 4.4429383 -0.76185906
1.3510456 5.6125698 -0.64345318
1.8435163 7.6584125 -0.4399887
3.3143373 13.768558 0
3.5716822 14.837631 0.85244691
0.64193434 2.6809833 -0.90899086
0.74415809 3.1079121 -0.88170105
0.88920748 3.7136984 -0.84594929
1.0641252 4.4442272 -0.76185906
1.3448647 5.6167111 -0.64374119
1.8403108 7.6858997 -0.44143984
3.3061812 13.807981 0
3.5634325 14.882368 0.85476917
0.63869441 2.681757 -0.90899086
0.74679643 3.1356571 -0.88931549
0.88471955 3.7147701 -0.84594929
1.0617276 4.4579935 -0.76399845
1.3386756 5.6208458 -0.6440292
1.8340321 7.7007542 -0.44216537
3.2943182 13.832219 0
3.5568838 14.934683 0.85752642
0.63146496 2.6656892 -0.90328532
0.74011391 3.1243439 -0.88585269
0.88198578 3.7232468 -0.84763634
1.0575248 4.4642739 -0.76485521
1.3360569 5.6400795 -0.64604753
1.825925 7.7080264 -0.44245595
3.2889984 13.884297 0
3.5466216 14.971837 0.85941309
0.63504529 2.6953189 -0.91306496
0.73749 3.1301246 -0.88723838
0.87807065 3.7267902 -0.84820086
1.0521299 4.4655485 -0.76485521
1.3298336 5.6442051 -0.64633554
1.8189913 7.7203341 -0.44303593
3.2895272 13.96172 0
3.5404465 15.026696 0.86231583
0.63686275 2.7177398 -0.92039883
0.73027414 3.1163623 -0.88308674
0.8753044 3.7352629 -0.84988791
1.0496613 4.479311 -0.76699466
1.3241919 5.6508393 -0.64691156
1.8114406 7.7301183 -0.44347149
3.2946239 14.059435 0
3.5294013 15.061322 0.86405754
0.62582844 2.7000086 -0.9138791
0.73350251 3.1645465 -0.89623582
0.86685061 3.7398496 -0.85045242
1.0388334 4.4818344 -0.76699466
1.3122848 5.6615844 -0.64777672
1.7980347 7.7572532 -0.44477761
3.31411 14.29805 0
3.5152884 15.165993 0.86957258
0.62034482 2.6911292 -0.91061926
0.72798711 3.1580942 -0.89415866
0.86233109 3.7408943 -0.85045242
1.0334172 4.4830866 -0.76699466
1.3077669 5.6732473 -0.64892989
1.790995 7.7695479 -0.44535819
3.3196306 14.40095 0
3.5057142 15.208203 0.87174922
0.62040734 2.706336 -0.91551059
0.73089755 3.1883156 -0.90246457
0.85781032 3.7419336 -0.85045242
1.0297209 4.4918408 -0.76827896
1.3026453 5.6823893 -0.64979506
1.7850904 7.7869077 -0.44622928
3.3115294 14.445528 0
3.4908202 15.22763 0.87262034
0.61713684 2.7070837 -0.91551059
0.7214694 3.164741 -0.89554429
0.8566758 3.7578266 -0.85382861
1.0231504 4.488071 -0.7674222
1.2992265 5.6990848 -0.65152425
1.7791444 7.804255 -0.44709986
3.5254428 15.46443 0
3.4764593 15.249563 0.87363589
0.61441129 2.7102356 -0.91632479
0.72152597 3.1827302 -0.90038747
0.85157335 3.7563834 -0.8532663
1.020564 4.5018196 -0.76956165
1.2929107 5.7031708 -0.65181226
1.7708633 7.8114719 -0.44739041
3.5073295 15.471214 0
3.4683726 15.299372 0.87624872
0.61059302 2.7085671 -0.91551059
0.70995688 3.1493413 -0.89069849
0.845357 3.7499712 -0.8515771
1.0168177 4.5105643 -0.77084595
1.2871572 5.7097797 -0.65238941
1.7648509 7.8288102 -0.44826096
3.4846282 15.457677 0
3.4573119 15.336502 0.87813538
0.61380726 2.7382441 -0.92529017
0.70889425 3.1624348 -0.89415866
0.84693938 3.7782652 -0.85776937
1.0113668 4.5117898 -0.77084595
1.2819549 5.718905 -0.65325457
1.7599369 7.8512211 -0.44942209
3.4687939 15.474571 0
4.4902 20.031147 1.1466292
0.60296929 2.7052054 -0.9138791
0.70343673 3.1559501 -0.89208418
0.84016234 3.7693658 -0.8555178
1.0081484 4.5230308 -0.7725578
1.2761681 5.7254939 -0.65383059
1.7521454 7.8609533 -0.44985765
3.4466951 15.463505 0
4.474473 20.074602 1.1488065
0.60397846 2.7252364 -0.92039883
0.70016515 3.1592445 -0.89277565
0.83505791 3.7678998 -0.85495549
1.0032374 4.5267496 -0.7729854
1.2703694 5.7320871 -0.65440774
1.7454563 7.8757467 -0.45058319
3.4218154 15.439716 0
4.4597712 20.123119 1.1512736
0.59589875 2.7042432 -0.91306496
0.69742602 3.1649835 -0.89415866
0.83105081 3.771385 -0.8555178
0.99721509 4.525454 -0.7725578
1.2651106 5.7411885 -0.65527177
1.7404121 7.8981504 -0.45174432
3.4098775 15.474339 0
4.4466362 20.179245 1.1541765
0.60373837 2.7556603 -0.9301784
0.69521254 3.1731782 -0.89623582
0.8270365 3.7748661 -0.85608017
0.99339491 4.5341806 -0.77384216
1.2592807 5.7477708 -0.65584892
1.7364274 7.9256253 -0.45319542
3.406214 15.547079 0
4.436708 20.250593 1.1579498
0.59777856 2.7443151 -0.92610437
0.69244474 3.1789138 -0.89761877
0.82409757 3.783313 -0.85776937
0.98846138 4.5378838 -0.7742697
1.2523347 5.7492881 -0.65584892
1.7285093 7.9353366 -0.45363098
3.4062574 15.637636 0
4.4238491 20.309254 1.1609975
0.59812248 2.7619376 -0.9318068
0.68648124 3.16995 -0.89485282
0.82006282 3.786787 -0.85833168
0.98243469 4.5365682 -0.77384216
1.2481235 5.7634339 -0.6572901
1.7211195 7.947578 -0.45421153
3.4055367 15.725675 0
4.4086552 20.357754 1.1634648
0.58289152 2.6994891 -0.91061926
0.68774199 3.1850729 -0.89900446
0.81723911 3.7848005 -0.85776937
0.98131758 4.5446811 -0.77512479
1.2446413 5.7641873 -0.6572901
1.7190593 7.9613132 -0.4549371
3.4015272 15.753163 0
4.4056778 20.403589 1.1659321
0.58844745 2.7412705 -0.92447287
0.68336689 3.1834509 -0.89831293
0.81266534 3.7857852 -0.85776937
0.97905922 4.5609279 -0.77769345
1.2409316 5.7808552 -0.65901929
1.7110751 7.9710088 -0.45537266
3.397784 15.828509 0
4.3881102 20.441923 1.1678187
0.57946211 2.7153976 -0.91551059
0.6852777 3.211256 -0.90592474
0.81074125 3.7991867 -0.86058325
0.97461802 4.5671239 -0.77854854
1.2371855 5.7975326 -0.66074961
1.7030677 7.9806867 -0.45580766
3.4047246 15.954762 0
4.3785892 20.518356 1.171882
0.58233553 2.7451093 -0.92529017
0.67462951 3.1801801 -0.8969273
0.80615008 3.8001635 -0.86058325
0.97069746 4.5758343 -0.77983284
1.2301794 5.7990232 -0.66074961
1.6998941 8.0132418 -0.45754933
3.4043446 16.047962 0
4.3872242 20.681223 1.1808804
0.57952768 2.7482271 -0.92610437
0.67285699 3.1908121 -0.89969593
0.80208153 3.8036187 -0.86114562
0.96463859 4.5744944 -0.7794053
1.2231716 5.8005052 -0.66074961
1.6891391 8.0102091 -0.45725933
3.3978391 16.11318 0
4.3756351 20.750071 1.1845088
0.58127612 2.7731111 -0.93425244
0.67003137 3.1965382 -0.90108162
0.79904932 3.812048 -0.86283481
0.9591105 4.5756564 -0.7794053
1.2188145 5.8146338 -0.66219079
1.6831892 8.0300398 -0.4582749
3.3906474 16.175861 0
4.3660183 20.829092 1.1887177
0.57641208 2.7665501 -0.9318068
0.66719097 3.2022529 -0.90246457
0.79340512 3.8080311 -0.86170793
0.95253277 4.5717812 -0.77854854
1.2112607 5.8135729 -0.66190279
1.6782547 8.0549593 -0.45958102
3.3891468 16.266565 0
4.3413768 20.836893 1.1888627
0.57006252 2.7527277 -0.92691857
0.66281289 3.2006025 -0.9017731
0.78571266 3.7940631 -0.85833168
0.94857019 4.580472 -0.77983284
1.2058072 5.8226228 -0.66276681
1.6743174 8.0849733 -0.46117768
3.3837371 16.339449 0
4.3193588 20.857395 1.1897337
0.56274968 2.7340477 -0.92039883
0.65793258 3.1964817 -0.90038747
0.78573751 3.8174059 -0.86339712
0.94355196 4.5841269 -0.78026038
1.2013797 5.83675 -0.66420913
1.6645471 8.0869904 -0.46117768
3.38288 16.435291 0
4.3067245 20.923672 1.1932166
0.56786633 2.7758882 -0.93425244
0.65809226 3.2169373 -0.90592474
0.78214383 3.8233359 -0.86452401
0.93749821 4.5827513 -0.77983284
1.1969175 5.8508649 -0.66565031
1.6578979 8.1042652 -0.46204823
3.3671894 16.459755 0
4.3012276 21.025593 1.1987315
0.55860263 2.7475076 -0.92447287
0.65920407 3.2423196 -0.9128477
0.77752352 3.8242781 -0.86452401
0.93247116 4.5863938 -0.78026038
1.1893322 5.8497748 -0.6653623
1.6501752 8.1164474 -0.46262881
3.3680391 16.565825 0
4.2939396 21.1199 1.2038116
0.55528235 2.7481806 -0.92447287
0.64882708 3.2111483 -0.90385026
0.77491498 3.8351772 -0.86677551
0.92947221 4.6001053 -0.7824015
1.1863592 5.8714795 -0.66766751
1.6444839 8.1388111 -0.46378991
3.3732736 16.694866 0
4.284369 21.204021 1.2083105
0.5602327 2.7900422 -0.93832648
0.64692217 3.2217684 -0.90661889
0.77028036 3.8361106 -0.86677551
0.92290151 4.5961866 -0.78154474
1.1797744 5.875452 -0.66795665
1.6377188 8.1560831 -0.46466103
3.3638575 16.75251 0
4.2705092 21.267771 1.2116483
0.55396008 2.7761788 -0.9334383
0.64941031 3.254529 -0.91561633
0.76813018 3.8494952 -0.86958939
0.92086405 4.614923 -0.78454089
1.1736856 5.8819413 -0.66853267
1.6283705 8.1606016 -0.46480602
3.3517611 16.797398 0
4.2600613 21.349358 1.2160022
0.54579896 2.7526066 -0.92529017
0.64303625 3.2429998 -0.91215354
0.7624889 3.8454309 -0.86846256
0.91428763 4.6109915 -0.78368413
1.1680871 5.8909688 -0.66939783
1.6220471 8.1804075 -0.46582213
3.3400669 16.844831 0
4.2433596 21.400373 1.2186151
0.54629302 2.7726548 -0.9318068
0.64105713 3.2536201 -0.91492218
0.75686049 3.8413682 -0.86733788
0.90871543 4.612093 -0.78368413
1.1629683 5.9025269 -0.670551
1.613667 8.1900024 -0.46625715
3.3287656 16.894812 0
4.2320652 21.479416 1.2228239
0.54579252 2.7878709 -0.93669814
0.63326931 3.2346961 -0.90938485
0.75417107 3.8522542 -0.86958939
0.90314198 4.6131873 -0.78368413
1.1558353 5.9039278 -0.670551
1.6082624 8.2148943 -0.46756327
3.3228488 16.972885 0
4.2200847 21.555904 1.2268872
0.54006433 2.7763999 -0.9326241
0.62744606 3.2256181 -0.90661889
0.74805987 3.8456779 -0.86790019
0.89756721 4.6142755 -0.78368413
1.1506763 5.9154758 -0.67170417
1.6042889 8.2474394 -0.46930495
3.3132713 17.033094 0
4.2084236 21.634954 1.2310961
0.53858519 2.7867572 -0.93588394
0.6297363 3.258393 -0.91561633
0.74389428 3.8490713 -0.86846256
0.89491469 4.6304841 -0.7862528
1.1435276 5.9168615 -0.67170417
1.5962946 8.2595768 -0.4698855
3.3070066 17.111174 0
4.1931252 21.696146 1.2342889
0.53242028 2.7728379 -0.9309926
0.62910885 3.2763908 -0.92045945
0.74259728 3.8674369 -0.87240326
0.88883352 4.6290336 -0.78582358
1.1378392 5.9258518 -0.6725682
1.5892543 8.2768154 -0.47075662
3.2932 17.150944 0
4.1781769 21.759892 1.2376273
0.52906942 2.773479 -0.9309926
0.62091911 3.2549717 -0.91423064
0.73839933 3.8708248 -0.87296563
0.88468313 4.6376715 -0.78710788
1.1331029 5.9399333 -0.67401052
1.5836338 8.3016987 -0.47206274
3.2875903 17.234152 0
4.1664872 21.841492 1.2419811
0.52571785 2.7741163 -0.9309926
0.61511719 3.2458601 -0.91146201
0.73230189 3.8642225 -0.87127644
0.88003564 4.6437864 -0.78796464
1.1278511 5.9514632 -0.67516369
1.5745684 8.3087072 -0.47235271
3.2788775 17.302032 0
4.1488008 21.89246 1.2445934
0.52053642 2.7650337 -0.92773277
0.60980189 3.2392023 -0.90938485
0.72857326 3.8701034 -0.87240326
0.87584728 4.6524072 -0.78924733
1.1216153 5.9579 -0.67573971
1.5674131 8.3259306 -0.47322384
3.2627828 17.331553 0
4.125711 21.915335 1.2456095
0.52355653 2.7996783 -0.93914384
0.60819459 3.252274 -0.9128477
0.72296143 3.8659809 -0.87127644
0.87258404 4.6660762 -0.79138672
1.1153673 5.9643407 -0.67631686
1.5611728 8.3482513 -0.47438496
3.253798 17.399435 0
4.1025696 21.938175 1.2466251
0.52050596 2.7927024 -0.93669814
0.60944599 3.2698977 -0.91769081
0.7234199 3.8814089 -0.87465483
0.87023658 4.6691337 -0.79181594
1.1117637 5.9650135 -0.67631686
1.5575558 8.3568497 -0.47481996
3.2509151 17.442333 0
3.3085473 17.751551 1.0086087
0.51353174 2.7738869 -0.9301784
0.60458201 3.2657027 -0.91630781
0.71780348 3.8772786 -0.87352794
0.86178952 4.6550317 -0.78924733
1.105496 5.9714341 -0.67689288
1.5498217 8.3714981 -0.47554553
2.8887532 15.603854 0
3.28757 17.758099 1.0087543
0.51241422 2.7866573 -0.93425244
0.60108888 3.2688959 -0.91699934
0.71449703 3.8856425 -0.87521714
0.85755742 4.6636462 -0.79053164
1.1006184 5.9854822 -0.67833406
1.543936 8.3963728 -0.47685218
2.8694267 15.604776 0
3.2628205 17.744165 1.0077381
0.51037925 2.7945709 -0.93669814
0.59849125 3.2770262 -0.91907644
0.7098015 3.886503 -0.87521714
0.8533057 4.6722574 -0.79181594
1.0938495 5.9893498 -0.67862207
1.5375224 8.4186716 -0.47801274
2.8477631 15.592866 0
3.2367103 17.722538 1.006287
0.50479704 2.7830281 -0.9326241
0.59676945 3.290087 -0.92253661
0.70555794 3.8898556 -0.87577951
0.84949219 4.6833882 -0.79352778
1.0898435 6.0084844 -0.6806404
1.5310589 8.4409771 -0.47917387
2.8252041 15.575809 0
3.2111185 17.703419 1.0049803
0.50318664 2.793366 -0.93588394
0.59234923 3.2883389 -0.92184514
0.70265913 3.9007077 -0.87803108
0.84519655 4.6919832 -0.79481047
1.0848749 6.022522 -0.68208158
1.5236235 8.458169 -0.48004499
3.185154 17.68191 0
3.1888046 17.702175 1.0046903
0.50764441 2.8377609 -0.95055175
0.58704972 3.2816412 -0.91976798
0.69839239 3.9040527 -0.87859339
0.83907503 4.6904769 -0.79438293
1.077142 6.0212846 -0.68179357
1.51752 8.4830227 -0.48135111
3.1605797 17.66782 0
3.1683269 17.711126 1.0049803
0.49859574 2.8067391 -0.93995798
0.58264571 3.2798805 -0.91907644
0.69367456 3.9048939 -0.87859339
0.83250976 4.6864371 -0.79352778
1.0707713 6.0276799 -0.68237072
1.5095407 8.4976397 -0.48207664
3.1374087 17.661377 0
3.1487422 17.725176 1.0055609
0.49348658 2.7976034 -0.93669814
0.58173162 3.2978694 -0.92391962
0.68851477 3.9032292 -0.87803108
0.82907575 4.7000771 -0.79566723
1.0666312 6.046792 -0.68438792
1.5046885 8.5301647 -0.48381832
3.1196828 17.685658 0
3.1273224 17.728968 1.0055609
0.49138552 2.8055036 -0.93914384
0.57385135 3.2763319 -0.91769081
0.68511355 3.9115691 -0.87972027
0.82339603 4.7010756 -0.79566723
1.0602173 6.0531769 -0.68496507
1.4970694 8.547328 -0.48468888
3.0978606 17.686844 0
2.7212803 15.536807 0.88103759
0.49053526 2.8207009 -0.94403207
0.57247198 3.2918577 -0.92184514
0.68256295 3.9249084 -0.88253415
0.81815451 4.7045937 -0.79609478
1.0533452 6.0569992 -0.68525308
1.4889678 8.5619383 -0.48541501
3.0764871 17.690573 0
2.7020605 15.537526 0.88089257
0.48712665 2.8212914 -0.94403207
0.56763947 3.2875979 -0.92045945
0.67652261 3.9182162 -0.88084495
0.81552714 4.723289 -0.79909098
1.047786 6.0684628 -0.68640625
1.4808314 8.5765314 -0.48614055
3.0555534 17.69685 0
2.6815159 15.530538 0.88031203
0.48330012 2.8194444 -0.94321787
0.56705755 3.308063 -0.92599678
0.67221826 3.9215424 -0.88140947
0.80981934 4.7242708 -0.79909098
1.0435104 6.0875621 -0.68842345
1.4748565 8.6039209 -0.48759168
3.0297701 17.674873 0
2.6609924 15.523521 0.87973148
0.48362437 2.841953 -0.95055175
0.56348044 3.3112166 -0.92668825
0.66747934 3.9223518 -0.88140947
0.80368018 4.7227178 -0.79866344
1.0348535 6.0811763 -0.68755943
1.466203 8.615943 -0.48817223
3.0053563 17.66057 0
3.0301826 17.806458 1.0088992
0.47771913 2.8279083 -0.94566041
0.55822664 3.304481 -0.92461377
0.66231501 3.9206429 -0.88084495
0.8001107 4.7363386 -0.80080283
1.0309515 6.1028252 -0.68986577
1.4614176 8.6510134 -0.4900589
2.9796791 17.638521 0
3.0086648 17.810106 1.0088992
0.4759368 2.8382337 -0.94892025
0.55464792 3.3076248 -0.92530525
0.65841842 3.9264569 -0.88197178
0.79481125 4.7398314 -0.80123037
1.0218657 6.093863 -0.6887126
1.4531116 8.6655846 -0.49078447
2.9579341 17.639545 0
2.9880011 17.818848 1.0091892
0.47047836 2.8266187 -0.94484621
0.55106241 3.310765 -0.92599678
0.6545071 3.9322577 -0.88309646
0.79034835 4.7483873 -0.80251473
1.0166246 6.1078477 -0.69015378
1.4456267 8.6852789 -0.49180058
2.9297812 17.602032 0
2.9664683 17.822447 1.0091892
0.46706259 2.8271852 -0.94484621
0.54747009 3.3139012 -0.92668825
0.65017062 3.9355597 -0.88366097
0.78628397 4.75947 -0.80422658
1.0121952 6.1269374 -0.69217211
1.4380963 8.7049675 -0.49281669
2.9068139 17.595287 0
2.952131 17.869598 1.0116564
0.46404567 2.8301842 -0.94566041
0.54427814 3.3195164 -0.92807388
0.64664698 3.9438574 -0.88534802
0.78053254 4.7604165 -0.80422658
1.0077195 6.1460152 -0.69418931
1.4300989 8.7220793 -0.49368724
2.8884993 17.616766 0
3.8874004 23.709 1.3419771
0.46142033 2.8356266 -0.94729191
0.54026675 3.3201718 -0.92807388
0.64106572 3.939625 -0.88422334
0.77560371 4.7664189 -0.80508167
0.99821585 6.1344666 -0.69274813
1.4203928 8.7289248 -0.49397725
2.8672106 17.620245 0
3.860419 23.723938 1.3425577
0.45681125 2.8288596 -0.94484621
0.53545392 3.3158641 -0.92668825
0.63711435 3.9454086 -0.88534802
0.77066314 4.7724257 -0.80593842
0.99204022 6.1433306 -0.69361329
1.4156446 8.7665529 -0.49600947
2.8438439 17.610851 0
3.839206 23.774754 1.3451699
0.45417568 2.8342953 -0.94647771
0.53462255 3.3363259 -0.93222553
0.63114166 3.9386561 -0.88366097
0.76611334 4.7809505 -0.80722111
0.98707116 6.1598434 -0.69534248
1.407517 8.7836466 -0.49688005
2.8262682 17.6374 0
3.8223987 23.853779 1.3493788
0.45230314 2.8446057 -0.94973761
0.53019726 3.3344941 -0.93153405
0.62797815 3.9494534 -0.88591254
0.76114297 4.7869482 -0.80807787
0.98125213 6.1712494 -0.69649565
1.3993516 8.8007431 -0.49775115
2.8131282 17.692207 0
3.8164217 24.002077 1.357506
0.44963527 2.8500283 -0.95136595
0.52734107 3.3425691 -0.93361121
0.62320554 3.9502094 -0.88591254
0.75455743 4.7827878 -0.80722111
0.97460157 6.1775451 -0.6970728
1.3907409 8.815258 -0.49847671
2.791342 17.693014 0
3.8019948 24.099073 1.3627311
0.44619122 2.8505695 -0.95136595
0.52524132 3.3555944 -0.93707132
0.61843204 3.9509594 -0.88591254
0.75195366 4.8039856 -0.81064487
0.97073597 6.201714 -0.69966716
1.3837045 8.8400345 -0.49978283
2.7780106 17.747799 0
3.7805068 24.152418 1.3654883
0.44599193 2.8606069 -0.95462579
0.52166802 3.3459959 -0.93430269
0.61682701 3.9563487 -0.88703722
0.74786448 4.7968273 -0.80936056
0.96738708 6.2048526 -0.69995517
1.3807645 8.8562689 -0.50065339
2.7696939 17.764908 0
3.7779222 24.231716 1.3698423
0.43795279 2.8543451 -0.95218015
0.51396066 3.3497241 -0.93499422
0.60919064 3.9703829 -0.88985109
0.73977524 4.8214645 -0.81321347
0.95395863 6.2173986 -0.70110834
1.3640872 8.8903999 -0.50239503
2.73228 17.807558 0
3.746542 24.417982 1.3798562
0.43636405 2.8670964 -0.95625728
0.50764865 3.3354661 -0.93084258
0.60477471 3.9736257 -0.89041346
0.73433477 4.8248901 -0.81364101
0.9483909 6.2313294 -0.70254952
1.3580357 8.9228687 -0.50413674
2.7095859 17.803125 0
3.7311101 24.514971 1.3850812
0.4306851 2.8529534 -0.95136595
0.50661385 3.3559225 -0.93637985
0.60073221 3.9793832 -0.89154029
0.72926998 4.8308458 -0.81449616
0.93970227 6.2247958 -0.70168436
1.3472531 8.9245024 -0.50413674
2.6904039 17.821831 0
3.7131212 24.596537 1.3894351
0.42833585 2.8608072 -0.95381165
0.50144374 3.3490865 -0.93430269
0.59517026 3.9750755 -0.89041346
0.72381204 4.8342595 -0.8149237
0.93294686 6.2310476 -0.70226151
1.3430092 8.9698086 -0.50660396
2.9239652 19.528837 0
3.6960952 24.685806 1.3942245
0.42705628 2.8759868 -0.95869988
0.49850246 3.357137 -0.93637985
0.59074098 3.9783123 -0.89097792
0.71834838 4.837677 -0.81535292
0.92617625 6.2372823 -0.70283753
1.3333154 8.9791374 -0.50703955
2.9061005 19.570972 0
3.6723711 24.731379 1.3965468
0.42178088 2.8642769 -0.95462579
0.49627274 3.3701446 -0.93984002
0.5866732 3.984046 -0.89210266
0.71250248 4.8385415 -0.81535292
0.92240787 6.2639904 -0.70572102
1.3243573 8.9935932 -0.50776505
2.8949621 19.659433 0
3.6515691 24.797485 1.4000295
0.42153338 2.8867931 -0.96195972
0.49147454 3.365772 -0.93845433
0.58222562 3.9872639 -0.89266497
0.70739663 4.8444743 -0.816208
0.91409022 6.2599769 -0.70514387
1.3198715 9.0388947 -0.51023233
2.8847413 19.755613 0
3.6276107 24.843018 1.4023519
0.4166283 2.8775158 -0.95869988
0.48704815 3.363883 -0.93776286
0.57813621 3.9929986 -0.89379179
0.70227891 4.8504119 -0.81706476
0.90986085 6.2841125 -0.70773822
1.3089489 9.0404835 -0.51023233
2.8683267 19.810598 0
3.6113665 24.942532 1.4077219
0.41280019 2.8755729 -0.95788568
0.48476532 3.376883 -0.94122297
0.57367176 3.996207 -0.89435416
0.69787675 4.8614206 -0.81877661
0.9022671 6.2852073 -0.70773822
1.3020861 9.0703535 -0.51182896
2.8588088 19.914509 0
3.59341 25.031754 1.4125113
0.41037044 2.8834128 -0.96033138
0.47856441 3.3625689 -0.93707132
0.56991708 4.004446 -0.89604336
0.69200212 4.8622603 -0.81877661
0.89576566 6.2939773 -0.70860338
1.2914912 9.0744905 -0.51197398
2.8483114 20.013279 0
3.5730457 25.105528 1.4164296
0.40274253 2.8545382 -0.95055175
0.47555286 3.3705995 -0.93914849
0.56472343 4.0026183 -0.89548099
0.68791938 4.8758001 -0.82091606
0.88815993 6.2950554 -0.70860338
1.2852443 9.1094904 -0.51386064
2.8306708 20.063086 0
3.5557766 25.202454 1.4216547
0.40305781 2.8819413 -0.95951402
0.47530112 3.398495 -0.9467603
0.55918211 3.9982603 -0.89435416
0.68344963 4.886797 -0.8226279
0.88449401 6.3243032 -0.71177489
1.2781943 9.1393366 -0.5154568
2.8291349 20.228861 0
3.5645485 25.487209 1.4374737
0.39753965 2.8677418 -0.95462579
0.47016191 3.391619 -0.94468582
0.5557462 4.0090003 -0.89660573
0.67542881 4.8723578 -0.8200593
0.87436527 6.3074312 -0.70975655
1.2696482 9.1588936 -0.51647288
2.8104079 20.273512 0
3.5594375 25.676805 1.4479231
0.39710173 2.8902552 -0.96195972
0.46708691 3.3996336 -0.9467603
0.55021065 4.0046391 -0.89548099
0.67024052 4.8782616 -0.82091606
0.8692081 6.3264222 -0.71177489
1.2607033 9.1758718 -0.517344
2.7993696 20.374863 0
3.5471547 25.81752 1.4556154
0.39060828 2.8686941 -0.95462579
0.46264061 3.397712 -0.94606876
0.5457139 4.0078163 -0.89604336
0.66642302 4.8943248 -0.82348305
0.86191183 6.3300285 -0.7120629
1.2513677 9.190259 -0.51806957
2.7775576 20.398859 0
3.5310304 25.932491 1.4618559
0.39077759 2.8961098 -0.96359122
0.45954156 3.4057298 -0.94814593
0.54222989 4.0185452 -0.89829493
0.65982282 4.8900433 -0.8226279
0.85737509 6.3541322 -0.71465725
1.2437361 9.2175112 -0.5195207
2.7654345 20.495039 0
3.5260994 26.132439 1.472886
0.3885881 2.9063792 -0.96685106
0.45509392 3.4037981 -0.94745445
0.53636336 4.0116396 -0.89660573
0.65595418 4.9060988 -0.8251949
0.84901184 6.3500409 -0.71408123
1.2343191 9.2318821 -0.52024627
2.7523937 20.586065 0
3.5086391 26.242275 1.4788365
0.38377768 2.8970459 -0.96359122
0.45229733 3.4142842 -0.95022041
0.53285044 4.0223603 -0.89885724
0.65036243 4.90943 -0.82562244
0.84371513 6.3690033 -0.71609843
1.2289641 9.2771549 -0.52271348
2.7299101 20.607437 0
3.4868236 26.321196 1.4830455
0.38091952 2.9024038 -0.96521956
0.44621339 3.3999083 -0.94606876
0.5279898 4.0230012 -0.89885724
0.64576602 4.9203935 -0.82733434
0.83635509 6.3725801 -0.71638644
1.2207963 9.3018179 -0.5240196
2.7060232 20.618456 0
3.4648211 26.400091 1.4872538
0.37709391 2.9004133 -0.96440542
0.44404504 3.4153674 -0.95022041
0.52345568 4.0261536 -0.89941961
0.6411441 4.9313526 -0.82904619
0.83098906 6.3915429 -0.71840477
1.2119015 9.3213263 -0.52503568
2.6639965 20.490097 0
3.4396195 26.455793 1.4901567
0.37516722 2.9131215 -0.96847945
0.43767571 3.3984909 -0.94537729
0.5192402 4.0318279 -0.90054643
0.63649666 4.9423079 -0.83075809
0.82590848 6.4130645 -0.72071111
1.2019652 9.3330927 -0.52561629
0 0 0
3.4119647 26.493431 1.4920433
0.37102214 2.9086738 -0.96685106
0.43483874 3.4089718 -0.94814593
0.51404572 4.0299249 -0.89998192
0.63084888 4.9456172 -0.83118564
0.81848592 6.4166212 -0.72099912
1.1933174 9.3551588 -0.52677739
2.5746298 20.184126 0
3.3809366 26.50527 1.4924788
0.36719665 2.9066608 -0.96603376
0.43166173 3.4169545 -0.95022041
0.51076919 4.0431542 -0.902798
0.62455118 4.9438314 -0.83075809
0.81040823 6.4150419 -0.72071111
1.1855954 9.3849535 -0.52837408
2.5433898 20.133003 0
3.3498852 26.517071 1.4929144
0.36429846 2.9120121 -0.96766526
0.4275327 3.4174736 -0.95022041
0.50588346 4.0437689 -0.902798
0.61921501 4.9496818 -0.83161485
0.80329788 6.4211445 -0.72128713
1.1765115 9.4044209 -0.52938962
2.5148616 20.102493 0
3.3220348 26.554615 1.494801
0.36162281 2.9048712 -0.96521956
0.42546794 3.4177313 -0.95022041
0.50249833 4.0365067 -0.9011088
0.61749303 4.9602447 -0.8333267
0.80165529 6.4395976 -0.72330546
1.174361 9.4334955 -0.53098631
2.5139678 20.194391 0
3.3233247 26.695854 1.5026383
0.35750842 2.9004047 -0.96359122
0.42164576 3.4207399 -0.95091456
0.49762064 4.0371113 -0.9011088
0.61181283 4.9635324 -0.83375424
0.79450715 6.4457006 -0.72388262
1.1639155 9.442647 -0.53142184
2.4876554 20.181921 0
3.3209445 26.942255 1.5162807
0.35520121 2.9106481 -0.96685106
0.4181194 3.4262228 -0.95229757
0.4939734 4.0477982 -0.90336031
0.60643625 4.9693599 -0.83460939
0.78703123 6.4492207 -0.72417063
1.1572257 9.482729 -0.53359854
2.4629514 20.182322 0
3.3104196 27.126785 1.5264395
0.35257244 2.9184294 -0.96929359
0.41458154 3.4317114 -0.95368326
0.48969099 4.0534325 -0.90448499
0.60166287 4.9802828 -0.83632123
0.78109872 6.465569 -0.72589982
1.1473248 9.4970169 -0.53432405
2.4532328 20.306711 0
3.2969615 27.290701 1.5354379
0.34875265 2.9164016 -0.96847945
0.40983832 3.4272232 -0.95229757
0.48569822 4.0615921 -0.90617418
0.59625489 4.9861093 -0.83717799
0.77543586 6.484488 -0.72791815
1.1389346 9.5242014 -0.53577572
2.4425995 20.425941 0
3.2720048 27.361742 1.5392113
0.34668076 2.9290907 -0.97255349
0.40687639 3.4376814 -0.9550662
0.48138812 4.0672274 -0.90730107
0.59143662 4.9970231 -0.83888984
0.76942354 6.5008264 -0.72964734
1.1298678 9.5462046 -0.53693628
2.4197531 20.444389 0
3.2502413 27.461149 1.5445813
0.34314126 2.9295075 -0.97255349
0.40097171 3.4232249 -0.95091456
0.47706395 4.0728488 -0.90842575
0.5850988 4.9951768 -0.83846068
0.76036435 6.4914761 -0.72849417
1.122867 9.586277 -0.53911352
2.3980753 20.473143 0
3.2288461 27.565701 1.5502412
0.33874837 2.9225616 -0.97011095
0.39799052 3.4336753 -0.95368326
0.47214234 4.073422 -0.90842575
0.58083659 5.0111852 -0.84102929
0.75281876 6.4949665 -0.72878331
1.1157709 9.6263466 -0.54129076
2.3646464 20.401056 0
3.2089987 27.685732 1.5567725
0.33465302 2.9180532 -0.96847945
0.39498469 3.4441233 -0.95645189
0.46808887 4.0815654 -0.91011494
0.57478118 5.0118833 -0.84102929
0.74614912 6.5061498 -0.72993648
1.1044344 9.6302671 -0.54143578
2.3284304 20.30307 0
3.1876807 27.79542 1.5627224
0.3325198 2.9307323 -0.97255349
0.39251927 3.4595499 -0.96060354
0.46258327 4.0770736 -0.90898812
0.56843573 5.010026 -0.84060174
0.74032748 6.5250292 -0.73195368
1.0942616 9.6445017 -0.54216135
2.286587 20.153307 0
3.1637597 27.884451 1.5675119
0.32704943 2.9139457 -0.96685106
0.38777971 3.4550402 -0.95922053
0.45737347 4.0751071 -0.90842575
0.56266773 5.0132575 -0.84102929
0.7318663 6.5207834 -0.73137766
1.086955 9.6845531 -0.54433858
2.2596219 20.132782 0
3.1367307 27.947647 1.5708503
0.32516396 2.9290731 -0.97173929
0.38498843 3.4679711 -0.96268064
0.45413074 4.0908041 -0.91180199
0.55745977 5.0215907 -0.84231359
0.7276963 6.5550795 -0.73512518
1.0784051 9.7142601 -0.54593468
2.2304122 20.091528 0
3.1129928 28.0418 1.5759298
0.32243398 2.9368367 -0.97418499
0.3791545 3.4534662 -0.95852637
0.44946554 4.0938826 -0.91236651
0.55195153 5.027359 -0.84316874
0.71921015 6.550807 -0.73454803
1.0680841 9.7284679 -0.54666024
2.2010212 20.047638 0
2.6069732 23.745184 1.3342849
0.31701753 2.9200215 -0.96847945
0.37471089 3.4514301 -0.95783484
0.44369557 4.0868421 -0.91067731
0.5472616 5.0407801 -0.84530813
0.71241093 6.5619569 -0.7357012
1.0585721 9.7504177 -0.54782134
2.1739874 20.024414 0
2.5796819 23.76123 1.3350104
0.31533587 2.9376073 -0.97418499
0.37080774 3.4543724 -0.95852637
0.4401128 4.1000047 -0.91349119
0.54254007 5.0541973 -0.84744757
0.70669001 6.5833864 -0.73800755
1.0503949 9.7852745 -0.54970801
2.1492352 20.021856 0
2.5487504 23.743662 1.3338493
0.31126395 2.9330659 -0.97255349
0.36689904 3.45732 -0.95922053
0.43676779 4.1156988 -0.91686958
0.53589141 5.0497489 -0.84659243
0.6998266 6.5945234 -0.73916072
1.0410383 9.8097887 -0.55101413
2.1181755 19.959742 0
2.5189621 23.736389 1.3332688
0.30823591 2.9383607 -0.97418499
0.36219731 3.4527657 -0.95783484
0.43232411 4.1212726 -0.91799426
0.53086066 5.0606046 -0.84830433
0.69293725 6.6056538 -0.74031389
1.0310822 9.8291321 -0.55203027
2.0888975 19.913107 0
2.491364 23.749752 1.3338493
0.30544916 2.9460993 -0.97662753
0.35880145 3.4606895 -0.959912
0.42734405 4.1217923 -0.91799426
0.52474546 5.0612426 -0.84830433
0.68415463 6.5987659 -0.73944873
1.0232246 9.8691425 -0.5542075
2.0447066 19.721478 0
2.4618621 23.744999 1.3334143
0.30264515 2.9538448 -0.97907323
0.3558979 3.4735966 -0.96337217
0.42236334 4.1223054 -0.91799426
0.51941478 5.0695362 -0.84958863
0.67855322 6.6227422 -0.74204308
1.0120927 9.8781185 -0.5546425
2.0113273 19.630741 0
2.4368763 23.78414 1.335446
0.29832873 2.9468288 -0.97662753
0.35170048 3.4740241 -0.96337217
0.41712636 4.1202874 -0.91743189
0.51277125 5.0650473 -0.84873188
0.67029017 6.6209865 -0.74175507
1.0030354 9.9077749 -0.55623913
1.9826251 19.583958 0
2.4099684 23.805166 1.3364621
0.295506 2.9545674 -0.97907323
0.34750256 3.4744465 -0.96337217
0.41315898 4.1309013 -0.91968346
0.50818408 5.0809941 -0.85130048
0.66306198 6.6295152 -0.74262023
0.99675173 9.9658566 -0.55943197
1.9558533 19.555275 0
2.3809435 23.805468 1.3363166
0.29315054 2.9672182 -0.98314726
0.3433041 3.4748638 -0.96337217
0.40766719 4.1263356 -0.91855657
0.50254864 5.086709 -0.85215563
0.65683132 6.6483316 -0.74463856
0.98675299 9.9877405 -0.56059307
1.9299206 19.534317 0
2.3521774 23.808327 1.3363166
0.28932521 2.9651127 -0.98233306
0.33934855 3.4777706 -0.96406364
0.40391457 4.1394672 -0.92137045
0.49715009 5.0949798 -0.85343993
0.64929956 6.654264 -0.74521458
0.97468406 9.988925 -0.56059307
1.9047987 19.521088 0
2.3229039 23.805984 1.3360265
0.28550541 2.9630022 -0.98151886
0.33538651 3.4806731 -0.96475518
0.3996439 4.147542 -0.92305964
0.49173138 5.1032348 -0.85472262
0.64200318 6.6627698 -0.74607974
0.96834511 10.049577 -0.56393087
1.8802116 19.513014 0
2.2968791 23.837227 1.3376232
0.2839506 2.9656322 -0.98233306
0.33328357 3.480875 -0.96475518
0.39713806 4.1477828 -0.92305964
0.48913798 5.1086469 -0.85557938
0.63847029 6.6683006 -0.74665576
0.96450311 10.073447 -0.56523752
1.8681746 19.511559 0
2.2829721 23.843779 1.3379133
0.27966899 2.9585888 -0.97988737
0.32907739 3.4812751 -0.96475518
0.39308247 4.1583781 -0.92531121
0.48441386 5.1245632 -0.85814631
0.63089979 6.6742225 -0.74723291
0.95257491 10.07719 -0.56538254
1.8433729 19.500849 0
2.2551379 23.856869 1.3384938
0.27632421 2.9613926 -0.98070472
0.32557017 3.4891663 -0.96683228
0.38805759 4.1588502 -0.92531121
0.47774494 5.120038 -0.85729122
0.6228348 6.6749797 -0.74723291
0.94232917 10.099031 -0.56654364
1.8198086 19.503061 0
2.2335517 23.937187 1.3428477
0.27410522 2.9764869 -0.9855929
0.32158378 3.492053 -0.96752381
0.38326493 4.1618438 -0.92587358
0.471558 5.1206112 -0.85729122
0.61571771 6.6860299 -0.74838609
0.93060189 10.105332 -0.56683362
1.7960023 19.502647 0
2.2067711 23.963154 1.3441538
0.26983726 2.969429 -0.98314726
0.31781861 3.4974408 -0.96890944
0.37846649 4.1648417 -0.92643803
0.46606758 5.1288495 -0.85857552
0.61068124 6.7202525 -0.75213361
0.92426962 10.171142 -0.57046199
1.770081 19.478889 0
2.1808715 23.999441 1.3460405
0.26647043 2.9722219 -0.98396456
0.31404001 3.502815 -0.97029245
0.37343383 4.1652961 -0.92643803
0.46055707 5.1370721 -0.85985821
0.60209829 6.7158284 -0.75155646
0.91360348 10.190371 -0.57147813
1.7472408 19.488794 0
2.1514077 23.996887 1.3457505
0.26505575 2.9971569 -0.99211264
0.3089233 3.4931958 -0.96752381
0.36884785 4.1708012 -0.92756277
0.45525414 5.1478529 -0.86157006
0.5951221 6.7294307 -0.75299764
0.90426528 10.225113 -0.57336479
1.722545 19.477932 0
2.1240122 24.01758 1.346766
0.25928694 2.972857 -0.98396456
0.30579278 3.5060701 -0.9709866
0.36469108 4.1813688 -0.92981428
0.44903362 5.1483994 -0.86157006
0.58923823 6.7559171 -0.75588113
0.89687616 10.283143 -0.57655758
1.6985558 19.474808 0
2.1044722 24.128847 1.3528616
0.25632936 2.9805486 -0.9864071
0.30155617 3.5064371 -0.9709866
0.35985595 4.1843357 -0.93037665
0.4432528 5.1540585 -0.86242682
0.5824039 6.7720809 -0.75761032
0.88422793 10.281632 -0.57641256
1.6752459 19.479437 0
2.1073751 24.504152 1.3737606
0.25272778 2.9808562 -0.9864071
0.29689479 3.5017943 -0.96960098
0.35565835 4.1948948 -0.93262815
0.43724146 5.1571455 -0.86285436
0.57334673 6.7624707 -0.75645715
0.8753162 10.32412 -0.57873482
1.6512682 19.476265 0
2.0722783 24.441965 1.3701328
0.24850892 2.9737775 -0.98396456
0.29329032 3.5096531 -0.97167808
0.34974301 4.1851931 -0.93037665
0.43271995 5.1781354 -0.86627811
0.56496 6.7605834 -0.75616914
0.86608613 10.364004 -0.58091146
1.6270834 19.470463 0
2.0284619 24.273554 1.3605539
0.24552348 2.9814582 -0.9864071
0.28904936 3.510005 -0.97167808
0.34572825 4.1982718 -0.93319052
0.42688385 5.1837664 -0.86713326
0.55933809 6.7921944 -0.75962865
0.85590869 10.393532 -0.58250815
1.6037693 19.475006 0
1.989961 24.164639 1.3543133
0.24272028 2.9916067 -0.989667
0.28561953 3.5203538 -0.97444677
0.34024465 4.1936264 -0.93206584
0.42041257 5.1817222 -0.86670566
0.55238521 6.8083282 -0.76135784
0.84587109 10.425637 -0.58424979
1.5783424 19.453587 0
1.9571893 24.122997 1.3518461
0.23989291 3.0017529 -0.99292684
0.28176498 3.5256932 -0.97582972
0.33578464 4.2016354 -0.93375504
0.41374254 5.1771135 -0.86585057
0.54518831 6.8218794 -0.76279902
0.83596396 10.460322 -0.58613652
0.92439431 11.566841 0
1.9243144 24.078728 1.3492339
0.23568377 2.9946463 -0.99048114
0.27691397 3.5185256 -0.97375262
0.33090672 4.2045684 -0.93431735
0.40869477 5.1929598 -0.86841756
0.53613406 6.8122292 -0.76164699
0.82434326 10.474275 -0.58686203
0.91184688 11.586113 0
1.8986841 24.125069 1.351701
0.22901027 3.0026028 -0.99292684
0.26955539 3.5341983 -0.97790688
0.32113105 4.2104182 -0.93544203
0.39692515 5.2041707 -0.87012941
0.52242345 6.849606 -0.76568252
0.8063401 10.572098 -0.59223205
0.88226181 11.567523 0
1.8429465 24.163267 1.3535877
0.22427247 2.9880939 -0.9880386
0.26565996 3.5395203 -0.97928989
0.31642407 4.2158756 -0.93656892
0.39063662 5.2046466 -0.87012941
0.51317894 6.8373384 -0.76424134
0.79317582 10.567877 -0.59194154
0.86828405 11.568581 0
1.815693 24.191383 1.3550389
0.22066179 2.9883628 -0.9880386
0.26138297 3.5398386 -0.97928989
0.3115167 4.2187862 -0.93713123
0.38491485 5.2127976 -0.87141371
0.50567883 6.8482714 -0.76539451
0.78308457 10.605102 -0.59397322
0.85353845 11.55924 0
1.7870353 24.201336 1.3554745
0.21830347 3.0058758 -0.99374104
0.25674248 3.5351522 -0.97790688
0.30678734 4.2242332 -0.93825811
0.37954548 5.226058 -0.87355316
0.49946401 6.8772464 -0.76856488
0.77234042 10.634551 -0.59556985
0 0 0
1.7585443 24.213844 1.356055
0.2153755 3.0159988 -0.99700087
0.25247073 3.53546 -0.97790688
0.30222541 4.2321968 -0.93994516
0.37396193 5.2367549 -0.875265
0.49189076 6.8881645 -0.76971805
0.76430196 10.70286 -0.59934324
0.82041132 11.488585 0
1.7313209 24.244453 1.3576511
0.21103881 3.0063946 -0.99374104
0.24802314 3.5332623 -0.97721541
0.29746759 4.2376328 -0.94107199
0.36745447 5.2346444 -0.87483746
0.48284292 6.8784337 -0.76856488
0.75155085 10.706365 -0.5994882
0.80488902 11.466205 0
1.7042084 24.277634 1.3593928
0.20655571 2.9943211 -0.989667
0.2451349 3.553582 -0.98275268
0.29252172 4.2405219 -0.94163436
0.36183581 5.2453289 -0.87654936
0.47702366 6.9151416 -0.77260154
0.74165356 10.751331 -0.60195541
0 0 0
1.6761242 24.297823 1.3604089
0.20343901 3.0019686 -0.99211264
0.24117985 3.5588768 -0.98413569
0.28791323 4.2484798 -0.94332349
0.35619187 5.2560067 -0.87826121
0.46919185 6.9234471 -0.77346557
0.73077041 10.78333 -0.60369712
0.77612191 11.452541 0
1.6465876 24.29723 1.3602633
0.20261875 3.0168827 -0.99700087
0.23869379 3.5540204 -0.98275268
0.28432453 4.2334371 -0.93994516
0.35284385 5.2536526 -0.877832
0.46448949 6.9159951 -0.77260154
0.72512662 10.79674 -0.60442322
0.76972538 11.460791 0
1.6308637 24.282671 1.3593928
0.19816023 3.0047965 -0.99292684
0.23505963 3.5643194 -0.98552132
0.27954376 4.238853 -0.94107199
0.34565112 5.2412701 -0.87569261
0.45766419 6.9397764 -0.7751959
0.71464473 10.836493 -0.60659993
0.75587672 11.461713 0
0.75310773 11.419724 0.63924778
0.19548766 3.0198371 -0.99781817
0.23091459 3.567102 -0.98621285
0.27557024 4.2569294 -0.94501054
0.34163913 5.2775426 -0.88168329
0.45011377 6.9532275 -0.77663708
0.7039001 10.873646 -0.60863155
0.7411865 11.449635 0
0.73813415 11.402483 0.63823223
0.19215171 3.0249996 -0.99944657
0.22676316 3.5698798 -0.98690432
0.27010453 4.2521925 -0.94388586
0.33509943 5.2753921 -0.88125575
0.44171181 6.9537663 -0.77663708
0.69306737 10.910798 -0.61066383
0.72652656 11.437538 0
0.72435594 11.403366 0.63823223
0.2224495 3.5701511 -0.98690432
0.26591414 4.2677269 -0.94726211
0.32968304 5.2911706 -0.88382435
0.43556076 6.9904308 -0.78067261
0.68020618 10.91681 -0.61095381
0.71238261 11.433218 0
0.70944536 11.386077 0.63721609
0.21752355 3.560401 -0.98413569
0.26013747 4.2579007 -0.94501054
0.32297608 5.2864356 -0.88296759
0.42616782 6.9754667 -0.77894342
0.66939187 10.956531 -0.61313105
0.69745618 11.415884 0
0.69584531 11.389517 0.63736111
0.1811851 3.0256763 -0.99944657
0.21397102 3.5731802 -0.98759586
0.25590402 4.2734346 -0.94838893
0.3173553 5.2996321 -0.88510704
0.41851193 6.9888835 -0.7803846
0.65910327 11.006606 -0.6158883
0.68350643 11.414124 0
0 0 0
0.20965336 3.573436 -0.98759586
0.25029361 4.2661285 -0.94669974
0.31110227 5.3025818 -0.88553625
0.4103696 6.9945431 -0.78096062
0.64717299 11.030738 -0.61719441
0.66910446 11.404549 0
0 0 0
0.17273848 3.0063651 -0.99292684
0.20576729 3.5812032 -0.98967296
0.24572167 4.2765751 -0.9489513
0.30587241 5.3234468 -0.88895833
0.40266004 7.0079522 -0.78240293
0.63697404 11.085987 -0.62024218
0.65547293 11.407945 0
0.65440589 11.389373 0.63721609
0.20101716 3.5739322 -0.98759586
0.24069664 4.2794032 -0.94951361
0.29987243 5.3315039 -0.89024264
0.39419198 7.0084338 -0.78240293
0.62459993 11.104912 -0.62125832
0.6424188 11.421718 0
0.63962197 11.371992 0.63620001
0.19766375 3.5917099 -0.99244165
0.23552564 4.2796907 -0.94951361
0.29357105 5.3344231 -0.89067018
0.38728637 7.0373058 -0.7855733
0.61417967 11.16014 -0.62430608
0.62818825 11.414687 0
0.62602389 11.375359 0.63634557
0.19318902 3.5894432 -0.99175012
0.23090053 4.2901211 -0.95176518
0.2872636 5.3373446 -0.89109939
0.37989494 7.0584307 -0.78787965
0.60195112 11.184224 -0.6256122
0.61495483 11.425833 0
0.61241806 11.378699 0.63649052
0.18937896 3.5996954 -0.99451876
0.22665115 4.3081613 -0.95570588
0.28081426 5.337688 -0.89109939
0.37177372 7.0666356 -0.78874481
0.59184945 11.249812 -0.62924057
0.60128564 11.429174 0
0.59880507 11.382023 0.63663554
0.18438505 3.5873871 -0.99105597
0.22092372 4.2982817 -0.95345438
0.27502322 5.3508391 -0.89323884
0.36389849 7.0799928 -0.79018599
0.58038992 11.29204 -0.63156277
0.58827657 11.445482 0
0.58558518 11.393119 0.63721609
0.18005025 3.5876071 -0.99105597
0.21611212 4.3061609 -0.95514357
0.26932934 5.3665457 -0.89580584
0.35534343 7.0804272 -0.79018599
0.56843829 11.326468 -0.63344944
0.57588154 11.474778 0
0.57273024 11.411986 0.63823223
0.17571519 3.5878222 -0.99105597
0.21053581 4.2988033 -0.95345438
0.26234245 5.3566113 -0.89409393
0.34830615 7.1118522 -0.7936455
0.55627733 11.358291 -0.63519114
0.56418014 11.519652 0
0.55944908 11.423052 0.63881278
0.17149992 3.5905449 -0.99175012
0.2063112 4.3193583 -0.95795745
0.25586984 5.3569245 -0.89409393
0.33884868 7.0941806 -0.79162717
0.54466009 11.403075 -0.63765836
0.55075717 11.530725 0
0.54688561 11.449669 0.64026392
0.16774455 3.6032774 -0.99521029
0.20073736 4.3119879 -0.95626825
0.25082937 5.3880014 -0.89922953
0.33039665 7.0971661 -0.79191518
0.53208941 11.429676 -0.63910949
0.53876007 11.572967 0
0.53401721 11.471087 0.64142501
0.16327703 3.6009736 -0.99451876
0.19621779 4.3274617 -0.95964664
0.24431884 5.3883004 -0.89922953
0.32287565 7.120822 -0.7945106
0.51933765 11.453671 -0.64041561
0.5246582 11.571012 0
0.52062708 11.482107 0.64200556
0.15903634 3.6036723 -0.99521029
0.19098876 4.3276958 -0.95964664
0.23780794 5.3885918 -0.89922953
0.31484136 7.1341243 -0.79595184
0.50744522 11.498418 -0.64288282
0.51205343 11.602837 0
0.50755483 11.500901 0.6430217
0.15489686 3.6088698 -0.9965933
0.18554132 4.3228412 -0.95851982
0.23140669 5.3914371 -0.89965713
0.3061097 7.1319079 -0.7956627
0.49522278 11.537966 -0.64506006
0.49870268 11.619042 0
0.49399185 11.509287 0.6434567
0.15064098 3.6115682 -0.99728745
0.18021208 4.3205261 -0.95795745
0.22510619 5.3968477 -0.90051389
0.29878542 7.1632833 -0.79912221
0.48258051 11.56971 -0.64680171
0.48455462 11.617039 0
0.47943524 11.494304 0.64258611
0.14647985 3.6167562 -0.9986704
0.1757109 4.3385048 -0.961896
0.21931186 5.4150629 -0.90350842
0.29012978 7.1636391 -0.79912221
0.47070304 11.622201 -0.64970398
0.4715707 11.643624 0
0.46470505 11.474104 0.64142501
0.1420112 3.6144261 -0.99797893
0.17046854 4.3387141 -0.961896
0.21297042 5.4204593 -0.90436518
0.28248936 7.1898341 -0.80200571
0.45727181 11.638345 -0.6505751
0.45770547 11.649382 0
0.45175853 11.498022 0.64273113
0.13764375 3.6145952 -0.99797893
0.16541949 4.3439999 -0.96302289
0.20671384 5.4284105 -0.90564948
0.27419534 7.2005091 -0.80315888
0.44548273 11.698603 -0.65391284
0.44303513 11.634328 0
1.4673221 38.532627 2.1538453
0.13545997 3.6146777 -0.99797893
0.16289009 4.3466358 -0.9635852
0.20285723 5.4131379 -0.90308082
0.2706196 7.2213407 -0.80546409
0.44016626 11.745605 -0.65652508
0.80477649 21.475037 0
0 0 0
0.13109224 3.6148386 -0.99797893
0.15736157 4.3392096 -0.961896
0.19706063 5.4339023 -0.90650457
0.26189381 7.2216625 -0.80546409
0.42559698 11.735741 -0.65594453
0.77769572 21.444782 0
1.4116058 38.924709 2.1756148
0.15274157 4.3571739 -0.96583676
0.19058453 5.4366994 -0.90693212
0.25334907 7.2271481 -0.80604124
0.41332793 11.790777 -0.65899235
0.76299727 21.7656 0
0 0 0
0.14756253 4.3598924 -0.96639907
0.18427579 5.4446249 -0.90821648
0.24496624 7.2377892 -0.80719441
0.40101466 11.848407 -0.66218567
0.74013025 21.867939 0
0 0 0
0.14254306 4.3676887 -0.96808827
0.17786452 5.4499798 -0.90907323
0.23681125 7.2561779 -0.80921274
0.38720626 11.86446 -0.66305625
0.72304392 22.154924 0
0 0 0
0.13702595 4.3602362 -0.96639907
0.17200477 5.4732809 -0.91292453
0.22836839 7.2667999 -0.81036586
0.374176 11.906474 -0.66537845
0.69929802 22.252024 0
0 0 0
0.13198766 4.3680205 -0.96808827
0.16554618 5.4786115 -0.91377962
0.21982184 7.2748189 -0.81122994
0.36073086 11.938085 -0.66712016
0.6764974 22.388111 0
1.1437706 37.852123 2.1152401
0.12707797 4.3808732 -0.97090214
0.15840513 5.4608431 -0.91078341
0.2114816 7.2905965 -0.81296027
0.34788787 11.993053 -0.67016792
0.64974707 22.399319 0
1.0980328 37.853477 2.1152401
0.12143148 4.3683267 -0.96808827
0.15223478 5.4764318 -0.91335207
0.20331897 7.3141136 -0.81555462
0.33390158 12.01164 -0.67118347
0.62391073 22.444309 0
1.0515714 37.8288 2.1137884
0.1163558 4.3760924 -0.96977746
0.14602673 5.4920039 -0.91591907
0.19461851 7.31952 -0.81613064
0.32159773 12.095156 -0.67582792
0.61090124 22.97574 0
1.0071052 37.876801 2.1164012
0.11139033 4.3889279 -0.97259134
0.13984659 5.5101423 -0.91891521
0.18570858 7.3171668 -0.81584263
0.30770788 12.124102 -0.67742407
0.58736503 23.142967 0
0.96324956 37.95332 2.1206102
0.10590284 4.3814363 -0.97090214
0.13343668 5.5205727 -0.92062712
0.17724197 7.3328953 -0.81757182
0.2946277 12.189404 -0.68105239
0 0 0
0.92134494 38.118092 2.1297529
0.10107528 4.4018831 -0.97540528
0.12653033 5.5104642 -0.91891521
0.16850032 7.3382807 -0.81814897
0.28085336 12.231316 -0.68337464
0 0 0
0.87284064 38.012684 2.1238029
0.095535353 4.3918409 -0.97315371
0.12015101 5.5234432 -0.92105466
0.15997072 7.3539891 -0.81987816
0.26726064 12.286198 -0.68642241
0 0 0
0 0 0
0.090489499 4.4046526 -0.97596759
0.1137405 5.5364141 -0.92319405
0.15129724 7.3645205 -0.82103133
0.25214818 12.273525 -0.6856969
0 0 0
0 0 0
0.085167266 4.4047585 -0.97596759
0.106902 5.5288553 -0.92191142
0.14254861 7.3724585 -0.82189649
0.25133196 12.998615 -0.72618872
0 0 0
0 0 0
0.079844914 4.4048581 -0.97596759
0.10050044 5.5443754 -0.92447841
0.13401534 7.3933139 -0.82420284
0.2372736 13.089832 -0.73126817
0 0 0
0 0 0
0.074651428 4.4125757 -0.97765678
0.093801074 5.5444927 -0.92447841
0.12543188 7.4141593 -0.82650918
0.22189656 13.116096 -0.73271984
0 0 0
0.72703135 42.974136 2.4007146
0.069359511 4.4152007 -0.97821915
0.087101571 5.5446024 -0.92447841
0.11667632 7.4272337 -0.82795036
0.20670104 13.157914 -0.7350415
0 0 0
0 0 0
0.063950948 4.4102049 -0.97709447
0.080625191 5.5600991 -0.92704535
0.10792681 7.4428816 -0.82967955
0.19178174 13.225712 -0.73881543
0.53873533 37.152435 0
0 0 0
0.058959674 4.4356809 -0.98272222
0.074043311 5.5704598 -0.92875725
0.098967932 7.4456005 -0.82996863
0.17666414 13.290877 -0.7424432
0.49394733 37.160866 0
0.58575362 44.06768 2.4616697
0.053599976 4.4357486 -0.98272222
0.067374542 5.5756841 -0.92961401
0.090096317 7.4560599 -0.8311218
0.16063608 13.293687 -0.74258876
0.44851077 37.117199 0
0.53291428 44.102142 2.463557
0.048406042 4.4510598 -0.98610061
0.060693145 5.5808902 -0.9304691
0.081283867 7.4742599 -0.83313906
0.1451665 13.348433 -0.74563652
0.40363327 37.115116 0
0.47965327 44.10535 2.463702
0.043101382 4.4587297 -0.98778766
0.053825639 5.5681272 -0.92832971
0.072402686 7.4898758 -0.83486938
0.12933874 13.379768 -0.74737769
0.35856023 37.092155 0
0.42563185 44.030548 2.4594932
0.037649438 4.4511638 -0.98610061
0.047206149 5.5810208 -0.9304691
0.063461944 7.5028872 -0.83631057
0.11354541 13.424085 -0.74984491
0.31411552 37.136803 0
0 0 0
0.032326259 4.4588208 -0.98778766
0.040499795 5.5862126 -0.93132585
0.054471128 7.5133042 -0.83746374
0.097739421 13.481381 -0.75303823
0.26933706 37.150166 0
0 0 0
0.029598705 4.453763 -0.98666292
0.037261344 5.6067719 -0.9347496
0.050103791 7.5391951 -0.8403461
0.089749992 13.504821 -0.75434434
0.24703102 37.171139 0
0 0 0
0.024300048 4.4690356 -0.99003917
0.030514518 5.6119423 -0.93560469
0.041064415 7.5521798 -0.84178728
0.073643886 13.543888 -0.75652105
0.2018479 37.12196 0
0 0 0
0.01888934 4.4665232 -0.98947686
0.023755293 5.6171141 -0.93646145
0.031960949 7.5574017 -0.84236443
0.057432555 13.58035 -0.75855327
0 0 0
0 0 0
0.013530775 4.4792452 -0.99229074
0.017014604 5.6325359 -0.93902844
0.022907399 7.5832949 -0.84524679
0.041164584 13.627176 -0.7611655
0.11249972 37.24205 0
0 0 0
0.002713833 4.4919667 -0.99510461
0.0034013763 5.6299963 -0.9386009
0.0045830477 7.5859118 -0.8455348
0.0082721738 13.692195 -0.76479387
0.022492116 37.229202 0
0 0 0
-0.0027061589 4.4792647 -0.99229074
-0.0034091293 5.6428289 -0.94074035
-0.0046033603 7.6195335 -0.84928232
-0.0083019966 13.741558 -0.76755106
-0.022498406 37.239613 0
-0 0 0
-0.0081368936 4.4894218 -0.99454224
-0.010264604 5.6633573 -0.94416404
-0.013796024 7.6117706 -0.8484183
-0.024957787 13.770123 -0.76914775
-0.067495182 37.239559 0
-0 0 0
-0.013538443 4.4817834 -0.99285305
-0.017107658 5.6633406 -0.94416404
-0.023079274 7.640192 -0.85158867
-0.04171399 13.809052 -0.77132446
-0.11259405 37.273281 0
-0 0 0
-0.018943056 4.4792252 -0.99229074
-0.024037536 5.6838522 -0.94758779
-0.032365657 7.6530986 -0.85303092
-0.058487412 13.829779 -0.77248555
-0.15778552 37.309547 0
-0 0 0
-0.024438232 4.4944491 -0.99566913
-0.030919287 5.6863837 -0.94801533
-0.041739468 7.6763291 -0.85562527
-0.075508811 13.886868 -0.77567887
-0.20283842 37.304127 0
-0.20576769 37.842854 2.1137884
-0.029902618 4.4994931 -0.99679381
-0.037892476 5.7017393 -0.95058233
-0.050997544 7.6736794 -0.85533619
-0.092616372 13.936129 -0.77843612
-0.24789575 37.301258 0
-0.25204581 37.925724 2.118433
-0.03529948 4.4943771 -0.99566913
-0.044701315 5.691431 -0.94887209
-0.060330611 7.6813736 -0.85620135
-0.11004721 14.011357 -0.78264505
-0.40257964 51.256981 0
-0.2979531 37.935787 2.1190135
-0.040891148 4.5121093 -0.99960768
-0.051647987 5.6990666 -0.95015478
-0.069822937 7.7045703 -0.8587957
-0.12702416 14.016405 -0.78293502
-0.46448985 51.253857 0
-0.34374371 37.930195 2.1187229
-0.058692399 5.7144065 -0.95272338
-0.079158887 7.7070642 -0.85908371
-0.14444058 14.063017 -0.78554779
-0.52692765 51.302704 0
-0.38957471 37.929752 2.1187229
-0.065685414 5.7220249 -0.95400608
-0.088619843 7.7199016 -0.86052597
-0.16214859 14.12518 -0.78903061
-0.59026068 51.419121 0
-0.41795745 36.409344 2.0338209
-0.072436504 5.7091093 -0.95186663
-0.098144598 7.735302 -0.86225522
-0.17961159 14.156153 -0.79077226
-0.65658325 51.748844 0
-0.4620167 36.414013 2.0341115
-0.079584517 5.7269878 -0.95486283
-0.10781454 7.758451 -0.86484957
-0.1974746 14.210485 -0.79382008
-0.72034055 51.836487 0
-0.50579888 36.397835 2.0332403
-0.086426787 5.7217493 -0.95400608
-0.11754058 7.7815886 -0.86744392
-0.2151944 14.246606 -0.79585177
-0.78379971 51.890221 0
-0.54962122 36.386806 2.0326598
