# .PCD v0.7 - Point Cloud Data file format
VERSION 0.7
FIELDS x y z
SIZE 4 4 4
TYPE F F F
COUNT 1 1 1
WIDTH 1513
HEIGHT 1
VIEWPOINT 0 0 0 1 0 0 0
POINTS 1513
DATA ascii
-0.31121707 4.6338525 -0.7742697
-0.40989557 6.1031213 -0.68179357
-0.59140623 8.8057156 -0.4929617
-1.1200678 16.6772 0
-2.3259299 34.631828 1.9387594
-0.18974175 2.7749968 -0.91713899
-0.21988539 3.2158513 -0.88931549
-0.2591086 3.7894955 -0.84144622
-0.31611547 4.6232285 -0.7725578
-0.41568193 6.0794001 -0.67919922
-0.60062772 8.784255 -0.49180058
-1.1391526 16.66025 0
-1.5990528 23.386347 1.309322
-0.19292322 2.7723022 -0.91632479
-0.22098435 3.17554 -0.87824094
-0.26545087 3.8145225 -0.84707403
-0.32081065 4.6100411 -0.77041841
-0.42230916 6.0685725 -0.67804605
-0.60979825 8.7627859 -0.49063945
-1.1601857 16.671841 0
-1.6291137 23.410324 1.3107737
-0.19557463 2.7622051 -0.91306496
-0.22535294 3.1827805 -0.88031805
-0.2688041 3.7964644 -0.84313542
-0.32765004 4.6275773 -0.77341455
-0.42818013 6.0474176 -0.67573971
-0.61928511 8.7464962 -0.48976889
-1.1784918 16.644472 0
-1.6603357 23.44981 1.3130959
-0.19660419 2.7299213 -0.90247118
-0.22991939 3.1925149 -0.88308674
-0.27156565 3.7707887 -0.83750552
-0.33195037 4.6092525 -0.77041841
-0.43511569 6.0417409 -0.67516369
-0.62835985 8.7250071 -0.48860779
-1.1972938 16.624863 0
-1.697814 23.57477 1.3202071
-0.20224921 2.7617245 -0.91306496
-0.23322687 3.1847262 -0.88100958
-0.27686405 3.7805941 -0.83975703
-0.33714417 4.6037226 -0.76956165
-0.44109309 6.0231514 -0.67314535
-0.63567573 8.6801882 -0.48614055
-1.2158601 16.602638 0
-1.3712314 18.724243 1.0486655
-0.20228346 2.7171168 -0.89839709
-0.23521189 3.1594188 -0.87408662
-0.28162041 3.7827883 -0.8403194
-0.34118265 4.5828419 -0.76613957
-0.44741061 6.0097198 -0.67170417
-0.644813 8.661273 -0.48512444
-1.2326357 16.557039 0
-1.3926971 18.70702 1.0477943
-0.20799042 2.7489073 -0.90899086
-0.24149044 3.1916606 -0.88308674
-0.28446582 3.7596447 -0.83525395
-0.34536394 4.5645056 -0.76314336
-0.45447692 6.006598 -0.67141616
-0.65331793 8.6345816 -0.48367333
-1.2487146 16.503647 0
-1.4123598 18.666466 1.0456177
-0.21510087 2.7979407 -0.92529017
-0.24438471 3.1788523 -0.87962389
-0.28881383 3.7567673 -0.83469164
-0.35048509 4.5589609 -0.7622866
-0.4601483 5.9854136 -0.66910982
-0.6613605 8.6026964 -0.48193166
-1.264466 16.447638 0
-1.4335191 18.646606 1.0446016
-0.21617229 2.7681096 -0.91551059
-0.24881171 3.1860604 -0.88170105
-0.29335293 3.7564156 -0.83469164
-0.35639355 4.5636578 -0.76314336
-0.46677586 5.9771147 -0.66824466
-0.67074335 8.5889406 -0.48120609
-1.278463 16.370855 0
-1.4540261 18.618961 1.0431504
-0.21306856 2.6865408 -0.88861752
-0.24968587 3.1482415 -0.87131798
-0.29789162 3.7560585 -0.83469164
-0.36129853 4.5555439 -0.76185906
-0.47358832 5.9713845 -0.66766751
-0.67865568 8.5570402 -0.47946441
-1.2920707 16.291473 0
-1.4750842 18.599056 1.0421343
-0.2173063 2.6985972 -0.89269155
-0.2542952 3.1579401 -0.87408662
-0.30283734 3.7607563 -0.83581632
-0.36762694 4.5653396 -0.7635709
-0.47955799 5.9553442 -0.66593832
-0.68690866 8.5303078 -0.47801274
-1.304026 16.19392 0
-1.4967222 18.586899 1.0415537
-0.22378866 2.737747 -0.90573102
-0.25770238 3.1526346 -0.87270361
-0.30531159 3.7350681 -0.83018857
-0.37146986 4.5444236 -0.76014715
-0.48548958 5.9392982 -0.66420913
-0.69552261 8.5087633 -0.47685218
-1.3174437 16.117115 0
-1.51791 18.569544 1.0406833
-0.22709654 2.7374747 -0.90573102
-0.26026747 3.1373246 -0.86855197
-0.31192476 3.7600136 -0.83581632
-0.37632456 4.536304 -0.75886452
-0.49074057 5.9155011 -0.66161364
-0.70343995 8.4794292 -0.47525552
-1.334551 16.086988 0
-1.5384133 18.544392 1.0393771
-0.22729416 2.7002523 -0.89350575
-0.26447856 3.1420028 -0.86993498
-0.31625482 3.7571044 -0.83525395
-0.38158959 4.5332804 -0.75843531
-0.49723771 5.9071789 -0.66074961
-0.71237791 8.4630423 -0.47438496
-1.3504953 16.043871 0
-1.5595113 18.526979 1.038506
-0.23644485 2.7689297 -0.91632479
-0.26699457 3.1266878 -0.86578333
-0.31906486 3.7364659 -0.83075088
-0.38597503 4.5200295 -0.75629586
-0.50393444 5.9014149 -0.66017246
-0.71928686 8.4233379 -0.47220773
-1.3665586 16.00333 0
-1.5812329 18.517311 1.0380704
-0.24170958 2.7908013 -0.92365867
-0.27618396 3.1888456 -0.88308674
-0.32379928 3.7386165 -0.8313154
-0.39210105 4.527235 -0.75758022
-0.51039588 5.8930783 -0.65930843
-0.72811943 8.4069347 -0.47133717
-1.3778112 15.908336 0
-1.6031584 18.510214 1.0377804
-0.23643273 2.6920314 -0.89106321
-0.27674428 3.1510201 -0.87270361
-0.32942772 3.7508757 -0.83412927
-0.39644828 4.5139742 -0.75544077
-0.51547891 5.8692608 -0.65671295
-0.73645836 8.3853407 -0.47017604
-1.3892912 15.818519 0
-1.6250681 18.503082 1.0374899
-0.24001843 2.7140436 -0.89839709
-0.2797527 3.1633451 -0.87616378
-0.32900777 3.7203038 -0.82737464
-0.39962718 4.5188432 -0.75629586
-0.51856947 5.8638005 -0.65613693
-0.73923475 8.3590059 -0.46872437
-1.3880732 15.695842 0
-1.6360177 18.499512 1.0373448
-0.24153201 2.6940579 -0.89187741
-0.28536698 3.1829946 -0.88170105
-0.33418369 3.7274983 -0.82906383
-0.4030242 4.495348 -0.75244457
-0.52519286 5.8580222 -0.65556091
-0.74724638 8.334816 -0.46741825
-1.3879819 15.481606 0
-1.6581378 18.494936 1.0371999
-0.25194392 2.7725215 -0.91795313
-0.28308335 3.115196 -0.8630147
-0.33868739 3.7270918 -0.82906383
-0.40799057 4.4897399 -0.75158781
-0.53133446 5.8470802 -0.65440774
-0.75473082 8.3054495 -0.46582213
-1.3920863 15.31924 0
-1.6814247 18.503269 1.0377804
-0.24940127 2.7082286 -0.89676565
-0.28799731 3.1273401 -0.86647481
-0.34039453 3.6963174 -0.82230926
-0.41365135 4.4918075 -0.75201702
-0.53626376 5.823246 -0.65181226
-0.76285952 8.2838316 -0.46466103
-1.4024808 15.229429 0
-1.703781 18.501225 1.0377804
-0.25864327 2.7719045 -0.91795313
-0.2922416 3.1319809 -0.86785781
-0.34745657 3.7237251 -0.82849938
-0.41740882 4.4734101 -0.74902087
-0.54185832 5.807147 -0.65008307
-0.77045381 8.2570267 -0.46320936
-1.4124198 15.137037 0
-1.7271006 18.509501 1.038361
-0.25617853 2.7100859 -0.89758295
-0.29767868 3.1491113 -0.87270361
-0.35004368 3.7030754 -0.82399845
-0.42208877 4.4652328 -0.74773651
-0.54863155 5.8039155 -0.64979506
-0.77798533 8.2302256 -0.46175823
-1.4236065 15.060184 0
-1.7521536 18.535849 1.039957
-0.25968829 2.7122324 -0.89839709
-0.30076596 3.1412549 -0.87062645
-0.35451788 3.7026498 -0.82399845
-0.42626071 4.4519448 -0.74559712
-0.55490422 5.7955217 -0.64892989
-0.78520489 8.2008238 -0.46016157
-1.4360985 14.998876 0
-1.775045 18.538897 1.0402477
-0.25819442 2.6627152 -0.88209784
-0.3021405 3.1159234 -0.86370617
-0.35531282 3.6642807 -0.81555462
-0.43287826 4.4641995 -0.74773651
-0.56115746 5.7871213 -0.64806473
-0.79385972 8.1869402 -0.459436
-1.4431688 14.883154 0
-1.7992002 18.554846 1.0412638
-0.26672453 2.7165117 -0.90002549
-0.3054145 3.1105578 -0.86232054
-0.36172643 3.6840785 -0.82005769
-0.43701807 4.450902 -0.74559712
-0.56638122 5.7684278 -0.64604753
-0.80197477 8.1678801 -0.45842046
-1.4509798 14.777807 0
-1.8228881 18.565584 1.0419893
-0.27587444 2.7752149 -0.91958463
-0.30966958 3.1151843 -0.86370617
-0.36642876 3.6861649 -0.82062006
-0.44341153 4.4605885 -0.74730897
-0.57360637 5.7703104 -0.64633554
-0.8085013 8.1332836 -0.45653322
-1.4618849 14.706128 0
-1.8463478 18.573711 1.0425699
-0.2693291 2.6765122 -0.88698602
-0.31494004 3.1297798 -0.86785781
-0.3693566 3.6705554 -0.81724381
-0.44545996 4.4268479 -0.74174583
-0.57928371 5.7567482 -0.64489436
-0.81780833 8.1271343 -0.45624322
-1.4684486 14.593003 0
-1.8693089 18.576633 1.0428599
-0.27656987 2.7155268 -0.90002549
-0.31821364 3.1244102 -0.86647481
-0.37482131 3.6802177 -0.81949538
-0.45210889 4.4390731 -0.74388522
-0.58545274 5.748322 -0.6440292
-0.82525849 8.1028776 -0.4549371
-1.4789613 14.52132 0
-2.5441372 24.979849 1.4024968
-0.28441161 2.7594404 -0.9146933
-0.31941602 3.0990632 -0.85955191
-0.37848607 3.6721773 -0.81780618
-0.45536679 4.4180951 -0.74046153
-0.5902766 5.7270279 -0.64172286
-0.83265126 8.0786142 -0.45363098
-1.4882357 14.439278 0
-2.578315 25.01553 1.4046741
-0.28261915 2.7099388 -0.89839709
-0.3268041 3.1336131 -0.8692435
-0.38344952 3.6767666 -0.81893086
-0.45963976 4.4073291 -0.73874962
-0.59692812 5.7237401 -0.64143485
-0.83917773 8.0465889 -0.45188931
-1.500013 14.383114 0
-2.6179724 25.102844 1.4097536
-0.27837268 2.6383169 -0.87476391
-0.32874727 3.1157491 -0.8643977
-0.38629273 3.6611443 -0.81555462
-0.46334916 4.391458 -0.73618263
-0.60140139 5.6998672 -0.6388405
-0.84617382 8.0197325 -0.4504382
-1.5086526 14.29847 0
-2.6553907 25.166843 1.4135269
-0.28785589 2.6969621 -0.89432305
-0.33038175 3.0953927 -0.85886037
-0.39044681 3.6581507 -0.81499231
-0.46947265 4.3985548 -0.73746699
-0.60773861 5.6939878 -0.63826334
-0.8539328 8.0006161 -0.44942209
-1.5220621 14.260412 0
-2.6951737 25.251461 1.4184613
-0.29535791 2.7359202 -0.90735936
-0.33466074 3.0999846 -0.86024606
-0.39404827 3.6500952 -0.81330311
-0.47561288 4.4056339 -0.73874962
-0.61184263 5.6675391 -0.63538098
-0.86108953 7.9763298 -0.44811597
-1.5353818 14.222343 0
-2.7343295 25.328276 1.4229608
-0.29276252 2.6815119 -0.88943172
-0.33786112 3.0945852 -0.85886037
-0.39845839 3.6496165 -0.81330311
-0.47842863 4.382091 -0.73489833
-0.61784786 5.6590796 -0.63451582
-0.86762428 7.946867 -0.44651929
-1.5474808 14.173904 0
-2.7714174 25.384356 1.4262986
-0.30007094 2.7180088 -0.90165699
-0.34132504 3.0916836 -0.8581689
-0.40008026 3.6238816 -0.8076753
-0.482315 4.3687544 -0.73275894
-0.62496889 5.6608973 -0.63480383
-0.87551558 7.9303212 -0.44564873
-1.5583237 14.11512 0
-2.8106408 25.458467 1.4306525
-0.30088747 2.6955392 -0.89432305
-0.34895632 3.1261702 -0.86785781
-0.40671372 3.6435974 -0.81217837
-0.48844802 4.3758245 -0.73404324
-0.63066185 5.6498656 -0.63365179
-0.88221407 7.9034281 -0.44419706
-1.5646961 14.017531 0
-2.8503368 25.535109 1.4351519
-0.30386633 2.6927106 -0.89350575
-0.35048282 3.1058025 -0.86232054
-0.40456241 3.5850286 -0.79923153
-0.49287114 4.3675761 -0.73275894
-0.63632798 5.6388187 -0.63249862
-0.8882677 7.8713818 -0.44245595
-1.5676254 13.891508 0
-2.8908031 25.616842 1.4399408
-0.30347839 2.6604199 -0.88291198
-0.34883377 3.0580244 -0.84917146
-0.41753268 3.6602683 -0.81611699
-0.4987306 4.3720837 -0.7336157
-0.64196837 5.6277666 -0.63134545
-0.89601052 7.8548074 -0.44158483
-1.5746762 13.804277 0
-2.9317663 25.701103 1.4448754
-0.30527759 2.6477771 -0.87883794
-0.35454026 3.0750489 -0.85401726
-0.41671717 3.6143308 -0.80598611
-0.50254208 4.3587193 -0.73147458
-0.64787894 5.619276 -0.63048029
-0.90252525 7.8279104 -0.44013372
-1.5764512 13.6731 0
-2.9708548 25.767241 1.4487942
-0.31362516 2.6915915 -0.89350575
-0.35709417 3.0646508 -0.85124862
-0.42226037 3.6239197 -0.80823767
-0.50721473 4.3530145 -0.73061949
-0.65257251 5.600503 -0.62846196
-0.90957719 7.8061666 -0.43897259
-1.58243 13.580718 0
-3.0119114 25.848803 1.4535837
-0.31427628 2.669121 -0.88617188
-0.36109 3.0667062 -0.8519401
-0.42515352 3.6107922 -0.8054238
-0.51277399 4.3549452 -0.73104703
-0.65782714 5.5868688 -0.62702078
-0.9168815 7.7869949 -0.43795648
-1.5860572 13.470246 0
-3.0522575 25.922558 1.4579376
-0.32013622 2.6634507 -0.88454348
-0.37029573 3.0807648 -0.85609174
-0.43418109 3.6122744 -0.80598611
-0.52084595 4.3333035 -0.72762328
-0.6704002 5.5775566 -0.62615561
-0.93073547 7.7434783 -0.43563426
-1.5897229 13.226084 0
-3.1350477 26.082787 1.467371
-0.3266305 2.6900442 -0.89350575
-0.37190205 3.0628891 -0.85124862
-0.43609533 3.5915682 -0.80148304
-0.52577239 4.3301253 -0.72719574
-0.67526913 5.5613413 -0.62442642
-0.93695974 7.716558 -0.43418312
-1.5953512 13.138899 0
-3.175957 26.156359 1.4717249
-0.31238881 2.5598278 -0.85031652
-0.37709451 3.0900497 -0.85886037
-0.43826512 3.5913041 -0.80148304
-0.52683383 4.3170681 -0.72505635
-0.67768866 5.5532279 -0.62356126
-0.9394179 7.6979327 -0.43316701
-1.5941478 13.063028 0
-3.200258 26.224079 1.4756438
-0.33241296 2.6968093 -0.89595145
-0.37837264 3.0696726 -0.8533231
-0.43980688 3.568078 -0.79641759
-0.53079361 4.3062372 -0.72334445
-0.68534768 5.5601087 -0.62442642
-0.94617558 7.6761608 -0.43200591
-1.6035632 13.009434 0
-3.2433848 26.313026 1.4808682
-0.32529065 2.6130195 -0.86824417
-0.38177186 3.066726 -0.85263157
-0.44505987 3.5751107 -0.79810679
-0.53758174 4.3183274 -0.72548389
-0.68887091 5.5336146 -0.62154406
-0.95352465 7.6595454 -0.43113536
-1.609637 12.930015 0
-3.2857692 26.394176 1.4856577
-0.33122209 2.6346929 -0.87557811
-0.3851645 3.0637755 -0.8519401
-0.45128036 3.5896919 -0.80148304
-0.54376012 4.3253183 -0.7267682
-0.69491082 5.5276408 -0.62096691
-0.95953852 7.6326108 -0.42968422
-1.6158456 12.85318 0
-3.3280294 26.472679 1.4903016
-0.33502847 2.6391993 -0.8772096
-0.38696995 3.0483704 -0.84778583
-0.45497814 3.5841074 -0.80035836
-0.54607683 4.3017406 -0.7229169
-0.69996113 5.5139699 -0.61952573
-0.96516049 7.6030884 -0.42808756
-1.6244928 12.797003 0
-3.3698316 26.545977 1.4946561
-0.34198657 2.6682017 -0.88698602
-0.39161018 3.0553682 -0.84986293
-0.45607761 3.5583472 -0.79472846
-0.55029488 4.2934365 -0.7216326
-0.70497936 5.5002952 -0.61808455
-0.97203392 7.5838723 -0.42707145
-1.6306902 12.722752 0
-3.413466 26.632086 1.4997355
-0.34711403 2.6824982 -0.89187741
-0.39111668 3.0225508 -0.84086549
-0.4607026 3.5603111 -0.79529077
-0.55482274 4.287672 -0.72077584
-0.71096039 5.4943042 -0.6175074
-0.97952986 7.5698099 -0.42634588
-1.6357096 12.640769 0
-3.455313 26.702671 1.5039444
-0.35035503 2.6820769 -0.89187741
-0.39931729 3.0568981 -0.85055447
-0.46500421 3.5597517 -0.79529077
-0.55701089 4.264092 -0.71692455
-0.71592385 5.4806199 -0.61606622
-0.98665702 7.5531664 -0.42547533
-1.6459255 12.600073 0
-3.4993546 26.788649 1.5090239
-0.35618037 2.7012548 -0.89839709
-0.40169883 3.0464644 -0.84778583
-0.47295922 3.5868998 -0.80148304
-0.56115705 4.2557878 -0.71564186
-0.72119313 5.4694939 -0.61491305
-0.99170661 7.5210547 -0.42373365
-1.6516244 12.52584 0
-3.5425894 26.866827 1.5136678
-0.343793 2.5832222 -0.8592788
-0.40339443 3.0310607 -0.84363419
-0.47293559 3.5535853 -0.79416609
-0.56663728 4.2576489 -0.7160694
-0.72541386 5.4506788 -0.61289585
-0.99702251 7.4915156 -0.42213696
-1.657488 12.454179 0
-3.5836196 26.926918 1.5172962
-0.35053366 2.6097529 -0.86824417
-0.40972835 3.0504625 -0.84917146
-0.47587606 3.542938 -0.79191452
-0.57314831 4.267138 -0.71778131
-0.73234338 5.4523592 -0.61318386
-1.0057282 7.4877324 -0.42199197
-1.6607566 12.364475 0
-3.6175365 26.932869 1.5178767
-0.34804338 2.5676932 -0.85439056
-0.41375059 3.052449 -0.84986293
-0.48220375 3.5574629 -0.79529077
-0.57416624 4.2359171 -0.71264571
-0.73858392 5.4489098 -0.61289585
-1.0112854 7.4607677 -0.42054087
-1.6690547 12.313467 0
-3.6490312 26.920761 1.5174417
-0 0 -0
-0.41233987 3.0146694 -0.83948255
-0.48409256 3.5392625 -0.79135221
-0.58171958 4.253026 -0.71564186
-0.74306357 5.4326329 -0.61116552
-1.018891 7.4492426 -0.41996029
-1.6779367 12.26761 0
-3.669585 26.828806 1.5125072
-0.35863987 2.5986717 -0.86498433
-0.42009667 3.043982 -0.84778583
-0.48697922 3.5286069 -0.78910065
-0.58720869 4.2548609 -0.7160694
-0.74927402 5.4291711 -0.61087751
-1.0239832 7.4196887 -0.41836363
-1.6835084 12.198548 0
-3.6916981 26.749706 1.5082984
-0.36689278 2.6349585 -0.8772096
-0.42342877 3.0409899 -0.8470943
-0.49404582 3.5481489 -0.79360372
-0.58774745 4.2210975 -0.71050626
-0.75476313 5.4205742 -0.61001235
-1.0293649 7.392715 -0.41691253
-1.6917857 12.150103 0
-3.7078917 26.629416 1.5017672
-0.36320004 2.5855618 -0.8609103
-0.42605561 3.0330205 -0.84501714
-0.49656576 3.5349708 -0.79078984
-0.59284741 4.2203841 -0.71050626
-0.75951362 5.4068537 -0.60857117
-1.0357662 7.3734508 -0.41589639
-1.6974167 12.083632 0
-3.7274153 26.534863 1.4966878
-0.3729116 2.6316099 -0.87639225
-0.42760885 3.0176046 -0.84086549
-0.50404483 3.5570078 -0.79585528
-0.59938717 4.2298317 -0.71221811
-0.76278055 5.3828864 -0.60597682
-1.0424881 7.3567624 -0.41502583
-1.7036176 12.022305 0
-3.7478085 26.448011 1.4920433
-0.37259451 2.6066949 -0.86824417
-0.42841482 2.9972174 -0.83532822
-0.5018701 3.5111153 -0.78572226
-0.60413337 4.2265558 -0.71178895
-0.76782018 5.3717194 -0.60482365
-1.0476991 7.3297696 -0.41357416
-1.7096741 11.96099 0
-3.7554984 26.273706 1.4824649
-0.3785654 2.6258132 -0.87476391
-0.43382567 3.0091107 -0.83878839
-0.5086506 3.5281129 -0.78966302
-0.60923988 4.2258224 -0.71178895
-0.77320272 5.3631048 -0.60395849
-1.0535901 7.3079333 -0.4124136
-1.7159547 11.902241 0
-3.7612879 26.089125 1.4723054
-0.37960336 2.6106739 -0.86987257
-0.43710062 3.006104 -0.83809686
-0.51327854 3.5300078 -0.79022533
-0.60954398 4.1920609 -0.70622575
-0.78079933 5.3698478 -0.60482365
-1.0609239 7.2963691 -0.41183305
-1.7217231 11.840932 0
-3.7756104 25.96628 1.4656293
-0.38670248 2.6371157 -0.87883794
-0.43964028 2.9981246 -0.83601969
-0.51570058 3.5168173 -0.78741145
-0.61572653 4.1989436 -0.70751005
-0.78503484 5.3535409 -0.60309333
-1.0670999 7.2770829 -0.41081694
-1.7281003 11.784771 0
-3.7813482 25.786884 1.4557604
-0.3812114 2.577966 -0.8592788
-0.44766647 3.0273726 -0.84432566
-0.51772016 3.5011151 -0.78403527
-0.62117481 4.2007337 -0.70793766
-0.78999102 5.3423638 -0.60194129
-1.0736122 7.2603703 -0.40994638
-1.7354867 11.736338 0
-3.7718349 25.507271 1.4402314
-0.3934384 2.6386156 -0.87965214
-0.44984418 3.0169041 -0.84155703
-0.52082568 3.4929452 -0.78234607
-0.62435758 4.1872873 -0.70579821
-0.79491985 5.3311725 -0.60078812
-1.0800842 7.2436423 -0.40907526
-1.741607 11.680181 0
-3.7432573 25.104355 1.4177358
-0.39368668 2.6185853 -0.87313241
-0.44938743 2.9890757 -0.83394521
-0.5284453 3.514925 -0.78741145
-0.63132453 4.1992202 -0.70793766
-0.80020696 5.3225322 -0.59992296
-1.0876765 7.2346206 -0.4086397
-1.7460462 11.61373 0
-3.7600682 25.009888 1.4126563
-0.39129531 2.5814593 -0.8609103
-0.45262176 2.986043 -0.83325106
-0.53193116 3.5092642 -0.78628677
-0.63409042 4.1832309 -0.70537066
-0.80547434 5.3138871 -0.59905779
-1.0917459 7.2024817 -0.40689859
-1.7553976 11.580735 0
-3.7758768 24.910271 1.4072863
-0.38881338 2.5443337 -0.84868503
-0.46305183 3.0301383 -0.84571129
-0.5338673 3.4935436 -0.78290838
-0.64108312 4.195147 -0.70751005
-0.8103317 5.3026829 -0.59790462
-1.0957375 7.1703339 -0.40515691
-1.7615266 11.527152 0
-3.8126459 24.949354 1.4097536
-0.3971566 2.5780656 -0.8600961
-0.45869169 2.977509 -0.83117658
-0.53770167 3.4903872 -0.78234607
-0.64107096 4.1613889 -0.70194691
-0.81516314 5.2914748 -0.59675145
-1.1047959 7.1715703 -0.4053019
-1.771096 11.496729 0
-3.7094686 24.079304 1.3608439
-0.39115819 2.5289741 -0.84379679
-0.46087357 2.9797082 -0.83186805
-0.53864479 3.4825261 -0.78065687
-0.64515454 4.1711488 -0.70365876
-0.81559348 5.2730961 -0.59473425
-1.1035687 7.1349559 -0.40327024
-1.7688917 11.436501 0
-3.7156751 24.023134 1.3577961
-0.39840224 2.5553651 -0.85276216
-0.46563342 2.986588 -0.83394521
-0.54481059 3.4944329 -0.7834729
-0.64584374 4.1424627 -0.69895071
-0.82037061 5.2618842 -0.59358108
-1.1109878 7.1259122 -0.40283468
-1.775894 11.390643 0
-3.7386966 23.980124 1.3556194
-0.40110481 2.552433 -0.85194486
-0.47118872 2.9984126 -0.83740538
-0.54311538 3.4561181 -0.77502906
-0.65164644 4.1467562 -0.69980747
-0.82753026 5.2659945 -0.5941571
-1.1179837 7.1142969 -0.40225413
-1.780365 11.329365 0
-3.7583909 23.916546 1.3522811
-0.41308182 2.6080961 -0.87068987
-0.47481138 2.9978411 -0.83740538
-0.54927802 3.4680052 -0.77784294
-0.6570577 4.148499 -0.70023507
-0.83146572 5.2496676 -0.59242791
-1.1237334 7.0949731 -0.40123799
-1.7875391 11.286077 0
-3.7791586 23.860668 1.3493788
-0.41311616 2.5880692 -0.86417013
-0.47091937 2.9501922 -0.82425362
-0.55426985 3.472362 -0.77896982
-0.65883273 4.1274223 -0.69681132
-0.8353613 5.2333293 -0.59069759
-1.1310779 7.0859199 -0.400803
-1.7946112 11.24279 0
-3.801024 23.812466 1.3469117
-0.40917802 2.5436487 -0.84950233
-0.48325032 3.004118 -0.83948255
-0.55563992 3.4541268 -0.77502906
-0.6646356 4.1316967 -0.69766808
-0.83880979 5.214448 -0.58868039
-1.1355113 7.0588884 -0.39935133
-1.8003424 11.191801 0
-3.8194773 23.743721 1.3432833
-0.42332345 2.6114564 -0.87231821
-0.48005581 2.9614348 -0.82771641
-0.56103325 3.4609797 -0.77671826
-0.67291361 4.1511626 -0.70109183
-0.84883428 5.2364068 -0.59127474
-1.1415458 7.0421262 -0.39848077
-1.8076173 11.15108 0
-3.8577259 23.798075 1.346621
-0.41850978 2.5621574 -0.8560189
-0.48848537 2.9905546 -0.83601969
-0.565624 3.4628046 -0.77728063
-0.67420334 4.1275377 -0.69723886
-0.8505739 5.2072954 -0.58810323
-1.1458644 7.0150919 -0.3970291
-1.8118608 11.092387 0
-3.8873169 23.798531 1.3469117
-0.42642197 2.5909152 -0.86579853
-0.48639542 2.9553103 -0.82633078
-0.56485599 3.4320326 -0.77052599
-0.67960823 4.1292605 -0.69766808
-0.85434586 5.1909561 -0.58637404
-1.1526536 7.0034566 -0.39644909
-1.818078 11.046536 0
-3.9354806 23.911753 1.3535877
-0.4174231 2.5172536 -0.84135109
-0.4870927 2.9373934 -0.82148498
-0.5673399 3.4213209 -0.76827449
-0.68375647 4.1233664 -0.69681132
-0.85892498 5.1797132 -0.58522087
-1.1589884 6.989234 -0.39572299
-1.824187 11.000688 0
-3.9864731 24.04027 1.3611344
-0.42453796 2.5411303 -0.84950233
-0.49270982 2.949182 -0.82494777
-0.57607955 3.4482031 -0.77446675
-0.68831563 4.1200075 -0.69638377
-0.86177337 5.1582627 -0.58291453
-1.1661494 6.9801469 -0.39528799
-1.8301878 10.954841 0
-4.0326438 24.137941 1.3669394
-0.43704206 2.5966668 -0.86824417
-0.50418317 2.9955831 -0.83809686
-0.57898003 3.439985 -0.77277756
-0.69031048 4.1014504 -0.69338757
-0.86671722 5.1495633 -0.58204937
-1.172425 6.9659133 -0.39456186
-1.8365121 10.911559 0
-4.0665512 24.161242 1.3685361
-0.43439576 2.562026 -0.85683626
-0.4994148 2.9455023 -0.82425362
-0.58016247 3.4217446 -0.7688368
-0.69440836 4.0955563 -0.69253248
-0.87337077 5.1510601 -0.58233738
-1.1769322 6.9414372 -0.39325574
-1.8422998 10.865714 0
-4.0953083 24.153749 1.3683912
-0.43291351 2.5346973 -0.84787083
-0.501284 2.9350047 -0.82148498
-0.58344179 3.4160366 -0.76771212
-0.70324576 4.1174855 -0.69638377
-0.8787241 5.144907 -0.58176136
-1.1848817 6.9374514 -0.39311075
-1.8466647 10.812173 0
-4.1253648 24.153902 1.3686812
-0.43932831 2.553659 -0.85439056
-0.50270367 2.9220371 -0.81802481
-0.59015298 3.4303489 -0.77108836
-0.70082176 4.073627 -0.68910873
-0.88450199 5.1412945 -0.58147335
-1.1862143 6.895041 -0.39078853
-1.853551 10.774032 0
-4.1545467 24.148899 1.3686812
-0.44114721 2.5458179 -0.85194486
-0.50580609 2.9189579 -0.81733334
-0.59299725 3.4221299 -0.76940131
-0.70749658 4.0828948 -0.69082057
-0.88894713 5.1300282 -0.58032018
-1.1936584 6.8884873 -0.39049852
-1.8585706 10.725632 0
-4.1841664 24.14642 1.3688262
-0.42765152 2.4503329 -0.82016355
-0.51407772 2.9455326 -0.82494777
-0.60281044 3.4539483 -0.77671826
-0.71287042 4.0845633 -0.69124812
-0.89470088 5.1264048 -0.58003217
-1.1992995 6.8716764 -0.3896274
-1.8652657 10.68749 0
-4.2120004 24.133675 1.3683912
-0.4395971 2.500932 -0.83727705
-0.51676697 2.9399629 -0.82356215
-0.60478276 3.4406974 -0.77390224
-0.71513969 4.0685339 -0.68868119
-0.89507216 5.092196 -0.57628351
-1.2058023 6.8599854 -0.38904685
-1.8682653 10.628834 0
-4.2416077 24.131124 1.3685361
-0.44864938 2.534467 -0.84868503
-0.51638371 2.9171054 -0.81733334
-0.60451156 3.4149489 -0.76827449
-0.71871233 4.060081 -0.68739682
-0.90032363 5.0860219 -0.5757075
-1.2109212 6.84062 -0.3880313
-1.875663 10.595817 0
-4.269403 24.118303 1.3681005
-0.45431486 2.5485272 -0.85357636
-0.52034795 2.9189467 -0.81802481
-0.60328633 3.3841984 -0.76151985
-0.72451782 4.0642591 -0.68825197
-0.90646839 5.0849304 -0.5757075
-1.2146248 6.8135657 -0.3865796
-1.8816149 10.555118 0
-4.3040147 24.143824 1.3698423
-0.45127922 2.5139136 -0.84216529
-0.52653497 2.9331365 -0.82217914
-0.61096662 3.4034746 -0.76602292
-0.72580129 4.0431771 -0.68482989
-0.9084993 5.0609217 -0.57311314
-1.2205615 6.7993078 -0.38585407
-1.8837909 10.493918 0
-4.3414478 24.184637 1.3724545
-0.45475739 2.5158057 -0.84298259
-0.52427787 2.9004066 -0.8131817
-0.6182428 3.4202387 -0.76996368
-0.73159856 4.0473447 -0.68568498
-0.91599447 5.0674582 -0.5739783
-1.2269275 6.7876 -0.38527352
-1.8904517 10.458344 0
-4.3752899 24.204948 1.3739061
-0.47594064 2.6149406 -0.87639225
-0.53766441 2.954067 -0.82840794
-0.61464065 3.3769946 -0.76039517
-0.73419052 4.0338321 -0.68354553
-0.91841161 5.0459905 -0.57167196
-1.2337335 6.7784505 -0.38483849
-1.8942342 10.407412 0
-4.4026723 24.189419 1.3733256
-0.44613406 2.4344747 -0.81608951
-0.5430423 2.9632859 -0.83117658
-0.61963582 3.3812432 -0.76151985
-0.73952633 4.0354648 -0.68397313
-0.92077821 5.0245242 -0.56936562
-1.2395798 6.7641683 -0.38411239
-1.9002414 10.369282 0
-4.4276824 24.161081 1.3720195
-0.45894051 2.487402 -0.83401722
-0.53342211 2.8910832 -0.81110454
-0.6241833 3.382998 -0.76208436
-0.74347121 4.0295238 -0.68311799
-0.9296636 5.0386643 -0.57109481
-1.2468101 6.7575598 -0.38382238
-1.906631 10.33371 0
-4.4498005 24.11738 1.3698423
-0.46871704 2.5232985 -0.84624249
-0.54470366 2.9323659 -0.82287061
-0.62827051 3.3822412 -0.76208436
-0.74552572 4.0134745 -0.68054938
-0.93055642 5.009572 -0.56792444
-1.2507037 6.733058 -0.38251626
-1.9091351 10.277667 0
-4.4703975 24.066006 1.3672301
-0.48110834 2.58132 -0.86579853
-0.53866118 2.8901117 -0.81110454
-0.6317091 3.3893476 -0.76377141
-0.75359452 4.0433068 -0.68568498
-0.93547845 5.0191793 -0.56907761
-1.2542957 6.7297492 -0.38237128
-1.9120057 10.2586 0
-4.470654 23.986671 1.3628761
-0.47556818 2.5345886 -0.85031652
-0.5398401 2.8771324 -0.80764443
-0.63439965 3.3810971 -0.76208436
-0.75564003 4.0272598 -0.68311799
-0.93772662 4.9977083 -0.56677127
-1.2585928 6.7077975 -0.38121015
-1.9157618 10.210246 0
-4.3851128 23.370901 1.3281894
-0.45936453 2.432013 -0.81608951
-0.54331619 2.876478 -0.80764443
-0.6342389 3.3578501 -0.75701678
-0.75907582 4.018774 -0.68183368
-0.94424427 4.9991107 -0.56705928
-1.262357 6.6832943 -0.37990403
-1.9242333 10.187466 0
-4.4012923 23.301756 1.324561
-0.47661313 2.5067205 -0.84135109
-0.55241472 2.9053948 -0.81595033
-0.63734746 3.3520937 -0.7558921
-0.75769818 3.9850717 -0.67627054
-0.9483515 4.9878025 -0.56590611
-1.2675184 6.6664429 -0.37903291
-1.928278 10.141672 0
-4.4105172 23.196873 1.3189009
-0.47406647 2.4770122 -0.83157152
-0.56063986 2.9293609 -0.82287061
-0.643785 3.3637967 -0.75870597
-0.76685524 4.0068426 -0.68012184
-0.95194709 4.9739537 -0.56446493
-1.2745966 6.6598072 -0.37874293
-1.9341717 10.106108 0
-4.4282861 23.137934 1.3158531
-0.47752801 2.4788716 -0.83238882
-0.564179 2.9286814 -0.82287061
-0.64400387 3.3430562 -0.7542029
-0.76878357 3.9907937 -0.67755485
-0.95893407 4.9778743 -0.56504095
-1.2816588 6.6531544 -0.37845236
-1.9375193 10.057759 0
-4.4444437 23.071329 1.3123698
-0.47769919 2.4637296 -0.82749748
-0.55959964 2.8861306 -0.81110454
-0.64707649 3.3372915 -0.75307822
-0.77849048 4.0150585 -0.68183368
-0.95904016 4.9462419 -0.56158143
-1.2901911 6.6541495 -0.37859738
-1.9452127 10.032418 0
-4.4624276 23.014933 1.3094676
-0.49724329 2.5480483 -0.8560189
-0.56068444 2.873143 -0.80764443
-0.65159464 3.3389986 -0.75364053
-0.7774412 3.9838803 -0.67669809
-0.96551287 4.9476252 -0.56187057
-1.2917608 6.6194334 -0.37671068
-1.9518518 10.00197 0
-4.48874 23.001871 1.309032
-0.49237791 2.4910781 -0.83727705
-0.56616622 2.8643939 -0.80556726
-0.66261703 3.3523655 -0.75701678
-0.79154581 4.0046525 -0.68054938
-0.97546041 4.9351277 -0.5607174
-1.301204 6.5831561 -0.37482402
-1.9588603 9.9104242 0
-4.5372601 22.955273 1.3070004
-0.50165552 2.5219924 -0.84787083
-0.57011586 2.8661659 -0.80625874
-0.66319871 3.334125 -0.75307822
-0.79187727 3.9810359 -0.67669809
-0.97990853 4.926333 -0.55985224
-1.3106788 6.5892272 -0.37525958
-1.9632174 9.8697596 0
-4.2953196 21.594028 1.2297901
-0.48432857 2.419601 -0.81364387
-0.57407057 2.8679326 -0.80695027
-0.6707164 3.3507545 -0.75701678
-0.79416823 3.9674928 -0.67455864
-0.98027557 4.8972449 -0.55668074
-1.3120099 6.5545182 -0.37337291
-1.9736086 9.8597221 0
-4.3198781 21.581177 1.2293545
-0.49603567 2.4626222 -0.82831168
-0.57406926 2.8500283 -0.8021071
-0.67024964 3.3275261 -0.75195134
-0.79794681 3.9614925 -0.67370188
-0.98772484 4.903666 -0.5575459
-1.3153116 6.530005 -0.3720668
-1.9788407 9.8241663 0
-4.3413343 21.553019 1.2280483
-0.50490254 2.4910893 -0.83809125
-0.58249509 2.8739154 -0.80902737
-0.67225087 3.3167527 -0.74969983
-0.79865539 3.9404078 -0.6702798
-0.99313599 4.8999362 -0.55725789
-1.3221675 6.523313 -0.37177622
-1.9808888 9.7733135 0
-4.3441467 21.433159 1.2215172
-0.50050515 2.4541581 -0.82586914
-0.5864681 2.8756654 -0.80971891
-0.678289 3.3258967 -0.75195134
-0.80444098 3.9444656 -0.67113489
-0.99802119 4.8936591 -0.55668074
-1.3258947 6.5013423 -0.37061512
-1.9848952 9.7326603 0
-4.3155251 21.160582 1.2062788
-0.49899921 2.4317634 -0.81853521
-0.58843088 2.867589 -0.80764443
-0.67515767 3.2902329 -0.74407202
-0.8081755 3.9384663 -0.6702798
-1.0028946 4.8873873 -0.55610472
-1.334795 6.5048313 -0.37090567
-1.9903762 9.6996622 0
-4.2857256 20.885544 1.1908944
-0.50543398 2.4480956 -0.82423764
-0.59087992 2.8619573 -0.80625874
-0.68170106 3.3018544 -0.7468859
-0.81604707 3.9525664 -0.67284679
-1.0077524 4.8811011 -0.55552757
-1.3426539 6.5032134 -0.37090567
-1.9947289 9.6615725 0
-4.281538 20.737852 1.182767
-0.49783599 2.3966665 -0.80712414
-0.59433758 2.8612413 -0.80625874
-0.69189137 3.3308818 -0.75364053
-0.81821245 3.9390128 -0.67070735
-1.0125985 4.8748198 -0.55495155
-1.345227 6.47615 -0.36945456
-2.0021672 9.6387711 0
-4.2733006 20.57239 1.1736237
-0.518933 2.4831593 -0.83646286
-0.59215069 2.8335152 -0.79864699
-0.68811852 3.2927334 -0.74519676
-0.82349598 3.9405315 -0.67113489
-1.0147839 4.8558679 -0.55293322
-1.3509251 6.4643459 -0.36887398
-2.0047626 9.5930395 0
-4.2630763 20.399355 1.1640453
-0.52447516 2.494622 -0.84053695
-0.597121 2.8401558 -0.80072147
-0.69209665 3.2918997 -0.74519676
-0.8250888 3.9244657 -0.66856796
-1.0206504 4.8546381 -0.55293322
-1.3523196 6.4321942 -0.36713234
-2.009392 9.5575047 0
-4.2556448 20.241617 1.155337
-0.5213517 2.4649689 -0.83075732
-0.60107297 2.8418939 -0.80141562
-0.69502324 3.286094 -0.74407202
-0.83195496 3.9335117 -0.6702798
-1.0216992 4.8306289 -0.55033886
-1.3595535 6.4280157 -0.36698732
-2.0171688 9.5372438 0
-4.2354755 20.025475 1.1432914
-0.52432978 2.4643373 -0.83075732
-0.60450643 2.8411655 -0.80141562
-0.69793475 3.2802763 -0.74294519
-0.83457029 3.9224601 -0.66856796
-1.0232291 4.8091521 -0.54803252
-1.3662369 6.4212804 -0.36669677
-2.0200276 9.4940805 0
-4.2434473 19.944099 1.1389375
-0.52989298 2.4757838 -0.83483142
-0.60478759 2.8257091 -0.7972613
-0.70455825 3.2918611 -0.74576122
-0.83339882 3.8938341 -0.6638599
-1.0295823 4.8104486 -0.54832166
-1.3707329 6.4043846 -0.36582622
-2.0249617 9.4610949 0
-4.2343698 19.783966 1.1300842
-0.52508253 2.4389052 -0.82260925
-0.6108411 2.8372366 -0.80072147
-0.70960385 3.2959704 -0.7468859
-0.8408041 3.9053698 -0.66599929
-1.035394 4.8092012 -0.54832166
-1.376829 6.3951001 -0.36539066
-2.0254371 9.4077568 0
-4.2238188 19.618807 1.1209407
-0.5259366 2.4286065 -0.81934941
-0.61267745 2.8291478 -0.79864699
-0.70820904 3.270282 -0.74125814
-0.84606516 3.9068575 -0.66642684
-1.0406551 4.8054113 -0.54803252
-1.3779557 6.362957 -0.36364898
-2.0373533 9.4078436 0
-4.2002268 19.3953 1.1084596
-0.52413684 2.4062366 -0.81201547
-0.62463665 2.8676167 -0.80971891
-0.71702659 3.2917657 -0.74632359
-0.84532267 3.8807545 -0.662148
-1.042609 4.7864671 -0.54601532
-1.3834308 6.3511319 -0.3630684
-2.0365348 9.3494368 0
-4.1794181 19.187107 1.096849
-0.52453446 2.4010856 -0.81038398
-0.61780417 2.8280327 -0.79864699
-0.71196598 3.2590637 -0.73900664
-0.85040593 3.8927803 -0.66428745
-1.0499166 4.8060517 -0.54832166
-1.3878217 6.3528309 -0.36321342
-2.0371845 9.3253241 0
-4.1716008 19.095736 1.0917696
-0.54546851 2.4825222 -0.83809125
-0.6287573 2.8615839 -0.8083359
-0.72353637 3.2929399 -0.7468859
-0.85125422 3.8742063 -0.66129291
-1.0507258 4.7820363 -0.54572618
-1.3927093 6.3384624 -0.36248785
-2.0411906 9.289814 0
-4.1628866 18.946022 1.0834967
-0.53086823 2.4022222 -0.81119817
-0.61651582 2.7897842 -0.78826386
-0.72038752 3.2598124 -0.73956895
-0.85648823 3.875679 -0.66172045
-1.0587357 4.7908654 -0.54687935
-1.3958814 6.3164768 -0.36132675
-2.0428679 9.2441435 0
-4.1583042 18.816666 1.0763856
-0.54235047 2.4401827 -0.82423764
-0.62424076 2.8086293 -0.79380119
-0.72763246 3.2738168 -0.74294519
-0.86172706 3.8771448 -0.662148
-1.0594738 4.766861 -0.544285
-1.4006943 6.3021054 -0.36060119
-2.0489547 9.2188063 0
-4.1511583 18.677193 1.0686933
-0.54529858 2.4395256 -0.82423764
-0.62982303 2.8176663 -0.79656982
-0.73214358 3.2754221 -0.74350971
-0.86417121 3.8660798 -0.66043615
-1.0674896 4.7756743 -0.54543817
-1.4077418 6.2978749 -0.3604562
-2.054414 9.1909208 0
-4.1567192 18.596092 1.0643394
-0.55204093 2.4557471 -0.82994318
-0.63928026 2.8438301 -0.80418426
-0.73777097 3.281965 -0.74519676
-0.87165654 3.8775532 -0.66257554
-1.0675877 4.7491508 -0.54255581
-1.4125016 6.2834959 -0.35973063
-2.0558152 9.1452684 0
-4.1444249 18.436422 1.0554866
-0.55282784 2.4454353 -0.82668328
-0.63829052 2.8234794 -0.79864699
-0.73333365 3.2439029 -0.73675507
-0.87011635 3.8489616 -0.65786916
-1.0699023 4.7327156 -0.54082549
-1.4137899 6.2539024 -0.35813394
-2.0639954 9.1300879 0
-4.136332 18.297075 1.0477943
-0.55085164 2.4230769 -0.81934941
-0.64225727 2.8251503 -0.79933846
-0.73556238 3.235579 -0.73506588
-0.87533492 3.8504083 -0.6582967
-1.0750473 4.7288995 -0.54053748
-1.4207699 6.2496586 -0.35798895
-2.0692577 9.1022148 0
-4.1267581 18.152712 1.0398121
-0.54826987 2.3983104 -0.81119817
-0.64958465 2.8414941 -0.80418426
-0.73777211 3.2272546 -0.73337668
-0.87884152 3.8443379 -0.65743995
-1.0801846 4.7250781 -0.54024947
-1.4248447 6.2327337 -0.35711783
-2.0703952 9.0565805 0
-4.1272635 18.053989 1.0344421
-0.57497811 2.5012259 -0.84624249
-0.64514774 2.8064725 -0.79449266
-0.74907297 3.2585599 -0.74069583
-0.88521188 3.8507812 -0.65872425
-1.0853143 4.721251 -0.53996146
-1.4288831 6.2158179 -0.35624728
-2.0749226 9.0261698 0
-4.1234632 17.937574 1.0280565
-0.56519675 2.4451406 -0.82749748
-0.64853835 2.805691 -0.79449266
-0.74328214 3.2155693 -0.73112732
-0.88581884 3.8322082 -0.65572971
-1.090434 4.7174091 -0.53967232
-1.4322956 6.1963625 -0.35523117
-2.0770373 8.9856291 0
-4.1158748 17.805998 1.0207998
-0.5748654 2.473345 -0.83727705
-0.63489032 2.731601 -0.77372915
-0.7494657 3.2245591 -0.73337668
-0.88928527 3.8261292 -0.65487295
-1.0943782 4.7085371 -0.53880829
-1.439194 6.1920986 -0.35508618
-2.0855365 8.9729729 0
-4.103271 17.65423 1.0123825
-0.5435465 2.3258481 -0.78756809
-0.65189236 2.7894626 -0.79034102
-0.7539413 3.2261324 -0.7339412
-0.89215463 3.8175504 -0.65358865
-1.0983005 4.6996531 -0.53794312
-1.4454933 6.1852994 -0.35479617
-2.0910475 8.9476414 0
-4.097991 17.535398 1.0058514
-0.58479887 2.4887936 -0.84298259
-0.65813118 2.8008816 -0.79380119
-0.75435054 3.2103732 -0.73056281
-0.89970446 3.8289719 -0.65572971
-1.1033872 4.695807 -0.53765512
-1.4470211 6.1582479 -0.3533445
-2.0899513 8.8944378 0
-4.0954013 17.429253 1.0000458
-0.57644027 2.4399772 -0.82668328
-0.66497475 2.8147292 -0.79795283
-0.76874584 3.2539749 -0.74069583
-0.90433031 3.8278821 -0.65572971
-1.1072757 4.6869164 -0.53678995
-1.456254 6.164084 -0.35378006
-2.1018927 8.8969669 0
-4.0895762 17.310505 0.99351525
-0.55597049 2.3406885 -0.79327053
-0.66025978 2.7797563 -0.78826386
-0.76563078 3.2233782 -0.7339412
-0.90717465 3.8192914 -0.65444541
-1.1075592 4.6629295 -0.5341956
-1.4546931 6.1243958 -0.35160282
-2.1048234 8.8615065 0
-4.0756626 17.158926 0.98509747
-0.56970644 2.3856936 -0.80875564
-0.66653109 2.7911549 -0.79172403
-0.76126146 3.1878464 -0.72605973
-0.90821016 3.8032064 -0.65187681
-1.1137929 4.6641011 -0.53448361
-1.4651116 6.1352777 -0.35232893
-2.1106935 8.838706 0
-4.0644078 17.02005 0.97740573
-0 0 -0
-0.67634594 2.8171837 -0.79933846
-0.76511282 3.1869242 -0.72605973
-0.91460335 3.809597 -0.65316111
-1.1164093 4.6501794 -0.53304243
-1.4707035 6.1259208 -0.35189337
-2.1140835 8.8057919 0
-4.0710182 16.95701 0.97406739
-0.60156226 2.4924159 -0.84542513
-0.66150439 2.7407706 -0.77788347
-0.77373219 3.2057571 -0.73056281
-0.91920584 3.8084891 -0.65316111
-1.1195999 4.6387696 -0.53188926
-1.4738362 6.1064553 -0.35087726
-2.1204474 8.7855196 0
-4.0506597 16.78285 0.96434349
-0.58068174 2.3932204 -0.81201547
-0.66718179 2.7497213 -0.78065211
-0.77700663 3.202353 -0.73000044
-0.92259753 3.8023911 -0.65230602
-1.126425 4.6424456 -0.53246641
-1.4812136 6.10467 -0.35087726
-2.121856 8.7450113 0
-4.0458179 16.674423 0.95839345
-0.57537222 2.3588953 -0.8006044
-0.67287952 2.7586529 -0.78341806
-0.77605855 3.1816638 -0.72549736
-0.92840677 3.8062568 -0.65316111
-1.134483 4.6511226 -0.53361845
-1.4818174 6.0751143 -0.34928113
-2.128722 8.7272758 0
-4.0511847 16.608936 0.9549101
-0.5929364 2.4182086 -0.82097775
-0.66784924 2.7237303 -0.77372915
-0.78111374 3.1856639 -0.72662425
-0.93300521 3.8051322 -0.65316111
-1.1339438 4.6246324 -0.53073609
-1.4916321 6.0834141 -0.34986171
-2.1318283 8.6943665 0
-4.0452619 16.498037 0.94881451
-0.58521211 2.3742988 -0.80630994
-0.67414123 2.7350984 -0.77718931
-0.78678489 3.192112 -0.72831124
-0.9339174 3.789052 -0.65059412
-1.1382942 4.6182413 -0.53016007
-1.4946281 6.0639443 -0.34884557
-2.1392188 8.6791515 0
-4.0421858 16.399792 0.94344449
-0.59164578 2.3879797 -0.81119817
-0.68348002 2.7586379 -0.78411222
-0.78942043 3.1862309 -0.72718656
-0.93972856 3.7928994 -0.65144926
-1.1469831 4.6294127 -0.53160125
-1.4919556 6.0217791 -0.34652334
-2.1428192 8.6487713 0
-4.0376296 16.296537 0.93778449
-0.58198822 2.3369002 -0.79408467
-0.69044924 2.7724118 -0.78826386
-0.78897095 3.1680133 -0.72324586
-0.93562698 3.7568922 -0.64545852
-1.1475756 4.607945 -0.52929491
-1.4979761 6.0149336 -0.34623334
-2.1450925 8.613348 0
-4.0378532 16.21349 0.93328559
-0.59021491 2.3577807 -0.8014217
-0.68648809 2.7423713 -0.77995795
-0.79341471 3.1695201 -0.72380817
-0.94390482 3.7706954 -0.64802551
-1.1537701 4.6090617 -0.52958292
-1.5083972 6.0257201 -0.34695891
-2.1529706 8.6006517 0
-4.0309405 16.102736 0.92719001
-0.57798684 2.2971456 -0.78104836
-0.6873526 2.7318082 -0.77718931
-0.79228634 3.1488559 -0.7193073
-0.94344926 3.7496364 -0.64460176
-1.1555529 4.5926189 -0.52785373
-1.5074351 5.991137 -0.34507224
-2.1551065 8.5652361 0
-4.0263023 16.002102 0.92167497
-0.57635242 2.2848158 -0.77697432
-0.69207281 2.7435622 -0.78065211
-0.79480946 3.1508379 -0.71986961
-0.94697142 3.7540486 -0.64545852
-1.1608578 4.6019521 -0.5290069
-1.5123243 5.9952593 -0.34536225
-2.1526423 8.5336514 0
-4.0130892 15.908963 0.91644996
-0.59854817 2.360774 -0.8030501
-0.69045484 2.7232695 -0.77511477
-0.79923993 3.1523359 -0.72043198
-0.95340002 3.7603691 -0.64674282
-1.1600597 4.5754695 -0.5261234
-1.5144584 5.9732776 -0.34420112
-2.1533597 8.4932108 0
-3.9984665 15.77062 0.90875828
-0.57820916 2.2690413 -0.77208298
-0.68816763 2.7005465 -0.76888335
-0.80242145 3.1489079 -0.71986961
-0.9547717 3.7467694 -0.64460176
-1.1687802 4.5865941 -0.52756459
-1.5197518 5.9638963 -0.34376612
-2.1649046 8.4956417 0
-4.0021195 15.705346 0.90527493
-0.6103825 2.3832595 -0.81119817
-0.70014548 2.7337422 -0.77857494
-0.80559593 3.1454771 -0.7193073
-0.95802563 3.7406442 -0.64374667
-1.1723981 4.5776687 -0.52670056
-1.5243782 5.9519868 -0.34318557
-2.163547 8.4476442 0
-3.9972408 15.607365 0.89990491
-0.60771734 2.3609803 -0.80386424
-0.70157146 2.7256031 -0.77649778
-0.80812806 3.1395752 -0.71818042
-0.9625448 3.7394838 -0.64374667
-1.1779284 4.5762486 -0.52670056
-1.532863 5.9551687 -0.34347555
-2.1711578 8.4349422 0
-3.9869518 15.489296 0.89337432
-0 0 -0
-0.69606918 2.6907547 -0.76680887
-0.81510216 3.1508937 -0.72099429
-0.96642023 3.7358351 -0.64331907
-1.1795692 4.559793 -0.52497023
-1.5361543 5.9382234 -0.34260499
-2.1767852 8.4146738 0
-3.9893961 15.421579 0.88974595
-0.6171537 2.3738618 -0.80875564
-0.69931996 2.6899116 -0.76680887
-0.8137942 3.1302333 -0.71649122
-0.96641153 3.7172709 -0.64032292
-1.1863809 4.5633759 -0.52554739
-1.5354826 5.9061847 -0.34086332
-2.1804042 8.3868542 0
-3.9903736 15.348844 0.88582706
-0.61752248 2.363549 -0.80549574
-0.70827663 2.7109079 -0.77303767
-0.81629252 3.1243358 -0.71536654
-0.9715507 3.7185819 -0.64075047
-1.182086 4.5243993 -0.52122271
-1.5445892 5.9118695 -0.34129888
-2.1819847 8.3514824 0
-3.9865854 15.258538 0.88089257
-0.61284584 2.3341143 -0.79571617
-0.70836681 2.6979201 -0.7695775
-0.82135636 3.1282575 -0.71649122
-0.97604316 3.7174051 -0.64075047
-1.193463 4.5454803 -0.52381706
-1.5510695 5.9074783 -0.34115332
-2.1900909 8.3412857 0
-3.9839056 15.173295 0.87624872
-0.62260246 2.3596623 -0.8046816
-0.70906603 2.6873591 -0.76680887
-0.82837874 3.139554 -0.7193073
-0.97857136 3.7087839 -0.63946778
-1.1969767 4.5365396 -0.52295303
-1.5542302 5.8905301 -0.34028277
-2.1922007 8.3084373 0
-3.9869888 15.110682 0.87291032
-0.61088336 2.3039577 -0.78593659
-0.71809876 2.7083228 -0.77303767
-0.83086801 3.1336341 -0.71818042
-0.98370928 3.7100778 -0.63989538
-1.1978165 4.5175867 -0.5209347
-1.5553536 5.866045 -0.33897665
-2.1989038 8.2932062 0
-3.9832685 15.02297 0.86812091
-0 0 -0
-0.72201604 2.7098751 -0.77372915
-0.8326906 3.1252596 -0.71649122
-0.99215567 3.7237649 -0.64246231
-1.2032743 4.5161362 -0.5209347
-1.5604329 5.8566265 -0.33854109
-2.202224 8.2654009 0
-3.9773366 14.927765 0.86289644
-0.61836755 2.3096397 -0.78838229
-0.72139812 2.6944647 -0.7695775
-0.82989615 3.0997114 -0.71086347
-0.99067986 3.700248 -0.63861102
-1.2087302 4.514679 -0.5209347
-1.5648203 5.8446965 -0.33796054
-2.2021127 8.2250223 0
-3.980588 14.867732 0.85970366
-0.63271445 2.3518474 -0.8030501
-0.72856259 2.7081223 -0.77372915
-0.83760029 3.1134236 -0.71423972
-0.98781359 3.6717777 -0.63390297
-1.212168 4.5057197 -0.52006954
-1.5691811 5.8327646 -0.33737999
-2.2059653 8.1997395 0
-3.972899 14.767566 0.85418862
-0 0 -0
-0.73576367 2.7217758 -0.77788347
-0.83804697 3.1001472 -0.71142578
-0.99693942 3.6879306 -0.63689917
-1.2162627 4.4992628 -0.51949352
-1.5694481 5.8057852 -0.33592886
-2.2104383 8.1769695 0
-3.9703984 14.687507 0.84983468
-0 0 -0
-0.72524267 2.6700449 -0.7633487
-0.84046149 3.094233 -0.7103011
-1.0013949 3.6867235 -0.63689917
-1.2196637 4.4902997 -0.51862836
-1.5805476 5.8189249 -0.33679941
-2.2169065 8.1617374 0
-3.9683909 14.609981 0.84562582
-0.6249674 2.2899308 -0.78267676
-0.73441255 2.6909466 -0.7695775
-0.84419966 3.0932152 -0.7103011
-1.0092275 3.6978908 -0.63903862
-1.2210038 4.473856 -0.51689917
-1.5807372 5.7919483 -0.33534831
-2.2233415 8.1465015 0
-3.9696217 14.545012 0.84214246
-0.64015353 2.334465 -0.79816186
-0.73434687 2.6779623 -0.76611733
-0.85196704 3.1068909 -0.71367735
-1.002833 3.6570578 -0.63219112
-1.2264087 4.4723773 -0.51689917
-1.5842993 5.7775068 -0.33462274
-2.2290552 8.1287546 0
-3.9597092 14.439978 0.83633745
-0.6291877 2.2836528 -0.78104836
-0.73957932 2.6843221 -0.76819187
-0.85167229 3.0911663 -0.7103011
-1.0140711 3.6805968 -0.63647163
-1.2318118 4.4708924 -0.51689917
-1.5919687 5.778091 -0.33476776
-2.2326519 8.103467 0
-3.9578285 14.36504 0.83227354
-0 0 -0
-0.74136049 2.6656146 -0.7633487
-0.85369325 3.069515 -0.70579803
-1.0133342 3.6435153 -0.63048089
-1.2363758 4.4454775 -0.51430482
-1.5989662 5.7491975 -0.33331662
-2.2271268 8.0077934 0
-3.9570248 14.227765 0.82487184
-0 0 -0
-0.73512751 2.6308854 -0.7536571
-0.85945356 3.0758252 -0.70748723
-1.0191162 3.6472282 -0.63133603
-1.2424418 4.4464693 -0.51459283
-1.6059119 5.747261 -0.33331662
-2.242404 8.0251484 0
-3.956732 14.160411 0.82124346
-0 0 -0
-0.75322199 2.6831293 -0.76888335
-0.85973376 3.0625458 -0.7046712
-1.0235224 3.6459942 -0.63133603
-1.248512 4.4474525 -0.51488084
-1.6079383 5.7278018 -0.33230051
-2.2457693 7.9998851 0
-3.95207 14.078074 0.81674457
-0.63693547 2.2584028 -0.77371448
-0.74352682 2.6363471 -0.75573426
-0.8606748 3.0517225 -0.70241964
-1.027231 3.6422865 -0.63090843
-1.2461615 4.4185553 -0.51170933
-1.6155627 5.7283535 -0.33244553
-2.251194 7.982132 0
-3.9458027 13.990761 0.81195509
-0.65044153 2.2956705 -0.78675079
-0.74944735 2.6451018 -0.7585029
-0.87267345 3.0800164 -0.70917428
-1.0302303 3.6360981 -0.63005167
-1.2571402 4.4369545 -0.51401567
-1.6175268 5.7089038 -0.33142996
-2.2544529 7.9568729 0
-3.9520791 13.94848 0.80977786
-0.63697517 2.2429745 -0.76882309
-0.74898851 2.6374063 -0.75642574
-0.87106413 3.0672698 -0.7063604
-1.0303251 3.6280739 -0.62876904
-1.2555823 4.4212704 -0.51228648
-1.6174241 5.6954203 -0.33070385
-2.2571261 7.9479966 0
-3.9349532 13.856113 0.80455339
-0.65188897 2.2849808 -0.7834909
-0.76249951 2.6726892 -0.76680887
-0.87337685 3.0613329 -0.70523572
-1.0382288 3.6391668 -0.63090843
-1.2587942 4.4122858 -0.51142132
-1.6250197 5.6959677 -0.33084941
-2.2595897 7.9202418 0
-3.936723 13.798877 0.80150563
-0.65873647 2.2984517 -0.78838229
-0.75259519 2.6259418 -0.7536571
-0.87357301 3.0480554 -0.70241964
-1.0390897 3.6255734 -0.62876904
-1.2648365 4.4132457 -0.51170933
-1.6218771 5.6590252 -0.32881716
-2.2662899 7.9074988 0
-3.9347816 13.72917 0.79773229
-0.66151321 2.2976539 -0.78838229
-0.75785053 2.6322653 -0.75573426
-0.87936497 3.0543253 -0.70410883
-1.0349469 3.594713 -0.62363344
-1.2658759 4.3968058 -0.50998014
-1.6337469 5.6745424 -0.3298333
-2.2686441 7.8797503 0
-3.9298017 13.6495 0.79337835
-0 0 -0
-0.75615078 2.6144755 -0.75088847
-0.8788206 3.03862 -0.70073259
-1.0449954 3.6131878 -0.62705714
-1.2704698 4.3927908 -0.50969213
-1.6348268 5.652595 -0.32867217
-2.2658722 7.8345051 0
-3.9253564 13.572355 0.78916949
-0.67258024 2.3150363 -0.79490203
-0.76210904 2.6231966 -0.7536571
-0.88674355 3.0521913 -0.70410883
-1.0479267 3.6069875 -0.62620038
-1.2779423 4.398706 -0.51055729
-1.6423799 5.6531086 -0.32881716
-2.2760625 7.8342586 0
-3.920006 13.492749 0.78481555
-0.66291207 2.2715101 -0.78023106
-0.76317161 2.6150558 -0.75158262
-0.88758349 3.0413609 -0.70185733
-1.0494076 3.5958614 -0.62448853
-1.2760088 4.3723249 -0.5076738
-1.6470276 5.6436439 -0.32838216
-2.2760494 7.799027 0
-3.9232018 13.443099 0.78220278
-0.65105581 2.220902 -0.76311755
-0.77620989 2.6478314 -0.76127154
-0.88911271 3.032969 -0.70016813
-1.0566403 3.6044445 -0.62620038
-1.2783806 4.3608518 -0.50652063
-1.6501887 5.6291752 -0.32765606
-2.2840056 7.7912717 0
-3.9219017 13.378514 0.77871996
-0 0 -0
-0.76948893 2.6132038 -0.75158262
-0.89493072 3.0392072 -0.70185733
-1.0573699 3.5908549 -0.62406099
-1.2851115 4.3642707 -0.50709778
-1.656256 5.6246867 -0.32751107
-2.2897434 7.7760262 0
-3.918982 13.308962 0.77494663
-0.66974103 2.2643564 -0.77860272
-0.77264595 2.612272 -0.75158262
-0.89860231 3.0381236 -0.70185733
-1.063893 3.596962 -0.62534529
-1.2911168 4.3651929 -0.50738579
-1.6549462 5.5952792 -0.32591495
-2.2954476 7.760778 0
-3.9188452 13.249393 0.77175331
-0.68655425 2.3109307 -0.79490203
-0.77651554 2.6137393 -0.75227416
-0.89576077 3.0151167 -0.69679189
-1.0675052 3.5932059 -0.62491608
-1.2949158 4.3586659 -0.50680864
-1.6587458 5.583312 -0.32533437
-2.302599 7.7505121 0
-3.8985949 13.122609 0.76464218
-0.67026323 2.2461503 -0.77289712
-0.7846927 2.6296203 -0.75711727
-0.9052158 3.0335107 -0.70129496
-1.06671 3.5747013 -0.62192154
-1.2972258 4.3471937 -0.5056566
-1.6617737 5.5688472 -0.32460827
-2.3067553 7.7302747 0
-3.8988454 13.065602 0.76159436
-0.67510629 2.2524436 -0.77534282
-0.7821101 2.6094542 -0.75158262
-0.90304452 3.0129433 -0.69679189
-1.0710285 3.5734098 -0.62192154
-1.3017329 4.3431382 -0.50536746
-1.6677561 5.5643482 -0.32446328
-2.3145983 7.7224908 0
-3.9012029 13.016084 0.75898212
-0.68067729 2.2610931 -0.77860272
-0.78092206 2.594089 -0.74742836
-0.90815073 3.0167208 -0.69791871
-1.0790447 3.5844011 -0.62406099
-1.3054901 4.3366137 -0.50479144
-1.6752266 5.564815 -0.32460827
-2.3141758 7.6872945 0
-3.899699 12.95413 0.75564378
-0.65837455 2.1774716 -0.75008124
-0.78333056 2.5907445 -0.74673682
-0.91326451 3.0204809 -0.69904339
-1.072975 3.5486987 -0.61807024
-1.3077347 4.32513 -0.50363827
-1.6774386 5.5478678 -0.32373771
-2.3204498 7.6745281 0
-3.8957973 12.884745 0.75187045
-0.68183178 2.2452562 -0.77371448
-0.78062856 2.5705919 -0.74119955
-0.90510041 2.9804747 -0.69003725
-1.080991 3.5596786 -0.62020969
