# .PCD v0.7 - Point Cloud Data file format
VERSION 0.7
FIELDS x y z
SIZE 4 4 4
TYPE F F F
COUNT 1 1 1
WIDTH 1517
HEIGHT 1
VIEWPOINT 0 0 0 1 0 0 0
POINTS 1517
DATA ascii
-3.6221972 -0.99798089 0.2098608
-2.2362022 -0.61902231 -0.76507473
-2.408782 -0.66679561 -0.68956864
-2.6160686 -0.72417635 -0.60133183
-2.7254343 -0.75445086 -0.47145632
-2.9773304 -0.82418036 -0.3443369
-3.6611724 -1.0134805 -0.21218973
-3.6198962 -1.0020545 0
-3.6084697 -0.99889141 0.20913525
-2.2096369 -0.61310601 -0.75611246
-2.4083788 -0.6682508 -0.68956864
-2.5984988 -0.72100317 -0.59739321
-2.7150836 -0.75335187 -0.46974444
-2.994271 -0.83081776 -0.34635413
-3.6505442 -1.0129133 -0.21160917
-3.6167848 -1.0035461 0
-3.6178808 -1.0038502 0.2097158
-2.256511 -0.6290496 -0.77241176
-2.4486499 -0.68261236 -0.70133471
-2.5804904 -0.7193656 -0.59345251
-2.7290127 -0.76076937 -0.47231308
-3.0082185 -0.83860379 -0.34808442
-3.6543188 -1.0187178 -0.21189918
-3.6281016 -1.0114092 0
-3.6141648 -1.0075239 0.20957081
-2.1867309 -0.61244547 -0.74877858
-2.4188335 -0.67745131 -0.69302881
-2.5771749 -0.72179848 -0.59289014
-2.7379794 -0.76683557 -0.47402495
-3.0171657 -0.84502828 -0.34923759
-3.6355772 -1.018229 -0.21088362
-3.6168528 -1.0129848 0
-3.5854185 -1.0041809 0.20797414
-2.2073998 -0.62111169 -0.75611246
-2.4324985 -0.68444932 -0.69718045
-2.5616205 -0.72078133 -0.58951175
-2.7345726 -0.76944602 -0.47359574
-3.0136454 -0.84797072 -0.34894848
-3.6068273 -1.0148785 -0.20928694
-3.6206412 -1.0187654 0
-4.9398441 -1.389959 0.28663555
-2.1899967 -0.61907148 -0.75040692
-2.4944427 -0.70513278 -0.71517795
-2.575423 -0.72802442 -0.59289014
-2.7361183 -0.77344996 -0.47402495
-3.0225744 -0.85442585 -0.35010165
-3.5655909 -1.0079266 -0.2069647
-5.0042505 -1.414609 0
-4.9356632 -1.3952206 0.28649053
-2.2003758 -0.62775177 -0.75448096
-2.4468913 -0.69808096 -0.70202625
-2.5809886 -0.73633802 -0.59457934
-2.7465816 -0.78358048 -0.47616437
-3.0279648 -0.86385715 -0.35096681
-3.5231647 -1.0051342 -0.20464247
-4.963275 -1.4159876 0
-3.5055654 -1.0001132 0.20362023
-2.1758606 -0.62360191 -0.74633288
-2.4894516 -0.71347708 -0.7144838
-2.5629969 -0.73455513 -0.59063864
-2.7628996 -0.79184735 -0.47915891
-3.0269189 -0.86751527 -0.35096681
-3.5269482 -1.0108237 -0.20493303
-3.6381886 -1.0427052 0
-3.5293286 -1.011506 0.20507134
-2.1632323 -0.62281209 -0.74225885
-2.4861791 -0.71579117 -0.71379232
-2.5669861 -0.73905611 -0.59176332
-2.7570119 -0.79376608 -0.47830379
-3.0432694 -0.87618196 -0.35298511
-3.5182309 -1.0129272 -0.20449747
-3.6894429 -1.0622205 0
-3.5355973 -1.0179271 0.20550691
-2.209964 -0.63915926 -0.75855815
-2.4588003 -0.71112686 -0.70617789
-2.5587757 -0.74004149 -0.59007627
-2.7560508 -0.79709679 -0.47830379
-3.0372345 -0.87841994 -0.35240799
-3.5244951 -1.019344 -0.20493303
-3.9856446 -1.1527163 0
-3.5593214 -1.0294163 0.20695801
-2.185451 -0.63493222 -0.75040692
-2.4531255 -0.71269882 -0.70479488
-2.5505571 -0.74100536 -0.58838707
-2.7575483 -0.80114186 -0.47873136
-3.0734301 -0.89291394 -0.35673264
-3.5232608 -1.0236019 -0.20493303
-4.0167356 -1.1669695 0
-3.6054876 -1.047491 0.2097158
-2.1846821 -0.63757241 -0.75040692
-2.4739349 -0.72198725 -0.71102369
-2.5618534 -0.7476452 -0.59120095
-2.7688973 -0.80806839 -0.48087078
-3.1418607 -0.91691315 -0.36480373
-3.5319991 -1.0307702 -0.2055136
-3.9853432 -1.1630731 0
-3.9209909 -1.1442926 0.22814754
-2.1886582 -0.64160365 -0.75203842
-2.475466 -0.72568107 -0.71171516
-2.5536311 -0.74859512 -0.58951175
-2.7753115 -0.81358063 -0.48215508
-3.4782975 -1.0196604 -0.40401039
-3.5332422 -1.0357674 -0.20565858
-3.9664605 -1.162765 0
-4.0018892 -1.1731509 0.23293701
-2.183135 -0.6428501 -0.75040692
-2.4601524 -0.72442108 -0.70756352
-2.5649188 -0.75527084 -0.59232783
-2.7669365 -0.81475741 -0.48087078
-3.578778 -1.0538138 -0.415829
-3.5369782 -1.0415053 -0.20594914
-3.9750385 -1.1704974 0
-4.0029588 -1.1787188 0.23308201
-2.225014 -0.65810454 -0.76507473
-2.4809246 -0.73379654 -0.71379232
-2.5591264 -0.75692677 -0.59120095
-2.7856433 -0.82392484 -0.4842945
-0 -0 -0
-3.5431852 -1.0479871 -0.20638415
-4.0534716 -1.1989174 0
-4.0040212 -1.184291 0.233227
-2.2005293 -0.65375507 -0.75692666
-2.4656115 -0.7325083 -0.70964068
-2.5655193 -0.76218992 -0.59289014
-2.7797289 -0.82582945 -0.48343942
-3.5811844 -1.0639338 -0.41640612
-3.5493913 -1.0544883 -0.20681971
-4.0520201 -1.2038144 0
-4.0050755 -1.1898676 0.233372
-2.1926303 -0.65429258 -0.75448096
-2.4743407 -0.73835647 -0.71240932
-2.5694616 -0.76674104 -0.59401488
-2.776262 -0.8284514 -0.4830102
-3.5798962 -1.0682602 -0.41640612
-3.5730093 -1.066205 -0.20827082
-4.0630293 -1.2124296 0
-4.0310268 -1.2028799 0.23496868
-2.1732998 -0.64995444 -0.74796438
-2.4762952 -0.74056935 -0.71310085
-2.5665658 -0.76756591 -0.59345251
-2.7806847 -0.83160102 -0.48386696
-3.5817258 -1.0711632 -0.41669413
-3.5972643 -1.0758101 -0.2097225
-4.0747609 -1.2186118 0
-4.0327864 -1.2060589 0.23511368
-2.2080128 -0.66324347 -0.76018649
-2.4898105 -0.74788988 -0.71725249
-2.5510402 -0.76628214 -0.59007627
-2.7821338 -0.83569813 -0.4842945
-3.57547 -1.0740006 -0.41611701
-3.6009343 -1.0816495 -0.2100125
-4.0807652 -1.2257813 0
-4.0537214 -1.2176578 0.2364198
-2.2024817 -0.6644845 -0.75855815
-2.4961126 -0.75307238 -0.7193296
-2.5598428 -0.77229965 -0.59232783
-2.7786667 -0.83831841 -0.48386696
-3.5741696 -1.0783201 -0.41611701
-3.6369424 -1.0972586 -0.21218973
-4.1066909 -1.2389807 0
-4.0920501 -1.2345636 0.23874202
-2.1874804 -0.66284341 -0.75366682
-2.5216138 -0.76409143 -0.72694409
-2.5686345 -0.77833956 -0.59457934
-2.8095872 -0.85135227 -0.48943013
-3.5580168 -1.0781391 -0.41438779
-3.6356139 -1.1016523 -0.21218973
-4.1002045 -1.242431 0
-4.1104498 -1.2455355 0.23990314
-2.1559412 -0.6561318 -0.74307305
-2.5038857 -0.76202404 -0.72209829
-2.5774155 -0.78440183 -0.5968309
-2.7962797 -0.8510102 -0.48729071
-3.5393882 -1.0771652 -0.41236949
-3.6417305 -1.1083118 -0.21262473
-4.1310649 -1.2572341 0
-4.1238523 -1.2550391 0.24077371
-2.1929655 -0.67029583 -0.75611246
-2.4765699 -0.75698161 -0.7144838
-2.574029 -0.7867707 -0.59626639
-2.7977018 -0.85513794 -0.48771825
-3.5257187 -1.0776616 -0.41092831
-3.6602685 -1.1187876 -0.21378584
-4.1469669 -1.2675506 0
-4.1297898 -1.2623004 0.24120925
-2.1756122 -0.66786718 -0.75040692
-2.4756534 -0.75997347 -0.7144838
-2.577939 -0.79137307 -0.59739321
-2.8089345 -0.86228377 -0.48985767
-3.5244141 -1.081921 -0.41092831
-3.6614051 -1.1239743 -0.2139314
-4.1877241 -1.2855432 0
-4.1357164 -1.2695779 0.24164481
-2.1700842 -0.6690405 -0.74877858
-2.4627485 -0.75926936 -0.71102369
-2.5866935 -0.79748183 -0.59964478
-2.8250649 -0.8709721 -0.49285385
-3.5107481 -1.0823693 -0.4094871
-3.6898322 -1.1375812 -0.21567252
-4.2209811 -1.3013353 0
-4.1763897 -1.2875878 0.24411204
-2.1834359 -0.67604697 -0.75366682
-2.4786072 -0.76743942 -0.71586949
-2.580869 -0.79910225 -0.59851795
-2.8068426 -0.8690694 -0.48985767
-3.4995546 -1.0835506 -0.40833396
-3.7157614 -1.1504936 -0.2172692
-4.231843 -1.3102856 0
-4.1723514 -1.2918653 0.24396704
-2.1779017 -0.67721832 -0.75203842
-2.4680955 -0.76745409 -0.71310085
-2.5896068 -0.80523795 -0.60076946
-2.8205028 -0.87703508 -0.49242631
-3.4982429 -1.0877783 -0.40833396
-3.7118897 -1.1542118 -0.21712419
-4.1432748 -1.2883509 0
-4.1459699 -1.289189 0.24251537
-2.2289808 -0.69605619 -0.76996613
-2.4767454 -0.77342701 -0.71586949
-2.5910549 -0.8091231 -0.60133183
-2.8169837 -0.87967509 -0.49199709
-3.4870503 -1.0889206 -0.40718079
-3.7204137 -1.1617942 -0.21770474
-0 -0 0
-4.1468964 -1.2949743 0.24266092
-2.1644692 -0.67878228 -0.74796438
-2.4710166 -0.77491623 -0.7144838
-2.5876532 -0.81149369 -0.60076946
-2.8134716 -0.88231081 -0.49156955
-3.4857321 -1.0931332 -0.40718079
-3.7165208 -1.165509 -0.21755919
-3.9092185 -1.2259395 0
-4.1428423 -1.2992043 0.24251537
-2.2155073 -0.69772929 -0.76589203
-2.4652975 -0.77639568 -0.71310085
-2.5866709 -0.81461978 -0.60076946
-2.8221974 -0.88879412 -0.49328142
-3.4770052 -1.0950127 -0.40631562
-3.7250235 -1.173121 -0.21813975
-4.0070267 -1.2619323 0
-0 -0 0
-2.1746032 -0.68773669 -0.75203842
-2.4739254 -0.78239989 -0.71586949
-2.5905344 -0.81927848 -0.60189635
-2.8235667 -0.89297688 -0.49370897
-3.4658153 -1.0960934 -0.40516245
-3.7211282 -1.1768383 -0.21799475
-4.0824142 -1.2910981 0
-0 -0 0
-2.1831932 -0.69335628 -0.75529826
-2.4705894 -0.78462994 -0.71517795
-2.5992296 -0.82548445 -0.60414785
-2.8249393 -0.89716721 -0.49413818
-3.4644883 -1.1002804 -0.40516245
-3.7370417 -1.1868402 -0.21901086
-4.0585299 -1.2889409 0
-4.1182933 -1.3079211 0.24135426
-2.1827738 -0.69467515 -0.75529826
-2.4964049 -0.79448926 -0.72278976
-2.5890453 -0.82397234 -0.60189635
-2.8317282 -0.90120703 -0.49542084
-3.4588983 -1.100806 -0.4045864
-3.7387977 -1.1898849 -0.21915586
-4.0007095 -1.2732393 0
-4.1125546 -1.3088343 0.24106427
-2.1324949 -0.68151242 -0.73818481
-2.4763255 -0.79139543 -0.71725249
-2.5928838 -0.82864565 -0.60302103
-2.8526421 -0.91166037 -0.49927214
-3.4624884 -1.1065578 -0.40516245
-3.7423122 -1.1959852 -0.21944642
-3.9099343 -1.2495546 0
-4.1159158 -1.3153831 0.24135426
-2.1646128 -0.6946606 -0.74959272
-2.4849226 -0.79745334 -0.72002113
-2.6112356 -0.83798933 -0.6075241
-2.8466544 -0.91353923 -0.49841702
-3.456228 -1.1091616 -0.4045864
-3.7458079 -1.2020926 -0.21973643
-3.83161 -1.229628 0
-4.1242199 -1.3235314 0.24193482
-2.2108214 -0.71243727 -0.76589203
-2.4672492 -0.79507118 -0.71517795
-2.6102211 -0.84114391 -0.6075241
-2.8504305 -0.91855139 -0.49927214
-3.4573448 -1.1141295 -0.40487444
-3.7517748 -1.2090095 -0.22017199
-3.7483807 -1.2079159 0
-4.1201468 -1.3277175 0.24178982
-2.23347 -0.72271591 -0.77404016
-2.4567389 -0.79496229 -0.71240932
-2.6188729 -0.84742624 -0.6097756
-2.8639777 -0.92673832 -0.50184077
-3.4535375 -1.1175107 -0.4045864
-3.7503111 -1.213542 -0.22017199
-3.786536 -1.2252638 0
-4.1185398 -1.332695 0.24178982
-2.1785371 -0.70784962 -0.75529826
-2.4629278 -0.80025375 -0.7144838
-2.6154327 -0.84980559 -0.60921329
-2.8384461 -0.92226708 -0.4975619
-3.4644818 -1.1256783 -0.40602762
-3.7340097 -1.2132533 -0.21930087
-3.7627695 -1.222598 0
-4.1193953 -1.3384726 0.24193482
-2.2411158 -0.73117769 -0.7773
-2.4476533 -0.79856181 -0.71033216
-2.614404 -0.85296524 -0.60921329
-2.8617296 -0.93365675 -0.50184077
-3.4606626 -1.1290622 -0.40573958
-3.7350185 -1.2185725 -0.21944642
-3.7736673 -1.231182 0
-4.1128392 -1.3418388 0.24164481
-2.1415863 -0.7015698 -0.74307305
-2.4538412 -0.80386251 -0.71240932
-2.6133714 -0.85612363 -0.60921329
-2.8679204 -0.93951219 -0.50312507
-3.45684 -1.1324385 -0.40545157
-3.7360103 -1.2238928 -0.21959142
-3.8438966 -1.2592357 0
-4.1136818 -1.3476156 0.24178982
-2.164211 -0.71187836 -0.75122112
-2.5076737 -0.82485425 -0.72832704
-2.6292238 -0.86483598 -0.61315185
-2.857029 -0.93976837 -0.50141323
-3.4530053 -1.1358041 -0.40516245
-3.7444019 -1.2316538 -0.22017199
-3.8448422 -1.2646918 0
-4.1145163 -1.3533963 0.24193482
-2.1422293 -0.7075175 -0.74388719
-2.4495025 -0.80900109 -0.71171516
-2.6450684 -0.87359101 -0.61709261
-2.8753917 -0.9496603 -0.50483692
-3.4442694 -1.1375444 -0.40429839
-3.7355065 -1.2337319 -0.21973643
-3.855665 -1.2734166 0
-4.1128778 -1.3583668 0.24193482
-2.1882923 -0.72566456 -0.76018649
-2.4437652 -0.81038249 -0.71033216
-2.6223073 -0.86958927 -0.61202717
-2.8693643 -0.95151639 -0.50398016
-0 -0 -0
-3.7463427 -1.2423332 -0.22046198
-3.8294258 -1.2698846 0
-4.1112337 -1.3633355 0.24193482
-2.2014797 -0.7329914 -0.76507473
-2.4523053 -0.81650484 -0.71310085
-2.6188462 -0.87195528 -0.6114648
-2.8730884 -0.95660621 -0.50483692
-3.4439621 -1.1466808 -0.4045864
-3.7522373 -1.2493223 -0.22089754
-3.8550432 -1.2835519 0
-4.1317697 -1.375689 0.24324094
-2.1888742 -0.73173356 -0.76100069
-2.4489398 -0.81867272 -0.71240932
-2.6394768 -0.88236856 -0.61653024
-2.8767951 -0.9617033 -0.50569206
-3.442574 -1.1508414 -0.4045864
-3.7729023 -1.2612691 -0.22220366
-3.8238707 -1.2783076 0
-4.1301041 -1.3806806 0.24324094
-2.1598706 -0.72494042 -0.75122112
-2.4836178 -0.83360308 -0.72278976
-2.6480439 -0.8887912 -0.61878181
-2.8683276 -0.96272737 -0.50440776
-3.4485393 -1.15747 -0.40545157
-3.7664535 -1.2641749 -0.22191365
-3.8247976 -1.2837576 0
-4.1259718 -1.3848439 0.24309593
-2.1613421 -0.72834122 -0.75203842
-2.4588392 -0.82859343 -0.71586949
-2.6277053 -0.88549888 -0.61427873
-2.8720322 -0.96783358 -0.50526452
-3.4299786 -1.1558535 -0.40343323
-3.7772326 -1.2728732 -0.22263922
-3.8257074 -1.2892084 0
-4.1489244 -1.3981278 0.24454761
-2.1487565 -0.72699243 -0.74796438
-2.4530787 -0.82995427 -0.7144838
-2.6506975 -0.896815 -0.61990649
-2.8927433 -0.97870678 -0.50911582
-3.4334843 -1.1616565 -0.40401039
-3.775692 -1.2774363 -0.22263922
-3.8192117 -1.2921604 0
-4.1472321 -1.4031399 0.24454761
-2.181083 -0.73939836 -0.75937235
-2.443073 -0.82821429 -0.71171516
-2.6429338 -0.89596814 -0.61821729
-2.8897228 -0.97963089 -0.50868821
-3.4303253 -1.1628978 -0.40372127
-3.7749195 -1.2797171 -0.22263922
-3.8282893 -1.2978097 0
-4.1513004 -1.4073122 0.24483761
-2.226984 -0.75796038 -0.77567166
-2.4610703 -0.8376323 -0.71725249
-2.6659079 -0.90734935 -0.62384719
-2.9031134 -0.98808295 -0.5112552
-3.4166772 -1.1628759 -0.40228009
-3.7758279 -1.2851138 -0.22278421
-3.8217957 -1.3007591 0
-4.1520543 -1.4131637 0.2449826
-2.1605792 -0.73827356 -0.75285262
-2.4291966 -0.8300606 -0.70825505
-2.6672115 -0.91139072 -0.62440956
-2.887347 -0.98661131 -0.50868821
-3.4299595 -1.1720229 -0.40401039
-3.7742724 -1.2896752 -0.22278421
-3.8349926 -1.3104235 0
-4.1478872 -1.4173402 0.24483761
-2.1667013 -0.74329048 -0.75529826
-2.4376841 -0.8362515 -0.71102369
-2.7021618 -0.92698103 -0.63285339
-2.8982911 -0.99426353 -0.51082766
-3.430985 -1.1770051 -0.40429839
-3.7776222 -1.2959195 -0.22307421
-3.8506405 -1.3209685 0
-4.1437163 -1.4215087 0.24469261
-2.1751492 -0.74912727 -0.75855815
-2.4936006 -0.85880274 -0.72763556
-2.7130497 -0.9343816 -0.63566726
-2.9092212 -1.0019436 -0.51296711
-3.4222214 -1.1786224 -0.40343323
-3.7907994 -1.3055615 -0.22394533
-3.8465831 -1.3247737 0
-4.1395411 -1.4256692 0.24454761
-2.2443156 -0.7759831 -0.78300554
-2.4427714 -0.84460014 -0.71310085
-2.7215242 -0.94098032 -0.63791877
-2.9104321 -1.0062962 -0.51339465
-3.4159105 -1.1810678 -0.40285721
-3.7965889 -1.3126892 -0.22438088
-3.8794098 -1.3413249 0
-4.1279922 -1.4272735 0.24396704
-2.1336408 -0.74060422 -0.74470454
-2.4464846 -0.84919488 -0.7144838
-2.7299869 -0.94760084 -0.64017034
-2.9140692 -1.0114973 -0.51425141
-3.4095893 -1.1834965 -0.40228009
-3.7827191 -1.3130128 -0.22365478
-3.8900769 -1.3502777 0
-4.1483555 -1.4399282 0.24527316
-2.1420801 -0.74643499 -0.74796438
-2.4383564 -0.84967619 -0.71240932
-2.750432 -0.9584229 -0.64523572
-2.92011 -1.0175494 -0.51553404
-3.4154866 -1.1901696 -0.40314522
-3.795857 -1.3227144 -0.22452588
-3.8933623 -1.3566914 0
-4.1269827 -1.4380993 0.24411204
-2.1435075 -0.74983805 -0.74877858
-2.4420595 -0.85427701 -0.71379232
-2.7540643 -0.96342194 -0.64636046
-2.9237292 -1.0227739 -0.5163908
-3.4091585 -1.1925858 -0.4025681
-3.7967062 -1.3281572 -0.22467089
-3.8892565 -1.360533 0
-4.1399531 -1.4482313 0.2449826
-2.2451985 -0.78845757 -0.78463393
-2.4481289 -0.85972172 -0.71586949
-2.7409136 -0.96254033 -0.64354652
-2.9200716 -1.0254562 -0.51596326
-3.4077148 -1.1967043 -0.4025681
-3.7950985 -1.3327438 -0.22467089
-3.8998942 -1.3695455 0
-4.1357512 -1.4523724 0.24483761
-2.1766474 -0.76733983 -0.76100069
-2.4707444 -0.87101865 -0.72278976
-2.7493339 -0.96923065 -0.64579809
-2.9115651 -1.0264224 -0.51467896
-3.4062665 -1.2008209 -0.4025681
-3.7959337 -1.3381915 -0.22481589
-3.9055929 -1.37685 0
-4.1290965 -1.4556425 0.24454761
-2.1897032 -0.77491832 -0.76589203
-2.4460442 -0.86563534 -0.71586949
-2.7481608 -0.972552 -0.64579809
-2.9272649 -1.0359355 -0.51767516
-3.4072583 -1.2058012 -0.40285721
-3.7796214 -1.3375776 -0.22394533
-3.9088378 -1.3833063 0
-4.1493788 -1.4684317 0.24585372
-2.1491742 -0.76349884 -0.75203842
-2.4308078 -0.86354971 -0.71171516
-2.7445917 -0.97502214 -0.64523572
-2.9381037 -1.0437677 -0.51981455
-3.3984847 -1.207319 -0.40199205
-3.7926888 -1.347361 -0.22481589
-3.9047136 -1.3871579 0
-4.1280131 -1.4664856 0.24469261
-2.1435897 -0.76443315 -0.75040692
-2.4392147 -0.86985695 -0.7144838
-2.7410204 -0.97748506 -0.64467341
-2.9392557 -1.0481784 -0.52024209
-3.3994572 -1.2122926 -0.40228009
-3.7910581 -1.3519427 -0.22481589
-3.9569583 -1.411105 0
-4.1140032 -1.4671092 0.24396704
-2.1682637 -0.77618659 -0.75937235
-2.4192657 -0.8660394 -0.70894653
-2.7565763 -0.98678839 -0.64861196
-2.9718189 -1.0638402 -0.52623284
-3.4077306 -1.2198862 -0.40343323
-3.7845335 -1.3547726 -0.22452588
-4.0654993 -1.4553516 0
-4.1391311 -1.48171 0.24556316
-2.1998837 -0.79050583 -0.77078027
-2.4276614 -0.87235552 -0.71171516
-2.7482152 -0.98754317 -0.64692491
-3.0067711 -1.0804527 -0.53265274
-3.3989494 -1.221378 -0.4025681
-3.7975614 -1.3646151 -0.22539644
-4.1568017 -1.4937044 0
-4.1324515 -1.4849545 0.24527316
-2.1505728 -0.77425385 -0.75366682
-2.427134 -0.87382203 -0.71171516
-2.7452204 -0.9883402 -0.64636046
-3.0278533 -1.0900942 -0.53650403
-3.3957798 -1.2225559 -0.40228009
-3.7967362 -1.3669091 -0.22539644
-4.2244606 -1.5208994 0
-4.1462178 -1.4927303 0.24614373
-2.1263952 -0.76845306 -0.74551868
-2.4213622 -0.87505043 -0.71033216
-2.7535827 -0.99511087 -0.64861196
-3.072407 -1.11033 -0.54463583
-0 -0 -0
-3.7950819 -1.3714957 -0.22539644
-4.0512943 -1.4640877 0
-4.1077619 -1.4844944 0.24396704
-2.1579893 -0.78282005 -0.75692666
-2.4792604 -0.89936262 -0.72763556
-2.7691009 -1.0045035 -0.65255272
-3.0903594 -1.1210414 -0.54805791
-0 -0 -0
-3.8031926 -1.3796247 -0.225977
-4.0054898 -1.453009 0
-4.1035151 -1.4885682 0.24382149
-2.1524012 -0.7837373 -0.75529826
-2.4286697 -0.88433278 -0.71310085
-2.7583349 -1.0043712 -0.65030116
-3.0986512 -1.1282879 -0.54976982
-0 -0 -0
-3.8064108 -1.385999 -0.22626756
-3.9792817 -1.448945 0
-4.143219 -1.5086384 0.24628872
-2.1723433 -0.79397273 -0.76263219
-2.4134572 -0.88209778 -0.70894653
-2.7595036 -1.0085747 -0.65086353
-3.1165743 -1.139081 -0.55319357
-0 -0 -0
-3.8144956 -1.3941653 -0.22684813
-3.9775279 -1.4537523 0
-4.1536026 -1.5181061 0.24701484
-2.1472201 -0.79067785 -0.75448096
-2.4301522 -0.89486283 -0.7144838
-2.7570581 -1.0152404 -0.65086353
-3.1258547 -1.1510437 -0.55533296
-0 -0 -0
-3.8135512 -1.4042764 -0.22699311
-3.9886515 -1.4687542 0
-4.2742724 -1.5739293 0.25441653
-2.1833563 -0.80698162 -0.76752043
-2.4149547 -0.8925817 -0.71033216
-2.7629817 -1.0212146 -0.65255272
-3.1148396 -1.1512634 -0.55362272
-0 -0 -0
-3.8191659 -1.4115866 -0.22742867
-3.9844353 -1.4726712 0
-4.1602569 -1.5376558 0.24774039
-2.1684804 -0.80446285 -0.76263219
-2.4162242 -0.89637083 -0.71102369
-2.7665055 -1.0263182 -0.6536774
-3.1158504 -1.1559182 -0.55405033
-0 -0 -0
-3.8125803 -1.414391 -0.22713812
-3.9753306 -1.474768 0
-4.1705742 -1.5471996 0.24846596
-2.1281328 -0.79242134 -0.74877858
-2.4245436 -0.90279144 -0.71379232
-2.7700305 -1.0314353 -0.65480423
-3.1240745 -1.1632653 -0.55576217
-0 -0 -0
-3.8108685 -1.4189968 -0.22713812
-3.9833014 -1.4832029 0
-4.1346149 -1.5395454 0.24643429
-2.1456954 -0.80191433 -0.75529826
-2.4328511 -0.90923345 -0.71656096
-2.7616396 -1.0321121 -0.65311503
-3.120255 -1.1661381 -0.55533296
-0 -0 -0
-3.8237507 -1.4290566 -0.22800867
-3.9741905 -1.4852808 0
-4.1157112 -1.5381715 0.24541816
-2.1262116 -0.79756188 -0.74877858
-2.4106123 -0.90424323 -0.71033216
-2.7508743 -1.0318787 -0.65086353
-3.1020257 -1.1635989 -0.55233842
-0 -0 -0
-3.8390539 -1.440065 -0.2290248
-3.9675241 -1.4882555 0
-4.1260118 -1.5477057 0.24614373
-2.1506839 -0.80970734 -0.75774086
-2.4189095 -0.91069114 -0.71310085
-2.7662733 -1.0414696 -0.65480423
-3.1006176 -1.1673462 -0.55233842
-0 -0 -0
-3.8324521 -1.4428734 -0.22873479
-3.9681563 -1.4939644 0
-4.1046844 -1.5453656 0.2449826
-2.1427746 -0.80968702 -0.75529826
-2.4224966 -0.91538513 -0.7144838
-2.7673874 -1.0457085 -0.6553666
-3.101604 -1.1719984 -0.55276597
-0 -0 -0
-3.8428571 -1.4520947 -0.22946034
-3.9663482 -1.4987581 0
-4.093091 -1.5466503 0.24440205
-2.1625912 -0.82016271 -0.76263219
-2.46596 -0.93521523 -0.72763556
-2.7518718 -1.0436473 -0.65199035
-3.1073885 -1.178477 -0.55405033
-3.3649402 -1.2761534 -0.40112692
-3.8483908 -1.4595021 -0.2298959
-3.9621034 -1.5026276 0
-4.1106563 -1.5589662 0.24556316
-2.1431193 -0.8157413 -0.75611246
-2.3921413 -0.91052723 -0.70617789
-2.7767236 -1.0569118 -0.65818048
-3.1011593 -1.1804026 -0.55319357
-3.3658106 -1.2811376 -0.40141493
-3.8660429 -1.4715424 -0.23105647
-3.9578547 -1.506489 0
-4.0990553 -1.5602345 0.2449826
-2.1356957 -0.81439316 -0.75366682
-2.4126947 -0.92001969 -0.71240932
-2.766588 -1.0549679 -0.65592891
-3.1124363 -1.1868484 -0.55533296
-3.3674598 -1.284095 -0.40170404
-3.8821509 -1.4803594 -0.23207258
-3.9496465 -1.5060972 0
-4.122396 -1.5719708 0.24643429
-2.1162434 -0.80990577 -0.74714708
-2.4186037 -0.92562181 -0.7144838
-2.7558191 -1.0546772 -0.6536774
-3.1014192 -1.1869416 -0.55362272
-3.3562434 -1.2844652 -0.40055087
-3.9167638 -1.4989815 -0.23424982
-3.9648402 -1.5173808 0
-4.1277671 -1.5797343 0.24686928
-2.1244922 -0.81600708 -0.75040692
-2.4057758 -0.92404675 -0.71102369
-2.7545426 -1.0580063 -0.6536774
-3.1023769 -1.1916078 -0.55405033
-3.357101 -1.2894461 -0.40083888
-4.0240932 -1.5456345 -0.2407804
-3.9411411 -1.5137731 0
-4.1476932 -1.5931087 0.24817595
-2.1465712 -0.82746518 -0.75855815
-2.463177 -0.94951117 -0.72832704
-2.7508936 -1.0604209 -0.65311503
-3.1033278 -1.196278 -0.55447787
-3.3531294 -1.2925721 -0.40055087
-4.1676865 -1.6065694 -0.2494882
-3.9393091 -1.5185341 0
-4.1603079 -1.6037251 0.2490465
-2.1432579 -0.82916397 -0.75774086
-2.4082198 -0.93167001 -0.71240932
-2.7543542 -1.0655793 -0.65424192
-3.1042719 -1.2009522 -0.55490541
-3.3491459 -1.2956868 -0.40026176
-4.2069378 -1.6275414 -0.25195545
-3.9374714 -1.5232928 0
-4.1583672 -1.6087508 0.2490465
-2.1445651 -0.83265018 -0.75855815
-2.4304745 -0.94365758 -0.7193296
-2.7649057 -1.073504 -0.6570558
-3.1052094 -1.2056305 -0.55533296
-3.3524048 -1.3016068 -0.40083888
-4.2219262 -1.6392077 -0.25297156
-3.9331949 -1.5271047 0
-4.0910254 -1.5883842 0.24512817
-2.115922 -0.82447267 -0.74877858
-2.3989463 -0.9347536 -0.71033216
-2.7517712 -1.0722324 -0.65424192
-3.0941918 -1.2056571 -0.55362272
-3.3435974 -1.3028384 -0.39997375
-4.1860514 -1.6311021 -0.25093988
-3.9410465 -1.5356356 0
-4.0697341 -1.585779 0.24396704
-2.1195235 -0.82882726 -0.75040692
-2.4188411 -0.94587368 -0.71656096
-2.7504735 -1.0755566 -0.65424192
-3.0975096 -1.2112631 -0.55447787
-3.3372076 -1.3049955 -0.3993977
-4.1792326 -1.6342645 -0.25064933
-3.9246502 -1.5347115 0
-4.0605526 -1.5878553 0.2435315
-2.1093175 -0.82777607 -0.74714708
-2.4363794 -0.95612758 -0.72209829
-2.7467999 -1.0779483 -0.6536774
-3.1056025 -1.2187561 -0.55618972
-3.3452592 -1.3128064 -0.40055087
-4.1893563 -1.644062 -0.25137544
-3.9203725 -1.5385027 0
-0 -0 0
-2.1359119 -0.84119248 -0.75692666
-2.4352224 -0.9590708 -0.72209829
-2.7431335 -1.0803363 -0.65311503
-3.1065137 -1.2234474 -0.55661726
-3.3388526 -1.3149501 -0.39997375
-4.1728559 -1.6434081 -0.25050431
-3.9306157 -1.5480059 0
-4.0301065 -1.5871887 0.24193482
-2.1417918 -0.84649897 -0.75937235
-2.4083948 -0.95186824 -0.7144838
-2.7394655 -1.0827171 -0.65255272
-3.1074183 -1.2281429 -0.55704486
-3.3300521 -1.3161342 -0.39910969
-4.1732812 -1.6494031 -0.25064933
-3.9287424 -1.5527542 0
-4.0233574 -1.5901488 0.24164481
-2.1568434 -0.85546237 -0.76507473
-2.4305677 -0.96402889 -0.72140676
-2.7452431 -1.0888376 -0.65424192
-3.0892353 -1.2252742 -0.55405033
-3.3308613 -1.3211097 -0.3993977
-4.1761208 -1.6563623 -0.25093988
-3.9292803 -1.5584587 0
-4.0262589 -1.5969232 0.24193482
-2.1328487 -0.84892941 -0.75692666
-2.4014301 -0.95583189 -0.71310085
-2.736841 -1.0893341 -0.65255272
-3.109216 -1.2375491 -0.55790162
-3.3292625 -1.3251333 -0.3993977
-4.1692829 -1.6594834 -0.25064933
-3.9201379 -1.5603172 0
-4.0315719 -1.6046708 0.24237037
-2.111166 -0.84325564 -0.74959272
-2.4049287 -0.96059221 -0.7144838
-2.749676 -1.0982934 -0.65592891
-3.1101 -1.2422564 -0.55832916
-3.3324583 -1.3310721 -0.39997375
-4.1769271 -1.6683754 -0.25122988
-3.9182496 -1.5650527 0
-4.0272188 -1.608578 0.24222538
-2.1537282 -0.86327511 -0.76507473
-2.4061015 -0.96443349 -0.71517795
-2.7365565 -1.0968893 -0.65311503
-0 -0 -0
-3.323652 -1.3322136 -0.39910969
-4.1604414 -1.6676224 -0.25035933
-3.9308543 -1.5755975 0
-4.0252724 -1.6134429 0.24222538
-2.1256917 -0.8535282 -0.75529826
-2.4078443 -0.96682084 -0.71586949
-2.7406137 -1.1004376 -0.65424192
-3.1245213 -1.2545879 -0.56132531
-3.3156435 -1.3313292 -0.39824453
-4.1473789 -1.6652955 -0.24963376
-3.927489 -1.5770032 0
-4.0291147 -1.6178091 0.24251537
-2.1086092 -0.8496291 -0.74959272
-2.4322643 -0.98004061 -0.72348124
-2.7463458 -1.1065944 -0.65592891
-3.123003 -1.2583623 -0.56132531
-3.3164291 -1.3363003 -0.39853254
-4.0995684 -1.6518532 -0.24687597
-3.9255807 -1.5817478 0
-4.0199337 -1.6197656 0.24208038
-2.1190357 -0.85680795 -0.75366682
-2.4055009 -0.97263688 -0.71586949
-2.7473691 -1.1108674 -0.65649343
-3.1238577 -1.2630963 -0.56175292
-3.3172078 -1.3412751 -0.39882058
-4.030127 -1.629536 -0.24281262
-3.9284873 -1.5884391 0
-4.0155578 -1.6236449 0.24193482
-2.1179988 -0.85936773 -0.75366682
-2.3996699 -0.97365445 -0.7144838
-2.7366068 -1.1103649 -0.65424192
-3.1223292 -1.2668699 -0.56175292
-3.3155847 -1.3452823 -0.39882058
-4.0040727 -1.6246331 -0.24136095
-3.9217467 -1.5912297 0
-4.0111876 -1.6275197 0.24178982
-2.0986457 -0.85447007 -0.74714708
-2.3984919 -0.97655326 -0.7144838
-2.7423162 -1.1165425 -0.65592891
-3.1255467 -1.272576 -0.562608
-3.306777 -1.3463644 -0.39795652
-3.9997025 -1.628491 -0.24121594
-3.9222293 -1.5969477 0
-4.0212488 -1.6372637 0.24251537
-2.0793078 -0.84952688 -0.74062735
-2.39499 -0.97850269 -0.71379232
-2.7315567 -1.1160113 -0.6536774
-3.1168845 -1.2734417 -0.56132531
-3.3075399 -1.3513362 -0.39824453
-3.9977317 -1.6333227 -0.24121594
-3.9178898 -1.6007024 0
-4.0096459 -1.6381903 0.24193482
-2.09429 -0.85860252 -0.74633288
-2.3822017 -0.9766385 -0.71033216
-2.73961 -1.1231663 -0.65592891
-3.0987148 -1.2703896 -0.55832916
-3.3082955 -1.356312 -0.39853254
-4.0029702 -1.6411099 -0.24165151
-3.913538 -1.6044451 0
-4.0076632 -1.643034 0.24193482
-2.0955346 -0.86207181 -0.74714708
-2.4018986 -0.98810548 -0.71656096
-2.7218089 -1.1197118 -0.65199035
-3.0948057 -1.2731571 -0.55790162
-3.3066542 -1.3603084 -0.39853254
-3.9913723 -1.6419913 -0.24107096
-3.9043829 -1.6062052 0
-3.9984729 -1.6449124 0.24149981
-2.1059122 -0.86931777 -0.75122112
-2.391427 -0.98717791 -0.71379232
-2.7251468 -1.1249369 -0.65311503
-3.1003859 -1.2798351 -0.55918592
-3.3050082 -1.3643029 -0.39853254
-3.9845769 -1.644828 -0.2407804
-3.8904045 -1.6059537 0
-4.0084896 -1.654699 0.24222538
-2.0957353 -0.86808199 -0.74796438
-2.4134061 -0.99966556 -0.7207126
-2.7308302 -1.1311469 -0.65480423
-3.0727468 -1.2727734 -0.55447787
-3.308141 -1.3702769 -0.39910969
-3.9801884 -1.648648 -0.2406354
-3.8884611 -1.6106533 0
-4.0208864 -1.6655056 0.24309593
-2.1357622 -0.88768661 -0.76263219
-2.3844056 -0.99103028 -0.71240932
-2.7177322 -1.1295707 -0.65199035
-3.0854249 -1.2823948 -0.55704486
-3.3017015 -1.3722858 -0.39853254
-3.9685955 -1.6494669 -0.24005483
-3.886512 -1.6153506 0
-8.5008154 -3.5331929 0.51420254
-2.1187177 -0.8836062 -0.75692666
-2.397095 -0.99970275 -0.71656096
-2.7233939 -1.135785 -0.6536774
-3.081506 -1.2851348 -0.55661726
-3.2976561 -1.3752797 -0.39824453
-3.9618077 -1.6522626 -0.23976484
-3.8965743 -1.6250571 0
-8.4629688 -3.5294614 0.51217085
-2.0857325 -0.87280983 -0.74551868
-2.4120874 -1.0093786 -0.72140676
-2.7243702 -1.1400585 -0.65424192
-3.0775852 -1.2878673 -0.55618972
-3.2983756 -1.3802607 -0.39853254
-3.952615 -1.6540382 -0.23932928
-3.8994048 -1.6317716 0
-8.4203463 -3.5236354 0.50984859
-2.1120229 -0.88681185 -0.75529826
-2.415488 -1.014233 -0.72278976
-2.7229908 -1.1433496 -0.65424192
-3.0783913 -1.2925779 -0.55661726
-3.2919405 -1.3822445 -0.39795652
-3.9362431 -1.652779 -0.23845872
-3.9046314 -1.6395056 0
-5.5556245 -2.332737 0.33656129
-2.10639 -0.88744205 -0.75366682
-2.4003935 -1.0113086 -0.71863812
-2.719259 -1.1456496 -0.6536774
-3.0721006 -1.2943051 -0.55576217
-3.2902679 -1.3862211 -0.39795652
-3.9390278 -1.6595498 -0.23874871
-3.8954501 -1.6411901 0
-5.5432234 -2.3354125 0.33598074
-2.1030416 -0.88902515 -0.75285262
-2.3899267 -1.0103009 -0.71586949
-2.7178726 -1.1489345 -0.6536774
-3.0705345 -1.2980162 -0.55576217
-3.2933507 -1.392208 -0.39853254
-3.9298372 -1.6612719 -0.23831317
-3.898263 -1.6479244 0
-5.516459 -2.3319893 0.33452907
-2.0865703 -0.88354838 -0.74714708
-2.3870077 -1.0107672 -0.71517795
-2.712503 -1.1485966 -0.65255272
-3.067379 -1.2988672 -0.55533296
-3.2925088 -1.3941975 -0.39853254
-3.9360135 -1.6666864 -0.23874871
-3.9116411 -1.656366 0
-5.4935164 -2.3262036 0.33322296
-2.1014268 -0.89283532 -0.75285262
-2.404248 -1.0214952 -0.7207126
-2.7181311 -1.154855 -0.65424192
-3.0634468 -1.3015697 -0.55490541
-3.2908218 -1.3981748 -0.39853254
-3.9244306 -1.6673766 -0.23816817
-3.9048417 -1.6590539 0
-5.4811354 -2.3287754 0.33264238
-2.084429 -0.88858819 -0.74714708
-2.3845582 -1.0165328 -0.71517795
-2.7097194 -1.1551484 -0.65255272
-3.0571535 -1.3032589 -0.55405033
-3.2867529 -1.4011368 -0.39824453
-3.9224131 -1.6721174 -0.23816817
-3.8908663 -1.6586691 0
-5.4615922 -2.3282666 0.33162683
-2.0719936 -0.88624716 -0.74307305
-2.3879371 -1.0213846 -0.71656096
-2.7059877 -1.1574234 -0.65199035
-3.0650175 -1.3109901 -0.55576217
-3.2826819 -1.4040909 -0.39795652
-3.915616 -1.6748139 -0.23787816
-3.891259 -1.6643957 0
-5.442049 -2.3277102 0.33061072
-2.1140778 -0.90727103 -0.75855815
-2.3820946 -1.0222923 -0.71517795
-2.7162597 -1.1657015 -0.65480423
-3.065788 -1.315704 -0.55618972
-3.2904902 -1.4121366 -0.39910969
-3.8944869 -1.6713458 -0.23671705
-3.8940237 -1.671147 0
-5.441618 -2.3353078 0.33075571
-2.1061676 -0.90689147 -0.75611246
-2.3877637 -1.0281435 -0.71725249
-2.7078457 -1.1659671 -0.65311503
-3.073627 -1.3234683 -0.55790162
-3.2840257 -1.4140636 -0.39853254
-3.8876867 -1.673993 -0.23642649
-3.8872254 -1.6737944 0
-5.4292459 -2.3377707 0.33017516
-2.100528 -0.90747339 -0.75448096
-2.3657947 -1.0220742 -0.71102369
-2.7087653 -1.1702449 -0.6536774
-3.0625994 -1.3231089 -0.55618972
-3.2799428 -1.4170059 -0.39824453
-3.8856611 -1.6786894 -0.23642649
-3.8852 -1.6784902 0
-5.4240341 -2.3432996 0.33003014
-2.0926332 -0.90706474 -0.75203842
-2.3760648 -1.0299199 -0.7144838
-2.7120163 -1.1755401 -0.65480423
-3.0774879 -1.333956 -0.55918592
-3.278228 -1.4209681 -0.39824453
-3.8788662 -1.6813183 -0.23613648
-3.8903258 -1.6862855 0
-5.4116626 -2.3457181 0.32944959
-2.1006019 -0.91353542 -0.75529826
-2.3909252 -1.0397947 -0.7193296
-2.7105939 -1.1788162 -0.65480423
-3.0664575 -1.3335785 -0.55747402
-3.2741392 -1.4238975 -0.39795652
-3.8839736 -1.6891098 -0.23657149
-5.4180069 -2.3562489 0
-5.4040627 -2.3501847 0.32915959
-2.1153476 -0.92298913 -0.76100069
-2.3988647 -1.0466962 -0.72209829
-2.6998522 -1.178026 -0.65255272
-3.0530729 -1.3321466 -0.55533296
-3.2676704 -1.425782 -0.3973794
-3.8819299 -1.6938016 -0.23657149
-5.4223142 -2.3659172 0
-5.4012194 -2.3567128 0.32915959
-2.0666857 -0.90473068 -0.74388719
-2.3907015 -1.0465747 -0.72002113
-2.6937671 -1.1792474 -0.65142584
-3.0514612 -1.3358347 -0.55533296
-3.2706885 -1.4318057 -0.39795652
-3.891789 -1.7037041 -0.23729761
-5.4099154 -2.3682926 0
-5.3912244 -2.3601103 0.32872403
-2.1108501 -0.92710543 -0.76018649
-2.3871403 -1.0484548 -0.7193296
-2.6923401 -1.1825014 -0.65142584
-3.0568981 -1.3426187 -0.55661726
-3.2736878 -1.4378349 -0.39853254
-3.8825881 -1.7052696 -0.23686205
-5.40943 -2.3758733 0
-5.3812289 -2.363487 0.3282885
-2.0577145 -0.90673536 -0.74144465
-2.3743951 -1.0462812 -0.71586949
-2.7002101 -1.1898521 -0.6536774
-3.0529268 -1.3452773 -0.55618972
-3.2719481 -1.4417894 -0.39853254
-3.8900361 -1.7141509 -0.2374426
-5.3970294 -2.3782101 0
-5.3783693 -2.3699875 0.3282885
-2.0792184 -0.91921288 -0.74959272
-2.3731291 -1.0491494 -0.71586949
-2.6918054 -1.1900346 -0.65199035
-3.039562 -1.3437763 -0.55405033
-3.272567 -1.4467868 -0.39882058
-3.8927104 -1.7209493 -0.2377326
-5.3893867 -2.382623 0
-5.3731275 -2.3754349 0.32814348
-2.0984383 -0.93074256 -0.75692666
-2.3443401 -1.0398101 -0.70756352
-2.6903653 -1.1932863 -0.65199035
-3.0496669 -1.3526511 -0.55618972
-3.2684543 -1.4496922 -0.39853254
-3.8858821 -1.7235466 -0.2374426
-5.3793736 -2.3859708 0
-5.3726263 -2.382978 0.3282885
-2.0724792 -0.92222708 -0.74796438
-2.3568301 -1.0487597 -0.71171516
-2.7074931 -1.2048002 -0.65649343
-3.043335 -1.3542458 -0.55533296
-3.2619786 -1.4515394 -0.39795652
-3.8790443 -1.7261258 -0.23715204
-5.3693514 -2.3892937 0
-5.3697429 -2.389468 0.3282885
-2.0651469 -0.92045945 -0.74551868
-2.3493283 -1.0471224 -0.70964068
-2.6974814 -1.2022982 -0.65424192
-3.0425162 -1.3560841 -0.55533296
-3.2729111 -1.4587737 -0.3993977
-3.8590138 -1.7200063 -0.23599093
-5.382165 -2.3988922 0
-5.3730497 -2.3948295 0.32857904
-2.0798209 -0.93001372 -0.75122112
-2.3686712 -1.0591762 -0.71586949
-2.6913831 -1.2034802 -0.65311503
-3.0502493 -1.363951 -0.55704486
-3.2640603 -1.4595588 -0.39853254
-3.8498232 -1.7214888 -0.23555593
-5.3745151 -2.403271 0
-5.3630338 -2.3981369 0.32814348
-2.0448759 -0.91735417 -0.73899895
-2.3536513 -1.0558743 -0.71171516
-2.6876109 -1.2056924 -0.65255272
-3.0509479 -1.3686894 -0.55747402
-3.2646518 -1.4645594 -0.39882058
-3.842994 -1.7240101 -0.23526537
-5.3739796 -2.4108274 0
-5.3577633 -2.4035528 0.32799849
-2.0775673 -0.93503714 -0.75122112
-2.3523736 -1.0587175 -0.71171516
-2.6838374 -1.2078972 -0.65199035
-3.0375805 -1.3671041 -0.55533296
-3.2605236 -1.4674425 -0.39853254
-3.8527534 -1.7339836 -0.23599093
-5.3710628 -2.4173191 0
-5.3643336 -2.4142904 0.32857904
-2.0313919 -0.91720861 -0.73492491
-2.3853924 -1.0770459 -0.72209829
-2.6870029 -1.2132283 -0.65311503
-3.0382729 -1.3718328 -0.55576217
-3.2587481 -1.4713812 -0.39853254
-3.8435576 -1.7354327 -0.23555593
-5.3681378 -2.4238071 0
-5.3519392 -2.4164932 0.32799849
-2.0550411 -0.93087763 -0.74388719
-2.3612411 -1.0695779 -0.71517795
-2.6809106 -1.2143794 -0.65199035
-3.0389493 -1.3765612 -0.55618972
-3.2616844 -1.4774542 -0.39910969
-3.8414578 -1.7400757 -0.23555593
-5.3604689 -2.4281461 0
-5.3419123 -2.4197407 0.32756293
-2.0392964 -0.92969155 -0.73899895
-2.3472292 -1.0700746 -0.71171516
-2.6825874 -1.2229605 -0.65311503
-3.0402808 -1.3860288 -0.55704486
-3.3145783 -1.5110778 -0.40602762
-3.8135936 -1.7385731 -0.23410426
-5.3545852 -2.4410932 0
-5.3455067 -2.4369545 0.32814348
-2.0786254 -0.95065653 -0.75366682
-2.3345294 -1.0676938 -0.70825505
-2.667248 -1.2198622 -0.64973885
-3.0386038 -1.3897014 -0.55704486
-3.4068363 -1.558112 -0.4175593
-3.8256729 -1.7496663 -0.23497537
-5.3563604 -2.4497242 0
-5.3425584 -2.4434118 0.32814348
-2.0774753 -0.9531675 -0.75366682
-2.3469231 -1.076793 -0.71240932
-2.6842475 -1.2315609 -0.65424192
-3.0205967 -1.3858814 -0.55405033
-3.4989765 -1.6053671 -0.42908987
-3.809381 -1.747784 -0.23410426
-5.3533964 -2.4561946 0
-5.3325143 -2.4466136 0.32770792
-2.1010215 -0.96704549 -0.76263219
-2.3524506 -1.0827718 -0.7144838
-2.6804426 -1.2337379 -0.6536774
-3.0422347 -1.4002614 -0.55832916
-3.598058 -1.6560924 -0.44148564
-3.8096335 -1.7534752 -0.23424982
-5.3457012 -2.4604871 0
-5.3271961 -2.4519696 0.32756293
-2.0370209 -0.94057214 -0.73981315
-2.3602514 -1.0898203 -0.71725249
-2.6697226 -1.2327152 -0.65142584
-3.0312181 -1.3996317 -0.55661726
-3.647711 -1.6842908 -0.44782752
-3.8027892 -1.7558964 -0.23395926
-5.3474455 -2.4691243 0
-5.3171501 -2.4551358 0.32712737
-2.0717659 -0.95965403 -0.75285262
-2.347553 -1.0874002 -0.71379232
-2.6797657 -1.2412829 -0.65424192
-3.0271974 -1.4022155 -0.55618972
-3.6668024 -1.6984842 -0.45042297
-3.7935894 -1.7572125 -0.2335237
-5.3515444 -2.4788666 0
-5.328331 -2.4681137 0.32799849
-2.0212977 -0.93924481 -0.73492491
-2.3348639 -1.0849509 -0.71033216
-2.6736507 -1.2423766 -0.65311503
-3.0161889 -1.4015452 -0.55447787
-3.67413 -1.7072734 -0.45157614
-3.7867548 -1.7596072 -0.23323371
-5.355628 -2.4886222 0
-5.3159189 -2.4701703 0.32741791
-2.0739169 -0.96674436 -0.75448096
-2.3471899 -1.0941291 -0.7144838
-2.667546 -1.2434613 -0.65199035
-3.0168178 -1.4062722 -0.55490541
-3.6767485 -1.713895 -0.45215216
-3.7893317 -1.7663751 -0.2335237
-5.3431821 -2.4906933 0
-5.3129301 -2.4765918 0.32741791
-2.0817029 -0.97343737 -0.75774086
-2.3390551 -1.0937793 -0.71240932
-2.6591344 -1.2434536 -0.65030116
-3.0337193 -1.4186155 -0.55832916
-3.6770155 -1.7194309 -0.4524402
-3.7989705 -1.776459 -0.23424982
-5.3354492 -2.4949408 0
-5.3005185 -2.4786067 0.32683736
-2.0162065 -0.94429505 -0.73410761
-2.3406634 -1.0962553 -0.71310085
-2.6629803 -1.2472132 -0.65142584
-3.0235629 -1.4160929 -0.55661726
-3.673636 -1.7205561 -0.45215216
-3.7978966 -1.7787539 -0.23424982
-5.3410134 -2.5014763 0
-5.2943091 -2.4796023 0.32654682
-2.0799351 -0.97720879 -0.75774086
-2.3325231 -1.0958813 -0.71102369
-2.6706703 -1.2547518 -0.6536774
-3.0241709 -1.4208357 -0.55704486
-3.6785796 -1.7282944 -0.45301732
-3.8216076 -1.7954928 -0.23584592
-5.3262119 -2.5023959 0
-5.2654462 -2.4738464 0.3249507
-2.0295708 -0.95654166 -0.73981315
-2.3198526 -1.0933522 -0.70756352
-2.6645598 -1.2558135 -0.65255272
-3.0247805 -1.4255863 -0.55747402
-3.6764886 -1.732738 -0.45301732
-3.8405874 -1.8100781 -0.23715204
-5.327888 -2.5110466 0
-5.1872377 -2.4447577 0.32030624
-2.0150111 -0.95265687 -0.73492491
-2.3321338 -1.1025862 -0.71171516
-2.6584418 -1.256858 -0.65142584
-3.0346575 -1.4347252 -0.55961347
-3.6720562 -1.7360746 -0.45272931
-3.8571906 -1.8236024 -0.23831317
-5.3319106 -2.5208206 0
-5.0738773 -2.3988276 0.31348509
-0 -0 -0
-2.3307998 -1.1054033 -0.71171516
-2.6615171 -1.262249 -0.65255272
-3.0236437 -1.433991 -0.55790162
-3.6699557 -1.7405102 -0.45272931
-3.8479476 -1.8249246 -0.23787816
-5.3429651 -2.5339503 0
-4.9794178 -2.3615348 0.30782506
-1.9702947 -0.93734825 -0.7194398
-2.3339977 -1.1103764 -0.71310085
-2.6622825 -1.2665546 -0.65311503
-3.0056798 -1.4299226 -0.55490541
-3.66785 -1.7449434 -0.45272931
-3.8457398 -1.8295728 -0.23787816
-5.311707 -2.5269923 0
-4.9484034 -2.3541541 0.30608341
-2.0695364 -0.98762989 -0.75611246
-2.3326545 -1.1131958 -0.71310085
-2.6584592 -1.2686772 -0.65255272
-2.9993207 -1.4313442 -0.55405033
-3.6633978 -1.7482568 -0.4524402
-3.8458691 -1.8353363 -0.23802316
-5.2616749 -2.5109911 0
-4.9244518 -2.3500605 0.30477729
-0 -0 -0
-2.3426197 -1.1214287 -0.71656096
-2.6523361 -1.2696922 -0.65142584
-3.0091641 -1.4405082 -0.55618972
-3.6612828 -1.7526821 -0.4524402
-3.8506823 -1.8433489 -0.23845872
-5.1483164 -2.4645355 0
-4.9239502 -2.3571298 0.30492228
-0 -0 -0
-2.3231707 -1.1155707 -0.71102369
-2.6416469 -1.2685007 -0.64917648
-3.0166779 -1.448588 -0.55790162
-3.6661594 -1.7604647 -0.45330533
-3.8554726 -1.8513715 -0.23889372
-4.9905005 -2.3964043 0
-4.9046993 -2.3552032 0.30390617
-0 -0 -0
-2.3263459 -1.1205565 -0.71240932
-2.6446862 -1.2738949 -0.65030116
-3.0172358 -1.4533449 -0.55832916
-3.6640296 -1.7648932 -0.45330533
-3.850894 -1.8549021 -0.23874871
-4.9196081 -2.3696814 0
-4.8948336 -2.357748 0.30347118
-0 -0 -0
-2.3272469 -1.124457 -0.71310085
-2.6522963 -1.2815112 -0.65255272
-3.0062318 -1.4525224 -0.55661726
-3.6595676 -1.768195 -0.45301732
-3.8509872 -1.8606833 -0.23889372
-4.9354877 -2.3846819 0
-4.8826222 -2.359139 0.3028906
-0 -0 -0
-2.3146007 -1.1217984 -0.70964068
-2.6461685 -1.2824966 -0.65142584
-3.0067823 -1.4572723 -0.55704486
-3.6667385 -1.7771279 -0.4541705
-3.8604252 -1.8710004 -0.23961927
-4.913867 -2.3815634 0
-4.8680792 -2.3593717 0.30216506
-0 -0 -0
-2.3177516 -1.126786 -0.71102369
-2.66519 -1.2956947 -0.65649343
-3.0165696 -1.4665196 -0.55918592
-3.6622558 -1.7804229 -0.45388138
-3.8605053 -1.8768029 -0.23976484
-4.8992853 -2.3818107 0
-4.8652248 -2.365252 0.30216506
-0 -0 -0
-2.3163886 -1.1295857 -0.71102369
-2.6384983 -1.2866623 -0.65030116
-3.0101762 -1.4679109 -0.55832916
-3.6670783 -1.7882489 -0.45474651
-3.8675771 -1.886022 -0.24034539
-4.8847103 -2.3820264 0
-4.8576875 -2.368849 0.30187449
-0 -0 -0
-2.303756 -1.1268731 -0.70756352
-2.6506321 -1.2965461 -0.6536774
-3.0037928 -1.4692932 -0.55747402
-3.6695662 -1.7949537 -0.45532367
-5.2820578 -2.5836976 -0.32844016
-4.8701415 -2.3822103 0
-4.8454852 -2.3701499 0.30129394
-0 -0 -0
-2.3053257 -1.1293674 -0.70825505
-2.6384416 -1.2925591 -0.65086353
-2.9959865 -1.4677186 -0.55618972
-3.6754427 -1.8005807 -0.45618773
-5.1661668 -2.530879 -0.32132903
-4.8640227 -2.3828602 0
-4.8393898 -2.3707926 0.30100393
-0 -0 -0
-2.3129659 -1.1365778 -0.71102369
-2.6437213 -1.2991091 -0.65255272
-2.9988143 -1.4735997 -0.55704486
-3.6918352 -1.8141462 -0.45849407
-5.0138507 -2.4637768 -0.31204012
-4.856473 -2.3864422 0
-4.8271933 -2.3720543 0.30042338
-0 -0 -0
-2.3273449 -1.1471368 -0.71586949
-2.6467035 -1.3045471 -0.6536774
-3.001641 -1.4794941 -0.55790162
-3.6850049 -1.8163209 -0.45791802
-4.9759159 -2.4526045 -0.30986345
-4.8489127 -2.3900054 0
-4.8289804 -2.3801808 0.30071339
-0 -0 -0
-2.3259571 -1.1499481 -0.71586949
-2.6474094 -1.3088735 -0.65424192
-2.9975522 -1.4819833 -0.55747402
-3.6943984 -1.8265026 -0.4593592
-4.9566412 -2.4505529 -0.30884731
-4.8413596 -2.3935578 0
-4.8144565 -2.3802569 0.29998782
-0 -0 -0
-2.3020856 -1.1416098 -0.70894653
-2.6276152 -1.3030406 -0.64973885
-3.0003545 -1.487883 -0.55832916
-3.7084112 -1.83901 -0.46137753
-4.9257417 -2.442687 -0.30710566
-4.8244705 -2.3924663 0
-4.8092513 -2.3849192 0.2998428
-0 -0 -0
-2.3254154 -1.1566819 -0.71656096
-2.6328571 -1.3096062 -0.65142584
-3.0008507 -1.4926494 -0.55875671
-3.7038641 -1.8423344 -0.46108842
-4.9111562 -2.442852 -0.30638009
-4.8239131 -2.3994565 0
-4.7924027 -2.3837829 0.29897171
-0 -0 -0
-2.3195305 -1.157253 -0.71517795
-2.6380959 -1.3161907 -0.65311503
-3.0105369 -1.5020077 -0.56089777
-3.7085807 -1.8502736 -0.46195355
-4.9012232 -2.4453032 -0.30594453
-4.8047066 -2.3971493 0
-4.7825499 -2.386095 0.29853669
-0 -0 -0
-2.3069065 -1.154438 -0.71171516
-2.6410525 -1.3216537 -0.65424192
-3.0064175 -1.5044922 -0.56046855
-3.7155945 -1.8593833 -0.46310672
-4.8982649 -2.4512236 -0.30594453
-4.8064566 -2.4052804 0
-4.7889581 -2.3965235 0.29911727
-0 -0 -0
-2.3055098 -1.1572247 -0.71171516
-2.625824 -1.3180027 -0.65086353
-2.9977212 -1.5046723 -0.55918592
-3.7087262 -1.8615532 -0.4625307
-4.8883395 -2.4536467 -0.30550954
-4.8012233 -2.4099197 0
-4.7721205 -2.3953121 0.29824615
-0 -0 -0
-2.297394 -1.1566284 -0.70964068
-2.628773 -1.3234619 -0.65199035
-3.0119445 -1.5163705 -0.56218046
-3.7157152 -1.8706855 -0.46368387
-4.8714409 -2.4525385 -0.30463842
-4.7983079 -2.4157195 0
-4.7692227 -2.4010766 0.29824615
-0 -0 -0
-2.2982321 -1.1605333 -0.71033216
-2.6248972 -1.3254887 -0.65142584
-2.9871995 -1.5084398 -0.55790162
-3.7088299 -1.8728398 -0.46310672
-4.8708005 -2.4595976 -0.30478397
-4.788414 -2.417995 0
-4.7686353 -2.4080076 0.29839113
-0 -0 -0
-2.2945921 -1.162177 -0.70964068
-2.6323607 -1.3332516 -0.6536774
-3.0059834 -1.5224861 -0.56175292
-3.6996398 -1.8738128 -0.46224159
-4.8562279 -2.4596074 -0.30405787
-4.7808499 -2.4214296 0
-4.7634068 -2.4125948 0.29824615
-0 -0 -0
-2.3200266 -1.1785837 -0.71794665
-2.6239581 -1.3329823 -0.65199035
-3.006428 -1.5272787 -0.56218046
-3.6835415 -1.8712553 -0.46051237
-4.8578901 -2.4678295 -0.30434841
-4.7802386 -2.4283822 0
-4.7581735 -2.4171729 0.29810116
-0 -0 -0
-2.2984765 -1.1711322 -0.71171516
-2.6246073 -1.3373042 -0.65255272
-3.0000103 -1.5285816 -0.56132531
-3.6812778 -1.8757046 -0.46051237
-4.8433304 -2.4678001 -0.30362287
-4.7773008 -2.4341564 0
-4.7575622 -2.4240992 0.29824615
-0 -0 -0
-2.3223517 -1.1850652 -0.7193296
-2.6237991 -1.3388897 -0.65255272
-3.0013707 -1.5315595 -0.56175292
-3.6870577 -1.8814564 -0.46137753
-4.8418388 -2.4707258 -0.30362287
-4.7804699 -2.4394102 0
-4.7491512 -2.4234285 0.29781058
-0 -0 -0
-2.2896566 -1.1718705 -0.70964068
-2.6176512 -1.3397416 -0.65142584
-2.99266 -1.5316751 -0.56046855
-3.6801722 -1.883551 -0.46080038
-4.8295975 -2.471839 -0.30304229
-4.7613001 -2.4368834 0
-4.7346563 -2.4232471 0.29708502
-0 -0 -0
-2.2926984 -1.1769254 -0.71102369
-2.6182976 -1.3440672 -0.65199035
-2.9999421 -1.5399793 -0.56218046
-3.6893966 -1.8939012 -0.46224159
-4.8312259 -2.4800439 -0.3033323
-4.7490907 -2.4378808 0
-4.7409716 -2.4337127 0.2976656
-0 -0 -0
-2.286818 -1.1774002 -0.70964068
-2.6189284 -1.3483919 -0.65255272
-3.0003593 -1.544777 -0.562608
-3.691709 -1.900728 -0.46281871
-4.8213019 -2.4823148 -0.3028973
-4.7415185 -2.441237 0
-4.7357192 -2.4382513 0.29752058
-0 -0 -0
-2.2898476 -1.1824626 -0.71102369
-2.6150417 -1.3503907 -0.65199035
-2.9939332 -1.5460478 -0.56175292
-3.684809 -1.9028115 -0.46224159
-4.8182988 -2.4881384 -0.3028973
-4.7362461 -2.4457669 0
-4.7235346 -2.4392028 0.29694003
-0 -0 -0
-2.3062389 -1.1944588 -0.71656096
-2.6224332 -1.3582237 -0.65424192
-2.9943402 -1.5508437 -0.56218046
-3.691694 -1.9120207 -0.46339476
-4.8037457 -2.4879801 -0.30217117
-4.7286701 -2.4490964 0
-4.7228889 -2.4461024 0.29708502
-0 -0 -0
-2.2892075 -1.1891481 -0.71171516
-2.62079 -1.3613914 -0.65424192
-3.0038521 -1.5603763 -0.56431985
-3.6916828 -1.9176757 -0.46368387
-4.7984324 -2.4925859 -0.30202618
-4.7257075 -2.4548085 0
-4.7153225 -2.4494138 0.29679504
-0 -0 -0
-2.2855463 -1.1907552 -0.71102369
-2.6056185 -1.3575108 -0.65086353
-2.9883091 -1.5568904 -0.56175292
-3.70083 -1.9281092 -0.46512505
-4.797719 -2.4995816 -0.30217117
-4.7227378 -2.4605167 0
-4.7192659 -2.458708 0.29723004
-0 -0 -0
-2.2752118 -1.1888686 -0.70825505
-2.6129842 -1.3653651 -0.65311503
-2.9932537 -1.5640677 -0.56303722
-3.689328 -1.9277881 -0.46397188
-4.7854834 -2.5005634 -0.30159062
-4.72437 -2.4686296 0
-4.7093892 -2.4608018 0.29679504
-0 -0 -0
-2.298219 -1.204428 -0.71586949
-2.6068356 -1.3661648 -0.65199035
-3.0072713 -1.5760211 -0.56603175
-3.6892848 -1.933444 -0.46425989
-4.7824583 -2.5063438 -0.30159062
-4.7213836 -2.4743364 0
-4.7064123 -2.4664903 0.29679504
-0 -0 -0
-2.2767777 -1.1967001 -0.70964068
-2.6029274 -1.3681281 -0.65142584
-3.0167327 -1.5856289 -0.56817281
-3.6869459 -1.9379004 -0.46425989
-4.7679286 -2.5060771 -0.30086505
-4.7160892 -2.4788296 0
-4.7034287 -2.4721754 0.29679504
-0 -0 -0
-2.2864244 -1.2052987 -0.71310085
-2.6102631 -1.3760117 -0.6536774
-3.0057313 -1.5844845 -0.56646097
-3.6891732 -1.9447639 -0.46483594
-4.760304 -2.5094151 -0.30057508
-4.7038817 -2.479672 0
-4.700438 -2.4778566 0.29679504
-0 -0 -0
-2.3137965 -1.2233031 -0.72209829
-2.6063545 -1.3779782 -0.65311503
-3.0106163 -1.5917112 -0.5677436
-3.7028289 -1.9576837 -0.46685424
-4.764153 -2.5188053 -0.30101007
-4.7054877 -2.4877889 0
-4.6974406 -2.4835346 0.29679504
-0 -0 -0
-2.2945852 -1.2166958 -0.71656096
-2.5934656 -1.3751761 -0.65030116
-3.0041592 -1.592945 -0.56688851
-3.7050354 -1.9645821 -0.4674314
-4.761106 -2.52456 -0.30101007
-4.7001724 -2.49225 0
-4.6944366 -2.4892087 0.29679504
-0 -0 -0
-2.2864661 -1.2159325 -0.7144838
-0 -0 -0
-3.0135627 -1.6025991 -0.5690279
-3.7140749 -1.9751284 -0.46887258
-4.7557602 -2.5290921 -0.30086505
-4.6994619 -2.4991529 0
-4.6891332 -2.4936602 0.29665002
-0 -0 -0
-2.2761407 -1.2139719 -0.71171516
-2.5991025 -1.3862224 -0.65255272
-3.0070982 -1.6038254 -0.56817281
-3.7162457 -1.9820468 -0.4694486
-4.7527008 -2.5348368 -0.30086505
-4.6826568 -2.4974787 0
-4.6838174 -2.4980979 0.29650447
-0 -0 -0
-2.3063917 -1.2318964 -0.72140676
-0 -0 -0
-3.010653 -1.6080585 -0.5690279
-3.721894 -1.9879485 -0.47031376
-4.748879 -2.5364845 -0.30072007
-4.6857424 -2.5027621 0
-4.6891856 -2.504601 0.29694003
-0 -0 -0
-2.2628815 -1.2121732 -0.70825505
-2.5809052 -1.3825312 -0.64861196
-2.9973958 -1.6056354 -0.56688851
-3.7126472 -1.9887791 -0.4694486
-4.7435222 -2.5409949 -0.30057508
-4.6781225 -2.5059619 0
-4.6861558 -2.5102651 0.29694003
-0 -0 -0
-2.2680476 -1.2184696 -0.71033216
-2.5792327 -1.3856486 -0.64861196
-2.9751029 -1.5983231 -0.56303722
-3.7148027 -1.9957142 -0.47002575
-4.7358661 -2.5442629 -0.3002845
-4.6728005 -2.5103822 0
-4.6716762 -2.509778 0.29621446
-0 -0 -0
-2.2886553 -1.2331067 -0.71725249
-2.5842693 -1.392381 -0.65030116
-2.9822092 -1.6067873 -0.56474906
