# .PCD v0.7 - Point Cloud Data file format
VERSION 0.7
FIELDS x y z
SIZE 4 4 4
TYPE F F F
COUNT 1 1 1
WIDTH 1721
HEIGHT 1
VIEWPOINT 0 0 0 1 0 0 0
POINTS 1721
DATA ascii
3.8539901 2.8538051 -0.26786193
3.9923196 2.9562354 0
11.609304 8.5964651 0.80687565
3.7270167 2.7667625 -0.77384216
3.7090688 2.7534387 -0.51488084
3.8568003 2.8631077 -0.26829749
3.9908323 2.9626069 0
11.613507 8.6213236 0.80789119
3.7339656 2.7789254 -0.77598155
3.703666 2.7563758 -0.51459283
3.8595855 2.8724155 -0.26873249
4.0018663 2.9783049 0
11.575985 8.6151838 0.80600452
3.7240524 2.7750454 -0.7742697
3.7061441 2.7617009 -0.51516885
3.8578494 2.8747468 -0.26873249
3.9979813 2.9791684 0
11.552028 8.6082039 0.80469841
3.733032 2.7887583 -0.77683669
3.7028046 2.7661769 -0.51516885
3.854373 2.879406 -0.26873249
4.0048013 2.9917834 0
11.539538 8.6206026 0.80455339
3.7317202 2.7948103 -0.77726585
3.7077403 2.7768509 -0.51632202
3.8571324 2.8887358 -0.26916805
4.0053453 2.9997373 0
11.537433 8.64077 0.805134
3.734493 2.8039367 -0.77854854
3.7002497 2.7782259 -0.515746
3.855715 2.8949528 -0.26931307
4.0058842 3.0077031 0
11.520748 8.6500225 0.80469841
3.7311025 2.8084471 -0.77854854
3.7030835 2.7873569 -0.51661003
3.8563704 2.9027379 -0.26960361
4.006402 3.0156684 0
11.499909 8.6561251 0.80397284
3.7338555 2.8175936 -0.77983284
3.7017834 2.7933917 -0.51689917
3.863229 2.9152198 -0.27032918
4.0069137 3.0236454 0
11.46248 8.6496677 0.80208617
3.7406826 2.8298454 -0.78197229
3.7025268 2.8009806 -0.51747519
3.8638444 2.923018 -0.27061918
4.0157065 3.0379026 0
11.423004 8.6415615 0.80005395
3.7352171 2.8328137 -0.78154474
3.7011986 2.8070138 -0.5177632
3.8644543 2.9308281 -0.27090973
4.0141044 3.0443237 0
11.404281 8.6490831 0.79947394
3.742007 2.8450918 -0.78368413
3.7060399 2.8177457 -0.51891637
3.8588438 2.9339242 -0.27076474
4.0062838 3.0460243 0
11.400021 8.6675701 0.79990894
3.7406061 2.851166 -0.78411168
3.7067506 2.8253605 -0.51949352
3.8594251 2.9417319 -0.27105474
7.8646369 5.994586 0
11.38541 8.6781912 0.79961896
3.7351205 2.8541265 -0.78368413
3.7074404 2.8329751 -0.52006954
3.866189 2.9542801 -0.27178028
7.857388 6.0040841 0
11.360461 8.6808958 0.79860282
3.7357488 2.8617628 -0.78454089
3.7019634 2.8358815 -0.51978153
3.8626165 2.9589496 -0.27178028
7.8583913 6.0199046 0
11.32728 8.6772394 0.79700673
3.7343223 2.8678367 -0.78496844
3.70469 2.8450801 -0.52064669
3.8569796 2.9620333 -0.27163529
7.8593678 6.0357361 0
11.279687 8.6624289 0.79439396
3.7328863 2.8739111 -0.78539604
3.6950994 2.8448193 -0.51978153
3.8513408 2.9651079 -0.27149028
7.8520694 6.045228 0
11.248627 8.660203 0.79294282
3.7212825 2.8721457 -0.78368413
3.6998494 2.8556035 -0.5209347
3.8642113 2.9824605 -0.2726514
7.8571243 6.0642552 0
11.244328 8.6785536 0.79337835
3.7279587 2.8844931 -0.78582358
3.7066224 2.8679843 -0.52237588
3.864711 2.9903047 -0.27294141
7.8559604 6.0785179 0
11.252327 8.7064428 0.79468447
3.7325842 2.8952892 -0.78753543
3.7031543 2.8724608 -0.52237588
3.8693078 3.0013428 -0.27352196
7.8527265 6.0911989 0
11.250011 8.7264032 0.79526508
3.7270586 2.8982227 -0.78710788
3.7017207 2.8785195 -0.52266389
3.8738832 3.0123961 -0.27410251
7.8433003 6.099081 0
11.247664 8.7463703 0.79584563
3.7296295 2.9074605 -0.78839219
3.7063994 2.8893511 -0.52381706
3.8804853 3.0250611 -0.27482808
7.8379836 6.110158 0
11.232985 8.7567568 0.79555506
3.7220645 2.9088004 -0.78753543
3.7029054 2.8938274 -0.52381706
3.8747818 3.0281491 -0.27468309
7.8387971 6.1260347 0
11.218305 8.7671261 0.79526508
3.7266302 2.9196281 -0.78924733
3.7055161 2.9030867 -0.52468222
3.8752148 3.036037 -0.27497363
7.8375292 6.1403122 0
11.215885 8.7870846 0.79584563
3.7291582 2.9288874 -0.79053164
3.6999736 2.9059658 -0.52439421
3.8797178 3.0471373 -0.27555418
7.8403435 6.1578197 0
11.219559 8.811861 0.79686117
3.7397368 2.944509 -0.79352778
3.6984897 2.9120328 -0.52468222
3.8719459 3.0486047 -0.27526364
7.8451619 6.1769457 0
11.221156 8.8350592 0.79773229
3.7258575 2.9372292 -0.79095918
3.6987591 2.9158666 -0.52497023
3.8741884 3.0541639 -0.27555418
7.8475623 6.1865191 0
11.217855 8.8434439 0.79787725
3.732374 2.9496861 -0.79309863
3.6952331 2.9203336 -0.52497023
3.8766055 3.0636718 -0.2759892
7.8523283 6.2056756 0
11.192889 8.8457127 0.79686117
3.7288072 2.9541936 -0.79309863
3.7018442 2.932832 -0.52641255
3.8891945 3.0812626 -0.2771503
7.8427863 6.2135448 0
12.125145 9.6062965 0.86405754
3.7212183 2.955507 -0.79224348
3.7003212 2.9389098 -0.52670056
3.8834357 3.0843451 -0.27700531
7.8515763 6.2359653 0
12.107423 9.6160908 0.86362195
3.721657 2.963196 -0.79309863
3.7008104 2.9465978 -0.52727658
3.8858066 3.0938923 -0.27744088
7.8460693 6.2470675 0
12.116119 9.6468954 0.86507308
3.7281113 2.9757025 -0.79523969
3.7073529 2.9591334 -0.52871776
3.8962753 3.1099277 -0.27845642
7.8446193 6.2614155 0
12.329872 9.8414526 0.88118315
3.7265155 2.9818072 -0.79566723
3.7098353 2.9684603 -0.52958292
3.8925147 3.1146331 -0.27845642
7.8451762 6.2773933 0
12.439697 9.9537439 0.88989097
3.7309196 2.9927328 -0.79737908
3.7062457 2.9729409 -0.52958292
3.8988812 3.1274621 -0.27918199
7.8436699 6.2917485 0
10.885249 8.7315321 0.77944553
3.7373013 3.0052805 -0.79951853
3.706686 2.9806616 -0.53016007
3.8849766 3.1240308 -0.27845642
7.8441744 6.307745 0
10.874691 8.7446785 0.77944553
3.7356641 3.0114038 -0.79994607
3.6970387 2.980267 -0.52929491
3.8892908 3.1352458 -0.27903697
7.8446517 6.3237519 0
10.856025 8.7512884 0.77886498
3.7180521 3.0046256 -0.79695153
3.7014818 2.9912348 -0.53044808
3.8895457 3.1432126 -0.27932754
7.8451014 6.3397689 0
12.431865 10.046415 0.89279377
3.7243903 3.0171938 -0.79909098
3.703896 3.000591 -0.53131324
3.8958383 3.1560867 -0.28005311
7.8414836 6.3525233 0
12.421733 10.063064 0.89293873
3.720742 3.0216918 -0.79909098
3.7062852 3.0099514 -0.53217727
3.8960521 3.1640649 -0.28034309
7.8398571 6.3669109 0
10.852467 8.8135138 0.78089666
3.7290287 3.0359068 -0.80165797
3.7106688 3.0209594 -0.53333044
3.8942471 3.1704154 -0.28048867
7.8321581 6.376379 0
10.825688 8.8134956 0.77973557
0 0 -0
3.7216811 3.0449095 -0.80165797
3.7153723 3.0397477 -0.53506076
7.86234 6.4326072 -0.56741422
7.83284 6.4084716 0
10.78626 8.8248243 0.77842945
3.7259388 3.0559158 -0.80336982
3.7116969 3.044235 -0.53506076
7.8545618 6.4421024 -0.56741422
7.8291192 6.4212351 0
10.765545 8.8296137 0.77770388
3.7301753 3.066937 -0.80508167
3.7160072 3.0552881 -0.53621393
7.8548007 6.4581895 -0.56799477
7.8293958 6.4373016 0
12.374542 10.174306 0.89482546
3.7264667 3.0714419 -0.80508167
3.7103112 3.0581262 -0.53592479
7.8449883 6.4660249 -0.56784976
7.8356638 6.4583397 0
12.384298 10.207432 0.89642209
3.7267144 3.0792158 -0.80593842
3.7185807 3.0724952 -0.53765512
7.8451819 6.4821196 -0.5684303
7.8298664 6.4694653 0
14.158665 11.698665 1.0258799
3.7210083 3.0820744 -0.80550927
3.7148654 3.0769861 -0.53765512
7.8473477 6.4998803 -0.56915587
7.830061 6.4855618 0
14.138514 11.710791 1.0254443
3.7291353 3.0964108 -0.80807787
3.7191045 3.0880818 -0.53880829
7.8494821 6.5176558 -0.56988144
7.8302197 6.5016618 0
14.120351 11.724543 1.0251538
3.7372255 3.110765 -0.81064487
3.7173564 3.0942264 -0.5390963
7.8535876 6.5371127 -0.57075256
7.832365 6.5194478 0
14.094194 11.731625 1.0242832
3.8240843 3.1869769 -0.82990295
3.723434 3.1030953 -0.54024947
7.8556194 6.5468421 -0.57118756
7.8264198 6.5225077 0
14.069141 11.725167 1.022977
3.9128163 3.2689455 -0.85001618
3.7216649 3.1092489 -0.54053748
7.8556795 6.5629935 -0.57176811
7.8265219 6.5386338 0
10.601338 8.856843 0.77160829
3.9698672 3.3247614 -0.86328197
3.7317877 3.12537 -0.54255581
7.8517318 6.5758204 -0.57205868
7.8305907 6.558115 0
10.602586 8.8796597 0.77247941
3.9796112 3.3411117 -0.86627811
3.7280085 3.1298769 -0.54255581
7.8517408 6.5919862 -0.57263923
7.8306336 6.5742655 0
10.601797 8.900816 0.77320498
3.9775333 3.3475692 -0.86670566
3.728178 3.1377068 -0.54313183
7.84377 6.6014686 -0.57263923
7.8286519 6.5887451 0
10.596992 8.9186344 0.77363998
3.9793737 3.3573406 -0.86799002
3.7303164 3.1472144 -0.54399699
7.8437314 6.6176438 -0.57321978
7.826654 6.6032357 0
10.576281 8.9230566 0.77291441
3.9655156 3.3538592 -0.86585057
3.7284839 3.1533883 -0.544285
7.8416762 6.6321459 -0.57365477
7.8266182 6.6194105 0
10.557555 8.9291172 0.77233386
3.9594967 3.3569834 -0.86542135
3.7187505 3.1528716 -0.54341984
7.8495126 6.6550593 -0.57481587
7.8205972 6.6305437 0
10.53289 8.930109 0.77131832
3.9515293 3.3584437 -0.86456627
3.7385881 3.1774631 -0.54687935
7.8474073 6.669589 -0.57525146
7.8165498 6.643363 0
10.498333 8.922637 0.76957661
3.9318361 3.3498974 -0.86114252
3.7445958 3.1903698 -0.54832166
7.8452783 6.684123 -0.57568699
7.8223782 6.6646123 0
10.471721 8.921834 0.76841551
3.9297357 3.3563113 -0.86157006
3.762367 3.2133651 -0.55149204
7.83917 6.6952839 -0.57583201
7.8143196 6.6740594 0
10.449081 8.9243584 0.76754493
3.9237292 3.3593893 -0.86114252
3.7702737 3.2280049 -0.55322236
7.8409419 6.7131991 -0.57655758
7.814157 6.6902671 0
10.436311 8.9352827 0.76739937
3.9079831 3.3540998 -0.85857552
3.7604806 3.2275031 -0.5523572
7.8407116 6.7294378 -0.57713813
7.8139672 6.7064838 0
10.427484 8.949584 0.76754493
3.8864081 3.3437462 -0.85472262
4.7035332 4.0467758 -0.69159496
7.8306069 6.7372136 -0.57699311
7.8157277 6.724412 0
10.463929 9.0028429 0.77102774
3.8201666 3.2947953 -0.84102929
4.6810141 4.0372543 -0.68900061
7.8244262 6.7483659 -0.57713813
7.8135033 6.7389455 0
10.472724 9.0324545 0.77247941
3.7812321 3.269191 -0.8333267
4.66048 4.0293741 -0.68669426
7.8182302 6.7595134 -0.57728314
7.8112631 6.7534895 0
10.412663 9.0026169 0.76885104
3.7384815 3.2401319 -0.82476735
4.6419239 4.0231428 -0.68467593
7.8139877 6.7723618 -0.57757366
7.8148932 6.7731466 0
10.366429 8.9845552 0.76623827
3.7229404 3.2345481 -0.82220036
4.6370592 4.028749 -0.68467593
0 0 -0
7.8106365 6.7860012 0
10.326148 8.9715166 0.76406157
3.7209632 3.2407286 -0.8226279
4.6243863 4.027554 -0.68352276
0 0 -0
7.8142023 6.8056865 0
10.301582 8.9720392 0.76304549
3.7209086 3.2485955 -0.82348305
4.6097765 4.0246348 -0.68208158
0 0 -0
7.8079319 6.816833 0
10.275074 8.970809 0.76188439
3.7305045 3.2649252 -0.8264792
4.59518 4.0216866 -0.6806404
0 0 -0
7.8075233 6.8331184 0
10.250546 8.9712439 0.76086879
3.7265568 3.2694306 -0.8264792
4.5883751 4.0255318 -0.68035239
5.1244273 4.4958282 -0.38077459
7.807086 6.8494129 0
10.31587 9.0504513 0.76652884
3.7303143 3.2807121 -0.8281911
4.5835075 4.0310731 -0.68035239
5.1072879 4.491724 -0.37990403
7.8066211 6.865716 0
10.345901 9.0989437 0.76957661
3.7378972 3.2953997 -0.83075809
4.5631123 4.0229244 -0.67804605
5.1271935 4.5202289 -0.3817907
7.802228 6.8785892 0
10.399218 9.1681433 0.77436608
3.7050653 3.2744193 -0.82433981
4.5524321 4.0232954 -0.67718089
0 0 -0
7.8056073 6.8983488 0
10.360869 9.1566086 0.77233386
4.4869452 3.9750865 -0.99936813
4.5436988 4.0253658 -0.67660487
4.8964829 4.3379054 -0.36539066
7.8031125 6.9129543 0
10.307013 9.131216 0.76914108
4.4730234 3.9675791 -0.99680114
4.5199795 4.0092292 -0.67343336
4.8705339 4.3201714 -0.36364898
7.8008795 6.9193926 0
10.280116 9.1184797 0.76754493
4.4586363 3.9644539 -0.99466175
4.5170631 4.0164046 -0.67372137
4.8847251 4.3433161 -0.36510009
7.8041859 6.9391923 0
10.271031 9.1326199 0.76768994
4.4500065 3.966419 -0.99380499
4.5025544 4.0132565 -0.67228019
4.8542585 4.3267407 -0.36321342
7.8016186 6.9538074 0
10.254168 9.1398344 0.76725441
4.4452105 3.9717929 -0.99380499
4.4919209 4.0135288 -0.67141616
4.8335257 4.3187523 -0.36205229
7.7951565 6.9649677 0
10.245052 9.1539478 0.76739937
4.4289384 3.9668882 -0.991238
4.4870682 4.0189538 -0.67141616
4.8147602 4.312459 -0.36103675
7.7964263 6.9830618 0
10.239792 9.1715231 0.76783496
4.4222341 3.9705236 -0.99081045
4.4783559 4.0209131 -0.67083901
4.7728081 4.2852883 -0.35827896
7.791852 6.9959512 0
10.236437 9.1908331 0.76841551
4.4117069 3.9707105 -0.98952615
4.4638839 4.0176716 -0.66939783
4.7676268 4.2910523 -0.35827896
7.7950034 7.0158105 0
10.238846 9.2153645 0.76943159
4.4011865 3.9708776 -0.98824179
4.4513445 4.0161319 -0.66824466
4.7508664 4.2863693 -0.3574084
7.7942495 7.0321975 0
10.275933 9.271244 0.77305996
4.3887696 3.969305 -0.98652995
4.4407315 4.0163012 -0.6673795
4.7495346 4.2955894 -0.35769838
7.7992525 7.0538249 0
10.251231 9.271451 0.77204382
4.3782701 3.9694374 -0.98524725
4.4243822 4.0112433 -0.66565031
4.7096934 4.2699132 -0.35508618
7.7984357 7.0702357 0
10.180349 9.2297316 0.76754493
4.358273 3.9609127 -0.98182356
4.4252687 4.0218005 -0.66651434
4.6929965 4.2651181 -0.35421559
7.7975907 7.0866551 0
10.12881 9.205328 0.76449716
4.3458929 3.9592605 -0.98011166
4.4108477 4.0184364 -0.66507316
4.6859131 4.2690306 -0.35407004
7.7947955 7.1013312 0
10.142649 9.2403069 0.76638383
4.3448935 3.9679677 -0.98096681
4.4059892 4.0237632 -0.66507316
4.6692429 4.2641792 -0.35319948
7.7938962 7.1177645 0
10.11996 9.2420387 0.7655127
4.3211646 3.9558842 -0.97668791
4.3877749 4.0168638 -0.66305596
4.6583352 4.2645526 -0.35276392
7.7872076 7.1289325 0
13.458838 12.321123 1.0192037
4.3220577 3.9663112 -0.97797227
4.3848219 4.0239096 -0.66334397
4.6436086 4.2613955 -0.35203838
7.7881737 7.1471334 0
13.436282 12.330349 1.0186231
4.3172617 3.9715307 -0.97797227
4.370441 4.0204511 -0.66190279
4.6308064 4.2599664 -0.3514578
7.7833667 7.1600657 0
10.027114 9.2241316 0.76101381
4.3011332 3.9662995 -0.97540361
4.3598738 4.0204668 -0.66103762
4.6065574 4.2479467 -0.3500067
7.782362 7.1765223 0
13.400713 12.357496 1.0181875
4.2906809 3.9662645 -0.97411931
4.3512177 4.0222239 -0.6604616
4.595695 4.2482166 -0.34957114
7.7851477 7.1965165 0
0 0 0
4.2896547 3.9749389 -0.97497606
4.3349676 4.0169272 -0.65873128
4.5848384 4.2484665 -0.34913558
7.7840824 7.2129936 0
0 0 0
4.2829695 3.9783738 -0.97454852
4.3244238 4.01688 -0.65786612
4.572094 4.2469363 -0.34855559
7.7734561 7.2206244 0
0 0 0
4.2556148 3.962554 -0.96941292
4.3157845 4.0185804 -0.6572901
4.5479383 4.2347469 -0.34710392
7.7780528 7.2424212 0
0 0 0
4.2489486 3.9659431 -0.96898532
4.3071404 4.0202589 -0.65671295
4.5523138 4.2491026 -0.34782946
7.771204 7.2535949 0
13.327708 12.440002 1.0183326
4.246026 3.9728265 -0.96941292
4.2966189 4.020164 -0.65584892
4.5471764 4.2546 -0.34782946
7.7662311 7.2665324 0
13.316465 12.459652 1.0186231
4.2374744 3.9744384 -0.96855617
4.2917585 4.025353 -0.65584892
4.5287709 4.247653 -0.34681392
7.7688379 7.2865968 0
13.318457 12.49173 1.0199293
4.2251878 3.972522 -0.96684426
4.2831192 4.026989 -0.65527177
4.5179539 4.2477808 -0.34637836
7.7714005 7.3066716 0
13.360143 12.561207 1.0242832
4.2134428 3.9662778 -0.96470487
4.2675076 4.0171709 -0.65325457
4.5115991 4.246944 -0.34608778
7.7745647 7.3185005 0
13.390392 12.604897 1.0271859
4.204917 3.9678459 -0.96384972
4.270175 4.0294251 -0.65440774
4.4989119 4.245266 -0.3455078
7.7676072 7.3296738 0
13.412942 12.656728 1.0300882
4.2001195 3.9729238 -0.96384972
4.2615414 4.0310235 -0.65383059
4.4881144 4.2453403 -0.34507224
7.7719817 7.3515744 0
17.208769 16.277901 1.3231099
4.1953158 3.9779961 -0.96384972
4.2360201 4.0165915 -0.65065908
4.4678965 4.2364569 -0.34391111
7.7725339 7.3699117 0
17.185312 16.295103 1.3228194
4.1708221 3.9739563 -0.96042597
4.2225599 4.023252 -0.65008307
4.4557662 4.245451 -0.34376612
7.7660022 7.3994412 0
17.140245 16.331213 1.3223842
4.1641626 3.9772217 -0.95999843
4.2214327 4.0319204 -0.65065908
4.4468713 4.2472386 -0.34347555
7.7758794 7.4267983 0
17.107344 16.339346 1.3213682
4.1463728 3.9698217 -0.95700228
4.2128248 4.0334444 -0.65008307
4.4379859 4.2490182 -0.34318557
7.7706561 7.4397845 0
17.085712 16.35821 1.3212231
4.1489811 3.9819391 -0.95871413
4.1986194 4.0295787 -0.64864188
4.4309759 4.2525802 -0.34304056
7.7635365 7.4509687 0
17.073435 16.38604 1.3218037
4.1404634 3.9833865 -0.95785737
4.2012033 4.041822 -0.64979506
4.4164658 4.2489185 -0.34231445
7.7620296 7.4675612 0
17.051752 16.404858 1.3216587
4.1301093 3.9830456 -0.95657468
4.1944561 4.0451016 -0.64950705
4.4094601 4.2524495 -0.34216943
7.7604942 7.4841609 0
17.037523 16.430857 1.3220937
4.1197548 3.9826787 -0.95529038
4.1784043 4.0393767 -0.64777672
4.3949795 4.2487459 -0.3414439
7.7570605 7.498961 0
17.008318 16.442402 1.3213682
4.1130977 3.9858689 -0.95486283
4.1716647 4.0426245 -0.64748871
4.3879786 4.2522469 -0.34129888
7.7666798 7.5264359 0
17.001501 16.475601 1.3223842
4.0972271 3.9801004 -0.95229423
4.1575027 4.0386529 -0.64604753
4.379106 4.253921 -0.34100834
7.7650466 7.5430684 0
16.970394 16.485266 1.3215132
4.0942593 3.9868443 -0.95272338
4.147059 4.0382586 -0.64518237
4.3665161 4.2519584 -0.34042779
7.7615218 7.5578942 0
16.956051 16.511198 1.3219488
4.0839262 3.9864073 -0.95143908
4.140327 4.0414615 -0.64489436
4.3632331 4.2590446 -0.34057277
7.761694 7.5763545 0
16.943525 16.538935 1.3225293
4.0699344 3.9823642 -0.94929969
4.1243453 4.0356045 -0.64316404
4.3543725 4.2606821 -0.34028277
7.7469587 7.5802727 0
9.5227537 9.3178587 0.74417818
4.0687809 3.9908705 -0.95015478
4.1213179 4.0424013 -0.64345318
4.3399477 4.2568445 -0.33955723
7.7340741 7.5859795 0
9.5133486 9.3311834 0.74432373
4.0548053 3.9867868 -0.94801533
4.1201153 4.0510011 -0.6440292
4.3255386 4.2529783 -0.33883166
7.7249026 7.5953188 0
9.5057688 9.3463116 0.74461377
4.0499849 3.9916832 -0.94801533
4.1060085 4.0469003 -0.64258802
4.3277988 4.2654982 -0.33941221
5.0819783 5.0088205 0
9.5166759 9.3796787 0.74635541
4.0488148 4.000186 -0.94887209
4.1011157 4.0518589 -0.64258802
4.309701 4.2579389 -0.3383961
5.0814786 5.0204468 0
9.5293636 9.4149103 0.74824208
4.0385046 3.9996543 -0.94758779
4.0907021 4.0513492 -0.64172286
4.3100934 4.26863 -0.33883166
5.0994453 5.0503883 0
9.538291 9.4465332 0.74983877
4.0354891 4.0063381 -0.94801533
4.0839701 4.0544686 -0.64143485
4.2901802 4.2591891 -0.33767053
5.0674787 5.0308728 0
9.5323973 9.4635382 0.75027376
4.0233669 4.0039678 -0.94630349
4.0644011 4.0448046 -0.63912851
4.2795033 4.2588696 -0.33723497
5.0669322 5.0425014 0
9.5467443 9.5007133 0.75230598
4.0154901 4.0009604 -0.94501919
4.063787 4.0490828 -0.63941652
4.269567 4.254118 -0.33665442
5.0436106 5.0253611 0
9.5391569 9.5046406 0.75216043
4.0088382 4.0039973 -0.94459164
4.0515718 4.046679 -0.63826334
4.2644234 4.259274 -0.33665442
5.0467401 5.0406456 0
9.5478897 9.5363607 0.75375712
3.9967408 4.0015731 -0.94287974
4.0430269 4.047915 -0.63768733
4.2556047 4.2607498 -0.33636442
4.9578862 4.9638805 0
9.5473747 9.558918 0.75462765
3.9973402 4.0118566 -0.94416404
4.0436115 4.0582957 -0.63855249
4.2486138 4.2640429 -0.33621886
5.0161715 5.0343876 0
12.69389 12.739987 1.0045453
3.9906816 4.0148644 -0.94373649
4.0332327 4.0576735 -0.63768733
4.245296 4.2710218 -0.33636442
4.9532146 4.9832306 0
12.738935 12.816132 1.0093348
3.9822092 4.0160346 -0.94287974
4.0246811 4.0588675 -0.63711017
4.230979 4.2669172 -0.33563831
5.0296483 5.0723705 0
12.774662 12.883171 1.0133981
3.9737465 4.0171967 -0.94202465
4.0143223 4.0582161 -0.63624614
4.2276525 4.2738791 -0.33578387
4.9997249 5.0543933 0
12.755434 12.894906 1.0131081
3.9742937 4.0274715 -0.94330728
4.0057788 4.0593781 -0.63566899
4.2115312 4.2678833 -0.33491275
4.9497423 5.0159721 0
9.4511309 9.5775919 0.75158042
0 0 -0
3.9954257 4.0586839 -0.63480383
4.2009077 4.2674189 -0.33447775
4.9765377 5.0553293 0
9.4231405 9.5723333 0.75027376
3.9627523 4.0352345 -0.94287974
3.9995854 4.072741 -0.63624614
4.1921034 4.2687807 -0.33418721
4.9485435 5.0390568 0
9.4042845 9.5762968 0.74969321
3.9542842 4.0363555 -0.94202465
3.985606 4.0683274 -0.63480383
4.1833091 4.270134 -0.3338972
4.9734111 5.0766344 0
9.3945303 9.5895147 0.74983877
3.9547818 4.0466332 -0.94330728
3.9788811 4.0712924 -0.63451582
4.1817751 4.2788987 -0.33418721
4.9418106 5.0565863 0
9.3702211 9.5878487 0.74882263
3.9445183 4.0458999 -0.94202465
3.9739587 4.076097 -0.63451582
4.1711583 4.2783651 -0.33375165
4.9756622 5.1035461 0
12.679749 13.005643 1.0145593
3.9217255 4.0322571 -0.93774414
3.9690309 4.0808959 -0.63451582
4.156929 4.2740898 -0.33302608
4.9876404 5.1282144 0
0 0 0
3.918643 4.0388408 -0.93817335
3.9586987 4.0801249 -0.63365179
4.1535692 4.280973 -0.33317107
0 0 0
12.650091 13.03811 1.0147042
3.9137602 4.0435724 -0.93817335
3.9591572 4.0904756 -0.63451582
4.1520114 4.2897263 -0.33346164
4.4865618 4.6353731 0
12.643362 13.062719 1.0154297
3.9053018 4.0446014 -0.9373166
3.9506221 4.0915384 -0.6339398
4.1450219 4.2928724 -0.33331662
4.38515 4.5415659 0
12.625766 13.076119 1.0152848
3.9039769 4.0530186 -0.93817335
0 0 -0
4.1326213 4.2903919 -0.33273607
4.3381386 4.5037556 0
12.609957 13.091366 1.0152848
3.8972931 4.0558767 -0.93774414
3.9443038 4.1048002 -0.63451582
4.1256285 4.2935033 -0.33259052
4.357935 4.5352621 0
12.594129 13.106593 1.0152848
3.8870654 4.0550284 -0.93646145
3.9393408 4.1095629 -0.63451582
4.1132522 4.2909889 -0.33201051
4.3560572 4.5442858 0
12.585476 13.129304 1.0158653
3.8821628 4.0597224 -0.93646145
3.9343724 4.1143198 -0.63451582
4.1098585 4.297832 -0.33215553
0 0 0
12.557036 13.131361 1.0148498
3.8666196 4.0532618 -0.93389285
0 0 -0
4.1082458 4.3065519 -0.33244553
0 0 0
12.517838 13.122077 1.0129626
3.8670299 4.0635118 -0.93517715
3.9065912 4.105083 -0.63163346
0 0 -0
0 0 0
12.458989 13.092024 1.0094798
3.8603516 4.0663214 -0.9347496
3.901628 4.1098003 -0.63163346
0 0 -0
0 0 0
12.391281 13.052421 1.0052708
3.8578942 4.0686526 -0.9347496
3.8991444 4.1121564 -0.63163346
4.0827084 4.3057485 -0.33142996
0 0 0
12.302939 12.975056 0.99873972
3.8512061 4.0714412 -0.93432039
3.8941729 4.1168652 -0.63163346
4.088213 4.3220015 -0.33230051
0 0 0
12.303322 13.0069 1.0000458
3.8515706 4.0816946 -0.93560469
3.8874221 4.119688 -0.63134545
4.1115208 4.3571763 -0.33462274
0 0 0
12.3411 13.078456 1.0044003
3.8466361 4.0863452 -0.93560469
3.8842125 4.1262636 -0.63163346
4.0973496 4.3526826 -0.3338972
0 0 0
12.364468 13.134979 1.007593
3.8416955 4.0909901 -0.93560469
3.877455 4.1290703 -0.63134545
4.1027565 4.3689919 -0.33476776
0 0 0
12.348588 13.14991 1.007593
3.8314829 4.0900073 -0.93432039
3.8706896 4.1318593 -0.63105631
4.1081295 4.3853202 -0.33563831
0 0 0
12.330908 13.16292 1.0074475
3.823036 4.0908861 -0.9334653
3.8656943 4.1365333 -0.63105631
4.0975103 4.3845911 -0.33520332
0 0 0
12.155328 13.006957 0.99438584
3.8250921 4.1030135 -0.93517715
3.862462 4.1430984 -0.63134545
4.1010671 4.3990402 -0.33592886
0 0 0
12.059876 12.936116 0.98785526
3.8446033 4.1339455 -0.94116789
3.8592129 4.1496549 -0.63163346
0 0 -0
0 0 0
12.038927 12.944968 0.98741966
3.8553171 4.1555233 -0.94501919
3.8506744 4.1505189 -0.63105631
0 0 -0
0 0 0
12.007373 12.942364 0.98611355
3.8398347 4.1488781 -0.94245219
3.8456564 4.1551685 -0.63105631
0 0 -0
0 0 0
11.961722 12.924445 0.98364633
3.8539755 4.174264 -0.94716024
3.8406329 4.1598125 -0.63105631
0 0 -0
0 0 0
11.916133 12.906435 0.98117912
3.8367536 4.1656985 -0.94416404
3.8408623 4.1701593 -0.63192147
0 0 -0
0 0 0
11.886447 12.905533 0.98001796
3.8334525 4.1722198 -0.94459164
3.8288209 4.1671786 -0.6307683
4.0479708 4.4056954 -0.33418721
0 0 0
11.85678 12.904579 0.97885686
3.8318808 4.1806374 -0.9454484
3.8272815 4.1756191 -0.63134545
4.0479131 4.4163318 -0.33462274
0 0 0
11.862247 12.941883 0.98059851
3.8095007 4.1663156 -0.94116789
3.8222332 4.1802406 -0.63134545
4.005754 4.3809505 -0.33157498
0 0 0
11.888677 13.002223 0.98408133
3.8027353 4.1690207 -0.94074035
3.8189209 4.1867652 -0.63163346
4.0232201 4.4107428 -0.33346164
0 0 0
11.964015 13.116407 0.99162859
3.8028798 4.1793103 -0.94202465
3.8138592 4.1913767 -0.63163346
4.0563574 4.4578786 -0.33665442
0 0 0
12.042583 13.234625 0.99946529
3.8047287 4.1915054 -0.94373649
3.8122654 4.1998086 -0.63220948
3.9933364 4.3992867 -0.33186495
0 0 0
12.035319 13.258792 1.0001915
3.8031042 4.1999016 -0.94459164
3.803719 4.2005811 -0.63163346
3.9740648 4.3886995 -0.33070385
0 0 0
12.017541 13.271393 1.0000458
3.7946603 4.2109852 -0.94501919
3.7952867 4.2116804 -0.63192147
3.9234443 4.3538985 -0.32736605
0 0 0
11.962822 13.275304 0.99815917
3.7912905 4.2174821 -0.9454484
3.7936566 4.2201138 -0.63249862
3.906019 4.3451071 -0.32634994
0 0 0
11.922456 13.262698 0.99612749
3.7999027 4.237349 -0.94887209
3.7868228 4.2227635 -0.63220948
3.9007659 4.349824 -0.32634994
0 0 0
11.849175 13.213257 0.99133801
3.7999096 4.2476716 -0.95015478
3.7817175 4.2273359 -0.63220948
3.8955071 4.3545341 -0.32634994
0 0 0
11.786429 13.175282 0.98741966
3.7939253 4.2461419 -0.94929969
3.7774413 4.2276931 -0.63192147
3.8998008 4.3646374 -0.32693049
0 0 0
11.714411 13.110708 0.98204964
3.793911 4.2564664 -0.95058233
3.7843788 4.2457719 -0.6339398
3.8962514 4.371284 -0.32707551
0 0 0
11.670897 13.093818 0.97972745
3.7972989 4.2706451 -0.95272338
3.7706542 4.2406788 -0.63249862
3.8926983 4.3779364 -0.32722107
7.7398157 8.7046099 0
11.680968 13.137039 0.98190463
3.7989497 4.2829118 -0.95443529
3.7792513 4.260704 -0.63480383
3.8874056 4.3826365 -0.32722107
0 0 0
11.759915 13.258055 0.98988688
3.793772 4.287499 -0.95443529
3.7723882 4.2633324 -0.63451582
3.8855479 4.3912187 -0.32751107
0 0 0
11.828253 13.367599 0.99699807
3.7868848 4.2901497 -0.95400608
3.7775071 4.2795258 -0.63624614
3.880239 4.3959107 -0.32751107
0 0 0
11.849926 13.424744 1.0001915
3.793575 4.3082104 -0.95700228
3.7723334 4.2840872 -0.63624614
3.8800778 4.4064484 -0.3279466
0 0 0
11.85258 13.460498 1.0017875
3.805305 4.3320742 -0.96128112
3.763737 4.2847519 -0.63566899
3.8730376 4.409183 -0.32780161
0 0 0
11.853459 13.494336 1.0032392
3.8034546 4.3405342 -0.96213788
3.7602599 4.2912402 -0.635957
3.8659897 4.4118996 -0.32765606
0 0 0
11.845706 13.518418 1.0039648
3.804965 4.3528576 -0.96384972
3.7601805 4.3016243 -0.63682216
3.8606558 4.4165678 -0.32765606
4.9940963 5.7132168 0
11.825939 13.528805 1.0036741
3.7963252 4.3535786 -0.96299297
3.7566783 4.3081121 -0.63711017
3.8604414 4.4271064 -0.32809162
0 0 0
11.802752 13.535251 1.0030936
3.7910619 4.3581629 -0.96299297
3.7582603 4.3204541 -0.63826334
3.8602071 4.4376512 -0.32852718
0 0 0
11.771043 13.531859 1.0017875
3.7841122 4.3608031 -0.96256542
3.74965 4.3210888 -0.63768733
3.8531408 4.4403515 -0.32838216
0 0 0
11.710408 13.495049 0.99801415
3.7771618 4.3634334 -0.96213788
3.7596598 4.3432145 -0.64028168
3.8528697 4.4508924 -0.32881716
4.9851627 5.758934 0
11.551245 13.34417 0.98582298
3.775239 4.3718762 -0.96299297
3.7544091 4.3477545 -0.64028168
3.8559852 4.4653835 -0.32954329
4.9730959 5.7590423 0
11.547002 13.371885 0.98683912
3.7883849 4.397831 -0.96770102
3.7525258 4.3562031 -0.6408577
3.8539755 4.4739733 -0.3298333
4.979722 5.7808213 0
11.544404 13.401578 0.98800021
3.7914319 4.4121385 -0.96984047
3.755693 4.3705482 -0.64230001
3.8434846 4.4727125 -0.32939774
4.9642544 5.7769666 0
11.550217 13.441135 0.98988688
3.7911117 4.422565 -0.97112477
3.7571425 4.3829379 -0.64345318
3.8414629 4.4813027 -0.32968828
4.9606547 5.7869086 0
11.550875 13.474806 0.99133801
3.7924385 4.4349465 -0.97283661
3.74512 4.3796115 -0.64230001
3.8394196 4.4898872 -0.32997829
4.9485893 5.7869706 0
11.597067 13.561821 0.99670804
3.7770779 4.427804 -0.97026801
3.7448564 4.3900313 -0.64316404
3.8373675 4.4984808 -0.33026886
4.9567928 5.8107634 0
11.607654 13.607454 0.99903029
3.7817099 4.4440985 -0.97283661
3.752959 4.4103117 -0.64547038
3.8403475 4.5130067 -0.3309944
4.94133 5.8068328 0
11.587831 13.617508 0.99873972
3.7946067 4.4701867 -0.97754306
3.745955 4.4128733 -0.64518237
3.8365715 4.5196228 -0.33113942
4.9427357 5.8227253 0
11.539424 13.593867 0.99598247
3.8174024 4.5080705 -0.9848181
3.7506456 4.4292355 -0.64691156
3.8361468 4.5302062 -0.33157498
0 0 0
11.504518 13.585986 0.99438584
3.8136139 4.5146465 -0.98524725
3.745291 4.4337645 -0.64691156
3.8357022 4.5407948 -0.33201051
0 0 0
11.467972 13.576056 0.99264413
3.7982278 4.5074692 -0.98267865
3.7416024 4.4402699 -0.6472007
3.8251879 4.5394635 -0.33157498
0 0 0
11.429793 13.564074 0.99075747
3.8054249 4.5215511 -0.98524725
3.7472451 4.4524221 -0.64864188
3.8341522 4.5556841 -0.33259052
0 0 0
11.440003 13.592847 0.99235415
3.7966545 4.5222101 -0.9843905
3.7368715 4.4510021 -0.64777672
3.8253064 4.5563374 -0.33230051
0 0 0
11.425241 13.608648 0.99249911
3.787894 4.522862 -0.98353541
3.7447762 4.4713778 -0.65008307
3.8231316 4.5649366 -0.33259052
0 0 0
11.727431 14.002913 1.0202192
3.7807758 4.5254598 -0.9831062
3.7393706 4.4758992 -0.65008307
3.8176131 4.5695529 -0.33259052
0 0 0
11.710503 14.017074 1.0202192
3.7670891 4.5201664 -0.98096681
3.7339597 4.4804144 -0.65008307
3.8204114 4.5841484 -0.33331662
0 0 0
11.688572 14.02523 1.0197842
3.7632704 4.5266948 -0.98139596
3.7401192 4.498847 -0.6521014
3.8165293 4.5907578 -0.33346164
0 0 0
11.651683 14.015366 1.0180426
3.7594352 4.5332127 -0.98182356
3.739629 4.5093303 -0.65296543
3.8192713 4.6053648 -0.33418721
3.9668756 4.783349 0
11.566732 13.947431 1.012092
3.7474096 4.52984 -0.98011166
3.7341778 4.5138454 -0.65296543
3.8186746 4.6159844 -0.33462274
3.9544573 4.780118 0
5.6851702 6.8721905 0.49818003
3.7566373 4.5521822 -0.98396295
3.7369571 4.5283346 -0.65440774
3.8130941 4.6205955 -0.33462274
3.9519947 4.7889109 0
5.6768622 6.8790545 0.49818003
3.7478678 4.5527506 -0.9831062
3.733125 4.5348415 -0.65469575
3.8141141 4.633224 -0.33520332
3.9313207 4.7756009 0
5.6701961 6.8879132 0.49832502
3.752142 4.5691829 -0.98567486
3.7407744 4.5553403 -0.65700209
3.8085132 4.6378288 -0.33520332
3.9354539 4.7924113 0
0 0 0
3.7433617 4.5697379 -0.9848181
3.7352674 4.5598569 -0.65700209
3.7996099 4.6384034 -0.33491275
3.9329617 4.8011937 0
5.6469479 6.8935552 0.49774447
3.7557065 4.5961256 -0.98952615
3.7264786 4.5603571 -0.65642494
3.8055134 4.6570778 -0.33592886
3.9222157 4.7998948 0
5.6369715 6.8983636 0.49759945
3.7809622 4.6384602 -0.99765629
3.7307739 4.5768895 -0.65815526
3.7965968 4.6576405 -0.33563831
3.9164133 4.8046303 0
5.6204185 6.8950934 0.49687335
3.7366586 4.5954356 -0.66017246
3.7975235 4.670289 -0.33621886
3.9188128 4.8194532 0
5.6088076 6.897851 0.49658334
3.7359929 4.6059756 -0.66103762
3.7951546 4.6789141 -0.33650944
3.9113486 4.8221655 0
5.5890093 6.8904948 0.49556723
3.7255423 4.6044521 -0.66017246
3.8042066 4.7016745 -0.33781555
3.9087899 4.8309307 0
5.5741415 6.889163 0.49498668
3.7297261 4.6210308 -0.66190279
3.8001533 4.7082882 -0.33796054
3.899684 4.8316035 0
5.5625525 6.8918529 0.49469668
3.7338688 4.6376181 -0.66363198
3.7960894 4.7148981 -0.33810553
3.8987346 4.8423877 0
5.5591111 6.9046431 0.49513224
3.7331231 4.6481781 -0.66449714
3.7936471 4.7235374 -0.3383961
3.9010336 4.8572464 0
5.5475068 6.9072995 0.49484167
3.7388194 4.6668096 -0.66651434
3.7895598 4.730144 -0.33854109
3.8935299 4.8599195 0
5.5424089 6.918057 0.49513224
3.7364104 4.6753688 -0.66709149
3.7854621 4.7367473 -0.33868611
3.8860316 4.8625894 0
5.5356665 6.9267769 0.49527723
3.7388182 4.6899905 -0.66853267
3.7894578 4.7535129 -0.33955723
3.8979998 4.8896685 0
5.5370083 6.9456477 0.49614778
3.7444191 4.7086773 -0.670551
3.7885647 4.7641912 -0.33999276
3.8920889 4.8943748 0
5.5399342 6.9665713 0.49716389
3.7355089 4.7091417 -0.66997385
3.786032 4.7728333 -0.34028277
3.9120498 4.9316969 0
5.5444312 6.9895463 0.49832502
3.7346325 4.719739 -0.67083901
3.7883224 4.787591 -0.34100834
3.914161 4.9466224 0
9.2619963 11.705088 0.83372462
3.7365932 4.7280841 -0.67170417
3.7983186 4.8061881 -0.34216943
3.9208505 4.9612331 0
9.2452593 11.698453 0.83285409
3.7452874 4.7508745 -0.67429852
3.7941155 4.8128128 -0.34231445
3.9003539 4.9475751 0
9.2246819 11.701453 0.83227354
3.7427387 4.759459 -0.67487454
3.7850881 4.8133125 -0.34202445
3.8847234 4.9400139 0
9.2057161 11.706462 0.83183795
3.7433705 4.7721181 -0.67602772
3.7776673 4.8158398 -0.34187946
3.8642969 4.9262772 0
9.20119 11.729847 0.83270907
3.7423849 4.7827506 -0.67689288
3.7766447 4.8265343 -0.34231445
3.8647506 4.9391332 0
9.1886101 11.743001 0.83285409
3.7270577 4.7750392 -0.67516369
3.7708099 4.8310943 -0.34231445
3.9132268 5.013556 0
9.1536312 11.727468 0.83096743
3.7355845 4.797905 -0.67775804
3.7729561 4.8459044 -0.34304056
3.8975701 5.0059562 0
9.1107235 11.701619 0.82835519
3.7218533 4.7922034 -0.67631686
3.7718749 4.8566103 -0.34347555
3.8675783 4.9798365 0
9.0790434 11.690042 0.8267585
3.719748 4.8134594 -0.67804605
3.7696638 4.8780518 -0.34434667
3.8905396 5.0344682 0
9.0507669 11.711948 0.8267585
3.718668 4.8240976 -0.67891121
3.7669365 4.8867149 -0.34463668
0 0 0
8.4116011 10.912076 0.76957661
3.7238681 4.8429346 -0.68092841
3.7499402 4.8768415 -0.34362057
0 0 0
8.4110813 10.938711 0.77073771
3.7211649 4.8515391 -0.68150556
3.7266538 4.8586955 -0.34202445
0 0 0
8.3946915 10.944738 0.77044719
3.7278733 4.8724656 -0.6838119
3.7760382 4.9354191 -0.34710392
0 0 0
8.3814611 10.954874 0.77044719
3.7172742 4.8707962 -0.68294674
3.7811084 4.9544392 -0.34812003
0 0 0
8.38556 10.987717 0.77204382
3.7160876 4.8814602 -0.6838119
3.7688234 4.9507341 -0.34753945
0 0 0
9.3968573 12.343731 0.86652476
3.7133119 4.8900628 -0.68438792
3.7754102 4.9718399 -0.34870058
0 0 0
9.3787899 12.350934 0.86623418
3.7105269 4.8986735 -0.68496507
3.7709675 4.9784675 -0.34884557
0 0 0
9.3481731 12.341548 0.86478311
3.7108421 4.9114079 -0.68611825
3.7618194 4.978878 -0.34855559
0 0 0
9.3207226 12.336248 0.86362195
3.7173526 4.9324045 -0.68842345
3.7667434 4.9979396 -0.34957114
4.9305201 6.5421071 0
9.2760992 12.308081 0.86086476
3.71139 4.9368925 -0.68842345
3.7622616 5.0045619 -0.34971616
4.9147935 6.5376606 0
9.2377977 12.288123 0.85868752
3.7131853 4.951726 -0.68986577
3.7624476 5.0174198 -0.35029671
4.9084506 6.5456748 0
9.2728281 12.365801 0.86333197
3.7071993 4.9562092 -0.68986577
3.7610528 5.0282068 -0.35073227
4.9005375 6.5516009 0
9.4072819 12.576734 0.87726426
3.7027533 4.9627562 -0.69015378
3.7549746 5.0327477 -0.35073227
4.8754969 6.5345707 0
9.4526815 12.669316 0.88292485
3.7013881 4.973453 -0.69101894
3.7566459 5.0477018 -0.3514578
4.870708 6.5446362 0
9.4466715 12.693232 0.88379538
3.6999967 4.9841466 -0.69188297
3.7520914 5.0543218 -0.35160282
4.8736572 6.5651464 0
9.4282265 12.70046 0.88350481
3.7031467 4.9946918 -0.69303614
3.7490373 5.0565877 -0.35160282
4.8665867 6.5639043 0
9.4205513 12.706154 0.88350481
3.7001877 5.0033259 -0.69361329
3.7521977 5.0736527 -0.35247394
4.8416343 6.5467691 0
9.4067411 12.719623 0.88365036
3.7140985 5.0348496 -0.69736081
3.7506936 5.0844584 -0.35290948
0 0 0
9.3728552 12.705887 0.88190871
3.7080121 5.0393338 -0.69736081
3.7522459 5.0994492 -0.35363504
0 0 0
9.3744307 12.740219 0.88350481
3.6988566 5.0396361 -0.69678366
3.7491534 5.1081648 -0.35392505
0 0 0
9.380558 12.780868 0.88553709
3.7095726 5.0670605 -0.69995517
3.7506518 5.1231723 -0.35465062
0 0 0
9.3697138 12.798485 0.88597262
3.7034473 5.0715394 -0.69995517
3.7459955 5.1298051 -0.35479617
0 0 0
9.3511753 12.805596 0.88568205
3.6973166 5.0760102 -0.69995517
3.73826 5.1322212 -0.35465062
0 0 0
9.3081598 12.779083 0.88306981
3.6957428 5.0867538 -0.70082033
3.7396972 5.1472516 -0.35537672
0 0 0
9.2591143 12.744078 0.87987703
3.6956649 5.0995932 -0.7019735
3.738045 5.1580725 -0.35581172
0 0 0
9.2284575 12.734211 0.87842536
3.6955614 5.1124396 -0.70312667
3.736378 5.1689053 -0.35624728
0 0 0
9.2267628 12.764304 0.87973148
3.6924038 5.1210933 -0.70370269
3.7392447 5.186058 -0.35711783
0 0 0
9.2341299 12.807061 0.88190871
3.6892307 5.1297464 -0.70427871
3.7375286 5.1969032 -0.35755339
0 0 0
9.2641602 12.881492 0.8862626
3.6950908 5.1510139 -0.70658505
3.7403369 5.214088 -0.35842451
0 0 0
9.250102 12.894786 0.88640761
3.688864 5.1554747 -0.70658505
3.7340341 5.2186036 -0.35842451
0 0 0
9.2405624 12.914406 0.88698816
3.6871409 5.1662464 -0.70745021
3.7413096 5.2421446 -0.35973063
0 0 0
9.2415571 12.94883 0.88858485
3.6868958 5.1791263 -0.70860338
3.7334616 5.2445388 -0.35958508
0 0 0
8.458909 11.882558 0.81471235
3.6896172 5.1962266 -0.71033257
3.734648 5.2596455 -0.36031118
4.0678153 5.728857 0
8.4280005 11.869471 0.81311625
3.6818423 5.1985722 -0.71004456
3.7282901 5.2641544 -0.36031118
4.0398345 5.7040391 0
8.3896236 11.845717 0.810794
3.6770492 5.2051277 -0.71033257
3.7264202 5.2750158 -0.36074618
4.0044079 5.6685276 0
8.3498182 11.819769 0.80832678
3.6841695 5.2286019 -0.71292806
3.7230399 5.2837672 -0.36103675
3.9975555 5.6733618 0
8.3205662 11.808613 0.80687565
3.6733859 5.2266994 -0.7120629
3.7271073 5.3031373 -0.36205229
4.0281072 5.7314172 0
8.3003159 11.810154 0.8062951
3.6744897 5.2417216 -0.71350408
3.7177165 5.3033853 -0.36176232
4.0241694 5.7405462 0
8.2830534 11.815915 0.80600452
3.6800106 5.2631154 -0.71581042
3.7157741 5.3142643 -0.36219785
0 0 0
8.2672825 11.823788 0.80585951
3.6736484 5.2675581 -0.71581042
3.7271869 5.344326 -0.36393952
0 0 0
8.2544746 11.835897 0.80600452
3.671942 5.2718973 -0.71609843
3.7239575 5.3465767 -0.36393952
0 0 0
8.248806 11.843013 0.80614954
3.6803293 5.297576 -0.71898192
3.7174945 5.3510728 -0.36393952
0 0 0
8.2374582 11.857244 0.80644011
3.6753972 5.304143 -0.71926993
3.7184243 5.3662376 -0.36466509
0 0 0
8.2201624 11.862912 0.80614954
3.6689856 5.3085804 -0.71926993
3.7178471 5.3792772 -0.36524564
0 0 0
8.207304 11.87498 0.8062951
3.6816511 5.3406911 -0.72301745
3.7157648 5.3901772 -0.36568063
0 0 0
8.1988478 11.893446 0.80687565
3.6664 5.3323441 -0.72128713
3.7210267 5.4117923 -0.36684176
3.9262717 5.7102966 0
8.1874132 11.907621 0.80716562
3.6833599 5.3708992 -0.72589982
3.7144849 5.4162846 -0.36684176
3.8722734 5.6463642 0
8.1847763 11.934649 0.80832678
3.6724908 5.3689475 -0.72503579
3.7182083 5.4357839 -0.36785787
3.8566294 5.6381469 0
8.1850166 11.965973 0.80977786
3.6762004 5.3883314 -0.72705299
3.7189584 5.4510031 -0.36858344
3.8072805 5.5804596 0
8.5644674 12.55323 0.8488186
3.6755075 5.4013228 -0.72820616
3.7138295 5.4576387 -0.36872843
3.8093224 5.5979695 0
8.5741434 12.600087 0.85128582
3.6704295 5.4078979 -0.72849417
3.7116115 5.4685745 -0.36916399
3.8113217 5.6154842 0
8.5603704 12.612586 0.85143083
3.6624439 5.4101892 -0.72820616
3.7064564 5.4752049 -0.36930901
3.808912 5.6265531 0
8.5465794 12.625071 0.85157579
3.654458 5.4124689 -0.72791815
3.6954801 5.4732251 -0.36887398
3.7657042 5.5772314 0
8.5196915 12.618168 0.85041529
3.6594734 5.4340439 -0.73022449
3.6990199 5.4927669 -0.36988956
3.796756 5.637898 0
8.4434805 12.537935 0.8443197
3.6615551 5.4513397 -0.73195368
3.6952808 5.5015507 -0.3701801
0 0 0
8.3544388 12.438126 0.836918
3.6564038 5.4579072 -0.73224169
3.692965 5.5124822 -0.37061512
0 0 0
8.323493 12.424462 0.83532131
3.6541185 5.4687748 -0.73310685
3.6978505 5.5342245 -0.37177622
3.7734053 5.6473002 0
8.315691 12.445312 0.83604687
3.6575499 5.4882545 -0.73512518
3.6911607 5.5386887 -0.37177622
0 0 0
8.3064117 12.464 0.83662742
3.6566429 5.501286 -0.73627836
3.6930988 5.5561328 -0.37264735
0 0 0
8.2697735 12.441573 0.83445078
3.6528485 5.5100079 -0.73685437
3.6906857 5.5670819 -0.37308234
0 0 0
8.2346306 12.421232 0.8324185
3.6590259 5.533833 -0.73944873
3.6911263 5.5823812 -0.37380847
0 0 0
8.2138834 12.422503 0.83183795
3.6484873 5.5469851 -0.74002588
3.6833367 5.5999684 -0.37438902
0 0 0
8.1595659 12.405413 0.82937074
3.6536531 5.5621552 -0.74175507
3.6913602 5.6195588 -0.37554958
0 0 0
8.1492186 12.406 0.82908076
3.655437 5.5795512 -0.74348539
3.7045059 5.6544485 -0.3775818
0 0 0
8.1370678 12.42018 0.82937074
3.658592 5.5991144 -0.74550259
3.6934056 5.6523929 -0.37714624
0 0 0
8.120635 12.427831 0.82922572
3.6546509 5.6078687 -0.74607974
3.686573 5.6568518 -0.37714624
0 0 0
8.1127043 12.448517 0.82995129
3.6450505 5.6079392 -0.74550259
3.6896491 5.6765547 -0.37816235
0 0 0
8.1146498 12.484454 0.83169299
3.6495273 5.6297021 -0.74780893
3.6856117 5.6853652 -0.37845236
0 0 0
8.1165209 12.520414 0.83343464
3.65536 5.6536541 -0.75040329
3.687207 5.7029114 -0.37932348
0 0 0
8.0915089 12.514935 0.8324185
3.6527324 5.6645904 -0.75126845
3.6887598 5.7204609 -0.38019404
0 0 0
8.0102005 12.422071 0.82559741
3.6500838 5.675528 -0.75213361
3.6832492 5.7270975 -0.38033903
0 0 0
7.9192882 12.313729 0.81776011
3.6432233 5.679934 -0.75213361
3.6833396 5.7424774 -0.38106459
0 0 0
7.8889756 12.299236 0.81616402
3.6530833 5.7104778 -0.75559312
3.6749995 5.7447371 -0.38091961
0 0 0
7.8797097 12.317515 0.81674457
3.6489604 5.7192445 -0.75616914
3.6792364 5.7666979 -0.3820807
0 0 0
7.8787942 12.348928 0.8181957
3.6545427 5.7432866 -0.75876349
3.6750584 5.775528 -0.38237128
0 0 0
7.8610797 12.354059 0.81790566
3.6476002 5.7476983 -0.75876349
3.668077 5.7799644 -0.38237128
0 0 0
7.8350081 12.345998 0.81674457
3.6448038 5.7586603 -0.75962865
3.6749845 5.8063445 -0.38382238
7.8257494 12.364406 0
7.7950683 12.31593 0.8141318
3.6475086 5.7783723 -0.76164699
3.6804476 5.8305545 -0.3851285
7.8246984 12.395864 0
7.7607656 12.294581 0.81210011
3.6515424 5.8002777 -0.7639522
3.6733999 5.8349972 -0.3851285
0 0 0
7.7403669 12.295155 0.81151956
3.6569133 5.8244066 -0.76654768
3.6746397 5.8526397 -0.38599962
7.7435184 12.333188 0
7.735178 12.319904 0.81253564
3.649873 5.8288212 -0.76654768
3.6648045 5.8526664 -0.38570905
7.7382803 12.357978 0
7.7616549 12.395308 0.81688958
3.6400845 5.828835 -0.76597053
3.6632354 5.8659062 -0.38628963
7.7536669 12.415878 0
7.8017216 12.492827 0.8226946
3.6467102 5.8551798 -0.76885289
3.6671348 5.8879738 -0.38745072
0 0 0
7.814095 12.546358 0.82559741
3.6450915 5.8683705 -0.77000606
3.6655018 5.9012294 -0.3880313
7.7675767 12.505315 0
7.8030438 12.562415 0.82603294
3.6379981 5.8727708 -0.77000606
3.663842 5.9144902 -0.38861185
7.6455688 12.342137 0
7.7741723 12.54974 0.82458127
3.6458542 5.9013691 -0.77317756
3.668983 5.9388061 -0.38991797
7.6593733 12.39786 0
7.7316942 12.514921 0.82167906
3.6504343 5.9167738 -0.77490675
3.6667573 5.9432311 -0.39006296
0 0 0
7.7186742 12.510744 0.82109851
3.6459959 5.92559 -0.77548391
3.6622996 5.9520874 -0.39035353
0 0 0
7.6981049 12.511209 0.8205179
3.6455958 5.9410119 -0.77692509
3.6618986 5.9675798 -0.39107907
0 0 0
7.677546 12.511642 0.81993735
3.6451638 5.9564414 -0.77836627
3.6587558 5.9786515 -0.39151463
0 0 0
7.6732731 12.538641 0.82109851
3.6514409 5.9829235 -0.78124976
3.6582961 5.9941559 -0.3922402
0 0 0
7.6567645 12.545688 0.82095349
3.6415169 5.9829082 -0.78067261
3.6564546 6.0074501 -0.39282075
0 0 0
7.6294374 12.534947 0.81964684
3.6450217 6.004992 -0.78297895
3.6464939 6.0074172 -0.3925302
0 0 0
7.6237254 12.559708 0.82066292
3.6391013 6.0116024 -0.78326696
3.6580684 6.0429354 -0.39456186
0 0 0
7.6408386 12.62226 0.82414627
3.6411934 6.031497 -0.78528529
3.6534526 6.0518041 -0.39485243
0 0 0
7.711524 12.773844 0.83343464
3.6365683 6.0403199 -0.78586131
3.6514986 6.0651188 -0.39543298
0 0 0
7.7550492 12.881094 0.83982021
3.6372581 6.0580187 -0.78759164
3.6495175 6.0784373 -0.39601356
0 0 0
7.7501798 12.908277 0.84098136
3.6405652 6.080162 -0.78989798
3.6528492 6.1006775 -0.39717466
0 0 0
7.7439222 12.93324 0.84199744
3.6531026 6.1178608 -0.79422152
3.6481369 6.1095448 -0.39746466
0 0 0
7.716301 12.92251 0.84069133
3.6430635 6.1178303 -0.7936455
3.6434133 6.1184177 -0.39775521
0 0 0
7.6780815 12.893873 0.83822411
3.6449094 6.1377883 -0.7956627
3.6426504 6.1339846 -0.39848077
0 0 0
7.5046191 12.637287 0.82095349
3.6427624 6.1510901 -0.79681587
3.6392095 6.1450911 -0.39891633
0 0 0
7.4244661 12.536794 0.81384176
3.6392744 6.1621709 -0.79768103
3.6436727 6.1696181 -0.40022245
3.776747 6.3949451 0
7.396101 12.523386 0.81239069
3.6462657 6.191081 -0.80085254
3.6401675 6.180727 -0.40065745
3.7584565 6.3815727 0
7.3809638 12.532313 0.81239069
3.6427083 6.2021666 -0.80171657
3.6392803 6.1963301 -0.40138358
3.7322884 6.3546882 0
7.3566027 12.525537 0.81137455
3.6443632 6.2221889 -0.8037349
3.6344144 6.2052031 -0.40167356
3.7219791 6.3547063 0
7.3348975 12.523208 0.81064898
3.6368423 6.2265878 -0.8037349
3.6400168 6.2320232 -0.40312469
3.7300489 6.3861656 0
7.3184509 12.529819 0.81050402
3.6371243 6.2443833 -0.80546409
3.6416402 6.2521362 -0.4041408
3.7511444 6.4401383 0
7.3124571 12.554364 0.81151956
3.6373734 6.262197 -0.80719441
3.6314752 6.2520423 -0.40385079
3.7302859 6.4221578 0
7.289454 12.549714 0.81064898
3.6246188 6.2576351 -0.80604124
3.6330311 6.2721586 -0.40486637
3.7199171 6.4221606 0
7.2807956 12.569753 0.81137455
3.6067054 6.2440925 -0.8037349
3.6345489 6.2922964 -0.40588248
3.7486019 6.4897504 0
7.268199 12.583037 0.81166458
3.604322 6.257411 -0.80488807
3.6282389 6.298933 -0.40602747
3.7355618 6.4852548 0
7.2465057 12.580554 0.81093901
3.6056993 6.2685556 -0.80604124
3.6309094 6.3123837 -0.40675303
0 0 0
7.2557454 12.614209 0.81282568
3.5929747 6.2639337 -0.80488807
3.6387942 6.3438144 -0.40849471
3.721209 6.4874954 0
7.2960882 12.719881 0.81906623
3.5918231 6.2794938 -0.80632925
3.6285484 6.3436995 -0.4082047
3.7172453 6.4987664 0
7.4148841 12.963255 0.83416021
3.5880787 6.2905717 -0.80719441
3.6247392 6.3548441 -0.4086397
3.7197056 6.521338 0
7.4519982 13.064744 0.84011078
3.5868678 6.3061414 -0.80863559
3.6324742 6.386323 -0.41038138
3.7246876 6.5484452 0
7.6507373 13.45091 0.86434752
3.5856245 6.3217177 -0.81007677
3.6311636 6.4020066 -0.41110694
3.7206254 6.5597343 0
7.6626797 13.509864 0.8675403
3.5767112 6.3237967 -0.80978876
3.6247082 6.4086576 -0.4112525
3.7191014 6.5755491 0
7.5951858 13.428652 0.86173528
3.5716112 6.332624 -0.81036586
3.6233432 6.4243469 -0.41197804
3.7149901 6.5868411 0
7.5036445 13.304292 0.85317248
3.5753667 6.3572221 -0.81296027
3.6257682 6.4468389 -0.41313916
3.7185092 6.6117382 0
7.4952035 13.326933 0.85404307
3.5778041 6.3795853 -0.81526655
3.6243298 6.4625449 -0.41386473
3.7156093 6.6253057 0
7.4613032 13.304255 0.85201138
3.5839763 6.4087291 -0.81843698
3.6253977 6.4827971 -0.41488084
3.7126825 6.6388764 0
7.635458 13.653434 0.87378144
3.6140192 6.4808202 -0.8270852
3.6188262 6.48944 -0.41502583
3.7173307 6.6660829 0
7.6721053 13.757961 0.87987703
3.617162 6.5234675 -0.83140987
3.6169901 6.5231571 -0.41662195
7.6044464 13.714442 0
7.642612 13.783273 0.88031203
3.6017654 6.5142474 -0.82967955
3.6166518 6.5411716 -0.41749308
7.5740166 13.698565 0
7.6221838 13.785682 0.87987703
3.5826538 6.4982119 -0.8270852
3.6175287 6.5614676 -0.41850919
7.5763078 13.741895 0
7.5929728 13.772121 0.87842536
3.5797834 6.5116019 -0.82823837
3.6083422 6.56355 -0.41836363
7.5910406 13.808052 0
6.4910612 11.807197 0.75259602
3.5694287 6.5113912 -0.82766235
3.6104014 6.586134 -0.41952476
7.7544866 14.14582 0
6.4655495 11.794526 0.7512899
3.5665207 6.5247774 -0.82881552
3.609921 6.604176 -0.42039585
7.7586074 14.193998 0
7.2625971 13.286571 0.84577078
3.5672953 6.5449729 -0.83083272
3.608155 6.6199389 -0.42112142
7.7252607 14.173658 0
7.2428055 13.288489 0.84533525
3.5556827 6.5424676 -0.82996863
3.6113193 6.6448393 -0.42242754
7.6907287 14.150965 0
6.4227529 11.817885 0.7512899
3.5600958 6.5694952 -0.83285105
3.619381 6.678895 -0.4243142
7.6438699 14.105341 0
6.4220881 11.85077 0.75288653
3.5533836 6.5760655 -0.83313906
3.6162493 6.6924076 -0.42489478
7.9249697 14.666336 0
6.4015841 11.847085 0.75216043
3.5503426 6.5894623 -0.83429223
3.6081603 6.6967721 -0.42489478
7.9121804 14.685066 0
6.3700118 11.82279 0.75012875
3.5497246 6.6074224 -0.8360225
3.6086752 6.7171526 -0.42591089
7.885808 14.678565 0
6.3594122 11.837347 0.75056434
3.5478437 6.6231046 -0.83746374
3.6079156 6.7352467 -0.42678145
7.9749708 14.887653 0
7.8014517 14.563728 0.92283607
3.5483649 6.6433501 -0.83948094
3.6107914 6.7602272 -0.42808756
8.0599651 15.090097 0
7.7826209 14.570846 0.92269051
3.5638256 6.6820073 -0.84409362
3.6103764 6.7692876 -0.42852312
8.0618687 15.115629 0
7.7738166 14.575544 0.92269051
3.6031086 6.7753644 -0.85533619
4.6172261 8.682333 -0.54927301
8.0472651 15.132255 0
6.3178358 11.880198 0.75158042
3.6336927 6.8528366 -0.86456156
0 0 -0
8.0143452 15.114376 0
6.3874631 12.046214 0.76159436
3.6435447 6.8915234 -0.86888617
0 0 -0
6.3613224 12.03202 0
6.3923349 12.090677 0.76391661
3.6388299 6.9027781 -0.86975026
0 0 -0
6.3443542 12.035097 0
6.3837786 12.109883 0.76464218
3.6304865 6.9071698 -0.86975026
0 0 -0
7.9086514 15.046578 0
6.3788128 12.135989 0.76580328
3.6173356 6.9023881 -0.86859709
4.5526237 8.6870499 -0.54782134
7.8167796 14.915522 0
6.3629346 12.141379 0.76565772
3.6054027 6.8998833 -0.867733
4.538517 8.6856422 -0.54738635
7.7662129 14.862684 0
6.3434458 12.139847 0.76507717
3.5934765 6.8973508 -0.8668679
4.5220122 8.6795912 -0.54666024
5.1017351 9.7923155 0
6.3059649 12.103725 0.76231992
3.5827529 6.8970928 -0.86629075
