# .PCD v0.7 - Point Cloud Data file format
VERSION 0.7
FIELDS x y z
SIZE 4 4 4
TYPE F F F
COUNT 1 1 1
WIDTH 1984
HEIGHT 1
VIEWPOINT 0 0 0 1 0 0 0
POINTS 1984
DATA ascii
7.1109667 13.648852 0
7.2207766 13.859623 0.87291032
7.0938854 13.65631 -0.85956478
7.0896707 13.648197 0
7.2040248 13.868338 0.87291032
7.0761852 13.662567 -0.85941976
7.0624032 13.635957 0
7.1705341 13.844734 0.8708787
7.0537114 13.659565 -0.8586942
7.0423384 13.637542 0
7.1394935 13.825683 0.86913699
7.0383897 13.670386 -0.85883921
7.0234747 13.641418 0
7.1227822 13.834299 0.86913699
7.0361066 13.706621 -0.86058086
7.0046072 13.645259 0
7.1108079 13.852142 0.86971754
7.0278277 13.731306 -0.861597
6.984561 13.64677 0
7.1059012 13.883851 0.87116867
7.0218596 13.760616 -0.86290312
6.9727979 13.664472 0
7.0985689 13.910943 0.87232977
7.0170078 13.792246 -0.86435425
6.9704432 13.700722 0
7.1029663 13.961202 0.8749426
7.0156174 13.830838 -0.86624092
6.9691873 13.739305 0
7.0954909 13.988304 0.87610316
7.0118008 13.864814 -0.86783755
6.9607992 13.763966 0
7.0914841 14.022376 0.87769979
7.013761 13.910399 -0.8701598
6.9640808 13.811869 0
7.0698562 14.021653 0.87711924
7.0121183 13.949043 -0.87204647
6.9567375 13.838876 0
7.0517426 14.027866 0.87697423
7.0057359 13.978411 -0.87335259
6.9551687 13.877515 0
0 0 0
7.0097446 14.028701 -0.87596482
6.9511924 13.91152 0
7.0329199 14.075082 0.87886095
7.0055346 14.062747 -0.87756151
6.9459805 13.943199 0
7.0460305 14.144037 0.88263428
6.9989386 14.092144 -0.87886763
6.9453368 13.984219 0
7.072854 14.240971 0.88814932
6.994586 14.126199 -0.88046372
6.9399805 14.015918 0
7.063714 14.265809 0.8891654
6.9947662 14.169593 -0.88264096
6.9391656 14.05696 0
7.057971 14.297629 0.89061654
6.9976902 14.197119 -0.88409209
6.9456282 14.091494 0
7.0573745 14.318208 0.89163262
6.9954271 14.235879 -0.88597876
6.9481072 14.139582 0
7.0492363 14.345382 0.89279377
6.9965115 14.281656 -0.88830101
6.939033 14.164329 0
7.0330396 14.35622 0.89293873
6.9952121 14.322783 -0.89033264
6.9379005 14.205437 0
7.0191102 14.371715 0.89337432
6.9938283 14.363937 -0.89236492
6.9378214 14.24891 0
7.0267625 14.431578 0.89656711
6.9912171 14.402764 -0.89425159
6.9330969 14.28303 0
7.3497105 15.141304 0.94010669
6.991919 14.448625 -0.89657378
6.9317069 14.324198 0
7.3812075 15.25308 0.94649231
6.9891319 14.487485 -0.89846045
6.9324865 14.370067 0
7.0003681 14.510776 0.89990491
6.9828815 14.519332 -0.89991158
6.9263954 14.401882 0
7.0042286 14.563719 0.90266269
6.9810576 14.560557 -0.90194327
6.9258623 14.445435 0
6.9888706 14.576853 0.90295267
6.9771461 14.643066 -0.90600717
6.9200416 14.523219 0
6.9603324 14.607779 0.90382379
6.9717126 14.677307 -0.90760386
6.9170027 14.562128 0
6.9571691 14.646688 0.90571046
6.9739876 14.727988 -0.91021609
6.9116507 14.596342 0
6.9594808 14.697352 0.90832269
6.9683847 14.762245 -0.91181219
6.9140077 14.64705 0
6.9539194 14.731601 0.90991938
6.9671388 14.805923 -0.91398942
6.9095974 14.683642 0
7.0047021 14.88575 0.91891718
6.9657979 14.849621 -0.91616666
6.9040089 14.7179 0
7.1257482 15.190602 0.93720394
6.9588542 14.88156 -0.91761774
6.9027572 14.761596 0
7.1371036 15.262748 0.94112229
6.9518442 14.913505 -0.91906887
6.902504 14.807658 0
7.1109743 15.254881 0.94010669
6.946959 14.950171 -0.92081058
6.8999629 14.849033 0
7.0618773 15.197481 0.93604279
6.9332581 14.967986 -0.92139113
6.8962345 14.888057 0
7.0118375 15.137629 0.93183392
6.9151669 14.976353 -0.92139113
6.8924217 14.927093 0
6.9761128 15.108345 0.92951167
6.9024973 14.996497 -0.9221167
6.8798199 14.947228 0
6.9578524 15.116763 0.92951167
6.8869276 14.986503 -0.92124611
6.8762207 14.963203 0
6.9400425 15.102084 0.9283511
6.8731432 15.004263 -0.92182666
6.8570528 14.969137 0
6.9207039 15.108089 0.92820555
6.8593254 15.022012 -0.92240721
6.8357167 14.970307 0
6.8959703 15.102263 0.92733502
6.861619 15.075216 -0.92516446
6.8143878 14.971448 0
6.8669543 15.086939 0.92588389
6.8509145 15.100062 -0.9261806
6.8048944 14.998631 0
6.8519378 15.102318 0.92631888
6.848722 15.143837 -0.92835724
6.8007069 15.037666 0
6.8411803 15.127161 0.92733502
6.850709 15.197112 -0.93111503
6.7996445 15.083834 0
6.839983 15.173319 0.92965722
6.8504453 15.245669 -0.93358225
6.7942138 15.120525 0
6.8397484 15.221863 0.93212444
6.8426385 15.277646 -0.93503338
6.7908297 15.161971 0
6.8255992 15.239602 0.93270504
6.846417 15.335728 -0.9380812
6.7894793 15.208189 0
6.8018808 15.235968 0.93197888
6.8416142 15.374849 -0.93996787
6.7806196 15.237779 0
6.7771297 15.229936 0.93110836
6.840941 15.423482 -0.94243509
6.7822518 15.291163 0
6.7629366 15.247615 0.9316889
6.8454161 15.484026 -0.9456284
6.7806077 15.337432 0
6.753963 15.277163 0.93299502
6.8686094 15.58739 -0.95143348
6.775712 15.376571 0
6.7386427 15.292448 0.93343055
6.8748484 15.652776 -0.95491678
6.7623591 15.396659 0
6.7149363 15.288686 0.93270504
6.8767667 15.70867 -0.95781904
6.7552276 15.431036 0
10.904016 24.908157 1.5187478
6.8660941 15.73602 -0.95898014
6.782372 15.544142 0
10.826113 24.811766 1.5120717
6.8543305 15.760987 -0.95999628
0 0 0
10.778508 24.784323 1.5096045
6.8497472 15.80263 -0.96202791
0 0 0
10.703083 24.692427 1.5032183
6.8265257 15.801354 -0.96144736
0 0 0
10.630993 24.607553 1.4972683
6.8135958 15.823915 -0.96231848
0 0 0
11.044144 25.648954 1.5598202
6.8047161 15.85601 -0.96376961
0 0 0
10.999824 25.631241 1.5579336
6.7947483 15.885721 -0.96507573
7.0082512 16.384878 0
10.949429 25.599119 1.5551758
6.7704544 15.88197 -0.96435016
6.9802837 16.374184 0
10.913395 25.60038 1.5544502
6.7553234 15.899706 -0.96493071
7.0083218 16.495176 0
10.877375 25.601593 1.5537246
6.7629647 15.944448 -0.96739793
7.0044541 16.513786 0
10.875094 25.639256 1.5556113
6.7538095 15.976538 -0.96884906
7.0138812 16.591753 0
10.871421 25.716991 1.5595297
6.7476144 16.015814 -0.97073573
7.0059495 16.628986 0
10.841348 25.732502 1.5596746
6.7513962 16.079062 -0.97407407
6.9969354 16.663837 0
10.798179 25.716843 1.5579336
6.7359748 16.096796 -0.97465467
6.9908586 16.705885 0
10.772112 25.741854 1.5586591
6.7315202 16.14089 -0.97683132
6.9746747 16.723928 0
10.734997 25.740458 1.557788
6.7199903 16.168207 -0.97799242
6.9854269 16.806845 0
10.69292 25.727022 1.5561918
6.7034335 16.183519 -0.97842801
5.7292228 13.831567 0
10.658841 25.732719 1.5557563
6.6927962 16.213223 -0.97973412
5.7115135 13.836076 0
10.621794 25.731173 1.5548857
6.6722131 16.218897 -0.9795891
5.6928091 13.838149 0
10.590694 25.743988 1.5548857
6.6506376 16.222134 -0.97929853
0 0 0
11.350048 27.684864 1.6712812
6.6339808 16.237377 -0.97973412
5.6573844 13.847053 0
11.30578 27.672104 1.6696851
6.6192546 16.257412 -0.98045969
5.636723 13.844236 0
11.270374 27.680927 1.6693945
6.6015615 16.270218 -0.9807502
5.6082492 13.822099 0
11.235943 27.69212 1.6692495
6.5838437 16.282995 -0.98104024
5.5827646 13.807153 0
11.202475 27.705675 1.6692495
6.5583391 16.276484 -0.98016965
0 0 0
11.186468 27.762569 1.6718618
6.5483479 16.308504 -0.98162079
5.5455031 13.810944 0
11.13936 27.742313 1.6698301
6.5363598 16.335705 -0.98278189
5.5433145 13.85388 0
11.090386 27.717152 1.6675079
6.5464478 16.418407 -0.98728079
5.5352445 13.882322 0
11.051115 27.716055 1.6666373
6.5553908 16.498755 -0.99163526
5.5184665 13.889001 0
11.009942 27.71007 1.6654762
5.5052948 13.904788 -0.83532798
5.5016804 13.895658 0
10.983149 27.740267 1.6664922
5.4923043 13.921099 -0.83590859
5.4772453 13.882929 0
10.957247 27.772844 1.6676528
5.4688234 13.910794 -0.83489245
5.4604664 13.889537 0
10.976921 27.921488 1.6757807
5.455802 13.92707 -0.835473
0 0 0
10.97066 28.004892 1.6799896
5.4323549 13.916705 -0.83445686
0 0 0
10.94059 28.027802 1.6805695
5.416399 13.900616 -0.83329576
6.9141397 17.74441 0
10.923655 28.034405 1.6805695
5.3640437 13.865206 -0.83039355
6.9341493 17.923681 0
10.839937 28.019526 1.6781024
5.3351369 13.84016 -0.82850689
6.968648 18.077736 0
10.811683 28.047155 1.6789734
5.3146834 13.836894 -0.82792634
6.9421344 18.073997 0
10.772193 28.045641 1.6781024
5.2961011 13.838448 -0.82763577
6.9295945 18.106684 0
10.733655 28.046505 1.6773767
5.2812295 13.849697 -0.82792634
0 0 0
10.692351 28.04003 1.6762156
5.2746401 13.88278 -0.82952243
0 0 0
10.645544 28.018927 1.674184
5.2606225 13.896437 -0.82995796
6.8454862 18.083006 0
10.60892 28.024477 1.6737484
5.2309909 13.86875 -0.82792634
6.8199573 18.081524 0
10.574135 28.034847 1.6736034
5.1913781 13.814254 -0.82429796
6.7981043 18.08975 0
10.53294 28.028145 1.6724423
5.1509948 13.757251 -0.82052463
6.7707644 18.083323 0
10.489045 28.01409 1.6708462
5.1216516 13.729376 -0.81849241
6.7470918 18.08662 0
6.8870573 18.461819 1.1006223
5.1068707 13.740431 -0.81878293
6.7234178 18.089874 0
6.8493562 18.428722 1.0981551
5.0884581 13.741713 -0.81849241
6.6961341 18.083347 0
6.8415208 18.475973 1.1004773
5.0700531 13.74298 -0.81820238
6.6724792 18.086546 0
6.8173943 18.479355 1.1001873
5.0507536 13.741777 -0.81776685
6.6470289 18.084826 0
6.787889 18.468069 1.0990262
5.0332532 13.745433 -0.81762183
6.6260662 18.095285 0
6.7575288 18.454298 1.0977201
5.0264373 13.778358 -0.81921852
6.6122231 18.125278 0
6.7254286 18.435596 1.0961235
5.0159955 13.80151 -0.82023406
6.6160965 18.204185 0
6.6924973 18.414404 1.0943818
5.0108147 13.83932 -0.82212073
6.6073828 18.248865 0
6.6640487 18.405371 1.0933657
5.0037885 13.872254 -0.82371742
6.6074033 18.318037 0
6.6347547 18.393866 1.092205
4.9905376 13.888072 -0.82429796
6.610786 18.39703 0
6.6142802 18.406755 1.0924951
4.9763808 13.901434 -0.8247335
6.6052184 18.451563 0
6.5876565 18.402504 1.0917696
4.9671049 13.901983 -0.82458794
6.6194625 18.526619 0
6.5861521 18.43339 1.0933657
6.6232505 18.608154 0
6.5647478 18.443789 1.0935112
6.65381 18.765757 0
6.5424571 18.451708 1.0935112
6.6614647 18.859663 0
6.5192895 18.457142 1.0933657
6.6559472 18.916798 0
6.48491 18.430695 1.091334
6.6485782 18.96903 0
9.8281975 28.040789 1.6596706
6.6436672 19.028645 0
9.7900267 28.04038 1.6589451
6.6428952 19.100565 0
9.7569914 28.05464 1.65909
6.6351476 19.152845 0
9.7205362 28.05905 1.658655
6.629827 19.212509 0
9.6832352 28.060949 1.6580745
6.6269078 19.279566 0
9.6501656 28.075085 1.6582195
6.6196251 19.334343 0
9.6052942 28.054768 1.6563329
6.6138978 19.394053 0
9.5630026 28.041765 1.6548817
6.6072001 19.451313 0
9.5199194 28.026234 1.653285
6.6062093 19.525837 0
9.4827166 28.02787 1.6527045
6.6008935 19.588057 0
9.45963 28.071316 1.6545911
6.595437 19.650293 0
9.4199162 28.065479 1.6535751
6.5881915 19.707613 0
9.3843517 28.071917 1.653285
6.5915036 19.797041 0
9.3372917 28.043791 1.6509628
6.5765862 19.832157 0
9.3099422 28.074783 1.6521239
6.5746555 19.906815 0
9.2637911 28.049007 1.6499472
6.5692983 19.971596 0
9.2136545 28.010815 1.6470444
6.5646062 20.038876 0
9.1725225 27.999704 1.6457384
6.5589519 20.103691 0
9.1225643 27.961363 1.6428355
6.55235 20.166059 0
9.0839558 27.957542 1.6419649
6.5610347 20.234375 0
9.0470276 27.901234 1.6383367
6.559772 20.314108 0
9.0149031 27.917086 1.6386266
6.5567312 20.388905 0
8.9716187 27.898273 1.6368849
6.5447903 20.436468 0
8.9252224 27.869499 1.6345627
6.5446029 20.521217 0
8.8804893 27.84561 1.632531
6.5355573 20.57872 0
9.2432232 29.104435 1.7056774
6.5303049 20.648632 0
9.2245035 29.167608 1.7087252
6.5248938 20.718563 0
9.2353029 29.324955 1.717288
6.5201006 20.790993 0
9.2216339 29.405516 1.721352
6.5120392 20.853502 0
9.2232714 29.535683 1.7283181
6.5100179 20.935905 0
9.2230663 29.660938 1.7349942
6.506269 21.013367 0
9.2325621 29.818502 1.743557
6.5000415 21.083384 0
9.2164288 29.894194 1.7473303
6.4875445 21.133514 0
9.2115641 30.007151 1.753281
6.4863443 21.220972 0
9.1836557 30.045597 1.7548776
6.4788837 21.288548 0
9.1617165 30.103895 1.7576349
6.4665046 21.433695 0
9.0971966 30.153315 1.7592316
6.4593177 21.503803 0
9.3941345 31.274139 1.8239601
6.4527164 21.576414 0
9.335495 31.215771 1.8198968
6.4489193 21.659019 0
9.2977705 31.22703 1.8198968
6.4449348 21.741657 0
9.249691 31.203358 1.8178645
6.4333897 21.799339 0
9.1987438 31.169657 1.8152523
6.4305205 21.886999 0
9.1552153 31.160805 1.8140912
6.4259863 21.969685 0
9.1204748 31.18182 1.8146718
6.4316673 22.038513 0
9.0943556 31.162384 1.8132206
6.4260888 22.118742 0
9.0414724 31.120953 1.8101728
6.4217706 22.203985 0
9.3193283 32.22261 1.8735952
6.4150972 22.281754 0
0 0 0
6.416131 22.387051 0
9.3423662 32.597218 1.8940587
6.4047823 22.449841 0
7.8851371 27.638733 1.6053915
6.4025354 22.545189 0
7.8467655 27.630741 1.6043754
6.3958163 22.625523 0
7.8084273 27.622705 1.6033598
6.390326 22.710897 0
7.7820821 27.657129 1.604811
6.3860412 22.8013 0
8.9385395 31.914972 1.8512452
6.3773527 22.87668 0
8.9041557 31.940763 1.8521158
6.3677959 22.949566 0
8.8593025 31.928967 1.8508097
6.3629227 23.040024 0
8.8144913 31.917109 1.8495035
6.3592186 23.135519 0
8.8468494 32.185787 1.8644519
6.3518596 23.218489 0
8.8484049 32.344322 1.8730147
6.3463612 23.30901 0
8.7936182 32.297333 1.8696769
6.3352084 23.379457 0
8.7607031 32.330502 1.8709831
6.3293152 23.470013 0
7.6303773 28.294538 1.6368849
6.3292828 23.583208 0
7.6008987 28.321308 1.6379011
6.3195834 23.66123 0
7.5532622 28.280262 1.6349983
6.3097072 23.739273 0
7.4937229 28.193945 1.6294832
6.3016462 23.824869 0
7.4476919 28.157766 1.626871
6.3033247 23.948233 0
7.3058596 27.757166 1.6032143
6.2935047 24.028839 0
7.2499318 27.680513 1.5982798
6.2841554 24.111973 0
7.2014093 27.631428 1.594942
6.2785349 24.210238 0
7.38587 28.480158 1.643416
6.2886739 24.309765 0
7.3790746 28.524864 1.6457384
6.2819996 24.40555 0
7.1833262 27.907202 1.6096004
6.2809138 24.524044 0
7.1534672 27.93096 1.610471
6.2737699 24.619884 0
7.1242051 27.957211 1.611487
6.2625623 24.700592 0
7.0910573 27.968315 1.6116321
6.2568994 24.804028 0
7.0280232 27.86097 1.6049559
6.2516313 24.910017 0
7.0082679 27.924883 1.6081487
6.2410698 24.995819 0
6.9782987 27.948462 1.6090199
6.2372122 25.109419 0
6.893158 27.75009 1.5971187
6.2287178 25.205357 0
6.852767 27.730658 1.5955225
6.2262154 25.32659 0
6.8285584 27.77676 1.5976993
6.2246637 25.452902 0
6.8116574 27.853144 1.6016182
6.2160511 25.551439 0
6.7927365 27.92194 1.605101
6.2041469 25.637339 0
6.780385 28.018522 1.610181
6.204834 25.776379 0
6.7282825 27.950911 1.6058271
6.1882281 25.844601 0
6.6769581 27.88574 1.6016182
6.1853323 25.971041 0
6.6161685 27.780041 1.5950871
0 0 -0
6.1797409 26.087383 0
6.5819988 27.785488 1.594942
6.1738768 26.203749 0
6.5555716 27.823772 1.5966836
6.1647725 26.30747 0
6.5195756 27.821552 1.5961031
6.1524734 26.398539 0
6.4971585 27.877485 1.5988604
6.1505399 26.535246 0
6.499259 28.039724 1.6077137
6.1406856 26.639021 0
6.4782138 28.103258 1.6109065
6.1334968 26.755493 0
6.4529591 28.149048 1.6130832
6.1387901 26.853062 0
6.4475331 28.203604 1.615986
6.1334529 26.979727 0
6.4088421 28.191103 1.6148249
6.12954 27.114035 0
6.3627424 28.145605 1.6117771
6.1184626 27.217903 0
6.3344293 28.178629 1.6132288
6.1150894 27.357338 0
6.2941403 28.158365 1.6116321
6.0989375 27.598188 0
6.1991625 28.051716 1.6046659
6.0851345 27.694506 0
6.1507654 27.993206 1.6008925
6.072772 27.79845 0
6.1119442 27.977762 1.5995859
6.0579576 27.892231 0
6.0792379 27.990211 1.5998765
6.0445724 27.993643 0
6.0541878 28.038174 1.6021987
6.0385985 28.13069 0
6.0235758 28.060707 1.6030693
6.0366473 28.288124 0
5.9988842 28.111164 1.6055365
6.0197444 28.376865 0
5.9778543 28.179398 1.6090199
6.0182056 28.539442 0
5.9448719 28.191681 1.6093098
6.0013356 28.630747 0
5.9161353 28.224279 1.6107615
5.9900932 28.75008 0
5.8703685 28.175447 1.6075687
5.9880676 28.915285 0
5.8173499 28.090919 1.6023437
5.972537 29.016811 0
5.9976506 29.138823 1.6617029
5.9635501 29.151487 0
5.9759769 29.212231 1.6654762
5.9563208 29.296385 0
5.9463687 29.247433 1.6670723
5.9435945 29.415792 0
5.9151416 29.274973 1.6682334
5.9398112 29.581144 0
5.8772068 29.269363 1.6675079
5.9376726 29.756729 0
5.8403101 29.268797 1.6670723
5.9209471 29.860884 0
6.1147299 30.838182 1.7560382
5.9387331 30.045719 0
6.0940843 30.831684 1.7554582
5.9315138 30.200983 0
6.0598297 30.854319 1.7563287
5.9134603 30.302635 0
6.0270224 30.884569 1.7576349
5.9035888 30.447708 0
5.9951415 30.919891 1.7592316
5.8904243 30.577484 0
8.252593 42.839619 2.4368525
5.8852687 30.750715 0
8.1910553 42.798519 2.4339497
5.8738718 30.893305 0
8.143218 42.828808 2.4351108
5.8592401 31.020565 0
8.0996599 42.882019 2.437578
5.8342309 31.094122 0
8.0540686 42.924973 2.4394646
5.8023777 31.131851 0
8.0036249 42.942337 2.4399002
4.8859906 26.392107 0
7.9531512 42.959644 2.4403358
4.8470368 26.359594 0
7.9073458 43.002445 2.4422226
4.8128457 26.352634 0
7.8521118 42.994072 2.4412065
0 0 0
7.7969093 42.985626 2.4401903
0 0 0
7.7435832 42.987354 2.4397552
0 0 0
7.6934662 43.006908 2.4403358
0 0 0
7.6342235 42.975239 2.4380136
0 0 0
4.6439075 26.326574 1.4932044
0 0 0
4.6085072 26.311689 1.4920433
0 0 0
4.5780473 26.324923 1.4924788
0 0 0
4.5391617 26.289465 1.4901567
0 0 0
4.5060754 26.287245 1.4897211
0 0 0
4.4725671 26.282434 1.489141
0 0 0
4.4403725 26.28525 1.4889954
0 0 0
4.4236298 26.282806 1.4887055
0 0 0
4.394865 26.306067 1.4897211
0 0 0
4.3618016 26.303675 1.4892861
0 0 0
4.3342347 26.33456 1.4907372
0 0 0
4.306181 26.362856 1.4920433
0 0 0
4.2768192 26.383434 1.4929144
0 0 0
4.249063 26.414232 1.4943655
0 0 0
4.2163248 26.414221 1.4940755
0 0 0
4.6050963 29.075436 1.6442866
0 0 0
4.5639114 29.04248 1.64211
0 0 0
4.5336194 29.078783 1.6438516
0 0 0
4.4956994 29.066263 1.6428355
0 0 0
4.4684567 29.123041 1.6457384
0 0 0
4.4391274 29.166945 1.647915
0 0 0
4.4116392 29.223675 1.6508178
0 0 0
4.3782482 29.241831 1.6515434
0 0 0
4.398632 29.622343 1.6727328
0 0 0
4.3632145 29.630205 1.6728779
0 0 0
4.3424253 29.738293 1.6786829
0 0 0
4.3117027 29.779526 1.6807151
0 0 0
4.2247138 29.684387 1.6747645
0 0 0
5.7559023 40.796394 2.3012991
0 0 0
5.7048044 40.790455 2.3005736
0 0 0
3.8395092 27.697166 1.5618519
0 0 0
3.8227754 27.69948 1.5618519
0 0 0
3.7907116 27.714376 1.5624324
0 0 0
3.7530332 27.688038 1.5606908
0 0 0
3.7226877 27.715729 1.5619969
0 0 0
3.6871397 27.704756 1.5611264
0 0 0
3.6519632 27.696314 1.5604007
0 0 0
3.6195037 27.708427 1.5608357
0 0 0
3.5906899 27.748863 1.562868
0 0 0
3.5584795 27.763491 1.5634485
0 0 0
3.5291839 27.801279 1.5653353
0 0 0
3.5617046 28.331438 1.594942
0 0 0
3.5332463 28.38213 1.5975542
0 0 0
3.5084853 28.463741 1.6019081
0 0 0
3.4794407 28.511805 1.6043754
0 0 0
3.4608805 28.647545 1.6117771
0 0 0
3.4386044 28.75491 1.6175827
0 0 0
3.4151571 28.854517 1.6229527
0 0 0
3.3914731 28.9541 1.6283221
0 0 0
3.36217 29.007221 1.6310799
0 0 -0
0 0 0
3.3460646 29.17647 1.6403683
0 0 -0
0 0 0
3.3195958 29.257944 1.6447222
0 0 -0
0 0 0
3.2891674 29.30583 1.6471894
0 0 0
3.2528944 29.302032 1.6467539
0 0 0
3.2214568 29.342108 1.6487861
0 0 0
3.2011912 29.320803 1.64748
0 0 0
0 0 0
0 0 0
0 0 0
0 0 0
0 0 0
0 0 -0
2.8313384 27.148739 0
0 0 0
0 0 -0
2.7990665 27.157324 0
0 0 0
2.7657223 27.155502 0
0 0 0
2.7310851 27.140705 0
0 0 0
2.6970007 27.131029 0
0 0 0
2.6637082 27.129093 0
0 0 0
2.6201262 27.020914 0
0 0 0
2.7558897 28.783016 0
0 0 0
0 0 -0
2.7335999 28.918467 0
0 0 0
2.7073591 29.015024 0
0 0 0
0 0 0
0 0 0
0 0 -0
0 0 0
0 0 0
4.6705732 52.09576 0
0 0 0
4.6172509 52.210243 0
4.5987778 52.001354 2.9159331
4.5453434 52.114677 0
4.5429392 52.087112 2.9204321
4.4832616 52.130505 0
4.4802213 52.09515 2.920577
4.4198294 52.130699 0
0 0 0
4.3551025 52.115257 0
0 0 0
2.0074403 24.376894 0
0 0 0
1.9693556 24.272951 0
0 0 0
0 0 -0
1.955108 24.27932 0
0 0 0
1.9218609 24.232378 0
0 0 0
1.8956182 24.273594 0
4.3045859 55.120686 3.0882049
0 0 -0
1.8615 24.2136 0
4.2322044 55.050713 3.0839961
0 0 -0
1.8342044 24.241779 0
4.1648989 55.045425 3.0834155
0 0 -0
0 0 0
4.1032071 55.115196 3.0870438
0 0 -0
0 0 0
0 0 0
0 0 0
4.5385165 63.01897 3.5291154
0 0 -0
4.110425 58.053734 0
0 0 0
0 0 -0
4.0377464 58.022316 0
0 0 0
0 0 -0
3.972605 58.099842 0
0 0 0
0 0 0
0 0 0
0 0 -0
0 0 0
2.7056637 41.79631 2.3394687
0 0 -0
0 0 0
2.6520298 41.750286 2.3367114
0 0 -0
0 0 0
2.5957634 41.660095 2.3314865
0 0 -0
0 0 0
2.5462155 41.676167 2.332212
0 0 -0
0 0 0
2.4967885 41.694782 2.3330832
0 0 -0
0 0 0
0 0 0
0 0 -0
0 0 0
0 0 0
0 0 0
0 0 0
0 0 -0
0 0 0
0 0 0
3.6639171 68.075409 0
0 0 0
3.5811117 68.069397 0
2.3882866 45.396301 2.5391707
0 0 -0
3.4997952 68.091858 0
0 0 0
0 0 -0
0 0 0
0 0 0
0 0 -0
0 0 0
2.2140877 44.655914 2.4973726
0 0 -0
0 0 0
2.1578684 44.611832 2.4947598
0 0 0
1.8885428 40.046452 2.2393279
0 0 -0
0 0 0
1.8445659 40.144745 2.2446978
0 0 -0
0 0 0
1.7988441 40.209232 2.2481806
0 0 0
1.7479984 40.15947 2.2452784
0 0 -0
0 0 0
1.6994722 40.161552 2.2452784
0 0 0
1.6532912 40.220688 2.2484713
0 0 0
1.6031374 40.183708 2.246294
0 0 -0
0 0 0
1.5557873 40.216774 2.2480357
0 0 -0
0 0 0
1.5117654 40.34066 2.2548568
0 0 -0
0 0 0
1.4657513 40.417759 2.2590656
0 0 -0
0 0 0
1.4147288 40.357185 2.2555828
0 0 -0
0 0 0
1.3661397 40.364056 2.255873
0 0 -0
0 0 0
1.3125358 40.217655 2.2476006
0 0 -0
0 0 0
1.2614909 40.141293 2.2432461
0 0 -0
0 0 0
1.2114962 40.093445 2.240489
0 0 -0
0 0 0
1.1602626 39.998783 2.2351189
0 0 -0
0 0 0
1.1101984 39.937824 2.231636
0 0 -0
0 0 0
1.0606972 39.892376 2.2290232
0 0 -0
1.5916921 62.714794 0
1.0119669 39.872849 2.2278621
0 0 -0
0 0 0
0.96359944 39.866257 2.2274272
0 0 -0
1.9712726 85.849991 0
0.91602451 39.893364 2.2288783
0 0 -0
1.9186497 85.817345 0
0.89320034 39.951057 2.2320712
1.3254082 62.671535 0
0.84564084 39.985878 2.2339578
0 0 -0
1.2495252 62.665283 0
0.79799849 40.020641 2.2358444
0 0 -0
1.173172 62.632923 0
0.75003004 40.042358 2.2370055
0 0 -0
1.0987225 62.704544 0
0.70178276 40.051033 2.2374411
0 0 -0
1.022064 62.651184 0
0.65296465 40.025875 2.23599
0 0 -0
0.94478947 62.548294 0
0.60440439 40.013638 2.2352638
0 0 -0
0.87271893 62.801796 0
0.5555138 39.975372 2.2330873
0 0 -0
0.79756087 62.86005 0
0.50641978 39.913658 2.2296038
0 0 -0
0.72208422 62.902607 0
0.45786354 39.885666 2.2280078
0 0 -0
0.64626527 62.92165 0
0.40974915 39.893978 2.2284427
0 0 -0
0 0 0
0.36149773 39.889252 2.2281528
0 0 -0
0 0 0
0.31260526 39.801319 2.2232182
0 0 -0
0 0 0
0.26461649 39.817253 2.2240889
0 0 0
0.21694294 39.898098 2.2285883
0 0 -0
0 0 0
0.1698765 40.168549 2.2436817
0 0 0
0.12178794 40.316833 2.2519546
0 0 0
0.073082238 40.322144 2.2522445
0 0 -0
0 0 0
0.023750115 39.311455 2.1957881
-0 0 0
-0.023770522 39.345234 2.197675
-0 0 -0
-0 0 0
-0.071320958 39.35038 2.1979654
-0 0 -0
-0 0 0
-0.11894663 39.376244 2.1994166
-0 0 -0
-0 0 0
-0.1666569 39.407249 2.2011583
-0 0 0
-0.21479549 39.503159 2.2065282
-0 0 0
-0.2390224 39.562778 2.209866
-0 0 -0
-0 0 0
-0.28780562 39.697567 2.2174127
-0 0 0
-0.38328615 39.64999 2.2148006
-0 0 0
-0.4307996 39.613129 2.2127688
-0 0 -0
-0 0 0
-0.47800469 39.558018 2.2097211
-0 0 0
-0.53768218 40.451149 2.2596462
-0 0 0
-0.58689815 40.47385 2.2609522
-0 0 0
-0.6359657 40.483505 2.2615328
-0 0 0
-0.68373895 40.415161 2.2577596
-0 0 -0
-0 0 0
-0.73341984 40.461063 2.2603717
-0 0 0
-0.78286117 40.488728 2.2619684
-0 0 0
-0.83135635 40.466969 2.2608073
-0 0 0
-0.88087386 40.494514 2.262404
-0 0 -0
-0 0 0
-0.93004149 40.503811 2.2629845
-0 0 -0
-0 0 0
-0.97697258 40.419533 2.2583401
-0 0 -0
-0 0 0
-1.0254155 40.40274 2.2574697
-0 0 -0
-0 0 0
-1.0760292 40.469006 2.2612429
-0 0 -0
-0 0 0
-1.1252882 40.480659 2.2619684
-0 0 0
-1.1751045 40.510437 2.26371
-0 0 -0
-0 0 0
-1.2217767 40.43367 2.2595012
-0 0 -0
-0 0 0
-1.258716 40.052994 2.2383118
-0 0 -0
-0 0 0
-1.3017719 39.887836 2.2291684
-0 0 -0
-0 0 0
-1.3477706 39.821323 2.2255406
-0 0 0
-1.4282011 40.741501 2.2770624
-0 0 -0
-0 0 0
-1.4008708 38.628696 2.1590698
-0 0 0
-1.4222938 38.575916 2.1561675
-0 0 -0
-0 0 0
-1.4726614 38.672836 2.1616826
-0 0 0
-1.5214287 38.722946 2.1645846
-0 0 -0
-0 0 0
-1.5720022 38.814548 2.1698098
-0 0 -0
-0 0 0
-1.619009 38.815216 2.1699548
-0 0 -0
-0 0 0
-1.6659085 38.813229 2.1699548
-0 0 0
-1.7124617 38.803398 2.1695192
-0 0 0
-1.7585232 38.783138 2.1685038
-0 0 0
-1.8024837 38.718689 2.1650202
-0 0 0
-1.8491424 38.71389 2.1648753
-0 0 -0
-0 0 0
-0 0 0
-0 0 0
-2.0742328 41.330307 2.3114586
-0 0 -0
-0 0 0
-2.1216366 41.278465 2.3087008
-0 0 -0
-0 0 0
-2.1682355 41.213593 2.3052175
-0 0 0
-2.2181726 41.213547 2.3053632
-0 0 -0
-0 0 0
-2.2574036 41.018845 2.2946231
-4.6672616 82.980354 0
-2.3024423 40.935673 2.2901242
-4.7599101 82.842155 0
-2.3510087 40.91729 2.289253
-0 0 0
-2.4004476 40.914417 2.289253
-0 0 0
-2.4481747 40.882965 2.2876568
-0 0 0
-2.4942446 40.825512 2.2846091
-0 0 0
-2.5369473 40.716141 2.2786586
-3.0917437 48.672604 0
-2.589273 40.762321 2.2814164
-3.1429882 48.551975 0
-2.6413777 40.803242 2.2838836
-0 0 -0
-3.2023361 48.558521 0
-2.1469553 32.555286 1.822364
-3.226315 48.476086 0
-2.1683483 32.579906 1.8238151
-3.2862942 48.492924 0
-2.2052538 32.540974 1.8217834
-3.346319 48.509689 0
-2.2418892 32.499397 1.8196062
-3.4076641 48.544544 0
-2.2795193 32.473339 1.8183001
-3.4655774 48.530018 0
-2.3183849 32.465374 1.8180095
-3.5283606 48.582893 0
-2.3564823 32.447002 1.8171389
-0 0 -0
-3.2380884 43.852551 0
-2.3916683 32.389713 1.8140912
-0 0 -0
-3.2900994 43.835632 0
-2.4311924 32.391987 1.8143817
-0 0 -0
-3.7337365 48.953819 0
-2.3503859 30.816414 1.7262864
-3.7327724 48.173489 0
-2.3860137 30.792826 1.7251253
-3.7864861 48.11187 0
-2.4207728 30.758835 1.7233837
-3.8529093 48.211018 0
-2.4537978 30.704092 1.7204814
-3.660306 45.114468 0
-2.4803898 30.571613 1.7132246
-3.4281883 41.629421 0
-2.4989877 30.345886 1.700743
-3.4763193 41.599312 0
-2.5241854 30.205618 1.6930512
-3.569257 41.502632 0
-2.5891578 30.10623 1.6878263
-3.6248293 41.560513 0
-2.623276 30.077198 1.6863751
-3.5785317 40.464771 0
-2.6591585 30.068825 1.6860846
-3.6334646 40.527809 0
-2.6978095 30.091475 1.6875362
-3.680783 40.505245 0
-2.7339323 30.085608 1.6873913
-3.7290068 40.492989 0
-2.7702827 30.082283 1.6873913
-3.7786574 40.496231 0
-2.8080773 30.094431 1.6882619
-3.8278313 40.494225 0
-3.1033881 32.830414 1.8419563
-3.8946881 40.937504 0
-3.1259294 32.856991 1.8435529
-3.9488924 40.981979 0
-3.1638834 32.835083 1.8425368
-3.9981556 40.97459 0
-3.2035561 32.831238 1.8425368
-4.0371718 40.863544 0
-3.2432237 32.827343 1.8425368
-4.055985 40.553093 0
-2.9803436 29.79847 1.6727328
-4.0968561 40.467892 0
-3.0129447 29.76124 1.6708462
-4.1412416 40.418903 0
-3.0462542 29.731724 1.6693945
-4.3559322 42.013565 0
-3.0808375 29.715101 1.668669
-4.3982768 41.928032 0
-3.1137578 29.682928 1.6670723
-0 0 -0
-4.2745476 40.279411 0
-3.1471539 29.65589 1.6657661
-4.3165479 40.212116 0
-3.18659 29.68565 1.6676528
-4.3665371 40.219803 0
-3.2202144 29.661121 1.6664922
-4.4139957 40.204151 0
-3.2376194 29.489321 1.6570584
-4.4640079 40.211727 0
-3.2643623 29.405334 1.6525594
-4.5143337 40.221817 0
-3.2978616 29.383291 1.6515434
-4.5602903 40.193062 0
-3.3280907 29.332815 1.6489311
-4.6153755 40.2444 0
-3.3543541 29.248753 1.6444322
-4.6792803 40.370632 0
-3.3887954 29.236933 1.6439966
-4.7301769 40.383045 0
-3.4295609 29.279266 1.6466088
-4.783556 40.416058 0
-3.4686015 29.306067 1.6483506
-4.8360953 40.441257 0
-3.4996908 29.265738 1.6463189
-4.9005632 40.564568 0
-3.5331798 29.246004 1.6454477
-4.9587164 40.63353 0
-3.5659971 29.221079 1.6442866
-0 0 -0
-5.0122671 40.663666 0
-3.6022563 29.224489 1.6447222
-0 0 -0
-5.0678277 40.709229 0
-3.6343565 29.194334 1.6432711
-0 0 -0
-5.1202583 40.728893 0
-3.6631472 29.138359 1.6403683
-5.1399722 40.687069 0
-3.6735864 29.07943 1.6371756
-5.1937404 40.716969 0
-3.7047751 29.044039 1.6354338
-5.252243 40.782936 0
-3.7435176 29.067892 1.6370305
-7.7887239 59.906879 0
-3.7819872 29.089111 1.6384816
-7.861104 59.897427 0
-3.8174708 29.087093 1.6386266
-7.9307384 59.867245 0
-3.8532972 29.087616 1.6389172
-8.0051403 59.8731 0
-3.8870637 29.072638 1.6383367
-4.1441646 30.713011 0
-3.9246206 29.085938 1.6393522
-4.1774111 30.679623 0
-3.9646711 29.117226 1.6413844
-4.2134151 30.666815 0
-4.0030336 29.13558 1.6426905
-4.2476082 30.641079 0
-4.0471549 29.195065 1.6463189
-4.2824669 30.620464 0
-4.0809889 29.179859 1.6457384
-4.3194623 30.615269 0
-4.0944643 29.020538 1.6370305
-4.356452 30.610027 0
-4.1170783 28.928099 1.6320955
-4.3919559 30.594437 0
-4.1490769 28.902536 1.630935
-4.4270544 30.576221 0
-4.1821342 28.884636 1.6302088
-4.4564772 30.519356 0
-4.218534 28.889847 1.6307894
-4.4906964 30.495924 0
-4.2507901 28.866741 1.6297739
-4.5321283 30.521366 0
-4.285284 28.859007 1.6296283
-4.5693893 30.518438 0
-4.3255386 28.88979 1.6316605
-4.9372253 32.705276 0
-4.3681993 28.935919 1.6345627
-4.9783063 32.709576 0
-4.4082432 28.964022 1.6364499
-4.6705132 30.439938 0
-4.4526939 29.020306 1.6399328
-4.7029157 30.405989 0
-4.4889479 29.022612 1.6403683
-4.7412558 30.410568 0
-4.5184093 28.981226 1.6383367
-4.5362735 28.980764 0
-4.5234604 28.898907 1.6338371
-4.5672312 28.949549 0
-4.5490632 28.834393 1.6304994
-5.2985516 33.323425 0
-4.5977736 28.916121 1.6354338
-5.3219299 33.211643 0
-4.6631312 29.100393 1.6461734
-5.3582888 32.928989 0
-4.7509694 29.196753 1.6522689
-5.405652 32.968716 0
-4.795073 29.244835 1.6553167
-5.4467573 32.969864 0
-4.8316774 29.246714 1.6557522
-0 0 -0
-5.4951353 33.014595 0
-4.8648801 29.228041 1.6550267
-5.5345926 33.005367 0
-4.8984737 29.211891 1.6544461
-5.5870404 33.073071 0
-4.9363632 29.221319 1.6553167
-5.6112809 32.973934 0
-4.972105 29.217901 1.6554623
-5.6458449 32.936356 0
-5.0104775 29.229794 1.6564778
-5.6882939 32.944893 0
-5.0594978 29.303097 1.6609772
-5.7414732 33.014912 0
-5.0877781 29.256002 1.658655
-5.7889934 33.051525 0
-5.1007109 29.121864 1.6513983
-5.8248572 33.021442 0
-5.1336384 29.102886 1.6506728
-5.8656626 33.019501 0
-5.1615281 29.055729 1.6483506
-5.900516 32.984219 0
-5.1952596 29.041794 1.647915
-5.9394431 32.971935 0
-5.2349544 29.061073 1.6493666
-5.9825306 32.982662 0
-5.2774835 29.095625 1.6516883
-6.0251837 32.990765 0
-5.3238401 29.150576 1.6551716
-6.0575132 32.942516 0
-5.3595285 29.146673 1.6553167
-6.0963011 33.041214 0
-5.3799663 29.158768 1.6561878
-6.1404977 33.05685 0
-5.4218383 29.188007 1.6582195
-6.1718259 33.003365 0
-5.4695201 29.247839 1.6619928
-6.2059216 32.965191 0
-5.5428329 29.442934 1.6734585
-6.2438111 32.947441 0
-5.6059799 29.581724 1.6817306
-6.2806921 32.924541 0
-5.6485372 29.610668 1.6837629
-6.3209605 32.919479 0
-5.6911707 29.639542 1.6857946
-6.3656702 32.937366 0
-5.7274728 29.635193 1.6859396
-6.4039745 32.921993 0
-5.7647657 29.635904 1.6863751
-5.7867703 29.558426 0
-5.8025675 29.639118 1.6869557
-5.8239913 29.559076 0
-5.8428969 29.655027 1.6882619
-5.8581843 29.544355 0
-5.8898425 29.704016 1.6914546
-6.6913452 33.533768 0
-5.9262376 29.699423 1.6915996
-5.1021652 25.409542 0
-5.9641652 29.702431 1.6921802
-5.1287408 25.38295 0
-6.009829 29.743597 1.6949379
-5.1562972 25.361439 0
-6.0587063 29.799971 1.6985663
-5.1874585 25.357737 0
-6.1025195 29.830807 1.700743
-5.2180948 25.35145 0
-6.1411805 29.836143 1.7014691
-5.2550564 25.375708 0
-5.2662077 25.429556 1.4505359
-5.2835908 25.359148 0
-5.2937493 25.407906 1.4496648
-0 0 -0
-6.949512 33.15424 0
-5.3255134 25.406582 1.4499553
-0 0 -0
-6.9654055 33.031239 0
-5.3588886 25.41284 1.4506809
-0 0 -0
-6.9469872 32.747856 0
-5.3890524 25.403807 1.4505359
-0 0 -0
-6.9626555 32.62746 0
-5.4213696 25.404892 1.4509709
-0 0 -0
-6.9911499 32.568134 0
-5.4498806 25.388161 1.4503903
-1.9597943 9.1028595 -0.52010125
-7.9496236 36.924438 0
-6.385057 29.657335 1.6945024
-1.8869488 8.7133236 -0.99370986
-1.9581442 9.0420818 -0.51676345
-7.9969873 36.927521 0
-6.4126396 29.611511 1.6923257
-1.881512 8.6377506 -0.98534971
-1.9557954 8.978775 -0.51328009
-7.2927694 33.480053 0
-6.4312701 29.525032 1.6878263
-1.8775567 8.5697851 -0.97785461
-1.9594142 8.9434099 -0.51139343
-7.3371153 33.489006 0
-6.4569316 29.471556 1.685214
-1.8700991 8.4866819 -0.9686293
-1.9500891 8.8496838 -0.50616843
-6.4188309 29.129246 0
-6.4936571 29.468813 1.6855046
-1.8663616 8.4212885 -0.96142226
-1.9332339 8.7230253 -0.49905726
-6.448956 29.098604 0
-6.5270104 29.450798 1.684924
-1.865846 8.371068 -0.95594555
-1.903073 8.538085 -0.48860779
-6.4835453 29.088253 0
-6.5671115 29.463169 1.6860846
-1.8606859 8.3006706 -0.94816244
-1.917935 8.5560637 -0.48976889
-6.5152736 29.065165 0
-6.6078243 29.478041 1.6873913
-1.8581996 8.2429018 -0.94181949
-1.9185582 8.5106506 -0.48730168
-6.545238 29.034424 0
-6.6491508 29.495378 1.6888424
-1.8498614 8.1599417 -0.93259519
-1.9156264 8.450038 -0.48396331
-6.5780144 29.016342 0
-6.4481082 28.443312 1.6290482
-1.8459222 8.0971775 -0.92567623
-1.9102429 8.3793211 -0.48004499
-6.6148038 29.015978 0
-6.4899793 28.468431 1.630935
-1.8435686 8.0420008 -0.91962236
-1.8994642 8.2858286 -0.47481996
-6.6597443 29.051085 0
-6.7693777 29.529327 1.6921802
-1.837019 7.9692059 -0.91155124
-1.8937172 8.215169 -0.47090161
-6.7193933 29.149525 0
-6.8038869 29.516068 1.6918901
-1.8373024 7.9266653 -0.90693855
-1.8784143 8.1040344 -0.46466103
-6.8321753 29.476023 0
-6.8430657 29.523008 1.6927607
-1.8257442 7.8337564 -0.89656007
-1.8693317 8.0207787 -0.46001658
-6.9215388 29.698383 0
-6.8899403 29.562801 1.6955185
-1.8216374 7.773632 -0.88993019
-1.867165 7.967916 -0.45711377
-6.9823561 29.796417 0
-6.9303989 29.574694 1.6966796
-1.8150131 7.7034488 -0.882146
-1.8702381 7.93784 -0.45551765
-7.0195465 29.793018 0
-6.9685125 29.576416 1.6972601
-1.818359 7.6760869 -0.87926364
-1.8732388 7.9077587 -0.45392099
-7.05794 29.794645 0
-7.0084357 29.585667 1.6982757
-1.8126522 7.6109838 -0.8720566
-1.8647331 7.8296618 -0.44956708
-7.0969524 29.798761 0
-7.0604343 29.645428 1.7021947
-1.8049856 7.5383668 -0.86398548
-1.8542258 7.7440138 -0.44477761
-7.1232572 29.749668 0
-7.0859642 29.593918 1.6997274
-1.7939963 7.4133148 -0.85014749
-1.8411558 7.6081915 -0.43723091
-7.1008654 29.342842 0
-7.0847344 29.276184 1.6824567
-1.7858359 7.3407822 -0.84207636
-1.838063 7.5554647 -0.43432814
-7.1184754 29.260908 0
-7.0752664 29.083294 1.6718618
-1.7848735 7.29842 -0.83746374
-1.8329953 7.4951921 -0.43099034
-7.1457901 29.219425 0
-7.0857139 28.97377 1.6660568
-1.7764018 7.2259307 -0.82939154
-1.8333671 7.4576502 -0.42895868
-7.1618323 29.132431 0
-7.1002474 28.88192 1.6612673
-1.7671505 7.1696115 -0.82304966
-1.8304101 7.4262657 -0.42721701
-7.1862831 29.155897 0
-7.0940661 28.781759 1.6557522
-1.7540435 7.0796084 -0.81296027
-1.8306322 7.3887334 -0.42518476
-7.2459145 29.245705 0
-7.1294627 28.775686 1.6558973
-1.745095 7.0072088 -0.80488807
-1.829514 7.3461828 -0.4228631
-7.3214955 29.39854 0
-7.1636 28.76453 1.6557522
-1.7447686 6.9699731 -0.80085254
-1.8308172 7.3137188 -0.42112142
-7.3791299 29.478027 0
-7.1983509 28.755854 1.6557522
-1.7512952 6.9603324 -0.79998738
-1.8320446 7.2812624 -0.41937974
-7.4268088 29.517044 0
-7.2343607 28.75218 1.6560428
-0 0 -0
-1.8319234 7.2437801 -0.41734806
-7.4650216 29.518141 0
-7.2843843 28.803867 1.6595256
-1.7712958 6.9686112 -0.80142856
-1.8329933 7.2113409 -0.41560641
-7.5102978 29.546926 0
-7.3678298 28.986431 1.6705556
-1.7841967 6.9840102 -0.80344689
-1.8320574 7.1713543 -0.41342917
-7.5466399 29.540359 0
-7.5025353 29.367718 1.6930512
-1.7926342 6.9818492 -0.80344689
-1.8252146 7.1087418 -0.40994638
-2.1149335 8.2371216 0
-7.547061 29.393862 1.6950829
-1.8030086 6.9871941 -0.80431205
-1.8292575 7.0889163 -0.40893027
-2.1144831 8.1942511 0
-7.5786777 29.369629 1.6942124
-1.81015 6.9799981 -0.8037349
-1.8241242 7.0338831 -0.40588248
-2.1243827 8.1916895 0
-7.6154628 29.365477 1.6945024
-1.8257587 7.0053396 -0.8069064
-1.8241034 6.9989886 -0.40399578
-2.1257474 8.1563807 0
-7.6470094 29.341171 1.6936319
-1.8257033 6.9706039 -0.80315888
-1.831241 6.9917469 -0.40370524
-2.1237309 8.1084843 0
-7.6864057 29.346987 1.6945024
-1.8367579 6.9783978 -0.80431205
-1.833075 6.9644055 -0.40225413
-2.1202807 8.0555868 0
-7.723845 29.345219 1.6949379
-1.8266701 6.9061599 -0.79623985
-0 0 -0
-2.1147063 7.9951491 0
-7.761291 29.343403 1.6953735
-1.7851855 6.7164774 -0.77461874
-1.8485663 6.9549375 -0.40196413
-2.1236975 7.9900751 0
-7.6058531 28.615818 1.6538656
-1.7258937 6.4619398 -0.74550259
-1.8489225 6.9225736 -0.40022245
-0 0 0
-7.6417642 28.611622 1.6541556
-1.7142584 6.3874078 -0.73714238
-1.8465091 6.8801804 -0.39790022
-2.0951061 7.8064647 0
-7.6796994 28.614923 1.6548817
-1.7112024 6.3453851 -0.73253083
-1.8358772 6.8076968 -0.39383632
-0 0 0
-7.7325349 28.673353 1.6588
-1.7127807 6.320847 -0.72993648
-1.8345884 6.7703667 -0.39180464
-0 0 0
-7.7692151 28.671516 1.6592356
-1.7176991 6.3087902 -0.72878331
-1.8373067 6.7480874 -0.39064354
-2.056392 7.5527468 0
-7.7997561 28.64706 1.6583644
-1.7184944 6.2817574 -0.72589982
-1.8434014 6.7383409 -0.39020798
-2.0675774 7.5577898 0
-7.8254519 28.605034 1.6564778
-1.7247137 6.274693 -0.7253238
-1.8432804 6.7060518 -0.38846684
-2.0649827 7.5126281 0
-7.857255 28.585535 1.6558973
-1.7161365 6.2287612 -0.72013396
-1.8280059 6.6347942 -0.38440293
-2.0508559 7.4436336 0
-7.876595 28.588301 1.6563329
-1.720904 6.2167215 -0.71898192
-1.812453 6.5474401 -0.37946847
-0 0 0
-7.9319282 28.653887 1.6606867
-1.7249472 6.2021708 -0.71753961
-1.8029573 6.4826617 -0.37584013
-0 0 0
-7.9755955 28.676823 1.6625733
-1.7296557 6.1901178 -0.71638644
-1.8058934 6.4629583 -0.37482402
-0 0 0
-8.0137358 28.679676 1.663299
-1.7336394 6.1755748 -0.71494526
-1.8080829 6.4407573 -0.37366289
-0 0 0
-8.0413618 28.64496 1.6618478
-1.7389959 6.1660142 -0.71408123
-1.815864 6.4385681 -0.37366289
-2.0781291 7.3684897 0
-6.7803526 24.041317 1.3952401
-1.7408044 6.1440005 -0.71177489
-1.8201014 6.4238715 -0.37293735
-2.0948355 7.3935194 0
-6.7753992 23.913115 1.388274
-1.7475169 6.1393976 -0.71148574
-1.820039 6.3941836 -0.37134123
-2.1066175 7.4009948 0
-6.7665896 23.772467 1.3805823
-1.753513 6.1323128 -0.71090972
-1.8284775 6.3944759 -0.37148622
-2.1334455 7.4609971 0
-6.7467337 23.594397 1.3707134
-1.758065 6.1202459 -0.70975655
-1.833333 6.3822718 -0.37090567
-2.1209047 7.383378 0
-6.7214346 23.398926 1.3598284
-1.7640233 6.113142 -0.7091794
-1.8223139 6.3151455 -0.36713234
-0 0 0
-6.7388959 23.353336 1.3576511
-1.7721307 6.1134977 -0.70946854
-1.8219846 6.2854838 -0.36553565
-0 0 0
-6.7360029 23.237867 1.3514105
-1.7809612 6.1163139 -0.71004456
-1.8266723 6.2732983 -0.3649551
-0 0 0
-6.7226725 23.087519 1.3431382
-0 0 -0
-1.8378977 6.2835541 -0.36568063
-0 0 0
-6.7213855 22.97962 1.3373327
-0 0 -0
-1.8462234 6.2838292 -0.36582622
-2.0503006 6.9784288 0
-6.7117929 22.844341 1.329931
-0 0 -0
-0 0 -0
-2.0462062 6.933506 0
-6.7033525 22.7141 1.3228194
-0 0 -0
-0 0 -0
-0 0 0
-6.707902 22.628761 1.3183204
-0 0 -0
-0 0 -0
-2.0317681 6.8237953 0
-6.7018719 22.508574 1.3117893
-0 0 -0
-0 0 -0
-2.0265882 6.7764497 0
-6.7022643 22.410847 1.3065648
-0 0 -0
-1.875183 6.2426972 -0.36408454
-2.0452578 6.8088956 0
-6.7016807 22.310656 1.3011948
-0 0 -0
-1.8782201 6.2254958 -0.36321342
-2.0256712 6.7142334 0
-6.7136264 22.252798 1.2982925
-0 0 -0
-1.8880024 6.2306848 -0.36364898
-2.0284989 6.6943436 0
-6.670434 22.013411 1.2847953
-0 0 -0
-1.8909918 6.2134881 -0.36277843
-2.0168869 6.6271591 0
-6.6561761 21.871101 1.276958
-0 0 -0
-1.9060922 6.2360439 -0.36422953
-2.027936 6.6346726 0
-6.6522164 21.763645 1.2711524
-0 0 -0
-1.9151874 6.252285 -0.36524564
-2.0266075 6.616025 0
-6.6440573 21.690065 1.2670891
-0 0 -0
-1.9189211 6.2375507 -0.3645201
-2.0292459 6.5961666 0
-6.6603289 21.649736 1.2652024
-0 0 -0
-1.9264566 6.2352276 -0.3645201
-2.0326035 6.5787859 0
-6.6358595 21.477823 1.2556235
-0 0 -0
-1.9285982 6.2155209 -0.36350396
-2.0382397 6.5688753 0
-6.6286969 21.363083 1.2493829
-0 0 -0
-1.9353347 6.2107077 -0.36335897
-2.0392048 6.5440388 0
-6.6181741 21.238466 1.2425618
-0 0 -0
-1.9405088 6.2009225 -0.36292341
-2.0408957 6.5217099 0
-6.6329656 21.195732 1.2405295
-0 0 -0
-1.9495566 6.2035265 -0.36321342
-2.0511129 6.52668 0
-6.6126103 21.041452 1.2319667
-0 0 -0
-1.9562696 6.1986904 -0.3630684
-2.051949 6.501863 0
-6.6004958 20.914515 1.2250006
-0 0 -0
-1.9488449 6.1492658 -0.36031118
-2.0550878 6.484498 0
-6.6108484 20.859467 1.2222433
-0 0 -0
-1.9570609 6.1493802 -0.3604562
-2.0550275 6.4572062 0
-6.6045275 20.75242 1.2164378
-0 0 -0
-0 0 -0
-2.0628283 6.4547181 0
-6.6003313 20.652847 1.2110678
-0 0 -0
-0 0 -0
-2.0666506 6.4398332 0
-6.5879655 20.52858 1.2042466
-0 0 -0
-1.9875585 6.1423192 -0.36060119
-2.085412 6.4447246 0
-6.5847621 20.349445 1.1946683
-1.9621464 6.0388656 -0.70773822
-1.9949788 6.1399136 -0.36060119
-2.0915909 6.4372544 0
-6.5724106 20.2278 1.1879921
-1.9678388 6.0315771 -0.7071622
-2.001591 6.1350303 -0.3604562
-2.096945 6.4272976 0
-6.5557461 20.093866 1.1805904
-0 0 -0
-1.9751253 6.0291953 -0.7071622
-2.01143 6.1400175 -0.36089173
-2.0974185 6.402503 0
-6.5654583 20.041477 1.1779777
-0 0 -0
-1.9807911 6.0218854 -0.70658505
-2.0147858 6.1252341 -0.36016563
-2.1108432 6.4172626 0
-6.5693727 19.971823 1.1743493
-0 0 -0
-1.9896898 6.0244045 -0.7071622
-2.0221853 6.1227951 -0.36016563
-2.1112509 6.3924685 0
-6.5486827 19.828173 1.1663671
-1.9977809 6.0244484 -0.70745021
-2.028765 6.1178832 -0.36002064
-2.118155 6.387445 0
-6.5505562 19.75366 1.1624486
-2.0026069 6.0146656 -0.70658505
-2.0345156 6.1105013 -0.35973063
-2.1209402 6.3700705 0
-6.5448718 19.656986 1.1572242
-2.0098729 6.0122414 -0.70658505
-2.0418975 6.1080384 -0.35973063
-0 0 0
-6.5430789 19.572666 1.1527247
-2.0179615 6.0122676 -0.70687419
-2.0517545 6.1129498 -0.36016563
-0 0 0
-6.5468836 19.505632 1.1492419
-2.0260499 6.0122738 -0.7071622
-2.0574813 6.105546 -0.35987562
-0 0 0
-6.5173407 19.340115 1.139953
-2.033313 6.0098214 -0.7071622
-2.0665212 6.1079736 -0.36016563
-0 0 0
-6.5223856 19.27808 1.1367602
-2.0369434 6.0085917 -0.7071622
-2.0693774 6.1042657 -0.36002064
-0 0 0
-6.507338 19.195396 1.1321163
-2.0467031 6.013474 -0.70802736
-2.0775881 6.1042185 -0.36016563
-0 0 0
-6.4978747 19.091583 1.1264558
-2.0548034 6.013442 -0.70831537
-2.0866444 6.106626 -0.3604562
-0 0 0
-6.5016165 19.02717 1.1231179
-2.0620677 6.0109549 -0.70831537
-2.0881186 6.0868926 -0.35944006
-0 0 0
-6.5085812 18.972599 1.1203601
-2.0659604 5.9986768 -0.7071622
-2.0971658 6.0892835 -0.35973063
-0 0 0
-6.4934292 18.854176 1.1138296
-2.0723627 5.9937339 -0.70687419
-2.104522 6.0867453 -0.35973063
-0 0 0
-6.4907346 18.772646 1.1094757
-2.078753 5.9887748 -0.70658505
-2.1110206 6.0817361 -0.35958508
-0 0 0
-6.4844437 18.681332 1.1045412
-2.0885417 5.9935884 -0.70745021
-0 0 -0
-0 0 0
-6.4899111 18.624409 1.1016384
-2.0923662 5.9812946 -0.70629704
-0 0 -0
-0 0 0
-6.4892468 18.550337 1.0977201
-2.1030197 5.9885235 -0.70745021
-0 0 -0
-0 0 0
-6.4884095 18.476286 1.0938011
-2.109395 5.983541 -0.7071622
-2.1395271 6.0690136 -0.35944006
-0 0 0
-6.4891324 18.407169 1.0901729
-2.1157615 5.9785523 -0.70687419
-2.141659 6.0517311 -0.3585695
-0 0 0
-6.4714942 18.286638 1.0834967
-2.1273122 5.9881754 -0.70831537
-2.1463594 6.041791 -0.35813394
-0 0 0
-6.4779296 18.234737 1.0808845
-2.132807 5.9807234 -0.70773822
-2.1632597 6.0661178 -0.35973063
-0 0 0
-6.4798861 18.17061 1.0775467
-2.1356742 5.9659686 -0.70629704
-2.1644568 6.0463724 -0.35871452
-0 0 0
-6.4571757 18.038008 1.070145
-2.1446323 5.9682565 -0.70687419
-2.1805465 6.0682015 -0.36016563
-2.2862687 6.3624139 0
-6.4710588 18.008186 1.0688388
-2.152719 5.9680915 -0.7071622
-2.1949306 6.0851169 -0.36132675
-0 0 0
-6.45402 17.892805 1.0624528
-2.159049 5.9630561 -0.70687419
-2.2013979 6.0800195 -0.36118174
-2.2963233 6.3421926 0
-6.4499822 17.814142 1.0582439
-2.1680179 5.9653001 -0.70745021
-2.2087429 6.0773549 -0.36118174
-2.3093169 6.3540845 0
-6.4493136 17.745283 1.0546155
-2.1752241 5.962676 -0.70745021
-2.2178671 6.0795684 -0.36147231
-2.3339367 6.3977356 0
-6.4431472 17.661812 1.0501165
-2.1859848 5.9697585 -0.70860338
-2.2198491 6.0622392 -0.36060119
-2.3461423 6.4071369 0
-6.4358921 17.575933 1.0454721
-2.1905186 5.9598274 -0.70773822
-2.2208967 6.0424781 -0.35958508
-0 0 0
-6.4383001 17.516928 1.0424243
-2.2004049 5.9644585 -0.70860338
-2.2335942 6.0544219 -0.3604562
-2.3508098 6.3721485 0
-6.4279861 17.423819 1.0373448
-2.2049148 5.9545164 -0.70773822
-2.2391016 6.0468402 -0.36016563
-2.3304913 6.293644 0
-6.4400134 17.391676 1.0358938
-2.213912 5.9567013 -0.70831537
-2.2473145 6.0465732 -0.36031118
-2.3662019 6.3664489 0
-6.4284339 17.296198 1.0306687
-2.2175105 5.9553628 -0.70831537
-2.2554998 6.0573874 -0.36103675
-2.3818526 6.3967218 0
-6.4171243 17.233877 1.0271859
-2.2237999 5.9502587 -0.70802736
-2.2500837 6.020586 -0.35900506
-2.3604252 6.3158293 0
-6.4061041 17.140919 1.0221059
-2.2318957 5.9499865 -0.70831537
-2.2518792 6.0032606 -0.35813394
-2.3899918 6.3714533 0
-6.4076467 17.082077 1.0190581
-2.2445498 5.9618044 -0.71004456
-2.2728655 6.037015 -0.36031118
-2.3931048 6.3563852 0
-6.420958 17.054867 1.017897
-2.253582 5.9639316 -0.71062171
-2.2783196 6.029398 -0.36002064
-2.4017024 6.3559213 0
-6.4029899 16.945021 1.011802
-2.2598667 5.9587789 -0.71033257
-2.2699401 5.9853401 -0.35755339
-2.4112246 6.3578768 0
-6.4114785 16.90568 1.0099148
-2.2689071 5.9608831 -0.71090972
-2.2827184 5.9971685 -0.35842451
-2.4142771 6.3427997 0
-6.401402 16.817793 1.0051259
-2.2751858 5.9557233 -0.71062171
-2.302017 6.025959 -0.36031118
-2.4433012 6.3957963 0
-6.3994632 16.751789 1.0016425
-2.2833056 5.9553828 -0.71090972
-2.2953424 5.9867773 -0.35813394
-2.4333246 6.3466668 0
-6.4029574 16.700377 0.99903029
-2.289572 5.9502077 -0.71062171
-2.2904444 5.9524755 -0.35624728
-2.4344521 6.3267269 0
-6.4054012 16.646547 0.9962725
-2.2986217 5.9522581 -0.71119773
-2.3201013 6.0078793 -0.35973063
-2.4533417 6.3529043 0
-6.3927503 16.553965 0.991193
-2.3048782 5.9470668 -0.71090972
-2.3339293 6.0220242 -0.36074618
-2.4328039 6.2771411 0
-6.3883352 16.483238 0.98741966
-2.313936 5.9490938 -0.71148574
-2.325192 5.9780331 -0.35827896
-2.4658597 6.3396873 0
-6.3828144 16.410118 0.98350078
-2.3211226 5.9462938 -0.71148574
-2.3399723 5.9945836 -0.35944006
-2.4659474 6.3173084 0
-8.4557238 21.662025 1.2988726
-2.329252 5.9459 -0.71177489
-2.3443732 5.9845004 -0.35900506
-2.481173 6.3337102 0
-8.4572506 21.588892 1.2950991
-2.3383255 5.9478908 -0.7123509
-2.3725166 6.0348611 -0.36219785
-2.4783492 6.3040624 0
-8.4595642 21.518204 1.2914709
-2.350256 5.9570889 -0.71379209
-2.3836212 6.0416584 -0.36277843
-2.4850104 6.2986445 0
-8.4521837 21.423372 1.2863914
-2.3517411 5.9398203 -0.7120629
-2.377526 6.0049458 -0.36074618
-2.4964514 6.3053164 0
-6.3708863 16.091022 0.96666569
-2.3617826 5.9441876 -0.71292806
-2.3636737 5.948947 -0.35755339
-2.5165598 6.3337345 0
-6.3615422 16.010872 0.9623118
-2.3670456 5.9365196 -0.7123509
-2.3852968 5.9822936 -0.35973063
-2.5213187 6.3234348 0
-6.3568249 15.942835 0.95868343
-2.3780603 5.9432611 -0.71350408
-2.4021747 6.0035276 -0.36118174
-2.5192912 6.2962255 0
-6.3577461 15.889312 0.95592624
-2.3823478 5.9331803 -0.71263891
-2.3832879 5.9355216 -0.35726339
-2.5346549 6.3124976 0
-6.3653221 15.852682 0.95418453
-2.3972483 5.9494896 -0.71494526
-2.410851 5.9832487 -0.36031118
-2.5578392 6.3480434 0
-6.3660197 15.799185 0.95142674
-2.3986199 5.9322062 -0.71321607
-2.4229481 5.9923739 -0.36103675
-2.5440471 6.291873 0
-6.3724437 15.760166 0.94954008
-2.4096758 5.9388905 -0.71436924
-2.4340947 5.999073 -0.3616173
-2.5721948 6.3394346 0
-6.373899 15.709119 0.94692785
-2.4132636 5.9374332 -0.71436924
-2.4289138 5.9759388 -0.36031118
-2.5554466 6.2872515 0
-6.3511019 15.62583 0.94213837
-2.4285836 5.9339757 -0.71465725
-2.4531887 5.9940953 -0.36176232
-2.5696483 6.2786512 0
-6.3652234 15.55272 0.93865502
-2.4406638 5.9429975 -0.71609843
-2.4160097 5.8829651 -0.35523117
-2.595027 6.3188705 0
-6.350451 15.463298 0.93372059
-2.4439011 5.9304786 -0.71494526
-0 0 -0
-2.5877893 6.279644 0
-6.3354712 15.373935 0.9287861
-2.4520526 5.9299092 -0.71523327
-2.4937673 6.0307894 -0.3645201
-2.5933843 6.271698 0
-6.3133378 15.267829 0.92283607
-2.4612002 5.9317245 -0.71581042
-0 0 -0
-2.5869992 6.2349114 0
-6.3258042 15.245784 0.921965
-2.4703522 5.9335175 -0.71638644
-2.4763746 5.9479823 -0.35987562
-2.6065345 6.260612 0
-6.314261 15.166168 0.91761106
-2.4785197 5.9329214 -0.71667558
-2.4735453 5.9210138 -0.35842451
-2.6150994 6.2598572 0
-6.3215632 15.132152 0.91601437
-2.4896863 5.9394641 -0.71782875
-2.5068138 5.9803233 -0.36219785
-2.6146126 6.2374911 0
-6.3127232 15.059806 0.91209602
-2.4968612 5.9364514 -0.71782875
-2.5019488 5.9485474 -0.3604562
