# .PCD v0.7 - Point Cloud Data file format
VERSION 0.7
FIELDS x y z
SIZE 4 4 4
TYPE F F F
COUNT 1 1 1
WIDTH 1624
HEIGHT 1
VIEWPOINT 0 0 0 1 0 0 0
POINTS 1624
DATA ascii
-4.4005427 6.5005145 -0.43846732
-4.4253016 6.5370884 0
-4.4529147 6.577879 0.44368565
-4.3741722 6.4447708 -0.86817062
-4.4010992 6.4844446 -0.43774176
-4.427351 6.5231228 0
-4.4608598 6.5724936 0.44368565
-4.3790488 6.4352083 -0.86759454
-4.4118524 6.4834142 -0.43803176
-4.4337668 6.5156188 0
-4.4687982 6.5670986 0.44368565
-4.3897338 6.4341812 -0.86817062
-4.4299355 6.4931059 -0.43904787
-4.4328332 6.497354 0
-4.4796557 6.5659833 0.44397566
-4.4150286 6.4544907 -0.87163007
-4.4421802 6.494185 -0.43948343
-4.4377451 6.4877009 0
-4.4875865 6.5605655 0.44397566
-4.4286757 6.4576836 -0.87278324
-4.4529605 6.4930944 -0.43977344
-4.452939 6.4930634 0
-4.4955101 6.5551386 0.44397566
-4.4481988 6.469378 -0.87508959
-4.4622793 6.4898562 -0.43991899
-4.4681525 6.4983983 0
-4.5019569 6.5475626 0.44383067
-4.460412 6.4703808 -0.87595367
-4.4848628 6.5058494 -0.44137013
-4.4789586 6.4972844 0
-4.506918 6.5378432 0.44354066
-4.4652886 6.4607348 -0.8753776
-4.5074916 6.5217972 -0.44282123
-4.4808869 6.483304 0
-4.501514 6.5131483 0.44223398
-4.4804564 6.4659629 -0.87681884
-4.5257297 6.5312986 -0.44383734
-4.5020566 6.4971352 0
-4.5256615 6.5312004 0.44383067
-4.5306501 6.5215535 -0.4435468
-4.5217829 6.5087891 0
-4.5454102 6.5427995 0.44499177
-4.5355597 6.5118141 -0.4432568
-4.5504651 6.5332141 0
-4.5592532 6.5458312 0.44557232
-7.2746868 10.417583 -0.70971894
-4.5509071 6.5170445 0
-4.5686455 6.5424457 0.44571733
-7.3088007 10.412738 -0.71059006
-4.5666432 6.5060277 0
-4.587431 6.5356441 0.44600788
-7.3198776 10.401769 -0.71044451
-4.5730047 6.4983788 0
-4.5953245 6.5300961 0.44600788
-7.3384323 10.401409 -0.71102506
-7.3262758 10.384178 0
-4.606205 6.5287809 0.44629788
-7.3569975 10.40102 -0.71160561
-8.7304087 12.342692 0
-8.2106924 11.607938 0.7941792
-7.3815846 10.40908 -0.71276671
-8.6881123 12.251469 0
-8.2247124 11.598009 0.7941792
-7.398675 10.406507 -0.7132023
-7.5418053 10.607826 0
-8.2357111 11.583831 0.79388922
-7.4112434 10.39756 -0.7132023
-7.530448 10.564797 0
-8.2346172 11.552708 0.79243755
-7.4328632 10.401278 -0.71407282
-7.5386672 10.549336 0
-8.1805925 11.447624 0.78590697
-7.4482212 10.40947 -0.71494395
-7.5329242 10.527848 0
-10.360206 14.479195 0.99446112
-7.46382 10.40468 -0.71523392
-10.134963 14.128295 0
-10.380726 14.470892 0.99475163
-7.4839706 10.4062 -0.71595949
-10.197609 14.17942 0
-10.389097 14.445678 0.99388057
-7.4980631 10.399263 -0.71610504
-10.233 14.19242 0
-8.4386368 11.70377 0.80593485
-7.5212746 10.404931 -0.71712065
-10.250141 14.180045 0
-8.4695177 11.716731 0.80753148
-7.5338416 10.395836 -0.71712065
-10.26421 14.16343 0
-8.4989147 11.727525 0.80898261
-7.5586157 10.403543 -0.71828175
-8.5971937 11.833022 0
-9.1560535 12.602227 0.87008339
-7.5773005 10.402802 -0.7188623
-8.6176147 11.83104 0
-9.1636267 12.580655 0.86935782
-7.5898647 10.39364 -0.7188623
-8.6625996 11.862654 0
-9.149704 12.529699 0.86660004
-7.6100912 10.394942 -0.71958786
-8.6876841 11.866872 0
-10.383518 14.183282 0.98183495
-7.6318736 10.398313 -0.72045898
-8.7389736 11.906719 0
-10.377584 14.139301 0.97965771
-7.6490479 10.395355 -0.72089398
-8.8782816 12.065932 0
-11.666642 15.855423 1.099537
-7.6693201 10.396567 -0.72162008
-8.9716415 12.162 0
-11.670363 15.8204 1.0980854
-7.6865077 10.393554 -0.72205508
-8.3410749 11.278647 0
-10.383965 14.041006 0.97544879
-7.7037048 10.390523 -0.72249067
-8.3531418 11.266464 0
-10.365334 13.980447 0.97211099
-7.7240028 10.391632 -0.72321618
-8.3714085 11.262631 0
-7.2294779 9.7263136 0.67691267
-7.7489743 10.39896 -0.72437733
-8.3881178 11.256678 0
-10.336989 13.872022 0.96630597
-7.7630877 10.391669 -0.72452229
-8.4406509 11.298656 0
-10.35063 13.855353 0.96601546
-7.7865434 10.396842 -0.72553843
-8.4293413 11.255127 0
-10.364252 13.838681 0.96572542
-7.8006587 10.389503 -0.72568345
-8.4007435 11.18874 0
-10.363802 13.803288 0.96412879
-7.8194575 10.388373 -0.726264
-8.4189539 11.184821 0
-10.372662 13.780377 0.96340322
-7.8335505 10.394021 -0.72698957
-9.280899 12.314448 0
-10.348145 13.730534 0.9603554
-7.8570704 10.399062 -0.72800565
-9.2847881 12.288688 0
-10.339664 13.684848 0.9580332
-7.8727646 10.3937 -0.72829568
-10.236124 13.51383 0
-10.345208 13.657844 0.95701706
-7.8837476 10.382112 -0.72815067
-10.244577 13.49109 0
-9.2224731 12.145081 0.85179669
-7.9041548 10.382914 -0.72887623
-10.268752 13.489054 0
-9.1505795 12.02022 0.84381443
-7.9293065 10.389881 -0.73003733
-10.272412 13.460085 0
-9.1808586 12.029807 0.84526551
-7.9497538 10.390616 -0.73076344
-8.5713739 11.203096 0
-9.1622314 11.975368 0.84221774
-7.9670429 10.387183 -0.73119843
-8.6070757 11.221638 0
-10.329494 13.467274 0.94801927
-7.9859238 10.385788 -0.73177898
-8.6158676 11.205038 0
-10.331506 13.436245 0.94671315
-8.007988 10.388483 -0.7326501
-8.6246386 11.188442 0
-10.341388 13.41552 0.9461326
-8.0316525 10.393186 -0.7336657
-8.682704 11.235664 0
-10.354409 13.398898 0.94584203
-8.0426149 10.381421 -0.73352069
-8.6994638 11.229283 0
-10.357861 13.369945 0.94468093
-8.0647135 10.384006 -0.73439121
-8.6699238 11.163265 0
-10.364448 13.34511 0.94381034
-8.0804501 10.378358 -0.73468179
-8.6450405 11.103506 0
-10.367795 13.316175 0.94264925
-8.1041775 10.382927 -0.73569793
-8.6232185 11.047914 0
-8.7116184 11.161169 0.79084146
-8.1199169 10.377216 -0.7359879
-8.6076975 11.000597 0
-8.7523184 11.185422 0.79330868
-8.1452799 10.383753 -0.737149
-8.6017075 10.965616 0
-8.7802591 11.193236 0.79461479
-8.1642456 10.382073 -0.73772961
-8.6053019 10.942945 0
-8.8114414 11.205081 0.79621089
-8.1848259 10.382402 -0.73845512
-10.216734 12.959866 0
-8.8394508 11.21279 0.797517
-8.2054195 10.382696 -0.73918068
-8.917326 11.283504 0
-8.8610535 11.2123 0.79824311
-8.2197504 10.387923 -0.73990625
-8.9079895 11.257703 0
-8.8694363 11.208981 0.79838812
-8.2355289 10.382059 -0.74019682
-8.9329081 11.261205 0
-8.8781281 11.192146 0.79795259
-5.5320997 6.9567194 -0.99068904
-8.2529211 10.378204 -0.74063236
-8.9481268 11.252438 0
-10.356841 13.023922 0.92944199
-5.5211539 6.9257603 -0.98722953
-8.2784071 10.384471 -0.74179292
-8.9714537 11.253832 0
-9.3699951 11.753764 0.83960551
-5.5262861 6.9150391 -0.98665237
-8.2893286 10.372433 -0.74164796
-9.0045357 11.267372 0
-9.2609091 11.588171 0.82857549
-5.5314059 6.9043236 -0.98607635
-8.3116064 10.37458 -0.74251902
-9.0311613 11.272732 0
-9.0474644 11.293081 0.80825704
-5.5397444 6.897635 -0.98607635
-8.3371525 10.380737 -0.74368018
-9.0317383 11.245579 0
-9.0627289 11.284165 0.80840206
-5.5415869 6.8828773 -0.98492318
-8.3545742 10.376722 -0.74411517
-9.0371609 11.224524 0
-9.0910215 11.29142 0.80970818
-5.5515223 6.8781872 -0.98521119
-8.3752642 10.376728 -0.74484074
-9.0196657 11.175123 0
-9.3478184 11.581697 0.83133328
-5.5549469 6.8654404 -0.98434609
-8.3959732 10.376706 -0.74556684
-9.6453619 11.920844 0
-9.4141016 11.635026 0.83597714
-5.5632381 6.8587232 -0.98434609
-8.4085054 10.366554 -0.74556684
-9.6859903 11.94152 0
-9.4494314 11.649876 0.83786386
-5.5617342 6.8399591 -0.98261684
-8.4357777 10.374529 -0.74687296
-9.73489 11.972209 0
-9.4553061 11.62837 0.8371383
-5.5650907 6.8272176 -0.98175168
-8.4565144 10.374397 -0.74759853
-9.754283 11.966492 0
-9.4759169 11.624993 0.83771884
-5.5651546 6.8104758 -0.9803105
-8.473978 10.37021 -0.74803406
-10.267671 12.56528 0
-9.4669409 11.58537 0.83568716
-5.5783167 6.7930131 -0.97973448
-8.5204496 10.375805 -0.74992073
-10.337645 12.5887 0
-9.4174099 11.468081 0.828866
-5.5799451 6.7782803 -0.97858131
-8.5362806 10.369511 -0.75021076
-10.377661 12.60634 0
-9.3751135 11.38849 0.82393157
-5.5798955 6.7615528 -0.97713906
-8.5537672 10.365203 -0.75064629
-10.389569 12.589774 0
-9.3557892 11.33707 0.82102877
-5.5814729 6.7468419 -0.97598696
-8.5729103 10.362868 -0.75122684
-10.424681 12.601274 0
-9.3280754 11.275705 0.8174004
-5.587965 6.7380958 -0.97569788
-8.5904036 10.358504 -0.75166243
-10.4698 12.624723 0
-9.326766 11.246427 0.81609428
-5.5854259 6.726759 -0.9745447
-5.9541688 7.1708517 -0.52061206
-10.465792 12.604385 0
-9.3401985 11.248787 0.81667489
-5.5918965 6.718019 -0.97425663
-5.9628291 7.1636519 -0.52061206
-5.962585 7.1633587 0
-9.3720646 11.259456 0.81827098
-5.5867529 6.6953702 -0.97195029
-5.9714808 7.1564417 -0.52061206
-5.9628944 7.146152 0
-5.9880548 7.1763048 0.52205706
-5.5981612 6.6925864 -0.97252744
-5.9717894 7.1392574 -0.51988655
-0 0 0
-0 0 0
-5.6012564 6.6798697 -0.97166228
-5.9737329 7.1240726 -0.51930594
-0 0 0
-0 0 0
-5.6043296 6.6671553 -0.97079718
-5.9756489 7.1088929 -0.5187254
-0 0 0
-0 0 0
-5.6023846 6.6485147 -0.96906793
-5.9808822 7.0976892 -0.51843488
-0 0 0
-0 0 0
-5.6137486 6.6456885 -0.96964401
-5.9827533 7.0825248 -0.51785487
-5.9841285 7.0841532 0
-0 0 0
-5.6201048 6.6369286 -0.96935594
-5.9577227 7.0356307 -0.51495206
-5.9893236 7.0729489 0
-0 0 0
-5.6180801 6.6183057 -0.96762675
-5.9578133 7.0185242 -0.5142265
-5.9860744 7.0518165 0
-6.0014539 7.0699339 0.51799315
-5.6210427 6.6056013 -0.96676159
-5.9561825 6.9994426 -0.51335537
-5.9878445 7.0366502 0
-6.0049386 7.0567384 0.51755762
-5.6256599 6.5948653 -0.9661845
-5.9562054 6.982358 -0.51262981
-5.9845243 7.0155559 0
-6.0084066 7.0435524 0.51712263
-5.6252213 6.5782361 -0.96474332
-5.9528151 6.9613299 -0.51161373
-5.9896111 7.0043602 0
-6.0101581 7.028388 0.51654208
-5.6398988 6.579289 -0.96589649
-5.9544573 6.9462409 -0.51103318
-5.9896026 6.9872403 0
-6.0101852 7.011251 0.51581591
-5.6360493 6.5587435 -0.96387923
-5.9543805 6.9291892 -0.51030761
-5.9929509 6.9740744 0
-6.0118785 6.9961009 0.51523536
-5.6389041 6.5460477 -0.96301407
-5.955965 6.9141145 -0.50972706
-5.9894886 6.9530311 0
-6.0067668 6.9730892 0.5140748
-5.6434255 6.5353103 -0.96243697
-5.9592252 6.9010186 -0.50929207
-5.9842782 6.9300308 0
-6.0066919 6.955987 0.5133487
-5.6513181 6.5284867 -0.96243697
-5.9573522 6.8820214 -0.50842094
-5.987536 6.9168901 0
-5.9997883 6.9310446 0.51204258
-5.652422 6.5138392 -0.9612838
-5.9537406 6.8610783 -0.5074048
-5.9856582 6.8978605 0
-5.9996452 6.9139791 0.51131701
-5.6461811 6.4987121 -0.95955455
-5.9544792 6.8535609 -0.50711483
-5.9778748 6.8804889 0
-5.9970045 6.9025068 0.51073647
-5.6557264 6.4938335 -0.95984262
-5.9491038 6.8306851 -0.50595367
-5.9810548 6.8673711 0
-5.9985142 6.8874178 0.51015592
-5.6567645 6.4792013 -0.95868945
-5.9488096 6.8137069 -0.50522816
-5.9756556 6.8444557 0
-6.0017033 6.8742905 0.50972033
-5.64926 6.4548464 -0.95609504
-5.9399285 6.7869639 -0.50377703
-5.9822092 6.8352737 0
-6.0014501 6.8572588 0.50899482
-5.6604705 6.4519076 -0.95667219
-5.9464064 6.777823 -0.50363147
-5.9835982 6.8202152 0
-5.9994526 6.8382864 0.50812423
-5.6614294 6.4372945 -0.95551902
-5.9425845 6.7569804 -0.50261593
-5.983243 6.8032107 0
-5.9991326 6.8212781 0.50739866
-5.6692038 6.430449 -0.95551902
-5.9473047 6.745893 -0.50232536
-5.9811358 6.7842669 0
-5.997057 6.8023257 0.50652754
-5.6735406 6.4197145 -0.95494193
-5.9468493 6.7289681 -0.50159979
-5.9789853 6.7653308 0
-5.9932313 6.7814507 0.505512
-5.6778665 6.4089861 -0.95436585
-5.9463615 6.7120547 -0.50087422
-5.97508 6.7444711 0
-5.9945288 6.7664242 0.50493145
-5.6787362 6.3943853 -0.95321268
-5.9441118 6.6932039 -0.5000031
-5.9745793 6.7275114 0
-5.9957986 6.7514048 0.5043509
-5.6795793 6.3797913 -0.95205951
-5.9452834 6.6782537 -0.49942255
-5.9723244 6.7086282 0
-5.9884038 6.7266898 0.50304478
-5.6821156 6.3671327 -0.95119435
-5.9446998 6.6613731 -0.49869701
-5.9752259 6.6955795 0
-5.9913349 6.7136307 0.50260919
-5.679461 6.3487 -0.94946516
-5.9388847 6.6386924 -0.49753588
-5.979845 6.6844792 0
-5.9925127 6.6986403 0.50202864
-5.6854029 6.3399091 -0.94917715
-5.9382296 6.621841 -0.49681032
-5.977489 6.6656199 0
-5.99193 6.6817236 0.50130308
-5.6878705 6.3272624 -0.94831198
-5.937542 6.6050005 -0.49608478
-5.976841 6.6487174 0
-5.9947863 6.6686797 0.50086755
-5.6868558 6.3107796 -0.9468708
-5.938561 6.5901003 -0.4955042
-5.976161 6.6318259 0
-5.994144 6.6517816 0.50014198
-5.6892738 6.2981439 -0.94600564
-5.9412923 6.5771332 -0.49506867
-5.9789348 6.6188045 0
-5.9917226 6.6329608 0.49927086
-5.6968799 6.291265 -0.94600564
-5.9440074 6.5641766 -0.49463364
-5.9729528 6.5961423 0
-5.9945054 6.6199436 0.49883586
-5.7044773 6.2843766 -0.94600564
-5.9397078 6.54352 -0.49361753
-5.9739223 6.581212 0
-5.990273 6.5992255 0.49781975
-5.7085819 6.2736497 -0.94542855
-5.9423618 6.5305705 -0.49318197
-5.9678578 6.5585899 0
-5.9912477 6.5842948 0.4972392
-5.7036633 6.2606416 -0.94398737
-5.9375582 6.5173769 -0.49245644
-5.9665661 6.5492172 0
-5.9847279 6.5691528 0.49636865
-5.7025046 6.2441974 -0.94254613
-5.9349189 6.4986892 -0.49158588
-5.9657016 6.5323963 0
-5.9874024 6.5561585 0.49593309
-5.7030592 6.2296715 -0.94139296
-5.9339957 6.4819322 -0.49086031
-5.9665613 6.5175047 0
-5.9865489 6.5393381 0.49520752
-5.7088351 6.2208719 -0.94110495
-5.9295235 6.4613543 -0.4898442
-5.9691515 6.5045366 0
-5.983901 6.5206094 0.4943364
-5.7058377 6.2025447 -0.93937469
-5.9355688 6.4522743 -0.48969918
-5.9681983 6.4877443 0
-5.9900184 6.5114636 0.49419141
-5.7185903 6.2013516 -0.94023985
-5.9363146 6.4374566 -0.48911864
-5.9672136 6.470964 0
-5.9820294 6.487031 0.49288529
-5.7208104 6.1887379 -0.93937469
-5.9352646 6.420733 -0.48839253
-5.9644251 6.4522791 0
-5.9810462 6.4702592 0.49215972
-5.7265277 6.1799254 -0.93908668
-5.9359608 6.4059401 -0.48781252
-5.9633746 6.4355245 0
-5.980031 6.4534998 0.49143419
-5.7287149 6.1673217 -0.93822259
-5.9366231 6.3911476 -0.48723197
-5.9622922 6.4187822 0
-5.9825172 6.440556 0.49099863
-5.7308731 6.1547146 -0.93735743
-5.935482 6.3744559 -0.48650584
-5.9682717 6.4096704 0
-5.983212 6.4257159 0.49041805
-5.7347727 6.1440001 -0.93678033
-5.9307742 6.3539877 -0.48549029
-5.9706831 6.3967447 0
-5.9803371 6.4070878 0.48954749
-5.736896 6.1314058 -0.93591624
-5.9260182 6.3335333 -0.48447418
-5.9677358 6.3781199 0
-5.9791927 6.3903646 0.48882139
-5.7336807 6.1131468 -0.93418598
-5.9247804 6.3168941 -0.48374861
-5.9701023 6.3652153 0
-5.9833579 6.3793483 0.48853138
-5.7428327 6.1080966 -0.93447399
-5.9324088 6.3097305 -0.48374861
-5.9688773 6.3485184 0
-5.9821644 6.3626504 0.48780581
-5.7484369 6.0992727 -0.93418598
-5.9311194 6.2931046 -0.48302305
-5.9711871 6.335618 0
-5.9880605 6.3535209 0.48766026
-5.746923 6.0829234 -0.93274474
-5.9297986 6.2764912 -0.48229751
-5.9627547 6.3113742 0
-5.9743261 6.3236222 0.48591915
-5.7542686 6.0759749 -0.93274474
-5.9338012 6.2655444 -0.48200694
-5.9578481 6.290936 0
-5.9783859 6.3126221 0.4856286
-5.7580481 6.0652699 -0.93216872
-5.9324241 6.2489495 -0.48128137
-5.9582777 6.2761827 0
-5.9752784 6.2940903 0.48475805
-5.7564521 6.048934 -0.93072647
-5.9310155 6.232367 -0.48055583
-5.9586806 6.2614379 0
-5.9739242 6.2774563 0.48403248
-5.7656956 6.0294027 -0.92986238
-5.9352808 6.2067442 -0.47968471
-5.9612093 6.2338586 0
-5.9765043 6.2498531 0.48301637
-5.7621822 6.0184455 -0.92870921
-5.9192677 6.1825171 -0.47808859
-5.9577751 6.2227368 0
-5.9730911 6.2387338 0.48243579
-5.7658648 6.0077424 -0.92813212
-5.9303288 6.1791058 -0.47837859
-5.9580812 6.2080226 0
-5.9752254 6.2258859 0.48200026
-5.7659469 5.9933157 -0.92697895
-5.9215789 6.1550846 -0.47707248
-5.961966 6.1970644 0
-5.9755378 6.2111712 0.48141968
-5.7731843 5.9863443 -0.92697895
-5.9181924 6.1367064 -0.47620192
-5.9640284 6.1842346 0
-5.9758234 6.196465 0.48083913
-5.7714267 5.970068 -0.92553771
-5.9256034 6.1295509 -0.47620192
-5.9570322 6.1620617 0
-5.9742775 6.1799006 0.48011357
-5.7804341 5.9649453 -0.92582577
-5.9275784 6.1167865 -0.47576636
-5.9572291 6.1473837 0
-5.9690876 6.1596208 0.47909802
-5.7750273 5.9449754 -0.92380852
-5.9222898 6.0965714 -0.47475025
-5.9573994 6.1327143 0
-5.9692841 6.1449485 0.47851744
-5.7803969 5.9361343 -0.92351943
-5.9205894 6.0801044 -0.47402468
-5.953908 6.1143203 0
-5.9676352 6.1284175 0.47779134
-5.7893772 5.9310021 -0.92380852
-5.9261184 6.0710883 -0.47387969
-5.955843 6.1015401 0
-5.9732227 6.1193447 0.47764635
-5.7929182 5.9203014 -0.92323142
-5.9225426 6.0527763 -0.47300857
-5.9577494 6.088757 0
-5.9751587 6.1065493 0.47721079
-5.7910132 5.9040666 -0.92179018
-5.9189382 6.0344892 -0.47213802
-5.9596329 6.0759783 0
-5.9716191 6.0881982 0.47634023
-5.7908893 5.8896875 -0.92063701
-5.9225855 6.0236306 -0.47184801
-5.9377766 6.0390806 0
-5.9771509 6.0791273 0.47619522
-5.7907391 5.8753176 -0.9194839
-5.9225636 6.0090671 -0.47126746
-5.9377618 6.0244875 0
-5.9753737 6.0626493 0.47546968
-5.7942019 5.8646402 -0.91890782
-5.9206834 5.9926591 -0.47054133
-5.9432096 6.0154591 0
-5.97539 6.0480309 0.4748891
-5.8012843 5.8576345 -0.91890782
-5.9242663 5.9818115 -0.47025135
-5.9376526 5.9953279 0
-5.966239 6.0241919 0.47358298
-5.7992411 5.8414378 -0.91746557
-5.9241672 5.9672728 -0.46967077
-5.9412289 5.9844589 0
-5.964355 6.0077529 0.47285688
-5.800827 5.8289313 -0.91660148
-5.9240413 5.9527431 -0.46909022
-5.9319353 5.9606752 0
-5.9679475 5.9968619 0.47256687
-5.8096905 5.8237476 -0.91688949
-5.9220557 5.9363847 -0.46836466
-5.9336176 5.9479742 0
-5.9678483 5.9822879 0.47198632
-5.8075805 5.8075805 -0.91544831
-5.9181967 5.9181967 -0.46749356
-5.9352775 5.9352775 0
-5.9695587 5.9695587 0.47155076
-5.8110881 5.8040705 -0.91544831
-5.9125805 5.9054403 -0.466768
-5.9333434 5.9261785 0
-5.9658103 5.9586058 0.47097021
-5.8107681 5.7897425 -0.91429514
-5.9123487 5.8909559 -0.46618745
-5.9349675 5.9134927 0
-5.9619646 5.9403925 0.47009966
-5.8104219 5.7754235 -0.91314197
-5.9120908 5.8764801 -0.46560687
-5.9291859 5.8934722 0
-5.9672971 5.931354 0.46995464
-5.8118844 5.7629333 -0.91227686
-5.9118066 5.8620138 -0.46502632
-5.9344563 5.8844733 0
-5.9652286 5.9149861 0.46922854
-5.8133321 5.7504549 -0.91141278
-5.9133487 5.8493896 -0.46459132
-5.9286089 5.8644848 0
-5.9631367 5.8986387 0.46850297
-5.8202763 5.7434263 -0.91141278
-5.9185572 5.8404098 -0.46444577
-5.9338403 5.8554907 0
-5.9628611 5.884129 0.46792242
-5.8253632 5.73457 -0.91112369
-5.9163527 5.8241415 -0.4637202
-5.9316397 5.83919 0
-5.9607096 5.8678069 0.46719685
-5.8267574 5.7220955 -0.9102596
-5.9159703 5.8097057 -0.46313965
-5.9331183 5.8265462 0
-5.9622316 5.8551364 0.46676129
-5.8299685 5.7114272 -0.90968251
-5.9155612 5.7952795 -0.46255907
-5.925282 5.8048029 0
-5.9637389 5.8424778 0.4663263
-5.8313141 5.6989536 -0.90881735
-5.9151258 5.7808628 -0.46197852
-5.9267135 5.7921872 0
-5.9615045 5.8261886 0.46560073
-5.8363457 5.6900992 -0.90852934
-5.9128056 5.7646437 -0.46125296
-5.9281154 5.7795696 0
-5.9610977 5.8117256 0.46502018
-5.8320951 5.6722264 -0.90680009
-5.9123158 5.750248 -0.46067241
-5.9276323 5.7651448 0
-5.9606647 5.7972717 0.46443963
-5.8445086 5.6705737 -0.90766418
-5.9080734 5.7322469 -0.45980185
-5.9327278 5.7561674 0
-5.9620686 5.7846351 0.46400407
-5.8457856 5.6581163 -0.90680009
-5.9056621 5.7160702 -0.45907629
-5.935935 5.7453713 0
-5.9597201 5.7683926 0.4632785
-5.8451757 5.6438622 -0.90564692
-5.9088221 5.7053165 -0.45878574
-5.9279022 5.7237401 0
-5.9573412 5.7521648 0.46255296
-5.8538518 5.638588 -0.90593493
-5.911972 5.694571 -0.45849574
-5.9273167 5.7093511 0
-5.9605408 5.7413535 0.46226239
-5.8513374 5.6225519 -0.90449375
-5.9094825 5.6784234 -0.45777017
-5.921073 5.6895609 0
-5.9599791 5.7269454 0.46168184
-5.8599925 5.6172657 -0.90478182
-5.9069548 5.6622829 -0.45704406
-5.9241824 5.6787968 0
-5.9575171 5.7107511 0.46095628
-5.8835979 5.6262674 -0.90737617
-5.9137921 5.6551414 -0.45704406
-5.9235163 5.6644402 0
-5.9587774 5.6981592 0.46052071
-5.8810358 5.610229 -0.90593493
-5.9055867 5.6336498 -0.4558835
-5.9322448 5.65908 0
-5.9581375 5.6837807 0.45994017
-5.8746929 5.5906358 -0.90391666
-5.9067411 5.6211343 -0.45544794
-5.9258795 5.6393476 0
-5.9631205 5.6747875 0.45979518
-5.8743238 5.5835252 -0.90334058
-5.9026022 5.610404 -0.45486739
-5.923625 5.6303859 0
-5.953362 5.6586509 0.45877904
-5.8716836 5.5675268 -0.9018994
-5.9037185 5.5979023 -0.45443183
-5.9190965 5.6124835 0
-5.9620862 5.6532464 0.45892459
-5.8802838 5.5622034 -0.90218741
-5.9067063 5.5871968 -0.45414183
-5.9201999 5.5999603 0
-5.9556966 5.6335373 0.45790848
-5.883234 5.5515404 -0.90161031
-5.9021101 5.5693521 -0.4532707
-5.9156084 5.5820894 0
-5.9530516 5.6174216 0.45718294
-5.882412 5.537343 -0.90045822
-5.9088354 5.5622168 -0.4532707
-5.9185553 5.5713668 0
-5.9484792 5.599535 0.45631182
-5.8890982 5.5302315 -0.90045822
-5.9041905 5.544404 -0.45240015
-5.9157991 5.555305 0
-5.9495635 5.5870123 0.45587683
-5.8901114 5.5178051 -0.89959306
-5.9033003 5.53016 -0.4518196
-5.9149103 5.5410361 0
-5.9525137 5.576263 0.45558625
-5.8948865 5.5089197 -0.89930505
-5.9042807 5.5176988 -0.45138404
-5.9178019 5.5303345 0
-5.9497566 5.5601969 0.45486069
-5.8958611 5.4965 -0.89843988
-5.9033408 5.5034728 -0.45080349
-5.9187675 5.5178542 0
-5.9545717 5.5512338 0.4547157
-5.8892388 5.4770403 -0.89642161
-5.8966727 5.483954 -0.44978791
-5.9178071 5.5036092 0
-5.9498549 5.5334139 0.45384458
-5.8882675 5.4628835 -0.89526844
-5.8956752 5.4697556 -0.44920737
-5.9168215 5.4893746 0
-5.9546337 5.5244551 0.45369959
-5.8948641 5.4557648 -0.89526844
-5.8908339 5.4520345 -0.44833624
-5.92345 5.4822211 0
-5.9555817 5.5119591 0.45326403
-5.8748507 5.4240775 -0.89123285
-5.8974175 5.4449129 -0.44833624
-5.914773 5.4609365 0
-5.9526935 5.4959474 0.45253846
-5.8794994 5.4152246 -0.89094484
-5.9001732 5.4342656 -0.44804627
-5.9137096 5.446733 0
-5.9287491 5.4605846 0.45021623
-5.8803229 5.4028645 -0.89007968
-5.8971701 5.4183435 -0.4473207
-5.9107065 5.4307814 0
-5.9200425 5.4393592 0.44905567
-5.8754101 5.385273 -0.88835049
-5.9017916 5.4094534 -0.44717515
-5.9153476 5.4218788 0
-5.9246898 5.4304414 0.44891012
-5.8761845 5.372932 -0.88748533
-5.896821 5.3918009 -0.44630459
-5.9084482 5.4024324 0
-5.919745 5.4127612 0.44803956
-5.8769379 5.3605971 -0.88662022
-5.9014139 5.3829226 -0.44615957
-5.9149718 5.3952894 0
-5.9281988 5.4073539 0.44818455
-5.8661952 5.3378272 -0.88402587
-5.8944588 5.3635449 -0.44514346
-5.9157176 5.3828888 0
-5.9270406 5.3931918 0.447604
-5.8649802 5.3237815 -0.8828727
-5.8951612 5.3511772 -0.4447079
-5.9068012 5.3617435 0
-5.9335527 5.3860264 0.447604
-5.8681955 5.3202372 -0.8828727
-5.8983932 5.3476148 -0.4447079
-5.9042535 5.3529282 0
-5.9233356 5.3702283 0.44658846
-5.8650298 5.3044696 -0.88143146
-5.893291 5.3300295 -0.44383734
-5.9068532 5.3422952 0
-5.914403 5.3491235 0.44542733
-5.8816729 5.2937379 -0.88200754
-5.9100137 5.3192453 -0.44412735
-5.8965406 5.3071194 0
-5.9195871 5.3278618 0.44484678
-5.8938408 5.2918124 -0.8828727
-5.9183755 5.3138413 -0.44427291
-5.9087529 5.3052015 0
-5.9182863 5.3137612 0.4442662
-5.907937 5.2915897 -0.88402587
-5.9325342 5.313621 -0.44485345
-5.9151592 5.2980585 0
-5.9305038 5.3118024 0.44470122
-5.9162536 5.2861691 -0.88431388
-5.942822 5.3099079 -0.44514346
-5.9312577 5.2995753 0
-5.9330463 5.3011732 0.44441122
-5.9303598 5.2859006 -0.88546705
-5.9511714 5.3044505 -0.44528848
-5.9473767 5.3010683 0
-5.9510822 5.3043709 0.44528177
-5.9406118 5.2821717 -0.88604414
-5.9595165 5.2989807 -0.44543347
-5.9596066 5.2990608 0
-5.9633145 5.3023577 0.44571733
-5.9450498 5.2732682 -0.88575506
-5.9795241 5.3038478 -0.44644958
-5.9835334 5.3074036 0
-5.9872103 5.3106651 0.44702345
-5.9572301 5.271225 -0.88662022
-5.9917684 5.3017859 -0.44688514
-5.9860401 5.2967172 0
-5.9936228 5.3034267 0.44702345
-5.9694142 5.2691593 -0.88748533
-5.9942703 5.2911 -0.44659457
-6.0041389 5.2998104 0
-6.0058727 5.3013411 0.44745901
-5.9621863 5.2499757 -0.88546705
-5.9987111 5.2821374 -0.44644958
-6.0203099 5.301156 0
-6.0200748 5.3009491 0.44803956
-5.9646425 5.2393575 -0.88489097
-6.0050888 5.2748857 -0.44644958
-6.020843 5.2887239 0
-6.0323343 5.2988176 0.44847512
-5.9534631 5.2168064 -0.88229662
-6.0212278 5.2761865 -0.44717515
-6.0174441 5.272871 0
-6.0406847 5.2932358 0.44862011
-5.9363937 5.1891823 -0.87883711
-6.0197735 5.2620664 -0.44659457
-6.0296836 5.2707295 0
-6.0509853 5.2893496 0.44891012
-5.9192667 5.1616068 -0.8753776
-5.9517102 5.1898975 -0.44107956
-6.0282092 5.2566047 0
-6.0221238 5.251298 0.44629788
-5.9293985 5.1578426 -0.87595367
-5.9324923 5.1605334 -0.43919289
-5.9913545 5.2117367 0
-6.0480657 5.2610683 0.44774902
-5.9258604 5.1422 -0.87451249
-5.9348021 5.1499586 -0.43890288
-5.9662051 5.1772089 0
-5.9876947 5.195857 0.44281453
-5.9105639 5.1164198 -0.87134206
-5.956737 5.1563892 -0.44006401
-5.9685173 5.1665864 0
-5.9821849 5.1784177 0.44194397
-5.926528 5.1177249 -0.87278324
-5.9491949 5.1372981 -0.43904787
-5.949151 5.1372604 0
-5.9943395 5.1762819 0.44237953
-5.9366231 5.1139331 -0.87335932
-5.9613061 5.1351953 -0.43948343
-5.9691586 5.1419597 0
-5.9808984 5.1520729 0.44092786
-5.9349508 5.1000133 -0.87220615
-0 0 -0
-5.9556251 5.1177788 0
-5.9812131 5.1397667 0.44049287
-5.9470024 5.0978899 -0.87307131
-0 0 -0
-5.9756374 5.1224365 0
-5.9755783 5.122386 0.43962175
-5.9441848 5.0892477 -0.87220615
-0 0 -0
-5.9826813 5.1222076 0
-5.986567 5.1255345 0.4402023
-5.9523025 5.0837464 -0.87249523
-5.9869175 5.1133108 -0.43977344
-5.9809504 5.1082144 0
-5.9907823 5.1166115 0.44005731
-5.9643416 5.0815778 -0.87335932
-5.9812279 5.0959654 -0.43890288
-5.9851389 5.0992975 0
-5.9969602 5.1093688 0.44005731
-5.9606247 5.0659938 -0.87191814
-6.0032206 5.1021967 -0.44006401
-5.9912963 5.092062 0
-6.0150051 5.1122122 0.44092786
-5.9726624 5.0638075 -0.87278324
-6.0034337 5.0898962 -0.43962845
-6.0073681 5.0932322 0
-6.0152378 5.0999045 0.44049287
-5.9787765 5.0565872 -0.87278324
-5.983789 5.0608263 -0.43774176
-6.0214663 5.0926924 0
-6.0233779 5.0943089 0.44063786
-5.988832 5.0526919 -0.87335932
-5.9660673 5.0334854 -0.43600011
-6.019659 5.0787001 0
-6.0315127 5.0887008 0.44078287
-5.9652553 5.0204744 -0.86903572
-5.9622064 5.0179086 -0.43527454
-6.0098619 5.0580163 0
-6.0197668 5.0663524 0.43947676
-5.9554696 4.999958 -0.86672938
-5.9603052 5.0040174 -0.43469399
-5.9641504 5.007246 0
-6.0139475 5.0490532 0.4386062
-5.975389 5.004385 -0.86874771
-5.9583788 4.9901385 -0.43411341
-5.9721971 5.0017114 0
-5.9802017 5.0084152 0.4357034
-5.977458 4.9938412 -0.86817062
-5.9604197 4.9796066 -0.43382344
-5.9702473 4.9878173 0
-5.9762802 4.9928575 0.43497786
-5.9954052 4.9965472 -0.86989981
-5.9644303 4.9707327 -0.43367785
-5.9462795 4.955606 0
-5.9823089 4.9856329 0.43497786
-6.0213313 5.0058374 -0.87278324
-5.960443 4.9552178 -0.43295231
-5.9682732 4.9617271 0
-5.9943175 4.9833794 0.43541285
-6.019412 4.9919538 -0.87163007
-5.9644279 4.9463553 -0.4328073
-5.9782667 4.9578314 0
-5.9923339 4.9694977 0.43483227
-6.011487 4.9731345 -0.8696118
-0 0 -0
-5.9782429 4.9456325 0
-5.9923334 4.9572892 0.43439728
-6.0035329 4.9543481 -0.86759454
-0 0 -0
-0 0 0
-6.0063357 4.9566607 0.43497786
-5.9915371 4.9322906 -0.86499912
-5.96627 4.9114904 -0.4316462
-0 0 0
-0 0 0
-5.969512 4.9020705 -0.86096358
-5.9661736 4.8993292 -0.43121064
-0 0 0
-5.9881725 4.9173942 0.43280062
-5.9574251 4.8801041 -0.85836923
-5.9660649 4.8871813 -0.43077564
-5.9759059 4.8952427 0
-5.9880776 4.9052134 0.43236506
-5.9492955 4.8614445 -0.8563509
-5.9659271 4.8750348 -0.43034008
-5.9717345 4.8797803 0
-5.9960179 4.8996234 0.43251061
-5.9611816 4.8591561 -0.85721606
-5.9657693 4.862896 -0.42990452
-5.9735956 4.8692756 0
-5.9938774 4.885808 0.43193007
-5.9690533 4.85358 -0.85750407
-5.959548 4.8458509 -0.42903396
-5.9693809 4.8538461 0
-5.9937267 4.8736424 0.4314945
-5.9499049 4.8320417 -0.85433364
-5.9644899 4.8438864 -0.42917895
-5.9682679 4.8469543 0
-0 0 0
-5.941669 4.8134503 -0.85231537
-5.9582281 4.8268647 -0.4283084
-5.9720998 4.8381028 0
-5.9904394 4.8529601 0.43062395
-5.9494905 4.8078914 -0.85260338
-5.9600101 4.8163924 -0.42801785
-6.0002089 4.8488779 0
-0 0 0
-5.9452291 4.7925844 -0.8511622
-5.9617834 4.8059292 -0.42772785
-5.9999833 4.8367229 0
-6.0041709 4.8400989 0.43076894
-5.9348907 4.7724304 -0.84885585
-5.967586 4.7987218 -0.42772785
-5.9977107 4.8229461 0
-5.9978609 4.8230672 0.42989781
-5.9527621 4.7749696 -0.85058612
-5.9632392 4.7833734 -0.42700171
-6.0035338 4.8156953 0
-6.0016594 4.8141918 0.42975283
-5.9403458 4.7532248 -0.84799069
-5.9690146 4.7761645 -0.42700171
-5.9930921 4.7954302 0
-5.9973297 4.798821 0.42902726
-5.948112 4.7476621 -0.84827977
-5.9686947 4.7640905 -0.42656672
-5.9968495 4.7865634 0
-5.9950004 4.7850871 0.42844671
-5.9315844 4.7227478 -0.84510833
-5.9744468 4.756875 -0.42656672
-6.0026288 4.7793136 0
-6.0028086 4.7794566 0.4285917
-5.9555135 4.7300534 -0.84770268
-5.9659452 4.7383385 -0.42555061
-5.994132 4.7607255 0
-6.002481 4.7673564 0.4281567
-5.9348712 4.7019749 -0.84395516
-5.973701 4.7327385 -0.4256956
-6.0019259 4.7551003 0
-6.0041595 4.7568698 0.42786616
-5.9364934 4.691596 -0.84337908
-5.9671869 4.7158532 -0.42482504
-6.0035796 4.7446141 0
-6.0078664 4.7480021 0.42772114
-5.9279375 4.6732092 -0.84136081
-5.9749193 4.7102466 -0.42497006
-6.007266 4.7357469 0
-0 0 0
-5.9193459 4.6548495 -0.83934247
-5.9663067 4.6917787 -0.42395395
-6.0007057 4.7188292 0
-6.005023 4.7222242 0.42670503
-5.9493871 4.6668501 -0.84280199
-5.961751 4.676549 -0.42322838
-5.9982123 4.7051501 0
-6.0025463 4.70855 0.42612448
-5.9326205 4.6421299 -0.83963156
-5.9633083 4.6661425 -0.42293838
-6.0018458 4.6962967 0
-5.9980011 4.6932888 0.42539892
-5.9402623 4.636548 -0.83991957
-5.9627953 4.6541357 -0.42250282
-5.9993095 4.6826363 0
-6.0077686 4.6892385 0.42568949
-5.9336114 4.6198301 -0.8381893
-5.9643178 4.6437378 -0.42221281
-5.9967494 4.6689887 0
-5.9990764 4.6708002 0.42467335
-5.9351072 4.6094871 -0.83761328
-5.9678664 4.6349292 -0.42206725
-6.0044479 4.6633401 0
-6.0047154 4.663548 0.42467335
-5.9447584 4.6054773 -0.8381893
-5.9673057 4.6229453 -0.42163226
-6.0059595 4.6528907 0
-6.0021296 4.6499238 0.4240928
-5.9394903 4.5784712 -0.83588403
-5.9640527 4.597405 -0.42061615
-6.0068822 4.6304202 0
-6.0133491 4.6354051 0.4240928
-5.9388652 4.5665598 -0.83501887
-5.9696031 4.5901952 -0.42061615
-6.0021591 4.6152282 0
-6.0107059 4.6218004 0.42351225
-5.9211054 4.547214 -0.83213544
-5.9620728 4.5786757 -0.41989058
-6.0070086 4.6131849 0
-6.0073128 4.6134186 0.42307669
-5.9409699 4.5510678 -0.83415377
-5.961411 4.5667267 -0.41945502
-6.0063782 4.6011739 0
-6.0025711 4.5982571 0.42235112
-5.9259171 4.5281849 -0.83127135
-5.9669242 4.5595198 -0.41945502
-6.0036621 4.5875926 0
-5.9978013 4.5831141 0.42162558
-5.9416676 4.5288596 -0.83271259
-5.9703646 4.5507331 -0.41931003
-5.9988537 4.5724483 0
-6.0053992 4.5774369 0.42177057
-5.9306641 4.5091534 -0.83040625
-5.9696517 4.5387964 -0.41887447
-6.006444 4.5667701 0
-5.9985189 4.5607443 0.42090002
-5.9319901 4.4988613 -0.82983017
-5.973063 4.5300112 -0.41872948
-6.0078144 4.5563669 0
-5.9998808 4.5503497 0.42060944
-5.9415436 4.4948082 -0.83040625
-5.9598842 4.5086827 -0.41742337
-6.0050135 4.5428238 0
-5.9991636 4.5383978 0.42017445
-5.9449077 4.4860692 -0.83011818
-5.9736242 4.5077391 -0.41800392
-6.0084229 4.5339985 0
-6.0129318 4.5374007 0.42075446
-5.9358563 4.4679928 -0.82809991
-5.9707623 4.494267 -0.41742337
-6.0159745 4.5282989 0
-6.0059576 4.5207586 0.41988391
-5.9350438 4.4561567 -0.82723475
-5.9803405 4.4901667 -0.41771337
-6.0151958 4.5163369 0
-6.0155754 4.5166216 0.42017445
-5.9383554 4.4474335 -0.82694674
-5.9816055 4.479825 -0.41742337
-0 0 0
-6.0106235 4.5015574 0.41944835
-5.9354367 4.434063 -0.82579356
-5.9870143 4.4725938 -0.41742337
-5.9781446 4.4659681 0
-6.005652 4.486517 0.41872278
-5.9345737 4.4222555 -0.82492948
-5.9840798 4.459146 -0.41684279
-5.9710116 4.4494081 0
-5.9985709 4.4699445 0.41785222
-5.9336834 4.4104514 -0.82406431
-5.9811215 4.4457116 -0.41626224
-5.9701233 4.4375367 0
-6.0039678 4.4626927 0.41785222
-5.9327731 4.3986554 -0.82319921
-5.9823103 4.4353833 -0.4159717
-5.9692073 4.4256687 0
-6.005177 4.4523368 0.41756168
-5.9318428 4.3868685 -0.82233405
-5.9897604 4.4297013 -0.41611725
-5.9703617 4.4153547 0
-6.0063777 4.4419904 0.41727167
-5.924655 4.3704882 -0.82060486
-5.9846554 4.4147496 -0.41539168
-5.9777927 4.409687 0
-6.0117407 4.4347296 0.41727167
-5.9257689 4.3602633 -0.82002878
-5.9837046 4.4028935 -0.41495612
-5.9810143 4.4009137 0
-6.0087233 4.4213023 0.41669109
-5.9310331 4.3531003 -0.82002878
-5.9911132 4.3971958 -0.41510114
-5.9884315 4.3952279 0
-6.014061 4.4140387 0.41669109
-5.9300256 4.3413453 -0.81916362
-5.9880352 4.3838139 -0.41452056
-5.9832406 4.3803039 0
-6.0130982 4.4021626 0.41625556
-5.9289985 4.3295994 -0.81829852
-5.9912314 4.3750443 -0.41437557
-5.9759145 4.3638592 0
-6.0121155 4.390295 0.41582
-5.923254 4.3199201 -0.81714535
-5.9875731 4.3668294 -0.41394001
-5.9722395 4.3556461 0
-6.0021744 4.3774781 0.41494945
-5.9242902 4.3097196 -0.81656927
-5.9802418 4.3504224 -0.41306946
-5.96908 4.3423028 0
-6.0032606 4.3671679 0.41465944
-5.9253025 4.2995172 -0.81599218
-5.9602566 4.3248806 -0.41132778
-5.9701138 4.3320332 0
-6.006424 4.3583808 0.41451389
-5.9388742 4.2984204 -0.81714535
-5.9549551 4.3100595 -0.41060221
-5.9753437 4.3248162 0
-6.0053773 4.3465538 0.41407889
-5.9272871 4.2791295 -0.81483901
-5.9517317 4.2967772 -0.41002166
-5.9763489 4.3145494 0
-6.0021977 4.3332105 0.41349831
-5.9345584 4.2734804 -0.81512809
-5.9548125 4.2880654 -0.40987667
-5.9794397 4.3058 0
-6.0158634 4.3320284 0.41407889
-5.9229116 4.2542353 -0.81282175
-5.9473228 4.271769 -0.40900555
-5.9804149 4.2955379 0
-6.0126519 4.3186927 0.41349831
-5.9259391 4.2455649 -0.81253266
-5.9545903 4.2660913 -0.40915054
-5.9792519 4.2837601 0
-6.0157471 4.309907 0.41335276
-5.9268599 4.2353969 -0.81195664
-5.9555163 4.2558746 -0.40886053
-5.9759541 4.2704797 0
-6.0146141 4.2981067 0.41291776
-5.9361815 4.2312317 -0.81253266
-5.9585404 4.247169 -0.40871555
-5.9726329 4.2572136 0
-6.0049896 4.2802773 0.41190165
-5.9307518 4.2165637 -0.81109148
-5.9594283 4.2369518 -0.408425
-5.9714074 4.2454681 0
-6.0101571 4.2730184 0.41190165
-5.9358425 4.2093945 -0.81109148
-5.9581828 4.2252374 -0.40798944
-5.968049 4.232234 0
-6.0047202 4.2582388 0.41117609
-5.932478 4.1962447 -0.80993831
-5.963284 4.2180347 -0.40798944
-5.9752812 4.226521 0
-6.009861 4.2509804 0.41117609
-5.9354324 4.1875839 -0.8096503
-5.9577622 4.2033377 -0.40726388
-5.9654961 4.2087946 0
-6.0086212 4.2392201 0.41074052
-5.9235663 4.1685009 -0.80734396
-5.9628367 4.196136 -0.40726388
-5.9812169 4.2090707 0
-6.005239 4.225975 0.41015998
-5.9264836 4.1598558 -0.80705595
-5.9615283 4.184454 -0.40682888
-5.9735217 4.192872 0
-6.0082164 4.2172246 0.41001496
-5.929389 4.1512098 -0.80676788
-5.9580655 4.1712866 -0.40624833
-5.9764538 4.1841602 0
-6.0090461 4.2069783 0.40972441
-5.9195542 4.1336746 -0.80474961
-5.9524431 4.1566415 -0.4055222
-5.9815049 4.1769357 0
-6.0119967 4.1982284 0.40957943
-5.9139347 4.1191292 -0.80330843
-5.9681287 4.1568761 -0.40624833
-5.9780054 4.1637554 0
-6.0106745 4.1865096 0.4091444
-5.9295263 4.1193576 -0.80474961
-5.966743 4.1452127 -0.40581277
-5.974483 4.1505899 0
-6.0071926 4.1733136 0.40856385
-5.9362602 4.1187205 -0.80532563
-5.9628391 4.1371617 -0.40537721
-5.9705729 4.1425276 0
-6.0011735 4.1637588 0.4079833
-5.9369826 4.108604 -0.80474961
-5.9614301 4.1255221 -0.40494221
-5.9712977 4.1323509 0
-6.0040569 4.1550217 0.40783775
-5.9334283 4.0955501 -0.80359644
-5.9557118 4.1109309 -0.40421608
-5.9698591 4.1206961 0
-6.0026641 4.1433396 0.40740275
-5.9405012 4.0898428 -0.80388445
-5.9606748 4.1037316 -0.40421608
-5.9791169 4.1164284 0
-6.0012431 4.1316619 0.40696719
-5.928381 4.0709486 -0.8015781
-5.961349 4.0935874 -0.40392607
-5.9733615 4.1018362 0
-6.0019512 4.1214685 0.40667719
-5.9290318 4.0608621 -0.80100209
-5.9577155 4.0805082 -0.40334553
-5.9718699 4.0902023 0
-6.0112104 4.117147 0.40696719
-5.9253917 4.0478592 -0.79984891
-5.9540596 4.0674434 -0.40276498
-5.9789629 4.084456 0
-6.0075984 4.1040177 0.40638661
-5.9302783 4.0406966 -0.79984891
-5.9675593 4.0660987 -0.40334553
-5.9709854 4.0684333 0
-6.0018182 4.0894413 0.40566108
-5.930882 4.0306234 -0.79927284
-5.9767623 4.0618033 -0.40363553
-5.9866571 4.0685282 0
-6.0024524 4.0792627 0.4053705
-5.9378867 4.0249038 -0.79956084
-5.9472599 4.0312572 -0.40131384
-5.9872646 4.0583739 0
-6.0009308 4.067637 0.40493551
-5.9298854 4.0090313 -0.79783058
-5.9822593 4.0444403 -0.40334553
-5.9964719 4.054049 0
-5.9907708 4.0501943 0.4039194
-5.9347248 4.0018635 -0.79783058
-5.9311314 3.9994402 -0.39957219
-5.9841123 4.0351658 0
-5.982738 4.0342393 0.40304884
-5.9481411 4.0004635 -0.79898375
-5.9639878 4.0111213 -0.40145886
-5.9781799 4.0206661 0
-5.987608 4.0270071 0.40304884
-5.9422326 3.9860704 -0.79754257
-5.9666743 4.0024657 -0.40131384
-5.9614248 3.9989445 0
-5.9903054 4.0183177 0.40290329
-5.9298472 3.9673812 -0.79523623
-5.9715061 3.9952533 -0.40131384
-5.9900479 4.007659 0
-5.9929986 4.0096331 0.40275827
-5.9453917 3.9673903 -0.79667741
-5.987134 3.995245 -0.40203941
-5.9818931 3.9917479 0
-5.9935207 3.999507 0.40246826
-5.8855896 3.9172142 -0.78802919
-5.9768128 3.9779286 -0.4010233
-5.9932137 3.9888442 0
-6.0070014 3.9980209 0.40304884
-6.8211913 4.5280294 -0.91256487
-5.9621334 3.9577715 -0.39971718
-5.9980292 3.9815996 0
-5.9988346 3.9821343 0.40217772
-5.8475971 3.8715692 -0.78168732
-5.9474139 3.9376557 -0.39841107
-10.221089 6.7671647 0
-6.0101438 3.9791877 0.40261328
-5.8652253 3.873055 -0.78341758
-5.9239807 3.9118538 -0.3965244
-10.220572 6.7490735 0
-5.9607406 3.9361279 0.39898494
-5.8851967 3.8709435 -0.78514683
-5.9180312 3.8925402 -0.39565328
-5.9169712 3.8918428 0
-5.9418135 3.9081829 0.39724326
-5.8812189 3.8581545 -0.78399366
-5.9140396 3.8796854 -0.39507273
-5.9129653 3.8789804 0
-5.9465318 3.9010005 0.39724326
-5.8793817 3.8467958 -0.7831285
-5.9122062 3.8682725 -0.3946377
-5.9132967 3.8689859 0
-5.951241 3.8938124 0.39724326
-5.8688688 3.8297985 -0.78111124
-5.9059978 3.8540273 -0.39391217
-5.9245076 3.8661063 0
-5.9494109 3.8823571 0.3968077
-5.8821635 3.8283479 -0.78226441
-5.9106503 3.8468881 -0.39391217
-5.9204502 3.8532662 0
-5.9519219 3.8737495 0.39666271
-5.8802743 3.8170114 -0.78139931
-5.9305444 3.8496428 -0.39492771
-5.9338331 3.8517778 0
-5.9500575 3.8623092 0.39622715
-5.8892202 3.812712 -0.78197533
-5.9351916 3.8424742 -0.39492771
-5.9297447 3.8389475 0
-5.961266 3.8593547 0.39666271
-5.8938231 3.8055933 -0.78197533
-5.9267368 3.8268454 -0.39405715
-5.9387474 3.8346007 0
-5.959374 3.847919 0.39622715
-5.900598 3.7998734 -0.78226441
-5.9248004 3.8154595 -0.39362159
-5.9346242 3.8217857 0
-5.9640193 3.8407154 0.39622715
-5.9030023 3.7913392 -0.78197533
-5.920661 3.8026807 -0.39304104
-5.9414253 3.8160172 0
-5.9708481 3.8349147 0.39637271
-5.9184752 3.7911835 -0.78341758
-5.9340038 3.8011303 -0.39362159
-5.9438424 3.8074329 0
-5.971097 3.8248913 0.39608213
-5.920866 3.7826328 -0.7831285
-5.9451632 3.7981555 -0.39405715
-5.9484386 3.8002481 0
-5.973527 3.8162761 0.39593714
-5.9297991 3.7782583 -0.78370559
-5.9387937 3.7839892 -0.39333159
-5.9596128 3.7972546 0
-5.9781337 3.8090553 0.39593714
-5.9299898 3.7683134 -0.7831285
-5.9521337 3.7823851 -0.39391217
-5.9663911 3.7914453 0
-5.9849229 3.8032215 0.39608213
-5.9498334 3.7708387 -0.78514683
-5.9566998 3.7751904 -0.39391217
-5.9621754 3.7786608 0
-5.9982929 3.8015511 0.39666271
-5.963131 3.7691746 -0.7863
-5.9766259 3.7777045 -0.39492771
-5.9799404 3.7797995 0
-5.9940963 3.7887473 0.39608213
-6.007061 3.7867913 -0.79148871
-5.9811859 3.7704802 -0.39492771
-5.9999075 3.7822821 0
-6.0030704 3.7842758 0.39637271
-6.0335331 3.7932994 -0.79437214
-5.9549446 3.7438905 -0.39289606
-5.9978614 3.7708726 0
-6.0252371 3.7880838 0.3975338
-6.002964 3.7690222 -0.79004753
-5.9748106 3.7513459 -0.39405715
-5.9648819 3.7451119 0
-6.023119 3.7816768 0.39724326
-5.9527116 3.7274504 -0.78284049
-5.9617205 3.7330914 -0.39289606
-5.9826331 3.7461865 0
-6.0078654 3.7619863 0.39593714
-5.9286933 3.7024457 -0.77909297
-5.9684286 3.7272601 -0.39304104
-5.9672904 3.7265494 0
-5.9881606 3.7395828 0.39434046
-5.9265742 3.6911759 -0.77822781
-5.9552827 3.7090559 -0.39187992
-5.9651599 3.7152076 0
-5.9772415 3.7227325 0.39332491
-5.9244447 3.6799219 -0.77736372
-5.9509311 3.6963732 -0.39129937
-5.9740701 3.710746 0
-5.9817357 3.7155073 0.39332491
-5.9178867 3.6659462 -0.77592146
-5.9576082 3.6905525 -0.39144492
-5.9763393 3.7021556 0
-5.9994702 3.7164845 0.39419547
-5.9223123 3.658793 -0.77592146
-5.9554291 3.6792526 -0.39100936
-5.9697313 3.6880887 0
-5.9774289 3.6928442 0.39245379
-5.9267287 3.6516342 -0.77592146
-5.9576602 3.6706922 -0.39086437
-5.9653206 3.6754119 0
-5.9885259 3.6897094 0.39288935
-5.9311366 3.6444705 -0.77592146
-0 0 -0
-0 0 0
-5.9819121 3.6756701 0.39216378
-5.9311295 3.6346009 -0.77534544
-0 0 -0
-0 0 0
-0 0 0
-5.9421401 3.6314793 -0.77621055
-0 0 -0
-0 0 0
-0 0 0
-5.9398956 3.6202569 -0.77534544
-5.9553561 3.6296799 -0.38955769
-5.9607964 3.6329958 0
-0 0 0
-5.9442654 3.6130772 -0.77534544
-5.9641829 3.6251833 -0.38984826
-5.9629602 3.6244402 0
-5.9818439 3.6359184 0.39100268
-5.9441991 3.6032078 -0.77476829
-5.9574504 3.6112406 -0.38912269
-5.9584332 3.6118362 0
-5.9795647 3.6246455 0.39056712
-5.9308491 3.5853233 -0.77246302
-5.9662528 3.6067255 -0.3894127
-5.9650178 3.605979 0
-5.9772754 3.6133888 0.39013213
-5.9396029 3.5808227 -0.7730391
-5.9683833 3.5981736 -0.38926768
-5.9604554 3.5933943 0
-5.9771819 3.603478 0.38984156
-5.9350586 3.5683124 -0.77188593
-5.963819 3.5856037 -0.38868713
-5.9625649 3.5848498 0
-5.9837565 3.5975907 0.38998657
-5.9438066 3.5638011 -0.77246302
-5.9726 3.5810649 -0.38897714
-5.9557343 3.5709524 0
-5.98142 3.5863533 0.38955155
-5.9414468 3.552633 -0.77159792
-5.9702382 3.5698488 -0.38854215
-5.9689789 3.5690958 0
-5.9768281 3.5737891 0.388971
-5.9390683 3.541476 -0.77073276
-5.9767771 3.563962 -0.38868713
-5.9688125 3.5592124 0
-5.9744444 3.562571 0.38853544
-5.9433432 3.5342972 -0.77073276
-5.9699144 3.5500982 -0.38796157
-0 0 0
-0 0 0
-5.9388037 3.5267427 -0.7698676
-5.9720578 3.5464909 -0.38796157
-5.9707828 3.5457335 0
-5.9875965 3.5557182 0.388971
-5.1568098 3.0539353 -0.99916255
-5.9408374 3.5182476 -0.76957959
-5.9785724 3.5405951 -0.38810658
-5.9661055 3.5332117 0
-5.9851789 3.5445073 0.38853544
-5.9384007 3.5071197 -0.76871443
-5.9694262 3.5254428 -0.38723603
-5.9658842 3.523351 0
-5.9872222 3.5359528 0.38839045
-5.9404073 3.4986303 -0.76842642
-5.9669623 3.5142701 -0.38680047
-5.9701371 3.5161397 0
-5.9914904 3.5287158 0.38839045
-5.9334812 3.4849017 -0.76698524
-5.9577651 3.4991643 -0.38592991
-5.9721394 3.5076067 0
-5.9890261 3.5175245 0.38795489
-5.1626492 3.0237863 -0.99745071
-5.9332285 3.4751177 -0.76640916
-5.9575005 3.4893341 -0.38563934
-5.965147 3.4938128 0
-5.9910316 3.5089734 0.38780987
-5.1685224 3.0188444 -0.99787992
-5.9329519 3.4653347 -0.76583207
-5.9617124 3.4821329 -0.38563934
-5.9716096 3.4879138 0
-5.9840508 3.4951804 0.38708434
-5.1810389 3.0177653 -0.99959177
-5.9349017 3.4568627 -0.76554406
-5.9681587 3.4762335 -0.38578436
-5.9713264 3.4780784 0
-5.9837747 3.4853292 0.38679376
-5.1802378 3.0089216 -0.99873501
-5.934597 3.4470882 -0.76496691
-5.9588776 3.4611914 -0.3849138
-5.9665227 3.4656322 0
-5.9834919 3.4754887 0.38650379
-5.1794314 3.0000892 -0.99787992
-5.9298053 3.4347293 -0.76381373
-5.9675479 3.4565909 -0.38520378
-5.9684472 3.4571121 0
-5.9876871 3.4682562 0.38650379
-5.1808233 2.9925411 -0.99745071
-5.9406724 3.4314442 -0.7646789
-5.9582238 3.4415822 -0.38433322
-5.9546003 3.4394891 0
-5.9851213 3.4571185 0.38606822
-5.1888885 2.9888439 -0.99830747
-5.9448142 3.4242635 -0.7646789
-5.9646277 3.4356761 -0.38447824
-5.9745317 3.441381 0
-5.9870443 3.4485884 0.38592321
-5.1724644 2.9710658 -0.99445617
-5.9354949 3.4093506 -0.76294965
-5.9552598 3.4207036 -0.38360769
-5.9696584 3.4289744 0
-0 0 0
-5.1894116 2.9724667 -0.99702317
-5.93961 3.4021764 -0.76294965
-5.9481173 3.4070489 -0.38288212
-5.9737973 3.4217587 0
-5.9908471 3.4315245 0.38563266
-5.184083 2.9611013 -0.99531126
-5.9369769 3.3911471 -0.76208454
-5.9432044 3.3947043 -0.38230157
-5.9688883 3.4093747 0
-5.9927349 3.4229956 0.38548765
-5.1832004 2.9522965 -0.99445617
-5.9343252 3.3801293 -0.76121938
-5.9495573 3.3888054 -0.38244656
-5.9639578 3.3970077 0
-5.9788036 3.4054637 0.38432655
-5.1912236 2.9485645 -0.99531126
-5.929409 3.3678467 -0.76006621
-5.9468675 3.3777628 -0.382011
-5.9680581 3.3897991 0
-5.9806566 3.3969548 0.38418153
-5.1903195 2.9397621 -0.99445617
-5.9379797 3.3632317 -0.76064336
-5.9532032 3.3718541 -0.38215601
-5.9698873 3.381304 0
-5.9757128 3.3846035 0.38360098
-5.1893935 2.9309611 -0.99359941
-5.9397893 3.3547835 -0.76035529
-5.9618025 3.3672166 -0.38244656
-5.9535766 3.3625705 0
-5.986588 3.3812153 0.38403654
-5.1884618 2.9221716 -0.99274433
-5.9393268 3.345063 -0.7597782
-5.9613342 3.3574576 -0.38215601
-5.9553695 3.3540986 0
-5.9793425 3.3676 0.38331044
-5.1835117 2.9152601 -0.99145997
-5.9390945 3.3402076 -0.75949019
-5.9565735 3.3500378 -0.38172099
-5.9528542 3.3479459 0
-5.9723163 3.358892 0.38272986
-5.1915131 2.9115086 -0.99231672
-5.9363561 3.3292322 -0.75862503
-5.9538159 3.3390238 -0.38128543
-5.9568949 3.3407507 0
-5.9786434 3.3529477 0.38287541
-5.1995039 2.907737 -0.99317187
-5.931345 3.3170071 -0.75747186
-5.9510403 3.3280213 -0.3808499
-5.9541197 3.3297434 0
-5.9668131 3.3368421 0.3818593
-5.2030134 2.9014523 -0.99317187
-5.9285779 3.3060622 -0.75660777
-5.9459791 3.3157659 -0.38026932
-5.964951 3.3263454 0
-5.9844527 3.3372207 0.38272986
-5.1808267 2.8726883 -0.98760867
-5.9297619 3.2879615 -0.75574267
-5.9267049 3.2862666 -0.37852764
-5.9638677 3.3068726 0
-5.9811401 3.3164499 0.38200432
-5.2000217 2.8751223 -0.99060488
-5.9269376 3.2770383 -0.75487751
-5.9329519 3.2803638 -0.3786732
-5.9564734 3.2933688 0
-5.9783273 3.3054521 0.3815693
-5.1855078 2.8589218 -0.98718113
-5.9263673 3.2673793 -0.75430143
-5.9346294 3.2719343 -0.37852764
-5.9581718 3.284914 0
-5.9754882 3.294461 0.38113374
-5.1844549 2.8501782 -0.98632437
-5.9280376 3.2589664 -0.75401235
-5.9340286 3.26226 -0.37823766
-5.9552927 3.2739499 0
-5.9771895 3.2859879 0.38098875
-5.2059031 2.8537836 -0.98974812
-5.9319715 3.251801 -0.75401235
-5.9220142 3.2463429 -0.37722152
-5.9546843 3.2642519 0
-5.9697566 3.2725143 0.38026264
-5.2161074 2.851186 -0.99103242
-5.9290938 3.2409129 -0.75314826
-5.932775 3.2429249 -0.37765709
-5.9563427 3.2558074 0
-5.9691505 3.2628083 0.37997264
-5.2127848 2.8411946 -0.98974812
-5.9239216 3.2287953 -0.75199515
-5.929842 3.232022 -0.37722152
-5.955698 3.2461147 0
-5.9708095 3.2543511 0.37982765
-5.2071919 2.8299906 -0.98803627
-5.9209986 3.2179284 -0.75112998
-5.9291811 3.2223756 -0.37693155
-5.9550471 3.236433 0
-5.9770179 3.2483737 0.37997264
-5.2106075 2.8236966 -0.98803627
-5.9180584 3.2070737 -0.75026482
-5.9239321 3.2102568 -0.37635097
-5.9566584 3.2279916 0
-5.9763741 3.2386756 0.37968263
-5.2095032 2.8149602 -0.98718113
-5.9219289 3.1999204 -0.75026482
-5.9346671 3.2068036 -0.37678653
-5.9559798 3.2183197 0
-5.9848509 3.2339201 0.37997264
-5.2016029 2.8025765 -0.98504174
-5.9144082 3.1866295 -0.74882364
-5.9270935 3.1934643 -0.37606043
-5.9667397 3.2148252 0
-5.9704537 3.2168262 0.37881151
-5.2095041 2.7987168 -0.98589683
-5.9205308 3.1807039 -0.74911165
-5.9309478 3.1863 -0.37606043
-5.9545693 3.1989903 0
-5.9743361 3.2096097 0.37881151
-5.2060914 2.7887826 -0.98461252
-5.9243698 3.1735477 -0.74911165
-5.9164782 3.1693203 -0.37489986
-5.9469619 3.1856499 0
-5.969048 3.1974807 0.37823096
-5.2168293 2.7904799 -0.98632437
-5.9148846 3.1638694 -0.74767047
-5.9367132 3.1755452 -0.37606043
-5.9488854 3.1820564 0
-5.9664006 3.1914251 0.37794095
-5.2201977 2.7841744 -0.98632437
-5.9278321 3.1615887 -0.74882364
-5.9245033 3.1598134 -0.37504485
-5.9527264 3.174866 0
-5.9679527 3.1829872 0.3777954
-5.2190289 2.7754564 -0.98546928
-5.9316478 3.154424 -0.74882364
-5.9283171 3.1526525 -0.37504485
-5.9496622 3.1640038 0
-5.9649186 3.172117 0.3773604
-5.2133069 2.764338 -0.98375738
-7.2561846 3.8475666 -0.91544831
-5.9206457 3.1394017 -0.37431931
-5.9488869 3.1543765 0
-5.9710407 3.1661234 0.37750539
-5.2211781 2.7604339 -0.98461252
-7.2631125 3.8400037 -0.91573632
-5.917541 3.1286008 -0.37388375
-5.943491 3.1423206 0
-5.9725671 3.1576929 0.3773604
-5.2245097 2.7541232 -0.98461252
-7.2677469 3.8312249 -0.91573632
-5.9144192 3.1178119 -0.37344819
-5.9518838 3.1375618 0
-5.9740815 3.1492634 0.37721542
