# .PCD v0.7 - Point Cloud Data file format
VERSION 0.7
FIELDS x y z
SIZE 4 4 4
TYPE F F F
COUNT 1 1 1
WIDTH 1959
HEIGHT 1
VIEWPOINT 0 0 0 1 0 0 0
POINTS 1959
DATA ascii
5.6086335 13.090776 0.79548532
7.1327591 16.703875 0
5.6030183 13.121445 0.79693699
7.1135926 16.714882 0
5.6075063 13.176015 0.79983926
7.0964365 16.730646 0
5.6078157 13.221056 0.80216146
7.0762157 16.739208 0
5.5989203 13.244577 0.8031776
7.0509334 16.735758 0
5.5819006 13.248932 0.80303204
8.3021612 19.77235 0
5.5628729 13.248487 0.80259705
8.2742462 19.772764 0
7.9140043 18.911903 1.1451083
8.2313147 19.737108 0
5.5478425 13.302659 0.80506426
5.9801679 14.388205 0
5.5377464 13.323745 0.80593485
5.9517202 14.417974 -0.87125063
5.9483557 14.409824 0
5.5194149 13.370719 0.80796707
5.9580202 14.482827 -0.87473398
5.9438143 14.448297 0
5.5210471 13.420629 0.8105793
5.9372087 14.481949 0
5.5136971 13.448926 0.81188542
5.9226594 14.496342 0
5.4689436 13.385823 0.80767649
7.9816499 19.603561 0
5.432189 13.341885 0.80462873
7.9432826 19.577024 0
5.4053168 13.321951 0.80303204
7.9118171 19.567307 0
5.3892159 13.328472 0.80303204
7.8922014 19.552776 0
5.3860283 13.343781 0.80375814
7.8559456 19.530912 0
5.3776584 13.369564 0.80491924
7.8274999 19.528315 0
5.3566632 13.363986 0.80419314
7.8270626 19.595753 0
5.3222013 13.324607 0.80143589
7.8235893 19.655972 0
5.2868786 13.282743 0.79853314
7.8075094 19.684763 0
5.255497 13.250476 0.79621089
7.7598047 19.633677 0
5.2098775 13.18191 0.79171199
7.726541 19.61883 0
5.1663337 13.118084 0.78750306
7.3634381 18.763323 0
5.1438336 13.107383 0.78648698
7.3360195 18.76008 0
5.1251559 13.106336 0.78605199
7.3001199 18.734985 0
5.0819578 13.042308 0.78184307
7.2661734 18.71468 0
5.0473857 12.999993 0.77894026
7.2285309 18.684612 0
5.0344872 13.013355 0.77937585
0 0 -0
5.9095521 15.33028 0
5.0224981 13.029127 0.7799564
0 0 -0
7.1926899 18.726324 0
5.0169973 13.061862 0.78155249
7.1644745 18.720413 0
5.0411482 13.172269 0.78779364
7.1474147 18.743652 0
5.0437417 13.226899 0.79069585
7.1340027 18.776598 0
5.040678 13.266995 0.79272813
7.1131544 18.790077 0
5.0292425 13.285225 0.79345369
7.0821762 18.776735 0
5.0058503 13.271842 0.79229254
7.0549064 18.7731 0
4.9477644 13.165997 0.7856164
7.0185318 18.74506 0
4.917274 13.13303 0.7832942
6.9849615 18.724266 0
4.8923211 13.114621 0.78184307
7.0081558 18.821157 0
4.8608241 13.054266 0.77806973
6.9745464 18.800331 0
4.8269711 13.011406 0.77516693
6.9491172 18.801418 0
4.768909 12.902682 0.76834577
6.9201021 18.792713 0
4.7425404 12.879175 0.76660413
5.9661369 16.26263 0
4.7251868 12.880022 0.76631409
5.9833684 16.37075 -0.9735688
5.9545221 16.291824 0
4.7444057 12.980896 0.77197415
5.9271331 16.277864 -0.96761823
5.9437346 16.323458 0
6.7760944 18.609392 1.1062132
5.9464483 16.392492 -0.97400439
5.9435329 16.384455 0
4.8397284 13.341613 0.79272813
5.9389992 16.433874 -0.97603607
5.9484944 16.460148 0
4.8147712 13.323009 0.79127645
5.9578662 16.548611 -0.98242217
5.934773 16.484467 0
4.7889895 13.30193 0.7896803
5.9396191 16.560684 -0.98271221
5.9289083 16.530821 0
4.7509832 13.246562 0.78605199
5.9327192 16.604555 -0.98488945
5.9150567 16.55512 0
4.6965055 13.144628 0.77966583
5.9100366 16.604366 -0.98445386
5.9098835 16.603935 0
4.6936898 13.187015 0.78184307
4.6725807 13.178091 -0.78097862
5.9037318 16.650309 0
4.6985936 13.251454 0.78532642
4.6687717 13.218033 -0.7830109
5.9044113 16.716324 0
4.6834426 13.259569 0.78547144
4.6372709 13.17954 -0.78039807
5.8954368 16.75536 0
4.6803522 13.301979 0.78764808
4.6067324 13.143448 -0.77793086
5.9018703 16.8386 0
4.6668549 13.314983 0.78808367
4.5737209 13.09995 -0.77502865
5.8892393 16.86783 0
4.6559038 13.335337 0.78895473
4.5399647 13.053929 -0.77198082
4.6541247 13.382177 0
4.6184492 13.279599 0.78532642
4.5088763 13.015206 -0.76936805
4.6294341 13.363205 0
4.5437102 13.115757 0.77531195
4.4617887 12.929772 -0.76399857
0 0 0
4.4956512 13.027903 0.76979691
4.2358541 12.323308 -0.72786069
0 0 0
4.4714613 13.008757 0.76834577
0 0 -0
0 0 0
4.4624729 13.033816 0.76950693
0 0 -0
4.5383778 13.281695 0
4.4554372 13.038967 0.76965189
0 0 -0
4.5122638 13.257606 0
4.440515 13.046799 0.76979691
4.1536674 12.25252 -0.72263563
4.4820375 13.221149 0
4.4214106 13.042311 0.76921636
4.1255589 12.21814 -0.72031343
4.4643955 13.221629 0
4.4048176 13.045184 0.76907134
4.0975432 12.183719 -0.71799171
4.4409513 13.204816 0
4.3915377 13.057888 0.76950693
4.0745635 12.164018 -0.71654004
4.4200311 13.195361 0
4.3774056 13.068108 0.76979691
4.0360155 12.097452 -0.71233118
4.4024382 13.195759 0
4.3673692 13.090644 0.77081305
3.9927194 12.016022 -0.70725167
4.3815651 13.186246 0
4.3695731 13.150156 0.77400583
3.939014 11.902437 -0.70028555
4.3631783 13.184126 0
0 0 0
3.9091737 11.860296 -0.69752777
4.3496861 13.196795 0
0 0 0
3.8708143 11.84008 -0.69578665
4.3177824 13.207269 0
4.310811 13.185946 0.77487695
3.8540909 11.837334 -0.69535106
4.3034334 13.21743 0
4.2948751 13.191145 0.77487695
3.8341739 11.824677 -0.69433498
4.2914724 13.234997 0
4.2781296 13.193846 0.7747314
3.8142931 11.81199 -0.69331884
4.2762766 13.242646 0
4.2621841 13.199005 0.7747314
3.7928593 11.79433 -0.69201273
4.260272 13.247804 0
4.2478251 13.209098 0.77502191
3.7770219 11.79396 -0.69172275
4.2482328 13.265342 0
4.2286916 13.204322 0.77444136
3.7580297 11.783656 -0.69085163
4.2353611 13.280374 0
4.2158914 13.219324 0.77502191
3.7351394 11.760953 -0.68925554
4.2248263 13.302846 0
4.1983409 13.219451 0.7747314
3.709172 11.728293 -0.6870783
4.2118883 13.317867 0
4.188633 13.244334 0.7758925
3.6887536 11.712938 -0.68591714
4.2043934 13.350254 0
4.1765285 13.261776 0.77661806
3.6652708 11.687644 -0.68417603
4.1937079 13.372701 0
4.1721654 13.304006 0.7787953
3.6449494 11.672222 -0.68301493
4.1837525 13.397632 0
4.1700273 13.353679 0.78140754
3.6348047 11.664498 -0.68243438
4.1864986 13.434947 0
4.1720076 13.388443 0.7832942
3.6207078 11.668882 -0.68243438
5.8353004 18.80611 0
6.0053878 19.354271 1.131901
3.6035376 11.663318 -0.68185383
5.8256321 18.855415 0
5.9743285 19.336691 1.13045
3.5863857 11.657729 -0.68127328
5.8189139 18.914675 0
5.9501963 19.341415 1.1303049
3.5684927 11.649634 -0.68054771
5.8112998 18.97146 0
5.9214935 19.331198 1.1292888
3.5483494 11.634054 -0.67938662
5.8179798 19.075542 0
5.8981314 19.338337 1.1292888
3.5237172 11.603519 -0.67735434
5.8168559 19.154774 0
5.8717403 19.335505 1.1287082
3.5036807 11.58788 -0.67619377
5.8087711 19.211611 0
5.8438621 19.327667 1.1278378
3.485929 11.579658 -0.67546767
5.8013067 19.270945 0
5.8264961 19.35462 1.1289989
3.4711895 11.581374 -0.67532265
5.7937078 19.33029 0
5.8157873 19.403957 1.131466
3.462395 11.602992 -0.67633879
5.7941575 19.417068 0
5.8071947 19.46076 1.1343683
3.4505932 11.614642 -0.67677438
5.8018188 19.52883 0
5.8221564 19.597286 1.1419156
3.4365566 11.618803 -0.67677438
5.7959332 19.595722 0
5.8095255 19.641676 1.1440922
3.4217789 11.620447 -0.67662877
5.7965097 19.685093 0
5.8085423 19.725956 1.1485916
3.4062748 11.619592 -0.67633879
5.8151784 19.836918 0
6.7729244 23.10401 1.3448097
3.3958714 11.636168 -0.67706436
5.8451567 20.028797 0
6.7450027 23.112177 1.3448097
3.3803606 11.635277 -0.67677438
5.8354731 20.085829 0
6.7134471 23.107836 1.3440841
3.3662992 11.639353 -0.67677438
5.8119211 20.095364 0
6.6833572 23.10845 1.3436491
3.352951 11.645906 -0.67691934
5.7847552 20.092367 0
6.6532726 23.109016 1.3432136
3.3388767 11.64995 -0.67691934
5.7633414 20.10935 0
5.7455559 20.047291 1.1648462
3.3262219 11.658968 -0.67720938
5.7404656 20.1213 0
5.7170525 20.039232 1.1639756
3.3149714 11.672977 -0.67778993
5.7374763 20.203321 0
5.6857347 20.021124 1.162524
3.307934 11.701983 -0.6792416
5.7371287 20.295383 0
5.6551781 20.005478 1.1612178
3.3008637 11.70398 -0.6792416
5.7467661 20.376495 0
5.6367435 19.986385 1.1599118
3.2846117 11.700453 -0.67880601
5.7488689 20.478634 0
5.6055679 19.968168 1.1584606
3.2676747 11.694403 -0.67822546
5.7423282 20.55073 0
5.5744424 19.949896 1.157009
3.2528462 11.695841 -0.6780805
5.7349253 20.620335 0
5.5475478 19.946604 1.1564283
3.2359388 11.689746 -0.67749989
6.3341556 22.881975 0
5.5185914 19.93577 1.1554128
3.2211194 11.691135 -0.67735434
6.3085771 22.897141 0
5.4924278 19.934906 1.1549773
3.2069907 11.695019 -0.67735434
6.2753997 22.884668 0
5.4607768 19.91396 1.1533806
3.1908066 11.691372 -0.67691934
6.2456899 22.88471 0
5.4332905 19.908012 1.152655
3.1814435 11.712765 -0.67793489
6.2153049 22.882195 0
5.4044657 19.897017 1.1516395
3.1767831 11.751723 -0.67996716
6.1849351 22.879637 0
6.3886809 23.633345 1.3674504
3.1646044 11.763073 -0.68040216
6.1532273 22.872011 0
6.3769956 23.703773 1.3710786
3.1557648 11.786969 -0.68156326
6.1228943 22.869373 0
6.3591018 23.751623 1.3734009
3.140852 11.788265 -0.68141824
6.0952563 22.876755 0
6.3411021 23.799463 1.3757231
3.1252751 11.787033 -0.68112826
6.066277 22.879076 0
6.317668 23.827202 1.3768842
3.1110306 11.790801 -0.68112826
6.0366354 22.878838 0
6.2795906 23.799639 1.3748521
3.0948012 11.787009 -0.68069267
6.0056825 22.873531 0
6.2541304 23.819782 1.3755782
3.0805566 11.79074 -0.68069267
5.973434 22.863144 0
6.2260003 23.829834 1.3757231
3.0702291 11.809538 -0.68156326
5.9458041 22.870344 0
6.1965489 23.834826 1.3755782
3.0559573 11.813239 -0.68156326
5.9142561 22.8624 0
6.1638389 23.827198 1.374707
3.0468631 11.837054 -0.68272436
5.8853283 22.864485 0
6.132453 23.824562 1.3741264
3.0396502 11.868419 -0.68432105
5.8544688 22.858974 0
6.1055956 23.839508 1.374562
3.0297968 11.889702 -0.68533659
5.8255601 22.860994 0
6.0710115 23.824209 1.3732558
3.0167067 11.898396 -0.68562716
5.7960134 22.860445 0
6.0428581 23.834044 1.3734009
2.9997854 11.891954 -0.68504661
5.7652044 22.854816 0
6.0140553 23.841328 1.3734009
2.9900641 11.883685 -0.68446606
5.750761 22.855774 0
5.9939446 23.822281 1.3720948
2.9788573 11.89989 -0.68519163
5.7212439 22.855131 0
5.9651556 23.829506 1.3720948
2.9713845 11.931219 -0.68678826
5.6955109 22.869606 0
5.9344735 23.829128 1.3716592
2.9819591 12.035679 -0.69259328
5.6741309 22.901728 0
5.903801 23.828712 1.3712237
5.6702085 23.125158 0
5.8431058 23.830296 1.3704981
5.6730943 23.258396 0
5.806303 23.804522 1.3686115
5.6640105 23.343639 0
5.7805986 23.824144 1.369337
5.6724339 23.502249 0
5.7542462 23.841215 1.3699175
5.6604338 23.577404 0
5.7230082 23.838045 1.369337
5.6796932 23.784193 0
5.705668 23.892965 1.3720948
5.6738038 23.887251 0
5.711019 24.043932 1.380367
5.6987858 24.122026 0
5.6945081 24.103918 1.3834149
5.7130914 24.313837 0
6.351851 27.032276 1.5510427
5.6973286 24.379002 0
6.3174086 27.032337 1.5506071
5.6849527 24.459379 0
6.2870936 27.050076 1.5511876
5.654809 24.463697 0
4.6012893 19.905987 1.1411901
5.3652163 23.339354 0
4.5859642 19.949511 1.1433667
5.3468704 23.388948 0
4.5595393 19.944904 1.1427861
5.3278365 23.435995 0
4.5388937 19.965609 1.1436572
5.3012366 23.450033 0
4.2363214 18.739376 1.0731231
5.7277904 25.480003 0
4.2170935 18.759687 1.0739937
5.7180033 25.580877 0
4.1915894 18.752092 1.0732681
5.7002831 25.574165 0
4.1779985 18.744478 1.0726875
3.1900613 14.394009 -0.82350272
5.65868 25.532766 0
4.1575952 18.759659 1.0732681
3.1642785 14.359787 -0.82132548
5.6183019 25.496372 0
5.4192743 24.593166 1.406636
3.1469252 14.3636 -0.82132548
5.0973811 23.266121 0
5.3912234 24.607313 1.4070716
3.117954 14.314077 -0.81827766
5.0725894 23.287525 0
5.3742046 24.672197 1.4104093
3.0951574 14.292443 -0.81682658
5.037837 23.263115 0
5.3548388 24.726927 1.4131671
3.0718689 14.268228 -0.81522989
5.0053425 23.248833 0
5.3391757 24.799421 1.4169405
3.0551696 14.274467 -0.81537491
4.9674439 23.209061 0
5.3021374 24.772825 1.4150538
3.0417054 14.295941 -0.81639099
4.9827228 23.418678 0
5.2559786 24.702972 1.4107
3.0222785 14.289437 -0.81581044
4.9700394 23.498518 0
5.8901367 27.84877 1.5899378
3.008219 14.308341 -0.81668156
4.9405704 23.499407 0
5.8452563 27.802469 1.58689
2.9893329 14.304333 -0.81624597
4.905252 23.472244 0
5.8100629 27.80188 1.5864545
2.9709888 14.302841 -0.81595546
4.8774157 23.480701 0
5.7579708 27.719841 1.581375
2.9463499 14.270799 -0.81392378
4.8721933 23.598722 0
5.7213211 27.711515 1.5805044
2.9270151 14.264167 -0.81334323
4.8536134 23.653023 0
5.6679859 27.621687 1.5749894
2.9040651 14.239684 -0.81174654
4.8146291 23.60787 0
5.6237025 27.57505 1.5719416
2.88273 14.222819 -0.81058598
4.7835155 23.60092 0
5.6001849 27.630205 1.5746989
2.8763168 14.279782 -0.81363374
4.7755504 23.708733 0
5.5642304 27.624218 1.5739733
4.7836757 23.898211 0
5.530848 27.63092 1.5739733
4.7629194 23.944813 0
5.4984703 27.642675 1.5742633
4.7516441 24.039902 0
5.4695997 27.672239 1.5755694
4.7311192 24.089037 0
5.4411678 27.70433 1.5770211
4.7030048 24.09984 0
5.4116702 27.731287 1.5781822
4.4891148 23.152573 0
5.3771682 27.7327 1.5778917
4.4761147 23.160395 0
5.3609047 27.738491 1.5780367
4.6934876 24.443624 0
5.3381648 27.801094 1.58123
4.6737022 24.500404 0
5.4043775 28.33074 1.6109818
4.6489396 24.531599 0
5.366756 28.319386 1.6099663
4.6144805 24.511627 0
5.3402238 28.366697 1.6122879
4.3308473 23.158873 0
5.3102427 28.396114 1.6135941
4.3057117 23.179436 0
5.2745051 28.394852 1.6131591
4.2937551 23.271633 0
5.2430196 28.416533 1.6140296
4.2679796 23.289612 0
5.2044649 28.399845 1.6127235
0 0 -0
4.2500873 23.351076 0
5.1682844 28.395887 1.6121429
0 0 -0
4.4338775 24.529066 0
5.4459429 30.128008 1.7101072
0 0 -0
4.3959594 24.488304 0
5.3897943 30.024599 1.7038666
0 0 -0
4.3627133 24.473101 0
5.3571582 30.051544 1.7050271
0 0 -0
4.3317776 24.470663 0
5.3172212 30.037537 1.7038666
0 0 -0
4.3022065 24.47588 0
5.2836208 30.05929 1.7047372
0 0 -0
4.2699451 24.465683 0
5.2464018 30.060528 1.7044466
0 0 -0
4.2310491 24.416977 0
5.2118506 30.077085 1.7050271
0 0 -0
4.2068381 24.452848 0
5.1728616 30.068001 1.7041566
0 0 -0
4.1842971 24.498951 0
5.1417766 30.104967 1.7058983
0 0 -0
4.1573029 24.519388 0
5.100184 30.080414 1.7041566
0 0 -0
4.1294007 24.53466 0
5.0608149 30.068615 1.7031405
0 0 -0
5.0986447 30.747175 0
3.8587506 23.270044 1.3175251
0 0 -0
5.0581079 30.732771 0
3.8217692 23.220848 1.3144773
0 0 -0
3.8823981 23.768417 0
3.7849123 23.171598 1.3114295
0 0 -0
3.8718009 23.793884 0
3.7671568 23.150801 1.3101234
0 0 -0
3.8318455 23.729174 0
3.732553 23.114292 1.3078012
2.3611107 14.734573 -0.8335166
3.8105819 23.780035 0
3.6935217 23.049519 1.3038828
2.354321 14.806696 -0.83743495
3.7744904 23.738363 0
3.6607718 23.02317 1.3021412
2.3173974 14.688902 -0.83061385
3.7445889 23.735203 0
3.6365941 23.050674 1.3034472
2.3080852 14.7456 -0.83366162
3.715503 23.737131 0
3.6091406 23.057617 1.3035923
2.2950511 14.77919 -0.83540332
3.6924105 23.777613 0
3.5856638 23.090208 1.305189
2.2708616 14.740862 -0.83308107
3.6692238 23.818062 0
3.5569692 23.089382 1.3048984
2.2487319 14.715347 -0.83148497
3.6341515 23.781315 0
3.5306377 23.103937 1.3054789
2.239516 14.77457 -0.83467776
3.5890331 23.677624 0
4.6463933 30.653255 1.7317317
2.2212763 14.774697 -0.83453274
3.5472662 23.594446 0
4.6116686 30.674259 1.7326022
2.2007396 14.759377 -0.8335166
3.46157 23.215204 0
4.5776672 30.700371 1.7337633
2.1855652 14.780022 -0.83453274
3.4228568 23.147285 0
3.4668219 23.444599 1.3237658
2.1665735 14.774937 -0.83409721
3.4077227 23.238947 0
3.4411304 23.46677 1.3247818
2.1513369 14.795547 -0.83511329
3.4197085 23.51861 0
3.4239891 23.54805 1.3291358
2.133086 14.795556 -0.83496773
3.4053996 23.620604 0
3.4003532 23.585602 1.3310224
2.1210897 14.839279 -0.83728999
3.3823788 23.663338 0
3.3751609 23.612841 1.3323286
2.1027937 14.839261 -0.83714497
3.3523233 23.657101 0
3.3506374 23.645205 1.3339251
2.0935369 14.903547 -0.84062833
3.3179433 23.619898 0
3.3245935 23.66724 1.3349408
2.0708675 14.872602 -0.83874106
3.276123 23.52853 0
3.2974274 23.681536 1.3355213
2.0607114 14.931727 -0.84193444
3.2345269 23.437086 0
3.2712975 23.703524 1.3365374
2.0479488 14.972816 -0.84411108
3.1864567 23.296591 0
3.2419491 23.702305 1.3362468
2.0253186 14.941809 -0.84222442
3.1520121 23.254 0
3.2122612 23.698486 1.3358119
3.1369195 23.248169 0
4.1923361 31.070017 1.7511796
3.1191723 23.329325 0
4.1558232 31.082779 1.7516146
3.1794953 24.001249 0
4.110074 31.025965 1.7481318
3.1369474 23.901869 0
4.0823879 31.105621 1.7523407
3.1077278 23.903053 0
0 0 0
3.0678751 23.821623 0
4.1973748 32.59203 1.835501
1.7155749 13.44946 -0.75732243
3.0081356 23.582649 0
4.1570039 32.58934 1.8350655
1.7006253 13.461836 -0.75790298
2.9594171 23.426199 0
4.1221828 32.630436 1.8370976
1.6824222 13.448405 -0.75703186
2.921418 23.352291 0
4.0885577 32.681801 1.8397099
1.665852 13.447852 -0.7568869
2.8954377 23.373877 0
4.0461907 32.663509 1.8384038
1.6483364 13.439539 -0.75630635
2.8652925 23.361864 0
4.0076694 32.676117 1.8388393
2.8483541 23.458307 0
3.972568 32.717041 1.840871
2.828393 23.531498 0
3.9383044 32.765675 1.8433383
2.8054912 23.581411 0
3.9057701 32.829746 1.846676
2.7760825 23.577028 0
3.8697453 32.86541 1.8484178
1.5833507 13.58862 -0.76414359
2.7475922 23.580364 0
3.8348427 32.911358 1.85074
1.5669304 13.590524 -0.76414359
2.7188001 23.581085 0
3.7965608 32.928871 1.8514655
1.5469737 13.561426 -0.76240188
2.6900103 23.581768 0
3.760304 32.964417 1.8532072
1.5291296 13.550378 -0.76167637
2.6609302 23.579824 0
0 0 0
1.5101615 13.528976 -0.76037025
2.6324368 23.583023 0
3.6362405 32.575729 1.8308566
1.4926727 13.52046 -0.75978965
2.6030834 23.578434 0
3.5971625 32.582691 1.8310021
1.4737968 13.499008 -0.75848353
2.5737438 23.573797 0
3.5611742 32.618008 1.8327438
1.4555323 13.482693 -0.75746745
2.5416267 23.543257 0
3.5237105 32.640366 1.8337593
1.4353797 13.448274 -0.75543576
2.51511 23.564417 0
3.4914382 32.711773 1.8375326
1.4242381 13.420712 -0.75383908
1.4301021 13.475969 0
3.4741433 32.737137 1.8388393
1.4050395 13.394005 -0.75224298
1.4143615 13.482869 0
3.4356678 32.75164 1.8394194
1.3864419 13.372423 -0.75093633
1.3972636 13.4768 0
3.4046662 32.838474 1.8440638
1.370283 13.374089 -0.75093633
1.3801825 13.470709 0
3.3729298 32.920105 1.8484178
1.354122 13.375735 -0.75093633
1.3641677 13.474964 0
3.3561802 33.151649 1.8611895
1.3369247 13.36702 -0.75035572
1.343482 13.432582 0
3.323102 33.225483 1.8651078
1.3197504 13.358281 -0.74977517
1.3246912 13.408292 0
3.280654 33.206203 1.8638016
0 0 -0
1.3160707 13.487583 0
3.2281644 33.083435 1.8566905
1.2842251 13.32781 -0.74788851
1.3010205 13.502113 0
3.1844487 33.048512 1.8545133
1.2678742 13.326768 -0.74774349
1.2869239 13.527 0
3.1437752 33.044571 1.8540777
1.2512851 13.323121 -0.74745351
1.2720379 13.544087 0
3.1053033 33.063873 1.8549489
1.2351857 13.324623 -0.74745351
4.9455075 53.349888 0
3.0718248 33.137451 1.8588672
1.2200315 13.336456 -0.74803406
0 0 0
3.015923 32.967773 1.8491433
1.1891813 13.35489 -0.74890465
2.9704375 33.358971 0
2.9238002 32.83522 1.8413066
1.173726 13.364085 -0.74934018
2.9317214 33.380684 0
2.8909428 32.916378 1.8456604
1.1571283 13.360312 -0.7490496
2.8837507 33.296055 0
2.8592384 33.013031 1.8508849
1.1414268 13.366882 -0.74934018
4.5552826 53.345451 0
2.8208942 33.034588 1.8519011
1.1246206 13.360482 -0.74890465
0 0 0
2.7827201 33.058685 1.8530622
1.1071877 13.346298 -0.74803406
0 0 0
2.7455657 33.095688 1.8549489
0 0 0
2.7034564 33.073078 1.8534971
0 0 0
2.6691236 33.146252 1.857416
0 0 0
2.6274276 33.128731 1.8562549
0 0 0
2.5831478 33.077484 1.8532072
4.1379814 53.402931 0
2.564167 33.091988 1.8539327
0 0 0
2.5239825 33.092476 1.8537878
0 0 0
2.484967 33.108452 1.8545133
3.8117599 51.621632 0
2.4447689 33.108841 1.8543683
3.7478743 51.605434 0
2.4013741 33.065128 1.8517561
3.6862581 51.620308 0
2.3588281 33.031715 1.8497238
3.6169577 51.526077 0
2.318186 33.024174 1.8491433
3.5620387 51.636856 0
2.3446209 33.98864 1.9029874
3.500875 51.659302 0
2.3054833 34.01997 1.9045841
3.4553883 51.917961 0
0 0 0
0 0 0
0 0 0
3.3309119 51.941738 0
2.1277742 33.180191 1.8571255
3.2665141 51.919754 0
2.1418467 34.043678 1.9053096
3.2010524 51.879509 0
2.0981498 34.004745 1.9029874
3.1364782 51.852165 0
2.0548639 33.970951 1.9009557
3.0790582 51.944244 0
2.014276 33.981182 1.9013907
3.0171964 51.963509 0
1.9664376 33.866871 1.8948601
0 0 -0
2.9582474 52.034676 0
1.9148961 33.682446 1.8844106
0 0 -0
2.8937809 52.009628 0
1.8691436 33.593925 1.8793306
0 0 -0
2.8337641 52.06506 0
1.829963 33.622112 1.8807822
0 0 -0
2.768362 52.021664 0
1.787679 33.593159 1.8790406
0 0 -0
2.7090163 52.092548 0
1.7493808 33.639408 1.8815079
0 0 -0
2.6442223 52.059391 0
1.7113692 33.693398 1.8844106
0 0 -0
2.6037698 51.881645 0
1.6958318 33.790447 1.8897806
0 0 -0
2.5403154 51.86916 0
1.6546199 33.784683 1.889345
0 0 -0
2.4727972 51.770809 0
1.6182591 33.880085 1.8945695
0 0 -0
2.4076991 51.719166 0
1.5799791 33.939125 1.8977629
0 0 -0
2.3421402 51.654449 0
1.538851 33.938404 1.8976173
0 0 -0
2.2801831 51.667641 0
1.4981858 33.948029 1.8980529
0 0 -0
2.2146263 51.597553 0
1.4568307 33.942024 1.8976173
0 0 -0
2.1529303 51.615799 0
1.4140851 33.902229 1.8952956
0 0 -0
2.0903502 51.613159 0
1.7288302 42.686813 2.386277
0 0 -0
2.0272694 51.59745 0
1.676638 42.673286 2.3854058
0 0 -0
1.9640312 51.576458 0
1.6301169 42.807701 2.3928075
0 0 -0
1.898929 51.503376 0
1.5850925 42.991402 2.402967
0 0 -0
1.8383651 51.552441 0
1.5408305 43.208813 2.4150133
0 0 -0
1.7708759 51.403774 0
1.4968499 43.449539 2.428365
0 0 -0
0 0 0
1.4496144 43.60973 2.4372182
0 0 -0
0 0 0
1.402576 43.788044 2.4470873
0 0 -0
0 0 0
1.3530276 43.898785 2.4531827
0 0 -0
2.0891812 70.551552 0
1.3035982 44.022453 2.4600039
0 0 -0
2.002528 70.504601 0
1.2527652 44.107101 2.4646478
0 0 -0
0 0 0
1.200317 44.139755 2.4663894
0 0 -0
0 0 0
1.1484669 44.198326 2.4695828
0 0 -0
0 0 0
1.0957046 44.225651 2.471034
0 0 -0
0 0 0
1.0445919 44.325653 2.4765489
0 0 -0
0 0 0
0.99312288 44.420391 2.4817734
0 0 -0
0 0 0
0 0 0
0 0 -0
0 0 0
1.0330645 50.285282 2.8093364
0 0 -0
0 0 0
0.97235394 50.289089 2.8094814
0 0 -0
0 0 0
0.91097653 50.256454 2.8075948
0 0 -0
1.1253077 66.515869 0
0.84923995 50.197769 2.8042569
0 0 -0
1.04469 66.501564 0
0.7879321 50.157188 2.8019347
0 0 -0
0.88352919 66.47007 0
0.66557992 50.073208 2.7971451
0 0 -0
0.80343264 66.489304 0
0.60419679 50.001236 2.793082
0 0 -0
0.72360206 66.537064 0
0.54355353 49.981144 2.7919207
0 0 -0
0.6448648 66.709641 0
0.48285928 49.950584 2.790179
0 0 -0
0.56533724 66.837875 0
0.42131665 49.810822 2.782342
0 0 -0
0.48502913 66.90097 0
0.36892831 50.886971 2.8424265
0 0 -0
0 0 0
0 0 0
0 0 -0
0.32349271 66.93058 0
0 0 0
0 0 -0
0 0 0
0.18089569 49.903214 2.7874212
0 0 -0
0.16185373 66.975403 0
0.12047171 49.85144 2.7845192
0 0 -0
0 0 0
0.06034578 49.942486 2.7895985
-0 0 -0
-0 0 0
-0 49.895756 2.7869864
-0 0 -0
-0 0 0
-0 0 0
-0 0 -0
-0 0 0
-0 0 0
-0 0 -0
-0 0 0
-0 0 0
-0 0 -0
-0 0 0
-0 0 0
-0 0 -0
-0 0 0
-0.27130044 49.89502 2.7869864
-0 0 -0
-0 0 0
-0.33172676 49.91544 2.7881474
-0 0 -0
-0 0 0
-0.39191708 49.899406 2.7872763
-0 0 -0
-0 0 0
-0.45268145 49.950867 2.790179
-0 0 -0
-0 0 0
-0.5122897 49.877529 2.7861152
-0 0 -0
-0 0 0
-0 0 0
-0 0 -0
-0 0 0
-0 0 0
-0 0 -0
-0 0 0
-0 0 0
-0 0 -0
-0 0 0
-0 0 0
-0 0 -0
-0 0 0
-0 0 0
-0 0 -0
-0 0 0
-0 0 0
-0 0 -0
-0 0 0
-0 0 0
-0 0 -0
-0 0 0
-0 0 0
-0 0 -0
-0 0 0
-0 0 0
-0 0 -0
-0 0 0
-0 0 0
-0 0 0
-0 0 0
-0 0 -0
-0 0 0
-0 0 0
-0 0 -0
-0 0 0
-0 0 0
-0 0 -0
-0 0 0
-0 0 0
-0 0 -0
-0 0 0
-0 0 0
-0 0 0
-0 0 0
-0 0 0
-0 0 0
-0 0 0
-0 0 0
-3.7225075 111.98671 0
-0 0 0
-0 0 -0
-0 0 0
-1.6520627 47.954948 2.6801693
-0 0 -0
-0 0 0
-1.7109315 47.978878 2.6816204
-0 0 -0
-0 0 0
-0 0 0
-0 0 -0
-0 0 0
-0 0 0
-0 0 -0
-0 0 0
-0 0 0
-0 0 0
-0 0 0
-0 0 -0
-0 0 0
-0 0 0
-0 0 -0
-0 0 0
-0 0 0
-0 0 -0
-0 0 0
-0 0 0
-0 0 0
-0 0 0
-0 0 -0
-0 0 0
-0 0 0
-0 0 -0
-0 0 0
-0 0 0
-0 0 -0
-0 0 0
-0 0 0
-0 0 -0
-0 0 0
-0 0 0
-0 0 -0
-0 0 0
-3.3900349 66.742935 3.732811
-0 0 -0
-0 0 0
-3.4694638 66.715439 3.7315049
-0 0 -0
-0 0 0
-3.5547683 66.799416 3.7364395
-0 0 -0
-0 0 0
-3.6361856 66.808037 3.737165
-0 0 -0
-0 0 0
-0 0 0
-0 0 -0
-0 0 0
-0 0 0
-0 0 0
-3.9485209 68.003197 3.8047962
-0 0 -0
-0 0 0
-4.0314555 68.011353 3.8055224
-0 0 -0
-0 0 0
-4.1142588 68.016808 3.806103
-0 0 0
-0 0 0
-0 0 -0
-0 0 0
-0 0 0
-0 0 -0
-0 0 0
-5.905127 91.220703 5.1059046
-0 0 -0
-0 0 0
-0 0 0
-0 0 -0
-0 0 0
-0 0 0
-0 0 -0
-0 0 0
-0 0 0
-0 0 -0
-0 0 0
-0 0 0
-0 0 -0
-0 0 0
-0 0 0
-0 0 -0
-0 0 0
-0 0 0
-0 0 -0
-0 0 0
-0 0 0
-0 0 -0
-0 0 0
-0 0 0
-0 0 -0
-0 0 0
-0 0 0
-0 0 -0
-0 0 0
-0 0 0
-0 0 -0
-0 0 0
-0 0 0
-0 0 -0
-0 0 0
-0 0 0
-0 0 0
-0 0 0
-0 0 0
-0 0 0
-0 0 -0
-0 0 0
-0 0 0
-0 0 0
-0 0 0
-0 0 0
-0 0 0
-0 0 -0
-0 0 0
-0 0 0
-0 0 0
-0 0 0
-0 0 0
-0 0 0
-0 0 -0
-0 0 0
-0 0 0
-0 0 0
-8.0540142 88.040359 4.9381323
-0 0 -0
-0 0 0
-0 0 0
-0 0 0
-0 0 0
-0 0 -0
-0 0 0
-0 0 0
-0 0 -0
-0 0 0
-5.4061961 56.463303 3.1682477
-0 0 0
-5.4761724 56.474834 3.1692638
-0 0 0
-5.5426297 56.450073 3.1682477
-0 0 -0
-0 0 0
-5.609035 56.425232 3.1672316
-5.7072458 56.716904 0
-0 0 0
-5.7657533 56.611584 0
-0 0 0
-5.8376222 56.638237 0
-0 0 0
-5.9011946 56.584545 0
-7.9736691 76.456795 4.293746
-5.9761157 56.639488 0
-8.0619574 76.408348 4.2915692
-0 0 -0
-0 0 0
-8.1614456 76.465729 4.2953424
-0 0 0
-0 0 0
-0 0 0
-7.9818606 73.108582 4.107832
-0 0 0
-8.0642042 73.044647 4.104784
-0 0 0
-8.1539001 73.04776 4.1055098
-9.1635303 81.202591 0
-8.2418671 73.035278 4.1053648
-0 0 -0
-9.2554464 81.137161 0
-8.330699 73.030434 4.1056552
-0 0 -0
-9.3546705 81.136261 0
-8.4231024 73.05645 4.107687
-0 0 0
-8.5095663 73.030739 4.1068163
-0 0 0
-8.6002331 73.041039 4.1079769
-0 0 -0
-0 0 0
-8.6894045 73.038338 4.1084123
-0 0 0
-8.7754803 73.009727 4.1073971
-0 0 0
-8.867137 73.027443 4.1089931
-8.9353323 73.219376 0
-8.9162912 73.063339 4.1113153
-9.0362129 73.30925 0
-9.0045671 73.052513 4.1113153
-9.1280012 73.324097 0
-9.0915461 73.031265 4.1107349
-9.2143211 73.294945 0
-9.1836729 73.051163 4.1124763
-9.2999258 73.260521 0
-9.2699709 73.024544 4.1116052
-9.3808317 73.189865 0
-9.3615036 73.039062 4.1130571
-9.4892979 73.333321 0
-9.4500837 73.030273 4.1132021
-9.5755396 73.303734 0
-9.5410118 73.039413 4.1143632
-9.6630859 73.284378 0
-9.6299372 73.032982 4.1146531
-7.6344132 57.364128 0
-9.7195473 73.031593 4.1152334
-7.7051072 57.365181 0
-9.8108978 73.042976 4.11654
-7.7468014 57.1521 0
-9.8994989 73.033646 4.1166854
-0 0 0
-9.9916105 73.049942 4.1182814
-7.7737589 55.829746 0
-10.172773 73.059044 4.1201682
-0 0 -0
-7.8176813 55.652798 0
-10.259236 73.033829 4.1194425
-0 0 -0
-7.8728733 55.558292 0
-10.351122 73.047112 4.1208944
-0 0 -0
-7.9326334 55.497211 0
-10.439378 73.034554 4.1208944
-0 0 -0
-7.9985709 55.479855 0
-10.5291 73.032166 4.1214743
-8.0685978 55.490753 0
-10.619955 73.037392 4.1224904
-8.1382847 55.498989 0
-10.708199 73.024506 4.1224904
-8.2060995 55.494263 0
-10.802508 73.052643 4.1248126
-8.2727642 55.481735 0
-10.889237 73.029259 4.1242318
-8.3035841 55.458706 0
-10.938743 73.058632 4.1262636
-8.3702002 55.44606 0
-11.027012 73.045364 4.1262636
-7.9195428 52.034744 0
-11.11331 73.019142 4.1255379
-8.5246897 55.559425 0
-11.20429 73.023643 4.126554
-0.82854223 5.3568139 -0.30276904
-8.5806799 55.477081 0
-11.291721 73.004913 4.1262636
-0.83381301 5.348104 -0.30233347
-8.6541195 55.507805 0
-0 0 0
-0.84067911 5.3496671 -0.30247903
-8.7211838 55.497311 0
-0 0 0
-0 0 -0
-8.7874212 55.481594 0
-0 0 0
-0.82782763 5.1861329 -0.58537042
-0 0 -0
-8.8556843 55.478649 0
-10.996094 68.887779 3.8965199
-0.83696938 5.2030067 -0.58738875
-0 0 -0
-8.9115534 55.398529 0
-0 0 0
-0 0 -0
-0 0 -0
-7.8320971 48.315723 0
-0 0 0
-0 0 -0
-0 0 -0
-7.8812423 48.249725 0
-0 0 0
-0 0 -0
-0.87015635 5.2870197 -0.29928568
-9.1296368 55.471146 0
-0 0 0
-0 0 -0
-0.87654406 5.2859645 -0.29928568
-9.2000618 55.480614 0
-5.7808738 34.861332 1.9738115
-0 0 -0
-0.87993443 5.2669683 -0.29827014
-9.2649488 55.456623 0
-5.8285604 34.887646 1.9756987
-0 0 -0
-0.88327855 5.247962 -0.297254
-9.3358383 55.468483 0
-5.8711419 34.883141 1.9758438
-0.8697058 5.1294441 -0.57989371
-0.88788158 5.2366433 -0.29667345
-0.87285155 5.1479974 0
-5.9076405 34.842716 1.9739571
-0.87503135 5.1232858 -0.57931656
-0.8924585 5.2253213 -0.2960929
-0.86768019 5.080245 0
-5.9567347 34.876526 1.9762788
-0.88122118 5.1222248 -0.57931656
-0.89436686 5.1986356 -0.29464176
-0 0 0
-7.722702 44.889313 2.5441804
-0.92642337 5.3463001 -0.90458715
-0.88740975 5.1211562 -0.57931656
-0.89576709 5.1693854 -0.2930451
-0 0 0
-7.7769361 44.879948 2.5441804
-0.93288267 5.3451767 -0.90458715
-0.89226252 5.1124339 -0.5784514
-0.89173871 5.1094322 -0.2897073
-0 0 0
-7.8266926 44.844925 2.5427294
-0.93800694 5.3364582 -0.90330285
-0.89754456 5.1062617 -0.57787538
-0.89746064 5.1057844 -0.28956175
-0.90258509 5.1349382 0
-7.8844719 44.855911 2.5438905
-0.93454301 5.297977 -0.89688456
-0.89928102 5.0980749 -0.57701021
-0.89919233 5.0975718 -0.28912675
-0 0 0
-7.9201455 44.89975 2.5466475
-0.92747504 5.221024 -0.88404638
-0.90498841 5.0944405 -0.5767222
-0.90444124 5.0913601 -0.28883621
-0 0 0
-7.9852996 44.95155 2.5501308
-0.92293388 5.1592526 -0.87377518
-0.9106884 5.0907993 -0.5764342
-0.90830511 5.0774765 -0.28811064
-0.92313397 5.1603708 0
-8.0460138 44.977673 2.5521626
-0 0 -0
-0.91592097 5.0845995 -0.57585704
-0.91443956 5.0763755 -0.28811064
-0.92706209 5.1464477 0
-0 0 0
-0 0 -0
-0.91883409 5.0656815 -0.57383984
-0.91964608 5.0701585 -0.28782064
-0.93281591 5.1427655 0
-0 0 0
-0 0 -0
-0.92681307 5.0747452 -0.57499301
-0.92623812 5.0715971 -0.28796563
-0.94043058 5.1493077 0
-0 0 0
-0.94043076 5.1143355 -0.86692768
-0.93294424 5.0736217 -0.57499301
-0.93001628 5.0576987 -0.28724009
-0.94571143 5.1430535 0
-11.718036 63.726086 3.6191728
-0.94427365 5.1005769 -0.86478823
-0.93671846 5.0597672 -0.5735507
-0.93943655 5.0744491 -0.28825563
-0.95050341 5.1342278 0
-11.799757 63.737423 3.6206241
-0.95419884 5.1196213 -0.86821198
-0.9433068 5.0611815 -0.57383984
-0.94509172 5.0707583 -0.28811064
-0.9567064 5.1330752 0
-11.878192 63.730785 3.6210594
-0.95517635 5.0907087 -0.86350393
-0.94703531 5.0473204 -0.57239753
-0.95457286 5.0874925 -0.28912675
-0.96290803 5.1319156 0
-11.084548 59.076218 3.3573546
-0.96418637 5.1046906 -0.8660726
-0.95313329 5.0461721 -0.57239753
-0.96264845 5.0965486 -0.2897073
-0.97007525 5.1358676 0
-11.131328 58.932571 3.3499529
-0.96795666 5.0909147 -0.86393315
-0.95778197 5.0374012 -0.5715335
-0.9712323 5.1081424 -0.29043287
-0.97336257 5.1193466 0
-8.5715351 45.081516 2.5631926
-0.97410733 5.0897412 -0.86393315
-0.96581274 5.046402 -0.57268667
-0.97740376 5.1069655 -0.29043287
-0.98052692 5.1232839 0
-8.6284428 45.083881 2.5639181
-0.97976959 5.0860329 -0.86350393
-0.9689731 5.0299873 -0.57095635
-0.98209876 5.0981236 -0.28999731
-0.9891777 5.1348705 0
-8.6730824 45.022404 2.5610161
-0.98591435 5.0848451 -0.86350393
-0.97455829 5.0262761 -0.57066834
-0.987764 5.0943847 -0.28985232
-0.99637127 5.1387768 0
-8.7240143 44.99403 2.5599999
-0.99205768 5.0836501 -0.86350393
-0.98112577 5.0276313 -0.57095635
-0.99093366 5.0778904 -0.28898177
-0.99859202 5.1171346 0
-8.7783747 44.983456 2.5599999
-1.0006746 5.0950499 -0.86564499
-0.98520613 5.0162902 -0.56980318
-0.99606609 5.0715847 -0.28869119
-1.0067806 5.1261387 0
-8.8282156 44.949871 2.5586939
-1.0048392 5.0837636 -0.86393315
-0.99126661 5.0150962 -0.56980318
-1.0006813 5.0627279 -0.28825563
-1.0094428 5.1070542 0
-8.8774824 44.913677 2.5572422
-1.0184919 5.1203046 -0.87035143
-0.99581331 5.0062914 -0.56893915
-1.0067979 5.0615149 -0.28825563
-1.0161202 5.1083808 0
-1.0224899 5.1404042 0.29274842
-1.0342517 5.1668983 -0.87848324
-1.0018617 5.0050845 -0.56893915
-1.0124035 5.0577493 -0.28811064
-1.0238248 5.1148076 0
-1.0394101 5.1926684 0.29579619
-1.0374519 5.1505408 -0.87591457
-1.010972 5.0190787 -0.57066834
-1.0174888 5.0514326 -0.28782064
-1.0300043 5.1135669 0
-1.041579 5.1710305 0.29463509
-1.0508145 5.1845112 -0.88190693
-1.0185777 5.0254607 -0.5715335
-1.0230742 5.0476456 -0.28767508
-1.0346309 5.1046638 0
-1.0504067 5.1824989 0.29536065
-1.0545119 5.1706538 -0.87976587
-1.0241309 5.0216846 -0.57124436
-1.0276163 5.038775 -0.28724009
-1.0439174 5.1187053 0
-1.0556304 5.1761389 0.29507065
-1.0602434 5.1668634 -0.87933832
-1.0322776 5.0305786 -0.57239753
-1.0310907 5.0247951 -0.28651395
-1.048009 5.1072426 0
-1.0613602 5.1723065 0.29492509
-1.0623306 5.1611981 -0.87848324
-1.0384463 5.0451589 -0.57412785
-1.0341263 5.0241714 -0.28651395
-1.0531931 5.1168046 0
-1.060294 5.1513038 0.29376397
-1.0659639 5.1473446 -0.87634379
-1.0471636 5.0565619 -0.57556903
-1.038617 5.0152917 -0.28607896
-1.059375 5.1155286 0
-1.0696802 5.1652904 0.29463509
-1.0721827 5.1460528 -0.87634379
-1.0532727 5.0552931 -0.57556903
-1.0457352 5.0191159 -0.28636897
-1.0650251 5.1116996 0
-1.0722102 5.1461849 0.29361898
-1.0768194 5.1372137 -0.87505949
-1.0588502 5.0514874 -0.57528102
-1.0496668 5.0076761 -0.28578842
-1.0733364 5.1205974 0
-1.0784276 5.1448855 0.29361898
-1.0824968 5.1333995 -0.87463194
-1.0606837 5.0299578 -0.57297468
-1.0573258 5.0140343 -0.28622398
-1.07845 5.1142087 0
-1.0830364 5.1359587 0.29318398
-1.0865678 5.1220431 -0.87292004
-1.0672969 5.0312004 -0.57326269
-1.062306 5.0076742 -0.28593397
-1.0857078 5.1179886 0
-1.0881619 5.1295576 0.29289341
-1.0916835 5.1157002 -0.87206328
-1.0717554 5.022316 -0.57239753
-1.0683562 5.0063868 -0.28593397
-1.0880885 5.0988541 0
-1.0943592 5.1282392 0.29289341
-1.0957088 5.1043382 -0.87035143
-1.0767384 5.0159645 -0.57182151
-1.0744046 5.0050921 -0.28593397
-1.097527 5.1128078 0
-1.1005548 5.1269131 0.29289341
-1.1053172 5.0891347 -0.86821198
-1.0899538 5.0183978 -0.57239753
-1.0870478 5.0050182 -0.28607896
-1.1120889 5.1203136 0
-1.1140455 5.1293216 0.29318398
-1.1125624 5.0928159 -0.86906874
-1.0993298 5.0322433 -0.57412785
-1.0947567 5.0113091 -0.28651395
-1.1193849 5.1240463 0
-1.1185782 5.1203537 0.29274842
-1.1165117 5.081439 -0.8673569
-1.1059641 5.0334353 -0.57441586
-1.1013703 5.0125279 -0.28665954
-1.1233414 5.1125226 0
-1.1242073 5.1164627 0.2926034
-1.1215419 5.075068 -0.86650014
-1.1131625 5.0371513 -0.57499301
-1.1057435 5.0035796 -0.28622398
-1.128957 5.1086226 0
-1.1275835 5.1024075 0.2918773
-1.1260018 5.0661893 -0.86521584
-1.1175641 5.0282254 -0.57412785
-1.1112254 4.9997058 -0.28607896
-1.1317421 5.0920167 0
-1.1337479 5.1010413 0.2918773
-1.1315631 5.0623221 -0.86478823
-1.1258957 5.0369682 -0.57528102
-1.1195331 5.008503 -0.28665954
-1.140732 5.1033421 0
-1.1416118 5.1072774 0.29231286
-1.1382415 5.0634532 -0.86521584
-1.1314144 5.033083 -0.57499301
-1.1221635 4.9919305 -0.28578842
-1.1480381 5.1070333 0
-1.1466434 5.1008286 0.29202285
-1.1420947 5.0520587 -0.86350393
-1.1397742 5.0417938 -0.57614505
-1.1327782 5.0108466 -0.28694952
-1.1542082 5.1056423 0
-1.1533784 5.1019716 0.29216784
-1.1459242 5.0406718 -0.8617937
-1.1447197 5.0353737 -0.57556903
-1.1371033 5.0018706 -0.28651395
-1.1621078 5.1118598 0
-1.1595422 5.1005745 0.29216784
-1.1508688 5.0342736 -0.86093694
-1.1496514 5.0289488 -0.57499301
-1.1431463 5.000493 -0.28651395
-1.1688631 5.1129866 0
-1.1674422 5.1067715 0.2926034
-1.1563764 5.0303798 -0.8605094
-1.1545671 5.0225096 -0.57441586
-1.1480244 4.9940481 -0.28622398
-1.1756227 5.1141043 0
-0 0 0
-1.1560936 5.0014644 -0.85580134
-1.1612169 5.0236282 -0.57470387
-1.1558141 5.0002546 -0.28665954
-1.1806302 5.1076136 0
-0 0 0
-0 0 -0
-1.1638801 5.0075674 -0.85708565
-1.1672862 5.0222216 -0.57470387
-1.1624428 5.0013833 -0.28680453
-1.1844442 5.0960436 0
-1.193593 5.135406 0.2944901
-1.1687604 5.001153 -0.85622889
-1.1739439 5.0233335 -0.57499301
-1.168485 4.9999747 -0.28680453
-1.1911925 5.0971403 0
-1.1974319 5.1238394 0.29390952
-0 0 -0
-1.1671695 4.9672527 -0.85066575
-1.1794194 5.0193863 -0.57470387
-1.1757133 5.0036135 -0.28709453
-1.1979476 5.0982385 0
-1.2059997 5.1325068 0.2944901
-1.1678154 4.956552 -0.8489539
-1.1800791 5.0086026 -0.5735507
-1.179929 5.0079656 -0.28738508
-1.2034125 5.1076365 0
-1.2091004 5.1317773 0.2944901
-1.1738036 4.9551373 -0.8489539
-1.1879193 5.0147257 -0.57441586
-1.1859794 5.0065365 -0.28738508
-1.2095832 5.1061788 0
-1.2170954 5.1378908 0.29492509
-1.1803865 4.9562197 -0.84938306
-1.193379 5.0107732 -0.57412785
-1.194436 5.0152106 -0.28796563
-1.2193711 5.1199083 0
-1.2233026 5.1364164 0.29492509
-1.1851776 4.9497919 -0.8485263
-1.1988311 5.0068145 -0.57383984
-1.1998905 5.0112391 -0.28782064
-1.2297992 5.1361504 0
-1.2313238 5.142518 0.29536065
-1.1887544 4.9383731 -0.84681445
-1.2036681 5.0003281 -0.57326269
-1.2053348 5.0072522 -0.28767508
-1.2341765 5.1270676 0
-1.2344967 5.1283975 0.29463509
-1.1965326 4.9444208 -0.84809875
-1.2084936 4.9938469 -0.57268667
-1.2132183 5.013371 -0.28811064
-1.2415938 5.1306267 0
-7.5183501 31.06801 1.7854302
-1.1994727 4.9305024 -0.84595937
-1.2157484 4.9974046 -0.57326269
-1.2205048 5.0169559 -0.28840119
-1.2477922 5.1291227 0
-7.5638714 31.091732 1.7873175
-1.2054293 4.9290495 -0.84595937
-1.2211721 4.993422 -0.57297468
-1.228416 5.0230427 -0.28883621
-1.2552265 5.1326718 0
-7.5952601 31.057325 1.7858658
-1.2095451 4.9201083 -0.844675
-1.2290578 4.9994802 -0.57383984
-1.2375854 5.0341687 -0.28956175
-1.2645333 5.1437855 0
-7.6222363 31.005232 1.7833986
-1.2142588 4.9136639 -0.84381992
-1.2332357 4.9904566 -0.57297468
-1.2442925 5.0351996 -0.2897073
-1.270124 5.1397295 0
-7.6671748 31.02627 1.7851403
-1.2189561 4.9072056 -0.84296316
-1.2380165 4.9839373 -0.57239753
-1.2510015 5.0362115 -0.28985232
-1.2775869 5.1432381 0
-7.7040329 31.014463 1.7849952
-1.2267509 4.9132032 -0.84424746
-1.2415314 4.9724002 -0.57124436
-1.2633793 5.0599022 -0.29130343
-1.2825409 5.1366453 0
-7.7370949 30.987482 1.7839792
-1.2326866 4.9117174 -0.84424746
-1.2475387 4.9708962 -0.57124436
-1.2682285 5.0533361 -0.29101342
-1.2874783 5.1300387 0
-8.5246553 33.967026 1.9561059
-0 0 -0
-1.2411321 4.9201808 -0.84595937
-1.2529122 4.9668798 -0.57095635
-1.2736986 5.049283 -0.29086843
-1.3000429 5.1537185 0
-8.5758581 33.997002 1.9584275
-1.2445527 4.9087238 -0.84424746
-1.2582777 4.9628577 -0.57066834
-1.2957631 5.1107068 -0.29449677
-1.3030692 5.139523 0
-8.6118221 33.966465 1.9572664
-1.2530186 4.9171672 -0.84595937
-1.2661901 4.9688549 -0.5715335
-1.3231088 5.1922188 -0.29928568
-1.310565 5.1429935 0
-8.6528578 33.956036 1.9572664
-1.2602317 4.9206181 -0.84681445
-1.2734752 4.9723277 -0.57210952
-1.3583919 5.3038878 -0.30581683
-1.3174233 5.1439252 0
-8.6990376 33.965694 1.9584275
-1.2648978 4.9141245 -0.84595937
-1.2801265 4.9732881 -0.57239753
-1.3686848 5.3173366 -0.30668738
-1.3249366 5.1473751 0
-7.4816022 29.066004 1.6764365
-0 0 -0
-1.2695476 4.9076171 -0.84510261
-1.2887259 4.9817538 -0.5735507
-1.3770616 5.3232279 -0.30712295
-1.3324575 5.1508045 0
-7.5082583 29.024242 1.6745498
-1.2767696 4.9110537 -0.84595937
-1.2960473 4.9852042 -0.57412785
-1.3828396 5.3190479 -0.30697793
-1.3354068 5.1365995 0
-7.5295935 28.962339 1.671502
-0 0 -0
-1.2833511 4.9119883 -0.84638691
-1.2994547 4.9736247 -0.57297468
-1.3899218 5.3198848 -0.30712295
-1.3442439 5.1450539 0
-7.5369968 28.847635 1.6654065
-1.2938493 4.9278169 -0.84938306
-1.3094032 4.9870563 -0.57470387
-1.3950303 5.3131795 -0.30683294
-1.3458327 5.125803 0
-7.5408354 28.72039 1.6585853
-1.2968262 4.9270344 -0.84938306
-1.3190007 5.011282 -0.57758737
-1.3942703 5.2972536 -0.30596182
-1.3562165 5.1526761 0
-7.5297475 28.607784 1.6523447
-1.3073716 4.9428287 -0.85237759
-1.330346 5.0296884 -0.57989371
-1.4000062 5.2930555 -0.30581683
-1.3624415 5.1510339 0
-7.0600257 26.692102 1.5421894
-1.3140044 4.9437337 -0.85280681
-1.3503741 5.0805688 -0.58594757
-1.3997273 5.2662525 -0.30436569
-1.3686646 5.1493835 0
-7.0742526 26.615755 1.538271
-1.318651 4.9371772 -0.85195005
-1.4779757 5.5337071 -0.63841403
-1.4007255 5.2444735 -0.3032046
-1.3748857 5.1477261 0
-7.0762353 26.494221 1.5317398
-1.3246156 4.9355803 -0.85195005
-1.4960579 5.5743823 -0.64331472
-1.3949364 5.1975989 -0.3005918
-1.3817786 5.1485724 0
-7.0725489 26.352652 1.5240481
-1.5027922 5.5725703 -0.64331472
-1.3964816 5.1783552 -0.29957625
-4.2664042 15.82044 0
-7.06988 26.216135 1.5166459
-1.5041127 5.5507789 -0.64100838
-1.4006982 5.1691375 -0.29914069
-4.2875595 15.822812 0
-7.0675759 26.082188 1.5093898
-1.4048945 5.1599174 -0.29870513
-4.3039403 15.807575 0
-7.0608587 25.933226 1.5012619
-1.4670185 5.3625164 -0.61967528
-1.4118159 5.1607294 -0.29885069
-0 0 0
-7.0654497 25.826935 1.4956019
-1.4652708 5.330812 -0.61621577
-1.4159838 5.1515012 -0.29841512
-4.3393693 15.78709 0
-7.0573993 25.675575 1.4873296
-0 0 -0
-1.4180558 5.1347532 -0.297544
-0 0 0
-7.0628257 25.574358 1.4819596
-1.4726167 5.3073173 -0.61390942
-1.4214828 5.1230302 -0.29696402
-4.3788981 15.781569 0
-7.0853848 25.535759 1.4802179
-1.4811127 5.3130107 -0.61477458
-1.4297632 5.1288109 -0.29739901
-4.3944702 15.763734 0
-7.1148405 25.522179 1.479928
-1.4868345 5.3087287 -0.61448658
-1.432456 5.1145711 -0.29667345
-1.4657605 5.2334843 0
-7.1477742 25.521063 1.480363
-1.4925481 5.304441 -0.61419857
-1.4400439 5.1178441 -0.29696402
-1.4622129 5.1966314 0
-7.1800151 25.517414 1.4806535
-1.496845 5.2951646 -0.6133334
-1.4441056 5.1085963 -0.29652846
-1.4628276 5.1748261 0
-7.2108431 25.50872 1.4806535
-1.4654604 5.1603117 -0.89431596
-1.5025362 5.2908664 -0.61304539
-1.4559561 5.1268444 -0.29768956
-1.4683689 5.1705537 0
-7.2430782 25.504982 1.4809436
-1.4738081 5.1659455 -0.89560026
-1.5004129 5.2592001 -0.60958588
-1.4650013 5.1350765 -0.29827014
-1.4681903 5.1462541 0
-7.2760301 25.503712 1.481379
-1.4793425 5.1616955 -0.89517272
-1.5103289 5.2698126 -0.61102706
-1.4790778 5.1607723 -0.29986623
-1.4722557 5.1369686 0
-7.3118529 25.512388 1.4823952
-1.4862878 5.1623688 -0.89560026
-1.5152655 5.2630177 -0.61045104
-1.492503 5.1839561 -0.3013179
-1.4777423 5.1326876 0
-7.3433924 25.506029 1.4825402
-1.4903841 5.1531687 -0.89431596
-1.5244981 5.2711215 -0.61160421
-1.5052624 5.2046123 -0.30262402
-1.4846655 5.1333957 0
-7.3763728 25.504629 1.4829757
-1.4980434 5.1562991 -0.89517272
-1.5250932 5.2494054 -0.60929787
-1.5086503 5.1928082 -0.30204347
-1.4894164 5.1266046 0
-7.4115329 25.510664 1.4838463
-1.4925462 5.1258168 -0.89003712
-1.5145247 5.2012973 -0.60382003
-1.5067014 5.1744299 -0.30102736
-1.4903299 5.1182055 0
-7.4269438 25.506182 1.4838463
-1.495136 5.1116929 -0.88789767
-1.5055608 5.1473336 -0.59776616
-1.5107635 5.1651211 -0.3005918
-1.4957832 5.1139054 0
-7.4621334 25.512148 1.4847169
-1.5005885 5.1074219 -0.88747013
-1.5059464 5.125658 -0.59545982
-1.5192015 5.1707735 -0.30102736
-1.5048958 5.1220822 0
-7.4914908 25.498131 1.4844269
-0 0 -0
-1.4987653 5.0785193 -0.88276207
-1.5084789 5.1114335 -0.59401864
-1.5232412 5.1614552 -0.3005918
-1.5125556 5.1252475 0
-7.5252366 25.499029 1.4850074
-1.5073717 5.0625834 -0.88062263
-1.5156595 5.0904183 -0.59200031
-1.532003 5.1453094 -0.29986623
-1.5197403 5.1041245 0
-7.5905428 25.493219 1.485733
-0 0 -0
-1.5149573 5.0656724 -0.88147777
-1.5181043 5.0761952 -0.59055912
-1.5419409 5.1558995 -0.3005918
-1.5259066 5.1022844 0
-7.6258063 25.49896 1.4866035
-1.5203394 5.0613823 -0.88105017
-1.52275 5.0694079 -0.58998311
-1.5414426 5.1316376 -0.29928568
-1.5380572 5.1203671 0
-7.6581078 25.494711 1.4868941
-0 0 -0
-1.5243905 5.052702 -0.58825278
-1.5476421 5.1297712 -0.29928568
-1.5457479 5.1234927 0
-7.6904073 25.490408 1.487184
-1.5340565 5.0626116 -0.88190693
-1.5304946 5.0508561 -0.58825278
-1.5515809 5.1204443 -0.29885069
-1.5474107 5.1066823 0
-7.724216 25.491045 1.4877647
-1.5379297 5.0533843 -0.88062263
-1.5365964 5.0490031 -0.58825278
-1.5554965 5.1111059 -0.29841512
-1.5482752 5.087378 0
-7.7580376 25.491636 1.4883453
-0 0 -0
-1.5417827 5.0441551 -0.87933832
-1.5343816 5.0199413 -0.58508241
-1.5624299 5.1117053 -0.29856011
-1.559747 5.1029277 0
-7.7911129 25.489702 1.4887807
-1.5516424 5.0545564 -0.88147777
-1.53741 5.0081935 -0.58392924
-1.5701318 5.1147866 -0.29885069
-1.5636199 5.0935731 0
-7.8196182 25.472815 1.4883453
-1.5562376 5.0477762 -0.88062263
-1.5419348 5.0013838 -0.58335209
-1.5724809 5.1004629 -0.29812458
-1.5667063 5.0817323 0
-7.8496265 25.460867 1.4882002
-1.5585401 5.0336337 -0.87848324
-1.5502726 5.0069318 -0.58421725
-1.5778749 5.0960793 -0.29797956
-1.5666875 5.059947 0
-7.8842273 25.463772 1.4889258
-1.5638597 5.0292978 -0.87805563
-1.5570886 5.0075226 -0.58450526
-1.5832605 5.0916901 -0.29783458
-1.5619832 5.0232635 0
-7.8933892 25.38476 1.4848624
-1.5699354 5.0274043 -0.87805563
-1.5623679 5.003171 -0.58421725
-1.5909593 5.0947289 -0.29812458
-1.5447806 4.9468513 0
-1.5947986 5.1070237 0.29884398
-1.5752386 5.0230474 -0.87762648
-1.5691853 5.0037451 -0.58450526
-1.5932271 5.0804086 -0.29739901
-1.5242807 4.8605552 0
-1.6056319 5.1199646 0.29971454
-1.5897897 5.0480762 -0.88233453
-1.5736778 4.9969158 -0.58392924
-1.5970253 5.0710516 -0.29696402
-1.5090445 4.7916851 0
-1.6032336 5.090765 0.29811844
-1.5982112 5.0534968 -0.88361883
-1.5804937 4.9974747 -0.58421725
-1.6031516 5.069118 -0.29696402
-1.5164043 4.7948256 0
-1.6031154 5.0690041 0.29695731
-1.6058687 5.0564504 -0.88447392
-1.5865309 4.9955611 -0.58421725
-1.610847 5.0721254 -0.297254
-1.5245577 4.8004241 0
-1.6139568 5.0819178 0.29782787
-1.614318 5.0618458 -0.88575822
-1.5964946 5.005959 -0.58565843
-1.6161857 5.0677023 -0.29710901
-1.524824 4.7812295 0
-1.6153605 5.065115 0.29695731
-1.6204331 5.0598917 -0.88575822
-1.6025422 5.0040264 -0.58565843
-1.6223078 5.0657458 -0.29710901
-1.5282182 4.7719455 0
-1.6230631 5.0681038 0.29724732
-1.6242733 5.0613537 -0.88618582
-1.6071473 5.0079875 -0.58623558
-1.6245748 5.0622931 -0.29696402
-1.5255334 4.7536726 0
-1.6269178 5.0695944 0.29739231
-1.6280249 5.0520549 -0.88490146
-1.6139898 5.0085015 -0.58652359
-1.6338753 5.0702095 -0.297544
-1.5384595 4.774117 0
-1.6290581 5.0552611 0.29666677
-1.6412402 5.0720634 -0.88875276
-1.6216315 5.0114646 -0.58709961
-1.6368036 5.058352 -0.29696402
-1.5466315 4.7796855 0
-1.6407659 5.0705972 0.29768288
-1.6640255 5.1213441 -0.89773971
-1.6300843 5.0168834 -0.58796477
-1.6405047 5.0489545 -0.29652846
-1.554819 4.7852407 0
-1.6501033 5.078496 0.29826343
-1.6789716 5.1461773 -0.90244776
-1.6369464 5.0173669 -0.58825278
-1.6474094 5.0494366 -0.29667345
-1.5597935 4.7808871 0
-1.650596 5.0592036 0.29724732
-1.6899821 5.1587772 -0.90501469
-1.6462287 5.0252171 -0.58940595
-1.6510819 5.0400319 -0.29623789
-1.5679973 4.7864113 0
-1.6583273 5.062149 0.29753786
-1.6930057 5.1469769 -0.90330285
-1.651492 5.0207696 -0.58911794
-1.6636659 5.0577803 -0.29739901
-1.5745952 4.7869921 0
-1.666065 5.0650735 0.29782787
-1.6968107 5.1376219 -0.90202016
-1.664857 5.0408721 -0.5917123
-1.6681478 5.0508361 -0.29710901
-1.5811936 4.7875552 0
-1.6705557 5.0581269 0.29753786
-1.7038245 5.1380024 -0.90244776
-1.67176 5.0413094 -0.59200031
-1.6717951 5.0414152 -0.29667345
-1.5837007 4.7757602 0
-1.6733948 5.0462389 0.29695731
-1.7092214 5.1335063 -0.90202016
-1.6737657 5.0270181 -0.59055912
-1.681989 5.0517163 -0.29739901
-1.5993357 4.8034739 0
-1.6794909 5.0442133 0.29695731
-1.7056563 5.102222 -0.89688456
-1.66426 4.9783912 -0.58508241
-1.6913872 5.0595379 -0.29797956
-1.6150401 4.8311567 0
-1.6880537 5.0495663 0.29739231
-1.7069175 5.0855508 -0.89431596
-1.6686267 4.9714675 -0.58450526
-1.6950181 5.0500979 -0.297544
-1.6299832 4.8563342 0
-1.6908467 5.0376697 0.29681176
-1.702405 5.0518622 -0.88875276
-1.6754608 4.9719062 -0.5847944
-1.70029 5.0455861 -0.29739901
-1.6350197 4.8518972 0
-8.592145 25.497066 1.5028586
-1.7011043 5.0279188 -0.88490146
-1.6814672 4.9698777 -0.5847944
-1.7055533 5.0410686 -0.297254
-1.6675678 4.9287958 0
-8.6162844 25.466974 1.5016975
-1.7113057 5.0380106 -0.88704091
-1.6883022 4.9702892 -0.58508241
-1.7158211 5.0513039 -0.29797956
-1.7011437 5.0080943 0
-8.6562443 25.483612 1.5032941
-1.7215374 5.0480947 -0.88918197
-1.7001481 4.9853749 -0.58709961
-1.7194065 5.0418463 -0.297544
-1.7256726 5.0602207 0
-8.6836748 25.463297 1.5027136
-1.7450968 5.0970106 -0.89816886
-1.7170646 5.0151353 -0.59084827
-1.7297081 5.0520639 -0.29827014
-1.739375 5.0802984 0
-8.7144365 25.452785 1.5027136
-1.7604308 5.1215954 -0.9028753
-1.7340523 5.0448527 -0.59459579
-1.737499 5.0548801 -0.29856011
-1.7429736 5.0708075 0
-8.741806 25.432407 1.502133
-1.766618 5.1194649 -0.9028753
-1.7443645 5.0549765 -0.59603697
-1.7461492 5.0601482 -0.29899567
-1.7550428 5.0859208 0
-2.3851826 6.9119968 0.4084183
-1.7837259 5.1488571 -0.90843844
-1.7547038 5.0650826 -0.59747815
