# .PCD v0.7 - Point Cloud Data file format
VERSION 0.7
FIELDS x y z
SIZE 4 4 4
TYPE F F F
COUNT 1 1 1
WIDTH 1742
HEIGHT 1
VIEWPOINT 0 0 0 1 0 0 0
POINTS 1742
DATA ascii
2.431381 2.5181072 -0.19551639
2.441082 2.5281541 0
2.4746156 2.5628839 0.19899306
2.3293123 2.4182382 -0.92635578
2.3715868 2.4621267 -0.75731093
3.799834 3.9448998 -0.9131465
2.3479235 2.4375601 -0.3772338
2.4265358 2.5191734 -0.19537139
2.4434435 2.5367267 0
2.4769268 2.5714881 0.1994286
2.324652 2.4192438 -0.92566431
2.3598025 2.4558246 -0.75449485
3.7968414 3.9513376 -0.91357404
2.3449764 2.4403954 -0.3772338
2.4126911 2.5108652 -0.19450083
2.4421782 2.5415521 0
2.463012 2.5632339 0.1985575
2.3130486 2.4129972 -0.92220414
2.3568335 2.4586742 -0.75449485
3.793839 3.9577739 -0.91400164
2.3491855 2.4506958 -0.37838697
2.4096556 2.5137787 -0.19450083
2.455312 2.561408 0
2.459913 2.5662079 0.1985575
2.3135955 2.4194131 -0.92358714
2.3468366 2.4541745 -0.75224334
2.5578473 2.6748362 -0.61700797
2.3551588 2.4628773 -0.37982816
2.3976319 2.5072932 -0.19377472
2.4504182 2.5624938 0
2.4514282 2.5635498 0.19812249
2.3054805 2.4167664 -0.92151266
2.3438694 2.4570084 -0.75224334
2.5563834 2.6797805 -0.61743551
2.3682542 2.4825702 -0.38242364
2.3874264 2.5026677 -0.19319417
2.4437242 2.5616829 0
2.4537044 2.5721452 0.1985575
2.3008308 2.4177346 -0.92082119
2.333899 2.4524832 -0.74999398
2.5602224 2.6903059 -0.61914736
2.3902121 2.5116575 -0.38645917
2.3700769 2.4904993 -0.1920336
2.4460111 2.5702915 0
2.445226 2.5694666 0.19812249
2.3013589 2.4241486 -0.92220414
2.3239365 2.4479306 -0.74774241
2.5446029 2.6803706 -0.61615282
0 0 -0
2.3599098 2.4858232 -0.19145305
2.4393234 2.569474 0
2.4367507 2.5667639 0.19768694
2.3018751 2.430567 -0.92358714
2.3192246 2.4488866 -0.7471779
2.5431259 2.6853054 -0.61658037
0 0 -0
2.3479655 2.4792342 -0.19072694
2.427264 2.5629661 0
2.4354324 2.5715911 0.19783193
2.2972152 2.4315248 -0.92289567
2.3057976 2.4406087 -0.74380171
2.5187242 2.6659844 -0.61144477
2.3580022 2.4958658 -0.38271165
2.364599 2.5028481 -0.19232361
2.4241655 2.5658972 0
2.4323235 2.574532 0.19783193
2.2925565 2.4324749 -0.92220414
2.3045878 2.4452405 -0.74436402
2.4327545 2.5812292 -0.59133154
2.3585293 2.5024741 -0.38328767
2.3508835 2.4943614 -0.19145305
2.4032171 2.5498888 0
2.4238625 2.5717945 0.19739638
2.2947729 2.4407282 -0.9242813
2.3051159 2.4517293 -0.74549091
2.3768849 2.5280631 -0.57849336
2.346647 2.4959018 -0.38184649
2.3496459 2.4990914 -0.19159804
2.4001341 2.5527909 0
2.4171968 2.5709388 0.19710638
2.2901008 2.441664 -0.92358714
2.3021519 2.4545126 -0.74549091
2.3632951 2.5197024 -0.57592636
2.3383195 2.4930739 -0.38098133
2.3608456 2.5170908 -0.19275917
2.386369 2.5443034 0
2.4069781 2.5662766 0.19652581
2.2954857 2.4503708 -0.92635578
2.3024039 2.4577556 -0.74605322
2.3477321 2.5061424 -0.57250261
2.3315132 2.4888289 -0.3801173
2.3628738 2.5223057 -0.19304916
2.3937259 2.5552394 0
2.4054272 2.5677302 0.19652581
2.290812 2.4513113 -0.92566431
2.2959595 2.4568195 -0.74492639
2.3411934 2.5052226 -0.57164586
2.3232045 2.4859731 -0.37925214
2.3562794 2.5213656 -0.19275917
2.3906367 2.5581298 0
2.4005504 2.5687382 0.19638082
2.2895575 2.4559109 -0.92635578
2.2912583 2.4577351 -0.74436402
2.3364158 2.5061736 -0.57121831
2.313144 2.4812109 -0.37809896
2.3603187 2.5318134 -0.19333972
2.3733468 2.5457878 0
2.4027622 2.5773406 0.19681637
2.2883019 2.4605179 -0.92704993
2.2882869 2.4605019 -0.74436402
2.3298862 2.5052319 -0.57036155
2.3048582 2.4783204 -0.3772338
2.3395586 2.5156322 -0.19188805
2.3365927 2.5124431 0
2.3854895 2.5650198 0.19565526
2.2802067 2.4577618 -0.92497283
2.2939513 2.4725769 -0.7471779
2.316385 2.4967575 -0.56779456
2.3001046 2.4792092 -0.37694579
2.3435864 2.5260768 -0.19246861
2.3282502 2.5095465 0
2.3876853 2.5736096 0.19609027
2.2840514 2.46788 -0.92774147
2.2771549 2.4604285 -0.74267483
2.3029077 2.4882541 -0.56522763
2.2918351 2.4762902 -0.37608063
2.3317091 2.5193734 -0.19174305
2.3057694 2.4913459 0
2.3810472 2.5726824 0.19580026
2.286175 2.4761698 -0.92981863
2.2707362 2.4594479 -0.74155015
2.2702975 2.4589729 -0.55795258
2.2712991 2.4600575 -0.37319827
2.3286633 2.5221889 -0.19174305
2.3045211 2.4960406 0
2.3673575 2.5640991 0.19492915
2.2899799 2.4863117 -0.93258727
2.2746484 2.4696658 -0.74380171
2.2603683 2.4541614 -0.55624068
2.2543068 2.4475801 -0.37089193
2.3150551 2.5135369 -0.19087249
2.294451 2.4911661 0
2.3695405 2.5726933 0.1953647
2.2767863 2.477989 -0.92843294
2.2682211 2.4686668 -0.74267483
2.2417715 2.4398799 -0.55238938
2.2513478 2.4503024 -0.37089193
2.3172855 2.5220671 -0.19130749
2.293205 2.4958587 0
2.3488529 2.5564239 0.19391359
2.2720971 2.4788907 -0.92774147
2.2686734 2.4751554 -0.74380171
2.2440205 2.4482586 -0.55367208
2.2431407 2.4472988 -0.37002677
2.3089743 2.519124 -0.19087249
2.2831538 2.4909537 0
2.3317163 2.543936 0.19275247
2.2724826 2.4853334 -0.92912447
2.2639682 2.4760215 -0.74323934
2.2393298 2.4490755 -0.55324453
2.2366946 2.4461935 -0.36945075
2.2989149 2.5142415 -0.19029193
2.2854056 2.4994669 0
2.3339026 2.5525064 0.19318803
2.2677889 2.4862258 -0.92843294
2.2678239 2.4862642 -0.74549091
2.2346408 2.4498849 -0.55281699
2.2337372 2.4488943 -0.36945075
2.2818663 2.5016592 -0.18913081
2.2736163 2.4926145 0
2.3098035 2.5322871 0.19144635
2.26985 2.4945326 -0.9305101
2.2631032 2.487118 -0.74492639
2.2299528 2.4506862 -0.55238938
2.2203288 2.4401095 -0.36772043
2.275341 2.5005672 -0.18884026
2.2776089 2.5030596 0
2.303241 2.5312288 0.19115579
2.2634587 2.4935548 -0.92912447
2.2566841 2.4860914 -0.74380171
2.2287138 2.4552779 -0.55281699
2.2191222 2.4447112 -0.36800957
2.2635872 2.4936965 -0.1881147
2.2728353 2.5038846 0
2.3019323 2.5359395 0.19130136
2.2654974 2.5018685 -0.93120158
2.2502642 2.4850459 -0.74267483
2.2205746 2.4522586 -0.55153263
2.2196355 2.4512217 -0.36858559
2.267549 2.5041342 -0.18869525
2.2925158 2.5317056 0
2.3110704 2.5521963 0.19231692
2.2607927 2.5027442 -0.9305101
2.2523711 2.4934213 -0.74436402
2.212446 2.4492233 -0.55024832
2.213208 2.4500668 -0.36800957
0 0 -0
2.2737558 2.5170949 0
2.2975373 2.5434213 0.19144635
2.2544048 2.5017431 -0.92912447
2.242553 2.488591 -0.74211252
2.2094848 2.4518948 -0.55024832
2.2102458 2.4527392 -0.36800957
2.2354038 2.4806573 -0.18651858
2.2916191 2.5430403 0
2.3066337 2.5597024 0.19246191
2.2631223 2.5175273 -0.93397027
2.2497396 2.50264 -0.74549091
2.2013772 2.4488411 -0.54896569
2.209008 2.4573298 -0.36829758
2.2358756 2.4872177 -0.18680859
2.3024635 2.561291 0
2.3018038 2.5605569 0.19231692
2.2533789 2.512789 -0.93120158
2.2467139 2.5053566 -0.74549091
2.2018409 2.4553177 -0.54982078
2.2043121 2.4580734 -0.36800957
2.2259295 2.4821794 -0.18622802
2.2889385 2.5524421 0
2.3004413 2.565269 0.19246191
2.2486701 2.5136418 -0.9305101
2.2470701 2.5118535 -0.74661559
2.2005825 2.459888 -0.55024832
2.2030632 2.462661 -0.36829758
2.2246594 2.4868019 -0.18637303
2.2702379 2.5377512 0
2.2973399 2.5680468 0.19246191
2.2389495 2.5088699 -0.92774147
2.2457235 2.5164607 -0.7471779
2.2095749 2.4759541 -0.55324453
2.1966383 2.461458 -0.36772043
2.2199244 2.4875515 -0.18622802
2.2567763 2.5288458 0
2.297699 2.574702 0.19275247
2.2409225 2.5171967 -0.92981863
2.2393055 2.5153804 -0.74605322
2.2151146 2.4882071 -0.55538392
2.1919444 2.4621804 -0.36743242
2.213465 2.4863541 -0.18593803
0 0 0
2.2997713 2.5833006 0.19318803
2.2345443 2.5161474 -0.92843294
2.2480767 2.5313849 -0.74999398
2.2223372 2.5024021 -0.55795258
2.1838202 2.4590309 -0.36656839
2.2139065 2.4929087 -0.18622802
2.2541113 2.5381804 0
0 0 0
2.2398188 2.5282328 -0.93189311
2.23996 2.5283921 -0.74830478
2.219312 2.5050855 -0.55795258
2.1842742 2.4655361 -0.36714441
2.2091713 2.493639 -0.18608303
2.25967 2.5506401 0
0 0 0
2.2399583 2.5314698 -0.93258727
2.2367499 2.5278437 -0.74774241
2.2211971 2.510267 -0.55880767
2.1827843 2.4668553 -0.36714441
2.2076645 2.4949732 -0.18608303
2.230535 2.5208201 0
0 0 0
2.2451973 2.543577 -0.93604738
2.2353737 2.5324478 -0.74830478
2.2147679 2.5091038 -0.55795258
2.178092 2.4675536 -0.3668564
2.2080839 2.5015314 -0.18637303
2.2223258 2.5176659 0
2.2733448 2.575465 0.19188136
2.2321715 2.5349872 -0.93189311
2.2255952 2.527519 -0.74605322
2.2100332 2.5098457 -0.55752337
2.1768165 2.4721229 -0.36714441
2.2050598 2.5041976 -0.18637303
2.2192819 2.5203493 0
2.2650845 2.5723653 0.19144635
2.2440062 2.5546446 -0.93812191
2.2325976 2.5416567 -0.74942946
2.19853 2.5028729 -0.55538392
2.1738279 2.4747515 -0.36714441
2.2003191 2.5049098 -0.18622802
2.2127967 2.5191147 0
2.2619746 2.5751002 0.19144635
2.2392659 2.555469 -0.93743038
2.2211537 2.5347991 -0.74661559
2.1904271 2.4997337 -0.55409962
2.1759515 2.4832139 -0.36800957
2.2007191 2.5114789 -0.18651858
2.2131848 2.5257051 0
2.2554331 2.5739191 0.19115579
2.3121243 2.6450565 -0.9692685
2.228126 2.5489631 -0.74999398
2.1823413 2.4965858 -0.55281699
2.1695416 2.4819429 -0.36743242
2.1959677 2.5121741 -0.18637303
2.2118425 2.5303349 0
2.2523215 2.5766425 0.19115579
2.2200332 2.5459065 -0.74830478
2.157392 2.4740705 -0.54725379
2.1614463 2.4787199 -0.36656839
2.1997616 2.5226595 -0.18695359
2.2053659 2.5290864 0
2.2475002 2.5774055 0.1910108
2.2252917 2.5581708 -0.75111866
2.1459723 2.4669857 -0.54511273
2.1567473 2.4793727 -0.36627924
2.1984158 2.5272744 -0.18709859
2.2040148 2.533711 0
2.246088 2.582078 0.19115579
2.2305241 2.5704513 -0.75393254
2.1345789 2.4598844 -0.54297328
2.1486692 2.4761219 -0.36541522
2.1970682 2.5318971 -0.18724415
2.206064 2.5422635 0
2.2463758 2.5887189 0.19144635
2.2174418 2.5616217 -0.75055629
2.1282482 2.4585838 -0.54211819
2.147367 2.4806702 -0.36570323
2.1923018 2.5325797 -0.18709859
2.2029905 2.5449271 0
2.2415473 2.5894687 0.19130136
2.217663 2.5681417 -0.75168097
2.115206 2.4494925 -0.53954959
2.1426792 2.4813073 -0.36541522
2.1858468 2.5312972 -0.18680859
2.2067175 2.5554662 0
2.2350168 2.588238 0.1910108
2.2162151 2.5727427 -0.75224334
2.1223006 2.4637198 -0.54211819
2.1413658 2.4858522 -0.36570323
2.1810925 2.5319695 -0.18666358
2.1968338 2.5502436 0
2.2284994 2.587003 0.1907208
2.2213895 2.5850599 -0.75505936
2.1143012 2.4604397 -0.54083389
2.1400447 2.4903977 -0.36599123
2.1814151 2.5385411 -0.18695359
2.1903617 2.5489523 0
2.2219815 2.5857487 0.19043024
2.2085307 2.582696 -0.75280786
2.1133559 2.4713967 -0.54211819
2.1340201 2.4955621 -0.36599123
2.1735871 2.5418322 -0.18680859
2.1977267 2.5700614 0
2.2157264 2.5911107 0.19043024
2.2120044 2.5930951 -0.75505936
2.1087036 2.4719975 -0.54169065
2.1310031 2.4981387 -0.36599123
2.1721988 2.5464318 -0.18695359
2.1912384 2.5687513 0
2.2109091 2.5918112 0.19028524
2.2055731 2.591892 -0.75393254
2.1007228 2.4686766 -0.54040635
2.1313388 2.5046551 -0.36656839
2.1657557 2.5451005 -0.18666358
2.1915095 2.5753651 0
2.2111406 2.5984347 0.19057524
2.2024395 2.5945551 -0.75393254
2.0977383 2.4712131 -0.54040635
2.1232877 2.5013113 -0.36570323
2.1694052 2.5556393 -0.18724415
2.1968153 2.5879295 0
2.2029593 2.5951674 0.19014025
2.2058711 2.6049709 -0.75618404
2.0964081 2.4757032 -0.54083389
2.1185939 2.5019031 -0.36541522
2.1629541 2.5542891 -0.18695359
2.1852794 2.5806537 0
2.203177 2.6017895 0.19043024
2.1961632 2.59987 -0.75393254
2.088444 2.4723494 -0.53954959
2.1172369 2.5064352 -0.36570323
2.1665733 2.5648408 -0.18753414
2.1771197 2.5773258 0
2.2033885 2.6084235 0.1907208
2.1930201 2.6025219 -0.75393254
2.0854552 2.4748712 -0.53954959
2.1158719 2.5109675 -0.36599123
2.1601269 2.5634866 -0.18724415
2.1756792 2.5819428 0
2.1985559 2.6090913 0.19057524
2.0890703 2.4852493 -0.54126143
2.1178308 2.519464 -0.3668564
2.1553512 2.5640998 -0.18709859
2.1658595 2.5766013 0
2.1920609 2.6077716 0.19028524
2.0926635 2.49564 -0.54297328
2.1164453 2.5240011 -0.36714441
2.1522512 2.5667024 -0.18709859
2.1711104 2.5891931 0
2.183898 2.6044431 0.18984969
2.0928085 2.4988775 -0.54340249
2.1132607 2.5232983 -0.3668564
2.1590469 2.5779684 -0.1878247
2.1595166 2.5785291 0
2.183991 2.6077523 0.18999468
2.1045985 2.5191329 -0.54725379
2.1085536 2.5238669 -0.36656839
2.1542597 2.5785754 -0.18767914
2.1547325 2.5791414 0
2.1808383 2.6103892 0.18999468
2.099905 2.5196962 -0.54682457
2.1104655 2.5323679 -0.36743242
2.1511424 2.5811765 -0.18767914
2.1616082 2.5937345 0
2.1793511 2.6150243 0.19014025
2.1083481 2.5360518 -0.54982078
2.11567 2.5448589 -0.3688736
2.1463623 2.5817778 -0.18753414
2.1501555 2.5863402 0
2.1778493 2.619652 0.19028524
2.1003644 2.5326674 -0.54853648
2.1125934 2.5474133 -0.3688736
2.1399269 2.5803728 -0.18724415
2.1470289 2.5889366 0
2.1746824 2.6222816 0.19028524
2.0973027 2.5352035 -0.54853648
2.1062195 2.5459821 -0.36829758
2.1417718 2.5889573 -0.18767914
2.1455564 2.5935321 0
2.1715121 2.6249073 0.19028524
2.0893409 2.5318017 -0.54725379
2.1146674 2.5624917 -0.37031591
2.1386418 2.5915432 -0.18767914
2.1490469 2.6041517 0
2.1716435 2.6315336 0.19057524
2.0911701 2.5402644 -0.54853648
2.1230719 2.5790174 -0.37233311
2.1338592 2.5921214 -0.18753414
2.1442463 2.6047392 0
2.1635127 2.6281431 0.19014025
2.0815825 2.5348539 -0.54682457
2.1298058 2.5935779 -0.37406343
2.1290779 2.5926917 -0.18738915
2.1410975 2.6073282 0
2.1636302 2.6347678 0.19043024
2.0785182 2.5373671 -0.54682457
2.1332266 2.6041529 -0.3752166
2.1292338 2.5992787 -0.18767914
2.1329963 2.6038718 0
2.1489172 2.6233075 0.18941413
2.0787024 2.5438561 -0.54768133
2.128437 2.6047201 -0.37492746
2.1260915 2.6018496 -0.18767914
2.1347902 2.6124949 0
2.1523228 2.6339505 0.18999468
2.0723803 2.5423827 -0.54682457
2.1236556 2.6052871 -0.37463945
2.1245925 2.6064365 -0.1878247
2.1431439 2.629195 0
2.1491385 2.6365492 0.18999468
2.0725489 2.5488722 -0.54768133
2.1237729 2.6118686 -0.3752166
2.1214416 2.6090016 -0.1878247
2.1284707 2.6176462 0
2.1492329 2.6431801 0.19028524
2.0646148 2.5453916 -0.54639703
2.1254988 2.6204534 -0.37608063
2.1248353 2.6196353 -0.18840526
2.1318638 2.6283009 0
2.1525853 2.6538475 0.1908658
2.0663834 2.5538733 -0.54768133
2.1239624 2.6250362 -0.37636977
2.1265669 2.6282551 -0.18884026
2.1319637 2.6349251 0
2.1428392 2.6483662 0.19028524
2.0616851 2.5543725 -0.54725379
2.1370308 2.6477237 -0.37925214
2.1446042 2.6571071 -0.19072694
2.1271391 2.6354682 0
2.1461656 2.6590416 0.1908658
2.0521576 2.5488636 -0.54554194
2.1386976 2.6563499 -0.3801173
2.1348736 2.6516006 -0.19014637
2.1321182 2.6481781 0
2.1445792 2.6636548 0.1910108
2.0426464 2.5433357 -0.54383004
2.1468191 2.6730428 -0.3821345
2.146317 2.6724174 -0.19145305
2.1240265 2.6446631 0
2.1429846 2.6682682 0.19115579
2.1452096 2.677659 -0.38242364
2.1398339 2.6709492 -0.1911625
2.1208293 2.6472278 0
2.1332603 2.662744 0.19057524
2.1451988 2.6842864 -0.38299966
2.1463413 2.6857159 -0.1920336
2.1322503 2.6680837 0
2.1381571 2.6754749 0.19130136
2.1564629 2.7050769 -0.38559401
2.1414702 2.6862698 -0.19188805
2.1290247 2.6706583 0
2.1300619 2.6719592 0.1908658
2.16768 2.7258983 -0.38818836
2.152777 2.7071574 -0.19319417
2.1355121 2.6854467 0
2.1316853 2.6806343 0.19130136
2.1611729 2.7244668 -0.38761234
2.1591964 2.7219751 -0.19406527
2.1306498 2.6859879 0
2.1332846 2.6893094 0.19173636
2.1482818 2.7115786 -0.38559401
7.2772713 9.1854305 -0.65456873
2.1274121 2.6852369 0
2.1300473 2.6885629 0.19159135
2.1450038 2.7141724 -0.38559401
7.2887263 9.2227621 -0.65660095
2.1177113 2.6796381 0
2.1300163 2.6952081 0.19188136
7.2807918 9.2356405 -0.65689093
2.1176913 2.6862786 0
2.1283715 2.6998262 0.19202691
7.2615972 9.2342196 -0.65616536
2.1208789 2.6970184 0
2.134742 2.7146475 0.19289747
7.2472239 9.2388945 -0.65587485
2.1095889 2.6893427 0
2.1266475 2.7110894 0.19246191
7.2360549 9.2476444 -0.65587485
2.1031332 2.6877944 0
2.1233702 2.7136571 0.19246191
7.2152858 9.2440948 -0.65500426
2.0950785 2.6841772 0
2.1248875 2.7223678 0.19289747
7.1977258 9.2446051 -0.65442371
2.0966318 2.6928692 0
7.1769013 9.2178593 0.65253037
7.181767 9.2471371 -0.65398818
2.0901806 2.6912856 0
7.160975 9.2203655 0.65209478
7.1562676 9.2373228 -0.65268207
2.0917103 2.6999834 0
7.1450591 9.2228546 0.65165979
7.1387453 9.2377386 -0.65210146
2.0836709 2.6963291 0
7.1227865 9.2170877 0.65064365
7.1244082 9.2422457 -0.65181148
2.0994778 2.7235789 0
7.1068835 9.219511 0.65020812
7.1069002 9.2426081 -0.65123093
2.0898397 2.7178614 0
7.0846553 9.2136784 0.64919257
7.0925612 9.2470608 -0.65094036
2.0802188 2.7121246 0
7.0671916 9.2139845 0.64861202
7.0845437 9.2597551 -0.65123093
2.0880113 2.7291067 0
7.0544758 9.2204561 0.648467
7.0764999 9.2724361 -0.65152091
2.0815513 2.7274859 0
7.0370235 9.2207108 0.64788646
7.084178 9.3057909 -0.65326262
2.0766795 2.7279303 0
7.0148582 9.2147322 0.64687032
7.0886459 9.335042 -0.65471429
2.0733817 2.7304375 0
6.9990029 9.2169914 0.64643478
7.0789285 9.3456697 -0.65485924
2.070081 2.7329409 0
6.9894342 9.2275181 0.64658034
7.0832925 9.3749447 -0.65631038
2.0840364 2.7582831 0
6.9782796 9.2359571 0.64658034
7.0844707 9.4000969 -0.65747148
2.0869675 2.7691126 0
6.968677 9.2464552 0.6467253
7.0840387 9.4231911 -0.65848762
2.0992556 2.7924306 0
6.9668651 9.2673273 0.64759588
7.0773196 9.4379749 -0.65892261
2.0958798 2.794965 0
6.9665761 9.2902927 0.64861202
7.0830326 9.4694099 -0.6605193
2.0831513 2.7849956 0
6.9646807 9.3111839 0.64948255
7.0762486 9.4842119 -0.66095483
7.0503459 9.4494944 0
6.9611931 9.3300037 0.65020812
7.0720682 9.4905663 -0.66109985
7.0461893 9.4558372 0
6.9664245 9.3487949 0.65122426
7.083849 9.5303888 -0.66327709
7.0425258 9.4747934 0
6.9768219 9.3863983 0.65325588
7.0816107 9.5514612 -0.66414762
7.0434661 9.5000134 0
6.9685731 9.3990002 0.65354645
2.1539478 2.9125288 -0.20233753
7.0428157 9.5231657 0
6.9788389 9.4366579 0.65557814
2.1473448 2.9109511 -0.20204753
7.0421195 9.5463314 0
6.9736018 9.4534483 0.65615869
2.1530631 2.9260972 -0.2029181
7.046001 9.5757914 0
6.9760327 9.4807014 0.6574648
2.1429186 2.9271023 -0.20262809
7.0474367 9.6263885 0
6.9761267 9.5289841 0.65964204
2.1393802 2.9296896 -0.20262809
7.0404058 9.6412048 0
6.9753299 9.5520897 0.66065758
2.1373672 2.9343708 -0.20277309
7.0410089 9.6665335 0
6.9744935 9.5752153 0.66167372
2.1384034 2.9432597 -0.20320866
7.0430899 9.6939812 0
6.9751377 9.6004534 0.66283482
2.1363688 2.9479434 -0.20335364
7.042057 9.7172298 0
6.9726777 9.6214943 0.66370541
2.1449833 2.9673698 -0.20451477
7.0440307 9.7447119 0
6.9762726 9.6509752 0.66515708
2.1262021 2.9488864 -0.20306365
7.048995 9.7764387 0
6.9752398 9.6741457 0.66617262
2.1347687 2.9683216 -0.20422421
7.0462914 9.7976227 0
6.9802356 9.7057734 0.66776931
2.1387579 2.9814618 -0.20495032
7.0481048 9.8251677 0
6.9775872 9.7268648 0.66863984
2.141202 2.9924967 -0.20553088
7.0543947 9.859066 0
6.9809527 9.7564249 0.67009151
2.1345627 2.9908476 -0.20524032
7.0938768 9.9396019 0
6.9782128 9.7775393 0.6709621
2.1339641 2.9976623 -0.20553088
7.1331744 10.020247 0
6.9784493 9.8028994 0.67212319
2.1273289 2.9959972 -0.20524032
7.1481857 10.067059 0
6.9741197 9.8219156 0.67284876
6.7040148 9.4657249 -0.64789259
7.1315026 10.069315 0
6.9802685 9.8557806 0.67459041
6.6910744 9.4716978 -0.64774758
7.1193304 10.077925 0
6.9803486 9.8811865 0.67575157
6.6871071 9.4903946 -0.64847314
7.0981569 10.07376 0
6.9878597 9.9172249 0.67763823
6.6828718 9.4965639 -0.6486187
7.0905676 10.075912 0
7.0297198 9.9894457 0.68228269
6.6684036 9.5003738 -0.64832813
7.0753999 10.080215 0
7.0669007 10.068107 0.68707156
6.6688414 9.5254536 -0.64948922
7.0557532 10.0781 0
7.0830469 10.117085 0.68982935
6.6736932 9.556941 -0.65108591
7.055491 10.103688 0
7.0693307 10.123507 0.68968439
6.6651077 9.5692587 -0.65137595
7.0477352 10.118607 0
7.0452127 10.114985 0.68852323
6.6476102 9.5687695 -0.65079534
7.0562944 10.157042 0
7.0285363 10.117085 0.6880877
6.622725 9.5575743 -0.64948922
7.0529075 10.178391 0
7.0192695 10.129847 0.68837827
6.6023107 9.5527477 -0.6486187
7.0509629 10.201894 0
7.0055428 10.136177 0.68823272
6.5819116 9.5478783 -0.64774758
7.0504475 10.227548 0
6.9859176 10.133939 0.68750715
6.5585923 9.5386953 -0.64658648
7.0646229 10.274656 0
6.8971181 10.031041 0.67996043
6.5338364 9.5273285 -0.64528036
7.0639777 10.300355 0
6.7248111 9.8057985 0.66414094
6.5091181 9.5159159 -0.64397424
7.0603399 10.321768 0
6.7026873 9.7989016 0.66312486
6.4961519 9.5216293 -0.64382923
7.0625329 10.351793 0
6.7054892 9.8284626 0.66457653
6.4934106 9.5423574 -0.64469981
7.0675836 10.38613 0
6.6892219 9.8301105 0.66414094
6.4833336 9.5523443 -0.64484477
7.0652609 10.409738 0
6.6685863 9.8252907 0.66327041
6.4878111 9.5838432 -0.64644146
7.0585132 10.426888 0
6.6334033 9.798913 0.66094816
6.4980383 9.6239805 -0.6486187
7.0619297 10.459137 0
6.5953884 9.7681608 0.65833592
6.5226898 9.6857052 -0.65224701
7.0580063 10.48061 0
6.5763192 9.7653408 0.65760982
6.5428534 9.7410297 -0.65543985
7.06565 10.519372 0
6.565968 9.7754431 0.65775537
6.506494 9.7122316 -0.65297258
7.0645223 10.545199 0
6.5093169 9.716445 0.65325588
6.451448 9.6552744 -0.6486187
7.0575585 10.562383 0
6.2969236 9.4240122 0.63308305
6.4167204 9.6284657 -0.64629644
7.0736561 10.614216 0
6.2336555 9.3537722 0.62785804
6.4166613 9.6409931 -0.64687699
7.1205926 10.698647 0
6.2337623 9.366189 0.62843859
6.430872 9.6877031 -0.64948922
7.1479559 10.767945 0
6.2123795 9.3585577 0.62742245
6.4191618 9.695467 -0.64948922
7.1593623 10.813462 0
6.1938958 9.3552265 0.62669688
6.3988533 9.6902103 -0.6486187
7.1391225 10.811249 0
6.2040668 9.3952312 0.62887412
6.3499775 9.6415091 -0.64484477
7.1231937 10.815524 0
7.1002235 10.780647 0.72103286
6.3226342 9.6252909 -0.64324868
7.1058321 10.817595 0
6.3910403 9.7294292 0.65020812
6.3081484 9.6285725 -0.6429581
7.0927558 10.826174 0
6.3963671 9.7632265 0.65194976
6.297935 9.6383686 -0.64310366
7.0825138 10.839089 0
6.37604 9.7579002 0.65107924
6.3047266 9.6742697 -0.64499032
6.4570193 9.9079552 0
6.3614049 9.76124 0.65078866
6.3270135 9.7341604 -0.64847314
6.4677353 9.9506626 0
6.3425264 9.758028 0.6500631
6.377439 9.8377352 -0.65485924
6.4514642 9.9519253 0
6.3321433 9.7678623 0.65020812
6.3909397 9.8847075 -0.65747148
7.1049328 10.989022 0
6.3231606 9.7798748 0.65049869
7.1238837 11.047587 -0.73424625
7.097291 11.006349 0
6.2944407 9.7613029 0.64875698
7.1189656 11.069304 -0.73511738
7.0811687 11.010534 0
6.181447 9.6115541 0.63830751
7.1154013 11.093203 -0.73613292
7.081913 11.040993 0
6.023932 9.3915567 0.62321359
7.1173964 11.125872 -0.73772961
7.0783801 11.064881 0
5.99858 9.3769445 0.62176245
7.1207194 11.16075 -0.73947126
7.0832009 11.101946 0
5.9886417 9.3863735 0.62190747
7.1155958 11.182495 -0.74034184
7.0809584 11.128061 0
5.9968281 9.4242992 0.62393969
7.110435 11.204253 -0.74121296
7.0884261 11.169572 0
6.0369453 9.5127039 0.62930912
7.1093974 11.232595 -0.74251902
7.0902362 11.20232 0
6.0977092 9.6341639 0.63685638
7.1096873 11.263145 -0.74397016
7.0864153 11.226278 0
6.1567974 9.7535801 0.64425808
7.1250525 11.302609 -0.74629241
7.0921206 11.250369 0
6.2021675 9.8386192 0.64962757
7.1307502 11.342004 -0.7483241
7.0909872 11.278758 0
6.222086 9.8967037 0.6529659
7.1322255 11.37483 -0.74992073
7.0884137 11.304956 0
6.2046018 9.8954086 0.65238535
7.1253633 11.394453 -0.75064629
7.0913072 11.339993 0
6.1595755 9.8500233 0.648902
7.1321149 11.466799 -0.75427467
7.0968704 11.410134 0
6.113801 9.8295841 0.64658034
7.1292119 11.493073 -0.75543576
7.0871954 11.425338 0
6.1073928 9.845789 0.64716035
7.1289873 11.523772 -0.7568869
7.0843329 11.451591 0
6.0995941 9.8597927 0.64759588
7.1341567 11.563334 -0.75891858
7.0827932 11.480083 0
6.0344696 9.7809162 0.64193588
7.1365194 11.598502 -0.76066023
7.0648241 11.48198 0
5.8701415 9.5403442 0.6256808
7.1428866 11.64034 -0.76283747
7.0781679 11.534872 0
5.8178415 9.4809923 0.62132686
7.1383066 11.664471 -0.76385301
7.532867 12.309208 0
5.8267279 9.5212631 0.6235041
7.1390991 11.697488 -0.7654497
7.5383263 12.351625 0
5.9167404 9.6946402 0.63438916
7.1465755 11.741619 -0.7677719
7.6113405 12.505215 0
5.9158297 9.7195396 0.63555026
7.1526036 11.783559 -0.7699486
7.5935268 12.509957 0
5.7557755 9.4823542 0.61958575
7.1477809 11.807755 -0.77096474
7.2293611 11.942521 0
5.7133632 9.4381733 0.61624742
7.1442518 11.834179 -0.77212584
7.2095451 11.942335 0
5.6965833 9.4361715 0.61566687
7.1379862 11.856155 -0.77299637
7.2139053 11.982257 0
5.6798162 9.4341431 0.61508632
7.1570926 11.920464 -0.77662474
7.2128158 12.013272 0
5.6844635 9.4677324 0.61682796
7.1640415 11.964772 -0.778947
7.2116613 12.044303 0
5.6890378 9.5013466 0.61856967
7.1628985 11.995726 -0.78039807
7.190433 12.041839 0
5.7015295 9.5483675 0.62118191
7.1550498 12.015541 -0.78112417
7.1878605 12.070641 0
5.6926494 9.5597191 0.62147248
7.1498098 12.039811 -0.78213978
6.1926413 10.428001 0
5.6611915 9.5330753 0.61929524
7.1445265 12.064094 -0.78315586
6.1614733 10.404131 0
5.631134 9.5086117 0.61726356
7.1590118 12.121936 -0.78634864
6.1515417 10.416046 0
5.6103897 9.4997454 0.61624742
7.1596093 12.139692 -0.78721976
6.1452475 10.419761 0
6.1801457 10.478933 0.6795249
7.1607385 12.175203 -0.78896087
6.122098 10.409232 0
6.1161079 10.399048 0.6738649
7.1552253 12.199538 -0.78997701
6.1174183 10.430095 0
6.039124 10.296605 0.66675317
5.9086761 10.102144 -0.65369815
6.1337152 10.486897 0
6.0122514 10.279228 0.66515708
5.8179193 9.9746122 -0.64499032
6.1275945 10.505539 0
6.027318 10.333619 0.66820484
5.7718968 9.9232397 -0.64121699
6.0900331 10.47019 0
6.0318103 10.370091 0.67009151
5.7507749 9.9144707 -0.64020085
6.0617132 10.450535 0
6.0362234 10.40659 0.67197818
5.7283826 9.9034185 -0.63903975
6.0399585 10.44208 0
6.0457606 10.452112 0.67444545
7.1821375 12.451406 -0.8028937
6.8647122 11.901097 0
6.0590935 10.504426 0.6773482
7.1748586 12.473585 -0.80376428
6.8217821 11.859757 0
6.0852618 10.579308 0.68170214
7.1701241 12.500278 -0.80492538
6.7932019 11.843157 0
6.1022067 10.638488 0.68503994
7.1601753 12.517955 -0.80550593
5.9829597 10.459858 0
6.0854764 10.639085 0.68460435
5.8435268 10.244793 -0.65877759
6.0038395 10.525851 0
6.0288467 10.569694 0.67966992
5.8285766 10.247334 -0.65848762
6.141654 10.797761 0
5.9839597 10.520514 0.67604208
5.8200326 10.261143 -0.65892261
6.1478581 10.839123 0
5.9545741 10.498348 0.67415488
5.812747 10.277214 -0.65950316
6.1270719 10.832956 0
5.5005746 9.7252789 0.62408471
7.1648335 12.703565 -0.81464934
6.1063046 10.826747 0
5.5143495 9.7771835 0.62698746
7.1533012 12.719009 -0.81508487
6.0868406 10.822778 0
5.9279466 10.540255 0.67546153
7.1328435 12.718578 -0.81450433
6.077579 10.836936 0
5.9139318 10.545136 0.67531598
7.1364956 12.761209 -0.81668156
6.0809927 10.873798 0
5.901186 10.552275 0.67531598
7.1463771 12.815202 -0.81958377
5.5443897 9.9424467 0
5.8859024 10.554863 0.675026
7.1220512 12.807938 -0.81856823
5.5235224 9.9332237 0
5.8693552 10.555152 0.67459041
5.7407346 10.353281 -0.66124487
5.4736528 9.8716049 0
5.8414764 10.534966 0.67284876
6.89746 12.474927 -0.79621756
5.4126129 9.7893934 0
5.5471191 10.032665 0.6403392
6.8334107 12.376739 -0.78968704
5.2507281 9.510169 0
5.5084052 9.9768753 0.63656586
7.2006531 13.079215 -0.83395219
5.2530408 9.5415869 0
5.4838166 9.9607658 0.63511473
7.1885915 13.094733 -0.83438718
5.3366847 9.7213001 0
6.1257229 11.158612 0.71101892
7.175262 13.107972 -0.83467776
5.3661661 9.8030653 0
6.0997562 11.143209 0.70956725
5.7066617 10.455066 -0.66530877
5.9502892 10.901411 0
6.0763278 11.132324 0.70840609
5.6915379 10.457385 -0.6650182
5.9308934 10.897166 0
6.06039 11.135098 0.70811611
5.67766 10.461972 -0.66487318
5.918962 10.90661 0
6.0221429 11.096736 0.70521331
5.669961 10.477966 -0.66545373
5.3880839 9.9570627 0
5.9765797 11.044591 0.70143998
7.2045169 13.352312 -0.84744948
5.3266163 9.8719521 0
5.8928995 10.921459 0.69316715
7.1982269 13.379314 -0.84861058
5.2727628 9.8004618 0
5.7910624 10.763824 0.68271768
7.1943364 13.410895 -0.85006166
5.2289319 9.7472029 0
5.7485762 10.715867 0.67923492
7.1928339 13.447074 -0.85180336
5.3877654 10.07248 0
5.7466531 10.743424 0.68054104
7.1900282 13.480968 -0.85339946
5.4417238 10.202979 0
5.7226634 10.729728 0.67923492
7.1834941 13.508 -0.85456061
5.4355001 10.221034 0
5.7182312 10.752687 0.68025047
5.2670937 9.9332924 -0.62800974
5.4048572 10.193103 0
5.6979332 10.745819 0.67937988
5.2563004 9.9419441 -0.6281547
5.2380629 9.9074478 0
5.7201643 10.819312 0.6835888
5.2358055 9.9322042 -0.62713915
5.2103119 9.8838434 0
5.7228384 10.856095 0.68547547
5.2080851 9.9086246 -0.62525249
5.3194442 10.12049 0
5.7338958 10.909004 0.68837827
5.146657 9.82055 -0.61930192
5.3301611 10.170701 0
5.7243252 10.922822 0.68881327
5.0592785 9.710825 -0.61160964
5.1985521 9.9781475 0
5.6811061 10.904366 0.68678159
5.0403566 9.7031002 -0.61073911
5.1529055 9.9197645 0
5.1972079 10.005051 0.62974471
5.0274348 9.7068777 -0.61059409
5.13134 9.9074965 0
5.1994553 10.039011 0.63148636
5.0395427 9.7591124 -0.6134963
5.0763774 9.8304434 0
5.2063971 10.082227 0.63380861
5.0658092 9.8391218 -0.61814082
4.970386 9.6537848 0
5.5236697 10.728406 0.67400986
5.0895643 9.8999519 -0.62176913
4.9288578 9.5873537 0
5.5255046 10.74792 0.675026
5.0775986 9.9060946 -0.62176913
4.8982806 9.5562553 0
5.5089569 10.747649 0.67459041
5.0431571 9.8682575 -0.61901134
4.880805 9.5505733 0
5.4947853 10.751986 0.67444545
5.001739 9.8164654 -0.61538303
4.8633552 9.5448713 0
5.4758921 10.747044 0.67371988
4.9781075 9.7993402 -0.61393189
4.8588929 9.5646677 0
4.8168321 9.4818707 0.59404236
4.9850488 9.8424368 -0.61625415
4.882607 9.6401777 0
4.815937 9.5085449 0.59534848
4.9836926 9.8693266 -0.61756021
4.9002814 9.7041454 0
4.8255248 9.5561037 0.59796071
4.9776049 9.8869438 -0.61828578
4.9201469 9.7728157 0
4.8291636 9.5920963 0.59984738
4.9738159 9.9092093 -0.61930192
4.9200072 9.8020086 0
4.8315578 9.6257925 0.60158902
4.9781165 9.9477396 -0.6213336
4.909328 9.8102798 0
4.8315544 9.6548653 0.6030407
4.9742146 9.970026 -0.62234968
4.9148951 9.8511295 0
4.8535204 9.7281141 0.60724908
4.9656367 9.9830103 -0.62278527
4.931963 9.9153128 0
4.9528527 9.9573088 0.62118191
4.9489532 9.9796915 -0.62220472
4.9303837 9.9422464 0
4.9823771 10.047091 0.62640691
4.9276781 9.9670296 -0.62104356
4.9102964 9.9318724 0
6.5513101 13.251089 0.82567269
0 0 -0
4.8844852 9.9097862 0
6.5352936 13.258995 0.82567269
4.8806577 9.9322672 -0.61814082
0 0 0
6.519268 13.266883 0.82567269
4.8675108 9.9358253 -0.6179958
4.853651 9.9075346 0
6.5078053 13.284084 0.82625324
4.8486576 9.9276857 -0.61712468
4.8371077 9.9040375 0
4.9067631 10.046659 0.62452024
4.8264217 9.9125137 -0.61581856
4.8262796 9.9122219 0
4.8775563 10.017534 0.622343
4.7951522 9.8786011 -0.61335135
4.8177052 9.9250631 0
4.8563709 10.00472 0.62118191
4.7843432 9.8867245 -0.6134963
4.8057089 9.9308767 0
4.8227763 9.9661465 0.61842465
4.7757816 9.8995218 -0.61393189
4.7982292 9.9460526 0
4.7971826 9.9438829 0.61668301
4.7581863 9.8935785 -0.61320633
4.7952318 9.9706059 0
0 0 0
4.7473507 9.9016619 -0.61335135
4.8011827 10.01394 0
4.7619019 9.9320116 0.61523134
4.7525897 9.9279699 -0.61480302
4.7940092 10.014494 0
4.7458038 9.9137945 0.61392522
4.7741623 10.004054 -0.6191569
4.7662106 9.9873924 0
4.7170377 9.8843527 0.61174852
4.7754622 10.037963 -0.62089801
4.7217216 9.9250021 0
4.6805348 9.8384275 0.60855573
4.7611046 10.039035 -0.62060803
4.7063794 9.9236431 0
4.6163096 9.7337275 0.60173404
4.7223163 9.9884014 -0.61712468
4.6943851 9.9293232 0
4.581223 9.6899681 0.59868628
4.7113547 9.9964571 -0.61727023
4.6846008 9.9396915 0
4.5573287 9.6696482 0.59709013
4.7036877 10.011541 -0.61785024
4.6648436 9.9288635 0
4.5511651 9.6869049 0.59781569
4.6904864 10.014866 -0.61770523
4.6517363 9.9321289 0
4.548274 9.7112217 0.59897679
4.6651907 9.9922724 -0.61596358
4.6485395 9.9566078 0
4.5486293 9.7426119 0.60057348
4.6311898 9.9507952 -0.61306131
4.6551723 10.002326 0
4.5511065 9.7787247 0.60246015
4.60604 9.9280987 -0.61131966
4.6562266 10.036273 0
4.5524058 9.8124924 0.60420126
4.5820413 9.907712 -0.60972297
4.6517444 10.05843 0
4.5340037 9.8038397 0.60333073
4.5711536 9.9155979 -0.60986799
4.6319594 10.047496 0
4.5178032 9.7998724 0.60275018
4.5591688 9.921114 -0.60986799
4.6176443 10.048361 0
4.5005345 9.7935209 0.60202461
4.5536728 9.9407949 -0.61073911
4.6022468 10.046832 0
4.4854503 9.7918625 0.60158902
4.5513711 9.9675608 -0.61204523
4.5846996 10.040551 0
4.4692979 9.7878199 0.60100847
4.5683846 10.036901 -0.61596358
4.5456123 9.9868689 0
4.4553175 9.7884884 0.6007185
0 0 -0
4.4980593 9.9141474 0
4.4402647 9.7867632 0.60028291
4.5591083 10.081062 -0.6179958
4.4496169 9.8389559 0
4.4241533 9.7826509 0.59970236
4.5405149 10.072346 -0.61712468
4.427032 9.8206043 0
4.4112625 9.7856226 0.59955734
4.5144968 10.047015 -0.61523801
4.3884969 9.7666016 0
4.4026318 9.7980585 0.59999293
4.4959831 10.038239 -0.61436743
4.3713746 9.7600241 0
4.3876019 9.7962542 0.59955734
4.481432 10.021976 -0.61320633
4.3495407 9.7270241 0
4.4071398 9.855834 0.6030407
4.4513369 9.9870386 -0.61073911
4.3123569 9.6752224 0
4.4259 9.9299679 0.60724908
4.4002333 9.9045506 -0.60536909
4.3154578 9.713728 0
4.4434376 10.001799 0.61131299
4.3503904 9.8243351 -0.60014462
4.3153057 9.7451038 0
4.4313488 10.007161 0.61131299
4.3479586 9.8509769 -0.60145074
4.3035274 9.7503109 0
4.4286962 10.0339 0.6126191
4.3611612 9.9132977 -0.6049335
4.2697363 9.7054806 0
4.4207544 10.048759 0.61319965
4.3961353 10.025645 -0.61146468
4.2318792 9.6510496 0
4.3793917 9.9874601 0.60913575
4.4245987 10.123801 -0.61712468
4.1535158 9.5035439 0
6.6367664 15.1854 0.9256686
4.4134035 10.13153 -0.61727023
4.0484943 9.2938337 0
4.1570477 9.5430317 0.58141565
4.410471 10.158304 -0.61857635
4.0186076 9.2557545 0
4.1527586 9.5647345 0.58243173
4.3930306 10.151695 -0.61785024
4.0136204 9.274929 0
4.1339741 9.55305 0.58141565
4.3797331 10.154613 -0.61770523
4.0364223 9.3586302 0
4.1141953 9.53895 0.5802545
4.3654156 10.189055 -0.6191569
4.0353165 9.4185905 0
4.0921574 9.55126 0.58040005
4.3510585 10.189539 -0.61886632
4.0177989 9.4090948 0
4.0795903 9.5538015 0.5802545
4.3387432 10.194789 -0.61886632
4.0105033 9.423521 0
4.0690641 9.561121 0.58040005
5.0224361 11.840958 -0.71842676
3.9747283 9.3708677 0
4.0615668 9.5755997 0.5809806
5.0071144 11.844626 -0.71828175
3.9471891 9.3373098 0
4.0671926 9.6211853 0.58344787
4.9988542 11.86504 -0.71915287
3.924788 9.3156891 0
4.0626235 9.642848 0.58446342
4.9845138 11.871072 -0.71915287
3.9135289 9.3204241 0
4.0439301 9.6309862 0.58344787
4.9711685 11.87948 -0.71929783
3.9012606 9.3227482 0
4.0112262 9.5855303 0.58040005
4.9588089 11.89027 -0.71958786
3.889993 9.3274546 0
3.9976389 9.5855684 0.58010954
4.946435 11.901056 -0.71987844
3.8817172 9.3393602 0
3.9900427 9.5999899 0.58069009
4.9290671 11.89982 -0.71944284
3.8644521 9.3296127 0
3.9804308 9.6096096 0.5809806
4.1998653 10.174126 -0.61480302
3.8472199 9.3198462 0
3.973773 9.62642 0.58170617
4.1917357 10.171851 -0.61451244
4.2173772 10.234074 0
3.9729056 9.6408281 0.58243173
4.1725311 10.160081 -0.6134963
4.1941319 10.212679 0
3.9592776 9.64081 0.58214116
4.9003491 11.973461 -0.72263563
4.1591191 10.162349 0
3.9486127 9.6479988 0.58228672
4.8858776 11.979374 -0.72263563
4.1409383 10.152904 0
3.9251764 9.6238909 0.58054507
4.8772717 11.999717 -0.72350675
4.1257267 10.150664 0
4.3176074 10.622755 0.64048475
4.864718 12.010413 -0.72379678
4.1173663 10.165291 0
4.3076925 10.635183 0.64091974
4.8472838 12.009051 -0.72336119
4.1099539 10.182332 0
4.3016481 10.657249 0.64193588
4.8327694 12.014899 -0.72336119
4.0927892 10.175211 0
4.2994351 10.68896 0.64353251
4.8240509 12.035207 -0.72423232
4.0814624 10.182571 0
4.2913489 10.706204 0.64425808
4.8075757 12.036196 -0.72394174
4.0614328 10.16816 0
4.2784095 10.711382 0.64425808
4.7978358 12.054074 -0.72466785
4.0433674 10.158548 0
4.2645001 10.714123 0.64411253
4.786139 12.067101 -0.72510284
4.0272517 10.153749 0
4.2505941 10.716854 0.64396751
4.7725124 12.075299 -0.72524846
3.9862843 10.086003 0
4.2414622 10.731648 0.64454812
4.7598209 12.085888 -0.72553843
0 0 0
4.2284918 10.736766 0.64454812
4.749011 12.101306 -0.72611898
0 0 0
4.2193127 10.751543 0.64512867
4.7334399 12.104618 -0.72597396
0 0 0
4.2101035 10.766313 0.64570922
4.7178645 12.107901 -0.72582841
0 0 0
6.7639585 17.358984 1.0406135
4.7079358 12.12571 -0.72655457
0 0 0
6.7561436 17.401052 1.0426452
4.7007813 12.150778 -0.72771567
0 0 0
6.7529235 17.45524 1.0454024
4.6823578 12.14675 -0.72713512
0 0 0
6.7636027 17.545818 1.0503368
4.6723347 12.164525 -0.72786069
0 0 0
6.7656884 17.614616 1.0539652
4.6557736 12.165304 -0.72757012
4.7525773 12.418246 0
6.7351136 17.598516 1.0525141
4.645699 12.183058 -0.72829568
4.7190232 12.375346 0
6.7008848 17.572655 1.0504824
4.6309748 12.188663 -0.72829568
4.7086911 12.39321 0
6.6565752 17.520016 1.0468541
4.6291404 12.20604 -0.72916681
4.7012029 12.396052 0
6.5483236 17.26651 1.0314702
4.609797 12.199473 -0.72844124
0 0 0
6.4925551 17.182049 1.0259551
4.5987148 12.214762 -0.72902179
0 0 0
6.4644647 17.170425 1.024794
4.5903382 12.237333 -0.73003733
0 0 0
6.4446244 17.180655 1.0249389
4.5719099 12.233134 -0.72945678
0 0 0
6.4174919 17.171389 1.0239229
4.5625672 12.253265 -0.7303279
4.6235008 12.416909 0
6.3858619 17.14992 1.0221817
4.5504704 12.26608 -0.73076344
4.6066818 12.417603 0
6.3524799 17.12351 1.0201496
4.535646 12.271569 -0.73076344
4.5943823 12.430486 0
6.3218784 17.10437 1.0185534
4.5253034 12.28923 -0.731489
4.584753 12.450676 0
6.2913289 17.085173 1.0169567
4.514925 12.306885 -0.73221457
4.56881 12.453766 0
6.256361 17.05373 1.0146345
4.4982653 12.307446 -0.731924
4.5510812 12.451951 0
6.219696 17.017353 1.0120223
4.4842825 12.31532 -0.73206955
4.5351391 12.454988 0
6.194685 17.01265 1.0112967
4.470284 12.32317 -0.73221457
4.5156498 12.448229 0
6.1750093 17.022562 1.0114417
4.4562726 12.331004 -0.73235959
4.5067978 12.470812 0
6.153554 17.027571 1.0112967
4.4457698 12.348601 -0.7330851
4.9263129 13.683361 0
6.1347337 17.039879 1.0115867
4.4308457 12.353964 -0.7330851
4.9036279 13.672162 0
6.1106305 17.037495 1.0110061
4.4202857 12.371541 -0.73381066
4.8853512 13.673171 0
6.0979109 17.066895 1.0123129
4.405334 12.376873 -0.73381066
4.8592296 13.652102 0
6.0868664 17.101171 1.013909
4.3912468 12.384644 -0.73395622
4.839251 13.648151 0
6.5568018 18.492163 1.0959088
4.3806052 12.402188 -0.73468179
4.8270893 13.666256 0
6.5431051 18.524569 1.0973598
4.3656163 12.407473 -0.73468179
0 0 0
6.5586648 18.640312 1.1037459
4.3532004 12.420097 -0.73511738
0 0 0
6.5851231 18.787987 1.1120182
4.3381901 12.425348 -0.73511738
0 0 0
6.5752654 18.832729 1.1141955
4.3223171 12.42812 -0.73497182
0 0 0
6.5550632 18.848017 1.1146305
4.3124022 12.44807 -0.73584294
0 0 0
5.9462585 17.164318 1.0146345
4.3116736 12.470319 -0.73700404
0 0 0
5.9256983 17.138437 1.0128928
4.294909 12.470602 -0.73671347
0 0 0
5.903295 17.140675 1.0126028
4.26896 12.493237 -0.73743904
0 0 0
5.8786592 17.204069 1.0155057
4.25805 12.510692 -0.73816514
0 0 0
5.8603768 17.218533 1.0159407
4.2437634 12.518286 -0.73831016
0 0 0
5.8404036 17.228069 1.0160862
4.2311292 12.530793 -0.73874569
0 0 0
5.9816732 17.715157 1.0443869
4.2168126 12.538357 -0.73889071
0 0 0
5.9975333 17.833189 1.0509174
4.2024837 12.545904 -0.73903573
0 0 0
5.7036376 17.02738 1.0030239
4.1922541 12.565758 -0.73990625
0 0 0
5.6978626 17.078632 1.0056367
4.1770678 12.570814 -0.73990625
0 0 0
5.6764007 17.083033 1.0054911
4.1635094 12.580791 -0.74019682
4.2323585 12.78883 0
5.655755 17.089878 1.0054911
4.1483049 12.585812 -0.74019682
4.2152715 12.788986 0
5.6351013 17.096699 1.0054911
4.1395779 12.610566 -0.74135792
4.2022514 12.801491 0
5.6193032 17.118313 1.0063622
4.1267576 12.622961 -0.74179292
0 0 0
5.6034579 17.139906 1.0072328
4.1115022 12.627938 -0.74179292
0 0 0
5.5867653 17.159016 1.0079584
4.0970445 12.635376 -0.74193847
0 0 0
5.565227 17.163284 1.0078133
4.0833697 12.645258 -0.74222851
0 0 0
5.5372992 17.147743 1.0065073
4.071269 12.660077 -0.74280906
4.1264296 12.831605 0
5.518168 17.159374 1.0067978
4.0583472 12.672414 -0.74324459
4.1117153 12.839058 0
5.503767 17.185816 1.0079584
4.046979 12.689684 -0.74397016
4.0874996 12.81674 0
5.4853668 17.199883 1.0083939
4.0316429 12.694565 -0.74397016
4.0743742 12.829113 0
5.4606481 17.194118 1.0076684
4.0186524 12.706861 -0.74440575
4.0533757 12.816655 0
5.4382997 17.195744 1.0073779
4.013319 12.716714 -0.74484074
0 0 0
5.4271288 17.19655 1.0072328
4.0010662 12.731469 -0.74542129
0 0 0
5.4001136 17.183264 1.0060717
3.9833541 12.728862 -0.7449863
0 0 0
5.3770213 17.182344 1.0056367
3.9726076 12.748546 -0.74585682
0 0 0
5.357028 17.191307 1.0057817
3.9595115 12.760784 -0.74629241
0 0 0
5.3439507 17.22258 1.0072328
3.9463916 12.77301 -0.74672794
0 0 0
5.3361759 17.271227 1.0097001
3.9332449 12.785213 -0.74716294
0 0 0
5.3267646 17.314919 1.0118773
3.923882 12.809832 -0.7483241
0 0 0
5.3210602 17.371033 1.01478
3.9091582 12.817047 -0.74846905
0 0 0
5.3053708 17.39484 1.0157956
3.8936687 12.821761 -0.74846905
4.3060093 14.179589 0
5.3009582 17.455933 1.0189884
3.8789272 12.828951 -0.74861461
4.2836027 14.167351 0
5.2821188 17.46979 1.019424
3.8664193 12.84358 -0.74919516
4.2687292 14.179986 0
5.2595096 17.471188 1.0191339
3.8538787 12.85819 -0.74977517
4.2530885 14.190124 0
5.2257137 17.435219 1.0166668
3.8427989 12.877782 -0.75064629
4.2314758 14.180294 0
5.1845808 17.374289 1.0127479
3.8287144 12.887392 -0.75093633
4.2202649 14.205345 0
5.1510038 17.338198 1.0102806
3.814615 12.896997 -0.75122684
4.2008853 14.202954 0
5.1293139 17.341921 1.0101357
3.799762 12.904087 -0.75137186
4.1778393 14.188047 0
5.1024842 17.328165 1.0089744
3.786361 12.916152 -0.75180739
4.1599617 14.190591 0
5.0990863 17.394161 1.0124578
3.7751179 12.935679 -0.75267798
4.140624 14.188109 0
5.1079078 17.502569 1.0184078
3.760936 12.945227 -0.75296855
4.1191196 14.178102 0
5.0831313 17.496254 1.0176823
3.7467341 12.954749 -0.75325853
4.1077695 14.20307 0
5.0583782 17.489904 1.0169567
3.7325172 12.964266 -0.7535491
4.0891662 14.203026 0
5.0386806 17.501003 1.0172473
3.7175648 12.971262 -0.75369412
4.0727181 14.210456 0
5.0211091 17.519566 1.0179728
3.7047405 12.98574 -0.75427467
4.0598297 14.230387 0
5.0056396 17.545609 1.0191339
3.6869168 12.982705 -0.75383908
4.0390754 14.222757 0
4.981596 17.541647 1.0185534
3.6861546 13.009926 -0.75529021
4.0389953 14.255242 0
4.9667459 17.529648 1.0176823
3.6732533 13.024374 -0.75587076
4.0274191 14.28015 0
4.9434471 17.528141 1.0172473
3.6575131 13.028803 -0.75587076
4.0108638 14.28751 0
4.9271779 17.551605 1.0182629
3.6431677 13.038222 -0.75616133
3.9886968 14.274807 0
4.9080653 17.565058 1.0186985
3.6288021 13.047617 -0.75645131
0 0 0
4.8847485 17.563461 1.0182629
3.6137292 13.054504 -0.75659686
0 0 0
4.8884792 17.659506 1.0234879
3.6027822 13.076389 -0.75761247
0 0 0
4.9837756 18.088741 1.0480152
3.5862927 13.07823 -0.75746745
0 0 0
4.9742832 18.139851 1.0506275
3.5704877 13.082553 -0.75746745
0 0 0
4.9523611 18.145849 1.0506275
3.5580823 13.099394 -0.75819302
0 0 0
4.905231 18.05904 1.0452574
3.5429289 13.10619 -0.75833797
0 0 0
4.8752694 18.034853 1.0435157
3.5338421 13.135558 -0.75978965
3.6091669 13.415545 0
4.8541512 18.043247 1.0436612
3.5166223 13.134793 -0.75949913
3.5714183 13.339459 0
4.829658 18.039059 1.0430807
3.5014198 13.141551 -0.75964469
3.5552976 13.343765 0
4.8031745 18.027304 1.0420647
3.4868689 13.15079 -0.75993466
3.542506 13.360627 0
4.7727313 18.000444 1.0401779
3.4756174 13.172584 -0.7609508
0 0 0
4.7450123 17.983589 1.0388719
3.4583774 13.171742 -0.76066023
3.5121918 13.376702 0
4.7232795 17.989309 1.0388719
3.4450867 13.185967 -0.76124078
0 0 0
4.7021956 17.997515 1.0390168
3.4229734 13.231992 -0.76341802
3.4656327 13.396897 0
4.6580386 18.006313 1.0388719
3.4251165 13.306568 -0.76748139
3.4526858 13.413674 0
4.6297998 17.986759 1.0374202
3.4270868 13.381179 -0.77154529
3.4358304 13.415318 0
4.6151547 18.020031 1.0390168
3.4243898 13.438186 -0.77459306
3.4260457 13.444684 0
4.6004367 18.053295 1.0406135
3.4138968 13.464979 -0.77589917
3.4110761 13.453855 0
4.5805335 18.066389 1.0410485
3.3995316 13.476656 -0.77633476
3.3979993 13.470581 0
4.573319 18.129862 1.0443869
3.3958256 13.496339 -0.77735031
3.3904948 13.475153 0
8.0348005 31.933441 1.8392743
3.3845632 13.520598 -0.7785114
3.3742101 13.479239 0
7.9886379 31.91288 1.8375326
3.3732474 13.544849 -0.7796725
3.3635828 13.506042 0
7.9519558 31.930075 1.8379682
3.3593783 13.559004 -0.78025311
3.3435044 13.494935 0
5.0152431 20.242348 1.1648462
3.3436136 13.565574 -0.78039807
5.3674459 21.776585 0
4.9957552 20.268576 1.1660073
3.3303156 13.58223 -0.78112417
0 0 0
4.4725327 18.240602 1.0490308
3.3077431 13.560994 -0.7796725
0 0 0
4.4307876 18.165222 1.0443869
3.2907426 13.562459 -0.77952754
5.2890854 21.798424 0
4.3941302 18.109959 1.0409034
3.2664278 13.53359 -0.77764088
5.27068 21.837685 0
4.3698063 18.10515 1.0403229
3.2403672 13.497101 -0.77531862
0 0 0
4.3424678 18.087681 1.0390168
3.2101765 13.442883 -0.77198082
0 0 0
4.3260403 18.115658 1.0403229
3.1867251 13.416415 -0.77023917
0 0 0
4.3095517 18.143621 1.0416291
3.1681221 13.410141 -0.76965863
0 0 0
4.328249 18.320768 1.0514979
3.1542938 13.424077 -0.77023917
7.2947302 31.044992 0
4.3304777 18.429693 1.0574485
3.1416178 13.443056 -0.7711097
7.261951 31.074057 0
4.3141179 18.460211 1.0588996
3.1283131 13.459495 -0.77183527
7.2190967 31.059998 0
4.2859278 18.440105 1.0574485
3.1161444 13.480989 -0.77285141
7.1909394 31.109268 0
4.2408218 18.34654 1.0517886
3.1016002 13.492344 -0.77328694
11.029854 47.981228 0
4.1901259 18.227566 1.0446769
3.0905061 13.518877 -0.77459306
10.961431 47.948856 0
4.1623087 18.207291 1.0432258
3.0770485 13.535268 -0.77531862
10.905794 47.972218 0
4.1380019 18.202171 1.0426452
3.0635557 13.551646 -0.77604419
10.839787 47.949825 0
4.3743978 19.350159 1.1080998
3.0460403 13.550273 -0.77575415
10.786408 47.983204 0
4.3379054 19.297117 1.1047615
3.0358989 13.581831 -0.77735031
10.728422 47.996201 0
4.3066506 19.266848 1.1027298
3.8801248 17.408075 -0.99620944
10.692061 47.969643 0
4.3017936 19.299881 1.1044716
3.8731432 17.476171 -0.99983782
10.633529 47.979992 0
4.2824044 19.322815 1.1054871
10.583948 48.03093 0
4.2713561 19.383808 1.1086805
3.8292301 17.477863 -0.99940228
10.518664 48.010635 0
4.2351408 19.330572 1.105342
10.46009 48.02076 0
4.1918731 19.244284 1.1001176
10.389941 47.977413 0
4.1521192 19.173153 1.0957637
6.9026594 32.061493 0
4.1048856 19.066385 1.0893775
6.8530226 32.018925 0
4.0736885 19.033224 1.0872009
6.8154111 32.032269 0
4.0934038 19.238899 1.098666
6.7718554 32.017567 0
4.0760698 19.271799 1.1002626
6.725668 31.990074 0
5.4924278 26.124271 1.4911031
6.6811528 31.970154 0
4.2330546 20.255697 1.1558478
6.6382837 31.957819 0
4.1964235 20.20229 1.15251
6.596508 31.950529 0
4.169908 20.197166 1.1519295
0 0 0
4.1376653 20.164005 1.1497523
0 0 0
4.1039529 20.123167 1.14714
0 0 0
4.0708604 20.08482 1.1446728
0 0 0
4.0414591 20.064257 1.1432216
7.9076047 39.504684 0
4.0263915 20.114983 1.1458338
8.3695936 42.076786 0
4.0036049 20.127481 1.1462694
0 0 0
3.9853282 20.162893 1.1480111
7.8300519 39.867607 0
3.9729788 20.228878 1.1514939
7.7504721 39.716125 0
3.955502 20.269373 1.1535262
7.6905899 39.664154 0
3.9295232 20.266483 1.1530906
7.6478605 39.571701 0
3.9172785 20.268854 1.1530906
7.5990582 39.575794 0
3.8957236 20.288877 1.1539612
0 0 0
5.1380572 26.934639 1.5315949
0 0 0
5.1026044 26.925505 1.5307237
0 0 0
5.0782385 26.97506 1.533191
0 0 0
5.0547166 27.029707 1.5359488
0 0 0
5.0263233 27.058786 1.5372548
0 0 0
4.9931531 27.062286 1.5371099
0 0 -0
0 0 0
5.1988444 28.369175 1.6109818
0 0 -0
7.3210006 40.223469 0
5.1594448 28.347322 1.6093857
7.2086024 40.156521 0
5.0799069 28.298326 1.6059023
7.1454606 40.083218 0
5.0498137 28.327465 1.6072085
0 0 0
5.0423036 28.484499 1.6157713
0 0 0
6.6393738 37.772366 2.1421649
7.534339 43.169815 0
6.591495 37.767567 2.1414394
0 0 -0
7.4883909 43.214783 0
6.5396438 37.739655 2.1394072
0 0 -0
7.4295497 43.185326 0
5.0186729 29.171755 1.6533602
0 0 -0
7.3769259 43.191708 0
4.9764214 29.136816 1.6510381
0 0 -0
7.3430028 43.308353 0
4.9438186 29.158184 1.6519092
0 0 -0
0 0 0
4.9116025 29.182076 1.6529253
0 0 -0
0 0 0
4.8733401 29.170046 1.6519092
0 0 0
4.8397908 29.186167 1.6524898
6.7278833 40.878231 0
4.8066311 29.204811 1.6532153
0 0 -0
6.688026 40.789833 0
4.7839408 29.176939 1.6514736
0 0 0
4.739502 29.12628 1.6482809
0 0 -0
6.218133 38.50655 0
4.6819372 28.993469 1.6404436
0 0 -0
