# .PCD v0.7 - Point Cloud Data file format
VERSION 0.7
FIELDS x y z
SIZE 4 4 4
TYPE F F F
COUNT 1 1 1
WIDTH 1709
HEIGHT 1
VIEWPOINT 0 0 0 1 0 0 0
POINTS 1709
DATA ascii
60.106239 68.222473 -0.47878233
60.038971 68.295418 -0.32563251
64 64 -0
64 64 0
52.504475 76.465973 0.47358298
60.222122 68.086884 -0.91756171
60.167114 68.146393 -0.778934
60.141975 68.173584 -0.62954199
60.108116 68.210213 -0.47792557
60.016228 68.309616 -0.32707369
64 64 -0
64 64 0
52.514118 76.425354 0.47256687
60.237339 68.06057 -0.91267347
60.168922 68.134407 -0.777551
60.136936 68.168922 -0.62954199
60.099533 68.20929 -0.47835478
60.007511 68.308594 -0.3273617
64 64 -0
64 64 0
52.509712 76.400032 0.47213131
60.235798 68.052399 -0.91185933
60.177586 68.115067 -0.77478236
60.142281 68.153076 -0.6278528
60.111931 68.185753 -0.47621369
60.009342 68.296196 -0.32678568
64 64 -0
64 64 0
52.508884 76.370911 0.47155076
60.22081 68.058693 -0.91430187
60.169201 68.114113 -0.77547383
60.130333 68.155861 -0.62897968
60.09288 68.196083 -0.47792557
60.028835 68.264862 -0.32476735
64 64 -0
64 64 0
52.504562 76.345612 0.47111577
60.236137 68.032448 -0.90941364
60.181347 68.091148 -0.77201372
60.132256 68.143745 -0.6278528
60.098312 68.180107 -0.47664291
60.020157 68.26384 -0.32505536
64 64 -0
64 64 0
52.503838 76.316521 0.47053522
60.248154 68.00985 -0.9053396
60.190121 68.071877 -0.76924503
60.151546 68.113098 -0.62391424
60.096783 68.171631 -0.47621369
60.0256 68.247704 -0.32419133
64 64 -0
59.549896 68.756126 0
52.496071 76.295021 0.47024465
60.226402 68.023338 -0.90941364
60.192074 68.059944 -0.7678594
60.139633 68.115852 -0.62503892
60.102272 68.155685 -0.47493103
60.016937 68.246674 -0.32447934
64 64 -0
59.45158 68.849442 0
64 64 0
60.235088 68.004372 -0.9061538
60.190605 68.051682 -0.76716793
60.145107 68.100075 -0.62334973
60.11132 68.136009 -0.47321916
60.022442 68.230545 -0.32361418
64 64 -0
59.43504 68.855309 0
52.466393 76.267181 0.47024465
60.249611 67.9841 -0.9020797
60.184723 68.053032 -0.7678594
60.146111 68.094048 -0.62278742
60.101791 68.141129 -0.47407427
60.016331 68.231918 -0.32390332
59.15522 69.14669 -0.19740307
59.517715 68.761604 0
52.451851 76.267792 0.47053522
60.234615 67.990356 -0.9045254
60.179829 68.048416 -0.7678594
60.144653 68.085701 -0.62222505
60.107349 68.125229 -0.47279161
60.02898 68.208282 -0.32246101
59.159695 69.129501 -0.19696806
59.511967 68.756187 0
52.440613 76.250038 0.47038963
60.243385 67.971443 -0.90126556
60.195621 68.021935 -0.76370776
60.13623 68.084724 -0.62278742
60.123547 68.098137 -0.47022298
60.027451 68.199722 -0.322173
59.192787 69.082123 -0.19537139
57.886017 70.463615 0
52.425819 76.236061 0.47038963
60.228397 67.977646 -0.9037081
60.197674 68.010048 -0.76232213
60.152267 68.057938 -0.61941117
60.107994 68.10463 -0.47150731
60.0117 68.206184 -0.32303816
59.158043 69.106476 -0.19653252
57.960587 70.369347 0
52.400314 76.233383 0.4708252
60.254238 67.940849 -0.89637417
60.185913 68.012733 -0.76370776
60.157875 68.042229 -0.61772197
60.103039 68.099922 -0.47150731
60.017315 68.190109 -0.322173
59.162621 69.089317 -0.19609696
57.949299 70.365829 0
52.367641 76.23819 0.47155076
60.242653 67.943481 -0.89800566
60.208755 67.979057 -0.75817049
60.152992 68.037582 -0.61772197
60.108715 68.084053 -0.47022298
60.01582 68.181557 -0.32188499
59.163635 69.075951 -0.19580695
57.970337 70.328369 0
52.345688 76.231659 0.47184134
60.275452 67.899612 -0.88904029
60.214352 67.963585 -0.75609332
60.134079 68.04763 -0.61997354
60.100239 68.083061 -0.47065055
60.021492 68.165512 -0.32101983
59.189808 69.036285 -0.19450083
57.944721 70.33989 0
52.327328 76.221321 0.47198632
60.255768 67.901306 -0.89148599
60.208256 67.950813 -0.75540179
60.148941 68.012611 -0.61603278
60.118824 68.043991 -0.4672268
60.015015 68.152153 -0.32073182
59.17765 69.024643 -0.19450083
57.900585 70.355286 0
52.247456 76.24556 0.47401801
60.254478 67.893219 -0.89067179
60.210434 67.939003 -0.75401884
60.154655 67.996979 -0.61434573
60.121056 68.031906 -0.46637169
60.020763 68.136147 -0.31986666
59.160786 69.030037 -0.19493584
57.928989 70.31041 0
52.229069 76.235092 0.474163
60.260075 67.878014 -0.88822609
60.191757 67.948853 -0.7567848
60.153366 67.988663 -0.61378127
60.105488 68.038307 -0.46765602
60.01577 68.13134 -0.31986666
59.147491 69.031677 -0.1952264
57.91415 70.310555 0
52.207073 76.228348 0.47445354
60.262272 67.866379 -0.88659459
60.207909 67.922607 -0.75263315
60.162678 67.969391 -0.61152971
60.125595 68.007751 -0.46465981
60.021568 68.115356 -0.31900153
59.17754 68.988441 -0.19377472
57.957172 70.250809 0
52.195915 76.210358 0.47430855
60.23008 67.890251 -0.89311433
60.21365 67.907211 -0.75055605
60.157887 67.964752 -0.61152971
60.113617 68.010437 -0.46551493
60.02739 68.099419 -0.31813747
59.153423 69.001282 -0.19450083
57.949623 70.243507 0
52.166702 76.211014 0.4748891
60.239159 67.871513 -0.88985449
60.212425 67.89904 -0.74986452
60.156635 67.956467 -0.61096734
60.115921 67.998383 -0.46465981
60.008022 68.109451 -0.31929064
59.172737 68.969322 -0.19348472
57.931213 70.247375 0
52.141106 76.207878 0.47532412
60.23793 67.863426 -0.88904029
60.21471 67.887276 -0.74848151
60.14476 67.959106 -0.61209422
60.103935 68.00103 -0.46551493
60.017494 68.089806 -0.31813747
59.166733 68.963486 -0.19348472
57.905502 70.258698 0
52.108223 76.212173 0.47605023
60.247078 67.844734 -0.88578039
60.23455 67.857559 -0.74363571
60.157738 67.936256 -0.60927814
60.109852 67.985313 -0.46423227
60.008945 68.088684 -0.31842548
59.153488 68.965073 -0.19377472
57.963394 70.18428 0
52.075329 76.216385 0.4767758
60.204403 67.879059 -0.89474583
60.215858 67.867355 -0.74640441
60.14587 67.938881 -0.61040503
60.101452 67.984276 -0.46465981
60.022095 68.065376 -0.3169843
59.162029 68.944351 -0.19319417
57.868561 70.266266 0
52.053314 76.209389 0.47706577
60.237797 67.835648 -0.88578039
60.225243 67.84845 -0.74363571
60.162472 67.912445 -0.60702664
60.114613 67.961235 -0.46252039
60.035294 68.042107 -0.31554312
59.152409 68.942223 -0.19333972
57.864635 70.255142 0
52.045841 76.187531 0.4767758
60.267815 67.79586 -0.87763232
60.206524 67.8582 -0.74640441
60.168427 67.896942 -0.60533959
60.117035 67.949211 -0.46166363
60.019543 68.04837 -0.31640714
59.168308 68.914124 -0.19246861
57.904518 70.199478 0
52.023842 76.180481 0.47706577
64 64 -0
60.226521 67.82859 -0.74155861
60.149448 67.906792 -0.60759115
60.108654 67.948181 -0.46209285
60.021908 68.036194 -0.31583112
59.173309 68.897186 -0.1920336
57.929913 70.158745 0
32.952835 95.500633 1.2352353
64 64 -0
60.213631 67.837029 -0.74363571
60.157803 67.893608 -0.60590196
60.131516 67.92025 -0.45909667
60.030373 68.022743 -0.31496596
59.166702 68.897964 -0.19217861
57.882336 70.199524 0
32.941116 95.474472 1.2349448
64 64 -0
60.209 67.832451 -0.74363571
60.174538 67.867294 -0.60252571
60.130386 67.911926 -0.4586691
60.025517 68.017944 -0.31496596
59.142521 68.910591 -0.19290416
57.88216 70.184731 0
32.873871 95.466476 1.2361059
64 64 -0
60.211445 67.82074 -0.74225008
60.162716 67.869881 -0.60365039
60.111206 67.921829 -0.46038097
60.031593 68.002113 -0.31410083
59.140244 68.901031 -0.19275917
57.918671 70.13298 0
32.813908 95.450989 1.236977
64 64 -0
60.213898 67.809044 -0.74086708
60.147293 67.876053 -0.60533959
60.120945 67.902557 -0.4586691
60.019463 68.004662 -0.31467795
59.130669 68.898842 -0.19290416
57.870899 70.166245 0
36.644539 91.521225 1.0837176
64 64 -0
60.223465 67.790253 -0.73809844
60.153374 67.860596 -0.60365039
60.119869 67.894226 -0.45823991
60.018272 67.996185 -0.31438994
59.121086 68.896629 -0.19304916
57.804688 70.217812 0
36.6003 91.499207 1.0841531
64 64 -0
60.222427 67.782135 -0.73740697
60.173855 67.830772 -0.59970969
60.126038 67.878647 -0.45695722
60.020767 67.984047 -0.31381279
59.122513 68.883385 -0.19275917
57.808201 70.199287 0
36.515686 91.517548 1.0861847
64 64 -0
60.224968 67.77047 -0.73602128
60.151241 67.844109 -0.60252571
60.11047 67.884834 -0.45823991
60.026924 67.968277 -0.31294876
59.1203 68.873802 -0.1926136
57.800716 70.191795 0
36.464073 91.502678 1.0869104
64 64 -0
60.223969 67.762367 -0.73532981
60.150211 67.835861 -0.6019612
60.116676 67.86927 -0.45695722
60.033131 67.952515 -0.3120836
59.088642 68.893585 -0.19362973
57.819054 70.158585 0
36.379326 91.520729 1.0889421
64 64 -0
60.262127 67.715355 -0.72702384
60.159996 67.816879 -0.59970969
60.126572 67.850098 -0.45524538
60.035702 67.940422 -0.31150645
59.101158 68.869331 -0.19290416
57.859604 70.103409 0
36.327656 91.505661 1.0896682
64 64 -0
60.236256 67.73204 -0.73117816
60.166199 67.801506 -0.59802264
60.121922 67.845413 -0.45524538
60.012566 67.95385 -0.31294876
59.098965 68.859756 -0.19275917
57.789402 70.158287 0
36.264931 91.501465 1.0908287
64 64 -0
60.210354 67.748657 -0.73532981
60.168842 67.789719 -0.59689581
60.117279 67.840729 -0.45524538
60.029865 67.927193 -0.31121844
59.085716 68.86113 -0.19304916
57.867065 70.066597 0
36.194771 91.504486 1.0922804
64 64 -0
64 64 -0
60.160652 67.788651 -0.59745812
60.094372 67.854057 -0.45738479
60.036171 67.911491 -0.31035328
59.065048 68.869789 -0.19362973
57.75602 70.161537 0
36.106079 91.52562 1.094457
64 64 -0
64 64 -0
60.170547 67.769768 -0.59520876
60.122643 67.816925 -0.4535335
60.020386 67.917587 -0.31121844
59.040653 68.88205 -0.19435528
57.807926 70.095566 0
36.028397 91.535645 1.0961987
64 64 -0
64 64 -0
60.165997 67.765137 -0.59520876
60.114372 67.815834 -0.45396104
60.034103 67.894661 -0.30977726
59.068127 68.843285 -0.19304916
57.863693 70.026085 0
35.969189 91.527313 1.0972148
64 64 -0
64 64 -0
60.168716 67.75338 -0.59408188
60.106102 67.81472 -0.45438862
60.033092 67.886246 -0.30948925
59.039997 68.859154 -0.19392028
57.841545 70.033234 0
35.924805 91.504341 1.0976504
64 64 -0
64 64 -0
60.149647 67.762955 -0.59633344
60.105164 67.806427 -0.45396104
60.039505 67.870598 -0.30862409
59.00441 68.882202 -0.19508083
57.82309 70.036705 0
35.876724 91.484924 1.098231
64 64 -0
64 64 -0
60.166927 67.737022 -0.5929572
60.107914 67.794563 -0.45310593
60.049644 67.851364 -0.30747092
58.998512 68.87616 -0.19508083
57.845615 70.000168 0
35.746796 91.545242 1.1020043
64 64 -0
60.200356 67.695488 -0.73117816
60.169708 67.725296 -0.59183037
60.12542 67.768372 -0.45053732
60.04129 67.850197 -0.30775893
58.992626 68.87011 -0.19508083
57.77494 70.05442 0
35.709812 91.514702 1.1021492
64 64 -0
64 64 -0
60.161568 67.724197 -0.59239268
60.117188 67.767258 -0.45096487
60.070049 67.812996 -0.30516458
59.001652 68.849594 -0.19450083
57.752686 70.061386 0
35.639297 91.516678 1.1036004
64 64 -0
64 64 -0
60.175323 67.701889 -0.58957881
60.123695 67.751862 -0.44968221
60.050579 67.822632 -0.30631775
58.995792 68.843552 -0.19450083
57.707962 70.090042 0
35.59486 91.49324 1.104036
64 64 -0
64 64 -0
60.209618 67.664268 -0.58395106
60.110367 67.760216 -0.45096487
60.059429 67.809456 -0.30545259
58.97419 68.858589 -0.1952264
57.752941 70.0392 0
35.537151 91.515808 1.1056327
64 64 -0
64 64 -0
60.179596 67.684364 -0.58788961
60.10952 67.751953 -0.45053732
60.051098 67.808289 -0.30574173
58.96085 68.859718 -0.19551639
57.74189 70.035271 0
35.447823 91.5355 1.1078093
64 64 -0
64 64 -0
60.167816 67.686798 -0.5890165
60.134586 67.718773 -0.44711357
60.053959 67.796341 -0.30516458
58.925018 68.882454 -0.19667751
57.723362 70.038521 0
35.429554 91.486565 1.1072288
64 64 -0
64 64 -0
60.181694 67.664574 -0.58620262
60.11528 67.728317 -0.44882545
60.049377 67.791565 -0.30516458
58.919125 68.876312 -0.19667751
57.7048 70.041748 0
35.373859 91.473625 1.1080998
64 64 -0
64 64 -0
60.18095 67.656433 -0.58563811
60.103352 67.730728 -0.44968221
60.067211 67.765335 -0.30343539
58.950768 68.834236 -0.1952264
57.686222 70.044937 0
35.273125 91.5037 1.1107121
64 64 -0
64 64 -0
60.205921 67.623756 -0.58113718
60.113701 67.711838 -0.44797033
60.051453 67.771286 -0.30429941
58.944931 68.828133 -0.1952264
57.675163 70.040901 0
35.209846 91.497681 1.1118733
64 64 -0
64 64 -0
60.194191 67.626167 -0.58226186
60.1278 67.68943 -0.44583091
60.054382 67.759384 -0.30372339
58.924049 68.836365 -0.19580695
57.679176 70.022476 0
35.131493 91.505898 1.1136149
64 64 -0
64 64 -0
60.186134 67.625069 -0.58282423
60.097305 67.709496 -0.44882545
60.053585 67.751053 -0.30343539
58.873009 68.873192 -0.19754863
57.645493 70.03994 0
30.642376 95.706314 1.2853055
64 64 -0
64 64 -0
60.19281 67.609978 -0.58113718
60.12635 67.672989 -0.44497415
60.045307 67.74984 -0.30372339
58.870903 68.863403 -0.19740307
57.694859 69.978531 0
30.615395 95.655266 1.2848705
64 64 -0
64 64 -0
60.195839 67.598381 -0.58001029
60.136837 67.654198 -0.44326228
60.029503 67.755722 -0.30458856
58.921654 68.80365 -0.1952264
57.653595 70.003113 0
30.58094 95.611336 1.2847255
64 64 -0
64 64 -0
60.191494 67.593781 -0.58001029
60.128693 67.653046 -0.44368982
60.043789 67.733162 -0.30314627
58.885612 68.826042 -0.19638751
57.638783 70.002579 0
30.531441 95.581619 1.2851605
64 64 -0
64 64 -0
60.19455 67.582222 -0.57888561
60.116798 67.655411 -0.44454658
60.050571 67.717751 -0.30228221
58.959248 68.745056 -0.19333972
57.661854 69.966347 0
30.519783 95.516235 1.284145
64 64 -0
64 64 -0
60.193939 67.574127 -0.5783211
60.142326 67.622597 -0.44112286
60.034779 67.723587 -0.30314627
64 64 -0
57.673615 69.940872 0
51.134892 76.081139 0.49288529
64 64 -0
64 64 -0
60.178493 67.579956 -0.58001029
60.134209 67.621437 -0.4415504
60.052925 67.697586 -0.30141705
64 64 -0
57.636055 69.961685 0
64 64 0
64 64 -0
64 64 -0
60.203873 67.547577 -0.57550722
60.126087 67.62027 -0.44197798
60.044685 67.696342 -0.30170506
64 64 -0
57.613644 69.968208 0
64 64 0
64 64 -0
64 64 -0
60.188435 67.553383 -0.57719642
60.106693 67.629593 -0.44368982
60.021309 67.70919 -0.30314627
59.757401 67.955223 -0.16199127
57.587406 69.978233 0
64 64 0
64 64 -0
64 64 -0
60.187862 67.545319 -0.57663411
60.128616 67.600418 -0.44069529
60.054703 67.669159 -0.30026388
59.710773 67.989014 -0.16358739
57.587803 69.963394 0
51.02338 76.068359 0.49491698
64 64 -0
64 64 -0
60.202206 67.52343 -0.57382023
60.139324 67.581772 -0.43898344
60.061649 67.653831 -0.29939872
59.709763 67.980301 -0.16344239
57.57679 69.959183 0
51.046898 76.017334 0.49346584
60.336205 67.390884 -0.82303202
64 64 -0
60.205418 67.511932 -0.57269335
60.131237 67.580589 -0.43941098
60.064823 67.642052 -0.2988227
59.758347 67.925697 -0.1614107
57.558144 69.962013 0
30.078987 95.394287 1.2908206
64 64 -0
64 64 -0
60.212379 67.497002 -0.57100415
60.138233 67.56546 -0.43812668
60.045223 67.651329 -0.29997587
59.707802 67.96286 -0.16315183
57.543289 69.961296 0
30.04108 95.353279 1.2908206
60.313477 67.395416 -0.82629186
64 64 -0
60.208157 67.492416 -0.57100415
60.111259 67.581665 -0.44069529
60.056034 67.63253 -0.2988227
59.817684 67.852058 -0.15879792
57.513126 69.97464 0
51.18689 75.801323 0.4864997
60.209564 67.486893 -0.8491109
64 64 -0
60.194824 67.50045 -0.57269335
60.127987 67.561935 -0.43855587
60.053841 67.63015 -0.2988227
64 64 -0
57.509518 69.970718 0
51.18742 75.78653 0.48620915
60.31826 67.3787 -0.82384616
64 64 -0
60.198078 67.488983 -0.57156867
60.13126 67.550308 -0.43769911
60.053265 67.62188 -0.29853469
64 64 -0
57.490799 69.973434 0
64 64 0
60.321465 67.367577 -0.82221782
64 64 -0
60.205116 67.474091 -0.56987947
60.10046 67.569901 -0.44069529
60.037457 67.627579 -0.29939872
64 64 -0
57.49511 69.955017 0
64 64 0
60.339306 67.343124 -0.81732649
60.052811 67.604767 -0.73740697
60.20467 67.46608 -0.56931716
60.122692 67.540947 -0.43769911
60.059803 67.598381 -0.29738152
64 64 -0
57.445637 69.985764 0
64 64 0
60.221989 67.441902 -0.84259117
59.929783 67.708107 -0.75955343
60.177952 67.482018 -0.57269335
60.118416 67.536263 -0.43769911
60.066933 67.58316 -0.29651636
52.643967 74.345741 -0.42903396
57.488422 69.932274 0
51.122913 75.731476 0.4864997
60.280018 67.380821 -0.82873756
59.877037 67.747055 -0.76855087
60.211346 67.44323 -0.5670656
60.125546 67.521202 -0.43641481
60.035805 67.60276 -0.29853469
52.662239 74.304054 -0.42787284
57.477413 69.927902 0
51.108749 75.715912 0.4864997
60.257629 67.392921 -0.83281159
59.820465 67.789261 -0.77824247
60.210964 67.435226 -0.56650108
60.113682 67.523422 -0.43727157
60.069786 67.563217 -0.2956512
52.595901 74.339211 -0.42990452
57.450977 69.937492 0
51.11771 75.679375 0.4856286
60.286522 67.358559 -0.82547766
59.890316 67.716896 -0.76439923
60.195507 67.440872 -0.56819028
60.124657 67.504951 -0.43555969
60.03479 67.586227 -0.29795754
52.568001 74.339363 -0.43048507
57.451523 69.922592 0
51.088188 75.677742 0.48620915
60.238426 67.393799 -0.83525729
60.001305 67.607742 -0.74294424
60.210213 67.419258 -0.5653764
60.120426 67.500267 -0.43555969
60.068863 67.546783 -0.29507518
52.609528 74.27681 -0.42845342
57.413452 69.942574 0
51.054798 75.679535 0.48693472
60.296783 67.333038 -0.82140362
60.011864 67.589478 -0.7401756
60.198536 67.421471 -0.56650108
60.150539 67.464668 -0.4317084
60.049198 67.555878 -0.29622835
52.635754 74.228271 -0.42700171
57.49913 69.851044 0
51.040695 75.663887 0.48693472
60.266655 67.343864 -0.82629186
60.025635 67.559738 -0.73602128
60.224346 67.38176 -0.56143564
60.126881 67.469055 -0.43342027
60.05603 67.532516 -0.29507518
52.510414 74.290932 -0.43077564
64 64 0
28.955933 95.388084 1.3138968
60.269997 67.332756 -0.82466036
64 64 -0
60.193729 67.400902 -0.5653764
60.115044 67.471207 -0.43427539
60.040188 67.538086 -0.29594034
52.660744 74.131622 -0.42468005
64 64 0
28.894787 95.366486 1.3147674
60.258583 67.334831 -0.82629186
60.200562 67.386551 -0.70210868
60.201008 67.386154 -0.56368721
60.09935 67.476761 -0.43555969
60.035915 67.533302 -0.29594034
52.605846 74.155937 -0.42627618
64 64 0
51.314213 75.307205 0.47459856
60.265644 67.32045 -0.82384616
60.147728 67.425293 -0.71110612
60.20451 67.374809 -0.56256253
60.122013 67.448166 -0.43256351
60.039391 67.521629 -0.29536319
52.640186 74.100723 -0.4245345
64 64 0
51.277248 75.312599 0.47546968
60.246841 67.329056 -0.82710606
60.229931 67.344055 -0.69518572
60.200432 67.370224 -0.56256253
60.113995 67.446892 -0.4329927
60.039001 67.513412 -0.29507518
52.538567 74.166306 -0.42787284
59.45435 68.031998 0
64 64 0
60.250221 67.317978 -0.82547766
60.041771 67.502419 -0.729101
60.207787 67.355522 -0.56087333
60.125214 67.428581 -0.43128085
60.02702 67.515472 -0.2956512
52.643044 74.049149 -0.42351893
64 64 0
51.265518 75.268044 0.4748891
60.249931 67.310158 -0.82466036
60.101486 67.441193 -0.71733493
60.215164 67.340843 -0.55918413
60.124935 67.420494 -0.43085164
60.038288 67.496979 -0.29449803
64 64 -0
64 64 0
51.267494 75.238892 0.47430855
60.264481 67.289299 -0.82058632
60.214058 67.333694 -0.69587988
60.207306 67.339638 -0.55974865
60.105392 67.429382 -0.43256351
60.022415 67.502441 -0.29536319
64 64 -0
64 64 0
51.257835 75.220055 0.474163
60.260506 67.284782 -0.82058632
60.172344 67.362221 -0.70280015
60.222374 67.318275 -0.55693257
60.105103 67.421288 -0.43213594
60.014301 67.501045 -0.2956512
59.813984 67.67701 -0.15560514
57.362431 69.83046 0
51.267708 75.184074 0.47329244
60.271412 67.267227 -0.81732649
60.179607 67.347672 -0.70072305
60.195431 67.333809 -0.56031096
60.108688 67.409821 -0.43128085
60.0373 67.472374 -0.293634
59.782181 67.695923 -0.15662125
57.327984 69.846451 0
51.289375 75.137863 0.47198632
60.308395 67.226944 -0.80836421
60.334221 67.204369 -0.67165357
60.214367 67.309135 -0.55693257
60.108448 67.401726 -0.43085164
60.03701 67.464172 -0.29334489
59.769897 67.697662 -0.15691125
57.348358 69.8144 0
64 64 0
60.382736 67.154259 -0.79125071
64 64 -0
60.210373 67.304558 -0.55693257
60.112072 67.390274 -0.42999652
60.017235 67.472977 -0.29449803
59.804596 67.658394 -0.15546013
57.349178 69.799522 0
32.466362 91.497368 1.1684746
60.336098 67.191032 -0.80103028
60.264099 67.253738 -0.68341964
60.212204 67.298935 -0.55637026
60.098404 67.398048 -0.43128085
60.030739 67.456978 -0.29334489
59.81023 67.649033 -0.15516958
57.345676 69.795502 0
32.520287 91.416878 1.1658623
60.302406 67.212524 -0.80754685
60.184418 67.315033 -0.69726288
60.208221 67.294357 -0.55637026
60.09819 67.389954 -0.43085164
60.038269 67.442017 -0.29248083
59.766586 67.678055 -0.15662125
57.299393 69.821594 0
32.463654 91.399261 1.1667329
60.335876 67.17569 -0.79939878
64 64 -0
60.192719 67.299759 -0.55805945
60.117367 67.365067 -0.42828465
60.038033 67.433823 -0.29219171
59.762146 67.672935 -0.15662125
57.296291 69.810081 0
32.34024 91.43943 1.1700712
60.305862 67.193893 -0.80510432
60.104298 67.368156 -0.71041465
60.211807 67.275208 -0.55468106
60.132721 67.34359 -0.42614523
60.041706 67.422279 -0.29161566
59.781307 67.647415 -0.15575013
57.301094 69.791763 0
32.283527 91.421539 1.1709418
60.328213 67.166824 -0.79939878
64 64 -0
60.207851 67.27063 -0.55468106
60.128681 67.338913 -0.42614523
60.021904 67.431007 -0.29276884
59.757214 67.659294 -0.15647624
57.333508 69.74968 0
32.183517 91.440895 1.173409
60.271935 67.207512 -0.81080675
60.244511 67.23111 -0.68341964
60.219299 67.2528 -0.55243164
60.128555 67.330872 -0.42571604
60.009926 67.432938 -0.29334489
59.764618 67.64399 -0.15604068
57.326565 69.741615 0
32.14645 91.405823 1.1735541
60.290562 67.183693 -0.80591851
64 64 -0
60.192242 67.268082 -0.55580789
60.120625 67.329544 -0.42614523
59.986145 67.444969 -0.29478717
59.752338 67.645638 -0.15633069
57.315685 69.736938 0
32.05814 91.414703 1.1755862
60.290466 67.176003 -0.80510432
64 64 -0
60.234619 67.223816 -0.54905331
60.124413 67.318169 -0.42528847
60.033062 67.396385 -0.29103965
59.747936 67.640503 -0.15633069
57.292946 69.742393 0
32.127686 91.2882 1.1718123
60.267841 67.187561 -0.80917835
64 64 -0
60.242321 67.209358 -0.54736412
60.147724 67.290154 -0.42229393
60.013245 67.405014 -0.29219171
59.751434 67.628616 -0.15604068
57.289963 69.730911 0
34.295738 89.369835 1.0909742
60.312904 67.14138 -0.79858458
60.202202 67.235703 -0.68826544
60.215229 67.224602 -0.55074251
60.128117 67.29882 -0.42400581
60.020931 67.390137 -0.29132766
59.747055 67.623482 -0.15604068
57.318714 69.692413 0
64 64 0
60.331718 67.117706 -0.79369324
64 64 -0
60.230694 67.203568 -0.54792857
60.143707 67.277504 -0.42186475
60.032608 67.371925 -0.29017448
59.758518 67.604874 -0.15546013
57.307865 69.687714 0
31.704273 91.448456 1.1837134
60.248779 67.180405 -0.81080675
60.244141 67.184334 -0.679268
60.219078 67.205582 -0.54905331
60.104507 67.302719 -0.42571604
60.044319 67.353752 -0.28902131
59.750206 67.603104 -0.15560514
57.285114 69.693085 0
31.655273 91.422859 1.1842941
60.354378 67.083305 -0.78717667
64 64 -0
60.230728 67.187881 -0.54680175
60.120117 67.281433 -0.42357659
60.036324 67.352303 -0.28930932
59.769657 67.577843 -0.15473457
57.286198 69.678238 0
26.674297 95.568443 1.3652736
60.312878 67.110771 -0.79532474
64 64 -0
60.226879 67.183327 -0.54680175
60.131851 67.263504 -0.42186475
60.008545 67.367531 -0.29103965
59.757401 67.579422 -0.15502457
57.287289 69.663414 0
26.632214 95.526665 1.3654187
60.343159 67.077667 -0.78799087
64 64 -0
60.219154 67.182037 -0.54736412
60.12397 67.262138 -0.42229393
60.000523 67.366035 -0.29132766
59.75705 67.570946 -0.15487957
57.276474 69.658653 0
26.586201 95.488174 1.3657086
60.241016 67.155884 -0.80917835
60.136566 67.243576 -0.69587988
60.223087 67.170937 -0.54623938
60.096447 67.27726 -0.42486092
60.044003 67.321289 -0.28786814
59.744785 67.572495 -0.15516958
57.29755 69.62709 0
26.552158 95.439606 1.3655636
60.263737 67.12912 -0.80347282
64 64 -0
60.215366 67.169632 -0.54680175
60.135792 67.236275 -0.42015287
60.004303 67.346397 -0.29046249
59.740471 67.567352 -0.15516958
57.262817 69.642387 0
26.573948 95.344299 1.363387
60.252365 67.130943 -0.80510432
60.205753 67.169891 -0.68203664
60.227139 67.152023 -0.54455018
60.116123 67.244766 -0.42186475
60.012177 67.331612 -0.28959733
59.736164 67.562202 -0.15516958
57.264004 69.627563 0
26.516163 95.315704 1.3641125
60.233395 67.139076 -0.80836421
64 64 -0
60.196003 67.170235 -0.54849094
60.151638 67.207207 -0.41758588
60.020061 67.316864 -0.2887333
59.771778 67.523781 -0.15371846
57.297184 69.586098 0
26.450405 95.293686 1.3651286
60.229603 67.134521 -0.80836421
64 64 -0
60.239067 67.126656 -0.5417363
60.11618 67.228813 -0.42100963
60.047882 67.285599 -0.28642696
59.767525 67.518669 -0.15371846
57.270432 69.594635 0
26.388649 95.268219 1.3659992
60.298119 67.070007 -0.79287905
60.163387 67.18174 -0.68757397
60.223553 67.131844 -0.5434255
60.136002 67.204453 -0.418441
60.047894 67.277519 -0.28613895
59.755268 67.520195 -0.15400901
57.275684 69.576538 0
26.254887 95.302368 1.3694825
60.233471 67.115944 -0.80591851
60.159546 67.177101 -0.68757397
60.215858 67.130516 -0.54398787
60.100487 67.22596 -0.42186475
60.02401 67.289223 -0.28758013
59.755032 67.511742 -0.15386346
57.280987 69.558449 0
26.145023 95.31636 1.3720948
60.220154 67.123116 -0.80836421
64 64 -0
60.225727 67.118515 -0.54229867
60.138107 67.190903 -0.41758588
60.041958 67.270355 -0.28613895
59.768936 67.495934 -0.1532829
57.229477 69.594177 0
26.086056 95.326584 1.3735459
60.254536 67.087105 -0.80021298
60.103466 67.211617 -0.69657141
60.202358 67.130104 -0.54511255
60.134254 67.186241 -0.41758588
60.034019 67.268852 -0.28642696
59.768723 67.487518 -0.15313791
57.278961 69.539635 0
26.028183 95.297272 1.3742714
60.273708 67.063744 -0.79532474
60.192604 67.130424 -0.67995954
60.222122 67.106155 -0.5417363
60.122486 67.18808 -0.418441
60.014091 67.277199 -0.28758013
59.740417 67.502213 -0.15400901
57.324539 69.488541 0
25.962292 95.274475 1.3752875
60.323513 67.015358 -0.78391677
60.161663 67.148102 -0.68480533
60.226223 67.095154 -0.54061162
60.138481 67.167114 -0.41630158
60.006138 67.275658 -0.28786814
59.752262 67.483879 -0.15342847
57.249496 69.536583 0
33.008343 89.418533 1.1194199
60.285442 67.039078 -0.79125071
60.119034 67.175224 -0.69172561
60.242165 67.074493 -0.5377956
60.130672 67.16571 -0.41673076
60.006184 67.267555 -0.28758013
59.740021 67.485321 -0.15371846
57.283089 69.495468 0
32.977654 89.381065 1.1194199
60.258801 67.053337 -0.79613894
60.157951 67.135651 -0.6841138
60.238449 67.069946 -0.5377956
60.091053 67.190247 -0.42058206
60.010262 67.25618 -0.28700298
59.751915 67.467026 -0.15313791
57.320816 69.451141 0
32.959091 89.333702 1.1189843
60.281937 67.026978 -0.79043651
60.08802 67.184853 -0.69587988
60.234745 67.065399 -0.5377956
60.091194 67.182266 -0.42015287
60.026382 67.235031 -0.2855618
59.739662 67.46846 -0.15342847
57.290009 69.462791 0
64 64 0
60.278282 67.022484 -0.79043651
60.134804 67.139008 -0.68688244
60.234985 67.057648 -0.53723323
60.13118 67.141945 -0.41544646
60.042553 67.213928 -0.28412062
59.75161 67.450203 -0.1528479
57.295536 69.444832 0
64 64 0
60.224705 67.058434 -0.80103028
60.15831 67.112221 -0.68203664
60.223389 67.059502 -0.53836012
60.119415 67.14373 -0.41630158
60.014561 67.228676 -0.28584981
59.751495 67.441788 -0.15270235
57.317276 69.413788 0
32.932053 89.168686 1.1166627
60.224869 67.050751 -0.80021298
60.064804 67.180099 -0.69795442
60.207848 67.064507 -0.54004711
60.087666 67.161629 -0.41929775
60.046871 67.194595 -0.28325546
59.767544 67.420326 -0.15197678
57.225731 69.474411 0
32.962303 89.08213 1.1144855
60.325081 66.962433 -0.77821124
60.201576 67.061996 -0.6730392
60.227879 67.040794 -0.53667092
60.131813 67.118233 -0.41416216
60.03495 67.19632 -0.28383261
59.755314 67.421738 -0.15226734
57.283939 69.413971 0
32.96843 89.015259 1.1131793
60.329205 66.951805 -0.7765829
60.092319 67.142288 -0.69172561
60.232132 67.029861 -0.53554404
60.140053 67.103905 -0.41287783
60.03109 67.191521 -0.28383261
59.767384 67.40358 -0.15168679
57.309853 69.379753 0
32.97467 88.948433 1.1118733
60.375778 66.907143 -0.76598603
60.155056 67.084198 -0.67995954
60.232437 67.022125 -0.53498173
60.152328 67.086388 -0.41116595
60.051456 67.167297 -0.28210229
59.743008 67.414719 -0.15241234
57.30336 69.371666 0
32.993195 88.87191 1.1101315
60.252613 66.998505 -0.79125071
60.155247 67.076416 -0.679268
60.220844 67.023926 -0.53610855
60.116531 67.107399 -0.4145897
60.023392 67.181923 -0.28383261
59.751064 67.399826 -0.15197678
57.284691 69.373322 0
32.987503 88.814949 1.109261
60.245132 66.997055 -0.79206491
60.100555 67.112457 -0.68826544
60.217194 67.019363 -0.53610855
60.116787 67.099503 -0.41416216
60.031681 67.167435 -0.28296745
59.759132 67.384972 -0.15154178
57.339214 69.316505 0
32.990036 88.751526 1.1080998
60.187382 67.035622 -0.80347282
60.132122 67.07962 -0.68203664
60.209576 67.017952 -0.53667092
60.161243 67.056435 -0.40902653
60.048088 67.146523 -0.28152627
59.738796 67.392784 -0.15212178
57.292084 69.340866 0
32.99675 88.684891 1.1067932
64 64 -0
60.144119 67.062462 -0.679268
60.221848 67.000725 -0.53441936
60.125389 67.077339 -0.41245028
60.028084 67.154617 -0.28267944
59.767242 67.361786 -0.15096122
57.338615 69.29068 0
32.987289 88.631256 1.1060677
64 64 -0
60.144352 67.054688 -0.67857653
60.222206 66.993004 -0.53385699
60.141792 67.056717 -0.41031086
60.028343 67.146591 -0.28239033
59.755043 67.363121 -0.15125123
57.266953 69.334343 0
32.990143 88.567947 1.1049066
64 64 -0
60.152477 67.040688 -0.67649937
60.222591 66.985275 -0.53329253
60.126011 67.0616 -0.41159517
59.992077 67.16745 -0.28469664
59.759129 67.351547 -0.15096122
59.665668 67.425415 0
32.989006 88.507912 1.103891
64 64 -0
60.160633 67.026711 -0.6744222
60.226959 66.974426 -0.53216779
60.114258 67.063271 -0.41245028
60.036999 67.124176 -0.28123716
59.763252 67.339981 -0.15067066
59.669716 67.413719 0
32.992065 88.444687 1.1027298
64 64 -0
60.156979 67.022072 -0.6744222
60.20739 66.98243 -0.53441936
60.138802 67.036369 -0.40945575
60.016964 67.132179 -0.28239033
59.751045 67.341293 -0.15096122
59.542858 67.505005 0
32.995232 88.3815 1.1015687
64 64 -0
60.062523 67.088654 -0.69034261
60.227772 66.95903 -0.53104311
60.127064 67.038033 -0.41031086
59.972473 67.159294 -0.28527379
59.738838 67.34256 -0.15125123
59.620518 67.435379 0
33.010777 88.308731 1.099972
64 64 -0
60.094357 67.056068 -0.6841138
60.232212 66.948204 -0.52991629
60.163822 67.001717 -0.406032
60.005322 67.12574 -0.28267944
59.759354 67.318199 -0.15038067
59.587685 67.45253 0
32.997799 88.258461 1.0993915
64 64 -0
60.074844 67.063698 -0.68688244
60.212627 66.956154 -0.53216779
60.144009 67.009712 -0.40774387
60.02602 67.101807 -0.28094912
59.730774 67.332253 -0.15125123
59.632755 67.40876 0
32.997173 88.198608 1.0983759
64 64 -0
60.076962 67.058235 -0.68618828
60.214848 66.950745 -0.53160548
60.134098 67.013695 -0.40859899
60.01598 67.105774 -0.28152627
59.716461 67.339264 -0.15168679
59.626579 67.409332 0
33.019444 88.151123 1.0970699
64 64 -0
60.136631 67.004219 -0.67511636
60.231339 66.930573 -0.52879161
60.126411 67.012169 -0.40902653
59.983658 67.123177 -0.2835435
59.749348 67.305374 -0.15038067
59.634792 67.394455 0
33.006695 88.100906 1.0964893
64 64 -0
60.109222 67.017998 -0.679268
60.191666 66.954048 -0.53385699
60.126827 67.004341 -0.40859899
59.988052 67.111984 -0.28296745
59.737152 67.306602 -0.15067066
59.630695 67.389183 0
33.014549 88.034775 1.0951831
64 64 -0
59.986534 67.1054 -0.70003152
60.204174 66.937004 -0.53160548
60.135387 66.990227 -0.40731466
59.988384 67.103973 -0.28267944
59.749603 67.288727 -0.15009011
59.65131 67.364784 0
33.001972 87.984604 1.0946026
64 64 -0
59.986755 67.097488 -0.69934005
60.184536 66.944832 -0.53385699
60.083004 67.023201 -0.41245028
59.996925 67.089638 -0.28181428
59.753853 67.277245 -0.14980011
64 64 0
33.005928 87.921722 1.0934415
64 64 -0
60.066822 67.020554 -0.6841138
60.213703 66.907753 -0.52879161
60.136776 66.966827 -0.406032
59.95665 67.105164 -0.28412062
59.741825 67.270142 -0.14994511
59.544193 67.421913 0
52.430489 72.88501 0.40740275
64 64 -0
60.047241 67.028 -0.68688244
60.222298 66.893898 -0.52710241
60.153584 66.946541 -0.40389094
59.973427 67.084549 -0.28267944
59.713131 67.283943 -0.15081567
59.610298 67.362724 0
52.469265 72.833099 0.40566108
64 64 -0
60.011707 67.047585 -0.69241709
60.206688 66.89859 -0.52879161
60.145935 66.945015 -0.40432012
59.936821 67.104805 -0.28498578
59.725685 67.266144 -0.15023512
59.668282 67.310005 0
52.466866 72.812836 0.4053705
64 64 -0
60.05191 67.009315 -0.68480533
60.223408 66.878593 -0.52597553
60.138302 66.943466 -0.40474769
59.961876 67.077942 -0.28296745
59.746532 67.242081 -0.14936455
64 64 0
52.439697 72.811501 0.40595105
64 64 -0
60.044289 67.007576 -0.68549681
60.215874 66.877113 -0.52654004
60.134747 66.938797 -0.40474769
59.978745 67.057411 -0.28152627
59.72607 67.249519 -0.14994511
59.548416 67.38459 0
52.449738 72.781799 0.40522552
60.270515 66.828468 -0.77169156
59.948704 67.072533 -0.70141721
60.212399 66.872543 -0.52654004
60.151649 66.918617 -0.40260828
59.96682 67.058792 -0.28210229
59.722145 67.244354 -0.14994511
59.552635 67.37291 0
52.451561 72.758415 0.40478995
64 64 -0
60.053036 66.985901 -0.68272817
60.200836 66.874084 -0.52766472
60.139942 66.920151 -0.40346336
59.991989 67.032082 -0.28008509
59.72237 67.236046 -0.14980011
59.594212 67.333 0
52.465847 72.725647 0.4039194
64 64 -0
60.089478 66.950912 -0.67580789
60.221695 66.851135 -0.52428854
60.128212 66.921677 -0.40432012
59.971828 67.039688 -0.28123716
59.710175 67.237129 -0.15009011
59.590187 67.327675 0
52.471905 72.699181 0.40333885
64 64 -0
60.017769 66.997475 -0.68757397
60.202011 66.858795 -0.52654004
60.12059 66.920082 -0.40474769
59.99295 67.016159 -0.27950794
59.722874 67.219444 -0.14950955
59.573708 67.331726 0
52.469696 72.679001 0.40304884
64 64 -0
60.010139 66.995674 -0.68826544
60.190441 66.860298 -0.52766472
60.104744 66.924644 -0.406032
59.985176 67.01442 -0.27979594
59.727291 67.208038 -0.14921956
59.602982 67.301376 0
52.484161 72.646332 0.40217772
64 64 -0
60.06274 66.948746 -0.67857653
60.195114 66.849609 -0.52654004
60.121769 66.904533 -0.40389094
59.973248 67.01577 -0.2803731
59.727573 67.19976 -0.14907455
59.465679 67.395905 0
52.494518 72.616844 0.40145215
64 64 -0
59.934582 67.037071 -0.70003152
60.191673 66.845009 -0.52654004
60.151154 66.875275 -0.40046883
59.982044 67.00161 -0.27950794
59.711231 67.203918 -0.14950955
59.607513 67.281403 0
52.52158 72.574944 0.40014604
64 64 -0
59.967121 67.005173 -0.69380277
60.20454 66.828255 -0.52428854
60.127102 66.885963 -0.40260828
59.986706 66.990578 -0.27893192
59.719852 67.18943 -0.14907455
59.63694 67.251213 0
52.519569 72.554848 0.39985549
64 64 -0
59.963493 67.000298 -0.69380277
60.192974 66.829727 -0.52541322
60.086536 66.908844 -0.40645957
60.003868 66.970291 -0.27748963
59.703503 67.193542 -0.14950955
59.637192 67.242836 0
52.53009 72.525475 0.39912993
64 64 -0
59.967937 66.989433 -0.69241709
60.181385 66.831184 -0.52654004
60.078903 66.907166 -0.40688711
59.996113 66.968544 -0.27777874
59.712158 67.179077 -0.14907455
59.591473 67.268555 0
52.544838 72.493042 0.39825937
60.301857 66.738403 -0.75865209
60.083054 66.900421 -0.67234772
60.204189 66.810722 -0.52316165
60.134903 66.86203 -0.4008964
60.015118 66.950729 -0.27633646
59.739479 67.154831 -0.14805844
59.593678 67.262794 0
52.531364 72.492302 0.39854938
60.250835 66.769173 -0.76843166
60.140095 66.850967 -0.66196465
60.200794 66.806137 -0.52316165
60.127323 66.860405 -0.40132394
60.036514 66.927475 -0.27460724
59.739845 67.146599 -0.14791344
64 64 0
52.537834 72.466087 0.3979688
64 64 -0
60.148777 66.837372 -0.65988749
60.172852 66.819633 -0.52654004
60.115612 66.861809 -0.40217906
60.045479 66.913475 -0.27374208
59.761158 67.122948 -0.14704232
59.564857 67.26757 0
52.548531 72.436821 0.39724326
60.228222 66.771812 -0.77169156
60.230251 66.770325 -0.64535278
60.198116 66.793938 -0.52259934
60.070778 66.88752 -0.40645957
60.004448 66.936264 -0.27633646
59.749004 67.123985 -0.14733288
59.573498 67.25296 0
52.550911 72.413742 0.3968077
60.356438 66.670822 -0.74479848
60.230949 66.762802 -0.64466125
60.207043 66.780327 -0.52091014
60.133545 66.834206 -0.39961207
60.005074 66.928375 -0.27604842
59.736858 67.124985 -0.14762288
59.556973 67.256844 0
52.553314 72.390694 0.39637271
60.313301 66.695595 -0.75294966
60.203304 66.776024 -0.64881557
60.207783 66.772743 -0.52034777
60.117683 66.838623 -0.4008964
59.997364 66.926598 -0.27633646
59.754059 67.1045 -0.14689732
59.628662 67.196182 0
52.564156 72.361526 0.39564714
60.357975 66.656189 -0.74317008
60.232384 66.74778 -0.64327824
60.192116 66.777145 -0.52203697
60.114258 66.833931 -0.4008964
60.039795 66.888237 -0.27316606
59.733513 67.11161 -0.14747788
59.671066 67.157158 0
52.575066 72.332382 0.39492103
60.438709 66.590721 -0.72605664
60.245296 66.731415 -0.64050961
60.188763 66.772545 -0.52203697
60.127441 66.817154 -0.39918453
59.986107 66.919968 -0.27662557
59.742371 67.097282 -0.14704232
59.608337 67.194786 0
52.577602 72.309402 0.39448601
60.303555 66.682213 -0.75294966
60.164852 66.78286 -0.65365869
60.160744 66.785843 -0.52541322
60.107422 66.824532 -0.4008964
59.965836 66.927269 -0.27777874
59.734428 67.095184 -0.14718732
59.646599 67.158913 0
52.575989 72.28949 0.39419547
60.34037 66.648758 -0.74479848
60.189934 66.757637 -0.64881557
60.182072 66.763329 -0.52203697
60.104012 66.819824 -0.4008964
59.941353 66.937553 -0.27921993
59.726467 67.093086 -0.14733288
59.57111 67.205528 0
52.582825 72.263489 0.39361492
60.289074 66.679054 -0.75457805
60.259838 66.700165 -0.63635534
60.162254 66.770607 -0.52428854
60.10894 66.809105 -0.40003964
59.958775 66.917511 -0.27777874
59.731171 67.081825 -0.14704232
59.567238 67.200172 0
52.59391 72.234482 0.39288935
60.305893 66.660126 -0.75050402
60.264713 66.689781 -0.63497233
60.187782 66.745178 -0.52034777
60.126377 66.789398 -0.39790022
59.988834 66.888443 -0.2754724
59.748531 67.061485 -0.14631677
59.643616 67.137039 0
52.583969 72.220695 0.39288935
60.258514 66.687386 -0.75946939
60.245167 66.696976 -0.63774097
60.184467 66.74057 -0.52034777
60.127174 66.781723 -0.39747265
59.981148 66.886612 -0.27576041
59.757504 67.047249 -0.14588121
59.606026 67.156052 0
52.582478 72.200836 0.39259934
60.235184 66.697258 -0.76354343
60.237835 66.695358 -0.63843244
60.17289 66.741882 -0.52147466
60.065395 66.818901 -0.40346336
59.960846 66.893799 -0.27691358
59.724247 67.063309 -0.14689732
59.640289 67.123459 0
52.572578 72.187035 0.39259934
60.308346 66.638092 -0.74805832
60.263161 66.670387 -0.63358665
60.190266 66.722481 -0.51865858
60.132999 66.763397 -0.39618835
59.961555 66.885918 -0.27662557
59.733238 67.049072 -0.14646177
59.619579 67.130295 0
52.579605 72.161133 0.3920188
60.281002 66.650856 -0.75294966
60.21907 66.695 -0.64050961
60.178692 66.723778 -0.51978546
60.100391 66.779587 -0.39918453
59.983353 66.863014 -0.27489525
59.721085 67.049957 -0.14675233
59.564941 67.161255 0
52.603607 72.123199 0.39085767
60.245571 66.669273 -0.75946939
60.232174 66.678795 -0.63774097
60.208538 66.695602 -0.51528233
60.109592 66.765945 -0.39790022
59.967243 66.867149 -0.27576041
59.725883 67.038757 -0.14646177
59.645966 67.095573 0
52.598034 72.106415 0.39071268
60.286705 66.633278 -0.75050402
64 64 -0
60.159683 66.723358 -0.52147466
60.123009 66.749367 -0.39618835
60.010204 66.829361 -0.27258894
59.722214 67.033585 -0.14646177
59.625244 67.102348 0
52.579777 72.098633 0.39100268
60.231068 66.665894 -0.76109779
60.229805 66.666786 -0.6370495
60.1647 66.712837 -0.52034777
60.119686 66.744675 -0.39618835
59.939217 66.87233 -0.27720159
59.731266 67.019424 -0.14602676
59.621502 67.097061 0
52.591209 72.069832 0.39027712
60.21978 66.66703 -0.76272613
60.255287 66.641983 -0.6322037
60.173885 66.699409 -0.51865858
60.112183 66.742943 -0.39661589
59.990692 66.828659 -0.27345407
59.73188 67.011253 -0.14588121
59.583736 67.115776 0
52.585709 72.053047 0.39013213
60.236767 66.648239 -0.75865209
64 64 -0
60.158154 66.70356 -0.52034777
60.024899 66.79734 -0.40517524
59.936512 66.859535 -0.27691358
59.728245 67.006096 -0.14588121
59.554428 67.128418 0
52.584496 72.033257 0.38984156
60.22303 66.654495 -0.76109779
60.258724 66.62941 -0.63081801
60.168999 66.692474 -0.51865858
60.090416 66.747704 -0.39832777
59.998276 66.812462 -0.27258894
59.726429 67.003517 -0.14588121
59.663265 67.047905 0
52.592403 72.017395 0.389406
60.20768 66.658447 -0.76354343
60.276089 66.610489 -0.6273579
60.174065 66.682014 -0.5175339
60.103916 66.731186 -0.39661589
59.90593 66.86998 -0.2786428
59.722801 66.998352 -0.14588121
59.612701 67.075531 0
52.586975 72.000626 0.38926101
60.208534 66.651024 -0.76272613
60.207142 66.651993 -0.63843244
60.174988 66.674477 -0.51697153
60.066956 66.750015 -0.40003964
59.999958 66.79686 -0.27201289
59.727692 66.987228 -0.1455912
59.651634 67.040413 0
52.590096 71.97789 0.38882545
60.258038 66.60968 -0.75213236
60.208054 66.644539 -0.63774097
60.180103 66.664032 -0.5158447
60.122585 66.704147 -0.39404893
59.932949 66.836403 -0.27633646
59.749672 66.964226 -0.14472009
59.63089 67.047066 0
52.593243 71.955185 0.38839045
60.202137 66.641853 -0.76272613
60.233696 66.619896 -0.63289517
60.135159 66.688446 -0.52147466
60.098251 66.714119 -0.39618835
60.005955 66.77832 -0.27114773
59.746094 66.959084 -0.14472009
59.627209 67.041779 0
52.609245 71.923592 0.38751933
60.198948 66.63726 -0.76272613
60.214046 66.626785 -0.63566381
60.169502 66.657692 -0.51640707
60.069656 66.726967 -0.39875698
59.909107 66.838364 -0.27748963
59.733971 66.959869 -0.14501065
59.653477 67.015724 0
52.599678 71.909821 0.38751933
60.236404 66.604546 -0.75457805
64 64 -0
60.128674 66.679092 -0.52147466
60.062145 66.725136 -0.39918453
59.939693 66.809875 -0.27518439
59.760315 66.934013 -0.14399453
59.636993 67.019356 0
52.590126 71.896042 0.38751933
60.314625 66.543831 -0.73827875
60.273777 66.572029 -0.6245892
60.150543 66.657089 -0.51809627
60.08844 66.699959 -0.39618835
60.046997 66.728561 -0.26768824
59.722557 66.952507 -0.14515565
59.624786 67.019989 0
52.584869 71.879295 0.38737434
60.327839 66.528168 -0.73501891
60.274803 66.564682 -0.62389773
60.138954 66.658203 -0.51922309
60.068264 66.706871 -0.39790022
59.941444 66.794182 -0.27460724
59.731842 66.938492 -0.14472009
59.625423 67.011757 0
52.588203 71.856651 0.38693878
60.320702 66.526535 -0.73583621
60.279968 66.554497 -0.62251472
60.173462 66.62764 -0.51415551
60.086151 66.687592 -0.39576077
59.972187 66.765854 -0.2723009
59.719715 66.939217 -0.14501065
59.535973 67.065392 0
52.595856 71.831093 0.3863582
60.338055 66.50811 -0.73175901
60.276886 66.550003 -0.62251472
60.187057 66.611526 -0.51190394
60.070198 66.691566 -0.39704511
60.037132 66.714211 -0.26768824
59.746185 66.913483 -0.14399453
59.5924 67.018814 0
52.590683 71.814369 0.38621321
60.330933 66.506477 -0.73257631
60.228245 66.57663 -0.63012654
60.125153 66.647057 -0.51978546
60.092392 66.669434 -0.39447647
59.96978 66.753197 -0.27201289
59.742668 66.90834 -0.14399453
59.580154 67.019363 0
52.589821 71.794724 0.38592321
60.278885 66.535446 -0.74235594
60.237579 66.563591 -0.62804937
60.13456 66.633781 -0.51809627
60.046734 66.693626 -0.39875698
60.009197 66.7192 -0.26913053
59.726269 66.91198 -0.14443009
59.563599 67.02282 0
52.584721 71.778 0.38577765
60.279926 66.52816 -0.74153858
60.242775 66.553406 -0.62666637
60.15659 66.611977 -0.51472002
60.124165 66.634018 -0.39062518
60.00164 66.717285 -0.26941854
59.739948 66.895126 -0.14384954
59.499687 67.058411 0
52.596817 71.749596 0.38505208
60.309608 66.501472 -0.73501891
60.243843 66.546051 -0.62597489
60.145031 66.613029 -0.5158447
60.074234 66.661018 -0.39533323
59.976955 66.726959 -0.27085972
59.732155 66.892891 -0.14399453
59.517536 67.038368 0
52.600357 71.727074 0.38461709
60.290207 66.508087 -0.73827875
60.236614 66.544319 -0.62666637
60.146084 66.60553 -0.51528233
60.092281 66.641899 -0.39319381
59.990807 66.710503 -0.26970655
59.732964 66.884827 -0.14384954
59.49662 67.044609 0
52.608246 71.701645 0.38403654
60.328156 66.475975 -0.73013067
60.262669 66.520134 -0.62182057
60.113441 66.620758 -0.51922309
60.046535 66.665871 -0.39747265
60.047569 66.665176 -0.26567101
59.699314 66.900009 -0.14486565
59.566303 66.9897 0
52.603271 71.684967 0.38389099
60.271847 66.507393 -0.74072444
60.272106 66.507225 -0.61974609
60.144012 66.593369 -0.51472002
60.060356 66.649635 -0.39576077
59.992844 66.695038 -0.26913053
59.717388 66.880302 -0.14413953
59.55838 66.987244 0
52.602612 71.66539 0.38360098
60.231876 66.527672 -0.74805832
60.219093 66.536247 -0.62804937
60.128231 66.597198 -0.51640707
60.035843 66.659172 -0.39790022
60.011082 66.675781 -0.26768824
59.722534 66.869339 -0.14384954
59.520191 67.005074 0
52.606308 71.642929 0.38316542
60.323311 66.4599 -0.72931647
60.241043 66.514938 -0.62389773
60.14621 66.578392 -0.51359314
60.036896 66.651527 -0.39747265
60.037937 66.650833 -0.26567101
59.753624 66.841049 -0.14268841
59.456009 67.040169 0
52.601395 71.626266 0.38302043
60.301277 66.471405 -0.73339051
60.252045 66.504303 -0.62182057
60.148872 66.573242 -0.51303083
60.052372 66.637718 -0.39576077
59.967518 66.69442 -0.2702837
59.721657 66.858696 -0.14370453
64 64 0
52.609756 71.610718 0.38258487
60.327091 66.447746 -0.72768497
60.257362 66.494217 -0.62043756
60.124626 66.582672 -0.5158447
60.040649 66.638641 -0.39661589
59.998699 66.666595 -0.26797736
59.700909 66.865051 -0.14428508
64 64 0
52.609211 71.591187 0.38229486
60.332363 66.437836 -0.72605664
60.241814 66.498024 -0.62251472
60.134212 66.56955 -0.51415551
60.046009 66.628174 -0.39576077
60.008411 66.653168 -0.2671122
59.70179 66.856972 -0.14413953
64 64 0
52.60437 71.574547 0.38214988
60.292343 66.457985 -0.73339051
60.213715 66.510109 -0.62666637
60.139572 66.559265 -0.51303083
60.038559 66.626228 -0.39618835
59.992268 66.656921 -0.26797736
59.702667 66.848907 -0.14399453
64 64 0
52.608227 71.552155 0.38171431
60.25227 66.478035 -0.74072444
60.206501 66.508301 -0.6273579
60.149204 66.546188 -0.51134163
59.996849 66.646919 -0.40003964
59.9977 66.646362 -0.26740021
59.70356 66.840851 -0.14384954
64 64 0
52.625126 71.521179 0.38084319
60.344177 66.410919 -0.72198254
60.2286 66.487144 -0.62320626
60.124924 66.555519 -0.51415551
60.0065 66.633614 -0.39875698
59.972916 66.655762 -0.26884139
59.704464 66.832794 -0.14370453
64 64 0
52.62038 71.50457 0.3806982
60.287582 66.441811 -0.73257631
60.204639 66.496368 -0.62666637
60.109097 66.559212 -0.5158447
60.007622 66.625954 -0.39832777
59.956741 66.659424 -0.26970655
59.696709 66.83046 -0.14384954
64 64 0
52.633026 71.47654 0.37997264
60.269295 66.440948 -0.73501891
60.202812 66.484444 -0.62597489
60.11142 66.544243 -0.51472002
60.018475 66.605057 -0.39661589
59.976288 66.63266 -0.26797736
59.70293 66.811508 -0.14341398
64 64 0
52.614994 71.449051 0.37997264
60.25806 66.441849 -0.73665035
60.208225 66.474365 -0.6245892
60.12537 66.528435 -0.51246846
60.011017 66.603058 -0.39704511
59.964455 66.633438 -0.26855338
59.695171 66.809166 -0.14355953
64 64 0
52.606003 71.435287 0.37997264
60.292397 66.413055 -0.72931647
60.196819 66.475266 -0.62597489
60.122318 66.52375 -0.51246846
60.007874 66.598236 -0.39704511
59.978619 66.617279 -0.26740021
59.656952 66.82663 -0.14472009
64 64 0
52.610096 71.41301 0.37953708
60.306068 66.397812 -0.72605664
60.21487 66.457008 -0.62251472
60.127804 66.513527 -0.51134163
60.060719 66.557076 -0.39148194
59.966774 66.618057 -0.26797736
59.727638 66.773277 -0.14225286
64 64 0
52.614212 71.390755 0.37910208
60.299026 66.396027 -0.72687078
60.216129 66.449699 -0.62182057
60.137558 66.500565 -0.50965458
60.061954 66.549515 -0.39105272
59.920197 66.641289 -0.27085972
59.6763 66.799187 -0.14384954
64 64 0
52.605289 71.376999 0.37910208
60.316895 66.378151 -0.72279674
60.196312 66.456009 -0.6245892
60.108932 66.512428 -0.51303083
60.03299 66.56147 -0.39362136
59.947433 66.616707 -0.26884139
59.725311 66.760132 -0.14210786
64 64 0
52.622589 71.346298 0.37823096
60.251698 66.413834 -0.73501891
60.21022 66.440544 -0.62182057
60.127254 66.493973 -0.51021695
60.008316 66.570572 -0.39576077
59.94862 66.609009 -0.26855338
64 64 -0
64 64 0
52.61372 71.33255 0.37823096
60.277885 66.39061 -0.72931647
60.203041 66.438683 -0.62251472
60.072937 66.522247 -0.51697153
60.022495 66.554642 -0.39404893
59.945469 66.604118 -0.26855338
64 64 -0
64 64 0
52.596115 71.324409 0.37852153
60.25835 66.396782 -0.73257631
60.221233 66.420555 -0.61905193
60.104122 66.495575 -0.51246846
59.980507 66.57476 -0.39790022
59.924904 66.610374 -0.26970655
64 64 -0
64 64 0
52.609165 71.2966 0.3777954
