# .PCD v0.7 - Point Cloud Data file format
VERSION 0.7
FIELDS x y z
SIZE 4 4 4
TYPE F F F
COUNT 1 1 1
WIDTH 1731
HEIGHT 1
VIEWPOINT 0 0 0 1 0 0 0
POINTS 1731
DATA ascii
52.73584 62.71508 -0.94503725
52.764828 62.718388 -0.63020337
52.653049 62.705635 -0.31895381
52.711525 62.712307 0
52.570671 62.696239 0.32126936
64 64 -0
52.726429 62.707104 -0.94589239
52.765602 62.711597 -0.63020337
52.674465 62.701145 -0.31837383
52.686455 62.702522 0
52.550808 62.686966 0.32184991
64 64 -0
52.73819 62.694664 -0.94503725
52.782589 62.699814 -0.6293382
52.660568 62.685669 -0.31880882
52.734562 62.694244 0
52.552406 62.67313 0.32184991
64 64 -0
52.714283 62.678074 -0.94717669
52.784168 62.68626 -0.6293382
52.677635 62.673782 -0.31837383
52.575905 62.661865 0
52.523037 62.65567 0.32272103
64 64 -0
52.73119 62.666248 -0.94589239
52.775482 62.67149 -0.6299153
52.622494 62.653381 -0.31996995
52.675724 62.659683 0
52.535 62.643028 0.32243049
64 64 -0
52.763386 62.656288 -0.9433254
52.771965 62.657314 -0.63020337
64 64 -0
52.641167 62.641674 0
52.552116 62.631023 0.32199547
64 64 -0
52.759926 62.642097 -0.94375294
52.794136 62.646233 -0.6290502
52.723793 62.637733 -0.3172127
64 64 0
52.543468 62.615948 0.32228547
64 64 -0
52.741188 62.62603 -0.94546479
52.780369 62.63081 -0.6299153
52.715141 62.622852 -0.31750271
52.680656 62.618645 0
52.565781 62.604626 0.32170492
64 64 -0
52.747948 62.613056 -0.94503725
52.792313 62.618523 -0.6293382
52.716812 62.609215 -0.31750271
52.692673 62.606243 0
52.567478 62.590809 0.32170492
64 64 -0
52.729252 62.596924 -0.94674915
52.773453 62.602425 -0.63049138
52.723656 62.596226 -0.31735772
52.699528 62.593224 0
52.564037 62.576355 0.32184991
64 64 -0
52.746243 62.585228 -0.94546479
52.770023 62.588215 -0.63077939
52.725357 62.5826 -0.31735772
52.690895 62.57827 0
52.586391 62.565132 0.32126936
64 64 -0
52.742874 62.570984 -0.94589239
52.771736 62.57465 -0.63077939
52.716778 62.567673 -0.3176477
52.692623 62.564606 0
52.54689 62.546104 0.32243049
64 64 -0
52.734413 62.556076 -0.94674915
52.778595 62.561741 -0.63049138
52.64119 62.544128 -0.31982493
52.694366 62.550941 0
52.548653 62.532269 0.32243049
64 64 -0
52.766724 62.546421 -0.94418049
52.770069 62.546852 -0.63106847
52.740887 62.543076 -0.31706715
52.670319 62.533943 0
52.550434 62.518433 0.32243049
64 64 -0
52.753212 62.530853 -0.94546479
52.771835 62.533283 -0.63106847
52.65506 62.518028 -0.31953439
52.656609 62.518234 0
52.577995 62.507965 0.32170492
52.754997 62.517262 -0.94546479
52.783882 62.521072 -0.63049138
52.692909 62.509075 -0.31851882
52.627457 62.500446 0
52.569489 62.492802 0.32199547
64 64 -0
52.756798 62.503677 -0.94546479
52.780556 62.50684 -0.63077939
52.699863 62.496101 -0.31837383
52.670555 62.492199 0
52.581635 62.480366 0.32170492
64 64 -0
52.778965 62.492828 -0.94375294
52.782368 62.493282 -0.63077939
52.727459 62.485909 -0.3176477
52.677536 62.479202 0
52.573166 62.465183 0.32199547
64 64 -0
52.745178 62.474442 -0.94674915
52.794437 62.481117 -0.63020337
52.71384 62.470196 -0.31808326
52.70517 62.469017 0
52.559593 62.449287 0.32243049
64 64 -0
52.761368 62.469719 -0.94546479
52.785118 62.472954 -0.63077939
52.714767 62.463375 -0.31808326
52.670006 62.457283 0
52.545082 62.440269 0.32286602
64 64 -0
52.742878 62.453346 -0.94717669
52.776711 62.457996 -0.63135654
52.711491 62.449036 -0.31822827
52.702808 62.447842 0
52.562424 62.428555 0.32243049
64 64 -0
52.749836 62.440449 -0.94674915
52.788841 62.445858 -0.63077939
52.733963 62.438251 -0.3176477
52.704693 62.434193 0
52.538578 62.411163 0.3231566
64 64 -0
52.751728 62.426857 -0.94674915
52.790726 62.432312 -0.63077939
52.761585 62.428238 -0.31692216
52.742683 62.425594 0
52.571396 62.401638 0.32228547
64 64 -0
52.748558 62.412552 -0.94717669
52.782372 62.41732 -0.63135654
52.73777 62.41103 -0.3176477
25.162048 58.520412 0
52.563034 62.386375 0.32257605
64 64 -0
52.745407 62.398235 -0.94760424
52.794548 62.405228 -0.63077939
52.683098 62.389366 -0.31924438
52.597084 62.377125 0
52.570152 62.373291 0.32243049
64 64 -0
52.757507 62.386093 -0.94674915
52.786232 62.390217 -0.63135654
52.715904 62.380123 -0.31837383
52.629959 62.367783 0
52.572128 62.359482 0.32243049
64 64 -0
52.774712 62.374718 -0.94546479
52.793297 62.377411 -0.63106847
52.676746 62.360535 -0.31953439
52.647396 62.356285 0
52.57412 62.345676 0.32243049
64 64 -0
52.756363 62.358189 -0.94717669
52.774792 62.360882 -0.63222164
52.699303 62.349857 -0.31895381
52.644245 62.341816 0
52.591537 62.334122 0.32199547
64 64 -0
52.763428 62.345352 -0.94674915
52.781914 62.348072 -0.63193256
52.716717 62.338474 -0.31851882
52.666855 62.331131 0
52.567856 62.316551 0.32272103
64 64 -0
52.775604 62.333286 -0.94589239
52.773674 62.333 -0.63250971
52.729023 62.32637 -0.31822827
52.679169 62.318966 0
52.569901 62.302742 0.32272103
64 64 -0
52.76239 62.317444 -0.94717669
52.796162 62.322498 -0.63135654
52.725899 62.311981 -0.31837383
52.65033 62.300667 0
52.556534 62.286621 0.3231566
64 64 -0
52.754288 62.302334 -0.94803178
52.787975 62.307419 -0.63193256
52.743366 62.300686 -0.31793827
52.678123 62.290836 0
52.589455 62.277451 0.32228547
64 64 -0
52.756348 62.288746 -0.94803178
52.790031 62.293873 -0.63193256
52.750561 62.287868 -0.31779328
52.695637 62.279507 0
52.586411 62.262882 0.32243049
64 64 -0
52.778721 62.278278 -0.94631994
52.802315 62.281898 -0.63135654
52.716698 62.268761 -0.31880882
52.656567 62.259533 0
52.593651 62.249882 0.32228547
64 64 -0
52.760513 62.261581 -0.94803178
52.804398 62.268368 -0.63135654
52.677711 62.248772 -0.31996995
25.181721 57.995949 0
52.611187 62.238483 0.32184991
64 64 -0
52.803207 62.25433 -0.94460803
52.811607 62.255638 -0.63106847
52.659294 62.231892 -0.3205505
52.64537 62.229721 0
52.567093 62.217518 0.3231566
64 64 -0
52.794106 62.245975 -0.94546479
52.797344 62.246483 -0.63193256
52.629547 62.220219 -0.32142162
52.687584 62.229301 0
52.557915 62.209003 0.3234466
64 64 -0
52.765816 62.227638 -0.94803178
52.809681 62.234558 -0.63135654
52.693306 62.216198 -0.31967995
52.689732 62.215633 0
52.58062 62.198418 0.32286602
52.767967 62.214066 -0.94803178
52.796494 62.218601 -0.63222164
52.710876 62.204987 -0.31924438
52.702164 62.203602 0
52.577679 62.183807 0.32301104
52.775196 62.201305 -0.94760424
52.778221 62.20179 -0.63337481
52.718178 62.192169 -0.3190994
52.668385 62.184189 0
52.57988 62.170006 0.32301104
52.772316 62.186924 -0.94803178
52.795727 62.190708 -0.63250971
52.715244 62.177711 -0.31924438
52.706539 62.176304 0
52.587227 62.157036 0.32286602
64 64 -0
52.76437 62.171711 -0.94888854
52.79282 62.176338 -0.63279772
52.696938 62.160736 -0.31982493
52.683067 62.158482 0
52.579193 62.141579 0.3231566
64 64 -0
52.77673 62.159798 -0.94803178
52.825653 62.16782 -0.63106847
52.694046 62.14624 -0.31996995
52.685303 62.144806 0
52.576324 62.126938 0.32330158
52.77388 62.145397 -0.948461
52.79216 62.148418 -0.63308573
52.721924 62.136814 -0.31924438
52.708096 62.134529 0
52.573471 62.112289 0.3234466
52.791328 62.134365 -0.94717669
52.8097 62.137424 -0.63222164
52.688293 62.117214 -0.32026049
52.720634 62.122601 0
52.596268 62.101898 0.32286602
52.773338 62.117428 -0.94888854
52.817078 62.12476 -0.63193256
52.654716 62.097534 -0.32127607
52.702377 62.10553 0
52.578068 62.084682 0.3234466
52.780678 62.104717 -0.948461
52.819351 62.111252 -0.63193256
52.667259 62.08556 -0.32098606
52.730331 62.096214 0
52.59063 62.072613 0.3231566
52.788052 62.092026 -0.94803178
52.801243 62.094273 -0.63308573
52.659348 62.070126 -0.32127607
52.701843 62.077354 0
52.633949 62.065804 0.32199547
52.780235 62.076744 -0.94888854
52.803551 62.080742 -0.63308573
52.671921 62.058178 -0.32098606
52.714447 62.065468 0
52.656784 62.055584 0.32141492
52.767403 62.06057 -0.95017123
52.810974 62.068092 -0.63279772
52.694759 62.048027 -0.32040548
52.686028 62.04652 0
52.674511 62.044533 0.32097936
52.759628 62.045238 -0.95102799
52.803112 62.052799 -0.63337481
52.692013 62.033478 -0.3205505
52.68325 62.031956 0
52.62569 62.021946 0.32243049
52.792332 62.036972 -0.948461
52.825855 62.042843 -0.63222164
52.689281 62.018921 -0.32069549
52.6959 62.020081 0
52.694633 62.019859 0.3205438
52.799782 62.024323 -0.94803178
52.812958 62.026649 -0.63308573
52.691685 62.005257 -0.32069549
52.703423 62.007328 0
52.753315 62.016129 0.3189477
52.790859 62.015766 -0.94888854
52.803955 62.018085 -0.63366288
52.708229 62.001141 -0.32026049
52.704628 62.000504 0
64 64 0
52.793262 62.002224 -0.94888854
52.796185 62.002743 -0.6342389
52.69532 61.984764 -0.32069549
52.748047 61.994164 0
52.746704 61.993923 0.31923768
52.770424 61.98415 -0.95102799
52.808777 61.991035 -0.63366288
52.677299 61.967434 -0.32127607
52.663391 61.964935 0
52.774708 61.984917 0.31851214
52.788029 61.973324 -0.94974369
52.811214 61.977512 -0.63366288
52.684875 61.954678 -0.32113105
52.665859 61.951241 0
52.746479 61.965813 0.3193827
52.803051 61.948082 -0.94888854
52.800884 61.947685 -0.63452691
52.700066 61.929211 -0.32084104
52.696438 61.928547 0
52.720745 61.932999 0.32025382
52.810581 61.935486 -0.948461
52.808456 61.935093 -0.6342389
52.671921 61.909901 -0.3217116
52.683586 61.912056 0
52.702808 61.9156 0.32083437
52.797955 61.919155 -0.94974369
52.810959 61.92157 -0.6342389
52.710224 61.902859 -0.32069549
52.686119 61.898384 0
52.746212 61.909546 0.31967324
52.810562 61.907509 -0.94888854
52.828716 61.910904 -0.63337481
52.707645 61.888264 -0.32084104
52.714264 61.8895 0
52.712982 61.889259 0.32068935
52.833282 61.897789 -0.94717669
52.810936 61.893581 -0.63452691
52.720428 61.876545 -0.3205505
52.681007 61.869122 0
52.674706 61.867935 0.32184991
52.850967 61.887165 -0.94589239
52.798233 61.877174 -0.63539207
52.71278 61.860977 -0.32084104
52.668247 61.852539 0
52.610916 61.841675 0.32373661
52.84343 61.871773 -0.94674915
52.841461 61.871395 -0.63308573
52.710274 61.846371 -0.32098606
52.721985 61.848602 0
52.618629 61.828888 0.32359159
52.835938 61.856358 -0.94760424
52.818642 61.853035 -0.63452691
52.728199 61.83567 -0.3205505
52.719467 61.833992 0
52.605946 61.812195 0.32402715
52.8083 61.837025 -0.95017123
52.80093 61.835602 -0.63568008
52.690002 61.814163 -0.3217116
52.798756 61.835182 0
52.623909 61.801392 0.32359159
52.831062 61.827423 -0.948461
52.823864 61.826023 -0.63452691
52.733463 61.808437 -0.3205505
52.7043 61.802765 0
52.657173 61.793598 0.32272103
52.818592 61.81097 -0.94974369
52.851875 61.81749 -0.63308573
52.72591 61.792828 -0.32084104
52.747826 61.797119 0
52.644543 61.776897 0.3231566
52.83131 61.799446 -0.94888854
52.813919 61.796021 -0.63539207
52.748978 61.783226 -0.32026049
52.740292 61.781513 0
52.64724 61.763176 0.3231566
52.817547 61.789715 -0.95017123
52.845692 61.795277 -0.63366288
52.740135 61.774414 -0.3205505
52.71611 61.769665 0
52.62822 61.752293 0.32373661
52.840347 61.780209 -0.948461
52.838226 61.779785 -0.6342389
52.763222 61.764866 -0.31996995
52.734112 61.759075 0
52.610554 61.734497 0.32431716
52.853119 61.768742 -0.94760424
52.840919 61.7663 -0.6342389
52.745544 61.747208 -0.3205505
52.716412 61.741379 0
52.628571 61.723797 0.32388216
52.840717 61.752232 -0.94888854
52.838558 61.751797 -0.63452691
52.687141 61.721298 -0.32229218
52.739559 61.731857 0
52.651711 61.714161 0.32330158
52.828362 61.735695 -0.95017123
52.826069 61.735229 -0.63539207
52.725563 61.714859 -0.32127607
52.681091 61.705845 0
52.659569 61.701481 0.3231566
52.81601 61.719116 -0.95145553
52.833878 61.722763 -0.63510406
52.682507 61.691891 -0.32258219
52.688988 61.693214 0
52.687828 61.692978 0.32243049
52.808704 61.703541 -0.95231229
52.831573 61.708233 -0.63539207
52.715839 61.684483 -0.3217116
52.712181 61.683731 0
52.660069 61.673038 0.32330158
52.826576 61.693134 -0.95102799
52.829292 61.693695 -0.63568008
52.713562 61.6698 -0.32185662
52.735374 61.674305 0
52.693436 61.665646 0.32243049
52.814285 61.676502 -0.95231229
52.832085 61.680199 -0.63568008
52.7062 61.654049 -0.32214716
52.768761 61.667046 0
52.665726 61.645641 0.32330158
52.80706 61.660889 -0.95316738
52.829819 61.665646 -0.63596916
52.759918 61.651039 -0.32069549
52.72065 61.64283 0
52.653332 61.628761 0.32373661
52.814915 61.648422 -0.95273983
52.832649 61.652149 -0.63596916
52.747505 61.634251 -0.32113105
52.743881 61.633488 0
52.61552 61.606499 0.32489771
52.837856 61.639156 -0.95102799
52.845623 61.6408 -0.63539207
52.730034 61.616352 -0.3217116
52.74675 61.619888 0
52.603165 61.58952 0.32533327
52.850769 61.627811 -0.95017123
52.853539 61.628399 -0.63510406
52.763412 61.609222 -0.32084104
52.734352 61.603043 0
52.606083 61.575748 0.32533327
52.843594 61.61219 -0.95102799
52.87159 61.618183 -0.6342389
52.791733 61.601089 -0.32011494
52.686371 61.578541 0
52.578541 61.555462 0.32620382
52.856537 61.600876 -0.95017123
52.834023 61.596027 -0.63654524
52.738747 61.575516 -0.3217116
52.740181 61.575825 0
52.571331 61.539471 0.3264944
52.839371 61.583065 -0.95188308
52.862206 61.588013 -0.63510406
52.721371 61.55751 -0.32229218
52.702419 61.553406 0
52.54892 61.520164 0.32721993
52.817204 61.564114 -0.95402414
52.844913 61.570152 -0.63625723
52.724327 61.543884 -0.32229218
52.746071 61.548622 0
52.567165 61.509651 0.32678437
52.838737 61.561741 -0.95231229
52.866596 61.567829 -0.63510406
52.700432 61.531528 -0.32301772
52.747555 61.541821 0
52.614361 61.512726 0.32547826
52.836685 61.547157 -0.95273983
52.839241 61.547718 -0.63683325
52.728798 61.523453 -0.32229218
52.745453 61.527111 0
52.597073 61.494507 0.32605883
52.819603 61.52924 -0.95445174
52.837143 61.533115 -0.63712233
52.757168 61.515442 -0.32156661
52.76878 61.518005 0
52.595039 61.47961 0.32620382
52.837639 61.519073 -0.95316738
52.870441 61.526363 -0.63539207
52.760178 61.501858 -0.32156661
52.73114 61.495403 0
52.593002 61.464703 0.32634938
52.84565 61.506706 -0.95273983
52.848202 61.507278 -0.63683325
52.778423 61.49168 -0.32113105
52.72908 61.480652 0
52.616364 61.455456 0.32576883
52.853676 61.494354 -0.95231229
52.841118 61.491535 -0.6374104
52.751053 61.471287 -0.32200161
52.727058 61.465893 0
52.609314 61.439426 0.32605883
52.856709 61.480888 -0.95231229
52.859299 61.481476 -0.63654524
52.749031 61.456547 -0.32214716
52.760597 61.459164 0
52.566799 61.415352 0.32736495
52.839737 61.462875 -0.95402414
52.847214 61.464573 -0.6374104
52.757195 61.444111 -0.32200161
38.568237 58.218452 0
52.630722 61.415359 0.32562384
52.847828 61.450539 -0.95359498
52.84021 61.448795 -0.63798642
38.692169 58.214462 -0.72503316
38.615837 58.19701 0
52.60347 61.394676 0.3264944
52.855919 61.438213 -0.95316738
52.838242 61.434151 -0.6382755
52.753265 61.414616 -0.32229218
52.663361 61.393951 0
52.611683 61.382072 0.32634938
52.839012 61.420128 -0.95487928
52.801052 61.41135 -0.64058077
52.700695 61.388153 -0.32388884
52.742573 61.397835 0
52.604736 61.365974 0.32663938
52.837143 61.405479 -0.95530683
52.829376 61.403675 -0.63913959
52.729183 61.38039 -0.32316273
52.689972 61.371277 0
52.587681 61.3475 0.32721993
52.830276 61.389656 -0.95616359
52.827488 61.389004 -0.6394276
52.762711 61.373867 -0.32229218
52.764107 61.374191 0
52.616192 61.339626 0.3264944
52.848434 61.379684 -0.95487928
52.835682 61.37669 -0.63913959
52.760838 61.3591 -0.32243717
52.757141 61.358234 0
52.619415 61.325871 0.3264944
52.861595 61.368572 -0.95402414
52.843887 61.364388 -0.63885158
52.733681 61.338352 -0.32330829
52.73502 61.338669 0
52.57209 61.300175 0.3279455
52.859791 61.353928 -0.95445174
52.847084 61.35091 -0.63885158
52.75713 61.329544 -0.32272774
52.728127 61.322655 0
52.605686 61.293571 0.32707494
52.85302 61.338089 -0.95530683
52.845264 61.336235 -0.63913959
52.745216 61.312344 -0.32316273
52.726311 61.307831 0
52.603912 61.278603 0.32721993
52.844635 61.32896 -0.95616359
52.786507 61.315044 -0.64259911
52.731674 61.301914 -0.3235983
39.957375 58.243237 0
52.595444 61.269295 0.32751051
52.857864 61.31789 -0.95530683
52.845085 61.314812 -0.6394276
52.709686 61.282219 -0.32432383
39.933975 58.206879 0
52.639172 61.265247 0.32634938
52.846138 61.300804 -0.95659113
52.808117 61.291603 -0.64173394
52.712975 61.268581 -0.32432383
52.72942 61.27256 0
52.60714 61.24297 0.32736495
52.829453 61.282475 -0.95830303
52.831505 61.282974 -0.64058077
52.701134 61.251259 -0.32475939
52.732723 61.258942 0
52.615524 61.230431 0.32721993
52.837723 61.270195 -0.95787543
52.849854 61.273163 -0.63971668
52.699417 61.236374 -0.32490441
52.72089 61.241623 0
52.553261 61.20063 0.32910663
52.860973 61.261616 -0.95616359
52.833061 61.254753 -0.64086986
52.768368 61.238846 -0.32301772
52.719162 61.226753 0
52.571777 61.190517 0.3286716
52.854332 61.245697 -0.95701867
52.876564 61.25119 -0.63856357
52.76667 61.224033 -0.32316273
52.727589 61.214375 0
52.61554 61.186687 0.32751051
52.862648 61.233467 -0.95659113
52.854797 61.231518 -0.64000475
52.724648 61.199188 -0.32446885
52.736012 61.202011 0
52.598774 61.167919 0.32809106
52.870975 61.221252 -0.95616359
52.818001 61.208027 -0.6423111
52.70787 61.180531 -0.3250494
52.714157 61.182098 0
52.602203 61.154148 0.32809106
52.844471 61.200314 -0.95873058
52.831425 61.197037 -0.64173394
52.736481 61.17321 -0.32432383
52.727654 61.170998 0
52.610706 61.141644 0.3279455
52.842888 61.185581 -0.95915812
52.83482 61.183544 -0.64173394
52.739906 61.159603 -0.32432383
52.766415 61.16629 0
52.634323 61.132969 0.32736495
52.856239 61.174622 -0.95830303
52.83823 61.170055 -0.64173394
52.743347 61.146 -0.32432383
52.709305 61.137367 0
52.607559 61.111572 0.32823604
52.849724 61.158627 -0.95915812
52.84166 61.15657 -0.64173394
52.716579 61.124699 -0.32519495
52.788433 61.143009 0
52.600998 61.095245 0.32852605
52.833267 61.14006 -0.96086997
52.8451 61.143093 -0.64173394
52.730141 61.113647 -0.32490441
52.726326 61.112671 0
52.56424 61.071159 0.32968718
52.836735 61.126572 -0.96086997
52.838531 61.127033 -0.6423111
64 64 -0
52.729824 61.099052 0
52.608051 61.067707 0.32852605
52.850143 61.115654 -0.96001488
52.826984 61.109661 -0.6431762
52.752247 61.090328 -0.32446885
52.718235 61.081528 0
52.646805 61.063053 0.32751051
52.848675 61.100891 -0.96044242
52.830482 61.096165 -0.6431762
52.755768 61.07674 -0.32446885
52.746952 61.074448 0
52.630245 61.044106 0.32809106
52.848984 61.079388 -0.96086997
52.860802 61.082481 -0.64173394
52.710804 61.043194 -0.32592052
52.701931 61.040871 0
52.595421 61.012974 0.32925162
52.822723 61.058071 -0.96343863
52.869331 61.070339 -0.64144593
52.734489 61.034847 -0.32533997
52.730679 61.033844 0
52.644264 61.011101 0.3279455
52.870953 61.056381 -0.95958734
52.847881 61.050278 -0.64288712
52.723 61.01725 -0.3257755
52.71917 61.016235 0
52.632809 60.993393 0.32838106
52.854668 61.037663 -0.96129918
52.831455 61.03149 -0.64404029
42.702187 58.339214 -0.61545885
52.763027 61.013302 0
52.586235 60.966312 0.32983217
52.833458 61.017574 -0.96343863
52.83004 61.016659 -0.64432937
52.675026 60.975258 -0.32737163
52.771667 61.001068 0
52.589909 60.952522 0.32983217
52.822189 61.000088 -0.96472293
52.848644 61.007187 -0.64346427
52.728874 60.975044 -0.32592052
52.714973 60.971313 0
52.593597 60.93874 0.32983217
52.860527 60.995945 -0.96172673
52.847279 60.992371 -0.64375228
64 64 -0
52.728703 60.960396 0
52.597305 60.924957 0.32983217
52.834442 60.974434 -0.96429372
52.855911 60.980247 -0.64346427
52.731205 60.946457 -0.32606551
52.747459 60.950863 0
52.601028 60.911182 0.32983217
52.843056 60.962292 -0.96386617
52.859566 60.966785 -0.64346427
52.759972 60.939667 -0.32533997
52.761189 60.939999 0
52.564655 60.88649 0.33099329
52.836823 60.946098 -0.96472293
52.853271 60.9506 -0.64404029
52.758667 60.924721 -0.32548496
52.719711 60.914062 0
52.588478 60.878159 0.33041275
52.85043 60.935337 -0.96386617
52.861946 60.938503 -0.64375228
52.747353 60.907005 -0.32592052
52.708389 60.896294 0
52.572212 60.858864 0.33099329
52.839291 60.917767 -0.96515048
52.840725 60.918163 -0.64519346
52.741089 60.890648 -0.32621053
52.752285 60.893738 0
52.616093 60.856125 0.32983217
52.843021 60.904282 -0.96515048
52.879337 60.91436 -0.6431762
52.724823 60.871487 -0.32679108
52.740993 60.875973 0
52.584839 60.832645 0.33084828
52.866554 60.89632 -0.96343863
52.83823 60.888424 -0.64577055
52.708588 60.852283 -0.32737163
52.754814 60.86517 0
52.613701 60.825832 0.33012274
52.858551 60.886833 -0.96429372
52.855064 60.885857 -0.64490545
52.760536 60.859444 -0.32592052
52.796814 60.869583 0
52.580582 60.809162 0.33113885
52.852425 60.870594 -0.96515048
52.838913 60.866802 -0.64605862
52.749321 60.841652 -0.32635608
52.670322 60.819473 0
52.604458 60.800983 0.3305583
52.866104 60.859917 -0.96429372
52.857647 60.857533 -0.64519346
64 64 -0
52.70422 60.814262 0
52.593338 60.78299 0.33099329
52.815567 60.83107 -0.96900177
52.846519 60.83984 -0.64605862
64 64 -0
52.723106 60.804871 0
52.562229 60.759293 0.3320094
52.853973 60.827396 -0.96600562
52.860306 60.829201 -0.64548147
52.740871 60.795204 -0.32693607
52.736977 60.794098 0
52.581154 60.749741 0.33157384
52.86768 60.816753 -0.96515048
52.864143 60.815742 -0.64548147
52.749744 60.783028 -0.32679108
52.675808 60.761887 0
52.585091 60.735947 0.33157384
52.866604 60.801888 -0.96557802
52.843124 60.795143 -0.64692372
52.72366 60.760826 -0.3276622
52.709736 60.756828 0
52.609024 60.727898 0.33099329
52.885281 60.792709 -0.96429372
52.842041 60.780231 -0.64721179
52.697632 60.73856 -0.32853276
52.728668 60.747517 0
52.59301 60.70837 0.33157384
52.869438 60.773563 -0.96600562
52.855885 60.769634 -0.64663464
52.71656 60.729248 -0.32809719
52.702621 60.725208 0
52.572044 60.687359 0.33229941
52.86842 60.758682 -0.96643317
52.834949 60.748936 -0.64807689
44.722473 58.38673 -0.56074423
39.184189 56.774078 0
52.581039 60.675003 0.33215439
52.857559 60.74091 -0.96771747
52.824005 60.731094 -0.64894098
44.729271 58.363441 -0.56074423
39.22789 56.754322 0
52.550148 60.650993 0.33317053
52.841801 60.721661 -0.96942931
52.837879 60.720509 -0.64836496
52.673637 60.672253 -0.32969385
52.679604 60.674007 0
52.619019 60.656204 0.33128384
52.840851 60.706726 -0.96985692
52.822006 60.701168 -0.64951813
52.727501 60.673275 -0.32824275
52.703602 60.666222 0
52.613106 60.639515 0.33157384
52.854671 60.696163 -0.96900177
52.855766 60.696487 -0.64778781
52.731529 60.65966 -0.32824275
52.742577 60.662933 0
52.562363 60.609512 0.33317053
52.863586 60.684162 -0.96857423
52.864719 60.684498 -0.6474998
52.770447 60.656429 -0.32722664
52.721676 60.641907 0
52.581413 60.600143 0.33273497
52.857773 60.667767 -0.96942931
52.838989 60.662151 -0.64923006
52.739635 60.632439 -0.32824275
52.720741 60.626785 0
52.565613 60.580395 0.33331552
52.832298 60.645443 -0.97199798
52.862846 60.654617 -0.64807689
52.71386 60.609867 -0.3291133
52.754745 60.622147 0
52.609573 60.578541 0.33215439
52.819592 60.634262 -0.97328061
52.854973 60.644913 -0.64865297
52.715908 60.603046 -0.3291133
52.741829 60.610851 0
52.611641 60.571659 0.33215439
52.858055 60.631149 -0.97028607
52.859035 60.631447 -0.64865297
52.754848 60.599945 -0.32809719
52.726006 60.591225 0
52.566036 60.542858 0.33360609
52.822849 60.605762 -0.97370821
52.823517 60.605965 -0.65095931
45.623547 58.419502 -0.53636187
52.824764 60.606342 0
52.605038 60.539616 0.33258995
52.841679 60.596748 -0.97242552
52.847416 60.598495 -0.64980614
45.650185 58.403366 -0.53578132
52.784054 60.57917 0
52.599293 60.52282 0.33287996
52.8507 60.58477 -0.97199798
52.881203 60.594112 -0.64807689
52.742386 60.55159 -0.3288233
52.683685 60.533611 0
52.618397 60.513611 0.33244497
52.849934 60.569794 -0.97242552
52.865547 60.574596 -0.64923006
52.711807 60.527298 -0.32983887
52.702812 60.524532 0
52.577919 60.486107 0.33375108
52.873711 60.562386 -0.97071368
52.864758 60.55962 -0.64951813
52.750755 60.524395 -0.3288233
52.721947 60.515495 0
52.602032 60.478447 0.33317053
52.872971 60.547424 -0.97114122
52.839287 60.536972 -0.65124732
52.750004 60.509266 -0.32896832
52.731129 60.50341 0
52.571568 60.453899 0.33418608
52.857544 60.52787 -0.97285306
52.848415 60.525024 -0.65095931
52.744316 60.492588 -0.32925832
52.68568 60.474316 0
52.600662 60.447823 0.33346051
52.837254 60.506744 -0.97499251
52.857552 60.513096 -0.65067124
52.743587 60.477432 -0.32940388
52.739613 60.476189 0
52.614872 60.437153 0.33317053
52.841484 60.493259 -0.97499251
52.866722 60.50119 -0.65038216
52.688377 60.445145 -0.33114499
52.709114 60.45166 0
52.648941 60.432751 0.33229941
52.875095 60.489048 -0.97242552
52.831493 60.475288 -0.6526885
46.398937 58.44521 -0.51546293
52.75312 60.450554 0
52.658211 60.420601 0.33215439
52.859772 60.469402 -0.97413737
52.835762 60.461796 -0.6526885
46.415581 58.42709 -0.51517236
52.64827 60.402374 0
52.657597 60.405331 0.33229941
52.84938 60.451279 -0.97542006
52.835102 60.446732 -0.65297759
46.466888 58.420029 -0.51386625
52.806366 60.437588 0
52.661949 60.391628 0.33229941
52.843887 60.434677 -0.97627681
52.854191 60.437973 -0.65211248
52.67598 60.38102 -0.33201611
52.691704 60.386044 0
52.62175 60.363686 0.33360609
52.848202 60.4212 -0.97627681
52.84866 60.421349 -0.6526885
52.744682 60.387981 -0.33012941
52.715904 60.378746 0
52.631115 60.351532 0.33346051
52.857418 60.409302 -0.97584927
52.862831 60.411045 -0.65211248
52.739174 60.371197 -0.33041942
52.720287 60.365112 0
52.620689 60.333015 0.33389607
52.864487 60.404152 -0.97542006
52.855164 60.401142 -0.6526885
52.77597 60.375568 -0.32940388
52.752197 60.367893 0
52.647629 60.334126 0.33317053
52.883476 60.395447 -0.97413737
52.844757 60.382889 -0.65355366
52.760605 60.355606 -0.32998386
52.721947 60.343071 0
52.681736 60.330032 0.33229941
52.853683 60.370895 -0.9771319
52.839287 60.366207 -0.65413076
52.705719 60.32272 -0.33172554
52.756062 60.339111 0
52.651581 60.305096 0.33331552
52.84343 60.352642 -0.97841626
52.838772 60.35112 -0.65441883
52.724976 60.313915 -0.33129054
52.740704 60.319057 0
52.641232 60.286537 0.33375108
52.852722 60.340763 -0.97798866
52.83337 60.334412 -0.65499485
47.174843 58.476929 -0.49456394
52.794605 60.321686 0
52.655613 60.276062 0.33346051
52.847408 60.324085 -0.97884381
52.832878 60.319298 -0.65528393
47.176598 58.454979 -0.49470896
52.927593 60.350517 0
52.674911 60.267231 0.33302552
52.856728 60.312225 -0.97841626
52.86681 60.315563 -0.65355366
47.212921 58.444454 -0.49383783
52.665184 60.248837 0
52.674503 60.251919 0.33317053
52.856323 60.297146 -0.97884381
52.856541 60.297218 -0.65441883
52.747868 60.261108 -0.33114499
52.69442 60.243347 0
52.595203 60.210381 0.33563775
52.851055 60.28043 -0.97970057
52.856117 60.28212 -0.65470684
52.703087 60.231064 -0.33259666
52.718716 60.236279 0
52.629379 60.206474 0.33476663
52.870167 60.271854 -0.97841626
52.841 60.262085 -0.65586001
52.751991 60.232269 -0.33129054
52.743011 60.229263 0
52.653683 60.199341 0.33418608
52.864937 60.255135 -0.97927302
52.88475 60.261795 -0.65355366
52.781197 60.226971 -0.33056441
52.752506 60.217323 0
52.618877 60.172379 0.33534721
52.854893 60.236759 -0.98055565
52.874565 60.243401 -0.65441883
52.75621 60.203438 -0.33143553
52.702835 60.185417 0
52.613655 60.155304 0.33563775
52.869164 60.226589 -0.97970057
52.854622 60.221661 -0.65586001
52.741119 60.183182 -0.33201611
52.771549 60.193497 0
52.677368 60.161572 0.33389607
52.868874 60.211491 -0.98012811
52.849411 60.204865 -0.65643603
47.870525 58.510288 -0.47584164
52.751503 60.171543 0
52.632828 60.131149 0.33534721
64 64 -0
52.844318 60.188084 -0.9826951
52.849094 60.189716 -0.65672511
47.818157 58.470638 -0.47758332
52.721676 60.146179 0
52.657181 60.124138 0.33476663
52.858414 60.162807 -0.98226756
52.868126 60.166153 -0.65614802
47.910187 58.458626 -0.47526109
52.721169 60.11554 0
52.651836 60.09166 0.33520219
52.84132 60.14938 -0.9839794
52.865562 60.157742 -0.65643603
47.992138 58.476028 -0.47293887
52.689091 60.096848 0
52.644363 60.081413 0.33549276
64 64 -0
52.865387 60.14262 -0.98226756
52.840874 60.134129 -0.65816635
52.742188 60.099941 -0.33274165
52.742989 60.100216 0
52.649109 60.067696 0.33549276
64 64 -0
52.865211 60.127483 -0.9826951
52.845554 60.120647 -0.65816635
52.766541 60.093166 -0.3321611
52.708378 60.072941 0
52.624424 60.043743 0.33636332
52.8699 60.114033 -0.9826951
52.835594 60.102055 -0.65903145
52.756546 60.074455 -0.33259666
52.762264 60.076454 0
52.639015 60.033424 0.33607331
52.869743 60.098885 -0.98312432
52.854961 60.093704 -0.65816635
52.74168 60.053997 -0.33317721
52.712994 60.043945 0
52.668354 60.028297 0.33534721
52.918049 60.100773 -0.97927302
52.845047 60.075089 -0.65903145
52.726845 60.033497 -0.33375776
52.761967 60.045856 0
52.692772 60.021507 0.33476663
52.864693 60.066872 -0.98440695
52.815666 60.049557 -0.66104871
48.493198 58.522808 -0.45929658
52.771656 60.034012 0
52.658386 59.994003 0.33592775
52.888809 60.060284 -0.9826951
52.825317 60.037773 -0.6607607
48.485126 58.498863 -0.45973215
52.786278 60.02393 0
52.619156 59.964672 0.33723387
52.888729 60.045135 -0.98312432
52.839851 60.027737 -0.66018462
48.506477 58.485348 -0.45929658
52.634174 59.954529 0
52.658295 59.963116 0.3362183
52.864517 60.021351 -0.98569125
52.810574 60.002079 -0.66220188
52.731483 59.97382 -0.33419278
52.702785 59.963566 0
52.638718 59.940674 0.33694386
52.854828 60.002697 -0.98697561
52.854366 60.002533 -0.65989554
64 64 -0
52.697884 59.946407 0
52.628952 59.921684 0.33737943
52.87899 59.996189 -0.98526371
52.834873 59.980309 -0.66133672
64 64 -0
52.761555 59.953911 0
52.633888 59.907948 0.33737943
52.840382 59.967052 -0.989115
52.825142 59.961544 -0.66220188
52.775467 59.943592 -0.33332223
52.781124 59.945637 0
52.619289 59.887154 0.33795998
52.859749 59.958824 -0.9878307
52.830029 59.948044 -0.66220188
52.765717 59.924713 -0.33375776
52.73711 59.914337 0
52.614506 59.869862 0.33824998
52.859802 59.943604 -0.98825991
52.820343 59.929237 -0.66306704
52.726704 59.895142 -0.33506387
52.737167 59.898952 0
52.58532 59.843658 0.33926609
52.864708 59.930145 -0.98825991
52.80584 59.90863 -0.66422021
49.056396 58.538242 -0.44434819
52.800777 59.90678 0
52.639168 59.847713 0.33781442
52.843071 59.914597 -0.9903993
52.818035 59.90543 -0.66364306
49.093864 58.541725 -0.44333208
52.749504 59.880333 0
52.612389 59.830124 0.33868554
52.881752 59.913517 -0.98740315
52.818123 59.890129 -0.66393214
49.071194 58.512959 -0.4442032
52.715408 59.852379 0
52.607689 59.812786 0.33897555
52.857807 59.889427 -0.98997015
52.823097 59.876621 -0.66393214
49.077835 58.494923 -0.4442032
52.744839 59.847752 0
52.632263 59.806221 0.338395
52.882019 59.883091 -0.98825991
52.818394 59.859531 -0.66450822
52.724827 59.824883 -0.33578944
52.730339 59.826923 0
52.588593 59.774437 0.33984667
52.862946 59.860718 -0.9903993
52.833092 59.849625 -0.66393214
52.739632 59.814888 -0.3354989
52.745155 59.81694 0
52.61319 59.767895 0.33926609
52.906437 59.861622 -0.98697561
52.818729 59.828903 -0.66508532
52.739815 59.799461 -0.33564445
52.750221 59.803345 0
52.589108 59.743244 0.34013665
52.80442 59.808147 -0.66623741
52.813042 59.811375 -0.3336122
52.735802 59.782455 0
52.618591 59.738567 0.33941111
52.804634 59.792797 -0.6665265
52.740276 59.768612 -0.33593446
52.721413 59.761524 0
52.604286 59.717506 0.33999166
52.809727 59.779274 -0.6665265
52.769707 59.764175 -0.33520889
52.765503 59.762592 0
52.604614 59.701908 0.34013665
52.805168 59.762096 -0.66710258
49.601231 58.549213 -0.4299798
52.746281 59.739803 0
52.59523 59.682621 0.34057221
52.819962 59.752243 -0.6665265
49.593246 58.526283 -0.43041536
52.770897 59.733601 0
52.576168 59.659615 0.34129778
52.810616 59.733212 -0.66739058
49.604725 58.510727 -0.43027037
52.659359 59.675537 0
52.600845 59.653221 0.34071723
52.825432 59.723389 -0.66681457
49.669609 58.515629 -0.4285287
52.722927 59.684158 0
52.59639 59.635735 0.34100777
52.83543 59.711742 -0.6665265
52.74213 59.675907 -0.33680555
52.698986 59.659336 0
52.625942 59.631279 0.34028167
64 64 -0
52.811668 59.687096 -0.66825575
52.791019 59.679138 -0.3354989
52.728519 59.655045 0
52.592438 59.602585 0.34144276
52.82653 59.677311 -0.66767967
52.791389 59.663715 -0.33564445
52.724075 59.637672 0
52.573509 59.579426 0.3421689
64 64 -0
52.809849 59.663082 -0.66883284
52.774628 59.649433 -0.336225
52.736412 59.634621 0
52.614948 59.587547 0.34100777
52.819931 59.651443 -0.66854376
52.72179 59.613274 -0.33796611
52.717445 59.611584 0
52.639664 59.581329 0.34042722
64 64 -0
52.80592 59.630417 -0.66969693
50.079117 58.566013 -0.41735366
52.771252 59.616882 0
52.596607 59.54871 0.34187832
52.806377 59.615002 -0.66998601
50.085693 58.549198 -0.41735366
52.737785 59.588131 0
52.606827 59.536827 0.34173334
52.792427 59.593906 -0.67113918
50.097122 58.53429 -0.41720864
52.660778 59.542152 0
52.612228 59.523067 0.34173334
52.807392 59.584167 -0.67056209
50.089249 58.51178 -0.41764364
52.67585 59.532272 0
52.578972 59.494049 0.34289443
52.80793 59.568745 -0.6708501
50.182854 58.529404 -0.4150314
52.700611 59.526257 0
52.598927 59.485996 0.3424589
52.813293 59.555225 -0.6708501
52.787682 59.545052 -0.33695057
52.706024 59.512608 0
52.585068 59.464546 0.34303945
52.823471 59.543625 -0.67056209
52.78825 59.529583 -0.33709556
52.750137 59.514385 0
52.600224 59.454613 0.34274888
52.814453 59.524357 -0.67142719
52.798481 59.517967 -0.33695057
52.774895 59.50853 0
52.605724 59.440842 0.34274888
52.810276 59.506996 -0.67200327
52.774979 59.492821 -0.33782113
52.756184 59.485275 0
52.620876 59.430946 0.3424589
52.815712 59.493477 -0.67200327
50.563202 58.585865 -0.40458193
52.674736 59.436672 0
52.611938 59.411369 0.34289443
52.83075 59.483841 -0.67142719
50.536022 58.555996 -0.40559804
52.718861 59.438599 0
52.588593 59.385929 0.34376502
52.807465 59.458683 -0.67315644
50.53299 58.535828 -0.40588805
52.685799 59.409317 0
52.613441 59.379959 0.34318444
52.803368 59.441257 -0.67373353
50.544411 58.521515 -0.40574303
52.782951 59.432945 0
52.580524 59.350525 0.34434557
52.813686 59.429691 -0.67344445
50.570282 58.513123 -0.40516248
52.701756 59.383965 0
52.624638 59.352455 0.34318444
52.823997 59.41814 -0.67315644
52.851219 59.429302 -0.33651501
52.736229 59.382156 0
52.58699 59.320972 0.34449056
52.817188 59.407455 -0.67373353
52.791496 59.396904 -0.33840168
52.739021 59.375351 0
52.599426 59.318024 0.34420055
52.81319 59.390007 -0.67430961
52.792267 59.381386 -0.33854666
52.735001 59.357788 0
52.59549 59.300297 0.34449056
52.813992 59.374519 -0.67459762
52.812248 59.373798 -0.33811167
52.721378 59.336224 0
52.629982 59.298431 0.34362
52.814796 59.359016 -0.6748867
52.942638 59.412064 -0.33433834
52.746254 59.330578 0
52.645279 59.288681 0.34332946
52.834743 59.351475 -0.6740216
50.971649 58.575794 -0.39413244
52.766304 59.322979 0
52.598202 59.252991 0.34492612
52.792648 59.31805 -0.67690396
50.949451 58.548042 -0.39500299
52.695137 59.277313 0
52.647099 59.257248 0.34362
52.826927 59.316505 -0.67517471
50.960838 58.534283 -0.394858
52.73444 59.277737 0
52.638454 59.237503 0.34405556
52.813522 59.294987 -0.67632788
50.996185 58.530617 -0.39398745
52.720963 59.256058 0
52.653809 59.22781 0.34376502
52.809692 59.277454 -0.67690396
52.884384 59.308975 -0.33695057
52.745888 59.250526 0
52.669151 59.218143 0.34347501
52.824924 59.267967 -0.67632788
52.780006 59.248947 -0.34028834
52.751633 59.236931 0
52.584023 59.165958 0.34623224
52.84494 59.260536 -0.67546278
52.790535 59.237423 -0.34014335
52.757397 59.223343 0
52.65683 59.180614 0.34420055
52.831638 59.238949 -0.67661595
52.82497 59.236107 -0.3392728
52.686569 59.177105 0
52.600517 59.140419 0.34608725
52.818375 59.217319 -0.67776912
51.502487 58.65448 -0.37961906
52.735489 59.181866 0
52.615963 59.130741 0.34579667
52.825218 59.188267 -0.67805713
51.377026 58.564693 -0.38382795
52.837982 59.193764 0
52.656391 59.115574 0.34492612
52.84053 59.178867 -0.67748106
51.402683 58.55769 -0.38324741
52.733913 59.132809 0
52.600288 59.075077 0.34681278
52.810226 59.157753 -0.67949831
51.425053 58.558334 -0.38266686
52.736855 59.126003 0
52.641418 59.084705 0.34565169
52.782864 59.12981 -0.68151665
51.741467 58.677666 -0.37323347
52.699768 59.093735 0
52.661674 59.077194 0.34521613
52.798233 59.120388 -0.68094057
52.691227 59.073776 -0.34449726
52.710491 59.082169 0
52.639034 59.051041 0.34608725
52.813629 59.111004 -0.68036348
52.749557 59.083004 -0.34290114
52.749817 59.083115 0
52.597412 59.01651 0.34753835
52.810059 59.093334 -0.68094057
52.717449 59.052727 -0.3440617
52.770069 59.075798 0
52.584404 58.994385 0.3481189
52.839684 59.090237 -0.67949831
52.0242 58.73148 -0.36539623
52.733154 59.043373 0
52.614243 58.991058 0.34739336
52.821949 59.066307 -0.68094057
51.873684 58.647766 -0.3701857
52.739151 59.029762 0
52.625053 58.979401 0.34724835
52.808998 59.044426 -0.68209374
51.804131 58.599453 -0.37250793
52.787994 59.035126 0
52.612118 58.957245 0.34782892
52.80555 59.026711 -0.68266982
64 64 -0
52.808273 59.027924 0
52.622982 58.945602 0.34768334
52.783226 59.000557 -0.68439901
64 64 -0
52.709709 58.967789 0
52.652828 58.942436 0.3469578
52.812881 58.997562 -0.68295783
51.92815 58.601944 -0.36931512
52.696793 58.945652 0
52.668427 58.932968 0.3466678
52.818935 58.984047 -0.68295783
52.456234 58.821335 -0.35335064
52.726646 58.942646 0
52.612923 58.891628 0.34855446
52.82029 58.968422 -0.68324584
52.69944 58.914032 -0.34609392
52.765976 58.943977 0
52.62859 58.882141 0.34826392
52.821651 58.952782 -0.68353492
52.776649 58.932461 -0.34391668
52.71043 58.902565 0
52.60162 58.853436 0.34928003
52.813633 58.93288 -0.68439901
52.754364 58.906036 -0.34478781
52.764019 58.910408 0
52.631512 58.850384 0.34855446
52.805634 58.912945 -0.68526417
52.722698 58.875259 -0.34594837
52.722782 58.875298 0
52.628288 58.832355 0.34884447
52.82119 58.903709 -0.68468809
52.752537 58.872414 -0.3452228
52.657955 58.829292 0
52.629799 58.81646 0.34899002
52.814873 58.892666 -0.68526417
52.713097 58.846191 -0.34652892
52.727356 58.852707 0
52.661308 58.822544 0.3481189
52.806938 58.872688 -0.68612927
52.724052 58.834721 -0.34638393
52.7052 58.826088 0
52.648674 58.80019 0.34869948
52.813141 58.859169 -0.68612927
52.711411 58.81242 -0.34696448
52.706738 58.810272 0
52.621902 58.771286 0.34971559
52.824051 58.847816 -0.68584126
52.745995 58.811832 -0.34609392
52.679924 58.781372 0
52.548004 58.720558 0.35218281
52.825596 58.83215 -0.68612927
52.761715 58.802605 -0.34580338
52.672058 58.761143 0
52.441185 58.654369 0.35566616
52.831848 58.818649 -0.68612927
52.66901 58.743103 -0.34885117
52.437611 58.635746 0
52.442944 58.638222 0.35581118
52.838116 58.805161 -0.68612927
52.505753 58.650475 -0.35407618
52.434669 58.617393 0
64 64 0
52.76004 58.752289 -0.69131804
52.479275 58.621204 -0.35509175
64 64 0
64 64 0
52.616482 58.668503 -0.70054334
64 64 -0
64 64 0
64 64 0
52.594849 58.641556 -0.70227259
64 64 -0
64 64 0
64 64 0
64 64 -0
64 64 -0
64 64 0
64 64 0
64 64 -0
64 64 -0
64 64 0
52.566696 58.594563 0.35319838
64 64 -0
64 64 -0
64 64 0
52.59671 58.591885 0.35247281
52.62088 58.586494 -0.70227259
64 64 -0
52.588703 58.571186 0
52.636089 58.593731 0.35145727
52.655434 58.586113 -0.70054334
52.618965 58.56871 -0.35218951
52.632851 58.575336 0
52.65202 58.584484 0.3511667
52.703972 58.59251 -0.69794899
52.663036 58.572914 -0.35102838
52.639412 58.561607 0
52.686687 58.584236 0.35029614
52.733841 58.590069 -0.69650674
52.688343 58.568218 -0.35044783
52.674137 58.561398 0
52.721355 58.584072 0.34942502
52.779064 58.603439 -0.69391239
52.729095 58.579407 -0.34928671
52.719635 58.574856 0
52.748043 58.58852 0.34869948
52.80423 58.598877 -0.69275922
52.763725 58.579334 -0.34841615
52.744949 58.570278 0
52.787361 58.590736 0.34768334
52.834042 58.596615 -0.69131804
52.784325 58.572556 -0.34798062
52.798382 58.579361 0
52.826637 58.593033 0.3466678
52.873161 58.598942 -0.6892997
52.80492 58.565819 -0.34754506
52.833027 58.57946 0
52.861237 58.593155 0.34579667
52.8983 58.594559 -0.68814653
52.862896 58.577324 -0.34594837
52.862976 58.577362 0
52.900475 58.595619 0.34478113
52.923412 58.590221 -0.68699443
52.892799 58.575272 -0.3452228
52.911644 58.584473 0
52.921024 58.589054 0.34434557
52.971779 58.597332 -0.68439901
52.932018 58.57785 -0.34420726
52.941563 58.582527 0
64 64 0
53.001526 58.595413 -0.68295783
52.975891 58.582817 -0.34304613
52.957451 58.573757 0
52.976105 58.582924 0.34303945
53.04982 58.602711 -0.68036348
53.001091 58.57869 -0.34246558
64 64 0
52.987316 58.571903 0.34289443
53.079529 58.600945 -0.6789223
64 64 -0
53.026588 58.574768 0
52.989227 58.556297 0.34303945
53.113876 58.601547 -0.67719197
53.079414 58.584457 -0.34043336
53.019157 58.554573 0
52.986511 58.538383 0.34332946
53.134289 58.595299 -0.67632788
53.072002 58.56432 -0.34086892
53.016434 58.536678 0
53.002419 58.529705 0.34303945
53.136204 58.579868 -0.67661595
53.069267 58.546474 -0.34115946
53.05563 58.539669 0
53.009033 58.516422 0.34303945
64 64 -0
53.138138 58.564434 -0.67690396
53.080528 58.535603 -0.34101391
53.048286 58.519466 0
52.969204 58.479893 0.34449056
64 64 -0
53.126221 58.54203 -0.67805713
53.077839 58.517746 -0.34130448
53.031662 58.494568 0
52.95266 58.454914 0.34521613
64 64 -0
53.138756 58.540104 -0.67748106
53.076515 58.508816 -0.34144947
53.021034 58.480927 0
52.965294 58.452904 0.34492612
64 64 -0
53.149994 58.52932 -0.67719197
53.059959 58.483925 -0.34217504
53.009121 58.45829 0
52.96273 58.434898 0.34521613
64 64 -0
53.156612 58.516212 -0.67719197
53.071266 58.473053 -0.34203002
53.011185 58.442665 0
52.946262 58.409836 0.34594223
64 64 -0
53.121712 58.482048 -0.6797874
53.059414 58.450447 -0.34261057
53.008614 58.424679 0
52.957672 58.398838 0.34579667
64 64 -0
53.142223 58.475945 -0.6789223
53.042973 58.425453 -0.34333614
52.987534 58.397247 0
52.936649 58.371357 0.3466678
64 64 -0
53.144302 58.460484 -0.67921031
53.049717 58.412216 -0.34333614
53.003574 58.388672 0
52.957348 58.365082 0.34623224
64 64 -0
53.127983 58.435589 -0.68065149
53.06572 58.403721 -0.34304613
53.005733 58.373016 0
52.968788 58.354111 0.34608725
64 64 -0
53.1301 58.420086 -0.68094057
53.058632 58.3834 -0.34348115
53.017166 58.362114 0
52.975616 58.340782 0.34608725
64 64 -0
53.109264 58.392754 -0.68266982
53.060795 58.367798 -0.34362671
53.019363 58.346466 0
52.973232 58.322716 0.34637722
64 64 -0
53.125229 58.384338 -0.68209374
53.044525 58.342663 -0.34435225
53.003082 58.321262 0
52.952385 58.295082 0.34724835
64 64 -0
53.11367 58.361694 -0.68324584
53.060604 58.334213 -0.3440617
53.009953 58.30798 0
52.950066 58.276962 0.34753835
64 64 -0
53.129662 58.35331 -0.68266982
53.072067 58.323395 -0.34391668
52.993748 58.282711 0
52.952381 58.261223 0.34768334
64 64 -0
53.125 58.317474 -0.68382299
53.058174 58.282555 -0.34478781
53.016815 58.260944 0
52.947857 58.224915 0.34826392
64 64 -0
53.136452 58.30674 -0.68353492
53.069706 58.271759 -0.34464225
52.986874 58.228348 0
52.945629 58.206734 0.34855446
64 64 -0
53.138763 58.29121 -0.68382299
53.072021 58.25613 -0.34478781
53.012287 58.224731 0
52.957233 58.195797 0.34840947
64 64 -0
53.137642 58.282242 -0.684111
53.06171 58.242275 -0.3452228
53.011177 58.215675 0
52.956146 58.186707 0.34855446
64 64 -0
53.135399 58.26429 -0.68468809
53.0457 58.216934 -0.34594837
52.990562 58.187824 0
52.967773 58.175793 0.34840947
64 64 -0
53.137772 58.248745 -0.68497616
53.057285 58.206131 -0.34580338
53.006786 58.179394 0
52.938072 58.143013 0.34957057
64 64 -0
53.121887 58.223495 -0.68641734
53.041348 58.180729 -0.34652892
53.009235 58.163673 0
52.94516 58.12965 0.34957057
64 64 -0
53.128876 58.210358 -0.68641734
53.075901 58.182144 -0.34565836
53.007099 58.1455 0
52.975208 58.128517 0.34884447
64 64 -0
53.126747 58.192348 -0.68699443
53.064602 58.159157 -0.34623894
53.009594 58.129772 0
52.959377 58.102951 0.34957057
64 64 -0
53.129215 58.176773 -0.68728244
53.076244 58.148399 -0.34609392
53.021278 58.118954 0
52.943611 58.077347 0.35029614
64 64 -0
53.136261 58.163643 -0.68728244
53.069603 58.127831 -0.34652892
53.010052 58.095837 0
52.959938 58.068916 0.3500056
64 64 -0
53.138771 58.148067 -0.68757051
53.067547 58.109692 -0.34681949
53.02179 58.085037 0
52.930511 58.035862 0.3511667
64 64 -0
53.145851 58.134949 -0.68757051
53.047249 58.081669 -0.34769005
53.028946 58.071777 0
52.965153 58.037308 0.35029614
64 64 -0
53.121101 58.104584 -0.68958879
53.063538 58.073387 -0.34740004
53.036114 58.058525 0
52.958672 58.01656 0.35073113
64 64 -0
53.141876 58.098854 -0.68872368
53.04332 58.045292 -0.3482706
53.015854 58.030365 0
52.979595 58.010658 0.35029614
64 64 -0
53.144474 58.083267 -0.68901169
53.05508 58.034542 -0.34812561
53.041355 58.027061 0
52.95491 57.979946 0.35131171
64 64 -0
53.128941 58.057751 -0.69045287
53.066853 58.023811 -0.34798062
52.998356 57.98637 0
52.975861 57.974075 0.35087669
64 64 -0
53.127048 58.039642 -0.69102997
53.069527 58.00811 -0.34812561
53.023869 57.983078 0
52.960365 57.948269 0.35160226
64 64 -0
53.15239 58.036476 -0.68987685
53.06311 57.987392 -0.34856117
53.017475 57.962307 0
52.963139 57.932434 0.35174724
64 64 -0
53.155994 58.029922 -0.68987685
53.039436 57.965752 -0.34943172
53.011997 57.950645 0
52.948597 57.915741 0.35232782
64 64 -0
53.145103 58.006824 -0.69102997
53.042191 57.950005 -0.34957671
53.005657 57.929832 0
52.955956 57.902393 0.35232782
64 64 -0
53.134251 57.983688 -0.69218314
53.063137 57.944313 -0.34914172
53.022099 57.921593 0
52.963333 57.889053 0.35232782
64 64 -0
53.155098 57.9781 -0.69131804
53.047749 57.918491 -0.34986728
53.020359 57.903282 0
52.970722 57.875721 0.35232782
64 64 -0
53.117195 57.939838 -0.6942004
53.055103 57.905262 -0.34986728
53.036819 57.895081 0
52.955433 57.849758 0.35305336
64 64 -0
53.156128 57.94434 -0.69218314
53.048859 57.884438 -0.35030285
53.053303 57.886917 0
52.981022 57.846554 0.35247281
64 64 -0
53.149925 57.923668 -0.69304723
53.069866 57.87883 -0.34986728
53.03344 57.858433 0
52.965797 57.820549 0.35319838
64 64 -0
53.130207 57.895359 -0.69477755
53.045547 57.847813 -0.35088339
53.018181 57.832443 0
52.950603 57.794491 0.35392448
64 64 -0
53.164642 57.897465 -0.69304723
53.066578 57.842232 -0.35044783
53.030174 57.821732 0
52.967175 57.786251 0.35363394
64 64 -0
53.13599 57.864025 -0.69535357
53.060448 57.821358 -0.35088339
53.042175 57.811039 0
52.965633 57.767807 0.35392448
64 64 -0
53.134403 57.845798 -0.69593066
53.054367 57.800468 -0.35131839
53.017971 57.779854 0
52.973171 57.754478 0.35392448
64 64 -0
53.168842 57.848007 -0.6942004
53.061867 57.787247 -0.35131839
53.016434 57.76144 0
52.971695 57.736031 0.35421449
64 64 -0
53.131325 57.809319 -0.69708383
53.082916 57.781742 -0.35088339
53.046589 57.761051 0
52.974762 57.720139 0.35435948
64 64 -0
53.143303 57.798752 -0.69679582
53.06337 57.753098 -0.35175395
53.045105 57.742664 0
52.973324 57.701664 0.35465005
64 64 -0
53.132847 57.775352 -0.69794899
53.057392 57.732132 -0.35218951
53.052673 57.729431 0
52.971931 57.683182 0.35494006
64 64 -0
53.149357 57.767387 -0.6973719
53.073994 57.724098 -0.35189894
53.055748 57.713619 0
52.961548 57.659508 0.35552061
64 64 -0
53.126228 57.745361 -0.69910109
53.06427 57.709724 -0.3523345
53.046009 57.699219 0
52.965378 57.65284 0.35552061
64 64 -0
53.133793 57.732227 -0.69910109
53.076378 57.699108 -0.35218951
53.044624 57.680794 0
52.977554 57.642105 0.35537562
64 64 -0
53.150322 57.724277 -0.69852507
53.066002 57.675507 -0.35277006
53.056767 57.670162 0
52.962757 57.615784 0.35610116
64 64 -0
53.157913 57.711174 -0.69852507
53.073654 57.662296 -0.35277006
53.028404 57.636051 0
52.970478 57.602451 0.35610116
64 64 -0
53.143166 57.685074 -0.69996625
53.090313 57.654331 -0.35247952
53.036102 57.622799 0
52.969223 57.5839 0.35639173
64 64 -0
53.150803 57.671959 -0.69996625
53.097988 57.641151 -0.35247952
53.034813 57.604305 0
52.976986 57.570576 0.35639173
64 64 -0
53.140598 57.648407 -0.70111942
53.096699 57.622734 -0.35277006
53.047058 57.593697 0
52.993744 57.562515 0.35610116
64 64 -0
53.157196 57.640522 -0.70054334
53.082001 57.59642 -0.35349563
53.072765 57.591 0
53.019459 57.559738 0.35552061
64 64 -0
53.151524 57.619564 -0.70140743
53.085274 57.580601 -0.35364062
53.080517 57.577801 0
53.027248 57.546474 0.35552061
64 64 -0
53.150322 57.6012 -0.70198452
53.084091 57.562141 -0.35393062
53.061375 57.548744 0
52.909718 57.459297 0.35958451
64 64 -0
53.140251 57.57756 -0.7031377
53.056095 57.527794 -0.35509175
53.06918 57.53553 0
64 64 0
64 64 -0
