# .PCD v0.7 - Point Cloud Data file format
VERSION 0.7
FIELDS x y z
SIZE 4 4 4
TYPE F F F
COUNT 1 1 1
WIDTH 1908
HEIGHT 1
VIEWPOINT 0 0 0 1 0 0 0
POINTS 1908
DATA ascii
64 64 0
64 64 -0
64 64 0
64 64 -0
69.197876 171.46111 0
64 64 0
64 64 -0
69.060181 171.30093 0
64 64 0
64 64 -0
64 64 0
64 64 0
64 64 -0
64 64 0
64 64 0
64 64 -0
68.678207 171.47977 0
64 64 0
64 64 -0
68.549217 171.50615 0
64 64 0
64 64 -0
68.422523 171.58957 0
64 64 0
64 64 -0
68.294388 171.64163 0
64 64 0
64 64 -0
64 64 0
64 64 0
64 64 -0
64 64 0
68.415955 181.83734 3.2932818
64 64 -0
64 64 0
68.276581 181.92569 3.295604
64 64 -0
64 64 0
68.195335 181.6478 3.2877669
64 64 -0
68.007042 180.31374 0
64 64 0
64 64 -0
67.861656 180.17284 0
64 64 0
64 64 -0
67.72728 180.36469 0
64 64 0
64 64 -0
67.583626 180.27026 0
64 64 0
64 64 -0
64 64 0
67.30529 175.61957 3.1186879
64 64 -0
64 64 0
67.173813 175.74297 3.1220262
64 64 -0
64 64 0
67.036957 175.6792 3.1201396
64 64 -0
64 64 0
64 64 0
64 64 -0
64 64 0
64 64 0
64 64 -0
66.750656 180.71985 0
64 64 0
64 64 -0
66.613922 180.91562 0
64 64 0
64 64 -0
66.469681 180.7782 0
64 64 0
64 64 -0
66.330338 180.86957 0
64 64 0
64 64 -0
64 64 0
64 64 0
64 64 -0
64 64 0
64 64 0
64 64 -0
64 64 0
64 64 0
64 64 -0
64 64 0
64 64 0
64 64 -0
64 64 0
65.514671 172.9973 3.0443804
64 64 -0
64 64 0
65.38356 173.04581 3.0456865
64 64 -0
64 64 0
64 64 -0
64 64 0
64 64 -0
64 64 0
64 64 -0
64 64 0
64 64 -0
64 64 0
64 64 0
64 64 -0
64 64 0
64.650536 171.67554 3.0072269
64 64 -0
64 64 0
64.520554 171.70221 3.0079525
64 64 -0
64 64 0
64.390846 171.82228 3.0112903
64 64 -0
64 64 0
64.260452 171.77591 3.009984
64 64 -0
64.13015 171.71378 3.0082424
64 64 -0
64 171.67749 3.0072269
64 64 -0
64 64 0
64 64 0
64 64 -0
64 64 0
64 64 0
64 64 -0
64 64 0
64 64 0
64 64 -0
64 64 0
63.495472 168.38681 2.9153583
64 64 -0
64 64 0
63.369152 168.4173 2.9162288
64 64 -0
64 64 0
63.243626 168.32811 2.9137616
64 64 -0
64 64 0
63.121037 167.91663 2.9022965
64 64 -0
64 64 0
62.998138 167.64006 2.8946042
64 64 -0
64 64 0
62.872288 167.69595 2.8962009
64 64 -0
64 64 0
62.74712 167.68411 2.8959103
64 64 -0
64 64 0
62.621147 167.7345 2.897362
64 64 -0
64 64 0
62.494598 167.81589 2.8996842
64 64 -0
64 64 0
62.367447 167.9231 2.9027314
64 64 -0
64 64 0
62.243195 167.84311 2.9005549
64 64 -0
64 64 0
62.117626 167.8461 2.9006999
64 64 -0
64 64 0
61.992252 167.83856 2.9005549
64 64 -0
64 64 0
63.012184 112.08279 1.3431438
64 64 -0
64 64 0
62.929565 111.87831 1.3374838
64 64 -0
64 64 0
62.873062 111.81982 1.3358872
64 64 -0
64 64 0
62.81567 111.80284 1.3354516
64 64 -0
64 64 0
62.758045 111.79618 1.3353066
64 64 -0
64 64 0
62.700859 111.77386 1.334726
64 64 -0
64 64 0
62.641659 111.8242 1.3361771
64 64 -0
64 64 0
62.585411 111.77058 1.334726
64 64 -0
64 64 0
60.783649 168.35406 2.9157937
64 64 -0
64 64 0
60.660389 168.26181 2.9133265
64 64 -0
64 64 0
60.530956 168.36156 2.9162288
64 64 -0
64 64 0
60.405575 168.33653 2.9156487
64 64 -0
64 64 0
60.270802 168.5762 2.9224699
64 64 -0
60.142532 168.62354 2.9239211
64 64 -0
64 64 0
60.011372 168.74344 2.9274044
64 64 -0
64 64 0
59.864819 169.24741 2.9416273
64 64 -0
64 64 0
59.722931 169.6058 2.951786
64 64 -0
64 64 0
59.587101 169.79785 2.9573011
64 64 -0
64 64 0
64 64 0
64 64 -0
64 64 0
64 64 -0
64 64 0
64 64 0
64 64 -0
64 64 0
64 64 0
64 64 -0
64 64 0
64 64 0
64 64 -0
64 64 0
64 64 0
64 64 -0
64 64 0
64 64 0
64 64 -0
64 64 0
58.604797 170.22063 2.9703634
64 64 -0
64 64 0
58.474834 170.24516 2.9712341
64 64 -0
64 64 0
58.342045 170.32144 2.9735563
64 64 -0
64 64 0
58.218948 170.21593 2.9707985
64 64 -0
64 64 0
58.077618 170.44235 2.9773295
64 64 -0
64 64 0
57.935734 170.66861 2.9838607
64 64 -0
64 64 0
57.808056 170.64044 2.9832802
64 64 -0
64 64 0
57.685661 170.52394 2.9802322
64 64 0
57.55476 170.55254 2.9812479
64 64 0
57.431137 170.4617 2.9789262
56.621025 181.28546 0
57.305115 170.41219 2.9777651
56.488972 181.12582 0
57.182858 170.30548 2.9750073
56.342026 181.19977 0
57.050346 170.35939 2.9767489
56.208019 181.07619 0
56.921494 170.35609 2.9768939
56.063396 181.11342 0
56.78561 170.45634 2.9799418
55.913296 181.22836 0
56.646969 170.59271 2.9840057
55.773113 181.19775 0
56.518543 170.57858 2.9838607
55.625946 181.26558 0
56.372002 170.81827 2.9908268
64 64 0
56.250843 170.70012 2.9877791
55.53154 178.68605 0
56.120773 170.70624 2.9882145
55.407387 178.48369 0
55.993401 170.6759 2.9876339
55.263916 178.54068 0
55.856606 170.76979 2.9905369
64 64 -0
55.121498 178.58194 0
64 64 0
64 64 -0
55.037285 178.76855 0
55.523926 172.53706 3.040462
54.856232 179.29202 0
55.385799 172.61481 3.0429292
54.725285 179.17715 0
55.265827 172.46448 3.039011
54.590786 179.1088 0
55.172035 171.99805 3.0262392
54.440521 179.23221 0
55.044125 171.95622 3.025368
60.998192 99.661438 -0.9994781
54.291687 179.33466 0
54.8932 172.18869 3.0321891
60.960854 99.590454 -0.9975909
54.147461 179.3799 0
54.74789 172.34848 3.0369787
60.92144 99.545364 -0.99643034
54.017036 179.26419 0
54.606216 172.46149 3.040462
60.878948 99.536423 -0.99628478
64 64 0
54.468349 172.52771 3.0426388
60.840618 99.480865 -0.99483365
54.333073 172.56271 3.0439453
60.798218 99.471855 -0.99468863
54.207977 172.48367 3.0420587
60.758198 99.436905 -0.99381751
54.087318 172.35788 3.0388653
60.716343 99.422623 -0.99352753
53.96167 172.28893 3.0372691
60.673058 99.423798 -0.99367255
53.839581 172.18356 3.0346565
60.629272 99.430099 -0.99396306
53.7005 172.25919 3.0371242
60.583473 99.457031 -0.99483365
64 64 0
52.94717 178.70731 3.2183938
60.494732 99.479691 -0.99570417
53.275955 172.54692 3.046267
60.448246 99.511635 -0.99672031
53.136009 172.62178 3.0487342
60.402199 99.53833 -0.9975909
52.989067 172.7637 3.0530887
60.354492 99.580505 -0.99889755
52.85183 172.80717 3.0546849
64 64 0
64 64 0
51.654083 180.33661 3.2673035
51.524059 180.22342 3.2645457
51.398781 180.06879 3.2606273
64 64 -0
64 64 0
64 64 -0
64 64 0
64 64 0
64 64 -0
64 64 0
64 64 0
60.168159 96.543488 -0.91515613
60.123928 96.580124 -0.91631722
64 64 0
60.092007 96.513496 -0.91457558
64 64 0
60.602062 91.984543 -0.78729504
60.57711 91.908188 -0.78526282
64 64 0
60.547222 91.8731 -0.7843923
64 64 -0
60.487038 91.807953 -0.78279561
60.45541 91.788239 -0.78236061
64 64 0
60.417194 91.82 -0.78337616
64 64 0
60.376209 91.872345 -0.78497285
64 64 0
60.342533 91.867943 -0.78497285
64 64 0
60.30545 91.889259 -0.78569841
64 64 0
60.271755 91.884773 -0.78569841
64 64 0
64 64 0
60.24015 91.864792 -0.78526282
64 64 0
60.21069 91.829346 -0.7843923
60.184139 91.77327 -0.78294116
60.164143 91.67083 -0.78018337
60.155308 91.6119 -0.77858728
64 64 -0
64 64 0
64 64 -0
64 64 -0
60.03154 91.526115 -0.77670002
59.998283 91.521301 -0.77670002
59.965031 91.516441 -0.77670002
64 64 0
59.934826 91.491005 -0.77612001
64 64 0
59.900078 91.496338 -0.77641004
64 64 0
59.869175 91.475945 -0.77597445
64 64 0
59.835979 91.470932 -0.77597445
59.80122 91.476166 -0.77626503
59.771976 91.445396 -0.77553946
64 64 0
59.738819 91.440269 -0.77553946
64 64 0
64 64 0
59.704861 91.440231 -0.77568448
64 64 0
64 64 0
59.67495 91.41449 -0.77510393
64 64 0
64 64 0
59.642643 91.404114 -0.77495891
64 64 0
59.608711 91.403954 -0.77510393
59.575603 91.398628 -0.77510393
59.541664 91.398384 -0.77524889
59.509403 91.387856 -0.77510393
59.47377 91.397797 -0.77553946
59.44323 91.376923 -0.77510393
59.42926 91.35878 -0.77466834
59.395344 91.35836 -0.77481335
59.364029 91.342537 -0.77452338
59.328365 91.352287 -0.77495891
59.294441 91.351746 -0.77510393
59.269379 91.299957 -0.77379781
64 64 0
59.203419 91.288445 -0.77379781
52.762962 127.92915 1.8127906
59.172264 91.272385 -0.77350724
52.680286 127.94624 1.8136618
59.133839 91.297241 -0.77437836
52.595734 127.97343 1.8148223
59.104534 91.270874 -0.77379781
52.524872 127.92381 1.8138068
59.06604 91.295616 -0.77466834
52.454109 127.87409 1.8127906
59.028412 91.315193 -0.7753939
52.344372 128.03903 1.8178701
59.002903 91.268272 -0.7742328
52.254822 128.09137 1.8197573
58.969959 91.262215 -0.7742328
52.179276 128.06689 1.8194668
58.932274 91.281677 -0.77495891
52.106617 128.02704 1.8187412
64 64 -0
52.034996 127.98195 1.8178701
58.862514 91.28978 -0.77553946
64 64 0
51.961536 127.94704 1.8172901
58.823738 91.314178 -0.77641004
64 64 0
51.902664 127.83543 1.8145323
58.793659 91.292587 -0.77597445
64 64 0
64 64 0
58.760689 91.286278 -0.77597445
64 64 0
64 64 0
58.729691 91.26973 -0.77568448
64 64 0
64 64 0
58.6898 91.299034 -0.77670002
64 64 0
58.656818 91.292603 -0.77670002
53.150398 119.41903 0
58.640331 91.289368 -0.77670002
53.158043 119.20306 0
58.60434 91.298172 -0.77713561
53.152908 118.87847 0
64 64 -0
58.567303 91.312019 -0.77771616
53.194241 118.32423 0
64 64 0
64 64 -0
58.534306 91.305435 -0.77771616
53.168449 118.1121 0
51.199745 127.9473 1.8213534
64 64 -0
58.501316 91.298813 -0.77771616
53.124653 117.99182 0
51.104019 128.02348 1.8239657
64 64 -0
58.468334 91.292145 -0.77771616
64 64 0
51.03183 127.98239 1.8232402
58.434322 91.290527 -0.77786112
64 64 0
50.959721 127.94122 1.8225145
58.400303 91.288895 -0.77800667
64 64 0
50.899185 127.84396 1.8201923
58.364185 91.297363 -0.77844173
64 64 0
51.426224 124.90174 1.7367414
58.334373 91.275276 -0.77800667
64 64 0
51.352646 124.88651 1.7367414
58.293983 91.304008 -0.77902228
40.640778 175.77681 0
51.272705 124.90171 1.7376126
58.260994 91.297089 -0.77902228
40.500381 175.77396 0
51.189503 124.93205 1.7389187
58.224789 91.305397 -0.77945781
40.363182 175.75568 0
51.142769 124.78943 1.7352903
58.186394 91.323807 -0.78018337
40.221672 175.75757 0
51.061756 124.80943 1.7363064
58.157734 91.29644 -0.77960283
40.091007 175.7084 0
50.975243 124.85471 1.7380476
58.119286 91.314758 -0.78032839
39.936333 175.77101 0
50.864532 125.01166 1.742982
58.085182 91.312729 -0.78047395
39.793583 175.77747 0
50.751225 125.17859 1.7482071
58.046658 91.33094 -0.78119951
39.651894 175.77866 0
50.639709 125.33517 1.7531415
58.013638 91.32373 -0.78119951
39.520187 175.7339 0
50.54781 125.40021 1.7554637
57.97839 91.326614 -0.78148949
39.38184 175.71948 0
50.449028 125.49556 1.7586565
57.944248 91.324409 -0.78163505
39.241234 175.71507 0
50.365738 125.51973 1.7598176
57.901062 91.362717 -0.78294116
39.100601 175.71048 0
50.319675 125.3764 1.7561893
57.847546 91.446594 -0.7855534
38.956535 175.72095 0
50.293266 125.14685 1.7500937
57.801815 91.494919 -0.78715008
38.815834 175.71597 0
50.244534 125.01872 1.7469009
57.771458 91.551971 -0.7888912
38.7472 175.70581 0
50.219131 124.9597 1.7454493
57.735863 91.554573 -0.78918177
38.618011 175.64984 0
50.130505 125.0089 1.7473365
57.706051 91.531784 -0.78874618
38.5214 175.45166 0
50.054482 125.00222 1.7476265
57.675114 91.514038 -0.7884562
38.438057 175.1976 0
49.981949 124.98027 1.7474815
57.634853 91.536743 -0.78932673
38.359985 174.92322 0
49.88604 125.05947 1.7502388
57.590996 91.574585 -0.79063284
38.267212 174.71472 0
49.109924 128.06421 1.8368824
57.562416 91.546577 -0.79005229
38.228207 174.27811 0
49.019516 128.10184 1.838479
57.52438 91.559013 -0.79063284
38.229507 173.67433 0
48.931374 128.12921 1.8397852
38.216675 173.1366 0
48.828804 128.21716 1.8428329
50.062172 122.67958 0
48.757225 128.17352 1.8421074
49.999737 122.62727 0
48.645897 128.29659 1.8461714
49.993305 122.34208 0
48.500286 128.56094 1.8542986
50.02784 121.89001 0
48.402779 128.62302 1.8566208
50.038898 121.53925 0
48.316132 128.63945 1.8576363
50.071751 121.10266 0
48.21587 128.71133 1.8602492
50.092003 120.72183 0
48.143883 128.66698 1.8595231
50.059601 120.55843 0
38.010963 169.44167 3.0329154
50.018806 120.4304 0
37.916077 169.27902 3.0291414
49.965725 120.35286 0
37.829067 169.08607 3.0244975
49.907753 120.29547 0
64 64 0
49.853714 120.22287 0
50.209618 118.80838 1.5784025
49.867462 119.8828 0
50.306484 118.14682 1.5598258
50.118351 118.47516 0
50.285358 117.81977 1.551118
50.130016 118.15583 0
50.304146 117.47593 1.541684
50.161896 117.76099 0
50.350945 117.02655 1.5292029
50.166031 117.47719 0
50.361061 116.72325 1.5209306
50.21143 117.03729 0
50.310448 116.65643 1.5194789
50.177612 116.90479 0
50.242889 116.65494 1.5199145
50.219437 116.48531 0
50.172676 116.66341 1.5206401
50.247654 116.12137 0
50.102425 116.67178 1.5213656
50.242043 115.88839 0
50.038795 116.65495 1.5213656
50.286556 115.46938 0
49.972504 116.64809 1.5216562
50.260719 115.31703 0
49.906212 116.64114 1.5219462
50.275795 115.0139 0
49.841267 116.62908 1.5220912
48.777168 120.3131 0
49.774971 116.62198 1.5223818
50.312172 114.39294 0
49.703224 116.63483 1.5232522
50.322556 114.11526 0
49.639637 116.61752 1.5232522
50.31982 113.88788 0
49.567822 116.63021 1.5241234
50.330055 113.6154 0
49.505615 116.60773 1.5239785
48.798256 118.91591 0
49.4282 116.64026 1.5254295
48.783512 118.71196 0
49.365997 116.61761 1.5252845
48.74963 118.57825 0
49.298237 116.61488 1.5257195
50.3591 112.59165 0
49.230457 116.6121 1.5261551
50.374855 112.42309 0
49.198677 116.60316 1.5261551
50.404137 112.09605 0
49.125229 116.62025 1.5271713
50.427071 111.79422 0
49.058823 116.61223 1.5274612
50.439301 111.53253 0
48.995262 116.59414 1.5274612
48.840385 116.89465 0
48.920265 116.61594 1.5286223
48.816803 116.73627 0
48.856701 116.59768 1.5286223
50.460861 110.81308 0
48.793159 116.57935 1.5286223
64 64 -0
50.488522 110.50681 0
48.736885 116.53598 1.5278968
48.84446 115.93143 0
48.708359 116.39777 1.5244135
48.828568 115.75326 0
48.710838 116.15486 1.5178828
48.761639 115.74986 0
48.725632 115.87213 1.5101906
48.72274 115.65154 0
48.732239 115.61943 1.5033695
50.560577 109.23689 0
48.732037 115.39172 1.4972739
50.560993 109.03608 0
48.738304 115.14417 1.4905977
50.558884 108.84532 0
48.755592 114.86188 1.482906
48.906868 114.1368 0
48.766052 114.60456 1.4759394
48.892994 113.96408 0
48.760567 114.40207 1.4705694
64 64 -0
50.600582 108.12398 0
48.766113 114.16483 1.4641837
48.948429 113.34993 0
48.78434 113.88792 1.456637
48.936066 113.17744 0
48.780388 113.68565 1.451267
48.95623 112.90053 0
48.793709 113.42883 1.4443009
48.94479 112.72815 0
48.810696 113.16216 1.4370441
48.896713 112.67514 0
48.803665 112.97502 1.4321097
48.870403 112.65605 0
48.837345 112.76237 1.4261591
48.817829 112.61786 0
48.845039 112.53072 1.4199185
50.673168 106.49597 0
48.851723 112.30412 1.413823
50.703133 106.22168 0
48.851128 112.10238 1.408453
50.6945 106.07161 0
48.871365 111.8363 1.4011962
50.689362 105.91164 0
48.849751 111.70407 1.3978585
50.700401 105.70214 0
48.837914 111.54216 1.3936496
55.345192 91.025116 -0.79251951
50.718281 105.4729 0
48.864475 111.26151 1.3859578
55.323677 90.980019 -0.79150397
50.725544 105.27844 0
48.899654 110.95625 1.3775401
55.316635 90.890388 -0.78918177
50.762043 104.99491 0
48.892429 110.78468 1.3730412
55.31781 90.77607 -0.78613394
55.278156 90.898354 0
48.87759 110.63785 1.3692672
55.287071 90.76062 -0.78598893
55.253716 90.863052 0
48.855034 110.51577 1.3662195
55.259586 90.735252 -0.7855534
55.248764 90.768349 0
55.216064 90.868378 0.78946507
55.22567 90.729599 -0.78569841
55.226166 90.728096 0
55.180359 90.86763 0.78975558
55.190121 90.728859 -0.78598893
64 64 0
55.180439 90.75824 0.78685284
55.151299 90.73793 -0.78656954
64 64 0
55.1726 90.673569 0.78467613
55.12228 90.717346 -0.78627896
55.134262 90.68129 0
55.143658 90.653015 0.78438556
55.086712 90.716469 -0.78656954
55.103676 90.665627 0
55.113102 90.637367 0.7842406
55.057739 90.695816 -0.78627896
55.078072 90.635117 0
55.07597 90.641396 0.78467613
55.015396 90.608551 0
55.009953 90.624672 0.78482115
54.989937 90.577957 0
54.972782 90.628563 0.78525668
54.941063 90.616318 0
54.943962 90.607788 0.78496617
50.96244 102.1548 0
54.925262 90.55748 0.78380501
64 64 -0
50.897766 102.19318 0
51.068764 101.69472 1.1129646
64 64 -0
50.913612 102.07204 0
51.093292 101.54929 1.1089007
64 64 -0
50.901573 101.95779 0
51.092007 101.40594 1.1051273
64 64 -0
64 64 0
51.092751 101.25774 1.1012084
64 64 0
51.104069 101.08015 1.0964196
50.791512 101.83146 0
51.095245 100.96152 1.0933717
50.737206 101.84003 0
51.103882 100.79385 1.0888723
50.682854 101.84852 0
51.111179 100.63118 1.0845184
50.628464 101.85693 0
51.111923 100.48819 1.0807451
50.582733 101.84075 0
51.114731 100.34035 1.0768267
50.530037 101.84412 0
51.124855 100.17297 1.0723273
50.494827 101.79842 0
51.131855 100.0155 1.0681189
50.440376 101.80656 0
51.13221 99.877625 1.0644906
50.408813 101.75098 0
51.132874 99.739822 1.0608622
48.705692 106.32105 0
51.142685 99.577629 1.0565083
48.659893 106.28786 0
51.135147 99.464355 1.0536056
48.607029 106.27418 0
51.145645 99.302299 1.0492516
48.536304 106.30933 0
51.158306 99.135422 1.0447521
48.474442 106.31992 0
51.153439 99.017441 1.0417049
48.439503 106.25718 0
51.154236 98.884857 1.0382216
51.019264 99.120468 0
51.175148 98.698715 1.0331421
64 64 -0
51.016663 98.997406 0
51.180229 98.556503 1.0293682
64 64 -0
51.017975 98.864624 0
51.20195 98.370537 1.0242888
64 64 -0
51.003185 98.775795 0
51.207729 98.228485 1.0205153
50.987656 98.753311 0
51.225319 98.118553 1.0174676
50.936516 98.761917 0
51.224319 97.996078 1.0142748
50.892689 98.750977 0
51.227268 97.863922 1.0107914
50.841492 98.75946 0
51.213951 97.775574 1.0086148
50.7995 98.743538 0
51.208221 97.667786 1.005857
50.751968 98.742142 0
51.21384 97.530914 1.0022286
50.708134 98.73098 0
51.219769 97.394104 0.9986003
50.662449 98.724602 0
51.220421 97.271912 0.99540752
50.620502 98.708466 0
51.212002 97.174026 0.99294025
50.57106 98.711685 0
51.205673 97.071312 0.99032801
50.536663 98.676025 0
51.208988 96.944397 0.98698968
47.545036 106.22993 0
51.205032 96.836929 0.98423249
51.019554 97.194321 -0.9954142
47.486439 106.2294 0
51.210789 96.705284 0.98074913
51.00983 97.101212 -0.99309194
47.416405 106.25788 0
51.205452 96.602737 0.9781369
51.085999 96.790558 -0.98423916
47.348194 106.28139 0
51.217476 96.456711 0.97421855
51.183914 96.426964 -0.97378969
47.314335 106.21768 0
51.224113 96.325249 0.97073519
51.229046 96.198898 -0.96740353
47.249908 106.23135 0
51.209969 96.246994 0.96884853
51.22858 96.086891 -0.96450132
47.198891 106.21107 0
51.203686 96.149437 0.96638131
51.224522 95.984558 -0.96188849
47.142105 106.20525 0
51.199543 96.047089 0.96376908
51.21875 95.8871 -0.95942128
51.157642 96.039551 0
51.189835 95.959236 0.96159184
51.23259 95.741463 -0.95550293
51.146126 95.956421 0
48.094967 103.542 1.1903199
51.238983 95.615173 -0.95216459
51.142586 95.853989 0
48.072487 103.46011 1.1884333
51.239807 95.50341 -0.94926238
51.139282 95.751587 0
48.056034 103.36377 1.186111
51.236977 95.401299 -0.94664955
51.110725 95.711914 0
48.063271 103.20967 1.1820471
51.259159 95.292511 -0.94360179
51.09549 95.694489 0
48.063103 103.14227 1.1803055
51.272457 95.152023 -0.93982846
51.06311 95.664413 0
48.033508 103.0797 1.1789993
51.268337 95.054878 -0.93736118
51.007092 95.692101 0
47.986298 103.06038 1.1789993
51.268383 94.948166 -0.93460399
50.964844 95.68602 0
47.927246 103.06984 1.1798705
51.27462 94.827087 -0.93141115
50.926567 95.670242 0
47.876087 103.06 1.1801604
51.281136 94.706055 -0.92821783
50.888309 95.654419 0
47.832878 103.03088 1.1798705
51.289913 94.580307 -0.92488003
50.830097 95.686615 0
49.29953 99.369141 1.069715
51.30098 94.449806 -0.92139667
50.793823 95.665878 0
49.29081 99.269814 1.0672477
51.286259 94.381721 -0.91980058
50.753563 95.654694 0
49.296349 99.136955 1.0637645
51.291805 94.265717 -0.91675276
50.709274 95.653061 0
49.290115 99.032928 1.0611522
51.299633 94.144989 -0.91355997
50.67104 95.636978 0
49.300255 98.89061 1.0573789
51.307991 93.922836 -0.90775442
49.405693 98.407715 0
49.295116 98.668411 1.0517188
51.314583 93.80706 -0.9047066
49.358013 98.404427 0
49.304111 98.531082 1.0480905
51.309181 93.720032 -0.90252995
49.322586 98.372345 0
49.297092 98.432053 1.0456233
51.320354 93.594803 -0.89919162
49.274914 98.368942 0
49.304619 98.299614 1.0421399
51.327702 93.479202 -0.89614379
49.223122 98.375031 0
49.306282 98.18158 1.0390921
51.335312 93.363663 -0.89309603
49.210449 98.290253 0
49.318501 98.039734 1.0353187
51.341118 93.252945 -0.89019322
49.135963 98.34877 0
49.318657 97.926575 1.032416
51.336823 93.166138 -0.88801658
49.096539 98.326012 0
49.331482 97.784882 1.0286427
51.330643 93.084122 -0.8859849
49.067543 98.279358 0
49.323879 97.690903 1.0263205
51.343376 92.959267 -0.88264656
49.007378 98.304207 0
49.347694 97.525536 1.0218215
51.341789 92.867798 -0.8803243
48.984745 98.243164 0
49.325974 97.464981 1.0205153
51.35569 92.788788 -0.87814766
48.953598 98.257919 0
49.366364 97.318123 1.0163065
51.364922 92.673622 -0.87509984
48.920609 98.220657 0
49.376411 97.186279 1.0128231
51.368103 92.572784 -0.8724876
48.854015 98.259537 0
49.359428 97.116318 1.011227
51.373623 92.467239 -0.86972982
48.81263 98.241211 0
49.369995 96.984589 1.0077437
51.375153 92.371246 -0.8672626
48.76704 98.232338 0
49.387192 96.838699 1.0038253
51.374775 92.280045 -0.86494035
48.715073 98.237686 0
49.366589 96.77832 1.0025192
51.387344 92.160439 -0.86174756
49.599171 96.152916 0
49.380096 96.642044 0.99889088
51.381016 92.083557 -0.8598609
49.543266 96.173477 0
49.391785 96.51059 0.99540752
51.387665 91.978287 -0.85710365
49.534351 96.089539 0
49.386684 96.417107 0.99308527
51.400982 91.858841 -0.85391033
49.540627 95.97245 0
49.388206 96.309471 0.99032801
51.393097 91.786804 -0.85216862
49.502003 95.954956 0
49.396412 96.187683 0.98713523
51.396126 91.691147 -0.8497014
49.519463 95.814255 0
49.4049 96.065948 0.98394191
51.405842 91.581367 -0.84679919
49.511295 95.730453 0
49.396381 95.982117 0.98191023
51.413651 91.476357 -0.84404141
49.505482 95.641937 0
49.401031 95.869949 0.97900742
51.406498 91.404465 -0.8422997
49.541153 95.463608 0
49.399426 95.772018 0.97654021
51.421257 91.2854 -0.83910692
49.546719 95.351593 0
49.404549 95.659973 0.973638
51.412285 91.218315 -0.83751082
49.506664 95.338821 0
49.409935 95.547981 0.97073519
51.403465 91.151222 -0.83591413
49.462242 95.335442 0
49.41119 95.44548 0.96812296
51.410137 91.051178 -0.8333019
49.426582 95.313141 0
49.41925 95.328888 0.96507519
51.428028 90.927643 -0.82996356
49.406376 95.257774 0
49.420986 95.226479 0.96246237
51.426353 90.84655 -0.82793188
49.335499 95.310829 0
49.43837 95.091187 0.95883405
51.424858 90.765495 -0.8259002
49.291035 95.30722 0
49.427322 95.017143 0.95709294
51.432411 90.665657 -0.82328743
49.255444 95.284706 0
49.436378 94.900795 0.95404512
51.442398 90.561195 -0.82053018
49.215424 95.271584 0
49.445698 94.784515 0.95099735
51.446369 90.511337 -0.81922406
49.2099 95.234413 0
49.456013 94.714661 0.94911069
51.452248 90.416351 -0.81675684
49.187798 95.183624 0
49.452358 94.626648 0.94693345
51.456104 90.326103 -0.81443459
49.176994 95.109314 0
49.471245 94.491768 0.94330508
51.451199 90.254662 -0.81269294
49.157372 95.05381 0
49.485954 94.366356 0.93996727
51.468906 90.136398 -0.80950016
49.196365 94.876289 0
49.476234 94.292564 0.93822563
51.450844 90.09314 -0.80862957
49.21772 94.736427 0
49.471169 94.209435 0.93619394
51.464489 89.984344 -0.80572683
49.255222 94.563843 0
49.475327 94.107597 0.93358117
51.512325 89.805466 -0.80064732
49.247776 94.4851 0
49.472908 94.019867 0.93140447
51.56966 89.608017 -0.79498678
49.222313 94.443848 0
49.484303 93.904121 0.92835671
51.616074 89.434128 -0.79005229
49.215164 94.36512 0
49.473206 93.835159 0.92676002
51.630959 89.325768 -0.78715008
51.565384 89.460022 0
49.48278 93.724182 0.92385721
51.620949 89.268791 -0.78584337
51.5644 89.384224 0
49.478878 93.641296 0.92182553
51.604172 89.225838 -0.78497285
51.554394 89.327141 0
49.488914 93.530441 0.91892278
51.605862 89.145592 -0.78294116
51.544506 89.270065 0
49.487701 93.442978 0.91674608
51.610039 89.060715 -0.78076392
51.537048 89.208351 0
49.495895 93.336906 0.91398829
51.57053 89.064346 -0.78134447
51.559784 89.086014 0
49.50663 93.226257 0.91108608
51.526371 89.077225 -0.78221506
51.52021 89.089607 0
49.501411 93.148239 0.90919942
51.503033 89.048187 -0.78178006
51.473633 89.107117 0
49.510284 93.042343 0.90644163
51.486736 89.00518 -0.78090894
51.468933 89.040756 0
49.503113 92.96904 0.90469992
51.435551 89.031837 -0.78221506
51.420006 89.062813 0
49.498425 92.891129 0.90281326
51.393623 89.039856 -0.78294116
51.380367 89.066193 0
49.507919 92.7854 0.900056
51.368065 89.01532 -0.78265059
51.347744 89.055565 0
49.51297 92.689011 0.89758879
51.344894 88.98613 -0.78221506
51.329235 89.017044 0
49.515884 92.597305 0.89526659
51.336849 88.964584 -0.78178006
51.302353 89.032593 0
49.547981 92.491226 0.89221877
51.311409 88.939995 -0.78148949
51.274475 89.012596 0
49.544197 92.413536 0.8903321
64 64 -0
51.31908 88.850586 -0.77916723
51.251358 88.983292 0
49.540581 92.335876 0.88844544
51.303265 88.807495 -0.77829671
51.254379 88.903008 0
49.534767 92.262863 0.88670373
51.287533 88.764404 -0.77742612
51.217163 88.901489 0
49.548092 92.152901 0.88380098
64 64 -0
54.389393 82.611015 -0.58498096
51.219112 88.75029 0
49.554012 91.974762 0.87930208
54.340618 82.650154 -0.58657765
51.194008 88.725571 0
49.544117 91.911148 0.87785095
54.315697 82.643082 -0.58672261
54.290359 82.691856 0
49.543945 91.829086 0.87581873
54.281174 82.654404 -0.58744818
54.303856 82.610863 0
49.553547 91.728653 0.8732065
54.239388 82.679489 -0.58860928
54.288601 82.585312 0
49.556156 91.642082 0.87102926
54.209583 82.681503 -0.58904487
54.220253 82.66114 0
49.558945 91.555573 0.86885256
54.170097 82.701843 -0.59006041
54.197712 82.649307 0
49.559509 91.473709 0.86682093
54.162045 82.662376 -0.58918989
54.141209 82.701904 0
49.562675 91.387283 0.86464369
54.14193 82.645889 -0.58904487
54.113747 82.699188 0
49.556313 91.319275 0.863047
54.087761 82.693649 -0.59093153
54.105797 82.659637 0
49.569565 91.214577 0.86028975
54.101784 82.612823 -0.5887543
54.068588 82.675247 0
49.561089 91.151245 0.85883868
54.049953 82.655876 -0.590496
54.068069 82.621902 0
49.562534 91.069572 0.8568064
54.022511 82.653015 -0.59078652
54.001392 82.69249 0
49.569057 90.97879 0.8544842
53.987698 82.663834 -0.59151208
54.008339 82.625359 0
49.570858 90.897232 0.85245252
53.947926 82.683746 -0.59252763
53.973515 82.636185 0
49.567917 90.824852 0.85071081
53.925358 82.671585 -0.59252763
53.941116 82.64238 0
64 64 0
53.912697 82.641121 -0.59194708
53.888874 82.68515 0
49.508076 90.780769 0.85042083
53.884102 82.667007 -0.59296322
53.877586 82.679031 0
49.511707 90.735458 0.84925973
53.846668 82.682159 -0.59383374
53.889816 82.602768 0
49.469486 90.736191 0.84984028
53.816639 82.683578 -0.59426934
53.820023 82.677368 0
49.422272 90.745987 0.85071081
53.789082 82.680389 -0.59455991
53.797462 82.665054 0
49.387466 90.732925 0.85085642
53.766518 82.66803 -0.59455991
53.799934 82.607071 0
49.34269 90.738029 0.85158193
53.748978 82.646538 -0.59426934
53.734833 82.672272 0
49.317902 90.706635 0.8511464
53.713913 82.656891 -0.5949949
53.7173 82.650749 0
49.285645 90.688873 0.8511464
53.666225 82.689934 -0.59644657
53.687222 82.651962 0
49.265976 90.648338 0.85042083
53.648697 82.668335 -0.596156
53.674789 82.621277 0
49.24387 90.612335 0.84984028
53.623623 82.660355 -0.59630102
53.652294 82.608788 0
49.201622 90.612656 0.85042083
53.603611 82.643265 -0.596156
53.614601 82.623558 0
49.159351 90.612907 0.85100138
53.570946 82.648834 -0.59673655
53.559082 82.670044 0
49.094234 90.653915 0.85288805
53.54842 82.636215 -0.59673655
53.559444 82.616562 0
49.039162 90.676682 0.85419416
53.51572 82.641693 -0.5973171
53.50634 82.658379 0
48.973824 90.717468 0.85608089
53.460014 82.687851 -0.59920377
53.486366 82.641136 0
48.936451 90.708336 0.85637087
53.44511 82.661545 -0.59876877
53.425407 82.696381 0
48.893959 90.708206 0.85695142
53.417446 82.657814 -0.59905881
53.428513 82.638306 0
48.861694 90.689934 0.85695142
53.364079 82.699219 -0.60080045
53.403416 82.630058 0
48.824314 90.680664 0.85724199
53.351791 82.668297 -0.60021991
53.370598 82.635323 0
48.763763 90.711975 0.85883868
53.339561 82.637375 -0.59963936
53.324833 82.663124 0
48.72892 90.698044 0.85898364
53.311882 82.633484 -0.59992933
53.310062 82.636665 0
48.691505 90.688583 0.85927367
53.268646 82.656601 -0.60109049
53.271984 82.650795 0
48.638538 90.7061 0.86043477
53.248707 82.639122 -0.60094547
53.249454 82.637817 0
48.603683 90.692024 0.86057979
53.229645 82.646126 -0.601381
53.246002 82.617813 0
48.577164 90.700714 0.86116034
53.191502 82.660072 -0.60225159
53.223511 82.604805 0
48.544914 90.68206 0.86116034
53.163734 82.655991 -0.60254216
53.18536 82.618767 0
48.489197 90.703804 0.86246645
53.141201 82.642883 -0.60254216
53.147148 82.632683 0
48.462166 90.676071 0.86217642
53.1082 82.647705 -0.60312271
53.129898 82.610558 0
48.414223 90.684196 0.863047
53.080429 82.643486 -0.60341269
53.089001 82.628853 0
48.379356 90.669838 0.86319256
53.065807 82.616837 -0.60297716
53.082321 82.588715 0
48.333988 90.673347 0.86391813
53.040676 82.608101 -0.60312271
53.020241 82.642792 0
48.28067 90.690224 0.86507922
52.994415 82.635109 -0.60442883
52.995079 82.633987 0
48.243153 90.680145 0.8653692
52.974552 82.617332 -0.60428381
52.999092 82.575897 0
48.19503 90.687927 0.86624032
52.933498 82.635262 -0.60529935
52.960712 82.589439 0
48.160145 90.673279 0.86638534
52.916302 82.612953 -0.60500938
52.922276 82.602928 0
48.109322 90.685364 0.86740088
52.869843 82.639702 -0.60631549
52.897141 82.593994 0
48.063759 90.688461 0.86812699
52.844662 82.630692 -0.60646051
52.866653 82.593964 0
48.010166 90.704857 0.86928815
52.822159 82.617203 -0.60646051
52.828125 82.607262 0
47.977913 90.685516 0.86928815
52.780907 82.634857 -0.60747659
52.794914 82.611588 0
47.926922 90.697296 0.87030369
52.747654 82.639076 -0.60805714
52.756298 82.624763 0
47.883934 90.695648 0.87088424
52.738605 82.603226 -0.60733104
52.744583 82.593353 0
47.840919 90.693939 0.87146479
52.699951 82.616272 -0.60820216
52.705914 82.606445 0
47.803284 90.683289 0.87175536
52.658546 82.633682 -0.6092183
52.678032 82.601669 0
47.765656 90.672569 0.87204534
52.63063 82.62883 -0.60950828
52.655563 82.587975 0
47.717197 90.679543 0.87291592
52.599991 82.62838 -0.60994381
52.633114 82.574249 0
47.682251 90.664291 0.87306148
52.586025 82.625916 -0.61008883
52.605572 82.594017 0
47.660721 90.663284 0.87335145
52.532867 82.611557 -0.61052442
52.541565 82.597435 0
47.569069 90.667969 0.87480313
52.477608 82.650742 -0.61226606
52.524567 82.57473 0
47.523201 90.670197 0.87552869
52.471508 82.610291 -0.61139494
52.480206 82.596252 0
47.480042 90.667946 0.87610924
52.435322 82.618416 -0.61212051
52.460487 82.577896 0
47.431381 90.674438 0.87697983
52.407333 82.613258 -0.61241108
52.435299 82.568359 0
47.388176 90.67205 0.87756038
52.365589 82.630081 -0.61342663
52.399086 82.576439 0
47.350449 90.660782 0.87785095
52.34584 82.61161 -0.61328161
52.351791 82.602104 0
47.312737 90.649445 0.87814093
52.304016 82.628326 -0.61429775
52.356995 82.543945 0
47.266731 90.65126 0.87886649
52.287056 82.605377 -0.61400717
52.30687 82.573898 0
47.220699 90.653015 0.87959206
52.25349 82.608788 -0.61458772
52.253872 82.608185 0
47.182953 90.641518 0.87988263
52.217117 82.616531 -0.61531329
52.234188 82.589561 0
47.136879 90.643127 0.8806082
52.194633 82.60228 -0.61531329
52.222881 82.55777 0
47.087997 90.649048 0.88147873
52.172165 82.588005 -0.61531329
52.186497 82.565475 0
47.050224 90.637375 0.8817693
52.144119 82.582474 -0.61560386
52.136082 82.595062 0
47.004078 90.638779 0.88249487
52.090866 82.616287 -0.61720055
52.113625 82.580711 0
46.960701 90.635727 0.88307542
52.062775 82.610626 -0.61749053
52.074326 82.592621 0
46.917305 90.632622 0.88365597
52.023434 82.622406 -0.61836106
52.05468 82.573822 0
46.876701 90.625076 0.8840915
52.012207 82.590454 -0.61778051
52.023781 82.572502 0
46.836102 90.617462 0.88452655
51.961529 82.619598 -0.61923218
51.981564 82.588615 0
46.784199 90.627251 0.88554263
51.924908 82.626846 -0.61995775
51.973274 82.552231 0
46.743553 90.619522 0.88597822
51.905239 82.607887 -0.61981279
51.928177 82.572601 0
46.694412 90.624786 0.88684875
51.88549 82.613647 -0.62024832
51.916958 82.5653 0
46.666992 90.631744 0.8874293
51.880058 82.572876 -0.6193772
51.87746 82.576851 0
46.631989 90.615128 0.88757432
51.834862 82.593002 -0.62053829
51.849327 82.570892 0
46.585609 90.615875 0.88830042
51.812405 82.578293 -0.62053829
51.801208 82.59536 0
46.539207 90.616547 0.88902599
51.778542 82.580917 -0.62111884
51.784462 82.571915 0
46.492783 90.617126 0.88975155
51.747513 82.579163 -0.62155443
51.741966 82.58757 0
46.449192 90.613312 0.8903321
51.72221 82.568672 -0.62169945
51.733879 82.551018 0
46.408447 90.605095 0.89076763
51.653835 82.623123 -0.62402165
51.722977 82.518829 0
46.370575 90.592476 0.89105767
51.605453 82.647141 -0.62532777
51.700611 82.503983 0
46.324074 90.592789 0.89178324
51.551239 82.67971 -0.62692392
51.675365 82.493454 0
46.274658 90.597366 0.89265436
64 64 -0
51.61544 82.534805 0
46.228096 90.597534 0.89337987
64 64 -0
64 64 -0
51.581467 82.537125 0
46.175735 90.606247 0.89439547
51.474911 82.647408 -0.62735945
51.541668 82.548019 0
46.132008 90.601944 0.89497602
51.437878 82.653809 -0.62808502
51.487282 82.580444 0
46.085358 90.601906 0.89570212
51.40081 82.660149 -0.62881058
51.438629 82.604134 0
46.04451 90.593147 0.89613712
51.366619 82.662125 -0.62939113
64 64 0
46.006557 90.580048 0.89642769
51.33532 82.659752 -0.62982666
64 64 0
45.956947 90.584076 0.89729822
51.306931 82.653038 -0.63011724
51.324421 82.627335 0
45.913147 90.579437 0.89787883
51.29319 82.624802 -0.62968171
51.304863 82.607689 0
45.872253 90.57045 0.89831436
51.267761 82.613724 -0.62982666
51.282391 82.592339 0
45.822563 90.574257 0.89918494
46.792564 89.091064 -0.8497014
51.248158 82.594124 0
45.772827 90.577995 0.900056
46.738701 89.104507 -0.8508625
51.231594 82.570137 0
45.726006 90.577362 0.90078157
46.750061 89.055557 -0.84955639
46.722378 89.095764 0
45.707008 90.570595 0.90092659
46.690269 89.077469 -0.85100812
46.692066 89.074867 0
45.651299 90.582687 0.90208769
46.659981 89.056541 -0.85100812
64 64 0
45.622147 90.556229 0.90194273
46.60603 89.06971 -0.85216862
46.631523 89.032974 0
45.572304 90.559608 0.90281326
46.554974 89.078545 -0.85318476
46.577507 89.04615 0
45.528351 90.55439 0.90339381
46.51873 89.065979 -0.85347533
46.538322 89.037888 0
45.475468 90.56189 0.90440995
46.491447 89.040565 -0.85332978
46.49913 89.029572 0
45.419563 90.573563 0.90557104
46.440315 89.049187 -0.85434586
46.459946 89.021187 0
45.378525 90.56385 0.90600604
46.419029 89.01519 -0.85391033
46.414764 89.021255 0
45.334488 90.558334 0.90658659
54.739605 77.142426 -0.89599508
46.391808 88.989685 -0.85376531
46.372551 89.017014 0
45.29044 90.552757 0.90716714
54.732689 77.118546 -0.89512992
46.352627 88.981125 -0.8542009
46.354347 88.978691 0
45.234383 90.564087 0.90832829
54.704884 77.124222 -0.89628309
54.657124 77.191658 -0.45145932
46.315151 88.9701 0
45.187283 90.562592 0.90905386
54.695015 77.104553 -0.89570707
54.638176 77.184616 -0.4516049
54.646877 77.172356 0
45.152184 90.54409 0.90919942
54.673195 77.101723 -0.89628309
54.625271 77.169044 -0.45145932
54.633984 77.156807 0
45.111092 90.533989 0.90963441
54.648354 77.103081 -0.89714825
54.621445 77.140785 -0.45087877
54.615074 77.149712 0
45.057907 90.540756 0.91065049
54.62952 77.095978 -0.89743626
54.593475 77.146347 -0.45145932
54.611305 77.121429 0
45.010735 90.538979 0.91137606
54.610691 77.088844 -0.89772433
54.562443 77.156097 -0.45218545
54.604565 77.097382 0
44.954445 90.549797 0.91253722
54.594883 77.077484 -0.89772433
54.543522 77.148903 -0.45233044
54.55835 77.128288 0
44.913277 90.539429 0.91297275
54.563953 77.087105 -0.89916658
54.524605 77.141678 -0.45247546
54.548588 77.108414 0
44.866028 90.537415 0.91369832
54.529968 77.100845 -0.90089577
54.478294 77.172333 -0.45392656
54.511406 77.126518 0
44.80962 90.547974 0.91485941
54.469784 77.133896 -0.90435529
54.430016 77.188698 -0.45508769
54.469296 77.134567 0
44.737114 90.546799 0.91602051
54.463051 77.109818 -0.90349013
54.414089 77.177124 -0.45508769
54.435055 77.148308 0
44.695892 90.536095 0.91645551
54.428925 77.123367 -0.90522045
54.395103 77.169746 -0.45523325
54.397713 77.166168 0
44.648521 90.53376 0.91718167
54.403923 77.124313 -0.90608448
54.366928 77.174911 -0.4558138
54.3941 77.137749 0
44.607281 90.522934 0.91761667
54.385006 77.11689 -0.90637362
54.351013 77.163261 -0.4558138
54.36285 77.147118 0
44.553738 90.528824 0.91863275
54.366104 77.109428 -0.90666163
54.335117 77.151596 -0.4558138
54.35313 77.127083 0
44.509388 90.522057 0.91921329
54.347202 77.101936 -0.90694964
54.297665 77.169182 -0.45682934
54.315662 77.144753 0
44.452694 90.53196 0.92037445
54.325237 77.098579 -0.90752572
54.291023 77.144905 -0.45639381
54.293606 77.141403 0
44.405216 90.529221 0.92110002
54.290943 77.111832 -0.90925598
54.256584 77.158234 -0.4572649
54.25605 77.158951 0
44.345345 90.543106 0.92240614
54.281281 77.091774 -0.90867889
54.2314 77.158966 -0.45770046
54.237057 77.151344 0
44.31638 90.515167 0.92226112
54.222221 77.13813 -0.91271549
54.224815 77.134644 -0.4572649
54.230499 77.127007 0
44.262634 90.520554 0.92327726
54.224922 77.101418 -0.91098517
54.208954 77.122826 -0.4572649
54.227097 77.098511 0
44.211964 90.521667 0.92414778
54.205994 77.09375 -0.91127431
54.15575 77.160919 -0.45900658
54.189449 77.115868 0
44.16748 90.514389 0.92472833
54.174664 77.1026 -0.91271549
54.142982 77.144852 -0.45886102
54.16737 77.112328 0
44.119873 90.511185 0.9254539
54.161957 77.086571 -0.91242641
54.120853 77.141243 -0.4591516
54.120247 77.142052 0
44.072243 90.507912 0.92617947
54.118118 77.111862 -0.91502184
54.083084 77.158356 -0.46016771
54.113777 77.11763 0
44.015205 90.517014 0.92734057
54.108528 77.091652 -0.91444468
54.076595 77.133919 -0.45973215
54.104206 77.097374 0
43.964375 90.517738 0.92821169
54.098957 77.071457 -0.91386867
54.051315 77.134354 -0.46016771
54.082108 77.093697 0
43.922943 90.50592 0.92864668
54.067532 77.080078 -0.91530985
54.029171 77.130585 -0.46045771
54.031662 77.127304 0
43.878357 90.498199 0.92922723
54.0392 77.084526 -0.91646302
54.016457 77.114403 -0.46031269
54.022121 77.106964 0
43.818027 90.511078 0.93053335
54.031296 77.078506 -0.91646302
54.008537 77.108368 -0.46031269
54.004738 77.113358 0
43.802017 90.498886 0.93053335
54.012363 77.070557 -0.91675103
53.958008 77.141693 -0.46190882
53.982582 77.109528 0
43.747917 90.503365 0.93154949
53.974552 77.087234 -0.91876936
53.942135 77.129547 -0.46190882
53.998398 77.056107 0
43.681145 90.524261 0.93314618
53.942997 77.095619 -0.92021054
53.900955 77.15036 -0.46306995
53.925571 77.118309 0
43.639622 90.512047 0.93358117
53.911404 77.103943 -0.92165172
53.904087 77.113449 -0.46219936
53.922428 77.08963 0
43.591743 90.508026 0.93430728
53.917706 77.06308 -0.91963339
53.878723 77.113586 -0.46263492
53.881176 77.110405 0
43.534336 90.516243 0.93546784
53.886093 77.07135 -0.9210757
53.84063 77.130112 -0.46365049
53.865341 77.098167 0
43.489594 90.507935 0.93604839
53.876652 77.050941 -0.92049855
53.83432 77.105515 -0.4632155
53.836761 77.102364 0
43.444836 90.499557 0.93662894
53.835487 77.071365 -0.92280489
53.808929 77.105522 -0.46365049
53.824131 77.085968 0
43.390495 90.503426 0.93764508
53.816521 77.063156 -0.9230929
53.764351 77.130081 -0.46495661
53.801933 77.081871 0
43.3489 90.490799 0.93808061
53.800747 77.050835 -0.9230929
53.735691 77.134079 -0.46553716
53.782921 77.073647 0
43.300907 90.486298 0.93880618
53.769035 77.058861 -0.92453408
53.742256 77.093048 -0.46452162
53.763924 77.065384 0
43.249695 90.485809 0.93967676
53.734085 77.070908 -0.92626441
53.7136 77.096985 -0.46510217
53.741718 77.061188 0
43.198441 90.485245 0.94054782
53.715103 77.062553 -0.92655241
53.684925 77.100883 -0.46568272
53.722717 77.052887 0
43.140736 90.492752 0.94170898
53.699326 77.050117 -0.92655241
53.659451 77.100632 -0.46611771
53.684387 77.069046 0
43.086212 90.496078 0.94272453
53.677139 77.045784 -0.92712957
53.617832 77.120735 -0.46727884
53.649216 77.08107 0
43.044533 90.483017 0.94316006
53.648537 77.049492 -0.92828166
53.621357 77.083755 -0.46640828
53.633419 77.068558 0
42.993176 90.482101 0.94403064
53.616669 77.057236 -0.92972392
53.589386 77.091545 -0.46713385
53.614399 77.060089 0
42.945011 90.477043 0.94475675
53.6138 77.028496 -0.92857075
53.541187 77.119583 -0.46858495
53.595383 77.051598 0
42.887131 90.484077 0.94591731
53.572227 77.048264 -0.93087709
53.535065 77.094772 -0.46814996
53.553627 77.071541 0
42.83567 90.48291 0.94678843
53.551418 77.058121 -0.93203026
53.517426 77.100601 -0.46858495
53.555489 77.053032 0
42.809933 90.4823 0.94722396
53.535648 77.045486 -0.93203026
53.495094 77.096046 -0.4688755
53.513672 77.072884 0
42.764954 90.472878 0.94780397
53.513416 77.040886 -0.93260628
53.462997 77.103592 -0.46960106
53.484837 77.076431 0
42.703663 90.483658 0.94911069
53.487923 77.040291 -0.93347144
53.450428 77.086807 -0.46945608
53.485374 77.043457 0
42.661903 90.470032 0.94954568
53.452675 77.051712 -0.93520063
53.437889 77.070007 -0.46931106
53.430363 77.079323 0
42.603806 90.47657 0.95070678
53.436909 77.038956 -0.93520063
53.395943 77.089523 -0.47047162
53.421124 77.058441 0
42.545654 90.483002 0.95186788
53.417904 77.030197 -0.93548864
53.363747 77.096886 -0.47119775
53.388939 77.065865 0
42.490738 90.485306 0.95288402
53.382565 77.041481 -0.93721896
53.338097 77.096107 -0.47163275
53.369873 77.057068 0
42.445625 90.47541 0.95346457
53.353733 77.04467 -0.93837214
53.332127 77.071144 -0.47119775
53.331078 77.072433 0
42.387363 90.48156 0.95462567
53.331432 77.039795 -0.93894815
53.309765 77.066284 -0.47148773
53.315292 77.059532 0
42.342216 90.471512 0.95520622
53.312408 77.030891 -0.93923622
53.280804 77.069427 -0.47206831
53.302814 77.042587 0
42.300369 90.457367 0.95564127
53.293373 77.02198 -0.93952531
53.232018 77.096603 -0.47351941
53.29697 77.017601 0
42.258514 90.443176 0.9560768
53.280949 77.005028 -0.93923622
53.229424 77.067543 -0.47293887
53.224976 77.072937 0
42.200134 90.448967 0.9572379
53.235577 77.027969 -0.94183165
53.200401 77.070541 -0.47351941
53.22245 77.043861 0
42.141708 90.454659 0.95839906
53.226448 77.006973 -0.9412545
53.177979 77.065498 -0.47380999
53.193413 77.04686 0
42.083241 90.460243 0.95956016
53.204124 77.001915 -0.94183165
53.178795 77.032425 -0.47308442
53.184315 77.02578 0
42.028053 90.461723 0.9605757
53.175186 77.004768 -0.94298482
53.139793 77.047287 -0.47409996
53.118629 77.072708 0
41.979477 90.455124 0.96130127
53.15617 76.995644 -0.94327283
53.097401 77.066078 -0.47526109
53.12619 77.03157 0
41.927544 90.452438 0.96217239
53.117249 77.0103 -0.94529003
53.074947 77.060875 -0.47555164
53.093758 77.038383 0
41.868923 90.457642 0.96333349
53.094887 77.005074 -0.94586718
53.052502 77.055618 -0.47584164
53.084694 77.017227 0
41.833633 90.43486 0.96347851
53.0704 77.018288 -0.94730836
53.037926 77.056969 -0.47613221
53.050056 77.042519 0
41.794273 90.449326 0.96449459
53.044685 77.016953 -0.94817352
53.002083 77.067566 -0.47700277
53.027607 77.037239 0
41.742256 90.446327 0.96536517
53.028961 77.0037 -0.94817352
53.01981 77.014557 -0.47555164
53.011864 77.023972 0
41.696915 90.435303 0.96594572
52.967464 77.012657 -0.95076787
52.954788 77.027611 -0.47700277
52.94339 77.041054 0
41.579323 90.444748 0.96826798
52.961803 76.987488 -0.94990271
52.908768 77.049889 -0.47830889
52.924274 77.031647 0
41.520462 90.449318 0.96942908
52.919281 77.005646 -0.95220906
52.882893 77.048355 -0.47874445
52.881531 77.04995 0
41.464935 90.449814 0.97044462
52.906929 76.988312 -0.95192105
52.887394 77.011192 -0.47787333
52.865772 77.036507 0
41.419495 90.438377 0.97102517
52.881149 76.986694 -0.95278621
52.844643 77.029335 -0.47903442
52.850029 77.023041 0
41.367279 90.434769 0.97189629
52.865463 76.973251 -0.95278621
52.811974 77.035576 -0.47976056
52.82074 77.02536 0
41.318436 90.427116 0.97262186
52.816067 76.998993 -0.95566857
52.779285 77.04174 -0.48048612
52.781258 77.039452 0
41.26619 90.423317 0.97349244
52.79023 76.997223 -0.95653373
52.729599 77.06752 -0.48193723
52.775696 77.014069 0
41.207123 90.427315 0.97465354
52.764393 76.995399 -0.95739776
52.758003 77.002792 -0.48005056
52.753181 77.008369 0
41.151413 90.427277 0.97566962
52.741913 76.989639 -0.95797491
52.732086 77.000984 -0.48048612
52.744282 76.986908 0
41.095669 90.427139 0.97668576
52.729618 76.972122 -0.9576869
52.675484 77.034431 -0.48222777
52.691055 77.01651 0
41.046715 90.41906 0.97741133
52.683376 76.993607 -0.96028125
52.666573 77.012894 -0.48193723
52.685581 76.991074 0
40.987503 90.422661 0.97857243
52.684692 76.960442 -0.95884007
52.637188 77.014854 -0.48251778
52.659634 76.989143 0
40.928253 90.426147 0.97973359
52.648605 76.970108 -0.96056926
52.61805 77.00502 -0.4826628
52.643948 76.975433 0
40.875809 90.421707 0.98060411
52.61248 76.979706 -0.96229845
52.571503 77.026413 -0.48396891
52.597385 76.99691 0
40.833614 90.405472 0.9810397
52.590984 76.988365 -0.96345162
52.553341 77.031219 -0.48440444
52.592968 76.986115 0
40.810814 90.399277 0.98132968
52.565041 76.986221 -0.96431679
52.534172 77.021278 -0.48454946
52.570396 76.980141 0
40.74115 90.414139 0.98292637
52.545937 76.976273 -0.96460479
52.501244 77.026909 -0.48527557
52.537502 76.985825 0
40.685188 90.413284 0.98394191
52.519981 76.974045 -0.96546996
52.47863 77.020782 -0.48556557
52.490784 77.00705 0
40.636059 90.404556 0.98466802
52.50774 76.956299 -0.96518195
52.4767 76.991295 -0.48498502
52.485439 76.981445 0
40.573135 90.411301 0.98597413
52.488659 76.946266 -0.96546996
52.433384 77.008438 -0.48614612
52.435169 77.006424 0
40.523979 90.40239 0.9866997
52.448929 76.959381 -0.96748829
52.393463 77.021606 -0.48716226
52.41254 77.000206 0
40.4506 90.420555 0.98844135
52.433277 76.945419 -0.96748829
52.38121 77.003693 -0.48701668
52.372562 77.013367 0
40.401382 90.411453 0.98916692
52.379688 76.973808 -0.97065866
52.34816 77.009003 -0.48774281
52.374207 76.979927 0
40.348686 90.406143 0.9900375
52.370926 76.952065 -0.97008264
52.356758 76.96785 -0.4867267
52.34811 76.977478 0
40.313316 90.381424 0.99018306
52.344913 76.949532 -0.97094667
52.306339 76.992386 -0.48817781
52.339394 76.955658 0
40.250172 90.387543 0.99148917
52.305016 76.962326 -0.972965
52.301083 76.966682 -0.48774281
52.299351 76.968605 0
40.190453 90.389694 0.99265027
52.292828 76.944351 -0.97267699
52.261032 76.979507 -0.48875836
52.290665 76.946739 0
40.134193 90.387878 0.99366581
52.266769 76.941696 -0.97354215
52.210442 77.003822 -0.49021003
52.250557 76.959579 0
40.09185 90.370575 0.99410141
52.251137 76.927513 -0.97354215
52.191246 76.993408 -0.49035504
52.196407 76.987732 0
40.018063 90.387817 0.99584305
52.245983 76.901833 -0.97267699
52.168564 76.986809 -0.49064505
52.173706 76.981163 0
39.975708 90.370331 0.99627805
64 64 -0
52.184418 76.937973 -0.48933893
52.161549 76.963013 0
39.915821 90.371986 0.99743921
64 64 -0
52.179325 76.912178 -0.48890337
52.142368 76.952545 0
39.859406 90.369698 0.99845529
64 64 -0
52.181297 76.878746 -0.48817781
52.088028 76.980385 0
39.834583 90.332863 0.99816531
52.236298 76.787758 -0.96835232
64 64 -0
52.121677 76.912361 0
52.099052 76.936951 0.49092892
52.239079 76.769249 -0.96748829
52.196693 76.815269 -0.48658168
64 64 0
52.108841 76.910652 0.49020335
52.237694 76.739822 -0.96633512
52.191795 76.789536 -0.48614612
64 64 0
52.107349 76.881004 0.4896228
52.229343 76.718002 -0.96575797
52.208115 76.740936 -0.48484001
52.164032 76.788567 0
52.11298 76.843727 0.48875168
52.231575 76.684814 -0.96431679
52.217476 76.700005 -0.4838239
52.159214 76.76281 0
52.10453 76.821747 0.48846167
52.247955 76.63649 -0.96172243
52.216293 76.67054 -0.48324335
52.150894 76.74086 0
52.103203 76.792145 0.48788112
52.250332 76.603371 -0.96028125
52.222248 76.633492 -0.48237279
52.149708 76.711304 0
52.105473 76.758751 0.48715556
52.249237 76.574043 -0.95912808
52.221188 76.604065 -0.48179224
52.159225 76.670364 0
52.11845 76.713997 0.48599443
52.258812 76.533409 -0.95710975
52.216629 76.578438 -0.48135668
52.161713 76.637062 0
52.106647 76.695839 0.48584944
52.243679 76.519211 -0.95710975
52.208546 76.556625 -0.48106667
52.160702 76.607574 0
52.116222 76.654938 0.48483333
52.242744 76.489929 -0.95595658
52.211205 76.523438 -0.48034054
52.174019 76.562935 0
52.118744 76.621651 0.48410776
52.241859 76.460663 -0.95480341
52.206768 76.497856 -0.47990555
52.162415 76.544853 0
52.132038 76.577049 0.48294666
