# .PCD v0.7 - Point Cloud Data file format
VERSION 0.7
FIELDS x y z
SIZE 4 4 4
TYPE F F F
COUNT 1 1 1
WIDTH 2105
HEIGHT 1
VIEWPOINT 0 0 0 1 0 0 0
POINTS 2105
DATA ascii
71.527237 106.82357 0
73.13549 115.97313 1.4737626
80.006042 155.71048 0
69.146851 93.490128 0.83605248
79.901436 155.76566 0
69.111214 93.49633 0.83605248
79.761421 155.61554 0
69.078217 93.517853 0.83648801
79.665611 155.72174 0
69.034668 93.477875 0.83518189
79.55912 155.76625 0
68.999046 93.483932 0.83518189
79.425766 155.65154 0
68.965141 93.500191 0.83547187
64 64 -0
79.323593 155.72147 0
68.926071 93.485664 0.83489132
64 64 -0
79.094284 155.71201 0
72.620399 116.37705 1.4824705
64 64 -0
78.980942 155.71475 0
72.553757 116.36691 1.48189
64 64 -0
78.865944 155.70711 0
72.482162 116.32592 1.4804388
64 64 -0
78.740242 155.63249 0
72.428001 116.39256 1.4820349
64 64 -0
78.643463 155.73761 0
72.352409 116.32574 1.4798583
64 64 -0
78.512253 155.62674 0
72.263161 116.17154 1.4752138
64 64 -0
78.402336 155.64935 0
72.135574 115.7708 1.4636031
78.344543 155.64261 0
72.041618 115.37524 1.4522831
78.229813 155.63416 0
71.957207 115.24113 1.4482193
78.1064 155.56897 0
71.876297 115.12744 1.4447359
78.013832 155.70428 0
71.809013 115.10098 1.4437203
77.888969 155.62851 0
72.381989 119.29778 1.5620024
77.772827 155.60922 0
72.30899 119.26678 1.5608419
77.653687 155.56915 0
72.239136 119.25621 1.5602614
77.554451 155.66284 0
71.615158 115.49796 1.4538792
77.430092 155.58643 0
71.555939 115.52769 1.4544598
77.325409 155.6438 0
71.495171 115.54708 1.4547504
77.209465 155.62378 0
71.437332 115.58695 1.4556209
64 64 -0
77.086227 155.55206 0
71.371315 115.57018 1.4548954
64 64 -0
76.980705 155.6039 0
71.315559 115.62536 1.4562016
64 64 -0
76.85408 155.50613 0
71.260399 115.68561 1.4576526
64 64 -0
76.731308 155.43396 0
71.192932 115.65833 1.456637
64 64 -0
76.625084 155.48019 0
71.117004 115.56917 1.4538792
64 64 -0
76.507484 155.44383 0
71.028633 115.38724 1.4485098
64 64 -0
76.39489 155.44339 0
70.963043 115.36993 1.4477837
64 64 -0
76.276764 155.40158 0
70.890594 115.30106 1.4456071
64 64 -0
76.169067 155.43698 0
70.829285 115.3145 1.445752
64 64 -0
76.078979 155.60641 0
70.798531 115.55971 1.4524281
64 64 -0
64 64 0
70.738914 115.5885 1.4530087
64 64 -0
64 64 0
70.687912 115.68422 1.4554759
64 64 -0
64 64 0
70.626122 115.69741 1.4556209
64 64 -0
64 64 0
70.620529 115.90244 1.4612809
64 64 -0
76.161926 160.27158 0
70.565628 115.97227 1.4630226
64 64 -0
76.044952 160.28104 0
70.517662 116.09877 1.4663609
64 64 -0
75.928604 160.29553 0
75.973724 160.65976 2.7201557
64 64 -0
75.797035 160.1859 0
75.865143 160.74121 2.7220426
64 64 -0
75.683945 160.22592 0
75.768913 160.92572 2.7268319
64 64 -0
75.590645 160.43115 0
75.656754 160.98114 2.727993
64 64 -0
75.471039 160.41925 0
75.53772 160.97968 2.7275574
64 64 -0
75.391045 160.74316 0
75.418701 160.97806 2.7271218
64 64 -0
75.301254 160.9895 0
75.305725 161.02792 2.728138
64 64 -0
74.810867 157.76637 0
75.186691 161.02602 2.7277024
64 64 -0
74.705818 157.85176 0
75.077698 161.11176 2.7297347
64 64 -0
74.581322 157.76637 0
74.960342 161.12508 2.7297347
64 64 -0
74.463974 157.74287 0
64 64 0
64 64 -0
74.334709 157.6106 0
64 64 0
64 64 -0
74.216507 157.57645 0
75.044746 165.1626 2.8420668
64 64 -0
64 64 0
74.914139 165.09836 2.8398895
64 64 -0
64 64 0
64 64 0
64 64 -0
64 64 0
74.963692 167.90997 2.9181161
64 64 -0
64 64 0
74.845139 167.99033 2.9200027
64 64 -0
64 64 0
74.723206 168.03954 2.9210181
64 64 -0
64 64 0
64 64 0
64 64 -0
64 64 0
64 64 0
64 64 -0
64 64 0
64 64 0
64 64 -0
64 64 0
64 64 0
64 64 -0
64 64 0
64 64 0
64 64 -0
74.574013 173.7381 0
64 64 0
64 64 -0
74.445351 173.79224 0
64 64 0
64 64 -0
64 64 0
64 64 0
64 64 -0
64 64 0
64 64 0
64 64 -0
64 64 0
64 64 0
64 64 -0
74.475113 180.05145 0
64 64 0
64 64 -0
74.197823 180.11273 0
64 64 0
64 64 -0
74.048531 180.02127 0
64 64 0
64 64 -0
73.906563 180.01257 0
74.513985 187.12589 3.4511852
64 64 -0
73.745857 179.7807 0
64 64 0
64 64 -0
64 64 0
64 64 0
64 64 -0
73.370628 178.63675 0
64 64 0
64 64 -0
73.224167 178.54941 0
64 64 0
64 64 -0
73.071762 178.38406 0
64 64 0
64 64 -0
72.918144 178.19775 0
64 64 0
64 64 -0
72.776962 178.16693 0
64 64 0
64 64 -0
72.618973 177.91278 0
64 64 0
64 64 -0
72.484421 177.96463 0
64 64 0
64 64 -0
72.332268 177.77756 0
64 64 0
64 64 -0
72.260132 177.73584 0
64 64 0
64 64 -0
72.116394 177.65749 0
64 64 0
64 64 -0
71.980515 177.68799 0
64 64 0
64 64 -0
71.837769 177.61964 0
64 64 0
64 64 -0
71.699066 177.60826 0
64 64 0
64 64 -0
71.557297 177.54997 0
64 64 0
64 64 -0
71.421783 177.58499 0
64 64 0
64 64 -0
71.281532 177.54712 0
64 64 0
64 64 -0
71.146942 177.5974 0
64 64 0
64 64 -0
69.940384 160.27592 0
64 64 0
64 64 -0
69.824364 160.28822 0
64 64 0
64 64 -0
69.705856 160.25883 0
64 64 0
64 64 -0
69.591354 160.29683 0
64 64 0
64 64 -0
69.474403 160.29312 0
64 64 0
64 64 -0
69.356895 160.27888 0
64 64 0
64 64 -0
69.238571 160.2489 0
64 64 0
64 64 -0
69.502296 167.39636 0
64 64 0
64 64 -0
69.372223 167.30418 0
64 64 0
64 64 -0
69.247925 167.32098 0
64 64 0
64 64 -0
69.120499 167.27527 0
64 64 0
64 64 -0
68.997215 167.31258 0
64 64 0
64 64 -0
68.871887 167.30815 0
69.789551 186.76718 3.4324634
64 64 -0
68.751595 167.41273 0
69.642403 186.80005 3.4331892
64 64 -0
69.197166 178.62027 0
69.568443 186.80862 3.4333341
64 64 -0
69.068306 178.84485 0
69.421196 186.84122 3.4340596
64 64 -0
68.937347 179.0329 0
69.268753 186.75423 3.4314475
64 64 -0
68.808105 179.2728 0
64 64 0
64 64 -0
68.853531 183.83932 0
64 64 0
64 64 -0
68.707909 183.82428 0
67.876892 162.67355 2.7578897
64 64 -0
68.563118 183.8299 0
67.762802 162.81319 2.7616637
64 64 -0
68.422356 183.94455 0
67.647621 162.93192 2.7648566
64 64 -0
68.27742 183.9498 0
67.529556 162.97778 2.7660177
64 64 -0
64 64 0
67.412819 163.06506 2.7683394
64 64 -0
67.148911 158.73077 0
67.296227 163.16261 2.770952
64 64 -0
67.031448 158.64088 0
67.167923 162.90164 2.7635503
64 64 -0
66.919014 158.70691 0
64 64 0
64 64 -0
66.803802 158.68433 0
66.931366 162.9921 2.765872
64 64 -0
66.68644 158.58362 0
66.807915 162.8605 2.7620988
64 64 -0
64 64 0
64 64 -0
64 64 0
64 64 -0
66.327522 157.94516 2.6245139
64 64 -0
66.215225 157.99985 2.6259649
64 64 -0
66.364967 169.78029 0
66.100716 157.96091 2.6248043
64 64 -0
66.224495 169.18466 0
65.988503 158.0257 2.6265454
64 64 -0
66.086296 168.63046 0
65.875305 158.04883 2.627126
64 64 -0
65.956169 168.43515 0
65.761665 158.05103 2.627126
64 64 -0
65.891937 168.3739 0
65.703049 157.95335 2.6243687
64 64 -0
65.765648 168.36569 0
65.588203 157.8774 2.6221914
64 64 -0
65.637497 168.23764 0
65.474525 157.86368 2.6217566
64 64 -0
64 64 0
65.361862 157.91733 2.6232076
64 64 -0
64 64 0
65.138733 158.23732 2.6320605
64 64 -0
64 64 0
65.026672 158.40491 2.6367049
64 64 -0
64 64 0
64 64 0
64 64 -0
64 64 0
64 64 0
64 64 -0
64 64 0
64 64 0
64 64 -0
64 64 0
64.592262 162.03076 2.7378619
64 64 -0
64 64 0
64.471176 161.48576 2.7226231
64 64 -0
64 64 0
64.353233 161.44469 2.721462
64 64 -0
64 64 0
64.235161 161.30994 2.7176886
64 64 -0
64 64 0
64.117348 161.11786 2.7123184
64 64 -0
64 64 0
64 156.91388 2.594907
64 64 -0
64 64 0
63.887825 156.83585 2.5927298
64 64 -0
64 64 0
63.775639 156.84085 2.5928752
64 64 -0
64 64 0
63.663441 156.8457 2.5930202
64 64 -0
64 64 0
63.552208 156.64777 2.5875053
64 64 -0
64 64 0
64 64 0
64 64 -0
64 64 0
64 64 0
64 64 -0
64 64 0
63.217999 156.45325 2.5821352
64 64 -0
64 64 0
63.105583 156.52499 2.584167
64 64 -0
64 64 0
62.995258 156.38873 2.5803936
64 64 -0
64 64 0
62.883625 156.38745 2.5803936
64 64 -0
62.833149 155.96588 2.5686381
64 64 -0
62.724266 155.80331 2.5641391
64 64 -0
62.629272 154.74692 2.5346773
64 64 -0
62.520641 154.68285 2.5329356
64 64 -0
64 64 0
62.415073 154.45236 2.5265496
64 64 -0
64 64 0
62.30481 154.50235 2.5280011
64 64 -0
64 64 0
62.19276 154.63531 2.5317745
64 64 -0
64 64 0
62.079514 154.80972 2.5367091
64 64 -0
64 64 0
61.964561 155.04112 2.5432401
64 64 -0
64 64 0
61.852474 155.12692 2.5457072
64 64 -0
64 64 0
61.741982 155.13983 2.5461423
64 64 -0
64 64 0
61.632668 155.10587 2.5452719
64 64 0
61.519478 155.21722 2.5484645
64 64 -0
64 64 0
64 64 0
64 64 -0
64 64 0
64 64 0
64 64 0
64 64 0
64 64 0
61.013252 157.24539 2.6055014
64 64 -0
64 64 0
60.895927 157.38196 2.6094203
64 64 -0
64 64 0
60.785061 157.32101 2.6078236
64 64 -0
64 64 0
60.673416 157.28589 2.6069527
64 64 -0
64 64 0
60.560127 157.29738 2.607388
64 64 -0
64 64 0
64 64 0
64 64 -0
64 64 0
64 64 0
64 64 0
64 64 0
64 64 0
64 64 0
64 64 -0
64 64 0
64 64 0
64 64 -0
64 64 0
64 64 0
64 64 0
64 64 0
64 64 0
59.735065 156.82114 2.595052
64 64 -0
64 64 0
59.632462 156.61346 2.5893919
64 64 0
59.507751 156.87285 2.5967937
64 64 0
59.40197 156.73759 2.5931654
64 64 -0
64 64 0
59.285175 156.82538 2.5957775
64 64 -0
64 64 0
59.1633 157.00645 2.6010025
64 64 0
59.055065 156.9227 2.5988252
64 64 -0
64 64 0
58.942791 156.91666 2.5988252
64 64 0
58.827927 156.95717 2.6001315
64 64 0
58.705582 157.12726 2.6050658
64 64 -0
64 64 0
64 64 0
64 64 -0
64 64 0
64 64 0
64 64 0
58.308735 158.08783 2.6324961
64 64 -0
64 64 0
58.197933 158.03419 2.6311898
64 64 0
57.968712 158.05101 2.6320605
64 64 0
64 64 0
64 64 -0
64 64 0
57.880863 155.94138 2.5734274
64 64 0
57.830544 155.85986 2.5712502
64 64 0
57.717422 155.88347 2.5721214
64 64 0
57.608208 155.84988 2.5713959
64 64 0
57.502735 155.76434 2.5692186
64 64 -0
64 64 0
57.392235 155.75125 2.5690734
64 64 0
57.263538 155.98679 2.5758946
64 64 -0
64 64 0
57.130791 156.26877 2.584022
64 64 -0
64 64 0
56.996174 156.56613 2.5925848
64 64 -0
64 64 0
56.875568 156.6716 2.5957775
64 64 0
56.762383 156.67847 2.5962131
56.656155 156.59714 2.5941813
56.523838 156.84198 2.6012926
64 64 0
56.423092 156.69305 2.5973742
64 64 -0
64 64 0
56.299927 156.81848 2.6011477
64 64 -0
64 64 0
56.179497 156.9075 2.6039054
64 64 -0
64 64 0
56.058842 156.99635 2.6066625
64 64 -0
64 64 0
55.952309 156.91939 2.6047759
64 64 -0
64 64 0
55.839584 156.91476 2.6049209
64 64 -0
64 64 0
55.722252 156.96179 2.6065176
64 64 -0
64 64 0
54.502289 169.22305 2.9506257
64 64 -0
64 64 0
55.452179 157.43829 2.6204498
64 64 -0
64 64 0
55.337364 157.44861 2.6210303
64 64 -0
64 64 0
54.924156 160.63553 2.7107224
64 64 -0
64 64 0
54.867241 160.6145 2.7102869
64 64 -0
64 64 0
54.76289 160.47406 2.7066586
64 64 -0
64 64 0
54.651844 160.40594 2.7050619
64 64 -0
64 64 0
54.551105 160.23425 2.700563
64 64 0
54.43586 160.21243 2.700273
64 64 -0
64 64 0
54.324295 160.15425 2.6989663
64 64 0
54.479813 157.47482 2.6240783
64 64 0
54.368473 157.44775 2.6236432
64 64 0
54.247482 157.51358 2.6258199
64 64 -0
64 64 0
54.132858 157.51724 2.6262555
64 64 -0
64 64 0
53.706604 160.44025 2.7086902
64 64 0
53.595661 160.37608 2.7072392
64 64 0
53.480911 160.34793 2.7068036
64 64 0
53.361649 160.36099 2.7075291
64 64 -0
64 64 0
53.228504 160.49783 2.7117379
64 64 -0
64 64 0
52.54084 165.54532 2.8539674
64 64 0
52.434052 165.39201 2.850049
64 64 -0
64 64 0
52.309166 165.39862 2.8506296
49.470585 188.69423 0
52.170414 165.52377 2.854548
49.299843 188.84714 0
52.039852 165.57649 2.8564346
49.154533 188.78278 0
51.90546 165.66002 2.8591924
64 64 -0
49.111225 187.87076 0
51.782013 165.65048 2.8593373
64 64 -0
48.834835 188.89638 0
51.666088 165.57889 2.8577406
64 64 -0
48.657322 189.09494 0
51.526913 165.69803 2.8615141
64 64 -0
64 64 0
51.408508 165.64679 2.8604987
64 64 0
51.36187 165.52054 2.8571601
64 64 0
51.257359 165.36084 2.853097
51.149944 165.22679 2.8497586
64 64 -0
50.986679 165.53078 2.8587568
64 64 -0
64 64 0
50.779316 166.16949 2.8771887
50.629623 166.3544 2.8828487
50.5868 165.72508 2.8655779
64 64 -0
50.472118 165.64697 2.8638363
50.363144 165.52756 2.8609335
50.222328 165.6449 2.8647075
51.217438 157.45496 0
47.502335 184.61655 3.3999538
64 64 -0
51.088158 157.55803 0
47.317528 184.87967 3.4079361
60.337368 90.073685 -0.73533762
50.882378 157.38223 0
47.034859 184.77209 3.4060495
60.299305 90.115547 -0.73664373
50.770279 157.36116 0
64 64 0
60.267017 90.116196 -0.73678875
50.645699 157.42755 0
64 64 0
64 64 -0
50.538761 157.37013 0
64 64 0
64 64 -0
50.403484 157.50832 0
46.686134 183.07391 3.3604777
64 64 -0
50.276917 157.5845 0
46.560364 182.92952 3.3569949
64 64 -0
50.177551 157.47519 0
46.399189 183.02658 3.3603327
60.13076 89.949265 -0.73272544
50.064613 157.4584 0
46.293701 182.74823 3.353076
60.104046 89.913727 -0.73185432
49.949379 157.45694 0
46.196587 182.41843 3.3443682
60.082081 89.847359 -0.73011321
60.046906 90.079422 0
46.098686 182.09882 3.3359504
60.068813 89.829567 -0.72967762
60.014706 90.185081 0
45.984333 182.37054 3.3439326
60.041546 89.799118 -0.72895205
59.995693 90.097946 0
45.799545 182.62094 3.351625
60.011169 89.789169 -0.7288065
59.968143 90.06736 0
45.575211 183.12268 3.3664284
59.984016 89.758659 -0.72808093
59.939053 90.04705 0
45.455303 182.94629 3.3620744
59.952087 89.758919 -0.72822595
59.906776 90.047264 0
64 64 0
59.920967 89.754013 -0.72822595
59.871235 90.068001 0
64 64 0
64 64 -0
59.841377 90.052719 0
64 64 0
59.845535 89.826172 -0.7305482
59.81073 90.042526 0
64 64 0
59.805183 89.877563 -0.73214483
59.776768 90.052864 0
64 64 0
59.771404 89.887871 -0.73258042
59.740253 90.078568 0
64 64 0
59.736752 89.903252 -0.73316097
59.733261 89.924469 0
64 64 0
59.705456 89.898087 -0.73316097
64 64 0
64 64 0
59.674164 89.892876 -0.73316097
43.698608 185.51675 0
44.569664 180.30295 3.2931368
59.640297 89.902992 -0.73359597
43.504284 185.77441 0
44.408447 180.40237 3.2966197
59.609871 89.892586 -0.73345095
43.362381 185.71878 0
44.279106 180.31201 3.294733
59.582962 89.861649 -0.73272544
43.200424 185.78098 0
44.152576 180.20615 3.2924113
59.519115 90.045792 -0.73809546
43.061234 185.70959 0
44.00161 180.24353 3.2941525
59.475227 90.112038 -0.74012709
42.953285 185.45856 0
43.909073 179.94278 3.2863157
59.442783 90.111664 -0.7402721
42.840546 185.23819 0
43.795803 179.76483 3.2819612
59.410339 90.111252 -0.74041712
42.734615 184.98187 0
43.664032 179.69427 3.2806551
59.3806 90.095467 -0.74012709
42.573025 185.04321 0
43.543278 179.56216 3.2776074
59.352722 90.069397 -0.73954654
42.43409 184.97624 0
43.383591 179.64993 3.2808008
59.347954 90.005196 -0.73780489
42.342674 185.06567 0
43.340263 179.48911 3.2765918
64 64 0
43.212708 179.39755 3.2747052
64 64 0
43.089985 179.2803 3.2720923
56.109791 107.20267 0
64 64 0
56.086773 107.03442 0
41.822784 184.60616 3.4247713
56.048992 106.94807 0
41.69788 184.46686 3.4215784
56.061951 106.5905 0
41.537102 184.52158 3.4239006
56.332035 104.86719 0
41.402031 184.43814 3.4223042
56.386986 104.30556 0
41.249771 184.4465 3.4233201
64 64 -0
56.396626 103.98953 0
41.11784 184.34746 3.4212885
64 64 -0
56.373749 103.8474 0
40.981232 184.27377 3.4199817
64 64 -0
56.33939 103.76662 0
40.833954 184.25609 3.4202724
64 64 -0
56.297287 103.72668 0
40.663937 184.35556 3.4239006
64 64 -0
56.247299 103.72755 0
40.486679 184.49046 3.4285445
64 64 -0
56.203312 103.69772 0
40.258984 184.88011 3.4404457
64 64 -0
56.153332 103.6985 0
40.067596 185.08073 3.4469764
64 64 -0
56.106388 103.68387 0
64 64 -0
56.059464 103.6692 0
64 64 -0
56.012566 103.65448 0
64 64 -0
55.962589 103.65499 0
55.91468 103.64525 0
55.867828 103.63036 0
38.013168 190.64111 3.6105404
55.813633 103.6511 0
37.987309 189.99382 3.5929792
59.849373 84.04261 -0.57162869
55.7939 103.62576 0
39.164173 183.92767 3.4204173
64 64 -0
55.739658 103.64638 0
39.055321 183.72461 3.415483
64 64 -0
55.690693 103.64146 0
38.927734 183.61299 3.4131606
58.592987 89.641052 -0.73185432
55.639576 103.64667 0
38.788582 183.55719 3.4124351
60.070679 82.522675 -0.52881461
55.594917 103.62126 0
38.657082 183.46564 3.4106934
60.111202 82.22316 -0.52039737
55.540531 103.64163 0
38.522511 183.38919 3.4093874
60.137177 81.994881 -0.51401126
55.493732 103.62627 0
38.389175 183.30751 3.4079361
60.156017 81.802269 -0.50864178
55.444756 103.62107 0
38.228584 183.35266 3.4101129
60.186752 81.455353 -0.99573928
60.19508 81.417229 -0.49790174
55.345703 103.61552 0
37.956863 183.2139 3.4079361
60.207848 81.258751 -0.98478472
60.197456 81.30603 -0.49485394
55.291138 103.63554 0
37.767117 183.39041 3.4138863
60.255085 80.946045 -0.96719915
60.230373 81.057869 -0.4878878
55.244377 103.61992 0
64 64 -0
60.253735 80.855469 -0.48222777
55.19651 103.60931 0
64 64 -0
60.309326 80.511131 -0.47250387
55.141846 103.62911 0
60.245865 80.700226 -0.95393938
60.338383 80.288651 -0.46626329
55.099674 103.59299 0
60.267891 80.508995 -0.94327283
60.334751 80.213242 -0.46423104
55.041512 103.6279 0
60.283497 80.348099 -0.93433553
60.342808 80.087196 -0.46074826
54.991329 103.62718 0
38.418266 176.52849 3.2228928
60.29948 80.187279 -0.92539924
60.355801 79.94091 -0.45668435
54.942291 103.62135 0
38.384232 176.0517 3.2101209
60.398129 79.668594 -0.89599508
60.354008 79.860519 -0.45450711
54.903751 103.5698 0
38.424652 175.25592 3.1882064
64 64 -0
60.347717 79.800423 -0.45291102
59.551666 83.24427 0
38.420151 174.66293 3.1720965
64 64 -0
60.341572 79.740311 -0.45131433
59.542557 83.17804 0
38.468803 173.84738 3.1496012
64 64 -0
64 64 -0
59.534786 83.106758 0
38.515846 173.04729 3.1275413
64 64 -0
64 64 -0
59.650993 82.508553 0
38.507729 172.4903 3.1124473
64 64 -0
64 64 -0
59.738724 82.037277 0
38.518837 171.85757 3.0951767
64 64 -0
60.304985 79.598274 -0.44768599
59.750626 81.938461 0
38.611797 171.17468 3.0760193
64 64 -0
60.288544 79.583702 -0.44739598
59.74704 81.857376 0
38.621979 170.55751 3.0591838
64 64 -0
60.274559 79.55899 -0.44681543
59.760612 81.705437 0
38.650551 169.86978 3.0403171
64 64 -0
60.242386 79.610039 -0.44841155
59.774548 81.553551 0
38.681965 169.17723 3.0213046
64 64 -0
60.227188 79.590347 -0.44797653
59.834133 81.214569 0
38.697906 168.5556 3.0043242
64 64 -0
60.204674 79.600914 -0.44841155
59.840408 81.098251 0
38.698112 168.00488 2.9893756
64 64 -0
60.180885 79.616508 -0.4489921
59.900116 80.764595 0
38.740349 167.28772 2.9696379
64 64 -0
60.165737 79.596756 -0.44855711
59.925835 80.572617 0
38.775604 166.60614 2.9509156
64 64 -0
60.144405 79.602196 -0.44884712
60.004452 80.168526 0
38.785038 166.0358 2.9353867
64 64 -0
60.125557 79.597519 -0.44884712
59.994957 80.123276 0
38.787045 165.5009 2.9208732
64 64 -0
60.104191 79.602921 -0.44913766
59.986824 80.072983 0
38.785271 164.98634 2.9069405
64 64 -0
60.089138 79.583076 -0.4487021
59.987679 79.987343 0
38.82518 164.31064 2.8883636
64 64 -0
60.067772 79.588409 -0.4489921
59.977276 79.947151 0
38.89465 163.52435 2.8665941
64 64 -0
60.046383 79.593735 -0.44928265
59.987431 79.826248 0
38.849762 163.19675 2.8580313
64 64 -0
60.037807 79.548653 -0.44812155
64 64 0
38.755589 163.06555 2.8551285
64 64 -0
60.017735 79.548889 -0.44826654
64 64 0
38.626877 163.07022 2.8561447
64 64 -0
60.006721 79.513878 -0.44739598
64 64 0
38.502007 163.05963 2.8567252
64 64 -0
60.003597 79.448662 -0.4456543
64 64 0
38.375824 163.05389 2.8574507
64 64 -0
60.00193 79.378441 -0.44376764
64 64 0
38.253548 163.03291 2.8577406
64 64 -0
59.993862 79.333374 -0.44260651
59.879379 79.771553 0
38.129959 163.01682 2.8581762
64 64 -0
59.979298 79.313438 -0.44217098
59.869576 79.731331 0
38.003738 163.01062 2.858902
64 64 -0
59.963436 79.336128 -0.44289652
59.864048 79.71373 0
37.934662 163.03008 2.8599179
64 64 -0
64 64 -0
59.86636 79.628212 0
37.811043 163.01358 2.860353
64 64 -0
64 64 -0
64 64 0
37.687416 162.99692 2.8607886
64 64 -0
59.915913 79.291283 -0.44202596
64 64 0
37.557091 163.00522 2.8619497
64 64 -0
59.894741 79.296387 -0.44231653
64 64 0
37.422661 163.02841 2.8635464
64 64 -0
59.874912 79.296425 -0.44246152
64 64 0
37.30032 163.00626 2.8638363
59.919598 79.058319 -0.86947328
59.859154 79.281387 -0.44217098
64 64 0
37.171196 163.00903 2.8648524
59.902763 79.048393 -0.86918527
59.842056 79.271362 -0.44202596
64 64 0
37.044754 163.00162 2.8655779
59.883221 79.048416 -0.86947328
59.823605 79.266327 -0.44202596
64 64 0
36.927895 162.95895 2.8652875
59.873264 79.013512 -0.86774409
59.805161 79.261269 -0.44202596
64 64 0
36.82074 162.88107 2.8639812
59.856503 79.003532 -0.86745608
59.786724 79.256195 -0.44202596
64 64 0
36.728943 162.74799 2.8610792
59.835613 79.008476 -0.8680321
59.768295 79.251091 -0.44202596
64 64 0
36.658279 162.53969 2.855999
59.816093 79.008408 -0.86832011
59.756844 79.22094 -0.44130039
64 64 0
36.575516 162.37643 2.8522258
59.804935 78.978439 -0.86687893
59.734249 79.23082 -0.44173595
64 64 0
36.486099 162.23813 2.8491778
59.786839 78.973358 -0.86687893
59.715851 79.225655 -0.44173595
64 64 0
36.411049 162.04974 2.8446791
59.764526 78.9832 -0.86774409
59.697456 79.220467 -0.44173595
64 64 0
36.347725 161.82132 2.8390191
64 64 -0
59.750668 78.963135 -0.86687893
59.681911 79.205246 -0.44144541
64 64 0
38.021133 155.47914 2.6558621
59.73259 78.957993 -0.86687893
59.662117 79.205017 -0.4415904
58.19994 84.330185 0
37.939133 155.34773 2.6529593
59.711666 78.962776 -0.86745608
59.640881 79.209763 -0.44188097
58.175381 84.323166 0
37.847389 155.25124 2.6510727
64 64 -0
59.695026 78.952599 -0.867167
59.625385 79.194489 -0.4415904
58.132107 84.381126 0
36.53231 159.40437 2.7726939
59.678398 78.942421 -0.86687893
59.604137 79.199181 -0.44188097
58.133514 84.284027 0
36.508007 159.05661 2.7635503
59.666489 78.949753 -0.86745608
59.590614 79.211502 -0.44231653
58.102421 84.345467 0
36.893311 157.51268 2.7191396
59.652767 78.929604 -0.86659092
59.582409 79.171234 -0.44130039
58.111309 84.223404 0
36.784691 157.4649 2.7187047
59.634731 78.924339 -0.86659092
59.561165 79.17585 -0.4415904
58.01236 84.471039 0
36.705334 157.31723 2.7153664
59.615242 78.924011 -0.86687893
59.544296 79.165497 -0.44144541
58.050716 84.249062 0
36.670235 157.01993 2.7076747
59.594284 78.928635 -0.86745608
59.524506 79.165077 -0.4415904
57.993843 84.351677 0
36.652 156.66785 2.6983857
59.579189 78.913376 -0.86687893
59.504704 79.164658 -0.44173595
58.003277 84.229637 0
36.599125 156.43546 2.6925807
59.531307 78.942291 -0.86918527
59.469563 79.148758 -0.4415904
64 64 0
36.387737 156.32913 2.6914196
59.516228 78.926987 -0.86860925
59.443779 79.168167 -0.44231653
57.346035 86.151802 0
36.264236 156.33551 2.6925807
59.492226 78.941345 -0.86976135
59.428463 79.152695 -0.44202596
57.295219 86.223473 0
36.14518 156.32681 2.6933062
59.474174 78.93589 -0.86976135
59.416183 79.127266 -0.44144541
57.298561 86.11573 0
36.020081 156.33783 2.6946123
59.460644 78.915581 -0.86889726
59.397911 79.121712 -0.44144541
57.273357 86.102646 0
35.899445 156.3338 2.6954834
59.442623 78.91008 -0.86889726
59.381157 79.111176 -0.44130039
57.254269 86.069595 0
35.772713 156.34947 2.6969347
59.426128 78.899628 -0.86860925
59.359856 79.115509 -0.4415904
57.226074 86.066422 0
35.659622 156.32025 2.6970797
59.405083 78.903961 -0.86918527
59.340057 79.114876 -0.44173595
57.19482 86.07312 0
35.545029 156.2959 2.6973701
59.387077 78.898399 -0.86918527
59.317192 79.124115 -0.44217098
57.177387 86.035065 0
35.419693 156.30612 2.6986763
59.375225 78.873062 -0.8680321
59.303547 79.103569 -0.44173595
64 64 0
35.303551 156.28641 2.6991117
59.344921 78.90696 -0.87033844
59.280659 79.112755 -0.44217098
64 64 0
35.176575 156.30127 2.700563
59.326912 78.901329 -0.87033844
59.265507 79.09713 -0.44188097
64 64 0
35.080612 156.2168 2.6991117
59.30891 78.895668 -0.87033844
59.245708 79.096352 -0.44202596
64 64 0
39.216675 142.69476 2.3042076
59.290916 78.889992 -0.87033844
59.22747 79.090591 -0.44202596
64 64 0
39.12944 142.63998 2.3034821
59.268227 78.899086 -0.8712036
59.213963 79.069954 -0.4415904
64 64 0
39.058029 142.53557 2.3013048
64 64 -0
59.259663 78.863777 -0.86947328
59.189438 79.083961 -0.44217098
64 64 0
49.362122 109.89845 1.345466
59.245956 78.875694 -0.87033844
59.180328 79.081055 -0.44217098
64 64 0
49.399254 109.68665 1.3395154
64 64 -0
59.224827 78.879784 -0.87091452
59.162109 79.075218 -0.44217098
64 64 0
49.412342 109.45621 1.333275
59.206852 78.874001 -0.87091452
59.1423 79.074326 -0.44231653
64 64 0
49.41481 109.26047 1.3280499
59.182514 78.887886 -0.87206769
59.120892 79.078323 -0.44260651
64 64 0
49.420929 109.05493 1.3225349
59.161327 78.891907 -0.87264478
59.10107 79.077354 -0.44275153
64 64 0
49.61219 108.28112 1.3003298
59.140129 78.895874 -0.87322086
59.086075 79.061554 -0.44246152
64 64 0
49.684418 107.87836 1.2890097
59.122135 78.889992 -0.87322086
59.066265 79.060539 -0.44260651
64 64 0
49.647591 107.81164 1.2875581
59.110611 78.864426 -0.87206769
59.049694 79.049637 -0.44246152
64 64 0
49.622269 107.71034 1.2850908
59.09103 78.863434 -0.87235677
59.034775 79.03376 -0.44217098
64 64 0
49.613461 107.55972 1.2811725
59.079586 78.837852 -0.8712036
59.01825 79.022827 -0.44202596
64 64 0
49.621361 107.35979 1.2758025
59.060028 78.8368 -0.87149161
58.99353 79.036514 -0.44260651
64 64 0
49.631363 107.15503 1.2702874
59.042103 78.830818 -0.87149161
58.952301 79.099449 -0.44463819
64 64 0
49.648426 106.93063 1.2641919
59.017605 78.844437 -0.87264478
58.939018 79.078575 -0.4442032
64 64 0
49.666012 106.70634 1.2580963
58.991413 78.862907 -0.87408596
58.937401 79.023193 -0.44275153
64 64 0
49.634338 106.6299 1.2563546
58.973457 78.85685 -0.87408596
58.910927 79.041672 -0.44347709
64 64 0
49.586166 106.60268 1.2560647
58.955509 78.850761 -0.87408596
58.896095 79.025681 -0.44318709
64 64 0
49.531357 106.59506 1.2563546
58.932556 78.859352 -0.87495112
58.864525 79.058853 -0.44434819
64 64 0
49.476543 106.58739 1.2566452
58.922985 78.828751 -0.87350994
58.859798 79.013298 -0.44318709
64 64 0
49.426777 106.5649 1.2565001
58.901711 78.832382 -0.87408596
58.831528 79.03656 -0.44405764
64 64 0
49.377052 106.54233 1.2563546
58.882107 78.831093 -0.87437397
58.830315 78.981186 -0.44260651
64 64 0
49.339218 106.48534 1.2551935
58.865883 78.820015 -0.87408596
58.80711 78.989662 -0.44304207
64 64 0
49.286186 106.47251 1.255339
58.84288 78.828461 -0.87495112
58.782173 79.003014 -0.44362265
64 64 0
49.233173 106.45961 1.2554841
58.819855 78.836861 -0.87581521
58.758915 79.011398 -0.44405764
64 64 0
49.169888 106.47608 1.2565001
58.800213 78.835487 -0.8761043
64 64 -0
64 64 0
49.108265 106.48755 1.2573707
58.80154 78.803047 -0.87437397
58.728268 79.011696 -0.44434819
57.103706 83.637772 0
49.061935 106.53738 1.2591124
58.771614 78.83091 -0.8763923
58.70668 79.015106 -0.44463819
64 64 0
49.003635 106.53891 1.2596929
58.755424 78.81971 -0.8761043
58.692005 78.998909 -0.44434819
57.313255 82.894882 0
48.947044 106.53546 1.2601285
58.739258 78.808472 -0.87581521
58.673889 78.992485 -0.44434819
57.360123 82.690598 0
48.890446 106.53192 1.2605635
58.712677 78.826485 -0.87725747
58.648792 79.005615 -0.44492877
57.34454 82.662949 0
48.828587 106.54301 1.2614347
58.699997 78.805466 -0.8763923
58.630665 78.999146 -0.44492877
57.353565 82.566696 0
48.768436 106.5491 1.2621602
58.678616 78.808777 -0.87696838
58.61079 78.997528 -0.44507375
57.350502 82.504768 0
48.720554 106.52087 1.2618697
58.667747 78.782875 -0.87581521
58.590912 78.995888 -0.44521874
57.32991 82.491829 0
48.67271 106.49261 1.2615796
58.642845 78.795876 -0.87696838
58.569252 78.999123 -0.44550931
57.319977 82.449493 0
48.610767 106.50337 1.2624502
58.617901 78.808838 -0.87812155
58.551132 78.992554 -0.44550931
57.244354 82.58815 0
48.555866 106.49452 1.2627407
58.608875 78.77803 -0.87668031
58.525898 79.005486 -0.44608986
57.246872 82.511528 0
48.499187 106.49049 1.2631763
58.585686 78.786087 -0.87754548
58.509563 78.993965 -0.44594431
57.224506 82.503357 0
48.442501 106.48635 1.2636113
58.56604 78.784386 -0.87783349
58.495033 78.977577 -0.4456543
64 64 0
48.382214 106.49191 1.2643368
58.558918 78.748695 -0.8761043
58.475143 78.975784 -0.44579932
64 64 0
48.330879 106.47301 1.2643368
58.533916 78.761513 -0.87725747
58.453438 78.978851 -0.44608986
64 64 0
48.272354 106.47353 1.2649174
58.517891 78.750038 -0.87696838
58.431725 78.981873 -0.44637987
57.506866 81.470276 0
48.20475 106.49834 1.2662235
58.49826 78.74826 -0.87725747
58.41544 78.970268 -0.44623488
57.476669 81.486801 0
48.155228 106.47436 1.2660786
58.473186 78.760986 -0.87841064
58.386425 78.992706 -0.44710544
57.468323 81.444778 0
48.120316 106.41138 1.2647724
58.448078 78.773666 -0.87956381
58.375626 78.966454 -0.44652486
57.434429 81.470978 0
48.089188 106.33867 1.2631763
58.443012 78.733055 -0.87754548
58.350212 78.979095 -0.44710544
57.424347 81.433807 0
48.102234 106.14922 1.2580963
58.416058 78.750519 -0.87898666
58.330269 78.977135 -0.44725099
57.379333 81.48912 0
48.126743 105.93073 1.2521462
58.392723 78.75827 -0.87985182
58.31218 78.970268 -0.44725099
57.380383 81.422745 0
48.124084 105.7852 1.2483723
58.389332 78.740372 -0.87898666
58.299442 78.976532 -0.447541
57.377266 81.399284 0
48.14875 105.64447 1.244454
58.353725 78.726768 -0.87898666
58.263264 78.962715 -0.447541
57.316605 81.431816 0
48.176521 105.27126 1.2344401
58.335938 78.71994 -0.87898666
58.241455 78.965485 -0.44783154
57.286205 81.448013 0
48.162125 105.15994 1.2316823
58.316292 78.717903 -0.87927467
58.217766 78.973045 -0.44826654
57.319504 81.299088 0
48.18354 104.95656 1.2261673
58.291035 78.730316 -0.88042784
58.201553 78.961205 -0.44812155
64 64 0
48.188526 104.7969 1.2219584
58.276989 78.713776 -0.87985182
58.166527 78.997772 -0.44942766
64 64 0
48.184448 104.66154 1.2184756
58.246052 78.74057 -0.88186908
58.154079 78.976189 -0.4489921
64 64 0
48.18446 104.51654 1.2147022
58.228245 78.733604 -0.88186908
58.126503 78.993317 -0.44971821
57.915604 79.531685 0
48.20565 104.31837 1.2093322
58.210445 78.726624 -0.88186908
58.110298 78.981361 -0.44957265
57.936832 79.4226 0
48.189266 104.21704 1.206865
58.186958 78.734055 -0.88273418
58.097916 78.959747 -0.44913766
57.937309 79.366837 0
48.230316 103.9707 1.2000438
58.171062 78.722214 -0.88244617
58.074112 78.967087 -0.44957265
57.822945 79.601463 0
48.220295 103.85498 1.1971411
58.151371 78.719963 -0.88273418
58.050274 78.974411 -0.45000821
64 64 0
48.222038 103.71033 1.1933677
58.124008 78.736908 -0.88417536
58.030262 78.972031 -0.4501532
64 64 0
48.239506 103.52711 1.1884333
58.10236 78.73941 -0.88475251
58.004452 78.984108 -0.45073378
64 64 0
48.234234 103.40189 1.1852399
58.072994 78.76107 -0.8864817
57.986351 78.976852 -0.45073378
64 64 0
48.204063 103.3394 1.1839337
58.059025 78.744308 -0.88590568
57.9566 78.998505 -0.4516049
57.839672 79.288696 0
48.16819 103.29138 1.1830633
58.033459 78.756302 -0.88705885
57.936539 78.996002 -0.45174989
57.745117 79.469421 0
48.116833 103.28185 1.1833532
58.015633 78.749084 -0.88705885
57.91647 78.993477 -0.45189488
57.726429 79.461853 0
48.090866 103.20967 1.1817571
57.995865 78.746628 -0.88734686
57.892475 79.000557 -0.45233044
57.707748 79.454262 0
48.047424 103.18079 1.1814666
57.97805 78.739365 -0.88734686
57.878288 78.983536 -0.4520399
64 64 0
49.934078 98.427841 1.0386571
57.950436 78.756004 -0.88878804
57.852303 78.995361 -0.45262045
64 64 0
49.920094 98.343491 1.0366249
57.928673 78.758255 -0.8893652
57.83419 78.987923 -0.45262045
57.647816 79.440971 0
49.912216 98.244759 1.0341576
57.895061 78.789146 -0.89167047
57.812115 78.990082 -0.45291102
57.629162 79.433281 0
49.960072 98.011566 1.0276271
57.882168 78.795029 -0.89224756
57.7971 79.000748 -0.45334655
57.605915 79.463104 0
50.044773 97.74855 1.0199348
57.854385 78.811508 -0.89368874
57.77898 78.993248 -0.45334655
50.171059 97.329048 0
48.360966 101.69154 1.1396686
64 64 -0
57.738899 79.038483 -0.45494267
50.158802 97.245056 0
48.335403 101.62465 1.1382174
64 64 -0
57.712723 79.050087 -0.45552325
50.17281 97.098648 0
48.368076 101.41869 1.1325575
64 64 -0
57.638287 79.176674 -0.45958716
50.16301 97.009903 0
48.353012 101.32788 1.1303803
64 64 -0
57.621975 79.164169 -0.45944157
50.173584 96.873215 0
48.370377 101.16046 1.1258813
64 64 -0
57.58749 79.194763 -0.4606027
50.174339 96.76059 0
48.380043 101.01227 1.1219624
64 64 -0
57.561031 79.206146 -0.46118325
50.171299 96.657578 0
48.371803 100.90723 1.1193502
64 64 -0
57.534531 79.217484 -0.46176383
50.186798 96.51152 0
48.380054 100.76398 1.1155769
64 64 -0
57.503918 79.23835 -0.46263492
50.192429 96.389481 0
48.3601 100.68771 1.1138352
64 64 -0
57.48756 79.2257 -0.46248937
50.204472 96.253128 0
48.381172 100.5159 1.1091913
64 64 -0
57.475311 79.203506 -0.46205437
50.216827 96.116867 0
48.384201 100.38715 1.105853
64 64 -0
57.471333 79.162193 -0.46103826
50.235668 95.966331 0
48.387512 100.25848 1.1025151
64 64 -0
57.434471 79.197227 -0.46234438
50.219753 95.897125 0
48.37875 100.1585 1.1000479
64 64 -0
57.438843 79.136848 -0.46074826
50.232971 95.76107 0
48.343338 100.12053 1.0994674
64 64 -0
57.389473 79.200378 -0.46292493
50.238194 95.64418 0
48.281052 100.14447 1.1007735
64 64 -0
50.284351 95.434135 -0.95782518
50.243679 95.527344 0
48.227001 100.14926 1.1014991
64 64 -0
50.296394 95.303284 -0.95434183
50.249428 95.410576 0
48.195835 100.10162 1.1006285
57.505699 78.786346 -0.90003061
50.289932 95.215324 -0.95216459
50.244972 95.317688 0
48.189846 99.996841 1.0980157
57.444035 78.877892 -0.90608448
50.292034 95.108391 -0.94940734
50.263805 95.172455 0
48.091881 100.10135 1.101789
57.430241 78.860504 -0.90550846
50.28598 95.020508 -0.9472301
50.289284 95.013031 0
64 64 0
57.412888 78.87545 -0.90666163
50.307213 94.921944 -0.94447291
50.314804 94.9048 0
64 64 0
57.39912 78.858017 -0.90608448
50.31839 94.796135 -0.94113457
50.30283 94.831161 0
64 64 0
50.323494 94.684662 -0.9382323
50.333393 94.66246 0
64 64 0
50.320374 94.592209 -0.93591011
50.313354 94.60791 0
64 64 0
50.349354 94.42868 -0.93141115
50.348808 94.429886 0
64 64 0
50.340321 94.350563 -0.92952448
50.352634 94.323204 0
64 64 0
50.335739 94.262985 -0.92734724
50.343845 94.245026 0
64 64 0
50.342068 94.151772 -0.9244445
50.333084 94.171608 0
64 64 0
50.322845 94.097397 -0.92328334
50.309563 94.126633 0
64 64 0
50.320972 94.005203 -0.92096168
50.266689 94.124283 0
64 64 0
50.304188 93.946106 -0.91965503
50.232464 94.102936 0
64 64 0
50.287514 93.887032 -0.91834891
50.178734 94.124123 0
48.50845 97.764595 1.037496
50.268795 93.832672 -0.91718781
50.14452 94.102676 0
48.558922 97.547585 1.0314004
50.241474 93.797188 -0.9166072
50.09943 94.10482 0
48.588112 97.377914 1.0267559
50.218582 93.752258 -0.91573668
48.669586 97.096336 0
48.587105 97.274399 1.0241437
50.195778 93.707321 -0.91486609
48.675667 96.978668 0
48.638885 97.057816 1.0180482
50.153313 93.704735 -0.91530108
48.686401 96.851639 0
48.684578 96.855545 1.0123881
50.141636 93.636208 -0.91370499
48.726089 96.663368 0
48.708725 96.7005 1.0081792
50.161011 93.501823 -0.91007668
48.752945 96.503525 0
48.711159 96.592606 1.0054214
50.174049 93.381638 -0.90688384
48.700378 96.513351 0
48.720467 96.470657 1.0022286
50.461147 92.591972 -0.88351768
48.612942 96.495102 0
48.648716 96.419548 1.001793
50.475666 92.472313 -0.8803243
48.573689 96.476486 0
48.602863 96.415062 1.0022286
50.489719 92.398445 -0.87829262
50.434517 92.514481 0
48.598904 96.372917 1.0012131
50.486748 92.316444 -0.87626094
50.43594 92.422913 0
48.613518 96.241714 0.99772972
50.492935 92.215714 -0.87364817
50.43082 92.345474 0
48.653103 96.059052 0.99265027
50.506084 92.101013 -0.87060094
50.459667 92.197678 0
48.648125 95.970215 0.99047303
50.508224 92.009781 -0.86827868
50.439156 92.153168 0
48.65461 95.858002 0.98757023
50.506046 91.927933 -0.86624646
50.430058 92.085205 0
48.668121 95.731819 0.98423249
50.510841 91.832108 -0.86377925
50.432453 91.993851 0
48.666054 95.638451 0.98191023
50.522655 91.722336 -0.86087704
50.446426 91.879135 0
48.657372 95.559143 0.98002356
50.514229 91.65464 -0.85928035
50.444687 91.797249 0
48.653423 95.470512 0.97784632
50.547043 91.502945 -0.85507143
50.477432 91.645264 0
48.658787 95.363258 0.97508907
50.53442 91.444687 -0.85376531
50.483009 91.549469 0
48.650658 95.28405 0.97320241
50.549454 91.330482 -0.85071754
50.456631 91.519104 0
48.670235 95.148911 0.96957409
50.541748 91.262947 -0.84912086
50.47176 91.404724 0
48.685513 95.023201 0.96623629
50.552624 91.158188 -0.8463636
50.480236 91.30439 0
48.680328 94.939468 0.96420407
50.556805 91.067451 -0.84404141
50.498184 91.185486 0
48.679939 94.846458 0.96188182
50.570457 90.958153 -0.8411386
50.50248 91.094604 0
48.675117 94.76281 0.95985013
50.565758 90.886139 -0.83939749
50.493011 91.031723 0
48.693707 94.632698 0.95636678
50.565884 90.804832 -0.83736527
50.511662 90.913025 0
48.700939 94.525925 0.95360959
50.580177 90.695732 -0.834463
50.497856 90.859497 0
48.701412 94.433121 0.95128733
50.583031 90.609894 -0.83228582
50.51931 90.736267 0
48.69273 94.358932 0.94954568
50.602482 90.491638 -0.82909298
50.52459 90.64566 0
48.705307 94.243027 0.94649786
50.582233 90.452263 -0.82836747
50.537144 90.541153 0
48.699333 94.164276 0.94461119
50.615681 90.346855 -0.82531965
50.551754 90.472694 0
48.742306 94.034569 0.94083786
50.607452 90.284348 -0.82386798
50.557587 90.382217 0
48.731972 93.965187 0.93924171
50.627728 90.166351 -0.82067519
50.547035 90.324249 0
48.712334 93.914322 0.93822563
50.617455 90.108559 -0.81936908
50.572216 90.196808 0
48.683311 93.88195 0.93779004
50.631058 90.004562 -0.81661183
50.583405 90.097252 0
48.640087 93.877289 0.93822563
50.625847 89.937576 -0.8150152
50.580505 90.025505 0
48.599239 93.867935 0.9385156
50.644646 89.824463 -0.81196737
50.582539 89.94455 0
48.551216 93.872398 0.93924171
50.654125 89.729889 -0.80950016
50.567978 89.895973 0
48.517532 93.849091 0.93909615
50.65662 89.649208 -0.80746847
50.584732 89.787392 0
48.464687 93.862633 0.94011229
50.642467 89.600807 -0.80645233
50.587296 89.706551 0
48.416595 93.866875 0.94083786
50.609138 89.589249 -0.80659735
64 64 0
48.37088 93.86644 0.94141841
50.609619 89.513237 -0.80471069
50.6147 89.503555 0
48.356541 93.806122 0.94011229
64 64 -0
50.579048 89.496567 0
50.511135 89.625587 0.80876791
50.569839 89.439445 -0.80340457
50.567692 89.443512 0
50.50444 89.563324 0.80731678
50.50993 89.47831 -0.80514622
50.539391 89.422668 0
50.463837 89.565369 0.80789733
50.493782 89.434448 -0.80427516
50.489151 89.443161 0
50.423214 89.567337 0.80847734
50.475273 89.395172 -0.80354959
50.460865 89.422226 0
50.38744 89.560097 0.80876791
64 64 -0
50.451935 89.365074 -0.80311459
50.447323 89.373703 0
48.052731 93.856934 0.94533676
50.436024 89.321198 -0.80224347
50.428963 89.334373 0
48.019115 93.833069 0.94519174
50.425114 89.268158 -0.80108231
50.43531 89.249176 0
47.956024 93.864098 0.94678843
50.424171 89.196838 -0.79934067
50.417156 89.209862 0
47.917488 93.849258 0.94693345
50.433254 89.107285 -0.797019
50.431236 89.111015 0
47.87402 93.843529 0.94736898
50.460133 89.021385 -0.79455179
50.450756 89.038712 0
47.851051 93.842911 0.94765902
64 64 -0
50.454704 88.95932 -0.79310006
50.467674 88.935417 0
47.792694 93.864487 0.94896513
50.466785 88.865341 -0.79063284
50.49229 88.818481 0
47.751648 93.854019 0.94925565
50.496498 88.73951 -0.78715008
50.524654 88.687927 0
47.693184 93.875412 0.95056176
50.501556 88.659348 -0.78511786
50.524822 88.616837 0
47.662079 93.846573 0.95027179
50.529282 88.538254 -0.78178006
50.532661 88.532089 0
47.608528 93.858688 0.95128733
50.537239 88.453659 -0.77960283
50.52813 88.470215 0
47.567444 93.847977 0.9515779
50.522766 88.410088 -0.77873224
50.531273 88.394684 0
47.511299 93.864494 0.952739
50.56377 88.266487 -0.77466834
50.539627 88.310089 0
47.475224 93.844551 0.952739
50.544548 88.232056 -0.77408779
50.548161 88.225555 0
47.431614 93.838181 0.953174
50.54562 88.161301 -0.77234614
50.559414 88.136528 0
47.380398 93.84539 0.95404512
50.554436 88.076981 -0.77016944
50.565784 88.056656 0
47.33168 93.847969 0.95477068
50.543129 88.028969 -0.76915336
50.564705 87.990448 0
47.293091 93.832336 0.9549157
50.565002 87.922066 -0.76625055
50.568859 87.915207 0
47.257057 93.812126 0.9549157
50.561604 87.860542 -0.76479942
50.570621 87.844536 0
47.198097 93.832626 0.95622182
50.573677 87.771889 -0.76247722
50.567413 87.782974 0
47.144169 93.843979 0.9572379
50.578255 87.696869 -0.76059049
50.566902 87.716904 0
47.11068 93.819069 0.95709294
50.618763 87.492775 -0.75507551
50.558567 87.59845 0
47.028381 93.796234 0.95767349
50.649666 87.37281 -0.75173771
50.558464 87.532471 0
46.961468 93.829834 0.9594146
50.737663 87.153732 -0.74520659
50.581772 87.425903 0
46.922844 93.813751 0.95956016
50.79607 87.019516 -0.74114323
50.689342 87.205582 0
46.89967 93.812439 0.95985013
50.827866 86.899933 -0.73780489
50.775494 86.990982 0
46.84293 93.827789 0.96101129
64 64 -0
50.802334 86.880302 0
46.796516 93.825043 0.96159184
50.824608 86.778061 -0.73490208
50.808575 86.805771 0
46.752682 93.817734 0.96202737
50.846626 86.67672 -0.73214483
50.807137 86.744804 0
46.708851 93.810349 0.96246237
50.84536 86.615898 -0.73069376
50.816307 86.665848 0
46.657158 93.816391 0.96333349
50.846848 86.550606 -0.72909707
50.8204 86.595947 0
46.621147 93.795418 0.96333349
50.853718 86.476379 -0.7272104
50.822006 86.530594 0
46.56942 93.8013 0.96420407
50.834457 86.447029 -0.72677481
50.829021 86.456299 0
46.52816 93.789192 0.96449459
50.812607 86.42215 -0.72648484
64 64 0
46.476376 93.79493 0.96536517
50.78289 86.410675 -0.72662985
64 64 0
46.440384 93.773735 0.96536517
50.753174 86.399155 -0.72677481
50.766258 86.377037 0
46.385902 93.783813 0.96638131
50.720814 86.392082 -0.72706538
50.723293 86.387901 0
46.360531 93.744629 0.9658007
55.237953 78.734436 -0.95538056
50.69643 86.371536 -0.72691983
50.682953 86.394211 0
47.891708 91.08802 0.88017261
55.228104 78.710503 -0.9545154
50.66674 86.359924 -0.72706538
50.655903 86.378098 0
47.866966 91.055161 0.87973762
64 64 -0
50.642406 86.339325 -0.72691983
50.642227 86.33963 0
47.871632 90.97319 0.8777054
64 64 -0
55.17165 78.724167 -0.47946998
50.623276 86.310074 0
47.85508 90.926949 0.87683481
55.212151 78.616547 -0.95047987
55.185997 78.660042 -0.47772834
50.625832 86.24482 0
47.868076 90.831711 0.87436759
55.205177 78.588196 -0.94932669
55.179024 78.631577 -0.47714776
55.140369 78.695702 0
47.859814 90.772141 0.87306148
55.208965 78.542145 -0.94702035
55.169411 78.607582 -0.47671276
55.154922 78.631546 0
55.158779 78.625168 0.47728664
55.207497 78.504959 -0.94529003
55.170624 78.565788 -0.47569665
55.139954 78.616386 0
55.143814 78.610016 0.47714108
55.198029 78.481079 -0.944426
55.16922 78.528473 -0.4748261
55.127701 78.596786 0
55.136955 78.581558 0.47656107
55.224243 78.41832 -0.94067848
55.176662 78.49649 -0.47395498
55.162182 78.520279 0
55.141666 78.553993 0.47583497
55.214912 78.394455 -0.93981332
55.188938 78.437019 -0.47235832
55.147354 78.505157 0
55.143028 78.512238 0.47481939
55.205631 78.37059 -0.93894815
55.185059 78.404205 -0.47163275
55.148853 78.463364 0
55.120079 78.510384 0.4751094
55.190979 78.355545 -0.93866014
55.164936 78.39798 -0.4717783
55.136826 78.443794 0
55.140602 78.437637 0.47307771
55.151951 78.380135 -0.94096649
55.155716 78.374016 -0.47134274
55.14666 78.388733 0
55.142227 78.395935 0.4720616
55.123718 78.387047 -0.94211966
55.130169 78.376587 -0.4717783
55.151131 78.342606 0
64 64 0
55.095451 78.393906 -0.94327283
55.104607 78.379105 -0.4722133
55.120121 78.354034 0
64 64 0
55.061714 78.4095 -0.94500202
55.081757 78.37719 -0.47250387
55.10004 78.34771 0
55.133934 78.293076 0.46973938
55.038837 78.407486 -0.94557917
55.061649 78.370811 -0.47264886
55.066223 78.363457 0
55.116669 78.282349 0.46973938
55.026917 78.387863 -0.94500202
55.038795 78.368813 -0.47293887
55.048874 78.352654 0
55.096661 78.276024 0.46988493
55.015018 78.36824 -0.944426
55.018677 78.362389 -0.47308442
55.064644 78.288887 0
55.079418 78.265259 0.46988493
54.978436 78.388046 -0.9464432
55.004097 78.347115 -0.47293887
55.047386 78.278076 0
55.051144 78.272079 0.47046548
54.955544 78.385895 -0.94702035
54.983994 78.340645 -0.47308442
55.021835 78.280457 0
55.033905 78.261261 0.47046548
54.943691 78.366196 -0.9464432
54.95005 78.35611 -0.47395498
55.001816 78.273994 0
55.019463 78.246002 0.47031993
54.91251 78.377121 -0.94788551
54.927155 78.353958 -0.47424552
54.984573 78.263115 0
54.996696 78.243935 0.4706105
54.906223 78.348656 -0.94673234
54.901478 78.35614 -0.47468054
54.961769 78.261009 0
54.965584 78.25499 0.47133604
50.778667 84.805695 -0.68846023
54.961288 78.223732 0
54.94558 78.248444 0.47148106
50.770298 84.763397 -0.68758911
54.960896 78.186455 0
54.928371 78.237495 0.47148106
50.787178 84.681717 -0.68541247
50.732204 84.767769 0
54.919559 78.213402 0.47104606
50.779022 84.639473 -0.68454134
50.709934 84.74733 0
49.285133 86.971611 0.76189047
50.803032 84.574615 -0.68265468
50.73674 84.677963 0
49.248817 86.997696 0.76305103
50.809093 84.51059 -0.68105853
50.768074 84.574371 0
49.226658 86.971115 0.76276106
50.795586 84.477165 -0.68047798
50.762962 84.527756 0
49.224258 86.913948 0.76145494
50.793427 84.426277 -0.67931688
50.752296 84.489899 0
49.227623 86.848068 0.75985825
50.797028 84.366692 -0.67786521
50.76152 84.421463 0
49.233948 86.77787 0.7581166
50.823402 84.272301 -0.67525297
50.765228 84.361801 0
49.231926 86.720802 0.75681049
50.875519 84.138824 -0.67133462
50.771889 84.297836 0
49.235687 86.65506 0.75521433
50.930794 84.001129 -0.66727072
50.798626 84.2034 0
49.233902 86.598053 0.75390828
50.992065 83.854927 -0.66291684
50.84552 84.078613 0
49.240784 86.52803 0.75216657
51.01944 83.761017 -0.66030461
50.895573 83.949585 0
49.233551 86.479767 0.75115043
51.015583 83.714935 -0.65928847
50.945908 83.820724 0
49.24641 86.401161 0.7491188
64 64 -0
50.973587 83.726761 0
49.245125 86.344292 0.74781269
51.008137 83.622841 -0.65725678
50.972748 83.676285 0
49.243965 86.28743 0.74650598
51.004559 83.576813 -0.6562407
50.969139 83.630173 0
49.245785 86.226295 0.7450549
51.012577 83.513519 -0.65464455
50.974262 83.571091 0
49.256367 86.152214 0.74316818
51.003441 83.476189 -0.65391845
50.985291 83.503387 0
49.255569 86.095482 0.74186212
51.011696 83.412971 -0.65232235
50.979095 83.4617 0
49.249115 86.047409 0.74084598
51.017204 83.354095 -0.65087068
50.978786 83.411369 0
49.22538 86.025261 0.74070096
51.014046 83.258041 -0.64869398
50.978477 83.310799 0
49.178001 85.980881 0.74041098
51.034409 83.202812 -0.64709729
50.995934 83.259796 0
49.164722 85.971924 0.74041098
51.04034 83.144104 -0.64564621
50.99601 83.209587 0
49.138184 85.953979 0.74041098
51.037651 83.098328 -0.64463007
50.996193 83.159409 0
50.743031 83.53241 0.65928179
51.043816 83.039696 -0.64317894
51.01112 83.087746 0
50.725281 83.507797 0.65899175
51.050102 82.981102 -0.64172786
51.005669 83.046227 0
50.722225 83.461685 0.65797567
51.047718 82.93541 -0.64071172
51.020866 82.97467 0
48.979443 85.959099 0.74302322
51.042488 82.894028 -0.6398406
51.015606 82.933228 0
48.967613 85.91951 0.74229765
51.043213 82.844116 -0.63868004
51.019276 82.878922 0
48.938198 85.905609 0.74244267
51.049953 82.785645 -0.63722837
51.017155 82.833221 0
48.905846 85.895935 0.74273264
64 64 -0
51.056805 82.727242 -0.63577724
51.012161 82.79184 0
48.835075 85.941818 0.74490988
51.060822 82.673149 -0.63447112
51.019112 82.733345 0
48.778984 85.966187 0.74636102
51.070889 82.61055 -0.63287449
51.017265 82.687737 0
48.779133 85.90937 0.7450549
51.063259 82.573593 -0.63214892
51.018494 82.637863 0
48.797218 85.827011 0.7428782
64 64 -0
51.067604 82.519608 -0.6308428
51.049618 82.545357 0
48.782757 85.79158 0.74229765
51.063122 82.478416 -0.62997168
51.042152 82.508362 0
48.744514 85.790207 0.7428782
51.067673 82.424492 -0.62866557
51.046711 82.454361 0
48.724174 85.763245 0.74258763
51.069347 82.374847 -0.62750447
51.054371 82.396133 0
48.688911 85.757523 0.74302322
51.074112 82.320999 -0.62619835
51.053158 82.3507 0
48.65065 85.755989 0.74360377
51.081993 82.262947 -0.62474722
51.052025 82.305313 0
48.597366 85.775604 0.74490988
51.083984 82.213409 -0.62358612
51.054005 82.255684 0
48.583092 85.740021 0.74432933
51.083069 82.168137 -0.62256998
51.050056 82.214569 0
48.553825 85.725616 0.74447429
51.090172 82.134941 -0.62169945
51.060177 82.177071 0
48.543713 85.712044 0.74432933
51.086388 82.093941 -0.62082833
51.080559 82.102104 0
48.529564 85.676437 0.74374878
51.100811 82.027618 -0.61908722
51.085953 82.048386 0
48.488266 85.678856 0.74447429
51.097221 81.986679 -0.6182161
51.079323 82.011627 0
48.462086 85.660095 0.74447429
51.111908 81.920441 -0.61647439
51.081879 81.962196 0
48.429848 85.64975 0.74476486
51.120651 81.862717 -0.61502331
51.078445 81.921249 0
48.397629 85.639343 0.7450549
51.11734 81.821877 -0.61415273
51.081192 81.871872 0
