# .PCD v0.7 - Point Cloud Data file format
VERSION 0.7
FIELDS x y z
SIZE 4 4 4
TYPE F F F
COUNT 1 1 1
WIDTH 1620
HEIGHT 1
VIEWPOINT 0 0 0 1 0 0 0
POINTS 1620
DATA ascii
58.977043 74.175209 -0.94589239
58.928097 74.274368 -0.63856357
58.82048 74.492371 -0.32679108
40.150414 112.31311 0
31.65649 129.51961 2.0406475
58.946529 74.20594 -0.94931608
58.915688 74.268234 -0.63856357
58.810112 74.481445 -0.32664609
40.212147 112.04172 0
31.581955 129.47118 2.0403576
58.929638 74.209015 -0.95017123
58.90789 74.252808 -0.63798642
58.792831 74.484467 -0.32693607
40.198105 111.92436 0
31.47744 129.48315 2.0419543
58.917305 74.202881 -0.95017123
58.88166 74.274437 -0.63971668
58.766258 74.506088 -0.32780719
40.511536 111.1502 0
31.419201 129.40195 2.0406475
58.898094 74.210518 -0.95145553
58.885437 74.235847 -0.63769841
58.753571 74.499756 -0.32780719
40.482498 111.06591 0
31.333229 129.37646 2.0410831
58.885761 74.204346 -0.95145553
58.849899 74.275894 -0.64058077
58.73856 74.498055 -0.32795221
40.353355 111.1817 0
31.261246 129.32301 2.0406475
58.854988 74.234856 -0.95487928
58.842129 74.260429 -0.64000475
58.714211 74.5149 -0.32867774
40.275322 111.19495 0
31.208008 129.23235 2.0390515
58.851868 74.210297 -0.95316738
58.820419 74.272667 -0.64115793
58.694489 74.52243 -0.3291133
40.239403 111.12442 0
31.183029 129.08594 2.0357132
58.855759 74.171989 -0.95017123
58.817348 74.24794 -0.64000475
58.686462 74.506744 -0.3288233
40.151947 111.15605 0
31.111439 129.03235 2.0352781
58.827209 74.197823 -0.95316738
58.790936 74.269341 -0.64173394
58.666725 74.514206 -0.32925832
40.036121 111.24324 0
31.075203 128.90912 2.0326653
58.807907 74.205299 -0.95445174
58.776176 74.267662 -0.64202303
58.65638 74.503128 -0.3291133
39.936577 111.29774 0
31.032139 128.79982 2.0304887
58.797909 74.194443 -0.95402414
58.768482 74.252113 -0.64144593
58.653141 74.478149 -0.32853276
39.836853 111.3521 0
31.041264 128.58867 2.0251186
58.782406 74.209587 -0.95573604
58.764641 74.244354 -0.64115793
58.634987 74.498047 -0.32925832
39.772728 111.40701 0
31.066093 128.44382 2.0212004
58.770073 74.203278 -0.95573604
58.731033 74.279449 -0.64375228
58.61993 74.496201 -0.32940388
39.751068 111.30823 0
31.038029 128.30685 2.0181525
58.755402 74.201515 -0.95616359
58.713879 74.28228 -0.64432937
58.60725 74.489685 -0.32940388
39.665375 111.33443 0
31.045891 128.10059 2.0129275
58.74543 74.190613 -0.95573604
58.706207 74.266685 -0.64375228
58.582676 74.506256 -0.33012941
39.64875 111.22635 0
31.035141 127.93141 2.0088642
58.733124 74.18425 -0.95573604
58.696178 74.255692 -0.64346427
58.569984 74.499702 -0.33012941
39.775795 110.84091 0
31.024757 127.76228 2.0048003
58.713734 74.191544 -0.95701867
58.686169 74.244682 -0.6431762
58.545338 74.516197 -0.33085498
39.755157 110.74232 0
30.993195 127.63475 2.002043
61.328842 69.134613 -0.6410917
58.720379 74.148712 -0.95359498
58.657089 74.27037 -0.64519346
58.51825 74.537247 -0.33172554
39.696297 110.71761 0
30.904339 127.61787 2.0027685
61.306183 69.162926 -0.64503247
58.703365 74.151436 -0.95445174
58.642296 74.268486 -0.64548147
58.519943 74.502983 -0.33085498
39.637459 110.69281 0
30.839512 127.55481 2.002043
61.295238 69.168663 -0.64615715
58.676826 74.17231 -0.95701867
58.610703 74.298668 -0.64778781
58.502441 74.505554 -0.33114499
39.590714 110.64489 0
30.707329 127.62058 2.0053809
61.293713 69.156395 -0.64503247
61.432098 68.892723 -0.46060297
58.612682 74.264679 -0.64605862
58.482502 74.512711 -0.33158055
39.541626 110.60153 0
30.51939 127.79198 2.0120571
61.280392 69.166603 -0.64671946
61.440544 68.86235 -0.45803434
58.609921 74.239853 -0.64490545
58.472221 74.501442 -0.33143553
39.512001 110.52129 0
30.171238 128.26648 2.0283115
61.45282 68.810791 -0.4537555
58.558563 74.277084 -0.64807689
58.432274 74.515602 -0.33230609
40.519958 108.34608 0
29.882286 128.43715 2.0362937
61.442188 68.816788 -0.45461226
58.541302 74.279633 -0.64865297
58.417137 74.513451 -0.33245111
40.520088 108.21655 0
29.826385 128.35457 2.0349877
61.448444 68.791016 -0.45247117
58.531315 74.268471 -0.64836496
58.399548 74.515884 -0.33274165
39.536987 109.93382 0
29.741322 128.327 2.0354233
61.449905 68.774361 -0.4511885
58.509163 74.280106 -0.64951813
58.394192 74.495354 -0.33230609
39.714458 109.46809 0
29.656273 128.29932 2.0358586
61.441715 68.775795 -0.45161608
58.489422 74.287132 -0.65038216
58.359432 74.529793 -0.3336122
39.757835 109.2552 0
29.558971 128.2944 2.0370197
61.426228 68.790794 -0.45332792
58.481888 74.271362 -0.64980614
58.344246 74.527565 -0.33375776
39.715488 109.20296 0
29.488689 128.23901 2.0365844
61.425316 68.778633 -0.45247117
58.464581 74.273781 -0.65038216
58.334003 74.516136 -0.3336122
39.628792 109.23314 0
29.379051 128.25674 2.038471
61.419544 68.775513 -0.45247117
58.461998 74.248901 -0.64923006
58.326237 74.500145 -0.33332223
39.601379 109.15329 0
29.291553 128.23315 2.0390515
61.416222 68.767883 -0.45204362
58.444691 74.251289 -0.64980614
58.293743 74.529831 -0.33448333
39.576595 109.06886 0
29.246151 128.13177 2.0371649
61.430473 68.734749 -0.44904909
58.438499 74.247932 -0.64980614
58.284908 74.530945 -0.33462834
39.589096 108.9809 0
29.182629 128.15643 2.0386159
61.407581 68.763191 -0.45204362
58.416229 74.259377 -0.65095931
58.269707 74.528595 -0.33477333
39.467575 109.07481 0
29.192081 127.95456 2.0335364
61.399372 68.764565 -0.45247117
58.408798 74.24353 -0.65038216
58.259476 74.517105 -0.33462834
39.438072 108.99944 0
29.022705 128.08124 2.0389066
61.398544 68.752419 -0.45161608
58.381516 74.264008 -0.65211248
58.254261 74.496483 -0.33419278
39.331238 109.0656 0
28.982735 127.97054 2.0367293
61.387867 68.758263 -0.45247117
61.445801 68.652725 -0.29580188
58.224072 74.521423 -0.33520889
39.24424 109.09508 0
28.910461 127.91908 2.0364392
61.382118 68.755104 -0.45247117
61.412746 68.699471 -0.29897225
58.216373 74.505341 -0.33491889
39.134537 109.16545 0
28.805691 127.9267 2.0380354
61.383812 68.738464 -0.4511885
61.409565 68.691818 -0.29868424
58.193645 74.516525 -0.3354989
55.72863 78.981186 0
28.723446 127.89323 2.038326
61.37809 68.735298 -0.4511885
61.42144 68.656998 -0.29666591
58.170872 74.527687 -0.33607945
55.687847 79.012154 0
28.593407 127.94603 2.0413737
61.369877 68.73661 -0.45161608
61.4133 68.658417 -0.29695505
58.160675 74.516098 -0.33593446
64 64 0
28.526257 127.88503 2.0407932
61.359165 68.742393 -0.45247117
61.41774 68.637207 -0.29580188
58.150501 74.504501 -0.33578944
64 64 0
28.380833 127.9647 2.0447116
58.327183 74.158318 -0.96985692
61.432316 68.597954 -0.29349554
58.132748 74.506493 -0.33607945
64 64 0
28.313705 127.90346 2.044131
58.294842 74.187294 -0.97328061
61.416649 68.6129 -0.29464871
58.099743 74.535667 -0.33724055
64 64 0
28.180656 127.96004 2.0473237
64 64 -0
61.398415 68.632324 -0.29608989
58.099739 74.505875 -0.33651501
55.696697 78.784683 0
28.085583 127.94844 2.0483398
58.247566 74.21373 -0.9771319
61.40551 68.606644 -0.29464871
58.081944 74.507805 -0.33680555
55.709488 78.720215 0
28.013435 127.89595 2.0480499
58.240276 74.197838 -0.97627681
61.38723 68.626022 -0.29608989
58.059029 74.518745 -0.33738613
55.699379 78.696609 0
27.903034 127.91124 2.0499365
58.227959 74.190872 -0.97627681
61.38929 68.60936 -0.29522473
58.048889 74.507027 -0.33724055
55.689327 78.672974 0
27.810474 127.8947 2.050807
58.213116 74.188354 -0.97670436
61.353065 68.660179 -0.29868424
58.051594 74.472725 -0.33636999
55.697304 78.617668 0
27.684528 127.93678 2.0535648
58.198269 74.185806 -0.9771319
61.42168 68.526627 -0.29032403
58.038944 74.46553 -0.33636999
55.700256 78.571449 0
27.571293 127.95607 2.0555966
61.371273 68.60218 -0.58705693
58.1936 74.165428 -0.97584927
61.403389 68.545959 -0.29176521
61.371822 68.601219 -0.14798872
55.690403 78.547844 0
27.48373 127.93005 2.0561771
61.36824 68.594597 -0.58649457
58.171112 74.176224 -0.97756112
61.40818 68.524864 -0.29061204
61.366264 68.598045 -0.14798872
55.693527 78.501663 0
27.396179 127.90393 2.0567577
61.462994 68.416794 -0.83975405
61.396183 68.533104 -0.72115409
61.380409 68.560562 -0.58255386
58.174168 74.142456 -0.97499251
61.394985 68.535194 -0.2914772
61.378834 68.563309 -0.14697261
55.701931 78.446487 0
27.285343 127.91823 2.0586443
61.462597 68.405151 -0.83812255
61.400726 68.512566 -0.71838546
61.379971 68.548599 -0.58142918
58.167038 74.126518 -0.97413737
61.397255 68.518585 -0.29061204
61.36554 68.573654 -0.14740817
55.694874 78.418411 0
27.234081 127.82878 2.0571928
61.388313 68.527786 -0.86175579
61.377945 68.545761 -0.72392273
61.379757 68.542618 -0.58086681
58.160923 74.122993 -0.97413737
61.376431 68.548386 -0.29263037
61.36018 68.576553 -0.14755316
55.714775 78.363785 0
27.19812 127.80206 2.0570476
61.407589 68.481842 -0.85360771
61.349846 68.58168 -0.73015153
61.371731 68.543839 -0.58142918
61.325859 68.623138 -0.44519615
61.389069 68.513863 -0.29061204
61.346844 68.586861 -0.14798872
55.720879 78.313217 0
27.102837 127.78904 2.0580637
61.451778 68.393188 -0.83730841
61.389622 68.500351 -0.71769398
61.386639 68.505493 -0.57692605
61.325424 68.611031 -0.44434103
61.381012 68.51519 -0.29090118
61.349129 68.570168 -0.14755316
55.7062 78.298706 0
27.038822 127.72194 2.0573382
61.48624 68.321739 -0.82426894
61.371574 68.518875 -0.72115409
61.386311 68.493538 -0.57579923
61.330181 68.590042 -0.44262916
61.375561 68.512024 -0.29090118
61.338379 68.575951 -0.14784372
55.709862 78.252686 0
27.001049 127.60984 2.055161
61.483509 68.314438 -0.82345474
61.414139 68.433365 -0.70800501
61.388557 68.477219 -0.57411218
61.332397 68.573509 -0.44134486
61.367508 68.513313 -0.29118919
61.330235 68.577217 -0.14798872
55.716248 78.202194 0
25.56797 129.89032 2.1303396
61.478294 68.311394 -0.82345474
61.373325 68.49086 -0.71769398
61.398548 68.447739 -0.57073379
61.355381 68.521545 -0.43663844
61.359444 68.514595 -0.2914772
61.358814 68.515671 -0.14610206
55.720116 78.156235 0
25.472645 129.87076 2.1312101
61.490589 68.278503 -0.81775236
64 64 -0
61.393177 68.444588 -0.57073379
61.336933 68.540482 -0.43877786
61.361847 68.498009 -0.29061204
61.337589 68.539368 -0.14697261
55.70829 78.13723 0
30.411968 121.26703 1.8541536
61.480412 68.283981 -0.8193807
64 64 -0
61.400688 68.41954 -0.56791991
61.357483 68.492996 -0.43449739
61.340672 68.521576 -0.29234236
61.326832 68.545113 -0.14726317
64 64 0
30.329624 121.24879 1.8548791
61.457657 68.310745 -0.82508624
61.405487 68.399208 -0.7045449
61.390182 68.425156 -0.5690468
61.35466 68.485382 -0.43406981
61.327335 68.531715 -0.29320639
61.331902 68.523979 -0.14668261
55.684715 78.099236 0
30.281597 121.17226 1.853718
61.444908 68.320419 -0.82752877
61.392517 68.409012 -0.70661938
61.397778 68.400116 -0.56623071
61.354465 68.473358 -0.43321469
61.340286 68.49733 -0.29118919
61.339661 68.49839 -0.14595705
55.683586 78.062286 0
30.257511 121.05544 1.8512508
61.464901 68.274826 -0.8193807
61.407654 68.371353 -0.70108473
61.397644 68.388237 -0.56510603
61.341213 68.483391 -0.43449739
61.332218 68.498558 -0.2914772
61.32893 68.504105 -0.14624704
55.687843 78.016411 0
30.23896 120.92969 1.848493
61.454678 68.280266 -0.8210122
61.397251 68.376831 -0.70246774
61.400135 68.371979 -0.56341684
61.333164 68.484604 -0.43492657
61.305634 68.530899 -0.29378355
61.315521 68.514275 -0.14668261
55.686867 77.979523 0
30.103794 121.00052 1.8521214
61.462173 68.255943 -0.816935
61.394531 68.369377 -0.70177627
61.381844 68.390656 -0.56623071
61.333012 68.472549 -0.43406981
61.313404 68.505432 -0.29234236
61.320713 68.493172 -0.14610206
55.683311 77.947121 0
30.026958 120.97292 1.8525569
61.454491 68.257126 -0.81775236
61.402126 68.344696 -0.6983161
61.384357 68.37442 -0.56454372
61.33815 68.451698 -0.43235794
61.331852 68.462227 -0.28974801
61.304619 68.507774 -0.14668261
55.69318 77.89238 0
29.968811 120.91399 1.8519764
61.439178 68.271011 -0.8210122
61.404621 68.328644 -0.69623893
61.381695 68.366882 -0.56397921
61.327488 68.457291 -0.43321469
61.326462 68.459 -0.28974801
61.288483 68.522339 -0.14726317
55.695129 77.851097 0
29.956184 120.77922 1.8489286
61.434021 68.267914 -0.8210122
61.407154 68.312599 -0.69416177
61.379036 68.359367 -0.56341684
61.345909 68.414459 -0.4293634
61.326412 68.446892 -0.28917086
61.293732 68.501251 -0.14668261
55.678398 77.841049 0
29.935799 120.65788 1.8463163
61.426315 68.269035 -0.8218264
64 64 -0
61.376392 68.351845 -0.56285453
61.311428 68.459602 -0.43406981
61.326378 68.434807 -0.28859484
61.288296 68.497971 -0.14668261
55.685875 77.790855 0
29.85931 120.63004 1.8467519
61.41605 68.274376 -0.82345474
61.401924 68.297745 -0.69277883
61.368507 68.35302 -0.56341684
61.335251 68.408035 -0.4293634
61.326378 68.422707 -0.28801769
61.282864 68.494698 -0.14668261
55.690746 77.745178 0
29.83931 120.50868 1.8441391
61.421135 68.254341 -0.8201949
61.391537 68.303169 -0.69416177
61.379051 68.323769 -0.56004059
61.327267 68.409195 -0.42979097
61.33712 68.392944 -0.2862885
61.282825 68.482513 -0.14639205
55.682243 77.721771 0
29.814156 120.39626 1.8418169
61.405727 68.26812 -0.82345474
64 64 -0
61.373829 68.320602 -0.56004059
61.340611 68.375252 -0.4267948
61.326447 68.398552 -0.28686452
61.26931 68.492554 -0.14682761
55.692699 77.667244 0
29.800011 120.26611 1.8389146
61.416004 68.239662 -0.8185665
61.37331 68.309715 -0.69623893
61.373905 68.308739 -0.55891377
61.332657 68.376411 -0.42722234
61.321133 68.395317 -0.28686452
61.266586 68.484818 -0.14668261
55.703285 77.61274 0
29.653618 120.35344 1.8431236
61.434044 68.204346 -0.81204683
61.370705 68.308128 -0.69623893
61.363358 68.320168 -0.56060296
61.324657 68.383575 -0.4280791
61.318478 68.3937 -0.28686452
61.261173 68.487595 -0.14682761
55.714043 77.576622 0
31.541691 117.18327 1.7400798
61.405746 68.239182 -0.8193807
61.362885 68.309219 -0.69693047
61.36079 68.312645 -0.56004059
61.327408 68.367195 -0.4267948
61.318565 68.381638 -0.2862885
61.247612 68.497581 -0.14726317
55.708504 77.548859 0
31.472031 117.15288 1.7403698
61.416134 68.210777 -0.81449246
64 64 -0
61.358234 68.30513 -0.55947828
61.316757 68.372726 -0.42765155
61.315979 68.373993 -0.28600049
61.255779 68.472099 -0.14653705
55.697586 77.529953 0
29.41288 120.36458 1.8468969
61.416233 68.199219 -0.81286097
61.365623 68.281471 -0.6934703
61.347713 68.310577 -0.56060296
61.300713 68.386971 -0.4293634
61.31612 68.361923 -0.28542334
61.253098 68.464355 -0.14639205
61.179893 68.583328 0
29.342079 120.32717 1.8470418
61.40337 68.208725 -0.81530666
61.355186 68.286819 -0.69485331
61.337166 68.316032 -0.56172979
61.303505 68.37059 -0.4280791
61.324432 68.33667 -0.28398216
61.247704 68.461029 -0.14639205
61.119698 68.66851 0
29.244026 120.33391 1.8486385
61.377483 68.239212 -0.8218264
61.365845 68.258026 -0.69070166
61.348 68.286873 -0.5583514
61.303631 68.358589 -0.42722234
61.319195 68.333435 -0.28398216
61.236843 68.466553 -0.14668261
61.116795 68.660606 0
31.155369 117.09226 1.7435626
61.385387 68.215042 -0.81775236
61.368637 68.242043 -0.6886245
61.350861 68.270706 -0.5566622
61.282124 68.381516 -0.42979097
61.313957 68.330193 -0.28398216
61.236931 68.454369 -0.14639205
61.100189 68.674812 0
31.110409 117.02164 1.742547
61.380299 68.211876 -0.81775236
61.358208 68.247391 -0.69001013
61.334965 68.28476 -0.55891377
61.295815 68.34771 -0.4267948
61.300529 68.340126 -0.28484732
61.237038 68.442207 -0.14610206
61.138527 68.600586 0
31.029903 117.00833 1.7434176
61.356907 68.23806 -0.82345474
61.347775 68.252701 -0.69139314
61.332478 68.277229 -0.5583514
61.298717 68.33136 -0.42551047
61.298035 68.332458 -0.28455818
61.234417 68.434464 -0.14595705
61.10268 68.645699 0
31.084122 116.77885 1.737177
64 64 -0
61.342636 68.249496 -0.69139314
61.330002 68.269699 -0.55778909
61.288036 68.336807 -0.42636722
61.292801 68.329193 -0.28455818
61.218052 68.448723 -0.14653705
61.097069 68.642189 0
52.94133 81.684357 0.58250701
64 64 -0
61.342831 68.237785 -0.69001013
61.322147 68.270767 -0.5583514
61.282799 68.333527 -0.42636722
61.287571 68.32592 -0.28455818
61.223709 68.427765 -0.14595705
61.110809 68.607826 0
52.953102 81.618149 0.58076537
61.362808 68.183426 -0.81530666
61.340626 68.218613 -0.68793303
61.319969 68.251389 -0.5566622
61.280548 68.313919 -0.42508292
61.274357 68.323738 -0.28484732
61.207481 68.429825 -0.14624704
61.116344 68.574402 0
52.918861 81.578224 0.58033037
61.328712 68.226189 -0.82426894
61.335529 68.215401 -0.68793303
61.309399 68.256744 -0.55778909
61.27808 68.30629 -0.42465535
61.285725 68.294197 -0.283117
61.204903 68.422058 -0.14610206
61.158092 68.496124 0
52.919846 81.529678 0.57916921
61.344769 68.189568 -0.81775236
61.327755 68.216408 -0.6886245
61.317856 68.232033 -0.55497521
61.275623 68.298668 -0.4242278
61.277771 68.29528 -0.28340501
61.205132 68.409897 -0.1458115
61.074646 68.615784 0
52.890335 81.529434 0.57960427
61.310551 68.232239 -0.82671463
61.338806 68.187775 -0.68447286
61.312744 68.22879 -0.55497521
61.270432 68.295372 -0.4242278
61.269802 68.296364 -0.28369415
61.188656 68.424057 -0.14639205
61.083023 68.590286 0
52.916542 81.441437 0.57713699
61.326691 68.195633 -0.8201949
61.314869 68.214188 -0.68931866
61.304909 68.22982 -0.55553752
61.284557 68.261757 -0.42123163
61.26461 68.29306 -0.28369415
61.188892 68.411903 -0.14610206
61.066292 68.604317 0
52.928978 81.375458 0.57539588
61.310974 68.209068 -0.82345474
61.323296 68.189781 -0.68585587
61.305275 68.217987 -0.5544107
61.268356 68.27578 -0.4229435
61.270565 68.272316 -0.28254098
61.175179 68.421623 -0.14653705
61.055134 68.609528 0
52.910797 81.357674 0.57525033
61.319221 68.185005 -0.8193807
61.323643 68.178101 -0.68447286
61.313885 68.193336 -0.55159682
61.274269 68.25518 -0.42123163
64 64 -0
61.178238 68.40509 -0.14610206
61.074829 68.566528 0
52.92907 81.283005 0.57321864
61.308819 68.190086 -0.8210122
61.30233 68.200188 -0.6886245
61.29509 68.211464 -0.5544107
61.263573 68.260536 -0.42208838
61.254665 68.274406 -0.283117
61.164501 68.414787 -0.14653705
61.063683 68.571754 0
52.908195 81.269615 0.57321864
61.322495 68.157738 -0.81530666
61.313553 68.171623 -0.68447286
61.290005 68.208191 -0.5544107
61.25565 68.261536 -0.42251593
61.2495 68.271088 -0.283117
61.16198 68.40699 -0.14639205
61.049717 68.581322 0
52.918289 81.20813 0.57162201
61.319984 68.15612 -0.81530666
61.316475 68.16156 -0.68308723
61.276447 68.22364 -0.5566622
61.253075 68.25988 -0.42251593
61.244122 68.273766 -0.28340501
61.159317 68.405273 -0.14639205
61.069515 68.54454 0
52.902256 81.210175 0.57191253
61.298866 68.17778 -0.8201949
61.295097 68.183601 -0.68724149
61.271343 68.220345 -0.5566622
61.239567 68.269493 -0.42380026
61.244572 68.261757 -0.28282899
61.14835 68.410576 -0.14668261
61.064026 68.541 0
52.895576 81.174942 0.57118702
61.304573 68.157921 -0.816935
61.292774 68.176125 -0.68655002
61.263474 68.221321 -0.55722672
61.231617 68.270462 -0.4242278
61.239422 68.258423 -0.28282899
61.143021 68.407127 -0.14668261
61.069866 68.519981 0
52.928543 81.078651 0.56842917
61.304935 68.146378 -0.81530666
61.295937 68.160225 -0.68447286
61.261154 68.213737 -0.5566622
61.237652 68.249893 -0.42251593
61.225819 68.268097 -0.28369415
61.149029 68.386246 -0.14610206
61.055893 68.529533 0
61.038712 68.555969 0.15175538
61.286434 68.163818 -0.8193807
61.260784 68.203186 -0.69208467
61.261608 68.20192 -0.55553752
61.226917 68.25515 -0.42337105
61.226318 68.256065 -0.283117
61.14373 68.382797 -0.14610206
61.053261 68.521614 0
61.013344 68.58287 0.1527715
61.267891 68.181229 -0.82345474
61.285889 68.153679 -0.68447286
61.248192 68.211372 -0.55722672
61.233013 68.234604 -0.42165917
61.221176 68.252716 -0.283117
61.135597 68.38369 -0.14624704
61.07058 68.483192 0
61.010647 68.574905 0.1526265
61.26825 68.169662 -0.8218264
61.258873 68.183975 -0.69001013
61.237541 68.216537 -0.5583514
61.225075 68.235565 -0.42208838
61.218872 68.245033 -0.28282899
61.118908 68.397614 -0.14682761
61.065163 68.479652 0
61.047844 68.506081 0.15044926
61.244225 68.195267 -0.82752877
61.264839 68.163879 -0.68724149
61.238022 68.204712 -0.55722672
61.200237 68.26223 -0.42508292
61.208073 68.250305 -0.28340501
61.130711 68.368073 -0.14595705
61.028316 68.523956 0
61.022427 68.532921 0.15146539
61.260899 68.15892 -0.8210122
61.246014 68.181526 -0.69070166
61.22736 68.209846 -0.5583514
61.203552 68.245995 -0.42380026
61.200085 68.251259 -0.28369415
61.116867 68.377609 -0.14639205
61.07439 68.442108 0
61.076977 68.438187 0.14841759
61.266773 68.139107 -0.81775236
61.229904 68.194939 -0.6934703
61.222275 68.206497 -0.5583514
61.18428 68.26403 -0.42593968
61.19495 68.247871 -0.28369415
61.094395 68.400154 -0.14726317
61.066147 68.442932 0
61.011482 68.525711 0.15146539
61.250858 68.15229 -0.8210122
61.244228 68.1623 -0.6886245
61.217194 68.20314 -0.5583514
61.179131 68.260628 -0.42593968
61.189819 68.244484 -0.28369415
61.100555 68.379303 -0.14668261
61.029182 68.487106 0
61.040443 68.4701 0.14972371
61.26498 68.120132 -0.81530666
61.241974 68.154793 -0.68793303
61.203682 68.212479 -0.56004059
61.15979 68.278595 -0.4280791
61.193279 68.228149 -0.28282899
61.101021 68.367134 -0.14639205
61.092838 68.379456 0
60.96032 68.579086 0.15349706
61.227139 68.166206 -0.82508624
61.225838 68.168167 -0.69070166
61.204231 68.200623 -0.55891377
61.166 68.258064 -0.42636722
61.185307 68.229057 -0.283117
61.101498 68.35498 -0.14610206
61.038525 68.4496 0
61.032524 68.458611 0.14957871
61.2276 68.154625 -0.82345474
61.226368 68.156471 -0.68931866
61.201977 68.193024 -0.5583514
61.163704 68.250374 -0.42593968
61.188816 68.212738 -0.28225183
61.099121 68.34716 -0.14595705
61.085163 68.368073 0
60.966564 68.545799 0.1526265
61.228073 68.143059 -0.8218264
61.207397 68.173965 -0.69277883
61.196911 68.189636 -0.5583514
61.152866 68.25547 -0.4267948
61.177971 68.217949 -0.28282899
61.073647 68.373871 -0.14697261
61.053841 68.403481 0
60.987091 68.503242 0.15131982
61.220318 68.143806 -0.8226406
61.191177 68.187256 -0.69554746
61.197506 68.177818 -0.55722672
61.150585 68.247765 -0.42636722
61.172874 68.214539 -0.28282899
61.071259 68.36602 -0.14682761
61.060108 68.382645 0
61.02507 68.434875 0.14914314
61.220825 68.132248 -0.8210122
61.174919 68.200508 -0.6983161
61.181118 68.191292 -0.55947828
61.136856 68.257103 -0.42765155
61.156239 68.228287 -0.28398216
61.065983 68.36248 -0.14682761
61.00835 68.448174 0
61.02261 68.426971 0.14899816
61.20755 68.141174 -0.82345474
61.169846 68.19709 -0.6983161
61.173218 68.192093 -0.56004059
61.140327 68.240868 -0.42636722
61.148239 68.229134 -0.28427017
61.049091 68.376167 -0.14740817
61.046619 68.379837 0
60.967873 68.496613 0.15146539
61.21085 68.125519 -0.8210122
61.167595 68.189499 -0.69762194
61.170998 68.184471 -0.55947828
61.132332 68.241653 -0.4267948
61.137333 68.234261 -0.28484732
61.043808 68.372597 -0.14740817
60.985947 68.458183 0
52.908974 80.40509 0.55304527
61.200325 68.130325 -0.8226406
61.173794 68.169464 -0.69485331
61.163094 68.185249 -0.56004059
61.127209 68.23819 -0.4267948
61.135128 68.226509 -0.28455818
61.035614 68.373322 -0.14755316
61.015606 68.402832 0
52.921223 80.344376 0.55144912
61.183952 68.149078 -0.82671463
61.157181 68.188522 -0.6983161
61.154865 68.19194 -0.56116533
61.133301 68.223701 -0.42551047
61.138382 68.216225 -0.28398216
61.035889 68.367233 -0.14740817
60.972019 68.461334 0
52.917194 80.329071 0.55115861
61.17894 68.145676 -0.82671463
61.146481 68.193375 -0.6996991
61.146935 68.192711 -0.56172979
61.131088 68.215996 -0.42508292
61.133289 68.212761 -0.28398216
61.027691 68.367943 -0.14755316
61.028122 68.36731 0
52.932556 80.264107 0.5494169
61.162788 68.1586 -0.82997447
61.135754 68.198219 -0.70108473
61.153324 68.17247 -0.55947828
61.131775 68.204056 -0.4242278
61.134037 68.200737 -0.28340501
61.016552 68.37294 -0.14784372
61.03751 68.342216 0
52.91291 80.250717 0.5494169
61.166142 68.142921 -0.82752877
61.127853 68.198898 -0.70177627
61.139687 68.181595 -0.56116533
61.129593 68.19635 -0.42380026
61.114353 68.218636 -0.28484732
61.011272 68.369331 -0.14784372
60.988197 68.403069 0
52.913815 80.207298 0.54840136
61.152748 68.151726 -0.82997447
61.125618 68.191284 -0.70108473
61.151875 68.153 -0.55778909
61.095493 68.235214 -0.4280791
61.106335 68.219406 -0.28513533
61.003056 68.369995 -0.14798872
60.96521 68.425186 0
52.894238 80.193893 0.54840136
61.128124 68.176804 -0.83568001
61.123405 68.183662 -0.70039058
61.141106 68.157921 -0.55891377
61.107838 68.206306 -0.42551047
61.104164 68.211647 -0.28484732
60.988945 68.379227 -0.14842428
60.998211 68.365746 0
52.880573 80.17189 0.54811078
61.1315 68.161118 -0.83323431
61.124043 68.171928 -0.69900757
61.150505 68.133545 -0.55609989
61.099834 68.207047 -0.42593968
61.093212 68.21666 -0.28542334
60.98661 68.371292 -0.14827873
60.951572 68.422119 0
64 64 0
61.112427 68.177971 -0.83730841
61.110443 68.18084 -0.70108473
61.12817 68.15519 -0.55947828
61.083076 68.220436 -0.42765155
61.08223 68.221657 -0.28600049
60.966549 68.389038 -0.14900485
60.969906 68.384178 0
52.868114 80.106499 0.54680467
61.101742 68.182617 -0.83893991
61.108261 68.17321 -0.70039058
61.102898 68.180946 -0.56341684
61.063362 68.238007 -0.42979097
61.085976 68.205368 -0.28513533
60.973087 68.368279 -0.14842428
60.952751 68.397629 0
52.890095 80.033241 0.54477298
61.093872 68.183167 -0.83975405
61.094627 68.182076 -0.70246774
61.103642 68.169106 -0.56229216
61.064106 68.226013 -0.42893422
61.083843 68.197601 -0.28484732
60.967812 68.364624 -0.14842428
60.935562 68.411041 0
52.888527 79.994186 0.54390186
61.097298 68.16748 -0.83730841
61.098183 68.166206 -0.70039058
61.098606 68.165604 -0.56229216
61.056061 68.226685 -0.4293634
61.087646 68.181335 -0.28398216
60.944725 68.386536 -0.14929484
60.968906 68.351814 0
52.892971 79.946632 0.54274076
61.063957 68.204506 -0.84545958
61.067299 68.199722 -0.70661938
61.090668 68.166252 -0.56285453
61.048019 68.227333 -0.42979097
61.076679 68.186287 -0.28455818
60.966202 68.344498 -0.14798872
60.933853 68.390816 0
52.891556 79.907646 0.54187024
61.053215 68.209045 -0.84708798
61.076614 68.175629 -0.70315921
61.085636 68.162735 -0.56285453
61.034077 68.236382 -0.43107527
61.086452 68.161568 -0.283117
60.943077 68.366364 -0.14885928
60.928551 68.387108 0
52.890221 79.868675 0.54099965
61.079372 68.160973 -0.83812255
61.06004 68.188515 -0.70592785
61.068932 68.17585 -0.56510603
61.040756 68.215988 -0.4293634
61.063591 68.183456 -0.28484732
60.955711 68.337151 -0.14798872
60.92923 68.374886 0
52.885994 79.833961 0.54027355
61.043053 68.201912 -0.84708798
61.054981 68.184959 -0.70592785
61.06974 68.163986 -0.56397921
61.032715 68.216606 -0.42979097
61.052589 68.188362 -0.28542334
60.923561 68.371712 -0.14929484
55.730061 75.751831 0
52.881821 79.799271 0.53954798
61.009487 68.238716 -0.85523605
61.047035 68.185493 -0.70661938
61.05592 68.172905 -0.5656684
61.027622 68.213013 -0.42979097
61.038582 68.197479 -0.2862885
60.927269 68.355247 -0.14885928
55.784885 75.644012 0
52.898689 79.734871 0.53780633
61.032906 68.194756 -0.84708798
61.036179 68.190125 -0.70800501
61.059689 68.156891 -0.56397921
61.034393 68.192657 -0.4280791
61.036495 68.189682 -0.28600049
60.916 68.360031 -0.14914984
55.797871 75.595833 0
52.891689 79.704475 0.53722572
60.996384 68.235527 -0.85605335
61.010799 68.215195 -0.71285081
61.045845 68.165779 -0.5656684
61.029327 68.189072 -0.4280791
61.019478 68.202957 -0.28715253
60.910736 68.3563 -0.14914984
64 64 0
52.887749 79.669846 0.53650022
61.002724 68.215775 -0.85279351
61.017338 68.195221 -0.71008217
61.037872 68.166344 -0.56623071
61.024269 68.185478 -0.4280791
61.017395 68.195145 -0.28686452
60.89946 68.361023 -0.14943984
64 64 0
64 64 0
60.96608 68.256416 -0.86175579
61.003544 68.203865 -0.71215665
61.018085 68.183464 -0.5690468
61.016235 68.18605 -0.42850664
61.003319 68.204178 -0.28772968
60.891178 68.361504 -0.14958484
64 64 0
52.883087 79.596413 0.53490406
60.955185 68.260803 -0.86338729
61.001381 68.196159 -0.71146518
61.018948 68.171577 -0.56791991
61.014164 68.178268 -0.4280791
61.019295 68.171089 -0.28571135
60.894966 68.34507 -0.14914984
64 64 0
52.867279 79.578728 0.53475851
60.987167 68.21067 -0.71423382
61.007553 68.182182 -0.56960911
61.011639 68.176468 -0.4280791
61.01075 68.177711 -0.2862885
60.898396 68.334732 -0.14885928
64 64 0
52.879028 79.542427 0.53374296
60.97916 68.211098 -0.71492529
61.002502 68.178558 -0.56960911
60.997616 68.185371 -0.4293634
61.008717 68.169891 -0.28600049
60.893158 68.330986 -0.14885928
64 64 0
52.866322 79.520523 0.53345239
60.974072 68.207443 -0.71492529
60.997456 68.174934 -0.56960911
60.992558 68.18174 -0.4293634
60.994629 68.178864 -0.28686452
60.875793 68.344101 -0.14943984
55.728325 75.501472 0
52.874882 79.469086 0.53214628
60.966049 68.20787 -0.71561944
60.992413 68.171303 -0.56960911
60.984509 68.182266 -0.42979097
60.989582 68.175232 -0.28686452
60.86446 68.348763 -0.1497304
55.72052 75.483032 0
52.883549 79.417702 0.53084016
60.5672 68.748932 -0.96606821
60.96685 68.19606 -0.71423382
60.978439 68.180023 -0.5712983
60.967426 68.195259 -0.43150285
60.987568 68.167404 -0.28657651
60.856167 68.349182 -0.1498754
55.709694 75.468811 0
52.88319 79.378998 0.52996963
60.657185 68.612701 -0.93917513
60.950005 68.208641 -0.71700245
60.967434 68.184593 -0.57242298
60.94429 68.21653 -0.43406981
60.985565 68.159576 -0.2862885
60.850914 68.345375 -0.1498754
55.705009 75.446136 0
52.882919 79.340294 0.52909851
60.596416 68.684631 -0.95465714
60.947868 68.200897 -0.71631098
60.971344 68.168587 -0.57073379
60.954281 68.19207 -0.43193039
60.977505 68.16011 -0.28657651
60.848717 68.337372 -0.1497304
52.723705 79.520493 0
52.882713 79.301636 0.52822793
60.599483 68.668541 -0.9522146
60.919163 68.229652 -0.72184825
60.954338 68.181358 -0.57298535
60.940147 68.200844 -0.43321469
60.969437 68.160629 -0.28686452
60.849602 68.32515 -0.14943984
52.708019 79.502647 0
52.873413 79.275581 0.52779239
60.58802 68.672401 -0.95384294
60.890381 68.258347 -0.72738558
60.952286 68.173576 -0.57242298
60.932049 68.201286 -0.43364227
60.955257 68.169502 -0.28772968
60.835182 68.333931 -0.1498754
52.695431 79.480598 0
52.876423 79.232742 0.52677625
60.611572 68.628395 -0.94569486
60.908951 68.222198 -0.72184825
60.941235 68.178101 -0.57354987
60.917873 68.210007 -0.43492657
60.950222 68.165817 -0.28772968
60.826881 68.334297 -0.15002041
52.649063 79.504715 0
52.879505 79.189949 0.52576071
60.603058 68.628281 -0.94650906
60.906826 68.214401 -0.72115409
60.93018 68.182587 -0.57467455
60.918869 68.19799 -0.43406981
60.936005 68.174644 -0.28859484
60.821648 68.33046 -0.15002041
52.621094 79.503586 0
52.867313 79.168114 0.52547014
60.64727 68.556488 -0.93265539
60.892815 68.222786 -0.72323126
60.925129 68.178871 -0.57467455
60.91684 68.190132 -0.43364227
60.930962 68.170944 -0.28859484
60.819492 68.322433 -0.1498754
52.596207 79.498199 0
52.864391 79.133728 0.52474457
60.630028 68.568352 -0.93591529
60.866859 68.247299 -0.72807705
60.923096 68.171066 -0.57411218
60.911781 68.186409 -0.43364227
60.929005 68.163055 -0.2883057
60.814274 68.318588 -0.1498754
52.558945 79.509552 0
52.873875 79.082626 0.52343845
60.624893 68.552246 -0.93428379
60.903954 68.175858 -0.57579923
60.883331 68.203667 -0.43620923
60.922031 68.151474 -0.28801769
60.806938 68.306702 -0.1497304
52.5308 79.469307 0
52.87151 79.009773 0.52184182
60.64003 68.520401 -0.92858136
60.898911 68.172112 -0.57579923
60.902744 68.166954 -0.43278715
60.895412 68.176811 -0.29003602
60.798637 68.307014 -0.1498754
52.524536 79.438728 0
52.85648 78.992142 0.52169681
60.625717 68.528221 -0.9310239
60.872612 68.196892 -0.57973999
60.87318 68.196121 -0.43620923
60.893456 68.168915 -0.28974801
60.793438 68.303139 -0.1498754
52.543213 79.374771 0
52.819748 79.003662 0.52256733
60.640949 68.496429 -0.92532152
60.873619 68.184975 -0.57861525
60.865032 68.196472 -0.43663844
60.876038 68.18174 -0.29090118
60.782024 68.307579 -0.15016539
52.611866 79.244156 0
52.782959 79.015137 0.52343845
60.647369 68.47654 -0.92206162
60.868565 68.18119 -0.57861525
60.844578 68.213219 -0.43877786
60.861694 68.190369 -0.29176521
60.779934 68.29953 -0.15002041
52.646492 79.159561 0
64 64 0
60.656799 68.452721 -0.91798759
60.860466 68.181465 -0.57917762
60.864151 68.176559 -0.43535414
60.856632 68.186569 -0.29176521
60.784107 68.283165 -0.14958484
51.11879 81.156158 0
52.718624 79.025383 0.52474457
60.67194 68.426987 -0.91309625
60.587307 68.539566 -0.78344733
60.845726 68.195816 -0.58142918
60.836948 68.207497 -0.43877786
60.863419 68.172279 -0.29090118
60.762775 68.306152 -0.15045595
51.16473 81.073479 0
52.69706 79.035179 0.52532512
60.666592 68.422966 -0.91309625
60.494251 68.651642 -0.80351937
60.852894 68.175766 -0.57917762
60.819504 68.22007 -0.44048974
60.85527 68.172615 -0.29118919
60.76696 68.289787 -0.15002041
51.166031 81.028877 0
52.675774 79.025658 0.52547014
60.631447 68.458382 -0.92124748
60.512829 68.615372 -0.7979821
60.847851 68.171959 -0.57917762
60.814407 68.216225 -0.44048974
60.840885 68.181183 -0.29205322
60.758652 68.290024 -0.15016539
51.164295 80.988434 0
52.648224 79.024406 0.52590573
60.620098 68.462181 -0.92287582
60.510292 68.607147 -0.79728794
60.827473 68.1884 -0.58199149
60.803123 68.220551 -0.44134486
60.826462 68.189735 -0.29291838
60.734638 68.310966 -0.15103652
51.156349 80.956314 0
52.63636 79.002388 0.52561516
64 64 -0
60.498653 68.610924 -0.79867357
60.81012 68.200752 -0.58424306
60.794922 68.220764 -0.4417724
60.8214 68.185898 -0.29291838
60.719997 68.319435 -0.15147208
51.173645 80.891037 0
52.605671 79.005196 0.5261957
60.594357 68.473663 -0.92694986
60.487015 68.61467 -0.80005658
60.795811 68.20903 -0.58593225
60.780491 68.229149 -0.44305673
60.813217 68.186165 -0.29320639
60.708492 68.32373 -0.15176207
51.156395 80.871384 0
52.574959 79.007957 0.52677625
60.648922 68.390968 -0.91065371
60.469265 68.626373 -0.80282521
60.787647 68.20919 -0.58649457
60.762924 68.241585 -0.44476858
60.801876 68.190544 -0.29378355
60.706421 68.31562 -0.15161708
51.151802 80.835175 0
52.559982 78.990021 0.52663124
60.628601 68.40654 -0.91472775
60.491112 68.586243 -0.79659641
60.760944 68.233559 -0.59043533
60.757805 68.237671 -0.44476858
60.787384 68.199005 -0.29464871
60.707531 68.303375 -0.15132652
51.128311 80.823761 0
52.532402 78.988571 0.52706683
60.632309 68.390694 -0.91228205
60.510002 68.550148 -0.79105914
60.718731 68.278015 -0.59718776
60.752686 68.233749 -0.44476858
60.801208 68.170486 -0.29291838
60.68652 68.320007 -0.15205207
51.136497 80.771034 0
52.504807 78.987076 0.52750236
60.633026 68.378792 -0.91065371
60.547321 68.49025 -0.78137016
60.648518 68.358643 -0.60900784
60.731926 68.250168 -0.44690803
60.789856 68.174828 -0.29349554
60.684467 68.31189 -0.15190707
51.132103 80.734848 0
52.486706 78.973175 0.52750236
60.624722 68.378632 -0.91146785
60.541897 68.486076 -0.78137016
60.543972 68.483383 -0.62702012
60.733055 68.238091 -0.44605291
60.778503 68.179131 -0.29407156
60.650707 68.344917 -0.15321319
51.111893 80.719292 0
52.446423 78.988052 0.52851796
60.607342 68.390198 -0.91472775
60.545689 68.469978 -0.77929306
60.519917 68.503326 -0.63039637
60.731075 68.23008 -0.44562533
60.760807 68.191612 -0.29522473
60.658173 68.324417 -0.15263262
51.120342 80.666641 0
52.428322 78.974083 0.52851796
60.626259 68.354828 -0.90820801
60.543358 68.461838 -0.77860153
60.4958 68.523232 -0.63377476
60.729118 68.222061 -0.44519615
60.755741 68.187691 -0.29522473
60.621117 68.361473 -0.15408431
51.109779 80.638718 0
52.403862 78.968315 0.52880847
60.614941 68.358551 -0.90983635
60.531807 68.465591 -0.77998722
60.496578 68.510956 -0.63264787
60.717716 68.226219 -0.44605291
60.737991 68.200111 -0.2963779
60.631783 68.336868 -0.15335874
51.121605 80.582031 0
52.392166 78.946075 0.52851796
60.658257 68.292068 -0.89680004
60.526417 68.461395 -0.77998722
60.484879 68.514748 -0.63377476
60.699993 68.238457 -0.44776478
60.723385 68.20842 -0.29724306
60.613777 68.349197 -0.15393931
51.114368 80.550034 0
52.361343 78.948441 0.52909851
60.610497 68.342575 -0.90820801
60.542641 68.429504 -0.77514142
60.470043 68.522514 -0.63546395
60.685394 68.246613 -0.44904909
60.724674 68.196289 -0.29666591
60.608524 68.3451 -0.15393931
51.078369 80.554962 0
52.336891 78.942566 0.52938902
60.611351 68.330681 -0.90657651
60.528011 68.437187 -0.77721852
60.47398 68.506241 -0.63377476
60.673946 68.250679 -0.4499042
60.716408 68.196419 -0.29695505
60.606487 68.336891 -0.15379375
51.106491 80.477844 0
52.306034 78.944839 0.52996963
60.621372 68.307137 -0.90250248
60.465405 68.505966 -0.63433707
60.633953 68.2911 -0.45461226
60.70496 68.200577 -0.29753107
60.59803 68.336891 -0.15393931
51.112278 80.429504 0
52.265541 78.959305 0.53098518
60.610054 68.310829 -0.90413398
60.466236 68.493713 -0.63321239
60.641464 68.270889 -0.45290038
60.712677 68.180328 -0.2963779
60.596016 68.328682 -0.15379375
51.111748 80.389366 0
52.218567 78.98188 0.53229129
60.601788 68.310608 -0.90494817
60.645844 68.254723 -0.45161608
60.70763 68.176353 -0.2963779
52.766541 78.249573 -0.50675511
51.104843 80.35743 0
52.197243 78.971725 0.53243685
60.589993 68.320198 -0.90739381
60.652821 68.240601 -0.45033175
60.708309 68.170303 -0.29608989
52.774044 78.222374 -0.50602901
51.098183 80.345551 0
52.188202 78.964592 0.53243685
60.581711 68.319954 -0.90820801
60.647697 68.236557 -0.45033175
60.687225 68.186607 -0.29753107
52.766533 78.196587 -0.50559402
51.101055 80.301376 0
52.160461 78.962524 0.53287184
60.573425 68.319687 -0.90902221
60.678959 68.186646 -0.29781908
52.768772 78.158569 -0.50472289
51.097538 80.265396 0
52.135925 78.95636 0.53316242
60.574356 68.307816 -0.90739381
60.667454 68.190735 -0.29839623
52.754902 78.140923 -0.50457788
51.107048 80.213135 0
52.101692 78.962341 0.53388798
60.562996 68.311394 -0.90902221
60.636597 68.21907 -0.30070257
52.754021 78.10701 -0.50385231
51.165337 80.099861 0
52.090111 78.939819 0.53359741
60.563957 68.299522 -0.90739381
60.615356 68.235199 -0.30214375
52.756454 78.069046 -0.50298119
51.23362 79.974571 0
52.052593 78.949783 0.53446853
60.592766 68.25293 -0.89842844
60.60701 68.235138 -0.30243176
52.75246 78.039223 -0.50240064
51.419342 79.703232 0
52.021542 78.951561 0.53504908
60.575245 68.264221 -0.90168828
60.601898 68.231041 -0.30243176
52.755024 78.00132 -0.50153005
51.520969 79.537865 0
52.000233 78.941124 0.5351941
60.576302 68.252373 -0.90005678
60.606522 68.214836 -0.3015666
52.754406 77.967484 -0.50080454
51.492409 79.534943 0
51.991966 78.914467 0.53475851
60.546329 68.279007 -0.90657651
60.607925 68.20269 -0.30099058
52.760391 77.925575 -0.4997884
51.467113 79.527908 0
51.980476 78.891869 0.53446853
60.516285 68.305573 -0.91309625
52.846107 77.785255 -0.98824424
52.756645 77.895828 -0.49920785
51.44836 79.512756 0
51.975567 78.861176 0.53388798
60.532875 68.274498 -0.90739381
52.839241 77.759712 -0.98737907
52.749676 77.870132 -0.49877286
51.452568 79.469292 0
51.921604 78.891037 0.53548461
60.521481 68.277969 -0.90902221
52.832417 77.734177 -0.98651391
52.74604 77.840401 -0.49819228
51.427322 79.462189 0
51.874115 78.912712 0.53679073
60.497581 68.296745 -0.91391045
52.828903 77.704628 -0.98536074
52.758884 77.790527 -0.49688563
51.438244 79.410683 0
51.859398 78.894012 0.53664517
60.536179 68.23893 -0.90250248
52.818893 77.683121 -0.98478472
52.752087 77.764877 -0.4964506
51.429516 79.383392 0
51.841412 78.879333 0.53664517
60.490337 68.284447 -0.91309625
52.822041 77.645584 -0.9830544
52.751926 77.731171 -0.49572507
51.427425 79.348068 0
51.777328 78.920921 0.53867739
60.488297 68.27639 -0.91228205
52.815399 77.620079 -0.98219037
52.745239 77.705521 -0.4952895
51.422104 79.316772 0
51.713142 78.962357 0.54070908
60.492561 68.260689 -0.90983635
52.815388 77.586594 -0.98074919
52.758411 77.655807 -0.49398339
51.423447 79.277458 0
51.691772 78.951508 0.5408541
60.465389 68.283142 -0.91554195
52.831909 77.533165 -0.9778657
52.75515 77.626175 -0.49340284
51.418251 79.246193 0
51.663788 78.948654 0.54128963
60.479115 68.25602 -0.91065371
52.822155 77.511696 -0.97728968
52.755253 77.592567 -0.49267727
51.41642 79.21093 0
51.635796 78.945755 0.54172522
60.426105 68.314789 -0.92369002
52.83049 77.485023 -0.9758485
52.760303 77.569763 -0.49209672
51.4006 79.211334 0
51.623455 78.942284 0.54187024
60.424049 68.306664 -0.92287582
52.834038 77.447632 -0.97411817
52.757195 77.540176 -0.49151614
51.402176 79.172081 0
51.595448 78.939316 0.54230577
60.434658 68.283348 -0.91880178
52.837646 77.410278 -0.97238898
52.75082 77.514595 -0.49108058
51.400497 79.136848 0
51.570763 78.932297 0.54259574
60.426319 68.282829 -0.91961598
52.831398 77.384865 -0.97152382
52.751144 77.481049 -0.49035504
51.425564 79.069664 0
51.532745 78.941216 0.54346687
60.421146 68.278511 -0.91961598
52.83514 77.347557 -0.96979463
52.738194 77.463463 -0.49021003
51.414051 79.046471 0
51.514702 78.92614 0.54346687
60.435032 68.251465 -0.91472775
52.822353 77.330086 -0.96950549
52.748646 77.417984 -0.48904893
51.419292 79.003326 0
51.473309 78.938911 0.54448247
52.822895 77.296776 -0.96806431
52.755852 77.376526 -0.48803282
51.404518 78.984131 0
51.455269 78.923759 0.54448247
52.826828 77.259529 -0.96633512
52.759785 77.339096 -0.48716226
51.403191 78.949005 0
51.417145 78.932449 0.54535353
52.827503 77.226265 -0.96489394
52.760452 77.305641 -0.48643613
51.398571 78.91787 0
51.389061 78.929131 0.54578859
52.828255 77.193008 -0.96345162
52.761169 77.272224 -0.48571056
51.397369 78.882774 0
51.374386 78.90992 0.54564357
52.835747 77.151901 -0.96143442
52.761955 77.238831 -0.48498502
51.396233 78.847702 0
51.363098 78.886734 0.54535353
52.823223 77.134453 -0.96114528
52.759438 77.209412 -0.48440444
51.385056 78.824524 0
51.361969 78.851654 0.54462743
52.817425 77.109146 -0.96028125
52.756977 77.180008 -0.4838239
51.400925 78.769684 0
51.364265 78.81266 0.5437569
52.825127 77.0681 -0.95826292
52.75457 77.150612 -0.48324335
51.406773 78.726753 0
51.35651 78.785522 0.54332131
52.816074 77.046738 -0.9576869
52.742065 77.133072 -0.48309836
51.395756 78.703629 0
51.348793 78.758415 0.54288632
52.817184 77.013588 -0.95624459
52.746521 77.095818 -0.48222777
51.398357 78.664696 0
51.358063 78.711586 0.54172522
52.82172 76.976555 -0.9545154
52.747673 77.062515 -0.48150167
51.390831 78.637634 0
51.350475 78.684479 0.54128963
52.838818 76.909317 -0.95105588
52.758003 77.002792 -0.48005056
51.391556 78.58326 0
51.368065 78.610428 0.53940296
52.823227 76.895821 -0.95105588
52.755913 76.973488 -0.47946998
51.387577 78.552277 0
51.357235 78.587296 0.53911245
52.828003 76.858887 -0.94932669
52.750473 76.94812 -0.47903442
51.38707 78.517387 0
51.360062 78.548477 0.53824186
52.819275 76.83757 -0.94874954
52.7519 76.914925 -0.47830889
51.386639 78.482498 0
51.362965 78.509682 0.53737128
52.834389 76.788979 -0.94615519
52.760216 76.873932 -0.47729331
51.393101 78.439812 0
51.355698 78.482658 0.53693575
52.822346 76.771591 -0.94586718
52.751522 76.852516 -0.47700277
51.399662 78.397148 0
51.358749 78.443893 0.53606462
52.8274 76.734734 -0.94413692
52.753136 76.819382 -0.4762772
51.382275 78.381912 0
51.351578 78.416901 0.53562963
52.81543 76.717346 -0.94384885
52.747952 76.794075 -0.47584164
51.385525 78.343216 0
51.358196 78.37429 0.53461349
52.824013 76.676674 -0.94183165
52.746246 76.764877 -0.47526109
51.3923 78.300629 0
51.344269 78.35511 0.53446853
52.82584 76.643768 -0.94038934
52.758366 76.720116 -0.47409996
51.375031 78.285385 0
51.340698 78.324226 0.53388798
52.831146 76.607033 -0.93866014
52.749889 76.698753 -0.47380999
51.385391 78.238953 0
51.354412 78.273918 0.53258187
52.819351 76.589661 -0.93837214
52.755264 76.661827 -0.47293887
51.371647 78.21981 0
51.337173 78.258629 0.53258187
52.828228 76.549095 -0.9363538
52.750328 76.636597 -0.47250387
51.38562 78.169556 0
51.340694 78.220016 0.53171074
52.819954 76.527878 -0.93577778
52.741997 76.615234 -0.4722133
51.38237 78.138771 0
51.35466 78.169815 0.53040463
52.825527 76.491219 -0.93404746
52.744083 76.58226 -0.47148773
51.382645 78.104118 0
51.35141 78.139038 0.52982408
52.817345 76.470009 -0.93347144
52.7393 76.557037 -0.4710522
51.37257 78.081108 0
51.334335 78.123741 0.52982408
52.81266 76.444946 -0.93260628
52.741505 76.524101 -0.47032663
51.376434 78.042618 0
51.348541 78.073647 0.52851796
52.818405 76.408371 -0.93087709
52.750721 76.483475 -0.46931106
51.373413 78.011887 0
51.345463 78.042908 0.52793735
52.831158 76.364136 -0.92857075
52.742622 76.462151 -0.46902052
51.377434 77.973442 0
51.338943 78.016052 0.52750236
52.816227 76.350632 -0.92857075
52.755478 76.417725 -0.46785939
51.374535 77.942749 0
51.332489 77.989182 0.52706683
52.826138 76.324715 -0.92712957
52.758453 76.399376 -0.46742383
51.380085 77.919708 0
51.341488 77.96228 0.52634126
52.825172 76.295891 -0.9259764
52.753952 76.374252 -0.46698883
51.373779 77.892891 0
51.338608 77.931587 0.52576071
52.824257 76.267082 -0.92482322
52.756508 76.341454 -0.46626329
51.381542 77.850685 0
51.325294 77.91243 0.52561516
52.826893 76.234467 -0.92338097
52.755619 76.312508 -0.46568272
51.382362 77.816216 0
51.333012 77.870255 0.52459961
52.815609 76.21714 -0.9230929
52.747776 76.291237 -0.46539217
51.383247 77.781769 0
51.35136 77.816597 0.52314794
52.811337 76.1922 -0.92222887
52.739952 76.269981 -0.46510217
51.377167 77.755005 0
51.341698 77.793655 0.5228579
52.807125 76.167244 -0.92136371
52.742737 76.237236 -0.46437606
51.371128 77.728241 0
51.325039 77.778351 0.5228579
52.820484 76.123283 -0.91905737
52.742039 76.208359 -0.46379605
51.368664 77.69767 0
51.343624 77.724823 0.52140677
52.823399 76.090782 -0.91761619
52.751991 76.16803 -0.46277994
51.369785 77.663292 0
51.34116 77.69426 0.52082622
52.826374 76.058296 -0.91617501
52.751427 76.139175 -0.46219936
51.363888 77.636574 0
51.328163 77.675125 0.52068067
52.822376 76.033417 -0.91530985
52.743847 76.117958 -0.46190882
51.361588 77.606041 0
51.318718 77.652199 0.52039069
52.821945 76.004753 -0.91415668
52.73629 76.096748 -0.46161881
51.348717 77.586945 0
51.323471 77.614052 0.5195201
52.818039 75.979889 -0.91329151
52.746506 76.056534 -0.4606027
51.353611 77.54882 0
51.3354 77.568329 0.51835901
52.814178 75.955032 -0.91242641
52.739044 76.035339 -0.46031269
51.369251 77.499329 0
51.322575 77.549217 0.51821345
52.806816 75.933975 -0.91185033
52.728062 76.017937 -0.46016771
51.356506 77.480263 0
51.327538 77.511154 0.51734287
52.810116 75.901596 -0.91040915
52.731358 75.985367 -0.45944157
51.365189 77.438431 0
51.307663 77.499611 0.51748788
52.806389 75.87677 -0.90954399
52.738262 75.949059 -0.45857102
51.370384 77.400421 0
51.323441 77.450233 0.51618177
52.802708 75.851952 -0.90867889
52.741673 75.916557 -0.45784548
51.35062 77.388939 0
51.314327 77.427353 0.51589179
52.809731 75.815887 -0.90694964
52.7523 75.876526 -0.45682934
51.35593 77.350967 0
51.308838 77.400696 0.5154562
52.823956 75.772346 -0.9046433
52.74511 75.8554 -0.45653936
51.354141 77.32058 0
51.317703 77.358963 0.51444012
52.816864 75.751343 -0.90406728
52.755875 75.815437 -0.45552325
51.355995 77.286438 0
51.308727 77.336105 0.51415008
52.827621 75.725845 -0.90262502
52.752319 75.804878 -0.45537823
51.351559 77.275032 0
51.30785 77.320908 0.51385957
52.817028 75.708603 -0.90233696
52.748833 75.780006 -0.45494267
51.353497 77.240921 0
51.327652 77.26799 0.51240844
52.8172 75.680138 -0.90118378
52.741791 75.758896 -0.45465267
51.359112 77.203072 0
51.322414 77.241402 0.51197284
52.810249 75.659157 -0.90060776
52.731197 75.741531 -0.45450711
51.357586 77.17276 0
51.338806 77.192329 0.51066673
52.821281 75.61953 -0.89858943
52.73143 75.712921 -0.45392656
51.35611 77.142471 0
51.322876 77.177017 0.51066673
52.810837 75.602295 -0.89830142
52.742531 75.673126 -0.45291102
51.35107 77.115959 0
51.30336 77.165428 0.51081175
52.814796 75.570175 -0.89686024
52.742882 75.644569 -0.45233044
51.346088 77.089432 0
51.319965 77.116455 0.50950563
52.826027 75.53064 -0.89484191
52.746899 75.612297 -0.4516049
51.348389 77.05545 0
51.307739 77.097397 0.50936067
52.808502 75.520844 -0.89512992
52.743744 75.587509 -0.45116934
51.336246 77.036423 0
51.320892 77.052231 0.50819951
52.823463 75.477661 -0.89282364
52.737007 75.566444 -0.45087877
51.338669 77.002457 0
51.30513 77.036896 0.50819951
52.813213 75.460449 -0.89253557
52.737549 75.537964 -0.45029879
51.337513 76.972252 0
