# .PCD v0.7 - Point Cloud Data file format
VERSION 0.7
FIELDS x y z
SIZE 4 4 4
TYPE F F F
COUNT 1 1 1
WIDTH 1672
HEIGHT 1
VIEWPOINT 0 0 0 1 0 0 0
POINTS 1672
DATA ascii
43.22049 81.89991 -0.76596051
56.645782 70.335075 0
16.199394 105.17645 1.7619944
55.288494 71.485954 -0.95744628
51.849514 74.441139 -0.89282364
43.222519 81.854477 -0.76508999
56.638134 70.326187 0
16.165443 105.10512 1.7614138
55.291138 71.465408 -0.95616359
51.848679 74.416359 -0.89195955
43.22464 81.809052 -0.76421887
56.638409 70.310501 0
56.572197 70.367264 0.27323085
55.286022 71.451553 -0.95573604
51.836098 74.401665 -0.89195955
43.211029 81.777191 -0.76392889
56.603092 70.325287 0
56.564507 70.358284 0.27323085
55.288746 71.431015 -0.95445174
51.827488 74.383598 -0.89167047
43.205379 81.738571 -0.76334828
56.559818 70.346741 0
64 64 0
55.287601 71.413826 -0.95359498
51.818886 74.365532 -0.8913824
43.199791 81.699951 -0.76276773
56.591789 70.304024 0
64 64 0
55.259068 71.419914 -0.95573604
51.81031 74.347458 -0.89109439
43.214073 81.644547 -0.76146162
35.673347 88.045639 0
64 64 0
55.257954 71.402702 -0.95487928
51.785969 74.342758 -0.89195955
43.196747 81.616051 -0.76131606
35.632393 88.021492 0
56.636971 70.234962 0.26945749
55.241165 71.398766 -0.95573604
51.765587 74.334656 -0.89253557
43.187378 81.580849 -0.76088107
35.575554 88.010712 0
64 64 0
55.251869 71.371628 -0.95359498
51.761009 74.31321 -0.89195955
43.174103 81.548981 -0.76059049
35.53463 87.986404 0
56.657688 70.187012 0.26815137
55.239029 71.364365 -0.95402414
51.756485 74.291748 -0.8913824
43.188713 81.493713 -0.75928438
35.533546 87.928551 0
56.65818 70.17144 0.26786083
55.226208 71.357071 -0.95445174
51.755939 74.266983 -0.89051837
56.61869 70.189438 -0.26902863
56.69783 70.12307 0
56.654709 70.159233 0.26771581
55.217323 71.346466 -0.95445174
51.74752 74.248856 -0.89022923
56.619179 70.173851 -0.26873863
56.770287 70.047455 0
56.675163 70.127022 0.26670027
55.220284 71.325974 -0.95316738
51.751034 74.220787 -0.88907605
56.611725 70.164925 -0.26873863
64 64 0
56.699688 70.09153 0.26553914
55.199596 71.325218 -0.95445174
51.734703 74.209297 -0.8893652
56.596302 70.162636 -0.26902863
64 64 0
56.724285 70.056107 0.26437804
55.210495 71.29818 -0.95231229
51.722378 74.194473 -0.8893652
56.608849 70.137093 -0.26830307
56.768433 70.004585 0
56.70499 70.057259 0.26481304
55.197735 71.290833 -0.95273983
51.710068 74.179626 -0.8893652
56.621445 70.111588 -0.26757753
56.781219 69.97924 0
56.705673 70.041817 0.26452303
55.184978 71.283455 -0.95316738
51.685825 74.174644 -0.89022923
56.634094 70.086113 -0.26685196
56.786041 69.960564 0
56.714405 70.01976 0.26394248
55.160336 71.285858 -0.95487928
51.697483 74.140022 -0.88850003
56.610703 70.090431 -0.26743251
56.79491 69.938606 0
56.711143 70.007652 0.26379749
55.163441 71.265388 -0.95359498
51.681248 74.128433 -0.88878804
56.623432 70.064987 -0.26670641
56.807838 69.913368 0
56.719944 69.985634 0.26321691
55.162598 71.248199 -0.95273983
51.673016 74.110268 -0.88850003
56.656284 70.023117 -0.26525527
56.808758 69.898064 0
56.712719 69.976837 0.26321691
55.138367 71.259125 -0.95487928
51.682915 74.089706 -0.88734686
56.628532 70.038437 -0.26612586
56.797134 69.900322 0
56.705093 69.975723 0.26336193
57.01952 69.704071 -0.99850464
56.938423 69.77034 -0.76016361
51.682755 74.064987 -0.8864817
56.661476 69.996643 -0.26467472
56.794037 69.888329 0
56.730072 69.940598 0.2622008
57.028389 69.682793 -0.99625307
56.879711 69.803986 -0.76572841
56.445839 70.157646 -0.54314291
56.654236 69.987778 -0.26467472
56.786926 69.879616 0
56.702763 69.948219 0.26292637
57.072781 69.63269 -0.98893613
56.880676 69.788895 -0.76487166
56.466488 70.125679 -0.54112571
56.647007 69.978897 -0.26467472
56.775795 69.874176 0
56.707664 69.929573 0.26249138
57.137012 69.566696 -0.97880524
56.889637 69.767349 -0.76315981
56.447037 70.12635 -0.54199088
56.651901 69.960182 -0.26423916
56.7687 69.86544 0
56.712616 69.910934 0.26205581
57.142147 69.548805 -0.97711605
56.910618 69.736145 -0.76016361
56.459759 70.100937 -0.54054856
56.668938 69.931694 -0.26336861
56.777805 69.843605 0
56.705479 69.902122 0.26205581
57.190804 69.495842 -0.96923679
56.943634 69.695335 -0.75588477
56.464455 70.082085 -0.53968453
56.653694 69.929352 -0.26365861
56.799103 69.811989 0
56.710491 69.883507 0.26162025
57.18021 69.490791 -0.9697991
56.944748 69.680367 -0.75502968
56.461155 70.069725 -0.53939539
56.670815 69.900917 -0.26278806
56.77182 69.819595 0
56.711475 69.868187 0.26133025
57.16169 69.492096 -0.9714883
56.937889 69.671844 -0.75502968
56.469959 70.047653 -0.53824222
56.655594 69.89856 -0.26307806
56.776955 69.801094 0
56.712502 69.852859 0.26103967
57.182827 69.461586 -0.9675476
56.931042 69.6633 -0.75502968
56.494938 70.012688 -0.53593701
56.672798 69.870193 -0.26220751
56.757778 69.802116 0
56.701366 69.847305 0.26118526
57.176231 69.453346 -0.9675476
56.948277 69.635521 -0.75246102
56.49173 70.000374 -0.53564787
56.677895 69.851601 -0.26177195
56.746693 69.796616 0
56.69838 69.835228 0.26103967
57.169647 69.445099 -0.9675476
56.965553 69.607796 -0.74989402
56.630089 69.875229 -0.52527046
56.687084 69.829788 -0.26119137
56.772255 69.761894 0
56.679138 69.836128 0.26147524
57.147163 69.449493 -0.9697991
56.958782 69.599297 -0.74989402
64 64 -0
56.675968 69.824196 -0.26133695
56.749004 69.766113 0
56.684296 69.817566 0.26103967
57.172432 69.415939 -0.96529603
56.948002 69.593971 -0.75032163
64 64 -0
56.673019 69.812103 -0.26119137
56.762444 69.741165 0
56.673191 69.811966 0.26118526
57.173859 69.40139 -0.96417135
56.925144 69.59819 -0.75203347
64 64 -0
56.686375 69.787125 -0.26046583
56.767742 69.722733 0
56.686562 69.786972 0.26045913
57.15538 69.402573 -0.9658584
56.922409 69.586456 -0.75160593
64 64 -0
56.691628 69.768616 -0.26003027
56.748589 69.723656 0
56.675484 69.781364 0.26060468
57.108925 69.425743 -0.9714883
56.92374 69.571541 -0.75074917
56.903603 69.587402 -0.50336134
56.725487 69.727638 -0.25857913
56.73349 69.721336 0
56.676678 69.766075 0.26031414
57.086388 69.429962 -0.97373986
56.908932 69.569336 -0.75160593
56.900921 69.57563 -0.50307333
56.726738 69.712433 -0.25828916
56.714298 69.722198 0
56.661533 69.763641 0.26060468
57.07983 69.421608 -0.97373986
56.922409 69.544937 -0.74946648
56.886055 69.573425 -0.50364935
56.752567 69.678001 -0.25712803
56.744263 69.684509 0
56.662766 69.74836 0.26031414
57.025234 69.45079 -0.98049444
56.895493 69.552185 -0.75160593
56.8997 69.548897 -0.50220817
56.762093 69.656441 -0.25654748
56.716896 69.691757 0
56.655823 69.739487 0.26031414
56.998619 69.457977 -0.98330837
56.88879 69.543594 -0.75160593
56.892998 69.540314 -0.50220817
56.747074 69.654076 -0.25683749
56.693604 69.695755 0
56.652988 69.727417 0.26016912
56.931866 69.4963 -0.99175
56.878048 69.538147 -0.75203347
56.898567 69.522194 -0.50134301
56.752541 69.635742 -0.25640246
56.690849 69.683716 0
56.650173 69.715347 0.26002413
56.909168 69.500214 -0.99400151
56.89164 69.513809 -0.74989402
56.867367 69.532639 -0.50307333
56.762161 69.614243 -0.25582191
56.696312 69.665321 0
56.643272 69.706467 0.26002413
56.876869 69.51149 -0.75074917
56.889328 69.501854 -0.501055
56.738945 69.61821 -0.25640246
56.677135 69.666039 0
64 64 0
56.866154 69.50602 -0.75117671
56.854015 69.515388 -0.50307333
56.736286 69.606255 -0.25625691
56.674412 69.654007 0
56.604828 69.707718 0.26089469
56.856365 69.506691 -0.99906695
56.846565 69.514244 -0.75288856
56.858887 69.504745 -0.50249618
56.745235 69.592354 -0.25582191
56.683365 69.640045 0
56.626068 69.684212 0.26002413
56.839905 69.5056 -0.75288856
56.852242 69.496109 -0.50249618
56.759094 69.567734 -0.25509581
56.684803 69.624863 0
56.619205 69.675301 0.26002413
56.847107 69.48632 -0.99850464
56.804741 69.518814 -0.75588477
56.829185 69.500061 -0.50364935
56.756493 69.555824 -0.25495079
56.653236 69.635017 0
56.59174 69.68219 0.2607497
56.836452 69.480759 -0.99906695
56.83477 69.48204 -0.75203347
56.838982 69.478821 -0.50249618
56.733276 69.559692 -0.25553137
56.667099 69.610329 0
56.601387 69.660599 0.26016912
56.845993 69.459763 -0.99681544
56.840401 69.464035 -0.75074917
56.836472 69.467033 -0.50220817
56.734818 69.544609 -0.25524136
56.647911 69.610939 0
56.5863 69.657959 0.26045913
56.835346 69.454201 -0.9973799
54.91798 70.913826 -0.95145553
56.788719 69.4897 -0.50509053
56.71986 69.542122 -0.25553137
56.632858 69.608353 0
56.579468 69.648994 0.26045913
56.810047 69.446068 -0.99906695
54.966782 70.842262 -0.94460803
56.746605 69.494125 -0.50710887
56.735493 69.502541 -0.25451523
56.606876 69.59996 0
56.561684 69.634193 0.26060468
56.827789 69.419006 -0.9956907
55.208378 70.642563 -0.91850412
56.727585 69.494713 -0.50797403
56.699818 69.515694 -0.25553137
56.61673 69.578476 0
56.55904 69.622063 0.26045913
56.796906 69.42868 -0.99906695
55.712852 70.245689 -0.86501026
56.729225 69.479691 -0.50739688
56.680706 69.516258 -0.25596693
56.601669 69.575821 0
56.543945 69.619324 0.2607497
56.822845 69.395538 -0.99456388
55.758656 70.195564 -0.85944712
56.714329 69.477119 -0.50797403
56.669895 69.510529 -0.25611192
56.58247 69.576248 0
56.533009 69.613434 0.26089469
56.795994 69.402115 -0.9973799
55.775814 70.16713 -0.85688013
56.699448 69.474518 -0.50855005
56.667397 69.49855 -0.25596693
56.567402 69.573532 0
56.534538 69.598175 0.26060468
55.788921 70.141815 -0.85474068
56.688698 69.468788 -0.50883806
56.64827 69.499031 -0.25640246
56.560673 69.564552 0
56.53611 69.582924 0.26031414
55.756824 70.150299 -0.85730767
51.350471 73.43792 -0.87956381
56.641628 69.490143 -0.25640246
56.549786 69.55867 0
56.533531 69.570793 0.26016912
55.761757 70.131142 -0.85602337
51.359837 73.407181 -0.87812155
56.609993 69.499855 -0.25727302
56.538902 69.552765 0
56.526806 69.561768 0.26016912
56.774059 69.364197 -0.99681544
55.787319 70.09671 -0.85260129
51.360928 73.382652 -0.87725747
56.61171 69.484718 -0.25698248
56.511292 69.559265 0
56.515923 69.555832 0.26031414
56.755325 69.36454 -0.99850464
55.775837 70.089836 -0.85302883
51.345444 73.370453 -0.87754548
56.592552 69.485069 -0.25741804
56.492043 69.559494 0
56.509216 69.546783 0.26031414
56.769287 69.340691 -0.9956907
55.751965 70.092094 -0.85474068
51.325821 73.361298 -0.87812155
56.565033 69.491554 -0.2581436
56.476948 69.55661 0
56.527592 69.519203 0.25944358
56.742386 69.347015 -0.99850464
55.777679 70.057762 -0.85131693
51.322838 73.339844 -0.87754548
56.562584 69.479485 -0.25799859
56.491188 69.532082 0
56.516747 69.513252 0.25958857
56.74411 69.33223 -0.9973799
55.778648 70.041733 -0.85046017
51.32407 73.315323 -0.87668031
56.539215 69.482803 -0.25857913
56.459351 69.541496 0
56.501724 69.510353 0.25987858
56.737675 69.323456 -0.9973799
55.763062 70.037872 -0.85131693
51.308655 73.303055 -0.87696838
56.528412 69.476852 -0.25872415
56.47784 69.513924 0
56.482494 69.510513 0.26031414
56.747654 69.302681 -0.99512839
55.743336 70.03701 -0.85260129
51.297424 73.28772 -0.87696838
56.492428 69.489296 -0.25974026
56.454391 69.517105 0
56.471649 69.504486 0.26045913
56.728947 69.302887 -0.99681544
55.756798 70.011894 -0.85046017
51.265301 73.287613 -0.87841064
56.473202 69.48941 -0.26017582
56.422493 69.52639 0
56.456596 69.501518 0.2607497
56.733952 69.292519 -0.9956907
55.749008 70.009941 -0.85088938
51.293144 73.255554 -0.8761043
56.465691 69.487923 -0.26032081
56.406528 69.531013 0
56.461685 69.490837 0.26045913
56.719349 69.289703 -0.99681544
55.737602 70.002983 -0.85131693
51.27779 73.243225 -0.8763923
56.459064 69.478813 -0.26032081
56.3367 69.567711 0
56.434021 69.497002 0.26118526
56.741753 69.26004 -0.99287683
55.746983 69.980942 -0.84960508
51.295956 73.206596 -0.87437397
56.444038 69.475792 -0.26061082
56.270981 69.601204 0
56.414772 69.497002 0.26162025
56.718929 69.263168 -0.99512839
55.681519 70.013069 -0.85559583
51.276447 73.197304 -0.87495112
56.437431 69.466652 -0.26061082
56.255775 69.597969 0
64 64 0
56.724945 69.245453 -0.9934392
55.428566 70.180168 -0.88084465
51.240173 73.200073 -0.87668031
56.42239 69.4636 -0.26090139
56.223694 69.606865 0
56.409935 69.47258 0.26133025
56.710369 69.242584 -0.99456388
54.891777 70.550484 -0.9351936
51.250061 73.169548 -0.87523913
43.366821 78.83905 -0.70979422
56.24649 69.576202 0
56.407543 69.460373 0.26118526
56.712292 69.227852 -0.9934392
54.792099 70.605309 -0.94460803
51.243191 73.151123 -0.87495112
43.357342 78.808052 -0.70950419
35.986511 84.095535 0
56.396732 69.454224 0.26133025
56.71011 69.216087 -0.99287683
54.784122 70.594177 -0.94460803
51.240562 73.129677 -0.87437397
43.369053 78.761932 -0.70848811
35.958 84.064713 0
56.385925 69.448051 0.26147524
56.683132 69.222038 -0.9956907
54.771973 70.586029 -0.94503725
51.221115 73.12027 -0.87495112
43.363911 78.727943 -0.70805311
56.319542 69.481529 0
56.375122 69.441864 0.26162025
56.689251 69.204346 -0.99400151
54.755661 70.580826 -0.94589239
51.201683 73.110817 -0.87552714
43.358833 78.693954 -0.70761752
56.308674 69.475273 0
56.37701 69.42662 0.26133025
56.695404 69.186676 -0.99231237
54.7519 70.566681 -0.94546479
51.207554 73.083366 -0.87437397
43.366528 78.65094 -0.7067464
56.268112 69.490082 0
56.353508 69.429443 0.2619108
56.68084 69.183731 -0.9934392
54.752357 70.549561 -0.94460803
51.200806 73.064911 -0.87408596
43.348839 78.625999 -0.7067464
56.231762 69.501785 0
56.338482 69.426201 0.2622008
56.691185 69.163155 -0.99118763
54.748642 70.535423 -0.94418049
51.206764 73.037506 -0.87293279
43.314201 78.613029 -0.70732701
64 64 0
56.319191 69.425941 0.26263636
56.680801 69.157242 -0.99175
54.736557 70.527191 -0.94460803
51.178936 73.033958 -0.87408596
43.30505 78.582047 -0.70703697
56.235508 69.471008 0
56.304153 69.422638 0.26292637
56.657944 69.16008 -0.99400151
54.724464 70.518951 -0.94503725
51.180733 73.009537 -0.87322086
43.27895 78.562996 -0.70732701
56.233158 69.458626 0
56.272087 69.431267 0.26379749
56.676674 69.133713 -0.99062532
54.72081 70.504784 -0.94460803
51.169853 72.994034 -0.87322086
43.248596 78.546906 -0.70776254
56.226566 69.449242 0
56.244259 69.436836 0.26452303
56.666313 69.127769 -0.99118763
54.70874 70.496521 -0.94503725
51.180191 72.963707 -0.87177962
43.260853 78.500969 -0.7067464
56.241314 69.424934 0
56.212147 69.445328 0.26539358
56.647617 69.127625 -0.99287683
54.726173 70.467659 -0.94246864
51.152397 72.960052 -0.87293279
56.213894 69.430107 -0.26511028
56.226234 69.421501 0
56.171471 69.459694 0.26655471
56.641426 69.118736 -0.99287683
54.705715 70.465248 -0.94375294
51.12035 72.95929 -0.87437397
56.147621 69.462234 -0.26714197
56.228226 69.406166 0
56.177666 69.441338 0.26611972
56.643604 69.104042 -0.99175
54.69791 70.454018 -0.94375294
51.147781 72.917183 -0.87177962
56.128212 69.461639 -0.26757753
56.221699 69.396774 0
33.051247 85.472992 1.0520089
56.637444 69.095154 -0.99175
54.681683 70.448608 -0.94460803
51.132767 72.904587 -0.87206769
64 64 -0
56.21946 69.384415 0
33.123596 85.367569 1.048671
56.643826 69.077599 -0.99006295
54.686562 70.428604 -0.9433254
51.147552 72.871407 -0.87033844
64 64 -0
56.195824 69.386833 0
33.136292 85.30368 1.047365
56.640759 69.073158 -0.99006295
54.691143 70.417145 -0.94246864
51.112377 72.884193 -0.87235677
64 64 -0
56.196869 69.37915 0
33.127701 85.282082 1.0472199
56.622086 69.072891 -0.99175
54.679169 70.408798 -0.94289619
51.114441 72.859818 -0.87149161
64 64 -0
56.198944 69.363831 0
33.01638 85.303642 1.0501221
56.628521 69.055359 -0.99006295
54.654495 70.409142 -0.94460803
51.120811 72.832542 -0.87033844
64 64 -0
56.175301 69.366173 0
32.969234 85.280884 1.0508478
56.630814 69.040703 -0.98893613
54.655224 70.392052 -0.94375294
51.105881 72.819893 -0.87062645
64 64 -0
56.186005 69.344963 0
32.93924 85.246315 1.0509933
56.603745 69.046112 -0.99175
54.643272 70.383652 -0.94418049
51.086681 72.810143 -0.8712036
56.128498 69.370346 -0.26612586
56.209656 69.31498 0
32.874962 85.235123 1.0522994
56.614456 69.025734 -0.98949844
54.622826 70.381004 -0.94546479
51.076046 72.794533 -0.8712036
56.126305 69.35791 -0.26598084
35.837303 83.16423 0
32.879402 85.177032 1.0512832
56.599972 69.022522 -0.99062532
54.644863 70.349487 -0.94246864
51.091118 72.761475 -0.86947328
56.128429 69.342567 -0.26569083
35.827095 83.121414 0
32.888237 85.116066 1.0501221
56.59391 69.013573 -0.99062532
54.645691 70.332428 -0.9416135
51.0891 72.740074 -0.86889726
56.11338 69.338867 -0.26598084
35.804008 83.087357 0
32.871346 85.072632 1.0498321
56.613136 68.987556 -0.98724693
54.629547 70.326859 -0.94246864
51.099979 72.709991 -0.86745608
56.106937 69.329338 -0.26598084
35.785278 83.050369 0
32.85453 85.02919 1.0495416
56.590256 68.989983 -0.98949844
54.643196 70.301193 -0.94032919
51.068016 72.708847 -0.86889726
56.08326 69.331406 -0.26656139
35.77092 83.010437 0
32.83345 84.98864 1.0493966
56.584229 68.981026 -0.98949844
54.610027 70.307053 -0.94289619
51.066101 72.687439 -0.86832011
56.081135 69.318939 -0.2664164
35.778206 82.956009 0
32.821056 84.942268 1.048961
56.586651 68.966408 -0.98837376
54.598137 70.298569 -0.9433254
51.08139 72.654541 -0.86659092
56.074715 69.309372 -0.2664164
35.755318 82.921898 0
32.761234 84.927719 1.0501221
56.563755 68.968742 -0.99062532
54.616154 70.270088 -0.94075674
51.045143 72.656158 -0.86832011
56.063988 69.302673 -0.26656139
35.758453 82.870399 0
32.761887 84.872635 1.0492516
56.59581 68.934387 -0.98555988
54.595764 70.267288 -0.9420411
51.013172 72.654839 -0.86976135
42.872719 78.079903 -0.70906866
35.739998 82.833374 0
32.75399 84.823349 1.048671
56.560242 68.945122 -0.98949844
54.579651 70.261597 -0.94289619
51.037174 72.616241 -0.86745608
42.924973 78.008331 -0.7067464
35.725941 82.793449 0
32.746162 84.774078 1.0480905
56.558502 68.933327 -0.98893613
54.584919 70.241707 -0.9416135
51.009525 72.612007 -0.86860925
42.886391 77.997223 -0.70747256
35.703255 82.75927 0
32.760063 84.710457 1.0467844
56.548313 68.927132 -0.98949844
54.577385 70.230331 -0.9416135
51.020718 72.582031 -0.867167
42.85215 77.98317 -0.70805311
35.693619 82.716461 0
32.709061 84.68988 1.047655
56.542366 68.918121 -0.98949844
54.548439 70.23307 -0.94375294
51.02763 72.554955 -0.86601382
42.874329 77.931847 -0.7067464
35.684067 82.673645 0
32.727455 84.623451 1.0462039
56.532169 68.911911 -0.99006295
54.566643 70.20472 -0.94118595
51.02594 72.533592 -0.86543775
42.861847 77.903458 -0.70660144
35.678917 82.627975 0
32.737297 84.562805 1.0450428
56.51775 68.908447 -0.99118763
54.563454 70.190491 -0.94075674
51.006996 72.523575 -0.86601382
42.784222 77.917824 -0.70863366
35.656429 82.593742 0
32.803722 84.465157 1.0419949
56.537331 68.882721 -0.98781145
54.551674 70.181908 -0.94118595
50.988037 72.513542 -0.86659092
42.767418 77.892174 -0.70863366
35.638336 82.556633 0
32.983398 84.293724 1.0351738
56.534382 68.878204 -0.98781145
54.543648 70.179001 -0.9416135
50.978573 72.508507 -0.86687893
42.737282 77.893555 -0.70935923
35.648911 82.525261 0
33.149506 84.158432 1.0292232
56.515736 68.877502 -0.98949844
54.536186 70.167572 -0.9416135
50.97263 72.489944 -0.86659092
42.746643 77.850822 -0.70848811
35.635277 82.485306 0
33.334145 83.984955 1.0222571
56.539658 68.849075 -0.98555988
54.537361 70.150528 -0.94075674
50.971062 72.468552 -0.86601382
42.712494 77.836464 -0.70906866
35.626041 82.44252 0
30.464825 85.797203 1.117028
56.491173 68.867691 -0.99118763
54.538544 70.133514 -0.93990165
50.952152 72.458435 -0.86659092
42.66526 77.830521 -0.7100848
35.621246 82.396896 0
30.351295 85.81321 1.1199307
56.500782 68.83577 -0.98837376
54.506489 70.121758 -0.9416135
50.970871 72.401649 -0.86399657
42.645004 77.77047 -0.70964921
35.581261 82.325432 0
30.084675 85.869827 1.1270424
56.499214 68.823959 -0.98781145
54.512058 70.101952 -0.94032919
50.952034 72.391495 -0.86457258
42.624016 77.747467 -0.70979422
41.700855 78.341171 0
30.032055 85.845688 1.127913
56.484844 68.820374 -0.98893613
54.504692 70.090477 -0.94032919
50.946255 72.372932 -0.86428457
42.616161 77.716019 -0.70950419
41.871941 78.193382 0
29.996944 85.810242 1.128203
56.474747 68.814026 -0.98949844
54.493019 70.081764 -0.94075674
50.953579 72.346001 -0.8631314
42.555832 77.71817 -0.71095532
42.148544 77.978722 0
42.262741 77.90567 0.72067255
56.503208 68.783058 -0.98499537
54.507317 70.056473 -0.93861735
50.930416 72.338585 -0.86399657
42.517357 77.706238 -0.71168143
42.302803 77.843124 0
42.237183 77.884995 0.72096312
56.463135 68.795822 -0.98949844
54.469677 70.064293 -0.9416135
50.911629 72.328331 -0.86457258
42.513969 77.671898 -0.71124589
42.316818 77.797348 0
42.211662 77.864258 0.7212531
56.47451 68.775818 -0.98724693
54.488373 70.036263 -0.93904489
50.914665 72.304207 -0.86370856
42.528183 77.626427 -0.71022975
42.282585 77.782288 0
64 64 0
56.455856 68.774879 -0.98893613
54.472404 70.030258 -0.93990165
50.913391 72.282852 -0.8631314
42.480991 77.619934 -0.71124589
42.402294 77.669739 0
64 64 0
56.46299 68.757622 -0.98724693
54.452095 70.02697 -0.94118595
50.907764 72.264275 -0.86284339
42.499706 77.571732 -0.7100848
42.429798 77.61586 0
64 64 0
56.452934 68.751228 -0.98781145
54.44482 70.015427 -0.94118595
50.875904 72.262222 -0.86428457
42.474537 77.55127 -0.71037477
42.408958 77.592552 0
64 64 0
56.438599 68.747505 -0.98893613
54.463654 69.987488 -0.93861735
50.887833 72.232605 -0.86284339
42.497787 77.500381 -0.70906866
42.43222 77.54155 0
42.167904 77.707504 0.71994698
56.424248 68.743759 -0.99006295
54.430313 69.992317 -0.94118595
50.882275 72.21402 -0.86255538
42.512306 77.455093 -0.70805311
42.415874 77.51548 0
42.14254 77.686638 0.72023755
56.448696 68.715759 -0.98612225
54.449215 69.964432 -0.93861735
50.87236 72.198158 -0.86255538
42.491661 77.43187 -0.70819807
42.399559 77.489388 0
42.121613 77.662964 0.72038257
56.425751 68.717377 -0.98837376
54.450722 69.947464 -0.9377622
50.871254 72.176819 -0.86197823
42.462212 77.414116 -0.70863366
42.405365 77.449524 0
42.074238 77.655754 0.72139865
56.445965 68.692131 -0.98499537
54.417381 69.952164 -0.94032919
50.865772 72.158218 -0.86169022
42.463676 77.377113 -0.70805311
42.4245 77.401451 0
42.044521 77.637466 0.72183371
56.410057 68.701736 -0.98893613
54.423294 69.932472 -0.93904489
50.869122 72.134171 -0.86082506
42.447529 77.351082 -0.70805311
42.395042 77.383598 0
41.705559 77.810715 0.73242873
56.424503 68.686455 -0.98668456
54.406609 69.934792 -0.94032919
50.851006 72.134399 -0.86169022
42.435051 77.34079 -0.70819807
42.400246 77.36232 0
41.542545 77.892929 0.73750818
56.401546 68.687973 -0.98893613
54.408176 69.917809 -0.93947411
50.845585 72.115799 -0.86140221
42.43222 77.306534 -0.70776254
42.348679 77.358078 0
41.521355 77.868507 0.7376532
56.395889 68.678787 -0.98893613
54.401031 69.906212 -0.93947411
50.835789 72.099892 -0.86140221
42.402874 77.288635 -0.70819807
42.336983 77.329185 0
41.557732 77.808655 0.73591149
56.407566 68.658966 -0.98668456
54.380791 69.902657 -0.94075674
50.830433 72.081268 -0.86111313
42.408974 77.248947 -0.70747256
42.307594 77.311157 0
41.589771 77.751633 0.7343154
56.393265 68.655098 -0.98781145
54.386787 69.882996 -0.93947411
50.8339 72.057259 -0.86024904
42.424019 77.203857 -0.70645642
42.304832 77.276794 0
41.604202 77.705559 0.73329926
56.378979 68.651192 -0.98893613
54.392838 69.86335 -0.9381898
50.837429 72.033257 -0.85938388
42.385902 77.191307 -0.70718199
42.311035 77.237 0
41.583229 77.68119 0.73344427
56.386391 68.634048 -0.98724693
54.398922 69.843727 -0.93690544
50.832146 72.014656 -0.85909587
42.396606 77.148979 -0.7063114
42.259487 77.232437 0
41.571152 77.651398 0.73329926
56.385136 68.622215 -0.98668456
54.378696 69.840118 -0.9381898
50.818054 72.001427 -0.85938388
42.38517 77.120171 -0.70616645
42.230164 77.214264 0
41.545792 77.629669 0.73358929
56.392601 68.60511 -0.98499537
54.384827 69.820511 -0.93690544
50.795113 71.99353 -0.86024904
42.298218 77.137093 -0.70848811
42.209763 77.190643 0
41.556007 77.586388 0.73271871
56.387043 68.595917 -0.98499537
54.360222 69.819504 -0.93861735
50.78104 71.98024 -0.86053705
42.326843 77.084007 -0.70703697
42.131447 77.201965 0
41.490662 77.588806 0.7343154
56.368431 68.594582 -0.98668456
54.35759 69.805206 -0.9381898
50.784706 71.956253 -0.85967189
42.31105 77.057808 -0.70703697
42.119984 77.172844 0
41.452003 77.574997 0.73504096
56.349812 68.593201 -0.98837376
54.372589 69.780334 -0.93605036
50.779533 71.937622 -0.85938388
42.286385 77.036942 -0.70732701
42.010376 77.20266 0
41.440071 77.545074 0.73489594
56.348621 68.581352 -0.98781145
54.370029 69.766052 -0.93562114
50.761086 71.926949 -0.85995996
42.333061 76.97332 -0.70529532
41.95425 77.200142 0
32.778679 82.694115 1.0163065
56.347466 68.569489 -0.98724693
54.363068 69.75441 -0.93562114
50.755955 71.908295 -0.85967189
42.272789 76.97377 -0.7067464
41.80426 77.25354 0
32.738266 82.66703 1.0168871
56.346313 68.55764 -0.98668456
54.338478 69.753273 -0.93733305
50.768627 71.879059 -0.85823071
42.261589 76.944855 -0.70660144
41.56913 77.357201 0
32.715736 82.629242 1.0168871
56.332066 68.553581 -0.98781145
54.340355 69.736359 -0.9364779
50.781349 71.849861 -0.85678953
42.241501 76.921227 -0.7067464
41.4814 77.372612 0
32.675373 82.602043 1.0174676
56.339691 68.536545 -0.98612225
54.333427 69.724678 -0.9364779
50.749626 71.847061 -0.85823071
42.212486 76.90287 -0.70718199
41.402569 77.382515 0
32.630569 82.577423 1.0181931
56.321083 68.535042 -0.98781145
54.339783 69.705162 -0.9351936
50.731255 71.836296 -0.85880679
42.210342 76.868607 -0.7067464
41.39537 77.349915 0
32.554443 82.571213 1.0199348
56.333122 68.515442 -0.98555988
54.324043 69.6987 -0.93605036
50.730701 71.815018 -0.85823071
42.190315 76.84491 -0.70689195
41.397194 77.312027 0
32.460381 82.575401 1.0222571
56.332069 68.503593 -0.98499537
54.317162 69.687004 -0.93605036
50.707882 71.806839 -0.85909587
42.188259 76.810654 -0.70645642
41.358688 77.297882 0
32.321457 82.605705 1.0260304
56.313473 68.502029 -0.98668456
54.332462 69.662323 -0.9339093
50.720772 71.777702 -0.85765469
42.168316 76.786911 -0.70660144
41.378571 77.249474 0
31.469437 83.053291 1.0528799
56.310753 68.497391 -0.98668456
54.311317 69.666847 -0.93562114
50.70269 71.777504 -0.85851872
42.138168 76.786835 -0.70732701
41.375057 77.233177 0
31.332344 83.107094 1.0569433
56.296539 68.493217 -0.98781145
54.30003 69.65773 -0.93605036
50.706696 71.753624 -0.85765469
42.145176 76.747322 -0.70660144
41.435513 77.161247 0
31.264381 83.093796 1.058395
56.299908 68.47879 -0.98668456
54.288765 69.648582 -0.9364779
50.710754 71.729752 -0.85678953
42.138763 76.715683 -0.7063114
41.460114 77.110428 0
31.182938 83.088196 1.0602816
56.281311 68.477135 -0.98837376
54.281948 69.636848 -0.9364779
50.719326 71.7033 -0.85563636
42.091961 76.707504 -0.70732701
41.502815 77.049232 0
31.159897 83.048523 1.0602816
56.293503 68.457626 -0.98612225
54.284042 69.619949 -0.93562114
50.69659 71.695023 -0.85650152
42.067619 76.686234 -0.70761752
41.509605 77.009003 0
30.979469 83.099899 1.0653611
56.28812 68.448318 -0.98612225
54.277256 69.608208 -0.93562114
50.687302 71.67894 -0.85650152
42.038795 76.667519 -0.70805311
41.480377 76.989624 0
30.861881 83.11451 1.0684088
56.291573 68.433922 -0.98499537
54.270489 69.596458 -0.93562114
50.678032 71.662849 -0.85650152
42.010002 76.648735 -0.70848811
41.455666 76.967598 0
30.667637 83.172913 1.0739239
56.299431 68.417023 -0.98330837
54.263733 69.584694 -0.93562114
50.650833 71.657043 -0.85765469
42.026279 76.604065 -0.70747256
41.458069 76.929985 0
30.599422 83.158478 1.0753751
56.280876 68.415283 -0.98499537
54.252522 69.575485 -0.93605036
50.668541 71.625496 -0.85592437
41.984009 76.592979 -0.70834309
41.2211 77.029358 0
30.436451 83.198097 1.0798745
56.275547 68.405952 -0.98499537
54.268105 69.55098 -0.9339093
50.672821 71.601685 -0.85505927
41.950752 76.576668 -0.70892364
40.970268 77.135925 0
30.205635 83.27597 1.0865506
56.252563 68.406662 -0.98724693
54.23016 69.556984 -0.93690544
50.663647 71.585579 -0.85505927
41.931053 76.552582 -0.70906866
40.80965 77.19043 0
30.128178 83.265945 1.0882918
56.256073 68.392288 -0.98612225
54.227913 69.542641 -0.9364779
50.645485 71.57457 -0.85563636
41.97015 76.49514 -0.70732701
40.703178 77.21376 0
29.946705 83.314743 1.0933717
56.237499 68.390434 -0.98781145
54.234634 69.523247 -0.9351936
50.649853 71.550781 -0.8547712
41.936974 76.478752 -0.70790756
40.678177 77.19072 0
29.823883 83.329865 1.0965645
56.241062 68.376053 -0.98668456
54.227966 69.511444 -0.9351936
50.65876 71.524483 -0.85361803
41.935478 76.444427 -0.70747256
40.680393 77.152298 0
29.737186 83.324287 1.0985962
56.266788 68.349236 -0.98274386
54.243687 69.487053 -0.93305415
50.640656 71.513435 -0.85419518
41.906883 76.425392 -0.70790756
40.600994 77.159836 0
29.627796 83.331284 1.101354
56.252666 68.344864 -0.98387069
54.201241 69.495346 -0.9364779
50.627075 71.499817 -0.85448319
41.90094 76.393608 -0.70761752
40.539719 77.157013 0
29.577274 83.304977 1.1022246
56.23856 68.340454 -0.98499537
54.194607 69.483505 -0.9364779
50.622536 71.481125 -0.85419518
41.890514 76.364365 -0.70747256
27.808987 84.239227 0
64 64 0
56.22887 68.333557 -0.98555988
54.223862 69.451645 -0.93305415
50.618038 71.462433 -0.8539061
41.843834 76.355354 -0.70848811
27.916386 84.121971 0
64 64 0
56.241405 68.314285 -0.98330837
54.199333 69.449814 -0.93476605
50.618065 71.441231 -0.85333002
41.887962 76.295738 -0.70660144
27.787468 84.136536 0
29.498428 83.185135 1.1025151
56.209541 68.319687 -0.98668456
54.179279 69.445435 -0.93605036
50.595505 71.432587 -0.85419518
41.89584 76.256416 -0.70587587
27.740406 84.105385 0
29.475273 83.143433 1.1025151
56.199883 68.312729 -0.98724693
54.177212 69.431076 -0.93562114
50.563904 71.428894 -0.85563636
54.414726 69.299751 -0.30589211
27.825462 84.001114 0
29.452168 83.1017 1.1025151
56.201721 68.305565 -0.98668456
54.178425 69.422661 -0.9351936
54.616817 69.180618 -0.59733969
54.429726 69.283913 -0.30531156
27.936401 83.911331 0
29.436089 83.083328 1.1026602
56.205421 68.291237 -0.98555988
54.167385 69.413261 -0.93562114
54.678543 69.131851 -0.59301502
54.409683 69.279869 -0.30574712
28.062832 83.784912 0
29.335667 83.08416 1.1051273
56.195793 68.284264 -0.98612225
54.169846 69.396439 -0.93476605
54.645134 69.135529 -0.59474534
54.457977 69.238266 -0.30400544
28.207767 83.648796 0
29.139526 83.137291 1.1106424
56.19062 68.274826 -0.98612225
54.16333 69.38456 -0.93476605
54.65255 69.11676 -0.59388018
54.479 69.211761 -0.30313489
28.47168 83.44809 0
28.95689 83.18248 1.1157218
56.194389 68.260513 -0.98499537
54.138805 69.382507 -0.9364779
54.66 69.09803 -0.59301502
54.541138 69.162903 -0.30095765
28.54871 83.350288 0
28.764961 83.232254 1.1210918
56.18858 68.23922 -0.98443305
54.148384 69.34642 -0.93433851
54.67952 69.058174 -0.59099782
54.51498 69.147469 -0.30139321
28.588959 83.217392 0
28.485653 83.27346 1.1284935
56.183464 68.229774 -0.98443305
54.146461 69.332062 -0.9339093
54.668869 69.04937 -0.59128582
54.559052 69.108795 -0.29979652
28.53373 83.191925 0
28.361847 83.284943 1.1316863
56.178356 68.220329 -0.98443305
54.121952 69.329903 -0.93562114
54.658226 69.040543 -0.59157383
54.557453 69.094925 -0.29965153
28.451023 83.181183 0
28.228802 83.301086 1.1351697
56.168793 68.21328 -0.98499537
54.120037 69.315536 -0.9351936
54.67947 69.014557 -0.58984464
54.578754 69.068741 -0.29878098
28.409538 83.148087 0
28.063648 83.334175 1.1396686
56.172657 68.199013 -0.98387069
54.118141 69.30117 -0.93476605
54.664307 69.008179 -0.59042066
54.581802 69.052437 -0.29849041
28.193794 83.208405 0
27.889191 83.371811 1.1444581
56.149662 68.199142 -0.98612225
54.102695 69.294067 -0.93562114
54.67651 68.987129 -0.58926749
54.584862 69.036156 -0.2982004
27.959496 83.278053 0
27.755829 83.386993 1.1479415
56.162529 68.180084 -0.98387069
54.118954 69.27002 -0.93348175
54.716125 68.951523 -0.58638513
54.592545 69.017433 -0.29776487
27.793869 83.310417 0
27.521507 83.455681 1.1546175
56.161968 68.168228 -0.98330837
54.130722 69.248436 -0.93176985
54.705585 68.942726 -0.58667314
54.57272 69.013382 -0.2982004
27.67865 83.315529 0
27.378735 83.475021 1.1583909
56.152451 68.161133 -0.98387069
54.115311 69.241325 -0.93262661
54.681339 68.941185 -0.58782631
54.594227 68.987381 -0.29732931
27.627739 83.286263 0
27.208324 83.508659 1.1630348
56.138454 68.156395 -0.98499537
54.099915 69.234169 -0.93348175
54.7211 68.905746 -0.58494395
54.583618 68.978439 -0.29747429
27.618271 83.235001 0
27.06073 83.52977 1.1669537
56.133438 68.146896 -0.98499537
54.098133 69.21981 -0.93305415
54.701447 68.901772 -0.58580905
54.586792 68.962212 -0.29718429
54.340672 69.091957 0
26.885471 83.565086 1.1717427
56.114933 68.144478 -0.98668456
54.087296 69.210228 -0.93348175
54.70927 68.883316 -0.58494395
54.589996 68.946007 -0.29689431
54.293064 69.102074 0
26.723843 83.592773 1.176097
56.12344 68.127869 -0.98499537
54.062817 69.207779 -0.9351936
54.740032 68.852875 -0.58263761
54.570229 68.941864 -0.29732931
54.328392 69.068604 0
26.557514 83.62249 1.180596
56.131954 68.111298 -0.98330837
54.05653 69.19577 -0.9351936
54.702076 68.858452 -0.58465588
54.568867 68.928055 -0.29718429
54.382244 69.025574 0
26.38184 83.656654 1.1853855
56.095459 68.118217 -0.98724693
54.068474 69.174263 -0.93348175
54.719166 68.835258 -0.58321363
54.599792 68.897446 -0.29602319
54.297707 69.054832 0
26.261333 83.661606 1.1884333
56.099499 68.103981 -0.98612225
54.053108 69.167 -0.93433851
54.722504 68.819275 -0.58263761
54.58004 68.89328 -0.29645875
54.277748 69.050308 0
26.191494 83.639946 1.1898843
56.110558 68.092186 -0.98443305
54.072769 69.14917 -0.93219906
54.701225 68.823196 -0.58379078
54.590931 68.880402 -0.29602319
64 64 0
26.115059 83.650597 1.191916
56.128185 68.070984 -0.98161918
54.066555 69.137169 -0.93219906
54.686222 68.816704 -0.5843668
54.580429 68.871414 -0.29616818
64 64 0
26.165184 83.56662 1.1895944
56.087139 68.080093 -0.98612225
54.051239 69.129868 -0.93305415
54.707985 68.791229 -0.58263761
54.611504 68.840981 -0.29500708
64 64 0
-37.495895 116.33418 3.1892221
56.113853 68.054268 -0.98218149
54.045048 69.117844 -0.93305415
54.702202 68.779999 -0.58263761
54.582535 68.841515 -0.29573318
64 64 0
-37.374199 116.11647 3.1834171
56.099907 68.049377 -0.98330837
54.029739 69.110489 -0.9339093
54.728664 68.752235 -0.58061928
54.585953 68.825386 -0.29544261
54.28286 68.980743 0
64 64 0
56.081459 68.046761 -0.98499537
54.032707 69.093765 -0.93305415
54.722927 68.741035 -0.58061928
54.584751 68.811646 -0.29529762
54.286125 68.964256 0
54.302685 68.955795 0.30414429
56.076576 68.037186 -0.98499537
54.026562 69.081718 -0.93305415
54.694164 68.741562 -0.58206046
54.588215 68.795547 -0.29500708
54.303318 68.940704 0
54.3106 68.936996 0.30370873
56.076229 68.025314 -0.98443305
54.006691 69.076645 -0.93433851
54.697659 68.725632 -0.58148444
54.610218 68.77005 -0.29413649
54.34375 68.905418 0
54.253685 68.951172 0.30530486
56.080429 68.011147 -0.98330837
54.014309 69.057602 -0.93305415
54.728874 68.695686 -0.57917809
54.609093 68.756355 -0.29399151
54.384258 68.870232 0
54.247711 68.939392 0.30530486
56.071056 68.00386 -0.98387069
54.008205 69.045532 -0.93305415
54.723206 68.684486 -0.57917809
54.594082 68.749687 -0.29428151
54.434135 68.830452 0
54.232464 68.932289 0.30559543
56.057156 67.99884 -0.98499537
53.992954 69.038071 -0.9339093
54.717552 68.673271 -0.57917809
54.611557 68.726639 -0.29355595
54.498047 68.783783 0
54.207943 68.929832 0.30617598
56.047775 67.991531 -0.98555988
54.005211 69.016769 -0.93219906
54.721149 68.657417 -0.57860208
54.587273 68.724609 -0.29413649
54.515526 68.760628 0
64 64 0
56.065693 67.970543 -0.98274386
53.985394 69.011581 -0.93348175
54.747917 68.62999 -0.57658374
54.567623 68.720215 -0.29457206
54.467892 68.770126 0
64 64 0
56.047256 67.967758 -0.98443305
53.960968 69.008644 -0.9351936
54.742329 68.618813 -0.57658374
54.571236 68.70417 -0.29428151
54.518028 68.730721 0
64 64 0
56.024265 67.967201 -0.98668456
53.964111 68.991943 -0.93433851
54.695072 68.628349 -0.57917809
54.584171 68.683517 -0.29370096
54.540268 68.705353 0
64 64 0
56.014931 67.959816 -0.98724693
53.953491 68.982086 -0.93476605
54.731194 68.59642 -0.57658374
54.573849 68.674454 -0.29384652
54.529934 68.696228 0
64 64 0
56.00103 67.954674 -0.98837376
53.947479 68.969948 -0.93476605
54.725647 68.58522 -0.57658374
54.57288 68.660751 -0.29370096
54.496277 68.698616 0
64 64 0
56.009937 67.938263 -0.98668456
53.955299 68.950981 -0.93348175
54.720112 68.574013 -0.57658374
54.590557 68.637871 -0.2929754
54.471931 68.696335 0
54.17593 68.842239 0.3058854
55.991497 67.935333 -0.98837376
53.967758 68.929787 -0.93176985
54.742439 68.54911 -0.57485449
54.59428 68.621918 -0.29268539
54.517639 68.659576 0
54.25869 68.786819 0.30312818
55.998257 67.92601 -0.98724693
53.93251 68.93956 -0.93476605
54.762928 68.53212 -0.57341224
54.605492 68.60936 -0.29224983
54.538185 68.642387 0
54.237141 68.790092 0.30370873
56.025459 67.900719 -0.98330837
53.949604 68.916107 -0.93262661
54.766743 68.516411 -0.57283622
54.623268 68.586594 -0.29152426
54.523239 68.635521 0
54.254696 68.766876 0.30298319
56.011623 67.895531 -0.98443305
53.920605 68.915215 -0.93476605
54.738049 68.516586 -0.5742774
54.627083 68.570702 -0.29123372
54.526993 68.619507 0
54.276978 68.741425 0.30211207
56.01149 67.883652 -0.98387069
53.928528 68.896294 -0.93348175
54.765167 68.489555 -0.57225907
54.630905 68.554832 -0.29094371
54.52142 68.608055 0
54.350708 68.691048 0.29964483
55.974789 67.889511 -0.98781145
53.918003 68.88636 -0.9339093
54.75975 68.478394 -0.57225907
54.597359 68.557098 -0.29181427
54.548649 68.580711 0
54.424545 68.640854 0.29717761
55.970093 67.879814 -0.98781145
53.907471 68.876411 -0.93433851
54.763653 68.46273 -0.57168305
54.629292 68.527649 -0.29065317
54.524376 68.578339 0
54.461052 68.60894 0.2958715
55.956264 67.874512 -0.98893613
53.901585 68.864212 -0.93433851
54.753609 68.453812 -0.57197106
54.633183 68.511818 -0.29036316
54.546997 68.553329 0
54.464844 68.592903 0.29558149
55.94701 67.866989 -0.98949844
53.89109 68.854225 -0.93476605
54.748238 68.442635 -0.57197106
54.637115 68.495995 -0.29007259
54.5415 68.541908 0
54.464001 68.579124 0.29543594
55.969837 67.844093 -0.98612225
53.894505 68.83757 -0.9339093
54.752197 68.426987 -0.57139504
54.65044 68.4757 -0.28949204
54.545399 68.525986 0
54.444408 68.574326 0.2958715
55.960617 67.836578 -0.98668456
53.893295 68.823151 -0.93348175
54.76553 68.406898 -0.57024187
54.635651 68.46888 -0.28978261
54.558727 68.505592 0
64 64 0
55.983513 67.813766 -0.98330837
53.892105 68.808731 -0.93305415
54.760212 68.395737 -0.57024187
54.625568 68.459793 -0.2899276
54.534489 68.50312 0
64 64 0
55.965149 67.8106 -0.98499537
53.886303 68.796516 -0.93305415
54.773602 68.375702 -0.5690887
54.624878 68.446236 -0.28978261
54.561981 68.476067 0
64 64 0
55.951351 67.805237 -0.98612225
53.875877 68.786484 -0.93348175
54.791702 68.3535 -0.56764752
54.628918 68.430458 -0.28949204
54.561279 68.46244 0
64 64 0
55.937576 67.799843 -0.98724693
53.884022 68.767685 -0.93219906
54.7771 68.346779 -0.56822354
54.647072 68.408058 -0.28876647
54.522934 68.466568 0
64 64 0
55.937584 67.787933 -0.98668456
53.873627 68.757637 -0.93262661
54.776527 68.333435 -0.56793553
54.646454 68.394547 -0.28862149
54.550522 68.439613 0
54.425613 68.498299 0.29543594
55.919205 67.78466 -0.98837376
53.863239 68.747574 -0.93305415
54.752563 68.331062 -0.5690887
54.650551 68.378838 -0.28833148
54.578167 68.412735 0
54.439011 68.477913 0.29485539
55.942272 67.761993 -0.98499537
53.852863 68.737495 -0.93348175
54.812965 68.289238 -0.56505203
54.631157 68.374123 -0.28876647
54.572842 68.401352 0
54.433605 68.466354 0.29485539
55.919304 67.760826 -0.98724693
53.842495 68.727394 -0.9339093
54.798401 68.282509 -0.56562918
54.658844 68.347458 -0.28775093
54.591118 68.378975 0
54.442337 68.448219 0.29442036
55.928581 67.744652 -0.98555988
53.827469 68.719444 -0.93476605
54.812004 68.26268 -0.56447601
54.658325 68.333977 -0.28760538
54.571667 68.374176 0
54.484119 68.414795 0.29296869
55.919456 67.73703 -0.98612225
53.8311 68.702835 -0.9339093
54.778698 68.264595 -0.5662052
54.653095 68.322685 -0.28760538
54.590004 68.35186 0
54.464638 68.409843 0.29340425
55.910336 67.729385 -0.98668456
53.834743 68.686249 -0.93305415
54.797035 68.242622 -0.56476402
54.647881 68.311386 -0.28760538
54.565845 68.349205 0
54.449886 68.402664 0.29369426
55.926548 67.715996 -0.98443305
53.845909 68.67366 -0.93176985
54.813271 68.228409 -0.56361085
54.659424 68.299225 -0.28717038
54.577408 68.336975 0
64 64 0
55.931293 67.702011 -0.98330837
53.83559 68.663536 -0.93219906
54.78936 68.225937 -0.56476402
54.640083 68.294426 -0.28760538
54.581627 68.321251 0
64 64 0
55.903725 67.70282 -0.98612225
53.820633 68.655518 -0.93305415
54.793663 68.21051 -0.564188
54.644341 68.278801 -0.28731537
54.576412 68.309868 0
64 64 0
55.917751 67.684601 -0.98387069
53.810349 68.645348 -0.93348175
54.807407 68.190796 -0.56303483
54.643902 68.265335 -0.28717038
54.590157 68.289841 0
64 64 0
55.885555 67.687447 -0.98724693
53.804741 68.633026 -0.93348175
54.783512 68.188248 -0.564188
54.652954 68.247574 -0.28673482
54.594467 68.274155 0
64 64 0
55.885731 67.675545 -0.98668456
53.775772 68.631294 -0.93562114
54.792603 68.1707 -0.56332284
54.666763 68.227699 -0.28615424
54.594048 68.260643 0
64 64 0
55.881294 67.665733 -0.98668456
53.779533 68.614716 -0.93476605
54.815845 68.146805 -0.56159365
54.661663 68.216423 -0.28615424
54.579426 68.253555 0
64 64 0
55.881721 67.641953 -0.98555988
53.796509 68.5774 -0.93219906
54.796421 68.12883 -0.56216967
54.651501 68.19384 -0.28615424
54.607147 68.213737 0
64 64 0
55.895885 67.62384 -0.98330837
53.790985 68.565071 -0.93219906
54.815048 68.107147 -0.56072849
54.660675 68.176178 -0.28571871
54.573563 68.215134 0
64 64 0
55.86367 67.626457 -0.98668456
53.771423 68.55899 -0.93348175
54.791191 68.104469 -0.56188166
54.65564 68.164886 -0.28571871
54.592243 68.193146 0
64 64 0
55.877872 67.608368 -0.98443305
53.761234 68.548714 -0.9339093
54.805149 68.084938 -0.56072849
54.650612 68.153595 -0.28571871
54.61573 68.16909 0
64 64 0
55.850288 67.608833 -0.98724693
53.760433 68.534264 -0.93348175
54.800217 68.07383 -0.56072849
54.674103 68.129677 -0.28484815
54.563099 68.178825 0
64 64 0
55.850578 67.596939 -0.98668456
53.736176 68.530182 -0.9351936
54.814232 68.054352 -0.55957532
54.635834 68.133095 -0.28586426
54.586639 68.154808 0
64 64 0
55.855534 67.583 -0.98555988
53.754204 68.507439 -0.93305415
54.790401 68.051582 -0.56072849
54.645123 68.115494 -0.2854287
54.595901 68.137146 0
64 64 0
55.846561 67.575195 -0.98612225
53.744064 68.497116 -0.93348175
54.799728 68.034218 -0.55986333
54.668724 68.09166 -0.28455758
54.581387 68.129959 0
64 64 0
55.842247 67.565338 -0.98612225
53.73394 68.486771 -0.9339093
54.81382 68.014809 -0.55871016
54.654251 68.084549 -0.28484815
54.609795 68.103981 0
64 64 0
55.847271 67.551414 -0.98499537
53.733227 68.472321 -0.93348175
54.808975 68.003708 -0.55871016
54.654083 68.071182 -0.28470314
54.571434 68.107185 0
64 64 0
55.852303 67.537521 -0.98387069
53.741947 68.453781 -0.93219906
54.775665 68.004967 -0.56044048
54.644409 68.061951 -0.28484815
54.609444 68.077133 0
64 64 0
55.834038 67.53373 -0.98555988
53.713017 68.451576 -0.93433851
54.808815 67.977379 -0.55813414
54.649055 68.046516 -0.28455758
54.594978 68.069916 0
64 64 0
55.836582 67.526772 -0.98499537
53.715057 68.443314 -0.9339093
54.806412 67.971825 -0.55813414
54.656143 68.036743 -0.28426757
54.578182 68.070427 0
64 64 0
55.808975 67.526962 -0.98781145
53.714405 68.428856 -0.93348175
54.79213 67.964806 -0.55871016
54.646503 68.027504 -0.28441259
54.587616 68.052864 0
64 64 0
55.818733 67.511047 -0.98612225
53.713776 68.414406 -0.93305415
54.806358 67.945511 -0.55755699
54.646416 68.014153 -0.28426757
54.57793 68.043549 0
64 64 0
55.80983 67.503159 -0.98668456
53.680134 68.414085 -0.93562114
54.830124 67.922203 -0.5558278
54.660686 67.994675 -0.28368703
54.582634 68.028061 0
64 64 0
55.805603 67.493256 -0.98668456
53.698418 68.391548 -0.93348175
54.796852 67.923286 -0.55755699
54.636742 67.991539 -0.28426757
54.596924 68.008514 0
64 64 0
55.801388 67.483353 -0.98668456
53.67894 68.385117 -0.93476605
54.806385 67.906097 -0.55669296
54.646278 67.974121 -0.28383201
54.587303 67.999184 0
64 64 0
55.787815 67.477409 -0.98781145
53.678371 68.370644 -0.93433851
54.811211 67.890953 -0.55611581
54.660629 67.954712 -0.28325146
54.572884 67.991867 0
64 64 0
55.821075 67.451675 -0.98330837
53.677841 68.356171 -0.9339093
54.806515 67.879845 -0.55611581
54.651054 67.94545 -0.28339702
54.587246 67.972382 0
64 64 0
55.812233 67.443764 -0.98387069
53.696243 68.33374 -0.93176985
54.79707 67.870735 -0.55640382
54.636723 67.938179 -0.28368703
54.596851 67.954948 0
54.498024 67.996513 0.28788924
55.817459 67.429932 -0.98274386
53.686268 68.32328 -0.93219906
54.835331 67.841621 -0.55380946
54.651142 67.918823 -0.28310648
54.601669 67.93956 0
54.392559 68.027222 0.29093704
55.81332 67.420044 -0.98274386
53.662117 68.318726 -0.9339093
54.845001 67.824562 -0.55294544
54.632023 67.913536 -0.28354204
54.572906 67.938232 0
64 64 0
55.809193 67.410149 -0.98274386
53.65691 68.306229 -0.9339093
54.8022 67.829399 -0.55525064
54.651283 67.892227 -0.28281647
54.596977 67.914841 0
64 64 0
64 64 -0
53.656448 68.291763 -0.93348175
54.792789 67.820267 -0.55553979
54.636997 67.884911 -0.28310648
54.592255 67.903473 0
64 64 0
55.791576 67.394234 -0.98387069
53.641773 68.283188 -0.93433851
54.807301 67.801239 -0.55438662
54.641907 67.869629 -0.28281647
54.587547 67.892105 0
64 64 0
55.839169 67.363014 -0.97767842
53.646111 68.266754 -0.93348175
54.826622 67.780273 -0.55294544
54.632439 67.860298 -0.28296146
54.59729 67.874779 0
64 64 0
64 64 -0
53.617218 68.263992 -0.93562114
54.798141 67.779007 -0.55438662
54.642204 67.843048 -0.2825259
54.587807 67.865387 0
53.830036 68.17659 0.30704653
55.835762 67.341354 -0.97711605
53.626316 68.245613 -0.93433851
54.793583 67.767891 -0.55438662
54.661613 67.821899 -0.28180036
54.573498 67.857964 0
53.666283 68.229256 0.311836
55.855255 67.321899 -0.97430217
53.621193 68.233078 -0.93433851
54.80341 67.7509 -0.55352145
54.647388 67.814537 -0.28209034
54.56403 67.848534 0
53.675621 68.210876 0.31140044
55.860672 67.30822 -0.97317535
53.62561 68.21666 -0.93348175
54.818054 67.731995 -0.55236828
54.633148 67.807144 -0.28238091
54.573856 67.831245 0
53.646454 68.208191 0.31212655
55.856682 67.298386 -0.97317535
53.601486 68.21183 -0.9351936
54.794373 67.728661 -0.55352145
54.628555 67.79583 -0.28238091
54.574055 67.817902 0
53.70882 68.168358 0.31009433
55.866825 67.282845 -0.9714883
53.610691 68.193497 -0.9339093
54.770687 67.725281 -0.55467463
64 64 -0
54.588753 67.798714 0
64 64 0
55.83186 67.291214 -0.97542685
53.603386 68.189148 -0.93433851
54.802029 67.706169 -0.55265629
54.616875 67.780777 -0.2825259
54.562325 67.802757 0
64 64 0
55.842026 67.275665 -0.97373986
53.574512 68.186142 -0.9364779
54.802353 67.69313 -0.55236828
54.602657 67.773315 -0.28281647
54.581886 67.781654 0
64 64 0
55.828644 67.269585 -0.97486454
53.579006 68.169724 -0.93562114
54.817108 67.674324 -0.55121511
54.607765 67.758087 -0.2825259
54.611153 67.756729 0
64 64 0
55.819984 67.261589 -0.97542685
53.588268 68.151428 -0.93433851
54.827095 67.657478 -0.55034995
54.598408 67.748657 -0.28267092
54.577602 67.756958 0
64 64 0
55.825485 67.247948 -0.97430217
53.568958 68.144531 -0.93562114
54.803452 67.65403 -0.55150312
64 64 -0
54.587585 67.739799 0
64 64 0
55.783768 67.253036 -0.97880524
53.578266 68.126259 -0.93433851
54.808655 67.639114 -0.5509271
54.657013 67.69915 -0.28063923
54.578239 67.730339 0
64 64 0
55.770397 67.246834 -0.97992998
53.573288 68.113663 -0.93433851
54.809071 67.626106 -0.55063909
54.64772 67.689766 -0.28078422
54.573738 67.718948 0
64 64 0
55.719177 67.255486 -0.98555988
53.568325 68.101059 -0.93433851
54.766182 67.630142 -0.55294544
54.643269 67.678459 -0.28078422
54.574093 67.705658 0
64 64 0
55.719994 67.243614 -0.98499537
53.558601 68.090324 -0.93476605
54.781071 67.611435 -0.55179226
54.629143 67.670944 -0.28107479
54.550236 67.701859 0
64 64 0
55.753937 67.218834 -0.98049444
53.544109 68.081436 -0.93562114
54.752625 67.609695 -0.55323344
54.634407 67.655838 -0.28078422
