# .PCD v0.7 - Point Cloud Data file format
VERSION 0.7
FIELDS x y z
SIZE 4 4 4
TYPE F F F
COUNT 1 1 1
WIDTH 1594
HEIGHT 1
VIEWPOINT 0 0 0 1 0 0 0
POINTS 1594
DATA ascii
67.826828 68.298622 -0.32074291
85.175346 87.785973 -0.88939798
89.071518 92.162483 0
89.428787 92.563797 1.0680492
67.699623 68.165863 -0.76858014
67.683083 68.147232 -0.61436737
67.820953 68.302483 -0.47965553
67.818199 68.299377 -0.3204549
85.122444 87.784348 -0.88838243
89.096222 92.258911 0
89.408058 92.610046 1.0686297
67.751144 68.234169 -0.78034621
67.684799 68.159279 -0.61549205
67.798721 68.287872 -0.47751445
67.816429 68.307861 -0.32074291
85.055779 87.767059 -0.88678575
89.089668 92.320381 0
89.401031 92.671837 1.0697902
67.666283 68.148468 -0.76373434
67.696594 68.18277 -0.61830598
67.773148 68.269386 -0.47494748
67.8078 68.308594 -0.3204549
85.023605 87.788597 -0.88664073
89.072662 92.370178 0
89.411102 92.753128 1.071677
67.66127 68.152893 -0.76373434
67.661301 68.152924 -0.61324054
67.795143 68.304749 -0.4783712
67.785492 68.293793 -0.31901368
84.99485 87.81398 -0.88664073
89.055588 92.419983 0
89.41758 92.830582 1.0734186
67.652939 68.153549 -0.76304287
67.652924 68.153534 -0.61267817
67.762817 68.278488 -0.47494748
67.77005 68.286713 -0.31814855
84.921448 87.788605 -0.88475406
89.038406 92.469772 0
89.434212 92.919815 1.0755959
67.637985 68.146645 -0.7609657
67.647903 68.157944 -0.61267817
67.727173 68.248299 -0.47109619
67.764862 68.29126 -0.31814855
84.872116 87.790421 -0.88388294
89.048615 92.550865 0
89.436935 92.993484 1.0771919
67.623055 68.139702 -0.75888854
67.639534 68.158531 -0.61211586
67.725418 68.25666 -0.47152373
67.752869 68.288033 -0.3175725
84.833099 87.803902 -0.88344795
87.701256 91.081062 0
89.439537 93.067223 1.0787886
67.621361 68.147873 -0.7595827
67.634506 68.162926 -0.61211586
67.716896 68.257294 -0.47109619
67.734077 68.27697 -0.31641933
84.807732 87.83297 -0.88359296
87.723282 91.172409 0
89.438568 93.137085 1.0802398
67.629524 68.167374 -0.76235133
67.609444 68.144318 -0.60873747
67.72187 68.273407 -0.47238049
67.759476 68.316589 -0.31901368
84.765266 87.842415 -0.88301241
87.731461 91.248161 0
89.420425 93.187408 1.0809659
67.603958 68.143066 -0.75750554
67.613609 68.154167 -0.60986429
67.71254 68.267899 -0.47152373
67.739899 68.299347 -0.3175725
84.730392 87.831421 -0.88214129
87.745735 91.297836 0
89.392548 93.190994 1.0805303
67.595657 68.143631 -0.75681406
67.595268 68.143181 -0.60761279
67.697281 68.260742 -0.47023943
64 64 -0
84.667526 87.817215 -0.88069016
87.75367 91.37368 0
89.343636 93.205948 1.0799497
67.600494 68.15934 -0.75888854
67.590256 68.147522 -0.60761279
67.708946 68.28463 -0.47238049
64 64 -0
84.621727 87.822525 -0.87996459
87.741013 91.425964 0
89.304932 93.232628 1.0798048
67.624985 68.197884 -0.76512003
67.601852 68.171082 -0.61042666
67.690338 68.27356 -0.47066861
67.687096 68.269806 -0.31440103
84.592926 87.847427 -0.87996459
87.728271 91.478271 0
89.27977 93.274971 1.0802398
67.593719 68.171844 -0.7595827
67.563644 68.13694 -0.60479885
67.681816 68.274117 -0.47023943
67.678558 68.27034 -0.31411299
84.550529 87.856537 -0.87938404
87.681458 91.49115 0
89.298645 93.368492 1.082562
67.621368 68.214233 -0.76650298
67.568573 68.152794 -0.6064859
67.68335 68.286362 -0.47109619
67.646423 68.243393 -0.31180665
84.501373 87.857712 -0.87851346
87.617699 91.484222 0
89.378296 93.533043 1.0874965
67.570564 68.165283 -0.75681406
67.556946 68.149391 -0.60536122
67.674828 68.286911 -0.47066861
67.664856 68.275276 -0.31382388
87.540421 91.461349 0
89.515076 93.764908 1.0948982
67.572044 68.177208 -0.75819707
67.551926 68.153687 -0.60536122
67.636269 68.252319 -0.46638814
64 64 -0
84.416641 87.875587 -0.87735236
87.439583 91.410675 0
89.539894 93.866814 1.0975109
67.553963 68.166252 -0.75542843
67.533714 68.142509 -0.60310966
67.641129 68.268433 -0.46767244
67.651161 68.28019 -0.31353587
84.364166 87.872559 -0.87633628
87.406448 91.43898 0
89.554367 93.956947 1.0996877
67.539185 68.159096 -0.75335395
67.555054 68.177742 -0.60761279
67.63929 68.276733 -0.46810001
67.639282 68.276726 -0.31295982
84.325195 87.885269 -0.87590069
87.349655 91.439484 0
89.565292 94.043205 1.1017193
67.543884 68.174828 -0.75542843
67.523689 68.151039 -0.60310966
67.644096 68.292877 -0.46938431
67.627411 68.273224 -0.3123827
87.333328 91.487518 0
89.576065 94.129547 1.1037515
67.519394 68.156143 -0.75127679
67.518677 68.155296 -0.60310966
67.632263 68.289429 -0.46852756
67.618904 68.273666 -0.31209469
87.330368 91.551437 0
89.576576 94.204048 1.1053476
67.527321 68.17572 -0.75404543
67.500534 68.144012 -0.60085815
67.630402 68.297752 -0.46895677
67.59037 68.250366 -0.31007636
89.920151 94.684891 0
89.607132 94.314331 1.1082505
67.519043 68.176147 -0.75335395
67.511894 68.167664 -0.60367203
67.62851 68.306061 -0.46938431
67.608566 68.282394 -0.31209469
84.135849 87.895805 -0.8727079
89.89312 94.728134 0
89.603966 94.384979 1.1097015
67.504303 68.168869 -0.75127679
67.503586 68.168022 -0.60310966
67.593575 68.27507 -0.46553302
67.596741 68.278839 -0.31151864
84.096924 87.90818 -0.87227237
89.845924 94.747437 0
89.627426 94.487511 1.1123143
67.528275 68.207703 -0.75750554
67.475685 68.144989 -0.59916896
67.601601 68.295151 -0.46724489
67.584915 68.275246 -0.31094152
84.041306 87.900589 -0.87111121
64 64 0
89.640656 94.578178 1.114491
67.473946 68.153091 -0.59973347
67.570053 68.26799 -0.46382114
67.546562 68.239906 -0.30805913
83.995743 87.904861 -0.87038565
89.76152 94.797829 0
89.66037 94.676895 1.1169583
67.46241 68.149475 -0.59860659
67.571465 68.280182 -0.46467626
67.551369 68.256088 -0.30892318
83.963524 87.925018 -0.87024069
89.724289 94.828934 0
89.659912 94.751778 1.1185549
67.483398 68.184906 -0.60310966
64 64 -0
67.569397 68.288216 -0.31094152
83.914658 87.925163 -0.8693701
89.760284 94.948013 0
89.669273 94.838669 1.1205866
67.47834 68.18911 -0.60310966
67.525047 68.245361 -0.45996985
67.544388 68.268654 -0.3092123
83.875771 87.93721 -0.86893457
89.892441 95.183334 0
89.671829 94.917648 1.1223283
67.473282 68.193314 -0.60310966
67.493713 68.217979 -0.45654613
67.562317 68.300812 -0.31122953
83.830261 87.9412 -0.868209
89.924461 95.298775 0
89.690804 95.016678 1.1247956
67.480469 68.207161 -0.60479885
67.471519 68.19635 -0.4539775
67.546532 68.287018 -0.31007636
83.799232 87.933159 -0.86748344
89.971893 95.394623 0
89.715118 95.084244 1.1266822
67.439796 68.168243 -0.59860659
67.463181 68.196587 -0.45354995
67.534767 68.283325 -0.30950034
83.730606 87.908966 -0.86574179
90.013451 95.522331 0
89.717239 95.163391 1.1284238
67.45414 68.195946 -0.60198498
67.448318 68.188873 -0.45226562
64 64 -0
83.708298 87.940811 -0.86603177
90.107666 95.714478 0
89.715897 95.238586 1.1300205
67.465195 68.219749 -0.60479885
67.423714 68.169235 -0.44969866
64 64 -0
83.656281 87.936501 -0.86501622
90.115562 95.802315 0
89.688019 95.28167 1.1304555
67.485855 68.255379 -0.60930198
67.41217 68.165436 -0.44884354
67.506104 68.280106 -0.30834717
83.624039 87.956207 -0.86487067
90.149673 95.922424 0
89.646912 95.30867 1.1303105
67.522507 68.310745 -0.61661893
67.407135 68.169556 -0.44884354
64 64 -0
83.575363 87.955757 -0.86400008
90.16378 96.018478 0
89.592621 95.319519 1.129585
67.575081 68.385887 -0.62674975
67.392357 68.161728 -0.44755921
67.489212 68.28054 -0.30777001
83.526688 87.955215 -0.86312896
90.190842 96.13076 0
89.558044 95.354446 1.12973
67.608253 68.437523 -0.63350439
67.358177 68.129974 -0.44370791
67.497086 68.300804 -0.30892318
83.494453 87.97477 -0.862984
90.178261 96.194672 0
89.582436 95.461914 1.1324878
67.660507 68.512909 -0.64363521
67.382294 68.169914 -0.44755921
67.485374 68.296997 -0.30834717
83.45565 87.986191 -0.86254841
90.159019 96.250549 0
89.708069 95.694588 1.1397439
67.690216 68.560791 -0.64982748
67.357872 68.15004 -0.44499061
67.480179 68.301208 -0.30834717
83.410309 87.989487 -0.86182284
90.090569 96.245712 0
89.793968 95.879143 1.1452589
67.675125 68.553375 -0.64813828
67.365753 68.170074 -0.44670245
67.478226 68.309433 -0.30863518
83.371529 88.000801 -0.86138785
90.05159 96.277222 0
89.837029 96.011383 1.1488873
67.691933 68.585526 -0.65207905
67.389687 68.210129 -0.45055375
67.45356 68.289467 -0.30690596
83.329475 88.007996 -0.8608073
64 64 0
89.840691 96.0952 1.150774
68.004036 68.985504 -0.88208938
67.692741 68.5979 -0.65320373
67.342804 68.162186 -0.44499061
67.448372 68.293633 -0.30690596
83.274422 87.998924 -0.8596462
89.973511 96.34008 0
89.857208 96.195274 1.1532412
67.900757 68.868942 -0.8606317
67.703072 68.622185 -0.6560176
67.3442 68.17424 -0.44584736
67.446419 68.301834 -0.30719399
83.235657 88.010025 -0.85921061
89.911629 96.343002 0
89.860527 96.279221 1.1551279
67.941864 68.932449 -0.87101477
67.687973 68.614761 -0.65433055
67.34877 68.190315 -0.44713166
67.425072 68.285789 -0.30575281
83.177429 87.996719 -0.85790449
89.872528 96.374283 0
89.889633 96.395691 1.1581756
67.917122 68.913658 -0.86686045
67.688728 68.627151 -0.65545529
67.321297 68.166252 -0.44413549
67.413437 68.28183 -0.30517566
83.141937 88.011734 -0.85761398
89.833397 96.405525 0
89.882874 96.46759 1.1596273
67.904945 68.910545 -0.8654775
67.67997 68.627632 -0.65489292
67.313072 68.166245 -0.44370791
67.411484 68.290009 -0.30546477
83.090279 88.006386 -0.85659838
89.781265 96.420425 0
89.885674 96.55172 1.161514
67.842888 68.844505 -0.85301989
67.687012 68.648003 -0.65714449
67.317596 68.182304 -0.44499061
67.425583 68.318436 -0.30719399
83.087097 88.062004 -0.85775954
89.774414 96.492325 0
89.888306 96.635895 1.1634007
67.634659 68.593391 -0.80803007
67.68454 68.656433 -0.6577068
67.315735 68.190346 -0.44541979
67.407524 68.306351 -0.30604082
83.003189 88.015778 -0.85529226
89.786804 96.588745 0
89.913345 96.748665 1.1663034
67.307472 68.1903 -0.88010931
67.405289 68.314224 -0.75819707
67.707245 68.696777 -0.66277224
67.310669 68.194351 -0.44541979
67.399117 68.306404 -0.30575281
67.93187 68.981361 -0.1772358
89.815132 96.705673 0
89.915611 96.832977 1.1681901
67.320747 68.217583 -0.88499755
67.400078 68.318336 -0.75819707
67.666992 68.657349 -0.65658212
67.29924 68.190269 -0.44456303
67.400307 68.318626 -0.30632883
67.948349 69.014679 -0.17825136
89.804565 96.773651 0
89.920921 96.921425 1.1702218
67.342644 68.250679 -0.89151728
67.363358 68.277016 -0.75058526
67.676735 68.675522 -0.65883148
67.309402 68.208405 -0.44627491
67.381706 68.300354 -0.30488765
67.919617 68.984383 -0.17709024
89.778336 96.781052 0
89.936371 96.982018 1.1718185
67.334457 68.250824 -0.89070308
67.38295 68.312645 -0.75611991
67.674225 68.683975 -0.65939599
67.285309 68.188171 -0.44370791
67.370132 68.296303 -0.3043116
67.916809 68.993217 -0.1772358
89.748352 96.824471 0
89.89328 97.009232 1.1716729
67.359772 68.293777 -0.89885116
67.319 68.241661 -0.74297082
67.677948 68.700409 -0.66108304
67.283409 68.196182 -0.44413549
67.36174 68.296288 -0.30402249
67.907562 68.993843 -0.17709024
89.670181 96.806366 0
89.843781 97.028229 1.1712379
67.296806 68.223808 -0.88336921
67.313866 68.245667 -0.74297082
67.65976 68.68882 -0.65883148
67.303604 68.232521 -0.44755921
67.353371 68.296272 -0.30373448
67.891937 68.986282 -0.17665523
89.636917 96.845558 0
89.807045 97.063522 1.1713829
67.371475 68.341057 -0.90618509
67.306671 68.257622 -0.74366236
67.648422 68.697655 -0.65883148
67.277626 68.220222 -0.44541979
67.355667 68.320709 -0.30488765
67.879875 68.995674 -0.17665523
89.493622 96.825211 0
89.739822 97.142212 1.1719635
67.272385 68.223999 -0.88092351
67.316887 68.281448 -0.74712247
67.639633 68.698044 -0.65826917
67.241074 68.183586 -0.44113931
67.353607 68.328842 -0.30517566
67.870644 68.996239 -0.17650968
89.453949 96.855995 0
89.734772 97.218483 1.1735601
67.273315 68.235764 -0.88255185
67.296379 68.265602 -0.74366236
67.633957 68.702438 -0.65826917
67.261131 68.220001 -0.44456303
67.329407 68.308342 -0.30344647
67.845543 68.976242 -0.17563912
89.385574 96.849655 0
89.729561 97.294777 1.1751562
67.244064 68.208412 -0.87603527
67.266716 68.237793 -0.73812503
67.656189 68.743042 -0.66333455
67.234085 68.195465 -0.44156685
67.321037 68.308266 -0.30315843
67.826836 68.964424 -0.17505856
89.333153 96.863815 0
89.692474 97.329956 1.1753013
67.226929 68.196655 -0.87277544
67.2463 68.221855 -0.73466492
67.653564 68.751503 -0.66389906
67.244675 68.219734 -0.44370791
67.318985 68.316376 -0.30344647
67.789162 68.927856 -0.17360744
89.277557 96.873764 0
89.649025 97.356857 1.1751562
67.218834 68.196617 -0.87195814
67.265625 68.257622 -0.74020219
67.688019 68.808327 -0.67121607
67.214577 68.191063 -0.44028419
67.307465 68.312164 -0.30286932
67.789528 68.940666 -0.17389745
89.253662 96.924934 0
89.586555 97.358955 1.1741401
67.237793 68.231911 -0.87847781
67.23304 68.2257 -0.73397338
67.651321 68.772415 -0.66558611
67.184547 68.162323 -0.43686044
67.292831 68.303848 -0.30200526
67.745659 68.895714 -0.17215577
89.207535 96.947159 0
89.536766 97.377472 1.1737051
67.238678 68.24369 -0.88010931
67.237068 68.241577 -0.73605055
67.617805 68.740463 -0.66052067
67.182632 68.170242 -0.43728802
67.284492 68.303711 -0.30171725
67.727135 68.883713 -0.17157522
89.183495 96.998283 0
89.474342 97.379387 1.1726891
67.200615 68.20433 -0.87114394
67.219788 68.229515 -0.73328191
67.482803 68.575012 -0.63688064
67.196251 68.198608 -0.43985662
67.294952 68.328255 -0.30315843
67.699203 68.859276 -0.17055966
89.257103 97.17778 0
89.408806 97.37706 1.1715279
67.153679 68.153084 -0.85973597
67.208595 68.225403 -0.73189622
67.320541 68.372826 -0.6081751
67.216003 68.235161 -0.44327873
67.277206 68.31575 -0.30200526
67.636765 68.789253 -0.16794743
89.239021 97.237282 0
89.355888 97.39119 1.1709473
67.199402 68.223877 -0.87358958
67.227722 68.261276 -0.73743355
67.29071 68.344429 -0.60367203
67.182991 68.202209 -0.43942744
67.271988 68.31971 -0.30200526
67.621552 68.781212 -0.16751187
89.296272 97.396378 0
89.299835 97.401093 1.1702218
67.14959 68.168579 -0.86136436
67.149979 68.16909 -0.72082168
67.279335 68.340302 -0.60254735
67.17482 68.201965 -0.43899986
67.260521 68.315399 -0.30142814
67.609505 68.777283 -0.16722131
89.296684 97.480904 0
89.240669 97.406769 1.1693512
67.189178 68.231598 -0.87358958
67.199303 68.245026 -0.73328191
67.252678 68.315849 -0.59860659
67.157379 68.189392 -0.43728802
67.264648 68.331734 -0.3022933
67.588089 68.760895 -0.16649576
89.296936 97.565475 0
89.184639 97.416473 1.1686251
67.136543 68.172226 -0.86055017
67.151955 68.192734 -0.72359031
67.229141 68.29541 -0.5952304
67.143051 68.180893 -0.43600368
67.259415 68.33567 -0.3022933
67.569847 68.748611 -0.16591519
89.262611 97.60434 0
89.11927 97.413666 1.1674646
67.199707 68.266975 -0.87929517
67.137863 68.184509 -0.72151583
67.233093 68.311493 -0.59691739
67.150322 68.201118 -0.43771556
67.232445 68.310631 -0.30027497
67.539162 68.719658 -0.16475408
89.221985 97.634834 0
89.066406 97.427361 1.1668841
67.150139 68.211464 -0.8670699
67.168861 68.236496 -0.72981912
67.212662 68.295052 -0.59410352
67.142174 68.200813 -0.43728802
67.236534 68.326965 -0.30114013
67.536583 68.728104 -0.16489963
89.168854 97.648613 0
89.026001 97.457626 1.1668841
67.118446 68.179611 -0.85973597
67.148743 68.220215 -0.72635895
67.219627 68.315224 -0.59635508
67.14016 68.208717 -0.43771556
67.218925 68.314293 -0.29998696
67.465607 68.644905 -0.16185184
89.118851 97.666496 0
88.966904 97.462845 1.1660129
67.139946 68.219063 -0.8670699
67.125671 68.199875 -0.72220731
67.205315 68.306892 -0.59466803
67.116684 68.187805 -0.43514857
67.226067 68.334778 -0.30114013
67.472397 68.665771 -0.1624324
89.090584 97.713531 0
88.91404 97.476303 1.1654323
67.152138 68.240791 -0.87114394
67.156052 68.246048 -0.72981912
67.187546 68.288422 -0.59185201
67.132523 68.214401 -0.43771556
67.208023 68.315971 -0.29969895
67.441673 68.630318 -0.16112573
89.101257 97.770447 0
88.862808 97.449646 1.1639812
67.167625 68.2724 -0.87684947
67.12104 68.209564 -0.72289878
67.179337 68.288193 -0.59128964
67.124374 68.214066 -0.43728802
67.212051 68.332314 -0.30056408
67.420601 68.613602 -0.16040017
89.110031 97.867645 0
88.819283 97.475494 1.1638362
67.086044 68.172897 -0.85566193
67.127884 68.229469 -0.72566748
67.192291 68.316559 -0.59466803
67.140656 68.246735 -0.44028419
67.209885 68.340347 -0.30085212
67.408852 68.609383 -0.16011018
89.112411 97.956543 0
88.738647 97.451149 1.1619495
67.163155 68.287987 -0.87847781
67.110855 68.217094 -0.72289878
67.165955 68.291779 -0.59072733
67.098946 68.200951 -0.43514857
67.186203 68.319237 -0.2991218
67.381676 68.584221 -0.15909405
89.151695 98.095764 0
88.704376 97.489372 1.1622396
67.114037 68.232094 -0.8662557
67.11171 68.228935 -0.72428447
67.157753 68.291512 -0.59016496
67.090828 68.200562 -0.43472102
67.174858 68.314758 -0.29854578
67.357658 68.563194 -0.15822349
89.166 98.201584 0
88.639252 97.48571 1.1610785
67.111839 68.239838 -0.8670699
67.180809 68.333801 -0.7415852
67.179626 68.332191 -0.5952304
67.064484 68.175316 -0.43172485
67.178825 68.331108 -0.29941091
67.336761 68.546288 -0.15749738
89.177025 98.303314 0
88.59877 97.515457 1.1610785
67.057076 68.175789 -0.85321623
67.101486 68.236443 -0.72428447
67.135368 68.28273 -0.58791339
67.092804 68.224586 -0.4364329
67.167473 68.326591 -0.29883379
67.303642 68.512581 -0.15619126
89.175522 98.388306 0
88.524498 97.499039 1.1594824
67.148232 68.311218 -0.88010931
67.128906 68.284752 -0.73189622
67.148163 68.311134 -0.59128964
67.063469 68.195152 -0.43300915
67.13784 68.296989 -0.29652745
67.298187 68.516571 -0.15619126
89.229103 98.548996 0
88.480927 97.524445 1.1593368
67.044067 68.179176 -0.85240209
67.138489 68.308807 -0.73535639
67.125008 68.290298 -0.58791339
67.055382 68.194702 -0.4325816
67.090012 68.242249 -0.29249191
67.283554 68.507965 -0.15575626
89.297646 98.730896 0
88.428169 97.537193 1.1587563
67.088409 68.250832 -0.8662557
67.103798 68.272011 -0.72843611
67.104881 68.273499 -0.58509737
67.077469 68.235771 -0.4364329
67.063599 68.216682 -0.29047358
67.259773 68.486694 -0.15488516
89.650314 99.304626 0
88.375404 97.549866 1.1581756
67.077461 68.246544 -0.8646242
67.086853 68.259506 -0.72566748
67.096733 68.27314 -0.584535
67.07235 68.239487 -0.4364329
67.067612 68.232948 -0.29133874
67.257393 68.494827 -0.15503015
89.696205 99.457817 0
88.307404 97.541428 1.1568695
67.054962 68.226234 -0.85973597
67.09346 68.279495 -0.72843611
67.088593 68.272758 -0.58397269
67.091286 68.276482 -0.43985662
67.041275 68.207306 -0.28932041
67.23674 68.477707 -0.15430459
89.650299 99.484619 0
88.242508 97.537079 1.1557084
67.052742 68.233925 -0.86055017
67.11763 68.323921 -0.73535639
67.068573 68.255882 -0.58115882
67.131149 68.342667 -0.44627491
67.042244 68.219376 -0.28989756
67.231331 68.481613 -0.15430459
89.610443 99.519806 0
88.201965 97.566345 1.1557084
67.108231 68.321884 -0.87766367
67.045029 68.234009 -0.71943867
67.09903 68.309097 -0.58791339
67.17086 68.408974 -0.45269483
67.025063 68.206245 -0.28874439
67.225914 68.485519 -0.15430459
89.561424 99.542267 0
88.134079 97.557602 1.1544023
67.042503 68.241295 -0.86055017
67.060387 68.266228 -0.72428447
67.055321 68.259163 -0.58059645
67.195457 68.454514 -0.45697367
67.010933 68.197289 -0.28787923
67.196259 68.455627 -0.15314348
89.506325 99.556213 0
88.075348 97.561409 1.1535318
67.048882 68.261047 -0.86381
67.078575 68.302551 -0.72981912
67.050171 68.262848 -0.58059645
67.187088 68.454201 -0.45654613
66.996826 68.188293 -0.28701407
67.190872 68.459488 -0.15314348
89.466385 99.591248 0
88.025703 97.577789 1.1530962
67.037994 68.256691 -0.86218166
67.058807 68.285851 -0.72635895
67.074532 68.307892 -0.5862242
67.196609 68.478935 -0.45868555
66.985756 68.183502 -0.28643805
67.182465 68.459114 -0.15299848
89.420326 99.617752 0
87.976051 97.594101 1.1526606
67.021378 68.244247 -0.85892177
67.059448 68.297729 -0.72774458
67.069328 68.3116 -0.5862242
67.215019 68.516258 -0.46210927
66.965706 68.166039 -0.28499687
67.165016 68.446022 -0.15241791
89.38633 99.661163 0
87.917366 97.597656 1.15179
67.067757 68.320435 -0.87358958
67.031013 68.268692 -0.72220731
67.049408 68.294594 -0.58341032
67.188744 68.490829 -0.45911309
66.975639 68.190704 -0.28643805
67.162651 68.454079 -0.15256292
89.400482 99.772446 0
87.867722 97.613815 1.1513546
67.031105 68.279762 -0.8646242
67.07225 68.337868 -0.73328191
67.053017 68.310699 -0.58509737
67.201126 68.519829 -0.46168172
66.967583 68.190079 -0.28615001
67.14225 68.436691 -0.15183736
89.408371 99.87532 0
87.800064 97.604462 1.1500484
67.011398 68.257385 -0.85973597
67.087013 68.364288 -0.73743355
67.038681 68.295967 -0.58284801
67.201363 68.525948 -0.46210927
66.977005 68.208763 -0.28730318
67.157578 68.464058 -0.15270847
89.45282 99.984146 0
87.767746 97.601868 1.1494678
67.03759 68.305443 -0.86869824
67.044136 68.31472 -0.72843611
67.012985 68.270569 -0.57890725
67.207726 68.546593 -0.46382114
66.962967 68.199677 -0.28643805
67.137192 68.446625 -0.15198237
89.430313 100.04463 0
87.70916 97.605087 1.1485972
67.023857 68.296989 -0.8662557
67.018707 68.289673 -0.72359031
67.034134 68.3116 -0.58397269
67.237686 68.600853 -0.46895677
66.963837 68.2117 -0.28701407
67.125847 68.441917 -0.15169236
89.470612 100.19452 0
87.66555 97.629471 1.1484523
67.0215 68.304688 -0.8670699
67.025047 68.309746 -0.72635895
67.028923 68.315262 -0.58397269
67.246872 68.625771 -0.47109619
66.967667 68.227989 -0.28787923
67.120476 68.445694 -0.15169236
89.498627 100.32751 0
87.612953 97.641022 1.1478717
67.013466 68.304283 -0.8662557
67.011215 68.301071 -0.72428447
66.994568 68.277298 -0.57834494
67.220665 68.600243 -0.46810001
66.944763 68.206154 -0.28615001
67.112122 68.445206 -0.15154736
89.520386 100.4521 0
87.545471 97.631218 1.1465656
67.016739 68.320068 -0.86869824
67.028984 68.337608 -0.72981912
67.012672 68.314247 -0.58284801
67.22686 68.620972 -0.46981186
66.924866 68.188507 -0.28470883
67.100792 68.440437 -0.1512568
89.60743 100.67065 0
87.498856 97.651115 1.146275
66.98893 68.291275 -0.86218166
67.009407 68.320679 -0.72635895
66.978409 68.276176 -0.57721806
67.235947 68.645927 -0.47195131
66.934586 68.213257 -0.28615001
67.080574 68.422859 -0.15053125
89.774307 101.00481 0
87.449265 97.666687 1.1458395
67.009125 68.331421 -0.86951554
66.998466 68.316078 -0.72497594
66.961647 68.263077 -0.57496655
67.47052 68.995575 -0.50704378
66.917686 68.199806 -0.28499687
67.069305 68.418053 -0.15024124
89.889938 101.26675 0
87.393745 97.67366 1.1451139
67.026413 68.367561 -0.87603527
66.996101 68.323822 -0.72566748
66.962288 68.275017 -0.57609338
67.824142 69.518799 -0.55968088
66.915558 68.207581 -0.28528488
67.075806 68.438843 -0.15082181
89.913063 101.39639 0
87.329361 97.667725 1.1439528
66.99865 68.338676 -0.86951554
67.027962 68.381088 -0.73466492
66.968674 68.295311 -0.57834494
67.811623 69.514961 -0.55882412
66.904594 68.202591 -0.28470883
67.079292 68.455368 -0.1512568
89.927048 101.51331 0
87.273895 97.674522 1.1432272
66.990585 68.338219 -0.86869824
67.011269 68.368225 -0.73189622
66.960587 68.294701 -0.57778043
67.854492 69.591415 -0.56609917
66.911255 68.223137 -0.285862
67.056221 68.433426 -0.15038624
89.946686 101.63889 0
87.218445 97.681229 1.1425017
66.988152 68.345917 -0.86951554
67.023056 68.396675 -0.73605055
66.94677 68.285728 -0.57609338
67.804108 69.532623 -0.55968088
66.897354 68.21386 -0.28499687
67.071472 68.467094 -0.15140235
89.951317 101.74312 0
87.165955 97.692131 1.1419212
66.966118 68.32505 -0.8646242
67.03476 68.42514 -0.74020219
66.944458 68.293472 -0.57665575
67.820648 69.571091 -0.56310463
66.886406 68.208817 -0.28441972
67.066071 68.470802 -0.15140235
89.982224 101.88605 0
87.104645 97.690094 1.140905
66.969269 68.340881 -0.8670699
67.026581 68.424667 -0.73951072
66.947876 68.309608 -0.57834494
67.813919 69.575706 -0.56310463
66.875481 68.203773 -0.2838437
67.040131 68.444473 -0.15038624
90.015778 102.03341 0
87.046326 97.692261 1.1400344
66.96402 68.34446 -0.8670699
67.012749 68.415886 -0.73743355
66.931213 68.296379 -0.57609338
67.838997 69.626945 -0.56781101
66.876228 68.215782 -0.28441972
67.040604 68.456718 -0.15067625
90.016739 102.13361 0
86.999733 97.711487 1.1397439
66.96711 68.360306 -0.86951554
66.984825 68.386337 -0.73189622
66.926018 68.299919 -0.57609338
67.846634 69.652802 -0.56995046
66.862404 68.206436 -0.28355566
67.026459 68.447517 -0.15024124
90.005768 102.21664 0
86.947289 97.722061 1.1391634
66.978493 68.38842 -0.87440377
66.979523 68.389938 -0.73189622
66.920822 68.303452 -0.57609338
67.845573 69.665947 -0.57080722
66.848602 68.197044 -0.28269053
67.02108 68.451164 -0.15024124
89.968346 102.26096 0
86.909454 97.754074 1.1393089
66.937164 68.338806 -0.86381
66.985466 68.410156 -0.73466492
66.918465 68.31118 -0.57665575
67.844475 69.679085 -0.57166231
66.834831 68.18763 -0.28182536
67.009865 68.446198 -0.14995068
89.933762 102.30956 0
86.851166 97.755905 1.1384377
66.934685 68.346443 -0.8646242
66.963295 68.388817 -0.73051327
66.904724 68.302063 -0.57496655
67.820381 69.658203 -0.56909537
66.835564 68.199631 -0.28240249
67.010315 68.458458 -0.15024124
89.893288 102.34949 0
86.787094 97.749039 1.1372766
66.915627 68.329491 -0.86055017
66.972 68.4132 -0.73397338
66.908043 68.318222 -0.57665575
67.770515 69.598938 -0.56267542
66.827583 68.198753 -0.28211337
66.981705 68.427605 -0.14908013
89.846931 102.38075 0
86.740494 97.767929 1.1369866
66.904884 68.324814 -0.85892177
66.955475 68.400124 -0.73120475
66.894318 68.309074 -0.57496655
67.683609 69.484169 -0.55069399
66.813866 68.189301 -0.28124931
66.990837 68.452774 -0.14980569
89.815048 102.43356 0
86.676498 97.760872 1.1358255
66.880241 68.293724 -0.85240209
66.94722 68.39357 -0.72981912
66.877563 68.289719 -0.57215267
67.61451 69.388321 -0.54085034
66.805565 68.182396 -0.28067219
66.973671 68.432999 -0.14908013
89.820808 102.49236 0
86.658989 97.778885 1.1359706
66.872307 68.293098 -0.85158789
66.94471 68.401314 -0.73051327
66.880859 68.30587 -0.57384187
67.593719 69.371353 -0.53871089
66.829285 68.228783 -0.28355566
66.959641 68.42363 -0.14864457
89.823486 102.59708 0
86.600822 97.780327 1.1351
66.85614 68.280113 -0.84832805
66.942169 68.409035 -0.73120475
66.864365 68.292442 -0.5715903
67.587227 69.375694 -0.53871089
66.806938 68.206375 -0.28182536
66.965836 68.444496 -0.14922513
89.851936 102.74081 0
86.539795 97.777344 1.1340839
66.886574 68.337059 -0.85892177
66.917381 68.383347 -0.72635895
66.870438 68.31282 -0.57384187
67.580727 69.380028 -0.53871089
66.798988 68.20546 -0.28153735
66.948944 68.430771 -0.14864457
89.885857 102.89334 0
86.501846 97.808884 1.1342288
66.837875 68.286308 -0.8475107
66.904007 68.3862 -0.72566748
66.874039 68.340927 -0.57665575
67.528046 69.328735 -0.53272021
66.777397 68.194962 -0.28038418
66.941093 68.442215 -0.14878957
89.906715 103.12936 0
86.377045 97.798172 1.1320522
66.851761 68.318611 -0.85321623
66.879349 68.360397 -0.72082168
66.823982 68.276543 -0.56764954
67.422592 69.18306 -0.51774257
66.780876 68.211266 -0.28124931
66.932861 68.441429 -0.14864457
89.933998 103.27357 0
86.327599 97.812172 1.1316166
66.84111 68.313805 -0.85158789
66.890648 68.389023 -0.72497594
66.80484 68.258736 -0.56483567
67.323135 69.0457 -0.50362003
66.781471 68.223259 -0.28182536
66.916061 68.427612 -0.14806402
89.969536 103.43092 0
86.272438 97.817429 1.1308911
66.835892 68.317238 -0.85158789
66.855034 68.346375 -0.71736151
66.822014 68.296104 -0.56933874
67.142281 68.783669 -0.4770869
66.747971 68.183388 -0.278943
66.913559 68.435471 -0.14820902
90.273354 103.99736 0
86.223 97.831284 1.1304555
66.830673 68.320663 -0.85158789
66.869034 68.379204 -0.72220731
66.814041 68.295265 -0.56877643
67.111183 68.74881 -0.47323561
66.754257 68.20401 -0.28009617
66.893959 68.417252 -0.14748345
90.381882 104.26852 0
86.165024 97.832031 1.129585
66.847076 68.357162 -0.85810447
66.841782 68.349068 -0.71667004
66.797729 68.281647 -0.56652486
67.054893 68.675217 -0.46553302
66.749176 68.207336 -0.28009617
66.88578 68.416405 -0.14733845
90.350281 104.32651 0
86.121284 97.854446 1.1294399
66.839111 68.356468 -0.85729027
66.855705 68.381927 -0.72151583
66.814751 68.319084 -0.57102793
67.021202 68.63588 -0.46125254
66.749733 68.219315 -0.28067219
66.88044 68.419884 -0.14733845
90.304375 104.36267 0
86.057663 97.846313 1.1282789
66.841927 68.37233 -0.85973597
66.795715 68.301231 -0.7076726
66.809525 68.322479 -0.57102793
66.96804 68.566353 -0.4539775
66.738998 68.213966 -0.28009617
66.860939 68.401581 -0.1466129
90.24707 104.38133 0
86.016754 97.872948 1.1282789
66.812447 68.338432 -0.85240209
66.798706 68.317245 -0.7097497
66.801529 68.321594 -0.57046348
66.878738 68.440697 -0.44113931
66.714203 68.18689 -0.27807784
66.861267 68.41375 -0.1469029
90.198257 104.41302 0
85.967323 97.886436 1.1278433
66.807205 68.341827 -0.85240209
66.807106 68.341682 -0.71320987
66.78804 68.312187 -0.56877643
66.859436 68.422623 -0.43899986
66.709145 68.190163 -0.27807784
66.850296 68.408485 -0.1466129
90.149414 104.44464 0
85.91507 97.8955 1.1272627
66.796593 68.336899 -0.85077059
66.790985 68.328209 -0.71044123
66.763542 68.285652 -0.56483567
66.840179 68.404503 -0.43686044
66.701279 68.189087 -0.27778983
66.844971 68.411926 -0.1466129
90.123093 104.51121 0
85.854385 97.891373 1.1262466
66.786003 68.33197 -0.84914219
66.783043 68.327362 -0.7097497
66.758362 68.288986 -0.56483567
66.812637 68.373383 -0.43343672
66.699005 68.196701 -0.27807784
66.845253 68.424088 -0.1469029
90.085381 104.56026 0
85.80217 97.900276 1.125666
66.778107 68.331177 -0.84832805
66.783226 68.339157 -0.71113271
66.747688 68.283752 -0.56370884
66.840614 68.428642 -0.43857232
66.693939 68.199959 -0.27807784
66.837097 68.423157 -0.1467579
90.106606 104.70126 0
85.749985 97.909119 1.1250861
66.804825 68.384483 -0.85810447
66.786095 68.355202 -0.71320987
66.767166 68.325615 -0.56877643
66.821434 68.410446 -0.4364329
66.669342 68.172699 -0.27605951
66.834549 68.430954 -0.1469029
90.155579 104.88625 0
85.680984 97.891586 1.1236343
66.780922 68.358711 -0.85240209
66.767334 68.337418 -0.7097497
66.731865 68.281822 -0.56258416
66.796768 68.383553 -0.43343672
66.681 68.202095 -0.27778983
66.809639 68.403717 -0.14588735
90.16214 105.00556 0
85.645615 97.926529 1.123925
66.735786 68.293686 -0.83936262
66.764717 68.339088 -0.7097497
66.759315 68.33062 -0.56877643
66.807915 68.406891 -0.43557614
66.700699 68.238617 -0.28009617
66.826515 68.436081 -0.1469029
90.201691 105.12233 0
85.60556 97.908913 1.1229088
66.773018 68.363747 -0.85240209
66.748703 68.325493 -0.70698106
66.718651 68.278198 -0.56145948
66.777809 68.371284 -0.43172485
66.665054 68.193848 -0.27692467
66.818367 68.435112 -0.1467579
90.246895 105.30331 0
85.56179 97.930618 1.1227639
66.741272 68.325333 -0.84425086
66.754219 68.345757 -0.7097497
66.740677 68.324394 -0.56708723
66.778023 68.383316 -0.4325816
66.673828 68.218903 -0.27836585
66.796318 68.412186 -0.14588735
90.261047 105.4361 0
85.490173 97.908356 1.1211672
66.722839 68.307747 -0.84017682
66.751648 68.353325 -0.71044123
66.724594 68.310516 -0.56483567
66.767235 68.377983 -0.43172485
66.679779 68.239624 -0.27951902
66.793762 68.419952 -0.14603233
90.255455 105.5382 0
85.454742 97.943085 1.1214577
66.738724 68.34449 -0.84669656
66.73568 68.339668 -0.7076726
66.705833 68.29232 -0.56202179
66.770157 68.394356 -0.43300915
66.66362 68.225357 -0.27836585
66.799507 68.44091 -0.1466129
90.285736 105.69759 0
85.408165 97.96019 1.1211672
66.699272 68.293396 -0.83610278
66.741119 68.359955 -0.71044123
66.700645 68.295586 -0.56202179
66.756645 68.384659 -0.43172485
66.639252 68.197929 -0.27634862
66.774773 68.41349 -0.14559679
90.323975 105.8703 0
85.347748 97.955231 1.120151
66.712463 68.325974 -0.84180832
66.719849 68.337753 -0.70628691
66.719749 68.337593 -0.56708723
66.756805 68.39669 -0.4325816
66.634178 68.201111 -0.27634862
66.783241 68.43885 -0.14632234
90.331429 105.99468 0
85.303947 97.976601 1.1200061
66.688889 68.299911 -0.83610278
66.711952 68.336784 -0.70559543
66.679482 68.284866 -0.55977029
66.721542 68.352135 -0.42787355
66.637314 68.217438 -0.27721268
66.769615 68.429001 -0.14588735
90.338623 106.11914 0
85.251854 97.984695 1.1194255
66.699379 68.328308 -0.84099096
66.717331 68.357086 -0.70836407
66.720016 68.361397 -0.56933874
66.757027 68.420746 -0.43429181
66.626747 68.211853 -0.27663666
66.769753 68.441154 -0.14617734
90.386864 106.30992 0
85.197029 97.988297 1.1186999
66.665436 68.285408 -0.83202875
66.714706 68.364624 -0.70905554
66.679855 68.308586 -0.56202179
66.727287 68.384842 -0.43044052
66.646248 68.254555 -0.27923101
66.758904 68.435684 -0.14588735
90.387947 106.42574 0
85.144966 97.996231 1.1181194
66.647232 68.267632 -0.82795465
66.709435 68.367905 -0.70905554
66.666603 68.298866 -0.5603326
66.716576 68.379417 -0.42958543
66.619286 68.22258 -0.27692467
66.742584 68.421349 -0.14530678
90.405258 106.56818 0
85.08744 97.99527 1.1172488
66.600464 68.20356 -0.81491524
66.709435 68.379715 -0.71044123
66.672104 68.319366 -0.56258416
66.711281 68.382698 -0.42958543
66.592415 68.190552 -0.27461833
66.748177 68.442337 -0.14588735
90.419518 106.70628 0
85.043617 98.016312 1.1171038
66.603172 68.21933 -0.81736094
66.683067 68.348824 -0.70490396
66.688232 68.357193 -0.56708723
66.711372 68.394699 -0.43044052
66.598213 68.211288 -0.2757715
66.731888 68.427963 -0.14530678
90.447151 106.86663 0
84.99704 98.03286 1.1168133
66.62915 68.272972 -0.82713735
66.69622 68.381981 -0.7097497
66.651009 68.308502 -0.5603326
66.700684 68.389236 -0.42958543
66.595825 68.218826 -0.27605951
66.729256 68.435684 -0.14545178
90.441704 106.97392 0
84.945007 98.040497 1.1162328
66.626572 68.280373 -0.82795465
66.688293 68.380951 -0.70905554
66.640488 68.303047 -0.55920792
66.695381 68.392502 -0.42958543
66.585327 68.21315 -0.27548349
66.707581 68.412392 -0.14458066
90.408806 107.03687 0
84.895706 98.05249 1.1157972
66.642044 68.317276 -0.83447438
66.659424 68.34568 -0.7028268
66.651199 68.33223 -0.56258416
66.698112 68.408897 -0.43086973
66.569427 68.198624 -0.27433032
66.71582 68.437836 -0.14530678
80.030296 90.19458 0
84.843689 98.059982 1.1152166
66.639397 68.324677 -0.83528858
66.690773 68.408859 -0.71251839
66.630081 68.309418 -0.55920792
66.700798 68.425285 -0.43215239
66.575134 68.219383 -0.27548349
66.699631 68.42337 -0.14472622
79.990509 90.200607 0
84.786285 98.058533 1.114346
66.5802 68.239197 -0.81817508
66.675011 68.394958 -0.7097497
66.614304 68.295227 -0.55695635
66.70079 68.437325 -0.43300915
66.572723 68.226906 -0.2757715
66.707787 68.448822 -0.14545178
79.939888 90.188782 0
84.750511 98.092499 1.1146361
66.595596 68.276115 -0.82469481
66.641052 68.351006 -0.70213526
66.609116 68.298386 -0.55695635
66.660797 68.383537 -0.42744598
66.570297 68.234428 -0.27605951
66.697014 68.443192 -0.14516123
91.083618 108.61891 0
84.698532 98.099792 1.114056
66.608337 68.308838 -0.83039725
66.648788 68.375648 -0.70559543
66.609177 68.310219 -0.55808109
66.666138 68.404312 -0.42915785
66.554474 68.219849 -0.27490744
66.699722 68.459793 -0.14559679
91.056641 108.69613 0
84.643845 98.102539 1.1133299
66.592911 68.295059 -0.82713735
66.659058 68.404633 -0.7097497
66.598717 68.304672 -0.55695635
66.660812 68.407532 -0.42915785
66.562737 68.245071 -0.27634862
66.678215 68.436363 -0.14472622
90.989166 108.70651 0
84.599945 98.123016 1.1131849
66.549484 68.23468 -0.81491524
66.612328 68.339066 -0.69867516
66.598747 68.316513 -0.55808109
66.674011 68.441521 -0.43215239
66.544266 68.226013 -0.27490744
66.672852 68.439598 -0.14472622
90.937805 108.74355 0
84.526527 98.094452 1.1114433
66.577492 68.287056 -0.82469481
66.614868 68.349228 -0.70005816
66.590912 68.30938 -0.55695635
66.655464 68.416748 -0.42958543
66.531052 68.209816 -0.27375427
66.66481 68.432297 -0.14443566
90.908089 108.75536 0
84.511292 98.115761 1.1117338
66.592644 68.324081 -0.83121455
66.596718 68.330879 -0.69659799
66.603989 68.343002 -0.56089497
66.639565 68.402336 -0.42787355
66.509995 68.186241 -0.27202398
66.656784 68.431061 -0.14429067
79.781555 90.320915 0
79.667969 90.131485 0.8509317
66.640686 68.416306 -0.84832805
66.601784 68.351234 -0.69936663
66.593529 68.337433 -0.55977029
66.642151 68.418747 -0.42915785
66.528824 68.229225 -0.27461833
66.648766 68.42981 -0.14414567
79.74707 90.335503 0
79.641716 90.159302 0.85122168
66.566994 68.304855 -0.82632315
66.583679 68.332832 -0.69590652
66.551849 68.279465 -0.55189097
66.63681 68.421936 -0.42915785
66.531662 68.245613 -0.27548349
66.640739 68.428528 -0.14400011
79.693909 90.318741 0
79.634048 90.218353 0.8525278
66.592102 68.358932 -0.83610278
66.575874 68.331642 -0.69521499
66.551865 68.291267 -0.55301565
66.620964 68.407471 -0.42744598
66.513313 68.22644 -0.27404231
66.646011 68.449585 -0.14458066
79.651459 90.319794 0
79.615646 90.259567 0.8532539
66.541458 68.285538 -0.82143497
66.580879 68.352013 -0.69798362
66.551857 68.303085 -0.55414033
66.605164 68.392967 -0.42573413
66.492371 68.202766 -0.27231199
66.63269 68.439384 -0.14414567
90.793846 109.18123 0
79.62101 90.340996 0.85528558
66.513634 68.25032 -0.81410104
66.580719 68.363762 -0.69936663
66.55442 68.31929 -0.55582952
66.615532 68.422615 -0.4283011
66.505722 68.236946 -0.27433032
66.632607 68.4515 -0.14443566
90.805466 109.32558 0
79.623558 90.417999 0.85717225
66.53862 68.304428 -0.82387751
66.560158 68.34095 -0.69521499
66.549202 68.322372 -0.55582952
66.615402 68.434631 -0.42915785
66.497978 68.235519 -0.27404231
66.621956 68.445732 -0.14414567
90.827362 109.48795 0
79.628586 90.499512 0.85920393
66.543442 68.324539 -0.82713735
66.554909 68.34404 -0.69521499
66.549133 68.334221 -0.55695635
66.612648 68.442207 -0.42958543
66.477119 68.211777 -0.27231199
66.613937 68.444405 -0.14400011
90.825142 109.61004 0
79.620262 90.558693 0.86051005
66.530716 68.314827 -0.82469481
66.54966 68.34713 -0.69521499
66.559319 68.363586 -0.5603326
66.620262 68.467499 -0.43172485
66.474655 68.219238 -0.2726011
66.608566 68.447556 -0.14400011
83.876381 97.888901 0
79.622337 90.635818 0.86239672
66.595367 68.43734 -0.8475107
66.549469 68.358856 -0.69659799
66.530952 68.327202 -0.55526716
66.601898 68.448509 -0.42958543
66.482605 68.244553 -0.27404231
66.595322 68.437263 -0.1435651
83.832794 97.908401 0
79.629501 90.72197 0.86457396
66.547668 68.367889 -0.83365709
66.536613 68.34893 -0.69452083
66.51548 68.312698 -0.55301565
66.58876 68.438339 -0.4283011
66.461838 68.220726 -0.27231199
66.605667 68.467323 -0.14443566
64 64 0
79.636475 90.808174 0.86675119
66.520027 68.332512 -0.82632315
66.536407 68.360672 -0.69590652
66.500046 68.298164 -0.55076408
66.575653 68.428146 -0.42701679
66.451538 68.21476 -0.27173597
66.589813 68.452499 -0.14385511
64 64 0
79.640648 90.889931 0.86878288
66.589188 68.463821 -0.85077059
66.526093 68.355049 -0.69452083
66.49485 68.301186 -0.55076408
66.583183 68.453476 -0.42915785
66.433464 68.195351 -0.27029479
66.576622 68.442154 -0.14342012
64 64 0
79.634216 90.953758 0.87023395
66.549149 68.407051 -0.83936262
66.533401 68.379822 -0.69798362
66.484566 68.295403 -0.5496394
66.56752 68.438812 -0.42744598
66.438759 68.216202 -0.27144793
66.573853 68.449753 -0.1435651
83.634796 97.945297 0
79.619858 91.00412 0.87125009
66.541351 68.405853 -0.83854842
66.508049 68.348114 -0.69244635
66.497147 68.329208 -0.55357796
66.574982 68.464142 -0.42958543
66.431068 68.214653 -0.27115881
66.56588 68.448364 -0.14342012
83.580765 97.946457 0
79.633949 91.103996 0.87386233
66.47934 68.310364 -0.81980348
66.510292 68.364174 -0.69452083
66.46405 68.283775 -0.5473879
66.559341 68.449448 -0.42787355
66.420822 68.208626 -0.2705828
66.568268 68.464966 -0.14385511
83.534546 97.96106 0
79.621918 91.158905 0.87502342
66.483963 68.330505 -0.82306331
66.487549 68.336746 -0.68967772
66.448753 68.269119 -0.54513633
66.564186 68.470352 -0.42958543
66.426025 68.2295 -0.27173597
66.552528 68.450027 -0.14327455
83.490906 97.980125 0
79.620117 91.231857 0.87676513
66.490997 68.354958 -0.82713735
66.489769 68.352806 -0.6917522
66.471344 68.320587 -0.55132645
66.558777 68.47345 -0.42958543
66.428619 68.245903 -0.2726011
66.541992 68.444099 -0.14298455
83.436913 97.981064 0
79.612999 91.295815 0.87821621
66.505333 68.392311 -0.83365709
66.496948 68.377617 -0.69521499
66.478706 68.345634 -0.55414033
66.545738 68.463158 -0.4283011
66.413239 68.230858 -0.27144793
66.539192 68.451675 -0.14312956
83.3881 97.990959 0
79.634079 91.409454 0.88126403
66.504913 68.403938 -0.83528858
66.481735 68.363182 -0.69244635
66.458382 68.322128 -0.55076408
66.558113 68.497475 -0.43129727
66.400452 68.220276 -0.2705828
66.520966 68.432159 -0.14240399
79.5849 91.400116 0
79.624069 91.468979 0.88257015
66.482719 68.371063 -0.82876885
66.521225 68.43885 -0.70421243
66.468315 68.345703 -0.55357796
66.545258 68.481155 -0.42958543
66.403008 68.230713 -0.27115881
66.520851 68.438194 -0.14254899
79.568344 91.409523 0
79.6203 91.500999 0.88329571
66.433594 68.296646 -0.81410104
66.4664 68.354576 -0.69036919
66.440529 68.308891 -0.54851258
66.582848 68.560173 -0.43686044
66.387703 68.21563 -0.27000675
66.512932 68.436722 -0.14240399
79.519829 91.401154 0
79.571701 91.492729 0.88242513
66.452705 68.342621 -0.82224911
66.490746 68.409973 -0.69867516
66.422829 68.289719 -0.5456987
66.541992 68.50071 -0.43086973
66.392776 68.236511 -0.27115881
66.505013 68.435234 -0.14225899
83.218582 98.027336 0
83.249199 98.081535 1.0931565
66.488693 68.418793 -0.83610278
66.482956 68.408615 -0.69798362
66.407669 68.274933 -0.54344714
66.554184 68.53508 -0.43386427
66.385117 68.234894 -0.2708708
66.504745 68.447304 -0.14254899
83.169792 98.036926 0
83.208 98.104767 1.0931565
66.4664 68.391624 -0.83039725
66.509567 68.468483 -0.70698106
66.419922 68.308861 -0.5473879
66.604004 68.636642 -0.44327873
66.38253 68.242279 -0.27115881
66.496826 68.445801 -0.14240399
83.128647 98.060059 0
83.169334 98.1325 1.093302
66.436501 68.363045 -0.82387751
66.481636 68.443863 -0.70213526
66.424362 68.341309 -0.55076408
66.697922 68.831177 -0.46125254
66.379837 68.261581 -0.27202398
66.483551 68.447289 -0.14225899
83.16555 98.319763 0
83.216011 98.41011 1.1007037
66.428825 68.361671 -0.82306331
66.483589 68.460014 -0.70421243
66.411697 68.33091 -0.54907489
66.824471 69.072166 -0.48393437
66.369659 68.255417 -0.27144793
66.478172 68.450287 -0.14225899
83.177246 98.438385 0
83.245201 98.560425 1.1047671
66.404358 68.330032 -0.81654358
66.451401 68.414757 -0.69659799
66.391663 68.307175 -0.5456987
66.990303 69.385262 -0.51346207
66.346931 68.226616 -0.26942962
66.472794 68.453278 -0.14225899
83.201309 98.579834 0
83.256409 98.679062 1.1078149
66.41349 68.358887 -0.82143497
66.42662 68.382599 -0.69106072
66.369225 68.278931 -0.54175794
66.998718 69.415833 -0.51603067
66.336823 68.220406 -0.26885357
66.464882 68.451706 -0.14211343
83.222542 98.71685 0
83.282455 98.825058 1.1117338
66.396278 68.340164 -0.81736094
66.443146 68.425056 -0.69728947
66.381248 68.312935 -0.5456987
67.056686 69.536301 -0.52715701
66.331718 68.223228 -0.26885357
66.451973 68.44104 -0.14167844
83.230896 98.831184 0
83.290596 98.939308 1.1146361
66.362427 68.291092 -0.80758131
66.435379 68.423615 -0.69659799
66.376038 68.315811 -0.5456987
67.02523 69.495003 -0.5228765
66.324112 68.221497 -0.26856446
66.446609 68.444 -0.14167844
83.266609 98.995728 0
83.313538 99.080963 1.11841
66.366753 68.311279 -0.8108412
66.432449 68.430946 -0.69728947
66.395271 68.36322 -0.55132645
67.072945 69.597679 -0.5322926
66.326477 68.237915 -0.26942962
66.451241 68.465179 -0.14225899
83.274406 99.110245 0
83.318642 99.190826 1.1211672
66.373413 68.335815 -0.81491524
66.422279 68.425087 -0.69590652
66.368034 68.325996 -0.54626101
67.068642 69.605888 -0.53272021
66.323837 68.245255 -0.26971763
66.438354 68.454453 -0.14182344
83.244461 99.156326 0
83.328506 99.30986 1.124215
66.372902 68.347343 -0.81654358
66.419334 68.432411 -0.69659799
66.34333 68.293167 -0.54175794
67.052032 69.59156 -0.5310083
66.316231 68.243523 -0.26942962
66.430481 68.452843 -0.14167844
91.687721 114.72614 0
83.348068 99.447227 1.1278433
66.34874 68.315475 -0.81002384
66.406776 68.422104 -0.69452083
66.340576 68.300476 -0.54232246
67.015816 69.54113 -0.52587271
66.301208 68.228142 -0.26827645
66.422607 68.451195 -0.14153288
91.638847 114.78241 0
83.349937 99.552734 1.1304555
66.367111 68.361763 -0.81817508
66.37989 68.385323 -0.68829203
66.340225 68.312225 -0.54344714
67.058098 69.635025 -0.53443205
66.305969 68.249107 -0.26942962
66.417229 68.454124 -0.14153288
91.579941 114.82034 0
83.351593 99.658318 1.1330683
66.333603 68.312454 -0.8083955
66.372208 68.383789 -0.68760055
66.337425 68.319511 -0.54400951
67.051285 69.638718 -0.53443205
66.32299 68.292831 -0.27202398
66.409378 68.452477 -0.14138788
91.605225 115.01385 0
83.387627 99.827911 1.1377122
66.333084 68.323959 -0.81002384
66.374062 68.399902 -0.68967772
66.324974 68.308929 -0.54232246
66.96402 69.493294 -0.52030957
66.288322 68.241005 -0.26856446
66.408936 68.464539 -0.14167844
91.637482 115.22124 0
82.100624 97.546341 1.0645658
66.365334 68.396431 -0.82306331
66.354469 68.376251 -0.68552339
66.317352 68.307251 -0.54175794
66.90873 69.406448 -0.51175022
66.283195 68.243767 -0.26856446
66.403534 68.467445 -0.14167844
91.666801 115.42416 0
82.052689 97.554459 1.0641303
66.327309 68.33831 -0.81165534
66.344444 68.370255 -0.68414038
66.312141 68.310043 -0.54175794
66.921616 69.446152 -0.51517391
66.265839 68.223732 -0.26712328
66.39814 68.470345 -0.14167844
91.690765 115.6181 0
82.014587 97.580826 1.0642753
66.361694 68.415215 -0.82550901
66.35099 68.395203 -0.68760055
66.306931 68.312836 -0.54175794
66.919876 69.45874 -0.51603067
66.29245 68.285767 -0.2708708
66.385376 68.459488 -0.14124288
91.743752 115.86722 0
81.961746 97.579651 1.0635498
66.326118 68.361366 -0.81491524
66.314987 68.340492 -0.67860311
66.316071 68.342529 -0.54513633
66.874619 69.389786 -0.50918323
66.279976 68.274849 -0.27000675
66.37999 68.462364 -0.14124288
91.77169 116.07063 0
81.926056 97.610512 1.0638403
66.365303 68.441299 -0.82958305
66.317078 68.350739 -0.67998612
66.303894 68.325989 -0.54288483
66.943764 69.527458 -0.52202141
66.257942 68.2397 -0.2677004
66.374847 68.459221 -0.14109787
91.830742 116.25735 0
81.930168 97.667198 1.0652914
66.343704 68.413589 -0.82387751
66.307114 68.344681 -0.67860311
66.293892 68.319786 -0.54175794
66.980415 69.612617 -0.529724
66.257668 68.251556 -0.26827645
66.367027 68.457504 -0.14095287
91.860336 116.46562 0
81.911407 97.730148 1.0665975
66.352257 68.442635 -0.82876885
66.299515 68.343033 -0.67791164
66.307693 68.358482 -0.54626101
66.964027 69.598068 -0.52801216
66.242844 68.235992 -0.26712328
66.364067 68.464951 -0.14109787
91.826149 116.55444 0
81.865776 97.742584 1.0663075
66.312263 68.379898 -0.81654358
66.301292 68.359108 -0.67998612
66.2882 68.334312 -0.54288483
66.988419 69.660667 -0.5335753
66.240135 68.243271 -0.26741129
66.351387 68.45401 -0.14066231
91.765053 116.59264 0
81.795883 97.709 1.0645658
66.316185 68.400185 -0.81980348
66.267982 68.308624 -0.67168283
66.271126 68.31459 -0.54007089
66.964844 69.632484 -0.53058076
66.225372 68.227661 -0.26625812
66.338745 68.443047 -0.14022677
91.694221 116.61234 0
81.733353 97.689087 1.0632597
66.280998 68.346085 -0.8092097
66.265106 68.315796 -0.67237431
66.280075 68.344322 -0.54344714
66.958031 69.636063 -0.53058076
66.21064 68.212029 -0.26510495
66.343033 68.464279 -0.14080732
91.613693 116.61349 0
81.637085 97.604652 1.0599214
66.234497 68.270012 -0.7945419
66.299438 68.394104 -0.68414038
66.286606 68.369583 -0.54626101
66.908371 69.557739 -0.5228765
66.241531 68.283447 -0.26942962
66.335228 68.462502 -0.14066231
91.554932 116.65605 0
81.541054 97.52005 1.0565836
66.268204 68.347206 -0.8083955
66.282524 68.374641 -0.68068027
66.283669 68.376846 -0.54682338
66.887405 69.533951 -0.52030957
66.207642 68.231125 -0.26597011
66.322624 68.451492 -0.14022677
91.484062 116.67546 0
81.452454 97.449066 1.0536808
66.269798 68.363106 -0.8108412
66.277237 68.377396 -0.68068027
66.250244 68.325516 -0.54007089
66.928108 69.628525 -0.52886891
66.20491 68.238373 -0.26625812
66.317238 68.4543 -0.14022677
90.044022 114.06291 0
81.380852 97.410202 1.0517942
66.264526 68.365845 -0.8108412
66.228043 68.295509 -0.66752851
66.263725 68.364304 -0.54457182
66.92366 69.636612 -0.52929646
