# .PCD v0.7 - Point Cloud Data file format
VERSION 0.7
FIELDS x y z
SIZE 4 4 4
TYPE F F F
COUNT 1 1 1
WIDTH 1711
HEIGHT 1
VIEWPOINT 0 0 0 1 0 0 0
POINTS 1711
DATA ascii
59.758915 62.516392 -0.25040287
60.364281 62.728161 -0.10757219
60.327805 62.715401 0
60.330166 62.716225 0.10858162
60.236412 62.678322 -0.65763396
60.16811 62.654335 -0.56025076
59.989334 62.591553 -0.47083771
58.97287 62.234596 -0.44413549
59.697266 62.488987 -0.25415039
60.365822 62.723766 -0.10757219
60.358837 62.721313 0
60.346436 62.716957 0.10814606
60.051533 62.608036 -0.69023257
60.131901 62.636368 -0.56578541
59.938313 62.568123 -0.47702998
58.979843 62.230228 -0.44370791
59.738106 62.497543 -0.25184515
60.377159 62.722828 -0.10728219
60.301476 62.696148 0
60.34309 62.710819 0.10829106
60.123123 62.628006 -0.6780073
60.010559 62.588169 -0.58378291
59.959209 62.569996 -0.47477844
59.015869 62.236156 -0.44071174
59.73505 62.490669 -0.25213319
60.368916 62.714989 -0.10757219
60.352112 62.709042 0
60.329948 62.701199 0.10872661
60.129436 62.624973 -0.67719316
60.329037 62.695881 -0.53741008
59.994465 62.577026 -0.47083771
59.051876 62.242168 -0.43771556
59.644276 62.452618 -0.2576099
60.370472 62.710602 -0.10757219
60.334057 62.697666 0
60.321716 62.693283 0.10901717
60.089203 62.605358 -0.68452704
60.283363 62.674599 -0.54433036
60.024899 62.582424 -0.4674615
59.058834 62.237915 -0.43728802
59.728973 62.476894 -0.25270921
60.372032 62.706219 -0.10757219
60.325836 62.689743 0
60.333099 62.692333 0.10872661
60.12812 62.61396 -0.6780073
60.289688 62.671795 -0.54363889
60.021832 62.575912 -0.46802384
59.065796 62.233673 -0.43686044
59.740551 62.47522 -0.25213319
60.354027 62.694828 -0.10815275
60.312717 62.680042 0
60.310223 62.679146 0.10945217
60.157703 62.619308 -0.67311907
60.272408 62.660526 -0.54640752
60.028336 62.572823 -0.4674615
59.038952 62.217297 -0.43942744
59.737534 62.468327 -0.2524212
60.370285 62.695698 -0.10771719
60.329014 62.68087 0
60.326477 62.679958 0.10901717
60.164036 62.616348 -0.67230177
60.259865 62.650913 -0.54848468
60.053959 62.576645 -0.46464759
59.079746 62.225243 -0.43600368
59.719921 62.456154 -0.25357437
60.366959 62.689545 -0.10786275
60.330612 62.676434 0
60.337864 62.67905 0.10872661
60.091343 62.584789 -0.68534124
60.275654 62.651524 -0.54640752
60.017456 62.558037 -0.46915069
59.081894 62.219299 -0.43600368
59.741245 62.458031 -0.2524212
60.35878 62.681622 -0.10815275
60.337101 62.673771 0
60.339462 62.674625 0.10872661
60.176674 62.610458 -0.67067343
60.112247 62.587044 -0.57063121
60.019199 62.553226 -0.46915069
59.069569 62.208092 -0.43728802
59.738255 62.451118 -0.25270921
60.360378 62.677223 -0.10815275
60.338707 62.669346 0
60.326408 62.664875 0.10916217
60.182156 62.609837 -0.66985923
60.089535 62.576111 -0.57409132
60.053505 62.562992 -0.46520993
59.065834 62.203362 -0.43771556
59.680862 62.427307 -0.25616872
60.351402 62.671463 -0.1084433
60.310177 62.656452 0
60.317459 62.659103 0.10945217
60.095638 62.57299 -0.68534124
60.284454 62.641998 -0.54571605
60.074337 62.565205 -0.4629584
59.048721 62.19035 -0.43942744
59.692474 62.425636 -0.25559267
60.372532 62.674191 -0.10786275
60.302017 62.648418 0
60.323956 62.656437 0.10930717
60.166962 62.593803 -0.67311907
60.248428 62.623692 -0.5512507
60.056992 62.553459 -0.46520993
59.017166 62.171989 -0.44242361
59.728378 62.432907 -0.25357437
60.359516 62.664444 -0.10829775
60.318317 62.64933 0
60.320709 62.650208 0.10945217
60.145477 62.580635 -0.67719316
60.330135 62.648632 -0.53948456
60.077816 62.555721 -0.4629584
58.951935 62.141136 -0.44841433
59.70116 62.417023 -0.25530356
60.351368 62.656452 -0.10858831
60.295532 62.635891 0
60.31258 62.64217 0.10974273
60.24456 62.611965 -0.66007966
60.279995 62.625065 -0.54709905
60.065258 62.545696 -0.46464759
58.930111 62.126141 -0.45055375
59.737026 62.424377 -0.25328636
60.357864 62.653847 -0.1084433
60.32159 62.640438 0
60.309353 62.635914 0.10988773
60.176735 62.581646 -0.67230177
60.305176 62.629295 -0.54363889
60.081318 62.546246 -0.4629584
58.966061 62.132511 -0.44755921
59.700134 62.404835 -0.25559267
60.369247 62.653065 -0.10815275
60.313484 62.632378 0
60.32074 62.635067 0.10959773
60.201607 62.585648 -0.66822773
60.288029 62.617828 -0.54640752
60.092594 62.545055 -0.46183372
58.939461 62.115681 -0.4501262
59.687534 62.39423 -0.25645673
60.346531 62.63961 -0.10887831
60.339523 62.637005 0
60.332142 62.634254 0.10930717
60.184799 62.574139 -0.67148757
60.275597 62.60807 -0.54848468
60.099129 62.542122 -0.4612692
58.970589 62.12035 -0.44755921
59.670094 62.381779 -0.2576099
60.357906 62.638832 -0.10858831
60.350918 62.636223 0
60.324047 62.626183 0.10959773
60.283714 62.605988 -0.65437412
60.277279 62.603573 -0.54848468
60.119907 62.54454 -0.45901984
58.972862 62.114273 -0.44755921
64 64 -0
60.340088 62.627132 -0.10916886
60.337944 62.626328 0
60.32085 62.619915 0.10974273
60.266895 62.594528 -0.65763396
60.260204 62.59201 -0.5512507
60.135941 62.545227 -0.45733064
59.042423 62.13353 -0.44156685
64 64 -0
60.361206 62.630035 -0.10858831
60.339603 62.621902 0
60.322521 62.615471 0.10974273
60.236225 62.577789 -0.6633395
60.341698 62.617641 -0.53948456
60.142448 62.542355 -0.4567683
59.251186 62.205574 -0.4231655
59.709846 62.378887 -0.25559267
60.353149 62.621971 -0.10887831
60.351021 62.621166 0
60.333927 62.614708 0.10945217
60.224075 62.567982 -0.66578519
60.301132 62.597206 -0.54571605
60.129974 62.532291 -0.45845532
59.781384 62.400089 -0.37609157
59.721493 62.377377 -0.25501555
60.369381 62.623089 -0.1084433
60.308891 62.600147 0
60.321022 62.604748 0.10988773
60.285862 62.586277 -0.65519142
60.316902 62.598091 -0.54363889
60.112751 62.520386 -0.46070686
59.812103 62.405949 -0.37352458
59.762135 62.386929 -0.25270921
60.375919 62.620556 -0.10829775
60.320305 62.599388 0
60.308136 62.594757 0.11032329
60.222931 62.557098 -0.66659939
60.351414 62.606178 -0.53879309
60.147758 62.528381 -0.4567683
59.996273 62.470509 -0.35726264
59.759239 62.379959 -0.25299832
60.363018 62.610611 -0.10873331
60.322002 62.594944 0
60.309837 62.590294 0.11032329
60.275455 62.572002 -0.65763396
60.343723 62.598175 -0.54017872
60.14954 62.523727 -0.4567683
59.988544 62.462002 -0.35811776
59.717735 62.35817 -0.25559267
60.345291 62.598778 -0.10931387
60.275112 62.571869 0
60.311543 62.585838 0.11032329
60.221821 62.5462 -0.66741353
60.237728 62.552319 -0.55609643
60.132355 62.511776 -0.45901984
60.052692 62.481121 -0.35255459
59.714897 62.351143 -0.25588071
60.332432 62.58876 -0.10974942
60.325409 62.58606 0
60.3181 62.583248 0.11017829
60.287266 62.568806 -0.65600562
60.285412 62.568092 -0.54917616
60.138012 62.511272 -0.45845532
60.039234 62.473194 -0.35383889
59.696587 62.34111 -0.25703388
60.347836 62.592155 -0.10931387
60.399117 62.611923 0
60.309265 62.577286 0.11046829
60.229069 62.541138 -0.66659939
60.324581 62.578087 -0.54363889
60.163506 62.51577 -0.45564145
60.002777 62.45359 -0.35726264
59.717892 62.343376 -0.25588071
60.330154 62.580242 -0.10989442
60.36681 62.594425 0
60.31583 62.574703 0.11032329
60.281528 62.556263 -0.65763396
64 64 -0
60.165302 62.511139 -0.45564145
60.038155 62.461773 -0.35426646
59.729553 62.341953 -0.25530356
60.331871 62.575809 -0.10989442
60.33456 62.576855 0
60.322395 62.572132 0.11017829
60.246426 62.537415 -0.6641537
60.304657 62.560104 -0.54709905
60.167103 62.506504 -0.45564145
60.054356 62.462574 -0.3529838
59.66407 62.310497 -0.25934023
60.338432 62.573265 -0.10974942
60.365372 62.583763 0
60.314449 62.563919 0.11046829
60.238979 62.529274 -0.66578519
60.320419 62.561123 -0.54502189
60.149979 62.494473 -0.45789298
60.037106 62.450333 -0.35469401
59.719112 62.325985 -0.25616872
60.335323 62.566948 -0.10989442
60.333149 62.566101 0
60.306515 62.555683 0.11075829
60.259167 62.531956 -0.6625253
60.196049 62.507187 -0.56371093
60.175449 62.4991 -0.45507911
60.077198 62.460545 -0.35127193
59.677803 62.303806 -0.25876307
60.36124 62.572014 -0.10916886
60.344585 62.565475 0
60.313095 62.55312 0.11061329
60.265556 62.529251 -0.661708
60.309898 62.546715 -0.54709905
60.181988 62.496342 -0.45451677
60.050407 62.444519 -0.35383889
59.67503 62.296684 -0.25905219
60.348476 62.561909 -0.10960387
60.360836 62.566776 0
60.295506 62.54105 0.11119385
60.336281 62.551991 -0.64948589
60.265003 62.523819 -0.55401933
60.216896 62.504807 -0.45057601
60.05706 62.441635 -0.35341135
59.725208 62.310478 -0.25616872
60.340542 62.553677 -0.10989442
60.319008 62.545166 0
60.297272 62.536572 0.11119385
60.246132 62.511116 -0.66578519
60.285446 62.526707 -0.5512507
60.228161 62.503986 -0.44944918
60.101894 62.453907 -0.34956005
59.669552 62.282429 -0.25962824
60.351963 62.553089 -0.10960387
60.325623 62.542641 0
60.303867 62.534016 0.11104885
60.261719 62.512066 -0.6633395
60.291885 62.524075 -0.55055916
60.244125 62.505062 -0.44776213
60.075153 62.437809 -0.35212705
59.681232 62.281017 -0.25905219
60.348873 62.546757 -0.10974942
60.356392 62.549747 0
60.305641 62.529549 0.11104885
60.245155 62.500217 -0.66659939
60.256397 62.504704 -0.55609643
60.175156 62.472256 -0.45620379
60.115189 62.448303 -0.34870329
59.673714 62.271969 -0.25962824
60.331326 62.534634 -0.11032998
60.358147 62.545349 0
60.321907 62.530872 0.11061329
60.292862 62.514076 -0.65844816
60.272182 62.505787 -0.55401933
60.214741 62.482761 -0.45170072
60.15519 62.458893 -0.34527957
59.671009 62.264816 -0.25991625
60.32346 62.52634 -0.11061998
60.36956 62.544819 0
60.314026 62.522556 0.11090384
60.294662 62.509598 -0.65844816
60.334503 62.525623 -0.54502189
60.169422 62.459221 -0.45733064
60.133244 62.444668 -0.34741899
59.649117 62.249939 -0.26135743
60.325245 62.521896 -0.11061998
60.294075 62.509361 0
60.306179 62.514229 0.11119385
60.319382 62.51437 -0.65437412
60.243229 62.483631 -0.55886513
60.180721 62.458401 -0.45620379
60.168438 62.453445 -0.34442446
59.680008 62.256294 -0.25962824
60.327034 62.51746 -0.11061998
60.353802 62.528263 0
60.30798 62.509769 0.11119385
60.334908 62.515484 -0.65193158
60.300873 62.501698 -0.55055916
60.206131 62.463326 -0.45338991
60.165554 62.446892 -0.344852
59.682117 62.251076 -0.25962824
60.338451 62.516918 -0.11032998
60.307327 62.504314 0
60.295326 62.499454 0.1116294
60.267113 62.485397 -0.6641537
60.232033 62.471165 -0.56094223
60.207062 62.461033 -0.45338991
60.171246 62.446503 -0.34442446
59.673595 62.244583 -0.26020426
60.329727 62.510803 -0.11061998
60.341999 62.515785 0
60.286613 62.493309 0.1119194
60.268944 62.480888 -0.6641537
60.29895 62.493107 -0.5512507
60.218327 62.460281 -0.4522652
60.144604 62.430264 -0.34699142
59.670918 62.2374 -0.26049337
60.331528 62.506371 -0.11061998
60.358261 62.517254 0
60.283607 62.486858 0.11206497
60.302818 62.489471 -0.65844816
60.193939 62.444984 -0.56717104
60.177856 62.438416 -0.45733064
60.141758 62.423668 -0.34741899
59.696987 62.241951 -0.25905219
60.333336 62.501938 -0.11061998
60.311863 62.493168 0
60.295071 62.486305 0.11177441
60.245174 62.460625 -0.66904503
60.274738 62.472744 -0.55540496
60.250278 62.462715 -0.44888681
60.172157 62.430687 -0.344852
59.65126 62.217133 -0.26193458
60.311111 62.487656 -0.11134554
60.352215 62.504505 0
60.306511 62.485767 0.11148441
60.265324 62.463612 -0.66578519
60.304436 62.479698 -0.5512507
60.223934 62.446583 -0.4522652
60.150322 62.416298 -0.34699142
59.686913 62.225658 -0.25991625
60.312939 62.4832 -0.11134554
60.310707 62.482281 0
60.29874 62.477356 0.11177441
60.276329 62.462875 -0.6641537
60.292358 62.46949 -0.5533278
60.174156 62.420696 -0.45845532
60.204426 62.433193 -0.34228504
59.660358 62.208603 -0.26164654
60.305161 62.474773 -0.11163609
60.307739 62.475838 0
60.295784 62.470905 0.1119194
60.250782 62.447021 -0.66904503
60.271038 62.455414 -0.55678797
60.20892 62.429684 -0.45451677
60.192104 62.422718 -0.3435677
59.64341 62.195442 -0.26279971
60.311821 62.472305 -0.11149054
60.381699 62.501251 0
60.292816 62.464436 0.11206497
60.252659 62.442493 -0.66904503
60.309971 62.466312 -0.5512507
60.187359 62.415352 -0.45733064
60.227188 62.431908 -0.34057316
59.631279 62.184227 -0.26366377
60.318462 62.469845 -0.11134554
60.354683 62.484898 0
60.304283 62.463951 0.11177441
60.3321 62.47031 -0.65519142
60.251614 62.436745 -0.56025076
60.212723 62.420525 -0.45451677
60.186443 62.409565 -0.34442446
59.643013 62.18293 -0.26308775
60.329899 62.469391 -0.11105554
60.380531 62.490509 0
60.286957 62.451485 0.11235496
60.315727 62.458256 -0.65844816
60.290531 62.447712 -0.55471349
60.195885 62.408104 -0.4567683
60.188366 62.404957 -0.34442446
59.659534 62.183659 -0.26222259
60.341347 62.468975 -0.11076498
60.334354 62.466049 0
60.284039 62.444992 0.11249996
60.322147 62.455715 -0.65763396
60.255402 62.427689 -0.56025076
60.211872 62.409412 -0.45507911
60.17609 62.39439 -0.34570876
59.652184 62.174408 -0.26279971
60.343201 62.464554 -0.11076498
60.369789 62.475719 0
60.281116 62.438488 0.11264552
60.273903 62.430161 -0.66659939
60.30817 62.444599 -0.55263633
60.227852 62.410759 -0.45338991
60.220631 62.407715 -0.34185582
59.640106 62.163136 -0.26366377
60.345058 62.460136 -0.11076498
60.362049 62.467297 0
60.302162 62.442066 0.11206497
60.298561 62.43528 -0.6625253
60.305435 62.438187 -0.5533278
60.239124 62.410156 -0.4522652
60.236729 62.409142 -0.34057316
59.651848 62.161892 -0.26308775
60.34692 62.455723 -0.11076498
60.320763 62.444664 0
60.284901 62.429504 0.11264552
60.323223 62.440464 -0.65844816
60.34428 62.449398 -0.54779053
60.222336 62.397675 -0.45451677
60.092148 62.342453 -0.35383889
59.668362 62.162701 -0.26222259
60.348789 62.451309 -0.11076498
60.346596 62.450378 0
60.301159 62.431107 0.11220996
60.26693 62.4086 -0.66904503
60.310169 62.427032 -0.5533278
60.239277 62.396809 -0.45282757
60.22266 62.389729 -0.34228504
59.68121 62.158909 -0.26164654
60.327705 62.434505 -0.11149054
60.354195 62.445801 0
60.289661 62.418289 0.11264552
60.291592 62.413815 -0.66496789
60.289013 62.412712 -0.55678797
60.213188 62.38028 -0.45620379
60.252941 62.397282 -0.3397164
59.645386 62.137417 -0.26395288
60.329597 62.430073 -0.11149054
60.370438 62.44754 0
60.267689 62.403591 0.11337108
60.31168 62.417133 -0.661708
60.304752 62.414158 -0.55471349
60.229145 62.381714 -0.45451677
60.207691 62.372505 -0.34399688
59.633392 62.126041 -0.26481694
60.32671 62.42358 -0.11163609
60.281433 62.404152 0
60.317387 62.419582 0.1119194
60.259113 62.389217 -0.67148757
60.269802 62.393822 -0.56025076
60.221779 62.373142 -0.45564145
60.219101 62.37199 -0.34314013
59.649902 62.126896 -0.26395288
60.357265 62.43148 -0.11076498
60.369423 62.436714 0
60.314514 62.413071 0.11206497
60.310966 62.406258 -0.6625253
60.239517 62.375389 -0.56509387
60.219086 62.366562 -0.45620379
60.216362 62.365387 -0.3435677
59.63319 62.113445 -0.26510495
60.34008 62.418835 -0.11134554
60.371315 62.432331 0
60.297348 62.400375 0.11264552
60.281158 62.388046 -0.66822773
60.232265 62.366852 -0.56647956
60.239712 62.370079 -0.45395225
60.213615 62.358768 -0.34399688
59.66394 62.12051 -0.26337576
60.361065 62.422684 -0.11076498
60.287239 62.390682 0
60.299286 62.395901 0.11264552
60.314827 62.397346 -0.6625253
60.26186 62.374313 -0.56232524
60.227699 62.359455 -0.45564145
60.272099 62.378765 -0.33886129
59.64724 62.107018 -0.26452893
60.339149 62.407925 -0.11149054
60.270096 62.377895 0
60.310768 62.39558 0.11235496
60.189926 62.337551 -0.68534124
60.231628 62.355747 -0.56717104
60.252968 62.365059 -0.45282757
60.26936 62.372211 -0.33928883
59.640057 62.097626 -0.26510495
60.364887 62.413891 -0.11076498
60.338856 62.402534 0
60.303173 62.386963 0.11264552
60.264389 62.364666 -0.67230177
60.206051 62.339127 -0.57132268
60.231674 62.350346 -0.45564145
60.252518 62.35947 -0.34100071
59.642361 62.092361 -0.26510495
60.371563 62.411583 -0.11061998
60.378933 62.41481 0
60.319412 62.388752 0.11220996
60.307098 62.37804 -0.66496789
60.231026 62.344631 -0.56786257
60.229023 62.34375 -0.45620379
60.231003 62.34462 -0.34314013
59.625721 62.078777 -0.26625812
60.349701 62.396751 -0.11134554
60.385612 62.412525 0
60.311852 62.380131 0.11249996
60.232162 62.339699 -0.6788215
60.242203 62.34412 -0.56647956
60.217072 62.333046 -0.45789298
60.251801 62.348351 -0.34142828
59.656441 62.086002 -0.26452893
60.351639 62.392345 -0.11134554
60.354187 62.393467 0
60.304291 62.371479 0.11279052
60.265808 62.349133 -0.67311907
60.244205 62.339581 -0.56647956
60.242325 62.338749 -0.45507911
60.235016 62.335518 -0.34314013
59.620907 62.064022 -0.26683527
57.563644 61.154518 -0.19653809
60.341846 62.382748 0
60.315777 62.371223 0.11249996
60.136768 62.286499 -0.69675231
60.214123 62.320808 -0.57132268
60.211811 62.319786 -0.45901984
60.218254 62.322643 -0.344852
59.63744 62.065029 -0.26597011
57.581345 61.153065 -0.19610253
60.324772 62.369888 0
60.312984 62.364658 0.11264552
60.26981 62.340111 -0.67311907
60.106133 62.267277 -0.58793455
60.213844 62.315208 -0.45901984
60.243732 62.32851 -0.34271258
59.625599 62.053448 -0.26683527
57.575283 61.141083 -0.19639309
60.379059 62.388725 0
60.291229 62.349644 0.11337108
60.249252 62.325531 -0.67719316
60.17696 62.293259 -0.57755148
60.225174 62.314781 -0.45789298
60.231686 62.317692 -0.34399688
59.656303 62.060818 -0.26510495
57.597725 61.141796 -0.19581252
60.338234 62.365257 0
60.297966 62.347279 0.11322608
60.155502 62.280891 -0.69430661
60.14135 62.274563 -0.58308876
60.240112 62.318726 -0.45620379
60.246769 62.321705 -0.34271258
59.638588 62.049747 -0.26625812
57.618427 61.146412 -0.19523197
60.358231 62.371544 0
60.298965 62.345043 0.11322608
60.229748 62.30862 -0.6812672
60.065613 62.234989 -0.59485489
60.251411 62.31834 -0.45507911
60.244122 62.315071 -0.34314013
59.65509 62.050827 -0.26539406
52.999027 59.064842 -0.33673584
60.364944 62.369274 0
60.291492 62.336323 0.11351608
60.186726 62.283783 -0.68941528
60.145531 62.265244 -0.58308876
60.221004 62.299213 -0.45901984
60.222755 62.299999 -0.34527957
59.633869 62.034966 -0.26683527
53.00975 59.053692 -0.33659029
60.328945 62.347794 0
60.298241 62.333973 0.11337108
60.238346 62.301548 -0.680453
60.106476 62.242004 -0.58931756
60.241589 62.303013 -0.4567683
60.224812 62.295437 -0.34527957
59.612679 62.019047 -0.26827645
52.996792 59.03186 -0.33717084
60.269279 62.315514 0
60.304989 62.331638 0.11322608
60.222389 62.288845 -0.68371284
60.108604 62.237305 -0.58931756
60.215878 62.285896 -0.46014452
60.264286 62.307823 -0.34185582
59.624489 62.018013 -0.2677004
52.988594 59.012135 -0.3376064
60.332951 62.338928 0
60.302277 62.325031 0.11337108
60.19297 62.269974 -0.68941528
60.110737 62.232601 -0.58931756
60.254963 62.298141 -0.45564145
60.238281 62.290562 -0.34442446
59.622185 62.01059 -0.26798844
52.975704 58.990234 -0.33818698
60.330227 62.332344 0
60.309032 62.322712 0.11322608
60.132084 62.236664 -0.70082635
60.099174 62.221657 -0.59139472
60.215408 62.274651 -0.46070686
60.240349 62.286018 -0.34442446
59.605762 61.996719 -0.26914161
52.967575 58.970448 -0.33862251
60.247002 62.289051 0
60.296886 62.311794 0.11366108
60.219635 62.271057 -0.68534124
60.09219 62.212769 -0.59278035
60.203629 62.263733 -0.46239606
60.219082 62.270802 -0.34656388
59.612885 61.993561 -0.26885357
52.959496 58.950642 -0.33905753
60.305874 62.310497 0
60.294209 62.305161 0.11380608
60.073467 62.198463 -0.71223432
60.130836 62.224785 -0.58724308
60.233433 62.271858 -0.45901984
60.249165 62.279076 -0.34399688
59.629425 61.994732 -0.26798844
52.95615 58.932964 -0.33934808
60.303173 62.303856 0
60.286804 62.296345 0.11409663
60.134018 62.220589 -0.70164055
60.137535 62.22221 -0.58655161
60.217075 62.25882 -0.4612692
60.246586 62.2724 -0.34442446
59.660053 62.002434 -0.26625812
52.957565 58.917454 -0.3394931
60.291054 62.29287 0
60.307747 62.300552 0.11351608
60.154121 62.224209 -0.69838065
60.098694 62.198616 -0.59278035
60.219185 62.25425 -0.4612692
60.262665 62.274326 -0.34314013
59.648376 61.990685 -0.26712328
52.959 58.901939 -0.33963808
60.297844 62.290569 0
60.286217 62.285202 0.11424164
60.120388 62.202942 -0.70490038
60.100872 62.193901 -0.59278035
60.189014 62.23473 -0.46520993
60.274063 62.274124 -0.34228504
59.669582 61.994125 -0.26597011
52.941597 58.877682 -0.34036365
60.281017 62.277348 0
60.274139 62.274162 0.11467719
60.109108 62.192001 -0.70734608
60.075768 62.17651 -0.59693199
60.172714 62.221558 -0.4674615
60.257526 62.260967 -0.34399688
59.695461 61.99979 -0.26452893
52.943066 58.862129 -0.34050921
60.273655 62.268463 0
60.285664 62.274044 0.11438663
60.268112 62.260403 -0.6788215
60.155277 62.207806 -0.58516592
60.170265 62.21479 -0.46802384
60.245682 62.249947 -0.34527957
59.683811 61.988033 -0.26539406
52.925735 58.837795 -0.34123474
60.318222 62.28376 0
60.292458 62.271751 0.11424164
60.095577 62.174229 -0.71060592
60.139267 62.19466 -0.58793455
60.200035 62.223076 -0.46464759
60.243137 62.243229 -0.34570876
59.690945 61.985016 -0.26510495
52.903744 58.811214 -0.3421053
60.23542 62.23962 0
60.294548 62.267273 0.11424164
60.178349 62.207306 -0.69593501
60.141449 62.189995 -0.58793455
60.133186 62.186119 -0.47308925
60.249924 62.240879 -0.34527957
59.70742 61.986397 -0.26424092
52.93354 58.808842 -0.34137976
60.289387 62.259392 0
60.296646 62.262794 0.11424164
64 64 -0
60.147083 62.189796 -0.58724308
64 64 -0
60.218452 62.223328 -0.34827575
59.722687 61.990406 -0.26337576
52.913166 58.791111 -0.3421053
60.271595 62.248299 0
60.283581 62.253929 0.11467719
64 64 -0
64 64 -0
64 64 -0
60.234539 62.22533 -0.34699142
59.753185 61.998466 -0.26164654
52.919468 58.777718 -0.3421053
60.278419 62.24601 0
60.276299 62.24501 0.1149672
64 64 -0
60.12426 62.167629 -0.59139472
60.051392 62.133175 -0.48378462
60.250599 62.22736 -0.34570876
59.755608 61.993336 -0.26164654
52.925789 58.764336 -0.3421053
60.313484 62.257092 0
60.269016 62.236065 0.11525775
64 64 -0
60.072075 62.137146 -0.59970069
60.067429 62.134941 -0.48209542
60.248108 62.220631 -0.34613633
59.767391 61.992645 -0.26106942
52.932121 58.750957 -0.3421053
60.287369 62.23925 0
60.261768 62.227108 0.11554775
64 64 -0
60.146824 62.166889 -0.58862609
60.074268 62.132374 -0.48153305
60.240997 62.211693 -0.34699142
59.769821 61.987534 -0.26106942
52.914993 58.726418 -0.34283143
60.266003 62.223587 0
60.268604 62.224823 0.11540275
64 64 -0
60.139977 62.157909 -0.59001172
60.067364 62.123257 -0.48265776
60.24316 62.207153 -0.34699142
59.790928 61.991337 -0.25991625
52.916687 58.710793 -0.34297642
60.272861 62.221325 0
60.289513 62.229271 0.11482219
64 64 -0
60.155785 62.159748 -0.58793455
60.083374 62.125084 -0.48097071
60.254585 62.207043 -0.34613633
59.793358 61.986252 -0.25991625
52.904335 58.688427 -0.343557
60.298481 62.228058 0
60.282269 62.220295 0.11511275
64 64 -0
60.148975 62.150764 -0.58931756
60.08564 62.120354 -0.48097071
60.247505 62.198078 -0.34699142
59.781799 61.974449 -0.26078141
52.906082 58.672775 -0.34370199
60.300625 62.223587 0
60.298481 62.222557 0.11467719
64 64 -0
60.155727 62.148289 -0.58862609
60.106228 62.124443 -0.47871917
60.26355 62.200222 -0.34570876
59.793579 61.973846 -0.26020426
52.903172 58.654869 -0.34399199
60.288704 62.212337 0
60.281902 62.209064 0.11525775
64 64 -0
60.072124 62.102165 -0.60177779
60.103928 62.117531 -0.47928151
60.247253 62.186783 -0.34741899
59.809994 61.975513 -0.25934023
52.895599 58.634682 -0.34442756
60.290867 62.207855 0
60.279396 62.202312 0.11540275
64 64 -0
60.146664 62.132435 -0.59070325
60.09248 62.106174 -0.48097071
60.249447 62.182251 -0.34741899
59.840382 61.983994 -0.2576099
52.892727 58.61673 -0.3447181
60.250885 62.182945 0
60.295605 62.20462 0.1149672
64 64 -0
60.090263 62.099262 -0.59970069
64 64 -0
60.251644 62.177719 -0.34741899
59.847466 61.981228 -0.25732189
52.885231 58.596504 -0.34515309
60.262436 62.182964 0
60.274395 62.188778 0.11569331
64 64 -0
60.133148 62.11433 -0.59347188
60.060528 62.078918 -0.48547381
60.244614 62.168686 -0.34827575
59.887108 61.99435 -0.25501555
52.891769 58.583076 -0.34515309
60.25061 62.171612 0
60.276585 62.18428 0.11569331
64 64 -0
60.1129 62.09864 -0.59693199
60.05373 62.069698 -0.48659849
60.260666 62.170921 -0.34699142
59.917404 62.003014 -0.25328636
52.888977 58.565086 -0.34544367
60.280869 62.180801 0
60.26479 62.172935 0.11612831
64 64 -0
60.110699 62.091736 -0.59762353
60.078873 62.076122 -0.48378462
60.249046 62.159618 -0.34827575
59.882668 61.979855 -0.25559267
52.862907 58.535648 -0.34645921
60.28307 62.176308 0
60.27166 62.170712 0.11598331
64 64 -0
60.098339 62.082745 -0.59970069
60.084591 62.075993 -0.48322225
60.259384 62.161884 -0.34741899
59.902462 61.986492 -0.25443953
52.870869 58.531212 -0.34631422
60.242134 62.153408 0
60.272766 62.168461 0.11598331
64 64 -0
60.132164 62.093563 -0.59485489
60.096046 62.07576 -0.48209542
60.261608 62.157364 -0.34741899
59.90955 61.983837 -0.25415039
52.858841 58.508575 -0.34689477
60.300392 62.176479 0
60.288971 62.170853 0.11554775
64 64 -0
60.116482 62.079998 -0.59762353
60.080151 62.062035 -0.48434696
60.254623 62.148296 -0.34827575
59.925888 61.985767 -0.25328636
52.860828 58.492817 -0.34703979
60.21862 62.130493 0
60.28186 62.161758 0.11583831
64 64 -0
60.08284 62.057472 -0.6031608
60.07338 62.05278 -0.48547381
60.25227 62.141491 -0.34870329
59.932953 61.983143 -0.25299832
52.834896 58.463196 -0.3480559
60.276821 62.153667 0
60.27943 62.154961 0.11598331
64 64 -0
60.116627 62.068375 -0.59831768
60.093937 62.057091 -0.48322225
60.240723 62.130104 -0.34998763
59.958565 61.989754 -0.25155604
52.832279 58.445076 -0.34834644
60.251102 62.135265 0
60.277016 62.148155 0.11612831
64 64 -0
60.092033 62.050251 -0.60246933
60.082657 62.04557 -0.4849093
60.247574 62.127853 -0.34956005
59.960999 61.984875 -0.25155604
52.820415 58.422318 -0.34892645
60.248703 62.128414 0
60.269947 62.139011 0.11641887
64 64 -0
60.094391 62.045528 -0.60246933
60.080467 62.038559 -0.48547381
60.24984 62.123318 -0.34956005
59.99118 61.993881 -0.24982683
52.827164 58.408813 -0.34892645
60.255619 62.126213 0
60.272198 62.134506 0.11641887
64 64 -0
60.038464 62.011551 -0.61146677
60.10556 62.045231 -0.48265776
60.238358 62.111885 -0.35084271
59.984371 61.984402 -0.25040287
52.81535 58.38599 -0.349507
60.276493 62.131027 0
60.269814 62.127674 0.11656387
64 64 -0
60.103603 62.038349 -0.60177779
60.112461 62.042809 -0.48209542
60.249805 62.111954 -0.34998763
59.977562 61.974892 -0.25098002
52.82214 58.372478 -0.349507
60.236919 62.105469 0
60.272079 62.123169 0.11656387
64 64 -0
60.132858 62.047218 -0.59762353
60.137505 62.049564 -0.47928151
60.256668 62.109737 -0.34956005
59.96154 61.960709 -0.25213319
52.801105 58.344917 -0.35037813
60.262436 62.112652 0
60.269714 62.116325 0.11670887
64 64 -0
60.108356 62.028938 -0.60177779
60.108124 62.028824 -0.48322225
60.258953 62.105217 -0.34956005
59.968616 61.958164 -0.25184515
52.775505 58.31496 -0.35139367
60.241508 62.096378 0
60.271992 62.11182 0.11670887
64 64 -0
60.10627 62.021969 -0.60246933
60.110512 62.02412 -0.48322225
60.265839 62.103027 -0.34913087
59.957264 61.946274 -0.25270921
52.787014 58.303753 -0.35124868
60.276279 62.108334 0
60.283535 62.112019 0.11641887
64 64 -0
60.139961 62.033215 -0.59762353
60.1446 62.035576 -0.47928151
60.236107 62.082199 -0.35212705
59.987396 61.955475 -0.25098002
52.789276 58.287853 -0.35139367
60.269302 62.099113 0
60.28582 62.107529 0.11641887
64 64 -0
60.146805 62.03083 -0.59693199
60.110775 62.012417 -0.48378462
60.233856 62.075317 -0.35255459
59.989868 61.95063 -0.25098002
52.796188 58.274311 -0.35139367
60.253063 62.085133 0
60.278862 62.09832 0.11670887
64 64 -0
60.112263 62.010216 -0.60246933
60.111977 62.010067 -0.48378462
60.230438 62.070698 -0.3529838
59.949669 61.926998 -0.25357437
52.79501 58.265167 -0.35153925
60.244961 62.078133 0
60.261509 62.086601 0.11728942
64 64 -0
60.163776 62.030727 -0.59485489
60.109867 62.003056 -0.48434696
60.232773 62.066147 -0.3529838
59.942982 61.917385 -0.25415039
57.351067 60.586861 -0.20872925
60.224121 62.061703 0
60.27306 62.086826 0.11699942
64 64 -0
60.184002 62.035282 -0.5920862
60.094212 61.989052 -0.48659849
60.253368 62.070995 -0.35127193
59.97768 61.929054 -0.25213319
57.364445 60.583591 -0.20843869
60.249619 62.069061 0
60.266144 62.077572 0.11728942
64 64 -0
60.166473 62.014519 -0.59554905
60.130672 61.995979 -0.48265776
60.239807 62.052502 -0.3529838
59.936771 61.895554 -0.25501555
57.363483 60.562782 -0.20872925
60.254295 62.060005 0
60.24773 62.056606 0.11801498
64 64 -0
60.17334 62.012207 -0.59485489
60.087994 61.967876 -0.48828769
60.246731 62.050335 -0.35255459
59.920956 61.881107 -0.25616872
57.363033 60.552372 -0.20887424
60.219688 62.036285 0
60.268528 62.061657 0.11743443
64 64 -0
60.157944 61.998314 -0.59762353
60.131008 61.98428 -0.48322225
60.244522 62.043419 -0.3529838
59.914333 61.871395 -0.25674585
57.376411 60.549152 -0.20858425
60.272827 62.058167 0
60.266251 62.054741 0.11757998
64 64 -0
60.173695 62.000637 -0.59554905
60.124447 61.974903 -0.48434696
60.224144 62.026997 -0.35512322
59.889408 61.852089 -0.25847507
57.39901 60.550777 -0.20800368
60.265961 62.048847 0
60.259399 62.045422 0.11786998
64 64 -0
60.19389 62.005333 -0.59278035
60.104397 61.958431 -0.48716083
60.231091 62.024826 -0.35469401
59.832447 61.81591 -0.26222259
57.416996 60.550045 -0.20756812
60.245274 62.032261 0
60.270962 62.045723 0.11757998
64 64 -0
60.165226 61.984398 -0.59762353
60.084362 61.941895 -0.48997688
60.228924 62.017879 -0.35512322
59.839664 61.813282 -0.26193458
57.444168 60.55418 -0.20684257
60.233829 62.020458 0
60.259541 62.03397 0.11801498
64 64 -0
60.247551 62.021881 -0.58516592
60.086849 61.937164 -0.48997688
60.226784 62.010933 -0.35555077
59.828575 61.801018 -0.26279971
57.471317 60.558376 -0.20611702
60.245422 62.02076 0
60.248123 62.022182 0.11845054
64 64 -0
60.210026 61.996243 -0.59139472
60.062401 61.918194 -0.4933531
60.197414 61.989574 -0.35854694
59.822098 61.791145 -0.26337576
57.466301 60.545635 -0.20640701
60.25243 62.018661 0
60.236725 62.010361 0.1188861
64 64 -0
60.0839 61.9235 -0.61146677
60.082878 61.922958 -0.49110156
60.249744 62.01144 -0.35383889
59.811058 61.778828 -0.26424092
57.488846 60.547482 -0.20582646
60.231823 62.001938 0
60.248325 62.010689 0.11859554
64 64 -0
60.25032 62.005936 -0.58585745
60.067444 61.908684 -0.4933531
60.220413 61.990032 -0.3568351
59.772644 61.751911 -0.26683527
57.483837 60.534733 -0.20611702
60.252621 62.00716 0
60.246147 62.003719 0.11874054
64 64 -0
60.248291 61.999039 -0.58655161
60.101364 61.920677 -0.48941237
60.213795 61.98064 -0.35769019
59.779922 61.749237 -0.26654723
57.492626 60.529316 -0.20597146
60.245857 61.997742 0
60.248562 61.999184 0.11874054
64 64 -0
60.31147 62.029873 -0.57686001
60.066761 61.899166 -0.49391544
60.24218 61.992863 -0.35512322
59.72197 61.715004 -0.27029479
57.490128 60.522926 -0.20611702
60.228703 61.985664 0
60.249771 61.996918 0.11874054
64 64 -0
60.411148 62.077538 -0.56163377
60.100647 61.911205 -0.48997688
60.235565 61.983479 -0.35597834
59.724731 61.709839 -0.27029479
57.489758 60.512611 -0.20626202
60.235722 61.983562 0
60.261349 61.997292 0.11845054
64 64 -0
60.351604 62.039963 -0.57132268
60.062885 61.884853 -0.49504229
60.21991 61.969212 -0.35769019
59.718399 61.699783 -0.2708708
57.503139 60.509674 -0.20597146
60.279423 62.001183 0
60.259197 61.990318 0.11859554
64 64 -0
60.309792 62.011749 -0.57824564
60.052036 61.872875 -0.49672934
60.222366 61.964645 -0.35769019
59.712063 61.689697 -0.27144793
57.484474 60.489494 -0.20669757
60.245186 61.97694 0
60.252468 61.980865 0.1188861
64 64 -0
60.144463 61.916656 -0.60454649
60.050125 61.865681 -0.49729383
60.224831 61.960083 -0.35769019
59.660248 61.65501 -0.27490744
57.48872 60.481625 -0.20669757
60.210999 61.95261 0
60.241207 61.968933 0.1193211
64 64 -0
60.283741 61.986111 -0.58308876
60.07058 61.870594 -0.49504229
60.231808 61.957966 -0.35726264
59.667645 61.652241 -0.27461833
57.488411 60.471283 -0.20684257
60.27755 61.982754 0
60.243664 61.964394 0.1193211
64 64 -0
59.964359 61.806721 -0.63361591
60.068695 61.863426 -0.49560463
60.166626 61.916649 -0.36368093
59.652302 61.637127 -0.2757715
57.50182 60.468388 -0.20655201
60.229679 61.950916 0
60.246128 61.959854 0.1193211
64 64 -0
60.491272 62.087589 -0.5512507
60.057888 61.851379 -0.49729383
60.200687 61.929211 -0.36068639
59.650623 61.629402 -0.27605951
57.487839 60.450588 -0.20713258
60.241306 61.951347 0
60.23946 61.95034 0.11961166
64 64 -0
60.000496 61.813824 -0.62877011
60.042652 61.836868 -0.49954537
60.221214 61.934471 -0.35897452
59.671631 61.634064 -0.27490744
57.483006 60.437733 -0.20742314
60.220936 61.934319 0
60.23283 61.940819 0.11990166
64 64 -0
60.025135 61.821049 -0.62531
60.076466 61.84919 -0.49560463
60.219215 61.927441 -0.35940206
59.629139 61.603973 -0.27778983
57.469086 60.419868 -0.20800368
60.209755 61.922256 0
60.248978 61.943756 0.11946665
64 64 -0
60.080532 61.845253 -0.61700404
60.083515 61.846893 -0.49504229
60.217228 61.920403 -0.35982963
59.582188 61.571285 -0.2809602
57.468864 60.409477 -0.20814869
60.225941 61.925194 0
60.251465 61.939224 0.11946665
64 64 -0
60.465401 62.051273 -0.55678797
60.068321 61.832352 -0.49729383
60.215233 61.913349 -0.36025882
59.557938 61.550961 -0.28269053
57.418598 60.371479 -0.20989037
60.233021 61.923153 0
60.253956 61.934696 0.11946665
64 64 -0
60.090137 61.838215 -0.61631256
60.075401 61.830067 -0.49672934
60.172836 61.883938 -0.36453769
59.542789 61.535583 -0.2838437
57.327484 60.310726 -0.21293814
60.258305 61.931194 0
60.238262 61.920113 0.12004722
64 64 -0
60.105923 61.840794 -0.6142354
60.086906 61.83025 -0.49560463
60.220287 61.904209 -0.36025882
59.509579 61.510132 -0.28615001
57.136524 60.194309 -0.21917874
60.238052 61.914059 0
60.249878 61.920616 0.11975666
64 64 -0
60.003288 61.777569 -0.63084728
60.062893 61.810711 -0.49898088
60.218338 61.897148 -0.36068639
59.526157 61.512253 -0.28528488
57.009415 60.112778 -0.22338764
60.222378 61.899395 0
60.229687 61.903461 0.12048221
64 64 -0
64 64 -0
60.064217 61.808331 -0.49898088
60.188225 61.877388 -0.36368093
59.491505 61.489414 -0.28759122
57.025391 60.116142 -0.22295208
60.232735 61.902172 0
60.249119 61.911297 0.11990166
64 64 -0
59.915333 61.718956 -0.64538199
60.080166 61.811005 -0.49729383
60.172863 61.86277 -0.36539277
59.512608 61.494057 -0.28643805
57.093605 60.143188 -0.2209204
60.221653 61.890015 0
60.247093 61.904224 0.12004722
64 64 -0
59.988136 61.75325 -0.63430744
60.060646 61.793858 -0.50010771
60.179924 61.860653 -0.36496523
59.511131 61.486111 -0.28672606
57.238834 60.213566 -0.21642095
60.246906 61.898167 0
60.24963 61.899693 0.12004722
64 64 -0
64 64 -0
60.063316 61.789097 -0.50010771
60.195946 61.863583 -0.36368093
59.505142 61.47562 -0.28730318
57.352146 60.266464 -0.21293814
60.235828 61.885986 0
60.238586 61.887535 0.12048221
64 64 -0
60.028553 61.763256 -0.62877011
60.088123 61.79681 -0.49729383
60.194042 61.856464 -0.36411011
64 64 -0
57.388363 60.276291 -0.21192203
60.238388 61.881439 0
60.241142 61.882992 0.12048221
64 64 -0
60.083683 61.788071 -0.62046421
60.095226 61.79459 -0.49672934
60.192169 61.849342 -0.36453769
59.47974 61.446964 -0.28932041
57.401909 60.273411 -0.21163204
60.268131 61.892246 0
60.261803 61.888672 0.11990166
64 64 -0
60.025246 61.748726 -0.63015312
60.097897 61.789875 -0.49672934
60.194771 61.844742 -0.36453769
59.446819 61.421108 -0.29162675
57.388329 60.255196 -0.21221259
60.257107 61.880051 0
60.25079 61.876472 0.12033722
64 64 -0
60.014877 61.736488 -0.63223028
60.087307 61.77763 -0.49841851
60.170601 61.82494 -0.36710465
59.409458 61.392616 -0.2942211
57.33865 60.216419 -0.2139537
60.277775 61.885815 0
60.24884 61.869377 0.12048221
64 64 -0
59.982735 61.711807 -0.63776755
60.050259 61.750267 -0.50348395
60.186604 61.827927 -0.36582199
59.412613 61.387074 -0.2942211
57.257423 60.1595 -0.21671151
60.280334 61.881317 0
60.224316 61.849411 0.12135333
64 64 -0
60.029064 61.731838 -0.63084728
60.044147 61.740452 -0.50461078
60.171398 61.813137 -0.36753386
59.402294 61.373833 -0.29508626
57.194374 60.11269 -0.21888873
60.264816 61.866497 0
60.222408 61.842274 0.12149833
64 64 -0
60.040524 61.732033 -0.62946165
60.077751 61.753357 -0.50067008
60.16959 61.805962 -0.36796141
59.450348 61.393986 -0.29220387
57.122421 60.060558 -0.22135596
60.289978 61.87492 0
60.225018 61.837711 0.12149833
64 64 -0
60.043266 61.727249 -0.62946165
60.080467 61.748619 -0.50067008
60.167797 61.798782 -0.36838898
58.004723 60.556309 -0.38531709
57.113678 60.044495 -0.22179097
60.265457 61.854877 0
60.20961 61.8228 0.12207889
64 64 -0
60.08514 61.745007 -0.62323284
60.114021 61.761642 -0.49672934
60.188255 61.804401 -0.36667711
58.008888 60.549068 -0.38531709
57.122963 60.038769 -0.22164597
60.272575 61.852974 0
60.221256 61.823414 0.12178833
64 64 -0
60.00967 61.69511 -0.63569039
60.059525 61.723907 -0.50404626
60.195351 61.802364 -0.36624953
64 64 -0
57.11425 60.022659 -0.22208153
60.288681 61.856274 0
60.219376 61.816242 0.12193389
64 64 -0
60.05587 61.715435 -0.62877011
60.075459 61.726784 -0.50235927
60.189133 61.792625 -0.36710465
58.026188 60.53978 -0.38474104
57.155037 60.035183 -0.2209204
60.25526 61.830929 0
60.226528 61.814285 0.12178833
64 64 -0
60.048576 61.708023 -0.63015312
60.054859 61.711666 -0.50517315
60.208233 61.800629 -0.36539277
58.023811 60.533581 -0.38502905
57.13496 60.018013 -0.22164597
60.26107 61.831276 0
60.214359 61.804184 0.12222389
64 64 -0
60.025318 61.688107 -0.63430744
60.022484 61.686459 -0.50967622
60.179821 61.777977 -0.36838898
58.01907 60.521164 -0.3856051
57.171227 60.028011 -0.22062984
60.281689 61.837227 0
60.212528 61.797001 0.12236889
64 64 -0
60.136463 61.746506 -0.61700404
60.047226 61.694454 -0.50686234
60.14703 61.75267 -0.3718127
58.023277 60.513939 -0.3856051
57.171528 60.017139 -0.22077541
60.302288 61.843227 0
60.233147 61.802898 0.12178833
64 64 -0
60.08289 61.708908 -0.62600148
60.023705 61.67429 -0.51023859
60.158623 61.753204 -0.37095594
58.018555 60.501492 -0.38618222
57.189808 60.016766 -0.22033985
60.25996 61.812477 0
60.208881 61.7826 0.12265944
64 64 -0
60.064026 61.691486 -0.62946165
59.995827 61.651489 -0.51417929
60.201191 61.771938 -0.36710465
58.018326 60.491653 -0.38647026
57.212555 60.019054 -0.21975929
60.289555 61.823765 0
60.225018 61.785912 0.12222389
64 64 -0
60.066818 61.686733 -0.62946165
59.968018 61.628628 -0.51811785
60.164062 61.743927 -0.37095594
58.035954 60.492298 -0.3856051
57.226341 60.016132 -0.21946873
60.242828 61.790253 0
60.191856 61.760277 0.123385
64 64 -0
60.056644 61.674332 -0.63153875
59.992771 61.636662 -0.51530397
60.153519 61.731468 -0.37224028
58.017902 60.471947 -0.38704738
57.226669 60.005302 -0.21961428
60.27689 61.804226 0
60.212471 61.766235 0.12280445
64 64 -0
59.899666 61.575069 -0.65714812
59.97813 61.621475 -0.51755553
60.196033 61.75034 -0.36838898
58.044445 60.477894 -0.3856051
57.253864 60.010345 -0.21888873
60.24818 61.781181 0
60.206219 61.756363 0.12309501
64 64 -0
60.027752 61.644337 -0.63707608
59.98101 61.616615 -0.51755553
60.176678 61.732655 -0.3705284
58.022003 60.454865 -0.38733539
57.276569 60.012802 -0.21830818
60.264297 61.784615 0
60.195538 61.743835 0.12353001
64 64 -0
59.978848 61.608765 -0.64538199
59.996998 61.619556 -0.51586634
60.17942 61.728035 -0.3705284
58.044075 60.458221 -0.38618222
57.276928 60.002026 -0.21845317
60.253555 61.772121 0
60.211651 61.747204 0.12309501
64 64 -0
59.990368 61.609051 -0.64399636
59.960583 61.59129 -0.52093393
60.177761 61.720795 -0.37095594
58.021709 60.435135 -0.38791144
57.295158 60.001892 -0.21801762
60.233898 61.754269 0
60.209919 61.739967 0.12324
64 64 -0
59.984638 61.599052 -0.64538199
59.972229 61.591633 -0.51980704
60.154072 61.700363 -0.37352458
59.437805 61.272076 -0.29623944
57.308907 59.999123 -0.21772762
60.236618 61.749718 0
60.208195 61.732727 0.123385
64 64 -0
59.978943 61.589046 -0.64676499
59.983849 61.591988 -0.51868236
60.143639 61.687794 -0.37480888
59.396744 61.239971 -0.2991218
57.327122 59.999062 -0.21729206
60.234879 61.7425 0
60.184204 61.712116 0.12425556
64 64 -0
59.895859 61.532482 -0.66060823
59.991131 61.589764 -0.51811785
60.181637 61.7043 -0.37138516
59.431103 61.253059 -0.29710457
57.345325 59.999039 -0.21685649
60.264366 61.75404 0
60.191422 61.710182 0.12411056
64 64 -0
59.87307 61.511986 -0.66475987
59.998394 61.587543 -0.51755553
60.162434 61.686436 -0.37352458
59.43 61.244873 -0.29739261
57.327919 59.977585 -0.21758206
60.240345 61.733406 0
60.207531 61.713623 0.12367556
64 64 -0
59.951881 61.556168 -0.65230232
60.012909 61.593006 -0.51586634
60.177021 61.692081 -0.37224028
59.444958 61.250137 -0.29652745
59.421284 61.235844 -0.14937013
60.246166 61.733826 0
60.182224 61.695225 0.12454612
64 64 -0
64 64 -0
60.002773 61.580292 -0.51755553
60.175426 61.684807 -0.37266782
59.426159 61.231243 -0.29796863
59.424625 61.230316 -0.14937013
60.248909 61.72929 0
60.193913 61.695999 0.12425556
64 64 -0
64 64 -0
60.014378 61.580734 -0.51643085
60.147499 61.661537 -0.375664
59.429508 61.225719 -0.29796863
59.379105 61.195122 -0.15096681
60.2383 61.716656 0
60.210014 61.699486 0.12382057
64 64 -0
64 64 -0
60.039024 61.589138 -0.51361477
60.16349 61.664894 -0.37437969
59.446106 61.22826 -0.29710457
59.400253 61.200348 -0.15038624
60.227737 61.703999 0
60.199493 61.68681 0.12425556
64 64 -0
64 64 -0
60.015903 61.568466 -0.51699317
60.175068 61.665604 -0.37352458
59.453873 61.225449 -0.29681656
59.403641 61.194794 -0.15038624
60.230515 61.699444 0
60.206722 61.684921 0.12411056
64 64 -0
64 64 -0
60.036182 61.574261 -0.51474166
60.151627 61.644909 -0.37609157
59.44841 61.214565 -0.29739261
59.411461 61.191952 -0.15024124
60.215538 61.684021 0
60.200649 61.674911 0.12440112
64 64 -0
64 64 -0
60.02179 61.558842 -0.51699317
60.167591 61.648312 -0.37480888
59.482647 61.228008 -0.29537427
59.441444 61.202724 -0.14937013
60.21389 61.67672 0
60.190186 61.662174 0.12483612
64 64 -0
64 64 -0
60.027702 61.549236 -0.51699317
60.125233 61.609409 -0.37951529
59.515766 61.233391 -0.29364508
59.430523 61.180801 -0.14995068
60.184078 61.645714 0
60.186993 61.647511 0.12512667
64 64 -0
64 64 -0
60.047955 61.555134 -0.51474166
60.154312 61.62093 -0.37694833
59.519112 61.227974 -0.29364508
59.469292 61.197155 -0.14878957
60.178082 61.635635 0
60.194252 61.645638 0.12498168
64 64 -0
64 64 -0
60.033638 61.539642 -0.51699317
60.13102 61.600052 -0.37951529
59.500488 61.208931 -0.29508626
59.459427 61.18346 -0.14922513
60.189777 61.636501 0
60.179436 61.630085 0.12556224
64 64 -0
64 64 -0
60.066822 61.553642 -0.51305246
60.151363 61.606224 -0.37780342
59.543396 61.228081 -0.29249191
59.484894 61.191696 -0.14849958
60.197067 61.634655 0
60.173485 61.619984 0.12585224
64 64 -0
64 64 -0
60.074089 61.551579 -0.51249009
60.149906 61.598862 -0.37823099
59.52919 61.21175 -0.29364508
59.479481 61.180748 -0.14878957
60.213165 61.638317 0
60.180767 61.618111 0.12570724
64 64 -0
64 64 -0
60.064121 61.538754 -0.51417929
60.131031 61.580593 -0.38037205
59.501858 61.187149 -0.29566339
59.465263 61.164268 -0.14937013
60.158657 61.59787 0
60.183647 61.613499 0.12570724
64 64 -0
64 64 -0
60.088638 61.547504 -0.51136327
60.142666 61.581383 -0.37951529
59.439529 61.140503 -0.29998696
59.411461 61.122902 -0.1512568
60.152752 61.587704 0
60.186535 61.608887 0.12570724
64 64 -0
64 64 -0
60.05999 61.526222 -0.51530397
60.131081 61.570858 -0.38079962
59.393063 61.107487 -0.30315843
59.382385 61.100784 -0.15227292
60.189472 61.607521 0
60.17477 61.598289 0.1261428
64 64 -0
64 64 -0
60.032871 61.50251 -0.51924473
60.120979 61.557976 -0.38208392
59.348419 61.071617 -0.30632883
59.363907 61.081367 -0.15299848
60.192368 61.602921 0
60.186481 61.599213 0.12585224
64 64 -0
64 64 -0
60.083168 61.527561 -0.51305246
60.11092 61.545078 -0.38336658
59.378201 61.082558 -0.30459964
59.367439 61.075768 -0.15299848
60.120445 61.55109 0
60.171806 61.583511 0.12643279
64 64 -0
64 64 -0
60.07756 61.517387 -0.51417929
60.113888 61.540382 -0.38336658
59.36861 61.068676 -0.30546477
59.362183 61.064606 -0.15328903
60.176186 61.579811 0
60.170341 61.576111 0.12657779
64 64 -0
64 64 -0
60.080563 61.51265 -0.51417929
60.108185 61.530178 -0.38422334
59.380901 61.06863 -0.30488765
59.392071 61.075718 -0.15241791
60.170315 61.569607 0
60.173275 61.571487 0.12657779
64 64 -0
64 64 -0
60.122154 61.532467 -0.50911385
60.132828 61.539257 -0.38208392
59.397541 61.071384 -0.30402249
59.386829 61.064568 -0.15270847
60.173252 61.564983 0
60.158672 61.555702 0.12715836
64 64 -0
64 64 -0
60.082306 61.500454 -0.51474166
60.10984 61.518024 -0.38465092
59.396709 61.063034 -0.3043116
59.381626 61.05341 -0.15299848
60.189365 61.56876 0
60.174759 61.559441 0.12672335
64 64 -0
64 64 -0
60.076775 61.49025 -0.51586634
60.130142 61.524391 -0.38293904
59.395908 61.054691 -0.30459964
59.393936 61.053429 -0.15270847
60.196686 61.566959 0
60.173336 61.552025 0.12686835
64 64 -0
64 64 -0
60.122578 61.512943 -0.51023859
60.098564 61.497543 -0.38636276
59.412537 61.05751 -0.30373448
59.432495 61.070312 -0.15154736
60.173351 61.545509 0
60.180668 61.550205 0.12672335
64 64 -0
64 64 -0
60.117046 61.502769 -0.51136327
60.105904 61.495605 -0.38593522
59.4161 61.051971 -0.30373448
59.44479 61.070423 -0.1512568
60.163181 61.53244 0
60.157413 61.528728 0.1275939
64 64 -0
64 64 -0
60.128601 61.503582 -0.51023859
60.083054 61.474213 -0.38850221
59.441395 61.060448 -0.3022933
59.422119 61.048016 -0.15212792
60.161797 61.524986 0
60.182236 61.53817 0.12686835
64 64 -0
64 64 -0
60.101742 61.479588 -0.51417929
60.07317 61.461113 -0.38978651
59.44495 61.054943 -0.3022933
59.460602 61.06506 -0.15096681
60.151672 61.511871 0
60.150299 61.510983 0.12802947
64 64 -0
64 64 -0
60.117588 61.483177 -0.51249009
60.080544 61.459164 -0.38935897
59.435486 61.040997 -0.30315843
59.477238 61.068062 -0.15053125
60.172153 61.518547 0
60.175129 61.520477 0.12730335
64 64 -0
64 64 -0
60.103588 61.467407 -0.51474166
60.079315 61.451633 -0.38978651
59.465099 61.052402 -0.30142814
59.489491 61.068256 -0.15024124
60.14024 61.491234 0
60.165051 61.507359 0.12773891
64 64 -0
64 64 -0
60.105118 61.465054 -0.51474166
60.08947 61.454872 -0.38892975
59.466881 61.049664 -0.30142814
59.517403 61.082546 -0.14937013
60.159206 61.500259 0
60.153484 61.496532 0.12817447
64 64 -0
64 64 -0
60.116703 61.465912 -0.51361477
60.075352 61.438927 -0.39064163
59.457447 61.035706 -0.3022933
59.603611 61.131084 -0.1466129
60.109921 61.461483 0
60.156513 61.49189 0.12817447
64 64 -0
64 64 -0
60.128265 61.466778 -0.51249009
60.061264 61.422939 -0.3923535
59.478348 61.041546 -0.30114013
57.758957 59.916576 -0.20829369
60.139133 61.473888 0
60.172596 61.495785 0.12773891
64 64 -0
64 64 -0
60.097336 61.439804 -0.51699317
60.042919 61.404106 -0.39449292
59.451645 61.01622 -0.30315843
57.855145 59.968895 -0.2052459
60.137825 61.466362 0
60.179966 61.494011 0.1275939
64 64 -0
64 64 -0
60.045242 61.398788 -0.52431017
60.020313 61.382393 -0.39706156
59.450935 61.007885 -0.30344647
57.842651 59.95005 -0.20582646
60.153938 61.470284 0
60.161293 61.475121 0.12831947
64 64 -0
64 64 -0
60.112026 61.435982 -0.51586634
59.989193 61.354973 -0.40048528
59.38979 60.959682 -0.30777001
57.838863 59.936886 -0.20611702
60.156998 61.465637 0
60.164345 61.470482 0.12831947
64 64 -0
64 64 -0
60.115128 61.431286 -0.51586634
59.911034 61.296333 -0.40861544
59.177723 60.811462 -0.32218409
57.865448 59.943775 -0.20539145
60.147034 61.452381 0
60.167404 61.465851 0.12831947
64 64 -0
64 64 -0
60.088581 61.406933 -0.51980704
59.704628 61.15239 -0.42958543
58.927212 60.637005 -0.33919251
57.874699 59.939243 -0.2052459
60.111076 61.421844 0
60.153145 61.449734 0.12890002
64 64 -0
64 64 -0
60.117104 61.419083 -0.51643085
59.464375 60.985218 -0.4539775
58.892509 60.60511 -0.34178686
57.896923 59.943352 -0.20466535
60.16621 61.451721 0
60.147564 61.439331 0.12919058
64 64 -0
64 64 -0
60.124466 61.417217 -0.51586634
59.416752 60.945576 -0.45911309
58.896614 60.598938 -0.34178686
57.901829 59.935982 -0.20466535
60.151966 61.435547 0
60.163639 61.443325 0.12875503
64 64 -0
64 64 -0
60.08955 61.387119 -0.52093393
59.424709 60.94289 -0.45868555
58.91362 60.601391 -0.3409228
57.885124 59.914173 -0.20539145
60.14642 61.425121 0
60.140812 61.421371 0.12962559
64 64 -0
64 64 -0
60.096943 61.385235 -0.52036941
