# .PCD v0.7 - Point Cloud Data file format
VERSION 0.7
FIELDS x y z
SIZE 4 4 4
TYPE F F F
COUNT 1 1 1
WIDTH 1623
HEIGHT 1
VIEWPOINT 0 0 0 1 0 0 0
POINTS 1623
DATA ascii
64.235374 81.707787 -0.9869526
64.242996 82.281189 -0.51060373
64.244919 82.425568 0
64.242165 82.21859 0.50885534
64.213539 81.671844 -0.98493427
64.22084 82.276276 -0.51045877
64.2229 82.446671 0
64.218704 82.099365 0.5055176
64.191902 81.646233 -0.98349309
64.198761 82.276527 -0.51045877
64.201294 82.509384 0
64.196442 82.063232 0.50450146
64.170532 81.641281 -0.98320508
64.176674 82.276756 -0.51045877
64.179985 82.618912 0
64.174263 82.0271 0.50348592
64.149216 81.641479 -0.98320508
64.154327 82.245766 -0.50958765
64.157928 82.67115 0
64.152214 81.996101 0.5026148
64.127678 81.610596 -0.98147476
64.132248 82.240746 -0.50944263
64.135628 82.707764 0
64.130432 81.991081 0.50246978
64.116867 81.584816 -0.98003358
64.121193 82.235634 -0.50929761
64.12426 82.697426 0
64.11953 81.98597 0.50232482
64.095535 81.56942 -0.97916842
64.099129 82.230576 -0.50915265
64.101723 82.707985 0
64.097885 82.001671 0.50275981
64.074196 81.543663 -0.97772723
64.077057 82.220276 -0.50886208
64.078987 82.676872 0
64.076042 81.980988 0.50217921
64.052963 81.533401 -0.97715122
64.055084 82.235954 -0.50929761
64.05629 82.635315 0
64.054253 81.960281 0.50159866
64.031715 81.497238 -0.97513288
64.033051 82.236008 -0.50929761
64.033882 82.692612 0
64.03244 81.897995 0.49985757
64.010536 81.445541 -0.97225052
64.011009 82.220436 -0.50886208
64.01133 82.749893 0
64.010796 81.872017 0.49913144
63.989491 81.393799 -0.96936703
63.988991 82.220436 -0.50886208
63.988697 82.708252 0
63.989124 82.001938 0.50275981
63.968567 81.342056 -0.96648467
63.966984 82.215218 -0.50871706
63.966251 82.619751 0
63.966694 82.376068 0.51320928
63.947693 81.316147 -0.96504349
63.944992 82.209976 -0.50857204
63.943817 82.598877 0
63.943924 82.563103 0.51843429
63.926945 81.274689 -0.96273714
63.923054 82.194298 -0.50813651
63.92152 82.557152 0
63.921055 82.666954 0.52133709
63.906155 81.259064 -0.96187198
63.901154 82.178596 -0.50770092
63.899323 82.515404 0
63.899036 82.5681 0.5185793
63.885506 81.227913 -0.96014279
63.879223 82.173271 -0.50755596
63.876881 82.525688 0
63.877499 82.432861 0.51480597
63.864975 81.191544 -0.95812446
63.857265 82.173111 -0.50755596
63.854374 82.54113 0
63.856697 82.245621 0.50958091
63.824066 81.129097 -0.95466495
63.813404 82.167526 -0.50741094
63.806843 82.806152 0
63.814152 82.094543 0.50537258
63.803669 81.103012 -0.95322376
63.791389 82.17247 -0.50755596
63.77898 83.253494 0
63.79229 82.094299 0.50537258
63.783199 81.087242 -0.9523586
63.769501 82.167015 -0.50741094
63.760868 82.84726 0
63.770294 82.104416 0.50566256
63.762985 81.055939 -0.95062941
63.74762 82.161514 -0.50726539
63.741928 82.571144 0
63.748058 82.130104 0.50638813
63.742687 81.034958 -0.94947624
63.72599 82.140427 -0.50668538
63.720432 82.508369 0
63.680786 85.133102 0.59027457
63.722527 81.008774 -0.94803506
63.704239 82.129684 -0.5063948
63.696369 82.612106 0
63.654488 85.179466 0.59158069
63.712688 80.982742 -0.94659388
63.693199 82.134689 -0.50653982
63.682484 82.768036 0
63.641693 85.179253 0.59158069
63.69273 80.951347 -0.94486356
63.671474 82.123932 -0.50624985
63.652733 83.157928 0
63.616383 85.163208 0.59114516
63.673149 80.904419 -0.94226921
63.649475 82.128708 -0.5063948
63.577465 85.853035 0
63.592522 85.074402 0.58867788
63.653465 80.867805 -0.94025087
63.627678 82.123077 -0.50624985
63.551701 85.821297 0
63.572926 84.788147 0.58069563
63.634434 80.805328 -0.93679249
63.605892 82.117432 -0.50610483
63.526581 85.763489 0
63.555382 84.439514 0.57097173
63.614841 80.773834 -0.93506217
63.584003 82.116936 -0.50610483
63.500641 85.747284 0
63.562416 83.057045 0.53236711
63.596073 80.711304 -0.93160266
63.562363 82.106018 -0.50581425
63.558502 82.265724 0
63.545544 82.801933 0.52525544
63.576931 80.669434 -0.92929631
63.540356 82.110672 -0.50595927
63.535641 82.29641 0
63.526516 82.655899 0.52119154
63.557617 80.637894 -0.92756712
63.519436 82.073746 -0.50494373
63.513256 82.306229 0
63.50425 82.644936 0.5209015
63.538807 80.590813 -0.92497277
63.497601 82.073158 -0.50494373
63.490849 82.316025 0
63.48259 82.613144 0.52003044
63.518608 80.595406 -0.92526078
63.475311 82.088104 -0.50537872
63.467812 82.346619 0
63.46236 82.534599 0.51785374
63.499184 80.574127 -0.92410761
63.453613 82.082268 -0.50523371
63.445328 82.356361 0
63.448441 82.253441 0.5100165
63.479969 80.547668 -0.92266643
63.431927 82.076408 -0.50508875
63.424458 82.314056 0
63.439114 81.847633 0.49869645
63.460144 80.541862 -0.92237842
63.410084 82.075706 -0.50508875
63.403858 82.266533 0
63.422634 81.691132 0.49434254
63.440857 80.520515 -0.92122525
63.388245 82.074982 -0.50508875
63.383018 82.229401 0
63.404423 81.596924 0.49172974
63.420895 80.519829 -0.92122525
63.366585 82.069038 -0.50494373
63.35844 82.30146 0
63.382614 81.611771 0.4921653
63.401497 80.503601 -0.92036009
63.344189 82.083824 -0.50537872
63.332363 82.409897 0
63.358887 81.678528 0.49405199
63.382332 80.482193 -0.91920692
63.323311 82.05706 -0.50465316
63.307781 82.471497 0
63.335972 81.719284 0.49521309
63.362015 80.491783 -0.91978407
63.300892 82.071808 -0.50508875
63.288483 82.392624 0
63.313354 81.749619 0.49608365
63.353474 80.4552 -0.91776574
63.290993 82.045425 -0.50436318
63.280842 82.30378 0
63.302837 81.744011 0.49593866
63.333172 80.464737 -0.91834176
63.268559 82.06012 -0.50479817
63.261677 82.230095 0
63.274246 81.919693 0.50087315
63.313923 80.448433 -0.91747773
63.247387 82.043663 -0.50436318
63.239647 82.229187 0
63.222057 82.650909 0.52133709
63.294273 80.442406 -0.91718858
63.22514 82.053116 -0.50465316
63.218964 82.197044 0
63.204872 82.525345 0.51785374
63.275089 80.426056 -0.91632456
63.203327 82.052162 -0.50465316
63.196056 82.216888 0
63.20013 82.124619 0.5066787
63.255478 80.419998 -0.91603655
63.181278 82.056374 -0.50479817
63.173809 82.221115 0
63.184822 81.978271 0.5026148
63.235638 80.41909 -0.91603655
63.159702 82.050186 -0.50465316
63.152519 82.204506 0
63.166965 81.894218 0.50029254
63.216537 80.402649 -0.91517138
63.138142 82.043968 -0.50450814
63.130028 82.213852 0
63.14584 81.882828 0.50000256
63.197987 80.375862 -0.9137302
63.116848 82.032547 -0.50421816
63.108021 82.212791 0
63.026363 83.880089 0.55587834
63.178978 80.359375 -0.91286504
63.095322 82.02626 -0.50407261
63.086014 82.2117 0
63.014587 83.634964 0.54905719
63.160801 80.327385 -0.91113585
63.073273 82.030357 -0.50421816
63.063744 82.215797 0
63.0042 83.374268 0.5418005
63.140533 80.336685 -0.91171187
63.051762 82.024017 -0.50407261
63.040638 82.235443 0
63.029934 82.438934 0.5156765
63.122181 80.309807 -0.91027069
63.029705 82.028069 -0.50421816
63.018604 82.234268 0
63.017429 82.256142 0.51059705
63.103046 80.298393 -0.90969354
63.007351 82.037247 -0.50450814
62.994858 82.264244 0
62.990231 82.348328 0.51320928
63.083641 80.292137 -0.90940553
62.985558 82.036034 -0.50450814
62.973083 82.257828 0
62.94384 82.777748 0.52525544
63.065144 80.270363 -0.90825236
62.964359 82.024429 -0.50421816
62.949528 82.282547 0
62.902668 83.098122 0.53425378
63.045788 80.264061 -0.90796435
62.941975 82.033531 -0.50450814
62.927742 82.27607 0
62.876244 83.153839 0.53584993
63.025829 80.268051 -0.90825236
62.920494 82.027054 -0.50436318
62.906284 82.264359 0
62.861801 83.007233 0.53178656
63.008381 80.230736 -0.90623516
62.899666 82.010178 -0.50392759
62.883263 82.278618 0
62.861649 82.632385 0.52133709
62.99762 80.245613 -0.90709919
62.888142 82.01989 -0.50421816
62.87286 82.267563 0
62.860954 82.460526 0.51654762
62.980587 80.203087 -0.90479285
62.866699 82.013329 -0.50407261
62.847847 82.312935 0
62.840935 82.422821 0.51553148
62.960346 80.212173 -0.90537
62.844265 82.022331 -0.50436318
62.823391 82.34787 0
62.818008 82.431793 0.51582205
62.941097 80.20575 -0.90508199
62.82283 82.015739 -0.50421816
62.798508 82.387985 0
62.786251 82.575531 0.51988542
62.92186 80.19928 -0.90479285
62.801407 82.009102 -0.50407261
62.775944 82.391708 0
62.756905 82.677765 0.52278823
62.904736 80.161858 -0.90277565
62.779648 82.007645 -0.50407261
62.753723 82.390221 0
62.728718 82.759201 0.52511042
62.88414 80.175987 -0.90363967
62.757175 82.016533 -0.50436318
62.732574 82.373138 0
62.702477 82.809494 0.52656156
62.866405 80.148834 -0.90219849
62.735405 82.015022 -0.50436318
62.710011 82.376778 0
62.675743 82.864944 0.52815825
62.848 80.131966 -0.90133333
62.712898 82.023834 -0.50465316
62.687069 82.385582 0
62.658875 82.780388 0.52583599
62.831505 80.08931 -0.89902812
62.693005 81.996353 -0.50392759
62.663345 82.404747 0
62.645969 82.643997 0.52206266
62.81321 80.072403 -0.89816296
62.670494 82.005142 -0.50421816
62.638805 82.434273 0
62.607368 82.860016 0.52815825
62.793789 80.070953 -0.89816296
62.649128 81.998322 -0.50407261
62.611858 82.494904 0
62.552689 83.283241 0.54005885
62.775944 80.048859 -0.89700979
62.626591 82.00705 -0.50436318
62.574471 82.690414 0
62.519905 83.405838 0.54354215
62.758152 80.026733 -0.89585662
62.604034 82.015732 -0.50465316
62.531384 82.953323 0
62.502079 83.33149 0.54150993
62.736759 80.051003 -0.8972978
62.582672 82.008858 -0.50450814
62.508072 82.956726 0
62.496254 83.106903 0.53526938
62.719013 80.028839 -0.89614463
62.560085 82.017479 -0.50479817
62.485584 82.949722 0
62.490555 82.887505 0.52917379
62.702995 79.986031 -0.89383829
62.537895 82.02092 -0.50494373
62.456795 83.0205 0
62.490005 82.61116 0.52148211
62.684528 79.974152 -0.89326227
62.516121 82.019142 -0.50494373
62.438515 82.961555 0
62.499508 82.220886 0.51059705
62.674877 79.973351 -0.89326227
62.506096 82.007874 -0.50465316
62.439537 82.810204 0
62.503536 82.038719 0.5055176
62.639359 79.934021 -0.89124393
62.462582 82.004211 -0.50465316
62.423752 82.458923 0
62.469673 81.921143 0.50232482
62.62011 79.932365 -0.89124393
62.44038 82.007515 -0.50479817
62.401451 82.457001 0
62.439503 82.017639 0.50508201
62.603573 79.899773 -0.88951474
62.418167 82.010803 -0.50494373
62.384613 82.392838 0
62.393635 82.290115 0.51277429
62.585281 79.887764 -0.88893759
62.395947 82.014053 -0.50508875
62.3647 82.36496 0
62.363701 82.37616 0.5152415
62.566082 79.88604 -0.88893759
62.37418 82.0121 -0.50508875
62.339703 82.394058 0
62.340099 82.389679 0.5156765
62.545948 79.894608 -0.88951474
62.350998 82.025658 -0.50552428
62.316055 82.407593 0
62.315987 82.408356 0.51625705
62.527218 79.887695 -0.88922673
62.329697 82.018463 -0.50537872
62.298622 82.353714 0
62.290386 82.442535 0.51727319
62.508991 79.875595 -0.88864958
62.309383 82.000923 -0.50494373
62.027264 85.004807 0
62.267616 82.445633 0.51741821
62.488338 79.889236 -0.88951474
62.285667 82.019562 -0.50552428
62.005829 84.960953 0
62.248283 82.412491 0.51654762
62.471127 79.866798 -0.88836157
62.264893 82.007118 -0.50523371
61.978008 84.984428 0
62.228527 82.384499 0.51582205
62.451454 79.870087 -0.88864958
62.243134 82.005013 -0.50523371
61.952148 84.987144 0
62.207829 82.366821 0.51538652
62.43177 79.873344 -0.88893759
62.220871 82.008041 -0.50537872
61.930374 84.948395 0
62.189728 82.323273 0.51422536
62.41362 79.861153 -0.88836157
62.197559 82.021393 -0.50581425
61.908169 84.91481 0
62.177933 82.217651 0.51132262
62.396019 79.843781 -0.88749641
62.176308 82.014038 -0.5056693
62.031784 83.441643 0
62.171101 82.065498 0.5071137
62.376877 79.841827 -0.88749641
62.153484 82.022156 -0.50595927
61.993439 83.584213 0
62.163574 81.923706 0.50319535
62.359871 79.819275 -0.88634324
62.131172 82.025093 -0.50610483
61.968704 83.59214 0
62.14674 81.874954 0.50188923
62.340755 79.817284 -0.88634324
62.108852 82.027985 -0.50624985
61.95969 83.449921 0
62.125141 81.872696 0.50188923
62.322739 79.804985 -0.88576722
62.088169 82.015343 -0.50595927
61.95377 83.281807 0
62.101353 81.891098 0.50246978
62.305851 79.782379 -0.88461405
62.063072 82.044029 -0.50683039
61.958248 83.020569 0
62.074192 81.940445 0.50392091
62.296871 79.776215 -0.88432604
62.052731 82.037697 -0.50668538
61.938377 83.096962 0
62.031002 82.238953 0.5123387
62.280052 79.753571 -0.88317287
62.031502 82.030151 -0.50653982
61.894402 83.285873 0
61.935646 82.908134 0.53120601
62.258183 79.777184 -0.88461405
62.009144 82.032936 -0.50668538
61.854538 83.43335 0
61.907669 82.95211 0.53251213
62.238548 79.780205 -0.88490206
61.986206 82.04084 -0.50697541
61.805653 83.658348 0
61.891113 82.892754 0.53091544
62.221802 79.757507 -0.88374889
61.963825 82.043549 -0.50712037
61.769646 83.764297 0
61.877609 82.807564 0.52859324
62.204521 79.739922 -0.88288373
61.942024 82.041077 -0.50712037
61.756386 83.668488 0
61.864899 82.717209 0.52612597
62.186687 79.72747 -0.88230771
61.918442 82.05407 -0.50755596
61.819057 82.916046 0
61.849422 82.652687 0.52438486
62.16589 79.740692 -0.88317287
61.896629 82.051544 -0.50755596
61.850418 82.448128 0
61.837715 82.557144 0.52177209
62.149292 79.717911 -0.8820197
61.875423 82.043831 -0.50741094
61.808044 82.616096 0
61.818939 82.52356 0.5209015
62.133968 79.68483 -0.88028938
61.85117 82.06189 -0.50799149
61.77879 82.670273 0
61.791035 82.567352 0.52220762
62.115635 79.677437 -0.88000137
61.830585 82.04895 -0.50770092
61.763062 82.610748 0
61.756817 82.662712 0.52496547
62.097317 79.670013 -0.87971336
61.806274 82.066956 -0.50828153
61.740578 82.608032 0
61.692928 83.000458 0.53454381
62.079643 79.657425 -0.8791362
61.785076 82.059143 -0.50813651
61.709225 82.677605 0
61.691479 82.822281 0.52960932
62.062634 79.639709 -0.87827218
61.761982 82.066757 -0.50842649
61.680901 82.721306 0
61.716011 82.437851 0.51886988
62.045021 79.627083 -0.87769502
61.739506 82.069206 -0.50857204
61.620808 83.018036 0
61.695026 82.424759 0.5185793
62.025494 79.629837 -0.87798303
61.715721 82.081917 -0.50900704
61.596523 83.025467 0
61.653877 82.571472 0.52278823
62.00988 79.601784 -0.87654185
61.691902 82.094612 -0.50944263
61.567612 83.069016 0
61.536755 83.310928 0.54368716
61.991692 79.594246 -0.87625384
61.671368 82.081512 -0.50915265
61.539253 83.107361 0
61.489525 83.493492 0.54891217
61.976185 79.566162 -0.87481266
61.649521 82.07869 -0.50915265
61.535629 82.954689 0
61.459274 83.541969 0.5503633
61.958725 79.553436 -0.87423551
61.627003 82.080978 -0.50929761
61.53643 82.771088 0
61.453918 83.39978 0.54644495
61.949326 79.5522 -0.87423551
61.615398 82.084686 -0.50944263
61.549583 82.583847 0
61.504021 82.92939 0.5332377
61.930538 79.549713 -0.87423551
61.592178 82.09211 -0.5097332
61.548416 82.420921 0
61.525024 82.596687 0.52394933
61.912437 79.542076 -0.8739475
61.568245 82.104622 -0.51016819
61.517155 82.485001 0
61.470043 82.835747 0.53077048
61.892273 79.549789 -0.87452352
61.546371 82.101669 -0.51016819
61.462662 82.719238 0
61.313965 83.816238 0.55849057
61.87278 79.552368 -0.87481266
61.522388 82.114143 -0.51060373
61.40266 82.989471 0
61.267487 83.977745 0.56313503
61.855408 79.539528 -0.87423551
61.5005 82.111137 -0.51060373
61.34343 83.249268 0
61.236248 84.025894 0.56458616
61.838768 79.521568 -0.87337148
61.475754 82.128693 -0.51118428
61.326633 83.199654 0
61.224953 83.929901 0.56197393
61.820015 79.518951 -0.87337148
61.453129 82.130768 -0.51132929
61.304886 83.186089 0
61.242802 83.628052 0.55355608
61.801266 79.516304 -0.87337148
61.431221 82.127686 -0.51132929
61.266369 83.291039 0
61.296371 83.079315 0.53817213
61.786182 79.488014 -0.87192917
61.404171 82.160583 -0.51234543
61.240852 83.303185 0
61.306408 82.844536 0.53164101
61.764515 79.505806 -0.87308234
61.376297 82.198578 -0.51350653
61.210102 83.351341 0
61.28809 82.81041 0.53077048
61.749504 79.477509 -0.87164116
61.352814 82.205673 -0.51379651
61.187469 83.342812 0
61.284805 82.673416 0.52699709
61.731552 79.469666 -0.87135315
61.327049 82.228165 -0.51452208
61.161079 83.360001 0
61.274307 82.587852 0.52467489
61.712105 79.472023 -0.87164116
61.301987 82.245483 -0.51510262
61.117134 83.49556 0
61.25869 82.538284 0.52336878
61.694939 79.459023 -0.87106514
61.276878 82.262772 -0.51568317
61.088974 83.522964 0
61.237827 82.524666 0.5230782
61.677799 79.445984 -0.87048799
61.25404 82.264603 -0.51582819
61.071575 83.478256 0
61.219307 82.495621 0.52235264
61.660686 79.432953 -0.86991197
61.23275 82.256142 -0.51568317
61.050385 83.459259 0
61.193844 82.512802 0.52293319
61.645168 79.409653 -0.8687588
61.205982 82.283615 -0.5165543
61.03159 83.42482 0
61.170692 82.514534 0.5230782
61.636642 79.403122 -0.86847079
61.195724 82.276772 -0.51640874
61.02459 83.392143 0
61.146111 82.600143 0.52554542
61.623566 79.364464 -0.86645246
61.171261 82.288788 -0.51684433
61.010704 83.326828 0
61.105366 82.714806 0.52888376
61.610584 79.325798 -0.86443412
61.14756 82.295631 -0.51713485
60.996979 83.26149 0
61.057941 82.870461 0.53338271
61.592869 79.317795 -0.86414611
61.122231 82.312706 -0.51771545
61.001987 83.077873 0
61.070637 82.641022 0.52699709
61.579216 79.284233 -0.86241692
61.09523 82.340004 -0.51858598
61.048958 82.632149 0
61.062748 82.54509 0.52438486
61.558304 79.296608 -0.86328095
61.075527 82.321083 -0.51815045
61.042854 82.525772 0
61.035427 82.572304 0.52525544
61.525486 79.265137 -0.86183977
61.024609 82.355003 -0.51931155
61.018917 82.390129 0
56.948475 107.50042 1.230742
61.507042 79.262131 -0.86183977
61.001595 82.356514 -0.51945657
61.00425 82.340286 0
56.901783 107.45596 1.229726
61.49028 79.248909 -0.86126375
60.976887 82.368271 -0.5198921
60.980396 82.346931 0
59.785301 89.608269 0.72481173
61.473553 79.235649 -0.8606866
60.954693 82.364601 -0.5198921
60.960785 82.327858 0
60.904575 82.66684 0.52844822
61.455143 79.23259 -0.8606866
60.932507 82.360909 -0.5198921
60.942932 82.298508 0
60.876884 82.693848 0.52931935
61.43502 79.239716 -0.86126375
60.905148 82.387924 -0.52076268
60.914776 82.330734 0
60.791336 83.064148 0.53991383
61.414017 79.251884 -0.86212778
60.882935 82.384171 -0.52076268
60.889149 82.347504 0
60.611065 83.987617 0.56618279
61.398201 79.233467 -0.86126375
60.854595 82.41626 -0.52177876
60.862598 82.3694 0
60.579044 84.029602 0.56748891
61.376286 79.25071 -0.86241692
60.830582 82.422699 -0.52206933
60.838642 82.375847 0
60.555725 84.02034 0.56734395
61.357861 79.247528 -0.86241692
60.807438 82.423973 -0.52221435
60.815552 82.377136 0
60.524441 84.057114 0.56850451
61.339439 79.244324 -0.86241692
60.778927 82.455917 -0.5232299
60.790665 82.388664 0
60.447495 84.354935 0.57706732
61.331127 79.237602 -0.86212778
60.770462 82.438629 -0.5227949
60.772373 82.427734 0
60.411884 84.485886 0.58084118
61.316311 79.213989 -0.86097461
60.746384 82.444939 -0.52308488
60.748302 82.434067 0
60.388943 84.471291 0.58055067
61.298832 79.205643 -0.8606866
60.722279 82.451241 -0.52337545
60.722389 82.450623 0
56.419529 106.67265 1.2104236
61.283195 79.187088 -0.85982144
60.692665 82.48819 -0.52453655
60.694595 82.477402 0
60.649696 82.728378 0.53135103
61.264847 79.183792 -0.85982144
60.668488 82.4944 -0.52482659
60.675041 82.458015 0
60.624306 82.739662 0.53178656
61.243732 79.195755 -0.8606866
60.642433 82.510818 -0.52540714
60.651814 82.459106 0
60.599812 82.745789 0.5320766
61.23188 79.156784 -0.85866827
60.619137 82.511856 -0.52555215
60.628574 82.460175 0
60.569695 82.782562 0.5332377
61.212627 79.158531 -0.85895741
60.592072 82.533302 -0.52627766
60.603447 82.471436 0
60.537605 82.829514 0.53468883
61.193375 79.160233 -0.85924542
60.565895 82.549614 -0.52685827
60.571655 82.518509 0
60.509178 82.85598 0.53555989
61.802784 75.788864 -0.99960822
61.176006 79.151749 -0.85895741
60.540627 82.560783 -0.5272938
60.55024 82.509216 0
60.492111 82.821091 0.53468883
61.789486 75.781158 -0.99918067
61.159607 79.138153 -0.85838026
60.519161 82.551483 -0.52714878
60.524994 82.520386 0
60.463619 82.847488 0.53555989
61.148037 79.099144 -0.85636306
60.495785 82.552368 -0.5272938
60.500687 82.526413 0
60.44278 82.832977 0.53526938
61.763901 75.760643 -0.99789637
61.124966 79.121086 -0.85780424
60.467545 82.578766 -0.52816492
60.4715 82.557953 0
60.412262 82.869514 0.53643048
61.752586 75.742798 -0.99661207
61.114475 79.076958 -0.8554979
60.442169 82.589783 -0.52859992
60.444187 82.579231 0
60.380672 82.911095 0.53773659
61.733543 75.765282 -0.99875146
61.099197 79.058212 -0.85463274
60.416759 82.600784 -0.52903545
60.422726 82.569817 0
60.356838 82.911827 0.53788215
61.72324 75.742371 -0.99703962
61.081005 79.054703 -0.85463274
60.388351 82.627037 -0.52990603
60.395336 82.591026 0
60.331024 82.922699 0.53831714
61.709053 75.739609 -0.99703962
61.064796 79.041016 -0.85405672
60.362862 82.63797 -0.53034157
60.372875 82.586655 0
60.310154 82.908066 0.53802717
61.689919 75.762039 -0.99918067
61.051605 79.012085 -0.85261554
60.339344 82.638657 -0.53048658
60.344398 82.612915 0
60.289314 82.893387 0.53773659
61.682678 75.723976 -0.99618447
61.03949 78.97805 -0.85088521
60.313801 82.649521 -0.53092217
60.316864 82.63401 0
58.326752 92.702545 0.81711602
61.674599 75.727608 -0.99661207
61.035469 78.950897 -0.84944403
60.2995 82.662582 -0.53135771
60.303585 82.641983 0
58.313457 92.678726 0.81653541
61.670475 75.674446 -0.99233317
61.017406 78.947304 -0.84944403
60.275936 82.663193 -0.53150272
60.278008 82.652817 0
60.213951 82.973831 0.54034936
61.658394 75.661545 -0.99147642
61.001389 78.933533 -0.84886688
60.25032 82.673965 -0.53193825
60.252396 82.66362 0
60.184891 82.999809 0.54121995
61.644306 75.658707 -0.99147642
60.990513 78.894424 -0.84684968
60.22364 82.689804 -0.5325188
60.223663 82.689682 0
58.224976 92.581512 0.81435823
61.627148 75.670952 -0.99276078
60.977673 78.865433 -0.8454085
60.192776 82.725967 -0.53367996
60.196938 82.705505 0
58.189411 92.579597 0.81450319
61.615105 75.658028 -0.99190563
60.966972 78.826286 -0.84339017
60.16703 82.73661 -0.53411496
60.175381 82.695808 0
64 64 0
61.60516 75.635025 -0.99019378
60.952187 78.807411 -0.84252501
60.144394 82.731964 -0.53411496
60.150696 82.701355 0
58.119312 92.57058 0.81464875
61.594227 75.617035 -0.98890948
60.937443 78.788536 -0.84166098
60.119656 82.73748 -0.53440547
60.120712 82.732376 0
58.082687 92.573624 0.81493878
61.574959 75.639244 -0.99104887
60.922741 78.769623 -0.84079581
60.092777 82.753128 -0.53498608
60.094894 82.742966 0
58.037567 92.617317 0.81638986
61.563 75.626266 -0.99019378
60.912327 78.730453 -0.83877748
60.06266 82.783981 -0.53600162
60.064777 82.77388 0
57.995529 92.645699 0.817406
61.553192 75.603218 -0.98848188
60.903069 78.686218 -0.83647114
60.039967 82.779213 -0.53600162
60.0378 82.789482 0
57.948055 92.699448 0.81914765
61.54237 75.585182 -0.98719758
60.894985 78.636925 -0.83387679
60.014042 82.789673 -0.53643715
60.012936 82.794876 0
57.918774 92.666695 0.81842214
61.53373 75.557098 -0.98505819
60.877304 78.633163 -0.83387679
59.992424 82.779762 -0.5362922
59.983715 82.820572 0
59.465389 85.249481 0.60681963
61.525154 75.529022 -0.98291874
60.861794 78.61927 -0.83330077
59.967556 82.785057 -0.53658217
59.95879 82.825897 0
59.901073 83.094772 0.54542887
61.506889 75.546097 -0.98463058
60.846317 78.605347 -0.83272362
59.942665 82.790344 -0.53687274
59.933849 82.831161 0
59.87471 83.105049 0.5458644
61.499481 75.512962 -0.98206198
60.830864 78.591423 -0.8321476
59.916656 82.800644 -0.53730774
59.911098 82.826241 0
59.017803 86.939178 0.65558374
61.492146 75.479843 -0.97949499
60.814342 78.58252 -0.83185846
59.889507 82.81601 -0.53788829
59.882801 82.846703 0
59.458118 84.79071 0.59433848
61.473869 75.496864 -0.98120689
60.798943 78.568558 -0.83128244
59.865658 82.816116 -0.53803384
59.854443 82.867149 0
59.415161 84.866394 0.59666014
61.471344 75.475281 -0.97949499
60.786804 78.581787 -0.8321476
59.865475 82.762856 -0.53658217
59.836327 82.895126 0
59.393608 84.904221 0.5978213
61.448593 75.512321 -0.98291874
60.772545 78.562737 -0.83128244
59.842808 82.757843 -0.53658217
59.812374 82.895164 0
59.740536 83.219315 0.54978275
61.442501 75.474144 -0.97992253
60.754951 78.558823 -0.83128244
59.817883 82.762962 -0.53687274
59.782749 82.920578 0
57.544403 92.96286 0.82872659
61.434254 75.445999 -0.97778314
60.744148 78.52462 -0.82955325
59.790665 82.778183 -0.53745329
59.758755 82.920547 0
57.501457 92.990517 0.82974213
61.421555 75.437889 -0.9773556
60.72205 78.540855 -0.83070642
59.774837 82.742653 -0.53658217
59.726738 82.956024 0
59.005783 86.154152 0.63424975
61.414547 75.404709 -0.97478694
60.704483 78.536888 -0.83070642
59.755638 82.722343 -0.53614718
59.699234 82.971153 0
58.911232 86.447113 0.64281255
61.405334 75.381561 -0.97307509
60.691521 78.512718 -0.82955325
59.7388 82.691849 -0.53542107
59.671684 82.986244 0
59.599091 83.304688 0.55297554
61.389286 75.388435 -0.97393185
60.671677 78.518784 -0.83012927
59.71505 82.691772 -0.53556663
59.648746 82.981003 0
58.87442 86.358765 0.64063531
61.38245 75.35524 -0.97136319
60.658783 78.494591 -0.82897609
59.693642 82.681503 -0.53542107
59.622311 82.990929 0
58.864918 86.276588 0.63845807
61.378006 75.312057 -0.9679395
60.638935 78.500633 -0.82955325
59.67107 82.676285 -0.53542107
59.594666 83.005905 0
58.845043 86.240005 0.63758755
61.355015 75.348885 -0.97136319
60.626114 78.47641 -0.82840008
59.653225 82.650795 -0.53484052
59.562256 83.041122 0
59.478706 83.399612 0.55631387
61.940346 72.789337 -0.99992347
61.34013 75.350693 -0.9717924
60.609806 78.46727 -0.82811093
59.62595 82.665771 -0.53542107
59.538059 83.040833 0
59.450523 83.414368 0.55689442
61.937885 72.752213 -0.99598271
61.326416 75.347473 -0.9717924
60.599442 78.432961 -0.82638174
59.611736 82.625076 -0.53440547
59.511478 83.050613 0
59.44614 83.327927 0.55457222
61.323364 75.299255 -0.9679395
60.582008 78.428841 -0.82638174
59.589237 82.619759 -0.53440547
59.480061 83.080627 0
58.928074 85.410805 0.61451131
61.910858 72.771919 -0.99879658
61.313278 75.281044 -0.9666568
60.564575 78.424698 -0.82638174
59.575172 82.579025 -0.53338939
59.450981 83.100464 0
58.904613 85.394562 0.61422133
61.894421 72.747086 -0.99654508
61.295635 75.234589 -0.96323305
60.541828 78.366074 -0.82349938
59.526634 82.583435 -0.53382492
59.392658 83.140015 0
59.288322 83.573456 0.56226391
61.885048 72.739601 -0.99598271
61.278439 75.246284 -0.96451735
60.531776 78.331711 -0.82176906
59.50663 82.567909 -0.53353441
59.369534 83.13443 0
59.224339 83.734421 0.56705338
61.873291 72.741966 -0.99654508
61.279415 75.183121 -0.95938176
60.516907 78.317467 -0.82119304
59.482967 82.567528 -0.53367996
59.340263 83.154129 0
59.164871 83.875076 0.5712623
61.865597 72.750565 -0.9976719
61.25563 75.251297 -0.9653725
60.510712 78.305298 -0.82061589
59.479141 82.534492 -0.53280884
59.324993 83.166458 0
64 64 0
61.863499 72.713425 -0.9937312
61.255486 75.193115 -0.96066445
60.49712 78.286011 -0.81975186
59.454273 82.539124 -0.53309935
59.298119 83.175972 0
64 64 0
61.856621 72.69603 -0.99204201
61.235817 75.214737 -0.96280551
60.484814 78.261681 -0.81859869
59.440582 82.498291 -0.53208327
59.268723 83.195541 0
59.118538 83.804871 0.56966561
61.836338 72.732895 -0.99654508
61.227207 75.191452 -0.96109366
60.466339 78.262436 -0.8188867
59.414482 82.507904 -0.5325188
59.235519 83.230225 0
59.115856 83.713211 0.5671984
61.834381 72.69577 -0.99260652
61.224857 75.143242 -0.9572407
60.455357 78.233063 -0.81744552
59.409706 82.43174 -0.53048658
59.207256 83.244659 0
59.079479 83.757729 0.56865007
61.836216 72.643845 -0.98697656
61.208897 75.149849 -0.95809746
60.444447 78.203667 -0.81600326
59.373558 82.481644 -0.53208327
59.181477 83.248962 0
64 64 0
61.820816 72.660934 -0.98922813
61.200439 75.126556 -0.95638561
60.431068 78.184326 -0.81513917
59.36264 82.430679 -0.53077716
59.145523 83.293594 0
59.03302 83.740723 0.56850451
61.814087 72.643532 -0.98754108
61.18951 75.11322 -0.95553046
60.41774 78.164948 -0.81427401
59.34547 82.404915 -0.53019661
59.117111 83.307899 0
59.016811 83.704491 0.56763393
61.803642 72.640884 -0.98754108
61.179882 75.094879 -0.95424616
60.404449 78.145569 -0.81340885
59.325798 82.389191 -0.52990603
59.096352 83.291885 0
58.996849 83.683334 0.5671984
61.790691 72.648056 -0.98866576
61.162663 75.106392 -0.95553046
60.389919 78.131195 -0.81283283
59.294575 82.418785 -0.53092217
59.058868 83.341423 0
58.978214 83.657135 0.56661779
61.785297 72.625694 -0.98641419
61.14542 75.117859 -0.95681316
60.376709 78.111786 -0.81196767
59.285244 82.362755 -0.52947104
59.03421 83.340477 0
58.95834 83.635971 0.56618279
61.781223 72.598412 -0.98360032
61.13327 75.109436 -0.95638561
60.359661 78.107399 -0.81196767
59.256569 82.382202 -0.53019661
59.004341 83.359657 0
58.943707 83.594635 0.56516671
61.765736 72.615402 -0.98585188
61.1366 75.041367 -0.95082241
60.356895 78.047928 -0.8087973
59.242191 82.346268 -0.52932549
58.97834 83.363693 0
58.921337 83.583481 0.56502169
61.764297 72.57827 -0.98191112
61.11808 75.05777 -0.95253432
60.339924 78.04351 -0.8087973
59.225269 82.320389 -0.52874494
58.944443 83.397903 0
58.900303 83.567268 0.56473112
61.755222 72.570648 -0.98134881
61.111225 75.029449 -0.95039487
60.334759 77.994026 -0.80620182
59.214985 82.269363 -0.52743882
58.913097 83.421982 0
58.885876 83.525909 0.56371558
61.751331 72.543365 -0.97853494
61.096596 75.030914 -0.95082241
60.319168 77.984589 -0.80591381
59.191589 82.268608 -0.52758437
58.881683 83.44603 0
58.855675 83.544846 0.56444114
61.737114 72.555389 -0.98022413
61.085896 75.017456 -0.94996566
60.304916 77.970139 -0.80533779
59.176167 82.237648 -0.52685827
58.850208 83.470016 0
58.830734 83.543633 0.56458616
61.725471 72.557549 -0.98078644
61.083134 74.974251 -0.94654357
60.290699 77.955658 -0.80476063
59.143452 82.271988 -0.52801937
58.829357 83.453728 0
58.797779 83.572533 0.56560224
61.722923 72.546341 -0.97965962
61.07518 74.977448 -0.94697112
60.287594 77.933418 -0.80360746
59.144455 82.223862 -0.52671325
58.810905 83.475739 0
58.783279 83.579422 0.56589228
61.717854 72.523949 -0.97740805
61.05661 74.993744 -0.94868302
60.274773 77.913948 -0.80274343
59.12244 82.217979 -0.52671325
58.78199 83.489571 0
58.750217 83.608246 0.56690836
61.707558 72.521187 -0.97740805
61.04866 74.970345 -0.94697112
60.263336 77.889458 -0.80159026
59.103127 82.202042 -0.52642322
58.753036 83.503357 0
58.714378 83.647057 0.56821448
61.698586 72.513512 -0.97684574
61.031387 74.981644 -0.94825542
60.251957 77.864952 -0.80043709
59.096058 82.140923 -0.52482659
58.719971 83.532158 0
58.68251 83.670746 0.56908506
61.682972 72.530342 -0.97909725
61.032925 74.923546 -0.94354737
60.239277 77.845436 -0.79957193
59.068691 82.155045 -0.52540714
58.689552 83.550873 0
58.649208 83.699417 0.57010114
61.676682 72.512825 -0.97740805
61.022434 74.910034 -0.94269061
60.232086 77.805939 -0.7975536
59.059071 82.103958 -0.52410102
58.652229 83.594666 0
58.621304 83.707977 0.57053673
61.671772 72.490402 -0.97515655
61.011967 74.896538 -0.94183552
60.209934 77.821335 -0.79870677
59.041325 82.082932 -0.52366543
58.623047 83.608269 0
58.590622 83.726524 0.5712623
61.661518 72.487587 -0.97515655
61.009712 74.853317 -0.93841177
60.209724 77.756897 -0.79524732
59.012577 82.101974 -0.524391
58.595215 83.616798 0
58.557125 83.755051 0.57227838
61.651264 72.484756 -0.97515655
60.997971 74.844757 -0.93798423
60.182064 77.792191 -0.7975536
58.993477 82.08593 -0.52410102
58.564571 83.635353 0
58.53326 83.748459 0.57227838
61.64782 72.457436 -0.97234261
60.983494 74.846062 -0.93841177
60.169556 77.772636 -0.79668957
58.978592 82.05484 -0.52337545
58.536667 83.643799 0
58.50523 83.756844 0.57271338
61.64307 72.435013 -0.9700911
60.973152 74.832527 -0.93755668
60.159882 77.743073 -0.79524732
58.962372 82.028732 -0.5227949
58.505928 83.662262 0
58.479958 83.755211 0.57285893
61.628761 72.446838 -0.9717803
60.965614 74.80909 -0.93584478
60.148865 77.718521 -0.79409522
58.93919 82.027634 -0.52293992
58.475143 83.680664 0
58.458904 83.73851 0.57256842
61.617176 72.448853 -0.97234261
60.946983 74.82518 -0.93755668
60.128086 77.728775 -0.79495925
58.923054 82.001495 -0.52235931
58.444305 83.699013 0
58.449162 83.681793 0.57111728
61.602814 72.46064 -0.97403181
60.945103 74.781967 -0.93413293
60.125599 77.674324 -0.79207689
58.904137 81.985359 -0.52206933
58.404896 83.747375 0
58.423969 83.680061 0.5712623
61.593983 72.45285 -0.9734695
60.937698 74.758514 -0.93242109
60.114742 77.649734 -0.79092371
58.8881 81.959198 -0.52148879
58.375343 83.760605 0
58.407307 83.648323 0.57053673
61.589359 72.430397 -0.97121793
60.926109 74.749878 -0.93199348
60.105362 77.620163 -0.78948253
58.870689 81.938011 -0.52105319
58.342884 83.783836 0
58.386429 83.631546 0.57024616
61.586185 72.403061 -0.96840405
60.91029 74.756012 -0.93284863
60.087482 77.620415 -0.78977054
58.859062 81.896835 -0.52003711
58.265812 83.962082 0
58.362713 83.624756 0.57024616
61.5783 72.411362 -0.96952873
60.910896 74.729485 -0.93070918
60.084976 77.598167 -0.78861737
58.846809 81.898727 -0.52018267
58.170238 84.248688 0
58.347977 83.63134 0.57053673
61.568138 72.408424 -0.96952873
60.913624 74.671486 -0.92600113
60.067116 77.598389 -0.78890538
58.830963 81.87252 -0.51960212
58.131313 84.291641 0
58.324261 83.624496 0.57053673
61.555149 72.41523 -0.97065341
60.902164 74.662827 -0.92557359
60.063675 77.548927 -0.78631103
58.807922 81.871246 -0.51974708
58.112606 84.264542 0
58.293304 83.64257 0.5712623
61.559216 72.363495 -0.96502566
60.889282 74.659073 -0.92557359
60.05455 77.519333 -0.78486985
58.830006 81.715309 -0.5153932
58.091045 84.247406 0
58.266666 83.64563 0.57155228
61.533386 72.414192 -0.97121793
60.883625 74.630676 -0.92343414
60.038216 77.514557 -0.78486985
58.875851 81.479652 -0.50871706
58.073902 84.215286 0
58.232697 83.673599 0.57256842
61.534706 72.372208 -0.96671486
60.866428 74.641685 -0.9247185
60.024815 77.499825 -0.78429276
58.963364 81.104553 -0.49797702
58.056831 84.183151 0
58.198654 83.701523 0.5735845
61.527477 72.359467 -0.96558803
60.869595 74.583725 -0.92001045
60.017307 77.465256 -0.78256351
58.957436 81.04863 -0.49652591
58.041306 84.146011 0
58.166008 83.724388 0.57445508
61.517376 72.356468 -0.96558803
60.848038 74.609459 -0.92257738
60.003983 77.450531 -0.78198749
58.93388 81.052475 -0.49681592
58.018452 84.133797 0
58.140701 83.722305 0.57460004
61.507282 72.353462 -0.96558803
60.841091 74.58596 -0.92086554
59.989216 77.44072 -0.78169835
58.812229 81.384979 -0.50668538
58.001568 84.101624 0
58.106472 83.750076 0.57561618
61.503025 72.330978 -0.96333647
60.828304 74.582138 -0.92086554
59.992287 77.371452 -0.77795082
58.715137 81.632561 -0.51408708
57.978779 84.089378 0
58.075153 83.767822 0.57634175
61.491493 72.332832 -0.96390098
60.836235 74.509483 -0.91487479
59.968678 77.391357 -0.77939206
58.702827 81.596298 -0.51321596
57.962009 84.057175 0
58.027306 83.840271 0.57866395
61.500542 72.266563 -0.95658404
60.833942 74.471245 -0.91187865
59.956985 77.371643 -0.77852798
58.701122 81.525223 -0.51132929
57.946819 84.019958 0
57.983784 83.897705 0.58055067
61.477268 72.307297 -0.96164948
60.81234 74.496895 -0.91444725
59.94384 77.356834 -0.77795082
58.728264 81.359695 -0.50668538
57.922634 84.012634 0
57.909916 84.054512 0.58534008
61.468719 72.29937 -0.96108496
60.816135 74.439011 -0.9097392
59.930721 77.342041 -0.7773748
58.734585 81.263832 -0.50407261
57.887825 84.040131 0
57.855366 84.146553 0.58824289
61.461666 72.286591 -0.95996028
60.797508 74.454796 -0.9114511
59.928238 77.292603 -0.77478045
58.710682 81.267403 -0.50436318
57.857517 84.052635 0
57.814289 84.193756 0.58983904
61.447174 72.298096 -0.96164948
60.787895 74.441116 -0.91059595
59.918262 77.267899 -0.77362728
58.70816 81.201393 -0.50262147
57.817989 84.09494 0
57.777668 84.226013 0.59100014
61.868046 70.900345 -0.99629009
61.458153 72.22702 -0.95376796
60.772251 74.447021 -0.9114511
59.915977 77.218475 -0.77103293
58.710392 81.120506 -0.50044423
57.787567 84.107346 0
57.747097 84.238335 0.59158069
61.442188 72.243362 -0.95601952
60.770279 74.408806 -0.90845656
59.898476 77.218468 -0.77132094
58.697407 81.089287 -0.4997187
57.75248 84.134628 0
57.713409 84.260536 0.59245127
61.432682 72.256378 -0.95770872
60.774662 74.372528 -0.90546036
59.905853 77.16658 -0.7684375
58.702515 81.036469 -0.49826759
57.734131 84.150726 0
57.693451 84.281563 0.59317738
61.422707 72.253265 -0.95770872
60.760601 74.37352 -0.9058879
59.889946 77.161621 -0.7684375
58.686581 81.015167 -0.49783203
57.698933 84.17791 0
57.661205 84.298729 0.59390295
61.831379 70.915199 -0.9997502
61.412735 72.250145 -0.95770872
60.757286 74.340218 -0.90332091
59.874046 77.156647 -0.7684375
58.650478 81.058311 -0.49928313
57.668327 84.190147 0
57.625793 84.325768 0.59491903
61.390556 72.285789 -0.96221179
60.740173 74.350967 -0.9046036
59.862808 77.136864 -0.76757342
58.629868 81.051834 -0.49928313
57.63768 84.202339 0
57.599678 84.323006 0.59506404
61.391273 72.248711 -0.95827109
60.74469 74.29319 -0.89989722
59.85318 77.112129 -0.76642025
58.59203 81.099838 -0.50087982
57.603855 84.224426 0
57.571999 84.325157 0.59535402
61.38131 72.245552 -0.95827109
60.735367 74.279449 -0.89904046
59.843601 77.087387 -0.76526707
58.561935 81.123001 -0.50175035
57.563671 84.266281 0
57.544292 84.327286 0.59564459
62.166229 69.749962 -0.9950124
61.389877 72.18428 -0.95151645
60.712029 74.309746 -0.90203661
59.830936 77.072487 -0.76468998
58.536514 81.131279 -0.50218594
57.53286 84.27832 0
58.678688 80.685471 0.48911753
61.360771 72.206985 -0.95489484
60.709126 74.233353 -0.89604592
59.81044 77.027916 -0.76267272
58.557175 80.925095 -0.49652591
57.467945 84.31218 0
58.622475 80.722031 0.49056864
62.142357 69.752693 -0.9966439
61.774513 70.891823 -0.99905604
61.358662 72.179619 -0.95208097
60.707809 74.19516 -0.89304972
59.805828 76.98838 -0.76065439
58.600597 80.720703 -0.4907209
57.437008 84.324081 0
58.608658 80.695755 0.48998863
62.153702 69.694023 -0.98686433
61.350353 72.17157 -0.95151645
60.693909 74.196053 -0.89347726
59.791733 76.978386 -0.76036638
58.631695 80.555977 -0.48607641
57.402821 84.345856 0
58.594898 80.669456 0.48940808
61.335758 72.182869 -0.95320565
60.675236 74.211578 -0.89518917
59.774452 76.97821 -0.76065439
58.639042 80.465477 -0.4836092
57.363739 84.382401 0
58.584415 80.633255 0.48853695
61.351139 72.102356 -0.9441995
60.670872 74.183159 -0.89304972
59.774849 76.923935 -0.75777203
58.601387 80.513329 -0.48520586
57.332645 84.394157 0
58.541718 80.695839 0.49056864
62.113033 69.748344 -0.9974581
61.74123 70.880989 -0.99905604
61.317574 72.171577 -0.95264328
60.660172 74.174255 -0.89262217
59.756012 76.928642 -0.75834805
58.550644 80.600594 -0.48796311
57.303135 84.400932 0
58.497234 80.763306 0.49274588
62.12775 69.680344 -0.98605013
61.734486 70.873489 -0.99836457
61.315655 72.144203 -0.9498294
60.655914 74.145836 -0.89048272
59.745251 76.90876 -0.75748295
58.537098 80.574249 -0.48738253
57.26709 84.427414 0
57.216267 84.581612 0.60522294
61.730907 70.856468 -0.99629009
61.310608 72.12648 -0.9481402
60.638824 74.156403 -0.89176542
59.729656 76.90361 -0.75748295
58.505646 80.60218 -0.48839864
57.24078 84.424202 0
57.199562 84.548737 0.60449743
62.106236 69.699249 -0.99012417
61.308804 72.099113 -0.94532633
60.639503 74.11335 -0.88834167
59.715698 76.893532 -0.75719488
58.506889 80.531425 -0.48651198
57.216106 84.416016 0
58.528267 80.467087 0.4846186
62.08371 69.743843 -0.99827224
61.292583 72.115143 -0.94757789
60.627289 74.109283 -0.88834167
59.708305 76.863815 -0.7557537
58.472118 80.569138 -0.48781809
58.463058 80.596291 0
58.503445 80.475235 0.4850536
61.702885 70.857704 -0.99767309
61.276325 72.131134 -0.9498294
60.608551 74.12468 -0.89005351
59.710842 76.804665 -0.75258225
58.445499 80.582153 -0.48839864
58.439705 80.599449 0
58.473633 80.498161 0.48592472
61.693001 70.85968 -0.99836457
61.258404 72.151917 -0.95264328
60.620865 74.047592 -0.88363528
59.698666 76.789673 -0.75200617
58.430439 80.560654 -0.48796311
58.41135 80.617401 0
58.443768 80.521019 0.48679528
61.698467 70.829765 -0.99421293
61.268082 72.106926 -0.94757789
60.606598 74.06987 -0.88577467
59.689289 76.791969 -0.75229418
58.420433 80.557281 -0.48796311
58.401314 80.614021 0
58.443741 80.488113 0.48592472
62.062603 69.726326 -0.9966439
61.680573 70.855484 -0.99836457
61.263176 72.089172 -0.9458887
60.602661 74.041451 -0.88363528
59.682125 76.762253 -0.750853
58.413757 80.511147 -0.48680198
58.41127 80.518486 0
58.440475 80.432175 0.48447362
61.693268 70.790924 -0.98936713
61.241962 72.119545 -0.9498294
60.57402 74.085938 -0.88791412
59.665043 76.761925 -0.75114101
58.387123 80.524063 -0.48738253
58.40303 80.477234 0
58.417282 80.435272 0.48476362
61.233791 72.111404 -0.94926709
60.580059 74.028351 -0.88320768
59.652962 76.746895 -0.75056499
58.363804 80.527122 -0.4876731
56.978691 84.588715 0
58.38401 80.467865 0.48592472
61.671986 70.799576 -0.99144429
61.228931 72.093628 -0.94757789
60.576263 73.999916 -0.88106662
59.640919 76.731834 -0.7499879
58.327007 80.569458 -0.48912421
58.371662 80.439026 0
58.354019 80.490562 0.48679528
62.042988 69.693512 -0.9925667
61.663773 70.796753 -0.99144429
61.230721 72.056625 -0.94363713
60.564182 73.995773 -0.88106662
59.637306 76.692329 -0.74797064
58.320503 80.52327 -0.48796311
58.356873 80.417465 0
58.364502 80.395271 0.48418304
61.660473 70.779694 -0.98936713
61.207726 72.091705 -0.9481402
60.55378 73.986763 -0.88063908
59.630413 76.662582 -0.74652839
58.303932 80.506577 -0.4876731
58.33025 80.430313 0
58.353168 80.363892 0.48345751
62.01952 69.716797 -0.9974581
61.642426 70.805313 -0.99352145
61.189636 72.112328 -0.95095408
60.553474 73.948647 -0.87764454
59.625275 76.627975 -0.74479914
58.309509 80.426025 -0.48549587
56.828152 84.702072 0
58.324898 80.381607 0.48418304
61.194855 72.065735 -0.9458887
60.551579 73.915367 -0.87507594
59.616814 76.603134 -0.74364597
58.31015 80.360229 -0.48375419
58.287144 80.426384 0
58.306812 80.369835 0.48403805
62.00082 69.725998 -0.99990374
61.632603 70.780647 -0.99075276
61.19014 72.047943 -0.9441995
60.53791 73.916039 -0.87550348
59.593063 76.622246 -0.74508721
58.286957 80.363167 -0.48404476
58.279312 80.385071 0
58.285324 80.367844 0.48418304
62.020065 69.648941 -0.98686433
61.627731 70.768303 -0.98936713
61.183777 72.034958 -0.94307482
60.531021 73.897324 -0.87422079
59.582947 76.60228 -0.74422312
58.250004 80.405289 -0.48549587
58.25779 80.383072 0
58.268986 80.351128 0.48389307
62.014881 69.641891 -0.98605013
61.614559 70.77964 -0.99144429
61.175755 72.026756 -0.94251245
60.522476 73.88343 -0.87336403
59.578026 76.567642 -0.74249279
58.221561 80.422836 -0.48622143
58.232822 80.390839 0
58.257862 80.319664 0.48316693
62.014648 69.620842 -0.98279023
61.152519 72.061676 -0.94701552
60.515667 73.864693 -0.87207973
59.568016 76.547653 -0.74162769
58.212105 80.386452 -0.48535088
58.190487 80.447655 0
58.22776 80.342125 0.48403805
62.001251 69.63707 -0.98605013
61.15807 72.015106 -0.94194794
60.517471 73.821785 -0.86865765
59.566681 76.503304 -0.73932242
58.211414 80.325562 -0.48375419
58.181053 80.411194 0
58.194126 80.374329 0.48519918
62.024281 69.550819 -0.97137916
61.134754 72.049965 -0.94645101
60.515938 73.788536 -0.86608899
59.549843 76.502808 -0.73961043
58.203888 80.284294 -0.48273864
58.183914 80.340408 0
58.172604 80.372192 0.48534417
61.143833 71.993874 -0.94026089
60.49202 73.818169 -0.86908519
59.539963 76.482803 -0.73874527
58.180721 80.287056 -0.48302862
58.181683 80.284363 0
58.140583 80.399399 0.48636028
61.977497 69.639091 -0.98767847
61.568558 70.779274 -0.99352145
61.113586 72.047821 -0.94701552
60.48016 73.813927 -0.86908519
59.538853 76.438454 -0.73643893
58.166309 80.265335 -0.48259306
58.15147 80.306709 0
58.113754 80.411873 0.48694083
61.55867 70.781052 -0.99421293
61.114197 72.015625 -0.94363713
60.473522 73.795166 -0.86780089
59.523827 76.433052 -0.73643893
58.157219 80.228943 -0.4817225
58.094749 80.402466 0
56.404045 85.098579 0.62626749
61.984047 69.588921 -0.97953039
61.569897 70.737099 -0.98798412
61.107632 72.018661 -0.9441995
60.469345 73.788208 -0.86737335
59.544399 76.352486 -0.73182631
58.154469 80.205856 -0.48114195
58.03186 80.545776 0
56.389538 85.098869 0.62641251
61.950378 69.660835 -0.9925667
61.560051 70.738869 -0.98867565
61.111786 71.976929 -0.93969643
60.475002 73.735657 -0.86309284
59.520668 76.371429 -0.73326856
58.133125 80.203667 -0.48128697
58.003014 80.563019 0
56.358738 85.104324 0.62684804
61.945225 69.653709 -0.99175251
61.543343 70.759491 -0.99213576
61.109085 71.954346 -0.93744701
60.477264 73.692802 -0.85967076
59.503956 76.370865 -0.73355657
58.108223 80.21122 -0.4817225
58.041676 80.394333 0
56.31905 85.134132 0.6280086
61.073357 72.022446 -0.9458887
60.455002 73.717468 -0.86223769
59.510284 76.307106 -0.73009706
58.083294 80.218742 -0.48215806
58.073593 80.245338 0
56.288174 85.139488 0.62844414
61.535641 70.72998 -0.98867565
61.070656 71.999817 -0.94363713
60.445026 73.708359 -0.86181015
59.491863 76.311378 -0.73067313
58.045837 80.260376 -0.4836092
58.048603 80.252815 0
56.251911 85.159439 0.62931526
61.520584 70.745834 -0.99144429
61.066254 71.981956 -0.94194794
60.436844 73.694412 -0.86095339
59.484123 76.286522 -0.72952104
58.020813 80.267807 -0.48404476
57.99485 80.33844 0
56.215595 85.179321 0.63018584
61.905945 69.676178 -0.9974581
61.512436 70.742836 -0.99144429
61.065403 71.954575 -0.93913406
60.434017 73.666023 -0.858814
59.471077 76.276184 -0.72923195
58.006557 80.245934 -0.4836092
57.953495 80.389771 0
56.172028 85.218651 0.63163698
61.917973 69.62265 -0.98849267
61.530426 70.669243 -0.98106116
61.055794 71.951019 -0.93913406
60.41164 73.690605 -0.8613826
59.467018 76.241608 -0.7275027
57.98513 80.243553 -0.48375419
57.937313 80.372681 0
56.133759 85.243294 0.63265306
61.926678 69.57843 -0.98115879
61.525864 70.656853 -0.97967821
61.039108 71.966515 -0.94138563
60.407089 73.667007 -0.85967076
59.466648 76.197327 -0.72519636
57.965508 80.236267 -0.48375419
57.924789 80.345825 0
56.099049 85.258125 0.63337862
61.507301 70.68206 -0.98382986
61.024155 71.977219 -0.94307482
60.400795 73.648224 -0.8583864
59.45734 76.177299 -0.72433126
57.947708 80.224106 -0.4836092
57.894123 80.367744 0
56.062466 85.277786 0.63424975
61.909733 69.582672 -0.98279023
61.472839 70.749535 -0.99421293
61.025211 71.945053 -0.93969643
60.389137 73.643867 -0.8583864
59.438999 76.181503 -0.72490835
57.924469 80.226501 -0.48389918
57.854279 80.413963 0
56.020363 85.311981 0.63555586
61.459389 70.760567 -0.99629009
61.028122 71.908165 -0.93575782
60.381104 73.629875 -0.85752964
59.437023 76.142082 -0.72289002
57.912178 80.199692 -0.48331863
56.030998 85.205505 0
55.981823 85.336365 0.63657141
61.866592 69.656227 -0.9966439
61.490181 70.654198 -0.98106116
61.011395 71.923592 -0.93800938
60.378529 73.601486 -0.85539025
59.420532 76.141396 -0.72317809
57.89444 80.187469 -0.48317364
55.996201 85.220207 0
55.943211 85.360703 0.63758755
61.85276 69.672142 -0.99990374
61.459049 70.712158 -0.9900586
61.00362 71.915222 -0.93744701
60.366932 73.597099 -0.85539025
59.402199 76.145538 -0.72375518
57.854645 80.233543 -0.4847703
55.965034 85.225128 0
55.904526 85.384972 0.63860363
61.456284 70.69503 -0.98798412
60.995869 71.90683 -0.9368825
60.353516 73.597496 -0.85581779
59.398552 76.110947 -0.72202492
57.820267 80.264969 -0.48593143
55.924606 85.254326 0
55.876846 85.380028 0.63874865
61.467861 70.640373 -0.98036969
60.997177 71.874718 -0.93350631
60.347404 73.578705 -0.8545351
59.39682 76.071556 -0.72000766
57.785805 80.296341 -0.48709252
55.893364 85.259148 0
55.843613 85.389618 0.6393292
61.839279 69.645851 -0.9966439
61.45805 70.641991 -0.98106116
60.976768 71.899551 -0.9368825
60.346848 73.545509 -0.8519665
59.37484 76.085312 -0.72116083
57.751266 80.327629 -0.48825309
55.854668 85.283356 0
55.799202 85.428276 0.64078033
61.446423 70.648293 -0.98244685
60.949001 71.943336 -0.94251245
60.346355 73.512344 -0.84939951
59.365807 76.065224 -0.72029567
57.709183 80.378281 -0.48999476
55.821487 85.292931 0
55.752815 85.471725 0.64237702
61.836151 69.623474 -0.993384
61.442406 70.646751 -0.98244685
60.966103 71.884583 -0.93575782
60.331394 73.534088 -0.85153896
59.369659 76.033463 -0.71856648
57.684357 80.413284 -0.49115589
55.780586 85.360855 0
55.728653 85.495827 0.64324754
61.841827 69.58857 -0.98767847
61.448837 70.606209 -0.97690952
60.95475 71.885643 -0.93632019
60.330971 73.500916 -0.84897196
59.377487 75.969955 -0.71510696
57.627087 80.502594 -0.49405867
55.751038 85.360611 0
55.693325 85.510056 0.64397311
