# .PCD v0.7 - Point Cloud Data file format
VERSION 0.7
FIELDS x y z
SIZE 4 4 4
TYPE F F F
COUNT 1 1 1
WIDTH 1591
HEIGHT 1
VIEWPOINT 0 0 0 1 0 0 0
POINTS 1591
DATA ascii
65.33477 77.427422 -0.75200617
65.806976 82.177612 -0.51016819
65.81662 82.274673 0
65.845505 82.565216 0.52104652
64.69886 71.117706 -0.98659849
64.856308 72.721252 -0.97065341
65.072975 74.92794 -0.9153024
65.313492 77.377548 -0.74912381
65.787544 82.205643 -0.51089376
65.79657 82.297569 0
65.824089 82.577789 0.52133709
64.688324 71.098572 -0.98382986
64.844788 72.712173 -0.96952873
65.059769 74.92923 -0.9153024
65.29483 77.353371 -0.74768156
65.767555 82.228477 -0.51147431
65.778984 82.346352 0
65.806648 82.631699 0.52278823
64.679749 71.099396 -0.98382986
64.833778 72.70813 -0.96896642
65.04216 74.884514 -0.9114511
65.272781 77.293152 -0.74422312
65.750977 82.287506 -0.51307094
65.757309 82.353683 0
65.786118 82.654556 0.52336878
64.668335 71.070251 -0.97967821
64.823257 72.709129 -0.96896642
65.026588 74.860214 -0.90931165
65.256226 77.289513 -0.74393404
65.731812 82.320648 -0.51394153
65.73954 82.402428 0
65.76358 82.6567 0.52336878
64.656998 71.041069 -0.97552389
64.812263 72.705063 -0.96840405
65.012512 74.851227 -0.90845656
65.235847 77.244675 -0.74133962
65.71209 82.34861 -0.51466763
65.720207 82.4356 0
65.749237 82.74678 0.52583599
64.651711 71.076836 -0.98036969
64.800812 72.695908 -0.96727723
65.001282 74.872879 -0.91016674
65.217468 77.220406 -0.73989844
65.693253 82.386879 -0.51568317
65.700317 82.463577 0
65.728973 82.77475 0.52656156
64.640434 71.047646 -0.97621804
64.787079 72.661438 -0.96333647
64.985359 74.843407 -0.90759981
65.200089 77.206406 -0.73903334
65.672913 82.409615 -0.51626378
65.681297 82.501907 0
65.708633 82.802696 0.52728713
64.632812 71.058395 -0.97760105
64.779335 72.692764 -0.96671486
64.972717 74.849701 -0.90802735
65.180435 77.166626 -0.736727
65.649742 82.401276 -0.51597375
65.660339 82.519485 0
65.688698 82.835815 0.52815825
64.624725 71.064148 -0.97829252
64.766594 72.668396 -0.96390098
64.954628 74.794624 -0.90332091
65.159973 77.116524 -0.73384458
65.62796 82.408432 -0.51611876
65.644836 82.599228 0
65.668228 82.863724 0.52888376
64.519676 70.042664 -0.99990374
64.605072 71.035652 -0.97414088
64.742165 72.629715 -0.95939791
64.928101 74.791771 -0.90289176
65.124725 77.078056 -0.73153824
65.590149 82.48996 -0.51829541
65.607018 82.686127 0
65.633324 82.991959 0.53236711
64.598686 71.061371 -0.97760105
64.731735 72.630608 -0.95939791
64.91333 74.772446 -0.90118152
65.108482 77.074257 -0.73125023
65.570885 82.528122 -0.51931155
65.58268 82.667305 0
65.613884 83.035332 0.53352767
64.503426 70.024193 -0.9966439
64.587234 71.027084 -0.97275525
64.721306 72.631485 -0.95939791
64.902016 74.793983 -0.90289176
65.093544 77.085892 -0.73182631
65.548927 82.535179 -0.51945657
65.562294 82.695137 0
65.591751 83.047638 0.53381824
64.497765 70.044502 -0.99990374
64.578331 71.022797 -0.97206372
64.707535 72.591835 -0.95489484
64.884766 74.743904 -0.89861286
65.07476 77.051125 -0.72980905
65.292809 79.698906 -0.43992457
65.544403 82.754074 0
65.572998 83.101326 0.53526938
64.488861 70.025391 -0.9966439
64.568626 71.008499 -0.96998924
64.698799 72.612946 -0.95714635
64.87178 74.744965 -0.89861286
65.05941 77.057571 -0.73009706
65.275093 79.715981 -0.44035959
65.523842 82.78186 0
65.552017 83.129105 0.53599495
64.481186 70.021042 -0.9958266
64.559753 71.004166 -0.96929508
64.683533 72.552994 -0.95039177
64.858795 74.746017 -0.89861286
65.042397 77.043365 -0.72923195
65.256104 79.717514 -0.44035959
65.50322 82.809631 0
65.533867 83.19313 0.53773659
64.471588 69.992058 -0.99093837
64.549324 70.979836 -0.96583498
64.674393 72.569016 -0.95208097
64.845406 74.741928 -0.89818531
65.021355 76.977577 -0.72548437
65.233856 79.677589 -0.43919903
65.484985 82.868515 0
65.512718 83.220894 0.5384627
64.4674 70.032051 -0.9974581
64.540894 70.980492 -0.96583498
64.663651 72.564743 -0.95151645
64.830841 74.722466 -0.89647347
65.001678 76.927238 -0.72260201
65.214104 79.668694 -0.43890846
65.466606 82.927368 0
65.491898 83.253784 0.53933328
64.456726 69.988258 -0.99012417
64.533218 70.991158 -0.9672206
64.653687 72.570618 -0.95208097
64.812813 74.656921 -0.89091027
64.980553 76.856232 -0.71856648
65.191612 79.62352 -0.43760234
65.44532 82.949883 0
65.472191 83.3022 0.5406394
64.4506 70.003578 -0.9925667
64.523643 70.976776 -0.96514344
64.639526 72.520721 -0.94645101
64.801468 74.678375 -0.89262217
64.965019 76.857414 -0.71856648
65.171959 79.614571 -0.4373118
65.427094 83.013901 0
65.450035 83.319519 0.54107493
64.441162 69.974548 -0.98767847
64.512993 70.947372 -0.96098918
64.631477 72.551903 -0.9498294
64.785919 74.643486 -0.88962597
64.948341 76.843086 -0.71770132
65.150032 79.574539 -0.43615124
65.407951 83.067528 0
65.427452 83.331619 0.54136497
64.435379 69.994797 -0.99093837
64.505333 70.958008 -0.96237481
64.617828 72.50705 -0.94476402
64.77417 74.659798 -0.89091027
64.934319 76.864861 -0.71885449
65.130455 79.565536 -0.43586066
65.384911 83.069214 0
65.408234 83.39035 0.5429616
64.42778 69.990395 -0.99012417
64.49585 70.943596 -0.96029764
64.604652 72.467239 -0.94026089
64.760193 74.645355 -0.88962597
64.920982 76.896927 -0.72058368
65.111275 79.561714 -0.43571568
65.363724 83.096832 0
65.388878 83.449036 0.54455775
64.421577 70.005684 -0.9925667
64.486755 70.934189 -0.9589147
64.59478 72.473022 -0.94082326
64.74733 74.646263 -0.88962597
64.903229 76.867081 -0.71885449
65.099022 79.656349 -0.43832791
65.342834 83.129608 0
65.368286 83.492172 0.54571885
64.41555 69.971436 -0.98686433
64.485008 70.969505 -0.96375781
64.58754 72.442978 -0.93744701
64.738762 74.615997 -0.88705897
64.895096 76.862465 -0.71856648
65.100029 79.80735 -0.4425368
65.334892 83.18235 0
65.358673 83.524117 0.54658997
64.408333 69.971931 -0.98686433
64.473503 70.925034 -0.95752901
64.573875 72.392967 -0.93181711
64.726288 74.621994 -0.88748658
64.876724 76.82225 -0.71626014
65.086952 79.896805 -0.44500405
65.312775 83.199509 0
65.337563 83.562019 0.54760551
64.401115 69.97242 -0.98686433
64.464798 70.920601 -0.95683753
64.565773 72.424088 -0.93519551
64.713448 74.622864 -0.88748658
64.861237 76.823303 -0.71626014
65.070183 79.93441 -0.44602016
65.296204 83.299759 0
65.317757 83.620667 0.5492022
64.391624 69.93837 -0.98115879
64.454788 70.896133 -0.95337737
64.558609 72.470398 -0.94026089
64.69825 74.587852 -0.88449037
64.845741 76.824333 -0.71626014
65.051613 79.946053 -0.44631016
65.272537 83.296127 0
65.294731 83.632607 0.54949218
64.387321 69.983231 -0.98849267
64.447426 70.911697 -0.95545453
64.54509 72.420349 -0.93463099
64.684128 74.568199 -0.88277853
64.832581 76.861465 -0.71827739
65.03167 79.936951 -0.44602016
65.252251 83.344391 0
65.273697 83.675644 0.55065334
64.376328 69.924492 -0.9787131
64.438438 70.902214 -0.9540689
64.534271 72.410866 -0.93350631
64.670708 74.558777 -0.88192338
64.819008 76.893448 -0.72000766
65.012413 79.938187 -0.44602016
65.231842 83.392639 0
65.25354 83.734222 0.55224997
64.370712 69.949623 -0.98279023
64.43103 70.917763 -0.956146
64.522522 72.386154 -0.93069243
64.659225 74.580078 -0.88363528
64.80632 76.940887 -0.72260201
64.992828 79.934196 -0.4458746
65.207764 83.383713 0
65.232925 83.787582 0.5537011
64.361412 69.915527 -0.9770847
64.420532 70.883217 -0.9513002
64.511459 72.371552 -0.92900324
64.63987 74.473251 -0.87464833
64.789742 76.926361 -0.72173685
64.973259 79.930199 -0.44572961
65.187836 83.442307 0
65.209969 83.804626 0.55413663
64.354851 69.925819 -0.9787131
64.414017 70.91378 -0.95545453
64.500435 72.356941 -0.92731404
64.628128 74.489403 -0.87593269
64.77536 76.94796 -0.72289002
64.953697 79.926178 -0.4455846
65.166206 83.474892 0
65.188835 83.852753 0.55544275
64.348274 69.936119 -0.98034459
64.405075 70.904251 -0.9540689
64.490639 72.362625 -0.9278785
64.613953 74.464508 -0.87379158
64.760315 76.959229 -0.72346717
64.937195 79.974007 -0.44689071
65.146637 83.543831 0
65.167885 83.906067 0.55689442
64.340248 69.92173 -0.9778989
64.394714 70.869667 -0.9492231
64.479073 72.33783 -0.92506248
64.601898 74.47551 -0.87464833
64.744064 76.949799 -0.72289002
64.917892 79.975128 -0.44689071
65.12571 83.591988 0
65.145622 83.938583 0.55776501
64.331703 69.897461 -0.97382486
64.38726 70.88517 -0.9513002
64.469566 72.348564 -0.9261893
64.587219 74.440338 -0.87165219
64.728127 76.945526 -0.72260201
64.899467 79.991798 -0.44732627
65.102036 83.59333 0
65.125908 84.017792 0.55994225
64.327568 69.952156 -0.98279023
64.377838 70.865593 -0.94853157
64.460876 72.374489 -0.92900324
64.573479 74.420532 -0.86994028
64.711914 76.936058 -0.72202492
64.878716 79.966934 -0.44660071
65.083221 83.682999 0
65.101723 84.019135 0.55994225
64.319046 69.927856 -0.9787131
64.368195 70.840996 -0.94507146
64.44912 72.344604 -0.92562699
64.560059 74.405853 -0.86865765
64.694618 76.905922 -0.72029567
64.858299 79.947227 -0.44602016
65.061676 83.725868 0
65.081161 84.087906 0.56182891
64.310844 69.908485 -0.9754532
64.362564 70.891533 -0.95199174
64.43663 72.299454 -0.92055941
64.546677 74.391136 -0.86737335
64.680107 76.927414 -0.72144884
64.839851 79.963806 -0.44645515
65.037842 83.727142 0
65.058525 84.120331 0.5626995
64.304977 69.933556 -0.97953039
64.352173 70.851898 -0.94645709
64.426346 72.294907 -0.91999704
64.534386 74.396912 -0.86780089
64.663689 76.912727 -0.72058368
64.818161 79.918106 -0.44514903
65.01667 83.78035 0
65.033676 84.111221 0.56240946
64.296066 69.899361 -0.97382486
64.344147 70.857323 -0.94714856
64.414795 72.264969 -0.91662085
64.519249 74.346283 -0.86352205
64.646011 76.872185 -0.71827739
64.798668 79.913895 -0.44500405
64.992775 83.781563 0
65.009377 84.112457 0.56240946
64.289665 69.914528 -0.97627056
64.335373 70.847702 -0.94576293
64.405304 72.275604 -0.91774553
64.507248 74.357147 -0.86437714
64.62793 76.821297 -0.71539497
64.778671 79.899269 -0.44456849
64.971672 83.83992 0
64.983551 84.082504 0.56153834
64.283226 69.929672 -0.9787131
64.327095 70.848106 -0.94576293
64.395546 72.281181 -0.91831005
64.49424 74.347511 -0.86352205
64.61145 76.801384 -0.7142418
64.757973 79.869064 -0.44369793
64.948692 83.861877 0
64.959534 84.088867 0.56168336
64.273994 69.885574 -0.97137916
64.318352 70.838478 -0.94437993
64.383652 72.241043 -0.91380697
64.480064 74.312195 -0.86052585
64.595978 76.802109 -0.7142418
64.734451 79.776535 -0.4410857
64.927109 83.915009 0
64.934532 84.074455 0.56124836
64.265762 69.861214 -0.96730512
64.30941 70.823814 -0.94230276
64.373917 72.246574 -0.91436929
64.468307 74.328156 -0.86181015
64.582382 76.844162 -0.71654814
64.710442 79.668396 -0.4380379
64.90564 83.973297 0
64.908859 84.044411 0.56037724
64.259766 69.886223 -0.97137916
64.30072 70.814171 -0.94091982
64.363731 72.241943 -0.91380697
64.455597 74.323593 -0.8613826
64.566864 76.844856 -0.71654814
64.684181 79.503098 -0.43339345
64.885864 84.073181 0
64.885101 84.055885 0.56066781
64.251595 69.861839 -0.96730512
64.292915 70.824547 -0.94230276
64.351372 72.186523 -0.90761465
64.440704 74.267708 -0.85667455
64.550011 76.814514 -0.71481788
64.65876 79.34816 -0.42903954
64.861832 84.079437 0
64.86087 84.056946 0.56066781
64.24472 69.867073 -0.96811932
64.283836 70.80484 -0.93953413
64.340637 72.166634 -0.90536314
64.428505 74.273354 -0.8571021
64.534317 76.810005 -0.71452987
64.637398 79.281448 -0.42715287
64.839302 84.122063 0
64.836845 84.063156 0.56081277
64.237633 69.867363 -0.96811932
64.275002 70.790138 -0.93745697
64.330765 72.167038 -0.90536314
64.41568 74.263618 -0.85624701
64.519043 76.815804 -0.71481788
64.616623 79.22509 -0.42555618
64.818993 84.221863 0
64.813026 84.074524 0.56110281
64.229568 69.842957 -0.96404529
64.268372 70.830574 -0.9429943
64.322296 72.202988 -0.90930384
64.400856 74.202545 -0.85111141
64.504166 76.831932 -0.71568298
64.596588 79.18428 -0.42439508
64.804977 84.488091 0
64.791832 84.153397 0.56328005
64.226044 69.843094 -0.96404529
64.263275 70.805672 -0.93953413
64.313805 72.111763 -0.89917088
64.395493 74.223312 -0.85282326
64.497215 76.852913 -0.71683615
64.586617 79.163864 -0.42381451
64.796829 84.597794 0
64.780258 84.169449 0.56371558
64.217682 69.808777 -0.95833975
64.255241 70.810989 -0.94022566
64.304573 72.12738 -0.90086007
64.382751 74.213509 -0.8519665
64.480133 76.812149 -0.71452987
64.5681 79.15937 -0.42366952
64.773109 84.629936 0
64.758217 84.232681 0.56545669
64.212814 69.868317 -0.96811932
64.246101 70.786224 -0.93676549
64.294197 72.112503 -0.89917088
64.368919 74.17292 -0.84854275
64.46447 76.807556 -0.7142418
64.549217 79.144485 -0.42323452
64.748177 84.630859 0
64.735092 84.269943 0.56647283
64.204514 69.834007 -0.96241689
64.236671 70.751434 -0.93192238
64.285286 72.13826 -0.9019869
64.356812 74.178505 -0.84897196
64.449173 76.813271 -0.71452987
64.531097 79.150322 -0.42337951
64.722702 84.616135 0
64.71096 84.281212 0.5667634
64.196793 69.814484 -0.95915705
64.227158 70.711594 -0.92638505
64.273735 72.087799 -0.896357
64.343124 74.137878 -0.84554821
64.433167 76.798309 -0.71366578
64.51226 79.135368 -0.42294395
64.698845 84.648216 0
64.689095 84.359947 0.56894004
64.190735 69.844353 -0.96404529
64.219536 70.726898 -0.92845953
64.263794 72.083046 -0.89579463
64.330872 74.138283 -0.84554821
64.417366 76.788475 -0.71308863
64.492447 79.089233 -0.42163783
64.672882 84.617821 0
64.666527 84.423096 0.57068169
64.183365 69.834709 -0.96241689
64.21125 70.722145 -0.92776805
64.253395 72.063042 -0.89354312
64.318298 74.128403 -0.84469146
64.4011 76.763123 -0.71164745
64.471443 79.001518 -0.41917062
64.64846 84.634232 0
64.646088 84.558929 0.57445508
64.175117 69.795395 -0.95589721
64.20343 70.732437 -0.92915368
64.243652 72.063347 -0.89354312
64.305283 74.103127 -0.84255207
64.385674 76.763596 -0.71164745
64.453156 78.996887 -0.4190256
64.623055 84.619385 0
64.627838 84.777855 0.58055067
64.169121 69.830177 -0.96159959
64.196022 70.757751 -0.93261385
64.233902 72.063629 -0.89354312
64.29174 74.057304 -0.83870077
64.369652 76.74337 -0.71049428
64.434883 78.992218 -0.41888005
64.596931 84.578506 0
64.605896 84.88768 0.58359843
64.16111 69.795807 -0.95589721
64.187439 70.742928 -0.93053669
64.22303 72.02327 -0.88903999
64.280151 74.078178 -0.84041262
64.35598 76.805862 -0.71395379
64.417206 79.008316 -0.41931561
64.571342 84.5532 0
64.5821 84.940338 0.58504957
64.154106 69.79599 -0.95589721
64.178894 70.728104 -0.92845953
64.213203 72.018463 -0.88847768
64.267838 74.07338 -0.83998507
64.341194 76.83213 -0.71539497
64.400314 79.055565 -0.42062172
64.54969 84.673553 0
64.560669 85.086487 0.58911347
64.146606 69.776405 -0.95263731
64.170639 70.723297 -0.92776805
64.204285 72.049179 -0.89185393
64.255798 74.078827 -0.84041262
64.327003 76.884239 -0.71827739
64.384758 79.159943 -0.42352453
64.524574 84.668983 0
64.541779 85.346901 0.59637016
64.139389 69.766685 -0.95100582
64.16227 70.713478 -0.92638505
64.193581 72.008781 -0.8873508
64.243622 74.079124 -0.84041262
64.311935 76.905312 -0.71943057
64.369827 79.300652 -0.42744285
64.499352 84.65921 0
64.51963 85.498199 0.60057908
64.131851 69.742149 -0.94693178
64.153694 70.693604 -0.92361641
64.183899 72.00901 -0.8873508
64.231087 74.064011 -0.83912832
64.296341 76.905678 -0.71943057
64.35289 79.368629 -0.42932954
64.350967 79.284729 0
64.49556 85.58194 0.60290128
64.125664 69.776901 -0.95263731
64.145935 70.708824 -0.92569089
64.173782 71.988922 -0.88510144
64.218033 74.023224 -0.83570457
64.280632 76.900856 -0.7191425
64.336014 79.446983 -0.43150675
64.333061 79.311157 0
64.471519 85.676041 0.60551351
64.117874 69.737511 -0.94611758
64.137314 70.683914 -0.92223078
64.164543 72.00943 -0.8873508
64.205185 73.987556 -0.83271003
64.265152 76.906357 -0.71943057
64.317139 79.436996 -0.43121678
64.313812 79.275116 0
64.752838 100.64491 1.0236385
64.111038 69.742592 -0.94693178
64.129242 70.684074 -0.92223078
64.153687 71.948669 -0.88059837
64.191727 73.915924 -0.82671767
64.248955 76.875641 -0.71770132
64.297279 79.375015 -0.4294751
64.295456 79.280685 0
64.70916 100.67699 1.0245095
64.104988 69.792152 -0.95508301
64.121162 70.684227 -0.92223078
64.14418 71.953926 -0.88116074
64.180862 73.977753 -0.83185327
64.232643 76.834557 -0.71539497
64.277763 79.323395 -0.42802343
64.276802 79.27063 0
64.398026 85.958176 0.61335075
64.09716 69.742844 -0.94693178
64.112747 70.664299 -0.91946208
64.134483 71.94902 -0.88059837
64.167503 73.90097 -0.82543498
64.216698 76.808975 -0.71395379
64.258369 79.271767 -0.42657229
64.258354 79.270958 0
64.371315 85.948242 0.61306024
64.091072 69.797325 -0.95589721
64.104614 70.659424 -0.91877061
64.124161 71.90345 -0.87553293
64.156105 73.937088 -0.82842952
64.200577 76.767845 -0.71164745
64.239914 79.272064 -0.42657229
64.239983 79.276459 0
64.345039 85.964272 0.61349577
64.082916 69.718346 -0.94285774
64.096352 70.644485 -0.91669345
64.114532 71.898499 -0.87496841
64.144096 73.937271 -0.82842952
64.185219 76.773247 -0.71193546
64.222664 79.355484 -0.42889455
64.221375 79.266335 0
64.318428 85.95948 0.61335075
64.075943 69.713509 -0.94204354
64.088387 70.649628 -0.9173876
64.104919 71.893555 -0.8744061
64.131813 73.916901 -0.82671767
64.169716 76.768295 -0.71164745
64.204315 79.371323 -0.42932954
64.281921 85.209869 0
64.292305 85.991013 0.61422133
64.069817 69.777847 -0.95263731
64.080475 70.65976 -0.91877061
64.095566 71.908928 -0.87609529
64.119461 73.886261 -0.82415068
64.154099 76.752968 -0.71078229
64.185616 79.361176 -0.42903954
64.256927 85.26223 0
64.267555 86.142044 0.61843026
64.055618 69.753288 -0.94856328
64.06414 70.63485 -0.91531044
64.076408 71.90406 -0.87553293
64.095123 73.840324 -0.82029939
64.123329 76.758469 -0.71107036
64.146942 79.200493 -0.42454064
64.210022 85.725983 0
64.214798 86.220566 0.6206069
64.048912 69.782997 -0.95345151
64.055908 70.60984 -0.91185033
64.066551 71.868568 -0.87159222
64.083191 73.835297 -0.81987184
64.107826 76.748276 -0.71049428
64.12809 79.143494 -0.42294395
64.185173 85.892776 0
64.188171 86.246803 0.621333
64.041458 69.718803 -0.94285774
64.047958 70.614914 -0.91254181
64.056641 71.812737 -0.86539996
64.071228 73.825119 -0.81901509
64.092499 76.758736 -0.71107036
64.109718 79.133255 -0.42265394
64.15876 85.898186 0
64.161438 86.267807 0.62191361
64.037971 69.713882 -0.94204354
64.044029 70.624969 -0.91392481
64.052361 71.87883 -0.8727169
64.065331 73.830284 -0.81944263
64.084961 76.784668 -0.71251261
64.100609 79.138504 -0.42279896
64.1455 85.893074 0
64.148163 86.293877 0.62263912
64.031311 69.758408 -0.94937748
64.035835 70.589912 -0.9090817
64.042702 71.853485 -0.86990303
64.053337 73.809822 -0.81773078
64.069489 76.779572 -0.71222353
64.082573 79.185387 -0.42410508
64.119583 85.992119 0
64.121758 86.392761 0.62539637
64.023956 69.66452 -0.93389237
64.028015 70.625053 -0.91392481
64.033127 71.833199 -0.86765146
64.04129 73.76368 -0.81387949
64.05394 76.753784 -0.71078229
64.064415 79.232239 -0.42541119
64.093185 86.033882 0
64.095009 86.46566 0.62742859
64.017319 69.733757 -0.94530344
64.019829 70.564896 -0.90562153
64.023758 71.863739 -0.87102985
64.029465 73.753464 -0.81302434
64.038528 76.753845 -0.71078229
64.046074 79.253098 -0.42599174
64.06662 86.054802 0
64.068008 86.512527 0.62873471
64.010292 69.679398 -0.93633801
64.011864 70.544846 -0.90285289
64.014168 71.818031 -0.86596447
64.017754 73.794563 -0.81644809
64.023109 76.748711 -0.71049428
64.027557 79.206375 -0.42468563
64.04007 86.106903 0
64.040871 86.54895 0.62975025
64.003448 69.704117 -0.94041204
64.003952 70.544853 -0.90285289
64.004723 71.812943 -0.86539996
64.005875 73.722687 -0.81045574
64.007713 76.764252 -0.71135944
64.009193 79.216782 -0.42497563
64.013397 86.179817 0
64.013626 86.559395 0.63004082
63.99659 69.644798 -0.93063247
63.996037 70.559891 -0.90492737
63.995285 71.802788 -0.86427528
63.994133 73.712433 -0.80960065
63.992317 76.717682 -0.70876402
63.990818 79.201202 -0.42454064
63.986591 86.195419 0
63.986347 86.600967 0.63120198
63.989689 69.689293 -0.93796951
63.98822 70.499672 -0.89662147
63.985821 71.823105 -0.86652678
63.982471 73.671341 -0.8061769
63.976967 76.707329 -0.70818794
63.972439 79.206375 -0.42468563
63.959629 86.273468 0
63.958954 86.647705 0.6325081
63.982651 69.743637 -0.94693178
63.980228 70.544823 -0.90285289
63.976368 71.823082 -0.86652678
63.970787 73.671318 -0.8061769
63.961754 76.660736 -0.70559359
63.954033 79.216713 -0.42497563
63.932671 86.289017 0
63.93132 86.735977 0.63497531
63.976002 69.674416 -0.93552381
63.972534 70.494614 -0.89592993
63.967045 71.792549 -0.86314839
63.959057 73.681534 -0.80703199
63.94648 76.655518 -0.70530558
63.935429 79.268623 -0.4264273
63.90543 86.361778 0
63.903694 86.77224 0.63599086
63.968742 69.748512 -0.94774598
63.964661 70.499588 -0.89662147
63.957794 71.762024 -0.85977215
63.94772 73.614738 -0.80146885
63.931301 76.63475 -0.70415241
63.91695 79.273727 -0.42657229
63.878437 86.356445 0
63.876064 86.792892 0.63657141
63.962452 69.649628 -0.93144977
63.956638 70.524643 -0.90008426
63.948586 71.736557 -0.85695827
63.935829 73.655739 -0.8048926
63.916172 76.613968 -0.70299923
63.898529 79.268425 -0.4264273
63.8507 86.465584 0
63.848698 86.766747 0.63584584
63.955627 69.649582 -0.93144977
63.94899 70.494469 -0.89592993
63.939236 71.736496 -0.85695827
63.924282 73.640266 -0.80360991
63.901093 76.593163 -0.70184606
63.880569 79.205925 -0.42468563
63.822777 86.564262 0
63.820168 86.896461 0.63947421
63.949116 69.614914 -0.92574424
63.941555 70.449249 -0.88970113
63.929703 71.756744 -0.85920984
63.912727 73.62989 -0.80275315
63.886063 76.572342 -0.70069289
63.863186 79.096649 -0.42163783
63.795277 86.59005 0
63.79076 87.088501 0.64484423
63.94223 69.624748 -0.92737573
63.933865 70.439148 -0.88831818
63.920803 71.710922 -0.85414439
63.901146 73.624649 -0.80232561
63.870979 76.561844 -0.7001158
63.845638 79.028923 -0.41975117
63.767822 86.605408 0
63.76297 87.077827 0.64455366
63.935604 69.60984 -0.9249301
63.925449 70.49424 -0.89592993
63.911369 71.72097 -0.85526907
63.889931 73.588585 -0.7993294
63.856632 76.489273 -0.69608021
63.82724 79.049507 -0.42033172
63.739967 86.651947 0
63.734547 87.124313 0.64586031
63.928135 69.664116 -0.93389237
63.918049 70.459038 -0.89108682
63.902103 71.715782 -0.85470676
63.878147 73.603851 -0.8006137
63.841869 76.463226 -0.69463903
63.807407 79.179199 -0.42396006
63.712006 86.698456 0
63.707001 87.092781 0.64498925
63.921566 69.644249 -0.93063247
63.910313 70.453903 -0.89039266
63.893204 71.685165 -0.85132837
63.867184 73.557495 -0.79676241
63.826664 76.473366 -0.69521511
63.786827 79.340027 -0.42845899
63.68364 86.765739 0
63.677292 87.222321 0.64861757
63.914597 69.654045 -0.93226397
63.902363 70.463837 -0.89177829
63.883995 71.679955 -0.850766
63.855328 73.577866 -0.79847431
63.811905 76.452454 -0.69406193
63.766804 79.438492 -0.43121678
63.655579 86.801781 0
63.64743 87.341408 0.65195537
63.908649 69.599571 -0.9232986
63.894634 70.458702 -0.89108682
63.875214 71.64933 -0.84738982
63.84409 73.557144 -0.79676241
63.797451 76.416031 -0.69204468
63.748062 79.44339 -0.43136176
63.627094 86.858597 0
63.61821 87.40332 0.65369701
63.901451 69.624184 -0.92737573
63.88657 70.473602 -0.8931613
63.865524 71.674576 -0.85020369
63.832722 73.546677 -0.79590565
63.783264 76.369232 -0.68945032
63.728859 79.474243 -0.43223232
63.59911 86.878952 0
63.590569 87.366486 0.65268147
63.894749 69.619102 -0.92655843
63.879028 70.458427 -0.89108682
63.857204 71.623604 -0.84457588
63.821377 73.536209 -0.79505056
63.768223 76.37413 -0.68973833
63.709576 79.505089 -0.43310344
63.569614 86.97731 0
63.265896 103.19212 1.0947531
63.887466 69.643677 -0.93063247
63.872223 70.408104 -0.88416386
63.847992 71.623428 -0.84457588
63.810471 73.50518 -0.79248196
63.753063 76.384171 -0.69031441
63.690945 79.499512 -0.43295789
63.541748 86.981972 0
63.217815 103.22758 1.0957693
63.881485 69.604019 -0.9241159
63.863846 70.438049 -0.88831818
63.838459 71.638466 -0.84626293
63.798878 73.510086 -0.79291111
63.739086 76.337326 -0.68772006
63.67112 79.551094 -0.43440956
63.513428 87.007431 0
63.170746 103.21101 1.0953337
63.875484 69.569275 -0.91841036
63.856178 70.432854 -0.88762403
63.829571 71.623039 -0.84457588
63.78796 73.484161 -0.79077005
63.72406 76.342163 -0.68800807
63.652443 79.545502 -0.43426457
63.483418 87.105682 0
63.124645 103.15283 1.093737
63.868408 69.583946 -0.920856
63.848995 70.407593 -0.88416386
63.820358 71.622826 -0.84457588
63.776741 73.47364 -0.78991497
63.710369 76.290115 -0.68512565
63.633415 79.55545 -0.43455455
63.454029 87.167488 0
63.583591 81.669647 0.49361643
63.863251 69.519547 -0.91026229
63.842125 70.372314 -0.87932074
63.810898 71.632751 -0.84570062
63.765804 73.452835 -0.78820306
63.695644 76.284592 -0.68483764
63.615005 79.539398 -0.43411899
63.424488 87.229248 0
63.561855 81.684723 0.49405199
63.855297 69.568787 -0.91841036
63.833775 70.397194 -0.88278085
63.802597 71.596954 -0.84175986
63.75478 73.437141 -0.78691876
63.681072 76.273865 -0.68426055
63.595421 79.570107 -0.43499011
63.39534 87.270164 0
63.539677 81.715355 0.49492308
63.85075 69.613167 -0.92574424
63.831375 70.341911 -0.87516642
63.798412 71.581612 -0.84007281
63.749489 73.421608 -0.78563613
63.674618 76.237488 -0.68224329
63.586288 79.559456 -0.43469957
63.380173 87.311417 0
63.526489 81.808578 0.49753532
63.846306 69.528984 -0.91189063
63.822735 70.376816 -0.88001221
63.788971 71.591507 -0.84119749
63.738674 73.400772 -0.78392422
63.660263 76.221565 -0.68137813
63.567055 79.574539 -0.43513513
63.351574 87.326248 0
63.502373 81.901489 0.50014758
63.837616 69.597961 -0.9232986
63.814304 70.401672 -0.88347238
63.780388 71.57093 -0.83894598
63.726425 73.431229 -0.78649122
63.645794 76.210815 -0.68080211
63.548389 79.568817 -0.43499011
63.321426 87.393082 0
63.481796 81.86451 0.49913144
63.833542 69.508827 -0.90863079
63.807934 70.356308 -0.87724358
63.77216 71.540192 -0.83556974
63.71627 73.389839 -0.78306746
63.632133 76.174179 -0.67878377
63.530518 79.537079 -0.43411899
63.291119 87.459869 0
64 64 0
63.82642 69.523453 -0.91107643
63.800251 70.356071 -0.87724358
63.76273 71.550056 -0.83669442
63.70573 73.363838 -0.78092808
63.617264 76.178894 -0.67907184
63.512074 79.526123 -0.43382901
63.261627 87.495422 0
64 64 0
63.818779 69.552872 -0.91596466
63.7929 70.345787 -0.87585789
63.754436 71.524376 -0.83388054
63.693745 73.384003 -0.78263992
63.603729 76.142227 -0.67705351
63.493141 79.530708 -0.433974
63.230522 87.577744 0
64 64 0
63.811565 69.567474 -0.91841036
63.785233 70.345535 -0.87585789
63.745689 71.513924 -0.83275586
63.683449 73.352844 -0.78007293
63.590282 76.10556 -0.67503625
63.475258 79.50412 -0.43324843
63.200977 87.608002 0
64 64 0
63.80484 69.567245 -0.91841036
63.77739 70.350296 -0.87655205
63.735897 71.533913 -0.83500522
63.672508 73.342186 -0.77921617
63.576199 76.089539 -0.67417109
63.456703 79.498291 -0.43310344
63.170811 87.653831 0
63.381161 81.65332 0.49332643
63.797218 69.591698 -0.9224844
63.769714 70.350021 -0.87655205
63.728821 71.477737 -0.8288151
63.661407 73.336655 -0.77878863
63.563465 76.037338 -0.67128873
63.440426 79.430107 -0.43121678
63.139965 87.715233 0
63.360584 81.63179 0.49274588
63.788979 69.630966 -0.92900413
63.761482 70.364769 -0.87862659
63.719406 71.487549 -0.82993984
63.652241 73.2798 -0.77408057
63.548145 76.05748 -0.6724419
63.422367 79.413834 -0.43078122
63.109947 87.750587 0
63.338696 81.646591 0.49318144
63.789055 69.452888 -0.89966536
63.754955 70.334404 -0.87447494
63.709965 71.497368 -0.83106667
63.642216 73.248604 -0.77151358
63.531776 76.103439 -0.67503625
63.403942 79.407944 -0.4306362
63.078232 87.827499 0
63.316166 81.676926 0.49405199
63.777145 69.585991 -0.9216702
63.7477 70.324066 -0.87308925
63.70192 71.471634 -0.82825279
63.628384 73.31485 -0.77707678
63.52169 75.989159 -0.66869438
63.384911 79.417587 -0.4309262
63.049026 87.836777 0
63.292946 81.722816 0.49535811
63.773239 69.516579 -0.91026229
63.738823 70.353844 -0.87724358
63.691639 71.501724 -0.83162904
63.618183 73.28875 -0.77493733
63.506142 76.014412 -0.67013556
63.366711 79.406456 -0.4306362
63.019585 87.851219 0
63.269821 81.763489 0.49651921
63.763229 69.595306 -0.9232986
63.731571 70.343491 -0.87585789
63.684723 71.450577 -0.82600123
63.608261 73.257492 -0.77236873
63.493156 75.977623 -0.66811728
63.346779 79.436821 -0.43150675
63.263401 81.40712 0
63.250557 81.710678 0.4950681
63.757973 69.560463 -0.91759616
63.725868 70.29805 -0.86962914
63.674835 71.470505 -0.82825279
63.598862 73.215981 -0.76894498
63.479584 75.956329 -0.66696411
63.330383 79.384109 -0.43005565
63.241238 81.432213 0
63.232548 81.631874 0.49289086
63.754349 69.49102 -0.90618509
63.716015 70.347847 -0.87655205
63.6674 71.434563 -0.82431203
63.585892 73.256516 -0.77236873
63.465832 75.940186 -0.66609895
63.31226 79.372894 -0.42976511
63.218082 81.478081 0
63.212173 81.610168 0.49231032
63.746353 69.520355 -0.91107643
63.71019 70.307404 -0.87101477
63.657482 71.45446 -0.8265636
63.575886 73.230377 -0.77022928
63.451641 75.934364 -0.66581094
63.295116 79.340919 -0.42889455
63.194576 81.529106 0
63.190895 81.609207 0.49231032
63.740612 69.50029 -0.90781659
63.701385 70.3321 -0.87447494
63.648956 71.443878 -0.82543671
63.564972 73.224731 -0.76980174
63.438194 75.913025 -0.66465777
63.277073 79.329659 -0.42860398
64 64 0
63.169128 81.618607 0.49260086
63.736595 69.445663 -0.89885116
63.694221 70.321701 -0.87308925
63.640697 71.428238 -0.82374972
63.556557 73.167786 -0.76509368
63.424801 75.89167 -0.6635046
63.259052 79.318405 -0.42831397
64 64 0
63.145329 81.669487 0.49405199
63.726097 69.52433 -0.91189063
63.685089 70.35141 -0.87724358
63.63147 71.432869 -0.82431203
63.544968 73.177505 -0.76595044
63.410946 75.880646 -0.66292852
63.240284 79.322685 -0.42845899
64 64 0
63.126038 81.626915 0.49289086
63.717918 69.553612 -0.91677886
63.67767 70.346016 -0.87655205
63.624554 71.391815 -0.81980896
63.535706 73.141052 -0.76295424
63.397903 75.854095 -0.66148734
63.221771 79.321754 -0.42845899
63.104847 81.623779 0
63.10685 81.584328 0.49172974
63.714546 69.48909 -0.90618509
63.672089 70.305534 -0.87101477
63.615356 71.396423 -0.82037133
63.524925 73.135361 -0.76252669
63.384655 75.832695 -0.66033417
63.204876 79.289673 -0.42758843
63.075985 81.768211 0
63.082905 81.635147 0.49318144
63.705284 69.538116 -0.91433632
63.666603 70.265053 -0.8654775
63.605881 71.406113 -0.82149816
63.513889 73.134781 -0.76252669
63.371731 75.806122 -0.65889299
63.187786 79.262741 -0.4268623
63.051472 81.824257 0
63.055519 81.748184 0.49637422
63.698059 69.547615 -0.91596466
63.657394 70.294693 -0.86962914
63.599693 71.354881 -0.81586826
63.503689 73.118805 -0.76124239
63.359432 75.769188 -0.65687466
63.170189 79.246193 -0.4264273
63.033611 81.755539 0
63.03577 81.715881 0.4955031
63.689434 69.581802 -0.9216702
63.651463 70.264229 -0.8654775
63.587982 71.405136 -0.82149816
63.491528 73.138702 -0.76295424
63.344925 75.773567 -0.65716273
63.150036 79.276306 -0.42729786
64 64 0
63.021294 81.590195 0.49202031
63.695312 69.359344 -0.88499755
63.642185 70.293846 -0.86962914
63.580189 71.384338 -0.81924665
63.481068 73.127838 -0.76209915
63.332462 75.741791 -0.65543348
63.12804 79.337524 -0.42903954
62.994251 81.690796 0
63.002991 81.537102 0.49056864
63.680817 69.497147 -0.90781659
63.635452 70.278397 -0.86755461
63.571857 71.373672 -0.81811976
63.47123 73.106705 -0.76038724
63.319775 75.715157 -0.6539923
63.110413 79.320892 -0.42860398
62.974083 81.668777 0
62.979088 81.582596 0.49187532
63.672573 69.580841 -0.9216702
63.632835 70.258141 -0.86478597
63.567997 71.363274 -0.81699508
63.46603 73.101242 -0.75995809
63.312092 75.725067 -0.65456831
63.100243 79.335922 -0.42903954
62.960361 81.720108 0
62.962074 81.690918 0.49492308
63.676468 69.402802 -0.89233148
63.626774 70.232635 -0.86132318
63.561531 71.322166 -0.81249201
63.45718 73.064728 -0.75696355
63.300705 75.677757 -0.65197396
63.081711 79.334824 -0.42903954
62.938328 81.72924 0
62.93573 81.772629 0.49724478
63.668129 69.432022 -0.89722282
63.618629 70.24221 -0.86270881
63.549892 71.367279 -0.81755745
63.447479 73.043571 -0.75525165
63.287544 75.661407 -0.65110886
63.063183 79.333702 -0.42903954
62.917542 81.717545 0
62.912354 81.802467 0.4981159
63.656342 69.51548 -0.91107643
63.610779 70.246742 -0.86340034
63.542889 71.336304 -0.81418121
63.436234 73.048012 -0.75567919
63.273773 75.65538 -0.65082079
63.046921 79.296249 -0.42802343
62.898724 81.674683 0
62.891815 81.785568 0.49768034
63.655315 69.426277 -0.89640862
63.600368 70.291328 -0.86962914
63.533058 71.350952 -0.81586826
63.425304 73.047325 -0.75567919
63.260677 75.639 -0.64995569
63.028439 79.295082 -0.42802343
62.875057 81.709686 0
62.871315 81.768654 0.49724478
63.636349 69.514198 -0.91107643
63.589455 70.225266 -0.8606317
63.516968 71.324448 -0.81305438
63.402763 73.056168 -0.75653595
63.235615 75.590729 -0.64736134
62.992161 79.282333 -0.42773342
62.828156 81.769241 0
62.826324 81.796997 0.4981159
63.630352 69.503883 -0.90944493
63.580925 70.239792 -0.86270881
63.505394 71.364426 -0.81755745
63.3932 73.03495 -0.7548241
63.224384 75.548508 -0.645055
62.972301 79.301842 -0.42831397
62.808079 81.74704 0
62.807606 81.754089 0.49695477
63.63179 69.385094 -0.88988888
63.573044 70.244278 -0.86340034
63.497189 71.353691 -0.81643277
63.385082 72.993233 -0.75140035
63.210781 75.542404 -0.64476693
62.95488 79.285034 -0.42787841
62.785572 81.761169 0
62.228535 89.90789 0.72524732
63.624256 69.399422 -0.89233148
63.566895 70.22374 -0.8606317
63.486187 71.383484 -0.81980896
63.373859 72.997597 -0.7518279
63.198631 75.515648 -0.64332575
62.935329 79.299316 -0.42831397
62.764111 81.759689 0
62.203003 89.822784 0.72292507
63.614941 69.438416 -0.89885116
63.562916 70.173172 -0.85371143
63.482647 71.306839 -0.81136733
63.365891 72.955864 -0.7484042
63.18618 75.494026 -0.64217257
62.918312 79.277283 -0.42773342
62.74192 81.768555 0
62.165565 89.908714 0.72539234
63.605175 69.482315 -0.90618509
63.553658 70.197655 -0.85717154
63.476376 71.270721 -0.80742657
63.356544 72.934608 -0.7466923
63.171551 75.503349 -0.64274865
62.89724 79.312256 -0.42874953
62.721569 81.751465 0
62.110371 90.238197 0.73468071
63.60252 69.427612 -0.89722282
63.547634 70.177094 -0.8544029
63.469074 71.249809 -0.80517507
63.343498 72.964554 -0.74926096
63.159916 75.47139 -0.6410194
62.877979 79.321266 -0.42903954
62.701263 81.734329 0
62.074493 90.292915 0.73627734
63.598896 69.387695 -0.89070308
63.536446 70.22657 -0.86132318
63.460316 71.249161 -0.80517507
63.336479 72.912552 -0.74498045
63.148361 75.439407 -0.63928914
62.857536 79.345802 -0.42976511
62.678291 81.75351 0
62.040794 90.316475 0.73700291
63.58083 69.539993 -0.91596466
63.533085 70.170982 -0.85371143
63.454239 71.213028 -0.8012343
63.322613 72.952698 -0.7484042
63.135319 75.428062 -0.63871306
62.834682 79.401421 -0.43136176
62.656055 81.762268 0
62.001549 90.412552 0.7397607
63.587395 69.366997 -0.88744324
63.524475 70.185425 -0.85578853
63.44202 71.257965 -0.80629975
63.31337 72.931396 -0.7466923
63.12072 75.437317 -0.63928914
62.813286 79.436256 -0.43237734
62.626217 81.869614 0
61.960476 90.529282 0.7430985
63.588608 69.267929 -0.87114394
63.514267 70.219849 -0.8606317
63.43325 71.257286 -0.80629975
63.304977 72.899857 -0.74412531
63.109314 75.405312 -0.63755995
62.794231 79.44001 -0.43252289
62.602192 81.899078 0
61.92923 90.516449 0.74280852
63.5756 69.351196 -0.88499755
63.509926 70.179245 -0.85509437
63.426891 71.226212 -0.8029235
63.294224 72.89901 -0.74412531
63.098808 75.362976 -0.63525361
62.77763 79.412621 -0.43179676
62.579742 81.907745 0
61.898422 90.498383 0.74237293
63.570721 69.330971 -0.88173771
63.504875 70.148651 -0.85094273
63.41449 71.271095 -0.80798894
63.284706 72.882797 -0.74284101
63.086739 75.341248 -0.63410044
62.758591 79.416328 -0.43194231
62.559776 81.885269 0
62.591763 81.488045 0.48998863
63.55703 69.419136 -0.89640862
63.494583 70.18306 -0.85578853
63.409431 71.2248 -0.8029235
63.27272 72.897278 -0.74412531
63.073036 75.340134 -0.63410044
62.73954 79.419991 -0.43208733
62.53223 81.956146 0
62.569366 81.501854 0.49042365
63.561924 69.280663 -0.87358958
63.492508 70.117424 -0.84678847
63.401123 71.219025 -0.80236119
63.266216 72.845215 -0.73984486
63.060616 75.323563 -0.63323635
62.723919 79.382202 -0.43107122
61.983849 88.303131 0
62.549938 81.479401 0.48984307
63.557617 69.255501 -0.86951554
63.481327 70.161819 -0.85301989
63.395809 71.17778 -0.79785812
63.258972 72.803398 -0.73642111
63.047371 75.317245 -0.63294727
62.707512 79.354759 -0.43034565
61.957542 88.264374 0
62.532307 81.436203 0.48868197
63.542858 69.353455 -0.88581175
63.472603 70.17617 -0.85509437
63.387569 71.171989 -0.79729575
63.244843 72.843422 -0.73984486
63.036335 75.285172 -0.63121802
62.692936 79.306587 -0.42903954
61.934868 88.184105 0
61.730854 90.573219 0.74484015
63.539799 69.313515 -0.87929517
63.463409 70.195526 -0.85786301
63.381535 71.140854 -0.79391736
63.235928 72.822037 -0.73813295
63.020916 75.304611 -0.63237119
62.678032 79.26358 -0.42787841
61.912384 88.103806 0
61.703682 90.513504 0.74324352
63.516945 69.500069 -0.91026229
63.461193 70.134895 -0.8495571
63.370686 71.165413 -0.79673123
63.228413 72.785324 -0.73513842
63.009518 75.277664 -0.63093001
62.662315 79.230919 -0.42700785
61.88736 88.054604 0
61.670284 90.526245 0.74367905
63.530468 69.273003 -0.87277544
63.452 70.154228 -0.85232574
63.359772 71.189972 -0.79954726
63.215065 72.815056 -0.73770541
63.000481 75.224922 -0.62804657
62.64806 79.182709 -0.42570174
61.865219 87.974281 0
61.640537 90.497528 0.74295348
63.515656 69.365952 -0.88825738
63.440052 70.203545 -0.8592487
63.35474 71.148705 -0.79504418
63.203953 72.819214 -0.73813295
62.983662 75.259773 -0.63006485
62.633923 79.134468 -0.42439508
61.835785 87.976868 0
61.605721 90.525711 0.74382406
63.52449 69.232758 -0.8662557
63.442661 70.13324 -0.8495571
63.351799 71.133125 -0.79335499
63.202343 72.777824 -0.7347092
62.980606 75.217941 -0.62775856
62.628071 79.097427 -0.42337951
61.83025 87.87706 0
61.586403 90.560486 0.74484015
63.512276 69.296165 -0.87684947
63.438473 70.097595 -0.84471399
63.344112 71.122223 -0.79223031
63.190327 72.792198 -0.73599356
62.968475 75.201248 -0.6268934
62.611736 79.075058 -0.42279896
61.804741 87.83815 0
61.546684 90.64035 0.7471624
63.51506 69.197136 -0.86055017
63.427376 70.136879 -0.85025126
63.337395 71.101189 -0.7899788
63.183994 72.745209 -0.73214227
62.959267 75.153641 -0.62429905
62.594971 79.057838 -0.4223634
61.776905 87.825104 0
61.50629 90.725327 0.74962962
63.486919 69.427834 -0.89885116
63.420906 70.126183 -0.84886563
63.328339 71.105438 -0.79054111
63.174877 72.728882 -0.73085791
62.945789 75.152374 -0.62429905
62.5802 79.019905 -0.42134729
61.748608 87.81723 0
61.46373 90.830948 0.75267744
63.480831 69.422287 -0.89803702
63.415894 70.10051 -0.84540546
63.315395 71.150139 -0.79560655
63.164333 72.727875 -0.73085791
62.931824 75.156235 -0.62458706
62.563042 79.007843 -0.42105728
61.725288 87.757492 0
61.424377 90.900276 0.75470906
63.483822 69.323257 -0.88173771
63.400776 70.17971 -0.85648006
63.309696 71.118973 -0.79223031
63.156261 72.701309 -0.72871852
62.920341 75.134346 -0.62343389
62.546413 78.99057 -0.42062172
61.70211 87.697754 0
61.388363 90.933357 0.7557252
63.471592 69.38166 -0.89151728
63.402626 70.084099 -0.8433283
63.307056 71.057442 -0.78547573
63.145752 72.700287 -0.72871852
62.907898 75.122742 -0.62285787
62.531857 78.952621 -0.41960618
61.674496 87.684586 0
61.34922 90.997414 0.75761187
63.475361 69.277725 -0.87440377
63.388821 70.148277 -0.85232574
63.295513 71.086929 -0.78885192
63.136253 72.689041 -0.72786337
62.898041 75.085381 -0.62083954
62.51482 78.940483 -0.41931561
61.647423 87.666237 0
61.306835 91.09243 0.76036912
63.458591 69.380371 -0.89151728
63.390434 70.057678 -0.83986819
63.285931 71.096191 -0.7899788
63.126785 72.677765 -0.72700661
62.885681 75.073753 -0.62026346
62.499889 78.907661 -0.41844505
61.628208 87.570145 0
61.266296 91.166725 0.76254636
63.467113 69.232185 -0.8670699
63.376507 70.121826 -0.84886563
63.278904 71.080154 -0.78828961
63.116299 72.676704 -0.72700661
62.87178 75.077545 -0.62055153
62.483456 78.89032 -0.41800949
61.598675 87.577629 0
61.223469 91.26162 0.76530355
63.458767 69.251213 -0.87032974
63.380939 70.006287 -0.83294785
63.269829 71.084328 -0.78885192
63.110027 72.634773 -0.72358292
62.858395 75.076172 -0.62055153
62.472393 78.821281 -0.41612282
61.577126 87.507408 0
61.182007 91.340958 0.76762581
63.441654 69.353798 -0.88744324
63.363796 70.100342 -0.84609693
63.261795 71.078392 -0.78828961
63.100658 72.623489 -0.72272778
62.849842 75.028481 -0.61795717
62.45826 78.783234 -0.41510671
61.554123 87.452682 0
61.144661 91.378883 0.76878691
63.448151 69.230225 -0.8670699
63.360111 70.064651 -0.84125382
63.253242 71.077492 -0.78828961
63.090778 72.617294 -0.72230023
62.837601 75.016808 -0.6173811
62.447487 78.71418 -0.41322002
61.530155 87.408302 0
61.098492 91.499451 0.77227026
63.438686 69.259033 -0.87195814
63.352249 70.068863 -0.84194529
63.249546 71.031113 -0.78322417
63.081455 72.605972 -0.72144347
62.827038 74.989655 -0.61593884
62.428051 78.727798 -0.41365558
61.500214 87.42083 0
61.049274 91.64576 0.77647865
63.43021 69.278008 -0.87521797
63.350842 70.013191 -0.83433086
63.239414 71.045349 -0.78491122
63.068302 72.630371 -0.72358292
62.813202 74.993393 -0.61622792
62.414162 78.68972 -0.41263947
61.476387 87.376396 0
61.009178 91.704178 0.7782203
63.436169 69.164307 -0.85647613
63.332684 70.11216 -0.8481741
63.23035 71.049484 -0.78547573
63.064003 72.573112 -0.71887648
62.800484 74.986794 -0.61593884
62.399235 78.661964 -0.4119139
61.456051 87.300903 0
60.972885 91.726364 0.77894586
63.425591 69.202934 -0.86299586
63.333561 70.036537 -0.83779103
63.217373 71.088959 -0.7899788
63.055336 72.556656 -0.71759218
62.792316 74.939064 -0.61334449
62.38266 78.649696 -0.41162392
61.426758 87.308144 0
60.931973 91.789856 0.78083307
64 64 -0
63.324039 70.055672 -0.84055966
63.221771 70.971848 -0.7770319
63.043858 72.565727 -0.71844894
62.779099 74.937599 -0.61334449
62.370724 78.596077 -0.41017225
61.407253 87.22744 0
60.88802 91.879089 0.7834453
63.411911 69.211342 -0.8646242
63.32066 70.019966 -0.83571655
63.210503 70.996147 -0.77984577
63.03754 72.528847 -0.71545273
62.769363 74.905281 -0.61161524
62.355419 78.573441 -0.40959167
61.384445 87.17775 0
60.845596 91.952751 0.785622
63.408974 69.181168 -0.85973597
63.312252 70.029099 -0.83709949
63.200321 71.010338 -0.78153497
63.0284 72.517464 -0.71459597
62.752087 74.939751 -0.6136325
62.341934 78.535309 -0.40857613
61.354671 87.190071 0
60.802986 92.026375 0.78779924
63.41687 69.057693 -0.83936262
63.309563 69.988388 -0.83156222
63.193012 70.999283 -0.78041029
63.015755 72.53669 -0.71630788
62.743607 74.897141 -0.61132723
62.327351 78.507469 -0.40785
61.330227 87.155838 0
60.759007 92.110252 0.79026645
63.393024 69.209175 -0.8646242
63.288971 70.102188 -0.84748262
63.182201 71.018486 -0.7826618
63.011383 72.484505 -0.71202904
62.735229 74.854507 -0.60902089
62.313431 78.47448 -0.40697944
61.303455 87.142273 0
60.710606 92.230202 0.79374981
63.374016 69.316437 -0.88255185
63.286293 70.061455 -0.84194529
63.17313 71.022537 -0.78322417
63.002934 72.468002 -0.71074468
62.71909 74.878654 -0.61046207
62.296547 78.46727 -0.40683445
61.285839 87.051117 0
60.669815 92.282967 0.7953459
63.362335 69.359863 -0.88988888
63.285488 70.005775 -0.83433086
63.171249 70.966019 -0.7770319
62.996342 72.436211 -0.70817775
62.712059 74.825722 -0.60757864
62.281525 78.444565 -0.4062539
61.261681 87.0168 0
60.623363 92.382133 0.79824871
64 64 -0
63.266857 70.099564 -0.84748262
63.161015 70.980156 -0.77872109
62.985535 72.440086 -0.70860529
62.697124 74.839569 -0.6084438
62.274612 78.354767 -0.40378666
61.240704 86.95665 0
60.579151 92.460587 0.80057096
64 64 -0
63.263721 70.063805 -0.84263682
63.154419 70.963997 -0.7770319
62.97348 72.454147 -0.70988959
62.687145 74.812317 -0.60700262
62.258526 78.342339 -0.40349612
61.218613 86.906776 0
60.537876 92.513168 0.80216706
64 64 -0
63.272274 69.933434 -0.82464194
63.144764 70.973068 -0.77815872
62.966389 72.427429 -0.70775014
62.676601 74.790184 -0.60584944
62.244358 78.314438 -0.40277055
61.716827 82.615608 0
60.493935 92.586342 0.8043443
63.363174 69.140869 -0.85403043
63.25462 70.017197 -0.83640802
63.136341 70.972031 -0.77815872
62.958103 72.410881 -0.70646584
62.661655 74.803986 -0.60671455
62.234089 78.255592 -0.40117443
61.692417 82.628342 0
60.447258 92.680061 0.80710149
63.357578 69.135201 -0.85321623
63.247971 70.011322 -0.83571655
63.133595 70.925583 -0.77309114
62.948578 72.404526 -0.7060383
62.655666 74.745895 -0.6035431
62.212997 78.284378 -0.40204498
61.674431 82.589378 0
60.39777 92.794357 0.81043988
64 64 -0
63.244339 70.010864 -0.83571655
63.129414 70.925056 -0.77309114
62.939659 72.434448 -0.70860529
62.649178 74.745079 -0.6035431
62.212791 78.216263 -0.40015832
61.660606 82.608627 0
60.370003 92.87468 0.81276208
63.340179 69.197769 -0.86381
63.232658 70.044777 -0.84055966
63.124245 70.898804 -0.77027726
62.932053 72.412788 -0.70689338
62.638798 74.722916 -0.60238993
62.198887 78.188324 -0.39943275
61.11573 86.72094 0
60.32399 92.957909 0.8152293
64 64 -0
63.237473 69.949295 -0.82741058
63.110096 70.9431 -0.7753427
62.92189 72.411491 -0.70689338
62.629787 74.690483 -0.60066068
62.187031 78.144897 -0.39827165
61.092251 86.686455 0
60.277771 93.041077 0.81769657
63.325714 69.210869 -0.8662557
63.216118 70.057838 -0.84263682
63.102356 70.936981 -0.77478033
62.916996 72.369446 -0.70346969
62.61488 74.704216 -0.60152584
62.170609 78.13755 -0.39812663
61.629902 82.316132 0
60.232014 93.118996 0.82001823
64 64 -0
63.226345 69.922569 -0.82395041
63.100559 70.885513 -0.76915258
62.904224 72.388496 -0.70518154
62.603958 74.687141 -0.60066068
62.158913 78.094101 -0.39696553
61.584175 82.493881 0
60.183372 93.217484 0.82292104
63.313126 69.209229 -0.8662557
63.223125 69.891769 -0.81979614
63.086926 70.924728 -0.77365565
62.898117 72.356636 -0.70261455
62.596455 74.644417 -0.59835434
62.140526 78.102165 -0.39725551
61.543461 82.63028 0
60.13924 93.279831 0.8248077
63.300964 69.252487 -0.87358958
63.208065 69.950516 -0.82810205
63.079231 70.918564 -0.77309114
62.894794 72.304398 -0.69833404
62.578815 74.678612 -0.60037267
62.132401 78.032944 -0.39536884
61.491425 82.849144 0
60.089466 93.383316 0.82785547
63.302513 69.192848 -0.86381
63.208225 69.894844 -0.82048762
63.083046 70.826797 -0.76296031
62.884075 72.308159 -0.69876325
62.569359 74.651237 -0.59893042
62.115444 78.030678 -0.39536884
61.462418 82.892517 0
60.035286 93.517639 0.83177441
63.308189 69.103844 -0.84914219
63.205143 69.864059 -0.81633598
63.07275 70.840797 -0.76464951
62.87542 72.296616 -0.69790649
62.558575 74.63414 -0.59806633
62.106171 77.971756 -0.39377272
61.452175 82.796608 0
59.966816 93.754852 0.83859551
63.317432 68.990349 -0.83039725
63.18922 69.927719 -0.82533342
63.065174 70.834641 -0.76408714
62.866783 72.285088 -0.69705141
62.549232 74.60675 -0.59662408
62.0914 77.954002 -0.39333719
61.421707 82.850235 0
59.907627 93.919853 0.84338444
63.320862 68.920975 -0.81898928
63.179314 69.946617 -0.82810205
63.056221 70.838539 -0.76464951
62.860283 72.258286 -0.69491196
62.539951 74.579369 -0.5951829
62.079517 77.915649 -0.39232105
61.388256 82.924446 0
59.859402 94.002396 0.84585166
63.275379 69.204109 -0.8662557
63.179741 69.890945 -0.82048762
63.04866 70.832367 -0.76408714
62.840393 72.328087 -0.7009027
62.532162 74.541748 -0.59316564
62.067001 77.882446 -0.39145049
61.366112 82.91613 0
59.821716 94.007675 0.84614223
63.296597 69.007423 -0.83365709
63.172623 69.889954 -0.82048762
63.036869 70.856369 -0.76690108
62.836758 72.28093 -0.69705141
62.519424 74.53997 -0.59316564
62.060352 77.808037 -0.38941827
61.353394 82.840759 0
59.785461 94.002609 0.84614223
64 64 -0
63.156261 69.90284 -0.82256478
63.033245 70.763474 -0.75677019
62.826923 72.206924 -0.69105905
62.498352 74.505623 -0.59143537
62.026989 77.803307 -0.38941827
61.315235 82.782791 0
59.69532 94.115807 0.84962559
63.2855 68.955925 -0.82550901
63.15271 69.876991 -0.81910461
63.012749 70.847809 -0.76633871
62.814075 72.22583 -0.6927709
62.480492 74.539642 -0.59345365
