# .PCD v0.7 - Point Cloud Data file format
VERSION 0.7
FIELDS x y z
SIZE 4 4 4
TYPE F F F
COUNT 1 1 1
WIDTH 1719
HEIGHT 1
VIEWPOINT 0 0 0 1 0 0 0
POINTS 1719
DATA ascii
67.867081 68.623085 -0.99367839
68.564133 69.456406 -0.98131382
69.594345 70.688026 -0.96579349
71.431709 72.88459 -0.96552706
74.922195 77.057449 -0.94871634
75.941582 78.276123 -0.51979953
79.951653 83.07016 0
90.728516 95.953865 1.1634531
67.848824 68.612572 -0.99041855
68.583252 69.492737 -0.98685116
69.579742 70.686966 -0.96466666
71.417686 72.889626 -0.96509951
74.919662 77.086533 -0.94986951
75.917671 78.28257 -0.51950955
79.958603 83.125381 0
90.669914 95.962204 1.1625825
67.855896 68.632416 -0.99367839
68.525253 69.436569 -0.97577655
69.594421 70.721046 -0.96860737
71.416794 72.910423 -0.96638381
74.90715 77.103683 -0.95015752
75.920341 78.320923 -0.52038008
79.958801 83.172653 0
90.631271 95.9944 1.1625825
67.86924 68.659882 -0.99856663
68.57637 69.511505 -0.98823416
69.589539 70.731712 -0.96916974
71.406021 72.91938 -0.96638381
74.888008 77.112877 -0.94986951
75.906349 78.33931 -0.5205251
79.958885 83.219948 0
90.575996 96.006577 1.161857
68.544098 69.486122 -0.98269683
69.581398 70.738457 -0.96916974
71.391968 72.92437 -0.96595627
74.87545 77.130005 -0.95015752
75.895645 78.361694 -0.52081567
79.952248 83.259254 0
90.514099 96.010635 1.1608409
67.823341 68.627312 -0.98960435
68.511902 69.460663 -0.97715956
69.570023 70.741287 -0.96860737
71.390976 72.94516 -0.96723896
74.866165 77.151108 -0.95073354
75.878288 78.37606 -0.52081567
79.958817 83.314636 0
90.44561 96.006599 1.1595347
67.811447 68.62429 -0.98797286
68.534019 69.500954 -0.98338836
69.55217 70.736244 -0.96691817
71.376907 72.950127 -0.96681136
74.850266 77.164223 -0.95073354
75.841072 78.366333 -0.51994455
79.958626 83.362015 0
90.370552 95.994415 1.157938
67.821556 68.64798 -0.99204689
68.524185 69.502556 -0.98269683
69.547249 70.746864 -0.96748054
71.359566 72.951111 -0.96595627
74.837631 77.18132 -0.95102155
75.833603 78.392677 -0.52038008
79.964966 83.417465 0
90.295578 95.982109 1.1563419
67.82534 68.664062 -0.99449259
68.552536 69.550697 -0.99031126
69.564873 70.784996 -0.97198361
71.345482 72.956009 -0.96552706
74.811867 77.182419 -0.95015752
75.80632 78.394905 -0.51994455
79.948105 83.444794 0
90.240433 95.993759 1.1556158
68.517235 69.521248 -0.98408252
69.53093 70.760254 -0.96748054
71.337914 72.968864 -0.96595627
74.815575 77.219482 -0.95188671
75.785629 78.405144 -0.51979953
79.937782 83.480164 0
90.185303 96.005333 1.1548903
67.807816 68.665642 -0.99286419
68.520065 69.538353 -0.986157
69.522758 70.76693 -0.96748054
71.327072 72.977722 -0.96595627
74.802864 77.236549 -0.95217472
75.7715 78.423393 -0.51994455
79.947136 83.539726 0
90.123619 96.008774 1.1538748
67.783447 68.647232 -0.98797286
68.481697 69.504906 -0.97923672
69.530624 70.793312 -0.97029656
71.309731 72.9786 -0.96509951
74.790138 77.253616 -0.95246387
75.763908 78.449699 -0.52038008
79.933372 83.571091 0
90.068504 96.020157 1.1531487
67.812111 68.694016 -0.99693823
68.487694 69.525902 -0.98200536
69.52562 70.803932 -0.97085893
71.315056 73.007355 -0.96723896
74.790421 77.286713 -0.95390505
75.756271 78.476013 -0.52081567
79.939247 83.626694 0
90.016708 96.035507 1.1525686
67.793983 68.683258 -0.99367839
68.465225 69.511826 -0.97854519
69.536575 70.83429 -0.97423512
71.307396 73.020172 -0.96766651
74.75808 77.279648 -0.95246387
75.742035 78.49424 -0.52096063
79.928619 83.662109 0
90.00087 96.095184 1.1535841
67.803856 68.707054 -0.99775243
68.458565 69.51722 -0.97854519
69.496384 70.80146 -0.96860737
71.286819 73.017021 -0.96638381
74.74527 77.296661 -0.95275187
75.734314 78.520546 -0.52139622
79.937561 83.721817 0
90.001266 96.175079 1.1553259
68.514862 69.600716 -0.9923858
69.491348 70.81205 -0.96916974
71.29203 73.045807 -0.96852326
74.725952 77.305611 -0.95246387
75.729813 78.550896 -0.52197677
79.936592 83.769432 0
90.001511 96.25502 1.1570675
68.517776 69.611267 -0.99377143
69.499977 70.831192 -0.97142124
71.273682 73.03421 -0.96681136
74.727638 77.324165 -0.95332789
75.734055 78.574173 -0.52255732
79.95076 83.811493 0
90.004822 96.299049 1.1580831
67.78653 68.714676 -0.99693823
68.441879 69.530663 -0.97854519
69.475815 70.818031 -0.96860737
71.269188 73.050995 -0.96766651
74.708298 77.333084 -0.95303988
75.719688 78.592392 -0.52270234
79.939842 83.846985 0
89.995071 96.366928 1.1593897
68.463425 69.571266 -0.98477399
69.467567 70.824638 -0.96860737
71.264671 73.067787 -0.96852326
74.695404 77.350052 -0.95332789
75.718292 78.626816 -0.5234279
79.951645 83.910904 0
89.975433 96.422638 1.1602603
67.74427 68.685204 -0.98879015
68.462944 69.584488 -0.986157
69.452965 70.823296 -0.96748054
71.240891 73.060516 -0.96681136
74.672813 77.354889 -0.95275187
75.70385 78.64502 -0.52357286
79.934074 83.938301 0
89.962189 96.486481 1.1614214
68.446823 69.578117 -0.98408252
69.460564 70.849762 -0.97029656
71.242737 73.08532 -0.96852326
74.659889 77.371819 -0.95303988
75.695862 78.671349 -0.52400845
79.935928 83.990097 0
90.010376 96.627533 1.1653397
67.732933 68.694237 -0.98879015
68.461929 69.610962 -0.98892564
69.461769 70.868271 -0.97198361
71.228561 73.09005 -0.96809572
74.64373 77.384689 -0.95303988
75.678131 78.685471 -0.52400845
79.924721 84.025635 0
89.996811 96.691483 1.1665009
67.757973 68.737465 -0.99693823
68.442673 69.600624 -0.986157
69.444 70.862938 -0.97029656
71.239899 73.126923 -0.97109026
74.646843 77.42186 -0.95477021
75.673294 78.715851 -0.524589
79.923149 84.073395 0
89.96376 96.731018 1.1667914
68.423447 69.590248 -0.98338836
69.451462 70.889427 -0.97311044
71.222496 73.127617 -0.97023511
74.627396 77.430649 -0.95448107
75.652283 78.725876 -0.52444398
79.924721 84.125275 0
80.443878 84.781372 0.74010313
68.422913 69.603477 -0.98477399
69.433685 70.884041 -0.97142124
71.217819 73.144394 -0.97109026
74.595139 77.42318 -0.95303988
75.650581 78.760338 -0.52516955
79.932648 84.185364 0
80.43808 84.825714 0.74097425
68.428558 69.624588 -0.98754263
69.431648 70.898582 -0.97254592
71.206764 73.153107 -0.97109026
74.591713 77.452232 -0.95419306
75.658455 78.807068 -0.52633065
79.917892 84.216858 0
80.419327 84.853714 0.74126422
67.744194 68.767235 -0.99938393
68.424858 69.633873 -0.98823416
69.426453 70.909149 -0.97311044
71.183014 73.145653 -0.96937835
74.553078 77.436539 -0.95217472
75.634125 78.812965 -0.52604014
79.915962 84.26474 0
64 64 0
68.43351 69.658958 -0.99169427
69.414963 70.911682 -0.97254592
71.175133 73.158379 -0.96980757
74.568748 77.490005 -0.95505822
75.63224 78.847458 -0.52676564
79.920349 84.320831 0
80.340042 84.856522 0.73995811
68.413658 69.661751 -0.99031126
69.388878 70.912735 -0.97085893
71.149818 73.171631 -0.96937835
74.536118 77.515511 -0.95505822
75.634674 78.924713 -0.52850735
79.906403 84.404404 0
80.260834 84.859062 0.73865199
67.712006 68.773567 -0.99693823
68.403725 69.663109 -0.98961711
69.402351 70.947311 -0.97479749
71.145035 73.188377 -0.97023511
74.507072 77.511894 -0.95390505
75.619827 78.942871 -0.52865291
79.900902 84.44825 0
80.190964 84.821274 0.73662037
68.424568 69.704117 -0.9958486
69.384613 70.941803 -0.97311044
71.13707 73.201057 -0.97066265
74.493912 77.528664 -0.95419306
75.624054 78.985634 -0.52966845
79.901703 84.500351 0
80.137131 84.803864 0.73531425
68.399246 69.685646 -0.99169427
69.373108 70.944275 -0.97254592
71.12281 73.20562 -0.97023511
74.455391 77.512695 -0.95217472
75.650467 79.05722 -0.53170067
79.896027 84.544243 0
80.10244 84.811012 0.73487866
68.389305 69.686989 -0.9910028
69.374023 70.96283 -0.97423512
71.11795 73.222343 -0.97109026
74.470673 77.566277 -0.95505822
78.623215 82.946503 -0.66841453
79.890274 84.588165 0
80.067749 84.818108 0.73444313
68.413033 69.732033 -0.99792308
69.365608 70.969322 -0.97423512
71.10994 73.235016 -0.97151941
74.454269 77.578918 -0.95505822
78.584465 82.943573 -0.66768897
79.890793 84.640343 0
80.023567 84.812805 0.73357254
68.372498 69.693604 -0.99031126
69.350998 70.967751 -0.97311044
71.11441 73.263954 -0.97365886
74.434708 77.58744 -0.95477021
78.552063 82.948807 -0.66725343
79.897537 84.700806 0
79.992073 84.823906 0.73328197
67.686325 68.812134 -0.99938393
68.359505 69.690903 -0.98892564
69.342575 70.974205 -0.97311044
71.096962 73.264381 -0.9728021
74.408844 77.587715 -0.95390505
78.535484 82.97464 -0.66754401
79.894669 84.748924 0
79.951103 84.822586 0.7325564
68.376999 69.728065 -0.99446291
69.331055 70.976608 -0.97254592
71.070183 73.252563 -0.97066265
74.411255 77.624939 -0.95563424
78.512543 82.992188 -0.66754401
79.882233 84.78466 0
79.910156 84.821205 0.73183089
67.665688 68.809227 -0.99693823
68.360947 69.721375 -0.9923858
69.331863 70.995171 -0.97423512
71.058998 73.261093 -0.97066265
74.379105 77.616936 -0.95419306
78.492737 83.01384 -0.66768897
79.853943 84.799683 0
79.875534 84.828011 0.7313953
67.668854 68.825462 -0.99938393
68.360107 69.734634 -0.99377143
69.329567 71.009712 -0.975362
71.038475 73.257355 -0.96937835
74.365776 77.633583 -0.95448107
78.472893 83.035469 -0.66783398
79.825645 84.814682 0
79.825188 84.814079 0.73023421
68.365303 69.75589 -0.99654007
69.308807 70.999947 -0.97311044
71.052101 73.298576 -0.9728021
74.352425 77.65023 -0.95477021
78.46244 83.069504 -0.66841453
79.791061 84.821365 0
79.778053 84.804214 0.72921866
68.312935 69.701134 -0.986157
69.309532 71.018501 -0.97479749
71.047066 73.315292 -0.97365886
74.348396 77.679214 -0.95592225
78.451935 83.103546 -0.66899508
79.765892 84.840424 0
79.749763 84.819107 0.72907311
67.636444 68.818985 -0.99530673
69.328606 71.061432 -0.97986507
71.038895 73.327888 -0.9740864
74.341217 77.704102 -0.95678741
78.45388 83.154182 -0.67015624
79.750092 84.871918 0
79.718338 84.829834 0.72878307
68.332344 69.755638 -0.99377143
69.295624 71.035385 -0.975362
71.021446 73.328194 -0.97323132
74.321541 77.712463 -0.9564994
78.436981 83.179947 -0.67044675
79.749901 84.924194 0
79.690041 84.844666 0.72863811
68.340927 69.7743 -0.99654007
69.27916 71.022339 -0.97311044
71.015808 73.332436 -0.97323132
74.34433 77.760033 -0.95938176
78.450378 83.221893 -0.67160791
79.746643 84.946198 0
79.689934 84.870758 0.72921866
68.333946 69.779541 -0.99654007
69.288956 71.053101 -0.97648668
71.004532 73.340904 -0.97323132
74.318398 77.760117 -0.95851773
78.445839 83.264282 -0.67247844
79.752548 85.006844 0
79.67717 84.906326 0.72979921
69.286522 71.067627 -0.97761351
70.99015 73.345238 -0.9728021
74.286263 77.751854 -0.95707542
78.453674 83.323326 -0.67392957
79.758331 85.067551 0
79.686134 84.971024 0.7313953
68.310959 69.777931 -0.99446291
69.28405 71.082153 -0.97873825
70.994202 73.374252 -0.97494155
74.257263 77.747688 -0.95592225
78.439636 83.353279 -0.6743651
79.742195 85.099075 0
79.685646 85.023285 0.7325564
68.312965 69.795212 -0.99654007
69.278519 71.092606 -0.97930056
70.979813 73.378578 -0.97451395
74.243744 77.764236 -0.95621139
78.413147 83.366547 -0.67422014
79.750877 85.164017 0
79.678841 85.06723 0.73342699
69.251778 71.074501 -0.97592431
70.962357 73.378769 -0.97365886
74.211685 77.755836 -0.95477021
78.408318 83.408974 -0.67509067
79.75631 85.224823 0
79.675064 85.115372 0.73444313
68.295967 69.80159 -0.9958486
69.258347 71.101257 -0.97873825
70.947968 73.383049 -0.97323132
74.225838 77.809731 -0.95765257
78.403412 83.451439 -0.67596179
79.774025 85.302414 0
79.664993 85.155174 0.73516864
69.2407 71.095337 -0.97704905
70.94577 73.403816 -0.97451395
74.199921 77.809586 -0.95678741
78.401505 83.498077 -0.67697734
79.81321 85.409378 0
79.654854 85.194984 0.7358942
68.261093 69.783676 -0.9910028
69.238159 71.109856 -0.97817588
70.928314 73.403946 -0.97365886
74.183228 77.821899 -0.95678741
78.411842 83.561493 -0.67857403
79.839813 85.499702 0
79.62616 85.209702 0.73574924
69.235573 71.124359 -0.97930056
70.910858 73.404022 -0.9728021
74.157326 77.821686 -0.95592225
78.37896 83.56633 -0.67813849
79.8508 85.569138 0
79.600517 85.228569 0.73574924
68.279739 69.83847 -0.99861723
69.211945 71.110191 -0.97648668
70.920746 73.44136 -0.97579831
74.171204 77.875679 -0.95880574
78.367599 83.600449 -0.67871904
79.864723 85.642845 0
79.599434 85.280937 0.73691034
68.263794 69.831482 -0.99654007
69.218338 71.136993 -0.97930056
70.900238 73.437279 -0.97451395
74.148323 77.879601 -0.95822859
78.340843 83.613602 -0.67857403
79.850845 85.678802 0
91.643097 101.80676 1.3080047
68.247871 69.824471 -0.99446291
69.209717 71.143295 -0.97930056
70.897903 73.458054 -0.97579831
74.137642 77.900223 -0.95880574
78.332443 83.651909 -0.67929959
79.86145 85.748405 0
91.502472 101.70999 1.3035059
68.261497 69.858002 -0.99930871
69.192116 71.137268 -0.97761351
70.87439 73.449776 -0.9740864
74.108665 77.895729 -0.95765257
78.323967 83.690224 -0.68002516
79.853531 85.792816 0
91.603622 101.9449 1.310472
68.233788 69.834717 -0.99446291
69.192436 71.155861 -0.97930056
70.878044 73.478851 -0.97622585
74.07972 77.891182 -0.9564994
78.315422 83.728546 -0.68075073
79.845528 85.837227 0
91.545547 101.9614 1.3098915
69.168892 71.141556 -0.97648668
70.857552 73.47467 -0.97494155
74.099319 77.953636 -0.95995891
78.303764 83.762665 -0.68133128
79.837448 85.881668 0
91.557541 102.07463 1.3126487
69.166214 71.156044 -0.97761351
70.8461 73.482956 -0.97494155
74.07943 77.961639 -0.9596709
78.298126 83.805222 -0.6822024
79.832314 85.930313 0
91.520645 102.12054 1.3130842
68.230209 69.874466 -0.99861723
69.16053 71.166397 -0.97817588
70.831635 73.487053 -0.97451395
74.053482 77.961212 -0.95880574
78.243813 83.780304 -0.68075073
79.830132 85.983215 0
91.456345 102.12848 1.3122137
69.166687 71.19326 -0.98098975
70.835144 73.516151 -0.9766534
74.042633 77.981743 -0.95938176
78.244156 83.831268 -0.68191183
79.833923 86.044601 0
91.38903 102.13207 1.3111975
69.146156 71.182976 -0.97873825
70.823639 73.524399 -0.9766534
74.016701 77.981262 -0.95851773
78.229271 83.861145 -0.68234736
79.819397 86.080643 0
91.339912 102.16092 1.3110526
68.205956 69.885666 -0.99792308
69.16111 71.222267 -0.98324132
70.812126 73.532639 -0.9766534
74.011833 78.010193 -0.9596709
78.229431 83.912148 -0.68350852
79.807846 86.120926 0
91.290764 102.1897 1.3109075
68.198845 69.890739 -0.99792308
69.158272 71.236763 -0.984366
70.803589 73.545059 -0.97708261
73.997894 78.026489 -0.95995891
78.21743 83.946259 -0.68408906
79.81131 86.182388 0
91.250626 102.23111 1.3111975
69.131859 71.218147 -0.98098975
70.792053 73.553268 -0.97708261
73.977943 78.034348 -0.9596709
78.223419 84.005768 -0.68554014
79.805611 86.231171 0
91.23452 102.30635 1.3126487
68.178795 69.892693 -0.99654007
69.134895 71.240929 -0.98324132
70.780502 73.56147 -0.97708261
73.969948 78.059044 -0.96053493
78.217285 84.048386 -0.68641126
79.808838 86.292702 0
91.206253 102.36467 1.3135197
69.120277 71.238838 -0.98211664
70.771904 73.573845 -0.97751015
73.946983 78.062637 -0.95995891
78.190041 84.061295 -0.68626571
79.802933 86.341537 0
91.15387 102.38902 1.3132292
69.111526 71.245018 -0.98211664
70.75145 73.569427 -0.97622585
73.924019 78.066185 -0.95938176
78.189758 84.112396 -0.68742687
79.811928 86.411636 0
91.083496 102.38783 1.3120681
69.117386 71.271965 -0.98493052
70.754654 73.598572 -0.97836524
73.912971 78.086639 -0.95995891
78.15947 84.121033 -0.68713683
79.805801 86.460526 0
91.007195 102.37804 1.310617
69.088158 71.249023 -0.98098975
70.731255 73.589912 -0.9766534
73.904854 78.111298 -0.96082294
78.147087 84.155144 -0.68771738
79.790619 86.496651 0
90.939896 102.38087 1.3096008
69.086693 71.256248 -0.98155212
70.728416 73.598198 -0.97708261
73.902267 78.125755 -0.96140009
78.155777 84.193459 -0.68873298
79.797935 86.536026 0
90.889862 102.35884 1.3082948
69.080841 71.266571 -0.98211664
70.740349 73.639977 -0.98050636
73.891113 78.146179 -0.96197611
78.161156 84.253151 -0.69018465
79.803497 86.602005 0
90.822655 102.3615 1.3072792
69.080772 71.285194 -0.98380363
70.7052 73.614426 -0.97708261
73.871063 78.153885 -0.9616881
78.148567 84.287292 -0.6907652
79.79702 86.650978 0
90.752502 102.35979 1.3061181
69.07196 71.291328 -0.98380363
70.702362 73.635155 -0.97836524
73.859863 78.174301 -0.96226525
78.132935 84.317162 -0.6912002
79.787468 86.695679 0
90.69426 102.37502 1.3055375
69.071838 71.309982 -0.98549283
70.693649 73.647476 -0.97879446
73.833878 78.173447 -0.96140009
78.170586 84.423889 -0.69424796
79.783768 86.748947 0
90.656761 102.42006 1.3059731
69.068787 71.324455 -0.98661751
70.681992 73.655556 -0.97879446
73.828522 78.202339 -0.96255326
78.169556 84.475182 -0.69540912
79.797745 86.827934 0
90.639885 102.49496 1.3074242
69.059929 71.330574 -0.98661751
70.658653 73.646721 -0.97708261
73.802536 78.201424 -0.9616881
78.189087 84.556442 -0.6975863
79.790833 86.876976 0
90.628784 102.57845 1.3091658
69.053955 71.340881 -0.98718202
70.664452 73.68013 -0.9796496
73.791245 78.221786 -0.96226525
78.17897 84.594971 -0.69831187
79.789742 86.934616 0
90.635185 102.68764 1.3117781
69.050835 71.355354 -0.9883067
70.661476 73.700874 -0.9809339
73.776978 78.237869 -0.96255326
76.945053 82.851425 -0.63866276
79.770859 86.96656 0
90.620789 102.76692 1.3133748
69.033325 71.348869 -0.98661751
70.632332 73.683495 -0.97836524
73.762688 78.253937 -0.96284127
76.93988 82.892776 -0.63953334
79.775459 87.032837 0
90.573921 102.79906 1.3133748
69.021576 71.350754 -0.9860552
70.632217 73.708458 -0.98007715
73.754211 78.278542 -0.96370643
76.937561 82.938438 -0.64054942
79.759361 87.069077 0
110.15219 131.55911 2.285033
69.012695 71.356812 -0.9860552
70.608917 73.699493 -0.97836524
73.736954 78.290314 -0.96370643
76.926376 82.971237 -0.64112997
79.769569 87.144012 0
110.03541 131.56329 2.2832913
69.003799 71.362869 -0.9860552
70.623169 73.745697 -0.98221821
73.719681 78.302071 -0.96370643
76.912209 82.999741 -0.64156556
79.75914 87.188873 0
109.92162 131.57159 2.2816951
69.00061 71.377327 -0.98718202
70.605621 73.745186 -0.98136145
73.716904 78.335213 -0.96514761
76.892151 83.019623 -0.64171058
79.757393 87.246674 0
109.80203 131.57112 2.2798085
68.99453 71.387573 -0.98774439
70.582344 73.736145 -0.9796496
73.693779 78.338379 -0.9645716
76.874977 83.043793 -0.64200056
79.76136 87.313133 0
109.69414 131.58765 2.2785017
68.999802 71.414665 -0.99055827
70.579185 73.756866 -0.9809339
73.676453 78.350082 -0.9645716
76.863579 83.076569 -0.64258111
79.75354 87.36235 0
109.56305 131.56958 2.2760346
68.988007 71.416489 -0.9899959
70.564529 73.760559 -0.98050636
73.664871 78.370338 -0.96514761
76.811523 83.048981 -0.64112997
79.745636 87.411606 0
109.46108 131.59439 2.2750189
68.96772 71.405624 -0.98774439
70.552734 73.768478 -0.98050636
73.656151 78.394897 -0.96601278
76.719017 82.960869 -0.63764668
79.723145 87.43927 0
109.41121 131.69675 2.2766151
68.958771 71.411621 -0.98774439
70.53521 73.767845 -0.9796496
73.624367 78.385063 -0.9645716
76.594963 82.825058 -0.63256717
79.73822 87.523132 0
109.38718 131.83795 2.2795179
68.946991 71.413391 -0.98718202
70.537643 73.797089 -0.98178899
73.615585 78.409576 -0.96543562
76.485672 82.710587 -0.62821329
79.750229 87.602737 0
109.35421 131.96622 2.281985
68.94873 71.454948 -0.99112058
70.5168 73.817146 -0.98221821
73.592178 78.450012 -0.9665888
76.40593 82.688751 -0.62647158
79.716171 87.675423 0
109.35365 132.32242 2.2902579
68.939713 71.460922 -0.99112058
70.50209 73.820724 -0.98178899
73.583282 78.474533 -0.96745396
76.429245 82.773056 -0.62879384
79.719162 87.742142 0
109.33704 132.47684 2.2935958
68.933502 71.471138 -0.99168509
70.49588 73.837143 -0.98264575
73.57148 78.494728 -0.96802998
76.498177 82.926819 -0.63343775
79.710541 87.791519 0
109.35163 132.679 2.2985301
68.927269 71.481331 -0.99224746
70.47834 73.836403 -0.98178899
73.548279 78.49765 -0.96745396
76.615356 83.154572 -0.64054942
79.704689 87.845261 0
109.36008 132.87263 2.3031747
68.925537 71.488548 -0.99280977
70.469574 73.836029 -0.98136145
73.539513 78.503418 -0.96745396
76.643761 83.222969 -0.64258111
79.724594 87.906914 0
109.38986 133.00858 2.306803
68.927635 71.51149 -0.99506134
70.468948 73.861015 -0.98307329
73.52198 78.514938 -0.96745396
76.626228 83.246933 -0.64287168
79.718536 87.960716 0
109.42331 133.2415 2.312753
68.912987 71.508926 -0.99393451
70.459839 73.873116 -0.9835009
73.50444 78.526428 -0.96745396
76.594429 83.249123 -0.64243609
79.715218 88.018883 0
109.46764 133.49202 2.3192842
68.892807 71.497849 -0.99168509
70.431076 73.855125 -0.9809339
73.495361 78.550903 -0.96831912
76.554123 83.23822 -0.64156556
79.703255 88.064018 0
109.45181 133.65137 2.3227675
68.892052 71.516525 -0.99337214
70.427567 73.875801 -0.98221821
73.469307 78.549355 -0.96745396
76.519531 83.235954 -0.64098501
79.708237 88.135323 0
109.46399 133.85431 2.327702
68.866371 71.496864 -0.9899959
70.415627 73.88356 -0.98221821
73.451721 78.560791 -0.96745396
76.467979 83.207466 -0.63953334
79.701736 88.189217 0
109.47009 134.04868 2.332346
68.871117 71.524063 -0.99280977
70.423203 73.921463 -0.98521274
73.450981 78.598244 -0.96918315
76.391106 83.139648 -0.63677609
79.695114 88.243103 0
109.44189 134.19081 2.3352487
68.862022 71.529938 -0.99280977
70.397293 73.907654 -0.98307329
73.43615 78.614014 -0.96947229
76.311592 83.067284 -0.63387328
79.685577 88.292664 0
80.40728 89.410385 0.84474355
68.858414 71.54435 -0.99393451
70.393654 73.928329 -0.98435766
73.41008 78.61235 -0.96860713
76.223831 82.981667 -0.63053548
79.675941 88.342239 0
80.401886 89.469513 0.84604967
68.857536 71.563042 -0.99562371
70.381653 73.93605 -0.98435766
73.41478 78.658531 -0.97091347
76.167191 82.943954 -0.62879384
79.68589 88.42247 0
80.365486 89.480576 0.84575963
68.85936 71.586021 -0.99787521
70.366867 73.939415 -0.98392844
73.397057 78.669899 -0.97091347
76.124664 82.928001 -0.6277777
79.676025 88.472084 0
80.334686 89.500336 0.84575963
68.836517 71.57048 -0.99506134
70.346565 73.934135 -0.98264575
73.376541 78.676888 -0.97062546
76.132568 82.990814 -0.62937438
79.663254 88.517319 0
80.301056 89.515656 0.84561408
68.830093 71.580605 -0.99562371
70.334564 73.941795 -0.98264575
73.36158 78.692566 -0.97091347
76.17942 83.115028 -0.63300276
79.633614 88.536224 0
80.278595 89.548492 0.84604967
68.815483 71.577866 -0.99449897
70.325294 73.953773 -0.98307329
73.357689 78.725693 -0.97235465
76.231567 83.248146 -0.63692111
76.611488 83.846008 0
80.389854 89.791824 0.85345131
68.80632 71.583679 -0.99449897
70.318756 73.97007 -0.98392844
73.33989 78.736984 -0.97235465
76.261154 83.346321 -0.6396789
76.517845 83.751328 0
80.603485 90.197876 0.86622304
68.797157 71.589478 -0.99449897
70.309456 73.982056 -0.98435766
73.330368 78.761383 -0.97321981
76.273865 83.418221 -0.64156556
76.427223 83.660843 0
80.619019 90.292595 0.86869031
68.782555 71.586662 -0.99337214
70.300125 73.994003 -0.9847852
73.307007 78.763885 -0.97264266
76.275337 83.472603 -0.64287168
76.384026 83.64502 0
109.69066 136.47998 2.3928661
68.795021 71.626854 -0.99787521
70.28257 73.992912 -0.98392844
73.297424 78.788261 -0.97350782
76.257324 83.496208 -0.64316165
76.346428 83.637939 0
109.62794 136.57474 2.3941722
68.780411 71.624039 -0.99675053
70.275955 74.009201 -0.9847852
73.282295 78.803864 -0.97379583
76.219955 83.488998 -0.64243609
76.306107 83.626396 0
80.0681 89.626213 0.84474355
68.781975 71.647041 -0.9990021
70.280182 74.042892 -0.98735219
73.286339 78.850159 -0.97610217
76.193649 83.499344 -0.64229113
76.268585 83.619186 0
76.314743 83.693001 0.64867002
68.759277 71.631241 -0.99618602
70.265327 74.04612 -0.98692459
73.260178 78.84819 -0.97523701
76.170074 83.514069 -0.64229113
76.247627 83.638412 0
76.299194 83.7211 0.64910555
68.750053 71.636993 -0.99618602
70.26403 74.071121 -0.98863649
73.250427 78.872559 -0.97610217
76.138252 83.515511 -0.64185554
76.218384 83.644348 0
76.280853 83.744781 0.64939612
68.743507 71.647057 -0.99675053
70.23291 74.048134 -0.98564029
73.221542 78.866135 -0.974949
76.111923 83.525757 -0.64171058
76.191895 83.654678 0
76.243279 83.737511 0.64867002
68.736938 71.657097 -0.9973129
70.220764 74.055664 -0.98564029
73.214455 78.894867 -0.97610217
76.077385 83.522697 -0.64112997
76.15992 83.656113 0
76.197548 83.716934 0.64750886
68.727676 71.662819 -0.9973129
70.208611 74.063171 -0.98564029
73.196457 78.905991 -0.97610217
76.037415 83.510727 -0.64025891
76.122498 83.648651 0
76.154625 83.700714 0.64649332
68.721077 71.672844 -0.99787521
70.196442 74.070663 -0.98564029
73.178436 78.917091 -0.97610217
75.967529 83.45002 -0.63779163
76.085114 83.641121 0
76.114464 83.68882 0.64562219
68.714455 71.682877 -0.99843758
70.181587 74.073769 -0.98521274
73.192871 78.981079 -0.97956169
75.889671 83.375893 -0.63488942
76.058655 83.651276 0
76.07708 83.681297 0.64489663
68.699196 71.668388 -0.99618602
70.194283 74.108154 -0.98820895
73.181122 78.982224 -0.97927368
75.839943 83.32103 -0.6328572
76.046783 83.658554 0
64 64 0
68.700523 71.691406 -0.99843758
70.171356 74.098106 -0.98649704
73.16301 78.993301 -0.97927368
75.808464 83.322029 -0.63242221
76.020309 83.668663 0
76.041389 83.703156 0.64489663
68.693878 71.701431 -0.9990021
70.172508 74.127472 -0.98863649
73.134117 78.986694 -0.97812051
75.766174 83.305222 -0.63140607
75.996529 83.683174 0
75.995934 83.68219 0.64373553
70.160263 74.134918 -0.98863649
73.129433 79.019821 -0.97956169
75.740143 83.314987 -0.63126105
75.967323 83.688751 0
64 64 0
68.677887 71.717094 -0.99956441
70.14003 74.129181 -0.98735219
73.100555 79.013145 -0.97840852
75.71949 83.333595 -0.63140607
75.932739 83.685394 0
75.924088 83.671127 0.64242941
70.130447 74.140999 -0.98778135
73.093109 79.04184 -0.97956169
75.706871 83.365532 -0.63198662
75.903564 83.690895 0
75.892242 83.67218 0.64199388
70.131439 74.17038 -0.98992079
73.093628 79.083832 -0.98158002
75.691513 83.393021 -0.63242221
75.885132 83.714172 0
75.863106 83.677643 0.64170384
68.636795 71.712227 -0.99675053
70.097984 74.142578 -0.98649704
73.075394 79.09481 -0.98158002
75.676102 83.420479 -0.6328572
75.850571 83.71067 0
75.839317 83.691956 0.64170384
70.098923 74.171951 -0.98863649
73.059807 79.110199 -0.98186803
75.663315 83.452408 -0.63343775
75.821396 83.716057 0
75.810181 83.697342 0.64141387
70.08136 74.170509 -0.98778135
73.036224 79.112244 -0.98129088
75.655807 83.493256 -0.63430887
75.781532 83.703514 0
75.783691 83.707123 0.64126831
70.066437 74.173431 -0.98735219
73.020615 79.127609 -0.98158002
75.656204 83.547493 -0.63561499
75.760391 83.722221 0
75.754555 83.712433 0.64097828
68.61245 71.756386 -0.99956441
70.059387 74.18959 -0.98820895
73.002335 79.138496 -0.98158002
75.661781 83.61068 -0.63721108
75.733887 83.731926 0
75.733383 83.731079 0.64112329
70.065399 74.227798 -0.99120349
72.989304 79.158249 -0.98215604
75.664597 83.669464 -0.63866276
75.707382 83.741623 0
75.704239 83.736313 0.64083332
70.047813 74.226288 -0.99034834
72.970985 79.169106 -0.98215604
75.651398 83.701439 -0.6392433
75.678223 83.746796 0
75.688309 83.763847 0.64126831
70.045883 74.251282 -0.99206024
72.95002 79.175476 -0.98186803
75.646057 83.746826 -0.64025891
75.649063 83.751923 0
75.656509 83.764542 0.64083332
70.015274 74.2276 -0.98906404
72.939537 79.199646 -0.98273206
75.645905 83.801208 -0.64156556
75.633102 83.779449 0
75.635246 83.783089 0.64097828
70.013298 74.252571 -0.99077588
72.910706 79.192604 -0.98158002
75.677185 83.909401 -0.64461333
75.627625 83.824905 0
75.61396 83.801613 0.64112329
69.974991 74.215523 -0.98649704
72.908005 79.230148 -0.98330921
75.726578 84.049088 -0.64867669
75.598412 83.829956 0
75.576912 83.793205 0.64039773
69.980751 74.253784 -0.98949325
72.886993 79.236435 -0.9830212
75.854202 84.323601 -0.65709448
75.57444 83.843964 0
75.555603 83.811661 0.64054275
69.973518 74.269867 -0.99034834
72.873779 79.256096 -0.98359722
75.897568 84.454697 -0.66086787
75.574005 83.898422 0
75.534264 83.830101 0.64068776
69.961105 74.277077 -0.99034834
72.873505 79.298134 -0.98561555
75.901527 84.518509 -0.6624645
75.560402 83.930405 0
75.505089 83.835037 0.64039773
69.953819 74.293152 -0.99120349
72.842072 79.286461 -0.98417437
75.905342 84.582352 -0.66406065
75.544128 83.957878 0
75.48111 83.848923 0.64039773
69.956772 74.327034 -0.99377209
72.83651 79.319534 -0.98561555
75.911621 84.650742 -0.6658023
79.545654 90.950928 0
75.462311 83.87178 0.64068776
69.934052 74.316422 -0.99206024
72.828308 79.348137 -0.98676872
75.9048 84.696655 -0.66681844
79.53125 91.001282 0
75.446068 83.899132 0.64112329
69.916466 74.314667 -0.99120349
72.809761 79.358788 -0.98676872
75.900475 84.747086 -0.66797954
79.519318 91.056129 0
75.434937 83.935486 0.64184886
69.891251 74.29953 -0.98906404
72.793762 79.373909 -0.98705673
75.890869 84.788513 -0.66885012
79.502129 91.101982 0
75.441803 84.003418 0.64359051
69.907944 74.343208 -0.99291533
72.797295 79.401672 -0.98849791
75.896355 84.827286 -0.6698662
79.532211 91.192688 0
75.45034 84.046432 0.64475167
69.885277 74.332497 -0.99120349
72.76844 79.394318 -0.98734474
75.884041 84.86422 -0.67059177
79.52253 91.252136 0
75.451828 84.1054 0.64620274
69.882935 74.357452 -0.99291533
72.749832 79.4049 -0.98734474
75.866524 84.89212 -0.67102736
79.533287 91.347809 0
75.435226 84.132782 0.64663833
69.862831 74.351166 -0.99163264
72.741409 79.433464 -0.98849791
75.851517 84.92453 -0.67160791
79.520752 91.402786 0
81.160492 94.297836 0.97245955
69.847786 74.35376 -0.99120349
72.740562 79.475548 -0.99051625
75.846657 84.975021 -0.67276847
79.518349 91.475906 0
81.029305 94.151123 0.96708953
69.842834 74.374245 -0.99248779
72.726929 79.495102 -0.99109226
75.834068 85.011978 -0.67349458
79.505569 91.530914 0
80.94696 94.090179 0.9644773
69.827782 74.40625 -0.99419963
72.689461 79.516151 -0.99109226
75.806107 85.081314 -0.67480069
79.487312 91.654579 0
80.886894 94.153717 0.96520287
69.817703 74.417763 -0.99462718
72.678276 79.540192 -0.99195743
75.805954 85.14093 -0.67625177
79.497025 91.750526 0
80.776962 94.042519 0.96099395
69.802612 74.420303 -0.99419963
72.664528 79.559715 -0.99253458
77.264473 87.820259 -0.76144433
79.481209 91.801071 0
80.654694 93.908401 0.95605952
69.782539 74.413834 -0.99291533
72.643204 79.565636 -0.99224544
75.95665 85.53286 -0.6878624
79.485512 91.888016 0
111.1209 148.8605 2.7108502
69.789848 74.456749 -0.99633908
72.636917 79.598694 -0.99368662
75.945724 85.574562 -0.68873298
79.482048 91.961334 0
111.10895 149.08105 2.7160752
69.757355 74.42778 -0.99291533
72.60556 79.586479 -0.99224544
75.922165 85.593536 -0.68887854
79.475929 92.030144 0
111.08397 149.27893 2.7205741
69.742279 74.430237 -0.99248779
72.62664 79.669373 -0.99685812
75.908592 85.630692 -0.68960404
79.472168 92.103539 0
111.07613 149.50876 2.726089
69.737083 74.450676 -0.99377209
72.590271 79.648033 -0.99483979
75.897453 85.672386 -0.69047463
79.463242 92.167831 0
111.0403 149.68857 2.7300074
69.719521 74.448578 -0.99291533
72.576332 79.667488 -0.99541694
75.888725 85.718658 -0.69149077
79.464188 92.250427 0
111.02655 149.90945 2.7352324
69.716728 74.473511 -0.99462718
72.569786 79.700539 -0.99685812
75.9048 85.810555 -0.69395798
79.457466 92.319336 0
111.01733 150.13954 2.7407475
69.704071 74.480408 -0.99462718
72.560699 79.729057 -0.99801129
75.910728 85.884262 -0.69584465
79.443146 92.374565 0
110.98773 150.33322 2.7451015
69.686508 74.478279 -0.99377209
72.534279 79.725746 -0.99714613
75.901634 85.930611 -0.69686079
79.446091 92.46183 0
111.0098 150.62286 2.7525032
69.681175 74.498695 -0.99505639
72.507896 79.722412 -0.9962821
77.089455 88.189026 -0.76812047
79.438934 92.530815 0
110.97186 150.80301 2.7564213
69.668488 74.505554 -0.99505639
72.498718 79.750885 -0.99743527
77.023201 88.136223 -0.76594323
79.436577 92.608994 0
110.94098 150.99689 2.7607753
69.648491 74.498825 -0.99377209
76.986649 88.138222 -0.76550823
79.431587 92.682632 0
110.91954 151.20917 2.7657104
69.635803 74.505638 -0.99377209
72.480179 79.807831 -0.99974048
76.991859 88.218002 -0.76753992
79.43383 92.770058 0
85.663521 104.38277 1.2798491
69.625519 74.516968 -0.99419963
76.972389 88.252014 -0.76812047
79.423599 92.834572 0
110.87778 151.63846 2.7757242
69.615219 74.528282 -0.99462718
76.967529 88.313515 -0.7695716
79.425491 92.922081 0
85.526741 104.36163 1.2775269
69.612137 74.553192 -0.99633908
76.964989 88.379639 -0.77116829
79.407639 92.972855 0
85.431595 104.30045 1.2747697
69.606606 74.573578 -0.99762338
76.945259 88.413658 -0.77174884
79.404312 93.051224 0
85.380447 104.32172 1.2746241
69.572227 74.539497 -0.99377209
76.959465 88.511971 -0.77436107
79.398392 93.125038 0
85.360855 104.40265 1.2763658
69.583427 74.591629 -0.99805093
76.966194 88.596573 -0.77653831
79.399597 93.212692 0
85.292633 104.39165 1.2752047
69.565849 74.589287 -0.99719584
76.958221 88.653618 -0.77784443
79.388504 93.277344 0
85.219643 104.37135 1.2737535
69.542747 74.560822 -0.99419963
76.948151 88.670639 -0.77813441
79.404671 93.351151 0
85.219391 104.43018 1.2752047
69.537125 74.581161 -0.99548393
76.947243 88.741516 -0.77987605
79.398155 93.425079 0
110.99965 153.8139 2.8310194
69.533836 74.606056 -0.99719584
76.934174 88.789398 -0.78089219
79.39389 93.503654 0
110.91513 153.9167 2.8324707
69.511543 74.594513 -0.99548393
76.923393 88.841896 -0.78205329
79.38945 93.582253 0
110.84962 154.05632 2.8350835
69.508194 74.6194 -0.99719584
76.91011 88.889771 -0.7830689
79.37767 93.647041 0
110.74556 154.12209 2.8353734
69.492996 74.62149 -0.9967683
76.903908 88.951523 -0.78452057
79.382477 93.744194 0
84.898369 104.40994 1.2705607
69.484863 74.637238 -0.99762338
76.902321 89.022507 -0.78626168
79.372757 93.813629 0
84.825699 104.38896 1.269109
69.47905 74.657562 -0.99890769
76.876831 89.047333 -0.78655219
79.36528 93.887733 0
84.76976 104.40024 1.268674
69.449776 74.632187 -0.99591154
76.851295 89.072113 -0.78684223
79.367142 93.980392 0
84.720932 104.42531 1.268674
69.448601 74.661613 -0.99805093
76.837547 89.120026 -0.78785831
79.364067 94.063812 0
84.653152 104.4133 1.2675129
69.431061 74.65905 -0.99719584
76.830772 89.181808 -0.78930944
79.351364 94.128746 0
84.618454 104.466 1.2683835
69.408875 74.647293 -0.99548393
76.819168 89.23436 -0.79047054
79.345589 94.207596 0
84.560127 104.47235 1.267803
69.419197 74.699615 -0.99976283
76.805107 89.282288 -0.79148668
79.337303 94.28183 0
84.513565 104.50181 1.2679485
69.392387 74.678665 -0.99719584
76.776886 89.302383 -0.7916317
79.3312 94.360741 0
109.54257 154.18906 2.8217311
69.38871 74.703522 -0.99890769
76.779022 89.382774 -0.79366338
79.322578 94.435013 0
109.42654 154.23009 2.8212955
69.373466 74.705421 -0.99847847
76.799629 89.500389 -0.7968567
79.316154 94.513992 0
84.315323 104.47371 1.2647551
69.360527 74.711906 -0.99847847
76.792061 89.562302 -0.79830784
79.297897 94.569702 0
84.254776 104.47499 1.2640296
76.784363 89.624237 -0.79975891
79.307426 94.681313 0
84.184975 104.4576 1.2627234
76.771912 89.676888 -0.80092007
79.302788 94.765022 0
84.099045 104.4075 1.2604012
76.745499 89.701622 -0.80121058
79.29567 94.844124 0
83.97171 104.27347 1.2554668
69.310974 74.742302 -0.99890769
76.762794 89.814827 -0.80425841
79.28376 94.913895 0
83.911514 104.27428 1.2547412
69.295715 74.744095 -0.99847847
76.761459 89.890823 -0.80614507
79.290123 95.021049 0
83.874329 104.32162 1.2554668
69.287262 74.759712 -0.99933523
76.757675 89.962196 -0.80788672
79.287056 95.109558 0
83.837051 104.36891 1.2561923
69.276512 74.770699 -0.99976283
76.751434 90.028915 -0.80948287
79.265488 95.160728 0
83.788254 104.39285 1.2561923
76.715416 90.034973 -0.80919284
79.273506 95.27269 0
109.31593 156.78491 2.8838475
76.720352 90.125076 -0.81151509
79.258492 95.337914 0
109.24928 156.93306 2.8867502
76.720543 90.205872 -0.81354678
79.259247 95.435928 0
83.360321 103.88463 1.2381961
76.736435 90.279022 -0.81557846
79.267494 95.501343 0
83.340759 103.90569 1.2384866
76.695625 90.275673 -0.81499791
79.263382 95.590057 0
83.287994 103.91965 1.2381961
76.684166 90.33313 -0.81630403
79.252304 95.664749 0
83.228477 103.91953 1.2374706
76.697327 90.442131 -0.81920677
79.254585 95.767601 0
83.150986 103.88184 1.2355839
76.685562 90.499634 -0.82051289
79.23642 95.828278 0
83.071365 103.83932 1.2335522
76.682632 90.575912 -0.82239956
79.206924 95.865456 0
83.003067 103.82011 1.2322456
76.668365 90.628761 -0.82356071
79.157219 95.860291 0
82.939316 103.81021 1.23123
76.660683 90.695702 -0.82515734
79.118713 95.878586 0
82.868927 103.7861 1.2297783
76.646187 90.748566 -0.8263185
79.069061 95.873306 0
109.23238 159.6732 2.9555428
76.644867 90.829636 -0.82835019
79.043854 95.919746 0
109.17655 159.85471 2.959461
76.632332 90.887222 -0.8296563
79.027405 95.985001 0
109.14909 160.09735 2.9652667
76.619667 90.944817 -0.83096236
79.028481 96.087975 0
109.13434 160.36832 2.9719429
76.620079 91.030685 -0.8331396
79.018318 96.167419 0
109.11897 160.63937 2.9786184
76.611588 91.183662 -0.83691299
79.010635 96.354706 0
109.10182 161.21483 2.9929867
76.607086 91.260201 -0.83879966
78.993378 96.420059 0
109.09121 161.50037 3.000098
76.595886 91.322601 -0.84025073
78.960732 96.452332 0
109.06257 161.74826 3.0060484
76.601929 91.422806 -0.84286356
82.372711 103.98047 0
109.04641 162.02457 3.0128696
76.62722 91.565567 -0.84678191
82.330887 104.01683 0
109.02749 162.29626 3.0195458
76.678078 91.76516 -0.85244191
82.165771 103.78328 0
109.02092 162.59641 3.0270925
76.719879 91.946014 -0.85752195
81.988327 103.52098 0
109.0094 162.88722 3.0343492
76.724747 92.046539 -0.86013418
81.947014 103.55691 0
108.94141 163.05511 3.0378325
76.718681 92.123444 -0.86202085
81.989281 103.77774 0
106.95657 158.98523 2.9114225
76.688957 92.148262 -0.86231083
82.031036 103.99873 0
106.76062 158.85703 2.9059076
76.652809 92.158836 -0.86216587
82.006157 104.07271 0
109.71303 165.73438 3.1148977
76.633675 92.161743 -0.86202085
81.998985 104.12157 0
109.6154 165.68137 3.1124306
76.584785 92.143768 -0.86100471
81.939873 104.11954 0
109.42038 165.5751 3.107496
76.56134 92.182686 -0.86173028
81.863838 104.07938 0
109.29761 165.62991 3.107496
76.520958 92.183609 -0.86129528
81.800598 104.06764 0
109.17478 165.68459 3.107496
76.520554 92.274727 -0.86361694
81.722672 104.02249 0
109.0666 165.77234 3.1085117
76.515762 92.356407 -0.86564916
81.665894 104.02483 0
108.9436 165.82672 3.1085117
76.504501 92.42382 -0.86724532
81.600754 104.00804 0
108.91888 166.10452 3.1153328
76.49102 92.486511 -0.86869699
81.569122 104.06741 0
108.78712 166.13968 3.1147523
76.489891 92.577774 -0.87101918
79.438431 99.324242 0
108.50551 165.83182 3.1037221
76.461571 92.607124 -0.87145424
79.414444 99.385818 0
108.31603 165.73309 3.0990782
76.474602 92.731812 -0.87479258
79.367531 99.394875 0
108.17445 165.74365 3.0977721
76.530685 92.956696 -0.88117814
79.347488 99.46595 0
108.07417 165.84941 3.0993683
76.80851 93.697121 -0.90323824
79.298431 99.470123 0
107.94902 165.89783 3.0992234
76.832138 93.851028 -0.9074471
79.284348 99.555542 0
107.75609 165.78854 3.0942888
76.84108 93.971596 -0.91063994
79.25367 99.602676 0
107.53484 165.61206 3.0873227
76.831383 94.049217 -0.91252661
76.396133 93.02993 0
103.97743 157.62128 2.8430657
76.827629 94.141212 -0.9148488
76.371246 93.068848 0
103.88463 157.71732 2.8445168
76.811493 94.204521 -0.91629994
64 64 0
103.81802 157.87547 2.8478546
76.787125 94.248711 -0.91717106
76.280693 93.050705 0
103.741 158.00969 2.8504674
76.750572 94.264137 -0.91717106
76.30217 93.199829 0
103.62334 158.04805 2.8501768
76.709961 94.269928 -0.91688049
64 64 0
64 64 0
76.683411 94.309235 -0.91760606
64 64 0
64 64 0
76.642776 94.314957 -0.91731608
64 64 0
64 64 0
76.528358 94.143066 -0.91165602
76.184868 93.316628 0
64 64 0
76.25528 93.586853 -0.8943854
76.103622 93.220718 0
64 64 0
76.104507 93.323036 -0.88596761
76.03653 93.158363 0
64 64 0
76.051277 93.294388 -0.8846615
75.977531 93.115128 0
64 64 0
76.021782 93.323341 -0.88509649
75.968002 93.192177 0
64 64 0
64 64 -0
75.987823 93.290916 0
102.99586 159.28207 2.8752847
64 64 -0
76.013359 93.454788 0
102.86108 159.28101 2.8738334
64 64 -0
75.999313 93.522308 0
102.7381 159.30864 2.8732529
75.926926 93.446175 -0.88727373
75.994896 93.613976 0
102.66777 159.46616 2.8765907
75.901062 93.484657 -0.8879993
79.185173 101.62097 0
102.5874 159.59953 2.8792031
75.847977 93.455627 -0.88669318
79.15329 101.67308 0
102.50482 159.72806 2.8816702
75.810448 93.465103 -0.88654816
79.119385 101.72035 0
102.36594 159.71664 2.8799291
76.328056 94.864388 -0.92820108
79.152946 101.93675 0
102.22712 159.70502 2.8781874
76.350327 95.028931 -0.93269998
79.486275 102.90768 0
101.99037 159.44696 2.8690441
76.395203 95.251541 -0.93894058
79.404709 102.83929 0
101.85203 159.43481 2.8673024
79.330986 102.7901 0
101.73478 159.47565 2.8671575
79.278389 102.79408 0
101.75459 159.86447 2.8774619
79.244804 102.84641 0
64 64 0
79.195961 102.85996 0
80.999931 107.47318 1.3036509
79.139549 102.85405 0
80.973801 107.56146 1.3056825
64 64 0
80.926796 107.59648 1.3061181
79.028709 102.84684 0
80.842232 107.53451 1.3036509
78.97052 102.83582 0
80.776527 107.52087 1.3026347
78.912392 102.82474 0
80.699707 107.47806 1.3007481
78.861755 102.83302 0
80.647163 107.4982 1.3007481
78.805542 102.82661 0
80.587181 107.49886 1.3001674
78.753075 102.8299 0
80.538307 107.52859 1.3004581
78.706146 102.84769 0
80.480179 107.53397 1.3000225
78.679398 102.91899 0
80.429398 107.5587 1.3001674
78.663773 103.16394 0
80.344131 107.65182 1.3017641
78.638275 103.24015 0
80.27684 107.63258 1.300603
78.627113 103.35539 0
81.105782 110.02443 1.3712822
78.617821 103.40326 0
81.068939 110.01039 1.3705567
79.015884 104.62672 0
81.00972 110.02122 1.3702661
78.984772 104.6937 0
80.957695 110.05151 1.3705567
78.946342 104.74107 0
80.916359 110.111 1.3717178
78.886383 104.72978 0
80.939117 110.34615 1.3781034
78.833595 104.73795 0
64 64 0
78.77726 104.73627 0
64 64 0
78.724495 104.74432 0
64 64 0
78.684067 104.78656 0
64 64 0
78.613686 104.74548 0
64 64 0
78.578453 104.80232 0
64 64 0
78.532631 104.82973 0
64 64 0
78.519806 104.95025 0
80.775146 111.31098 1.4019051
78.506721 105.07082 0
80.634895 111.09602 1.3949389
78.496819 105.20126 0
80.583145 111.13078 1.3953739
78.502113 105.37591 0
80.459152 110.95953 1.389714
78.498428 105.52609 0
99.721062 166.31148 3.0265124
78.482437 105.6419 0
79.647446 108.99168 1.3303548
78.483223 105.8069 0
79.59478 109.01548 1.3305004
78.488724 105.98672 0
79.496292 108.90656 1.3267264
78.475204 106.1125 0
79.455536 108.96456 1.3278877
78.454651 106.21858 0
64 64 0
78.462425 106.40843 0
64 64 0
78.464745 106.58359 0
64 64 0
78.45665 106.72922 0
89.472206 139.28766 2.2197237
78.441574 106.85516 0
64 64 0
78.444435 107.03541 0
89.233971 139.1815 2.2147894
78.464722 107.18232 0
64 64 0
78.480064 107.40218 0
64 64 0
78.473564 107.55795 0
64 64 0
78.455261 107.67917 0
64 64 0
78.456238 107.85973 0
64 64 0
78.46167 108.05518 0
64 64 0
78.453712 108.21115 0
64 64 0
78.451843 108.38693 0
96.381813 163.45648 2.9211464
78.47847 108.65192 0
64 64 0
78.477287 108.83282 0
95.865112 162.67892 2.8960385
78.49321 109.0683 0
95.62812 162.35126 2.8852985
78.527641 109.36337 0
95.521942 162.429 2.8864596
78.526588 109.54948 0
95.54351 162.90765 2.8993764
78.509346 109.68604 0
95.2714 162.46527 2.8852985
78.47924 109.78294 0
95.147705 162.48813 2.8848636
78.459877 109.9146 0
95.030235 162.53064 2.8850086
78.404388 109.93204 0
94.951584 162.69699 2.888782
78.365936 110.00404 0
94.798233 162.62518 2.8855891
78.338158 110.11082 0
94.655891 162.58789 2.8834119
78.316299 110.23751 0
94.587471 162.78867 2.8882015
79.221863 113.37329 0
94.477272 162.85536 2.8890724
79.148453 113.34687 0
64 64 0
79.072075 113.31038 0
79.015518 113.33852 0
78.949852 113.33671 0
78.882713 113.32982 0
78.846909 113.31887 0
78.781326 113.31683 0
78.72023 113.32965 0
78.662102 113.3524 0
78.595078 113.34512 0
78.523682 113.32279 0
78.456749 113.31532 0
78.32737 113.31513 0
78.27211 113.3474 0
78.203835 113.3346 0
78.129875 113.3017 0
78.027451 113.16859 0
77.969528 112.96556 1.4220785
77.945282 113.10539 0
77.89048 112.91241 1.4200463
77.897263 113.16228 0
77.828545 112.91916 1.4197563
77.867455 113.28425 0
77.786316 112.99586 1.4214979
77.850006 113.45132 0
77.770546 113.16761 1.4259969
77.865715 113.73875 0
77.782295 113.43951 1.4333986
77.865448 113.97113 0
77.807304 113.76159 1.4422519
77.827217 114.0681 0
77.763763 113.83833 1.4439931
77.81913 114.27548 0
77.750366 114.02531 1.4489281
77.811935 114.48795 0
77.751617 114.26743 1.4554586
82.588501 132.27213 0
77.719536 114.38931 1.4585065
82.503273 132.2845 0
77.65728 114.40084 1.4583614
82.422104 132.31183 0
82.320663 132.26367 0
82.231453 132.26062 0
82.136932 132.23734 0
82.090363 132.22815 0
64 64 0
82.002602 132.22983 0
90.992058 166.29985 2.9548173
81.914856 132.23138 0
90.836754 166.21176 2.9513338
81.824501 132.22276 0
64 64 0
81.7342 132.21404 0
64 64 0
81.658279 132.26059 0
90.099052 164.88962 2.9104064
79.967003 126.03175 0
81.14386 130.60385 1.9207516
79.870087 125.96529 0
81.06337 130.62453 1.9207516
79.808052 126.03485 0
81.008522 130.74582 1.9236543
81.298737 132.22913 0
79.676262 125.82981 1.7814249
81.197189 132.17426 0
79.612991 125.89407 1.7827315
81.100868 132.13947 0
79.541985 125.928 1.7831665
81.028603 132.20047 0
79.455811 125.90136 1.7818605
80.946182 132.22099 0
79.373489 125.88974 1.7809899
78.854706 124.11158 0
79.251328 125.71657 1.7754749
78.794479 124.18002 0
79.16433 125.68447 1.7740232
78.70816 124.14225 0
79.083618 125.67751 1.7732977
78.630554 124.13975 0
79.009079 125.69569 1.7732977
78.550529 124.12701 0
78.944298 125.7542 1.7744588
78.471779 124.11926 0
78.873322 125.78737 1.7748944
78.399124 124.1367 0
78.788971 125.76486 1.7737333
78.320419 124.12875 0
79.372902 128.5479 1.8531202
78.244156 124.13081 0
79.309265 128.62711 1.8548619
78.160751 124.10238 0
79.213295 128.5697 1.8526852
78.085747 124.10932 0
79.11866 128.51718 1.8506529
78.011917 124.12122 0
79.05603 128.6012 1.8525397
77.935738 124.1229 0
78.979134 128.62442 1.8526852
77.890038 124.09074 0
78.908485 128.49673 1.8487663
77.809258 124.07197 0
78.849174 128.59573 1.8510885
77.740143 124.10384 0
78.77459 128.62885 1.8515241
77.665199 124.11023 0
78.699936 128.66183 1.8519591
77.59256 124.1267 0
78.616066 128.65421 1.8512335
77.52903 124.18371 0
78.544777 128.70226 1.8521047
77.442673 124.13905 0
78.45752 128.6792 1.8509434
77.353058 124.07906 0
77.346581 124.0499 1.7180024
77.278206 124.08497 0
77.261673 124.01016 1.7164057
77.189957 124.02981 0
77.180237 123.98555 1.7152452
77.215172 124.49316 0
77.166527 124.27049 1.7229369
64 64 0
77.176414 124.66724 1.733822
64 64 0
77.150261 124.90154 1.7400625
64 64 0
77.118111 125.11045 1.7455776
77.375595 126.6789 0
77.050766 125.15674 1.746448
64 64 0
77.03186 125.43172 1.7538497
64 64 -0
77.489983 128.35707 0
64 64 0
64 64 -0
77.36338 128.13895 0
64 64 0
64 64 -0
64 64 0
64 64 0
64 64 -0
64 64 0
64 64 0
64 64 -0
83.059135 157.16634 2.6558449
64 64 -0
64 64 0
82.919632 157.0569 2.6520715
64 64 -0
64 64 0
78.951775 137.99872 2.1084073
64 64 -0
64 64 0
78.805061 137.73141 2.10028
64 64 0
78.741386 137.87665 2.1039083
77.58197 132.49744 0
78.632904 137.79755 2.1011505
77.54261 132.51585 0
78.55809 137.65344 2.0967968
64 64 -0
77.465828 132.56281 0
78.478096 137.71687 2.0981028
64 64 -0
77.374001 132.53305 0
78.398964 137.78534 2.0995545
64 64 -0
78.420593 138.37408 0
78.311775 137.81287 2.0998445
64 64 -0
78.31398 138.30457 0
78.243225 137.93726 2.1028922
78.229073 138.34735 0
78.160713 137.99016 2.1039083
78.162567 138.48721 0
78.759506 141.62679 2.2068071
78.055161 138.4122 0
78.661835 141.62415 2.2062266
77.957558 138.38821 0
78.569946 141.65201 2.2065165
77.865761 138.39481 0
78.482773 141.70532 2.2075326
64 64 -0
78.303589 141.2621 0
78.389816 141.72787 2.2076776
78.225281 141.36121 0
78.300583 141.77075 2.2084031
78.135536 141.39883 0
78.211273 141.81354 2.2091289
78.041077 141.41074 0
78.101471 141.74371 2.2066615
77.941071 141.3918 0
64 64 0
64 64 0
80.618576 156.89877 2.6356721
77.20417 138.33006 0
64 64 0
77.126999 138.41771 0
80.495132 157.51184 2.6519265
77.045151 138.47966 0
80.359711 157.40372 2.6482983
77.796959 143.33597 0
80.266434 157.53606 2.6514909
77.699318 143.34235 0
80.163124 157.61198 2.6530876
77.599045 143.33319 0
80.040344 157.5751 2.6514909
77.508408 143.38034 0
79.921165 157.55856 2.6504755
77.413353 143.40173 0
79.829742 157.70584 2.6541038
77.30793 143.36142 0
79.662369 157.40201 2.6449604
77.215446 143.39798 0
64 64 0
77.099136 143.29065 0
