# .PCD v0.7 - Point Cloud Data file format
VERSION 0.7
FIELDS x y z
SIZE 4 4 4
TYPE F F F
COUNT 1 1 1
WIDTH 1634
HEIGHT 1
VIEWPOINT 0 0 0 1 0 0 0
POINTS 1634
DATA ascii
78.643524 56.80426 -0.45567438
74.767128 58.709099 0
81.880089 55.213829 0.55638915
69.280128 61.413292 -0.9693594
74.093697 59.055149 -0.93692189
74.735764 58.740604 -0.66624957
78.642868 56.826534 -0.45538381
74.792206 58.712952 0
81.886032 55.237724 0.55624419
69.216621 61.452213 -0.95713413
74.11351 59.060585 -0.93820626
74.76535 58.742229 -0.66769075
78.65152 56.844234 -0.45538381
81.92128 55.247292 0
81.887253 55.263908 0.55595362
69.293686 61.418537 -0.97098774
74.09803 59.075699 -0.93649435
74.75457 58.755539 -0.66682559
78.641823 56.859921 -0.45494825
81.926567 55.258118 0
81.87851 55.281555 0.55551809
69.274582 61.435738 -0.9669137
74.11322 59.083412 -0.93735111
76.7892 57.782467 -0.79251444
78.645767 56.87989 -0.45480326
81.937119 55.279785 0
81.884361 55.305431 0.55537307
69.335495 61.414089 -0.97750747
74.109901 59.100117 -0.93649435
76.745514 57.822739 -0.78934407
78.659035 56.895325 -0.45494825
81.877396 55.33551 0
81.894852 55.327049 0.55537307
69.262955 61.457096 -0.96365386
74.138924 59.10117 -0.9386338
76.748299 57.840401 -0.78905493
78.602112 56.944695 -0.45291659
81.887848 55.357117 0
81.891281 55.355461 0.55493748
69.319466 61.437714 -0.97343343
74.121712 59.124561 -0.93649435
76.769714 57.849072 -0.78992009
80.146263 56.222652 -0.50052011
81.893578 55.381004 0
81.892357 55.381592 0.55464751
69.389404 61.412045 -0.98565871
74.118347 59.141235 -0.93563926
76.763145 57.871223 -0.78905493
80.193108 56.224182 -0.50168067
81.889915 55.409386 0
81.888702 55.409969 0.55421197
69.232018 61.495396 -0.95631993
74.119568 59.155689 -0.93521005
76.784546 57.879948 -0.78992009
80.221245 56.234776 -0.50226122
81.890884 55.435505 0
81.824081 55.467484 0.55189025
69.337631 61.452759 -0.97506177
74.148598 59.15686 -0.93735111
76.787262 57.897625 -0.78963208
80.249374 56.24543 -0.50284177
81.910629 55.452641 0
81.829674 55.491272 0.5517447
69.211281 61.520786 -0.95143169
74.145157 59.173538 -0.93649435
76.827332 57.897522 -0.79165041
80.291588 56.249439 -0.50385791
74.758179 58.881901 0
81.830566 55.517284 0.55145472
69.373657 61.459442 -0.97995317
74.152161 59.200264 -0.93606681
74.779739 58.903557 -0.66451925
74.775978 58.905334 -0.33289224
74.746994 58.919037 0
81.846321 55.562614 0.5513097
69.32753 61.48912 -0.97098774
74.148651 59.216915 -0.93521005
76.891479 57.924213 -0.79424477
74.805649 58.907272 -0.33361834
74.786087 58.916489 0
81.842392 55.590836 0.55087417
69.348457 61.487152 -0.97424763
74.159088 59.226994 -0.93563926
76.851982 57.961796 -0.79136127
79.957283 56.502846 -0.4923923
74.768677 58.94059 0
81.857239 55.610191 0.55101913
69.329109 61.504097 -0.97017354
74.146248 59.247982 -0.93392736
76.835854 57.9883 -0.78992009
79.947502 56.530949 -0.49181172
74.741776 58.969063 0
74.70475 58.986404 0.33012831
69.336594 61.50845 -0.97098774
74.147316 59.262421 -0.9334982
76.85717 57.997246 -0.79078525
79.914139 56.570007 -0.49050561
74.771423 58.971039 0
80.125824 56.471176 0.49703005
69.388908 61.491955 -0.97995317
74.139084 59.281181 -0.93221551
76.878487 58.006233 -0.79165041
79.899551 56.600204 -0.48978007
74.758621 58.992844 0
80.205589 56.457775 0.49920729
69.279831 61.550476 -0.95957983
74.144775 59.293434 -0.93221551
76.866951 58.03051 -0.79049724
79.903778 56.621605 -0.48963505
74.750488 59.012421 0
80.200546 56.483925 0.49877173
69.34111 61.529884 -0.97017354
74.159767 59.301392 -0.9330706
76.91172 58.02869 -0.79280359
79.907967 56.643005 -0.48949006
82.177933 55.593212 0
64 64 0
69.297729 61.553829 -0.96202546
74.139305 59.318287 -0.93093121
74.778526 59.023132 -0.66163689
79.95015 56.635193 -0.49065116
82.216087 55.588921 0
80.152802 56.541618 0.49688506
69.345581 61.53957 -0.97017354
74.130959 59.336987 -0.92964691
74.793922 59.031837 -0.66221297
79.982643 56.643608 -0.49137673
82.254601 55.597885 0
80.161804 56.561142 0.49688506
69.402466 61.521294 -0.97995317
74.159927 59.33852 -0.93178797
74.767014 59.059978 -0.66019571
80.034027 56.643421 -0.49268284
80.306274 56.518509 0
80.189674 56.572006 0.49746561
69.351509 61.552494 -0.97017354
74.142197 59.361481 -0.92964691
76.927437 58.087654 -0.79222643
80.090149 56.64119 -0.49413395
80.395767 56.501419 0
80.193916 56.593735 0.49732062
69.331978 61.569214 -0.9660995
74.147789 59.373741 -0.92964691
76.906342 58.11615 -0.79049724
80.108498 56.656322 -0.49442452
80.433243 56.508278 0
80.231216 56.600376 0.49819118
69.343903 61.571571 -0.9677279
74.162735 59.381752 -0.93050367
76.908714 58.133896 -0.7902081
80.155212 56.658592 -0.49558565
80.428062 56.534599 0
80.230698 56.62429 0.49790117
69.351349 61.575985 -0.9685452
74.172974 59.391918 -0.93093121
76.934647 58.140961 -0.79136127
80.16407 56.678116 -0.49558565
80.422836 56.560902 0
80.206451 56.65892 0.49688506
69.381294 61.570251 -0.97343343
74.178535 59.404213 -0.93093121
76.932297 58.160847 -0.79078525
80.177635 56.695518 -0.49573064
80.42234 56.58503 0
82.422386 55.681973 0.56451643
69.460854 61.542267 -0.98728704
74.184082 59.416515 -0.93093121
76.944054 58.174355 -0.79107326
80.195923 56.710808 -0.49602064
80.407562 56.615559 0
103.98453 46.004425 1.2245767
69.36911 61.591354 -0.97017354
74.19429 59.426727 -0.93135875
76.95108 58.189999 -0.79107326
80.313782 56.681458 -0.49935898
80.416473 56.635387 0
104.03468 46.039993 1.2254473
69.466782 61.555473 -0.98728704
74.204514 59.436943 -0.93178797
76.99115 58.190868 -0.7930916
80.431717 56.652386 -0.50269675
74.761757 59.187767 0
103.99942 46.113838 1.2237056
69.420059 61.584217 -0.97832167
74.210022 59.44928 -0.93178797
74.744507 59.211052 -0.65558302
80.544998 56.625706 -0.50588953
74.758041 59.205017 0
80.269493 56.748501 0.49746561
69.422974 61.590767 -0.97832167
74.201431 59.467873 -0.93050367
74.773911 59.213539 -0.6570242
74.760056 59.219696 -0.32882887
74.730545 59.232807 0
80.254501 56.778713 0.49674007
69.398773 61.609329 -0.97343343
74.216278 59.476051 -0.93135875
74.765495 59.232845 -0.6561591
74.789581 59.222183 -0.32955444
74.750565 59.23946 0
80.220436 56.817303 0.49543339
69.41069 61.611866 -0.97506177
74.212349 59.492538 -0.93050367
77.033279 58.247459 -0.79395676
80.286377 56.81163 -0.49718174
74.770599 59.246143 0
80.233871 56.834801 0.49557894
69.390953 61.628357 -0.97098774
74.245979 59.492481 -0.9330706
77.002342 58.279877 -0.79165041
80.347382 56.808289 -0.49877843
74.762039 59.265453 0
74.72953 59.279751 0.32737109
69.402878 61.630898 -0.97261924
74.24202 59.508987 -0.93221551
77.013977 58.293514 -0.79193842
80.370323 56.821793 -0.49921343
74.767754 59.278458 0
74.744736 59.288551 0.32766107
69.410263 61.635448 -0.97343343
74.242744 59.523418 -0.93178797
77.020859 58.309242 -0.79193842
80.388519 56.837414 -0.49950397
74.759155 59.297722 0
80.30735 56.872887 0.49703005
69.394989 61.649883 -0.97017354
74.252846 59.533749 -0.93221551
77.022995 58.327045 -0.79165041
80.339989 56.882126 -0.49776232
74.717102 59.331516 0
103.98464 46.58226 1.2180456
69.482544 61.615685 -0.98565871
74.255539 59.539944 -0.93221551
77.026413 58.334915 -0.79165041
82.865219 55.795662 -0.57453704
96.536896 49.84996 0
103.95703 46.623001 1.2168845
69.440056 61.641975 -0.97750747
74.256218 59.554379 -0.93178797
74.698196 59.362801 -0.64981717
82.841759 55.832924 -0.57352149
96.659019 49.843746 0
103.96371 46.677486 1.2164495
69.43383 61.652466 -0.97587913
74.270996 59.562706 -0.93264306
74.746521 59.357269 -0.65241158
82.842064 55.859825 -0.57323092
96.585327 49.922436 0
103.95598 46.738159 1.2155783
69.404877 61.672722 -0.97017354
74.262199 59.581215 -0.93135875
74.766388 59.36412 -0.65327668
82.780296 55.913422 -0.57105428
96.525826 49.994755 0
103.96727 46.790558 1.2152884
69.407684 61.679253 -0.97017354
74.276978 59.589565 -0.93221551
77.09642 58.379581 -0.79424477
82.79483 55.934071 -0.57119924
96.624039 49.999172 0
103.9737 46.845009 1.2148528
74.268135 59.608044 -0.93093121
77.065155 58.411682 -0.79193842
82.794998 55.960876 -0.57090873
96.674431 50.024269 0
103.96095 46.907631 1.2138367
69.399635 61.698147 -0.9677279
74.311218 59.604347 -0.93435496
77.076653 58.425446 -0.79222643
82.809486 55.981552 -0.57105428
96.815781 50.010696 0
103.98157 46.955929 1.2138367
69.46611 61.677608 -0.97913897
74.278717 59.63287 -0.93093121
77.073868 58.445293 -0.79165041
82.88134 55.977867 -0.57294095
96.842224 50.046291 0
103.98781 47.010345 1.2134017
69.36422 61.728546 -0.96039397
74.293449 59.641285 -0.93178797
77.094849 58.455048 -0.79251444
82.981934 55.962189 -0.57569814
96.763222 50.126568 0
103.9748 47.072861 1.2123855
69.412506 61.715809 -0.9685452
74.303436 59.651733 -0.93221551
77.115837 58.46484 -0.7933796
83.178345 55.906334 -0.58135819
95.557175 50.682209 0
103.9617 47.135323 1.2113695
69.451698 61.707024 -0.97506177
74.313416 59.662197 -0.93264306
77.108208 58.48671 -0.79251444
83.250381 55.90332 -0.58324486
95.534874 50.736485 0
103.93416 47.203762 1.2099184
69.477272 61.704052 -0.97913897
74.313919 59.676643 -0.93221551
77.172104 58.478558 -0.79597396
83.183487 55.958725 -0.5809232
95.493279 50.798744 0
103.95442 47.252029 1.2099184
69.548447 61.682095 -0.99136108
74.300186 59.697025 -0.93050367
74.763649 59.50341 -0.65010524
74.7827 59.495453 -0.32636166
74.709541 59.526012 0
103.91229 47.326355 1.2080317
69.450859 61.730598 -0.97343343
74.324333 59.701584 -0.93221551
74.788177 59.508465 -0.65125841
74.749756 59.524464 -0.32520053
64 64 0
103.90362 47.386585 1.2071606
69.449036 61.739079 -0.97261924
74.334259 59.712093 -0.93264306
77.192032 58.52634 -0.79597396
74.759949 59.535465 -0.32534555
64 64 0
103.92847 47.432816 1.2073061
69.497437 61.726776 -0.98076731
74.325195 59.730473 -0.93135875
77.155624 58.560074 -0.7933796
83.126076 56.091255 -0.57802039
64 64 0
74.688293 59.58033 0.32301718
69.564156 61.707058 -0.99217528
74.344589 59.73708 -0.93264306
77.171761 58.572025 -0.79395676
83.13562 56.114372 -0.57802039
74.711792 59.585758 0
74.717644 59.583347 0.32374272
69.498344 61.741947 -0.97995317
74.316483 59.763237 -0.92964691
77.178307 58.587948 -0.79395676
83.145134 56.137497 -0.57802039
74.702682 59.604633 0
74.747009 59.586433 0.32446828
69.513435 61.739639 -0.98239881
74.338043 59.761681 -0.93135875
77.200699 58.588066 -0.7951088
83.039276 56.194408 -0.57468206
74.714966 59.607155 0
103.93568 47.627449 1.2054194
69.516159 61.746304 -0.98239881
74.343155 59.774178 -0.93135875
77.192879 58.609886 -0.79424477
82.990982 56.240997 -0.57294095
95.322533 51.202793 0
103.95543 47.675713 1.2054194
69.5326 61.747383 -0.98484135
74.357773 59.782799 -0.93221551
77.208954 58.621933 -0.79482079
82.957016 56.281593 -0.57163423
95.309036 51.25243 0
103.92699 47.743607 1.2039678
69.585709 61.733627 -0.99380678
74.339081 59.80497 -0.93007606
77.234619 58.630119 -0.79597396
82.937439 56.316227 -0.57076371
95.329239 51.288315 0
103.91771 47.803581 1.2030972
69.524292 61.766315 -0.98239881
74.353653 59.813618 -0.93093121
74.757027 59.65052 -0.6466468
82.961166 56.333267 -0.57119924
95.315628 51.337883 0
103.96134 47.842087 1.2038227
69.517807 61.776691 -0.98076731
74.358704 59.826134 -0.93093121
74.767067 59.661587 -0.64693481
82.951141 56.363953 -0.57061869
95.258484 51.404911 0
103.95674 47.900093 1.2030972
69.511322 61.787041 -0.97913897
74.363739 59.838654 -0.93093121
74.757896 59.680386 -0.64606965
82.96035 56.386856 -0.57061869
95.191574 51.475658 0
103.93758 47.963875 1.2019361
69.532356 61.786354 -0.98239881
74.37352 59.849274 -0.93135875
77.250824 58.697987 -0.79539794
82.93576 56.423286 -0.56960261
95.211533 51.511417 0
103.93763 48.019867 1.2013556
69.617668 61.76009 -0.99706662
74.369003 59.865608 -0.93050367
77.242798 58.719749 -0.79453278
82.925591 56.453873 -0.569022
95.506989 51.43734 0
103.96173 48.066216 1.2015005
69.579025 61.783306 -0.98973274
74.383522 59.874352 -0.93135875
77.234741 58.741486 -0.79366761
82.809128 56.526634 -0.56524867
95.705948 51.40239 0
103.95681 48.124104 1.200775
69.521957 61.813702 -0.97913897
74.398056 59.883118 -0.93221551
77.255524 58.75177 -0.79453278
82.769836 56.568497 -0.56379759
95.70179 51.448372 0
64 64 0
69.524597 61.820377 -0.97913897
74.37915 59.905106 -0.93007606
77.242607 58.775383 -0.7933796
82.793289 56.585464 -0.56423259
95.620117 51.524887 0
103.89838 48.258858 1.1978722
69.573219 61.808971 -0.98728704
74.393631 59.913895 -0.93093121
77.253716 58.789497 -0.79366761
82.826431 56.598663 -0.56495869
95.625465 51.566914 0
103.89802 48.314682 1.1972916
69.598869 61.806694 -0.99136108
74.37944 59.933949 -0.92921931
77.279266 58.797966 -0.79482079
82.874077 56.606255 -0.56611979
95.655014 51.599438 0
103.88792 48.374271 1.196421
74.398697 59.940891 -0.93050367
74.746155 59.805264 -0.64289927
82.931396 56.610172 -0.56757092
95.611786 51.660408 0
103.91161 48.420593 1.1965661
69.650238 61.802307 -0.99951231
74.403595 59.953457 -0.93050367
74.751213 59.818249 -0.64289927
74.731133 59.826061 -0.32157218
74.710358 59.834145 0
103.90135 48.480129 1.1956955
69.620621 61.82164 -0.99380678
74.398895 59.969746 -0.92964691
74.770714 59.825642 -0.6437633
74.75071 59.833397 -0.32200775
74.710533 59.848969 0
103.87161 48.547138 1.1942438
69.567909 61.849804 -0.98402721
74.432503 59.971214 -0.93221551
77.323563 58.854755 -0.79597396
74.755737 59.84639 -0.32200775
64 64 0
103.86601 48.604683 1.1935183
69.636391 61.835091 -0.99543512
74.425407 59.995651 -0.93093121
77.332863 58.878914 -0.79597396
83.272072 56.597691 -0.57656926
74.71817 59.883205 0
74.670837 59.901382 0.31924325
69.602074 61.856037 -0.98891544
74.430237 60.008251 -0.93093121
77.319717 58.902424 -0.79482079
83.450867 56.555977 -0.58164877
74.684242 59.911041 0
74.666092 59.917992 0.31895328
69.540001 61.887459 -0.97750747
74.411072 60.030003 -0.92879176
77.330696 58.916679 -0.7951088
83.746323 56.470242 -0.59021157
74.698898 59.92025 0
103.86765 48.797489 1.1916316
69.607239 61.869579 -0.98891544
74.425446 60.038944 -0.92964691
77.341675 58.930946 -0.79539794
83.84285 56.460884 -0.5928238
96.393745 51.692284 0
103.90057 48.840134 1.1920671
69.632935 61.867599 -0.99299258
74.449432 60.044273 -0.93135875
77.367142 58.939747 -0.79655111
83.905411 56.464626 -0.59442043
96.491341 51.700108 0
103.89456 48.897552 1.1913416
69.654007 61.867432 -0.99625248
74.439812 60.062332 -0.93007606
77.373245 58.955902 -0.79655111
83.914497 56.488686 -0.59442043
96.476944 51.750401 0
103.88845 48.954945 1.1906155
69.610298 61.891655 -0.98810124
74.463783 60.067726 -0.93178797
74.735542 59.965595 -0.63915068
83.816528 56.552975 -0.59122711
96.608658 51.745708 0
103.87743 49.014118 1.1897449
74.4589 60.083973 -0.93093121
74.74041 59.978573 -0.63915068
83.625992 56.65163 -0.58527708
96.623444 51.785118 0
103.88089 49.06778 1.1893094
69.596855 61.912132 -0.98484135
74.444382 60.103794 -0.92921931
74.764648 59.984322 -0.64030385
83.51313 56.720757 -0.58164877
96.886879 51.73177 0
103.87457 49.125061 1.1885839
69.571579 61.929226 -0.97995317
74.453888 60.114628 -0.92964691
77.387764 59.024204 -0.79597396
83.434235 56.776928 -0.57903653
97.896927 51.401619 0
103.88764 49.17506 1.1884388
69.638969 61.91193 -0.99136108
74.453766 60.129044 -0.92921931
77.398613 59.038589 -0.79626197
83.389336 56.820267 -0.57743984
97.731544 51.509453 0
103.8763 49.234093 1.1875683
69.609032 61.930717 -0.98565871
74.468079 60.138123 -0.93007606
77.390053 59.06015 -0.79539794
83.339493 56.865284 -0.57569814
97.89798 51.494377 0
103.88922 49.284088 1.1874228
69.59761 61.942616 -0.98321301
74.463089 60.15432 -0.92921931
77.434853 59.062054 -0.79770428
83.299332 56.906582 -0.57424706
97.991234 51.506615 0
103.87772 49.343052 1.1865522
69.651138 61.930687 -0.99217528
74.467735 60.166962 -0.92921931
77.426231 59.08363 -0.79683912
83.293243 56.935272 -0.57381147
98.353287 51.420635 0
103.87587 49.398396 1.1859716
69.639717 61.942596 -0.98973274
74.477173 60.177856 -0.92964691
77.437019 59.098083 -0.79712713
83.41893 56.915844 -0.57729483
98.60318 51.37653 0
103.87396 49.453712 1.1853911
69.62825 61.954479 -0.98728704
74.481789 60.190517 -0.92964691
77.442932 59.114326 -0.79712713
83.598419 56.877186 -0.58237427
98.618408 51.41835 0
103.88173 49.505455 1.1851004
69.677193 61.944454 -0.99543512
74.467072 60.210178 -0.927935
74.730019 60.114975 -0.63598025
83.826897 56.821259 -0.58890545
98.501434 51.508034 0
103.87479 49.5625 1.1843749
69.642471 61.964733 -0.98891544
74.471642 60.222828 -0.927935
74.7201 60.133209 -0.63511509
74.752998 60.121342 -0.31924996
98.418594 51.585049 0
103.87265 49.617744 1.1837944
69.680908 61.954746 -0.99543512
74.459442 60.234367 -0.92665237
74.722435 60.139687 -0.63511509
74.706451 60.145439 -0.31779885
74.650993 60.165405 0
103.86667 49.647114 1.1833594
69.655464 61.971622 -0.99054694
74.468811 60.245277 -0.92707992
77.487816 59.162491 -0.79856831
74.706215 60.160133 -0.31765383
64 64 0
103.85463 49.705826 1.1824882
69.685837 61.968483 -0.99543512
74.483002 60.254478 -0.927935
77.459564 59.190968 -0.79655111
74.70105 60.176571 -0.31736329
64 64 0
103.83763 49.766228 1.1814727
69.651031 61.988613 -0.98891544
74.487526 60.267147 -0.927935
77.484863 59.200298 -0.79770428
83.522926 57.051151 -0.57874596
64 64 0
103.86458 49.81089 1.1817627
69.611526 62.010311 -0.98158151
74.48719 60.281536 -0.92750746
77.480888 59.220055 -0.79712713
83.599869 57.050438 -0.58077765
74.669403 60.21693 0
74.675758 60.214676 0.31634104
74.501366 60.290787 -0.92836422
77.486656 59.236347 -0.79712713
83.706261 57.039509 -0.58368039
74.673965 60.229824 0
74.63623 60.243153 0.31503493
74.496147 60.306892 -0.92750746
77.497276 59.250931 -0.79741514
83.763672 57.046078 -0.58513153
93.949036 53.462318 0
103.86674 49.972736 1.1803116
69.656021 62.017586 -0.98810124
74.524826 60.311089 -0.92964691
77.498131 59.268951 -0.79712713
83.801491 57.059647 -0.58600265
93.9814 53.491627 0
103.85915 50.02951 1.1795861
74.50988 60.330574 -0.927935
77.508713 59.283562 -0.79741514
83.92762 57.042465 -0.589486
94.008797 53.52272 0
103.85637 50.084534 1.1790055
69.679474 62.024761 -0.99136108
74.509468 60.344963 -0.92750746
74.705147 60.276905 -0.63165563
84.048889 57.02729 -0.5928238
91.981339 54.268501 0
103.85352 50.139534 1.178425
69.61647 62.054279 -0.97995317
74.542992 60.347576 -0.93007606
74.724312 60.284763 -0.63252074
84.037659 57.058327 -0.59224325
92.017662 54.2938 0
103.85059 50.194504 1.1778443
69.721611 62.025593 -0.99788082
74.542526 60.362 -0.92964691
74.709229 60.304474 -0.63136756
83.937965 57.119835 -0.58905041
92.019531 54.331055 0
103.85251 50.247753 1.1774088
69.723991 62.032509 -0.99788082
74.561485 60.369732 -0.93093121
77.541145 59.345543 -0.79799229
83.513794 57.292583 -0.57627875
91.967216 54.386913 0
103.86418 50.297604 1.1772637
69.693626 62.050636 -0.99217528
74.551292 60.387486 -0.92964691
77.551651 59.360233 -0.7982803
83.241653 57.412109 -0.56800646
91.939415 54.4342 0
103.8512 50.355885 1.1763927
69.62114 62.083038 -0.97913897
74.560516 60.398575 -0.93007606
77.567047 59.373268 -0.79885745
83.244667 57.437046 -0.5678609
91.936172 54.473007 0
103.83815 50.414108 1.1755221
69.740456 62.050087 -0.99951231
74.579437 60.406391 -0.93135875
77.56282 59.392998 -0.7982803
83.208298 57.475346 -0.56655478
91.903305 54.521835 0
103.85454 50.462257 1.1755221
69.733437 62.060196 -0.99788082
74.574051 60.422462 -0.93050367
77.568375 59.409386 -0.7982803
83.171867 57.51355 -0.56524867
91.899948 54.560566 0
103.84626 50.518745 1.1747966
74.578369 60.435242 -0.93050367
77.598419 59.417526 -0.79972148
83.199394 57.530083 -0.56582922
91.931061 54.587635 0
103.84282 50.573544 1.174216
74.572922 60.451298 -0.92964691
77.574532 59.443836 -0.79799229
83.221985 57.548321 -0.56626481
91.91774 54.629669 0
103.85407 50.623352 1.1740705
69.711151 62.086941 -0.99299258
74.579948 60.456051 -0.93007606
74.717758 60.409889 -0.62992638
83.230797 57.558289 -0.56640977
91.913544 54.649841 0
103.8326 50.657333 1.1731999
69.675949 62.106361 -0.98647285
74.593948 60.465591 -0.93093121
74.707367 60.427753 -0.62906122
74.636543 60.451382 -0.31315437
91.92482 54.683578 0
103.84376 50.707115 1.1730549
69.743896 62.0914 -0.99788082
74.617706 60.471916 -0.93264306
74.716576 60.439064 -0.62934929
74.704933 60.442932 -0.31504107
91.93605 54.717323 0
103.82034 50.768379 1.1718937
69.657051 62.127846 -0.98239881
74.612221 60.487972 -0.93178797
74.730705 60.448761 -0.62992638
74.704292 60.457504 -0.31489605
74.707474 60.456448 0
103.80176 50.827934 1.1708777
69.706245 62.119213 -0.99054694
74.611565 60.502411 -0.93135875
77.638412 59.504757 -0.80029863
74.683891 60.478573 -0.31417051
74.647491 60.49057 0
103.77815 50.889053 1.1697165
69.746086 62.113773 -0.99706662
74.615784 60.515236 -0.93135875
77.643829 59.52124 -0.80029863
74.668388 60.497967 -0.31358993
74.646782 60.505058 0
103.81372 50.930641 1.170297
69.757751 62.117649 -0.99869502
74.634628 60.523277 -0.93264306
77.629562 59.544159 -0.79914546
83.281929 57.696262 -0.56655478
74.616364 60.529251 0
74.622993 60.527081 0.31213212
69.741219 62.13073 -0.99543512
74.648582 60.532951 -0.9334982
77.639854 59.559029 -0.79943347
83.304359 57.714737 -0.56699038
91.481865 55.052242 0
74.607422 60.546356 0.31155157
74.633247 60.552151 -0.93178797
77.679657 59.564346 -0.8014518
83.311943 57.738068 -0.56699038
91.477814 55.090267 0
91.403824 55.114258 0.8045646
69.74572 62.144608 -0.99543512
74.656929 60.558697 -0.9334982
74.790627 60.515522 -0.63194472
83.329376 57.758217 -0.56728035
64 64 0
91.434326 55.140991 0.80514514
69.7715 62.143982 -0.99951231
74.661079 60.571575 -0.9334982
74.760353 60.53965 -0.62992638
83.331963 57.783165 -0.56713533
91.533936 55.145546 0
91.43512 55.177322 0.80485511
69.76902 62.15247 -0.99869502
74.670113 60.58289 -0.93392736
74.754669 60.555813 -0.62934929
74.688553 60.576984 -0.31344494
91.529762 55.183578 0
91.470505 55.202557 0.80558068
69.771248 62.159443 -0.99869502
74.679123 60.594227 -0.93435496
74.75882 60.56881 -0.62934929
74.68277 60.593063 -0.31315437
91.515587 55.224762 0
91.48111 55.235756 0.80558068
69.735771 62.178387 -0.99217528
74.673431 60.610245 -0.9334982
74.713661 60.597466 -0.62646687
74.686874 60.605976 -0.31315437
91.511299 55.262737 0
91.466919 55.276833 0.80485511
74.662849 60.627785 -0.93221551
74.717766 60.610416 -0.62646687
74.710785 60.612621 -0.31373495
91.546646 55.288139 0
91.472488 55.311592 0.80471015
74.666916 60.640671 -0.93221551
74.721855 60.623367 -0.62646687
74.695045 60.631809 -0.31315437
74.653481 60.644901 0
91.468094 55.34948 0.80427456
74.685654 60.648956 -0.9334982
74.730858 60.634781 -0.62675494
74.68425 60.649399 -0.31271937
74.672424 60.653103 0
91.463646 55.387341 0.80383903
74.699501 60.658806 -0.93435496
74.734917 60.647747 -0.62675494
74.67836 60.665409 -0.31242883
74.661552 60.670658 0
91.454193 55.426727 0.80325848
74.708435 60.670216 -0.93478251
77.712494 59.736099 -0.80029863
74.687332 60.676773 -0.31257382
74.665573 60.68354 0
91.459572 55.461449 0.80311346
74.68103 60.68581 -0.93221551
77.724945 59.741322 -0.80087465
74.68438 60.684769 -0.31242883
74.652672 60.694611 0
91.44487 55.4842 0.80253291
74.689926 60.697205 -0.93264306
77.735016 59.756386 -0.80116266
83.441772 57.993206 -0.56829649
91.524368 55.495979 0
91.455139 55.517368 0.80253291
74.708633 60.705593 -0.93392736
77.740135 59.772984 -0.80116266
83.463921 58.012115 -0.56873202
91.514725 55.535366 0
91.450462 55.555134 0.80209732
74.707687 60.720043 -0.9334982
77.760071 59.785042 -0.80202782
83.491013 58.029552 -0.56931257
91.46521 55.586914 0
91.440773 55.594398 0.80151677
69.770493 62.240017 -0.99462098
74.731285 60.726994 -0.93521005
77.760216 59.803177 -0.80173981
83.493233 58.054626 -0.56916702
91.465408 55.623138 0
91.431023 55.633625 0.80093622
69.7537 62.252735 -0.99136108
74.725418 60.742943 -0.93435496
77.75042 59.824318 -0.80087465
83.490463 58.081203 -0.56887704
91.460556 55.66087 0
91.431183 55.669792 0.80064625
74.744095 60.751446 -0.93563926
77.765366 59.83794 -0.8014518
83.512527 58.100243 -0.56931257
91.465637 55.695564 0
91.441223 55.702946 0.80064625
69.788414 62.265087 -0.99625248
74.72731 60.784794 -0.9334982
74.69838 60.793465 -0.62243134
74.696014 60.79417 -0.31184825
91.410835 55.784378 0
91.426346 55.779728 0.79963011
74.736115 60.796284 -0.93392736
74.741898 60.794559 -0.62473768
74.684937 60.811558 -0.31141269
91.360886 55.835365 0
91.391441 55.826248 0.79832399
74.744896 60.8078 -0.93435496
77.824997 59.892735 -0.80375814
74.693779 60.822987 -0.31155828
74.666893 60.830975 0
91.401299 55.859352 0.79832399
74.748749 60.820786 -0.93435496
77.810104 59.91531 -0.80260497
74.697609 60.835911 -0.31155828
74.660721 60.846821 0
91.406136 55.893936 0.79817897
74.777199 60.826527 -0.93649435
77.824944 59.929081 -0.80318099
74.676483 60.856182 -0.31083214
74.659531 60.861176 0
91.425873 55.924126 0.79846901
69.817764 62.294525 -0.99951231
74.766243 60.843884 -0.93521005
77.809998 59.951611 -0.80202782
83.616577 58.249413 -0.57090873
74.638351 60.881374 0
91.445595 55.954346 0.79875958
74.779915 60.854015 -0.93606681
77.81488 59.9683 -0.80202782
83.62851 58.27166 -0.57105428
90.990044 56.123291 0
91.530113 55.965679 0.80093622
74.788635 60.865612 -0.93649435
77.829689 59.982105 -0.80260497
83.625427 58.298286 -0.57076371
90.93956 56.173332 0
91.60968 55.978645 0.80296844
74.777611 60.882931 -0.93521005
77.829544 60.000259 -0.80231583
83.602364 58.330666 -0.56989312
90.948997 56.205891 0
91.694221 55.99036 0.80514514
74.771515 60.898796 -0.93435496
77.854256 60.01125 -0.803469
83.644142 58.344292 -0.57090873
90.968391 56.23558 0
91.75383 56.009449 0.80659682
74.78511 60.908985 -0.93521005
77.854095 60.029415 -0.80318099
83.650963 58.368034 -0.57090873
91.002762 56.261005 0
91.878349 56.010063 0.80993462
74.806725 60.909855 -0.93692189
77.866447 60.034939 -0.80375814
83.65937 58.378471 -0.57105428
91.032471 56.270161 0
91.933128 56.012623 0.81138569
74.795654 60.927128 -0.93563926
74.707062 60.952343 -0.62041301
83.711128 58.389427 -0.5723604
91.066818 56.295708 0
103.83325 52.661873 1.1566548
74.804291 60.938778 -0.93606681
74.700798 60.968102 -0.61983699
83.717896 58.41325 -0.5723604
91.051071 56.33551 0
103.79692 52.724174 1.1552037
74.81292 60.950443 -0.93649435
77.905617 60.078209 -0.80519933
83.699608 58.444138 -0.57163423
91.050285 56.371029 0
103.81552 52.770863 1.1553487
74.826492 60.960732 -0.93735111
77.895401 60.099209 -0.80433416
83.721321 58.46373 -0.57206982
91.054474 56.405128 0
103.79904 52.827404 1.1544782
74.825195 60.975201 -0.93692189
77.915054 60.111824 -0.80519933
83.763039 58.477772 -0.5730859
91.048592 56.442024 0
103.7975 52.8797 1.1540426
74.843689 60.984154 -0.93820626
77.914749 60.130032 -0.80491018
83.759674 58.50444 -0.57279539
91.057709 56.474712 0
103.8159 52.926403 1.1541876
74.832474 61.001369 -0.93692189
77.924408 60.145466 -0.80519933
83.806366 58.517231 -0.57395649
91.046707 56.51297 0
103.80422 52.981453 1.1534621
74.865799 61.006275 -0.93949056
77.939026 60.159546 -0.80577534
83.828011 58.537025 -0.57439202
91.060745 56.544273 0
103.78743 53.037842 1.1525909
74.839691 61.027557 -0.93692189
77.948639 60.175026 -0.80606335
83.819557 58.565109 -0.57395649
91.059708 56.579727 0
103.80065 53.085922 1.1525909
74.848236 61.039299 -0.93735111
77.973213 60.186436 -0.80721653
83.806053 58.594536 -0.57337594
91.018456 56.626129 0
103.78874 53.140865 1.1518654
74.876579 61.045685 -0.93949056
77.977806 60.20332 -0.80721653
83.832634 58.613022 -0.57395649
90.951996 56.679249 0
103.79683 53.190308 1.1517204
74.860313 61.064186 -0.93777865
74.726654 61.100319 -0.61925983
74.703972 61.106449 -0.30967158
90.870384 56.736267 0
103.81487 53.237049 1.1518654
74.858902 61.078644 -0.93735111
74.710167 61.11866 -0.61810666
74.697418 61.122089 -0.30938104
74.650101 61.134815 0
103.80276 53.291916 1.1511397
74.882263 61.086456 -0.93906301
74.728638 61.127586 -0.61897182
74.720963 61.129639 -0.30996159
74.648537 61.149033 0
103.77551 53.350769 1.1499786
74.880798 61.100933 -0.9386338
78.04599 60.257603 -0.81010002
74.709351 61.14661 -0.30952603
74.641907 61.164585 0
103.81849 53.390808 1.1508498
74.899185 61.110134 -0.9399181
78.020493 60.282536 -0.8083697
74.672607 61.170208 -0.30836493
74.645325 61.177444 0
103.76598 53.456242 1.1489631
74.902672 61.123306 -0.9399181
78.049995 60.292873 -0.80981201
83.906342 58.747665 -0.57497263
74.623566 61.196949 0
103.79877 53.499001 1.1495432
74.879585 61.136425 -0.93777865
78.057236 60.300049 -0.81010002
83.914536 58.758369 -0.57511759
74.630287 61.202042 0
103.79507 53.525688 1.1492531
74.907867 61.14307 -0.9399181
78.046677 60.320969 -0.80923486
83.940964 58.777168 -0.57569814
74.628632 61.216206 0
103.81271 53.572468 1.1493981
74.906349 61.157547 -0.93949056
78.081131 60.33012 -0.81096405
83.942238 58.802578 -0.57555318
90.925026 56.982697 0
103.7901 53.629753 1.1483825
74.919701 61.168152 -0.94034564
78.075554 60.349731 -0.81038803
83.973648 58.820156 -0.57627875
91.034248 56.989101 0
103.79755 53.679146 1.148237
74.908218 61.185192 -0.93906301
78.079956 60.366741 -0.81038803
83.954742 58.850784 -0.57555318
91.098145 57.007465 0
103.76974 53.737629 1.1470759
74.906624 61.199654 -0.9386338
78.114388 60.376041 -0.81211722
84.016304 58.860687 -0.57714927
91.071281 57.049278 0
103.75694 53.792152 1.1463504
74.934883 61.206478 -0.94077486
74.725815 61.259892 -0.61695355
83.99733 58.891308 -0.5764237
91.039314 57.0923 0
103.77431 53.838905 1.1464959
74.91835 61.224751 -0.93906301
74.709061 61.27795 -0.61580038
84.0186 58.911633 -0.5768593
91.012321 57.133953 0
103.73618 53.89978 1.1450442
74.936615 61.234173 -0.94034564
74.727394 61.287086 -0.61666548
84.034798 58.933277 -0.57714927
91.020599 57.166595 0
103.76347 53.943977 1.1454798
74.93 61.249893 -0.93949056
78.136772 60.443035 -0.81240636
84.020767 58.962559 -0.57656926
90.95314 57.2183 0
103.76047 53.995834 1.1450442
74.933311 61.263103 -0.93949056
78.136024 60.46138 -0.81211722
84.046982 58.981709 -0.57714927
90.976463 57.247078 0
103.76749 54.045147 1.1448992
74.941589 61.275078 -0.9399181
78.170418 60.470959 -0.81384754
84.047997 59.007191 -0.57700425
82.994751 59.269493 0
103.75932 54.098228 1.1443187
74.949852 61.287064 -0.94034564
78.159599 60.491817 -0.81298238
84.059052 59.03017 -0.57714927
82.90448 59.316227 0
97.218948 55.769676 0.95579237
74.978043 61.294155 -0.94248509
78.148758 60.512646 -0.81211722
84.044876 59.05938 -0.57656926
82.905075 59.340317 0
97.21373 55.813553 0.95535684
74.951393 61.314754 -0.9399181
78.183113 60.52235 -0.81384754
84.015503 59.09227 -0.57555318
82.905617 59.364407 0
97.20845 55.857407 0.95492125
74.964615 61.325554 -0.94077486
78.202393 60.535812 -0.8147127
83.880043 59.15094 -0.57148927
82.926384 59.383553 0
97.218262 55.897537 0.95492125
74.952866 61.342438 -0.93949056
78.201523 60.554195 -0.81442356
83.779839 59.200695 -0.56844145
82.87632 59.419922 0
97.222977 55.938904 0.95477629
74.96106 61.354473 -0.9399181
78.200653 60.572571 -0.81413555
83.765411 59.229477 -0.5678609
82.917244 59.434189 0
97.25795 55.972958 0.95550179
74.929291 61.37611 -0.93692189
74.68898 61.433804 -0.61262995
74.695908 61.43214 -0.30720437
74.683563 61.435104 0
97.338379 55.996162 0.95753407
74.907494 61.395279 -0.93478251
74.72728 61.438313 -0.61464721
74.658562 61.454723 -0.30604324
74.524673 61.486694 0
97.514816 55.996624 0.96232295
74.874115 61.410191 -0.93178797
74.718765 61.447189 -0.61407113
74.705597 61.450325 -0.30734935
64 64 0
97.777451 55.955471 0.96972466
74.837273 61.4328 -0.92836422
78.245209 60.625507 -0.81586474
74.693489 61.466858 -0.30691379
64 64 0
97.913574 55.966343 0.97335297
74.84536 61.444721 -0.92879176
78.254333 60.641533 -0.81615388
74.671257 61.485741 -0.30618826
64 64 0
98.044655 55.978722 0.97683632
74.823448 61.463684 -0.92665237
78.243263 60.6623 -0.81528872
83.751144 59.371605 -0.56655478
64 64 0
98.170685 55.992599 0.98017412
74.806503 61.481422 -0.92494047
78.267441 60.674816 -0.81644189
83.746613 59.397831 -0.56626481
74.61927 61.525063 0
98.337234 55.997326 0.98467362
74.824532 61.491009 -0.92622316
78.291603 60.687386 -0.81759506
83.767334 59.418179 -0.5666998
74.571556 61.549644 0
98.432938 56.018871 0.98714083
74.812561 61.507545 -0.92494047
78.275429 60.709305 -0.81644189
83.803253 59.435059 -0.56757092
82.816055 59.662624 0
98.402054 56.069824 0.98597974
74.78553 61.527496 -0.92237186
78.279396 60.726555 -0.81644189
83.864456 59.44622 -0.56916702
82.770561 59.696991 0
83.398239 59.553101 0.5558086
74.768486 61.545097 -0.92065996
78.298477 60.74036 -0.81730705
83.930748 59.456367 -0.57090873
82.735146 59.728928 0
83.398529 59.577694 0.55566365
74.756439 61.561512 -0.91937733
78.302406 60.757641 -0.81730705
84.067993 59.450581 -0.57468206
82.72506 59.755024 0
83.383591 59.605736 0.55508304
74.764381 61.573383 -0.91980487
78.3265 60.770374 -0.81846023
84.154587 59.456547 -0.57700425
82.786034 59.76506 0
83.302704 59.648586 0.55261582
74.752266 61.58976 -0.91852057
74.721474 61.596664 -0.61234194
84.25135 59.460438 -0.57961708
82.811455 59.783207 0
83.333298 59.666229 0.55334139
74.745163 61.604988 -0.91766542
74.70417 61.614124 -0.61118877
84.312599 59.472481 -0.58121318
82.786064 59.812733 0
83.257362 59.707684 0.55101913
74.748047 61.617973 -0.91766542
78.328003 60.82457 -0.81788307
84.323128 59.495903 -0.58135819
82.770782 59.839939 0
83.318352 59.718586 0.55261582
74.718658 61.651646 -0.91466928
78.335632 60.859203 -0.81788307
84.354256 59.540581 -0.58193874
82.729927 59.896454 0
83.318481 59.767509 0.55232525
74.726501 61.663506 -0.91509682
78.369751 60.869919 -0.8196134
84.354561 59.566284 -0.58179373
82.739952 59.917984 0
83.227112 59.811867 0.54956806
74.714279 61.679726 -0.91381413
78.358353 60.890568 -0.81874824
84.344658 59.594181 -0.58135819
82.724541 59.94503 0
83.303261 59.819706 0.55159974
74.722092 61.691593 -0.91424173
78.392433 60.90139 -0.82047743
84.380463 59.612202 -0.58222932
74.552765 61.72805 0
83.19146 59.868187 0.54826194
74.704788 61.708851 -0.91252983
78.365829 60.925278 -0.81874824
84.400978 59.633572 -0.58266431
74.631851 61.724461 0
83.201515 59.890293 0.5484069
74.721237 61.712101 -0.91381413
78.367683 60.933956 -0.81874824
84.423943 59.64156 -0.58324486
74.612862 61.735229 0
83.244652 59.893219 0.54956806
74.718956 61.726128 -0.91338497
78.391617 60.947025 -0.81990141
84.419037 59.668396 -0.58295488
64 64 0
83.417358 59.880886 0.55435753
74.706642 61.742256 -0.91210228
78.410484 60.961212 -0.82076657
84.429337 59.692001 -0.58309984
64 64 0
83.401985 59.908638 0.55377692
74.744522 61.747826 -0.91509682
74.698135 61.757545 -0.60917044
74.745522 61.747616 -0.30662379
74.621002 61.773716 0
83.452682 59.922493 0.55508304
74.73719 61.762901 -0.91424173
74.705894 61.769421 -0.60945845
74.738052 61.762722 -0.30633324
74.593117 61.792919 0
83.472847 59.942822 0.55551809
74.765022 61.770672 -0.91638112
78.431526 61.011375 -0.82134259
74.715302 61.780968 -0.30560768
74.5448 61.816277 0
83.467567 59.96846 0.55522805
74.777771 61.781609 -0.91723788
78.425003 61.030899 -0.82076657
74.682343 61.80125 -0.30459157
74.583122 61.821674 0
83.508057 59.98465 0.55624419
74.800545 61.79052 -0.91894811
78.443771 61.045223 -0.8216306
84.516083 59.803001 -0.58484155
74.590843 61.83342 0
74.562584 61.839203 0.3011021
74.818306 61.800503 -0.92023242
78.46254 61.059586 -0.82249576
84.516052 59.828831 -0.58469653
74.588356 61.847256 0
74.560097 61.853001 0.30095708
74.861214 61.805443 -0.92365617
78.471146 61.076038 -0.82278377
84.536346 59.850536 -0.58513153
74.560349 61.866234 0
83.456268 60.068771 0.55435753
74.904129 61.810482 -0.92707992
78.464539 61.095562 -0.82220775
84.546455 59.874329 -0.58527708
74.603722 61.8708 0
83.461006 60.092285 0.55435753
74.901733 61.824661 -0.92665237
78.483246 61.110008 -0.82307178
84.561607 59.897125 -0.58556712
74.611404 61.882595 0
83.424942 60.123936 0.55319637
74.83889 61.850815 -0.92108917
78.481651 61.128513 -0.82278377
84.586945 59.917931 -0.58614767
74.598633 61.898457 0
83.399017 60.153477 0.55232525
74.79615 61.872845 -0.91723788
78.500343 61.143013 -0.82364893
84.617348 59.937786 -0.58687323
74.585846 61.914284 0
83.367973 60.183949 0.5513097
74.859154 61.874062 -0.92237186
78.503784 61.160538 -0.82364893
84.606956 59.965694 -0.58643818
74.608788 61.923077 0
83.377663 60.206356 0.55145472
74.937317 61.872478 -0.92879176
74.699051 61.918823 -0.60744017
84.627106 59.987621 -0.58687323
74.585747 61.940865 0
83.372025 60.231762 0.55116415
75.055801 61.863289 -0.9386338
74.676163 61.936661 -0.60599899
84.631943 60.01255 -0.58687323
74.588226 61.953655 0
83.361267 60.258125 0.55072916
75.088638 61.870838 -0.9412024
74.67865 61.949562 -0.60599899
84.646957 60.035519 -0.58716375
82.743301 60.401047 0
83.34536 60.285442 0.55014861
75.111374 61.88039 -0.94291431
78.537666 61.226791 -0.8248021
84.651733 60.060471 -0.58716375
82.706741 60.431499 0
83.329414 60.312717 0.54956806
75.127777 61.884232 -0.94419694
78.544418 61.234612 -0.82509011
84.65921 60.07198 -0.58730876
82.693565 60.445717 0
83.357162 60.319542 0.55029362
75.145462 61.894817 -0.94548124
78.542664 61.253147 -0.8248021
84.65374 60.098873 -0.58701879
82.728523 60.462509 0
83.402451 60.335217 0.55145472
75.163139 61.905445 -0.9467656
78.540894 61.271671 -0.82451409
84.673744 60.120956 -0.58745378
82.732788 60.485142 0
83.411964 60.357708 0.55159974
75.175751 61.917057 -0.94762069
78.554344 61.28735 -0.82509011
84.678421 60.145943 -0.58745378
82.747261 60.505871 0
83.426582 60.379261 0.55189025
75.132828 61.938972 -0.9437694
78.567795 61.303055 -0.82566726
84.708603 60.166199 -0.58817935
82.746338 60.529476 0
83.507576 60.388546 0.55406696
75.049469 61.968208 -0.93649435
74.689339 62.034431 -0.60571092
84.703011 60.193104 -0.58788931
82.781242 60.546482 0
83.501717 60.413998 0.55377692
74.905457 62.008308 -0.92408371
74.666267 62.051994 -0.60426974
84.7127 60.21719 -0.58803433
82.718842 60.581333 0
83.419128 60.453438 0.5513097
74.928062 62.017822 -0.92579561
74.663528 62.065804 -0.60398173
84.717255 60.242218 -0.58803433
82.728073 60.603024 0
85.586281 60.084591 0.61270052
75.132561 61.994621 -0.94291431
74.660751 62.079613 -0.60369265
84.737129 60.264488 -0.58846986
82.798752 60.613663 0
85.560303 60.116207 0.6118294
75.225937 61.991802 -0.9506169
74.688545 62.087936 -0.6051349
74.694923 62.086796 -0.30343047
74.461945 62.128471 0
83.119804 60.579678 0.54245633
75.253624 62.000881 -0.95275629
74.706108 62.098141 -0.60599899
74.707474 62.0979 -0.30372101
64 64 0
64 64 0
75.286377 62.009125 -0.95532495
74.69313 62.113773 -0.6051349
74.714874 62.109936 -0.303866
64 64 0
64 64 0
75.283707 62.023651 -0.95489573
74.669914 62.131161 -0.60369265
74.650612 62.134541 -0.30197933
64 64 0
64 64 0
75.286087 62.037289 -0.95489573
74.656891 62.146709 -0.60282856
84.825874 60.378265 -0.59035653
64 64 0
64 64 0
75.283394 62.0518 -0.95446819
74.669304 62.157829 -0.60340458
84.825119 60.404316 -0.59021157
74.647438 62.161606 0
64 64 0
75.300926 62.062832 -0.95575249
74.686821 62.168098 -0.60426974
84.819199 60.43124 -0.589921
74.639381 62.176231 0
64 64 0
75.318428 62.073906 -0.95703512
74.678818 62.182751 -0.60369265
84.843987 60.452911 -0.59050155
82.871658 60.788548 0
64 64 0
75.300514 62.091003 -0.95532495
74.686127 62.19479 -0.60398173
74.64119 62.202381 -0.30139878
82.747223 60.833027 0
83.105858 60.772442 0.54115021
75.18129 62.125034 -0.9450537
74.65258 62.213696 -0.6019634
74.684357 62.208366 -0.30255988
82.745911 60.856541 0
83.048241 60.805843 0.53940856
71.032837 62.829414 -0.78970844
75.021484 62.165524 -0.93135875
74.670044 62.224018 -0.60282856
74.691635 62.220425 -0.3027049
82.734283 60.88176 0
83.077713 60.824596 0.54013413
71.118767 62.81953 -0.79927695
75.093513 62.160419 -0.93735111
74.665993 62.231312 -0.60253948
74.672203 62.230286 -0.30212435
82.725883 60.894783 0
85.627571 60.413612 0.61226493
71.140244 62.824833 -0.80152845
75.283142 62.142979 -0.95318383
74.678345 62.242519 -0.60311657
74.669205 62.244022 -0.30197933
82.770706 60.910652 0
85.678032 60.432152 0.61357105
71.161697 62.830189 -0.80377781
75.330978 62.149166 -0.95703512
64 64 -0
74.70723 62.251053 -0.30299544
82.764168 60.935009 0
85.646423 60.464214 0.61255497
71.143066 62.842091 -0.80152845
75.343353 62.161217 -0.95789188
74.626389 62.277435 -0.59994513
74.668297 62.270641 -0.30183434
82.778122 60.95602 0
82.911438 60.93441 0.53505462
71.149467 62.849918 -0.80209082
75.3405 62.175735 -0.95746434
74.643784 62.287811 -0.60081023
74.685776 62.281059 -0.30226991
82.776649 60.979538 0
64 64 0
71.175941 62.854553 -0.8049047
75.357895 62.187016 -0.95874703
74.656075 62.299042 -0.60138738
74.687843 62.293972 -0.30226991
82.759727 61.005508 0
83.319077 60.916225 0.54637527
71.157242 62.866405 -0.80265313
75.370224 62.199135 -0.95960379
74.653 62.312733 -0.6010983
74.684753 62.307701 -0.30212435
82.753059 61.029808 0
64 64 0
71.16864 62.873478 -0.80377781
75.362244 62.21447 -0.95874703
74.660156 62.324799 -0.60138738
74.676529 62.322224 -0.30183434
82.777206 61.049236 0
82.956825 61.021008 0.53592521
71.159958 62.883705 -0.80265313
75.379608 62.225826 -0.96003133
74.631493 62.342464 -0.59965706
74.699089 62.331924 -0.30241489
82.780754 61.071926 0
83.104187 61.0215 0.53998911
71.171341 62.890804 -0.80377781
75.386818 62.238792 -0.96045887
74.674385 62.348984 -0.6019634
74.701096 62.344852 -0.30241489
82.789421 61.093826 0
75.296577 62.25275 0.31924325
71.167656 62.900238 -0.8032155
75.2976 62.266567 -0.95275629
74.65081 62.365807 -0.60052222
74.692802 62.359364 -0.30212435
82.762039 61.121269 0
75.370605 62.255367 0.3212755
71.163963 62.909664 -0.80265313
75.132195 62.30571 -0.9386338
74.611862 62.384903 -0.59821588
74.684517 62.373848 -0.30183434
82.786087 61.140812 0
75.382973 62.267544 0.32156551
71.175316 62.916805 -0.80377781
75.053024 62.331421 -0.93178797
74.644485 62.393097 -0.59994513
74.701889 62.38443 -0.30226991
82.779243 61.165066 0
75.421028 62.275867 0.32258162
71.186676 62.923969 -0.8049047
75.319046 62.305248 -0.95404059
74.631088 62.408253 -0.59908104
74.683281 62.40044 -0.30168933
82.782654 61.187756 0
64 64 0
71.182953 62.933403 -0.80434233
75.407417 62.30611 -0.96131563
74.627876 62.421864 -0.59879196
74.674911 62.414879 -0.30139878
82.796326 61.208927 0
64 64 0
71.164124 62.945042 -0.80209082
75.419601 62.318398 -0.96217078
74.634903 62.433949 -0.59908104
64 64 -0
82.79454 61.232399 0
64 64 0
71.180466 62.9515 -0.80377781
75.452118 62.327747 -0.96473938
74.621429 62.449043 -0.59821588
64 64 -0
82.766983 61.259621 0
64 64 0
71.211914 62.955807 -0.80715621
75.433807 62.344528 -0.96302754
74.623291 62.46188 -0.59821588
74.6343 62.460285 -0.30009267
82.749672 61.285282 0
75.400368 62.349369 0.3217105
71.1614 62.971951 -0.99803209
71.24334 62.96019 -0.81053245
75.461205 62.354698 -0.96516693
74.609779 62.476921 -0.59735072
74.615578 62.476089 -0.29951212
74.592293 62.479431 0
75.371498 62.367577 0.32083994
70.790695 63.037727 -0.94612461
71.225082 62.97617 -0.80828094
75.464165 62.375473 -0.96516693
78.873642 61.892334 -0.83719784
74.623466 62.494606 -0.29965711
64 64 0
75.312691 62.396938 0.31909826
70.742157 63.052914 -0.93920171
71.236389 62.983486 -0.80940777
75.471199 62.388615 -0.96559447
78.91716 61.904552 -0.83950418
74.63044 62.506718 -0.29980266
64 64 0
75.278595 62.415668 0.31808215
70.653854 63.073517 -0.9267441
71.247673 62.990829 -0.81053245
75.457901 62.404598 -0.96431184
78.981163 61.914017 -0.8429637
74.621933 62.520996 -0.29951212
82.800224 61.382248 0
75.295944 62.427147 0.31851771
70.759338 63.06715 -0.94127882
71.253937 62.998894 -0.81109697
75.281807 62.443008 -0.94933254
78.968292 61.934242 -0.84209853
74.628853 62.533123 -0.29965711
82.787918 61.407101 0
75.328735 62.436535 0.31938884
70.755493 63.075996 -0.94058734
71.245056 63.009037 -0.80997014
75.156509 62.474037 -0.9386338
78.96566 61.95303 -0.84181052
74.630615 62.545967 -0.29965711
82.806496 61.427689 0
75.33062 62.450222 0.31938884
70.771507 63.082142 -0.94266182
71.236191 63.019154 -0.8088454
75.270287 62.472343 -0.9480499
78.932236 61.975979 -0.83979219
74.62722 62.559509 -0.29951212
82.783806 61.453911 0
75.327316 62.464615 0.31924325
70.732826 63.095669 -0.93712455
71.317932 63.017078 -0.8178494
75.460373 62.460678 -0.96388263
74.628265 62.572445 -0.59763879
74.592896 62.577198 -0.29849598
82.802353 61.474529 0
75.318871 62.479687 0.31895328
70.768738 63.099171 -0.94197035
71.777504 62.964916 -0.86907029
75.513123 62.467754 -0.96816313
74.650497 62.582558 -0.59879196
74.640984 62.583824 -0.29980266
82.805389 61.49725 0
75.361916 62.487877 0.32011437
70.769821 63.107349 -0.94197035
72.287582 62.907223 -0.925919
75.530228 62.479656 -0.96944577
74.626564 62.598808 -0.59735072
74.63237 62.598042 -0.29951212
82.808395 61.519974 0
75.384338 62.49889 0.32069495
70.616676 63.135674 -0.9205153
72.359436 62.90802 -0.93379825
75.532051 62.493587 -0.96944577
78.987999 62.042145 -0.84238654
74.623764 62.612236 -0.29922211
82.821693 61.541355 0
75.396446 62.511303 0.32098493
70.707275 63.13208 -0.93297291
72.335556 62.921383 -0.93098438
75.533867 62.507523 -0.96944577
78.985229 62.060917 -0.84209853
74.615112 62.626408 -0.29893154
82.804024 61.566769 0
75.357002 62.530411 0.31982383
70.723251 63.138271 -0.93505007
72.261238 62.941147 -0.92254061
75.520401 62.523418 -0.96816313
79.008087 62.076397 -0.84325171
74.652855 62.634613 -0.29994765
82.806946 61.589493 0
75.369087 62.542809 0.32011437
70.769081 63.140709 -0.94127882
71.476097 63.050961 -0.83473486
75.522171 62.537338 -0.96816313
79.00013 62.095837 -0.84267455
74.602928 62.65403 -0.29849598
82.820168 61.610909 0
75.401764 62.552624 0.32098493
70.775093 63.148266 -0.94197035
71.325989 63.07901 -0.8178494
75.503555 62.553822 -0.96645123
79.022949 62.111382 -0.84382772
74.609718 62.666191 -0.29864156
82.807541 61.635597 0
75.388054 62.568344 0.32054994
70.806 63.152733 -0.94612461
71.327095 63.08786 -0.8178494
75.525673 62.565186 -0.96816313
79.040627 62.127617 -0.84469289
74.611328 62.679012 -0.29864156
82.805222 61.658966 0
75.338196 62.588528 0.31909826
70.717369 63.172005 -0.93366438
71.2929 63.101067 -0.81391084
75.435669 62.59042 -0.96045887
79.048004 62.145161 -0.8449809
74.618065 62.6912 -0.29878655
82.802879 61.682327 0
75.272842 62.610493 0.3172116
70.723343 63.179516 -0.93435591
71.324242 63.106186 -0.81728709
75.085739 62.647152 -0.93093121
79.065643 62.161465 -0.84584606
74.624794 62.703403 -0.29893154
82.821167 61.703156 0
75.207458 62.632298 0.31532493
70.764175 63.182827 -0.93989319
71.269829 63.121738 -0.81109697
74.86821 62.687023 -0.91252983
79.062721 62.180286 -0.84555805
74.621201 62.716866 -0.29878655
82.808426 61.727776 0
75.172981 62.650204 0.31430879
70.730301 63.195168 -0.93505007
71.245644 63.133541 -0.80828094
75.012527 62.683086 -0.92451292
79.0495 62.200333 -0.84469289
74.602097 62.732166 -0.298206
82.800812 61.75174 0
75.169449 62.664322 0.3141638
70.711342 63.205662 -0.93228137
71.226501 63.144688 -0.80602938
75.452553 62.644501 -0.96131563
74.644249 62.74017 -0.59735072
74.603622 62.74498 -0.298206
82.793182 61.775681 0
75.155563 62.679653 0.31372824
70.701843 63.210892 -0.93089575
71.191696 63.153214 -0.80209082
75.560448 62.638813 -0.97030252
74.639877 62.747204 -0.59706271
74.609535 62.750778 -0.29835099
82.78936 61.787643 0
75.151207 62.687 0.31358325
70.687851 63.22073 -0.92882127
71.172531 63.164253 -0.79983926
75.546776 62.654564 -0.96901822
74.646515 62.759464 -0.59735072
74.611038 62.763599 -0.29835099
82.812698 61.807938 0
75.132133 62.702881 0.31300268
70.738625 63.223064 -0.93574154
71.123039 63.178745 -0.79420936
75.558609 62.667343 -0.96987498
79.092949 62.259846 -0.84671122
74.602211 62.777611 -0.29806098
74.547729 62.78389 0
75.180153 62.710976 0.31430879
70.734581 63.231777 -0.93505007
71.083656 63.191956 -0.78970844
75.432686 62.695854 -0.95917624
79.105309 62.276913 -0.84728724
74.583023 62.792778 -0.29748043
74.554375 62.796047 0
75.202354 62.72213 0.31488937
70.710579 63.242725 -0.9315899
71.145203 63.19368 -0.79646087
74.63842 62.799477 -0.8924166
79.117676 62.294006 -0.84786439
85.531837 61.570179 -0.60515994
74.550636 62.809383 0
75.224548 62.733334 0.31546992
