# .PCD v0.7 - Point Cloud Data file format
VERSION 0.7
FIELDS x y z
SIZE 4 4 4
TYPE F F F
COUNT 1 1 1
WIDTH 1661
HEIGHT 1
VIEWPOINT 0 0 0 1 0 0 0
POINTS 1661
DATA ascii
64 64 -0
56.2673 80.254044 -0.50269675
47.988285 97.656433 0
56.169167 80.460312 0.50907624
56.252136 80.235321 -0.50240678
47.922977 97.688721 0
56.176144 80.394562 0.50733453
56.243752 80.202492 -0.50168067
47.880035 97.673958 0
56.178776 80.338226 0.50588346
56.237675 80.165009 -0.50081009
47.857376 97.616943 0
56.152298 80.342804 0.50631845
56.238441 80.11348 -0.49950397
54.371384 83.989616 0
56.1754 80.24437 0.5035612
56.255154 80.029221 -0.49718174
56.192657 80.158569 0
56.16708 80.21151 0.50283563
56.260715 79.96843 -0.49558565
56.132271 80.233444 0
56.140701 80.216049 0.50327063
56.257332 79.926338 -0.49456951
56.149075 80.149025 0
56.15974 80.12709 0.50080341
56.231258 79.930992 -0.49500507
56.177475 80.041283 0
56.147087 80.103607 0.50036842
56.197365 79.902832 -0.49471453
56.207512 79.882156 0
56.128803 80.042572 0.49906173
56.228638 79.790817 -0.49152175
56.128571 79.994141 0
56.134659 79.981773 0.49746561
56.234871 79.730148 -0.48992506
56.129986 79.942619 0
56.133759 79.934982 0.49630451
56.21125 79.73008 -0.49021563
56.113037 79.928436 0
56.119125 79.916138 0.49601394
56.192249 79.720657 -0.49021563
56.126213 79.853622 0
56.104519 79.897308 0.49572393
56.175575 79.706566 -0.49007061
56.127949 79.80217 0
56.085316 79.887756 0.49572393
56.168415 79.697174 -0.48992506
56.106789 79.820694 0
56.101242 79.83181 0.49412727
56.242474 79.501816 -0.48412004
56.096992 79.792526 0
56.296066 79.39473 0.48077556
56.506886 78.928345 -0.93088818
56.330986 79.278786 -0.4774439
56.112934 79.713203 0
56.480289 78.981339 0.46814883
56.609802 78.679039 -0.91589808
56.41301 79.069923 -0.47120333
56.374817 79.14579 0
56.471539 78.953674 0.46756828
56.552437 78.748589 -0.92079878
56.458057 78.935493 -0.46728441
56.408131 79.034363 0
56.432396 78.986313 0.46887439
56.543968 78.721123 -0.91964561
56.470539 78.866104 -0.46539775
56.436996 78.932327 0
64 64 0
56.507442 78.749001 -0.92195195
56.48082 78.801407 -0.46365663
64 64 0
64 64 0
56.501377 78.716873 -0.92050964
56.465305 78.787674 -0.46351108
56.391483 78.932556 0
64 64 0
56.483601 78.707802 -0.92050964
56.440346 78.792442 -0.46394661
56.368713 78.932617 0
56.376598 78.917175 0.46785885
56.475273 78.680298 -0.91935647
56.401146 78.824913 -0.46525273
56.300819 79.020645 0
56.360958 78.90332 0.46771327
56.474091 78.639008 -0.91733927
56.380863 78.820343 -0.46539775
56.20652 79.159462 0
56.373844 78.834 0.4658266
56.449303 78.643677 -0.91820329
56.332001 78.87117 -0.46728441
56.128586 79.265671 0
56.377357 78.783203 0.46452048
56.457745 78.584015 -0.91503292
56.299709 78.889595 -0.46815553
56.067101 79.339378 0
56.342789 78.806305 0.46553659
56.456802 78.54274 -0.91301459
56.31522 78.815704 -0.46612385
56.149227 79.135727 0
56.312943 78.820099 0.46626216
56.534721 78.350067 -0.90148401
56.350094 78.704971 -0.4629305
56.236637 78.923065 0
56.314224 78.773918 0.46510106
56.579601 78.221809 -0.89398897
56.358768 78.64505 -0.46133441
56.288433 78.779854 0
56.330032 78.700127 0.46306938
56.593597 78.153252 -0.89024144
56.369995 78.580551 -0.45959273
56.359863 78.599915 0
56.338783 78.64019 0.46147269
64 64 -0
56.622181 78.057259 -0.8847636
56.34272 78.589729 -0.46017328
56.342228 78.590668 0
56.280045 78.709145 0.46393993
56.605202 78.048332 -0.8847636
56.320259 78.589653 -0.46046329
56.242176 78.737991 0
56.146084 78.920547 0.47090662
56.607552 78.002792 -0.88245726
56.331753 78.525215 -0.45872161
56.204933 78.765434 0
56.03587 79.085678 0.47642165
56.573692 78.025856 -0.88447559
56.34338 78.460838 -0.4569805
56.289387 78.562813 0
55.993332 79.121964 0.47787276
56.469421 78.181328 -0.894853
56.316162 78.46994 -0.45756105
56.388969 78.332825 0
56.016499 79.034256 0.47540554
56.266552 78.542145 -0.91791528
56.222023 78.625877 -0.46264052
56.314323 78.452309 0
56.017178 79.01107 0.47482497
64 64 -0
56.187237 78.648567 -0.46365663
56.132759 78.75071 0
55.999046 79.001419 0.47482497
64 64 -0
56.132782 78.70784 -0.46583331
56.060936 78.842155 0
56.005432 78.945923 0.47337386
56.133194 78.664436 -0.92742866
56.196083 78.547203 -0.46104383
56.131592 78.667427 0
56.016861 78.881294 0.47163218
56.164497 78.563812 -0.92166281
56.370556 78.180817 -0.44972378
56.284019 78.34166 0
56.028431 78.816719 0.46989051
56.3606 78.158295 -0.89658332
56.447197 77.997803 -0.44420877
56.429821 78.030006 0
56.318996 78.235397 0.45174879
56.547829 77.771454 -0.87265587
56.474804 77.906403 -0.44159654
56.482224 77.892685 0
56.393299 78.057014 0.4463793
56.538597 77.748795 -0.87179071
49.292099 91.101601 -0.86117262
56.462963 77.888168 0
56.433334 77.942757 0.44304097
56.581329 77.630737 -0.86487281
49.41835 90.791687 -0.85188425
56.47356 77.828751 0
56.483566 77.810371 0.43912262
56.584694 77.585442 -0.86256647
49.51545 90.536865 -0.84433752
48.292774 92.776909 0
56.511703 77.719162 0.43650982
56.585674 77.544701 -0.86054814
49.590691 90.323334 -0.83809698
48.240528 92.789856 0
56.457703 77.778488 0.43868706
56.586739 77.50399 -0.85852981
49.591404 90.246689 -0.83621025
48.228291 92.729736 0
56.45356 77.74659 0.43796149
56.572922 77.490494 -0.8582418
49.564716 90.220146 -0.83591974
56.50972 77.605293 0
56.406879 77.792091 0.43970317
56.571625 77.454346 -0.85651261
49.555649 90.161743 -0.83461362
56.503349 77.578003 0
47.739777 93.450676 0.93953729
56.562893 77.431778 -0.85564744
49.529079 90.135185 -0.83432359
56.502083 77.541603 0
47.671478 93.490105 0.94142401
56.569267 77.382088 -0.85305309
56.561165 77.396667 -0.42795372
56.500881 77.505241 0
56.503254 77.500961 0.43128535
56.575748 77.332428 -0.85045874
56.537399 77.401299 -0.42838928
56.489635 77.487068 0
56.471783 77.519135 0.43215591
56.589912 77.269249 -0.84699923
56.531345 77.374123 -0.4278087
56.493637 77.441643 0
56.475723 77.473724 0.43099481
56.58147 77.246742 -0.84613407
56.525349 77.346954 -0.42722815
56.487576 77.414398 0
56.472141 77.441956 0.43026924
56.568001 77.233261 -0.84584606
49.376541 90.038216 -0.83403307
56.489216 77.373543 0
56.488987 77.373947 0.42838258
56.569786 77.192719 -0.84382772
49.345093 90.020523 -0.83403307
56.559902 77.210266 0
56.460083 77.387505 0.42910814
56.576744 77.143196 -0.84123337
56.558788 77.174988 -0.42258424
56.541389 77.205795 0
56.454136 77.360283 0.42852756
56.586357 77.089211 -0.83835101
56.532631 77.184074 -0.42316481
56.502354 77.237534 0
48.806011 90.825867 0.86102092
56.573101 77.075752 -0.838063
56.509014 77.188583 -0.42359981
56.48893 77.223938 0
48.783875 90.789413 0.86044031
56.575432 77.053276 -0.83690983
56.531879 77.129845 -0.42185813
56.511826 77.165108 0
48.767693 90.780212 0.86044031
56.569916 77.026321 -0.83575666
49.533386 89.362671 -0.81545633
56.506237 77.137962 0
48.717319 90.793388 0.86145645
56.572163 76.985901 -0.83373833
49.520817 89.313591 -0.81444019
56.53688 77.047585 0
56.538986 77.0439 0.41967475
56.574497 76.945496 -0.83171999
56.585171 76.926895 -0.4161981
56.534065 77.015984 0
56.530991 77.021347 0.41923919
56.574333 76.909622 -0.8299908
56.554005 76.944962 -0.41706923
56.513161 77.015968 0
56.512665 77.01683 0.41938478
56.581997 76.860313 -0.82739645
56.564339 76.89093 -0.41561756
56.533844 76.943802 0
56.556667 76.904228 0.41604641
56.618267 76.761787 -0.8216306
56.647644 76.710999 -0.41010252
56.544266 76.889725 0
56.73362 76.562363 0.40530694
56.753387 76.493332 -0.80491018
56.770473 76.463867 -0.40241084
56.607037 76.745644 0
64 64 0
57.974449 74.359329 -0.9989751
64 64 -0
64 64 -0
56.772213 76.426254 0
64 64 0
57.9697 74.33873 -0.9976908
64 64 -0
64 64 -0
56.835873 76.282639 0
56.790249 76.360855 0.39964634
57.959801 74.327011 -0.99726325
64 64 -0
56.838158 76.244698 -0.39617026
56.849945 76.224548 0
56.78318 76.338692 0.39921135
57.934864 74.312378 -0.99726325
56.89045 76.088173 -0.78155988
56.83757 76.178078 -0.39457357
56.862633 76.135468 0
56.792908 76.254021 0.39703411
57.938061 74.278503 -0.99469465
56.891609 76.052849 -0.77983069
56.841343 76.138077 -0.39355746
56.861195 76.104416 0
56.804501 76.200546 0.395583
57.928257 74.266754 -0.99426705
56.900749 76.004181 -0.77723634
56.837265 76.111526 -0.39297691
56.859829 76.073372 0
56.797703 76.178421 0.39514744
57.900146 74.285904 -0.99683404
56.899437 75.973351 -0.77579516
56.838535 76.07605 -0.39210635
56.869137 76.024445 0
56.806847 76.129486 0.39384133
57.898209 74.260887 -0.9951238
56.895554 75.946976 -0.77464199
56.842545 76.036118 -0.39109024
56.929092 75.890572 0
56.805473 76.09845 0.39311576
57.9016 74.227043 -0.9925552
56.89967 75.90728 -0.77262366
56.841312 76.005142 -0.39036468
64 64 0
56.809494 76.058502 0.39209965
57.88134 74.232887 -0.9938395
56.906525 75.863174 -0.77031732
56.848148 75.9608 -0.38920355
64 64 0
56.802933 76.036423 0.39166409
57.882179 74.203476 -0.99170011
56.905495 75.832413 -0.76887614
56.833702 75.952156 -0.38920355
64 64 0
56.788395 76.02771 0.39166409
57.891018 74.160873 -0.98827636
56.904526 75.801666 -0.76743495
64 64 -0
64 64 0
56.792606 75.987823 0.39064854
57.876095 74.157883 -0.98870391
56.887604 75.797516 -0.76772296
56.855812 75.85025 -0.38644633
56.822453 75.905579 0
56.762032 76.005806 0.3915191
57.853203 74.168045 -0.99041575
56.89209 75.757919 -0.76570463
56.828056 75.863846 -0.38717189
56.802692 75.9058 0
56.771725 75.957031 0.39021298
57.878963 74.111626 -0.98528016
56.882301 75.758057 -0.76599377
56.826279 75.850609 -0.38688132
56.795502 75.901451 0
56.764503 75.95266 0.39021298
57.86142 74.113007 -0.98613691
56.870792 75.745018 -0.76570463
56.803871 75.855263 -0.38731688
56.778427 75.897179 0
56.747372 75.948349 0.39035797
57.849201 74.105583 -0.98613691
56.853909 75.740829 -0.76599377
56.786854 75.85099 -0.3874619
56.753235 75.906235 0
56.724831 75.952896 0.39079353
57.845024 74.084991 -0.98485261
56.826256 75.754257 -0.76743495
56.76712 75.851151 -0.38775244
56.74427 75.888588 0
56.702267 75.957413 0.39122909
57.846237 74.055656 -0.98271316
56.814754 75.741173 -0.76714694
56.755516 75.837975 -0.38760746
56.719044 75.897568 0
56.690544 75.944138 0.39108354
57.834091 74.048218 -0.98271316
56.795166 75.741287 -0.76772296
56.738503 75.833633 -0.38775244
56.696503 75.902077 0
56.665245 75.953011 0.39166409
57.827343 74.032005 -0.98185641
56.77285 75.745796 -0.76858813
56.718765 75.833694 -0.38804245
56.68486 75.888802 0
56.65081 75.944145 0.39166409
57.826008 74.007057 -0.98014456
56.750523 75.750252 -0.76945215
56.69083 75.847 -0.38876802
56.665031 75.888817 0
56.641834 75.926414 0.39137411
57.808514 74.008331 -0.98100132
56.739048 75.737091 -0.76916414
56.684715 75.824913 -0.38833299
56.647934 75.884369 0
56.616493 75.935196 0.39195466
57.804546 73.987747 -0.97971702
56.719414 75.737106 -0.7697413
56.651264 75.84697 -0.38934857
56.628098 75.884315 0
56.593857 75.939514 0.39239022
57.797901 73.97155 -0.97886187
56.705238 75.728302 -0.7697413
56.642441 75.829262 -0.38905856
56.608238 75.884247 0
56.582188 75.926132 0.39224467
57.796726 73.946617 -0.97715002
56.682865 75.732635 -0.77060533
56.622658 75.829178 -0.38934857
56.593887 75.875305 0
56.559528 75.930397 0.39268023
57.787441 73.934753 -0.97672081
56.654972 75.745728 -0.77204764
56.608368 75.820251 -0.38934857
56.576786 75.870758 0
56.539604 75.930222 0.39297077
57.78635 73.909836 -0.97500896
56.643543 75.732445 -0.7717585
56.594093 75.81131 -0.38934857
56.556911 75.870605 0
56.51416 75.938789 0.39355078
57.777111 73.89798 -0.97458142
56.62661 75.727943 -0.77204764
56.560463 75.833153 -0.39036468
56.542572 75.861603 0
56.494202 75.938545 0.39384133
57.767891 73.886116 -0.97415382
56.604176 75.73214 -0.77291167
56.548939 75.819763 -0.39021969
56.511597 75.878998 0
56.477016 75.933861 0.39398634
57.755951 73.878578 -0.97415382
56.595528 75.714455 -0.77233565
56.537434 75.806366 -0.39007467
56.505596 75.856735 0
56.468147 75.915985 0.39369634
57.752266 73.858009 -0.97286952
56.575848 75.714233 -0.77291167
56.531525 75.784164 -0.38963911
56.491276 75.847672 0
56.464886 75.889313 0.39311576
57.748611 73.837471 -0.97158688
56.570011 75.692169 -0.77204764
56.508926 75.7883 -0.39007467
56.496498 75.807854 0
56.453308 75.875816 0.39297077
57.731216 73.838562 -0.97244197
56.553112 75.687538 -0.77233565
56.491898 75.783615 -0.39021969
56.451477 75.847054 0
56.427803 75.884209 0.39355078
57.722095 73.826653 -0.97201443
56.525074 75.700325 -0.77377683
56.469269 75.787674 -0.39065522
56.425961 75.855469 0
56.396656 75.901337 0.39442188
57.718536 73.806091 -0.97073013
56.502567 75.704353 -0.77464199
56.446629 75.791687 -0.39109024
56.403214 75.859459 0
56.373871 75.905266 0.39485744
57.715385 73.797974 -0.97030252
56.487129 75.712875 -0.77550602
56.422665 75.81337 -0.39196134
56.393242 75.859245 0
56.361073 75.909401 0.39514744
57.71743 73.768784 -0.96816313
56.458981 75.725555 -0.77694833
56.411217 75.799828 -0.39181578
56.367657 75.867554 0
56.329826 75.926376 0.396018
64 64 -0
56.450432 75.707733 -0.77637118
56.391327 75.799393 -0.39210635
56.35614 75.853958 0
56.315422 75.917099 0.396018
57.70779 73.73201 -0.96602207
56.430668 75.707298 -0.77694833
56.365788 75.807648 -0.3926869
56.336178 75.853447 0
56.298199 75.912186 0.39616355
57.696033 73.724396 -0.96602207
56.405281 75.715485 -0.77810037
56.354351 75.794052 -0.39254192
56.316193 75.852921 0
56.278164 75.911583 0.39645356
57.692677 73.703873 -0.96473938
56.391132 75.706306 -0.77810037
56.337276 75.789162 -0.3926869
56.299042 75.847984 0
56.260944 75.906601 0.39659858
57.666943 73.717743 -0.96687883
56.376991 75.697098 -0.77810037
56.325871 75.775543 -0.39254192
56.276203 75.851761 0
56.238049 75.910301 0.39703411
57.649593 73.718674 -0.96773392
56.357201 75.696548 -0.77867752
56.300278 75.783669 -0.39312246
56.264732 75.838066 0
56.226505 75.896568 0.39688912
57.646286 73.69812 -0.96645123
56.331734 75.704613 -0.77983069
56.271809 75.796082 -0.39384803
56.233326 75.85482 0
56.217834 75.878464 0.39659858
57.623299 73.707603 -0.96816313
56.31192 75.703979 -0.78040671
56.263271 75.778046 -0.39355746
56.227585 75.832375 0
56.206341 75.864716 0.39645356
57.60593 73.708458 -0.96901822
56.297787 75.694679 -0.78040671
56.260479 75.751328 -0.39297691
56.230465 75.796898 0
56.19772 75.846619 0.39616355
57.580063 73.722137 -0.97115767
56.2808 75.689697 -0.78069586
56.254868 75.728966 -0.39254192
56.216213 75.787506 0
56.174828 75.850174 0.39659858
57.559814 73.727226 -0.97244197
56.258125 75.693291 -0.78155988
56.223495 75.74559 -0.39341247
56.187614 75.799789 0
56.146164 75.862396 0.39732468
57.536705 73.736542 -0.97415382
56.243999 75.683922 -0.78155988
56.189186 75.766495 -0.39442858
56.156094 75.816345 0
56.126091 75.861542 0.39761469
57.533482 73.715904 -0.97286952
56.227013 75.678864 -0.78184903
56.163456 75.774353 -0.39500913
56.130287 75.824196 0
56.108891 75.856346 0.39775968
64 64 -0
56.212906 75.669464 -0.78184903
56.143471 75.773514 -0.39529914
56.095779 75.844986 0
48.170895 87.720947 0.79643732
57.510021 73.700249 -0.97286952
56.193066 75.66864 -0.78242505
56.126366 75.768333 -0.39544412
56.081474 75.835426 0
48.176922 87.649963 0.79469568
57.484009 73.713715 -0.97500896
56.170322 75.672089 -0.78329021
56.14399 75.711349 -0.39384803
56.05558 75.84314 0
48.145462 87.635147 0.79484063
57.483738 73.688789 -0.97329706
56.159111 75.658325 -0.7830022
50.306377 84.360542 -0.68527305
56.038372 75.837845 0
48.119816 87.611664 0.79469568
57.463421 73.69368 -0.97458142
56.13636 75.661697 -0.78386623
50.249832 84.391365 -0.68686914
56.024075 75.828217 0
48.08548 87.601082 0.79498619
57.440212 73.702789 -0.97629327
56.113583 75.665054 -0.78473139
48.438122 87.018066 -0.77598059
56.003952 75.827209 0
48.039516 87.607658 0.79585677
57.437225 73.69458 -0.97586572
56.103638 75.664566 -0.7850194
48.435871 86.991447 -0.77540004
55.990978 75.830986 0
48.016514 87.610924 0.7962923
57.413982 73.703636 -0.97757757
56.07793 75.672134 -0.78617257
48.446037 86.916725 -0.77351338
55.976688 75.821297 0
47.976322 87.608795 0.79687285
57.390709 73.712646 -0.97928947
56.069649 75.654007 -0.78559655
56.040024 75.69754 -0.39515415
55.944836 75.837425 0
47.953659 87.580811 0.79658234
57.378979 73.704659 -0.97928947
56.046833 75.657227 -0.78646058
56.011253 75.709381 -0.39587969
55.956947 75.788971 0
55.976242 75.760696 0.39761469
57.358559 73.709366 -0.98057377
56.029823 75.651886 -0.78674972
64 64 -0
55.969154 75.740585 0
55.976704 75.729546 0.39688912
57.323612 73.735191 -0.98399585
55.998203 75.667839 -0.78847891
64 64 -0
55.978523 75.696533 0
55.971359 75.706985 0.39645356
57.242043 73.828651 -0.99426705
55.995834 75.641113 -0.78732574
56.001251 75.633232 -0.39428303
55.940804 75.721146 0
47.745655 87.640015 0.80122679
55.97884 75.635689 -0.78761375
50.409805 83.714264 -0.66872799
55.885284 75.7714 0
47.734806 87.594681 0.80035567
55.9589 75.634506 -0.7881909
50.374176 83.714928 -0.66930854
55.847393 75.795845 0
47.721077 87.553635 0.79963011
55.913101 75.640518 -0.78992009
56.917606 74.194611 -0.34668007
56.977043 74.109055 0
56.86734 74.26696 0.34914061
57.046131 73.983841 -0.67806816
64 64 -0
56.926163 74.156082 0
56.863853 74.245537 0.34870505
56.995564 74.030579 -0.68181682
56.949528 74.096504 -0.34392229
56.922829 74.134735 0
56.872299 74.207092 0.34768948
56.986423 74.01786 -0.68152767
56.952232 74.066696 -0.34319672
56.913582 74.121902 0
56.862961 74.194206 0.34754393
56.995117 73.979752 -0.67951047
56.946041 74.049667 -0.34290671
56.916306 74.092033 0
64 64 0
56.98605 73.967033 -0.67922133
56.93689 74.036896 -0.34276173
56.910099 74.074966 0
56.877224 74.121681 0.34565726
56.979973 73.950104 -0.67864531
56.924767 74.028351 -0.34276173
56.894936 74.070641 0
56.867992 74.108826 0.34551227
56.967953 73.94162 -0.67864531
56.909657 74.024033 -0.34290671
56.876766 74.070534 0
56.837769 74.125664 0.34638336
56.943977 73.949989 -0.67979848
56.888542 74.028168 -0.34334171
56.855568 74.074661 0
56.828556 74.112755 0.34623781
56.928963 73.945671 -0.68008649
56.876427 74.019562 -0.34334171
56.83736 74.074516 0
56.801277 74.125267 0.34696394
56.907944 73.94976 -0.68095165
56.855274 74.023651 -0.34377727
56.825191 74.065857 0
56.786034 74.120789 0.34710893
56.889915 73.949593 -0.68152767
56.834099 74.027695 -0.34421283
56.80093 74.074112 0
56.779858 74.103607 0.34681836
56.87788 73.95372 -0.68210483
56.822002 74.031815 -0.34450284
56.794846 74.069763 0
56.758636 74.120369 0.34754393
56.859833 73.953506 -0.68268085
56.806847 74.027367 -0.34464839
56.779652 74.065277 0
56.746414 74.11161 0.34754393
56.847813 73.94487 -0.68268085
56.794735 74.018669 -0.34464839
56.752304 74.077667 0
56.737232 74.098625 0.34739894
56.820675 73.957199 -0.68412203
56.767441 74.031029 -0.34537396
56.737091 74.07312 0
56.715916 74.102493 0.3478345
56.808651 73.948517 -0.68412203
56.752285 74.026489 -0.34551895
56.715775 74.076996 0
56.703712 74.093681 0.3478345
56.790558 73.948204 -0.68469918
56.737129 74.021927 -0.34566393
56.709717 74.059753 0
56.688477 74.089066 0.34797949
56.772469 73.947845 -0.6852752
56.715858 74.025764 -0.3460995
56.685329 74.06778 0
56.667122 74.092834 0.34841505
56.754356 73.947479 -0.68585235
56.700691 74.021149 -0.34624451
56.670097 74.063156 0
56.645752 74.096573 0.34885061
56.74234 73.938713 -0.68585235
56.67939 74.024918 -0.34668007
56.657944 74.054291 0
56.624371 74.100266 0.3492856
56.727283 73.934105 -0.68614036
56.664215 74.020256 -0.34682506
56.642727 74.049606 0
56.615242 74.087151 0.34914061
56.7061 73.937828 -0.68700552
56.655186 74.007195 -0.34668007
56.618271 74.057495 0
56.587685 74.099167 0.34986615
56.68491 73.941498 -0.68786961
56.633858 74.01088 -0.34711564
56.59996 74.056946 0
56.578564 74.086021 0.34972116
56.675972 73.92849 -0.68758154
56.606342 74.022873 -0.34784117
56.581627 74.056381 0
56.557125 74.0896 0.35015672
56.657822 73.927963 -0.68815869
56.594238 74.013931 -0.34784117
56.557102 74.064148 0
56.548027 74.076424 0.35001171
56.642754 73.923233 -0.6884467
56.575958 74.013321 -0.34813118
56.554253 74.042603 0
56.532764 74.071579 0.35015672
56.621506 73.926796 -0.68931186
56.557659 74.012695 -0.34842175
56.535904 74.041962 0
56.508198 74.079231 0.35073727
56.60643 73.922012 -0.68959987
56.545567 74.003693 -0.34842175
56.511349 74.049614 0
56.492924 74.074341 0.35088229
56.588261 73.921356 -0.69017589
56.517937 74.015488 -0.34914729
56.49921 74.040558 0
56.471424 74.077751 0.35131782
56.579376 73.908257 -0.68988788
56.499615 74.014755 -0.3494373
56.480839 74.039825 0
56.456139 74.072807 0.35146284
56.551884 73.91996 -0.69132906
56.48439 74.00985 -0.34958285
56.468712 74.030731 0
56.437737 74.071983 0.35175285
56.543011 73.90683 -0.69104105
56.472301 74.000763 -0.34958285
56.444077 74.038261 0
56.42244 74.067009 0.3518984
56.518581 73.914322 -0.69219422
56.453968 73.999947 -0.34987286
56.431953 74.029121 0
56.404026 74.066132 0.35218841
56.506363 73.918053 -0.6927703
56.438526 74.007828 -0.35030842
56.416481 74.03701 0
56.394817 74.065681 0.3523334
56.500626 73.900749 -0.69219422
56.426437 73.998688 -0.35030842
56.398079 74.036133 0
56.373245 74.068916 0.35276896
56.479279 73.904045 -0.69305938
56.408085 73.997803 -0.35059842
56.385956 74.026939 0
56.35165 74.072113 0.35320452
56.457924 73.907288 -0.69392341
56.386562 74.00103 -0.35103396
56.367535 74.026024 0
56.342644 74.058716 0.35305896
56.44281 73.90229 -0.69421256
56.371334 73.995949 -0.35117897
56.352272 74.020927 0
56.327332 74.053604 0.35320452
56.418278 73.909584 -0.69536573
56.349785 73.999107 -0.35161453
56.327518 74.028214 0
56.302559 74.060837 0.35378507
56.403168 73.904518 -0.69565374
56.340866 73.985741 -0.35146952
56.318584 74.014793 0
56.277756 74.068024 0.35436562
56.394356 73.891235 -0.69536573
56.316135 73.992958 -0.3520501
56.293797 74.022011 0
56.271938 74.050438 0.35407507
56.379253 73.886131 -0.69565374
56.300896 73.987778 -0.35219508
56.281693 74.012688 0
56.243938 74.061668 0.35480061
56.351501 73.897377 -0.69709492
56.282486 73.986679 -0.35248509
56.263229 74.011604 0
56.231789 74.052284 0.35480061
56.33004 73.900398 -0.69796008
56.276783 73.969139 -0.35219508
56.235203 74.022812 0
56.206917 74.059326 0.35538119
56.314911 73.895203 -0.69824809
56.251991 73.976219 -0.35277563
56.219906 74.017532 0
56.1852 74.062218 0.35581675
56.293427 73.898163 -0.69911325
56.230362 73.979156 -0.35321119
56.198212 74.020447 0
56.182629 74.040466 0.35538119
56.27829 73.892914 -0.69940126
56.208729 73.98204 -0.35364619
56.189308 74.006912 0
56.157715 74.047394 0.35596174
56.256775 73.895805 -0.70026642
56.199871 73.968529 -0.3535012
56.16119 74.01796 0
56.139168 74.046112 0.35625231
56.235256 73.898636 -0.70113045
56.178207 73.971367 -0.35393676
56.14909 74.008484 0
56.120625 74.044769 0.35654229
56.232883 73.87706 -0.70026642
56.159744 73.97007 -0.35422677
56.137001 73.998993 0
56.105286 74.039322 0.35668731
56.211357 73.879845 -0.70113045
56.147705 73.960587 -0.35422677
56.115257 74.001747 0
56.089931 74.033875 0.35683286
56.18338 73.890732 -0.70257276
56.129223 73.959259 -0.35451731
56.093506 74.004456 0
56.064926 74.040619 0.35741341
56.165016 73.889381 -0.70314878
56.110748 73.957878 -0.35480732
56.087879 73.98674 0
56.043129 74.043228 0.35784841
56.15583 73.888695 -0.70343679
56.101505 73.957176 -0.35495231
56.065678 74.002342 0
56.030594 74.04657 0.35813898
56.140671 73.883255 -0.7037248
56.073296 73.967979 -0.35567844
56.043877 74.004974 0
56.015228 74.041 0.35828397
56.122276 73.881851 -0.70430195
56.054787 73.966515 -0.35596845
56.025311 74.003487 0
56.003105 74.031342 0.35828397
56.103889 73.880402 -0.70487797
56.04599 73.95285 -0.35582343
56.013229 73.993843 0
55.981251 74.033859 0.35871953
56.091957 73.87085 -0.70487797
56.02422 73.955399 -0.35625899
56.00116 73.984184 0
55.956139 74.040382 0.35930008
56.070316 73.87339 -0.70574313
55.992676 73.970062 -0.35712954
55.976063 73.990746 0
55.944012 74.030655 0.35930008
56.055153 73.867828 -0.70603114
55.983894 73.956337 -0.35698456
55.957462 73.989159 0
55.928642 74.024956 0.3594451
56.033485 73.8703 -0.70689631
55.962086 73.958763 -0.35741955
55.945396 73.979439 0
55.916534 74.015198 0.3594451
56.011799 73.872734 -0.70776147
55.946777 73.953094 -0.3575651
55.92025 73.985886 0
55.878288 74.037743 0.36060619
55.97818 73.865433 -0.7086255
55.916199 73.941658 -0.35785511
55.89286 73.97036 0
55.847504 74.026146 0.3608962
55.956459 73.867767 -0.70949066
55.894341 73.94397 -0.35829067
55.854511 73.992836 0
55.838673 74.01226 0.36075121
55.937988 73.866058 -0.71006781
55.865891 73.954285 -0.35901621
55.858906 73.962837 0
55.820011 74.010437 0.36104122
55.926075 73.856308 -0.71006781
55.860451 73.936417 -0.35872623
55.830383 73.973122 0
55.798038 74.012604 0.36147675
55.897758 73.866531 -0.71150899
55.841858 73.934601 -0.35901621
55.811741 73.971283 0
55.772755 74.018753 0.36205733
55.88913 73.852745 -0.71122098
55.81995 73.936783 -0.35945177
55.793076 73.969421 0
55.754044 74.016838 0.36234787
55.864059 73.858894 -0.71237415
55.804642 73.930893 -0.35959679
55.777725 73.963509 0
55.732033 74.018883 0.36278287
55.855457 73.845062 -0.71208501
55.78603 73.928986 -0.3598868
55.759064 73.961578 0
55.719933 74.008881 0.36278287
55.833656 73.84716 -0.71295017
55.757442 73.939064 -0.3606129
55.743702 73.955635 0
55.707844 73.998871 0.36278287
55.805237 73.85717 -0.71439135
55.742119 73.93309 -0.36075789
55.728355 73.949646 0
55.689117 73.996841 0.36307344
55.789349 73.864151 -0.71525651
55.729477 73.936081 -0.36104789
55.709023 73.960648 0
55.666458 74.011787 0.36379901
55.784073 73.846268 -0.71467936
55.710812 73.934067 -0.36133847
55.696995 73.950623 0
55.647713 74.009689 0.36408898
55.762218 73.848244 -0.71554452
55.695484 73.928024 -0.36148345
55.678307 73.948563 0
55.622288 74.015533 0.36466956
55.743671 73.846222 -0.71612167
55.673473 73.929932 -0.36191902
55.66629 73.938499 0
55.610191 74.005402 0.36466956
55.725128 73.844147 -0.71669769
55.651459 73.931793 -0.36235401
55.634186 73.952339 0
55.591415 74.00322 0.3649601
55.699909 73.84996 -0.71785086
55.632759 73.929649 -0.36264458
55.615463 73.950172 0
55.572643 74.000992 0.36525011
55.684677 73.843872 -0.71813887
55.617416 73.9235 -0.36278957
55.596725 73.947998 0
55.553852 73.998749 0.36554065
55.669437 73.837784 -0.71842802
55.598709 73.921303 -0.36308011
55.571255 73.953728 0
55.531696 74.000443 0.36597621
55.644176 73.843468 -0.71958005
55.583366 73.9151 -0.36322513
55.562614 73.939552 0
55.516258 73.994156 0.36612123
55.622231 73.845184 -0.72044522
55.568031 73.908882 -0.36337012
55.537117 73.945206 0
55.487354 74.003685 0.36684677
55.606987 73.838989 -0.72073323
55.532452 73.926361 -0.36438623
55.518341 73.942902 0
55.471901 73.997345 0.36699179
55.588371 73.836708 -0.72131038
55.523838 73.912178 -0.36424124
55.492805 73.948471 0
55.456455 73.990974 0.36713678
55.566391 73.838326 -0.72217554
55.508488 73.905869 -0.36438623
55.477406 73.942131 0
55.437618 73.988548 0.36742735
55.554508 73.828125 -0.72217554
55.479591 73.915306 -0.3651118
55.465397 73.931824 0
55.425556 73.978195 0.36742735
55.529137 73.833595 -0.72332871
55.457439 73.916824 -0.36554736
55.439816 73.937279 0
55.406727 73.975693 0.36771736
55.513882 73.827263 -0.72361672
55.448868 73.90255 -0.3654018
55.421017 73.934799 0
55.381096 73.981033 0.3682979
55.485088 73.836555 -0.7250579
55.426704 73.903999 -0.36583737
55.405602 73.928375 0
55.369041 73.970612 0.3682979
55.476597 73.822357 -0.72476989
55.411339 73.897552 -0.36598235
55.379967 73.933708 0
55.339973 73.979797 0.36902347
55.461342 73.815948 -0.7250579
55.389153 73.898941 -0.36641791
55.371395 73.91935 0
55.331329 73.965408 0.36887845
55.442696 73.813416 -0.72563392
55.373783 73.892441 -0.36656293
55.345734 73.924606 0
55.312454 73.962769 0.36916903
55.426559 73.819931 -0.72649908
55.360966 73.895065 -0.36685348
55.332886 73.927223 0
55.299606 73.96534 0.369459
55.407879 73.81736 -0.72707623
55.331905 73.904167 -0.36757904
55.314049 73.924568 0
55.280724 73.962646 0.36974958
55.385796 73.818626 -0.72794026
55.326805 73.885864 -0.36728847
55.305492 73.910156 0
55.254982 73.967735 0.37033013
55.3671 73.815987 -0.72851741
55.297699 73.894897 -0.3680146
55.27634 73.919189 0
55.239513 73.96106 0.37047514
55.348412 73.813301 -0.72909343
55.272003 73.899971 -0.36859515
55.257469 73.916451 0
55.220619 73.958252 0.37076512
55.333122 73.806732 -0.72938257
55.263496 73.885513 -0.3684496
55.238609 73.913673 0
55.191376 73.967117 0.37149125
55.314426 73.803986 -0.72995859
55.241219 73.886627 -0.36888516
55.223186 73.906975 0
55.172451 73.964241 0.37178126
55.299156 73.797348 -0.7302466
55.218922 73.887695 -0.36932072
55.193932 73.915833 0
55.160419 73.953568 0.37178126
55.266678 73.81002 -0.73197693
55.193157 73.892601 -0.36990127
55.157738 73.932388 0
55.131123 73.962288 0.3725068
55.251389 73.803314 -0.73226494
55.177753 73.885826 -0.37004626
55.163071 73.902283 0
55.108707 73.963196 0.37294236
55.232658 73.800438 -0.73284096
55.162354 73.879028 -0.37019128
55.119881 73.926506 0
55.096676 73.952446 0.37294236
55.203545 73.809105 -0.73428327
55.136543 73.88382 -0.37077183
55.111366 73.911896 0
55.074245 73.953293 0.37337792
55.188248 73.802315 -0.73457128
55.117653 73.880844 -0.37106237
55.095917 73.905014 0
55.072651 73.930901 0.37294236
55.172947 73.795494 -0.73485929
55.109207 73.866226 -0.37091681
55.08744 73.890388 0
55.057182 73.923965 0.37308738
55.150711 73.796341 -0.73572445
55.100777 73.851624 -0.37077183
55.072006 73.883469 0
55.076546 73.878448 0.37178126
55.149303 73.774139 -0.73485929
55.099346 73.829308 -0.37033626
55.063564 73.86882 0
55.064617 73.867661 0.37178126
55.134026 73.767265 -0.7351473
55.094456 73.810852 -0.37004626
55.076138 73.831032 0
55.07365 73.833771 0.37091067
55.150082 73.725937 -0.73284096
55.093102 73.788551 -0.3696107
55.078278 73.804848 0
55.072273 73.811447 0.37047514
55.148785 73.703781 -0.73197693
55.091778 73.766273 -0.3691757
55.083969 73.774834 0
55.07793 73.781456 0.36974958
55.15453 73.673981 -0.73053461
55.097527 73.736313 -0.3684496
55.082706 73.752525 0
55.069633 73.766823 0.36960402
55.146339 73.65947 -0.7302466
55.103325 73.706398 -0.36772403
55.077957 73.734077 0
55.071884 73.7407 0.36902347
55.147491 73.646507 -0.72967058
55.108006 73.689529 -0.36728847
55.079124 73.721008 0
55.073025 73.727654 0.36873347
55.156864 73.612953 -0.72794026
55.117409 73.655838 -0.36641791
55.081467 73.694916 0
55.082382 73.693916 0.36786291
55.148758 73.598465 -0.72765225
55.109268 73.641281 -0.36627293
55.09446 73.657341 0
55.074207 73.679306 0.36771736
55.151211 73.572563 -0.72649908
55.115261 73.611458 -0.36554736
55.08987 73.638924 0
55.069565 73.660889 0.36742735
55.16074 73.539108 -0.72476989
55.124855 73.577835 -0.36467624
55.099449 73.605247 0
55.079102 73.627213 0.36655623
55.149223 73.528419 -0.72476989
55.120354 73.559494 -0.36438623
55.091393 73.590675 0
55.085155 73.597389 0.36583066
55.155338 73.498795 -0.72332871
55.112347 73.54496 -0.36424124
55.097542 73.560867 0
55.084179 73.575211 0.36539567
55.150932 73.48053 -0.72275156
55.115005 73.51902 -0.36366069
55.082447 73.553902 0
55.065529 73.572021 0.36568567
55.164227 73.443382 -0.72073323
55.114166 73.496887 -0.36322513
55.088684 73.524117 0
55.078827 73.534653 0.36466956
55.156357 73.428932 -0.72044522
55.120468 73.467194 -0.36249956
55.091427 73.498161 0
55.077972 73.512505 0.36423454
55.162685 73.399399 -0.71900403
55.109035 73.456459 -0.36249956
55.094219 73.472221 0
55.077164 73.490356 0.36379901
55.161983 73.377419 -0.71813887
55.115448 73.426788 -0.36177346
55.093494 73.450089 0
55.094219 73.44931 0.36263788
55.167801 73.325981 -0.71583253
55.128422 73.367569 -0.36032233
55.095741 73.402077 0
55.092846 73.405128 0.36176732
55.15654 73.315308 -0.71583253
55.109947 73.36438 -0.3606129
55.091545 73.383766 0
55.08865 73.386818 0.36147675
55.170242 73.278389 -0.71381533
55.1273 73.323517 -0.35945177
55.087395 73.365448 0
55.088066 73.364746 0.36104122
55.162605 73.263977 -0.71352732
55.123222 73.30526 -0.35916123
55.097637 73.332085 0
55.101856 73.32766 0.36002564
55.169304 73.234589 -0.71208501
55.122749 73.283272 -0.35872623
55.100758 73.306274 0
55.104958 73.30188 0.3594451
55.17247 73.208969 -0.71093184
55.133121 73.250023 -0.35785511
55.107525 73.276726 0
55.082935 73.302383 0.35988066
55.168514 73.190849 -0.71035582
55.143551 73.216827 -0.35698456
55.099922 73.262222 0
55.100506 73.26162 0.35871953
55.191654 73.155685 -0.70804948
55.127186 73.222694 -0.35741955
55.10516 73.24559 0
55.102127 73.248741 0.35842898
55.180595 73.145035 -0.70804948
55.144894 73.18206 -0.35625899
55.090385 73.238579 0
55.098167 73.230515 0.35813898
55.187527 73.115784 -0.7066083
55.130196 73.175087 -0.35640398
55.115398 73.190392 0
55.087021 73.219749 0.35813898
55.187325 73.093979 -0.70574313
55.140823 73.14196 -0.35553288
55.100681 73.183388 0
55.068657 73.216431 0.35842898
55.179939 73.079613 -0.70545512
55.111668 73.149902 -0.35625899
55.085968 73.176353 0
55.064766 73.198181 0.35813898
55.168976 73.068954 -0.70545512
55.096996 73.142868 -0.35640398
55.071243 73.169319 0
55.03191 73.209709 0.35900953
55.150806 73.065674 -0.70603114
55.089584 73.128395 -0.35625899
55.056541 73.162247 0
55.02079 73.198868 0.35900953
55.129002 73.066071 -0.70689631
55.067665 73.128754 -0.35669398
55.0382 73.158859 0
54.998772 73.199158 0.3594451
55.114433 73.059029 -0.70718431
55.049355 73.125381 -0.35698456
55.005264 73.170334 0
54.973106 73.203117 0.36002564
55.092609 73.059357 -0.70804948
55.027416 73.125664 -0.35741955
54.990547 73.163162 0
54.954712 73.199608 0.36031565
55.081673 73.048592 -0.70804948
54.994499 73.137032 -0.35829067
54.972183 73.159676 0
54.943604 73.188675 0.36031565
55.052567 73.056198 -0.70949066
54.987118 73.122452 -0.35814565
54.946487 73.163574 0
54.914249 73.196205 0.36104122
55.034348 73.052742 -0.71006781
54.972446 73.115242 -0.35829067
54.9464 73.141541 0
54.903145 73.185219 0.36104122
55.019772 73.04557 -0.71035582
54.946793 73.11908 -0.35887122
54.913364 73.152756 0
54.892052 73.174217 0.36104122
55.012497 73.031052 -0.71006781
54.928459 73.115494 -0.35916123
54.902313 73.141769 0
54.880974 73.163208 0.36104122
54.965061 73.056801 -0.71295017
54.899101 73.122917 -0.3598868
54.883926 73.13813 0
54.86256 73.159546 0.36133176
54.95047 73.04953 -0.71323818
54.877056 73.12294 -0.36032233
54.876568 73.123428 0
54.869869 73.130127 0.36060619
54.946861 73.031288 -0.71266216
54.858673 73.119263 -0.3606129
54.86187 73.116074 0
54.836777 73.141106 0.36147675
54.921288 73.034943 -0.71381533
54.866093 73.089867 -0.3598868
54.850861 73.105026 0
54.814682 73.141029 0.36191231
54.914043 73.020325 -0.71352732
54.851418 73.082497 -0.36003235
54.847248 73.086639 0
54.822083 73.111618 0.36118677
54.925213 72.987488 -0.711797
54.873676 73.038528 -0.35872623
54.854763 73.057259 0
54.81847 73.093201 0.3608962
54.905075 72.996552 -0.71295017
54.875614 73.025696 -0.35843566
54.864094 73.037094 0
54.831448 73.069382 0.36017063
54.938393 72.941956 -0.70949066
54.875816 73.003708 -0.3580001
54.845779 73.033348 0
54.842686 73.036407 0.35930008
54.923912 72.934631 -0.70977867
54.890858 72.967171 -0.35698456
54.864544 72.993073 0
54.831772 73.02533 0.35930008
54.927887 72.909157 -0.7086255
54.876328 72.959793 -0.35712954
54.835106 73.000275 0
54.839424 72.996033 0.35857397
54.913422 72.901817 -0.70891464
54.876648 72.937851 -0.35669398
54.846554 72.967331 0
54.843395 72.970421 0.35799396
54.93227 72.861908 -0.7066083
54.884434 72.908661 -0.35596845
54.832005 72.9599 0
54.836292 72.955711 0.35784841
54.91787 72.854553 -0.70689631
54.862511 72.908524 -0.35640398
54.824909 72.945183 0
54.847794 72.922867 0.35697785
54.933136 72.818321 -0.70487797
54.889015 72.861237 -0.35495231
54.836487 72.912323 0
54.851921 72.897308 0.3563973
54.922489 72.807358 -0.70487797
54.889492 72.839378 -0.35451731
54.840668 72.886749 0
54.852371 72.875389 0.35596174
54.919281 72.7892 -0.70430195
54.878819 72.828362 -0.35451731
54.856121 72.850327 0
54.819241 72.886024 0.35683286
54.908669 72.778221 -0.70430195
54.890594 72.79567 -0.35364619
54.841694 72.842888 0
54.830952 72.853256 0.35596174
54.924152 72.742104 -0.70228362
54.876236 72.788254 -0.35379121
54.857246 72.806549 0
54.846451 72.816948 0.3549462
54.935966 72.709633 -0.70055443
54.884354 72.759224 -0.35306564
54.83535 72.80632 0
54.8358 72.805878 0.3549462
54.914246 72.709412 -0.70141959
54.885021 72.737427 -0.35263065
54.858543 72.76281 0
54.855183 72.766029 0.35378507
54.929901 72.673401 -0.69940126
54.889496 72.712036 -0.3520501
54.863007 72.737366 0
54.848366 72.751373 0.35363951
54.919426 72.662437 -0.69940126
54.875217 72.704605 -0.35219508
54.863747 72.715553 0
54.852837 72.72596 0.35305896
54.920212 72.640755 -0.6985361
54.898586 72.661339 -0.35088897
54.857002 72.700912 0
54.857346 72.700584 0.35247895
54.936028 72.604858 -0.6965189
54.880596 72.657486 -0.35117897
54.857811 72.679115 0
54.843071 72.693108 0.35262394
54.936909 72.583221 -0.69565374
54.877682 72.639313 -0.35088897
54.839775 72.675217 0
54.847668 72.66774 0.35204339
54.91526 72.582932 -0.6965189
54.882359 72.614014 -0.35030842
54.878483 72.617676 0
54.814545 72.678085 0.35291395
54.953846 72.52581 -0.6927703
54.871956 72.602989 -0.35030842
54.871861 72.603081 0
54.826748 72.645599 0.35204339
54.941154 72.527443 -0.69334739
54.893253 72.572533 -0.34929231
54.874252 72.590424 0
54.840443 72.622246 0.35131782
54.942177 72.505859 -0.69248223
54.87912 72.565079 -0.3494373
54.875252 72.56871 0
54.837616 72.60405 0.35102728
54.924347 72.501991 -0.69305938
54.887733 72.536293 -0.34871173
54.868698 72.554123 0
54.838608 72.582314 0.35059172
54.94054 72.466293 -0.69104105
54.907803 72.496887 -0.34755063
54.869781 72.532417 0
54.828247 72.571236 0.35059172
54.941673 72.444756 -0.69017589
54.889931 72.492989 -0.34784117
54.870903 72.510727 0
54.821693 72.55661 0.35044673
54.923893 72.440857 -0.69075304
54.913925 72.450127 -0.34653506
54.868244 72.492607 0
54.818962 72.538437 0.35015672
54.932655 72.412292 -0.68931186
54.896107 72.446205 -0.34682506
54.869438 72.470947 0
54.820087 72.516731 0.34972116
54.945286 72.380241 -0.68758154
54.882099 72.438721 -0.34697005
54.866859 72.452827 0
54.821251 72.495041 0.3492856
54.927559 72.37632 -0.68815869
54.910084 72.392456 -0.34551895
54.875771 72.424133 0
54.826263 72.469841 0.34870505
54.928864 72.354836 -0.68729353
54.907589 72.374428 -0.34522894
54.880913 72.399002 0
54.838966 72.437637 0.3478345
54.93401 72.329872 -0.68614036
54.905136 72.3564 -0.3449384
54.882256 72.377419 0
54.813469 72.44062 0.34841505
54.92395 72.318909 -0.68614036
54.898872 72.341896 -0.34479338
54.883656 72.355843 0
54.82243 72.411964 0.34768948
54.944447 72.280014 -0.68383402
54.907974 72.313362 -0.34406784
54.873566 72.344818 0
54.808441 72.404373 0.3478345
54.93063 72.272545 -0.68412203
54.890263 72.309364 -0.34435782
54.890411 72.309235 0
54.832844 72.36174 0.34652838
54.929813 72.233223 -0.68268085
54.908684 72.252403 -0.34290671
54.885773 72.273201 0
54.831902 72.322098 0.34580281
54.942871 72.201431 -0.68095165
54.914127 72.227463 -0.34232616
54.871914 72.265686 0
54.84882 72.286598 0.3447867
54.936806 72.187019 -0.68066365
54.911911 72.209503 -0.34203559
54.900566 72.219749 0
54.831108 72.282494 0.34507671
54.934612 72.169128 -0.68008649
54.902 72.198517 -0.34203559
54.88678 72.212234 0
54.828819 72.264458 0.3447867
54.920902 72.161621 -0.6803745
54.895962 72.184044 -0.3418906
54.86911 72.208176 0
54.838161 72.236 0.34406114
54.930302 72.133377 -0.67893332
54.905418 72.155693 -0.34116504
54.878571 72.179771 0
54.847557 72.207581 0.34333557
54.939751 72.105171 -0.67749214
54.907196 72.1343 -0.34072948
54.888088 72.15139 0
54.841534 72.193039 0.34319001
54.946434 72.089355 -0.67662698
54.902283 72.128807 -0.34072948
54.898689 72.132011 0
54.836586 72.187508 0.34319001
54.948242 72.068092 -0.67576295
54.923504 72.090141 -0.33956838
54.88887 72.12101 0
54.830574 72.172974 0.34304503
54.938499 72.057152 -0.67576295
54.929268 72.065353 -0.3389878
54.886852 72.103073 0
54.840118 72.144623 0.34231946
54.959728 72.018738 -0.67345661
54.919533 72.05439 -0.3389878
54.88485 72.085152 0
54.84972 72.11631 0.34159392
54.953934 72.004364 -0.67316747
54.933151 72.022758 -0.33811724
54.878994 72.070679 0
54.863281 72.084579 0.3407228
54.955891 71.98317 -0.67230344
54.935154 72.001472 -0.33768171
54.904366 72.028648 0
54.853519 72.073532 0.3407228
54.946251 71.972237 -0.67230344
54.917686 71.997391 -0.33797225
54.89077 72.021088 0
54.859371 72.048737 0.34014225
54.940521 71.95787 -0.67201436
54.939262 71.958977 -0.33681113
54.881084 72.010078 0
54.849651 72.037689 0.34014225
54.946461 71.933289 -0.67086226
54.929653 71.948021 -0.33681113
54.879234 71.992203 0
54.851662 72.016357 0.33970723
54.944679 71.915535 -0.67028511
54.927891 71.930206 -0.33652058
54.893089 71.960625 0
54.853725 71.995041 0.33927166
54.975246 71.869591 -0.99811834
54.946819 71.894379 -0.66941994
54.914387 71.922668 -0.33666614
54.891331 71.942772 0
54.859737 71.970322 0.33869112
54.973484 71.851952 -0.99726325
54.945087 71.876656 -0.66884392
54.936188 71.884392 -0.33550501
54.893524 71.921509 0
54.850113 71.959267 0.33869112
54.956257 71.847763 -0.99811834
54.951202 71.852142 -0.66769075
54.930603 71.870018 -0.33535945
54.899685 71.896851 0
54.844425 71.944801 0.33854613
54.958427 71.826744 -0.99683404
54.961273 71.82428 -0.66624957
54.928951 71.852264 -0.33506948
54.890152 71.885849 0
54.858414 71.913322 0.33767501
54.968403 71.799042 -0.99469465
54.963577 71.803207 -0.66538441
54.92733 71.834511 -0.33477947
54.904259 71.854431 0
54.868523 71.885292 0.33694944
54.962875 71.784775 -0.99426705
54.950241 71.795654 -0.66567242
54.929688 71.813362 -0.33434391
54.894775 71.843437 0
54.855068 71.87764 0.33709446
54.961254 71.767159 -0.99341196
54.948666 71.777977 -0.6650964
54.928143 71.795616 -0.33405334
54.901093 71.818855 0
54.845558 71.866585 0.33709446
54.959679 71.749542 -0.9925552
54.943199 71.763672 -0.66480839
54.922672 71.781265 -0.33390835
54.899548 71.801086 0
54.847885 71.845383 0.33665943
54.973724 71.718605 -0.98998821
54.965275 71.72583 -0.66250205
54.921169 71.76355 -0.33361834
54.902 71.779938 0
54.842354 71.83094 0.33651444
54.964405 71.707687 -0.98998821
54.948082 71.721611 -0.66307807
54.935524 71.73233 -0.33274722
54.916374 71.748665 0
54.856632 71.799629 0.33564332
54.970741 71.683456 -0.98827636
54.946632 71.703972 -0.66250205
54.918266 71.728111 -0.33303779
54.895123 71.747803 0
54.866997 71.771736 0.33491778
54.965374 71.66922 -0.98784882
54.957058 71.676277 -0.6610598
54.928757 71.70031 -0.33231169
54.929405 71.699753 0
54.873463 71.747246 0.3343372
54.956112 71.658302 -0.98784882
54.963566 71.651985 -0.6599077
54.927383 71.682632 -0.33202168
54.920109 71.688789 0
54.856186 71.74292 0.33462721
54.966488 71.630791 -0.9857077
54.950378 71.644402 -0.66019571
54.926037 71.664963 -0.33173168
54.906853 71.681168 0
54.862717 71.718452 0.33404666
54.96904 71.609955 -0.98442507
54.972794 71.606789 -0.65788937
54.936665 71.637238 -0.33100557
54.913498 71.656761 0
54.881203 71.683975 0.33303109
54.955925 71.602341 -0.98485261
54.93589 71.619179 -0.6599077
54.931416 71.62294 -0.33086056
54.91621 71.635727 0
54.8759 71.669609 0.3328861
54.978863 71.573761 -0.98185641
54.990719 71.563812 -0.65558302
54.934765 71.610786 -0.33057055
54.927544 71.616844 0
54.887188 71.650726 0.33230555
54.969719 71.562859 -0.98185641
54.969685 71.562881 -0.65644819
54.933552 71.593147 -0.33028001
54.910358 71.612572 0
54.87397 71.643044 0.33245054
54.992107 71.525604 -0.97843271
54.956585 71.555283 -0.6567362
54.940338 71.568855 -0.32969946
54.897175 71.604912 0
54.864742 71.632011 0.33245054
54.979065 71.518013 -0.97886187
54.96336 71.531097 -0.65558302
54.935188 71.554581 -0.32955444
54.915985 71.57058 0
54.879486 71.600998 0.33157942
54.969986 71.507103 -0.97886187
54.966202 71.510254 -0.65471786
54.950035 71.523697 -0.32868388
54.938866 71.532982 0
54.88628 71.576698 0.33099943
54.968834 71.489632 -0.97800511
54.984997 71.476227 -0.65270066
54.952957 71.5028 -0.32824832
54.917747 71.531998 0
54.881142 71.562355 0.33085388
54.967697 71.472168 -0.97715002
54.960026 71.478516 -0.65385383
54.947899 71.488548 -0.32810333
54.928703 71.504433 0
54.872009 71.551331 0.33085388
54.986397 71.438377 -0.97415382
54.970955 71.451118 -0.65241158
54.950882 71.467682 -0.32766777
54.927677 71.486832 0
54.890942 71.517151 0.32983831
54.965519 71.437271 -0.97543818
54.97393 71.430344 -0.65154749
54.961926 71.440231 -0.32694221
54.938728 71.459328 0
54.889896 71.499527 0.32954776
54.956539 71.426346 -0.97543818
54.980949 71.406303 -0.65039432
54.948929 71.432602 -0.32708722
54.925686 71.451683 0
54.88084 71.48851 0.32954776
54.963459 71.402405 -0.97372627
54.964012 71.401947 -0.65097034
54.952019 71.411774 -0.32665166
54.924751 71.434113 0
54.867783 71.480774 0.32969275
54.982357 71.368736 -0.97073013
54.979099 71.371391 -0.64924115
54.975266 71.374527 -0.32549053
54.923828 71.416565 0
54.882889 71.450012 0.3288222
54.977432 71.354591 -0.97030252
54.982231 71.350677 -0.64837599
54.958294 71.370193 -0.32578111
54.939087 71.385849 0
54.85778 71.452126 0.32940274
54.976528 71.337204 -0.96944577
54.985401 71.329987 -0.64751083
54.965523 71.346146 -0.32520053
54.918049 71.38475 0
54.856853 71.434509 0.3291122
54.979622 71.316597 -0.96816313
54.956451 71.335388 -0.64895314
54.948593 71.341766 -0.32549053
54.901054 71.380325 0
54.888229 71.390724 0.32766107
54.978775 71.299225 -0.96730638
54.959663 71.31469 -0.64808798
54.959923 71.314484 -0.32476497
54.944744 71.326767 0
54.891434 71.369904 0.32722551
54.989937 71.272202 -0.96516693
54.962914 71.294014 -0.64722282
54.955132 71.300293 -0.32461998
54.93185 71.319084 0
54.882534 71.358887 0.32722551
54.981155 71.261307 -0.96516693
54.982315 71.260376 -0.64520454
54.958466 71.279579 -0.32418442
54.927063 71.304863 0
54.88578 71.338097 0.32679051
54.996399 71.231125 -0.96259993
54.981606 71.243004 -0.64462847
54.961819 71.258896 -0.32374942
54.910118 71.300415 0
54.876923 71.32708 0.32679051
54.983665 71.22345 -0.96302754
54.976894 71.228867 -0.64434046
54.953056 71.247971 -0.32374942
54.913498 71.279663 0
54.872139 71.31279 0.32664496
54.978951 71.209343 -0.96259993
54.980293 71.208267 -0.64347529
54.944305 71.23703 -0.32374942
54.937233 71.242683 0
54.851128 71.311493 0.32708052
54.99033 71.182426 -0.96045887
54.991814 71.181244 -0.64203411
54.955894 71.209877 -0.32302332
54.944771 71.21875 0
54.878868 71.271286 0.3257744
54.977627 71.174744 -0.96088809
54.970993 71.180016 -0.64289927
54.967525 71.182777 -0.32229775
54.944195 71.201324 0
54.845692 71.279655 0.32664496
54.993408 71.153313 -0.95874703
55.003124 71.145599 -0.64030385
54.971317 71.17086 -0.32200775
54.952076 71.186142 0
54.877918 71.245041 0.32533884
55.00489 71.126488 -0.95660758
54.998547 71.131516 -0.64001578
54.942299 71.176079 -0.32273331
54.923004 71.19136 0
54.897675 71.211433 0.3243233
55.008358 71.106071 -0.95532495
54.973701 71.133461 -0.64116895
54.954018 71.149017 -0.32200775
54.910244 71.183609 0
54.884892 71.203644 0.32446828
54.987694 71.104729 -0.95660758
54.989456 71.10334 -0.63943976
54.965786 71.122002 -0.32128218
54.913818 71.162964 0
54.859871 71.205498 0.32504883
54.99929 71.077972 -0.95446819
54.993084 71.082855 -0.6385746
54.985786 71.088593 -0.32026607
54.929729 71.132675 0
54.879768 71.171959 0.32403272
54.98671 71.070251 -0.95489573
54.988598 71.068771 -0.63828659
54.952702 71.096931 -0.32113662
54.921116 71.121704 0
54.895638 71.141693 0.32316217
54.998386 71.043541 -0.95275629
54.984131 71.054695 -0.63799858
54.968681 71.066788 -0.32026607
54.892025 71.12677 0
54.887016 71.130692 0.32316217
54.989483 71.015465 -0.9519012
54.991608 71.013809 -0.63626826
54.959839 71.038544 -0.31997553
54.924099 71.066376 0
54.873905 71.105453 0.32301718
54.981014 71.004578 -0.9519012
54.970879 71.012444 -0.63713342
54.967758 71.01487 -0.31939495
54.907352 71.061783 0
54.861225 71.09761 0.32316217
54.968502 70.996811 -0.95232874
54.982857 70.985695 -0.63569224
54.971603 70.994408 -0.31895995
54.911175 71.041229 0
54.864986 71.077011 0.32272661
54.984436 70.967056 -0.94976014
55.011257 70.946327 -0.63309789
54.97139 70.977135 -0.31866941
