# .PCD v0.7 - Point Cloud Data file format
VERSION 0.7
FIELDS x y z
SIZE 4 4 4
TYPE F F F
COUNT 1 1 1
WIDTH 1655
HEIGHT 1
VIEWPOINT 0 0 0 1 0 0 0
POINTS 1655
DATA ascii
71.264732 68.062683 -0.23246129
73.607651 69.372917 0
73.718269 69.434784 0.31097102
64 64 -0
69.683868 67.18763 -0.54321343
68.927322 66.763344 -0.31483859
64 64 -0
73.596619 69.381981 0
73.69809 69.438889 0.31053546
64 64 -0
69.711327 67.212105 -0.54620796
68.91497 66.764229 -0.31426254
64 64 -0
73.590103 69.39357 0
73.686989 69.448059 0.31039044
68.484116 66.529045 -0.84875077
64 64 -0
69.720863 67.226578 -0.54749227
68.902603 66.765076 -0.31368542
71.272591 68.101753 -0.23318686
73.601715 69.415382 0
73.680397 69.459763 0.31039044
68.524071 66.558792 -0.85689884
64 64 -0
69.739296 67.246124 -0.54963166
68.921783 66.783737 -0.3151277
64 64 -0
73.608757 69.434669 0
73.664742 69.466331 0.3100999
68.48658 66.544746 -0.85037917
64 64 -0
69.704124 67.235329 -0.54663712
68.886917 66.77182 -0.31310937
71.221977 68.096245 -0.23188074
73.615753 69.453972 0
73.644577 69.470322 0.30966491
68.500687 66.559944 -0.85363901
64 64 -0
69.731438 67.259979 -0.54963166
68.892548 66.782829 -0.31368542
71.235092 68.115242 -0.23246129
73.600121 69.460449 0
73.624405 69.474258 0.30922934
68.499138 66.56266 -0.85363901
64 64 -0
69.73394 67.265991 -0.55006087
68.926826 66.806267 -0.31599176
71.228088 68.117043 -0.2323163
73.614906 69.476555 0
73.630135 69.485222 0.30951989
69.617226 67.208511 -0.71653664
69.729988 67.272919 -0.55006087
68.932426 66.817352 -0.31656888
71.250175 68.141235 -0.23318686
73.612801 69.490746 0
73.632523 69.502007 0.30980989
69.617752 67.217819 -0.71709901
69.76165 67.300247 -0.55348295
68.902077 66.807884 -0.31483859
71.231636 68.142242 -0.23275129
73.628738 69.515289 0
73.625862 69.513641 0.30980989
69.746048 67.300537 -0.73398447
69.748764 67.302094 -0.55262786
68.876251 66.800926 -0.31339741
71.285202 68.184624 -0.23463796
73.667206 69.552849 0
73.610191 69.520096 0.30951989
68.349648 66.505432 -0.82756323
70.142769 67.538284 -0.78520536
69.811508 67.347481 -0.55904776
68.895279 66.819717 -0.31483859
71.329681 68.221962 -0.23623464
73.705589 69.5905 0
73.594498 69.526512 0.30922934
68.462181 66.577438 -0.84956497
70.393684 67.693115 -0.8178494
69.807457 67.3545 -0.55904776
68.93219 66.84893 -0.31743404
71.329071 68.233406 -0.23637964
73.671776 69.586601 0
73.578819 69.532906 0.30893934
68.441948 66.572914 -0.84630507
70.455185 67.739044 -0.82629323
69.914452 67.425835 -0.56974488
69.013779 66.904137 -0.32291076
71.382408 68.276123 -0.23826632
73.633499 69.580025 0
73.585609 69.552284 0.30937433
68.40464 66.558418 -0.8397854
70.446274 67.744293 -0.82573086
69.919189 67.438141 -0.57060164
69.148926 66.99073 -0.33184701
71.350281 68.269386 -0.23739576
77.276741 71.711746 0
73.578888 69.563866 0.30937433
68.486977 66.613503 -0.8560847
70.446129 67.754631 -0.82629323
70.043686 67.520226 -0.58301228
69.216827 67.038612 -0.33645967
71.354088 68.283485 -0.23768575
77.280891 71.735634 0
73.567673 69.572823 0.30922934
68.377106 66.556595 -0.83571136
70.454758 67.770111 -0.82798243
70.034996 67.52494 -0.58258474
69.481148 67.201439 -0.35375613
71.348907 68.292374 -0.23768575
77.262558 71.746429 0
73.574402 69.592239 0.30966491
68.446526 66.604347 -0.84956497
70.450195 67.777908 -0.82798243
70.066162 67.552979 -0.58600682
69.629028 67.296944 -0.36355752
71.370628 68.317009 -0.23855688
77.266663 71.77034 0
73.563156 69.601181 0.30951989
68.477478 66.629745 -0.8560847
70.454384 67.79084 -0.82910711
70.044151 67.549904 -0.58429497
69.642883 67.314224 -0.36471069
71.55809 68.439079 -0.24479745
77.270721 71.794266 0
73.58326 69.628517 0.31039044
68.448746 66.62011 -0.85119647
70.414764 67.778008 -0.82460403
69.995628 67.531151 -0.58001614
69.72802 67.373543 -0.37047651
71.794518 68.590622 -0.2526347
77.256805 71.807655 0
73.509277 69.600533 0.30821323
68.407257 66.602852 -0.84385943
70.414566 67.788338 -0.8251664
69.986938 67.535789 -0.57958853
69.74176 67.390984 -0.37162969
72.003738 68.726875 -0.25960085
77.247368 71.823669 0
73.529366 69.627884 0.30908433
68.387093 66.598099 -0.84059954
70.414375 67.798683 -0.82573086
69.951736 67.524704 -0.57659239
69.733208 67.395287 -0.37134168
72.029327 68.755081 -0.26061696
77.2379 71.839676 0
73.571732 69.66851 0.31068045
68.447708 66.641258 -0.85282481
70.409775 67.806427 -0.82573086
69.943062 67.529274 -0.57616484
69.689079 67.378441 -0.36874732
77.327263 71.91436 -0.43288818
77.264221 71.876923 0
73.663185 69.738457 0.3138738
68.453003 66.651688 -0.85445321
70.457565 67.845375 -0.8324855
69.947609 67.541702 -0.57701993
69.529427 67.292679 -0.35865682
77.304306 71.922485 -0.43245319
77.2547 71.892944 0
74.053627 69.986763 0.32679051
68.322479 66.581039 -0.83000576
70.426727 67.837532 -0.82910711
69.934517 67.543625 -0.57616484
69.294502 67.161461 -0.3436667
77.317032 71.951881 -0.43317872
77.263023 71.919632 0
74.434547 70.230682 0.33941668
68.404175 66.637054 -0.84630507
70.435173 67.853134 -0.8307963
69.921432 67.545525 -0.57530969
69.068779 67.034988 -0.32925266
64 64 -0
77.253448 71.935646 0
74.56076 70.323372 0.34377059
68.328949 66.599113 -0.83245146
70.434868 67.863518 -0.83135867
69.921539 67.555313 -0.57573724
69.034081 67.022476 -0.32723543
77.275505 71.970665 -0.43245319
77.239388 71.948982 0
74.602127 70.365562 0.34536725
68.313095 66.596695 -0.83000576
70.41713 67.863426 -0.82966948
73.651382 69.810608 -0.93906301
68.981667 66.999207 -0.32406393
77.279205 71.994736 -0.43288818
77.23423 71.967651 0
74.589981 70.375687 0.34522226
68.284569 66.586578 -0.82511759
70.421165 67.876434 -0.8307963
73.661934 69.832878 -0.94077486
68.924896 66.973145 -0.32060441
77.278442 72.016151 -0.43317872
77.220139 71.980949 0
74.591156 70.393845 0.34551227
68.285667 66.594315 -0.82593173
70.372993 67.857864 -0.8251664
64 64 -0
68.965561 67.005882 -0.32348791
77.268745 72.032188 -0.43317872
77.223831 72.004997 0
74.583427 70.406639 0.34551227
68.307892 66.614883 -0.83082312
70.346611 67.852386 -0.82235253
64 64 -0
68.917694 66.985039 -0.32060441
77.285683 72.064392 -0.43404928
74.344414 70.279045 0
74.589012 70.427513 0.3459478
68.241386 66.581535 -0.81859785
64 64 -0
68.93618 67.004417 -0.32204562
77.271492 72.077736 -0.43390429
74.287903 70.261765 0
74.678894 70.499741 0.34914061
68.179199 66.550606 -0.80718988
64 64 -0
68.906059 66.994217 -0.3203164
77.266151 72.096474 -0.43404928
74.227013 70.241653 0
74.715378 70.539711 0.35059172
68.224045 66.581482 -0.81615216
64 64 -0
68.917496 67.00528 -0.32118157
77.261261 72.104485 -0.43404928
74.112213 70.179977 0
74.782379 70.589539 0.35291395
68.237778 66.596916 -0.81941205
64 64 -0
68.905029 67.005806 -0.32060441
77.247032 72.11779 -0.43390429
74.033752 70.148689 0
74.925056 70.694885 0.35784841
68.251488 66.612381 -0.82267189
73.646439 69.927391 -0.9437694
68.927849 67.027985 -0.32233474
77.250496 72.141953 -0.43433985
73.981956 70.133553 0
75.005516 70.762497 0.36075121
68.23571 66.609749 -0.82022935
73.62178 69.928268 -0.94205755
68.919769 67.031219 -0.32204562
77.258347 72.168861 -0.4349204
74.027718 70.178375 0
74.984055 70.767609 0.36031565
68.169472 66.57589 -0.80800408
73.623352 69.94529 -0.94291431
68.911705 67.034439 -0.32175758
77.252884 72.187607 -0.43506542
74.188507 70.294434 0
74.577988 70.535057 0.34725392
68.199974 66.601753 -0.81452382
73.637985 69.970428 -0.9450537
68.934433 67.056725 -0.32348791
77.247398 72.206345 -0.43521041
74.260529 70.356079 0
74.397797 70.441109 0.34159392
68.184227 66.598999 -0.81207812
73.63076 69.982071 -0.9450537
68.930733 67.062683 -0.32348791
77.237473 72.222351 -0.43521041
74.124641 70.288841 0
74.345856 70.426247 0.34014225
68.126541 66.570084 -0.80148435
70.936043 68.319885 -0.90509278
73.627884 69.996414 -0.94548124
68.913849 67.060432 -0.32262275
77.227524 72.238342 -0.43521041
73.896133 70.16349 0
74.333672 70.435997 0.33999723
68.115051 66.569832 -0.79985601
64 64 -0
73.620628 70.008041 -0.94548124
68.923317 67.074593 -0.32348791
77.22197 72.257065 -0.4353554
73.773903 70.10376 0
74.334717 70.453987 0.3402878
68.107742 66.572174 -0.79903865
70.912651 68.328545 -0.90340358
73.617706 70.022385 -0.94590884
68.923981 67.083282 -0.32377592
77.234016 72.286835 -0.43608153
73.726807 70.090698 0
74.357727 70.485771 0.34130335
68.129761 66.592911 -0.80393004
70.881607 68.320686 -0.90002733
73.614784 70.036743 -0.946338
68.929001 67.094727 -0.32435197
74.468925 70.573021 -0.34522894
73.728264 70.107986 0
74.446716 70.559082 0.3444967
68.189362 66.637398 -0.81615216
70.867767 68.323578 -0.89890051
73.624863 70.059296 -0.9480499
73.44281 69.944687 -0.62185425
64 64 -0
73.760513 70.144691 0
74.649872 70.70459 0.35146284
68.056595 66.560669 -0.79089057
70.858246 68.329163 -0.89833814
73.621872 70.073662 -0.94847745
73.448746 69.964378 -0.62271935
64 64 -0
73.849907 70.217598 0
74.830719 70.836723 0.35770342
68.141212 66.621078 -0.80800408
70.840141 68.3293 -0.89665115
73.623199 70.090767 -0.94933254
64 64 -0
64 64 -0
73.930344 70.285172 0
74.857582 70.87204 0.35886452
68.100479 66.602249 -0.80067015
70.830605 68.334831 -0.89608663
73.615829 70.102394 -0.94933254
64 64 -0
64 64 -0
73.922745 70.297165 0
74.862434 70.893509 0.35930008
68.047287 66.575356 -0.79089057
70.812508 68.334908 -0.89439958
73.621445 70.122276 -0.9506169
64 64 -0
74.078278 70.412964 -0.33361834
73.919518 70.311943 0
74.854095 70.906631 0.35930008
68.119179 66.628098 -0.80555838
70.811546 68.345863 -0.89496195
73.605377 70.128372 -0.94976014
64 64 -0
73.833946 70.2742 -0.32578111
73.925049 70.332321 0
74.801926 70.891785 0.35784841
68.099342 66.622414 -0.80229855
68.55899 66.916458 -0.59946311
73.593643 70.137207 -0.94933254
64 64 -0
73.673149 70.188072 -0.32070163
73.952469 70.366753 0
74.723564 70.860031 0.35552675
68.108658 66.635376 -0.80474418
68.508408 66.891777 -0.59327084
73.620796 70.170967 -0.95275629
64 64 -0
73.64817 70.18853 -0.32012108
74.001717 70.415298 0
74.496552 70.732697 0.34827006
68.063904 66.613602 -0.79659611
68.432251 66.850494 -0.58370233
73.617645 70.185364 -0.95318383
73.489326 70.102837 -0.62877321
73.666901 70.217041 -0.32099164
74.011475 70.438644 0
74.47966 70.739754 0.34797949
68.016052 66.596573 -0.78844494
68.463753 66.886032 -0.58876777
64 64 -0
73.496262 70.139793 -0.63021439
73.69986 70.271431 -0.32258829
73.952164 70.434555 0
74.528809 70.807381 0.35015672
68.033653 66.614868 -0.79251897
68.468796 66.896957 -0.58989459
68.589417 66.975151 -0.45591301
73.501869 70.159706 -0.63107955
73.679192 70.274658 -0.32215273
73.918182 70.429588 0
74.533646 70.828575 0.35059172
68.032066 66.617302 -0.79251897
68.475563 66.905182 -0.59101927
68.557472 66.958351 -0.45291683
73.515503 70.176712 -0.63223273
73.657959 70.269188 -0.32157218
73.914299 70.435585 0
74.586197 70.871727 0.35247895
67.979202 66.589828 -0.7827425
68.453117 66.89827 -0.73294944
68.459267 66.902267 -0.58933008
68.588318 66.986259 -0.45634055
73.525368 70.199493 -0.6333859
73.659081 70.286514 -0.32186219
73.858521 70.416321 0
74.634506 70.921364 0.35436562
68.050583 66.64325 -0.79741031
68.449608 66.903648 -0.73294944
68.430229 66.890999 -0.58595389
64 64 -0
73.530853 70.219467 -0.63424999
73.742874 70.357826 -0.32490999
73.868202 70.439606 0
74.58696 70.908638 0.35305896
67.981201 66.604843 -0.78437084
68.383118 66.867813 -0.72256637
68.456505 66.915833 -0.58989459
64 64 -0
73.549316 70.247978 -0.63598025
73.92218 70.491943 -0.33115113
71.608711 68.978271 0
74.443802 70.833229 0.34856004
68.015244 66.634048 -0.79170477
68.29155 66.815308 -0.70803159
68.423233 66.901695 -0.58595389
64 64 -0
73.567703 70.276535 -0.63770944
74.075089 70.609383 -0.33652058
71.585281 68.976044 0
74.292145 70.751778 0.34377059
67.962502 66.6063 -0.7819252
68.338448 66.853584 -0.71633756
68.440948 66.920998 -0.58876777
68.599556 67.025322 -0.45890754
64 64 -0
74.110519 70.650116 -0.33797225
71.583611 68.98806 0
74.227539 70.727089 0.3418839
67.918091 66.583878 -0.77377707
68.385262 66.891968 -0.72464353
68.44165 66.929161 -0.58933008
64 64 -0
73.535233 70.288246 -0.63655633
74.111145 70.668045 -0.33826226
71.58194 69.000099 0
74.219406 70.739441 0.3418839
67.972679 66.626778 -0.78518504
68.385948 66.900032 -0.725335
68.412682 66.917709 -0.58595389
68.412369 66.917503 -0.44093373
73.53627 70.305473 -0.63713342
74.051064 70.645866 -0.33652058
71.5672 69.00351 0
74.198257 70.743195 0.3414489
67.99012 66.645241 -0.78926224
68.357353 66.888702 -0.72118336
68.404922 66.920235 -0.58539152
68.558617 67.022125 -0.45591301
73.537254 70.322708 -0.63770944
73.986717 70.620674 -0.33463392
71.548126 69.004013 0
74.159782 70.735405 0.34043279
67.912811 66.6008 -0.77459127
68.374748 66.907845 -0.72464353
68.38446 66.914307 -0.58313996
68.371101 66.905426 -0.43751001
73.533928 70.337097 -0.63799858
73.93544 70.603973 -0.33318278
71.537743 69.010254 0
74.142967 70.74192 0.34014225
68.020729 66.679543 -0.79659611
68.283554 66.854698 -0.71010876
68.385162 66.922417 -0.58370233
68.393234 66.927788 -0.44007862
73.547783 70.362953 -0.63943976
73.901497 70.598679 -0.33231169
71.549011 69.030907 0
74.156448 70.768585 0.34086835
67.947624 66.637718 -0.7827425
68.275932 66.857086 -0.70941728
68.360504 66.913597 -0.58088845
68.428108 66.958763 -0.44392991
73.544388 70.377357 -0.63972777
73.884888 70.604866 -0.33202168
71.542923 69.040024 0
74.178497 70.801056 0.3418839
68.022446 66.694748 -0.79822451
68.280807 66.867836 -0.71080029
68.394974 66.944321 -0.58595389
68.49704 67.012688 -0.45120496
73.54097 70.391762 -0.64001578
73.807816 70.570526 -0.32969946
71.554131 69.060722 0
74.183235 70.822029 0.34231946
67.928925 66.638977 -0.7802968
68.306503 66.892593 -0.71564609
68.357666 66.926956 -0.58145076
68.386848 66.946556 -0.44050619
73.554703 70.417702 -0.64145702
73.773994 70.564995 -0.32882887
71.975754 69.357155 0
74.131851 70.805359 0.34086835
67.954437 66.663055 -0.78600234
68.29467 66.892181 -0.7142604
68.375198 66.946411 -0.5842647
68.396065 66.960464 -0.44179049
73.538368 70.42347 -0.64088094
73.813454 70.608719 -0.33042499
72.21534 69.532494 0
74.106377 70.805984 0.3402878
67.873367 66.615273 -0.77051723
68.253754 66.872101 -0.70803159
68.388481 66.963074 -0.5865162
68.447792 67.00312 -0.44735366
73.552032 70.449463 -0.64232212
73.865768 70.661293 -0.33245724
72.264725 69.580276 0
74.093826 70.815277 0.34014225
67.902954 66.64212 -0.77703696
68.208733 66.849113 -0.70111132
68.313362 66.919945 -0.57694769
68.354881 66.948051 -0.43836677
73.548508 70.463898 -0.64261013
73.926575 70.719826 -0.33477947
72.154526 69.520233 0
74.081284 70.824554 0.33999723
68.022453 66.73011 -0.80148435
68.221893 66.865471 -0.70388001
68.339272 66.945137 -0.58088845
68.368309 66.964844 -0.44007862
73.540695 70.475426 -0.64261013
73.952827 70.75515 -0.33594003
72.005753 69.43364 0
74.081642 70.842575 0.3402878
67.884293 66.643196 -0.77459127
68.247459 66.89032 -0.70872313
68.318901 66.938942 -0.57863688
68.390182 66.987442 -0.44264561
73.549973 70.498589 -0.6437633
73.936073 70.76133 -0.33565003
71.981964 69.431595 0
74.099136 70.872284 0.34115836
67.938271 66.686897 -0.78600234
68.243958 66.895454 -0.70872313
68.315346 66.944153 -0.57863688
68.327202 66.952248 -0.4366549
73.529305 70.501389 -0.64289927
74.005165 70.826042 -0.33826226
72.048492 69.491096 0
74.103706 70.893272 0.34159392
68.02478 66.753044 -0.80393004
68.199051 66.872253 -0.70180285
68.328568 66.960846 -0.58088845
68.306686 66.945877 -0.43494302
73.551315 70.533333 -0.64491647
74.078407 70.893875 -0.34102005
72.080505 69.527267 0
74.095367 70.905479 0.34159392
67.919533 66.688011 -0.7835567
68.236954 66.905701 -0.70872313
68.320801 66.963203 -0.58032608
68.38356 67.006241 -0.44307315
73.530632 70.536102 -0.64405245
74.078636 70.911926 -0.34131005
72.030891 69.507584 0
74.087021 70.917671 0.34159392
67.883698 66.670341 -0.77703696
68.187973 66.879555 -0.70111132
68.317215 66.968422 -0.58032608
68.434929 67.049362 -0.44863796
73.539757 70.559326 -0.64520454
74.057426 70.91526 -0.34087449
71.826965 69.381645 0
74.078651 70.929855 0.34159392
67.856056 66.658203 -0.77214873
68.246445 66.927322 -0.71149176
68.334541 66.988052 -0.58313996
68.388962 67.025566 -0.44435748
73.548859 70.582588 -0.64635772
74.03624 70.918564 -0.3404395
74.250153 71.066032 0
74.083115 70.950882 0.34202945
68.045647 66.792503 -0.81044978
68.153831 66.867188 -0.69626552
68.299278 66.967575 -0.57863688
68.366013 67.013641 -0.44221807
73.53212 70.579552 -0.64549363
74.027771 70.921669 -0.34029391
74.254448 71.078133 0
74.091728 70.96582 0.34246448
67.867493 66.676445 -0.77540857
68.19162 66.900749 -0.70318586
68.304039 66.978546 -0.57976156
68.425697 67.062744 -0.44863796
73.528419 70.594002 -0.64578164
74.036491 70.94561 -0.34087449
74.263008 71.102364 0
74.100403 70.989838 0.34304503
67.872368 66.686745 -0.77703696
68.151009 66.880074 -0.69695705
68.317139 66.995331 -0.58201313
68.367142 67.030029 -0.44307315
73.541687 70.620255 -0.64722282
74.045174 70.969582 -0.34145504
74.228767 71.096962 0
74.130371 71.028694 0.34435114
67.80825 66.649078 -0.76481169
68.172249 66.902283 -0.70111132
68.313515 67.000549 -0.58201313
68.380341 67.047035 -0.44478503
73.5252 70.625877 -0.6466468
74.002609 70.95797 -0.34029391
74.160355 71.067703 0
74.134674 71.049835 0.3447867
64 64 -0
68.14817 66.892975 -0.69765121
68.280716 66.985413 -0.57807457
68.385086 67.058205 -0.44564179
73.525665 70.643295 -0.64722282
73.91748 70.91655 -0.33768171
74.117653 71.056152 0
74.134666 71.068016 0.34507671
64 64 -0
68.218674 66.94973 -0.71010876
68.256271 66.976021 -0.57525849
68.335098 67.031136 -0.44093373
73.534584 70.666656 -0.64837599
73.858002 70.892792 -0.33594003
74.096336 71.059433 0
74.100571 71.062393 0.34420615
64 64 -0
68.260292 66.986504 -0.71772057
68.281807 67.001579 -0.57919925
68.331436 67.036369 -0.44093373
73.522293 70.675201 -0.64808798
73.866692 70.916634 -0.33652058
74.06649 71.056694 0
73.977142 70.994057 0.3402878
67.880325 66.727135 -0.7819252
68.158173 66.922417 -0.70111132
68.274025 67.00383 -0.57863688
68.39917 67.091789 -0.44820878
73.526917 70.695633 -0.64895314
73.866837 70.934532 -0.33681113
74.053688 71.065849 0
73.883652 70.946342 0.337385
64 64 -0
68.15464 66.927437 -0.70111132
68.257919 67.000214 -0.57694769
68.290504 67.02317 -0.43751001
73.544189 70.725006 -0.65068233
73.871201 70.955429 -0.33724669
74.015366 71.057014 0
73.858253 70.946312 0.33680445
67.938324 66.782143 -0.79496461
68.204369 66.970085 -0.71010876
68.196198 66.96431 -0.56906843
68.387489 67.099449 -0.44778121
73.53183 70.733559 -0.65039432
73.90947 71.000328 -0.33884281
73.98558 71.0541 0
73.845612 70.955223 0.33665943
67.959167 66.804047 -0.79985601
68.135269 66.928764 -0.69903421
68.229927 66.995811 -0.57413381
68.312523 67.054306 -0.44050619
73.536339 70.754028 -0.65125841
73.930695 71.033325 -0.33985892
73.921822 71.027039 0
73.841438 70.970116 0.33680445
67.867096 66.745857 -0.7819252
68.148087 66.945381 -0.70180285
68.247017 67.015625 -0.57694769
68.338135 67.080322 -0.44350237
73.528175 70.765549 -0.65125841
73.947601 71.063362 -0.34072948
73.909081 71.036011 0
73.845726 70.991028 0.33724001
67.755058 66.673134 -0.75992346
68.160873 66.962029 -0.70457149
68.197845 66.988342 -0.57075763
68.342766 67.091515 -0.44435748
73.53685 70.789055 -0.65241158
73.917892 71.06031 -0.34000394
73.896339 71.044968 0
73.828796 70.996887 0.33694944
64 64 -0
68.157295 66.967056 -0.70457149
68.202499 66.999313 -0.57188231
68.322311 67.084824 -0.44264561
73.516022 70.791565 -0.65154749
73.947426 71.099457 -0.34131005
73.887817 71.056915 0
73.828804 71.014801 0.33724001
64 64 -0
68.100662 66.93412 -0.69557405
68.223656 67.022125 -0.57525849
68.243431 67.036278 -0.43494302
73.524635 70.815102 -0.65270066
73.85009 71.047974 -0.33826226
73.853897 71.050697 0
73.82032 71.026672 0.33724001
67.861824 66.770287 -0.7835567
68.117493 66.953697 -0.69903421
68.220001 67.027229 -0.57525849
68.264786 67.059349 -0.43751001
73.524788 70.832626 -0.65327668
73.731781 70.981117 -0.3344889
73.815758 71.041351 0
73.79071 71.023392 0.33651444
67.609665 66.596016 -0.73303038
68.130219 66.970383 -0.70180285
68.203979 67.02343 -0.5735715
68.356956 67.133453 -0.44735366
73.524933 70.850182 -0.65385383
73.638954 70.932182 -0.33158612
73.811462 71.056244 0
73.773773 71.029137 0.3362239
64 64 -0
68.106277 66.960709 -0.69834268
68.233299 67.052284 -0.57807457
68.373985 67.153725 -0.44949308
73.529228 70.87075 -0.65471786
73.609497 70.928627 -0.33086056
73.824036 71.083313 0
73.769485 71.043983 0.33636889
64 64 -0
68.094559 66.959778 -0.69695705
68.155464 67.003807 -0.56794155
68.303596 67.110886 -0.44264561
73.52092 70.882263 -0.65471786
73.613762 70.949371 -0.33129612
73.832344 71.107376 0
73.790451 71.077095 0.337385
64 64 -0
68.111305 66.979454 -0.70041984
68.188881 67.035675 -0.57300913
68.353874 67.155243 -0.44820878
73.52935 70.905899 -0.65587103
73.61377 70.967079 -0.33158612
73.827957 71.122299 0
73.861832 71.146851 0.34014225
64 64 -0
68.111755 66.987366 -0.70111132
68.197533 67.049683 -0.57469618
68.267006 67.100159 -0.43965107
73.541916 70.93261 -0.65731227
73.626358 70.993958 -0.33231169
73.81514 71.131119 0
73.949898 71.229027 0.34348059
64 64 -0
68.164917 67.033684 -0.71080029
68.210274 67.066719 -0.57694769
68.333801 67.1567 -0.44692612
73.529358 70.941093 -0.6570242
73.622116 71.008652 -0.33245724
73.802315 71.139908 0
73.991562 71.277756 0.34522226
64 64 -0
68.080208 66.979538 -0.69695705
68.202461 67.06881 -0.57638538
68.300957 67.140732 -0.44392991
73.512619 70.946503 -0.65644819
73.592659 71.004951 -0.33173168
73.80629 71.160957 0
73.940781 71.259171 0.34377059
64 64 -0
68.094604 66.993843 -0.69972569
68.225212 67.08934 -0.57976156
68.257622 67.113037 -0.43965107
73.529297 70.967514 -0.65788937
73.57164 70.998482 -0.33115113
73.801964 71.166885 0
73.79377 71.160889 0.33883613
64 64 -0
68.103134 67.00769 -0.70180285
68.176407 67.061409 -0.5735715
68.266266 67.127274 -0.44093373
73.52504 70.982079 -0.65817738
73.529648 70.985458 -0.32999
73.789085 71.175636 0
73.671951 71.089775 0.33491778
67.845703 66.826141 -0.78681654
68.107574 67.018585 -0.70318586
68.160416 67.057419 -0.57188231
68.229385 67.108101 -0.43751001
73.533264 71.005836 -0.65933055
73.525383 71.000046 -0.33013499
73.780411 71.187462 0
73.629883 71.076836 0.33375666
67.7229 66.742828 -0.76236916
68.083725 67.008667 -0.69972569
68.168999 67.071487 -0.5735715
68.250435 67.131493 -0.44007862
73.528954 71.020416 -0.65961856
73.542015 71.030037 -0.33100557
73.805244 71.223969 0
73.717545 71.159355 0.33709446
67.914398 66.89122 -0.80229855
68.072021 67.007645 -0.69834268
68.144844 67.061432 -0.57075763
68.230133 67.12442 -0.43836677
73.528793 71.038078 -0.66019571
73.546059 71.050827 -0.3314411
73.892807 71.306938 0
73.746521 71.198891 0.33840111
67.910904 66.89595 -0.80229855
64 64 -0
68.177895 67.093651 -0.57582301
68.312996 67.193687 -0.44735366
73.528595 71.05574 -0.66077173
73.545891 71.06855 -0.33173168
73.938347 71.359154 0
74.046852 71.439499 0.34914061
67.780403 66.806396 -0.77622277
64 64 -0
68.170067 67.095657 -0.57525849
68.337982 67.220314 -0.4503482
73.524208 71.070328 -0.6610598
73.528992 71.073875 -0.3314411
73.896011 71.346336 0
74.250656 71.609604 0.35654229
67.907867 66.908348 -0.80311584
64 64 -0
68.12149 67.067329 -0.56906843
68.235252 67.152 -0.44007862
73.511513 71.078743 -0.66077173
73.537109 71.097794 -0.33202168
73.849556 71.330322 0
74.308159 71.671631 0.35886452
67.71418 66.771179 -0.7639975
64 64 -0
68.158501 67.102692 -0.57469618
68.28904 67.200089 -0.44606936
73.515396 71.099518 -0.66163689
73.524368 71.106209 -0.33187667
73.824005 71.329765 0
74.282219 71.671646 0.35828397
67.837494 66.870415 -0.79007638
64 64 -0
68.122192 67.083366 -0.57019311
68.223511 67.159149 -0.43965107
73.49852 71.104805 -0.6610598
73.528244 71.127045 -0.33231169
73.785957 71.319809 0
74.268784 71.680954 0.35813898
67.936844 66.952148 -0.81126392
64 64 -0
68.118469 67.088341 -0.57019311
68.277191 67.207367 -0.44564179
70.344749 68.757782 -0.44196972
73.527954 71.144791 -0.33260223
73.785446 71.337875 0
74.280281 71.708946 0.35886452
67.779182 66.841064 -0.77948266
64 64 -0
68.135056 67.108597 -0.57300913
68.228165 67.178596 -0.44093373
70.338997 68.765442 -0.44196972
73.502693 71.143806 -0.33202168
73.784882 71.355942 0
74.320808 71.758835 0.36060619
67.602051 66.714722 -0.74362415
64 64 -0
68.123169 67.107468 -0.57188231
68.224327 67.183701 -0.44093373
70.316711 68.760651 -0.44081655
73.469162 71.13652 -0.33115113
73.763527 71.358376 0
74.357063 71.805695 0.36220232
67.866951 66.9217 -0.79903865
64 64 -0
68.135628 67.124695 -0.57413381
68.277832 67.23214 -0.44692612
70.298569 68.758919 -0.43995139
70.330132 68.782768 -0.22157626
73.717239 71.341919 0
74.413971 71.868332 0.36452454
67.879578 66.945992 -0.80311584
64 64 -0
68.11998 67.12854 -0.57300913
68.163689 67.161736 -0.43579814
70.262337 68.755363 -0.4382222
70.359932 68.829468 -0.22302736
73.703629 71.368538 0
74.365959 71.871483 0.363509
64 64 -0
64 64 -0
68.136414 67.148911 -0.57582301
68.204803 67.200974 -0.44050619
70.235992 68.747246 -0.43677992
70.329292 68.818268 -0.22215681
70.377541 68.855003 0
74.339905 71.871414 0.36292845
67.856728 66.943359 -0.79985601
68.032249 67.077316 -0.69972569
68.120476 67.144653 -0.57413381
68.200935 67.206055 -0.44050619
70.230255 68.754776 -0.43677992
70.311066 68.816452 -0.22172125
70.396507 68.88166 0
74.305588 71.864975 0.36205733
67.692207 66.824867 -0.76644319
68.024551 67.07914 -0.69903421
68.120712 67.15271 -0.57469618
68.233749 67.239197 -0.44435748
70.203964 68.74659 -0.43533871
70.29287 68.814613 -0.22128625
70.357529 68.864082 0
74.246552 71.839531 0.36031565
67.818222 66.928604 -0.79333627
68.008881 67.074837 -0.69695705
68.124969 67.163879 -0.57582301
68.213539 67.231812 -0.44264561
70.190025 68.747795 -0.43476269
70.270554 68.809563 -0.22070569
70.339256 68.862251 0
70.361076 68.87899 0.22389179
67.665779 66.818718 -0.76236916
68.025055 67.094978 -0.70041984
68.12114 67.168861 -0.57582301
68.209633 67.2369 -0.44264561
70.171974 68.745804 -0.43389753
70.26474 68.817131 -0.22070569
70.316872 68.857216 0
70.388138 68.912018 0.22505291
67.701515 66.853317 -0.77051723
68.009392 67.090645 -0.69834268
68.113274 67.170731 -0.57525849
68.201653 67.238853 -0.44221807
70.14576 68.737473 -0.43245634
70.250671 68.818352 -0.22041513
70.306877 68.861671 0
70.353378 68.897522 0.2240368
67.881889 66.999847 -0.80881828
68.001686 67.092422 -0.69765121
68.08532 67.157059 -0.57188231
68.124619 67.187431 -0.43451548
70.14003 68.744896 -0.43245634
70.224289 68.810013 -0.21968958
70.272163 68.847008 0
70.335121 68.895653 0.22360124
67.815735 66.9561 -0.79577881
68.009834 67.106468 -0.69972569
68.105598 67.180656 -0.57525849
68.222229 67.271011 -0.44521424
70.130203 68.749146 -0.43216833
70.214371 68.814346 -0.21954457
70.249847 68.841827 0
70.308662 68.887398 0.22287567
67.743652 66.90387 -0.781111
67.992096 67.096588 -0.69695705
68.107704 67.186264 -0.57582301
68.216187 67.270409 -0.44478503
70.115067 68.743332 -0.43130317
70.195038 68.805359 -0.21896403
70.242813 68.842422 0
70.297501 68.884842 0.22258568
67.751846 66.917503 -0.7835567
67.984398 67.098335 -0.69626552
68.11187 67.197456 -0.57694769
68.208183 67.272354 -0.44435748
70.093002 68.738014 -0.43015
70.17691 68.803268 -0.21852846
70.228729 68.843559 0
70.279282 68.882874 0.22215012
67.732727 66.909874 -0.7802968
67.980652 67.103142 -0.69626552
68.083961 67.183685 -0.5735715
68.151588 67.236404 -0.43879431
70.062798 68.726303 -0.42842081
70.146523 68.791565 -0.21765791
70.202347 68.835091 0
70.248795 68.871292 0.22127956
67.849937 67.008736 -0.80555838
68.012474 67.135757 -0.70249432
68.116142 67.216774 -0.57863688
68.171936 67.260376 -0.44136131
70.061157 68.736801 -0.42870882
70.128441 68.789383 -0.21722235
70.188309 68.836174 0
70.230614 68.86924 0.220844
64 64 -0
67.984993 67.12204 -0.69834268
68.072258 67.190414 -0.57300913
68.163956 67.262253 -0.44093373
70.026917 68.721786 -0.42669049
70.114456 68.790375 -0.21693179
70.16198 68.827599 0
70.220642 68.873558 0.220699
67.729919 66.929489 -0.7819252
67.977272 67.123756 -0.69765121
68.088379 67.211021 -0.57582301
68.143867 67.254601 -0.43922186
70.009003 68.719482 -0.42582536
70.104584 68.794548 -0.21678679
70.147949 68.828606 0
70.210663 68.877869 0.22055399
67.807938 66.998207 -0.79903865
67.985313 67.137863 -0.69972569
68.08049 67.212807 -0.57525849
68.148003 67.265961 -0.44007862
70.00737 68.72995 -0.42611447
70.074295 68.782639 -0.21591623
70.133934 68.829597 0
70.200668 68.882141 0.22040844
64 64 -0
67.969711 67.133362 -0.69765121
68.044708 67.192558 -0.57075763
68.115845 67.248703 -0.43708244
69.997574 68.733986 -0.42582536
70.056267 68.780312 -0.21548067
70.111755 68.824104 0
70.174377 68.873535 0.21968289
67.672775 66.906189 -0.77214873
67.965927 67.138153 -0.69765121
68.068733 67.219505 -0.57469618
68.136078 67.272797 -0.43965107
69.995918 68.744446 -0.42611447
70.066788 68.800522 -0.21606123
70.093674 68.821793 0
70.164413 68.877769 0.21953788
67.611168 66.864548 -0.75992346
67.969986 67.149178 -0.69903421
68.03299 67.199158 -0.57019311
68.192444 67.325638 -0.44606936
69.986122 68.748466 -0.42582536
70.032478 68.78524 -0.21504511
70.079689 68.822693 0
70.142227 68.872299 0.21895732
64 64 -0
67.95047 67.141479 -0.69626552
68.045036 67.216675 -0.57244462
68.124123 67.279572 -0.43922186
69.996574 68.768578 -0.4269785
70.038902 68.802231 -0.21548067
70.069771 68.826782 0
70.132271 68.87648 0.21881233
64 64 -0
67.974136 67.168144 -0.70111132
68.041145 67.221565 -0.57244462
68.124184 67.287766 -0.43965107
69.986763 68.772598 -0.42669049
70.016838 68.79657 -0.21490012
70.039528 68.814659 0
70.114182 68.874168 0.21837677
67.913528 67.127571 -0.82593173
67.962456 67.166672 -0.69972569
68.041229 67.22963 -0.57300913
68.152283 67.318375 -0.44307315
69.980995 68.779823 -0.42669049
70.027275 68.816811 -0.21548067
70.033707 68.821953 0
70.083931 68.862091 0.21750621
64 64 -0
67.939056 67.155777 -0.69626552
68.029381 67.228149 -0.57188231
68.100204 67.284882 -0.4379392
69.983299 68.793526 -0.42726764
70.025505 68.827339 -0.21562567
70.011627 68.816223 0
70.082108 68.872688 0.21765122
64 64 -0
67.91568 67.144829 -0.69280541
68.017563 67.226654 -0.57075763
68.144249 67.3284 -0.44307315
69.973457 68.797501 -0.4269785
70.027779 68.841133 -0.21591623
70.001747 68.820221 0
70.072166 68.876778 0.21750621
67.786659 67.048744 -0.80148435
67.919685 67.155846 -0.69418842
68.025528 67.241058 -0.57244462
68.128242 67.323753 -0.44179049
69.975723 68.811211 -0.42755565
70.013824 68.841888 -0.21562567
69.983749 68.817673 0
70.050079 68.871078 0.21692565
64 64 -0
67.927589 67.170036 -0.69626552
68.025574 67.249123 -0.57300913
68.116219 67.322289 -0.44093373
69.986008 68.831421 -0.42870882
70.028183 68.865463 -0.21635123
70.018417 68.85759 0
70.040131 68.875114 0.2167801
64 64 -0
67.943253 67.190559 -0.69972569
68.033485 67.263565 -0.57469618
68.072296 67.294968 -0.4366549
69.968094 68.828888 -0.42784366
70.022301 68.872749 -0.21635123
69.996361 68.851761 0
70.042328 68.888947 0.21707065
64 64 -0
67.943306 67.198486 -0.70041984
68.021652 67.262039 -0.5735715
68.116165 67.338699 -0.44179049
69.96627 68.839355 -0.42813167
70.032555 68.893112 -0.21693179
69.982414 68.852448 0
70.020271 68.883148 0.21649009
64 64 -0
67.94722 67.209579 -0.70180285
68.037415 67.282921 -0.57638538
68.064323 67.304802 -0.4366549
69.984505 68.866142 -0.42986199
70.018578 68.893852 -0.21664178
69.972519 68.856392 0
70.010338 68.887146 0.2163451
64 64 -0
67.92778 67.20166 -0.69903421
68.049202 67.300644 -0.57863688
68.12001 67.35836 -0.44307315
69.962585 68.860298 -0.42870882
70.016685 68.904396 -0.21678679
70.006981 68.896484 0
69.99234 68.884552 0.21590954
64 64 -0
67.916145 67.200066 -0.69765121
68.049141 67.308746 -0.57919925
68.104034 67.3536 -0.44179049
69.97673 68.883865 -0.43015
70.026848 68.92482 -0.21736735
69.980911 68.887276 0
69.982414 68.888504 0.21576454
67.906044 67.199692 -0.83245146
67.923904 67.214325 -0.69972569
68.009766 67.284653 -0.57413381
68.095993 67.355293 -0.44136131
69.974823 68.894356 -0.43043801
70.016876 68.92881 -0.21722235
70.015259 68.927475 0
69.964432 68.885849 0.21532898
64 64 -0
67.914215 67.210335 -0.69834268
68.02742 67.303185 -0.57694769
68.117798 67.377304 -0.44392991
69.979874 68.904533 -0.43101516
70.017914 68.93573 -0.21736735
69.984123 68.908012 0
69.98558 68.909218 0.21619953
64 64 -0
67.918076 67.221428 -0.69972569
68.015587 67.301598 -0.57582301
68.12561 67.392067 -0.44521424
69.977936 68.915039 -0.43130317
70.011948 68.943001 -0.21736735
70.018379 68.948296 0
69.983673 68.919754 0.2163451
64 64 -0
67.921928 67.232552 -0.70111132
68.015511 67.309677 -0.57638538
68.113579 67.390511 -0.44435748
69.971992 68.922256 -0.43130317
69.997955 68.943657 -0.21707734
70.008385 68.952255 0
70.001778 68.946808 0.21721566
64 64 -0
67.906418 67.227692 -0.69903421
68.038933 67.337189 -0.58032608
68.061981 67.356232 -0.43922186
69.966042 68.929466 -0.43130317
70.016006 68.970757 -0.2179479
70.010414 68.966133 0
69.999802 68.957367 0.21736066
64 64 -0
67.910248 67.238823 -0.70041984
68.019249 67.329102 -0.57807457
68.069794 67.370964 -0.44050619
69.979996 68.953171 -0.43274435
70.014 68.981331 -0.2180929
69.984375 68.956795 0
69.977798 68.951347 0.2167801
64 64 -0
67.894745 67.233925 -0.69834268
68.011299 67.330704 -0.57751006
68.045967 67.359489 -0.43836677
69.966049 68.953789 -0.43216833
70.015976 68.995247 -0.21838346
69.986397 68.97068 0
69.963821 68.951935 0.21649009
64 64 -0
67.894691 67.241837 -0.69903421
68.015091 67.342056 -0.57863688
68.08136 67.397209 -0.44264561
69.968002 68.967606 -0.43274435
70.005951 68.999191 -0.21823846
70.000381 68.994553 0
69.981789 68.97908 0.21736066
64 64 -0
67.898483 67.252975 -0.70041984
67.979836 67.320854 -0.57413381
68.053604 67.382416 -0.44007862
69.965965 68.978127 -0.43303236
70.003891 69.009766 -0.21838346
69.994347 69.001801 0
69.99173 68.999619 0.21794121
64 64 -0
67.902237 67.264114 -0.70180285
68.007004 67.351746 -0.57863688
68.077072 67.410355 -0.44307315
69.955986 68.982018 -0.43274435
70.001816 69.020348 -0.21852846
69.95636 68.982323 0
69.969742 68.993523 0.21736066
64 64 -0
67.879074 67.252708 -0.69834268
67.987373 67.343521 -0.57638538
68.057213 67.402084 -0.44136131
69.953918 68.992531 -0.43303236
70.003716 69.034279 -0.21881902
69.958298 68.996201 0
69.97963 69.014084 0.21794121
64 64 -0
67.878975 67.26062 -0.69903421
67.987221 67.351608 -0.57694769
68.076683 67.426811 -0.44392991
73.515495 71.998611 -0.6927703
69.989662 69.034836 -0.21852846
69.940315 68.993362 0
69.985504 69.031342 0.21837677
64 64 -0
67.878868 67.268532 -0.69972569
67.994827 67.366249 -0.57863688
68.02935 67.39534 -0.43922186
73.505821 72.010101 -0.6927703
69.999474 69.055466 -0.21910901
69.974075 69.034065 0
69.979424 69.038574 0.21837677
64 64 -0
67.859581 67.260269 -0.69695705
67.963577 67.348114 -0.57469618
68.052704 67.423401 -0.44221807
73.507996 72.031601 -0.6936354
70.001289 69.069412 -0.21939902
69.952087 69.027847 0
69.961418 69.035728 0.21794121
64 64 -0
67.874794 67.281151 -0.70041984
67.963402 67.356186 -0.57525849
68.056396 67.434929 -0.44307315
73.52198 72.063141 -0.69536573
73.758698 72.263596 -0.35712954
69.953941 69.041756 0
69.947403 69.036217 0.21765122
64 64 -0
67.863174 67.279327 -0.69903421
67.963234 67.364265 -0.57582301
68.071823 67.456444 -0.44521424
73.516167 72.077988 -0.69565374
73.760597 72.285477 -0.3575651
69.959755 69.059052 0
69.96508 69.063576 0.21852177
64 64 -0
67.859207 67.283997 -0.69903421
67.970764 67.378922 -0.57751006
68.020721 67.42144 -0.44007862
73.518219 72.099541 -0.6965189
73.766411 72.310738 -0.35814565
76.791237 74.88472 0
69.962906 69.074142 0.21866676
64 64 -0
67.832336 67.269127 -0.69488257
67.962814 67.380424 -0.57694769
68.016586 67.426292 -0.44007862
73.516296 72.117744 -0.69709492
73.760315 72.325905 -0.35829067
74.168602 72.674187 0
69.95282 69.077972 0.21852177
64 64 -0
67.881767 67.319397 -0.70457149
67.954872 67.381912 -0.57638538
68.035843 67.451157 -0.44264561
73.514351 72.135963 -0.69767207
73.754189 72.341064 -0.35843566
74.098785 72.635735 0
74.109474 72.644875 0.37149125
64 64 -0
67.881561 67.327347 -0.70526296
67.954636 67.389992 -0.57694769
68.051163 67.472733 -0.44478503
73.504509 72.147461 -0.69767207
73.752007 72.359612 -0.35872623
74.104149 72.661484 0
74.166092 72.714584 0.37395847
64 64 -0
67.839485 67.299339 -0.69834268
67.958252 67.401398 -0.57807457
68.050865 67.480988 -0.44521424
73.486801 72.152184 -0.69709492
73.761597 72.388321 -0.35945177
64 64 0
74.17131 72.740395 0.37453848
64 64 -0
67.824089 67.294151 -0.69626552
67.950279 67.402855 -0.57751006
68.038872 67.479172 -0.44435748
73.512215 72.194023 -0.69968927
73.755394 72.403503 -0.35959679
64 64 0
74.215874 72.800171 0.3765707
67.735573 67.225769 -0.81370962
67.850487 67.325005 -0.70180285
67.938477 67.400986 -0.57638538
68.011353 67.463921 -0.44179049
73.517967 72.21904 -0.70084244
73.75309 72.422066 -0.3598868
74.076622 72.701447 0
74.165894 72.778534 0.37511903
67.668137 67.175285 -0.79985601
67.819908 67.306664 -0.69695705
67.938202 67.409065 -0.57694769
68.003273 67.465393 -0.44136131
73.519768 72.240692 -0.7017076
73.742905 72.433846 -0.3598868
74.018875 72.672737 0
74.076706 72.722801 0.37221679
64 64 -0
67.812126 67.307991 -0.69626552
67.945602 67.42382 -0.57863688
67.995209 67.466866 -0.44093373
73.51371 72.255577 -0.70199561
73.732712 72.445618 -0.3598868
73.99659 72.674599 0
73.999435 72.677071 0.36974958
64 64 -0
67.832855 67.330048 -0.70041984
67.935852 67.419525 -0.57751006
68.031876 67.50296 -0.44521424
73.516541 72.268112 -0.70257276
73.751152 72.471947 -0.36075789
73.97171 72.663574 0
73.915726 72.614937 0.36684677
64 64 -0
67.825035 67.331367 -0.69972569
67.931717 67.424278 -0.57751006
68.012154 67.494339 -0.44350237
73.522125 72.293182 -0.7037248
73.627258 72.38475 -0.35654899
73.937691 72.655113 0
73.862198 72.589363 0.36525011
67.87809 67.385818 -0.84875077
67.855019 67.365685 -0.70595449
67.931412 67.432381 -0.57807457
68.031128 67.51944 -0.44606936
73.516006 72.308098 -0.70401394
73.507507 72.300674 -0.35248509
76.730537 75.114586 0
73.84008 72.591034 0.36481512
67.754959 67.286331 -0.82267189
67.843407 67.363739 -0.70457149
67.927261 67.437126 -0.57807457
67.995964 67.497253 -0.44264561
73.513741 72.326393 -0.70458996
73.399704 72.226593 -0.34885675
76.728851 75.140244 0
73.817963 72.592644 0.36437955
67.765846 67.303902 -0.82593173
67.831787 67.361755 -0.70318586
67.919281 67.438507 -0.57751006
68.018753 67.525787 -0.44564179
73.519226 72.351532 -0.70574313
73.3507 72.203674 -0.34740561
76.70755 75.14875 0
73.815376 72.611351 0.36466956
67.702461 67.256218 -0.81289232
67.7976 67.33989 -0.69765121
67.915123 67.443245 -0.57751006
68.010643 67.527252 -0.44521424
73.516907 72.369865 -0.70632029
73.403221 72.269882 -0.34972787
73.786301 72.606796 0
73.816673 72.633499 0.36510512
67.728188 67.286842 -0.81941205
67.831192 67.377647 -0.70457149
67.926201 67.461418 -0.57976156
67.99482 67.521904 -0.44392991
73.518417 72.391609 -0.70718431
73.482872 72.360275 -0.35306564
73.787613 72.628944 0
73.810127 72.648788 0.36525011
67.712845 67.289291 -0.81778365
67.796722 67.363602 -0.69972569
67.917831 67.470894 -0.57976156
67.986298 67.531548 -0.44392991
73.517464 72.43174 -0.7086255
73.715485 72.607162 -0.36249956
73.755043 72.642212 0
73.808662 72.689713 0.36597621
67.75322 67.333168 -0.82756323
67.818924 67.39151 -0.70457149
67.902245 67.465508 -0.57807457
67.978195 67.532959 -0.44350237
73.507271 72.44323 -0.7086255
73.73616 72.646507 -0.36366069
73.771835 72.678192 0
73.802032 72.705009 0.36612123
67.834099 67.413284 -0.84630507
67.796082 67.379448 -0.70111132
67.894249 67.466835 -0.57751006
68.027596 67.585548 -0.44949308
73.512512 72.468468 -0.70977867
73.737335 72.668617 -0.36409569
73.79245 72.717682 0
73.795387 72.720299 0.36626622
67.745155 67.342224 -0.82756323
67.792 67.384033 -0.70111132
67.901436 67.481689 -0.57919925
67.984962 67.556236 -0.44521424
73.506149 72.483414 -0.71006781
73.734619 72.687309 -0.36438623
73.770248 72.719101 0
73.792587 72.739044 0.36655623
67.726372 67.333565 -0.82430339
67.776688 67.378571 -0.69903421
67.89344 67.483017 -0.57863688
67.984489 67.564468 -0.44564179
73.507446 72.505234 -0.71093184
73.716362 72.692123 -0.36409569
73.767456 72.737839 0
73.782028 72.75087 0.36655623
67.748093 67.36116 -0.83000576
67.817429 67.423332 -0.70734012
67.881653 67.480927 -0.57751006
67.983994 67.572708 -0.44606936
73.504868 72.523628 -0.71150899
73.732941 72.728149 -0.3651118
73.780151 72.770493 0
73.790802 72.780037 0.36728233
67.758736 67.378906 -0.83326566
67.813286 67.42794 -0.70734012
67.888786 67.495811 -0.57919925
67.98732 67.584389 -0.44692612
73.498405 72.538559 -0.711797
73.737846 72.753799 -0.36569235
73.777283 72.789253 0
73.768585 72.781433 0.36684677
67.725273 67.356972 -0.82674593
67.80542 67.429192 -0.70664865
67.910988 67.524323 -0.58313996
67.975349 67.582321 -0.44606936
73.499619 72.560425 -0.71266216
73.723404 72.762085 -0.36554736
73.758926 72.794098 0
73.773407 72.807152 0.36742735
67.728561 67.368103 -0.82837743
67.782646 67.416962 -0.70318586
67.876556 67.501793 -0.57863688
67.951973 67.569916 -0.44392991
73.500786 72.582298 -0.71352732
73.724365 72.784271 -0.36598235
73.756012 72.812859 0
73.766617 72.822433 0.36757234
67.684174 67.336105 -0.81941205
67.815712 67.455215 -0.71010876
67.876091 67.509888 -0.57919925
67.955261 67.581573 -0.44478503
73.486565 72.590294 -0.71323818
73.73687 72.816948 -0.36685348
73.768517 72.845604 0
73.763657 72.841209 0.36786291
67.797264 67.446869 -0.84549093
67.774376 67.426086 -0.70318586
67.871841 67.514565 -0.57919925
67.985153 67.617416 -0.44863796
73.506821 72.629562 -0.71554452
73.733894 72.835686 -0.36714348
73.738556 72.839912 0
73.764503 72.863472 0.3682979
67.727295 67.391579 -0.83082312
67.781372 67.440781 -0.70526296
67.882629 67.532921 -0.58145076
67.939011 67.584221 -0.44392991
73.496384 72.641045 -0.71554452
73.730904 72.854446 -0.36743402
73.766357 72.886703 0
73.749947 72.871765 0.36815289
67.737801 67.409409 -0.83408296
67.777206 67.445351 -0.70526296
67.863342 67.523911 -0.57919925
67.949844 67.602814 -0.44564179
73.501221 72.666458 -0.71669769
73.739395 72.883705 -0.36815959
73.759453 72.902 0
73.75074 72.894051 0.36858845
67.759209 67.437256 -0.8397854
67.761932 67.439751 -0.70318586
67.877831 67.545723 -0.58201313
68.002312 67.659546 -0.45206007
73.502197 72.688408 -0.71756285
73.740166 72.905991 -0.36859515
73.73716 72.903244 0
73.74382 72.909332 0.36873347
67.693108 67.385017 -0.82593173
67.783669 67.468025 -0.70803159
67.858559 67.536667 -0.57976156
67.98275 67.650505 -0.4503482
73.510757 72.717354 -0.71900403
73.74855 72.935303 -0.36932072
73.734077 72.922043 0
73.744545 72.931633 0.36916903
67.758179 67.453026 -0.8414169
67.761002 67.455627 -0.70457149
67.884216 67.568832 -0.5842647
67.970779 67.648369 -0.44949308
73.507828 72.735832 -0.71958005
73.733917 72.943565 -0.3691757
73.730949 72.940834 0
73.741386 72.950424 0.369459
67.754005 67.457565 -0.8414169
67.778961 67.48056 -0.70872313
67.861214 67.556313 -0.58145076
67.973915 67.660118 -0.4503482
73.497269 72.747314 -0.71958005
73.723106 72.955322 -0.3691757
73.727798 72.959648 0
64 64 0
67.773712 67.479935 -0.84630507
67.776863 67.482841 -0.70872313
67.866547 67.565544 -0.58257765
67.983032 67.672958 -0.4516325
73.511009 72.770599 -0.72102237
73.736794 72.978806 -0.36990127
73.737694 72.979637 0
73.721336 72.964554 0.36931401
67.740463 67.457649 -0.8397854
67.768967 67.484001 -0.70803159
67.851036 67.55986 -0.58088845
67.971054 67.670807 -0.45077741
73.504196 72.785591 -0.72131038
73.729752 72.994087 -0.37004626
73.726837 72.991394 0
73.725761 72.990402 0.36989456
67.823303 67.542801 -0.85934454
67.768433 67.491959 -0.70872313
67.854179 67.571411 -0.58201313
67.981682 67.68956 -0.45248926
73.504959 72.807617 -0.72217554
73.73793 73.023499 -0.37077183
73.727425 73.013756 0
73.741577 73.026871 0.37091067
67.782806 67.513779 -0.85119647
67.760536 67.493095 -0.70803159
67.838699 67.565704 -0.58032608
67.984741 67.701355 -0.45334437
73.505669 72.829651 -0.72303957
73.734642 73.042336 -0.37106237
73.735588 73.043213 0
73.745895 73.052788 0.37149125
67.738762 67.481293 -0.84223104
67.793045 67.531837 -0.71495456
67.84182 67.577255 -0.58145076
67.991539 67.71666 -0.45462871
73.498795 72.844666 -0.72332871
73.738922 73.06826 -0.37164295
73.747505 73.076248 0
73.734947 73.06456 0.37149125
67.73455 67.485809 -0.84223104
67.774101 67.52272 -0.71218592
67.856064 67.599228 -0.5842647
68.00206 67.735497 -0.45634055
73.495651 72.86319 -0.72390473
73.73175 73.083557 -0.37178794
73.725113 73.077362 0
73.742981 73.09404 0.37221679
67.744774 67.50383 -0.84549093
67.751511 67.510132 -0.70872313
67.833168 67.586533 -0.58145076
67.98629 67.729805 -0.45505625
73.4925 72.881729 -0.72448188
73.74353 73.116608 -0.37265849
64 64 0
73.739563 73.1129 0.3725068
67.704475 67.474525 -0.8373397
67.750938 67.518105 -0.70941728
67.843658 67.605064 -0.58370233
67.929359 67.685455 -0.44906554
73.500626 72.910881 -0.72592306
73.732513 73.12838 -0.37265849
73.703148 73.10083 0
73.751297 73.145996 0.37337792
67.703888 67.482399 -0.838157
67.743019 67.519188 -0.70872313
67.820786 67.592308 -0.58088845
67.924904 67.690193 -0.44906554
73.497375 72.929436 -0.72649908
73.725258 73.143684 -0.37280351
73.711113 73.130386 0
73.751587 73.168442 0.37381291
67.652916 67.442795 -0.82756323
67.760681 67.544357 -0.71287739
67.849724 67.628281 -0.58595389
67.931641 67.70549 -0.4503482
73.48658 72.940903 -0.72649908
73.744453 73.183945 -0.37396461
73.700073 73.142113 0
73.744293 73.183792 0.37395847
67.673897 67.470963 -0.83326566
67.749092 67.542 -0.71149176
67.815788 67.605011 -0.58145076
67.904778 67.689087 -0.44778121
73.490814 72.966568 -0.72765225
73.740913 73.202858 -0.37425518
73.700363 73.164543 0
73.733192 73.195564 0.37395847
67.759422 67.560371 -0.85363901
67.722954 67.525833 -0.70734012
67.796669 67.595642 -0.57919925
67.948776 67.7397 -0.45334437
73.491241 72.988708 -0.72851741
73.737328 73.221764 -0.37454516
73.700623 73.186996 0
73.733383 73.218025 0.37439349
67.78022 67.588737 -0.85934454
67.736885 67.5476 -0.71080029
67.836548 67.642212 -0.58595389
67.98893 67.78688 -0.45848
73.491631 73.010857 -0.72938257
73.699806 73.208481 -0.37352961
73.712151 73.220207 0
73.737312 73.244095 0.37497404
67.740074 67.559235 -0.85119647
67.736229 67.555573 -0.71149176
67.832146 67.646851 -0.58595389
68.040131 67.84478 -0.46489826
73.495712 73.036568 -0.73053461
73.730072 73.259598 -0.37512574
73.708557 73.23912 0
73.752495 73.28093 0.37599015
67.735771 67.563751 -0.85119647
67.721046 67.549706 -0.70941728
67.794647 67.619911 -0.58088845
68.002052 67.817772 -0.46104696
73.499756 73.062317 -0.73168778
73.726402 73.278526 -0.37541628
73.70491 73.258026 0
73.733742 73.28553 0.37569958
67.767181 67.602417 -0.85934454
67.731262 67.568069 -0.71218592
67.841682 67.673653 -0.58876777
68.012276 67.836792 -0.46275884
73.492554 73.077377 -0.73197693
73.733963 73.308228 -0.37614185
73.697487 73.273346 0
73.737541 73.311653 0.37628016
67.766396 67.610382 -0.86015874
67.719696 67.56562 -0.71080029
67.82991 67.671272 -0.58764309
68.018761 67.852303 -0.46404314
73.496513 73.103157 -0.7331301
73.726456 73.323578 -0.37628683
73.690033 73.288658 0
73.730042 73.327019 0.37642571
67.758469 67.611511 -0.85934454
67.708153 67.563164 -0.70941728
67.82547 67.675896 -0.58764309
67.969681 67.814468 -0.45890754
73.496689 73.125366 -0.73399413
73.718925 73.338921 -0.37643185
73.701309 73.321991 0
73.726257 73.345963 0.37671572
67.764786 67.626343 -0.86179024
67.7183 67.581566 -0.71218592
67.802711 67.662872 -0.58482701
67.976166 67.829948 -0.46019185
73.481934 73.133255 -0.73370612
73.685181 73.329033 -0.3755613
64 64 0
73.729927 73.372131 0.37729627
67.771057 67.641182 -0.86423278
67.721184 67.593025 -0.71356893
67.790977 67.660416 -0.58370233
67.953072 67.816925 -0.45805243
73.482056 73.155487 -0.73457128
73.632774 73.301018 -0.37396461
64 64 0
73.722328 73.387482 0.37744126
67.752449 67.631981 -0.86097288
