# .PCD v0.7 - Point Cloud Data file format
VERSION 0.7
FIELDS x y z
SIZE 4 4 4
TYPE F F F
COUNT 1 1 1
WIDTH 1717
HEIGHT 1
VIEWPOINT 0 0 0 1 0 0 0
POINTS 1717
DATA ascii
50.974834 123.45113 1.6997385
54.717216 106.12612 0
50.891823 123.48611 1.7011902
54.737274 105.79474 0
50.629932 124.32764 1.7257169
54.837372 105.10788 0
50.507301 124.53462 1.7321031
54.854877 104.79713 0
50.422802 124.56898 1.7335542
54.871975 104.49156 0
50.346199 124.56774 1.7339898
55.115337 103.19122 0
50.271873 124.55626 1.7341348
55.110794 102.99269 0
50.194096 124.5599 1.7347153
64 64 -0
55.088108 102.87538 0
50.122089 124.53812 1.7345704
64 64 0
50.04195 124.55167 1.735441
64 64 0
49.971138 124.52465 1.7351509
64 64 0
49.893299 124.52789 1.7357315
64 64 0
49.816616 124.52599 1.7361671
64 64 -0
54.876083 102.72459 0
49.738731 124.52902 1.736747
54.8269 102.72366 0
49.664402 124.51682 1.7368926
54.780117 102.71255 0
49.587681 124.5146 1.7373276
54.733345 102.70138 0
49.513355 124.50221 1.7374731
54.679279 102.72052 0
49.443913 124.46951 1.7370375
55.229908 100.24057 0
49.369637 124.45692 1.7371826
55.214149 100.20998 0
49.322086 124.49352 1.7384887
64 64 -0
55.175339 100.17911 0
49.240379 124.51109 1.7395048
55.132866 100.16338 0
49.169754 124.48311 1.7392143
55.096649 100.12231 0
49.09668 124.46513 1.7392143
55.06678 100.05595 0
49.013634 124.48744 1.7403754
55.072273 99.848175 0
48.939297 124.47435 1.740521
55.085838 99.610146 0
48.866238 124.4561 1.740521
55.091076 99.407547 0
48.783054 124.47809 1.7416821
55.122314 99.104095 0
48.707443 124.46973 1.7419721
55.115803 98.95211 0
48.631832 124.46127 1.742262
55.182999 98.513016 -0.99483919
55.141857 98.674072 0
48.554928 124.45776 1.7426976
55.190414 98.311073 -0.98932421
55.137505 98.517151 0
48.479301 124.44914 1.7429882
55.1996 98.104172 -0.98366416
55.155624 98.274582 0
48.39978 124.4555 1.7437137
64 64 -0
55.211884 97.887268 -0.97771358
55.154716 98.107697 0
48.324135 124.44666 1.7440038
55.216812 97.700623 -0.97263414
55.169952 97.880417 0
48.245865 124.44778 1.7445843
55.235352 97.46376 -0.96610302
55.18177 97.668343 0
48.168884 124.44379 1.7450198
64 64 -0
55.24651 97.257156 -0.96044296
55.202034 97.426132 0
48.09322 124.43466 1.7453098
64 64 -0
55.248848 97.0858 -0.95579904
55.196259 97.284637 0
48.01622 124.43047 1.7457454
55.262276 96.874306 -0.94999349
55.21487 97.052658 0
47.939209 124.42619 1.746181
64 64 -0
55.266811 96.698036 -0.94520402
55.219261 96.876068 0
47.859505 124.43184 1.7469065
55.294662 96.436508 -0.93794733
55.230808 96.674423 0
47.786491 124.41229 1.7469065
55.300121 96.260406 -0.9331584
55.244186 96.467819 0
47.708099 124.41273 1.7474871
64 64 -0
55.30872 96.07431 -0.92807841
55.258049 96.261299 0
47.632393 124.40302 1.7477771
64 64 -0
55.313652 95.903343 -0.9234345
55.269669 96.064896 0
47.568977 124.34811 1.7467616
55.346375 95.707581 -0.91791946
55.291405 95.908989 0
47.553047 124.26297 1.7445843
64 64 -0
55.360878 95.355911 -0.90834057
55.312477 95.531586 0
47.625549 123.43147 1.7216537
55.370132 95.175171 -0.90340608
55.317429 95.36557 0
47.661896 123.021 1.710333
55.378422 94.999496 -0.89861661
55.318584 95.214645 0
47.714516 122.55562 1.6974163
64 64 -0
55.388519 94.818893 -0.89368218
55.332695 95.018677 0
47.702511 122.32569 1.6913208
55.394829 94.653366 -0.88918328
55.347271 94.822769 0
47.691032 122.09584 1.6852257
55.408577 94.462891 -0.88395822
55.353836 94.65699 0
55.219624 95.132866 0.90339941
64 64 -0
55.412853 94.307503 -0.87974989
55.37355 94.446228 0
55.19051 95.092239 0.90252882
55.424606 94.127174 -0.8748154
55.375237 94.300629 0
55.170021 95.021599 0.90078717
55.429646 93.971893 -0.87060654
55.381561 94.140045 0
55.155403 94.930954 0.89846492
64 64 -0
55.43935 93.801674 -0.86596203
55.391129 93.969543 0
55.186901 94.680511 0.8914988
64 64 -0
55.448009 93.636536 -0.86146313
55.398216 93.809097 0
55.21611 94.440163 0.88482267
55.449821 93.496414 -0.8576898
55.401329 93.663696 0
55.214062 94.309738 0.88133931
55.482468 93.251564 -0.85086864
55.433884 93.418419 0
55.202141 94.214279 0.8788721
64 64 -0
55.66304 92.503075 -0.82938915
55.557602 92.863564 0
55.193359 94.108871 0.87611485
64 64 -0
55.700386 92.248665 -0.82227743
55.650375 92.418884 0
55.161377 94.083237 0.87567931
64 64 -0
55.707447 92.099052 -0.81821352
55.649925 92.293968 0
55.161808 93.947937 0.87205094
55.689743 92.034218 -0.81661743
55.655685 92.149117 0
55.217194 93.628342 0.86305314
64 64 -0
64 64 -0
55.63356 92.099106 0
55.268894 93.323853 0.85449034
55.625 92.004089 -0.81632686
64 64 0
55.261765 93.218674 0.85173255
64 64 -0
55.589672 91.99894 -0.81647241
55.567177 92.073822 0
55.230949 93.193161 0.85129696
64 64 -0
55.571259 91.998825 -0.81661743
55.550217 92.068726 0
55.1474 93.406815 0.85768312
64 64 -0
55.53894 91.98365 -0.81647241
55.522335 92.038559 0
55.002083 93.759209 0.86827761
55.518726 91.928635 -0.81516576
55.503582 91.9785 0
54.940464 93.832848 0.87074482
64 64 -0
55.489532 91.903473 -0.81473076
55.48497 91.918427 0
54.949902 93.67276 0.86639094
64 64 -0
55.446693 91.922974 -0.81560129
55.481728 91.808594 0
54.93536 93.592255 0.86435926
64 64 -0
55.40226 91.947388 -0.81661743
55.484863 91.678886 0
54.899612 93.581276 0.86435926
55.365433 91.946899 -0.81690741
55.503662 91.499504 0
54.882286 93.510674 0.86261755
55.357849 91.852074 -0.81444019
55.507462 91.369911 0
54.889755 93.360657 0.85855365
64 64 -0
55.327293 91.831696 -0.81415021
55.514652 91.230438 0
54.913033 93.161102 0.85303867
64 64 -0
55.295227 91.816223 -0.81400466
55.495747 91.175461 0
54.946091 92.931885 0.84665304
55.392487 91.389267 -0.80181402
55.431705 91.264473 0
54.98592 92.682968 0.83968693
55.365654 91.359024 -0.80123347
55.190437 91.91423 0
54.977859 92.587814 0.83721972
55.159908 91.893486 -0.81719798
55.120544 92.017685 0
54.946465 92.566971 0.83692914
64 64 -0
55.108879 91.937241 -0.81879407
55.075653 92.041641 0
54.900921 92.590683 0.83794528
55.057724 91.980942 -0.82039076
55.035439 92.050674 0
54.818924 92.728165 0.84229916
55.620979 90.109634 -0.7658211
54.998367 92.049744 0
54.741344 92.850639 0.84621751
55.74564 89.614769 -0.7515983
55.689243 89.78978 0
54.714462 92.814705 0.84549195
55.841087 89.21418 -0.74013269
55.773457 89.42318 0
54.695648 92.754028 0.84404081
55.841133 89.110405 -0.73737544
55.808681 89.210281 0
54.652882 92.767471 0.84476638
64 64 -0
55.847874 88.986893 -0.7340371
55.813747 89.091492 0
54.61813 92.756157 0.84476638
55.850044 88.87825 -0.7311343
55.810982 88.997498 0
54.596333 92.705292 0.84360528
55.854088 88.764725 -0.72808653
55.813301 88.888718 0
54.550285 92.72847 0.84462142
55.848614 88.680847 -0.72590983
55.81588 88.779961 0
54.504177 92.751556 0.84563696
55.853149 88.567398 -0.72286206
55.823631 88.656418 0
54.485798 92.69075 0.84418583
64 64 -0
55.851379 88.473724 -0.72039485
55.820145 88.567528 0
54.472477 92.615135 0.84229916
55.856411 88.360359 -0.71734703
55.825119 88.453964 0
54.446144 92.578964 0.8415736
55.87471 88.256882 -0.71444428
55.840107 88.360168 0
54.423935 92.587952 0.84200859
55.873566 88.163307 -0.71197701
55.842201 88.256577 0
54.384426 92.591141 0.84244418
55.875957 88.059937 -0.70921981
55.846199 88.148071 0
54.344898 92.594284 0.84287971
55.885269 87.93689 -0.70588142
55.847103 88.049477 0
54.300346 92.612114 0.8437503
55.883137 87.848373 -0.70355976
55.849915 87.945984 0
54.249031 92.649582 0.84520197
55.884579 87.750015 -0.70094699
55.854641 87.837631 0
54.194263 92.69677 0.84694308
55.886238 87.651726 -0.69833475
55.856247 87.739136 0
54.144421 92.729141 0.8482492
55.898277 87.523972 -0.6948514
55.858078 87.640709 0
54.123245 92.677917 0.84708863
55.895329 87.440506 -0.6926747
55.865234 87.527557 0
54.054646 92.764175 0.84999084
55.901093 87.332504 -0.68977195
55.86412 87.439034 0
54.006264 92.791412 0.851152
55.896847 87.254013 -0.68774027
55.866631 87.340721 0
54.036461 92.592842 0.84563696
55.899643 87.155899 -0.6851275
55.872807 87.232613 0
54.048248 92.448349 0.84171861
55.900944 87.062737 -0.68266022
55.879227 87.124573 0
54.027657 92.397079 0.84055752
55.900719 86.974533 -0.68033856
55.873787 87.050934 0
54.005447 92.350693 0.83954138
59.614758 76.391472 -0.73255295
55.911114 86.856941 -0.67714524
55.878933 86.947868 0
53.971199 92.3386 0.83954138
59.556496 76.508026 -0.73975998
55.900894 86.798187 -0.67569411
55.884312 86.844864 0
53.907391 92.409706 0.84200859
59.496216 76.629318 -0.74725503
55.915249 86.670906 -0.67221075
55.886436 86.751701 0
53.838158 92.495392 0.8449114
64 64 -0
55.923744 86.475258 -0.66698629
55.896603 86.550797 0
53.748238 92.529434 0.84665304
64 64 -0
55.919518 86.401932 -0.66509962
55.897617 86.462646 0
53.741985 92.438812 0.84433085
64 64 -0
55.926071 86.299301 -0.66234183
55.898834 86.374535 0
53.71294 92.411728 0.84389526
64 64 -0
55.929306 86.206505 -0.65987462
55.89669 86.296249 0
53.680389 92.394402 0.8437503
59.401222 76.606064 -0.74783218
55.929192 86.12352 -0.65769792
55.908997 86.178879 0
53.63184 92.420975 0.8449114
59.391834 76.608139 -0.74812019
55.942589 86.045418 -0.65552068
55.925972 86.090881 0
53.589699 92.483025 0.84694308
59.38195 76.587982 -0.74725503
55.960705 85.913696 -0.65189236
55.927971 86.00293 0
53.506962 92.602165 0.85086197
59.372108 76.567825 -0.74638987
55.952187 85.855209 -0.65044123
55.921173 85.939423 0
53.409561 92.760132 0.85594141
59.425072 76.377853 -0.73543531
55.954613 85.767471 -0.64811897
55.923538 85.851547 0
47.519657 108.58894 1.3276205
59.676392 75.654556 -0.6927703
55.957237 85.679779 -0.64579678
55.933346 85.744171 0
47.476639 108.53976 1.3267493
59.714653 75.508766 -0.68441117
55.949177 85.621353 -0.64434564
55.92524 85.685638 0
53.515724 92.156647 0.83910638
59.707993 75.484192 -0.683258
55.961262 85.509384 -0.64129788
55.942772 85.558853 0
53.476257 92.158554 0.83954138
59.708652 75.440254 -0.68095165
55.96265 85.426682 -0.63912117
55.935013 85.500359 0
53.433117 92.170135 0.84026694
59.700302 75.420532 -0.68008649
55.95874 85.358589 -0.63737953
55.943878 85.398056 0
53.384438 92.196259 0.84142804
59.723076 75.318542 -0.67432064
55.951313 85.300232 -0.63592786
55.940109 85.32988 0
53.339352 92.212585 0.84229916
59.735081 75.245667 -0.67028511
55.958748 85.203041 -0.63331562
55.936493 85.261726 0
58.520256 78.448891 0.43157536
59.717812 75.250183 -0.67086226
55.951618 85.144745 -0.63186449
55.94413 85.164413 0
58.512047 78.417984 0.43084982
59.742989 75.143524 -0.66480839
55.90382 85.193268 -0.6336062
55.933426 85.115768 0
58.507607 78.377373 0.42983425
59.753605 75.075569 -0.6610598
64 64 -0
55.941452 85.018539 0
58.499542 78.346451 0.42910814
59.74765 75.051132 -0.6599077
59.756748 75.027496 -0.32999
58.491711 78.315102 0
58.499008 78.296143 0.42780203
59.75853 74.983238 -0.6561591
59.782738 74.920555 -0.32694221
58.500668 78.240471 0
58.498585 78.245857 0.42649591
59.767689 74.920242 -0.65270066
59.782696 74.881531 -0.3259261
58.513557 78.156166 0
58.477615 78.248901 0.42678645
59.767624 74.881371 -0.65068233
59.765778 74.886124 -0.32621667
58.513435 78.105865 0
58.490547 78.164726 0.42446423
59.762005 74.856972 -0.64952916
59.760185 74.861633 -0.32563609
58.500187 78.089523 0
58.445095 78.230659 0.4266409
59.773415 74.789238 -0.64578164
59.741383 74.871002 -0.32607108
58.488857 78.068344 0
58.43169 78.214272 0.42635089
59.781204 74.731155 -0.64261013
59.730152 74.861015 -0.3259261
58.471863 78.061676 0
58.412621 78.212364 0.42649591
59.783428 74.687561 -0.64030385
59.713211 74.865524 -0.32621667
58.441509 78.08886 0
58.40308 78.186264 0.42591533
59.793362 74.624756 -0.63684541
59.70583 74.84584 -0.32578111
58.418739 78.096657 0
58.364899 78.232643 0.42751202
59.7939 74.586006 -0.63482708
59.683132 74.864784 -0.32650664
58.411316 78.06572 0
58.355377 78.206505 0.42693147
59.806015 74.518456 -0.63107955
59.671932 74.854736 -0.32636166
58.38855 78.073448 0
58.342072 78.190018 0.4266409
59.82077 74.463074 -0.62790805
59.659595 74.866592 -0.32679665
58.399349 78.021729 0
58.339275 78.172127 0.4262059
59.56604 75.061996 -0.99341196
59.819675 74.429214 -0.62617886
59.642601 74.870995 -0.32708722
58.395969 77.981125 0
58.304756 78.208687 0.42751202
59.571838 75.008987 -0.98913145
59.818665 74.395355 -0.6244486
59.627529 74.870537 -0.32723221
58.377132 77.979187 0
58.283718 78.211426 0.42780203
59.595047 74.913185 -0.98100132
59.83902 74.308746 -0.6195479
59.608559 74.879707 -0.32766777
58.369991 77.948235 0
64 64 0
59.633907 74.779366 -0.96944577
59.836273 74.279747 -0.61810666
59.609077 74.840668 -0.32665166
58.351181 77.946266 0
64 64 0
59.669212 74.655182 -0.95874703
59.827747 74.265129 -0.61753064
59.676201 74.637993 -0.32070163
58.318657 77.978004 0
58.216583 78.229134 0.42896312
59.675728 74.602409 -0.95446819
59.844654 74.188232 -0.61320597
59.628025 74.719368 -0.32331386
58.270325 78.048218 0
58.195469 78.231766 0.4292537
59.68042 74.55442 -0.9506169
59.840183 74.164055 -0.6120528
59.676102 74.564972 -0.3188144
58.24744 78.05574 0
58.16647 78.253586 0.43012425
59.689125 74.496948 -0.94590884
59.851486 74.101593 -0.60859334
59.714664 74.434753 -0.31504107
58.214642 78.087303 0
58.153194 78.236923 0.42983425
59.678398 74.486984 -0.94548124
59.857021 74.053535 -0.60599899
64 64 -0
58.195644 78.085106 0
58.128075 78.249069 0.4304148
59.669651 74.472275 -0.94462615
59.8508 74.034195 -0.6051349
59.73513 74.313927 -0.31170326
58.182602 78.068474 0
58.114838 78.232353 0.43012425
59.704224 74.353226 -0.93435496
59.86644 73.962273 -0.6010983
64 64 -0
58.153641 78.090271 0
58.101624 78.215637 0.42983425
59.687775 74.357498 -0.93521005
59.866329 73.928627 -0.59936905
64 64 -0
58.124615 78.112038 0
58.052502 78.285248 0.43215591
59.706921 74.276497 -0.92836422
59.882248 73.856812 -0.59533352
64 64 -0
58.103558 78.114525 0
50.002579 97.506134 1.0141354
59.710384 74.233429 -0.92494047
59.874344 73.842278 -0.59475636
64 64 -0
58.100594 78.073784 0
49.962101 97.489197 1.0141354
59.725891 74.161972 -0.91894811
59.878502 73.799133 -0.59245002
64 64 -0
58.093681 78.042656 0
49.919632 97.47699 1.0142803
59.747551 74.076385 -0.91167307
59.8908 73.736961 -0.58899057
64 64 -0
59.596493 74.434326 0
49.88121 97.45517 1.0141354
59.743385 74.05233 -0.90996122
59.887104 73.712929 -0.5878374
64 64 -0
59.577805 74.443367 0
49.848904 97.418945 1.0135548
59.779419 73.933792 -0.89969164
59.897617 73.655594 -0.58466697
64 64 -0
59.548908 74.476334 0
48.847355 99.664108 1.0822023
59.781517 73.895622 -0.89669544
59.896095 73.626846 -0.58322579
64 64 -0
59.55666 74.42308 0
48.842995 99.554939 1.0794445
59.805901 73.805557 -0.88899285
59.898708 73.588577 -0.58120745
64 64 -0
59.556355 74.388977 0
48.83683 99.4506 1.0768323
59.755592 73.890114 -0.89712304
59.897324 73.559853 -0.57976627
64 64 -0
59.537643 74.397957 0
48.824749 99.360611 1.0746551
59.796432 73.762375 -0.8859967
59.930779 73.450371 -0.5734244
64 64 -0
59.572426 74.282616 0
48.814911 99.2659 1.0723333
59.827129 73.674988 -0.87829411
59.925072 73.447914 -0.5734244
59.835041 73.656647 -0.29370707
59.547661 74.322952 0
51.839546 92.194572 0.8575381
59.843987 73.603981 -0.87230337
59.934204 73.3955 -0.57054096
59.879105 73.522827 -0.28978819
59.5476 74.288895 0
51.784851 92.227539 0.85898924
59.83852 73.584824 -0.87101907
59.924915 73.385834 -0.5702529
59.840698 73.579811 -0.29167485
64 64 0
51.744541 92.227066 0.85942477
59.845394 73.53743 -0.86716777
59.948692 73.300285 -0.5653522
59.854031 73.517601 -0.28993317
64 64 0
48.946079 98.558197 1.0527406
59.831818 73.537102 -0.86759531
59.945747 73.276428 -0.56419903
59.857094 73.479263 -0.28891763
59.610378 74.04377 0
48.896008 98.559021 1.0533211
59.867714 73.423927 -0.85775334
59.942848 73.252571 -0.56304586
59.856075 73.450462 -0.28819206
64 64 0
48.91061 98.412239 1.0494022
59.850132 73.433014 -0.85903597
59.958752 73.186111 -0.55929834
59.896976 73.32653 -0.28456372
64 64 0
48.879501 98.370201 1.0486766
59.869827 73.357544 -0.85261768
59.96645 73.138634 -0.55670398
59.871025 73.354828 -0.28557926
64 64 0
48.837982 98.351906 1.0486766
59.841892 73.390106 -0.85604143
59.955414 73.133751 -0.55670398
59.874451 73.316589 -0.28456372
59.639862 73.846352 0
48.773338 98.385834 1.0502733
59.830551 73.385071 -0.85604143
59.96328 73.086319 -0.55410963
59.903286 73.221352 -0.28180593
64 64 0
48.714924 98.405411 1.0514344
59.860275 73.257805 -0.8453427
59.981457 72.986809 -0.54863185
59.914955 73.135521 -0.27948371
64 64 0
48.691223 98.235535 1.0473706
59.882717 73.177841 -0.83849519
59.974831 72.972511 -0.54805577
59.88903 73.163773 -0.28049982
64 64 0
48.749836 97.994171 1.0405494
59.886383 73.140083 -0.83549899
59.980976 72.929901 -0.54574943
59.905685 73.097198 -0.27861315
64 64 0
51.329941 92.151718 0.86218202
59.890121 73.102371 -0.83250445
59.987221 72.887329 -0.54344308
59.905388 73.068565 -0.27788758
64 64 0
51.302353 92.122169 0.86174643
59.887604 73.07869 -0.83079261
59.989285 72.854202 -0.54171389
59.918022 73.011536 -0.27629089
64 64 0
51.234074 92.182549 0.86406869
59.880886 73.064354 -0.82993585
59.989296 72.82579 -0.54027164
59.924335 72.968742 -0.2751298
64 64 0
48.815754 97.413849 1.0250204
59.906139 72.979958 -0.8226608
59.982922 72.811539 -0.53969556
59.913502 72.963814 -0.2751298
64 64 0
48.743061 97.466393 1.0271971
59.92305 72.914314 -0.81709766
60.002396 72.740822 -0.53566003
59.909153 72.944702 -0.2746948
59.746334 73.300705 0
50.03619 94.532089 0.93765062
59.935829 72.858063 -0.81239122
60.004784 72.707764 -0.53392977
59.922188 72.887787 -0.27309811
59.854473 73.035378 0
49.973301 94.571877 0.93939233
59.925129 72.853149 -0.81239122
60.000755 72.688835 -0.5330646
59.928837 72.845093 -0.27193701
59.706459 73.328224 0
49.916817 94.597389 0.94069844
59.927353 72.820236 -0.80982262
60.018452 72.62294 -0.52931708
59.942116 72.788261 -0.27034032
59.723564 73.261589 0
49.912529 94.50959 0.93852174
59.938271 72.768738 -0.80554378
60.02977 72.571198 -0.52643466
59.924946 72.797501 -0.27077588
59.712376 73.256409 0
49.829807 94.591568 0.94156957
59.938496 72.740547 -0.80340433
60.028137 72.54763 -0.52528155
59.92308 72.77372 -0.27019534
59.703384 73.246506 0
49.746868 94.673393 0.94461733
59.950546 72.700851 -0.79998058
60.018604 72.554619 -0.52585864
59.944092 72.714714 -0.26845366
59.719757 73.196732 0
50.932137 92.078232 0.86493981
59.948723 72.677345 -0.79826874
60.034531 72.493553 -0.52239913
59.946754 72.681564 -0.2675831
59.750488 73.101936 0
50.869644 92.123634 0.86682647
59.966549 72.612007 -0.7927056
60.033047 72.470016 -0.52124596
59.947285 72.65313 -0.26685753
59.697548 73.186363 0
50.820248 92.140678 0.86784202
60.006359 72.500244 -0.78286195
60.025013 72.460541 -0.52095795
59.943466 72.634109 -0.26642197
59.715221 73.119919 0
50.797302 92.101219 0.86711645
60.013603 72.45826 -0.7794382
60.043472 72.394882 -0.51720935
59.957409 72.577492 -0.26482531
59.699772 73.124138 0
50.745632 92.122849 0.86827761
59.983639 72.495201 -0.78328949
60.039955 72.376083 -0.51634526
59.93816 72.591393 -0.26540586
59.693195 73.109535 0
50.716099 92.097427 0.86798757
60.032772 72.365112 -0.77173561
60.058655 72.310532 -0.51259774
59.945591 72.548935 -0.2642453
59.704498 73.057289 0
50.664345 92.118927 0.86914873
60.029285 72.346397 -0.77045131
60.059731 72.282394 -0.51115549
59.975456 72.459549 -0.2616325
59.724857 72.986298 0
50.641544 92.079308 0.86842257
60.041309 72.295265 -0.76617241
60.047493 72.28231 -0.51144457
59.94733 72.492195 -0.26279363
59.729698 72.948235 0
50.591957 92.095985 0.86943871
60.026863 72.299728 -0.76702756
60.050896 72.249527 -0.50971431
59.96624 72.426361 -0.26090696
59.736858 72.905533 0
50.535583 92.126633 0.87088984
60.032387 72.262535 -0.76403302
60.058842 72.207443 -0.50740796
59.967308 72.398064 -0.2601814
59.687801 72.980133 0
56.791145 79.012405 0.46510106
60.022404 72.257736 -0.76403302
60.066879 72.165405 -0.50510269
59.993248 72.318268 -0.25785917
64 64 0
56.759487 79.031761 0.46597162
60.045937 72.183578 -0.75761306
60.084023 72.104752 -0.50164318
59.953812 72.374252 -0.25974584
64 64 0
56.730019 79.046417 0.46669772
60.06292 72.123352 -0.75247747
60.065208 72.118637 -0.50279635
59.989025 72.275826 -0.25684306
59.746082 72.777084 0
56.727711 79.004875 0.46568161
60.039635 72.146301 -0.75504613
60.066715 72.090599 -0.5013541
59.979027 72.270973 -0.25684306
64 64 0
56.695957 79.024117 0.46655217
60.050045 72.099983 -0.75119483
60.077347 72.043999 -0.49875972
59.991814 72.219406 -0.25539193
64 64 0
56.696022 78.977928 0.46539161
60.017708 72.141319 -0.75547367
60.083534 72.006744 -0.49674252
59.986446 72.205231 -0.25510195
64 64 0
56.648247 79.029778 0.46727827
60.062149 72.025879 -0.74520242
60.078423 71.992706 -0.49616536
59.997135 72.158386 -0.25379583
64 64 0
56.632385 79.016205 0.46713272
60.068317 71.988884 -0.74220788
60.077908 71.969398 -0.49501219
60.005638 72.116241 -0.2526347
64 64 0
56.611946 79.011963 0.46727827
60.045036 72.011734 -0.74477488
60.063694 71.973938 -0.49558935
59.991238 72.12072 -0.25292471
64 64 0
56.577717 79.035629 0.46829385
60.021683 72.034569 -0.74734354
60.081608 71.913544 -0.49212983
59.997574 72.083267 -0.2519086
64 64 0
56.552635 79.040634 0.46872941
60.025684 72.002159 -0.74477488
60.085861 71.880997 -0.49039951
59.999363 72.055153 -0.25118303
64 64 0
56.532158 79.03627 0.46887439
60.016022 71.997353 -0.74477488
60.080948 71.867012 -0.48982349
60.008171 72.0131 -0.2500219
64 64 0
56.520939 79.01329 0.4684394
60.020123 71.964981 -0.74220788
60.080696 71.843765 -0.48867032
60.000813 72.003632 -0.24987692
64 64 0
56.505135 78.999588 0.46829385
60.052074 71.889114 -0.73536044
60.092163 71.809006 -0.48665199
60.030857 71.931511 -0.24770024
64 64 0
56.517002 78.953232 0.46698773
60.051758 71.865982 -0.73364854
60.09433 71.781166 -0.48521081
59.993309 71.98243 -0.24944136
64 64 0
56.505936 78.930237 0.46655217
60.053799 71.838287 -0.73150915
60.094238 71.757957 -0.48405764
60.028061 71.889397 -0.24668412
64 64 0
56.478554 78.939743 0.46713272
60.051273 71.819756 -0.73022485
60.112846 71.697823 -0.48059812
60.002132 71.917068 -0.24770024
64 64 0
56.446445 78.958481 0.46800384
60.046463 71.805832 -0.7293697
60.108219 71.683899 -0.4800221
60.011356 71.875145 -0.24653913
59.642349 72.603706 0
56.418983 78.967896 0.46858439
60.037033 71.801048 -0.7293697
60.084885 71.706856 -0.48175129
60.034798 71.805443 -0.2445069
59.49995 72.858292 0
56.375019 79.009674 0.47018051
60.00198 71.846558 -0.73407614
60.117844 71.619164 -0.47656259
60.044247 71.763603 -0.24334578
59.588493 72.658073 0
56.335659 79.042122 0.47148663
59.994835 71.837151 -0.73364854
60.132175 71.568413 -0.47368023
60.034866 71.75882 -0.24334578
59.509346 72.78714 0
56.326939 79.014359 0.47090662
59.964294 71.873428 -0.73749983
60.120674 71.568329 -0.47396824
60.058678 71.689285 -0.2413141
64 64 0
56.341995 78.940315 0.46887439
64 64 -0
60.118633 71.549835 -0.47310308
60.018501 71.744598 -0.24320078
59.852215 72.068054 0
56.376217 78.829376 0.46568161
59.912342 71.927528 -0.74349058
60.121365 71.522156 -0.4716619
60.052013 71.656647 -0.24058855
59.749447 72.243439 0
56.401169 78.737022 0.46306938
59.872101 71.98188 -0.74905539
60.119408 71.50367 -0.47079673
60.033215 71.670334 -0.24116911
64 64 0
64 64 0
59.881371 71.940422 -0.74563164
60.115105 71.489799 -0.47022071
60.062237 71.591728 -0.23884687
64 64 0
56.401474 78.649414 0.46089214
59.857567 71.962761 -0.74819863
60.11322 71.471329 -0.46935555
60.03867 71.614632 -0.23971799
64 64 0
56.374184 78.658661 0.46147269
59.845573 71.962296 -0.74862617
60.116158 71.443703 -0.46791437
60.02467 71.619049 -0.24000798
59.731319 72.181274 0
56.361282 78.640236 0.46118271
60.006374 71.631615 -0.9540621
59.850235 71.929985 -0.74605918
60.131145 71.393181 -0.46503201
60.029919 71.586617 -0.23913743
59.743156 72.134613 0
56.34119 78.63559 0.4613277
59.997154 71.626785 -0.9540621
59.869286 71.870415 -0.74092358
60.117413 71.397652 -0.46560803
60.003857 71.614014 -0.24015298
64 64 0
56.318687 78.635521 0.46161771
59.971378 71.653412 -0.95800072
59.907608 71.774551 -0.73236424
60.115707 71.379219 -0.46474287
60.030964 71.540215 -0.23797631
64 64 0
56.301006 78.626228 0.46161771
59.933662 71.702461 -0.9647553
59.955734 71.660652 -0.72209466
60.123692 71.342506 -0.46272567
60.024277 71.530823 -0.23783131
59.866779 71.829155 0
56.285763 78.612328 0.46147269
64 64 -0
59.968102 71.614929 -0.71824336
60.114822 71.337822 -0.46272567
60.05653 71.447922 -0.23536353
59.891418 71.759766 0
56.28513 78.570854 0.46045715
64 64 -0
59.978165 71.573776 -0.71481967
60.135075 71.278297 -0.45926616
60.049969 71.438568 -0.23521852
59.918663 71.685829 0
56.301655 78.497253 0.45842493
64 64 -0
59.969017 71.568909 -0.71481967
60.121422 71.282745 -0.45984218
60.048306 71.420036 -0.23478353
59.872677 71.749809 0
56.306129 78.446663 0.45711881
64 64 -0
60.005836 71.477989 -0.70668787
60.13456 71.236992 -0.45724782
60.058929 71.378586 -0.2336224
59.855957 71.758598 0
56.315613 78.386932 0.45552212
59.951763 71.568214 -0.95068371
60.023109 71.43483 -0.70283657
60.122864 71.248344 -0.45811298
60.044666 71.394531 -0.23420297
59.895466 71.67347 0
56.35104 78.299805 0.45290989
59.964241 71.523026 -0.94561833
60.028687 71.402885 -0.70026958
60.138557 71.198074 -0.45523062
60.075043 71.316475 -0.23188074
59.903412 71.636414 0
56.409916 78.148605 0.44841099
59.974415 71.482338 -0.94111526
60.034348 71.370941 -0.69770098
60.142128 71.170616 -0.45378831
60.066204 71.311729 -0.23188074
59.911453 71.599365 0
56.44207 78.04789 0.44550818
59.987785 71.41449 -0.93379825
60.045868 71.307152 -0.69256532
60.139576 71.13398 -0.45205912
60.055969 71.288483 -0.23144518
59.907959 71.562004 0
56.420509 78.006737 0.44478264
59.978828 71.409637 -0.93379825
60.056629 71.266273 -0.68914163
60.130959 71.129311 -0.45205912
60.057079 71.265442 -0.23086461
59.911247 71.534164 0
56.393677 78.015839 0.44536319
59.979595 71.386917 -0.93154675
60.052757 71.252495 -0.68828648
60.13224 71.106461 -0.45090595
60.075626 71.21048 -0.22926851
59.914585 71.506363 0
56.359352 78.038589 0.4463793
59.968239 71.386513 -0.93210906
60.066132 71.207161 -0.68443519
60.133568 71.083618 -0.44975278
60.069412 71.201157 -0.22912295
59.932941 71.45118 0
56.342396 78.02935 0.4463793
60.005672 71.296951 -0.92141593
60.077148 71.166374 -0.68101144
60.137428 71.056259 -0.4483116
60.073189 71.173615 -0.22839738
59.951435 71.396034 0
56.293011 78.079346 0.448266
60.006641 71.2743 -0.91916436
60.080845 71.13913 -0.67887205
60.131393 71.04705 -0.44802359
60.057018 71.182533 -0.22883295
59.924965 71.42308 0
56.261005 78.097351 0.44913656
60.000301 71.265022 -0.91860199
60.062317 71.152382 -0.68058389
60.132858 71.024246 -0.44687042
60.060871 71.155006 -0.22810739
59.918518 71.413582 0
56.243977 78.08799 0.44913656
60.01363 71.220154 -0.91353661
60.063602 71.129639 -0.67887205
60.139381 70.992386 -0.44514009
60.064796 71.12748 -0.22738127
59.924652 71.38131 0
56.206863 78.114998 0.45029765
60.014755 71.197548 -0.91128504
60.052505 71.129364 -0.67929959
60.143463 70.965096 -0.44369891
60.063732 71.109093 -0.22694628
59.918255 71.371834 0
56.174717 78.132843 0.45116821
64 64 -0
60.058846 71.097672 -0.6767326
60.127514 70.973999 -0.44456407
60.062717 71.090698 -0.22651072
59.91441 71.357788 0
56.152596 78.132477 0.45145878
59.977596 71.223412 -0.91578811
60.072758 71.052521 -0.6728797
60.121605 70.964806 -0.44427606
60.074379 71.049606 -0.22534961
59.951096 71.270996 0
56.115295 78.159302 0.45261988
59.993652 71.174171 -0.91015822
60.114296 70.95813 -0.66432196
60.143456 70.905914 -0.44081655
60.068394 71.040329 -0.2252046
59.944851 71.261559 0
56.088058 78.167915 0.45320046
60.012291 71.120567 -0.9039681
60.156063 70.863846 -0.65576261
60.135117 70.901253 -0.44081655
60.082741 70.994766 -0.22389849
59.930996 71.265732 0
56.093796 78.117538 0.45189434
60.026093 71.075851 -0.89890051
60.165375 70.82785 -0.65276647
60.141983 70.869507 -0.43908623
60.071751 70.99456 -0.22404349
59.950249 71.210899 0
56.092018 78.08078 0.45102322
60.017548 71.071045 -0.89890051
60.162159 70.814278 -0.65191132
60.136219 70.860336 -0.43879822
60.055649 71.003395 -0.22447903
59.959423 71.174248 0
56.118362 77.994247 0.44855598
60.014 71.057388 -0.89777583
60.176651 70.769402 -0.64806002
60.135567 70.84214 -0.43793306
60.077858 70.944321 -0.22273737
59.932835 71.201088 0
56.175571 77.853485 0.44434708
64 64 -0
60.173538 70.755836 -0.64720327
60.142593 70.810471 -0.43620387
60.069469 70.939575 -0.22273737
59.965179 71.123703 0
56.204933 77.762634 0.44173485
60.009502 71.025642 -0.89496195
60.170444 70.742287 -0.64634818
60.147141 70.783318 -0.43476269
60.071354 70.916748 -0.22215681
59.941158 71.145973 0
56.183182 77.762238 0.44202486
64 64 -0
60.159763 70.742111 -0.64677572
60.126148 70.801132 -0.43620387
60.065567 70.907486 -0.2220118
59.95055 71.109421 0
59.623302 71.683952 0.24696799
60.016918 70.983086 -0.89045888
60.183674 70.690735 -0.64206767
64 64 -0
60.069122 70.891563 -0.22157626
59.930786 71.134087 0
59.603218 71.708382 0.24783854
60.028671 70.942978 -0.88595575
60.152641 70.726234 -0.64592063
64 64 -0
60.071121 70.868759 -0.22099569
59.935089 71.106583 0
59.60165 71.689529 0.247403
60.030396 70.92054 -0.88370425
60.170067 70.67704 -0.64164013
64 64 -0
60.04472 70.895569 -0.2220118
59.954994 71.051994 0
59.597527 71.675201 0.24711299
60.075245 70.823235 -0.87188423
60.169685 70.65905 -0.64035583
64 64 -0
60.057121 70.854744 -0.22085069
59.94907 71.042595 0
59.603809 71.642838 0.24624188
60.044155 70.858101 -0.87694961
60.151382 70.672211 -0.64206767
64 64 -0
60.025475 70.890488 -0.22215681
59.958771 71.006126 0
59.610153 71.610519 0.24537131
60.071487 70.79174 -0.86907029
60.143322 70.667557 -0.64206767
64 64 -0
64 64 -0
59.965942 70.974213 0
59.637383 71.542236 0.24333964
60.050537 70.808968 -0.87188423
60.150719 70.636253 -0.63950068
64 64 -0
64 64 -0
59.915733 71.041374 0
59.651737 71.496506 0.24203353
60.085747 70.729515 -0.86231571
60.155609 70.609406 -0.63736129
60.093288 70.716553 -0.43303236
60.031879 70.822128 -0.22041513
59.951714 70.959953 0
59.663586 71.455307 0.24087241
60.103218 70.680893 -0.8566879
60.150208 70.600327 -0.63693368
60.090382 70.702896 -0.43245634
60.031494 70.803856 -0.21997958
59.909218 71.013496 0
59.665054 71.432106 0.24029185
60.125935 70.623543 -0.84993333
60.142235 70.595673 -0.63693368
60.095341 70.67585 -0.43101516
60.025898 70.794579 -0.21983458
59.948044 70.927689 0
59.656078 71.426865 0.24029185
60.123081 70.610077 -0.84880644
60.126484 70.604279 -0.63821638
60.055874 70.72467 -0.43447468
60.0098 70.803223 -0.22027014
59.92651 70.945229 0
59.657623 71.403679 0.2397113
60.112514 70.609787 -0.84937096
60.136719 70.568626 -0.63522184
60.063492 70.693138 -0.43274435
60.014755 70.776001 -0.21954457
59.928677 70.922356 0
59.659222 71.380508 0.23913074
60.094204 70.622589 -0.85162252
60.131401 70.559517 -0.63479263
60.055405 70.688377 -0.43274435
60.025055 70.739838 -0.21852846
59.92561 70.908455 0
59.65823 71.361824 0.23869517
60.093967 70.604736 -0.84993333
60.123478 70.55484 -0.63479263
60.055229 70.670242 -0.43187922
60.043362 70.690308 -0.21707734
59.869568 70.984184 0
59.651978 71.352104 0.23855019
60.091179 70.591263 -0.84880644
60.126038 70.532486 -0.63308078
60.044525 70.669937 -0.43216833
60.014072 70.721283 -0.21823846
59.930164 70.862778 0
59.648407 71.337891 0.23825963
60.07283 70.604012 -0.85105801
60.12339 70.518982 -0.63222563
60.047047 70.647362 -0.43101516
59.982052 70.75666 -0.21954457
59.900593 70.893646 0
59.668755 71.283508 0.23666351
60.05183 70.621094 -0.85387403
60.099743 70.540741 -0.63479263
60.036369 70.647026 -0.43130317
59.984535 70.733948 -0.21896403
59.905594 70.866333 0
59.659954 71.278267 0.23666351
60.067314 70.577049 -0.84880644
60.120819 70.487572 -0.63008624
60.012417 70.668861 -0.43303236
59.96307 70.751389 -0.21968958
64 64 0
59.656502 71.264091 0.23637295
60.061977 70.56794 -0.84824413
64 64 -0
59.99638 70.677353 -0.43389753
59.957584 70.74205 -0.21954457
59.891685 70.851959 0
59.653069 71.249931 0.23608294
60.040955 70.584953 -0.85105801
60.107796 70.473778 -0.6296587
64 64 -0
64 64 -0
64 64 0
59.638962 71.253571 0.23637295
60.04612 70.558403 -0.84824413
60.089382 70.486641 -0.63136888
59.985592 70.658806 -0.43332151
59.943996 70.727798 -0.21939902
59.842892 70.895508 0
59.62751 71.252762 0.2365185
60.046085 70.540573 -0.84655493
60.108105 70.437981 -0.62709004
59.966843 70.671654 -0.43447468
59.922417 70.74514 -0.22012514
59.839951 70.881561 0
59.626816 71.234131 0.23608294
60.05265 70.520813 -0.84430557
64 64 -0
59.970852 70.655937 -0.43360952
59.918343 70.742676 -0.22012514
59.843872 70.8657 0
59.619759 71.235924 0.23622794
60.047421 70.511681 -0.84374106
60.093781 70.435303 -0.62751758
59.968185 70.642212 -0.43303236
59.920986 70.719971 -0.21954457
59.862595 70.81617 0
59.608326 71.235069 0.23637295
60.036903 70.511253 -0.84430557
60.077995 70.443741 -0.62880194
59.965538 70.62851 -0.43245634
59.937183 70.675087 -0.21823846
59.859768 70.802284 0
59.594177 71.23864 0.23666351
60.031696 70.502106 -0.84374106
64 64 -0
59.949444 70.636879 -0.43332151
59.929123 70.670174 -0.21823846
59.840706 70.815048 0
59.593559 71.220001 0.23622794
60.013229 70.514648 -0.84599257
60.067791 70.425491 -0.62794679
59.930626 70.649628 -0.43447468
59.937347 70.638649 -0.21736735
59.85965 70.76561 0
59.582127 71.219101 0.23637295
60.026627 70.475174 -0.84148949
60.051979 70.433853 -0.62922949
59.952358 70.596199 -0.43130317
59.934761 70.624886 -0.21707734
59.805202 70.836014 0
59.570683 71.218201 0.2365185
59.997498 70.50499 -0.84599257
60.052273 70.41597 -0.62794679
59.906445 70.652977 -0.43533871
59.926758 70.619965 -0.21707734
59.810577 70.808784 0
59.561962 71.212837 0.2365185
60.000317 70.482849 -0.84374106
60.047226 70.406815 -0.62751758
64 64 -0
59.924225 70.606186 -0.21678679
59.857018 70.715118 0
59.558716 71.198616 0.23622794
60.008522 70.452095 -0.84036481
60.023277 70.428238 -0.63008624
64 64 -0
59.908039 70.614517 -0.21722235
59.761276 70.851753 0
59.547287 71.197662 0.23637295
59.990013 70.464539 -0.84261638
64 64 -0
64 64 -0
59.89183 70.622818 -0.21765791
59.802383 70.767021 0
59.544067 71.183456 0.23608294
59.990257 70.446739 -0.84092718
64 64 -0
64 64 -0
59.883831 70.617851 -0.21765791
59.76947 70.80172 0
59.535393 71.178062 0.23608294
59.982471 70.441887 -0.84092718
64 64 -0
59.871796 70.619354 -0.43476269
59.886837 70.595238 -0.21707734
59.777786 70.770096 0
59.526722 71.172661 0.23608294
59.972 70.441338 -0.84148949
64 64 -0
59.874771 70.596817 -0.43360952
59.873367 70.599068 -0.21736735
59.788918 70.734108 0
59.515305 71.171654 0.23622794
59.964218 70.436462 -0.84148949
64 64 -0
59.866802 70.591827 -0.43360952
59.87368 70.580864 -0.21693179
59.722721 70.821617 0
59.506641 71.166229 0.23622794
59.961849 70.422989 -0.84036481
64 64 -0
59.869854 70.569313 -0.43245634
59.86573 70.575867 -0.21693179
59.728333 70.794418 0
59.486923 71.178398 0.23680851
59.962223 70.405205 -0.83867562
64 64 -0
59.892265 70.516174 -0.42928484
59.852242 70.579674 -0.21722235
59.739559 70.758423 0
59.489338 71.15535 0.23622794
59.932766 70.434685 -0.84317869
59.972298 70.372139 -0.62837434
59.917564 70.45874 -0.42582536
59.852627 70.56147 -0.21678679
59.717491 70.775261 0
59.469589 71.167465 0.23680851
59.922276 70.434052 -0.84374106
59.967346 70.362938 -0.62794679
59.848835 70.549934 -0.43216833
59.836353 70.569626 -0.21722235
59.689804 70.800865 0
59.466492 71.153221 0.2365185
59.922676 70.416267 -0.84205401
59.954159 70.366714 -0.62880194
59.83815 70.549271 -0.43245634
59.839565 70.54705 -0.21664178
59.703922 70.760506 0
59.460644 71.143333 0.23637295
59.920391 70.402756 -0.84092718
59.949226 70.357498 -0.62837434
59.830242 70.544243 -0.43245634
59.828869 70.546394 -0.21678679
58.249817 73.024643 0
59.446426 71.146622 0.23666351
59.918125 70.389267 -0.83980244
59.944309 70.348274 -0.62794679
59.844616 70.504326 -0.43015
59.815361 70.550117 -0.21707734
58.269733 72.969452 0
59.437794 71.141113 0.23666351
59.910408 70.384323 -0.83980244
59.939419 70.339035 -0.62751758
59.828388 70.512367 -0.43101516
59.799049 70.558174 -0.21751234
58.244862 72.984436 0
59.420769 71.148712 0.2370985
59.885101 70.39827 -0.84261638
59.93071 70.327354 -0.62709004
59.794205 70.539604 -0.43332151
59.787167 70.550545 -0.21751234
58.304611 72.855782 0
59.404999 71.144783 0.23724407
59.871872 70.401825 -0.84374106
59.9175 70.33107 -0.62794679
59.786308 70.534515 -0.43332151
59.79052 70.527985 -0.21693179
58.251598 72.914513 0
59.404823 71.126122 0.23680851
64 64 -0
59.875175 70.379768 -0.84148949
59.912647 70.321808 -0.62751758
59.798077 70.499008 -0.43130317
59.776989 70.531624 -0.21722235
59.673565 70.691589 0
59.393394 71.124924 0.23695351
59.861935 70.383316 -0.84261638
59.90221 70.321182 -0.62794679
64 64 -0
59.766273 70.530876 -0.21736735
59.637177 70.730026 0
59.387615 71.11499 0.23680851
59.868069 70.35701 -0.83980244
59.891781 70.320526 -0.62837434
59.819031 70.432457 -0.42755565
59.755558 70.530106 -0.21751234
59.651741 70.689835 0
59.359192 71.139923 0.23782462
59.852074 70.364769 -0.84148949
59.881348 70.319855 -0.62880194
59.802784 70.440407 -0.42842081
59.747669 70.524979 -0.21751234
59.663544 70.65406 0
59.376102 71.095123 0.2365185
59.847164 70.355507 -0.84092718
59.873711 70.314873 -0.62880194
59.800671 70.426659 -0.42784366
59.722729 70.545944 -0.21838346
59.652664 70.653168 0
59.356174 71.106918 0.2370985
59.831131 70.363235 -0.84261638
59.863274 70.314178 -0.62922949
59.787231 70.430244 -0.42842081
59.726212 70.523384 -0.2178029
59.630367 70.669678 0
59.33334 71.123047 0.23782462
59.829033 70.349693 -0.84148949
59.861279 70.300598 -0.62837434
59.785152 70.416489 -0.42784366
59.706921 70.535591 -0.21838346
59.616592 70.673103 0
59.339012 71.095673 0.2370985
64 64 -0
59.799 70.378601 -0.84599257
59.839554 70.317032 -0.63051379
59.774559 70.41571 -0.42813167
59.70475 70.521706 -0.2180929
59.642887 70.615639 0
59.298996 71.137787 0.23869517
59.802498 70.35656 -0.84374106
59.843239 70.294861 -0.62880194
59.772507 70.401978 -0.42755565
59.694 70.520859 -0.21823846
59.557465 70.727631 0
59.313286 71.097404 0.23753406
59.792007 70.355728 -0.84430557
59.838467 70.285553 -0.62837434
59.759068 70.405479 -0.42813167
59.683258 70.519981 -0.21838346
59.618286 70.618111 0
59.298969 71.10041 0.23782462
59.781521 70.354874 -0.84486789
59.828041 70.284798 -0.62880194
59.742744 70.413284 -0.42899683
59.678253 70.510437 -0.21823846
59.541218 70.716873 0
59.267399 71.129364 0.23898573
59.779484 70.341301 -0.84374106
59.82045 70.279747 -0.62880194
59.740726 70.399536 -0.42842081
59.661762 70.518173 -0.21867347
59.590771 70.62484 0
59.281822 71.089035 0.23782462
59.771824 70.336197 -0.84374106
59.807159 70.283241 -0.6296587
59.730129 70.398682 -0.42870882
59.674072 70.482681 -0.21765791
59.513443 70.723396 0
59.258842 71.104935 0.23855019
59.764172 70.331085 -0.84374106
59.791012 70.290962 -0.63094133
59.719524 70.397812 -0.42899683
59.646023 70.507675 -0.21867347
59.487949 70.743935 0
59.227142 71.133759 0.2397113
59.748028 70.338623 -0.84543025
59.794853 70.268814 -0.62922949
59.7118 70.392632 -0.42899683
59.649742 70.485146 -0.2180929
59.560993 70.617447 0
59.221416 71.123672 0.2395663
59.743206 70.329269 -0.84486789
59.772961 70.285027 -0.63136888
59.701195 70.391739 -0.42928484
59.644806 70.475578 -0.2179479
59.474579 70.728683 0
59.238922 71.079071 0.23825963
59.727047 70.336746 -0.84655493
59.773972 70.267159 -0.63008624
59.693474 70.386536 -0.42928484
59.628265 70.483238 -0.21838346
59.533375 70.623962 0
59.215836 71.094864 0.23898573
59.722237 70.327377 -0.84599257
59.769276 70.257797 -0.6296587
59.668369 70.407051 -0.43101516
59.608791 70.495171 -0.21896403
59.475819 70.691864 0
59.213097 71.08046 0.23869517
59.718414 70.324791 -0.84599257
59.75687 70.267982 -0.63094133
59.664501 70.404434 -0.43101516
59.610703 70.483902 -0.21867347
59.492203 70.658951 0
59.229214 71.04744 0.23767906
59.705063 70.328033 -0.84711945
59.734886 70.284088 -0.63308078
59.671288 70.377792 -0.42957398
59.608704 70.470001 -0.21838346
59.49292 70.640594 0
59.203186 71.067482 0.23855019
59.70314 70.314423 -0.84599257
59.73885 70.261955 -0.63136888
59.657768 70.381104 -0.43015
59.597965 70.468987 -0.21852846
59.452698 70.682465 0
59.168339 71.100342 0.2398563
59.68692 70.321823 -0.84768176
59.728382 70.261055 -0.63179809
59.650063 70.375854 -0.43015
59.587227 70.467949 -0.21867347
59.432892 70.69416 0
59.133408 71.133133 0.24116242
59.687897 70.304024 -0.84599257
59.726624 70.247406 -0.63094133
59.642361 70.37059 -0.43015
59.564747 70.484055 -0.21939902
59.433628 70.675751 0
59.186401 71.03717 0.23811463
59.665913 70.319756 -0.84880644
59.707462 70.259171 -0.63265324
59.628822 70.37384 -0.43072605
59.559853 70.474411 -0.21925402
59.463829 70.614426 0
59.198483 71.001343 0.2370985
59.664032 70.306152 -0.84768176
59.696999 70.258209 -0.63308078
59.62698 70.360039 -0.43015
59.552032 70.46904 -0.21925402
59.402756 70.68615 0
59.12524 71.08976 0.24029185
59.650654 70.309265 -0.84880644
59.695263 70.24456 -0.63222563
59.607552 70.371788 -0.43130317
59.541271 70.467934 -0.21939902
59.438995 70.616302 0
59.152073 71.032516 0.23855019
59.640137 70.308197 -0.84937096
59.684803 70.243568 -0.63265324
59.602795 70.362228 -0.43101516
59.530499 70.466835 -0.21954457
59.386608 70.675018 0
59.13176 71.043755 0.23913074
59.632515 70.302925 -0.84937096
59.683105 70.229919 -0.63179809
59.601009 70.348396 -0.43043801
59.525654 70.457146 -0.21939902
59.42894 70.596718 0
59.126209 71.0336 0.23898573
59.630707 70.289291 -0.84824413
59.658009 70.249992 -0.63436508
59.587433 70.351578 -0.43101516
59.508957 70.464539 -0.21983458
59.361591 70.676666 0
59.114754 71.031967 0.23913074
59.605679 70.309036 -0.85162252
59.650459 70.244736 -0.63436508
59.576809 70.350487 -0.43130317
59.50412 70.454849 -0.21968958
59.377327 70.636887 0
59.085476 71.055901 0.24014629
59.609699 70.287056 -0.84937096
59.637035 70.24791 -0.63522184
59.569138 70.345139 -0.43130317
59.496323 70.449409 -0.21968958
59.369308 70.631294 0
59.106705 71.007355 0.23869517
59.596279 70.290062 -0.85049564
59.64716 70.217384 -0.63265324
59.564438 70.335541 -0.43101516
59.476608 70.460991 -0.22027014
59.307564 70.702454 0
59.050552 71.069557 0.24101742
59.579922 70.297218 -0.85218483
59.621948 70.237343 -0.63522184
59.553818 70.334412 -0.43130317
59.480751 70.438507 -0.21968958
59.314415 70.675484 0
59.042011 71.063568 0.24101742
59.572315 70.29187 -0.85218483
59.611462 70.236244 -0.63564938
59.537231 70.341728 -0.43216833
59.455032 70.458534 -0.22056013
59.30336 70.674065 0
59.05442 71.027817 0.24000129
59.564716 70.286514 -0.85218483
59.603931 70.230934 -0.63564938
59.541504 70.31942 -0.43101516
59.462212 70.431808 -0.21983458
59.313309 70.64286 0
58.980026 71.11525 0.24319409
59.551262 70.289444 -0.85330951
59.584545 70.242386 -0.63736129
59.530884 70.318253 -0.43130317
59.445435 70.439056 -0.22027014
59.320312 70.615952 0
59.007435 71.058281 0.24145298
59.567181 70.2509 -0.84880644
59.594833 70.211914 -0.63479263
59.514275 70.325508 -0.43216833
59.431652 70.442017 -0.22056013
59.330379 70.584824 0
58.992905 71.060715 0.24174297
59.530182 70.286964 -0.8544364
59.575428 70.22332 -0.63650453
59.506634 70.320084 -0.43216833
59.417843 70.444969 -0.22085069
59.244019 70.689468 0
58.996422 71.03772 0.24116242
59.519638 70.285698 -0.85499871
59.564926 70.22216 -0.63693368
59.486992 70.331497 -0.43332151
59.407043 70.443657 -0.22099569
59.284275 70.615898 0
58.972839 71.052826 0.24188797
59.517952 70.272018 -0.85387403
59.551445 70.225143 -0.63778883
59.485363 70.317619 -0.43274435
59.423435 70.404282 -0.21983458
59.249054 70.6483 0
58.988495 71.012917 0.24072686
59.508255 70.277565 -0.85499871
59.556648 70.20993 -0.63650453
59.481548 70.314888 -0.43274435
59.392353 70.439545 -0.2211407
57.503559 73.079285 0
58.957031 71.047935 0.24203353
59.500671 70.272133 -0.85499871
59.552139 70.200386 -0.63607693
59.467884 70.317841 -0.43332151
59.384575 70.433975 -0.2211407
57.547199 72.995308 0
58.954586 71.033386 0.24174297
59.493095 70.266693 -0.85499871
59.523666 70.22419 -0.63907313
59.460255 70.312355 -0.43332151
59.379837 70.424179 -0.22099569
57.533298 72.991722 0
58.958229 71.010406 0.24116242
59.482559 70.265358 -0.85556108
59.507149 70.231255 -0.64035583
59.458687 70.29847 -0.43274435
59.375114 70.414375 -0.22085069
57.513302 72.996574 0
58.928482 71.033821 0.24217853
59.466057 70.272255 -0.85725027
59.50563 70.217506 -0.63950068
59.438957 70.309746 -0.43389753
59.352146 70.42984 -0.22157626
57.532921 72.946556 0
58.913902 71.036102 0.24246852
59.458481 70.266769 -0.85725027
59.498123 70.212074 -0.63950068
59.428307 70.308411 -0.43418553
59.347427 70.420013 -0.22143126
59.211079 70.608162 0
58.893208 71.046783 0.24304909
59.450912 70.261276 -0.85725027
59.505707 70.185867 -0.63736129
59.417637 70.307083 -0.43447468
59.324402 70.43541 -0.22215681
59.22757 70.568687 0
58.887749 71.036407 0.24290408
59.431385 70.272209 -0.85950184
59.483124 70.20118 -0.63950068
59.406975 70.305717 -0.43476269
59.319687 70.425552 -0.2220118
59.164482 70.638634 0
58.900669 71.000824 0.24188797
59.42981 70.258469 -0.85837495
59.475632 70.195717 -0.63950068
59.396313 70.304337 -0.4350507
59.321125 70.407303 -0.22157626
59.202499 70.569748 0
58.864635 71.032425 0.24319409
59.401234 70.281647 -0.86231571
59.46209 70.198517 -0.64035583
59.388699 70.298767 -0.4350507
59.301105 70.418419 -0.22215681
57.435951 72.96611 0
58.883766 70.98848 0.24188797
59.381618 70.292473 -0.86456722
59.451557 70.197182 -0.64078498
59.378033 70.297363 -0.43533871
59.302582 70.400162 -0.22172125
59.198956 70.541351 0
58.847656 71.019989 0.24319409
59.361973 70.303261 -0.86681879
59.428864 70.212357 -0.64292443
59.370426 70.291771 -0.43533871
59.28561 70.407043 -0.22215681
59.178719 70.552315 0
58.839176 71.013763 0.24319409
59.357372 70.293564 -0.86625642
59.424404 70.202698 -0.64249688
59.359749 70.290344 -0.43562785
59.27787 70.401344 -0.22215681
59.124466 70.609299 0
58.812191 71.032623 0.2440652
59.358841 70.275696 -0.86456722
59.416912 70.197166 -0.64249688
59.361382 70.272255 -0.43476269
59.263966 70.403976 -0.22244681
59.138149 70.574104 0
58.791336 71.04306 0.24464576
59.369415 70.24559 -0.86119103
59.421658 70.175125 -0.64078498
59.332249 70.295723 -0.43677992
59.250034 70.406609 -0.22273737
59.096107 70.61422 0
58.782829 71.036758 0.24464576
59.410374 70.174736 -0.85218483
59.405022 70.181938 -0.64206767
59.330811 70.281784 -0.43620387
59.248505 70.392517 -0.22244681
59.134686 70.545647 0
58.777428 71.026283 0.24450076
59.388348 70.188736 -0.64335197
59.31395 70.288582 -0.43706903
59.246986 70.378441 -0.22215681
59.092575 70.585655 0
58.778259 71.007462 0.2440652
59.377804 70.187271 -0.64377952
59.303261 70.287056 -0.43735704
59.22995 70.385193 -0.22259237
59.087734 70.575562 0
58.816452 70.938698 0.24188797
59.336475 70.226891 -0.64848757
59.295666 70.281372 -0.43735704
59.219124 70.383575 -0.22273737
59.073559 70.577942 0
58.720844 71.048897 0.24595188
59.307373 70.249992 -0.65148377
59.297401 70.263275 -0.43649188
59.198933 70.394417 -0.22331792
59.087482 70.542862 0
58.696732 71.063286 0.24667743
59.290569 70.256615 -0.65276647
59.277393 70.274117 -0.43764505
59.197468 70.380302 -0.22302736
59.057678 70.566017 0
58.738209 70.99044 0.2443552
59.276134 70.252174 -0.65319562
59.253555 70.282059 -0.43879822
59.173382 70.388168 -0.22360793
59.030087 70.577827 0
58.716145 70.99334 0.24479076
59.256184 70.262833 -0.65490752
59.255341 70.263947 -0.43793306
59.165665 70.382339 -0.22360793
58.97187 70.638184 0
58.676327 71.028366 0.24624188
59.245518 70.261185 -0.65533507
59.247776 70.258209 -0.43793306
59.173668 70.355797 -0.22288236
59.001614 70.582375 0
58.661545 71.030212 0.24653244
59.231743 70.263596 -0.65619016
59.233944 70.260696 -0.43851021
59.147099 70.374779 -0.22375348
58.990517 70.580467 0
58.665646 71.007217 0.24595188
59.236633 70.241501 -0.65447831
59.216965 70.267273 -0.43937537
59.155174 70.348244 -0.22302736
58.973103 70.586815 0
58.628811 71.037941 0.24725799
59.213501 70.256126 -0.65661776
59.212547 70.25737 -0.43908623
59.122242 70.375404 -0.22418848
58.927193 70.630341 0
58.617157 71.035576 0.247403
59.193447 70.266632 -0.65832961
