# .PCD v0.7 - Point Cloud Data file format
VERSION 0.7
FIELDS x y z
SIZE 4 4 4
TYPE F F F
COUNT 1 1 1
WIDTH 1599
HEIGHT 1
VIEWPOINT 0 0 0 1 0 0 0
POINTS 1599
DATA ascii
69.237549 61.382946 -0.96528536
71.455055 60.274918 -0.92310506
72.272682 59.866375 -0.77088046
73.764053 59.121181 -0.60830528
78.725533 56.642071 -0.45973772
82.162491 54.924717 0
82.076981 54.967445 0.56437141
69.253967 61.382671 -0.9677279
71.464096 60.281666 -0.92366743
72.263878 59.883244 -0.76959616
73.769936 59.13298 -0.60830528
78.715805 56.669136 -0.45915717
82.168777 54.948997 0
82.083229 54.991611 0.56422645
69.310249 61.362637 -0.97750747
71.468582 60.290688 -0.92366743
72.255051 59.900085 -0.76831186
73.743393 59.160892 -0.60628808
78.715347 56.691544 -0.45886716
82.151733 54.984844 0
82.075485 55.022713 0.5636459
69.30014 61.375637 -0.97506177
71.468513 60.301968 -0.92310506
72.255402 59.912338 -0.76788431
73.721413 59.186443 -0.60455775
73.717873 59.188194 -0.30284989
82.176613 54.999851 0
82.10495 55.035339 0.56422645
69.307755 61.379848 -0.97587913
71.477524 60.308746 -0.92366743
72.264931 59.920048 -0.76831186
73.685478 59.2188 -0.6019634
73.705063 59.209133 -0.30226991
82.140793 55.044865 0
82.106438 55.061825 0.56393588
69.324211 61.379723 -0.97832167
71.491089 60.313301 -0.92479211
72.251427 59.939106 -0.76660001
73.668045 59.241928 -0.60052222
73.720154 59.216278 -0.30255988
73.71788 59.2174 0
73.603378 59.27375 0.29892486
69.282997 61.407925 -0.97017354
71.500114 60.32011 -0.92535663
72.233292 59.960384 -0.76446056
73.683067 59.249058 -0.6010983
73.697945 59.241756 -0.30168933
73.630203 59.274998 0
73.5951 59.292221 0.29848987
69.290565 61.41214 -0.97098774
71.518242 60.322483 -0.92704368
72.178215 59.99966 -0.75889742
73.698105 59.25621 -0.60167539
73.717682 59.246635 -0.30212435
73.645264 59.282059 0
73.591431 59.308388 0.2981993
69.309891 61.406662 -0.97424763
71.529602 60.322563 -0.9281705
72.079147 60.054165 -0.74948293
73.710251 59.257538 -0.60225141
73.734566 59.245663 -0.30255988
73.64344 59.290169 0
73.580254 59.32103 0.29776374
69.304146 61.417404 -0.97261924
71.556877 60.320541 -0.93098438
71.92234 60.142597 -0.73450369
73.757828 59.248894 -0.60484582
73.716942 59.268803 -0.30183434
73.649124 59.301826 0
73.609276 59.321228 0.29848987
69.267242 61.443237 -0.96528536
71.51561 60.35186 -0.92535663
71.84848 60.190285 -0.72722864
73.796143 59.244873 -0.60686409
73.708626 59.287357 -0.30139878
73.687553 59.297585 0
73.62426 59.328308 0.29877985
69.354858 61.408699 -0.98076731
71.506287 60.367588 -0.92366743
71.792999 60.228844 -0.7216655
73.797234 59.258965 -0.60657609
78.887863 56.795525 -0.46191496
82.140305 55.221619 0
73.620552 59.34446 0.29848987
69.366898 61.410873 -0.98239881
71.542717 60.361202 -0.92760819
71.783691 60.244946 -0.72038281
71.808952 60.232761 -0.48319361
71.824402 60.225311 -0.24262021
82.146194 55.245811 0
82.088402 55.273693 0.56088811
69.307648 61.447357 -0.97098774
71.533363 60.37693 -0.925919
71.755836 60.269936 -0.7173866
71.846115 60.226513 -0.48521081
71.875801 60.212238 -0.2440719
82.166153 55.263229 0
82.089577 55.300056 0.56059808
69.355309 61.432396 -0.97913897
71.54689 60.381645 -0.92704368
71.760338 60.279308 -0.7173866
71.832016 60.244942 -0.48405764
64 64 -0
82.143829 55.300941 0
82.081329 55.33091 0.56001753
69.38961 61.423954 -0.98484135
71.537514 60.397335 -0.92535663
71.737038 60.301968 -0.71481967
71.827217 60.258865 -0.48348162
64 64 -0
82.088593 55.35429 0
71.767494 60.287411 0.24043685
69.299011 61.475121 -0.9677279
71.560211 60.397701 -0.92760819
71.741501 60.311317 -0.71481967
71.803703 60.281681 -0.48175129
71.814415 60.276581 -0.24174966
71.823158 60.272411 0
71.743835 60.310207 0.2395663
69.319923 61.473042 -0.97098774
71.53701 60.419926 -0.9242298
71.73204 60.327286 -0.71353531
71.789505 60.299992 -0.48059812
71.795441 60.297173 -0.24102411
71.794746 60.297501 0
71.743584 60.321804 0.23942074
69.318504 61.481583 -0.97017354
71.555115 60.422508 -0.925919
71.717911 60.345421 -0.71182346
71.770599 60.320473 -0.47915694
71.799904 60.306595 -0.24102411
71.79921 60.306923 0
71.724541 60.342281 0.23869517
69.343895 61.477463 -0.97424763
71.582405 60.420795 -0.92873287
71.722321 60.354748 -0.71182346
71.770363 60.332069 -0.47886893
71.809059 60.313805 -0.24116911
71.780136 60.327454 0
71.710152 60.360493 0.23811463
69.329048 61.49234 -0.97098774
71.586723 60.429958 -0.92873287
71.712776 60.370644 -0.71053916
71.770111 60.343662 -0.47858092
71.780586 60.338734 -0.24015298
71.751602 60.352375 0
71.69574 60.378662 0.23753406
69.372345 61.479889 -0.97832167
71.586433 60.441284 -0.9281705
71.721802 60.377785 -0.71096671
71.727684 60.375027 -0.47569743
71.756783 60.361378 -0.23928243
71.760712 60.359535 0
71.695404 60.390167 0.23738906
69.33062 61.50732 -0.97017354
71.595329 60.448303 -0.92873287
71.716881 60.391464 -0.71011162
71.718018 60.390934 -0.4748334
71.765877 60.368553 -0.23942743
71.746262 60.377724 0
71.676231 60.410473 0.23666351
69.400833 61.482433 -0.98239881
71.604218 60.455338 -0.92929518
71.739845 60.392117 -0.71182346
71.712982 60.404636 -0.47425625
71.742004 60.391109 -0.23855688
71.717606 60.402485 0
71.65229 60.43293 0.23579238
69.376968 61.501461 -0.97750747
71.622322 60.458103 -0.93098438
71.706955 60.418777 -0.70839971
71.689186 60.427036 -0.47252706
71.736931 60.40485 -0.23826632
71.717232 60.414001 0
71.647179 60.446552 0.23550239
69.382957 61.502632 -0.97832167
71.629066 60.460571 -0.93154675
71.699806 60.427753 -0.70754462
71.700714 60.42733 -0.47310308
71.724968 60.41608 -0.23783131
71.705223 60.42524 0
71.649323 60.451176 0.23550239
69.403915 61.500839 -0.98158151
71.633339 60.469791 -0.93154675
71.732071 60.424133 -0.71011162
71.662773 60.456181 -0.47050872
71.710426 60.434143 -0.23725076
71.690643 60.443291 0
71.653603 60.460419 0.23550239
69.397964 61.511505 -0.97995317
71.651451 60.472633 -0.93323594
71.713081 60.444221 -0.70797217
71.671745 60.463276 -0.47079673
71.724159 60.439114 -0.23754075
71.671303 60.463482 0
71.615402 60.48925 0.23419628
69.414444 61.511837 -0.98239881
71.669563 60.475513 -0.93492514
71.722031 60.451405 -0.70839971
71.67601 60.472549 -0.47079673
71.704849 60.459297 -0.2368152
71.61882 60.498833 0
71.605469 60.504967 0.23376071
69.350029 61.549263 -0.97017354
71.65995 60.491135 -0.93323594
71.735657 60.456455 -0.70925647
71.670876 60.48613 -0.47022071
71.704399 60.470772 -0.2366702
71.660896 60.4907 0
71.59079 60.522816 0.23318017
69.406944 61.53109 -0.97995317
71.659569 60.502502 -0.93267357
71.721252 60.474335 -0.70754462
71.665695 60.499702 -0.46964356
71.694473 60.486561 -0.23623464
71.650925 60.506447 0
71.594986 60.53199 0.23318017
69.328949 61.574482 -0.96528536
71.659149 60.51387 -0.93210906
71.730171 60.481544 -0.70797217
71.660507 60.513252 -0.46906754
71.679794 60.504475 -0.23565409
71.650406 60.517849 0
71.608643 60.536861 0.23347072
69.372391 61.562542 -0.97261924
71.672623 60.518925 -0.93323594
71.72039 60.497253 -0.70668787
71.660011 60.524647 -0.46877953
71.684013 60.513756 -0.23565409
71.62616 60.540001 0
71.593887 60.554646 0.23289016
69.36631 61.573112 -0.97098774
71.658295 60.536575 -0.93098438
71.743324 60.498119 -0.70839971
71.6642 60.533905 -0.46877953
71.692947 60.520905 -0.23579909
71.65406 60.53849 0
71.574356 60.574535 0.23216404
69.337708 61.593815 -0.96528536
71.671738 60.541656 -0.93210906
71.733505 60.513809 -0.70711541
71.673096 60.541042 -0.46906754
71.68293 60.53661 -0.23536353
71.639259 60.556297 0
71.587975 60.579414 0.2324546
69.408234 61.569881 -0.97750747
71.680557 60.54884 -0.93267357
71.742409 60.521049 -0.70754462
71.663109 60.556679 -0.46820238
71.677635 60.550152 -0.23507352
71.652901 60.561268 0
71.592102 60.588585 0.2324546
69.477272 61.554749 -0.98891544
71.661026 60.579845 -0.92929518
71.746094 60.541866 -0.70711541
71.67141 60.575207 -0.46820238
71.700195 60.562359 -0.23550908
71.656441 60.58189 0
71.595581 60.609058 0.23230959
69.398941 61.597538 -0.97424763
70.619102 61.054585 -0.99941778
71.679085 60.582905 -0.93098438
71.769028 60.542881 -0.70882726
71.670822 60.586582 -0.46791437
71.690094 60.578007 -0.23507352
71.646294 60.597496 0
71.575943 60.628803 0.23158404
69.406357 61.602062 -0.97506177
71.664627 60.600426 -0.92873287
71.759132 60.55851 -0.70754462
71.674942 60.595852 -0.46791437
71.698967 60.585194 -0.23521852
71.645645 60.608845 0
71.603752 60.627426 0.23230959
69.377617 61.622581 -0.9693594
70.626198 61.070587 -0.99941778
71.668724 60.609692 -0.92873287
71.767975 60.565811 -0.70797217
71.693245 60.59885 -0.46877953
71.70784 60.5924 -0.23536353
71.649734 60.618088 0
71.588814 60.64502 0.23172905
69.389519 61.625099 -0.97098774
71.663528 60.623055 -0.92760819
71.753326 60.583481 -0.70626032
71.683144 60.61441 -0.46791437
71.707199 60.603809 -0.23521852
71.663338 60.623138 0
71.59761 60.6521 0.23187405
69.419548 61.619682 -0.97587913
71.676895 60.628235 -0.92873287
71.766846 60.58873 -0.70711541
71.706177 60.615376 -0.46906754
71.720825 60.60894 -0.23550908
71.667412 60.632401 0
71.601654 60.661282 0.23187405
69.457207 61.607075 -0.98239881
71.683586 60.630833 -0.92929518
71.768906 60.593422 -0.70711541
71.694 60.626266 -0.46820238
71.713341 60.617786 -0.23521852
71.698051 60.624489 0
71.622704 60.657528 0.2324546
69.414787 61.633472 -0.97424763
71.669022 60.648262 -0.92704368
71.754196 60.611034 -0.70540357
71.693336 60.637634 -0.46791437
71.712662 60.629189 -0.23507352
71.6735 60.646301 0
71.631493 60.664661 0.2325996
69.426712 61.636063 -0.97587913
70.614426 61.118687 -0.99526346
71.701027 60.645348 -0.93042207
71.791237 60.606052 -0.70839971
71.702133 60.644867 -0.46820238
71.72625 60.634361 -0.23536353
71.653694 60.66597 0
71.625999 60.678032 0.23230959
69.470375 61.624908 -0.98321301
70.627113 61.122681 -0.99664915
71.714394 60.650612 -0.93154675
71.776497 60.62365 -0.70668787
71.701439 60.656235 -0.46791437
71.739853 60.639557 -0.23565409
71.68158 60.664856 0
71.649078 60.67897 0.23289016
69.432411 61.649185 -0.97587913
70.612167 61.13866 -0.99388045
71.723091 60.657921 -0.93210906
71.766434 60.639164 -0.70540357
71.691223 60.671707 -0.46704921
71.724831 60.657166 -0.23507352
71.695168 60.670002 0
71.667381 60.68203 0.23332515
69.426163 61.659668 -0.97424763
70.638649 61.136719 -0.99734062
71.745789 60.659203 -0.93436062
71.794067 60.638378 -0.70754462
71.714241 60.67281 -0.46820238
71.747955 60.658272 -0.23565409
71.70874 60.675182 0
71.657082 60.697464 0.23289016
69.374489 61.689655 -0.964468
70.646713 61.142761 -0.99803209
71.77784 60.656521 -0.93773901
71.812263 60.641724 -0.70882726
71.713509 60.684174 -0.46791437
71.751984 60.667633 -0.23565409
71.70797 60.686554 0
71.656281 60.708778 0.2327446
69.459076 61.661106 -0.97913897
70.640945 61.154743 -0.99664915
71.786545 60.663921 -0.93830138
71.792725 60.661274 -0.70668787
71.72226 60.691463 -0.46820238
71.765549 60.672913 -0.23594408
71.745468 60.681519 0
71.679352 60.709843 0.23332515
69.457336 61.669651 -0.97832167
70.60746 61.178535 -0.99111181
71.799904 60.669346 -0.93942606
71.825089 60.658588 -0.70925647
71.735779 60.696728 -0.46877953
71.745674 60.692501 -0.23521852
71.730324 60.699059 0
71.683327 60.719124 0.23332515
69.523834 61.649143 -0.98973274
70.624718 61.180622 -0.99318898
71.808617 60.676777 -0.93999058
71.838562 60.664032 -0.71011162
71.734985 60.708111 -0.46849039
71.768791 60.693722 -0.23579909
71.73909 60.706364 0
71.687286 60.728413 0.23332515
69.421997 61.700214 -0.97098774
70.641968 61.182758 -0.99526346
71.80793 60.688202 -0.93942606
71.833145 60.677509 -0.70925647
71.734207 60.719475 -0.46820238
71.782356 60.699051 -0.23608965
71.738281 60.717747 0
71.681671 60.741756 0.23303516
69.438438 61.700993 -0.97343343
70.659233 61.184921 -0.99734062
71.793221 60.705547 -0.93717664
71.837151 60.686977 -0.70925647
71.752457 60.722778 -0.46906754
71.786339 60.708458 -0.23608965
71.732643 60.731159 0
71.70475 60.742947 0.23361571
69.436661 61.709484 -0.97261924
70.621017 61.210503 -0.99111181
71.825287 60.703133 -0.94055289
71.82695 60.702431 -0.70797217
71.765938 60.728134 -0.46964356
71.799881 60.713837 -0.23637964
71.798935 60.714233 0
71.723053 60.746204 0.23405127
69.38018 61.740932 -0.96202546
70.642891 61.210735 -0.99388045
71.824585 60.714554 -0.93999058
71.845139 60.705925 -0.70925647
71.779434 60.733513 -0.47022071
71.803848 60.723263 -0.23637964
71.774117 60.735748 0
71.741341 60.749508 0.23448628
69.469528 61.711182 -0.97750747
70.646255 61.218761 -0.99388045
71.837914 60.720093 -0.94111526
71.849113 60.715408 -0.70925647
71.788147 60.740921 -0.47050872
71.783836 60.742722 -0.23565409
71.787666 60.741119 0
71.73568 60.762875 0.23419628
69.376488 61.757748 -0.96039397
70.635712 61.23259 -0.99180335
71.813744 60.741299 -0.93773901
71.867279 60.718971 -0.71053916
71.792076 60.750332 -0.47050872
71.821342 60.738125 -0.2366702
71.810799 60.742527 0
71.739586 60.772224 0.23419628
69.484184 61.720608 -0.97913897
70.662216 61.230984 -0.99526346
71.803589 60.756596 -0.93604982
71.880722 60.724537 -0.71139592
71.800766 60.757767 -0.47079673
71.839661 60.7416 -0.23710521
71.785896 60.76395 0
71.757866 60.7756 0.23463127
69.4673 61.731499 -0.97587913
70.682426 61.227318 -0.99803209
71.824326 60.753521 -0.93830138
71.896912 60.7234 -0.71267855
71.817062 60.756531 -0.4716619
71.836838 60.748329 -0.2369602
71.807083 60.760674 0
71.759811 60.780285 0.23463127
69.506577 61.722996 -0.98239881
70.676506 61.239227 -0.99664915
71.818855 60.766857 -0.93717664
71.891388 60.736862 -0.71182346
71.820976 60.76598 -0.4716619
71.826347 60.76376 -0.23652464
71.830231 60.762154 0
71.758896 60.791649 0.23448628
69.527611 61.722118 -0.98565871
71.841537 60.76857 -0.93942606
71.904808 60.742493 -0.71267855
71.834457 60.771484 -0.47223905
71.820648 60.777176 -0.23623464
71.819695 60.777569 0
71.791611 60.789143 0.23535739
69.480057 61.749458 -0.97669327
71.845436 60.778046 -0.93942606
71.908737 60.752048 -0.71267855
71.843132 60.778992 -0.47252706
71.853371 60.774784 -0.23710521
71.862099 60.771202 0
71.781059 60.804485 0.23492183
69.491913 61.752338 -0.97832167
71.854034 60.785599 -0.93999058
71.922173 60.757713 -0.71353531
71.847015 60.788471 -0.47252706
71.895744 60.768528 -0.23826632
71.861183 60.782673 0
71.804153 60.806015 0.23550239
69.512932 61.751511 -0.98158151
71.848495 60.798931 -0.93886369
71.935585 60.763412 -0.71439046
71.86525 60.792099 -0.47339109
71.904449 60.776112 -0.23841132
71.879532 60.786274 0
71.808006 60.815445 0.23550239
69.469856 61.776783 -0.97343343
71.842949 60.812241 -0.93773901
71.94426 60.771065 -0.71481967
71.873924 60.799652 -0.47368023
71.90834 60.785664 -0.23841132
71.888222 60.793839 0
71.826294 60.819012 0.23593795
69.568748 61.744423 -0.99054694
71.851501 60.819813 -0.93830138
71.919594 60.792236 -0.71225101
71.882576 60.807228 -0.47396824
71.941124 60.783512 -0.23928243
71.89209 60.803375 0
71.830132 60.828468 0.23593795
69.484375 61.786308 -0.97506177
71.860046 60.827404 -0.93886369
71.942505 60.794121 -0.71396291
71.881638 60.818687 -0.47368023
71.935364 60.797005 -0.23899187
71.89595 60.812912 0
71.84359 60.834045 0.23622794
69.39534 61.829826 -0.95876563
71.863876 60.836903 -0.93886369
71.965424 60.796055 -0.71567476
71.880661 60.830151 -0.47339109
71.93441 60.808533 -0.23884687
71.923935 60.812744 0
71.866692 60.83577 0.23680851
69.517242 61.788532 -0.97995317
71.858269 60.850185 -0.93773901
71.964531 60.80759 -0.71524721
71.908508 60.830048 -0.4748334
71.938255 60.818123 -0.23884687
71.92778 60.822323 0
71.870514 60.845276 0.23680851
69.538277 61.787865 -0.98321301
71.871498 60.855915 -0.93886369
71.977913 60.813412 -0.7161023
71.912331 60.839603 -0.4748334
71.961403 60.820007 -0.23942743
71.912277 60.839626 0
71.879135 60.852863 0.23695351
69.499619 61.811008 -0.97587913
71.865852 60.869186 -0.93773901
71.986542 60.821148 -0.71653152
71.916145 60.849167 -0.4748334
71.96524 60.829628 -0.23942743
71.930603 60.843414 0
71.873291 60.866226 0.23666351
69.529816 61.806725 -0.98076731
71.869629 60.878693 -0.93773901
71.99514 60.828911 -0.71695906
71.92955 60.854923 -0.47540942
71.969063 60.839252 -0.23942743
71.939247 60.851082 0
71.915718 60.860413 0.23782462
69.454315 61.844296 -0.9669137
71.873398 60.888203 -0.93773901
71.994194 60.840458 -0.71653152
71.947784 60.858803 -0.47627458
71.987381 60.843155 -0.23986299
71.967239 60.851112 0
71.914658 60.871895 0.23767906
69.507515 61.830959 -0.97587913
71.877151 60.897717 -0.93773901
72.01712 60.842594 -0.71824336
71.94194 60.872204 -0.47569743
71.981506 60.856621 -0.23957244
71.980736 60.856922 0
71.923279 60.879551 0.23782462
69.505516 61.839428 -0.97506177
71.880898 60.907238 -0.93773901
72.030472 60.848537 -0.71909851
71.960167 60.876129 -0.47656259
71.999817 60.860569 -0.24000798
71.969986 60.872276 0
71.956062 60.877739 0.23869517
69.529846 61.833733 -0.97913897
71.901688 60.904587 -0.93999058
72.037155 60.851517 -0.71952605
71.957237 60.882824 -0.47627458
72.030739 60.854031 -0.24087855
71.976715 60.875195 0
71.95311 60.884441 0.23855019
69.624542 61.804474 -0.99543512
71.895943 60.917835 -0.93886369
72.026619 60.866829 -0.71824336
71.99955 60.877396 -0.47858092
72.01519 60.871288 -0.24029854
71.990196 60.881046 0
71.961708 60.892166 0.23869517
69.52124 61.852482 -0.97669327
71.91861 60.92001 -0.94111526
72.054321 60.867226 -0.72038281
71.993668 60.890816 -0.47800377
72.043175 60.871559 -0.24102411
72.013359 60.883156 0
71.994522 60.89048 0.2395663
69.505394 61.866299 -0.97343343
71.908104 60.935089 -0.93942606
72.062881 60.875107 -0.72081035
72.016708 60.892998 -0.47915694
72.022728 60.890667 -0.24029854
72.021973 60.890961 0
71.998276 60.900143 0.2395663
69.540253 61.860485 -0.97913897
71.930763 60.937325 -0.94167757
72.071434 60.883003 -0.7212379
72.010818 60.90641 -0.47858092
72.079788 60.879776 -0.24189466
72.030571 60.898781 0
71.997154 60.911686 0.23942074
69.5336 61.870735 -0.97750747
71.92498 60.950558 -0.94055289
72.089577 60.887222 -0.72252226
72.024193 60.91238 -0.47915694
72.069 60.895142 -0.2414591
72.058601 60.899143 0
72.029991 60.910152 0.24029185
69.545403 61.873878 -0.97913897
71.928665 60.960136 -0.94055289
72.107719 60.891487 -0.72380656
72.042412 60.916523 -0.4800221
72.101868 60.893726 -0.24233022
72.067215 60.907013 0
72.019157 60.925438 0.2398563
69.571053 61.871765 -0.98321301
71.937073 60.967907 -0.94111526
72.135445 60.892124 -0.72594595
72.06546 60.918858 -0.48117527
72.115318 60.899815 -0.24262021
72.095253 60.907478 0
73.741348 60.278641 0.29123315
69.513565 61.901356 -0.97261924
71.92173 60.98473 -0.93886369
72.148781 60.898308 -0.7268011
72.083687 60.923084 -0.48204044
72.133629 60.904076 -0.24305578
72.162216 60.893192 0
73.687561 60.312599 0.28949147
69.562309 61.890495 -0.98076731
71.934883 60.990696 -0.93999058
72.171722 60.900875 -0.72851294
72.101898 60.927357 -0.48290446
72.176239 60.899162 -0.24421689
72.414154 60.808933 0
73.721153 60.313251 0.29036203
69.55098 61.902458 -0.97832167
71.94326 60.998489 -0.94055289
72.209084 60.898045 -0.73150915
72.100769 60.938972 -0.48261645
73.725822 60.324917 -0.29036874
72.62249 60.741833 0
73.64296 60.356228 0.28789482
69.558151 61.907421 -0.97913897
71.946884 61.008091 -0.94055289
72.227249 60.902538 -0.73279345
71.988274 60.992508 -0.47569743
73.744858 60.331177 -0.2908043
72.426712 60.827442 0
72.402344 60.836617 0.25074133
69.574547 61.908936 -0.98158151
71.955246 61.015911 -0.94111526
72.279045 60.894451 -0.73707229
73.779045 60.331787 -0.58207262
73.768745 60.335651 -0.29138485
72.415909 60.843113 0
72.69323 60.73909 0.25930414
69.586334 61.912209 -0.98321301
71.9636 61.02375 -0.94167757
72.273163 60.908058 -0.73621553
73.764091 60.350849 -0.58091944
73.78289 60.343822 -0.29167485
72.60498 60.784046 0
72.979485 60.644085 0.26772141
69.574951 61.924137 -0.98076731
71.962433 61.035145 -0.94111526
72.252838 60.927013 -0.73407614
73.768494 60.362652 -0.58091944
64 64 -0
73.642921 60.409409 0
73.105278 60.6096 0.27134976
69.489418 61.963535 -0.96528536
71.985069 61.037701 -0.94336677
72.270996 60.931625 -0.73536044
73.826218 60.354671 -0.58408988
73.718628 60.394585 -0.28949818
73.676529 60.410202 0
73.09964 60.624218 0.27105975
69.579956 61.937614 -0.98076731
71.979118 61.050869 -0.94224209
72.221718 60.961205 -0.73065239
72.278015 60.940395 -0.49184182
73.713219 60.409939 -0.28920761
73.67598 60.423698 0
71.69014 61.157677 0.22897126
69.619553 61.930695 -0.98728704
71.996971 61.055252 -0.94392914
72.22538 60.971142 -0.73065239
73.796158 60.392727 -0.58178353
73.72242 60.419884 -0.28935263
73.631439 60.453384 0
71.693565 61.166973 0.22897126
69.625435 61.932384 -0.98810124
71.989212 61.063583 -0.94280446
72.207932 60.983196 -0.72894049
73.759514 60.412918 -0.57947826
73.705086 60.432922 -0.28877261
73.56031 60.486134 0
64 64 0
69.609367 61.945984 -0.98484135
71.987991 61.074986 -0.94224209
72.201942 60.996643 -0.7280854
73.75412 60.428272 -0.57890111
73.724014 60.439293 -0.28920761
73.139343 60.653389 0
71.693817 61.182705 0.22882625
69.509689 61.990028 -0.9669137
71.986732 61.086388 -0.94167757
72.215202 61.00304 -0.72894049
73.768158 60.436512 -0.57947826
73.72831 60.451046 -0.28920761
64 64 0
71.677689 61.199127 0.22824569
69.618973 61.957851 -0.98565871
71.956825 61.108185 -0.93773901
72.189873 61.023487 -0.72637355
73.757866 60.453621 -0.5786131
73.722832 60.466351 -0.28891763
64 64 0
71.676186 61.210182 0.2281007
69.523834 61.999981 -0.9685452
71.907753 61.136833 -0.93154675
72.198288 61.031639 -0.7268011
73.854538 60.431957 -0.58408988
73.761284 60.465721 -0.28993317
64 64 0
73.096542 60.706409 0.27018863
69.584457 61.993282 -0.97832167
71.862053 61.17485 -0.92535663
72.195786 61.054928 -0.72594595
73.804718 60.476776 -0.58063036
73.750237 60.496353 -0.28935263
72.6549 60.88995 0
72.967552 60.777603 0.26612529
69.56826 62.006695 -0.97506177
71.836746 61.194633 -0.92197824
72.146164 61.08387 -0.7212379
73.760277 60.506054 -0.57774794
73.754463 60.508137 -0.28935263
72.462631 60.970581 0
72.408798 60.989853 0.24943522
69.584641 62.008442 -0.97750747
71.840126 61.204105 -0.92197824
72.169022 61.086815 -0.7229498
73.759621 60.519588 -0.57745993
64 64 -0
72.932014 60.81472 0
72.143219 61.09602 0.24145298
69.647591 61.993683 -0.98810124
71.905746 61.191467 -0.92929518
72.15802 61.101849 -0.7216655
73.758949 60.533112 -0.57717192
73.718803 60.547375 -0.28804651
73.092789 60.769768 0
71.779457 61.236332 0.23056793
69.584778 62.023594 -0.97669327
71.985786 61.173893 -0.93830138
72.176041 61.106567 -0.7229498
73.76313 60.544907 -0.57717192
73.708282 60.564316 -0.28761151
73.140862 60.765121 0
71.645615 61.294281 0.22650403
69.661751 62.004047 -0.98973274
72.027534 61.170029 -0.94280446
72.208588 61.106201 -0.72551841
73.806328 60.542946 -0.57947826
73.707512 60.577782 -0.28746596
73.164383 60.769253 0
64 64 0
69.664162 62.010887 -0.98973274
72.045341 61.174679 -0.94449365
72.279892 61.092312 -0.73150915
72.053497 61.17181 -0.47569743
73.731255 60.582626 -0.28804651
73.197754 60.769978 0
71.588387 61.335148 0.22461735
69.657219 62.021 -0.98810124
72.048752 61.184402 -0.94449365
72.331848 61.085369 -0.73578799
71.978806 61.20887 -0.47108588
73.725578 60.597816 -0.2877565
73.280258 60.753597 0
71.571983 61.351181 0.2240368
69.538246 62.070126 -0.9669137
72.052147 61.19413 -0.94449365
72.25779 61.122467 -0.72894049
73.769936 60.595543 -0.57659477
73.705147 60.618118 -0.28703094
73.333313 60.747688 0
71.584999 61.356911 0.22432736
69.643303 62.041161 -0.98484135
72.050713 61.205532 -0.94392914
72.120628 61.181263 -0.71653152
73.764282 60.610741 -0.57601875
73.714134 60.628143 -0.28717595
73.342148 60.757263 0
71.563629 61.374603 0.22360124
69.556915 62.078671 -0.9693594
72.044487 61.218578 -0.94280446
72.046394 61.217922 -0.70968401
73.753693 60.627613 -0.57515359
73.713295 60.641582 -0.28703094
73.360825 60.763451 0
71.571716 61.382042 0.22374679
69.65271 62.053192 -0.98565871
72.047844 61.228302 -0.94280446
72.01091 61.24102 -0.70626032
73.782211 60.630978 -0.57659477
73.737 60.646553 -0.28761151
73.364731 60.774761 0
71.550316 61.399651 0.22302124
69.608292 62.076065 -0.97750747
72.051186 61.238026 -0.94280446
72.019089 61.249039 -0.70668787
71.941696 61.275589 -0.46791437
73.760704 60.651573 -0.28819206
73.329231 60.799591 0
71.54361 61.412151 0.22273068
69.632835 62.071449 -0.98158151
72.038422 61.247833 -0.94111526
72.0159 61.255543 -0.70626032
71.982491 61.266983 -0.47022071
71.953468 61.276917 -0.23478353
73.28685 60.8204 0
71.530418 61.421761 0.22229512
69.663239 62.06868 -0.98647285
72.056183 61.252625 -0.94280446
72.033791 61.260258 -0.70754462
71.975983 61.279972 -0.46964356
72.005936 61.26976 -0.23623464
72.083778 61.243214 0
71.533524 61.430862 0.22229512
69.590683 62.100964 -0.97343343
72.069107 61.259094 -0.94392914
72.032227 61.271622 -0.70711541
71.969482 61.292934 -0.46906754
72.014145 61.277763 -0.23637964
71.973763 61.291481 0
71.521881 61.444977 0.22186011
69.602325 62.104557 -0.97506177
72.067604 61.270473 -0.94336677
72.05497 61.27475 -0.70882726
71.96785 61.304222 -0.46877953
72.007591 61.290779 -0.23608965
71.981956 61.299454 0
71.524956 61.454067 0.22186011
69.576515 62.120796 -0.97017354
72.08535 61.275352 -0.94505596
72.121498 61.263172 -0.71439046
72.000504 61.303944 -0.47050872
72.00592 61.30212 -0.23594408
71.965485 61.315746 0
71.523094 61.464828 0.22171456
69.677193 62.094505 -0.98728704
72.093445 61.283508 -0.94561833
72.567711 61.124329 -0.75333422
71.974342 61.323486 -0.46877953
72.023956 61.306835 -0.23637964
71.978577 61.322063 0
71.53109 61.47226 0.22186011
69.674805 62.102932 -0.98647285
72.10154 61.291683 -0.94618064
72.936356 61.012604 -0.78543055
71.97757 61.333122 -0.46877953
72.002563 61.324768 -0.23565409
71.981812 61.331707 0
71.58342 61.46489 0.22331123
69.63018 62.125408 -0.97832167
72.104805 61.301472 -0.94618064
73.066605 60.981239 -0.79655689
73.845757 60.721817 -0.57832509
71.941696 61.355782 -0.23376741
71.999847 61.336418 0
71.773834 61.411671 0.22882625
69.665291 62.121319 -0.98402721
72.117714 61.308067 -0.94730753
73.036125 61.00351 -0.79356068
73.766243 60.761395 -0.5734244
73.784706 60.755272 -0.28790149
72.032692 61.336262 0
71.984123 61.352367 0.23492183
69.601852 62.149868 -0.97261924
72.130608 61.314693 -0.94843221
72.927628 61.051456 -0.78371871
73.760315 60.776443 -0.57284725
73.763947 60.775246 -0.28717595
72.114983 61.319851 0
72.007057 61.355495 0.23550239
69.632248 62.147373 -0.97750747
72.119377 61.329277 -0.94674516
72.389847 61.240311 -0.73621553
73.769112 60.786625 -0.57313532
64 64 -0
72.647255 61.155643 0
72.178085 61.309967 0.24043685
69.611 62.161873 -0.97343343
72.127419 61.337509 -0.94730753
72.119965 61.339951 -0.71225101
73.772987 60.798431 -0.57313532
73.70752 60.819881 -0.28528929
72.828735 61.107765 0
72.497383 61.216312 0.24972522
69.65551 62.154858 -0.98076731
72.13546 61.345757 -0.94786984
72.08902 61.360909 -0.70925647
73.767029 60.81345 -0.57255924
73.716286 60.830002 -0.28543428
72.797577 61.129738 0
72.653885 61.176617 0.25422412
69.690643 62.150997 -0.98647285
72.153168 61.350876 -0.94955903
72.077553 61.375446 -0.70797217
71.911278 61.42947 -0.4635897
73.739883 60.83532 -0.28601483
72.781235 61.146805 0
72.701782 61.172619 0.2555308
69.645836 62.173096 -0.97832167
72.146683 61.363861 -0.94843221
72.095375 61.380463 -0.70925647
72.022659 61.403992 -0.46993271
71.869827 61.453445 -0.23100962
72.715355 61.179848 0
72.700233 61.184738 0.25538525
69.709198 62.16021 -0.98891544
72.188553 61.361237 -0.95293528
72.078987 61.396545 -0.70754462
72.04055 61.408932 -0.47079673
72.046028 61.407166 -0.23608965
72.476028 61.2686 0
72.639336 61.215973 0.25349858
69.66906 62.180702 -0.98158151
72.162712 61.380447 -0.94955903
72.106567 61.398468 -0.70968401
72.048615 61.417065 -0.47108588
72.063988 61.412132 -0.23652464
72.117538 61.394947 0
72.410133 61.301048 0.24667743
69.643013 62.196579 -0.97669327
72.170708 61.388767 -0.9501214
72.143921 61.397327 -0.71267855
72.041862 61.429943 -0.47050872
72.062164 61.423458 -0.23637964
72.046326 61.42852 0
72.07679 61.418781 0.23680851
69.71003 62.178967 -0.98810124
72.177124 61.392162 -0.95068371
72.213982 61.380405 -0.71867096
72.053284 61.431656 -0.47108588
72.093437 61.41885 -0.23725076
72.052834 61.431801 0
72.028847 61.439449 0.23535739
69.712219 62.185867 -0.98810124
72.189964 61.398964 -0.9518106
72.251381 61.379459 -0.7216655
72.051437 61.442959 -0.47079673
72.09655 61.428631 -0.23725076
72.041039 61.446262 0
72.012123 61.455444 0.23477684
69.676704 62.204693 -0.98158151
72.18824 61.4104 -0.95124608
72.293701 61.377045 -0.72508919
72.093979 61.440212 -0.47310308
72.035217 61.458794 -0.23536353
72.083824 61.443424 0
72.020142 61.463562 0.23492183
69.716591 62.199677 -0.98810124
72.196228 61.418766 -0.9518106
72.32135 61.37936 -0.72722864
72.156273 61.431347 -0.47656259
73.758255 60.926834 -0.28572482
72.081947 61.454754 0
72.003372 61.4795 0.23434128
69.723473 62.205105 -0.98891544
72.209023 61.425632 -0.95293528
72.265739 61.407845 -0.72209466
73.793076 60.928871 -0.57198215
73.756989 60.940186 -0.28557926
72.089981 61.462967 0
72.026245 61.482952 0.23492183
69.640717 62.238544 -0.97424763
72.187881 61.443127 -0.9501214
72.214951 61.434669 -0.7173866
73.742477 60.957661 -0.56881171
73.755722 60.953526 -0.28543428
72.495453 61.347076 0
72.034241 61.491104 0.23506683
69.737244 62.216003 -0.99054694
72.22007 61.44397 -0.95349765
72.227859 61.441547 -0.71824336
73.706635 60.981724 -0.56650537
73.769333 60.962227 -0.28572482
72.712379 61.290886 0
72.067047 61.49155 0.23593795
69.621346 62.259487 -0.97017354
72.22802 61.452396 -0.9540621
72.314316 61.425678 -0.72551841
72.371193 61.40807 -0.48838231
73.743195 60.983261 -0.28485373
72.775291 61.282948 0
72.124664 61.484398 0.23753406
69.647064 62.259003 -0.97424763
72.221375 61.465336 -0.95293528
72.420425 61.403969 -0.73450369
72.34465 61.42733 -0.48665199
73.677322 61.016468 -0.28282204
72.778564 61.293552 0
72.152527 61.486565 0.23825963
69.66806 62.260025 -0.97750747
72.214722 61.478252 -0.9518106
72.443192 61.408119 -0.73621553
72.278526 61.458668 -0.48261645
73.675957 61.029686 -0.28267705
72.717148 61.324017 0
72.215179 61.478115 0.24000129
69.655975 62.27121 -0.97506177
72.217766 61.488182 -0.9518106
72.519974 61.395809 -0.74263549
72.207397 61.491348 -0.47829291
73.724258 61.02771 -0.28398317
72.496407 61.403011 0
72.223183 61.486526 0.24014629
69.714806 62.260773 -0.98484135
72.230507 61.495155 -0.95293528
72.582054 61.388168 -0.74777108
72.180725 61.510307 -0.47656259
64 64 -0
72.509491 61.410252 0
72.241135 61.49192 0.24058186
69.68853 62.276279 -0.97995317
72.243263 61.502151 -0.9540621
72.653984 61.377697 -0.75376177
72.307487 61.482693 -0.48376963
73.696594 61.061768 -0.28296703
72.786568 61.337521 0
72.298874 61.485302 0.24217853
69.718994 62.27459 -0.98484135
72.241394 61.513588 -0.95349765
72.897987 61.315495 -0.77473176
72.523468 61.428486 -0.49616536
73.725006 61.065983 -0.2836926
72.934288 61.304543 0
72.301903 61.495331 0.24217853
69.716347 62.282921 -0.98402721
72.239532 61.525009 -0.95293528
73.147072 61.252399 -0.79612929
73.670952 61.095036 -0.56275785
73.723572 61.079231 -0.28354761
72.832855 61.346783 0
72.349716 61.491909 0.24348465
69.713684 62.291245 -0.98321301
72.242516 61.534966 -0.95293528
73.288094 61.222271 -0.80811077
71.905212 61.635838 -0.45984218
73.672325 61.107361 -0.28195092
72.801147 61.367901 0
72.432404 61.478176 0.24580687
69.729965 62.293919 -0.98565871
72.264969 61.539124 -0.95518684
73.330811 61.221775 -0.81153446
73.717606 61.106606 -0.56506419
73.561264 61.153156 -0.27861315
72.824272 61.372593 0
72.455368 61.482437 0.24638744
69.740463 62.294567 -0.98728704
72.256721 61.547012 -0.9540621
73.362007 61.218643 -0.81410146
73.481331 61.183193 -0.5512262
73.577934 61.154491 -0.27904868
72.790947 61.388298 0
72.466843 61.484589 0.24667743
69.666672 62.323936 -0.97424763
72.254791 61.558434 -0.95349765
73.375214 61.227043 -0.81495821
73.445045 61.206387 -0.54891986
73.671059 61.139538 -0.28166091
72.888916 61.370876 0
72.539635 61.474186 0.24870911
69.735092 62.311234 -0.98565871
72.272369 61.564102 -0.95518684
73.383484 61.236923 -0.81538576
73.373993 61.239716 -0.54459625
73.704414 61.142422 -0.28253147
73.62603 61.165501 0
72.582558 61.472763 0.24987023
69.703918 62.3279 -0.97995317
72.28994 61.569809 -0.95687604
73.411438 61.241043 -0.81752521
73.32769 61.265594 -0.54171389
73.717842 61.151222 -0.28282204
64 64 0
72.63549 61.468513 0.25132188
69.691696 62.338951 -0.97750747
72.283104 61.58268 -0.95574915
73.414764 61.252419 -0.81752521
73.301186 61.285564 -0.53998363
73.721275 61.162968 -0.28282204
73.702789 61.168362 0
72.668465 61.470215 0.25219247
69.650978 62.358238 -0.97017354
72.300659 61.588436 -0.95743835
73.44767 61.255196 -0.82009381
73.423676 61.262169 -0.5469026
73.694748 61.183418 -0.28195092
64 64 0
72.7314 61.463295 0.25393412
69.714684 62.347214 -0.98076731
72.303574 61.598465 -0.95743835
73.43618 61.270897 -0.81880951
73.436905 61.270683 -0.54747868
73.633247 61.213902 -0.28006425
73.694618 61.196152 0
72.754425 61.468071 0.25451469
69.740425 62.347286 -0.98484135
72.316238 61.605686 -0.95856524
73.444397 61.28088 -0.81923705
73.440201 61.282089 -0.54747868
73.541733 61.252857 -0.27730703
73.642975 61.223709 0
72.777458 61.4729 0.25509524
69.709167 62.36375 -0.97913897
72.328888 61.612938 -0.95968992
73.42794 61.297951 -0.81752521
73.577744 61.255016 -0.5552628
73.654945 61.232891 -0.28049982
73.536255 61.266907 0
72.830452 61.469193 0.25654635
69.706375 62.372013 -0.97832167
72.317101 61.62719 -0.95800072
73.421333 61.31216 -0.81667012
73.54126 61.277946 -0.55295646
73.693268 61.234581 -0.28151593
73.494507 61.291283 0
72.853493 61.474159 0.25712693
72.344406 61.630299 -0.9608146
73.449265 61.316536 -0.81880951
73.54454 61.289474 -0.55295646
73.716599 61.240616 -0.28209648
73.708061 61.243038 0
72.876534 61.479179 0.25770748
69.724564 62.381771 -0.98076731
72.342377 61.641766 -0.96025223
73.442627 61.330746 -0.81795442
73.503014 61.313675 -0.55036211
73.719925 61.252357 -0.28209648
73.69635 61.259022 0
72.914589 61.480011 0.25872359
69.816933 62.363247 -0.99625248
72.364784 61.646339 -0.96250379
73.445847 61.342155 -0.81795442
73.605827 61.297142 -0.55612689
73.698212 61.271145 -0.28137037
73.709671 61.267921 0
72.997665 61.468262 0.26104581
69.785583 62.379612 -0.99054694
72.377419 61.653706 -0.96363062
73.434212 61.357727 -0.81667012
73.638985 61.300377 -0.55785716
73.661484 61.294075 -0.28020981
73.70295 61.282459 0
73.030739 61.47073 0.26191637
69.744682 62.398548 -0.98321301
72.375336 61.665199 -0.9630661
73.457184 61.363613 -0.81838197
73.597397 61.324524 -0.5552628
73.60968 61.321102 -0.27861315
73.671127 61.30397 0
73.023766 61.484436 0.26162583
69.705658 62.424278 -0.97587913
72.37606 61.686798 -0.96250379
73.448669 61.390575 -0.81709766
73.748428 61.307793 -0.56362301
73.866577 61.275162 -0.28586984
73.552185 61.361988 0
73.104965 61.485497 0.26380306
69.802872 62.404976 -0.99217528
72.388664 61.694225 -0.96363062
73.45182 61.401997 -0.81709766
73.741692 61.322319 -0.56304586
73.899925 61.278828 -0.28674039
73.720985 61.328011 0
73.118004 61.493752 0.26409304
69.666542 62.44981 -0.9685452
72.420845 61.69632 -0.96700686
73.464867 61.410706 -0.81795442
73.774849 61.325905 -0.56477511
73.923256 61.285305 -0.28732094
73.804535 61.317783 0
73.166161 61.492424 0.26539972
69.710396 62.441521 -0.97587913
72.417336 61.702744 -0.96644449
73.461456 61.417782 -0.81752521
73.826378 61.318188 -0.56765854
73.914879 61.294033 -0.28703094
73.856354 61.310005 0
73.202751 61.488388 0.2664153
69.707489 62.449722 -0.97506177
72.410286 61.715584 -0.96531767
73.469543 61.427864 -0.81795442
73.824623 61.331417 -0.56737053
73.893051 61.312832 -0.28630483
73.869652 61.319187 0
73.250908 61.487251 0.26772141
69.776169 62.438557 -0.98647285
72.442482 61.717785 -0.96869606
73.477592 61.437969 -0.81838197
73.812851 61.347343 -0.56650537
73.961517 61.307152 -0.28819206
73.852791 61.336548 0
73.299103 61.486221 0.26902807
69.754196 62.451958 -0.98239881
72.440331 61.729309 -0.96813369
73.465805 61.453426 -0.81709766
73.811058 61.360542 -0.56621736
74.004898 61.308395 -0.28935263
73.820808 61.357922 0
73.307152 61.496109 0.26917309
69.756058 62.458912 -0.98239881
72.447975 61.738197 -0.96869606
73.488708 61.459557 -0.81880951
73.79425 61.37775 -0.56506419
74.023209 61.316452 -0.28978819
73.86924 61.357674 0
73.375427 61.489887 0.27105975
69.772232 62.462051 -0.98484135
72.455605 61.747097 -0.96925843
73.481865 61.473663 -0.81795442
73.817413 61.384262 -0.56621736
73.92099 61.356663 -0.28674039
74.008232 61.33342 0
73.433678 61.486504 0.27265587
69.783653 62.466492 -0.98647285
72.463226 61.756016 -0.96982074
73.489868 61.483807 -0.81838197
73.835548 61.392151 -0.56708145
73.828751 61.393955 -0.28398317
74.041626 61.337513 0
73.456802 61.492577 0.27323642
69.823738 62.463394 -0.99299258
72.456116 61.768833 -0.96869606
73.522675 61.487419 -0.82094896
73.853706 61.400078 -0.56794655
73.80677 61.41246 -0.2832576
74.014648 61.357613 0
73.505058 61.492065 0.27454311
69.777771 62.482986 -0.98484135
72.468628 61.776474 -0.96982074
73.540604 61.495014 -0.82223326
73.831825 61.418552 -0.56650537
73.804848 61.425636 -0.28311205
73.897003 61.40144 0
73.548279 61.493 0.27570367
69.71743 62.506214 -0.97424763
72.4664 61.787991 -0.96925843
73.568459 61.500057 -0.82437271
73.789902 61.4422 -0.56391102
73.807953 61.437485 -0.28311205
73.784309 61.443665 0
73.5513 61.504539 0.27570367
69.848404 62.479538 -0.99625248
72.483826 61.794388 -0.97094762
73.586388 61.507744 -0.82565701
76.100876 60.854031 -0.69680691
73.85128 61.438877 -0.28427315
73.807541 61.450249 0
73.609642 61.501698 0.27730033
69.759308 62.510128 -0.98076731
72.476631 61.807186 -0.96982074
73.589386 61.519329 -0.82565701
76.114677 60.866066 -0.69738293
73.85939 61.449482 -0.28441817
73.795509 61.466007 0
73.662956 61.500298 0.27875143
69.746735 62.520786 -0.97832167
72.484192 61.816166 -0.97038311
73.62719 61.521957 -0.82865316
76.108444 60.883282 -0.69680691
81.290581 59.549397 -0.49863341
73.818726 61.472656 0
73.736435 61.493835 0.28078368
69.825134 62.50811 -0.99136108
72.486824 61.826416 -0.97038311
73.645081 61.529774 -0.82993585
76.112198 60.897915 -0.69680691
81.260704 59.579319 -0.4976173
81.944427 59.404209 0
73.734406 61.506897 0.28063813
69.774261 62.528572 -0.98239881
72.489449 61.836674 -0.97038311
73.662987 61.537624 -0.83122015
76.110931 60.913826 -0.6965189
81.286179 59.595047 -0.49819785
81.904579 59.437462 0
73.742462 61.517372 0.28078368
69.819153 62.52462 -0.98973274
72.496994 61.84568 -0.97094762
73.670929 61.548042 -0.83164769
76.124672 60.925922 -0.69709492
81.321701 59.608276 -0.49906844
64 64 0
81.800018 59.487003 0.51284957
69.772995 62.543743 -0.98158151
72.494652 61.857197 -0.97038311
73.693802 61.554707 -0.8333596
76.13842 60.938042 -0.69767207
81.326996 59.629208 -0.49906844
81.920593 59.479469 0
81.835678 59.500889 0.5137201
69.798737 62.544701 -0.98565871
72.502174 61.866222 -0.97094762
73.691772 61.567669 -0.83293205
76.137077 60.953976 -0.69738293
81.322189 59.652676 -0.49877843
81.910889 59.504929 0
64 64 0
69.861946 62.5326 -0.99625248
72.528107 61.865189 -0.9737615
73.698212 61.572281 -0.8333596
76.148964 60.958794 -0.69796008
81.350014 59.656834 -0.49950397
81.868164 59.527126 0
64 64 0
72.515884 61.879181 -0.9720723
73.696167 61.585239 -0.83293205
76.157639 60.972225 -0.69824809
81.345154 59.680313 -0.49921343
81.873558 59.548717 0
81.829018 59.559811 0.51313955
69.779099 62.568172 -0.98158151
72.548042 61.882137 -0.97545069
73.719009 61.592018 -0.8346439
76.146225 60.990654 -0.69738293
81.370544 59.696274 -0.49979398
81.863762 59.574074 0
81.82933 59.582607 0.51299459
72.525909 61.898552 -0.97263461
73.726891 61.602535 -0.83507144
76.169937 61.000378 -0.6985361
81.370682 59.71851 -0.49964899
81.859001 59.598152 0
81.834656 59.604153 0.51299459
69.777748 62.583317 -0.98076731
72.533394 61.907642 -0.97319913
73.734764 61.613071 -0.83549899
76.173553 61.015087 -0.6985361
81.396034 59.73455 -0.50022954
81.859253 59.620972 0
81.81472 59.631893 0.51226902
69.870705 62.568043 -0.99625248
72.535919 61.917953 -0.97319913
73.732658 61.626049 -0.83507144
76.177155 61.029797 -0.6985361
81.39109 59.758034 -0.49993953
81.844307 59.647488 0
81.825027 59.652191 0.51241398
69.814781 62.589123 -0.98647285
72.558182 61.923477 -0.97545069
73.725548 61.640232 -0.83421636
76.200844 61.039635 -0.69968927
81.421448 59.772926 -0.50066513
81.889999 59.659241 0
81.825226 59.674957 0.51226902
69.878944 62.581074 -0.99706662
72.54586 61.937397 -0.9737615
73.743347 61.648373 -0.83549899
76.219498 61.050735 -0.70055443
81.431595 59.792763 -0.50081009
81.854767 59.690624 0
81.825394 59.697716 0.512124
69.837402 62.598564 -0.98973274
72.52858 61.952469 -0.97150993
73.75618 61.657749 -0.83635575
76.212982 61.067921 -0.69997728
81.436661 59.813828 -0.50081009
81.85997 59.7122 0
81.815414 59.722897 0.51168847
69.824661 62.609062 -0.98728704
72.531044 61.962776 -0.97150993
73.749008 61.671925 -0.83549899
76.221565 61.081474 -0.70026642
81.441711 59.8349 -0.50081009
81.870193 59.732578 0
81.815521 59.745632 0.51154345
69.87442 62.604683 -0.99543512
72.55822 61.967216 -0.97432381
73.7668 61.680145 -0.83678335
76.225082 61.096245 -0.70026642
81.466949 59.851173 -0.50139064
81.850021 59.760185 0
81.83075 59.764763 0.51183343
72.555725 61.978725 -0.9737615
73.779579 61.68959 -0.83763844
76.23864 61.108643 -0.70084244
81.492188 59.867504 -0.50197124
81.839928 59.785347 0
81.81057 59.792286 0.51110792
69.762306 62.646015 -0.97587913
72.57795 61.984413 -0.976013
73.792374 61.699059 -0.83849519
76.227013 61.126984 -0.69997728
81.497162 59.888641 -0.50197124
81.860214 59.803333 0
81.825768 59.811428 0.51139843
69.778366 62.649609 -0.97832167
72.580383 61.994781 -0.976013
73.80014 61.709724 -0.83892274
76.255676 61.135872 -0.70141959
81.51223 59.907425 -0.50226122
81.839912 59.830845 0
81.805496 59.838886 0.51067233
69.698143 62.675613 -0.964468
72.572891 62.007454 -0.97488618
73.812912 61.719242 -0.8397795
76.26416 61.149509 -0.7017076
81.517166 59.928585 -0.50226122
81.855087 59.850044 0
81.790268 59.865112 0.51009178
69.805702 62.658005 -0.98239881
72.590149 62.014378 -0.97657537
73.815659 61.731102 -0.8397795
76.282722 61.160835 -0.70257276
81.537262 59.946243 -0.50269675
81.829674 59.878654 0
81.79525 59.886608 0.51009178
69.75914 62.676098 -0.97424763
72.592545 62.024761 -0.97657537
73.833389 61.739513 -0.84106219
76.296219 61.173363 -0.70314878
81.537094 59.968601 -0.50255179
81.865067 59.893204 0
81.800209 59.908115 0.51009178
69.789658 62.676445 -0.97913897
72.604836 62.032875 -0.9777022
73.841133 61.750252 -0.8414914
76.3097 61.185921 -0.7037248
81.577415 59.981686 -0.50356787
81.804054 59.929874 0
81.779816 59.935417 0.50936621
69.882011 62.659073 -0.99462098
72.615921 62.03582 -0.97882688
73.827469 61.759621 -0.84020704
76.306358 61.194504 -0.70343679
81.589966 59.989998 -0.50385791
81.857254 59.929062 0
81.787323 59.945004 0.50951123
69.767929 62.69241 -0.97506177
72.623245 62.045109 -0.97938925
73.845192 61.768089 -0.8414914
76.304703 61.210522 -0.70314878
81.57959 60.014702 -0.50342232
81.862152 59.950645 0
81.807419 59.963051 0.50994676
69.822548 62.68742 -0.98402721
72.605774 62.059998 -0.97713768
73.857895 61.777733 -0.84234649
76.30806 61.225391 -0.70314878
81.594543 60.033657 -0.50371289
81.851814 59.975658 0
81.792007 59.989143 0.50936621
69.742142 62.712837 -0.97017354
72.637871 62.063728 -0.98051608
73.850563 61.791889 -0.8414914
76.336639 61.234608 -0.70458996
81.619606 60.050373 -0.50429344
81.846497 59.999512 0
81.796844 60.010643 0.50936621
69.709908 62.727306 -0.964468
72.630272 62.076378 -0.97938925
73.858231 61.802677 -0.84191895
76.339973 61.249516 -0.70458996
81.619293 60.072796 -0.50414842
81.841171 60.023342 0
81.796585 60.033279 0.5092212
69.836929 62.706394 -0.98565871
72.627632 62.087906 -0.97882688
73.865883 61.81348 -0.84234649
76.348335 61.263309 -0.70487797
81.639236 60.090717 -0.50458342
81.830711 60.048283 0
81.796295 60.055908 0.50907624
69.872269 62.706005 -0.99136108
72.624985 62.099426 -0.97826457
73.86351 61.826508 -0.84191895
76.346581 61.279346 -0.70458996
81.674408 60.105324 -0.50545454
81.850723 60.066467 0
81.795959 60.078537 0.50893068
69.830376 62.722622 -0.98402721
72.612373 62.113113 -0.97657537
73.876144 61.836231 -0.84277403
76.349861 61.294266 -0.70458996
81.694313 60.123348 -0.50588953
81.814789 60.096954 0
81.795609 60.101154 0.50878567
69.754639 62.746502 -0.97098774
72.629547 62.120274 -0.97826457
73.878754 61.848167 -0.84277403
76.348076 61.310291 -0.70430195
81.673599 60.150261 -0.50516403
81.839836 60.114048 0
81.774925 60.128189 0.5080601
69.905914 62.72102 -0.99625248
72.631813 62.130703 -0.97826457
73.86631 61.863361 -0.8414914
76.36142 61.323025 -0.70487797
81.698555 60.167217 -0.50574458
81.839417 60.136715 0
81.810059 60.143074 0.50893068
69.752823 62.761452 -0.97017354
72.653938 62.136856 -0.98051608
73.878914 61.873127 -0.84234649
76.389938 61.332516 -0.70632029
81.728577 60.18314 -0.50647014
81.854263 60.156078 0
81.80455 60.166782 0.50864065
69.83165 62.75185 -0.98321301
72.63134 62.15263 -0.9777022
73.871445 61.887211 -0.8414914
76.388084 61.348576 -0.70603114
81.728096 60.20565 -0.50632513
81.863976 60.176567 0
81.788841 60.192646 0.5080601
69.8815 62.748611 -0.99136108
72.628586 62.164124 -0.97713768
73.889038 61.895939 -0.84277403
76.421646 61.357082 -0.70776147
81.722511 60.229233 -0.50603515
81.848221 60.202488 0
81.793427 60.214146 0.5080601
69.921692 62.747536 -0.99788082
72.630791 62.174549 -0.97713768
73.891579 61.90789 -0.84277403
76.399529 61.377445 -0.70632029
81.732132 60.249577 -0.50618011
81.847702 60.225132 0
81.792908 60.236721 0.50791508
69.729721 62.795368 -0.96528536
72.637978 62.183929 -0.9777022
73.884056 61.921951 -0.84191895
76.402687 61.392429 -0.70632029
64 64 -0
81.852257 60.2467 0
81.787262 60.260365 0.50762457
69.827927 62.782074 -0.98158151
72.655075 62.191254 -0.97938925
73.896606 61.931797 -0.84277403
76.410889 61.406361 -0.7066083
81.730957 60.294567 -0.50588953
81.856781 60.268272 0
81.796875 60.280792 0.50777012
69.877808 62.77906 -0.98973274
72.662247 62.200676 -0.97995377
73.894073 61.944801 -0.84234649
76.419075 61.420307 -0.70689631
81.715073 60.320221 -0.50530899
81.876564 60.286674 0
81.791168 60.304417 0.50747955
72.674362 62.209091 -0.98107845
73.896545 61.956757 -0.84234649
76.442444 61.431133 -0.70804948
81.714417 60.342678 -0.50516403
81.840256 60.3167 0
81.800705 60.324867 0.50762457
72.670464 62.215355 -0.98051608
73.892761 61.963772 -0.84191895
76.438934 61.43969 -0.70776147
81.731903 60.350239 -0.50559956
81.832275 60.329578 0
81.772385 60.341904 0.50675398
69.84272 62.804749 -0.98321301
72.692535 62.22176 -0.98276764
73.89521 61.975727 -0.84191895
76.462288 61.450577 -0.70891464
81.715935 60.375832 -0.50501901
81.852005 60.347996 0
81.781883 60.362343 0.506899
69.887756 62.802944 -0.99054694
72.689682 62.23328 -0.98220313
73.897652 61.987686 -0.84191895
76.45015 61.468727 -0.70804948
81.720299 60.397243 -0.50501901
81.835999 60.373718 0
81.791351 60.382797 0.50704396
72.706757 62.240761 -0.98389232
73.910126 61.997612 -0.84277403
76.488693 61.476601 -0.71006781
81.714439 60.420715 -0.50472844
81.840363 60.395271 0
81.790619 60.405323 0.506899
69.905174 62.814259 -0.99299258
72.674011 62.258282 -0.97995377
73.912537 62.00959 -0.84277403
76.486649 61.492714 -0.70977867
81.71875 60.442123 -0.50472844
81.834511 60.41888 0
81.774567 60.430916 0.50631845
69.814491 62.839771 -0.97750747
72.69603 62.26479 -0.98220313
73.935074 62.017548 -0.84448594
76.479538 61.509827 -0.70920265
81.707764 60.466583 -0.50429344
81.84903 60.438396 0
81.77887 60.452396 0.50631845
69.812439 62.854782 -0.97669327
72.730118 62.279915 -0.98558152
73.909622 62.047516 -0.84191895
76.515961 61.533997 -0.71093184
81.711159 60.510391 -0.50414842
81.82695 60.487576 0
81.756805 60.501396 0.50544786
72.70726 62.295345 -0.98276764
73.917007 62.058506 -0.84234649
76.508789 61.551105 -0.71035582
81.710251 60.532795 -0.50400287
81.826057 60.51012 0
